passes_logs/2026/01/25/R3.2S_Murmansk_2ch/R3.2S_Murmansk_2ch__20260125_195826_TY-39_rec.log

#Pass ID: 20260125_195826_TY-39
#Satellite: TY-39
#Configuration: TY-39
#almurnet v.1.7.20251203
#Start time: 2026-01-25 19:58:27

#Version: 2.2.20260125
#Station: R3.2S_Murmansk_2ch
#Location: 33.079688 lon 68.888172 lat
#TLE: 1 51832U 22019J   26024.96711751  .00003048  00000-0  14574-3 0  9993
#TLE: 2 51832  97.3626  91.4130 0009162  21.3948 338.7669 15.19714183216042

#Time	Az	El	Level	Level2	SNR	BER	BlckErr	Temp	State	Recorded	gain1	gain2
2026-01-25 19:58:27.27	207.54	2.04	-47.9	-50.0	3.7	0.00e+00	0	47	0	0	66	19441
2026-01-25 19:58:28.26	207.63	2.10	-47.9	-50.0	3.7	0.00e+00	0	47	104	0	67	18369
2026-01-25 19:58:29.26	207.72	2.16	-47.9	-50.1	3.7	0.00e+00	0	47	104	0	67	18396
2026-01-25 19:58:30.27	207.81	2.22	-47.9	-50.1	3.7	0.00e+00	0	48	104	0	67	18413
2026-01-25 19:58:31.28	207.90	2.29	-47.9	-50.0	3.7	0.00e+00	0	47	104	0	67	18296
2026-01-25 19:58:32.28	207.99	2.35	-47.9	-50.1	3.7	0.00e+00	0	48	104	0	67	18393
2026-01-25 19:58:33.29	208.09	2.41	-47.9	-50.0	3.7	0.00e+00	0	48	104	0	67	18385
2026-01-25 19:58:34.30	208.18	2.47	-47.9	-50.0	3.7	0.00e+00	0	48	104	0	67	18370
2026-01-25 19:58:35.31	208.27	2.54	-48.1	-50.2	3.7	0.00e+00	0	48	104	0	67	18797
2026-01-25 19:58:36.31	208.37	2.60	-48.2	-50.3	3.7	0.00e+00	0	48	104	0	67	18984
2026-01-25 19:58:37.32	208.46	2.66	-48.2	-50.4	3.7	0.00e+00	0	48	104	0	67	19056
2026-01-25 19:58:38.33	208.56	2.73	-48.2	-50.4	3.7	0.00e+00	0	48	104	0	67	19092
2026-01-25 19:58:39.34	208.65	2.79	-48.2	-50.3	3.7	0.00e+00	0	48	104	0	67	18997
2026-01-25 19:58:40.35	208.75	2.86	-48.2	-50.3	3.7	0.00e+00	0	48	104	0	67	19028
2026-01-25 19:58:41.36	208.84	2.92	-48.2	-50.4	3.7	0.00e+00	0	48	104	0	67	19043
2026-01-25 19:58:42.37	208.94	2.98	-48.2	-50.3	3.7	0.00e+00	0	48	104	0	67	18979
2026-01-25 19:58:43.38	209.04	3.05	-48.2	-50.3	3.7	0.00e+00	0	48	104	0	67	18907
2026-01-25 19:58:44.39	209.14	3.11	-48.1	-50.3	3.7	0.00e+00	0	48	104	0	67	18843
2026-01-25 19:58:45.40	209.23	3.18	-48.1	-50.3	3.7	0.00e+00	0	48	104	0	67	18869
2026-01-25 19:58:46.41	209.33	3.24	-48.1	-50.2	3.7	0.00e+00	0	48	104	0	67	18733
2026-01-25 19:58:47.42	209.43	3.31	-48.0	-50.2	3.7	0.00e+00	0	48	104	0	67	18625
2026-01-25 19:58:48.43	209.53	3.37	-48.0	-50.1	3.7	0.00e+00	0	49	104	0	67	18582
2026-01-25 19:58:49.44	209.63	3.44	-48.0	-50.1	3.7	0.00e+00	0	48	104	0	67	18521
2026-01-25 19:58:50.44	209.74	3.50	-48.0	-50.1	3.7	0.00e+00	0	49	104	0	67	18451
2026-01-25 19:58:51.45	209.84	3.57	-47.9	-50.0	3.7	0.00e+00	0	49	104	0	67	18306
2026-01-25 19:58:52.46	209.94	3.64	-47.7	-49.9	3.7	0.00e+00	0	49	104	0	66	19057
2026-01-25 19:58:53.47	210.04	3.70	-47.6	-49.7	3.7	0.00e+00	0	49	104	0	66	18795
2026-01-25 19:58:54.48	210.15	3.77	-47.5	-49.6	3.7	0.00e+00	0	49	104	0	66	18580
2026-01-25 19:58:55.49	210.25	3.83	-47.2	-49.4	3.7	0.00e+00	0	49	104	0	66	18008
2026-01-25 19:58:56.50	210.35	3.90	-46.9	-49.1	3.7	0.00e+00	0	49	104	0	65	18391
2026-01-25 19:58:57.51	210.46	3.97	-46.6	-48.8	3.7	0.00e+00	0	49	104	0	65	17813
2026-01-25 19:58:58.52	210.57	4.03	-46.6	-48.7	3.7	0.00e+00	0	49	104	0	65	17701
2026-01-25 19:58:59.53	210.67	4.10	-46.6	-48.7	3.7	0.00e+00	0	49	104	0	65	17625
2026-01-25 19:59:00.54	210.78	4.17	-46.6	-48.7	3.7	0.00e+00	0	49	104	0	65	17650
2026-01-25 19:59:01.55	210.89	4.23	-46.6	-48.7	3.7	0.00e+00	0	49	104	0	65	17700
2026-01-25 19:59:02.56	211.00	4.30	-46.6	-48.7	3.7	0.00e+00	0	49	104	0	65	17648
2026-01-25 19:59:03.57	211.10	4.37	-46.6	-48.7	3.7	0.00e+00	0	49	104	0	65	17667
2026-01-25 19:59:04.58	211.21	4.44	-46.5	-48.7	3.7	0.00e+00	0	49	104	0	65	17629
2026-01-25 19:59:05.59	211.32	4.50	-46.6	-48.7	3.7	0.00e+00	0	49	104	0	65	17638
2026-01-25 19:59:06.60	211.43	4.57	-46.6	-48.7	3.7	0.00e+00	0	49	104	0	65	17682
2026-01-25 19:59:07.61	211.55	4.64	-46.5	-48.7	3.7	0.00e+00	0	49	104	0	65	17639
2026-01-25 19:59:08.63	211.66	4.71	-46.5	-48.6	3.7	0.00e+00	0	49	104	0	65	17550
2026-01-25 19:59:09.63	211.77	4.78	-46.5	-48.6	3.7	0.00e+00	0	49	104	0	65	17559
2026-01-25 19:59:10.64	211.88	4.85	-46.5	-48.7	3.7	0.00e+00	0	49	104	0	65	17565
2026-01-25 19:59:11.65	212.00	4.91	-46.5	-48.7	3.7	0.00e+00	0	49	104	0	65	17579
2026-01-25 19:59:12.66	212.11	4.98	-46.5	-48.6	3.7	0.00e+00	0	49	104	0	65	17546
2026-01-25 19:59:13.66	212.23	5.05	-46.5	-48.6	3.7	0.00e+00	0	49	104	0	65	17559
2026-01-25 19:59:14.67	212.34	5.12	-46.6	-48.7	3.7	0.00e+00	0	49	104	0	65	17667
2026-01-25 19:59:15.68	212.46	5.19	-46.5	-48.7	3.7	0.00e+00	0	49	104	0	65	17602
2026-01-25 19:59:16.69	212.58	5.26	-46.5	-48.6	3.7	0.00e+00	0	50	104	0	65	17536
2026-01-25 19:59:17.70	212.69	5.33	-46.6	-48.7	3.6	0.00e+00	0	49	104	0	65	17659
2026-01-25 19:59:18.71	212.81	5.40	-46.6	-48.7	3.7	0.00e+00	0	49	104	0	65	17755
2026-01-25 19:59:19.72	212.93	5.47	-46.5	-48.6	3.7	0.00e+00	0	49	104	0	65	17550
2026-01-25 19:59:20.73	213.05	5.54	-46.5	-48.6	3.7	0.00e+00	0	49	104	0	65	17492
2026-01-25 19:59:21.74	213.17	5.61	-46.5	-48.6	3.7	0.00e+00	0	49	104	0	65	17539
2026-01-25 19:59:22.75	213.29	5.68	-46.5	-48.7	3.7	0.00e+00	0	50	104	0	65	17609
2026-01-25 19:59:23.76	213.42	5.75	-46.5	-48.7	3.7	0.00e+00	0	50	104	0	65	17581
2026-01-25 19:59:24.77	213.54	5.82	-46.5	-48.6	3.7	0.00e+00	0	49	104	0	64	18506
2026-01-25 19:59:25.77	213.66	5.89	-46.5	-48.6	3.7	0.00e+00	0	50	104	0	64	18553
2026-01-25 19:59:26.78	213.79	5.96	-46.5	-48.6	3.7	0.00e+00	0	50	104	0	64	18586
2026-01-25 19:59:27.79	213.91	6.03	-46.5	-48.6	3.7	0.00e+00	0	50	104	0	64	18557
2026-01-25 19:59:28.80	214.04	6.11	-46.5	-48.6	3.7	0.00e+00	0	50	104	0	64	18450
2026-01-25 19:59:29.81	214.16	6.18	-46.5	-48.7	3.7	0.00e+00	0	50	104	0	64	18606
2026-01-25 19:59:30.82	214.29	6.25	-46.5	-48.7	3.7	0.00e+00	0	50	104	0	64	18618
2026-01-25 19:59:31.83	214.42	6.32	-46.5	-48.6	3.7	0.00e+00	0	50	104	0	64	18535
2026-01-25 19:59:32.84	214.55	6.39	-46.5	-48.6	3.7	0.00e+00	0	50	104	0	64	18545
2026-01-25 19:59:33.84	214.68	6.46	-46.5	-48.7	3.7	0.00e+00	0	50	104	0	64	18641
2026-01-25 19:59:34.86	214.81	6.54	-46.6	-48.7	3.7	0.00e+00	0	50	104	0	64	18694
2026-01-25 19:59:35.86	214.94	6.61	-46.5	-48.7	3.7	0.00e+00	0	50	104	0	64	18610
2026-01-25 19:59:36.88	215.07	6.68	-44.2	-45.0	4.1	0.00e+00	336	50	104	0	58	17289
2026-01-25 19:59:37.89	215.20	6.76	-29.6	-29.3	13.3	8.26e-02	0	50	0	16777216	31	13379
2026-01-25 19:59:38.90	215.34	6.83	-30.1	-29.9	13.0	2.08e-05	0	50	0	92274688	30	15127
2026-01-25 19:59:39.91	215.47	6.90	-30.0	-29.7	13.1	6.90e-06	0	51	0	167772160	30	14855
2026-01-25 19:59:40.92	215.61	6.98	-29.8	-29.5	13.2	6.90e-06	0	51	0	243269632	30	14538
2026-01-25 19:59:41.93	215.74	7.05	-29.5	-29.2	13.4	0.00e+00	0	51	0	318767104	30	14029
2026-01-25 19:59:42.93	215.88	7.12	-29.6	-29.3	13.4	0.00e+00	0	50	0	394264576	30	14215
2026-01-25 19:59:43.95	216.02	7.20	-29.6	-29.3	13.5	6.90e-06	0	51	0	469762048	30	14177
2026-01-25 19:59:44.96	216.15	7.27	-29.7	-29.4	13.4	0.00e+00	0	51	0	545259520	30	14367
2026-01-25 19:59:45.97	216.29	7.35	-29.7	-29.4	13.4	0.00e+00	0	51	0	629145600	30	14392
2026-01-25 19:59:46.98	216.43	7.42	-29.7	-29.4	13.4	1.38e-05	0	51	0	696254464	30	14311
2026-01-25 19:59:47.99	216.58	7.50	-29.9	-29.7	13.3	6.90e-06	0	51	0	771751936	30	14784
2026-01-25 19:59:49.00	216.72	7.57	-29.7	-29.5	13.4	6.90e-06	0	51	0	847249408	30	14450
2026-01-25 19:59:50.01	216.86	7.64	-29.7	-29.5	13.4	0.00e+00	0	51	0	922746880	30	14447
2026-01-25 19:59:51.02	217.00	7.72	-29.1	-28.8	13.8	6.90e-06	0	51	0	1006632960	30	13453
2026-01-25 19:59:52.03	217.15	7.80	-29.2	-28.9	13.8	0.00e+00	0	51	0	1082130432	30	13561
2026-01-25 19:59:53.04	217.29	7.87	-29.0	-28.8	13.9	0.00e+00	0	51	0	1157627904	30	13327
2026-01-25 19:59:54.05	217.44	7.95	-29.0	-28.7	13.9	0.00e+00	0	51	0	1224736768	29	14025
2026-01-25 19:59:55.06	217.59	8.02	-29.2	-28.9	13.8	0.00e+00	0	51	0	1300234240	29	14360
2026-01-25 19:59:56.07	217.74	8.10	-29.3	-29.0	13.7	0.00e+00	0	51	0	1375731712	29	14541
2026-01-25 19:59:57.07	217.88	8.17	-28.9	-28.6	14.0	0.00e+00	0	51	0	1459617792	29	13931
2026-01-25 19:59:58.08	218.03	8.25	-28.9	-28.6	14.0	0.00e+00	0	51	0	1535115264	29	13931
2026-01-25 19:59:59.09	218.18	8.33	-29.1	-28.8	13.9	0.00e+00	0	51	0	1610612736	29	14178
2026-01-25 20:00:00.10	218.34	8.40	-29.1	-28.8	13.9	0.00e+00	0	51	0	1686110208	29	14191
2026-01-25 20:00:01.11	218.49	8.48	-29.0	-28.7	14.0	0.00e+00	0	51	0	1761607680	29	14007
2026-01-25 20:00:02.12	218.64	8.56	-28.9	-28.6	14.0	0.00e+00	0	51	0	1837105152	29	13934
2026-01-25 20:00:03.13	218.80	8.63	-28.9	-28.6	14.0	0.00e+00	0	51	0	1912602624	29	13853
2026-01-25 20:00:04.14	218.95	8.71	-29.0	-28.7	14.0	0.00e+00	0	51	0	1988100096	29	14003
2026-01-25 20:00:05.15	219.11	8.79	-28.8	-28.5	14.1	0.00e+00	0	51	0	2063597568	29	13703
2026-01-25 20:00:06.16	219.27	8.87	-28.9	-28.7	14.0	0.00e+00	0	51	0	2139095040	29	13952
2026-01-25 20:00:07.17	219.43	8.94	-28.7	-28.4	14.1	0.00e+00	0	51	0	2214592512	29	13590
2026-01-25 20:00:08.18	219.59	9.02	-28.7	-28.4	14.1	0.00e+00	0	51	0	2290089984	29	13517
2026-01-25 20:00:09.19	219.75	9.10	-28.7	-28.4	14.1	0.00e+00	0	52	0	2365587456	29	13611
2026-01-25 20:00:10.20	219.91	9.18	-28.6	-28.3	14.2	0.00e+00	0	52	0	2441084928	29	13432
2026-01-25 20:00:11.21	220.07	9.26	-28.6	-28.3	14.2	0.00e+00	0	52	0	2516582400	29	13410
2026-01-25 20:00:12.22	220.24	9.33	-28.6	-28.3	14.2	0.00e+00	0	52	0	2592079872	29	13350
2026-01-25 20:00:13.23	220.40	9.41	-28.6	-28.3	14.2	0.00e+00	0	52	0	2667577344	29	13423
2026-01-25 20:00:14.24	220.57	9.49	-28.5	-28.2	14.2	0.00e+00	0	52	0	2743074816	29	13276
2026-01-25 20:00:15.25	220.74	9.57	-28.6	-28.3	14.2	0.00e+00	0	52	0	2818572288	29	13466
2026-01-25 20:00:16.26	220.91	9.65	-28.6	-28.3	14.2	0.00e+00	0	52	0	2894069760	29	13369
2026-01-25 20:00:17.26	221.07	9.73	-28.4	-28.1	14.2	0.00e+00	0	52	0	2969567232	28	13941
2026-01-25 20:00:18.27	221.24	9.81	-28.5	-28.2	14.2	0.00e+00	0	52	0	3045064704	28	13987
2026-01-25 20:00:19.28	221.41	9.89	-28.5	-28.2	14.2	0.00e+00	0	52	0	3120562176	28	14056
2026-01-25 20:00:20.29	221.59	9.97	-28.4	-28.1	14.3	0.00e+00	0	52	0	3196059648	28	13928
2026-01-25 20:00:21.30	221.76	10.05	-28.4	-28.1	14.3	0.00e+00	0	52	0	3271557120	28	13894
2026-01-25 20:00:22.31	221.94	10.13	-28.3	-28.0	14.4	0.00e+00	0	52	0	3347054592	28	13716
2026-01-25 20:00:23.32	222.11	10.21	-28.2	-27.9	14.5	0.00e+00	0	52	0	3422552064	28	13516
2026-01-25 20:00:24.33	222.29	10.29	-28.2	-27.9	14.5	0.00e+00	0	52	0	3498049536	28	13506
2026-01-25 20:00:25.34	222.47	10.37	-28.3	-28.0	14.4	0.00e+00	0	52	0	3573547008	28	13668
2026-01-25 20:00:26.35	222.65	10.45	-28.2	-27.9	14.5	0.00e+00	0	52	0	3649044480	28	13591
2026-01-25 20:00:27.36	222.83	10.53	-28.6	-28.3	14.3	0.00e+00	0	52	0	3724541952	28	14156
2026-01-25 20:00:28.37	223.01	10.61	-28.5	-28.2	14.4	0.00e+00	0	52	0	3808428032	28	13963
2026-01-25 20:00:29.38	223.19	10.69	-28.3	-28.0	14.3	0.00e+00	0	52	0	3883925504	28	13746
2026-01-25 20:00:30.40	223.38	10.77	-28.2	-27.9	14.4	0.00e+00	0	52	0	3951034368	28	13491
2026-01-25 20:00:31.41	223.57	10.85	-28.0	-27.7	14.5	0.00e+00	0	52	0	4026531840	27	14062
2026-01-25 20:00:32.42	223.75	10.94	-28.0	-27.7	14.5	0.00e+00	0	52	0	4102029312	27	13984
2026-01-25 20:00:33.43	223.94	11.02	-28.0	-27.7	14.5	0.00e+00	0	52	0	4185915392	27	14111
2026-01-25 20:00:34.44	224.13	11.10	-28.1	-27.8	14.6	0.00e+00	0	52	0	4261412864	27	14188
2026-01-25 20:00:35.45	224.32	11.18	-28.1	-27.8	14.5	0.00e+00	0	52	0	4336910336	27	14264
2026-01-25 20:00:36.46	224.51	11.26	-27.9	-27.6	14.6	0.00e+00	0	52	0	4412407808	27	13934
2026-01-25 20:00:37.47	224.71	11.34	-27.9	-27.6	14.6	0.00e+00	0	52	0	4487905280	27	13911
2026-01-25 20:00:38.48	224.90	11.43	-27.9	-27.6	14.6	0.00e+00	0	52	0	4563402752	27	13920
2026-01-25 20:00:39.49	225.10	11.51	-28.1	-27.8	14.6	0.00e+00	0	52	0	4638900224	27	14123
2026-01-25 20:00:40.50	225.29	11.59	-27.9	-27.6	14.7	0.00e+00	0	52	0	4714397696	27	13835
2026-01-25 20:00:41.50	225.49	11.67	-28.0	-27.7	14.6	0.00e+00	0	52	0	4789895168	27	14066
2026-01-25 20:00:42.51	225.69	11.75	-28.0	-27.7	14.6	0.00e+00	0	52	0	4865392640	27	13956
2026-01-25 20:00:43.52	225.89	11.84	-27.7	-27.4	14.7	0.00e+00	0	52	0	4940890112	27	13608
2026-01-25 20:00:44.53	226.09	11.92	-27.8	-27.4	14.7	0.00e+00	0	52	0	5016387584	27	13631
2026-01-25 20:00:45.54	226.29	12.00	-27.7	-27.4	14.8	0.00e+00	0	52	0	5091885056	27	13623
2026-01-25 20:00:46.54	226.50	12.08	-27.8	-27.5	14.7	0.00e+00	0	52	0	5167382528	27	13685
2026-01-25 20:00:47.55	226.70	12.17	-27.7	-27.4	14.8	0.00e+00	0	52	0	5242880000	27	13519
2026-01-25 20:00:48.56	226.91	12.25	-27.7	-27.4	14.8	0.00e+00	0	52	0	5318377472	27	13557
2026-01-25 20:00:49.57	227.12	12.33	-27.7	-27.3	14.8	0.00e+00	0	52	0	5393874944	27	13470
2026-01-25 20:00:50.58	227.33	12.42	-27.7	-27.4	14.9	0.00e+00	0	52	0	5469372416	27	13499
2026-01-25 20:00:51.59	227.54	12.50	-27.6	-27.3	14.8	0.00e+00	0	52	0	5544869888	27	13434
2026-01-25 20:00:52.60	227.76	12.58	-27.4	-27.1	14.9	0.00e+00	0	53	0	5620367360	26	13892
2026-01-25 20:00:53.61	227.97	12.67	-27.5	-27.2	14.9	0.00e+00	0	52	0	5695864832	26	14012
2026-01-25 20:00:54.62	228.19	12.75	-27.6	-27.3	14.9	0.00e+00	0	52	0	5771362304	26	14219
2026-01-25 20:00:55.63	228.40	12.83	-27.5	-27.2	14.9	0.00e+00	0	53	0	5846859776	26	13974
2026-01-25 20:00:56.64	228.62	12.92	-27.5	-27.2	14.9	0.00e+00	0	53	0	5922357248	26	13995
2026-01-25 20:00:57.65	228.84	13.00	-27.5	-27.2	14.9	0.00e+00	0	52	0	5997854720	26	13955
2026-01-25 20:00:58.66	229.06	13.08	-27.2	-26.9	15.0	0.00e+00	0	52	0	6073352192	26	13606
2026-01-25 20:00:59.67	229.29	13.17	-27.3	-27.0	15.0	0.00e+00	0	53	0	6148849664	26	13713
2026-01-25 20:01:00.68	229.51	13.25	-27.3	-27.0	15.0	0.00e+00	0	53	0	6224347136	26	13711
2026-01-25 20:01:01.69	229.74	13.33	-27.2	-26.9	15.1	0.00e+00	0	53	0	6299844608	26	13571
2026-01-25 20:01:02.70	229.97	13.42	-27.3	-27.0	15.0	0.00e+00	0	52	0	6375342080	26	13715
2026-01-25 20:01:03.71	230.20	13.50	-27.2	-26.9	15.1	0.00e+00	0	53	0	6450839552	26	13533
2026-01-25 20:01:04.72	230.43	13.58	-27.4	-27.1	14.9	0.00e+00	0	52	0	6526337024	26	13829
2026-01-25 20:01:05.73	230.66	13.67	-27.5	-27.2	14.9	0.00e+00	0	53	0	6610223104	26	13954
2026-01-25 20:01:06.74	230.89	13.75	-27.4	-27.1	15.0	0.00e+00	0	53	0	6677331968	26	13873
2026-01-25 20:01:07.75	231.13	13.83	-27.3	-27.0	15.0	0.00e+00	0	52	0	6752829440	26	13759
2026-01-25 20:01:08.75	231.36	13.92	-27.2	-26.9	15.1	0.00e+00	0	53	0	6828326912	26	13524
2026-01-25 20:01:09.76	231.60	14.00	-27.1	-26.8	15.1	0.00e+00	0	53	0	6903824384	26	13401
2026-01-25 20:01:10.77	231.84	14.08	-27.2	-26.9	15.0	0.00e+00	0	53	0	6987710464	26	13587
2026-01-25 20:01:11.78	232.08	14.17	-27.1	-26.7	15.1	0.00e+00	0	53	0	7063207936	26	13321
2026-01-25 20:01:12.79	232.32	14.25	-27.0	-26.6	15.1	0.00e+00	0	52	0	7138705408	25	13926
2026-01-25 20:01:13.80	232.57	14.34	-26.9	-26.6	15.2	0.00e+00	0	53	0	7214202880	25	13902
2026-01-25 20:01:14.81	232.81	14.42	-26.9	-26.6	15.2	0.00e+00	0	52	0	7281311744	25	13858
2026-01-25 20:01:15.82	233.06	14.50	-26.8	-26.5	15.3	0.00e+00	0	53	0	7365197824	25	13687
2026-01-25 20:01:16.83	233.31	14.58	-26.8	-26.5	15.2	0.00e+00	0	53	0	7440695296	25	13749
2026-01-25 20:01:17.84	233.56	14.67	-26.9	-26.5	15.2	0.00e+00	0	53	0	7516192768	25	13776
2026-01-25 20:01:18.85	233.82	14.75	-26.8	-26.5	15.2	0.00e+00	0	53	0	7591690240	25	13745
2026-01-25 20:01:19.86	234.07	14.83	-26.7	-26.4	15.3	0.00e+00	0	53	0	7667187712	25	13577
2026-01-25 20:01:20.87	234.33	14.92	-26.9	-26.5	15.1	0.00e+00	0	53	0	7742685184	25	13783
2026-01-25 20:01:21.88	234.58	15.00	-26.7	-26.4	15.3	0.00e+00	0	53	0	7818182656	25	13602
2026-01-25 20:01:22.89	234.84	15.08	-26.7	-26.4	15.3	0.00e+00	0	53	0	7893680128	25	13560
2026-01-25 20:01:23.90	235.10	15.16	-26.6	-26.3	15.3	0.00e+00	0	53	0	7969177600	25	13453
2026-01-25 20:01:24.91	235.37	15.25	-26.7	-26.3	15.3	0.00e+00	0	53	0	8044675072	25	13474
2026-01-25 20:01:25.92	235.63	15.33	-26.6	-26.3	15.3	0.00e+00	0	53	0	8120172544	25	13426
2026-01-25 20:01:26.93	235.90	15.41	-26.5	-26.2	15.4	0.00e+00	0	53	0	8195670016	25	13201
2026-01-25 20:01:27.93	236.16	15.49	-26.4	-26.1	15.4	0.00e+00	0	53	0	8271167488	24	13922
2026-01-25 20:01:28.94	236.43	15.57	-26.5	-26.2	15.3	0.00e+00	0	53	0	8346664960	24	14052
2026-01-25 20:01:29.95	236.70	15.66	-26.4	-26.1	15.4	0.00e+00	0	53	0	8422162432	24	13890
2026-01-25 20:01:30.96	236.97	15.74	-26.4	-26.1	15.4	0.00e+00	0	53	0	8497659904	24	13908
2026-01-25 20:01:31.98	237.25	15.82	-26.5	-26.2	15.4	0.00e+00	0	53	0	8573157376	24	14092
2026-01-25 20:01:32.99	237.53	15.90	-26.5	-26.2	15.3	0.00e+00	0	53	0	8648654848	24	14078
2026-01-25 20:01:34.00	237.81	15.98	-26.7	-26.3	15.2	0.00e+00	0	53	0	8724152320	24	14261
2026-01-25 20:01:35.01	238.08	16.06	-26.5	-26.2	15.3	0.00e+00	0	53	0	8799649792	24	13959
2026-01-25 20:01:36.02	238.37	16.14	-26.3	-26.0	15.4	0.00e+00	0	53	0	8875147264	24	13729
2026-01-25 20:01:37.03	238.65	16.22	-26.3	-26.0	15.4	0.00e+00	0	53	0	8950644736	24	13763
2026-01-25 20:01:38.03	238.93	16.30	-26.4	-26.1	15.4	0.00e+00	0	53	0	9026142208	24	13804
2026-01-25 20:01:39.04	239.22	16.38	-26.3	-25.9	15.5	0.00e+00	0	53	0	9101639680	24	13617
2026-01-25 20:01:40.06	239.51	16.46	-26.3	-26.0	15.4	0.00e+00	0	53	0	9177137152	24	13742
2026-01-25 20:01:41.07	239.80	16.54	-26.3	-26.0	15.4	0.00e+00	0	53	0	9252634624	24	13662
2026-01-25 20:01:42.08	240.09	16.62	-26.3	-25.9	15.5	0.00e+00	0	53	0	9336520704	24	13600
2026-01-25 20:01:43.09	240.38	16.70	-26.1	-25.8	15.5	0.00e+00	0	53	0	9403629568	24	13448
2026-01-25 20:01:44.10	240.68	16.77	-26.2	-25.9	15.5	0.00e+00	0	53	0	9479127040	24	13598
2026-01-25 20:01:45.11	240.97	16.85	-26.1	-25.8	15.6	0.00e+00	0	53	0	9554624512	24	13405
2026-01-25 20:01:46.12	241.27	16.93	-26.2	-25.9	15.5	0.00e+00	0	53	0	9638510592	24	13503
2026-01-25 20:01:47.13	241.57	17.01	-26.3	-26.0	15.3	0.00e+00	0	53	0	9714008064	24	13662
2026-01-25 20:01:48.14	241.88	17.08	-26.2	-25.9	15.5	0.00e+00	0	53	0	9789505536	24	13511
2026-01-25 20:01:49.15	242.18	17.16	-26.0	-25.7	15.6	0.00e+00	0	53	0	9865003008	23	14022
2026-01-25 20:01:50.16	242.48	17.23	-26.1	-25.8	15.5	0.00e+00	0	53	0	9940500480	23	14229
2026-01-25 20:01:51.17	242.79	17.31	-26.2	-25.9	15.5	0.00e+00	0	53	0	10007609344	23	14340
2026-01-25 20:01:52.18	243.10	17.38	-26.3	-26.0	15.5	0.00e+00	0	53	0	10091495424	23	14499
2026-01-25 20:01:53.19	243.41	17.46	-26.1	-25.8	15.5	0.00e+00	0	53	0	10166992896	23	14189
2026-01-25 20:01:54.20	243.72	17.53	-26.2	-25.9	15.5	0.00e+00	0	53	0	10242490368	23	14325
2026-01-25 20:01:55.21	244.04	17.61	-26.3	-26.0	15.5	0.00e+00	0	53	0	10317987840	23	14441
2026-01-25 20:01:56.22	244.35	17.68	-26.0	-25.6	15.6	0.00e+00	0	53	0	10393485312	23	13935
2026-01-25 20:01:57.23	244.67	17.75	-25.9	-25.6	15.6	0.00e+00	0	53	0	10468982784	23	13791
2026-01-25 20:01:58.24	244.99	17.83	-25.9	-25.5	15.6	0.00e+00	0	53	0	10544480256	23	13773
2026-01-25 20:01:59.25	245.31	17.90	-25.9	-25.6	15.6	0.00e+00	0	53	0	10619977728	23	13818
2026-01-25 20:02:00.26	245.64	17.97	-26.0	-25.7	15.6	0.00e+00	0	53	0	10695475200	23	13984
2026-01-25 20:02:01.27	245.96	18.04	-25.9	-25.6	15.6	0.00e+00	0	53	0	10770972672	23	13886
2026-01-25 20:02:02.28	246.29	18.11	-25.9	-25.6	15.5	0.00e+00	0	53	0	10846470144	23	13811
2026-01-25 20:02:03.29	246.61	18.18	-25.8	-25.5	15.6	0.00e+00	0	53	0	10921967616	23	13751
2026-01-25 20:02:04.30	246.94	18.25	-25.8	-25.5	15.6	0.00e+00	0	53	0	10997465088	23	13731
2026-01-25 20:02:05.31	247.28	18.32	-25.9	-25.6	15.6	0.00e+00	0	53	0	11072962560	23	13856
2026-01-25 20:02:06.32	247.61	18.38	-25.8	-25.5	15.7	0.00e+00	0	53	0	11148460032	23	13663
2026-01-25 20:02:07.33	247.94	18.45	-25.8	-25.4	15.7	0.00e+00	0	53	0	11223957504	23	13623
2026-01-25 20:02:08.34	248.28	18.52	-25.8	-25.5	15.7	0.00e+00	0	53	0	11299454976	23	13737
2026-01-25 20:02:09.35	248.62	18.58	-25.8	-25.5	15.7	0.00e+00	0	53	0	11374952448	23	13703
2026-01-25 20:02:10.36	248.96	18.65	-25.7	-25.4	15.7	0.00e+00	0	53	0	11450449920	23	13581
2026-01-25 20:02:11.36	249.29	18.71	-25.7	-25.4	15.7	0.00e+00	0	53	0	11525947392	23	13532
2026-01-25 20:02:12.37	249.64	18.78	-25.7	-25.4	15.7	0.00e+00	0	53	0	11601444864	23	13548
2026-01-25 20:02:13.38	249.98	18.84	-25.7	-25.3	15.7	0.00e+00	0	53	0	11676942336	23	13453
2026-01-25 20:02:14.40	250.33	18.90	-25.7	-25.4	15.7	0.00e+00	0	53	0	11752439808	23	13504
2026-01-25 20:02:15.40	250.68	18.96	-25.6	-25.3	15.7	0.00e+00	0	53	0	11827937280	23	13408
2026-01-25 20:02:16.42	251.03	19.03	-25.6	-25.3	15.8	0.00e+00	0	53	0	11903434752	23	13370
2026-01-25 20:02:17.42	251.38	19.09	-25.6	-25.3	15.8	0.00e+00	0	53	0	11987320832	23	13385
2026-01-25 20:02:18.43	251.73	19.14	-25.6	-25.3	15.6	0.00e+00	0	53	0	12062818304	23	13387
2026-01-25 20:02:19.45	252.09	19.20	-25.6	-25.3	15.8	0.00e+00	0	53	0	12129927168	23	13350
2026-01-25 20:02:20.45	252.44	19.26	-25.6	-25.3	15.8	0.00e+00	0	53	0	12205424640	23	13326
2026-01-25 20:02:21.46	252.79	19.32	-25.5	-25.2	15.8	0.00e+00	0	53	0	12280922112	23	13241
2026-01-25 20:02:22.48	253.16	19.38	-25.5	-25.1	15.8	0.00e+00	0	53	0	12364808192	22	13895
2026-01-25 20:02:23.48	253.51	19.43	-25.4	-25.1	15.8	0.00e+00	0	53	0	12440305664	22	13915
2026-01-25 20:02:24.49	253.87	19.48	-25.5	-25.1	15.8	0.00e+00	0	53	0	12515803136	22	13934
2026-01-25 20:02:25.51	254.24	19.54	-25.4	-25.1	15.8	0.00e+00	0	53	0	12591300608	22	13843
2026-01-25 20:02:26.52	254.60	19.59	-25.4	-25.1	15.8	0.00e+00	0	53	0	12666798080	22	13884
2026-01-25 20:02:27.53	254.97	19.64	-25.4	-25.1	15.8	0.00e+00	0	53	0	12742295552	22	13811
2026-01-25 20:02:28.54	255.34	19.69	-25.4	-25.1	15.8	0.00e+00	0	53	0	12817793024	22	13884
2026-01-25 20:02:29.55	255.70	19.74	-25.4	-25.1	15.7	0.00e+00	0	53	0	12893290496	22	13871
2026-01-25 20:02:30.56	256.07	19.79	-25.5	-25.2	15.8	0.00e+00	0	53	0	12968787968	22	13961
2026-01-25 20:02:31.57	256.44	19.84	-25.3	-25.0	15.8	0.00e+00	0	53	0	13044285440	22	13675
2026-01-25 20:02:32.57	256.81	19.89	-25.4	-25.1	15.8	0.00e+00	0	53	0	13119782912	22	13837
2026-01-25 20:02:33.58	257.19	19.94	-25.3	-25.0	15.8	0.00e+00	0	53	0	13195280384	22	13741
2026-01-25 20:02:34.59	257.56	19.98	-25.3	-25.0	15.8	0.00e+00	0	53	0	13270777856	22	13685
2026-01-25 20:02:35.60	257.94	20.02	-25.4	-25.1	15.6	0.00e+00	0	53	0	13346275328	22	13818
2026-01-25 20:02:36.61	258.31	20.07	-25.5	-25.1	15.5	0.00e+00	0	53	0	13421772800	22	13942
2026-01-25 20:02:37.62	258.69	20.11	-25.3	-24.9	15.6	0.00e+00	0	53	0	13497270272	22	13632
2026-01-25 20:02:38.63	259.07	20.15	-25.3	-25.0	15.8	0.00e+00	0	53	0	13572767744	22	13741
2026-01-25 20:02:39.64	259.45	20.19	-25.4	-25.1	15.8	0.00e+00	0	53	0	13648265216	22	13799
2026-01-25 20:02:40.66	259.84	20.23	-25.2	-24.9	15.9	0.00e+00	0	53	0	13723762688	22	13577
2026-01-25 20:02:41.66	260.22	20.27	-25.3	-25.0	15.8	0.00e+00	0	53	0	13799260160	22	13651
2026-01-25 20:02:42.68	260.60	20.31	-25.2	-24.9	15.9	0.00e+00	0	53	0	13874757632	22	13565
2026-01-25 20:02:43.69	260.99	20.34	-25.3	-24.9	15.9	0.00e+00	0	53	0	13950255104	22	13602
2026-01-25 20:02:44.70	261.37	20.38	-25.3	-25.0	15.9	0.00e+00	0	53	0	14025752576	22	13651
2026-01-25 20:02:45.71	261.76	20.41	-25.2	-24.8	15.9	0.00e+00	0	53	0	14101250048	22	13462
2026-01-25 20:02:46.72	262.15	20.44	-25.2	-24.9	15.9	0.00e+00	0	53	0	14185136128	22	13544
2026-01-25 20:02:47.73	262.54	20.47	-25.2	-24.9	15.9	0.00e+00	0	53	0	14260633600	22	13493
2026-01-25 20:02:48.74	262.93	20.50	-25.2	-24.9	15.9	0.00e+00	0	53	0	14327742464	22	13493
2026-01-25 20:02:49.75	263.32	20.53	-25.2	-24.8	15.9	0.00e+00	0	53	0	14403239936	22	13444
2026-01-25 20:02:50.76	263.71	20.56	-25.3	-25.0	15.9	0.00e+00	0	53	0	14478737408	22	13644
2026-01-25 20:02:51.77	264.10	20.59	-25.3	-25.0	15.9	0.00e+00	0	53	0	14562623488	22	13637
2026-01-25 20:02:52.78	264.49	20.61	-25.2	-24.9	15.8	0.00e+00	0	53	0	14638120960	22	13574
2026-01-25 20:02:53.79	264.88	20.64	-25.2	-24.9	15.8	0.00e+00	0	53	0	14713618432	22	13526
2026-01-25 20:02:54.80	265.28	20.66	-25.1	-24.8	15.9	0.00e+00	0	53	0	14789115904	22	13386
2026-01-25 20:02:55.81	265.67	20.68	-25.2	-24.9	15.9	0.00e+00	0	53	0	14856224768	22	13574
2026-01-25 20:02:56.82	266.07	20.70	-25.1	-24.8	15.9	0.00e+00	0	53	0	14940110848	22	13384
2026-01-25 20:02:57.83	266.46	20.72	-25.2	-24.9	15.9	0.00e+00	0	53	0	15015608320	22	13538
2026-01-25 20:02:58.84	266.86	20.74	-25.2	-24.9	15.9	0.00e+00	0	53	0	15091105792	22	13587
2026-01-25 20:02:59.84	267.25	20.76	-25.3	-24.9	15.9	0.00e+00	0	53	0	15166603264	22	13612
2026-01-25 20:03:00.85	267.65	20.77	-25.2	-24.9	15.9	0.00e+00	0	53	0	15242100736	22	13573
2026-01-25 20:03:01.86	268.04	20.79	-25.2	-24.9	15.9	0.00e+00	0	53	0	15317598208	22	13530
2026-01-25 20:03:02.87	268.44	20.80	-25.2	-24.9	15.9	0.00e+00	0	53	0	15393095680	22	13571
2026-01-25 20:03:03.88	268.84	20.81	-25.2	-24.9	15.9	0.00e+00	0	53	0	15468593152	22	13534
2026-01-25 20:03:04.89	269.24	20.82	-25.2	-24.9	15.9	0.00e+00	0	53	0	15544090624	22	13588
2026-01-25 20:03:05.91	269.64	20.83	-25.3	-25.0	15.9	0.00e+00	0	53	0	15619588096	22	13728
2026-01-25 20:03:06.92	270.04	20.84	-25.3	-25.0	15.8	0.00e+00	0	53	0	15695085568	22	13634
2026-01-25 20:03:07.93	270.44	20.85	-25.2	-24.9	15.9	0.00e+00	0	53	0	15770583040	22	13491
2026-01-25 20:03:08.93	270.83	20.86	-25.0	-24.7	15.9	0.00e+00	0	53	0	15846080512	22	13274
2026-01-25 20:03:09.94	271.23	20.86	-25.2	-24.9	15.9	0.00e+00	0	53	0	15921577984	22	13558
2026-01-25 20:03:10.95	271.63	20.86	-25.2	-24.9	15.9	0.00e+00	0	53	0	15997075456	22	13573
2026-01-25 20:03:11.96	272.03	20.87	-25.2	-24.8	15.9	0.00e+00	0	53	0	16072572928	22	13469
2026-01-25 20:03:12.97	272.43	20.87	-25.2	-24.9	15.9	0.00e+00	0	53	0	16148070400	22	13481
2026-01-25 20:03:13.98	272.83	20.87	-25.1	-24.8	15.9	0.00e+00	0	53	0	16223567872	22	13433
2026-01-25 20:03:14.99	273.23	20.86	-25.1	-24.8	15.9	0.00e+00	0	53	0	16299065344	22	13438
2026-01-25 20:03:16.00	273.63	20.86	-25.2	-24.9	15.9	0.00e+00	0	53	0	16374562816	22	13587
2026-01-25 20:03:17.00	274.02	20.86	-25.1	-24.8	15.9	0.00e+00	0	53	0	16450060288	22	13425
2026-01-25 20:03:18.01	274.42	20.85	-25.2	-24.9	15.9	0.00e+00	0	53	0	16525557760	22	13582
2026-01-25 20:03:19.02	274.82	20.84	-25.2	-24.9	15.9	0.00e+00	0	53	0	16601055232	22	13533
2026-01-25 20:03:20.03	275.22	20.84	-25.2	-24.9	15.9	0.00e+00	0	53	0	16676552704	22	13495
2026-01-25 20:03:21.04	275.62	20.83	-25.2	-24.9	15.9	0.00e+00	0	53	0	16752050176	22	13557
2026-01-25 20:03:22.05	276.02	20.82	-25.1	-24.8	15.8	0.00e+00	0	53	0	16827547648	22	13334
2026-01-25 20:03:23.06	276.41	20.80	-25.2	-24.8	15.7	0.00e+00	0	53	0	16903045120	22	13474
2026-01-25 20:03:24.07	276.81	20.79	-25.3	-24.9	15.7	0.00e+00	0	53	0	16978542592	22	13603
2026-01-25 20:03:25.08	277.21	20.78	-25.3	-24.9	15.7	0.00e+00	0	53	0	17054040064	22	13630
2026-01-25 20:03:26.09	277.61	20.76	-25.3	-24.9	15.7	0.00e+00	0	53	0	17129537536	22	13631
2026-01-25 20:03:27.10	278.00	20.75	-25.2	-24.9	15.7	0.00e+00	0	53	0	17205035008	22	13540
2026-01-25 20:03:28.11	278.40	20.73	-25.3	-24.9	15.7	0.00e+00	0	53	0	17280532480	22	13609
2026-01-25 20:03:29.12	278.79	20.71	-25.3	-25.0	15.7	0.00e+00	0	53	0	17364418560	22	13702
2026-01-25 20:03:30.13	279.19	20.69	-25.3	-25.0	15.7	0.00e+00	0	53	0	17439916032	22	13702
2026-01-25 20:03:31.14	279.58	20.67	-25.4	-25.0	15.7	0.00e+00	0	53	0	17515413504	22	13774
2026-01-25 20:03:32.15	279.97	20.64	-25.2	-24.9	15.7	0.00e+00	0	53	0	17582522368	22	13532
2026-01-25 20:03:33.16	280.36	20.62	-25.3	-25.0	15.7	0.00e+00	0	53	0	17658019840	22	13712
2026-01-25 20:03:34.17	280.76	20.59	-25.3	-25.0	15.7	0.00e+00	0	53	0	17741905920	22	13663
2026-01-25 20:03:35.19	281.15	20.57	-25.2	-24.9	15.7	0.00e+00	0	53	0	17817403392	22	13550
2026-01-25 20:03:36.20	281.54	20.54	-25.3	-25.0	15.7	0.00e+00	0	53	0	17892900864	22	13702
2026-01-25 20:03:37.21	281.93	20.51	-25.3	-25.0	15.7	0.00e+00	0	53	0	17968398336	22	13714
2026-01-25 20:03:38.21	282.32	20.48	-25.3	-25.0	15.7	0.00e+00	0	53	0	18043895808	22	13713
2026-01-25 20:03:39.22	282.70	20.45	-25.3	-24.9	15.7	0.00e+00	0	53	0	18119393280	22	13615
2026-01-25 20:03:40.23	283.09	20.42	-25.3	-25.0	15.7	0.00e+00	0	53	0	18194890752	22	13682
2026-01-25 20:03:41.24	283.47	20.39	-25.4	-25.1	15.7	0.00e+00	0	53	0	18270388224	22	13795
2026-01-25 20:03:42.25	283.86	20.35	-25.4	-25.1	15.6	0.00e+00	0	53	0	18345885696	22	13845
2026-01-25 20:03:43.27	284.25	20.32	-25.4	-25.1	15.7	0.00e+00	0	53	0	18421383168	22	13843
2026-01-25 20:03:44.27	284.63	20.28	-25.4	-25.0	15.7	0.00e+00	0	53	0	18496880640	22	13771
2026-01-25 20:03:45.29	285.01	20.24	-25.4	-25.1	15.7	0.00e+00	0	53	0	18572378112	22	13913
2026-01-25 20:03:46.30	285.39	20.20	-25.4	-25.1	15.7	0.00e+00	0	53	0	18647875584	22	13900
2026-01-25 20:03:47.31	285.77	20.16	-25.3	-25.0	15.7	0.00e+00	0	53	0	18723373056	22	13741
2026-01-25 20:03:48.32	286.15	20.12	-25.3	-25.0	15.7	0.00e+00	0	53	0	18798870528	22	13752
2026-01-25 20:03:49.33	286.53	20.08	-25.4	-25.1	15.7	0.00e+00	0	53	0	18874368000	22	13813
2026-01-25 20:03:50.34	286.90	20.04	-25.4	-25.1	15.7	0.00e+00	0	53	0	18949865472	22	13856
2026-01-25 20:03:51.34	287.27	19.99	-25.4	-25.1	15.7	0.00e+00	0	53	0	19025362944	22	13845
2026-01-25 20:03:52.36	287.65	19.95	-25.4	-25.1	15.7	0.00e+00	0	53	0	19100860416	22	13799
2026-01-25 20:03:53.37	288.02	19.90	-25.5	-25.2	15.6	0.00e+00	0	54	0	19176357888	22	14064
2026-01-25 20:03:54.38	288.39	19.86	-25.5	-25.2	15.7	0.00e+00	0	53	0	19251855360	22	13982
2026-01-25 20:03:55.39	288.76	19.81	-25.4	-25.1	15.7	0.00e+00	0	54	0	19327352832	22	13861
2026-01-25 20:03:56.40	289.13	19.76	-25.5	-25.2	15.7	0.00e+00	0	53	0	19402850304	22	14005
2026-01-25 20:03:57.41	289.50	19.71	-25.5	-25.2	15.7	0.00e+00	0	53	0	19478347776	22	13971
2026-01-25 20:03:58.42	289.86	19.66	-25.5	-25.2	15.7	0.00e+00	0	53	0	19553845248	22	13952
2026-01-25 20:03:59.42	290.22	19.61	-25.5	-25.2	15.7	0.00e+00	0	54	0	19637731328	22	14031
2026-01-25 20:04:00.43	290.59	19.56	-25.6	-25.2	15.7	0.00e+00	0	53	0	19704840192	22	14105
2026-01-25 20:04:01.44	290.95	19.50	-25.5	-25.2	15.7	0.00e+00	0	53	0	19780337664	22	14062
2026-01-25 20:04:02.45	291.31	19.45	-25.7	-25.4	15.6	0.00e+00	0	54	0	19855835136	22	14347
2026-01-25 20:04:03.46	291.67	19.40	-25.6	-25.3	15.6	0.00e+00	0	53	0	19931332608	22	14146
2026-01-25 20:04:04.47	292.02	19.34	-25.6	-25.3	15.6	0.00e+00	0	54	0	20015218688	22	14177
2026-01-25 20:04:05.48	292.38	19.28	-25.6	-25.3	15.6	0.00e+00	0	53	0	20090716160	22	14220
2026-01-25 20:04:06.49	292.73	19.23	-25.7	-25.3	15.6	0.00e+00	0	53	0	20166213632	22	14274
2026-01-25 20:04:07.50	293.09	19.17	-25.6	-25.3	15.6	0.00e+00	0	54	0	20241711104	22	14201
2026-01-25 20:04:08.51	293.44	19.11	-25.7	-25.4	15.6	0.00e+00	0	53	0	20308819968	22	14390
2026-01-25 20:04:09.52	293.79	19.05	-25.7	-25.4	15.6	0.00e+00	0	53	0	20392706048	22	14294
2026-01-25 20:04:10.53	294.13	18.99	-25.7	-25.4	15.6	0.00e+00	0	53	0	20468203520	22	14409
2026-01-25 20:04:11.54	294.48	18.93	-25.8	-25.5	15.6	0.00e+00	0	54	0	20543700992	22	14528
2026-01-25 20:04:12.55	294.83	18.87	-25.9	-25.6	15.5	0.00e+00	0	53	0	20619198464	22	14634
2026-01-25 20:04:13.56	295.17	18.80	-25.8	-25.5	15.6	0.00e+00	0	53	0	20694695936	22	14481
2026-01-25 20:04:14.57	295.51	18.74	-25.8	-25.5	15.6	0.00e+00	0	54	0	20770193408	22	14493
2026-01-25 20:04:15.58	295.85	18.68	-25.8	-25.5	15.6	0.00e+00	0	53	0	20845690880	22	14543
2026-01-25 20:04:16.59	296.19	18.61	-25.9	-25.6	15.5	0.00e+00	0	53	0	20921188352	22	14642
2026-01-25 20:04:17.60	296.52	18.55	-25.9	-25.6	15.5	0.00e+00	0	53	0	20996685824	22	14633
2026-01-25 20:04:18.61	296.86	18.48	-25.8	-25.5	15.6	0.00e+00	0	53	0	21072183296	22	14548
2026-01-25 20:04:19.62	297.19	18.41	-25.9	-25.6	15.5	0.00e+00	0	53	0	21147680768	22	14742
2026-01-25 20:04:20.62	297.52	18.35	-26.0	-25.7	15.5	0.00e+00	0	53	0	21223178240	22	14784
2026-01-25 20:04:21.63	297.85	18.28	-25.8	-25.5	15.6	0.00e+00	0	53	0	21298675712	22	14517
2026-01-25 20:04:22.64	298.18	18.21	-26.0	-25.7	15.5	0.00e+00	0	54	0	21374173184	22	14804
2026-01-25 20:04:23.65	298.50	18.14	-25.9	-25.6	15.5	0.00e+00	0	53	0	21449670656	22	14619
2026-01-25 20:04:24.66	298.83	18.07	-26.0	-25.7	15.5	0.00e+00	0	53	0	21525168128	22	14877
2026-01-25 20:04:25.67	299.15	18.00	-26.0	-25.6	15.5	0.00e+00	0	54	0	21600665600	22	14774
2026-01-25 20:04:26.68	299.47	17.93	-26.0	-25.7	15.5	0.00e+00	0	53	0	21676163072	22	14919
2026-01-25 20:04:27.69	299.79	17.86	-26.0	-25.7	15.5	0.00e+00	0	53	0	21751660544	22	14814
2026-01-25 20:04:28.70	300.11	17.79	-26.0	-25.7	15.5	0.00e+00	0	54	0	21827158016	22	14888
2026-01-25 20:04:29.71	300.43	17.72	-26.0	-25.7	15.4	0.00e+00	0	53	0	21902655488	22	14922
2026-01-25 20:04:30.72	300.74	17.65	-26.0	-25.7	15.4	0.00e+00	0	54	0	21978152960	22	14909
2026-01-25 20:04:31.73	301.05	17.57	-26.1	-25.8	15.4	0.00e+00	0	53	0	22053650432	22	15051
2026-01-25 20:04:32.74	301.37	17.50	-26.2	-25.9	15.4	0.00e+00	0	53	0	22129147904	23	14340
2026-01-25 20:04:33.75	301.67	17.43	-26.1	-25.8	15.5	0.00e+00	0	53	0	22204645376	23	14125
2026-01-25 20:04:34.76	301.98	17.35	-26.3	-25.9	15.4	0.00e+00	0	53	0	22280142848	23	14414
2026-01-25 20:04:35.77	302.29	17.28	-26.2	-25.9	15.4	0.00e+00	0	54	0	22364028928	23	14393
2026-01-25 20:04:36.78	302.59	17.20	-26.1	-25.8	15.4	0.00e+00	0	53	0	22431137792	23	14196
2026-01-25 20:04:37.79	302.89	17.13	-26.2	-25.9	15.4	0.00e+00	0	53	0	22506635264	23	14404
2026-01-25 20:04:38.80	303.19	17.05	-26.2	-25.9	15.4	0.00e+00	0	53	0	22582132736	23	14413
2026-01-25 20:04:39.81	303.49	16.98	-26.3	-25.9	15.4	0.00e+00	0	53	0	22657630208	23	14416
2026-01-25 20:04:40.82	303.79	16.90	-26.3	-26.0	15.4	0.00e+00	0	53	0	22741516288	23	14477
2026-01-25 20:04:41.83	304.09	16.82	-26.3	-26.0	15.4	0.00e+00	0	54	0	22817013760	23	14502
2026-01-25 20:04:42.84	304.38	16.74	-26.3	-26.0	15.4	0.00e+00	0	54	0	22892511232	23	14506
2026-01-25 20:04:43.85	304.67	16.67	-26.3	-26.0	15.4	0.00e+00	0	53	0	22959620096	23	14510
2026-01-25 20:04:44.86	304.96	16.59	-26.4	-26.0	15.4	0.00e+00	0	53	0	23035117568	23	14590
2026-01-25 20:04:45.87	305.25	16.51	-26.4	-26.0	15.3	0.00e+00	0	53	0	23119003648	23	14591
2026-01-25 20:04:46.88	305.54	16.43	-26.4	-26.1	15.3	0.00e+00	0	53	0	23194501120	23	14621
2026-01-25 20:04:47.89	305.82	16.35	-26.5	-26.1	15.3	0.00e+00	0	54	0	23269998592	23	14769
2026-01-25 20:04:48.90	306.10	16.28	-26.5	-26.1	15.3	0.00e+00	0	53	0	23345496064	23	14753
2026-01-25 20:04:49.91	306.39	16.20	-26.5	-26.1	15.3	0.00e+00	0	53	0	23420993536	23	14766
2026-01-25 20:04:50.92	306.67	16.12	-26.5	-26.2	15.3	0.00e+00	0	54	0	23496491008	23	14840
2026-01-25 20:04:51.93	306.94	16.04	-26.5	-26.2	15.3	0.00e+00	0	54	0	23571988480	23	14843
2026-01-25 20:04:52.94	307.22	15.96	-26.5	-26.2	15.3	0.00e+00	0	54	0	23647485952	23	14926
2026-01-25 20:04:53.95	307.49	15.88	-26.8	-26.5	15.2	0.00e+00	0	53	0	23722983424	24	14468
2026-01-25 20:04:54.96	307.77	15.80	-26.6	-26.3	15.2	0.00e+00	0	54	0	23798480896	24	14238
2026-01-25 20:04:55.97	308.04	15.72	-26.6	-26.3	15.2	0.00e+00	0	53	0	23873978368	24	14170
2026-01-25 20:04:56.98	308.31	15.64	-26.7	-26.4	15.2	0.00e+00	0	53	0	23949475840	24	14280
2026-01-25 20:04:57.99	308.58	15.55	-26.7	-26.4	15.2	0.00e+00	0	54	0	24024973312	24	14401
2026-01-25 20:04:59.00	308.84	15.47	-26.7	-26.4	15.2	0.00e+00	0	54	0	24100470784	24	14373
2026-01-25 20:05:00.01	309.11	15.39	-26.8	-26.5	15.2	0.00e+00	0	54	0	24175968256	24	14458
2026-01-25 20:05:01.02	309.37	15.31	-26.9	-26.5	15.1	0.00e+00	0	54	0	24251465728	24	14602
2026-01-25 20:05:02.03	309.63	15.23	-26.9	-26.5	15.1	0.00e+00	0	54	0	24326963200	24	14603
2026-01-25 20:05:03.04	309.89	15.15	-26.9	-26.6	15.1	0.00e+00	0	54	0	24402460672	24	14697
2026-01-25 20:05:04.04	310.15	15.07	-26.8	-26.5	15.2	0.00e+00	0	53	0	24477958144	24	14484
2026-01-25 20:05:05.05	310.40	14.99	-26.8	-26.5	15.1	0.00e+00	0	54	0	24553455616	24	14557
2026-01-25 20:05:06.06	310.66	14.90	-27.0	-26.7	15.1	0.00e+00	0	53	0	24628953088	24	14867
2026-01-25 20:05:07.07	310.91	14.82	-27.1	-26.8	15.0	0.00e+00	0	53	0	24704450560	24	14962
2026-01-25 20:05:08.08	311.16	14.74	-27.1	-26.8	15.0	0.00e+00	0	54	0	24779948032	25	14246
2026-01-25 20:05:09.09	311.41	14.66	-27.2	-26.9	15.0	0.00e+00	0	54	0	24855445504	25	14372
2026-01-25 20:05:10.10	311.66	14.58	-27.3	-27.0	15.0	0.00e+00	0	53	0	24930942976	25	14507
2026-01-25 20:05:11.11	311.90	14.49	-27.1	-26.7	15.0	0.00e+00	0	53	0	25006440448	25	14101
2026-01-25 20:05:12.12	312.15	14.41	-27.0	-26.7	15.1	0.00e+00	0	54	0	25090326528	25	14005
2026-01-25 20:05:13.13	312.39	14.33	-27.1	-26.8	15.0	0.00e+00	0	54	0	25157435392	25	14205
2026-01-25 20:05:14.14	312.63	14.25	-27.2	-26.9	15.0	0.00e+00	0	54	0	25232932864	25	14400
2026-01-25 20:05:15.15	312.88	14.16	-27.1	-26.8	15.0	0.00e+00	0	54	0	25308430336	25	14221
2026-01-25 20:05:16.16	313.11	14.08	-27.2	-26.9	15.0	0.00e+00	0	54	0	25383927808	25	14400
2026-01-25 20:05:17.17	313.35	14.00	-27.2	-26.9	15.0	0.00e+00	0	53	0	25467813888	25	14285
2026-01-25 20:05:18.18	313.59	13.91	-27.1	-26.8	15.0	0.00e+00	0	54	0	25543311360	25	14241
2026-01-25 20:05:19.19	313.82	13.83	-27.2	-26.9	15.0	0.00e+00	0	54	0	25618808832	25	14382
2026-01-25 20:05:20.20	314.05	13.75	-27.2	-26.9	15.0	0.00e+00	0	54	0	25694306304	25	14418
2026-01-25 20:05:21.21	314.28	13.67	-27.2	-26.9	15.0	0.00e+00	0	54	0	25761415168	25	14385
2026-01-25 20:05:22.22	314.51	13.58	-27.2	-26.9	15.0	0.00e+00	0	54	0	25845301248	25	14370
2026-01-25 20:05:23.23	314.74	13.50	-27.3	-27.0	14.9	0.00e+00	0	54	0	25920798720	25	14534
2026-01-25 20:05:24.24	314.97	13.42	-27.4	-27.1	14.9	0.00e+00	0	54	0	25996296192	25	14706
2026-01-25 20:05:25.25	315.19	13.34	-27.4	-27.1	14.9	0.00e+00	0	54	0	26071793664	25	14642
2026-01-25 20:05:26.26	315.42	13.25	-27.4	-27.1	14.9	0.00e+00	0	54	0	26147291136	25	14679
2026-01-25 20:05:27.26	315.64	13.17	-27.6	-27.3	14.8	0.00e+00	0	54	0	26222788608	25	14977
2026-01-25 20:05:28.28	315.86	13.09	-27.6	-27.2	14.8	0.00e+00	0	53	0	26298286080	25	14940
2026-01-25 20:05:29.29	316.08	13.01	-27.5	-27.2	14.8	0.00e+00	0	54	0	26373783552	25	14899
2026-01-25 20:05:30.29	316.29	12.92	-27.5	-27.1	14.8	0.00e+00	0	54	0	26449281024	25	14770
2026-01-25 20:05:31.30	316.51	12.84	-27.4	-27.1	14.8	0.00e+00	0	54	0	26524778496	25	14764
2026-01-25 20:05:32.31	316.73	12.76	-27.6	-27.3	14.7	0.00e+00	0	54	0	26600275968	25	15019
2026-01-25 20:05:33.32	316.94	12.68	-27.5	-27.3	14.8	0.00e+00	0	54	0	26675773440	25	14950
2026-01-25 20:05:34.33	317.15	12.59	-27.7	-27.4	14.7	0.00e+00	0	54	0	26751270912	26	14338
2026-01-25 20:05:35.34	317.36	12.51	-27.9	-27.6	14.7	0.00e+00	0	54	0	26826768384	26	14612
2026-01-25 20:05:36.35	317.57	12.43	-27.8	-27.5	14.7	0.00e+00	0	54	0	26902265856	26	14486
2026-01-25 20:05:37.36	317.78	12.35	-27.7	-27.4	14.7	0.00e+00	0	54	0	26977763328	26	14389
2026-01-25 20:05:38.37	317.99	12.27	-27.6	-27.3	14.7	0.00e+00	0	54	0	27053260800	26	14246
2026-01-25 20:05:39.38	318.19	12.18	-27.9	-27.6	14.6	0.00e+00	0	54	0	27128758272	26	14753
2026-01-25 20:05:40.40	318.40	12.10	-27.7	-27.4	14.7	0.00e+00	0	54	0	27204255744	26	14336
2026-01-25 20:05:41.41	318.60	12.02	-27.7	-27.4	14.7	0.00e+00	0	54	0	27279753216	26	14399
2026-01-25 20:05:42.42	318.80	11.94	-27.7	-27.4	14.7	0.00e+00	0	54	0	27355250688	26	14426
2026-01-25 20:05:43.43	319.00	11.86	-27.9	-27.6	14.6	0.00e+00	0	54	0	27430748160	26	14643
2026-01-25 20:05:44.44	319.20	11.77	-27.9	-27.6	14.6	0.00e+00	0	54	0	27506245632	26	14624
2026-01-25 20:05:45.45	319.40	11.69	-28.0	-27.7	14.5	0.00e+00	0	54	0	27581743104	26	14813
2026-01-25 20:05:46.46	319.59	11.61	-27.9	-27.6	14.6	0.00e+00	0	53	0	27657240576	26	14670
2026-01-25 20:05:47.47	319.79	11.53	-28.1	-27.8	14.5	0.00e+00	0	54	0	27732738048	26	15012
2026-01-25 20:05:48.48	319.98	11.45	-28.0	-27.7	14.5	0.00e+00	0	54	0	27816624128	26	14853
2026-01-25 20:05:49.48	320.17	11.37	-28.2	-27.9	14.5	0.00e+00	0	54	0	27883732992	27	14389
2026-01-25 20:05:50.50	320.36	11.29	-28.1	-27.8	14.5	0.00e+00	0	54	0	27959230464	27	14138
2026-01-25 20:05:51.51	320.55	11.21	-28.0	-27.7	14.6	0.00e+00	0	54	0	28034727936	27	14110
2026-01-25 20:05:52.52	320.74	11.12	-28.1	-27.8	14.5	0.00e+00	0	54	0	28110225408	27	14219
2026-01-25 20:05:53.53	320.93	11.04	-27.9	-27.6	14.6	0.00e+00	0	54	0	28194111488	27	13911
2026-01-25 20:05:54.54	321.11	10.96	-28.0	-27.7	14.5	0.00e+00	0	54	0	28269608960	27	14026
2026-01-25 20:05:55.55	321.30	10.88	-28.2	-27.9	14.4	0.00e+00	0	54	0	28336717824	27	14335
2026-01-25 20:05:56.56	321.48	10.80	-28.2	-27.9	14.4	0.00e+00	0	54	0	28412215296	27	14431
2026-01-25 20:05:57.57	321.66	10.72	-28.5	-28.2	14.3	0.00e+00	0	54	0	28487712768	27	14792
2026-01-25 20:05:58.58	321.85	10.64	-28.2	-27.9	14.4	0.00e+00	0	54	0	28571598848	27	14423
2026-01-25 20:05:59.59	322.03	10.56	-28.3	-28.0	14.4	0.00e+00	0	54	0	28647096320	27	14582
2026-01-25 20:06:00.60	322.20	10.48	-28.4	-28.1	14.3	0.00e+00	0	54	0	28722593792	27	14645
2026-01-25 20:06:01.61	322.38	10.40	-28.3	-28.0	14.3	0.00e+00	0	54	0	28798091264	27	14533
2026-01-25 20:06:02.62	322.56	10.32	-28.4	-28.1	14.3	0.00e+00	0	54	0	28873588736	27	14685
2026-01-25 20:06:03.63	322.73	10.24	-28.3	-28.0	14.3	0.00e+00	0	54	0	28949086208	27	14599
2026-01-25 20:06:04.64	322.91	10.17	-28.6	-28.3	14.2	0.00e+00	0	54	0	29024583680	27	14969
2026-01-25 20:06:05.65	323.08	10.09	-28.6	-28.3	14.2	0.00e+00	0	54	0	29100081152	28	14182
2026-01-25 20:06:06.66	323.25	10.01	-28.3	-28.0	14.4	0.00e+00	0	54	0	29175578624	28	13639
2026-01-25 20:06:07.67	323.42	9.93	-28.5	-28.2	14.2	0.00e+00	0	54	0	29251076096	28	14019
2026-01-25 20:06:08.68	323.59	9.85	-28.6	-28.3	14.1	0.00e+00	0	54	0	29326573568	28	14245
2026-01-25 20:06:09.69	323.76	9.77	-28.4	-28.1	14.2	0.00e+00	0	54	0	29402071040	28	13946
2026-01-25 20:06:10.70	323.93	9.69	-28.5	-28.2	14.2	0.00e+00	0	54	0	29477568512	28	13991
2026-01-25 20:06:11.71	324.10	9.62	-28.5	-28.2	14.2	0.00e+00	0	54	0	29553065984	28	14008
2026-01-25 20:06:12.72	324.26	9.54	-28.5	-28.2	14.2	0.00e+00	0	54	0	29628563456	28	14041
2026-01-25 20:06:13.73	324.43	9.46	-28.6	-28.3	14.1	0.00e+00	0	54	0	29704060928	28	14255
2026-01-25 20:06:14.74	324.59	9.38	-28.5	-28.2	14.2	0.00e+00	0	54	0	29779558400	28	14086
2026-01-25 20:06:15.75	324.75	9.30	-28.7	-28.4	14.1	0.00e+00	0	54	0	29855055872	28	14284
2026-01-25 20:06:16.75	324.91	9.23	-28.8	-28.5	14.0	0.00e+00	0	54	0	29930553344	28	14496
2026-01-25 20:06:17.76	325.07	9.15	-28.8	-28.5	14.0	0.00e+00	0	54	0	30006050816	28	14537
2026-01-25 20:06:18.78	325.23	9.07	-28.9	-28.6	13.9	0.00e+00	0	54	0	30081548288	28	14637
2026-01-25 20:06:19.79	325.39	9.00	-46.9	-49.1	3.7	0.00e+00	0	54	104	30131879936	64	19565
2026-01-25 20:06:20.80	325.55	8.92	-46.9	-49.1	3.7	0.00e+00	0	53	104	30131879936	64	19507
2026-01-25 20:06:21.81	325.71	8.84	-46.9	-49.0	3.7	0.00e+00	0	53	104	30131879936	64	19473
2026-01-25 20:06:22.82	325.86	8.77	-46.9	-49.0	3.7	0.00e+00	0	53	104	30131879936	64	19378
2026-01-25 20:06:23.83	326.02	8.69	-46.9	-49.0	3.7	0.00e+00	0	53	104	30131879936	64	19466
2026-01-25 20:06:24.84	326.17	8.61	-46.9	-49.0	3.7	0.00e+00	0	53	104	30131879936	64	19346
2026-01-25 20:06:25.85	326.32	8.54	-46.9	-49.1	3.7	0.00e+00	0	53	104	30131879936	64	19576
2026-01-25 20:06:26.86	326.47	8.46	-46.9	-49.0	3.7	0.00e+00	0	53	104	30131879936	64	19399
2026-01-25 20:06:27.87	326.62	8.39	-46.9	-49.0	3.7	0.00e+00	0	53	104	30131879936	64	19371
2026-01-25 20:06:28.88	326.77	8.31	-46.8	-49.0	3.6	0.00e+00	0	53	104	30131879936	64	19263
2026-01-25 20:06:29.89	326.92	8.23	-46.9	-49.0	3.7	0.00e+00	0	53	104	30131879936	64	19463
2026-01-25 20:06:30.90	327.07	8.16	-46.8	-49.0	3.7	0.00e+00	0	53	104	30131879936	64	19275
2026-01-25 20:06:31.91	327.22	8.08	-46.8	-49.0	3.7	0.00e+00	0	53	104	30131879936	64	19306
2026-01-25 20:06:32.92	327.36	8.01	-46.8	-48.9	3.7	0.00e+00	0	53	104	30131879936	64	19213
2026-01-25 20:06:33.93	327.51	7.93	-46.9	-49.0	3.7	0.00e+00	0	53	104	30131879936	64	19388
2026-01-25 20:06:34.93	327.65	7.86	-46.8	-48.9	3.7	0.00e+00	0	53	104	30131879936	64	19197
2026-01-25 20:06:35.95	327.80	7.79	-46.8	-48.9	3.7	0.00e+00	0	53	104	30131879936	64	19193
2026-01-25 20:06:36.95	327.94	7.71	-46.7	-48.9	3.7	0.00e+00	0	53	104	30131879936	64	19058
2026-01-25 20:06:37.96	328.08	7.64	-46.8	-49.0	3.7	0.00e+00	0	53	104	30131879936	64	19282
2026-01-25 20:06:38.98	328.22	7.56	-46.7	-48.9	3.7	0.00e+00	0	53	104	30131879936	64	19077
2026-01-25 20:06:39.99	328.36	7.49	-46.7	-48.9	3.7	0.00e+00	0	53	104	30131879936	64	19087
2026-01-25 20:06:41.00	328.50	7.42	-46.7	-48.8	3.7	0.00e+00	0	53	104	30131879936	64	18928
2026-01-25 20:06:42.01	328.64	7.34	-46.8	-48.9	3.7	0.00e+00	0	53	104	30131879936	64	19229
2026-01-25 20:06:43.02	328.77	7.27	-46.7	-48.8	3.7	0.00e+00	0	53	104	30131879936	64	18997
2026-01-25 20:06:44.03	328.91	7.20	-46.7	-48.8	3.7	0.00e+00	0	53	104	30131879936	64	18979
2026-01-25 20:06:45.04	329.05	7.12	-46.6	-48.8	3.7	0.00e+00	0	53	104	30131879936	64	18884
2026-01-25 20:06:46.05	329.18	7.05	-46.8	-48.9	3.7	0.00e+00	0	53	104	30131879936	64	19131
2026-01-25 20:06:47.06	329.31	6.98	-46.7	-48.8	3.7	0.00e+00	0	53	104	30131879936	64	18867
2026-01-25 20:06:48.07	329.45	6.90	-46.7	-48.8	3.7	0.00e+00	0	52	104	30131879936	64	18929
2026-01-25 20:06:49.08	329.58	6.83	-46.6	-48.7	3.7	0.00e+00	0	52	104	30131879936	64	18794
2026-01-25 20:06:50.09	329.71	6.76	-46.7	-48.8	3.7	0.00e+00	0	53	104	30131879936	64	19035
2026-01-25 20:06:51.10	329.84	6.69	-46.6	-48.7	3.7	0.00e+00	0	53	104	30131879936	64	18791
2026-01-25 20:06:52.11	329.97	6.62	-46.6	-48.8	3.7	0.00e+00	0	53	104	30131879936	64	18823
2026-01-25 20:06:53.12	330.10	6.55	-46.6	-48.7	3.7	0.00e+00	0	53	104	30131879936	64	18659
2026-01-25 20:06:54.13	330.23	6.47	-46.7	-48.8	3.7	0.00e+00	0	53	104	30131879936	64	18896
2026-01-25 20:06:55.14	330.36	6.40	-46.6	-48.7	3.7	0.00e+00	0	52	104	30131879936	64	18713
2026-01-25 20:06:56.15	330.49	6.33	-46.6	-48.7	3.7	0.00e+00	0	53	104	30131879936	64	18737
2026-01-25 20:06:57.16	330.61	6.26	-46.5	-48.7	3.7	0.00e+00	0	53	104	30131879936	64	18628
2026-01-25 20:06:58.17	330.74	6.19	-46.6	-48.7	3.7	0.00e+00	0	52	104	30131879936	64	18816
2026-01-25 20:06:59.18	330.86	6.12	-46.6	-48.7	3.7	0.00e+00	0	53	104	30131879936	64	18657
2026-01-25 20:07:00.19	330.99	6.05	-46.6	-48.7	3.7	0.00e+00	0	52	104	30131879936	64	18684
2026-01-25 20:07:01.20	331.11	5.98	-46.5	-48.6	3.7	0.00e+00	0	53	104	30131879936	64	18576
2026-01-25 20:07:02.21	331.23	5.91	-46.6	-48.7	3.7	0.00e+00	0	52	104	30131879936	64	18702
2026-01-25 20:07:03.22	331.35	5.84	-46.5	-48.7	3.7	0.00e+00	0	53	104	30131879936	64	18623
2026-01-25 20:07:04.23	331.48	5.77	-46.5	-48.7	3.7	0.00e+00	0	52	104	30131879936	64	18644
2026-01-25 20:07:05.23	331.59	5.70	-46.5	-48.7	3.7	0.00e+00	0	52	104	30131879936	64	18604
2026-01-25 20:07:06.24	331.71	5.63	-46.6	-48.7	3.6	0.00e+00	0	52	104	30131879936	64	18698
2026-01-25 20:07:07.25	331.83	5.56	-46.5	-48.6	3.7	0.00e+00	0	52	104	30131879936	64	18541
2026-01-25 20:07:08.26	331.95	5.49	-46.5	-48.7	3.7	0.00e+00	0	52	104	30131879936	64	18613
2026-01-25 20:07:09.27	332.07	5.42	-46.5	-48.6	3.7	0.00e+00	0	52	104	30131879936	64	18452
2026-01-25 20:07:10.28	332.19	5.35	-46.6	-48.7	3.7	0.00e+00	0	52	104	30131879936	64	18720
2026-01-25 20:07:11.29	332.30	5.28	-46.5	-48.6	3.7	0.00e+00	0	52	104	30131879936	64	18529
2026-01-25 20:07:12.30	332.42	5.22	-46.5	-48.6	3.7	0.00e+00	0	52	104	30131879936	64	18544
2026-01-25 20:07:13.31	332.53	5.15	-46.4	-48.5	3.7	0.00e+00	0	52	104	30131879936	64	18368
2026-01-25 20:07:14.32	332.65	5.08	-46.5	-48.7	3.7	0.00e+00	0	52	104	30131879936	64	18610
2026-01-25 20:07:15.33	332.76	5.01	-46.4	-48.5	3.7	0.00e+00	0	52	104	30131879936	64	18387
2026-01-25 20:07:16.34	332.88	4.94	-46.6	-48.8	3.7	0.00e+00	0	52	104	30131879936	64	18836
2026-01-25 20:07:17.34	332.99	4.88	-47.0	-49.1	3.7	0.00e+00	0	52	104	30131879936	64	19563
2026-01-25 20:07:18.35	333.10	4.81	-47.2	-49.3	3.7	0.00e+00	0	52	104	30131879936	64	20032
2026-01-25 20:07:19.36	333.21	4.74	-47.4	-49.5	3.7	0.00e+00	0	52	104	30131879936	65	19460
2026-01-25 20:07:20.37	333.32	4.67	-47.4	-49.6	3.7	0.00e+00	0	52	104	30131879936	65	19509
2026-01-25 20:07:21.38	333.43	4.61	-47.5	-49.6	3.7	0.00e+00	0	52	104	30131879936	65	19672
2026-01-25 20:07:22.39	333.54	4.54	-47.5	-49.6	3.7	0.00e+00	0	52	104	30131879936	65	19664
2026-01-25 20:07:23.40	333.65	4.47	-47.5	-49.6	3.7	0.00e+00	0	52	104	30131879936	65	19575
2026-01-25 20:07:24.41	333.76	4.41	-47.4	-49.6	3.7	0.00e+00	0	52	104	30131879936	65	19525
2026-01-25 20:07:25.42	333.86	4.34	-47.5	-49.6	3.7	0.00e+00	0	52	104	30131879936	65	19684
2026-01-25 20:07:26.43	333.97	4.27	-47.5	-49.6	3.7	0.00e+00	0	52	104	30131879936	65	19581
2026-01-25 20:07:27.44	334.08	4.21	-47.4	-49.5	3.7	0.00e+00	0	52	104	30131879936	65	19348
2026-01-25 20:07:28.45	334.18	4.14	-47.4	-49.5	3.7	0.00e+00	0	52	104	30131879936	65	19284
2026-01-25 20:07:29.46	334.29	4.07	-47.3	-49.5	3.7	0.00e+00	0	52	104	30131879936	65	19317
2026-01-25 20:07:30.47	334.39	4.01	-47.3	-49.5	3.7	0.00e+00	0	52	104	30131879936	65	19311
2026-01-25 20:07:31.48	334.50	3.94	-47.4	-49.5	3.7	0.00e+00	0	52	104	30131879936	65	19341
2026-01-25 20:07:32.49	334.60	3.88	-47.4	-49.6	3.7	0.00e+00	0	52	104	30131879936	65	19505
2026-01-25 20:07:33.49	334.70	3.81	-47.4	-49.6	3.7	0.00e+00	0	52	104	30131879936	65	19522
2026-01-25 20:07:34.50	334.81	3.75	-47.4	-49.5	3.7	0.00e+00	0	52	104	30131879936	65	19464
2026-01-25 20:07:35.51	334.91	3.68	-47.4	-49.5	3.7	0.00e+00	0	52	104	30131879936	65	19374
2026-01-25 20:07:36.52	335.01	3.62	-47.4	-49.5	3.7	0.00e+00	0	52	104	30131879936	65	19330
2026-01-25 20:07:37.53	335.11	3.55	-47.3	-49.5	3.6	0.00e+00	0	52	104	30131879936	65	19262
2026-01-25 20:07:38.54	335.21	3.49	-47.3	-49.4	3.7	0.00e+00	0	52	104	30131879936	65	19141
2026-01-25 20:07:39.55	335.31	3.42	-47.2	-49.4	3.7	0.00e+00	0	52	104	30131879936	65	19099
2026-01-25 20:07:40.56	335.41	3.36	-47.2	-49.3	3.7	0.00e+00	0	52	104	30131879936	65	19030
2026-01-25 20:07:41.57	335.51	3.29	-47.2	-49.3	3.7	0.00e+00	0	52	104	30131879936	65	19001
2026-01-25 20:07:42.58	335.61	3.23	-47.2	-49.3	3.7	0.00e+00	0	52	104	30131879936	65	18909
2026-01-25 20:07:43.59	335.70	3.17	-47.2	-49.3	3.7	0.00e+00	0	52	104	30131879936	65	18919
2026-01-25 20:07:44.60	335.80	3.10	-47.2	-49.3	3.7	0.00e+00	0	52	104	30131879936	65	18878
2026-01-25 20:07:45.61	335.90	3.04	-47.1	-49.3	3.7	0.00e+00	0	52	104	30131879936	65	18885
2026-01-25 20:07:46.62	335.99	2.97	-47.1	-49.3	3.7	0.00e+00	0	52	104	30131879936	65	18881
2026-01-25 20:07:47.63	336.09	2.91	-47.1	-49.3	3.7	0.00e+00	0	52	104	30131879936	65	18860
2026-01-25 20:07:48.64	336.18	2.85	-47.1	-49.3	3.7	0.00e+00	0	52	104	30131879936	65	18842
2026-01-25 20:07:49.65	336.28	2.78	-47.1	-49.3	3.7	0.00e+00	0	52	104	30131879936	65	18830
2026-01-25 20:07:50.66	336.37	2.72	-47.1	-49.3	3.7	0.00e+00	0	52	104	30131879936	65	18843
2026-01-25 20:07:51.66	336.47	2.66	-47.1	-49.2	3.7	0.00e+00	0	52	104	30131879936	65	18802
2026-01-25 20:07:52.67	336.56	2.60	-47.1	-49.2	3.7	0.00e+00	0	52	104	30131879936	65	18816
2026-01-25 20:07:53.68	336.65	2.53	-47.1	-49.2	3.7	0.00e+00	0	52	104	30131879936	65	18798
2026-01-25 20:07:54.69	336.74	2.47	-47.1	-49.3	3.7	0.00e+00	0	52	104	30131879936	65	18868
2026-01-25 20:07:55.70	336.84	2.41	-47.1	-49.2	3.7	0.00e+00	0	52	104	30131879936	65	18795
2026-01-25 20:07:56.71	336.93	2.35	-47.1	-49.3	3.7	0.00e+00	0	52	104	30131879936	65	18849
2026-01-25 20:07:57.72	337.02	2.29	-47.1	-49.2	3.7	0.00e+00	0	52	104	30131879936	65	18812
2026-01-25 20:07:58.73	337.11	2.22	-47.1	-49.3	3.7	0.00e+00	0	52	104	30131879936	65	18821
2026-01-25 20:07:59.74	337.20	2.16	-47.1	-49.3	3.7	0.00e+00	0	52	104	30131879936	65	18832
2026-01-25 20:08:00.75	337.29	2.10	-47.1	-49.2	3.7	0.00e+00	0	52	104	30131879936	65	18804
2026-01-25 20:08:01.76	337.38	2.04	-47.1	-49.3	3.6	0.00e+00	0	52	104	30131879936	65	18832
2026-01-25 20:08:02.77	337.47	1.98	-47.1	-49.3	3.7	0.00e+00	0	52	104	30131879936	65	18849

#Closed at: 2026-01-25 20:08:03
#Recorded file [30131 MB]: D:/lorett/data/31045_260125_225827.dat