passes_logs/2026/01/25/R3.2S_Murmansk_2ch/R3.2S_Murmansk_2ch__20260125_214247_JL1KF02B03_rec.log

#Pass ID: 20260125_214247_JL1KF02B03
#Satellite: JL1KF02B03
#Configuration: 01B_900M
#almurnet v.1.7.20251203
#Start time: 2026-01-25 21:42:48

#Version: 2.2.20260125
#Station: R3.2S_Murmansk_2ch
#Location: 33.079688 lon 68.888172 lat
#TLE: 1 61190U 24169B   26025.16637787  .00008066  00000+0  50525-3 0  9998
#TLE: 2 61190  97.5618 116.1527 0014955 147.5929 212.6222 15.09536568 74252

#Time	Az	El	Level	Level2	SNR	BER	BlckErr	Temp	State	Recorded	gain1	gain2
2026-01-25 21:42:48.33	210.12	2.08	-47.7	-50.3	6.3	0.00e+00	0	45	0	0	66	19947
2026-01-25 21:42:49.34	210.21	2.14	-47.9	-50.5	6.2	0.00e+00	0	45	104	0	66	20435
2026-01-25 21:42:50.35	210.30	2.20	-48.0	-50.5	6.2	0.00e+00	0	46	104	0	66	20604
2026-01-25 21:42:51.36	210.39	2.26	-48.1	-50.6	6.2	0.00e+00	0	45	104	0	66	20710
2026-01-25 21:42:52.37	210.49	2.32	-48.1	-50.7	6.2	0.00e+00	0	46	104	0	66	20874
2026-01-25 21:42:53.38	210.58	2.38	-48.1	-50.6	6.2	0.00e+00	0	46	104	0	66	20835
2026-01-25 21:42:54.39	210.67	2.44	-48.1	-50.6	6.2	0.00e+00	0	46	104	0	66	20769
2026-01-25 21:42:55.40	210.76	2.50	-48.1	-50.6	6.2	0.00e+00	0	46	104	0	66	20796
2026-01-25 21:42:56.41	210.86	2.56	-48.1	-50.6	6.2	0.00e+00	0	46	104	0	66	20760
2026-01-25 21:42:57.42	210.95	2.63	-48.0	-50.6	6.2	0.00e+00	0	46	104	0	66	20704
2026-01-25 21:42:58.43	211.05	2.69	-48.0	-50.6	6.2	0.00e+00	0	46	104	0	66	20652
2026-01-25 21:42:59.44	211.14	2.75	-48.0	-50.5	6.2	0.00e+00	0	46	104	0	66	20539
2026-01-25 21:43:00.45	211.24	2.81	-47.9	-50.5	6.2	0.00e+00	0	46	104	0	66	20438
2026-01-25 21:43:01.46	211.33	2.87	-47.9	-50.4	6.2	0.00e+00	0	46	104	0	66	20374
2026-01-25 21:43:02.47	211.43	2.94	-47.8	-50.3	6.2	0.00e+00	0	46	104	0	66	20142
2026-01-25 21:43:03.48	211.53	3.00	-47.8	-50.3	6.2	0.00e+00	0	46	104	0	66	20088
2026-01-25 21:43:04.49	211.62	3.06	-47.7	-50.2	6.2	0.00e+00	0	46	104	0	66	19916
2026-01-25 21:43:05.49	211.72	3.12	-47.6	-50.2	6.2	0.00e+00	0	46	104	0	66	19755
2026-01-25 21:43:06.50	211.82	3.18	-47.5	-50.0	6.2	0.00e+00	0	46	104	0	66	19470
2026-01-25 21:43:07.51	211.92	3.25	-47.4	-50.0	6.2	0.00e+00	0	46	104	0	66	19269
2026-01-25 21:43:08.51	212.02	3.31	-47.3	-49.8	6.2	0.00e+00	0	46	104	0	66	19024
2026-01-25 21:43:09.53	212.12	3.37	-47.1	-49.6	6.2	0.00e+00	0	46	104	0	66	18516
2026-01-25 21:43:10.54	212.22	3.44	-46.7	-49.3	6.2	0.00e+00	0	46	104	0	65	18843
2026-01-25 21:43:11.55	212.32	3.50	-46.4	-49.0	6.2	0.00e+00	0	46	104	0	64	19313
2026-01-25 21:43:12.56	212.42	3.56	-46.4	-49.0	6.2	0.00e+00	0	46	104	0	64	19314
2026-01-25 21:43:13.57	212.52	3.63	-46.4	-48.9	6.2	0.00e+00	0	46	104	0	64	19226
2026-01-25 21:43:14.58	212.62	3.69	-46.4	-48.9	6.2	0.00e+00	0	46	104	0	64	19223
2026-01-25 21:43:15.59	212.73	3.75	-46.4	-48.9	6.2	0.00e+00	0	46	104	0	64	19203
2026-01-25 21:43:16.60	212.83	3.82	-46.4	-48.9	6.2	0.00e+00	0	47	104	0	64	19202
2026-01-25 21:43:17.61	212.93	3.88	-46.4	-48.9	6.2	0.00e+00	0	47	104	0	64	19178
2026-01-25 21:43:18.62	213.04	3.95	-46.4	-48.9	6.2	0.00e+00	0	47	104	0	64	19211
2026-01-25 21:43:19.63	213.14	4.01	-46.4	-48.9	6.2	0.00e+00	0	47	104	0	64	19172
2026-01-25 21:43:20.64	213.25	4.07	-46.4	-48.9	6.2	0.00e+00	0	47	104	0	64	19162
2026-01-25 21:43:21.65	213.36	4.14	-46.4	-48.9	6.2	0.00e+00	0	47	104	0	64	19238
2026-01-25 21:43:22.66	213.46	4.20	-46.4	-48.9	6.2	0.00e+00	0	47	104	0	64	19177
2026-01-25 21:43:23.67	213.57	4.27	-46.4	-48.9	6.2	0.00e+00	0	47	104	0	64	19162
2026-01-25 21:43:24.68	213.68	4.33	-46.4	-48.9	6.2	0.00e+00	0	47	104	0	64	19217
2026-01-25 21:43:25.69	213.79	4.40	-46.4	-48.9	6.2	0.00e+00	0	47	104	0	64	19177
2026-01-25 21:43:26.70	213.90	4.46	-46.4	-48.9	6.2	0.00e+00	0	47	104	0	64	19152
2026-01-25 21:43:27.71	214.01	4.53	-46.4	-48.9	6.2	0.00e+00	0	47	104	0	64	19105
2026-01-25 21:43:28.72	214.12	4.59	-46.4	-48.9	6.2	0.00e+00	0	47	104	0	64	19135
2026-01-25 21:43:29.73	214.23	4.66	-46.4	-48.9	6.2	0.00e+00	0	47	104	0	64	19097
2026-01-25 21:43:30.74	214.34	4.73	-46.3	-48.9	6.2	0.00e+00	0	47	104	0	64	19127
2026-01-25 21:43:31.75	214.45	4.79	-46.3	-48.9	6.2	0.00e+00	0	47	104	0	64	19189
2026-01-25 21:43:32.76	214.56	4.86	-46.4	-48.9	6.2	0.00e+00	0	47	104	0	64	19157
2026-01-25 21:43:33.77	214.68	4.92	-46.3	-48.9	6.2	0.00e+00	0	47	104	0	64	19120
2026-01-25 21:43:34.78	214.79	4.99	-46.3	-48.9	6.2	0.00e+00	0	47	104	0	64	19173
2026-01-25 21:43:35.79	214.90	5.06	-46.5	-49.0	6.2	0.00e+00	0	47	104	0	64	19413
2026-01-25 21:43:36.80	215.02	5.12	-46.4	-49.0	6.2	0.00e+00	0	47	104	0	64	19301
2026-01-25 21:43:37.81	215.13	5.19	-46.3	-48.9	6.2	0.00e+00	0	47	104	0	64	19173
2026-01-25 21:43:38.82	215.25	5.26	-46.3	-48.8	6.2	0.00e+00	0	47	104	0	64	19010
2026-01-25 21:43:39.83	215.37	5.32	-46.5	-49.1	6.2	0.00e+00	0	47	104	0	64	19491
2026-01-25 21:43:40.84	215.49	5.39	-46.4	-49.0	6.2	0.00e+00	0	47	104	0	64	19319
2026-01-25 21:43:41.85	215.60	5.46	-46.3	-48.9	6.2	0.00e+00	0	47	104	0	64	19054
2026-01-25 21:43:42.86	215.72	5.52	-46.3	-48.9	6.2	0.00e+00	0	47	104	0	64	19048
2026-01-25 21:43:43.87	215.84	5.59	-46.5	-49.0	6.2	0.00e+00	0	47	104	0	64	19420
2026-01-25 21:43:44.88	215.96	5.66	-46.4	-49.0	6.2	0.00e+00	0	47	104	0	64	19302
2026-01-25 21:43:45.89	216.08	5.73	-46.3	-48.9	6.2	0.00e+00	0	47	104	0	64	19064
2026-01-25 21:43:46.90	216.20	5.79	-46.3	-48.8	6.2	0.00e+00	0	47	104	0	64	18948
2026-01-25 21:43:47.91	216.33	5.86	-46.5	-49.0	6.2	0.00e+00	0	47	104	0	64	19376
2026-01-25 21:43:48.92	216.45	5.93	-46.4	-49.0	6.2	0.00e+00	0	47	104	0	64	19325
2026-01-25 21:43:49.93	216.57	6.00	-46.3	-48.9	6.2	0.00e+00	0	47	104	0	64	19126
2026-01-25 21:43:50.94	216.70	6.07	-46.3	-48.8	6.2	0.00e+00	0	47	104	0	64	19023
2026-01-25 21:43:51.95	216.82	6.14	-46.5	-49.0	6.2	0.00e+00	0	47	104	0	64	19406
2026-01-25 21:43:52.95	216.95	6.20	-46.4	-49.0	6.2	0.00e+00	0	47	104	0	64	19318
2026-01-25 21:43:53.96	217.07	6.27	-46.4	-48.9	6.2	0.00e+00	0	47	104	0	64	19114
2026-01-25 21:43:54.97	217.20	6.34	-46.3	-48.8	6.2	0.00e+00	0	47	104	0	64	19034
2026-01-25 21:43:55.98	217.33	6.41	-46.5	-49.0	6.2	0.00e+00	0	47	104	0	64	19377
2026-01-25 21:43:56.99	217.46	6.48	-46.4	-49.0	6.2	0.00e+00	0	47	104	0	64	19352
2026-01-25 21:43:58.00	217.58	6.55	-46.4	-48.9	6.2	0.00e+00	0	47	104	0	64	19195
2026-01-25 21:43:59.01	217.71	6.62	-46.4	-48.9	6.2	0.00e+00	0	47	104	0	64	19173
2026-01-25 21:44:00.02	217.85	6.69	-46.5	-49.0	6.2	0.00e+00	0	48	104	0	64	19473
2026-01-25 21:44:01.03	217.98	6.76	-46.5	-49.0	6.2	0.00e+00	0	47	104	0	64	19357
2026-01-25 21:44:02.04	218.11	6.83	-46.4	-48.9	6.2	0.00e+00	0	48	104	0	64	19242
2026-01-25 21:44:03.06	218.24	6.90	-46.4	-48.9	6.2	0.00e+00	0	47	104	0	64	19219
2026-01-25 21:44:04.06	218.37	6.97	-46.5	-49.0	6.2	0.00e+00	0	47	104	0	64	19468
2026-01-25 21:44:05.07	218.51	7.04	-46.5	-49.0	6.2	0.00e+00	0	47	104	0	64	19394
2026-01-25 21:44:06.09	218.65	7.11	-46.4	-49.0	6.2	0.00e+00	0	47	104	0	64	19283
2026-01-25 21:44:07.09	218.78	7.18	-46.4	-48.9	6.2	0.00e+00	0	48	104	0	64	19233
2026-01-25 21:44:08.10	218.92	7.25	-46.5	-49.1	6.2	0.00e+00	0	47	104	0	64	19524
2026-01-25 21:44:09.11	219.05	7.32	-46.5	-49.0	6.2	0.00e+00	0	47	104	0	64	19367
2026-01-25 21:44:10.12	219.19	7.39	-46.4	-49.0	6.2	0.00e+00	0	47	104	0	64	19269
2026-01-25 21:44:11.13	219.33	7.46	-46.4	-49.0	6.2	0.00e+00	0	48	104	0	64	19303
2026-01-25 21:44:12.14	219.47	7.53	-46.5	-49.1	6.2	0.00e+00	0	47	104	0	64	19541
2026-01-25 21:44:13.15	219.61	7.60	-46.5	-49.0	6.2	0.00e+00	0	48	104	0	64	19430
2026-01-25 21:44:14.16	219.75	7.68	-46.4	-49.0	6.2	0.00e+00	0	48	104	0	64	19382
2026-01-25 21:44:15.17	219.90	7.75	-46.4	-49.0	6.2	0.00e+00	0	47	104	0	64	19321
2026-01-25 21:44:16.18	220.04	7.82	-46.6	-49.1	6.2	0.00e+00	0	47	104	0	64	19614
2026-01-25 21:44:17.19	220.18	7.89	-46.5	-49.1	6.2	0.00e+00	0	48	104	0	64	19532
2026-01-25 21:44:18.20	220.33	7.96	-46.5	-49.0	6.2	0.00e+00	0	48	104	0	64	19406
2026-01-25 21:44:19.21	220.47	8.03	-46.5	-49.0	6.2	0.00e+00	0	48	104	0	64	19422
2026-01-25 21:44:20.22	220.62	8.11	-46.6	-49.1	6.2	0.00e+00	0	47	104	0	64	19660
2026-01-25 21:44:21.23	220.77	8.18	-46.5	-49.1	6.2	0.00e+00	0	48	104	0	64	19608
2026-01-25 21:44:22.24	220.91	8.25	-46.5	-49.0	6.2	0.00e+00	0	48	104	0	64	19473
2026-01-25 21:44:23.25	221.06	8.32	-46.5	-49.0	6.2	0.00e+00	0	48	104	0	64	19456
2026-01-25 21:44:24.26	221.21	8.40	-46.6	-49.1	6.2	0.00e+00	0	48	104	0	64	19644
2026-01-25 21:44:25.27	221.36	8.47	-46.6	-49.1	6.2	0.00e+00	0	48	104	0	64	19634
2026-01-25 21:44:26.28	221.52	8.54	-46.5	-49.0	6.2	0.00e+00	0	48	104	0	64	19470
2026-01-25 21:44:27.29	221.67	8.62	-46.5	-49.1	6.2	0.00e+00	0	48	104	0	64	19489
2026-01-25 21:44:28.30	221.82	8.69	-46.6	-49.2	6.2	0.00e+00	0	48	104	0	64	19732
2026-01-25 21:44:29.31	221.98	8.76	-46.6	-49.1	6.2	0.00e+00	0	48	104	0	64	19659
2026-01-25 21:44:30.31	222.13	8.83	-46.5	-49.1	6.2	0.00e+00	0	48	104	0	64	19510
2026-01-25 21:44:31.33	222.29	8.91	-46.6	-49.1	6.2	0.00e+00	0	48	104	0	64	19566
2026-01-25 21:44:32.33	222.44	8.98	-46.6	-49.2	6.2	0.00e+00	0	48	104	0	64	19742
2026-01-25 21:44:33.34	222.60	9.06	-46.6	-49.1	6.2	0.00e+00	0	48	104	0	64	19674
2026-01-25 21:44:34.35	222.76	9.13	-46.5	-49.1	6.2	0.00e+00	0	48	104	0	64	19560
2026-01-25 21:44:35.36	222.92	9.20	-46.6	-49.1	6.2	0.00e+00	0	48	104	0	64	19666
2026-01-25 21:44:36.37	223.08	9.28	-46.6	-49.2	6.2	0.00e+00	0	48	104	0	64	19760
2026-01-25 21:44:37.39	223.24	9.35	-45.7	-48.5	6.2	0.00e+00	0	48	104	0	63	19318
2026-01-25 21:44:38.40	223.41	9.43	-35.8	-39.4	6.2	0.00e+00	0	48	104	0	41	24117
2026-01-25 21:44:39.40	223.57	9.50	-26.5	-26.5	14.4	4.00e-04	0	48	104	0	25	13787
2026-01-25 21:44:40.42	223.73	9.58	-26.0	-26.1	14.7	2.46e-04	0	48	0	109051904	24	13848
2026-01-25 21:44:41.43	223.90	9.65	-25.4	-25.5	14.2	3.39e-04	0	48	0	218103808	22	14463
2026-01-25 21:44:42.44	224.07	9.72	-25.4	-25.5	14.2	4.75e-04	0	48	0	335544320	22	14447
2026-01-25 21:44:43.45	224.23	9.80	-24.8	-24.9	14.3	3.89e-04	0	48	0	452984832	21	14363
2026-01-25 21:44:44.46	224.40	9.87	-25.0	-25.0	14.2	3.97e-04	0	48	0	562036736	21	14562
2026-01-25 21:44:45.47	224.57	9.95	-24.8	-24.8	14.3	4.12e-04	0	48	0	679477248	21	14223
2026-01-25 21:44:46.48	224.74	10.02	-24.8	-24.9	14.3	3.80e-04	0	48	0	796917760	21	14281
2026-01-25 21:44:47.49	224.91	10.10	-24.8	-24.9	14.4	3.38e-04	0	48	0	905969664	21	14277
2026-01-25 21:44:48.50	225.09	10.18	-24.9	-24.9	14.3	3.36e-04	0	48	0	1015021568	21	14435
2026-01-25 21:44:49.51	225.26	10.25	-24.7	-24.8	14.4	2.48e-04	0	48	0	1132462080	21	14175
2026-01-25 21:44:50.52	225.44	10.33	-24.7	-24.8	14.4	2.38e-04	0	48	0	1241513984	21	14164
2026-01-25 21:44:51.53	225.61	10.40	-24.5	-24.5	14.3	2.52e-04	0	48	0	1358954496	20	14583
2026-01-25 21:44:52.54	225.79	10.48	-24.4	-24.5	14.3	2.38e-04	0	48	0	1476395008	20	14501
2026-01-25 21:44:53.55	225.97	10.55	-24.5	-24.6	14.3	2.25e-04	0	48	0	1585446912	20	14618
2026-01-25 21:44:54.55	226.14	10.63	-24.7	-24.7	14.3	2.14e-04	0	48	0	1702887424	20	14881
2026-01-25 21:44:55.56	226.32	10.70	-24.6	-24.6	14.2	2.04e-04	0	48	0	1811939328	20	14735
2026-01-25 21:44:56.56	226.50	10.78	-24.5	-24.6	14.4	1.43e-04	0	48	0	1920991232	20	14698
2026-01-25 21:44:57.57	226.69	10.86	-24.4	-24.4	14.4	1.56e-04	0	48	0	2038431744	20	14378
2026-01-25 21:44:58.57	226.87	10.93	-24.7	-24.8	14.3	2.00e-04	0	48	0	2147483648	20	14989
2026-01-25 21:44:59.57	227.05	11.01	-24.5	-24.5	14.4	1.89e-04	0	48	0	2264924160	20	14577
2026-01-25 21:45:00.58	227.24	11.08	-24.3	-24.3	14.4	1.60e-04	0	49	0	2373976064	20	14199
2026-01-25 21:45:01.59	227.42	11.16	-24.4	-24.4	14.3	1.94e-04	0	48	0	2491416576	20	14397
2026-01-25 21:45:02.59	227.61	11.24	-24.3	-24.4	14.4	1.33e-04	0	48	0	2600468480	20	14292
2026-01-25 21:45:03.60	227.80	11.31	-24.4	-24.4	14.3	1.94e-04	0	48	0	2717908992	20	14413
2026-01-25 21:45:04.61	227.99	11.39	-24.3	-24.3	14.4	1.43e-04	0	49	0	2826960896	20	14254
2026-01-25 21:45:05.61	228.18	11.46	-24.3	-24.3	14.3	1.89e-04	0	48	0	2944401408	20	14229
2026-01-25 21:45:06.61	228.37	11.54	-24.2	-24.2	14.3	1.41e-04	0	48	0	3053453312	20	14081
2026-01-25 21:45:07.61	228.56	11.62	-24.3	-24.3	14.3	1.45e-04	0	49	0	3170893824	20	14238
2026-01-25 21:45:08.62	228.75	11.69	-24.2	-24.3	14.3	2.04e-04	0	48	0	3279945728	20	14129
2026-01-25 21:45:09.63	228.95	11.77	-24.2	-24.3	14.3	1.33e-04	0	49	0	3397386240	20	14112
2026-01-25 21:45:10.64	229.15	11.85	-24.2	-24.2	14.3	1.66e-04	0	48	0	3506438144	20	14057
2026-01-25 21:45:11.65	229.35	11.92	-24.0	-24.1	14.3	1.81e-04	0	48	0	3623878656	20	13826
2026-01-25 21:45:12.66	229.54	12.00	-24.2	-24.2	14.3	1.89e-04	0	48	0	3732930560	20	14066
2026-01-25 21:45:13.67	229.75	12.08	-24.1	-24.2	14.2	1.60e-04	0	48	0	3850371072	20	13986
2026-01-25 21:45:14.68	229.95	12.15	-24.2	-24.3	14.4	1.75e-04	0	49	0	3959422976	20	14115
2026-01-25 21:45:15.69	230.15	12.23	-24.0	-24.1	14.4	1.54e-04	0	49	0	4076863488	20	13851
2026-01-25 21:45:16.70	230.35	12.31	-24.1	-24.1	14.3	1.24e-04	0	48	0	4194304000	19	14722
2026-01-25 21:45:17.71	230.56	12.39	-24.1	-24.1	14.4	1.70e-04	0	48	0	4303355904	19	14723
2026-01-25 21:45:18.72	230.77	12.46	-24.2	-24.2	14.4	1.37e-04	0	49	0	4412407808	19	14907
2026-01-25 21:45:19.73	230.98	12.54	-24.1	-24.2	14.3	1.47e-04	0	49	0	4529848320	19	14818
2026-01-25 21:45:20.74	231.18	12.62	-24.2	-24.2	14.4	1.68e-04	0	48	0	4647288832	19	14904
2026-01-25 21:45:21.75	231.40	12.69	-24.0	-24.1	14.3	1.49e-04	0	49	0	4756340736	19	14623
2026-01-25 21:45:22.75	231.60	12.77	-23.9	-24.0	14.3	1.35e-04	0	49	0	4873781248	19	14462
2026-01-25 21:45:23.76	231.82	12.85	-24.0	-24.0	14.4	1.51e-04	0	49	0	4982833152	19	14542
2026-01-25 21:45:24.77	232.03	12.92	-23.9	-24.0	14.3	1.56e-04	0	48	0	5100273664	19	14509
2026-01-25 21:45:25.78	232.25	13.00	-23.9	-24.0	14.3	9.72e-05	0	49	0	5209325568	19	14474
2026-01-25 21:45:26.79	232.47	13.08	-24.0	-24.0	14.3	1.33e-04	0	49	0	5326766080	19	14564
2026-01-25 21:45:27.80	232.68	13.16	-23.9	-24.0	14.3	1.39e-04	0	48	0	5435817984	19	14479
2026-01-25 21:45:28.80	232.90	13.23	-23.9	-24.0	14.3	1.62e-04	0	49	0	5553258496	19	14517
2026-01-25 21:45:29.82	233.12	13.31	-23.9	-24.0	14.3	1.58e-04	0	49	0	5662310400	19	14520
2026-01-25 21:45:30.83	233.35	13.39	-23.8	-23.9	14.3	1.41e-04	0	49	0	5779750912	19	14310
2026-01-25 21:45:31.84	233.57	13.46	-24.0	-24.0	14.4	1.37e-04	0	48	0	5897191424	19	14585
2026-01-25 21:45:32.85	233.79	13.54	-23.8	-23.9	14.4	1.20e-04	0	49	0	6006243328	19	14328
2026-01-25 21:45:33.85	234.02	13.62	-23.8	-23.9	14.3	1.58e-04	0	49	0	6123683840	19	14276
2026-01-25 21:45:34.87	234.25	13.69	-23.8	-23.8	14.2	1.39e-04	0	48	0	6232735744	19	14207
2026-01-25 21:45:35.87	234.48	13.77	-23.7	-23.8	14.3	1.73e-04	0	49	0	6341787648	19	14172
2026-01-25 21:45:36.88	234.71	13.85	-23.7	-23.7	14.3	1.47e-04	0	49	0	6459228160	19	14069
2026-01-25 21:45:37.89	234.94	13.92	-23.7	-23.7	14.3	1.22e-04	0	49	0	6576668672	19	14040
2026-01-25 21:45:38.90	235.17	14.00	-23.7	-23.8	14.3	1.37e-04	0	49	0	6685720576	19	14166
2026-01-25 21:45:39.91	235.40	14.07	-23.6	-23.6	14.4	1.28e-04	0	49	0	6803161088	19	13913
2026-01-25 21:45:40.92	235.64	14.15	-23.6	-23.7	14.3	1.28e-04	0	49	0	6912212992	19	13967
2026-01-25 21:45:41.93	235.88	14.23	-23.6	-23.6	14.3	1.20e-04	0	49	0	7029653504	19	13934
2026-01-25 21:45:42.94	236.12	14.30	-23.6	-23.6	14.3	1.33e-04	0	49	0	7147094016	19	13945
2026-01-25 21:45:43.95	236.36	14.38	-23.6	-23.7	14.3	1.30e-04	0	49	0	7256145920	19	13956
2026-01-25 21:45:44.96	236.60	14.45	-23.5	-23.6	14.3	1.14e-04	0	49	0	7365197824	19	13822
2026-01-25 21:45:45.97	236.84	14.53	-23.6	-23.6	14.4	1.20e-04	0	49	0	7482638336	19	13939
2026-01-25 21:45:46.98	237.08	14.61	-23.6	-23.6	14.2	1.52e-04	0	49	0	7591690240	19	13948
2026-01-25 21:45:47.99	237.33	14.68	-23.4	-23.4	14.3	1.32e-04	0	49	0	7709130752	18	14425
2026-01-25 21:45:48.99	237.57	14.76	-23.4	-23.5	14.3	1.85e-04	0	49	0	7826571264	18	14460
2026-01-25 21:45:49.99	237.82	14.83	-23.4	-23.4	14.3	1.51e-04	0	49	0	7935623168	18	14393
2026-01-25 21:45:51.00	238.07	14.90	-23.4	-23.5	14.3	1.54e-04	0	49	0	8053063680	18	14513
2026-01-25 21:45:51.99	238.32	14.98	-23.2	-23.2	14.3	1.16e-04	0	49	0	8162115584	18	14106
2026-01-25 21:45:53.00	238.57	15.05	-23.3	-23.3	14.3	1.12e-04	0	49	0	8271167488	18	14241
2026-01-25 21:45:54.00	238.82	15.13	-23.4	-23.4	14.3	1.43e-04	0	49	0	8388608000	18	14374
2026-01-25 21:45:55.01	239.08	15.20	-23.3	-23.4	14.3	1.16e-04	0	49	0	8497659904	18	14337
2026-01-25 21:45:56.01	239.33	15.27	-23.1	-23.2	14.3	9.15e-05	0	49	0	8615100416	18	14025
2026-01-25 21:45:57.01	239.59	15.35	-23.3	-23.4	14.3	1.14e-04	0	49	0	8724152320	18	14307
2026-01-25 21:45:58.02	239.84	15.42	-23.3	-23.3	14.4	1.05e-04	0	49	0	8833204224	18	14213
2026-01-25 21:45:59.02	240.10	15.49	-23.2	-23.2	14.3	9.34e-05	0	49	0	8950644736	18	14068
2026-01-25 21:46:00.02	240.36	15.57	-23.2	-23.2	14.3	1.05e-04	0	49	0	9059696640	18	14100
2026-01-25 21:46:01.03	240.63	15.64	-23.3	-23.3	14.4	1.20e-04	0	49	0	9177137152	18	14272
2026-01-25 21:46:02.03	240.89	15.71	-23.1	-23.2	14.3	1.16e-04	0	49	0	9294577664	18	13989
2026-01-25 21:46:03.04	241.16	15.78	-23.1	-23.1	14.4	1.14e-04	0	49	0	9403629568	18	13947
2026-01-25 21:46:04.04	241.42	15.85	-23.0	-23.1	14.3	1.22e-04	0	49	0	9521070080	17	14627
2026-01-25 21:46:05.05	241.69	15.93	-23.2	-23.2	14.3	1.07e-04	0	49	0	9630121984	17	14933
2026-01-25 21:46:06.05	241.96	16.00	-23.0	-23.1	14.3	1.16e-04	0	49	0	9739173888	17	14638
2026-01-25 21:46:07.06	242.23	16.07	-22.9	-23.0	14.3	1.20e-04	0	49	0	9856614400	17	14490
2026-01-25 21:46:08.07	242.51	16.14	-23.0	-23.0	14.3	1.52e-04	0	49	0	9965666304	17	14581
2026-01-25 21:46:09.07	242.78	16.21	-23.1	-23.1	14.3	1.11e-04	0	49	0	10083106816	17	14708
2026-01-25 21:46:10.08	243.06	16.28	-23.1	-23.1	14.3	1.35e-04	0	49	0	10192158720	17	14681
2026-01-25 21:46:11.08	243.34	16.35	-23.1	-23.2	14.4	1.32e-04	0	49	0	10309599232	17	14855
2026-01-25 21:46:12.09	243.62	16.42	-23.0	-23.1	14.4	1.30e-04	0	49	0	10427039744	17	14650
2026-01-25 21:46:13.09	243.89	16.49	-22.9	-22.9	14.3	8.96e-05	0	49	0	10536091648	17	14410
2026-01-25 21:46:14.09	244.17	16.56	-22.9	-22.9	14.2	1.24e-04	0	49	0	10645143552	17	14414
2026-01-25 21:46:15.10	244.46	16.62	-22.9	-22.9	14.3	1.20e-04	0	49	0	10762584064	17	14370
2026-01-25 21:46:16.11	244.74	16.69	-22.9	-22.9	14.4	1.47e-04	0	49	0	10871635968	17	14393
2026-01-25 21:46:17.11	245.03	16.76	-22.8	-22.9	14.3	1.33e-04	0	49	0	10989076480	17	14360
2026-01-25 21:46:18.12	245.32	16.83	-22.8	-22.8	14.3	1.20e-04	0	49	0	11098128384	17	14200
2026-01-25 21:46:19.12	245.61	16.89	-22.9	-22.9	14.3	1.14e-04	0	49	0	11207180288	17	14416
2026-01-25 21:46:20.13	245.90	16.96	-22.8	-22.9	14.3	8.96e-05	0	49	0	11324620800	17	14293
2026-01-25 21:46:21.12	246.18	17.03	-22.8	-22.9	14.3	1.41e-04	0	49	0	11433672704	17	14343
2026-01-25 21:46:22.13	246.48	17.09	-22.7	-22.8	14.2	1.32e-04	0	49	0	11551113216	17	14157
2026-01-25 21:46:23.14	246.78	17.16	-22.7	-22.8	14.3	1.20e-04	0	49	0	11668553728	17	14122
2026-01-25 21:46:24.14	247.07	17.22	-22.9	-22.9	14.2	1.62e-04	0	49	0	11777605632	17	14422
2026-01-25 21:46:25.15	247.37	17.29	-22.6	-22.7	14.3	1.79e-04	0	49	0	11895046144	17	13986
2026-01-25 21:46:26.16	247.67	17.35	-22.8	-22.8	14.3	2.35e-04	0	49	0	12004098048	17	14194
2026-01-25 21:46:27.17	247.97	17.41	-22.7	-22.8	14.3	2.90e-04	0	49	0	12113149952	17	14166
2026-01-25 21:46:28.17	248.27	17.48	-22.7	-22.7	14.3	2.97e-04	0	49	0	12230590464	17	14044
2026-01-25 21:46:29.18	248.58	17.54	-22.6	-22.6	14.3	2.27e-04	0	49	0	12339642368	17	13884
2026-01-25 21:46:30.19	248.88	17.60	-22.6	-22.6	14.3	2.54e-04	0	49	0	12457082880	17	13935
2026-01-25 21:46:31.19	249.19	17.66	-22.6	-22.6	14.3	2.38e-04	0	49	0	12574523392	17	13893
2026-01-25 21:46:32.20	249.50	17.72	-22.6	-22.7	14.3	2.84e-04	0	49	0	12683575296	17	13966
2026-01-25 21:46:33.21	249.81	17.78	-22.6	-22.7	14.2	3.24e-04	0	49	0	12801015808	17	14024
2026-01-25 21:46:34.22	250.12	17.84	-22.7	-22.8	14.4	2.17e-04	0	49	0	12910067712	17	14113
2026-01-25 21:46:35.23	250.43	17.90	-22.6	-22.7	14.4	2.31e-04	0	49	0	13019119616	17	13971
2026-01-25 21:46:36.24	250.74	17.96	-22.6	-22.7	14.3	1.73e-04	0	49	0	13136560128	17	13958
2026-01-25 21:46:37.25	251.06	18.02	-22.7	-22.7	14.3	1.77e-04	0	49	0	13254000640	17	14071
2026-01-25 21:46:38.25	251.37	18.08	-22.5	-22.6	14.3	1.43e-04	0	49	0	13363052544	17	13831
2026-01-25 21:46:39.27	251.70	18.13	-22.6	-22.6	14.4	1.22e-04	0	49	0	13480493056	17	13878
2026-01-25 21:46:40.27	252.01	18.19	-22.6	-22.6	14.3	1.16e-04	0	49	0	13589544960	17	13923
2026-01-25 21:46:41.28	252.33	18.25	-22.5	-22.6	14.4	9.91e-05	0	49	0	13706985472	17	13846
2026-01-25 21:46:42.28	252.65	18.30	-22.5	-22.5	14.2	1.28e-04	0	49	0	13824425984	17	13753
2026-01-25 21:46:43.29	252.98	18.35	-22.5	-22.5	14.3	1.20e-04	0	49	0	13933477888	16	14529
2026-01-25 21:46:44.29	253.30	18.41	-22.5	-22.5	14.4	1.09e-04	0	49	0	14042529792	16	14585
2026-01-25 21:46:45.29	253.62	18.46	-22.4	-22.4	14.4	1.39e-04	0	49	0	14159970304	16	14408
2026-01-25 21:46:46.27	253.94	18.51	-22.4	-22.4	14.3	1.20e-04	0	49	0	14269022208	16	14376
2026-01-25 21:46:47.25	254.26	18.56	-22.4	-22.4	14.3	1.41e-04	0	49	0	14378074112	16	14368
2026-01-25 21:46:48.23	254.58	18.61	-22.4	-22.4	14.3	1.26e-04	0	49	0	14487126016	16	14396
2026-01-25 21:46:49.20	254.90	18.66	-22.4	-22.4	14.3	9.91e-05	0	49	0	14596177920	16	14403
2026-01-25 21:46:50.18	255.22	18.71	-22.4	-22.5	14.3	1.07e-04	0	49	0	14705229824	16	14499
2026-01-25 21:46:51.16	255.54	18.75	-22.3	-22.4	14.4	8.20e-05	0	49	0	14814281728	16	14276
2026-01-25 21:46:52.13	255.86	18.80	-22.4	-22.4	14.2	1.20e-04	0	49	0	14931722240	16	14358
2026-01-25 21:46:53.11	256.19	18.85	-22.3	-22.4	14.3	1.39e-04	0	49	0	15032385536	16	14291
2026-01-25 21:46:54.08	256.51	18.89	-22.3	-22.3	14.3	1.32e-04	0	49	0	15149826048	16	14259
2026-01-25 21:46:55.06	256.84	18.94	-22.3	-22.4	14.3	1.72e-04	0	49	0	15258877952	16	14336
2026-01-25 21:46:56.03	257.17	18.98	-22.2	-22.3	14.4	1.01e-04	0	49	0	15367929856	16	14145
2026-01-25 21:46:57.00	257.49	19.02	-22.2	-22.3	14.3	1.24e-04	0	49	0	15476981760	16	14171
2026-01-25 21:46:57.98	257.82	19.07	-22.3	-22.3	14.3	1.56e-04	0	49	0	15577645056	16	14214
2026-01-25 21:46:58.95	258.15	19.11	-22.3	-22.4	14.2	9.91e-05	0	49	0	15695085568	16	14335
2026-01-25 21:46:59.93	258.49	19.15	-22.2	-22.3	14.3	1.16e-04	0	49	0	15804137472	16	14120
2026-01-25 21:47:00.90	258.82	19.19	-22.1	-22.2	14.4	1.51e-04	0	49	0	15913189376	16	13987
2026-01-25 21:47:01.88	259.15	19.23	-22.2	-22.2	14.4	9.72e-05	0	49	0	16022241280	16	14061
2026-01-25 21:47:02.85	259.48	19.26	-22.2	-22.2	14.4	1.03e-04	0	49	0	16131293184	16	14103
2026-01-25 21:47:03.82	259.82	19.30	-22.1	-22.2	14.4	8.77e-05	0	49	0	16240345088	16	13952
2026-01-25 21:47:04.79	260.15	19.34	-22.2	-22.2	14.3	9.72e-05	0	49	0	16349396992	16	14075
2026-01-25 21:47:05.76	260.49	19.37	-22.3	-22.4	14.3	1.09e-04	0	49	0	16458448896	16	14285
2026-01-25 21:47:06.73	260.82	19.41	-22.2	-22.3	14.3	9.91e-05	0	49	0	16567500800	16	14146
2026-01-25 21:47:07.70	261.16	19.44	-22.3	-22.3	14.2	1.24e-04	0	49	0	16676552704	16	14251
2026-01-25 21:47:08.68	261.50	19.48	-22.1	-22.2	14.3	8.39e-05	0	49	0	16785604608	16	14008
2026-01-25 21:47:09.65	261.84	19.51	-22.0	-22.1	14.2	1.26e-04	0	49	0	16894656512	16	13847
2026-01-25 21:47:10.62	262.18	19.54	-22.1	-22.2	14.4	7.82e-05	0	49	0	17003708416	16	13957
2026-01-25 21:47:11.59	262.52	19.57	-22.2	-22.2	14.3	1.07e-04	0	49	0	17121148928	16	14041
2026-01-25 21:47:12.56	262.86	19.60	-22.1	-22.1	14.3	9.53e-05	0	49	0	17221812224	16	13879
2026-01-25 21:47:13.53	263.20	19.63	-22.1	-22.2	14.3	9.91e-05	0	49	0	17339252736	16	14024
2026-01-25 21:47:14.51	263.55	19.66	-22.2	-22.2	14.3	9.15e-05	0	49	0	17439916032	16	14055
2026-01-25 21:47:15.48	263.89	19.69	-22.1	-22.1	14.3	1.01e-04	0	49	0	17548967936	16	13921
2026-01-25 21:47:16.45	264.23	19.71	-22.1	-22.2	14.3	1.20e-04	0	49	0	17666408448	16	13990
2026-01-25 21:47:17.43	264.58	19.74	-22.1	-22.2	14.4	1.07e-04	0	50	0	17767071744	16	13969
2026-01-25 21:47:18.40	264.92	19.76	-22.1	-22.2	14.5	8.77e-05	0	49	0	17884512256	16	13961
2026-01-25 21:47:19.36	265.27	19.78	-22.1	-22.1	14.4	9.34e-05	0	49	0	17985175552	16	13878
2026-01-25 21:47:20.34	265.62	19.81	-22.1	-22.2	14.4	8.77e-05	0	49	0	18102616064	16	13999
2026-01-25 21:47:21.31	265.96	19.83	-22.1	-22.2	14.4	1.03e-04	0	49	0	18211667968	16	13957
2026-01-25 21:47:22.29	266.31	19.85	-22.1	-22.1	14.4	9.91e-05	0	49	0	18320719872	16	13869
2026-01-25 21:47:23.27	266.66	19.87	-22.1	-22.1	14.2	9.91e-05	0	49	0	18429771776	16	13946
2026-01-25 21:47:24.24	267.01	19.89	-22.1	-22.2	14.4	1.05e-04	0	49	0	18538823680	16	13981
2026-01-25 21:47:25.21	267.36	19.91	-22.1	-22.1	14.4	1.05e-04	0	49	0	18647875584	16	13911
2026-01-25 21:47:26.18	267.71	19.92	-22.1	-22.1	14.4	8.20e-05	0	49	0	18756927488	16	13878
2026-01-25 21:47:27.16	268.06	19.94	-22.1	-22.2	14.3	1.01e-04	0	49	0	18865979392	16	14004
2026-01-25 21:47:28.13	268.41	19.95	-22.2	-22.2	14.3	8.39e-05	0	49	0	18975031296	16	14093
2026-01-25 21:47:29.10	268.76	19.97	-22.2	-22.2	14.2	1.20e-04	0	49	0	19084083200	16	14035
2026-01-25 21:47:30.06	269.11	19.98	-22.1	-22.1	14.4	9.53e-05	0	49	0	19193135104	16	13928
2026-01-25 21:47:31.04	269.46	19.99	-22.2	-22.3	14.2	9.15e-05	0	49	0	19302187008	16	14171
2026-01-25 21:47:32.00	269.81	20.00	-22.1	-22.1	14.3	1.11e-04	0	49	0	19411238912	16	13933
2026-01-25 21:47:32.98	270.17	20.02	-22.0	-22.1	14.3	1.01e-04	0	49	0	19520290816	16	13834
2026-01-25 21:47:33.94	270.52	20.02	-22.1	-22.2	14.3	9.91e-05	0	49	0	19629342720	16	13998
2026-01-25 21:47:34.91	270.87	20.03	-22.0	-22.1	14.2	1.28e-04	0	49	0	19738394624	15	14630
2026-01-25 21:47:35.88	271.22	20.04	-22.1	-22.2	14.3	9.72e-05	0	49	0	19847446528	15	14831
2026-01-25 21:47:36.85	271.57	20.05	-22.0	-22.1	14.3	9.15e-05	0	49	0	19956498432	15	14622
2026-01-25 21:47:37.83	271.93	20.05	-22.1	-22.1	14.2	1.07e-04	0	49	0	20065550336	15	14682
2026-01-25 21:47:38.79	272.28	20.06	-22.0	-22.0	14.3	9.15e-05	0	49	0	20174602240	15	14598
2026-01-25 21:47:39.77	272.63	20.06	-22.2	-22.2	14.3	9.72e-05	0	50	0	20283654144	15	14867
2026-01-25 21:47:40.74	272.99	20.06	-22.0	-22.1	14.3	9.15e-05	0	49	0	20392706048	15	14631
2026-01-25 21:47:41.71	273.34	20.06	-22.1	-22.1	14.2	9.34e-05	0	49	0	20501757952	15	14765
2026-01-25 21:47:42.68	273.69	20.06	-22.0	-22.1	14.2	9.91e-05	0	49	0	20619198464	15	14650
2026-01-25 21:47:43.65	274.04	20.06	-22.0	-22.1	14.2	9.53e-05	0	49	0	20719861760	15	14614
2026-01-25 21:47:44.62	274.40	20.06	-22.0	-22.0	14.3	8.77e-05	0	49	0	20828913664	15	14574
2026-01-25 21:47:45.59	274.75	20.06	-22.1	-22.1	14.3	1.24e-04	0	49	0	20937965568	15	14743
2026-01-25 21:47:46.57	275.11	20.05	-22.1	-22.1	14.3	9.34e-05	0	49	0	21047017472	15	14734
2026-01-25 21:47:47.53	275.45	20.05	-22.0	-22.1	14.3	8.58e-05	0	49	0	21164457984	15	14656
2026-01-25 21:47:48.50	275.81	20.04	-22.1	-22.1	14.3	8.20e-05	0	49	0	21265121280	15	14765
2026-01-25 21:47:49.47	276.16	20.04	-22.0	-22.0	14.3	8.20e-05	0	49	0	21374173184	15	14604
2026-01-25 21:47:50.45	276.51	20.03	-22.2	-22.2	14.3	1.01e-04	0	49	0	21491613696	15	14884
2026-01-25 21:47:51.41	276.86	20.02	-22.1	-22.1	14.3	8.20e-05	0	49	0	21592276992	15	14747
2026-01-25 21:47:52.38	277.21	20.01	-22.2	-22.2	14.2	1.20e-04	0	50	0	21701328896	15	14890
2026-01-25 21:47:53.35	277.57	20.00	-22.2	-22.2	14.2	9.72e-05	0	49	0	21810380800	15	14848
2026-01-25 21:47:54.32	277.92	19.99	-22.1	-22.2	14.2	1.11e-04	0	49	0	21919432704	15	14789
2026-01-25 21:47:55.29	278.27	19.98	-22.1	-22.1	14.3	1.11e-04	0	49	0	22036873216	15	14724
2026-01-25 21:47:56.25	278.61	19.97	-22.2	-22.2	14.2	1.16e-04	0	49	0	22137536512	15	14882
2026-01-25 21:47:57.22	278.96	19.95	-22.2	-22.3	14.2	9.53e-05	0	49	0	22246588416	15	15001
2026-01-25 21:47:58.19	279.31	19.94	-22.3	-22.4	14.2	1.12e-04	0	49	0	22355640320	15	15147
2026-01-25 21:47:59.17	279.67	19.92	-22.2	-22.3	14.2	1.12e-04	0	49	0	22464692224	15	14988
2026-01-25 21:48:00.13	280.01	19.90	-22.2	-22.2	14.2	1.01e-04	0	49	0	22582132736	15	14865
2026-01-25 21:48:01.11	280.36	19.88	-22.3	-22.3	14.1	1.37e-04	0	49	0	22682796032	15	15094
2026-01-25 21:48:02.07	280.71	19.87	-22.3	-22.3	14.1	1.35e-04	0	49	0	22791847936	15	15070
2026-01-25 21:48:03.04	281.06	19.85	-22.2	-22.3	14.1	1.16e-04	0	49	0	22909288448	15	15017
2026-01-25 21:48:04.01	281.40	19.82	-22.2	-22.2	14.2	1.22e-04	0	49	0	23009951744	15	14942
2026-01-25 21:48:04.98	281.75	19.80	-22.3	-22.3	14.1	1.16e-04	0	50	0	23127392256	15	15049
2026-01-25 21:48:05.96	282.10	19.78	-22.2	-22.2	14.1	9.15e-05	0	49	0	23228055552	15	14895
2026-01-25 21:48:06.93	282.45	19.76	-22.3	-22.4	14.1	1.18e-04	0	49	0	23345496064	15	15129
2026-01-25 21:48:07.91	282.79	19.73	-22.3	-22.3	14.1	1.18e-04	0	49	0	23454547968	15	15087
2026-01-25 21:48:08.88	283.14	19.71	-22.2	-22.3	14.0	1.28e-04	0	49	0	23563599872	15	14981
2026-01-25 21:48:09.85	283.48	19.68	-22.3	-22.3	14.0	9.72e-05	0	49	0	23672651776	15	15041
2026-01-25 21:48:10.82	283.82	19.65	-22.2	-22.3	14.0	1.22e-04	0	49	0	23773315072	15	15004
2026-01-25 21:48:11.80	284.17	19.62	-22.4	-22.4	14.0	1.37e-04	0	49	0	23890755584	15	15251
2026-01-25 21:48:12.77	284.51	19.59	-22.3	-22.4	13.9	1.35e-04	0	49	0	23999807488	15	15181
2026-01-25 21:48:13.73	284.85	19.57	-22.2	-22.3	14.0	1.05e-04	0	49	0	24108859392	15	14993
2026-01-25 21:48:14.70	285.19	19.53	-22.2	-22.3	14.0	1.28e-04	0	49	0	24217911296	15	14979
2026-01-25 21:48:15.67	285.53	19.50	-22.2	-22.3	13.9	1.16e-04	0	49	0	24318574592	15	15009
2026-01-25 21:48:16.64	285.87	19.47	-22.3	-22.4	13.9	1.09e-04	0	50	0	24436015104	15	15177
2026-01-25 21:48:17.61	286.20	19.44	-22.2	-22.2	14.0	1.14e-04	0	49	0	24545067008	15	14905
2026-01-25 21:48:18.58	286.54	19.40	-22.3	-22.3	13.9	1.37e-04	0	49	0	24645730304	15	15117
2026-01-25 21:48:19.55	286.88	19.37	-22.4	-22.4	13.9	1.28e-04	0	50	0	24763170816	15	15217
2026-01-25 21:48:20.51	287.21	19.33	-22.3	-22.4	13.9	1.35e-04	0	49	0	24872222720	15	15124
2026-01-25 21:48:21.49	287.54	19.30	-22.3	-22.3	13.9	1.45e-04	0	50	0	24981274624	15	15062
2026-01-25 21:48:22.46	287.88	19.26	-22.4	-22.5	13.9	1.32e-04	0	49	0	25090326528	15	15315
2026-01-25 21:48:23.43	288.21	19.22	-22.3	-22.4	13.9	1.41e-04	0	49	0	25190989824	15	15151
2026-01-25 21:48:24.39	288.54	19.18	-22.4	-22.4	13.9	1.37e-04	0	49	0	25308430336	15	15259
2026-01-25 21:48:25.36	288.87	19.14	-22.3	-22.3	13.9	1.18e-04	0	49	0	25417482240	15	15081
2026-01-25 21:48:26.33	289.20	19.10	-22.4	-22.4	13.9	1.62e-04	0	49	0	25526534144	15	15288
2026-01-25 21:48:27.30	289.53	19.06	-22.3	-22.4	13.8	1.35e-04	0	49	0	25635586048	15	15123
2026-01-25 21:48:28.26	289.85	19.02	-22.4	-22.5	13.9	1.24e-04	0	49	0	25736249344	15	15354
2026-01-25 21:48:29.23	290.18	18.97	-22.4	-22.5	13.8	1.39e-04	0	49	0	25853689856	15	15322
2026-01-25 21:48:30.20	290.50	18.93	-22.5	-22.5	13.8	1.51e-04	0	49	0	25962741760	15	15427
2026-01-25 21:48:31.17	290.83	18.89	-22.6	-22.6	13.9	1.58e-04	0	49	0	26063405056	15	15568
2026-01-25 21:48:32.14	291.15	18.84	-22.6	-22.7	13.8	2.12e-04	0	49	0	26180845568	15	15721
2026-01-25 21:48:33.10	291.47	18.80	-22.5	-22.6	13.8	1.49e-04	0	50	0	26289897472	15	15508
2026-01-25 21:48:34.07	291.79	18.75	-22.6	-22.6	13.8	1.18e-04	0	50	0	26390560768	15	15627
2026-01-25 21:48:35.04	292.11	18.70	-22.8	-22.8	13.8	1.39e-04	0	49	0	26508001280	16	15039
2026-01-25 21:48:36.01	292.43	18.66	-22.8	-22.8	13.8	1.47e-04	0	49	0	26608664576	16	15014
2026-01-25 21:48:36.98	292.75	18.61	-22.7	-22.7	13.7	1.62e-04	0	49	0	26726105088	16	14860
2026-01-25 21:48:37.95	293.07	18.56	-22.7	-22.7	13.7	1.85e-04	0	50	0	26835156992	16	14884
2026-01-25 21:48:38.92	293.38	18.51	-22.7	-22.8	13.7	1.47e-04	0	49	0	26935820288	16	14976
2026-01-25 21:48:39.89	293.70	18.46	-22.7	-22.7	13.7	1.75e-04	0	49	0	27053260800	16	14882
2026-01-25 21:48:40.86	294.01	18.41	-22.8	-22.8	13.7	1.43e-04	0	49	0	27153924096	16	15062
2026-01-25 21:48:41.83	294.32	18.36	-22.8	-22.9	13.7	1.70e-04	0	50	0	27271364608	16	15122
2026-01-25 21:48:42.80	294.63	18.30	-22.8	-22.9	13.7	2.02e-04	0	49	0	27380416512	16	15153
2026-01-25 21:48:43.77	294.94	18.25	-22.8	-22.8	13.7	1.66e-04	0	49	0	27481079808	16	15109
2026-01-25 21:48:44.73	295.25	18.20	-22.8	-22.8	13.7	1.58e-04	0	49	0	27598520320	16	15059
2026-01-25 21:48:45.70	295.55	18.14	-22.7	-22.8	13.7	1.56e-04	0	49	0	27699183616	16	15015
2026-01-25 21:48:46.67	295.86	18.09	-22.8	-22.8	13.7	1.28e-04	0	50	0	27808235520	16	15081
2026-01-25 21:48:47.64	296.17	18.03	-22.8	-22.8	13.7	1.43e-04	0	49	0	27925676032	16	15025
2026-01-25 21:48:48.61	296.47	17.98	-22.8	-22.9	13.6	1.81e-04	0	49	0	28026339328	16	15135
2026-01-25 21:48:49.58	296.77	17.92	-22.8	-22.8	13.7	1.56e-04	0	49	0	28143779840	16	15110
2026-01-25 21:48:50.55	297.07	17.86	-22.9	-22.9	13.7	1.52e-04	0	49	0	28252831744	16	15206
2026-01-25 21:48:51.52	297.37	17.81	-22.8	-22.8	13.6	2.02e-04	0	49	0	28353495040	16	15101
2026-01-25 21:48:52.48	297.67	17.75	-22.8	-22.9	13.6	2.12e-04	0	49	0	28470935552	16	15203
2026-01-25 21:48:53.46	297.97	17.69	-22.9	-22.9	13.6	1.96e-04	0	50	0	28571598848	16	15208
2026-01-25 21:48:54.43	298.26	17.63	-23.0	-23.1	13.7	2.04e-04	0	49	0	28680650752	16	15509
2026-01-25 21:48:55.39	298.56	17.57	-23.0	-23.1	13.6	2.08e-04	0	49	0	28798091264	16	15557
2026-01-25 21:48:56.36	298.85	17.51	-23.0	-23.0	13.6	1.73e-04	0	49	0	28898754560	16	15411
2026-01-25 21:48:57.33	299.14	17.45	-22.9	-22.9	13.6	1.73e-04	0	49	0	29007806464	16	15280
2026-01-25 21:48:58.30	299.43	17.39	-22.9	-22.9	13.6	1.70e-04	0	49	0	29116858368	16	15230
2026-01-25 21:48:59.26	299.72	17.33	-23.0	-23.0	13.7	1.43e-04	0	49	0	29225910272	16	15387
2026-01-25 21:49:00.23	300.01	17.27	-23.0	-23.1	13.6	1.45e-04	0	50	0	29343350784	16	15561
2026-01-25 21:49:01.20	300.29	17.21	-23.1	-23.1	13.6	1.72e-04	0	49	0	29444014080	16	15586
2026-01-25 21:49:02.17	300.58	17.15	-23.3	-23.4	13.6	1.49e-04	0	49	0	29553065984	17	15200
2026-01-25 21:49:03.14	300.86	17.08	-23.4	-23.5	13.6	1.91e-04	0	49	0	29670506496	17	15365
2026-01-25 21:49:04.11	301.15	17.02	-23.2	-23.2	13.6	1.37e-04	0	49	0	29771169792	17	14935
2026-01-25 21:49:05.08	301.43	16.96	-23.3	-23.4	13.6	1.51e-04	0	49	0	29880221696	17	15151
2026-01-25 21:49:06.05	301.71	16.89	-23.3	-23.3	13.7	1.56e-04	0	49	0	29989273600	17	15061
2026-01-25 21:49:07.02	301.99	16.83	-23.2	-23.3	13.7	1.62e-04	0	49	0	30098325504	17	15021
2026-01-25 21:49:07.99	302.26	16.76	-23.3	-23.3	13.6	1.81e-04	0	49	0	30215766016	17	15059
2026-01-25 21:49:08.96	302.54	16.70	-23.3	-23.4	13.6	1.73e-04	0	49	0	30316429312	17	15185
2026-01-25 21:49:09.93	302.82	16.63	-23.3	-23.4	13.7	1.73e-04	0	49	0	30425481216	17	15172
2026-01-25 21:49:10.90	303.09	16.57	-23.5	-23.5	13.6	1.52e-04	0	49	0	30534533120	17	15376
2026-01-25 21:49:11.86	303.36	16.50	-23.4	-23.4	13.6	1.68e-04	0	49	0	30643585024	17	15232
2026-01-25 21:49:12.83	303.63	16.43	-23.2	-23.2	13.6	1.68e-04	0	49	0	30761025536	17	14879
2026-01-25 21:49:13.80	303.90	16.37	-23.2	-23.3	13.6	1.45e-04	0	50	0	30861688832	17	15024
2026-01-25 21:49:14.77	304.17	16.30	-23.1	-23.2	13.6	1.20e-04	0	49	0	30970740736	17	14787
2026-01-25 21:49:15.74	304.43	16.23	-23.3	-23.3	13.6	1.28e-04	0	50	0	31079792640	17	15045
2026-01-25 21:49:16.70	304.70	16.17	-23.3	-23.4	13.6	1.62e-04	0	49	0	31188844544	17	15202
2026-01-25 21:49:17.67	304.96	16.10	-23.3	-23.3	13.6	1.68e-04	0	49	0	31297896448	17	15080
2026-01-25 21:49:18.64	305.22	16.03	-23.3	-23.4	13.6	1.51e-04	0	49	0	31406948352	17	15204
2026-01-25 21:49:19.61	305.48	15.96	-23.3	-23.3	13.6	1.83e-04	0	49	0	31516000256	17	15098
2026-01-25 21:49:20.57	305.74	15.89	-23.3	-23.4	13.6	1.41e-04	0	50	0	31625052160	17	15157
2026-01-25 21:49:21.54	306.00	15.82	-23.3	-23.3	13.6	1.54e-04	0	50	0	31734104064	17	15085
2026-01-25 21:49:22.51	306.26	15.75	-23.3	-23.3	13.6	1.60e-04	0	49	0	31843155968	17	15069
2026-01-25 21:49:23.48	306.51	15.68	-23.4	-23.5	13.6	1.33e-04	0	49	0	31952207872	17	15305
2026-01-25 21:49:24.45	306.77	15.61	-23.4	-23.4	13.6	1.72e-04	0	50	0	32061259776	17	15266
2026-01-25 21:49:25.42	307.02	15.54	-23.4	-23.4	13.7	1.26e-04	0	49	0	32170311680	17	15289
2026-01-25 21:49:26.39	307.27	15.47	-23.4	-23.4	13.6	1.43e-04	0	49	0	32279363584	17	15265
2026-01-25 21:49:27.36	307.53	15.40	-23.5	-23.6	13.6	1.93e-04	0	50	0	32388415488	17	15493
2026-01-25 21:49:28.32	307.77	15.33	-23.4	-23.4	13.6	1.37e-04	0	49	0	32497467392	17	15279
2026-01-25 21:49:29.29	308.02	15.26	-23.4	-23.5	13.6	1.24e-04	0	49	0	32606519296	17	15369
2026-01-25 21:49:30.26	308.27	15.19	-23.5	-23.5	13.6	1.52e-04	0	49	0	32715571200	17	15380
2026-01-25 21:49:31.23	308.51	15.12	-23.5	-23.6	13.6	1.33e-04	0	50	0	32824623104	17	15538
2026-01-25 21:49:32.20	308.76	15.05	-23.7	-23.7	13.6	1.64e-04	0	49	0	32933675008	17	15826
2026-01-25 21:49:33.17	309.00	14.98	-23.7	-23.7	13.6	1.45e-04	0	49	0	33042726912	17	15806
2026-01-25 21:49:34.14	309.24	14.91	-23.6	-23.7	13.5	1.77e-04	0	49	0	33151778816	17	15700
2026-01-25 21:49:35.10	309.48	14.84	-23.6	-23.6	13.6	1.72e-04	0	49	0	33260830720	17	15647
2026-01-25 21:49:36.07	309.72	14.76	-23.8	-23.8	13.6	1.45e-04	0	49	0	33369882624	18	15064
2026-01-25 21:49:37.04	309.95	14.69	-23.7	-23.8	13.6	1.64e-04	0	49	0	33478934528	18	14978
2026-01-25 21:49:38.01	310.19	14.62	-23.8	-23.8	13.6	1.81e-04	0	49	0	33587986432	18	15079
2026-01-25 21:49:38.98	310.42	14.55	-23.8	-23.8	13.6	1.85e-04	0	50	0	33697038336	18	15115
2026-01-25 21:49:39.95	310.66	14.47	-23.9	-24.0	13.6	1.77e-04	0	49	0	33806090240	18	15362
2026-01-25 21:49:40.92	310.89	14.40	-23.8	-23.8	13.6	1.68e-04	0	49	0	33915142144	18	15072
2026-01-25 21:49:41.89	311.12	14.33	-23.7	-23.8	13.6	1.68e-04	0	49	0	34024194048	18	14969
2026-01-25 21:49:42.86	311.35	14.26	-23.8	-23.9	13.6	1.93e-04	0	49	0	34133245952	18	15162
2026-01-25 21:49:43.82	311.58	14.18	-23.9	-23.9	13.6	2.06e-04	0	49	0	34242297856	18	15274
2026-01-25 21:49:44.79	311.80	14.11	-23.9	-24.0	13.6	2.29e-04	0	49	0	34351349760	18	15360
2026-01-25 21:49:45.76	312.03	14.04	-23.9	-24.0	13.9	2.25e-04	0	49	0	34460401664	18	15336
2026-01-25 21:49:46.73	312.25	13.96	-24.0	-24.1	13.9	2.35e-04	0	49	0	34569453568	18	15498
2026-01-25 21:49:47.70	312.48	13.89	-24.0	-24.0	13.9	1.77e-04	0	49	0	34678505472	18	15397
2026-01-25 21:49:48.67	312.70	13.82	-23.9	-24.0	13.9	2.35e-04	0	49	0	34787557376	18	15372
2026-01-25 21:49:49.64	312.92	13.74	-24.0	-24.0	13.9	2.08e-04	0	49	0	34896609280	18	15457
2026-01-25 21:49:50.61	313.14	13.67	-23.9	-24.0	13.9	2.00e-04	0	49	0	35005661184	18	15385
2026-01-25 21:49:51.58	313.36	13.60	-24.1	-24.1	13.9	2.46e-04	0	49	0	35114713088	18	15575
2026-01-25 21:49:52.55	313.58	13.52	-24.1	-24.2	13.9	2.14e-04	0	49	0	35223764992	18	15686
2026-01-25 21:49:53.53	313.79	13.45	-24.2	-24.3	13.9	1.94e-04	0	49	0	35332816896	19	15039
2026-01-25 21:49:54.51	314.01	13.37	-24.0	-24.1	13.9	2.40e-04	0	49	0	35441868800	19	14617
2026-01-25 21:49:55.49	314.23	13.30	-24.1	-24.1	13.9	2.29e-04	0	49	0	35559309312	19	14757
2026-01-25 21:49:56.48	314.44	13.22	-24.2	-24.3	13.9	2.65e-04	0	49	0	35668361216	19	15014
2026-01-25 21:49:57.46	314.66	13.15	-24.1	-24.1	13.9	2.00e-04	0	49	0	35777413120	19	14723
2026-01-25 21:49:58.44	314.87	13.07	-24.2	-24.3	13.9	2.31e-04	0	49	0	35886465024	19	14974
2026-01-25 21:49:59.44	315.08	13.00	-24.1	-24.2	13.9	2.14e-04	0	49	0	36003905536	19	14850
2026-01-25 21:50:00.42	315.29	12.92	-24.2	-24.3	13.9	2.04e-04	0	49	0	36104568832	19	14973
2026-01-25 21:50:01.40	315.50	12.85	-24.3	-24.3	13.9	2.14e-04	0	49	0	36222009344	19	15049
2026-01-25 21:50:02.38	315.71	12.77	-24.3	-24.3	13.9	2.25e-04	0	49	0	36331061248	19	15098
2026-01-25 21:50:03.37	315.92	12.70	-24.3	-24.3	13.9	2.12e-04	0	49	0	36440113152	19	15044
2026-01-25 21:50:04.35	316.12	12.62	-24.3	-24.4	13.9	2.29e-04	0	49	0	36549165056	19	15199
2026-01-25 21:50:05.33	316.32	12.55	-24.4	-24.4	13.9	2.75e-04	0	49	0	36666605568	19	15277
2026-01-25 21:50:06.31	316.53	12.47	-24.4	-24.5	13.9	2.25e-04	0	49	0	36767268864	19	15368
2026-01-25 21:50:07.29	316.73	12.40	-24.2	-24.3	13.9	2.33e-04	0	49	0	36884709376	19	15029
2026-01-25 21:50:08.27	316.93	12.33	-24.4	-24.4	13.9	2.19e-04	0	49	0	36993761280	19	15292
2026-01-25 21:50:09.25	317.13	12.25	-24.5	-24.5	13.9	2.76e-04	0	49	0	37102813184	19	15472
2026-01-25 21:50:10.24	317.33	12.17	-24.5	-24.6	13.9	2.50e-04	0	49	0	37211865088	19	15485
2026-01-25 21:50:11.22	317.52	12.10	-24.5	-24.6	13.9	1.94e-04	0	49	0	37320916992	19	15533
2026-01-25 21:50:12.20	317.72	12.03	-24.6	-24.7	13.9	2.50e-04	0	49	0	37438357504	19	15709
2026-01-25 21:50:13.18	317.91	11.95	-24.6	-24.6	13.9	2.55e-04	0	49	0	37547409408	20	14713
2026-01-25 21:50:14.16	318.10	11.88	-24.4	-24.4	13.9	3.09e-04	0	49	0	37656461312	20	14354
2026-01-25 21:50:15.14	318.30	11.80	-24.3	-24.4	14.0	2.52e-04	0	49	0	37765513216	20	14319
2026-01-25 21:50:16.13	318.49	11.73	-24.5	-24.6	13.9	2.86e-04	0	49	0	37882953728	20	14644
2026-01-25 21:50:17.11	318.68	11.65	-24.5	-24.5	13.9	2.84e-04	0	49	0	37983617024	20	14553
2026-01-25 21:50:18.10	318.87	11.58	-24.5	-24.5	13.9	2.76e-04	0	49	0	38101057536	20	14604
2026-01-25 21:50:19.09	319.06	11.50	-24.5	-24.6	13.9	1.98e-04	0	49	0	38210109440	20	14690
2026-01-25 21:50:20.07	319.24	11.43	-46.8	-49.4	6.2	0.00e+00	0	49	104	38218498048	64	20277
2026-01-25 21:50:21.05	319.43	11.35	-46.8	-49.4	6.2	0.00e+00	0	49	104	38218498048	64	20242
2026-01-25 21:50:22.04	319.62	11.28	-46.8	-49.4	6.2	0.00e+00	0	49	104	38218498048	64	20298
2026-01-25 21:50:23.02	319.80	11.20	-46.8	-49.4	6.2	0.00e+00	0	49	104	38218498048	64	20258
2026-01-25 21:50:24.00	319.98	11.13	-46.9	-49.4	6.2	0.00e+00	0	49	104	38218498048	64	20322
2026-01-25 21:50:24.98	320.16	11.06	-46.9	-49.4	6.2	0.00e+00	0	49	104	38218498048	64	20275
2026-01-25 21:50:25.96	320.34	10.98	-46.8	-49.4	6.2	0.00e+00	0	49	104	38218498048	64	20199
2026-01-25 21:50:26.94	320.52	10.91	-46.9	-49.5	6.2	0.00e+00	0	49	104	38218498048	64	20427
2026-01-25 21:50:27.92	320.70	10.83	-46.8	-49.4	6.2	0.00e+00	0	49	104	38218498048	64	20223
2026-01-25 21:50:28.90	320.88	10.76	-46.8	-49.4	6.2	0.00e+00	0	49	104	38218498048	64	20225
2026-01-25 21:50:29.88	321.05	10.69	-46.8	-49.3	6.2	0.00e+00	0	49	104	38218498048	64	20106
2026-01-25 21:50:30.86	321.23	10.61	-46.9	-49.4	6.2	0.00e+00	0	49	104	38218498048	64	20338
2026-01-25 21:50:31.85	321.40	10.54	-46.8	-49.3	6.2	0.00e+00	0	49	104	38218498048	64	20059
2026-01-25 21:50:32.83	321.57	10.47	-46.8	-49.3	6.2	0.00e+00	0	49	104	38218498048	64	20070
2026-01-25 21:50:33.81	321.75	10.39	-46.8	-49.3	6.2	0.00e+00	0	49	104	38218498048	64	19992
2026-01-25 21:50:34.79	321.92	10.32	-46.8	-49.4	6.2	0.00e+00	0	49	104	38218498048	64	20249
2026-01-25 21:50:35.77	322.09	10.25	-46.7	-49.3	6.2	0.00e+00	0	49	104	38218498048	64	20046
2026-01-25 21:50:36.74	322.25	10.17	-46.7	-49.3	6.2	0.00e+00	0	49	104	38218498048	64	19964
2026-01-25 21:50:37.73	322.42	10.10	-46.7	-49.2	6.2	0.00e+00	0	49	104	38218498048	64	19907
2026-01-25 21:50:38.71	322.59	10.03	-46.8	-49.3	6.2	0.00e+00	0	49	104	38218498048	64	20102
2026-01-25 21:50:39.69	322.76	9.95	-46.7	-49.2	6.2	0.00e+00	0	49	104	38218498048	64	19924
2026-01-25 21:50:40.66	322.92	9.88	-46.7	-49.2	6.2	0.00e+00	0	49	104	38218498048	64	19877
2026-01-25 21:50:41.64	323.08	9.81	-46.7	-49.2	6.2	0.00e+00	0	49	104	38218498048	64	19887
2026-01-25 21:50:42.62	323.25	9.74	-46.7	-49.3	6.2	0.00e+00	0	49	104	38218498048	64	19957
2026-01-25 21:50:43.60	323.41	9.66	-46.7	-49.2	6.2	0.00e+00	0	49	104	38218498048	64	19839
2026-01-25 21:50:44.58	323.57	9.59	-46.7	-49.2	6.2	0.00e+00	0	49	104	38218498048	64	19841
2026-01-25 21:50:45.56	323.73	9.52	-46.7	-49.2	6.2	0.00e+00	0	49	104	38218498048	64	19803
2026-01-25 21:50:46.54	323.89	9.45	-46.7	-49.2	6.2	0.00e+00	0	49	104	38218498048	64	19882
2026-01-25 21:50:47.53	324.05	9.37	-46.6	-49.2	6.2	0.00e+00	0	49	104	38218498048	64	19809
2026-01-25 21:50:48.51	324.21	9.30	-46.7	-49.2	6.2	0.00e+00	0	49	104	38218498048	64	19859
2026-01-25 21:50:49.49	324.36	9.23	-46.6	-49.2	6.2	0.00e+00	0	49	104	38218498048	64	19729
2026-01-25 21:50:50.47	324.52	9.16	-46.6	-49.2	6.2	0.00e+00	0	49	104	38218498048	64	19760
2026-01-25 21:50:51.46	324.68	9.09	-46.6	-49.2	6.2	0.00e+00	0	49	104	38218498048	64	19746
2026-01-25 21:50:52.45	324.83	9.01	-46.6	-49.1	6.2	0.00e+00	0	49	104	38218498048	64	19679
2026-01-25 21:50:53.43	324.98	8.94	-46.6	-49.1	6.2	0.00e+00	0	49	104	38218498048	64	19670
2026-01-25 21:50:54.41	325.14	8.87	-46.6	-49.2	6.2	0.00e+00	0	49	104	38218498048	64	19776
2026-01-25 21:50:55.39	325.29	8.80	-46.6	-49.2	6.2	0.00e+00	0	49	104	38218498048	64	19725
2026-01-25 21:50:56.38	325.44	8.73	-46.6	-49.1	6.2	0.00e+00	0	49	104	38218498048	64	19653
2026-01-25 21:50:57.36	325.59	8.66	-46.5	-49.1	6.2	0.00e+00	0	49	104	38218498048	64	19530
2026-01-25 21:50:58.34	325.74	8.59	-46.6	-49.1	6.2	0.00e+00	0	49	104	38218498048	64	19622
2026-01-25 21:50:59.31	325.88	8.52	-46.5	-49.1	6.2	0.00e+00	0	49	104	38218498048	64	19641
2026-01-25 21:51:00.30	326.03	8.45	-46.5	-49.1	6.2	0.00e+00	0	49	104	38218498048	64	19551
2026-01-25 21:51:01.28	326.18	8.37	-46.5	-49.1	6.2	0.00e+00	0	49	104	38218498048	64	19542
2026-01-25 21:51:02.27	326.33	8.30	-46.5	-49.1	6.2	0.00e+00	0	49	104	38218498048	64	19512
2026-01-25 21:51:03.25	326.47	8.23	-46.5	-49.1	6.2	0.00e+00	0	49	104	38218498048	64	19548
2026-01-25 21:51:04.23	326.62	8.16	-46.5	-49.0	6.2	0.00e+00	0	49	104	38218498048	64	19441
2026-01-25 21:51:05.21	326.76	8.09	-46.5	-49.0	6.2	0.00e+00	0	49	104	38218498048	64	19420
2026-01-25 21:51:06.19	326.90	8.02	-46.5	-49.0	6.2	0.00e+00	0	49	104	38218498048	64	19431
2026-01-25 21:51:07.17	327.04	7.95	-46.5	-49.1	6.2	0.00e+00	0	49	104	38218498048	64	19542
2026-01-25 21:51:08.16	327.18	7.88	-46.5	-49.0	6.2	0.00e+00	0	49	104	38218498048	64	19393
2026-01-25 21:51:09.14	327.32	7.81	-46.5	-49.0	6.2	0.00e+00	0	49	104	38218498048	64	19376
2026-01-25 21:51:10.13	327.46	7.74	-46.4	-49.0	6.2	0.00e+00	0	49	104	38218498048	64	19281
2026-01-25 21:51:11.11	327.60	7.67	-46.5	-49.0	6.2	0.00e+00	0	49	104	38218498048	64	19444
2026-01-25 21:51:12.10	327.74	7.60	-46.4	-49.0	6.2	0.00e+00	0	49	104	38218498048	64	19334
2026-01-25 21:51:13.08	327.88	7.54	-46.4	-49.0	6.2	0.00e+00	0	49	104	38218498048	64	19314
2026-01-25 21:51:14.06	328.01	7.47	-46.4	-48.9	6.2	0.00e+00	0	49	104	38218498048	64	19204
2026-01-25 21:51:15.04	328.15	7.40	-46.4	-49.0	6.2	0.00e+00	0	49	104	38218498048	64	19366
2026-01-25 21:51:16.02	328.28	7.33	-46.4	-48.9	6.2	0.00e+00	0	49	104	38218498048	64	19190
2026-01-25 21:51:17.00	328.42	7.26	-46.4	-49.0	6.2	0.00e+00	0	49	104	38218498048	64	19336
2026-01-25 21:51:17.99	328.55	7.19	-46.4	-48.9	6.2	0.00e+00	0	49	104	38218498048	64	19128
2026-01-25 21:51:18.96	328.68	7.12	-46.4	-49.0	6.2	0.00e+00	0	49	104	38218498048	64	19351
2026-01-25 21:51:19.95	328.82	7.05	-46.4	-48.9	6.2	0.00e+00	0	49	104	38218498048	64	19212
2026-01-25 21:51:20.93	328.95	6.99	-46.4	-48.9	6.2	0.00e+00	0	49	104	38218498048	64	19154
2026-01-25 21:51:21.91	329.08	6.92	-46.3	-48.9	6.2	0.00e+00	0	49	104	38218498048	64	19041
2026-01-25 21:51:22.89	329.21	6.85	-46.4	-49.0	6.2	0.00e+00	0	49	104	38218498048	64	19285
2026-01-25 21:51:23.89	329.34	6.78	-46.3	-48.9	6.2	0.00e+00	0	49	104	38218498048	64	19123
2026-01-25 21:51:24.86	329.46	6.71	-46.4	-48.9	6.2	0.00e+00	0	49	104	38218498048	64	19146
2026-01-25 21:51:25.83	329.59	6.65	-46.3	-48.8	6.2	0.00e+00	0	49	104	38218498048	64	18974
2026-01-25 21:51:26.80	329.72	6.58	-46.4	-49.0	6.2	0.00e+00	0	49	104	38218498048	64	19262
2026-01-25 21:51:27.76	329.84	6.52	-46.3	-48.8	6.2	0.00e+00	0	49	104	38218498048	64	18971
2026-01-25 21:51:28.73	329.96	6.45	-46.3	-48.9	6.2	0.00e+00	0	49	104	38218498048	64	19069
2026-01-25 21:51:29.70	330.09	6.38	-46.2	-48.8	6.2	0.00e+00	0	49	104	38218498048	64	18869
2026-01-25 21:51:30.66	330.21	6.32	-46.3	-48.9	6.2	0.00e+00	0	49	104	38218498048	64	19112
2026-01-25 21:51:31.63	330.33	6.25	-46.2	-48.8	6.2	0.00e+00	0	49	104	38218498048	64	18918
2026-01-25 21:51:32.60	330.45	6.19	-46.3	-48.8	6.2	0.00e+00	0	49	104	38218498048	64	18972
2026-01-25 21:51:33.57	330.57	6.12	-46.2	-48.7	6.2	0.00e+00	0	49	104	38218498048	64	18817
2026-01-25 21:51:34.54	330.69	6.05	-46.3	-48.9	6.2	0.00e+00	0	49	104	38218498048	64	19049
2026-01-25 21:51:35.51	330.81	5.99	-46.2	-48.8	6.2	0.00e+00	0	49	104	38218498048	64	18854
2026-01-25 21:51:36.47	330.93	5.92	-46.2	-48.8	6.2	0.00e+00	0	49	104	38218498048	64	18851
2026-01-25 21:51:37.44	331.05	5.86	-46.2	-48.7	6.2	0.00e+00	0	49	104	38218498048	64	18722
2026-01-25 21:51:38.41	331.17	5.79	-46.2	-48.7	6.2	0.00e+00	0	49	104	38218498048	64	18811
2026-01-25 21:51:39.37	331.28	5.73	-46.2	-48.8	6.2	0.00e+00	0	49	104	38218498048	64	18862
2026-01-25 21:51:40.34	331.40	5.66	-46.2	-48.7	6.2	0.00e+00	0	49	104	38218498048	64	18741
2026-01-25 21:51:41.31	331.51	5.60	-46.1	-48.7	6.2	0.00e+00	0	49	104	38218498048	64	18650
2026-01-25 21:51:42.28	331.63	5.53	-46.1	-48.7	6.2	0.00e+00	0	49	104	38218498048	64	18690
2026-01-25 21:51:43.25	331.74	5.47	-46.2	-48.7	6.2	0.00e+00	0	49	104	38218498048	64	18745
2026-01-25 21:51:44.22	331.86	5.41	-46.1	-48.6	6.2	0.00e+00	0	49	104	38218498048	64	18539
2026-01-25 21:51:45.18	331.97	5.34	-46.1	-48.6	6.2	0.00e+00	0	49	104	38218498048	64	18561
2026-01-25 21:51:46.15	332.08	5.28	-46.0	-48.6	6.2	0.00e+00	0	49	104	38218498048	64	18441
2026-01-25 21:51:47.12	332.20	5.21	-46.1	-48.7	6.2	0.00e+00	0	49	104	38218498048	64	18699
2026-01-25 21:51:48.09	332.31	5.15	-46.0	-48.6	6.2	0.00e+00	0	49	104	38218498048	64	18438
2026-01-25 21:51:49.06	332.42	5.09	-46.1	-48.6	6.2	0.00e+00	0	49	104	38218498048	64	18539
2026-01-25 21:51:50.03	332.53	5.02	-46.0	-48.6	6.2	0.00e+00	0	49	104	38218498048	63	19533
2026-01-25 21:51:51.00	332.64	4.96	-46.3	-48.8	6.2	0.00e+00	0	49	104	38218498048	63	20057
2026-01-25 21:51:51.97	332.75	4.90	-46.6	-49.2	6.2	0.00e+00	0	49	104	38218498048	63	20903
2026-01-25 21:51:52.94	332.86	4.83	-46.8	-49.3	6.2	0.00e+00	0	49	104	38218498048	64	20157
2026-01-25 21:51:53.91	332.97	4.77	-47.0	-49.5	6.2	0.00e+00	0	49	104	38218498048	64	20577
2026-01-25 21:51:54.87	333.07	4.71	-47.0	-49.5	6.2	0.00e+00	0	49	104	38218498048	64	20399
2026-01-25 21:51:55.84	333.18	4.64	-47.1	-49.6	6.2	0.00e+00	0	49	104	38218498048	64	20765
2026-01-25 21:51:56.81	333.29	4.58	-47.2	-49.7	6.2	0.00e+00	0	49	104	38218498048	64	21075
2026-01-25 21:51:57.78	333.39	4.52	-47.3	-49.8	6.2	0.00e+00	0	49	104	38218498048	65	20072
2026-01-25 21:51:58.75	333.50	4.46	-47.3	-49.8	6.2	0.00e+00	0	49	104	38218498048	65	20119
2026-01-25 21:51:59.72	333.60	4.39	-47.3	-49.8	6.2	0.00e+00	0	49	104	38218498048	65	20026
2026-01-25 21:52:00.69	333.71	4.33	-47.2	-49.7	6.2	0.00e+00	0	49	104	38218498048	65	19852
2026-01-25 21:52:01.65	333.81	4.27	-47.1	-49.6	6.2	0.00e+00	0	49	104	38218498048	65	19629
2026-01-25 21:52:02.62	333.91	4.21	-47.0	-49.6	6.2	0.00e+00	0	49	104	38218498048	65	19526
2026-01-25 21:52:03.59	334.02	4.14	-47.1	-49.6	6.2	0.00e+00	0	49	104	38218498048	65	19664
2026-01-25 21:52:04.56	334.12	4.08	-47.1	-49.6	6.2	0.00e+00	0	49	104	38218498048	65	19703
2026-01-25 21:52:05.53	334.22	4.02	-47.1	-49.7	6.2	0.00e+00	0	49	104	38218498048	65	19836
2026-01-25 21:52:06.49	334.32	3.96	-47.2	-49.7	6.2	0.00e+00	0	49	104	38218498048	65	19854
2026-01-25 21:52:07.46	334.42	3.90	-47.2	-49.8	6.2	0.00e+00	0	49	104	38218498048	65	19938
2026-01-25 21:52:08.43	334.52	3.84	-47.2	-49.7	6.2	0.00e+00	0	49	104	38218498048	65	19877
2026-01-25 21:52:09.40	334.62	3.78	-47.2	-49.7	6.2	0.00e+00	0	49	104	38218498048	65	19876
2026-01-25 21:52:10.37	334.72	3.71	-47.2	-49.8	6.2	0.00e+00	0	49	104	38218498048	65	19977
2026-01-25 21:52:11.33	334.82	3.65	-47.2	-49.8	6.2	0.00e+00	0	49	104	38218498048	65	19934
2026-01-25 21:52:12.30	334.92	3.59	-47.2	-49.7	6.2	0.00e+00	0	49	104	38218498048	65	19835
2026-01-25 21:52:13.27	335.02	3.53	-47.1	-49.7	6.2	0.00e+00	0	49	104	38218498048	65	19748
2026-01-25 21:52:14.24	335.12	3.47	-47.1	-49.6	6.2	0.00e+00	0	49	104	38218498048	65	19646
2026-01-25 21:52:15.21	335.21	3.41	-47.1	-49.6	6.2	0.00e+00	0	49	104	38218498048	65	19668
2026-01-25 21:52:16.18	335.31	3.35	-47.1	-49.6	6.2	0.00e+00	0	49	104	38218498048	65	19654
2026-01-25 21:52:17.15	335.41	3.29	-47.1	-49.6	6.2	0.00e+00	0	49	104	38218498048	65	19668
2026-01-25 21:52:18.12	335.50	3.23	-47.1	-49.6	6.2	0.00e+00	0	49	104	38218498048	65	19662
2026-01-25 21:52:19.09	335.60	3.17	-47.1	-49.6	6.2	0.00e+00	0	49	104	38218498048	65	19636
2026-01-25 21:52:20.06	335.69	3.11	-47.1	-49.6	6.2	0.00e+00	0	49	104	38218498048	65	19610
2026-01-25 21:52:21.03	335.79	3.05	-47.0	-49.6	6.2	0.00e+00	0	49	104	38218498048	65	19551
2026-01-25 21:52:21.99	335.88	2.99	-47.0	-49.6	6.2	0.00e+00	0	49	104	38218498048	65	19508
2026-01-25 21:52:22.96	335.97	2.93	-47.0	-49.6	6.2	0.00e+00	0	49	104	38218498048	65	19524
2026-01-25 21:52:23.93	336.07	2.87	-47.0	-49.6	6.2	0.00e+00	0	49	104	38218498048	65	19501
2026-01-25 21:52:24.90	336.16	2.81	-47.0	-49.6	6.2	0.00e+00	0	49	104	38218498048	65	19500
2026-01-25 21:52:25.87	336.25	2.75	-47.0	-49.5	6.2	0.00e+00	0	49	104	38218498048	65	19467
2026-01-25 21:52:26.83	336.34	2.69	-47.0	-49.6	6.2	0.00e+00	0	49	104	38218498048	65	19488
2026-01-25 21:52:27.80	336.43	2.63	-47.0	-49.5	6.2	0.00e+00	0	49	104	38218498048	65	19473
2026-01-25 21:52:28.77	336.52	2.58	-47.0	-49.5	6.2	0.00e+00	0	49	104	38218498048	65	19438
2026-01-25 21:52:29.73	336.61	2.52	-47.0	-49.5	6.2	0.00e+00	0	49	104	38218498048	65	19424
2026-01-25 21:52:30.70	336.70	2.46	-47.0	-49.5	6.2	0.00e+00	0	49	104	38218498048	65	19440
2026-01-25 21:52:31.67	336.79	2.40	-47.0	-49.5	6.2	0.00e+00	0	49	104	38218498048	65	19414
2026-01-25 21:52:32.64	336.88	2.34	-47.0	-49.5	6.2	0.00e+00	0	49	104	38218498048	65	19383
2026-01-25 21:52:33.60	336.97	2.28	-47.0	-49.5	6.2	0.00e+00	0	49	104	38218498048	65	19424
2026-01-25 21:52:34.57	337.06	2.22	-47.0	-49.5	6.2	0.00e+00	0	49	104	38218498048	65	19374
2026-01-25 21:52:35.54	337.15	2.17	-47.0	-49.5	6.2	0.00e+00	0	49	104	38218498048	65	19363
2026-01-25 21:52:36.51	337.23	2.11	-47.0	-49.5	6.2	0.00e+00	0	49	104	38218498048	65	19328
2026-01-25 21:52:37.48	337.32	2.05	-47.0	-49.5	6.2	0.00e+00	0	49	104	38218498048	65	19315
2026-01-25 21:52:38.45	337.41	1.99	-47.0	-49.5	6.2	0.00e+00	0	49	104	38218498048	65	19358
2026-01-25 21:52:39.42	337.50	1.93	-46.9	-49.5	6.2	0.00e+00	0	49	104	38218498048	65	19332
2026-01-25 21:52:40.39	337.58	1.88	-46.9	-49.5	6.2	0.00e+00	0	49	104	38218498048	65	19339

#Closed at: 2026-01-25 21:52:41
#Recorded file [38218 MB]: D:/lorett/data/31045_260126_004248.dat