passes_logs/2026/01/25/R3.2S_Murmansk_2ch/R3.2S_Murmansk_2ch__20260125_215826_JL1KF02B01_rec.log

#Pass ID: 20260125_215826_JL1KF02B01
#Satellite: JL1KF02B01
#Configuration: 01B_900M
#almurnet v.1.7.20251203
#Start time: 2026-01-25 21:58:28

#Version: 2.2.20260125
#Station: R3.2S_Murmansk_2ch
#Location: 33.079688 lon 68.888172 lat
#TLE: 1 61191U 24169C   26025.11087501  .00008286  00000+0  51710-3 0  9998
#TLE: 2 61191  97.5612 116.5381 0014803  91.9188 268.3737 15.09667233 74242

#Time	Az	El	Level	Level2	SNR	BER	BlckErr	Temp	State	Recorded	gain1	gain2
2026-01-25 21:58:28.70	217.60	2.13	-47.8	-50.3	6.3	0.00e+00	0	46	0	0	66	20063
2026-01-25 21:58:29.67	217.70	2.18	-47.8	-50.3	6.2	0.00e+00	0	46	104	0	67	18942
2026-01-25 21:58:30.63	217.80	2.24	-47.8	-50.3	6.2	0.00e+00	0	46	104	0	67	18897
2026-01-25 21:58:31.60	217.90	2.29	-47.7	-50.3	6.2	0.00e+00	0	46	104	0	67	18868
2026-01-25 21:58:32.56	218.00	2.35	-47.7	-50.3	6.2	0.00e+00	0	46	104	0	67	18854
2026-01-25 21:58:33.53	218.10	2.40	-47.7	-50.3	6.2	0.00e+00	0	46	104	0	67	18863
2026-01-25 21:58:34.49	218.20	2.46	-47.7	-50.3	6.2	0.00e+00	0	46	104	0	67	18887
2026-01-25 21:58:35.46	218.30	2.52	-47.9	-50.4	6.2	0.00e+00	0	46	104	0	67	19105
2026-01-25 21:58:36.43	218.41	2.57	-48.0	-50.6	6.2	0.00e+00	0	46	104	0	67	19483
2026-01-25 21:58:37.39	218.51	2.63	-48.1	-50.6	6.2	0.00e+00	0	46	104	0	67	19619
2026-01-25 21:58:38.36	218.61	2.69	-48.1	-50.7	6.2	0.00e+00	0	46	104	0	67	19744
2026-01-25 21:58:39.32	218.71	2.74	-48.2	-50.7	6.2	0.00e+00	0	46	104	0	67	19820
2026-01-25 21:58:40.29	218.82	2.80	-48.1	-50.7	6.2	0.00e+00	0	46	104	0	67	19819
2026-01-25 21:58:41.26	218.92	2.86	-48.2	-50.7	6.2	0.00e+00	0	46	104	0	67	19854
2026-01-25 21:58:42.22	219.03	2.91	-48.1	-50.7	6.2	0.00e+00	0	46	104	0	67	19789
2026-01-25 21:58:43.19	219.13	2.97	-48.1	-50.6	6.2	0.00e+00	0	46	104	0	67	19696
2026-01-25 21:58:44.16	219.24	3.03	-48.1	-50.6	6.2	0.00e+00	0	47	104	0	67	19589
2026-01-25 21:58:45.12	219.34	3.08	-48.0	-50.6	6.2	0.00e+00	0	46	104	0	67	19527
2026-01-25 21:58:46.08	219.45	3.14	-48.0	-50.5	6.2	0.00e+00	0	47	104	0	67	19469
2026-01-25 21:58:47.05	219.56	3.20	-48.0	-50.5	6.2	0.00e+00	0	47	104	0	67	19472
2026-01-25 21:58:48.01	219.66	3.25	-48.0	-50.5	6.2	0.00e+00	0	47	104	0	67	19420
2026-01-25 21:58:48.98	219.77	3.31	-47.9	-50.4	6.2	0.00e+00	0	47	104	0	67	19168
2026-01-25 21:58:49.95	219.88	3.37	-47.8	-50.3	6.2	0.00e+00	0	47	104	0	67	18974
2026-01-25 21:58:50.91	219.99	3.43	-47.8	-50.3	6.2	0.00e+00	0	47	104	0	67	18880
2026-01-25 21:58:51.88	220.10	3.48	-47.7	-50.2	6.2	0.00e+00	0	47	104	0	67	18780
2026-01-25 21:58:52.84	220.21	3.54	-47.6	-50.1	6.2	0.00e+00	0	47	104	0	67	18593
2026-01-25 21:58:53.81	220.32	3.60	-47.5	-50.1	6.2	0.00e+00	0	47	104	0	67	18432
2026-01-25 21:58:54.77	220.43	3.66	-47.4	-49.9	6.2	0.00e+00	0	47	104	0	66	19171
2026-01-25 21:58:55.74	220.54	3.72	-47.3	-49.8	6.2	0.00e+00	0	47	104	0	66	18897
2026-01-25 21:58:56.71	220.65	3.77	-47.1	-49.6	6.2	0.00e+00	0	47	104	0	66	18519
2026-01-25 21:58:57.67	220.77	3.83	-46.6	-49.2	6.2	0.00e+00	0	47	104	0	65	18671
2026-01-25 21:58:58.64	220.88	3.89	-46.4	-49.0	6.2	0.00e+00	0	47	104	0	64	19265
2026-01-25 21:58:59.60	220.99	3.95	-46.4	-49.0	6.2	0.00e+00	0	47	104	0	64	19273
2026-01-25 21:59:00.57	221.11	4.01	-46.4	-48.9	6.2	0.00e+00	0	47	104	0	64	19216
2026-01-25 21:59:01.53	221.22	4.06	-46.4	-48.9	6.2	0.00e+00	0	47	104	0	64	19208
2026-01-25 21:59:02.50	221.34	4.12	-46.4	-48.9	6.2	0.00e+00	0	47	104	0	64	19221
2026-01-25 21:59:03.47	221.45	4.18	-46.4	-48.9	6.2	0.00e+00	0	47	104	0	64	19208
2026-01-25 21:59:04.43	221.57	4.24	-46.4	-48.9	6.2	0.00e+00	0	47	104	0	64	19184
2026-01-25 21:59:05.40	221.69	4.30	-46.4	-48.9	6.2	0.00e+00	0	47	104	0	64	19143
2026-01-25 21:59:06.37	221.81	4.36	-46.4	-48.9	6.2	0.00e+00	0	47	104	0	64	19161
2026-01-25 21:59:07.33	221.92	4.42	-46.4	-48.9	6.2	0.00e+00	0	47	104	0	64	19144
2026-01-25 21:59:08.30	222.04	4.48	-46.4	-48.9	6.2	0.00e+00	0	47	104	0	64	19220
2026-01-25 21:59:09.26	222.16	4.54	-46.4	-48.9	6.2	0.00e+00	0	47	104	0	64	19187
2026-01-25 21:59:10.23	222.28	4.59	-46.4	-48.9	6.2	0.00e+00	0	47	104	0	64	19142
2026-01-25 21:59:11.20	222.40	4.65	-46.4	-48.9	6.2	0.00e+00	0	47	104	0	64	19150
2026-01-25 21:59:12.16	222.52	4.71	-46.4	-48.9	6.2	0.00e+00	0	47	104	0	64	19154
2026-01-25 21:59:13.13	222.65	4.77	-46.3	-48.9	6.2	0.00e+00	0	47	104	0	64	19108
2026-01-25 21:59:14.10	222.77	4.83	-46.3	-48.9	6.2	0.00e+00	0	47	104	0	64	19151
2026-01-25 21:59:15.06	222.89	4.89	-46.3	-48.9	6.2	0.00e+00	0	47	104	0	64	19104
2026-01-25 21:59:16.02	223.01	4.95	-46.3	-48.8	6.2	0.00e+00	0	47	104	0	64	19016
2026-01-25 21:59:16.99	223.14	5.01	-46.3	-48.9	6.2	0.00e+00	0	48	104	0	64	19036
2026-01-25 21:59:17.95	223.26	5.07	-46.5	-49.0	6.2	0.00e+00	0	47	104	0	64	19345
2026-01-25 21:59:18.92	223.39	5.13	-46.3	-48.8	6.2	0.00e+00	0	48	104	0	64	18907
2026-01-25 21:59:19.89	223.51	5.19	-46.4	-49.0	6.2	0.00e+00	0	48	104	0	64	19316
2026-01-25 21:59:20.85	223.64	5.25	-46.3	-48.9	6.2	0.00e+00	0	48	104	0	64	19120
2026-01-25 21:59:21.82	223.77	5.31	-46.3	-48.8	6.2	0.00e+00	0	48	104	0	64	19023
2026-01-25 21:59:22.79	223.90	5.37	-46.2	-48.8	6.2	0.00e+00	0	48	104	0	64	18881
2026-01-25 21:59:23.75	224.02	5.43	-46.4	-49.0	6.2	0.00e+00	0	47	104	0	64	19307
2026-01-25 21:59:24.72	224.15	5.49	-46.4	-48.9	6.2	0.00e+00	0	48	104	0	64	19147
2026-01-25 21:59:25.68	224.28	5.55	-46.3	-48.8	6.2	0.00e+00	0	48	104	0	64	18984
2026-01-25 21:59:26.65	224.41	5.61	-46.3	-48.8	6.2	0.00e+00	0	48	104	0	64	18929
2026-01-25 21:59:27.62	224.54	5.67	-46.3	-48.9	6.2	0.00e+00	0	48	104	0	64	19205
2026-01-25 21:59:28.59	224.68	5.73	-46.4	-48.9	6.2	0.00e+00	0	48	104	0	64	19215
2026-01-25 21:59:29.55	224.81	5.79	-46.3	-48.8	6.2	0.00e+00	0	47	104	0	64	19026
2026-01-25 21:59:30.52	224.94	5.86	-46.3	-48.8	6.2	0.00e+00	0	48	104	0	64	18905
2026-01-25 21:59:31.49	225.08	5.92	-46.3	-48.9	6.2	0.00e+00	0	48	104	0	64	19108
2026-01-25 21:59:32.46	225.21	5.98	-46.4	-48.9	6.2	0.00e+00	0	48	104	0	64	19237
2026-01-25 21:59:33.42	225.35	6.04	-46.3	-48.9	6.2	0.00e+00	0	48	104	0	64	19040
2026-01-25 21:59:34.39	225.48	6.10	-46.3	-48.8	6.2	0.00e+00	0	48	104	0	64	18980
2026-01-25 21:59:35.35	225.62	6.16	-46.3	-48.9	6.2	0.00e+00	0	48	104	0	64	19084
2026-01-25 21:59:36.31	225.75	6.22	-46.4	-49.0	6.2	0.00e+00	0	48	104	0	64	19326
2026-01-25 21:59:37.27	225.89	6.28	-46.3	-48.9	6.2	0.00e+00	0	48	104	0	64	19222
2026-01-25 21:59:38.24	226.03	6.34	-46.3	-48.9	6.2	0.00e+00	0	48	104	0	64	19149
2026-01-25 21:59:39.21	226.17	6.41	-46.3	-48.9	6.2	0.00e+00	0	48	104	0	64	19057
2026-01-25 21:59:40.18	226.31	6.47	-46.4	-49.0	6.2	0.00e+00	0	48	104	0	64	19366
2026-01-25 21:59:41.14	226.45	6.53	-46.4	-48.9	6.2	0.00e+00	0	48	104	0	64	19234
2026-01-25 21:59:42.11	226.59	6.59	-46.3	-48.9	6.2	0.00e+00	0	48	104	0	64	19068
2026-01-25 21:59:43.07	226.73	6.65	-46.3	-48.9	6.2	0.00e+00	0	48	104	0	64	19087
2026-01-25 21:59:44.04	226.87	6.71	-46.5	-49.0	6.2	0.00e+00	0	48	104	0	64	19435
2026-01-25 21:59:45.00	227.02	6.78	-46.4	-49.0	6.2	0.00e+00	0	48	104	0	64	19406
2026-01-25 21:59:45.97	227.16	6.84	-46.4	-48.9	6.2	0.00e+00	0	48	104	0	64	19201
2026-01-25 21:59:46.93	227.31	6.90	-46.3	-48.9	6.2	0.00e+00	0	48	104	0	64	19157
2026-01-25 21:59:47.90	227.45	6.96	-46.5	-49.1	6.2	0.00e+00	0	48	104	0	64	19492
2026-01-25 21:59:48.87	227.60	7.02	-46.4	-49.0	6.2	0.00e+00	0	48	104	0	64	19396
2026-01-25 21:59:49.83	227.74	7.09	-46.4	-48.9	6.2	0.00e+00	0	48	104	0	64	19253
2026-01-25 21:59:50.80	227.89	7.15	-46.4	-48.9	6.2	0.00e+00	0	48	104	0	64	19168
2026-01-25 21:59:51.76	228.04	7.21	-46.5	-49.1	6.2	0.00e+00	0	48	104	0	64	19509
2026-01-25 21:59:52.73	228.19	7.27	-46.5	-49.0	6.2	0.00e+00	0	48	104	0	64	19387
2026-01-25 21:59:53.70	228.34	7.34	-46.4	-49.0	6.2	0.00e+00	0	48	104	0	64	19318
2026-01-25 21:59:54.67	228.49	7.40	-46.4	-49.0	6.2	0.00e+00	0	48	104	0	64	19283
2026-01-25 21:59:55.63	228.64	7.46	-46.5	-49.0	6.2	0.00e+00	0	48	104	0	64	19444
2026-01-25 21:59:56.60	228.80	7.52	-46.5	-49.1	6.2	0.00e+00	0	48	104	0	64	19525
2026-01-25 21:59:57.57	228.95	7.59	-46.4	-49.0	6.2	0.00e+00	0	48	104	0	64	19371
2026-01-25 21:59:58.53	229.10	7.65	-46.4	-49.0	6.2	0.00e+00	0	48	104	0	64	19333
2026-01-25 21:59:59.50	229.26	7.71	-46.5	-49.0	6.2	0.00e+00	0	48	104	0	64	19425
2026-01-25 22:00:00.46	229.41	7.77	-46.5	-49.1	6.2	0.00e+00	0	48	104	0	64	19567
2026-01-25 22:00:01.43	229.57	7.84	-46.4	-49.0	6.2	0.00e+00	0	48	104	0	64	19451
2026-01-25 22:00:02.40	229.73	7.90	-46.4	-49.0	6.2	0.00e+00	0	48	104	0	64	19386
2026-01-25 22:00:03.36	229.88	7.96	-46.5	-49.0	6.2	0.00e+00	0	48	104	0	64	19363
2026-01-25 22:00:04.33	230.04	8.02	-46.5	-49.1	6.2	0.00e+00	0	48	104	0	64	19575
2026-01-25 22:00:05.30	230.20	8.09	-46.5	-49.1	6.2	0.00e+00	0	48	104	0	64	19506
2026-01-25 22:00:06.27	230.36	8.15	-46.5	-49.0	6.2	0.00e+00	0	48	104	0	64	19418
2026-01-25 22:00:07.23	230.52	8.21	-46.5	-49.1	6.2	0.00e+00	0	48	104	0	64	19483
2026-01-25 22:00:08.20	230.69	8.28	-46.6	-49.1	6.2	0.00e+00	0	48	104	0	64	19693
2026-01-25 22:00:09.16	230.85	8.34	-46.5	-49.1	6.2	0.00e+00	0	48	104	0	64	19574
2026-01-25 22:00:10.13	231.01	8.40	-46.5	-49.1	6.2	0.00e+00	0	48	104	0	64	19501
2026-01-25 22:00:11.10	231.18	8.47	-46.5	-49.0	6.2	0.00e+00	0	48	104	0	64	19431
2026-01-25 22:00:12.06	231.34	8.53	-46.6	-49.1	6.2	0.00e+00	0	48	104	0	64	19668
2026-01-25 22:00:13.03	231.51	8.59	-46.5	-49.1	6.2	0.00e+00	0	48	104	0	64	19526
2026-01-25 22:00:14.00	231.68	8.66	-46.5	-49.1	6.2	0.00e+00	0	48	104	0	64	19517
2026-01-25 22:00:14.96	231.84	8.72	-46.5	-49.0	6.2	0.00e+00	0	48	104	0	64	19438
2026-01-25 22:00:15.93	232.01	8.78	-46.6	-49.2	6.2	0.00e+00	0	48	104	0	64	19733
2026-01-25 22:00:16.90	232.18	8.85	-46.5	-49.0	6.2	0.00e+00	0	48	104	0	64	19300
2026-01-25 22:00:17.87	232.35	8.91	-45.3	-47.2	6.3	0.00e+00	0	48	104	0	61	18748
2026-01-25 22:00:18.84	232.53	8.97	-44.7	-46.4	6.3	0.00e+00	0	48	104	0	61	17105
2026-01-25 22:00:19.80	232.70	9.04	-44.6	-46.3	6.3	0.00e+00	0	48	104	0	61	16830
2026-01-25 22:00:20.77	232.87	9.10	-44.3	-45.9	6.3	0.00e+00	0	48	104	0	60	17092
2026-01-25 22:00:21.74	233.04	9.16	-44.1	-45.7	6.4	0.00e+00	0	48	104	0	60	16636
2026-01-25 22:00:22.71	233.22	9.23	-44.5	-46.2	6.3	0.00e+00	0	48	104	0	60	17566
2026-01-25 22:00:23.67	233.39	9.29	-45.1	-46.9	6.3	0.00e+00	0	48	104	0	60	19105
2026-01-25 22:00:24.64	233.57	9.35	-45.6	-47.7	6.3	0.00e+00	0	48	104	0	61	19749
2026-01-25 22:00:25.60	233.75	9.42	-44.3	-45.8	6.4	0.00e+00	0	48	104	0	59	17767
2026-01-25 22:00:26.57	233.93	9.48	-43.5	-44.7	6.5	0.00e+00	0	48	104	0	59	15726
2026-01-25 22:00:27.54	234.11	9.54	-42.7	-43.8	6.6	0.00e+00	0	48	104	0	57	15856
2026-01-25 22:00:28.50	234.29	9.61	-42.2	-43.2	6.7	0.00e+00	0	48	104	0	56	15751
2026-01-25 22:00:29.47	234.47	9.67	-42.3	-43.3	7.0	0.00e+00	0	48	104	0	55	16806
2026-01-25 22:00:30.43	234.65	9.73	-43.4	-44.6	6.7	0.00e+00	0	48	104	0	57	17451
2026-01-25 22:00:31.40	234.83	9.80	-41.6	-42.4	7.3	0.00e+00	0	48	104	0	54	16066
2026-01-25 22:00:32.37	235.02	9.86	-27.1	-27.2	11.9	6.60e-04	0	48	104	0	47	4192
2026-01-25 22:00:33.34	235.20	9.92	-21.6	-21.7	15.5	7.60e-06	0	48	0	41943040	15	13970
2026-01-25 22:00:34.30	235.39	9.99	-22.2	-22.3	13.9	2.19e-04	0	48	0	150994944	16	14152
2026-01-25 22:00:35.27	235.58	10.05	-20.9	-21.0	13.9	2.06e-04	0	49	0	260046848	13	14550
2026-01-25 22:00:36.24	235.76	10.11	-20.8	-20.9	13.7	1.70e-04	0	48	0	369098752	13	14298
2026-01-25 22:00:37.20	235.95	10.18	-20.9	-21.0	13.8	1.41e-04	0	49	0	478150656	13	14528
2026-01-25 22:00:38.17	236.14	10.24	-20.6	-20.7	13.7	1.16e-04	0	48	0	587202560	13	14013
2026-01-25 22:00:39.14	236.33	10.30	-20.7	-20.8	13.7	1.60e-04	0	49	0	687865856	13	14125
2026-01-25 22:00:40.10	236.52	10.37	-20.6	-20.7	13.8	1.37e-04	0	49	0	805306368	13	14028
2026-01-25 22:00:41.06	236.71	10.43	-20.3	-20.4	13.7	1.75e-04	0	49	0	914358272	12	14372
2026-01-25 22:00:42.03	236.91	10.49	-20.5	-20.5	13.7	1.37e-04	0	49	0	1015021568	12	14595
2026-01-25 22:00:43.00	237.10	10.55	-20.6	-20.7	13.7	1.43e-04	0	49	0	1124073472	12	14827
2026-01-25 22:00:43.96	237.30	10.62	-20.4	-20.5	13.8	1.68e-04	0	49	0	1241513984	12	14534
2026-01-25 22:00:44.93	237.50	10.68	-20.3	-20.3	13.7	1.12e-04	0	49	0	1342177280	12	14235
2026-01-25 22:00:45.90	237.69	10.74	-20.3	-20.3	13.8	1.07e-04	0	49	0	1451229184	12	14231
2026-01-25 22:00:46.87	237.89	10.81	-20.2	-20.2	13.7	1.39e-04	0	49	0	1560281088	12	14075
2026-01-25 22:00:47.83	238.09	10.87	-20.2	-20.3	13.8	1.52e-04	0	49	0	1669332992	12	14207
2026-01-25 22:00:48.80	238.29	10.93	-20.2	-20.2	13.7	1.37e-04	0	49	0	1778384896	12	14079
2026-01-25 22:00:49.76	238.49	10.99	-20.2	-20.3	13.7	1.22e-04	0	49	0	1887436800	12	14200
2026-01-25 22:00:50.73	238.70	11.06	-20.1	-20.2	13.7	1.28e-04	0	49	0	1996488704	12	14051
2026-01-25 22:00:51.69	238.90	11.12	-20.2	-20.3	13.7	1.26e-04	0	49	0	2105540608	12	14164
2026-01-25 22:00:52.66	239.10	11.18	-20.2	-20.2	13.8	9.34e-05	0	49	0	2214592512	12	14090
2026-01-25 22:00:53.63	239.31	11.24	-20.2	-20.3	13.7	1.49e-04	0	49	0	2323644416	12	14136
2026-01-25 22:00:54.59	239.51	11.30	-20.1	-20.2	13.7	9.34e-05	0	49	0	2432696320	11	14841
2026-01-25 22:00:55.56	239.72	11.37	-20.1	-20.2	13.7	1.03e-04	0	49	0	2541748224	11	14847
2026-01-25 22:00:56.52	239.93	11.43	-20.1	-20.2	13.7	1.07e-04	0	49	0	2650800128	11	14830
2026-01-25 22:00:57.49	240.14	11.49	-20.3	-20.4	13.8	1.54e-04	0	49	0	2759852032	11	15212
2026-01-25 22:00:58.45	240.35	11.55	-20.3	-20.4	13.7	1.30e-04	0	49	0	2868903936	11	15164
2026-01-25 22:00:59.42	240.56	11.61	-20.4	-20.5	13.7	1.35e-04	0	49	0	2977955840	11	15339
2026-01-25 22:01:00.39	240.77	11.68	-20.1	-20.2	13.8	1.22e-04	0	49	0	3078619136	11	14889
2026-01-25 22:01:01.35	240.99	11.74	-20.1	-20.2	13.7	1.07e-04	0	49	0	3196059648	11	14819
2026-01-25 22:01:02.32	241.20	11.80	-20.3	-20.3	13.7	9.91e-05	0	49	0	3305111552	11	15117
2026-01-25 22:01:03.29	241.42	11.86	-20.3	-20.4	13.7	9.72e-05	0	49	0	3405774848	11	15211
2026-01-25 22:01:04.25	241.63	11.92	-20.3	-20.4	13.8	9.53e-05	0	49	0	3514826752	11	15138
2026-01-25 22:01:05.21	241.85	11.98	-20.3	-20.4	13.8	1.07e-04	0	49	0	3632267264	11	15137
2026-01-25 22:01:06.18	242.07	12.04	-19.9	-20.0	13.7	1.12e-04	0	49	0	3732930560	11	14522
2026-01-25 22:01:07.15	242.29	12.10	-20.0	-20.0	13.8	1.16e-04	0	49	0	3841982464	11	14565
2026-01-25 22:01:08.11	242.51	12.16	-19.9	-20.0	13.8	8.39e-05	0	49	0	3951034368	11	14516
2026-01-25 22:01:09.08	242.73	12.22	-20.1	-20.2	13.7	1.32e-04	0	49	0	4060086272	11	14827
2026-01-25 22:01:10.05	242.96	12.28	-19.9	-20.0	13.8	8.96e-05	0	49	0	4169138176	11	14502
2026-01-25 22:01:11.02	243.18	12.34	-19.9	-20.0	13.8	9.72e-05	0	49	0	4278190080	11	14507
2026-01-25 22:01:11.98	243.41	12.40	-20.0	-20.0	13.8	1.05e-04	0	49	0	4387241984	11	14558
2026-01-25 22:01:12.95	243.63	12.46	-19.9	-20.0	13.8	1.20e-04	0	49	0	4496293888	11	14523
2026-01-25 22:01:13.91	243.86	12.52	-19.7	-19.8	13.8	7.24e-05	0	49	0	4605345792	11	14191
2026-01-25 22:01:14.88	244.09	12.58	-19.8	-19.9	13.8	9.53e-05	0	49	0	4714397696	11	14371
2026-01-25 22:01:15.84	244.32	12.64	-19.8	-19.9	13.7	1.33e-04	0	49	0	4823449600	11	14352
2026-01-25 22:01:16.81	244.55	12.70	-19.9	-20.0	13.8	8.01e-05	0	49	0	4932501504	11	14554
2026-01-25 22:01:17.78	244.78	12.76	-19.9	-20.0	13.9	1.14e-04	0	49	0	5041553408	11	14472
2026-01-25 22:01:18.75	245.01	12.82	-19.8	-19.9	13.8	1.12e-04	0	49	0	5150605312	11	14280
2026-01-25 22:01:19.71	245.24	12.88	-19.9	-19.9	13.8	1.20e-04	0	49	0	5259657216	11	14389
2026-01-25 22:01:20.68	245.48	12.93	-19.8	-19.8	13.8	1.77e-04	0	49	0	5368709120	11	14266
2026-01-25 22:01:21.64	245.71	12.99	-19.6	-19.7	13.9	1.39e-04	0	49	0	5469372416	11	14001
2026-01-25 22:01:22.61	245.95	13.05	-19.6	-19.7	13.9	1.37e-04	0	49	0	5586812928	11	14019
2026-01-25 22:01:23.57	246.19	13.11	-19.6	-19.7	13.8	1.41e-04	0	49	0	5695864832	11	14023
2026-01-25 22:01:24.54	246.43	13.16	-19.5	-19.6	13.8	1.58e-04	0	49	0	5796528128	11	13867
2026-01-25 22:01:25.51	246.67	13.22	-19.5	-19.6	13.8	1.47e-04	0	49	0	5913968640	11	13835
2026-01-25 22:01:26.47	246.91	13.28	-19.6	-19.6	13.8	1.73e-04	0	49	0	6023020544	11	13941
2026-01-25 22:01:27.44	247.15	13.33	-19.5	-19.6	13.9	2.04e-04	0	49	0	6123683840	11	13827
2026-01-25 22:01:28.41	247.40	13.39	-19.4	-19.5	13.8	1.33e-04	0	49	0	6241124352	10	14454
2026-01-25 22:01:29.38	247.64	13.45	-19.4	-19.4	13.9	1.79e-04	0	49	0	6341787648	10	14439
2026-01-25 22:01:30.35	247.89	13.50	-19.3	-19.4	13.9	1.68e-04	0	49	0	6450839552	10	14390
2026-01-25 22:01:31.31	248.13	13.56	-19.3	-19.4	13.9	1.73e-04	0	49	0	6568280064	10	14358
2026-01-25 22:01:32.28	248.38	13.61	-19.4	-19.4	13.8	1.49e-04	0	49	0	6668943360	10	14385
2026-01-25 22:01:33.25	248.63	13.67	-19.4	-19.4	14.0	1.60e-04	0	49	0	6777995264	10	14395
2026-01-25 22:01:34.21	248.88	13.72	-19.3	-19.4	13.9	1.60e-04	0	49	0	6887047168	10	14281
2026-01-25 22:01:35.18	249.13	13.78	-19.3	-19.4	13.8	1.51e-04	0	49	0	6996099072	10	14304
2026-01-25 22:01:36.15	249.38	13.83	-19.2	-19.3	13.9	1.51e-04	0	49	0	7105150976	10	14203
2026-01-25 22:01:37.12	249.64	13.89	-19.3	-19.3	14.1	1.12e-04	0	49	0	7214202880	10	14247
2026-01-25 22:01:38.08	249.89	13.94	-19.3	-19.3	14.1	9.53e-05	0	49	0	7323254784	10	14232
2026-01-25 22:01:39.04	250.14	13.99	-19.0	-19.1	14.1	8.20e-05	0	49	0	7432306688	10	13888
2026-01-25 22:01:40.01	250.40	14.05	-19.1	-19.2	14.1	6.67e-05	0	49	0	7541358592	10	14006
2026-01-25 22:01:40.98	250.66	14.10	-19.2	-19.3	14.2	3.62e-05	0	49	0	7650410496	10	14133
2026-01-25 22:01:41.94	250.91	14.15	-19.2	-19.2	14.2	4.57e-05	0	49	0	7759462400	10	14065
2026-01-25 22:01:42.91	251.17	14.20	-19.2	-19.3	14.2	2.86e-05	0	49	0	7868514304	10	14169
2026-01-25 22:01:43.87	251.43	14.25	-19.3	-19.3	14.2	2.67e-05	0	49	0	7977566208	10	14265
2026-01-25 22:01:44.84	251.69	14.30	-19.3	-19.3	14.2	1.90e-05	0	49	0	8086618112	10	14239
2026-01-25 22:01:45.81	251.96	14.36	-19.1	-19.2	14.3	2.28e-05	0	49	0	8195670016	10	13957
2026-01-25 22:01:46.78	252.22	14.41	-19.2	-19.3	14.3	2.47e-05	0	49	0	8304721920	10	14198
2026-01-25 22:01:47.74	252.48	14.46	-19.3	-19.3	14.3	7.60e-06	0	49	0	8413773824	10	14235
2026-01-25 22:01:48.71	252.75	14.51	-19.1	-19.2	14.4	1.71e-05	0	49	0	8522825728	10	14039
2026-01-25 22:01:49.68	253.02	14.56	-19.2	-19.3	14.2	1.52e-05	0	49	0	8631877632	10	14133
2026-01-25 22:01:50.64	253.28	14.60	-19.1	-19.1	14.3	7.60e-06	0	49	0	8732540928	10	13894
2026-01-25 22:01:51.61	253.55	14.65	-19.0	-19.1	14.3	5.70e-06	0	49	0	8849981440	10	13873
2026-01-25 22:01:52.58	253.82	14.70	-19.0	-19.0	14.3	1.14e-05	0	49	0	8959033344	9	14586
2026-01-25 22:01:53.54	254.09	14.75	-18.9	-19.0	14.3	7.60e-06	0	49	0	9059696640	9	14450
2026-01-25 22:01:54.51	254.36	14.80	-18.9	-19.0	14.4	9.50e-06	0	49	0	9177137152	9	14487
2026-01-25 22:01:55.47	254.63	14.84	-18.8	-18.9	14.3	7.60e-06	0	49	0	9277800448	9	14350
2026-01-25 22:01:56.44	254.91	14.89	-18.8	-18.9	14.3	3.80e-06	0	49	0	9386852352	9	14368
2026-01-25 22:01:57.41	255.18	14.94	-18.9	-19.0	14.3	3.80e-06	0	49	0	9504292864	9	14441
2026-01-25 22:01:58.38	255.46	14.98	-18.8	-18.9	14.5	3.80e-06	0	49	0	9604956160	9	14323
2026-01-25 22:01:59.34	255.73	15.03	-18.7	-18.8	14.4	7.60e-06	0	49	0	9714008064	9	14208
2026-01-25 22:02:00.31	256.01	15.07	-18.9	-18.9	14.4	5.70e-06	0	49	0	9823059968	9	14391
2026-01-25 22:02:01.27	256.29	15.11	-18.8	-18.9	14.3	0.00e+00	0	49	0	9932111872	9	14382
2026-01-25 22:02:02.24	256.57	15.16	-18.8	-18.9	14.5	1.90e-06	0	49	0	10041163776	9	14308
2026-01-25 22:02:03.21	256.85	15.20	-18.7	-18.8	14.7	1.90e-06	0	49	0	10150215680	9	14194
2026-01-25 22:02:04.17	257.13	15.24	-18.9	-19.0	14.6	3.80e-06	0	49	0	10259267584	9	14510
2026-01-25 22:02:05.13	257.41	15.29	-18.8	-18.8	14.5	3.80e-06	0	49	0	10368319488	9	14265
2026-01-25 22:02:06.10	257.69	15.33	-18.7	-18.7	14.5	5.70e-06	0	49	0	10477371392	9	14108
2026-01-25 22:02:07.07	257.97	15.37	-18.7	-18.7	14.7	0.00e+00	0	49	0	10586423296	9	14057
2026-01-25 22:02:08.03	258.26	15.41	-18.7	-18.8	14.6	9.50e-06	0	49	0	10695475200	9	14170
2026-01-25 22:02:09.00	258.54	15.45	-18.7	-18.7	14.5	2.86e-05	0	49	0	10796138496	9	14095
2026-01-25 22:02:09.97	258.83	15.49	-18.8	-18.9	14.4	9.34e-05	0	49	0	10913579008	9	14325
2026-01-25 22:02:10.93	259.11	15.53	-18.8	-18.9	14.5	1.20e-04	0	49	0	11022630912	9	14309
2026-01-25 22:02:11.89	259.40	15.57	-18.7	-18.8	14.4	1.54e-04	0	49	0	11123294208	9	14135
2026-01-25 22:02:12.86	259.69	15.61	-18.7	-18.7	14.5	2.14e-04	0	49	0	11240734720	9	14072
2026-01-25 22:02:13.82	259.98	15.64	-18.7	-18.8	14.4	2.00e-04	0	49	0	11349786624	9	14177
2026-01-25 22:02:14.79	260.27	15.68	-18.8	-18.9	14.4	1.30e-04	0	49	0	11450449920	9	14275
2026-01-25 22:02:15.76	260.56	15.72	-18.7	-18.8	14.3	1.39e-04	0	49	0	11567890432	9	14132
2026-01-25 22:02:16.72	260.85	15.75	-18.7	-18.7	14.5	1.85e-04	0	49	0	11668553728	9	14097
2026-01-25 22:02:17.69	261.14	15.79	-18.7	-18.7	14.4	1.56e-04	0	50	0	11777605632	9	14080
2026-01-25 22:02:18.66	261.44	15.82	-18.7	-18.8	14.4	9.34e-05	0	49	0	11895046144	9	14172
2026-01-25 22:02:19.62	261.73	15.86	-18.7	-18.8	14.3	1.52e-04	0	49	0	11995709440	9	14206
2026-01-25 22:02:20.59	262.03	15.89	-18.7	-18.8	14.3	1.47e-04	0	49	0	12104761344	9	14156
2026-01-25 22:02:21.56	262.32	15.93	-18.7	-18.7	14.2	1.47e-04	0	49	0	12213813248	9	14073
2026-01-25 22:02:22.52	262.62	15.96	-18.7	-18.7	14.2	1.68e-04	0	50	0	12322865152	9	14091
2026-01-25 22:02:23.49	262.92	15.99	-18.7	-18.8	14.2	1.64e-04	0	49	0	12431917056	9	14179
2026-01-25 22:02:24.45	263.21	16.02	-18.6	-18.7	14.3	2.23e-04	0	50	0	12540968960	9	14026
2026-01-25 22:02:25.42	263.51	16.05	-18.6	-18.7	14.3	2.02e-04	0	49	0	12650020864	9	13992
2026-01-25 22:02:26.39	263.81	16.08	-18.6	-18.7	14.3	2.54e-04	0	49	0	12759072768	9	13995
2026-01-25 22:02:27.35	264.11	16.11	-18.7	-18.7	14.4	2.29e-04	0	49	0	12868124672	9	14066
2026-01-25 22:02:28.31	264.41	16.14	-18.6	-18.7	14.2	2.14e-04	0	49	0	12977176576	9	14044
2026-01-25 22:02:29.28	264.71	16.17	-18.6	-18.7	14.0	1.60e-04	0	49	0	13086228480	9	13989
2026-01-25 22:02:30.25	265.01	16.20	-18.6	-18.6	14.1	2.35e-04	0	50	0	13186891776	9	13944
2026-01-25 22:02:31.21	265.31	16.22	-18.7	-18.8	14.2	1.68e-04	0	49	0	13304332288	9	14118
2026-01-25 22:02:32.18	265.62	16.25	-18.7	-18.8	14.0	1.72e-04	0	50	0	13413384192	9	14146
2026-01-25 22:02:33.15	265.92	16.28	-18.7	-18.8	14.2	2.37e-04	0	49	0	13514047488	9	14147
2026-01-25 22:02:34.11	266.22	16.30	-18.8	-18.8	14.0	1.72e-04	0	49	0	13631488000	9	14244
2026-01-25 22:02:35.07	266.53	16.32	-18.6	-18.7	14.2	1.52e-04	0	49	0	13740539904	9	14017
2026-01-25 22:02:36.04	266.83	16.35	-18.7	-18.7	14.2	1.60e-04	0	50	0	13841203200	9	14101
2026-01-25 22:02:37.00	267.14	16.37	-18.5	-18.6	14.2	1.47e-04	0	49	0	13958643712	9	13813
2026-01-25 22:02:37.97	267.44	16.39	-18.6	-18.7	14.1	1.77e-04	0	49	0	14059307008	9	14042
2026-01-25 22:02:38.93	267.75	16.42	-18.6	-18.7	14.1	1.91e-04	0	49	0	14168358912	9	13986
2026-01-25 22:02:39.90	268.06	16.44	-18.7	-18.8	14.1	2.12e-04	0	49	0	14277410816	9	14126
2026-01-25 22:02:40.87	268.37	16.46	-18.7	-18.8	14.2	2.48e-04	0	50	0	14386462720	9	14224
2026-01-25 22:02:41.84	268.68	16.48	-18.6	-18.6	14.1	1.49e-04	0	49	0	14495514624	9	13907
2026-01-25 22:02:42.80	268.98	16.50	-18.6	-18.7	14.1	1.68e-04	0	49	0	14604566528	9	13981
2026-01-25 22:02:43.77	269.29	16.51	-18.6	-18.7	14.2	1.56e-04	0	49	0	14713618432	9	14003
2026-01-25 22:02:44.73	269.60	16.53	-18.6	-18.7	14.2	2.54e-04	0	49	0	14822670336	9	13987
2026-01-25 22:02:45.70	269.91	16.55	-18.6	-18.7	14.1	1.72e-04	0	50	0	14931722240	9	14012
2026-01-25 22:02:46.66	270.22	16.56	-18.4	-18.4	14.1	2.21e-04	0	49	0	15040774144	8	14434
2026-01-25 22:02:47.63	270.53	16.58	-18.4	-18.5	14.0	1.49e-04	0	49	0	15149826048	8	14467
2026-01-25 22:02:48.60	270.84	16.59	-18.5	-18.6	14.1	2.61e-04	0	49	0	15258877952	8	14618
2026-01-25 22:02:49.56	271.15	16.61	-18.4	-18.5	14.0	2.25e-04	0	49	0	15367929856	8	14476
2026-01-25 22:02:50.53	271.47	16.62	-18.4	-18.4	14.0	1.41e-04	0	49	0	15476981760	8	14389
2026-01-25 22:02:51.50	271.78	16.63	-18.4	-18.5	14.1	2.29e-04	0	49	0	15577645056	8	14488
2026-01-25 22:02:52.46	272.09	16.65	-18.4	-18.5	14.0	2.31e-04	0	49	0	15695085568	8	14453
2026-01-25 22:02:53.43	272.40	16.66	-18.6	-18.6	14.0	2.23e-04	0	49	0	15804137472	8	14745
2026-01-25 22:02:54.40	272.72	16.67	-18.5	-18.6	14.0	1.66e-04	0	49	0	15904800768	8	14650
2026-01-25 22:02:55.36	273.03	16.68	-18.5	-18.6	14.0	1.89e-04	0	49	0	16022241280	8	14702
2026-01-25 22:02:56.33	273.34	16.69	-18.6	-18.7	14.0	2.04e-04	0	49	0	16131293184	8	14811
2026-01-25 22:02:57.30	273.66	16.69	-18.6	-18.7	14.0	2.21e-04	0	49	0	16231956480	8	14856
2026-01-25 22:02:58.26	273.97	16.70	-18.6	-18.7	13.9	2.35e-04	0	50	0	16349396992	8	14859
2026-01-25 22:02:59.23	274.28	16.71	-18.7	-18.8	13.9	1.81e-04	0	50	0	16450060288	8	14984
2026-01-25 22:03:00.20	274.60	16.71	-18.7	-18.7	13.9	1.91e-04	0	49	0	16559112192	8	14943
2026-01-25 22:03:01.16	274.91	16.72	-18.7	-18.7	14.0	1.28e-04	0	49	0	16676552704	8	14938
2026-01-25 22:03:02.13	275.22	16.72	-18.7	-18.7	13.9	8.39e-05	0	50	0	16777216000	8	14940
2026-01-25 22:03:03.10	275.54	16.73	-18.7	-18.8	13.9	1.16e-04	0	50	0	16886267904	8	14967
2026-01-25 22:03:04.07	275.86	16.73	-18.7	-18.8	13.9	1.35e-04	0	50	0	16995319808	8	14979
2026-01-25 22:03:05.03	276.17	16.73	-18.7	-18.8	13.9	2.86e-05	0	49	0	17104371712	8	14972
2026-01-25 22:03:06.00	276.48	16.73	-18.8	-18.8	13.9	1.18e-04	0	49	0	17213423616	8	15083
2026-01-25 22:03:06.97	276.80	16.73	-18.8	-18.8	13.9	6.29e-05	0	49	0	17322475520	8	15099
2026-01-25 22:03:07.94	277.11	16.73	-18.7	-18.8	13.9	1.79e-04	0	50	0	17431527424	8	15036
2026-01-25 22:03:08.91	277.43	16.73	-18.7	-18.7	13.9	7.62e-05	0	50	0	17540579328	8	14935
2026-01-25 22:03:09.87	277.74	16.73	-18.8	-18.8	13.8	8.20e-05	0	50	0	17649631232	8	15071
2026-01-25 22:03:10.84	278.06	16.73	-18.8	-18.8	13.9	1.66e-04	0	49	0	17758683136	8	15119
2026-01-25 22:03:11.81	278.37	16.73	-18.8	-18.8	13.9	6.86e-05	0	49	0	17867735040	8	15089
2026-01-25 22:03:12.78	278.69	16.72	-18.8	-18.8	13.8	1.14e-04	0	49	0	17976786944	8	15064
2026-01-25 22:03:13.75	279.00	16.72	-18.8	-18.9	13.8	8.77e-05	0	49	0	18085838848	8	15123
2026-01-25 22:03:14.72	279.32	16.71	-18.8	-18.9	13.9	1.26e-04	0	49	0	18194890752	8	15200
2026-01-25 22:03:15.69	279.63	16.71	-18.8	-18.8	13.8	8.20e-05	0	49	0	18303942656	8	15103
2026-01-25 22:03:16.66	279.95	16.70	-18.7	-18.8	13.8	8.77e-05	0	50	0	18412994560	8	15039
2026-01-25 22:03:17.63	280.26	16.69	-18.8	-18.9	13.8	5.53e-05	0	49	0	18522046464	8	15191
2026-01-25 22:03:18.60	280.58	16.69	-18.8	-18.9	13.8	1.26e-04	0	50	0	18631098368	8	15190
2026-01-25 22:03:19.56	280.89	16.68	-18.9	-19.0	13.8	7.05e-05	0	50	0	18740150272	8	15359
2026-01-25 22:03:20.53	281.20	16.67	-18.9	-19.0	13.8	1.11e-04	0	49	0	18849202176	8	15372
2026-01-25 22:03:21.50	281.52	16.66	-18.9	-19.0	13.8	5.34e-05	0	50	0	18958254080	8	15320
2026-01-25 22:03:22.47	281.83	16.65	-18.9	-19.0	13.8	4.57e-05	0	50	0	19067305984	8	15372
2026-01-25 22:03:23.44	282.14	16.63	-18.9	-19.0	13.8	6.48e-05	0	49	0	19176357888	8	15359
2026-01-25 22:03:24.41	282.46	16.62	-19.0	-19.1	13.8	7.43e-05	0	49	0	19285409792	8	15515
2026-01-25 22:03:25.38	282.77	16.61	-18.9	-19.0	13.8	5.34e-05	0	50	0	19394461696	8	15349
2026-01-25 22:03:26.35	283.08	16.59	-18.8	-18.9	13.8	5.72e-05	0	50	0	19503513600	8	15122
2026-01-25 22:03:27.32	283.39	16.58	-18.9	-19.0	13.8	7.62e-05	0	49	0	19612565504	8	15324
2026-01-25 22:03:28.30	283.71	16.56	-18.9	-19.0	13.8	6.67e-05	0	50	0	19721617408	8	15309
2026-01-25 22:03:29.27	284.02	16.55	-19.0	-19.0	13.8	1.03e-04	0	50	0	19830669312	8	15412
2026-01-25 22:03:30.24	284.33	16.53	-19.0	-19.1	13.8	8.01e-05	0	50	0	19939721216	8	15478
2026-01-25 22:03:31.21	284.64	16.51	-18.9	-18.9	13.8	6.48e-05	0	50	0	20057161728	8	15273
2026-01-25 22:03:32.19	284.95	16.50	-18.8	-18.9	13.8	5.72e-05	0	50	0	20157825024	8	15207
2026-01-25 22:03:33.16	285.26	16.48	-18.9	-19.0	13.8	8.96e-05	0	50	0	20275265536	8	15368
2026-01-25 22:03:34.14	285.57	16.46	-19.1	-19.2	13.8	1.16e-04	0	50	0	20375928832	8	15753
2026-01-25 22:03:35.11	285.88	16.44	-19.1	-19.2	13.9	6.48e-05	0	50	0	20493369344	8	15705
2026-01-25 22:03:36.10	286.20	16.41	-19.3	-19.4	14.0	6.48e-05	0	50	0	20602421248	9	15139
2026-01-25 22:03:37.08	286.51	16.39	-19.2	-19.3	13.8	8.77e-05	0	50	0	20711473152	9	14987
2026-01-25 22:03:38.07	286.82	16.37	-19.2	-19.3	13.9	6.67e-05	0	50	0	20820525056	9	15034
2026-01-25 22:03:39.05	287.13	16.35	-19.4	-19.4	13.9	8.77e-05	0	50	0	20937965568	9	15256
2026-01-25 22:03:40.04	287.44	16.32	-19.3	-19.3	13.9	7.62e-05	0	49	0	21047017472	9	15115
2026-01-25 22:03:41.02	287.75	16.30	-19.3	-19.4	13.9	6.86e-05	0	50	0	21156069376	9	15192
2026-01-25 22:03:42.00	288.06	16.27	-19.3	-19.3	13.8	7.62e-05	0	50	0	21265121280	9	15094
2026-01-25 22:03:43.00	288.37	16.25	-19.3	-19.3	13.8	7.24e-05	0	50	0	21382561792	9	15093
2026-01-25 22:03:44.01	288.69	16.22	-19.4	-19.4	13.9	8.77e-05	0	50	0	21491613696	9	15279
2026-01-25 22:03:45.01	289.00	16.19	-19.3	-19.4	13.9	7.05e-05	0	50	0	21609054208	9	15206
2026-01-25 22:03:46.02	289.32	16.16	-19.3	-19.4	13.9	8.39e-05	0	50	0	21718106112	9	15217
2026-01-25 22:03:47.03	289.63	16.13	-19.4	-19.5	13.8	9.72e-05	0	50	0	21827158016	9	15332
2026-01-25 22:03:48.04	289.94	16.10	-19.5	-19.5	13.8	8.96e-05	0	50	0	21944598528	9	15428
2026-01-25 22:03:49.05	290.26	16.07	-19.4	-19.5	13.8	7.43e-05	0	50	0	22053650432	9	15354
2026-01-25 22:03:50.06	290.57	16.04	-19.6	-19.6	13.8	1.51e-04	0	50	0	22171090944	9	15636
2026-01-25 22:03:51.07	290.88	16.01	-19.6	-19.6	14.0	8.58e-05	0	50	0	22288531456	9	15644
2026-01-25 22:03:52.08	291.19	15.97	-19.5	-19.6	13.9	1.37e-04	0	50	0	22397583360	9	15548
2026-01-25 22:03:53.09	291.50	15.94	-19.4	-19.5	13.8	8.58e-05	0	50	0	22515023872	9	15406
2026-01-25 22:03:54.10	291.81	15.90	-19.5	-19.5	13.9	1.16e-04	0	50	0	22624075776	9	15435
2026-01-25 22:03:55.11	292.12	15.87	-19.6	-19.7	13.9	2.04e-04	0	49	0	22741516288	9	15742
2026-01-25 22:03:56.11	292.42	15.83	-19.7	-19.8	13.9	1.33e-04	0	50	0	22850568192	10	14986
2026-01-25 22:03:57.13	292.73	15.80	-19.6	-19.7	13.9	1.41e-04	0	49	0	22968008704	10	14888
2026-01-25 22:03:58.13	293.03	15.76	-19.7	-19.8	13.8	1.20e-04	0	50	0	23077060608	10	14965
2026-01-25 22:03:59.14	293.34	15.72	-19.6	-19.7	14.0	1.41e-04	0	49	0	23194501120	10	14823
2026-01-25 22:04:00.15	293.64	15.69	-19.7	-19.8	14.0	1.43e-04	0	50	0	23311941632	10	15007
2026-01-25 22:04:01.16	293.94	15.65	-19.7	-19.8	13.9	1.87e-04	0	50	0	23420993536	10	15036
2026-01-25 22:04:02.17	294.24	15.61	-19.7	-19.8	13.9	1.12e-04	0	50	0	23538434048	10	15020
2026-01-25 22:04:03.18	294.55	15.57	-19.7	-19.8	14.0	1.09e-04	0	50	0	23647485952	10	14949
2026-01-25 22:04:04.19	294.84	15.53	-19.8	-19.8	14.0	2.54e-04	0	49	0	23756537856	10	15092
2026-01-25 22:04:05.21	295.15	15.49	-19.8	-19.9	14.0	9.72e-05	0	49	0	23882366976	10	15193
2026-01-25 22:04:06.22	295.45	15.44	-19.8	-19.9	14.0	1.51e-04	0	50	0	23991418880	10	15152
2026-01-25 22:04:07.23	295.74	15.40	-19.8	-19.9	14.0	1.30e-04	0	49	0	24100470784	10	15139
2026-01-25 22:04:08.24	296.04	15.36	-19.8	-19.9	14.0	1.79e-04	0	50	0	24217911296	10	15226
2026-01-25 22:04:09.25	296.33	15.32	-19.9	-19.9	13.9	1.56e-04	0	50	0	24326963200	10	15255
2026-01-25 22:04:10.26	296.63	15.27	-19.8	-19.9	13.9	1.81e-04	0	50	0	24444403712	10	15200
2026-01-25 22:04:11.27	296.92	15.23	-19.9	-20.0	13.9	1.70e-04	0	50	0	24561844224	10	15313
2026-01-25 22:04:12.28	297.21	15.18	-20.0	-20.0	13.9	1.51e-04	0	50	0	24670896128	10	15434
2026-01-25 22:04:13.29	297.50	15.14	-19.9	-20.0	13.9	1.33e-04	0	50	0	24779948032	10	15316
2026-01-25 22:04:14.29	297.79	15.09	-19.9	-19.9	14.0	1.32e-04	0	49	0	24897388544	10	15244
2026-01-25 22:04:15.30	298.08	15.05	-20.0	-20.0	14.0	1.85e-04	0	50	0	25014829056	10	15453
2026-01-25 22:04:16.31	298.37	15.00	-19.9	-20.0	14.0	1.45e-04	0	50	0	25123880960	10	15378
2026-01-25 22:04:17.32	298.66	14.95	-19.9	-19.9	14.0	1.81e-04	0	50	0	25241321472	10	15283
2026-01-25 22:04:18.33	298.94	14.90	-20.0	-20.0	14.1	1.37e-04	0	50	0	25350373376	10	15467
2026-01-25 22:04:19.34	299.23	14.86	-19.9	-20.0	14.0	1.66e-04	0	50	0	25467813888	10	15301
2026-01-25 22:04:20.35	299.51	14.81	-20.0	-20.0	14.0	1.72e-04	0	50	0	25576865792	10	15467
2026-01-25 22:04:21.36	299.79	14.76	-19.9	-20.0	14.0	1.49e-04	0	50	0	25694306304	10	15416
2026-01-25 22:04:22.37	300.08	14.71	-19.9	-20.0	14.1	1.47e-04	0	50	0	25811746816	10	15371
2026-01-25 22:04:23.38	300.36	14.66	-19.8	-19.9	14.0	2.31e-04	0	50	0	25920798720	10	15212
2026-01-25 22:04:24.39	300.64	14.61	-20.0	-20.0	14.1	1.09e-04	0	50	0	26029850624	10	15448
2026-01-25 22:04:25.40	300.91	14.56	-20.0	-20.0	14.0	1.60e-04	0	50	0	26147291136	10	15451
2026-01-25 22:04:26.41	301.19	14.51	-20.1	-20.2	13.9	1.77e-04	0	50	0	26264731648	10	15662
2026-01-25 22:04:27.42	301.47	14.45	-19.9	-20.0	13.9	1.45e-04	0	49	0	26373783552	10	15321
2026-01-25 22:04:28.43	301.74	14.40	-20.1	-20.1	14.1	1.24e-04	0	50	0	26491224064	10	15648
2026-01-25 22:04:29.44	302.02	14.35	-20.1	-20.2	13.9	1.41e-04	0	50	0	26600275968	10	15665
2026-01-25 22:04:30.45	302.29	14.30	-20.0	-20.1	13.9	1.85e-04	0	50	0	26709327872	10	15577
2026-01-25 22:04:31.46	302.56	14.24	-20.0	-20.1	14.0	1.89e-04	0	50	0	26835156992	10	15489
2026-01-25 22:04:32.47	302.83	14.19	-20.2	-20.2	13.9	1.56e-04	0	50	0	26944208896	10	15813
2026-01-25 22:04:33.48	303.10	14.13	-20.1	-20.2	13.9	1.73e-04	0	50	0	27053260800	10	15657
2026-01-25 22:04:34.49	303.37	14.08	-20.1	-20.2	13.9	1.43e-04	0	50	0	27170701312	10	15697
2026-01-25 22:04:35.50	303.64	14.03	-20.1	-20.1	13.9	1.54e-04	0	50	0	27279753216	10	15634
2026-01-25 22:04:36.51	303.90	13.97	-20.1	-20.2	13.9	1.03e-04	0	50	0	27397193728	10	15747
2026-01-25 22:04:37.52	304.17	13.91	-20.2	-20.3	13.9	1.18e-04	0	49	0	27514634240	11	14949
2026-01-25 22:04:38.52	304.43	13.86	-20.1	-20.2	13.9	9.91e-05	0	50	0	27623686144	11	14826
2026-01-25 22:04:39.53	304.69	13.80	-20.4	-20.4	13.9	1.37e-04	0	49	0	27741126656	11	15242
2026-01-25 22:04:40.54	304.95	13.75	-20.2	-20.3	13.9	1.39e-04	0	50	0	27850178560	11	14965
2026-01-25 22:04:41.55	305.22	13.69	-20.1	-20.2	13.9	1.20e-04	0	50	0	27959230464	11	14809
2026-01-25 22:04:42.56	305.47	13.63	-20.1	-20.2	13.9	1.26e-04	0	50	0	28076670976	11	14829
2026-01-25 22:04:43.57	305.73	13.57	-20.2	-20.2	13.9	9.53e-05	0	50	0	28194111488	11	14946
2026-01-25 22:04:44.58	305.99	13.52	-20.2	-20.2	13.8	1.22e-04	0	50	0	28303163392	11	14924
2026-01-25 22:04:45.59	306.25	13.46	-20.1	-20.1	13.9	9.15e-05	0	50	0	28420603904	11	14756
2026-01-25 22:04:46.60	306.50	13.40	-20.1	-20.2	13.8	7.05e-05	0	50	0	28529655808	11	14824
2026-01-25 22:04:47.61	306.75	13.34	-20.1	-20.2	13.9	1.47e-04	0	50	0	28647096320	11	14816
2026-01-25 22:04:48.62	307.01	13.28	-20.1	-20.2	13.8	1.01e-04	0	50	0	28764536832	11	14847
2026-01-25 22:04:49.63	307.26	13.22	-20.0	-20.0	13.9	1.33e-04	0	50	0	28873588736	11	14606
2026-01-25 22:04:50.64	307.51	13.16	-20.1	-20.2	13.8	1.07e-04	0	50	0	28982640640	11	14869
2026-01-25 22:04:51.65	307.76	13.10	-20.2	-20.2	13.8	8.01e-05	0	50	0	29100081152	11	14904
2026-01-25 22:04:52.66	308.00	13.04	-20.1	-20.2	13.8	1.01e-04	0	50	0	29217521664	11	14863
2026-01-25 22:04:53.67	308.25	12.98	-20.1	-20.2	13.9	8.96e-05	0	49	0	29326573568	11	14878
2026-01-25 22:04:54.68	308.50	12.92	-20.1	-20.2	13.9	8.58e-05	0	50	0	29444014080	11	14872
2026-01-25 22:04:55.69	308.74	12.86	-20.2	-20.3	13.8	5.91e-05	0	50	0	29553065984	11	14993
2026-01-25 22:04:56.70	308.98	12.80	-20.4	-20.4	13.9	6.67e-05	0	50	0	29662117888	11	15263
2026-01-25 22:04:57.71	309.22	12.74	-20.3	-20.4	13.8	9.53e-05	0	50	0	29787947008	11	15221
2026-01-25 22:04:58.72	309.47	12.68	-20.3	-20.4	13.8	8.01e-05	0	50	0	29896998912	11	15204
2026-01-25 22:04:59.73	309.71	12.62	-20.4	-20.4	13.8	8.39e-05	0	50	0	30006050816	11	15263
2026-01-25 22:05:00.74	309.94	12.56	-20.2	-20.3	13.8	7.82e-05	0	50	0	30123491328	11	15016
2026-01-25 22:05:01.75	310.18	12.50	-20.3	-20.3	13.8	8.96e-05	0	50	0	30232543232	11	15079
2026-01-25 22:05:02.76	310.42	12.43	-20.3	-20.3	13.8	4.57e-05	0	50	0	30349983744	11	15118
2026-01-25 22:05:03.77	310.65	12.37	-20.3	-20.4	13.8	9.34e-05	0	50	0	30467424256	11	15228
2026-01-25 22:05:04.78	310.89	12.31	-20.3	-20.4	13.8	7.62e-05	0	50	0	30576476160	11	15197
2026-01-25 22:05:05.79	311.12	12.25	-20.4	-20.5	13.8	8.01e-05	0	50	0	30693916672	11	15349
2026-01-25 22:05:06.80	311.35	12.18	-20.6	-20.7	13.8	9.34e-05	0	50	0	30802968576	11	15654
2026-01-25 22:05:07.81	311.58	12.12	-20.5	-20.6	13.8	1.05e-04	0	50	0	30920409088	11	15476
2026-01-25 22:05:08.82	311.81	12.06	-20.4	-20.4	13.8	9.53e-05	0	49	0	31029460992	11	15254
2026-01-25 22:05:09.83	312.04	11.99	-20.5	-20.6	13.8	9.72e-05	0	50	0	31146901504	11	15557
2026-01-25 22:05:10.84	312.26	11.93	-20.4	-20.4	13.8	9.91e-05	0	50	0	31255953408	11	15285
2026-01-25 22:05:11.85	312.49	11.87	-20.4	-20.5	13.8	9.15e-05	0	49	0	31373393920	11	15403
2026-01-25 22:05:12.86	312.71	11.80	-20.6	-20.6	13.9	1.30e-04	0	50	0	31490834432	11	15630
2026-01-25 22:05:13.87	312.94	11.74	-20.5	-20.6	13.8	1.03e-04	0	50	0	31599886336	12	14655
2026-01-25 22:05:14.88	313.16	11.68	-20.4	-20.4	13.8	7.05e-05	0	50	0	31717326848	12	14436
2026-01-25 22:05:15.89	313.38	11.61	-20.5	-20.6	13.8	1.14e-04	0	50	0	31826378752	12	14612
2026-01-25 22:05:16.90	313.60	11.55	-20.5	-20.5	13.8	1.20e-04	0	50	0	31943819264	12	14568
2026-01-25 22:05:17.91	313.82	11.48	-20.6	-20.6	13.8	3.81e-05	0	49	0	32052871168	12	14733
2026-01-25 22:05:18.92	314.04	11.42	-46.8	-49.4	6.2	0.00e+00	0	49	104	32086425600	64	20304
2026-01-25 22:05:19.93	314.26	11.36	-46.8	-49.4	6.2	0.00e+00	0	49	104	32086425600	64	20308
2026-01-25 22:05:20.94	314.47	11.29	-46.9	-49.4	6.2	0.00e+00	0	49	104	32086425600	64	20359
2026-01-25 22:05:21.95	314.69	11.23	-46.9	-49.4	6.2	0.00e+00	0	49	104	32086425600	64	20283
2026-01-25 22:05:22.96	314.90	11.16	-46.8	-49.4	6.2	0.00e+00	0	49	104	32086425600	64	20236
2026-01-25 22:05:23.97	315.11	11.10	-46.9	-49.4	6.2	0.00e+00	0	50	104	32086425600	64	20352
2026-01-25 22:05:24.98	315.32	11.03	-46.8	-49.4	6.2	0.00e+00	0	49	104	32086425600	64	20210
2026-01-25 22:05:25.99	315.53	10.97	-46.9	-49.4	6.2	0.00e+00	0	49	104	32086425600	64	20326
2026-01-25 22:05:27.00	315.74	10.90	-46.8	-49.4	6.2	0.00e+00	0	49	104	32086425600	64	20223
2026-01-25 22:05:28.01	315.95	10.84	-46.8	-49.3	6.2	0.00e+00	0	50	104	32086425600	64	20136
2026-01-25 22:05:29.02	316.16	10.77	-46.8	-49.4	6.2	0.00e+00	0	49	104	32086425600	64	20170
2026-01-25 22:05:30.03	316.36	10.71	-46.8	-49.4	6.2	0.00e+00	0	49	104	32086425600	64	20240
2026-01-25 22:05:31.04	316.57	10.64	-46.8	-49.3	6.2	0.00e+00	0	49	104	32086425600	64	20085
2026-01-25 22:05:32.05	316.77	10.58	-46.8	-49.3	6.2	0.00e+00	0	49	104	32086425600	64	20098
2026-01-25 22:05:33.06	316.97	10.51	-46.8	-49.3	6.2	0.00e+00	0	49	104	32086425600	64	20074
2026-01-25 22:05:34.07	317.18	10.44	-46.8	-49.4	6.2	0.00e+00	0	49	104	32086425600	64	20171
2026-01-25 22:05:35.08	317.38	10.38	-46.8	-49.3	6.2	0.00e+00	0	49	104	32086425600	64	20044
2026-01-25 22:05:36.09	317.58	10.31	-46.8	-49.3	6.2	0.00e+00	0	49	104	32086425600	64	20030
2026-01-25 22:05:37.10	317.77	10.25	-46.7	-49.3	6.2	0.00e+00	0	49	104	32086425600	64	20015
2026-01-25 22:05:38.11	317.97	10.18	-46.7	-49.3	6.2	0.00e+00	0	49	104	32086425600	64	20104
2026-01-25 22:05:39.11	318.17	10.12	-46.7	-49.3	6.2	0.00e+00	0	49	104	32086425600	64	20008
2026-01-25 22:05:40.12	318.36	10.05	-46.7	-49.2	6.2	0.00e+00	0	49	104	32086425600	64	19924
2026-01-25 22:05:41.13	318.56	9.99	-46.7	-49.3	6.2	0.00e+00	0	49	104	32086425600	64	19967
2026-01-25 22:05:42.14	318.75	9.92	-46.7	-49.3	6.2	0.00e+00	0	49	104	32086425600	64	20028
2026-01-25 22:05:43.15	318.94	9.85	-46.7	-49.2	6.2	0.00e+00	0	49	104	32086425600	64	19914
2026-01-25 22:05:44.16	319.13	9.79	-46.7	-49.2	6.2	0.00e+00	0	49	104	32086425600	64	19796
2026-01-25 22:05:45.17	319.32	9.72	-46.7	-49.2	6.2	0.00e+00	0	49	104	32086425600	64	19896
2026-01-25 22:05:46.19	319.51	9.66	-46.7	-49.3	6.2	0.00e+00	0	49	104	32086425600	64	19990
2026-01-25 22:05:47.19	319.70	9.59	-46.6	-49.2	6.2	0.00e+00	0	49	104	32086425600	64	19795
2026-01-25 22:05:48.21	319.89	9.52	-46.6	-49.2	6.2	0.00e+00	0	49	104	32086425600	64	19845
2026-01-25 22:05:49.21	320.07	9.46	-46.6	-49.2	6.2	0.00e+00	0	49	104	32086425600	64	19769
2026-01-25 22:05:50.23	320.26	9.39	-46.6	-49.2	6.2	0.00e+00	0	49	104	32086425600	64	19924
2026-01-25 22:05:51.24	320.45	9.33	-46.6	-49.2	6.2	0.00e+00	0	49	104	32086425600	64	19775
2026-01-25 22:05:52.25	320.63	9.26	-46.6	-49.2	6.2	0.00e+00	0	49	104	32086425600	64	19706
2026-01-25 22:05:53.26	320.81	9.19	-46.6	-49.2	6.2	0.00e+00	0	49	104	32086425600	64	19765
2026-01-25 22:05:54.27	320.99	9.13	-46.6	-49.2	6.2	0.00e+00	0	49	104	32086425600	64	19791
2026-01-25 22:05:55.28	321.17	9.06	-46.6	-49.1	6.2	0.00e+00	0	49	104	32086425600	64	19673
2026-01-25 22:05:56.28	321.35	9.00	-46.6	-49.1	6.2	0.00e+00	0	49	104	32086425600	64	19645
2026-01-25 22:05:57.29	321.53	8.93	-46.6	-49.2	6.2	0.00e+00	0	49	104	32086425600	64	19712
2026-01-25 22:05:58.30	321.71	8.87	-46.6	-49.1	6.2	0.00e+00	0	49	104	32086425600	64	19697
2026-01-25 22:05:59.30	321.88	8.80	-46.5	-49.1	6.2	0.00e+00	0	49	104	32086425600	64	19575
2026-01-25 22:06:00.31	322.06	8.74	-46.5	-49.1	6.2	0.00e+00	0	50	104	32086425600	64	19564
2026-01-25 22:06:01.32	322.23	8.67	-46.5	-49.1	6.2	0.00e+00	0	49	104	32086425600	64	19560
2026-01-25 22:06:02.33	322.41	8.60	-46.6	-49.1	6.2	0.00e+00	0	49	104	32086425600	64	19635
2026-01-25 22:06:03.34	322.58	8.54	-46.5	-49.0	6.2	0.00e+00	0	49	104	32086425600	64	19462
2026-01-25 22:06:04.35	322.75	8.47	-46.5	-49.1	6.2	0.00e+00	0	49	104	32086425600	64	19492
2026-01-25 22:06:05.36	322.92	8.41	-46.5	-49.1	6.2	0.00e+00	0	49	104	32086425600	64	19563
2026-01-25 22:06:06.37	323.09	8.34	-46.5	-49.1	6.2	0.00e+00	0	49	104	32086425600	64	19489
2026-01-25 22:06:07.38	323.26	8.28	-46.5	-49.1	6.2	0.00e+00	0	49	104	32086425600	64	19559
2026-01-25 22:06:08.39	323.43	8.21	-46.5	-49.0	6.2	0.00e+00	0	49	104	32086425600	64	19418
2026-01-25 22:06:09.40	323.60	8.14	-46.4	-49.0	6.2	0.00e+00	0	49	104	32086425600	64	19469
2026-01-25 22:06:10.41	323.76	8.08	-46.4	-49.0	6.2	0.00e+00	0	49	104	32086425600	64	19424
2026-01-25 22:06:11.42	323.93	8.01	-46.5	-49.0	6.2	0.00e+00	0	49	104	32086425600	64	19417
2026-01-25 22:06:12.43	324.10	7.95	-46.5	-49.0	6.2	0.00e+00	0	49	104	32086425600	64	19379
2026-01-25 22:06:13.45	324.26	7.88	-46.4	-49.0	6.2	0.00e+00	0	49	104	32086425600	64	19373
2026-01-25 22:06:14.46	324.42	7.82	-46.4	-49.0	6.2	0.00e+00	0	49	104	32086425600	64	19355
2026-01-25 22:06:15.47	324.59	7.75	-46.4	-49.0	6.2	0.00e+00	0	49	104	32086425600	64	19368
2026-01-25 22:06:16.48	324.75	7.69	-46.4	-48.9	6.2	0.00e+00	0	49	104	32086425600	64	19247
2026-01-25 22:06:17.48	324.91	7.62	-46.4	-49.0	6.2	0.00e+00	0	49	104	32086425600	64	19363
2026-01-25 22:06:18.50	325.07	7.56	-46.3	-49.0	6.2	0.00e+00	0	49	104	32086425600	64	19262
2026-01-25 22:06:19.50	325.23	7.49	-46.4	-49.0	6.2	0.00e+00	0	49	104	32086425600	64	19281
2026-01-25 22:06:20.51	325.38	7.43	-46.4	-48.9	6.2	0.00e+00	0	49	104	32086425600	64	19186
2026-01-25 22:06:21.52	325.54	7.36	-46.4	-49.0	6.2	0.00e+00	0	49	104	32086425600	64	19304
2026-01-25 22:06:22.53	325.70	7.30	-46.3	-48.9	6.2	0.00e+00	0	49	104	32086425600	64	19189
2026-01-25 22:06:23.54	325.85	7.23	-46.4	-49.0	6.2	0.00e+00	0	49	104	32086425600	64	19265
2026-01-25 22:06:24.55	326.01	7.17	-46.4	-48.9	6.2	0.00e+00	0	49	104	32086425600	64	19149
2026-01-25 22:06:25.56	326.16	7.10	-46.3	-48.9	6.2	0.00e+00	0	49	104	32086425600	64	19228
2026-01-25 22:06:26.57	326.31	7.04	-46.3	-48.9	6.2	0.00e+00	0	49	104	32086425600	64	19099
2026-01-25 22:06:27.58	326.47	6.97	-46.3	-48.9	6.2	0.00e+00	0	49	104	32086425600	64	19159
2026-01-25 22:06:28.59	326.62	6.91	-46.3	-48.9	6.2	0.00e+00	0	49	104	32086425600	64	19058
2026-01-25 22:06:29.60	326.77	6.85	-46.3	-48.9	6.2	0.00e+00	0	49	104	32086425600	64	19118
2026-01-25 22:06:30.61	326.92	6.78	-46.3	-48.9	6.2	0.00e+00	0	49	104	32086425600	64	19039
2026-01-25 22:06:31.63	327.07	6.72	-46.3	-48.9	6.2	0.00e+00	0	49	104	32086425600	64	19105
2026-01-25 22:06:32.64	327.22	6.65	-46.3	-48.8	6.2	0.00e+00	0	49	104	32086425600	64	18954
2026-01-25 22:06:33.65	327.37	6.59	-46.3	-48.9	6.2	0.00e+00	0	49	104	32086425600	64	19103
2026-01-25 22:06:34.66	327.51	6.52	-46.3	-48.8	6.2	0.00e+00	0	49	104	32086425600	64	18988
2026-01-25 22:06:35.67	327.66	6.46	-46.3	-48.9	6.2	0.00e+00	0	49	104	32086425600	64	19040
2026-01-25 22:06:36.68	327.80	6.40	-46.2	-48.7	6.2	0.00e+00	0	49	104	32086425600	64	18806
2026-01-25 22:06:37.69	327.95	6.33	-46.3	-48.9	6.2	0.00e+00	0	49	104	32086425600	64	19073
2026-01-25 22:06:38.70	328.09	6.27	-46.3	-48.8	6.2	0.00e+00	0	49	104	32086425600	64	18877
2026-01-25 22:06:39.71	328.24	6.21	-46.3	-48.8	6.2	0.00e+00	0	49	104	32086425600	64	18916
2026-01-25 22:06:40.71	328.38	6.14	-46.2	-48.7	6.2	0.00e+00	0	49	104	32086425600	64	18657
2026-01-25 22:06:41.72	328.52	6.08	-46.3	-48.8	6.2	0.00e+00	0	49	104	32086425600	64	19035
2026-01-25 22:06:42.73	328.66	6.02	-46.2	-48.7	6.2	0.00e+00	0	49	104	32086425600	64	18773
2026-01-25 22:06:43.74	328.80	5.95	-46.2	-48.7	6.2	0.00e+00	0	49	104	32086425600	64	18818
2026-01-25 22:06:44.75	328.94	5.89	-46.1	-48.7	6.2	0.00e+00	0	49	104	32086425600	64	18622
2026-01-25 22:06:45.76	329.08	5.83	-46.2	-48.8	6.2	0.00e+00	0	49	104	32086425600	64	18933
2026-01-25 22:06:46.77	329.22	5.76	-46.1	-48.7	6.2	0.00e+00	0	49	104	32086425600	64	18669
2026-01-25 22:06:47.78	329.35	5.70	-46.2	-48.7	6.2	0.00e+00	0	49	104	32086425600	64	18700
2026-01-25 22:06:48.79	329.49	5.64	-46.1	-48.6	6.2	0.00e+00	0	49	104	32086425600	64	18518
2026-01-25 22:06:49.80	329.63	5.57	-46.2	-48.8	6.2	0.00e+00	0	49	104	32086425600	64	18933
2026-01-25 22:06:50.81	329.76	5.51	-46.1	-48.6	6.2	0.00e+00	0	49	104	32086425600	64	18543
2026-01-25 22:06:51.82	329.90	5.45	-46.1	-48.7	6.2	0.00e+00	0	49	104	32086425600	64	18643
2026-01-25 22:06:52.83	330.03	5.39	-46.0	-48.5	6.2	0.00e+00	0	49	104	32086425600	64	18378
2026-01-25 22:06:53.84	330.16	5.32	-46.2	-48.8	6.2	0.00e+00	0	49	104	32086425600	64	18830
2026-01-25 22:06:54.84	330.29	5.26	-46.1	-48.6	6.2	0.00e+00	0	49	104	32086425600	64	18457
2026-01-25 22:06:55.85	330.43	5.20	-46.1	-48.6	6.2	0.00e+00	0	49	104	32086425600	64	18560
2026-01-25 22:06:56.86	330.56	5.14	-46.0	-48.6	6.2	0.00e+00	0	49	104	32086425600	63	19538
2026-01-25 22:06:57.88	330.69	5.07	-46.2	-48.8	6.2	0.00e+00	0	49	104	32086425600	63	20004
2026-01-25 22:06:58.89	330.82	5.01	-46.1	-48.6	6.2	0.00e+00	0	49	104	32086425600	63	19650
2026-01-25 22:06:59.89	330.95	4.95	-46.3	-48.8	6.2	0.00e+00	0	49	104	32086425600	63	20037
2026-01-25 22:07:00.90	331.07	4.89	-46.6	-49.2	6.2	0.00e+00	0	49	104	32086425600	63	20958
2026-01-25 22:07:01.91	331.20	4.83	-46.8	-49.3	6.2	0.00e+00	0	49	104	32086425600	64	20157
2026-01-25 22:07:02.92	331.33	4.76	-47.0	-49.5	6.2	0.00e+00	0	49	104	32086425600	64	20457
2026-01-25 22:07:03.93	331.46	4.70	-47.1	-49.6	6.2	0.00e+00	0	49	104	32086425600	64	20707
2026-01-25 22:07:04.94	331.58	4.64	-47.1	-49.6	6.2	0.00e+00	0	49	104	32086425600	64	20870
2026-01-25 22:07:05.96	331.71	4.58	-47.3	-49.8	6.2	0.00e+00	0	49	104	32086425600	65	19976
2026-01-25 22:07:06.97	331.83	4.52	-47.3	-49.8	6.2	0.00e+00	0	49	104	32086425600	65	20065
2026-01-25 22:07:07.98	331.96	4.46	-47.2	-49.8	6.2	0.00e+00	0	49	104	32086425600	65	19992
2026-01-25 22:07:08.99	332.08	4.40	-47.2	-49.8	6.2	0.00e+00	0	49	104	32086425600	65	19954
2026-01-25 22:07:09.99	332.20	4.33	-47.1	-49.6	6.2	0.00e+00	0	49	104	32086425600	65	19639
2026-01-25 22:07:11.01	332.33	4.27	-47.0	-49.6	6.2	0.00e+00	0	49	104	32086425600	65	19502
2026-01-25 22:07:12.02	332.45	4.21	-47.1	-49.6	6.2	0.00e+00	0	49	104	32086425600	65	19653
2026-01-25 22:07:13.03	332.57	4.15	-47.1	-49.6	6.2	0.00e+00	0	49	104	32086425600	65	19694
2026-01-25 22:07:14.04	332.69	4.09	-47.1	-49.7	6.2	0.00e+00	0	49	104	32086425600	65	19748
2026-01-25 22:07:15.05	332.81	4.03	-47.2	-49.7	6.2	0.00e+00	0	49	104	32086425600	65	19786
2026-01-25 22:07:16.06	332.93	3.97	-47.2	-49.7	6.2	0.00e+00	0	49	104	32086425600	65	19920
2026-01-25 22:07:17.07	333.05	3.91	-47.2	-49.7	6.2	0.00e+00	0	49	104	32086425600	65	19897
2026-01-25 22:07:18.08	333.17	3.85	-47.2	-49.8	6.2	0.00e+00	0	49	104	32086425600	65	19937
2026-01-25 22:07:19.09	333.28	3.79	-47.2	-49.7	6.2	0.00e+00	0	49	104	32086425600	65	19865
2026-01-25 22:07:20.10	333.40	3.73	-47.2	-49.7	6.2	0.00e+00	0	49	104	32086425600	65	19857
2026-01-25 22:07:21.11	333.52	3.67	-47.2	-49.7	6.2	0.00e+00	0	49	104	32086425600	65	19863
2026-01-25 22:07:22.12	333.63	3.61	-47.2	-49.7	6.2	0.00e+00	0	49	104	32086425600	65	19811
2026-01-25 22:07:23.13	333.75	3.55	-47.1	-49.7	6.2	0.00e+00	0	49	104	32086425600	65	19714
2026-01-25 22:07:24.14	333.86	3.49	-47.1	-49.6	6.2	0.00e+00	0	49	104	32086425600	65	19631
2026-01-25 22:07:25.14	333.97	3.43	-47.1	-49.6	6.2	0.00e+00	0	49	104	32086425600	65	19620
2026-01-25 22:07:26.15	334.09	3.37	-47.1	-49.6	6.2	0.00e+00	0	49	104	32086425600	65	19668
2026-01-25 22:07:27.16	334.20	3.31	-47.1	-49.6	6.2	0.00e+00	0	49	104	32086425600	65	19639
2026-01-25 22:07:28.17	334.31	3.25	-47.1	-49.6	6.2	0.00e+00	0	49	104	32086425600	65	19628
2026-01-25 22:07:29.19	334.43	3.19	-47.0	-49.5	6.2	0.00e+00	0	49	104	32086425600	65	19450
2026-01-25 22:07:30.20	334.54	3.13	-47.0	-49.5	6.2	0.00e+00	0	49	104	32086425600	65	19469
2026-01-25 22:07:31.21	334.65	3.07	-47.0	-49.6	6.2	0.00e+00	0	49	104	32086425600	65	19502
2026-01-25 22:07:32.21	334.76	3.01	-47.0	-49.5	6.2	0.00e+00	0	49	104	32086425600	65	19455
2026-01-25 22:07:33.21	334.87	2.95	-47.0	-49.6	6.2	0.00e+00	0	49	104	32086425600	65	19490
2026-01-25 22:07:34.21	334.98	2.89	-47.0	-49.5	6.2	0.00e+00	0	49	104	32086425600	65	19453
2026-01-25 22:07:35.21	335.08	2.84	-47.0	-49.6	6.2	0.00e+00	0	49	104	32086425600	65	19482
2026-01-25 22:07:36.21	335.19	2.78	-47.0	-49.5	6.2	0.00e+00	0	49	104	32086425600	65	19475
2026-01-25 22:07:37.20	335.30	2.72	-47.0	-49.5	6.2	0.00e+00	0	49	104	32086425600	65	19456
2026-01-25 22:07:38.17	335.40	2.66	-47.0	-49.6	6.2	0.00e+00	0	49	104	32086425600	65	19488
2026-01-25 22:07:39.15	335.50	2.61	-47.0	-49.5	6.2	0.00e+00	0	49	104	32086425600	65	19436
2026-01-25 22:07:40.13	335.61	2.55	-47.0	-49.5	6.2	0.00e+00	0	49	104	32086425600	65	19364
2026-01-25 22:07:41.10	335.71	2.49	-47.0	-49.5	6.2	0.00e+00	0	49	104	32086425600	65	19299
2026-01-25 22:07:42.07	335.81	2.44	-47.0	-49.5	6.2	0.00e+00	0	49	104	32086425600	65	19433
2026-01-25 22:07:43.04	335.91	2.38	-47.0	-49.5	6.2	0.00e+00	0	49	104	32086425600	65	19326
2026-01-25 22:07:44.01	336.01	2.33	-47.0	-49.5	6.2	0.00e+00	0	49	104	32086425600	65	19423
2026-01-25 22:07:44.98	336.11	2.27	-47.0	-49.5	6.2	0.00e+00	0	49	104	32086425600	65	19320
2026-01-25 22:07:45.95	336.21	2.22	-47.0	-49.5	6.2	0.00e+00	0	49	104	32086425600	65	19370
2026-01-25 22:07:46.93	336.31	2.16	-47.0	-49.5	6.2	0.00e+00	0	49	104	32086425600	65	19293
2026-01-25 22:07:47.90	336.41	2.10	-47.0	-49.5	6.2	0.00e+00	0	49	104	32086425600	65	19339
2026-01-25 22:07:48.87	336.51	2.05	-47.0	-49.5	6.2	0.00e+00	0	49	104	32086425600	65	19328
2026-01-25 22:07:49.84	336.60	1.99	-46.9	-49.5	6.2	0.00e+00	0	49	104	32086425600	65	19298
2026-01-25 22:07:50.81	336.70	1.94	-46.9	-49.5	6.2	0.00e+00	0	49	104	32086425600	65	19321

#Closed at: 2026-01-25 22:07:51
#Recorded file [32086 MB]: D:/lorett/data/31045_260126_005828.dat