passes_logs/2026/01/26/R4.6S_Anadyr/R4.6S_Anadyr__20260126_222446_NOAA_21_JPSS-2_rec.log

#Pass ID: 20260126_222446_NOAA 21 (JPSS-2)
#Satellite: NOAA 21 (JPSS-2)
#Configuration: NOAA-21
#almurnet v.1.7.20251203
#Start time: 2026-01-26 22:24:51

#Version: 2.2.20231116
#Station: R4.6S_Anadyr
#Location: 177.4865 lon 64.73178 lat
#TLE: 1 54234U 22150A   26026.43130734  .00000179  00000+0  10559-3 0  9998
#TLE: 2 54234  98.7509 327.1934 0000805 209.8356 150.2774 14.19539635166435

#Time	Az	El	Level	Level2	SNR	BER	BlckErr	Temp	State	Recorded	gain1	gain2
2026-01-26 22:24:51.13	112.39	0.29	-49.9	-51.4	5.7	0.00e+00	0	26	0	0	60	45662
2026-01-26 22:24:52.14	112.35	0.35	-49.4	-62.2	3.5	1.52e+00	0	28	104	0	60	45394
2026-01-26 22:24:53.14	112.31	0.40	-49.5	-62.3	3.5	1.52e+00	0	28	104	0	60	45904
2026-01-26 22:24:54.15	112.26	0.46	-49.3	-62.2	3.5	1.52e+00	0	28	104	0	60	45431
2026-01-26 22:24:55.16	112.22	0.52	-49.4	-62.3	3.5	1.52e+00	0	28	104	0	60	45552
2026-01-26 22:24:56.17	112.17	0.58	-49.3	-62.1	3.5	1.52e+00	0	28	104	0	60	44911
2026-01-26 22:24:57.18	112.13	0.64	-49.3	-62.1	3.5	1.52e+00	0	28	104	0	60	44638
2026-01-26 22:24:58.19	112.08	0.69	-49.3	-62.2	3.5	1.52e+00	0	28	104	0	60	45202
2026-01-26 22:24:59.20	112.04	0.75	-49.3	-62.1	3.5	1.51e+00	0	28	104	0	60	44828
2026-01-26 22:25:00.21	111.99	0.81	-49.2	-62.1	3.5	1.52e+00	0	28	104	0	60	44720
2026-01-26 22:25:01.22	111.95	0.87	-49.2	-62.1	3.5	1.51e+00	0	28	104	0	60	44602
2026-01-26 22:25:02.23	111.90	0.93	-49.2	-62.0	3.5	1.52e+00	0	28	104	0	60	44317
2026-01-26 22:25:03.24	111.86	0.99	-49.1	-62.1	3.5	1.52e+00	0	28	104	0	60	44498
2026-01-26 22:25:04.25	111.81	1.05	-49.1	-62.0	3.5	1.52e+00	0	28	104	0	60	44236
2026-01-26 22:25:05.26	111.76	1.10	-49.0	-61.9	3.5	1.52e+00	0	28	104	0	60	43918
2026-01-26 22:25:06.27	111.72	1.16	-48.9	-61.9	3.5	1.52e+00	0	28	104	0	60	43622
2026-01-26 22:25:07.28	111.67	1.22	-48.9	-61.8	3.5	1.52e+00	0	28	104	0	60	43354
2026-01-26 22:25:08.29	111.62	1.28	-48.7	-61.8	3.5	1.52e+00	0	28	104	0	60	43139
2026-01-26 22:25:09.30	111.57	1.34	-48.8	-61.7	3.5	1.52e+00	0	28	104	0	60	42498
2026-01-26 22:25:10.31	111.53	1.40	-48.6	-61.5	3.5	1.51e+00	0	28	104	0	60	41550
2026-01-26 22:25:11.32	111.48	1.46	-48.1	-61.4	3.5	1.52e+00	0	28	104	0	60	41158
2026-01-26 22:25:12.33	111.43	1.52	-48.2	-61.0	3.5	1.52e+00	0	28	104	0	60	39542
2026-01-26 22:25:13.34	111.38	1.58	-47.1	-60.2	3.5	1.52e+00	0	28	104	0	60	35971
2026-01-26 22:25:14.35	111.34	1.64	-47.0	-60.1	3.5	1.52e+00	0	28	104	0	60	35630
2026-01-26 22:25:15.36	111.29	1.70	-47.0	-60.1	3.5	1.52e+00	0	28	104	0	60	35399
2026-01-26 22:25:16.37	111.24	1.76	-46.9	-60.1	3.5	1.52e+00	0	28	104	0	60	35392
2026-01-26 22:25:17.38	111.19	1.82	-46.9	-60.1	3.5	1.51e+00	0	28	104	0	60	35593
2026-01-26 22:25:18.39	111.14	1.88	-46.9	-60.1	3.5	1.52e+00	0	28	104	0	60	35548
2026-01-26 22:25:19.40	111.09	1.94	-46.9	-60.1	3.5	1.52e+00	0	28	104	0	60	35554
2026-01-26 22:25:20.41	111.04	2.00	-46.9	-60.1	3.5	1.52e+00	0	28	104	0	60	35471
2026-01-26 22:25:21.42	110.99	2.06	-46.9	-60.1	3.5	1.52e+00	0	29	104	0	60	35654
2026-01-26 22:25:22.43	110.94	2.12	-46.9	-60.1	3.5	1.52e+00	0	28	104	0	60	35571
2026-01-26 22:25:23.44	110.89	2.18	-46.9	-60.1	3.5	1.52e+00	0	28	104	0	60	35627
2026-01-26 22:25:24.45	110.84	2.24	-46.9	-60.1	3.5	1.51e+00	0	28	104	0	60	35631
2026-01-26 22:25:25.46	110.79	2.30	-46.9	-60.1	3.5	1.52e+00	0	29	104	0	60	35663
2026-01-26 22:25:26.47	110.74	2.36	-46.9	-60.1	3.5	1.52e+00	0	28	104	0	60	35455
2026-01-26 22:25:27.48	110.69	2.43	-46.9	-60.1	3.5	1.52e+00	0	28	104	0	60	35348
2026-01-26 22:25:28.49	110.64	2.49	-46.9	-60.0	3.5	1.52e+00	0	29	104	0	60	35167
2026-01-26 22:25:29.50	110.59	2.55	-47.0	-60.0	3.5	1.52e+00	0	28	104	0	60	34922
2026-01-26 22:25:30.51	110.54	2.61	-46.9	-59.9	3.5	1.52e+00	0	29	104	0	60	34856
2026-01-26 22:25:31.52	110.48	2.67	-47.0	-60.0	3.5	1.52e+00	0	29	104	0	60	35254
2026-01-26 22:25:32.53	110.43	2.73	-47.0	-60.1	3.5	1.52e+00	0	29	104	0	60	35518
2026-01-26 22:25:33.54	110.38	2.80	-47.0	-60.1	3.5	1.52e+00	0	29	104	0	60	35444
2026-01-26 22:25:34.55	110.33	2.86	-47.0	-59.9	3.5	1.52e+00	0	29	104	0	60	34599
2026-01-26 22:25:35.56	110.27	2.92	-46.9	-59.7	3.5	1.52e+00	0	29	104	0	60	33783
2026-01-26 22:25:36.56	110.22	2.98	-47.0	-59.6	3.5	1.52e+00	0	29	104	0	60	33433
2026-01-26 22:25:37.58	110.17	3.04	-47.0	-59.8	3.5	1.51e+00	0	29	104	0	60	34264
2026-01-26 22:25:38.59	110.11	3.11	-46.9	-60.0	3.5	1.52e+00	0	29	104	0	60	35019
2026-01-26 22:25:39.60	110.06	3.17	-46.9	-59.1	3.5	1.52e+00	0	29	104	0	60	31784
2026-01-26 22:25:40.61	110.01	3.23	-46.6	-56.3	3.7	1.51e+00	0	29	104	0	60	22873
2026-01-26 22:25:41.62	109.95	3.29	-45.8	-52.2	7.5	1.91e-01	0	29	0	0	60	14246
2026-01-26 22:25:42.63	109.90	3.36	-44.9	-48.9	10.4	3.35e-02	0	29	0	3145728	60	9827
2026-01-26 22:25:43.64	109.84	3.42	-43.9	-47.1	12.3	6.55e-04	0	29	0	6291456	60	7992
2026-01-26 22:25:44.65	109.79	3.48	-42.4	-44.7	14.5	7.00e-07	0	29	0	9437184	58	6792
2026-01-26 22:25:45.66	109.73	3.55	-47.2	-60.0	3.5	4.93e-01	0	29	104	11534336	60	35201
2026-01-26 22:25:46.67	109.68	3.61	-46.5	-58.5	3.6	1.51e+00	0	29	104	11534336	60	29494
2026-01-26 22:25:47.68	109.62	3.67	-43.6	-47.4	11.8	1.10e+00	0	29	104	11534336	56	10312
2026-01-26 22:25:48.68	109.57	3.74	-46.8	-57.2	3.6	1.48e+00	0	29	104	11534336	60	25424
2026-01-26 22:25:49.69	109.51	3.80	-40.8	-42.7	16.0	7.00e-07	0	29	0	12582912	54	6800
2026-01-26 22:25:50.71	109.45	3.87	-41.7	-43.8	15.6	0.00e+00	0	29	0	15728640	56	6878
2026-01-26 22:25:51.72	109.40	3.93	-41.7	-44.0	15.3	0.00e+00	0	29	0	18874368	56	6964
2026-01-26 22:25:52.73	109.34	3.99	-40.3	-42.1	17.3	0.00e+00	0	29	0	22020096	54	6346
2026-01-26 22:25:53.74	109.28	4.06	-39.8	-41.5	17.9	0.00e+00	0	29	0	25165824	52	6610
2026-01-26 22:25:54.75	109.22	4.12	-39.5	-41.1	18.6	0.00e+00	0	29	0	28311552	52	6323
2026-01-26 22:25:55.76	109.17	4.19	-39.6	-41.3	18.1	0.00e+00	0	29	0	31457280	52	6480
2026-01-26 22:25:56.76	109.11	4.25	-39.6	-41.3	18.2	0.00e+00	0	29	0	34603008	52	6450
2026-01-26 22:25:57.78	109.05	4.32	-40.0	-41.8	17.9	0.00e+00	0	29	0	37748736	52	6869
2026-01-26 22:25:58.78	108.99	4.38	-40.2	-42.1	17.3	0.00e+00	0	29	0	40894464	52	7113
2026-01-26 22:25:59.79	108.93	4.45	-38.8	-40.5	19.2	0.00e+00	0	29	0	44040192	52	5885
2026-01-26 22:26:00.80	108.87	4.51	-38.6	-40.1	19.5	0.00e+00	0	29	0	47185920	50	6350
2026-01-26 22:26:01.81	108.81	4.58	-38.8	-40.4	19.4	0.00e+00	0	29	0	50331648	50	6507
2026-01-26 22:26:02.82	108.75	4.64	-38.3	-39.7	20.0	0.00e+00	0	29	0	53477376	50	6028
2026-01-26 22:26:03.83	108.69	4.71	-38.2	-39.6	20.1	0.00e+00	0	29	0	56623104	50	5956
2026-01-26 22:26:04.84	108.63	4.77	-38.1	-39.4	20.3	0.00e+00	0	29	0	59768832	50	5821
2026-01-26 22:26:05.85	108.57	4.84	-38.3	-39.6	20.1	0.00e+00	0	29	0	62914560	50	5962
2026-01-26 22:26:06.86	108.51	4.90	-38.6	-39.9	19.8	0.00e+00	0	29	0	66060288	50	6158
2026-01-26 22:26:07.87	108.45	4.97	-38.2	-39.5	20.3	0.00e+00	0	29	0	69206016	50	5859
2026-01-26 22:26:08.88	108.39	5.04	-37.7	-38.9	20.8	0.00e+00	0	29	0	72351744	50	5472
2026-01-26 22:26:09.89	108.33	5.10	-37.8	-39.1	20.7	0.00e+00	0	29	0	75497472	48	6295
2026-01-26 22:26:10.90	108.27	5.17	-37.7	-38.9	20.7	0.00e+00	0	29	0	78643200	48	6193
2026-01-26 22:26:11.91	108.20	5.24	-37.3	-38.5	21.1	0.00e+00	0	29	0	81788928	48	5920
2026-01-26 22:26:12.92	108.14	5.30	-38.0	-39.3	20.3	0.00e+00	0	29	0	84934656	48	6498
2026-01-26 22:26:13.93	108.08	5.37	-37.9	-39.2	20.5	0.00e+00	0	29	0	88080384	48	6406
2026-01-26 22:26:14.94	108.01	5.44	-38.0	-39.3	20.5	0.00e+00	0	29	0	91226112	48	6496
2026-01-26 22:26:15.95	107.95	5.50	-37.6	-38.9	20.9	0.00e+00	0	29	0	94371840	48	6181
2026-01-26 22:26:16.96	107.89	5.57	-37.3	-38.6	21.0	0.00e+00	0	29	0	97517568	48	5988
2026-01-26 22:26:17.97	107.82	5.64	-37.3	-38.5	21.2	0.00e+00	0	29	0	100663296	48	5923
2026-01-26 22:26:18.98	107.76	5.71	-37.3	-38.5	21.3	0.00e+00	0	29	0	103809024	48	5891
2026-01-26 22:26:19.99	107.69	5.77	-37.5	-38.6	21.2	0.00e+00	0	29	0	106954752	48	5979
2026-01-26 22:26:21.00	107.63	5.84	-37.6	-38.7	21.1	0.00e+00	0	29	0	110100480	48	6049
2026-01-26 22:26:22.01	107.56	5.91	-37.2	-38.4	21.4	0.00e+00	0	29	0	113246208	48	5822
2026-01-26 22:26:23.02	107.50	5.98	-37.3	-38.5	21.4	0.00e+00	0	29	0	116391936	48	5890
2026-01-26 22:26:24.03	107.43	6.05	-37.3	-38.4	21.5	0.00e+00	0	29	0	119537664	48	5842
2026-01-26 22:26:25.04	107.36	6.11	-37.3	-38.5	21.5	0.00e+00	0	29	0	122683392	48	5882
2026-01-26 22:26:26.05	107.30	6.18	-37.3	-38.5	21.3	0.00e+00	0	29	0	125829120	48	5864
2026-01-26 22:26:27.06	107.23	6.25	-37.2	-38.4	21.5	0.00e+00	0	29	0	128974848	48	5794
2026-01-26 22:26:28.07	107.16	6.32	-37.3	-38.5	21.4	0.00e+00	0	29	0	132120576	48	5876
2026-01-26 22:26:29.08	107.10	6.39	-37.1	-38.2	21.6	0.00e+00	0	29	0	135266304	48	5675
2026-01-26 22:26:30.10	107.03	6.46	-37.1	-38.2	21.7	0.00e+00	0	29	0	138412032	48	5672
2026-01-26 22:26:31.11	106.96	6.53	-37.0	-38.1	21.7	0.00e+00	0	29	0	141557760	48	5611
2026-01-26 22:26:32.12	106.89	6.60	-37.3	-38.4	21.6	0.00e+00	0	29	0	144703488	48	5799
2026-01-26 22:26:33.12	106.82	6.67	-37.3	-38.4	21.6	0.00e+00	0	29	0	147849216	48	5826
2026-01-26 22:26:34.13	106.75	6.74	-36.9	-38.0	21.8	0.00e+00	0	29	0	150994944	48	5582
2026-01-26 22:26:35.14	106.68	6.81	-36.9	-38.0	21.8	0.00e+00	0	29	0	154140672	48	5583
2026-01-26 22:26:36.15	106.61	6.88	-37.0	-38.1	21.7	0.00e+00	0	29	0	157286400	48	5655
2026-01-26 22:26:37.16	106.54	6.95	-36.9	-38.1	21.7	0.00e+00	0	29	0	160432128	48	5613
2026-01-26 22:26:38.17	106.47	7.02	-36.9	-38.1	21.7	0.00e+00	0	29	0	163577856	48	5613
2026-01-26 22:26:39.19	106.40	7.09	-37.0	-38.1	21.7	0.00e+00	0	29	0	166723584	48	5600
2026-01-26 22:26:40.20	106.33	7.16	-37.0	-38.1	21.8	0.00e+00	0	29	0	169869312	48	5613
2026-01-26 22:26:41.21	106.26	7.23	-36.6	-37.7	22.1	0.00e+00	0	29	0	173015040	46	6030
2026-01-26 22:26:42.22	106.18	7.30	-36.8	-37.9	22.0	0.00e+00	0	29	0	176160768	46	6136
2026-01-26 22:26:43.23	106.11	7.37	-36.6	-37.7	22.1	0.00e+00	0	29	0	179306496	46	6000
2026-01-26 22:26:44.24	106.04	7.44	-36.8	-37.8	22.1	0.00e+00	0	29	0	182452224	46	6129
2026-01-26 22:26:45.25	105.96	7.51	-36.5	-37.6	22.3	0.00e+00	0	29	0	185597952	46	5944
2026-01-26 22:26:46.26	105.89	7.58	-37.0	-38.0	21.9	0.00e+00	0	29	0	188743680	46	6259
2026-01-26 22:26:47.27	105.82	7.66	-36.9	-38.0	22.1	0.00e+00	0	29	0	191889408	46	6215
2026-01-26 22:26:48.28	105.74	7.73	-36.7	-37.7	22.1	0.00e+00	0	29	0	195035136	46	6025
2026-01-26 22:26:49.30	105.67	7.80	-36.6	-37.6	22.3	0.00e+00	0	29	0	198180864	46	5959
2026-01-26 22:26:50.31	105.59	7.87	-36.7	-37.7	22.3	0.00e+00	0	29	0	201326592	46	6016
2026-01-26 22:26:51.31	105.52	7.94	-36.6	-37.6	22.3	0.00e+00	0	29	0	204472320	46	5965
2026-01-26 22:26:52.33	105.44	8.02	-36.4	-37.4	22.5	0.00e+00	0	29	0	207618048	46	5833
2026-01-26 22:26:53.34	105.36	8.09	-36.5	-37.5	22.4	0.00e+00	0	29	0	210763776	46	5917
2026-01-26 22:26:54.35	105.29	8.16	-36.4	-37.4	22.5	0.00e+00	0	29	0	213909504	46	5842
2026-01-26 22:26:55.36	105.21	8.24	-36.3	-37.3	22.6	0.00e+00	0	29	0	217055232	46	5771
2026-01-26 22:26:56.37	105.13	8.31	-36.5	-37.6	22.4	0.00e+00	0	29	0	220200960	46	5933
2026-01-26 22:26:57.38	105.05	8.38	-36.4	-37.4	22.5	0.00e+00	0	29	0	223346688	46	5851
2026-01-26 22:26:58.39	104.98	8.46	-36.3	-37.3	22.6	0.00e+00	0	29	0	226492416	46	5791
2026-01-26 22:26:59.40	104.90	8.53	-36.6	-37.7	22.2	0.00e+00	0	29	0	229638144	46	6005
2026-01-26 22:27:00.41	104.82	8.60	-36.4	-37.4	22.5	0.00e+00	0	29	0	232783872	46	5843
2026-01-26 22:27:01.42	104.74	8.68	-36.1	-37.1	22.8	0.00e+00	0	29	0	235929600	46	5609
2026-01-26 22:27:02.43	104.66	8.75	-36.3	-37.3	22.6	0.00e+00	0	29	0	239075328	46	5744
2026-01-26 22:27:03.44	104.58	8.82	-36.2	-37.3	22.6	0.00e+00	0	29	0	242221056	46	5727
2026-01-26 22:27:04.45	104.50	8.90	-36.3	-37.3	22.6	0.00e+00	0	29	0	245366784	46	5745
2026-01-26 22:27:05.46	104.41	8.97	-36.2	-37.2	22.7	0.00e+00	0	29	0	248512512	46	5670
2026-01-26 22:27:06.47	104.33	9.05	-35.8	-36.8	22.9	0.00e+00	0	29	0	251658240	46	5451
2026-01-26 22:27:07.47	104.25	9.12	-36.0	-37.0	22.7	0.00e+00	0	29	0	254803968	46	5587
2026-01-26 22:27:08.49	104.17	9.20	-36.2	-37.3	22.6	0.00e+00	0	29	0	257949696	46	5728
2026-01-26 22:27:09.50	104.08	9.27	-36.1	-37.2	22.6	0.00e+00	0	29	0	261095424	46	5678
2026-01-26 22:27:10.51	104.00	9.35	-36.0	-37.1	22.8	0.00e+00	0	29	0	264241152	46	5604
2026-01-26 22:27:11.52	103.92	9.42	-36.1	-37.2	22.8	0.00e+00	0	29	0	267386880	46	5697
2026-01-26 22:27:12.53	103.83	9.50	-35.9	-37.0	22.9	0.00e+00	0	29	0	270532608	46	5532
2026-01-26 22:27:13.54	103.75	9.58	-36.0	-37.0	22.9	0.00e+00	0	29	0	273678336	46	5563
2026-01-26 22:27:14.55	103.66	9.65	-35.9	-36.9	22.9	0.00e+00	0	29	0	277872640	46	5522
2026-01-26 22:27:15.56	103.58	9.73	-35.9	-36.9	22.9	0.00e+00	0	29	0	279969792	46	5520
2026-01-26 22:27:16.57	103.49	9.80	-35.8	-36.8	23.1	0.00e+00	0	29	0	283115520	46	5442
2026-01-26 22:27:17.58	103.40	9.88	-35.8	-36.8	23.1	0.00e+00	0	29	0	286261248	46	5449
2026-01-26 22:27:18.59	103.32	9.96	-35.8	-36.8	23.2	0.00e+00	0	29	0	289406976	46	5408
2026-01-26 22:27:19.60	103.23	10.03	-35.8	-36.8	23.1	0.00e+00	0	29	0	293601280	44	6103
2026-01-26 22:27:20.61	103.14	10.11	-35.8	-36.8	23.1	0.00e+00	0	29	0	296747008	44	6127
2026-01-26 22:27:21.62	103.05	10.19	-35.8	-36.9	23.1	0.00e+00	0	29	0	299892736	44	6137
2026-01-26 22:27:22.63	102.96	10.27	-35.6	-36.6	23.3	0.00e+00	0	29	0	301989888	44	5967
2026-01-26 22:27:23.64	102.87	10.34	-35.7	-36.7	23.2	0.00e+00	0	29	0	305135616	44	6028
2026-01-26 22:27:24.65	102.78	10.42	-35.5	-36.4	23.4	0.00e+00	0	29	0	309329920	44	5856
2026-01-26 22:27:25.66	102.69	10.50	-35.6	-36.6	23.3	0.00e+00	0	29	0	312475648	44	5937
2026-01-26 22:27:26.67	102.60	10.58	-35.6	-36.6	23.3	0.00e+00	0	29	0	315621376	44	5948
2026-01-26 22:27:27.68	102.51	10.66	-35.6	-36.6	23.3	0.00e+00	0	29	0	318767104	44	5965
2026-01-26 22:27:28.69	102.42	10.73	-35.8	-36.8	23.2	0.00e+00	0	29	0	321912832	44	6105
2026-01-26 22:27:29.70	102.32	10.81	-35.5	-36.5	23.3	0.00e+00	0	29	0	325058560	44	5895
2026-01-26 22:27:30.71	102.23	10.89	-35.6	-36.5	23.3	0.00e+00	0	29	0	328204288	44	5900
2026-01-26 22:27:31.72	102.14	10.97	-35.6	-36.5	23.3	0.00e+00	0	29	0	331350016	44	5925
2026-01-26 22:27:32.73	102.04	11.05	-35.5	-36.5	23.4	0.00e+00	0	29	0	334495744	44	5872
2026-01-26 22:27:33.74	101.95	11.13	-35.6	-36.6	23.3	0.00e+00	0	29	0	337641472	44	5927
2026-01-26 22:27:34.75	101.85	11.21	-35.5	-36.4	23.4	0.00e+00	0	29	0	340787200	44	5856
2026-01-26 22:27:35.76	101.76	11.29	-35.6	-36.6	23.3	0.00e+00	0	29	0	343932928	44	5957
2026-01-26 22:27:36.77	101.66	11.37	-35.6	-36.5	23.4	0.00e+00	0	29	0	347078656	44	5911
2026-01-26 22:27:37.78	101.56	11.45	-35.5	-36.4	23.5	0.00e+00	0	29	0	350224384	44	5817
2026-01-26 22:27:38.79	101.47	11.53	-35.4	-36.3	23.5	0.00e+00	0	29	0	353370112	44	5783
2026-01-26 22:27:39.80	101.37	11.61	-35.5	-36.4	23.5	0.00e+00	0	29	0	356515840	44	5845
2026-01-26 22:27:40.81	101.27	11.69	-35.3	-36.2	23.6	0.00e+00	0	29	0	359661568	44	5709
2026-01-26 22:27:41.82	101.17	11.77	-35.3	-36.2	23.5	0.00e+00	0	29	0	362807296	44	5705
2026-01-26 22:27:42.83	101.07	11.85	-35.3	-36.3	23.4	0.00e+00	0	29	0	365953024	44	5766
2026-01-26 22:27:43.84	100.97	11.93	-35.3	-36.2	23.5	0.00e+00	0	29	0	369098752	44	5710
2026-01-26 22:27:44.85	100.87	12.01	-35.4	-36.4	23.4	0.00e+00	0	29	0	372244480	44	5823
2026-01-26 22:27:45.86	100.77	12.10	-35.5	-36.5	23.3	0.00e+00	0	29	0	375390208	44	5872
2026-01-26 22:27:46.87	100.67	12.18	-35.5	-36.4	23.3	0.00e+00	0	29	0	378535936	44	5857
2026-01-26 22:27:47.88	100.57	12.26	-35.5	-36.5	23.5	0.00e+00	0	29	0	381681664	44	5874
2026-01-26 22:27:48.89	100.46	12.34	-35.3	-36.3	23.5	0.00e+00	0	29	0	384827392	44	5747
2026-01-26 22:27:49.90	100.36	12.42	-35.4	-36.4	23.5	0.00e+00	0	29	0	387973120	44	5803
2026-01-26 22:27:50.91	100.25	12.51	-35.3	-36.2	23.6	0.00e+00	0	29	0	391118848	44	5708
2026-01-26 22:27:51.92	100.15	12.59	-35.4	-36.3	23.2	0.00e+00	0	30	0	394264576	44	5759
2026-01-26 22:27:52.93	100.04	12.67	-35.4	-36.3	23.6	0.00e+00	0	29	0	397410304	44	5756
2026-01-26 22:27:53.94	99.94	12.75	-35.4	-36.4	23.5	0.00e+00	0	29	0	400556032	44	5794
2026-01-26 22:27:54.95	99.83	12.84	-35.1	-36.0	23.8	0.00e+00	0	29	0	403701760	44	5554
2026-01-26 22:27:55.96	99.72	12.92	-35.1	-36.0	23.8	0.00e+00	0	29	0	406847488	44	5593
2026-01-26 22:27:56.97	99.62	13.00	-35.1	-36.0	23.9	0.00e+00	0	29	0	409993216	44	5563
2026-01-26 22:27:57.98	99.51	13.09	-35.0	-36.0	23.9	0.00e+00	0	29	0	413138944	44	5534
2026-01-26 22:27:58.99	99.40	13.17	-35.0	-35.9	23.9	0.00e+00	0	29	0	416284672	44	5518
2026-01-26 22:28:00.00	99.29	13.26	-35.1	-36.0	23.8	0.00e+00	0	29	0	419430400	44	5564
2026-01-26 22:28:01.01	99.18	13.34	-35.1	-36.1	23.8	0.00e+00	0	29	0	422576128	44	5596
2026-01-26 22:28:02.02	99.07	13.42	-35.2	-36.1	23.7	0.00e+00	0	29	0	425721856	44	5656
2026-01-26 22:28:03.03	98.96	13.51	-35.1	-36.0	23.8	0.00e+00	0	29	0	428867584	44	5569
2026-01-26 22:28:04.04	98.84	13.59	-35.3	-36.3	23.6	0.00e+00	0	29	0	432013312	44	5748
2026-01-26 22:28:05.05	98.73	13.68	-35.3	-36.2	23.5	0.00e+00	0	29	0	435159040	44	5721
2026-01-26 22:28:06.06	98.62	13.76	-35.1	-36.0	23.8	0.00e+00	0	29	0	438304768	44	5591
2026-01-26 22:28:07.07	98.50	13.85	-35.2	-36.1	23.7	0.00e+00	0	29	0	441450496	44	5629
2026-01-26 22:28:08.08	98.39	13.94	-35.0	-36.0	23.9	0.00e+00	0	29	0	444596224	44	5537
2026-01-26 22:28:09.09	98.27	14.02	-35.0	-35.9	24.0	0.00e+00	0	29	0	447741952	44	5514
2026-01-26 22:28:10.10	98.15	14.11	-34.9	-35.9	24.0	0.00e+00	0	30	0	450887680	44	5482
2026-01-26 22:28:11.12	98.04	14.19	-35.0	-35.9	24.0	0.00e+00	0	29	0	454033408	44	5499
2026-01-26 22:28:12.13	97.92	14.28	-35.0	-35.9	24.0	0.00e+00	0	30	0	457179136	44	5488
2026-01-26 22:28:13.13	97.80	14.37	-35.0	-35.9	24.0	0.00e+00	0	30	0	460324864	44	5495
2026-01-26 22:28:14.15	97.68	14.45	-34.9	-35.9	24.1	0.00e+00	0	29	0	463470592	44	5473
2026-01-26 22:28:15.16	97.56	14.54	-35.0	-35.9	24.0	0.00e+00	0	30	0	466616320	44	5496
2026-01-26 22:28:16.17	97.44	14.63	-34.9	-35.8	24.0	0.00e+00	0	29	0	469762048	44	5435
2026-01-26 22:28:17.18	97.32	14.71	-35.0	-35.9	24.0	0.00e+00	0	30	0	472907776	44	5490
2026-01-26 22:28:18.19	97.20	14.80	-34.9	-35.8	24.2	0.00e+00	0	30	0	476053504	44	5421
2026-01-26 22:28:19.20	97.07	14.89	-34.8	-35.7	24.1	0.00e+00	0	30	0	479199232	44	5396
2026-01-26 22:28:20.21	96.95	14.98	-34.9	-35.8	24.0	0.00e+00	0	30	0	482344960	44	5463
2026-01-26 22:28:21.22	96.82	15.06	-34.9	-35.8	24.2	0.00e+00	0	29	0	485490688	44	5427
2026-01-26 22:28:22.23	96.70	15.15	-35.0	-35.9	24.1	0.00e+00	0	30	0	488636416	44	5492
2026-01-26 22:28:23.24	96.57	15.24	-34.9	-35.8	24.1	0.00e+00	0	29	0	491782144	44	5461
2026-01-26 22:28:24.25	96.45	15.33	-35.0	-35.9	24.0	0.00e+00	0	30	0	494927872	44	5517
2026-01-26 22:28:25.26	96.32	15.42	-35.1	-36.0	24.0	0.00e+00	0	30	0	498073600	44	5549
2026-01-26 22:28:26.27	96.19	15.51	-35.0	-36.0	24.0	0.00e+00	0	30	0	501219328	44	5531
2026-01-26 22:28:27.28	96.06	15.60	-35.0	-35.9	24.0	0.00e+00	0	30	0	504365056	44	5521
2026-01-26 22:28:28.29	95.93	15.68	-35.1	-36.0	23.9	0.00e+00	0	29	0	507510784	44	5586
2026-01-26 22:28:29.30	95.80	15.77	-35.0	-35.9	24.0	0.00e+00	0	30	0	510656512	44	5501
2026-01-26 22:28:30.31	95.67	15.86	-35.0	-35.9	23.9	0.00e+00	0	30	0	513802240	44	5524
2026-01-26 22:28:31.32	95.54	15.95	-35.1	-36.0	24.0	0.00e+00	0	30	0	516947968	44	5537
2026-01-26 22:28:32.33	95.41	16.04	-35.0	-35.9	24.0	0.00e+00	0	30	0	520093696	44	5530
2026-01-26 22:28:33.34	95.27	16.13	-35.2	-36.1	23.9	0.00e+00	0	30	0	523239424	44	5638
2026-01-26 22:28:34.35	95.14	16.22	-35.0	-35.9	24.0	0.00e+00	0	30	0	526385152	44	5499
2026-01-26 22:28:35.36	95.00	16.31	-35.2	-36.1	23.9	0.00e+00	0	30	0	529530880	44	5607
2026-01-26 22:28:36.37	94.87	16.40	-35.1	-36.0	23.9	0.00e+00	0	30	0	532676608	44	5587
2026-01-26 22:28:37.38	94.73	16.49	-35.2	-36.1	23.9	0.00e+00	0	30	0	535822336	44	5623
2026-01-26 22:28:38.39	94.59	16.59	-35.2	-36.1	23.9	0.00e+00	0	30	0	538968064	44	5614
2026-01-26 22:28:39.40	94.45	16.68	-35.2	-36.1	23.9	0.00e+00	0	30	0	542113792	44	5648
2026-01-26 22:28:40.41	94.31	16.77	-35.2	-36.1	23.9	0.00e+00	0	30	0	545259520	44	5652
2026-01-26 22:28:41.42	94.17	16.86	-35.2	-36.1	23.9	0.00e+00	0	30	0	548405248	44	5634
2026-01-26 22:28:42.43	94.03	16.95	-35.2	-36.1	23.9	0.00e+00	0	30	0	551550976	44	5651
2026-01-26 22:28:43.44	93.89	17.04	-35.1	-36.0	23.9	0.00e+00	0	30	0	554696704	44	5590
2026-01-26 22:28:44.45	93.75	17.13	-35.0	-35.9	24.1	0.00e+00	0	30	0	557842432	44	5481
2026-01-26 22:28:45.46	93.60	17.23	-35.0	-35.9	24.1	0.00e+00	0	30	0	560988160	44	5487
2026-01-26 22:28:46.48	93.46	17.32	-35.0	-35.9	24.0	0.00e+00	0	30	0	564133888	44	5492
2026-01-26 22:28:47.48	93.31	17.41	-34.9	-35.8	24.1	0.00e+00	0	30	0	567279616	44	5452
2026-01-26 22:28:48.49	93.16	17.50	-34.9	-35.8	24.0	0.00e+00	0	29	0	571473920	44	5452
2026-01-26 22:28:49.50	93.02	17.60	-35.1	-36.0	24.0	0.00e+00	0	30	0	573571072	44	5560
2026-01-26 22:28:50.52	92.87	17.69	-35.0	-35.9	24.1	0.00e+00	0	30	0	576716800	44	5521
2026-01-26 22:28:51.53	92.72	17.78	-35.0	-36.0	24.0	0.00e+00	0	30	0	579862528	44	5543
2026-01-26 22:28:52.54	92.57	17.88	-35.0	-35.9	24.1	0.00e+00	0	30	0	583008256	44	5498
2026-01-26 22:28:53.54	92.42	17.97	-35.0	-35.9	24.0	0.00e+00	0	30	0	587202560	44	5528
2026-01-26 22:28:54.56	92.26	18.06	-35.0	-35.9	24.1	0.00e+00	0	30	0	590348288	44	5486
2026-01-26 22:28:55.57	92.11	18.16	-34.9	-35.8	24.1	0.00e+00	0	30	0	593494016	44	5436
2026-01-26 22:28:56.58	91.96	18.25	-34.9	-35.8	24.2	0.00e+00	0	30	0	595591168	44	5416
2026-01-26 22:28:57.59	91.80	18.34	-34.8	-35.7	24.2	0.00e+00	0	30	0	598736896	42	6063
2026-01-26 22:28:58.60	91.64	18.44	-34.8	-35.7	24.2	0.00e+00	0	30	0	602931200	42	6037
2026-01-26 22:28:59.61	91.49	18.53	-34.9	-35.8	24.2	0.00e+00	0	30	0	606076928	42	6087
2026-01-26 22:29:00.61	91.33	18.62	-34.7	-35.6	24.3	0.00e+00	0	30	0	609222656	42	5976
2026-01-26 22:29:01.63	91.17	18.72	-34.8	-35.7	24.2	0.00e+00	0	30	0	612368384	42	6042
2026-01-26 22:29:02.64	91.01	18.81	-34.8	-35.7	24.3	0.00e+00	0	30	0	615514112	42	6021
2026-01-26 22:29:03.64	90.85	18.91	-34.6	-35.5	24.4	0.00e+00	0	30	0	618659840	42	5868
2026-01-26 22:29:04.65	90.69	19.00	-34.8	-35.7	24.1	0.00e+00	0	30	0	621805568	42	6012
2026-01-26 22:29:05.66	90.52	19.10	-34.7	-35.7	24.2	0.00e+00	0	30	0	624951296	42	6009
2026-01-26 22:29:06.68	90.36	19.19	-34.8	-35.7	24.3	0.00e+00	0	30	0	628097024	42	6031
2026-01-26 22:29:07.69	90.19	19.29	-34.9	-35.8	24.2	0.00e+00	0	30	0	631242752	42	6129
2026-01-26 22:29:08.70	90.03	19.38	-34.6	-35.5	24.4	0.00e+00	0	30	0	634388480	42	5914
2026-01-26 22:29:09.71	89.86	19.48	-34.6	-35.4	24.4	0.00e+00	0	30	0	637534208	42	5854
2026-01-26 22:29:10.72	89.69	19.57	-34.5	-35.4	24.4	0.00e+00	0	30	0	640679936	42	5831
2026-01-26 22:29:11.73	89.52	19.67	-34.5	-35.3	24.6	0.00e+00	0	30	0	643825664	42	5785
2026-01-26 22:29:12.74	89.35	19.76	-34.5	-35.4	24.6	0.00e+00	0	30	0	646971392	42	5826
2026-01-26 22:29:13.75	89.18	19.86	-34.5	-35.4	24.4	0.00e+00	0	30	0	650117120	42	5827
2026-01-26 22:29:14.76	89.01	19.95	-34.5	-35.4	24.5	0.00e+00	0	30	0	653262848	42	5805
2026-01-26 22:29:15.77	88.83	20.05	-34.4	-35.3	24.5	0.00e+00	0	30	0	656408576	42	5734
2026-01-26 22:29:16.78	88.66	20.15	-34.4	-35.3	24.5	0.00e+00	0	30	0	659554304	42	5757
2026-01-26 22:29:17.79	88.48	20.24	-34.6	-35.5	24.4	0.00e+00	0	30	0	662700032	42	5869
2026-01-26 22:29:18.80	88.31	20.34	-34.5	-35.4	24.5	0.00e+00	0	30	0	665845760	42	5818
2026-01-26 22:29:19.81	88.13	20.43	-34.3	-35.1	24.7	0.00e+00	0	30	0	668991488	42	5656
2026-01-26 22:29:20.82	87.95	20.53	-34.2	-35.1	24.7	0.00e+00	0	30	0	672137216	42	5599
2026-01-26 22:29:21.83	87.77	20.63	-34.2	-35.1	24.7	0.00e+00	0	30	0	675282944	42	5645
2026-01-26 22:29:22.84	87.59	20.72	-34.2	-35.1	24.8	0.00e+00	0	30	0	678428672	42	5649
2026-01-26 22:29:23.85	87.40	20.82	-34.4	-35.3	24.6	0.00e+00	0	30	0	681574400	42	5727
2026-01-26 22:29:24.86	87.22	20.92	-34.2	-35.1	24.8	0.00e+00	0	30	0	684720128	42	5617
2026-01-26 22:29:25.88	87.03	21.01	-34.2	-35.1	24.8	0.00e+00	0	30	0	687865856	42	5615
2026-01-26 22:29:26.89	86.85	21.11	-34.1	-34.9	24.8	0.00e+00	0	30	0	691011584	42	5525
2026-01-26 22:29:27.89	86.66	21.21	-34.1	-35.0	24.7	0.00e+00	0	30	0	694157312	42	5533
2026-01-26 22:29:28.91	86.47	21.30	-34.2	-35.0	24.7	0.00e+00	0	30	0	697303040	42	5583
2026-01-26 22:29:29.92	86.28	21.40	-34.1	-34.9	24.8	0.00e+00	0	30	0	700448768	42	5527
2026-01-26 22:29:30.93	86.09	21.50	-34.1	-34.9	24.8	0.00e+00	0	30	0	703594496	42	5513
2026-01-26 22:29:31.94	85.90	21.59	-34.1	-34.9	24.8	0.00e+00	0	30	0	706740224	42	5518
2026-01-26 22:29:32.95	85.70	21.69	-34.1	-35.0	24.8	0.00e+00	0	30	0	709885952	42	5581
2026-01-26 22:29:33.96	85.51	21.79	-34.3	-35.2	24.7	0.00e+00	0	30	0	713031680	42	5663
2026-01-26 22:29:34.97	85.31	21.88	-34.2	-35.1	24.7	0.00e+00	0	30	0	716177408	42	5642
2026-01-26 22:29:35.98	85.11	21.98	-34.3	-35.2	24.5	0.00e+00	0	30	0	719323136	42	5666
2026-01-26 22:29:36.99	84.92	22.08	-34.3	-35.1	24.6	0.00e+00	0	30	0	722468864	42	5655
2026-01-26 22:29:38.00	84.72	22.17	-34.1	-35.0	24.8	0.00e+00	0	30	0	725614592	42	5540
2026-01-26 22:29:39.01	84.51	22.27	-34.4	-35.2	24.6	0.00e+00	0	30	0	728760320	42	5724
2026-01-26 22:29:40.02	84.31	22.37	-34.4	-35.3	24.7	0.00e+00	0	30	0	731906048	42	5732
2026-01-26 22:29:41.03	84.11	22.46	-34.3	-35.2	24.6	0.00e+00	0	30	0	735051776	42	5669
2026-01-26 22:29:42.04	83.90	22.56	-34.1	-35.0	24.7	0.00e+00	0	30	0	738197504	42	5575
2026-01-26 22:29:43.05	83.70	22.66	-34.3	-35.2	24.5	0.00e+00	0	30	0	741343232	42	5693
2026-01-26 22:29:44.06	83.49	22.75	-34.3	-35.2	24.6	0.00e+00	0	30	0	744488960	42	5676
2026-01-26 22:29:45.07	83.28	22.85	-34.5	-35.4	24.4	0.00e+00	0	30	0	747634688	42	5814
2026-01-26 22:29:46.08	83.07	22.95	-34.4	-35.3	24.5	0.00e+00	0	30	0	750780416	42	5781
2026-01-26 22:29:47.09	82.86	23.04	-34.3	-35.2	24.7	0.00e+00	0	30	0	753926144	42	5721
2026-01-26 22:29:48.10	82.65	23.14	-34.2	-35.0	24.9	0.00e+00	0	30	0	757071872	42	5591
2026-01-26 22:29:49.11	82.43	23.24	-34.2	-35.0	24.8	0.00e+00	0	30	0	760217600	42	5593
2026-01-26 22:29:50.12	82.22	23.33	-34.2	-35.0	24.8	0.00e+00	0	30	0	763363328	42	5588
2026-01-26 22:29:51.13	82.00	23.43	-34.1	-35.0	24.9	0.00e+00	0	30	0	766509056	42	5569
2026-01-26 22:29:52.14	81.78	23.52	-34.1	-34.9	24.9	0.00e+00	0	30	0	769654784	42	5520
2026-01-26 22:29:53.15	81.56	23.62	-33.9	-34.8	25.0	0.00e+00	0	30	0	772800512	42	5412
2026-01-26 22:29:54.16	81.34	23.72	-33.9	-34.8	25.0	0.00e+00	0	30	0	775946240	42	5426
2026-01-26 22:29:55.17	81.12	23.81	-33.8	-34.7	25.0	0.00e+00	0	30	0	779091968	42	5351
2026-01-26 22:29:56.18	80.90	23.91	-33.9	-34.8	25.0	0.00e+00	0	30	0	782237696	42	5407
2026-01-26 22:29:57.19	80.67	24.00	-33.9	-34.8	25.0	0.00e+00	0	30	0	785383424	42	5436
2026-01-26 22:29:58.20	80.45	24.10	-33.8	-34.6	25.1	0.00e+00	0	30	0	788529152	42	5339
2026-01-26 22:29:59.21	80.22	24.19	-33.9	-34.8	25.0	0.00e+00	0	30	0	791674880	42	5419
2026-01-26 22:30:00.22	79.99	24.29	-34.0	-34.8	24.9	0.00e+00	0	30	0	794820608	42	5460
2026-01-26 22:30:01.23	79.76	24.38	-34.0	-34.8	24.8	0.00e+00	0	30	0	797966336	42	5447
2026-01-26 22:30:02.24	79.53	24.48	-34.1	-35.0	24.7	0.00e+00	0	30	0	801112064	42	5573
2026-01-26 22:30:03.25	79.30	24.57	-34.3	-35.2	24.6	0.00e+00	0	30	0	804257792	42	5666
2026-01-26 22:30:04.26	79.06	24.67	-34.4	-35.4	24.6	0.00e+00	0	30	0	807403520	42	5795
2026-01-26 22:30:05.27	78.83	24.76	-34.5	-35.4	24.6	0.00e+00	0	30	0	810549248	42	5814
2026-01-26 22:30:06.28	78.59	24.85	-34.4	-35.3	24.6	0.00e+00	0	30	0	813694976	42	5760
2026-01-26 22:30:07.29	78.35	24.95	-34.4	-35.3	24.7	0.00e+00	0	30	0	816840704	42	5754
2026-01-26 22:30:08.30	78.11	25.04	-34.5	-35.3	24.6	0.00e+00	0	30	0	819986432	42	5789
2026-01-26 22:30:09.31	77.87	25.13	-34.3	-35.2	24.8	0.00e+00	0	30	0	823132160	42	5663
2026-01-26 22:30:10.32	77.62	25.23	-34.4	-35.3	24.7	0.00e+00	0	30	0	826277888	42	5737
2026-01-26 22:30:11.33	77.38	25.32	-34.7	-35.6	24.5	0.00e+00	0	30	0	829423616	42	5927
2026-01-26 22:30:12.34	77.13	25.41	-34.5	-35.4	24.6	0.00e+00	0	30	0	832569344	42	5826
2026-01-26 22:30:13.35	76.89	25.51	-34.4	-35.3	24.7	0.00e+00	0	30	0	835715072	42	5765
2026-01-26 22:30:14.36	76.64	25.60	-34.4	-35.3	24.7	0.00e+00	0	30	0	838860800	42	5752
2026-01-26 22:30:15.37	76.39	25.69	-34.4	-35.3	24.7	0.00e+00	0	30	0	842006528	42	5731
2026-01-26 22:30:16.38	76.13	25.78	-34.4	-35.3	24.6	0.00e+00	0	30	0	845152256	42	5735
2026-01-26 22:30:17.39	75.88	25.87	-34.2	-35.1	24.7	0.00e+00	0	30	0	848297984	42	5642
2026-01-26 22:30:18.40	75.63	25.96	-34.4	-35.3	24.6	0.00e+00	0	30	0	851443712	42	5774
2026-01-26 22:30:19.41	75.37	26.05	-34.5	-35.4	24.6	0.00e+00	0	30	0	854589440	42	5803
2026-01-26 22:30:20.42	75.11	26.14	-34.7	-35.6	24.4	0.00e+00	0	30	0	857735168	42	5934
2026-01-26 22:30:21.44	74.85	26.23	-34.4	-35.3	24.7	0.00e+00	0	30	0	860880896	42	5732
2026-01-26 22:30:22.45	74.59	26.32	-34.5	-35.4	24.5	0.00e+00	0	30	0	864026624	42	5798
2026-01-26 22:30:23.46	74.33	26.41	-34.5	-35.4	24.5	0.00e+00	0	30	0	867172352	42	5822
2026-01-26 22:30:24.47	74.06	26.50	-34.5	-35.4	24.5	0.00e+00	0	30	0	870318080	42	5834
2026-01-26 22:30:25.48	73.80	26.59	-34.6	-35.5	24.5	0.00e+00	0	30	0	873463808	42	5870
2026-01-26 22:30:26.49	73.53	26.68	-34.5	-35.4	24.6	0.00e+00	0	30	0	876609536	42	5806
2026-01-26 22:30:27.50	73.26	26.77	-34.5	-35.5	24.4	0.00e+00	0	30	0	880803840	42	5861
2026-01-26 22:30:28.51	72.99	26.85	-34.6	-35.5	24.5	0.00e+00	0	30	0	883949568	42	5895
2026-01-26 22:30:29.52	72.72	26.94	-34.5	-35.4	24.5	0.00e+00	0	30	0	887095296	42	5845
2026-01-26 22:30:30.53	72.45	27.03	-34.6	-35.5	24.4	0.00e+00	0	30	0	889192448	42	5896
2026-01-26 22:30:31.54	72.18	27.11	-34.6	-35.4	24.4	0.00e+00	0	30	0	892338176	42	5854
2026-01-26 22:30:32.55	71.90	27.20	-34.6	-35.5	24.4	0.00e+00	0	30	0	896532480	42	5893
2026-01-26 22:30:33.56	71.62	27.28	-34.6	-35.5	24.5	0.00e+00	0	30	0	899678208	42	5877
2026-01-26 22:30:34.57	71.35	27.37	-34.5	-35.4	24.5	0.00e+00	0	30	0	902823936	42	5857
2026-01-26 22:30:35.58	71.07	27.45	-34.7	-35.6	24.4	0.00e+00	0	30	0	905969664	42	5946
2026-01-26 22:30:36.59	70.78	27.53	-34.7	-35.6	24.4	0.00e+00	0	30	0	909115392	42	5956
2026-01-26 22:30:37.60	70.50	27.62	-34.7	-35.6	24.4	0.00e+00	0	30	0	912261120	42	5947
2026-01-26 22:30:38.61	70.22	27.70	-34.6	-35.5	24.5	0.00e+00	0	30	0	915406848	42	5899
2026-01-26 22:30:39.63	69.93	27.78	-34.5	-35.4	24.6	0.00e+00	0	30	0	918552576	42	5821
2026-01-26 22:30:40.64	69.64	27.86	-34.6	-35.5	24.6	0.00e+00	0	30	0	921698304	42	5902
2026-01-26 22:30:41.65	69.35	27.94	-34.4	-35.2	24.7	0.00e+00	0	30	0	924844032	42	5703
2026-01-26 22:30:42.66	69.06	28.02	-34.6	-35.5	24.5	0.00e+00	0	30	0	927989760	42	5890
2026-01-26 22:30:43.67	68.77	28.10	-34.8	-35.7	24.3	0.00e+00	0	30	0	931135488	42	6041
2026-01-26 22:30:44.68	68.48	28.18	-35.0	-35.9	24.2	0.00e+00	0	30	0	934281216	42	6178
2026-01-26 22:30:45.69	68.18	28.26	-35.0	-35.9	24.2	0.00e+00	0	30	0	937426944	42	6203
2026-01-26 22:30:46.70	67.89	28.34	-34.9	-35.8	24.4	0.00e+00	0	30	0	940572672	42	6108
2026-01-26 22:30:47.71	67.59	28.41	-34.8	-35.7	24.4	0.00e+00	0	30	0	943718400	42	6021
2026-01-26 22:30:48.72	67.29	28.49	-34.8	-35.7	24.4	0.00e+00	0	30	0	946864128	42	6041
2026-01-26 22:30:49.73	66.99	28.57	-34.6	-35.5	24.4	0.00e+00	0	30	0	950009856	42	5866
2026-01-26 22:30:50.74	66.69	28.64	-34.8	-35.7	24.2	0.00e+00	0	30	0	953155584	42	6046
2026-01-26 22:30:51.75	66.38	28.72	-35.0	-35.9	24.1	0.00e+00	0	30	0	956301312	42	6150
2026-01-26 22:30:52.76	66.08	28.79	-34.9	-35.8	24.3	0.00e+00	0	30	0	959447040	42	6088
2026-01-26 22:30:53.77	65.77	28.86	-34.9	-35.8	24.4	0.00e+00	0	30	0	962592768	42	6113
2026-01-26 22:30:54.78	65.47	28.93	-34.5	-35.4	24.5	0.00e+00	0	30	0	965738496	42	5821
2026-01-26 22:30:55.79	65.16	29.00	-34.5	-35.3	24.7	0.00e+00	0	30	0	968884224	42	5787
2026-01-26 22:30:56.80	64.85	29.08	-34.5	-35.3	24.6	0.00e+00	0	30	0	972029952	42	5787
2026-01-26 22:30:57.81	64.54	29.15	-34.7	-35.6	24.5	0.00e+00	0	30	0	975175680	42	5934
2026-01-26 22:30:58.82	64.22	29.21	-34.6	-35.5	24.5	0.00e+00	0	30	0	978321408	42	5898
2026-01-26 22:30:59.83	63.91	29.28	-34.8	-35.7	24.4	0.00e+00	0	30	0	981467136	42	6030
2026-01-26 22:31:00.84	63.59	29.35	-34.8	-35.7	24.4	0.00e+00	0	30	0	984612864	42	6033
2026-01-26 22:31:01.85	63.28	29.42	-34.8	-35.7	24.4	0.00e+00	0	30	0	987758592	42	6005
2026-01-26 22:31:02.86	62.96	29.48	-34.8	-35.7	24.3	0.00e+00	0	30	0	990904320	42	6037
2026-01-26 22:31:03.87	62.64	29.55	-35.0	-35.9	24.3	0.00e+00	0	30	0	994050048	42	6156
2026-01-26 22:31:04.88	62.32	29.61	-35.0	-35.9	24.3	0.00e+00	0	30	0	997195776	42	6161
2026-01-26 22:31:05.89	62.00	29.67	-35.0	-35.9	24.4	0.00e+00	0	30	0	1000341504	42	6147
2026-01-26 22:31:06.90	61.67	29.74	-35.0	-35.9	24.2	0.00e+00	0	30	0	1003487232	42	6178
2026-01-26 22:31:07.91	61.35	29.80	-35.0	-35.9	24.2	0.00e+00	0	30	0	1006632960	42	6174
2026-01-26 22:31:08.92	61.02	29.86	-35.2	-36.1	24.2	0.00e+00	0	30	0	1009778688	42	6301
2026-01-26 22:31:09.93	60.70	29.92	-35.0	-35.9	24.4	0.00e+00	0	30	0	1012924416	42	6168
2026-01-26 22:31:10.94	60.37	29.98	-35.1	-36.0	24.2	0.00e+00	0	30	0	1016070144	42	6253
2026-01-26 22:31:11.95	60.04	30.04	-35.0	-35.9	24.2	0.00e+00	0	30	0	1019215872	42	6202
2026-01-26 22:31:12.96	59.71	30.09	-35.2	-36.1	24.0	0.00e+00	0	30	0	1022361600	42	6333
2026-01-26 22:31:13.97	59.38	30.15	-35.3	-36.2	24.0	0.00e+00	0	30	0	1025507328	42	6390
2026-01-26 22:31:14.98	59.04	30.20	-35.3	-36.2	24.0	0.00e+00	0	30	0	1028653056	42	6403
2026-01-26 22:31:15.99	58.71	30.26	-35.3	-36.3	24.0	0.00e+00	0	30	0	1031798784	42	6428
2026-01-26 22:31:17.00	58.37	30.31	-35.2	-36.2	24.1	0.00e+00	0	30	0	1034944512	42	6362
2026-01-26 22:31:18.01	58.04	30.36	-35.1	-36.0	24.1	0.00e+00	0	30	0	1038090240	42	6277
2026-01-26 22:31:19.02	57.70	30.41	-35.1	-36.0	24.2	0.00e+00	0	30	0	1041235968	42	6240
2026-01-26 22:31:20.03	57.36	30.46	-35.2	-36.1	24.1	0.00e+00	0	30	0	1044381696	42	6350
2026-01-26 22:31:21.04	57.02	30.51	-35.1	-36.1	24.2	0.00e+00	0	30	0	1047527424	42	6280
2026-01-26 22:31:22.05	56.68	30.56	-35.2	-36.1	24.1	0.00e+00	0	30	0	1050673152	42	6314
2026-01-26 22:31:23.06	56.34	30.60	-35.3	-36.2	24.0	0.00e+00	0	30	0	1053818880	42	6379
2026-01-26 22:31:24.07	56.00	30.65	-35.5	-36.4	24.0	0.00e+00	0	30	0	1056964608	42	6553
2026-01-26 22:31:25.08	55.66	30.69	-35.4	-36.3	23.9	0.00e+00	0	30	0	1060110336	42	6487
2026-01-26 22:31:26.09	55.31	30.74	-35.5	-36.4	23.9	0.00e+00	0	30	0	1063256064	42	6533
2026-01-26 22:31:27.10	54.97	30.78	-35.5	-36.4	23.8	0.00e+00	0	30	0	1066401792	42	6569
2026-01-26 22:31:28.11	54.62	30.82	-35.3	-36.2	24.1	0.00e+00	0	30	0	1069547520	42	6408
2026-01-26 22:31:29.12	54.27	30.86	-35.3	-36.2	24.1	0.00e+00	0	30	0	1072693248	42	6375
2026-01-26 22:31:30.13	53.93	30.90	-34.9	-35.8	24.2	0.00e+00	0	30	0	1075838976	42	6117
2026-01-26 22:31:31.14	53.58	30.94	-35.1	-36.0	24.2	0.00e+00	0	30	0	1078984704	42	6221
2026-01-26 22:31:32.15	53.23	30.97	-35.1	-36.0	24.3	0.00e+00	0	30	0	1082130432	42	6217
2026-01-26 22:31:33.16	52.88	31.01	-34.9	-35.7	24.4	0.00e+00	0	30	0	1085276160	42	6064
2026-01-26 22:31:34.17	52.53	31.04	-34.9	-35.8	24.4	0.00e+00	0	30	0	1088421888	42	6124
2026-01-26 22:31:35.18	52.18	31.08	-35.0	-35.9	24.3	0.00e+00	0	30	0	1091567616	42	6137
2026-01-26 22:31:36.19	51.82	31.11	-34.8	-35.7	24.5	0.00e+00	0	30	0	1094713344	42	5997
2026-01-26 22:31:37.20	51.47	31.14	-34.8	-35.7	24.4	0.00e+00	0	30	0	1097859072	42	6031
2026-01-26 22:31:38.21	51.12	31.17	-35.0	-35.9	24.2	0.00e+00	0	30	0	1101004800	42	6150
2026-01-26 22:31:39.22	50.76	31.20	-35.1	-36.1	24.1	0.00e+00	0	30	0	1104150528	42	6279
2026-01-26 22:31:40.23	50.41	31.22	-35.0	-35.9	24.3	0.00e+00	0	30	0	1107296256	42	6173
2026-01-26 22:31:41.24	50.05	31.25	-35.2	-36.2	24.1	0.00e+00	0	30	0	1110441984	42	6352
2026-01-26 22:31:42.25	49.70	31.28	-35.2	-36.1	24.2	0.00e+00	0	30	0	1113587712	42	6317
2026-01-26 22:31:43.26	49.34	31.30	-35.3	-36.2	24.1	0.00e+00	0	30	0	1116733440	42	6377
2026-01-26 22:31:44.27	48.98	31.32	-35.3	-36.2	24.1	0.00e+00	0	30	0	1119879168	42	6384
2026-01-26 22:31:45.28	48.63	31.34	-35.2	-36.1	24.2	0.00e+00	0	30	0	1123024896	42	6331
2026-01-26 22:31:46.29	48.27	31.36	-35.3	-36.2	24.1	0.00e+00	0	30	0	1126170624	42	6372
2026-01-26 22:31:47.30	47.91	31.38	-35.2	-36.1	24.1	0.00e+00	0	30	0	1129316352	42	6328
2026-01-26 22:31:48.31	47.55	31.40	-35.2	-36.1	24.1	0.00e+00	0	30	0	1132462080	42	6316
2026-01-26 22:31:49.32	47.19	31.41	-35.2	-36.2	24.2	0.00e+00	0	30	0	1135607808	42	6353
2026-01-26 22:31:50.33	46.83	31.43	-35.5	-36.4	24.0	0.00e+00	0	30	0	1138753536	42	6518
2026-01-26 22:31:51.34	46.47	31.44	-35.4	-36.3	23.9	0.00e+00	0	30	0	1141899264	42	6489
2026-01-26 22:31:52.34	46.12	31.45	-35.4	-36.4	23.9	0.00e+00	0	30	0	1145044992	42	6515
2026-01-26 22:31:53.35	45.76	31.46	-35.5	-36.5	23.9	0.00e+00	0	30	0	1148190720	42	6584
2026-01-26 22:31:54.36	45.40	31.47	-35.4	-36.3	24.0	0.00e+00	0	30	0	1151336448	42	6446
2026-01-26 22:31:55.38	45.03	31.48	-35.5	-36.4	23.9	0.00e+00	0	30	0	1154482176	42	6565
2026-01-26 22:31:56.39	44.67	31.49	-35.2	-36.1	24.1	0.00e+00	0	30	0	1157627904	42	6332
2026-01-26 22:31:57.40	44.31	31.49	-35.1	-36.0	24.3	0.00e+00	0	30	0	1160773632	42	6219
2026-01-26 22:31:58.41	43.95	31.50	-35.0	-36.0	24.2	0.00e+00	0	30	0	1163919360	42	6207
2026-01-26 22:31:59.42	43.59	31.50	-35.2	-36.1	24.2	0.00e+00	0	30	0	1167065088	42	6349
2026-01-26 22:32:00.43	43.23	31.50	-35.3	-36.2	24.1	0.00e+00	0	29	0	1170210816	42	6400
2026-01-26 22:32:01.44	42.86	31.50	-35.4	-36.3	24.0	0.00e+00	0	30	0	1173356544	42	6454
2026-01-26 22:32:02.45	42.50	31.50	-35.6	-36.6	23.8	0.00e+00	0	29	0	1177550848	42	6658
2026-01-26 22:32:03.46	42.14	31.50	-35.5	-36.5	23.8	0.00e+00	0	29	0	1179648000	42	6585
2026-01-26 22:32:04.47	41.78	31.50	-35.6	-36.5	23.8	0.00e+00	0	29	0	1182793728	42	6637
2026-01-26 22:32:05.48	41.42	31.49	-35.5	-36.5	23.8	0.00e+00	0	29	0	1185939456	42	6576
2026-01-26 22:32:06.49	41.06	31.49	-35.3	-36.3	24.0	0.00e+00	0	30	0	1189085184	42	6432
2026-01-26 22:32:07.50	40.70	31.48	-35.2	-36.1	24.1	0.00e+00	0	30	0	1193279488	42	6323
2026-01-26 22:32:08.51	40.34	31.47	-35.0	-35.9	24.3	0.00e+00	0	29	0	1196425216	42	6145
2026-01-26 22:32:09.52	39.98	31.46	-34.9	-35.8	24.3	0.00e+00	0	29	0	1199570944	42	6101
2026-01-26 22:32:10.53	39.62	31.45	-34.8	-35.7	24.5	0.00e+00	0	29	0	1202716672	42	6017
2026-01-26 22:32:11.54	39.26	31.44	-34.6	-35.5	24.6	0.00e+00	0	29	0	1204813824	42	5885
2026-01-26 22:32:12.55	38.90	31.43	-34.6	-35.5	24.5	0.00e+00	0	30	0	1209008128	42	5862
2026-01-26 22:32:13.56	38.54	31.41	-34.5	-35.3	24.5	0.00e+00	0	29	0	1212153856	42	5786
2026-01-26 22:32:14.57	38.18	31.40	-34.6	-35.5	24.3	0.00e+00	0	29	0	1215299584	42	5913
2026-01-26 22:32:15.58	37.82	31.38	-34.8	-35.7	24.3	0.00e+00	0	29	0	1218445312	42	6035
2026-01-26 22:32:16.59	37.46	31.36	-35.0	-35.9	24.1	0.00e+00	0	30	0	1221591040	42	6168
2026-01-26 22:32:17.60	37.11	31.34	-34.9	-35.8	24.2	0.00e+00	0	29	0	1224736768	42	6101
2026-01-26 22:32:18.61	36.75	31.32	-34.9	-35.8	24.2	0.00e+00	0	29	0	1227882496	42	6094
2026-01-26 22:32:19.62	36.39	31.30	-34.9	-35.8	24.2	0.00e+00	0	29	0	1231028224	42	6067
2026-01-26 22:32:20.63	36.04	31.27	-34.8	-35.7	24.2	0.00e+00	0	29	0	1234173952	42	6037
2026-01-26 22:32:21.64	35.68	31.25	-34.8	-35.7	24.2	0.00e+00	0	29	0	1237319680	42	6047
2026-01-26 22:32:22.65	35.32	31.22	-34.9	-35.8	24.2	0.00e+00	0	29	0	1240465408	42	6118
2026-01-26 22:32:23.66	34.97	31.19	-35.1	-36.0	24.1	0.00e+00	0	30	0	1243611136	42	6222
2026-01-26 22:32:24.67	34.62	31.17	-35.2	-36.1	24.1	0.00e+00	0	29	0	1246756864	42	6348
2026-01-26 22:32:25.68	34.26	31.14	-35.2	-36.1	24.1	0.00e+00	0	30	0	1249902592	42	6326
2026-01-26 22:32:26.69	33.91	31.11	-34.9	-35.8	24.4	0.00e+00	0	29	0	1253048320	42	6114
2026-01-26 22:32:27.70	33.56	31.07	-34.9	-35.8	24.3	0.00e+00	0	29	0	1256194048	42	6075
2026-01-26 22:32:28.71	33.21	31.04	-35.0	-35.9	24.2	0.00e+00	0	29	0	1259339776	42	6165
2026-01-26 22:32:29.72	32.86	31.01	-35.1	-36.0	24.2	0.00e+00	0	29	0	1262485504	42	6233
2026-01-26 22:32:30.73	32.51	30.97	-35.1	-36.0	24.2	0.00e+00	0	29	0	1265631232	42	6219
2026-01-26 22:32:31.74	32.16	30.93	-35.1	-36.0	24.1	0.00e+00	0	29	0	1268776960	42	6262
2026-01-26 22:32:32.75	31.81	30.90	-35.3	-36.2	24.1	0.00e+00	0	29	0	1271922688	42	6397
2026-01-26 22:32:33.76	31.46	30.86	-35.3	-36.3	24.0	0.00e+00	0	29	0	1275068416	42	6431
2026-01-26 22:32:34.77	31.12	30.82	-35.5	-36.4	23.8	0.00e+00	0	29	0	1278214144	42	6571
2026-01-26 22:32:35.78	30.77	30.78	-35.6	-36.6	23.7	0.00e+00	0	29	0	1281359872	42	6679
2026-01-26 22:32:36.79	30.43	30.73	-35.7	-36.7	23.7	0.00e+00	0	29	0	1284505600	44	6014
2026-01-26 22:32:37.80	30.08	30.69	-35.4	-36.3	24.0	0.00e+00	0	29	0	1287651328	44	5780
2026-01-26 22:32:38.81	29.74	30.65	-35.4	-36.3	24.0	0.00e+00	0	29	0	1290797056	44	5752
2026-01-26 22:32:39.82	29.40	30.60	-35.2	-36.1	24.0	0.00e+00	0	29	0	1293942784	44	5658
2026-01-26 22:32:40.82	29.06	30.55	-34.7	-35.6	24.4	0.00e+00	0	29	0	1297088512	42	5986
2026-01-26 22:32:41.83	28.72	30.51	-34.5	-35.4	24.5	0.00e+00	0	29	0	1300234240	42	5837
2026-01-26 22:32:42.85	28.38	30.46	-34.5	-35.4	24.6	0.00e+00	0	29	0	1303379968	42	5807
2026-01-26 22:32:43.86	28.04	30.41	-34.6	-35.5	24.7	0.00e+00	0	29	0	1306525696	42	5860
2026-01-26 22:32:44.87	27.70	30.36	-34.4	-35.3	24.7	0.00e+00	0	29	0	1309671424	42	5739
2026-01-26 22:32:45.88	27.37	30.30	-34.5	-35.4	24.7	0.00e+00	0	29	0	1312817152	42	5811
2026-01-26 22:32:46.89	27.03	30.25	-34.6	-35.5	24.6	0.00e+00	0	29	0	1315962880	42	5864
2026-01-26 22:32:47.90	26.70	30.20	-34.8	-35.7	24.4	0.00e+00	0	29	0	1319108608	42	6013
2026-01-26 22:32:48.91	26.37	30.14	-34.8	-35.7	24.3	0.00e+00	0	29	0	1322254336	42	6015
2026-01-26 22:32:49.92	26.04	30.09	-34.9	-35.9	24.0	0.00e+00	0	29	0	1325400064	42	6144
2026-01-26 22:32:50.93	25.71	30.03	-34.8	-35.8	24.2	0.00e+00	0	29	0	1328545792	42	6068
2026-01-26 22:32:51.94	25.38	29.97	-34.6	-35.5	24.3	0.00e+00	0	29	0	1331691520	42	5916
2026-01-26 22:32:52.95	25.05	29.91	-34.4	-35.3	24.6	0.00e+00	0	29	0	1334837248	42	5754
2026-01-26 22:32:53.96	24.73	29.85	-34.4	-35.3	24.6	0.00e+00	0	29	0	1337982976	42	5770
2026-01-26 22:32:54.97	24.40	29.79	-34.5	-35.4	24.7	0.00e+00	0	29	0	1341128704	42	5830
2026-01-26 22:32:55.98	24.08	29.73	-34.7	-35.6	24.5	0.00e+00	0	29	0	1344274432	42	5950
2026-01-26 22:32:56.99	23.75	29.67	-35.0	-35.9	24.3	0.00e+00	0	29	0	1347420160	42	6152
2026-01-26 22:32:58.00	23.43	29.61	-34.9	-35.8	24.3	0.00e+00	0	29	0	1350565888	42	6132
2026-01-26 22:32:59.01	23.11	29.54	-35.0	-35.9	24.2	0.00e+00	0	29	0	1353711616	42	6186
2026-01-26 22:33:00.03	22.79	29.48	-35.1	-36.0	24.2	0.00e+00	0	29	0	1356857344	42	6232
2026-01-26 22:33:01.04	22.47	29.41	-35.0	-35.9	24.1	0.00e+00	0	29	0	1360003072	42	6192
2026-01-26 22:33:02.04	22.16	29.34	-34.4	-35.3	24.6	0.00e+00	0	29	0	1363148800	42	5755
2026-01-26 22:33:03.06	21.84	29.28	-34.4	-35.3	24.6	0.00e+00	0	29	0	1366294528	42	5759
2026-01-26 22:33:04.07	21.53	29.21	-34.8	-35.7	24.3	0.00e+00	0	29	0	1369440256	42	6049
2026-01-26 22:33:05.08	21.22	29.14	-35.2	-36.1	24.0	0.00e+00	0	29	0	1372585984	42	6294
2026-01-26 22:33:06.09	20.91	29.07	-35.3	-36.2	23.8	0.00e+00	0	29	0	1375731712	42	6394
2026-01-26 22:33:07.09	20.60	29.00	-35.1	-36.0	24.1	0.00e+00	0	29	0	1378877440	42	6244
2026-01-26 22:33:08.11	20.29	28.93	-34.7	-35.6	24.4	0.00e+00	0	29	0	1382023168	42	5945
2026-01-26 22:33:09.12	19.98	28.86	-34.6	-35.5	24.4	0.00e+00	0	29	0	1385168896	42	5895
2026-01-26 22:33:10.13	19.68	28.78	-34.2	-35.1	24.8	0.00e+00	0	29	0	1388314624	42	5609
2026-01-26 22:33:11.14	19.37	28.71	-33.8	-34.7	25.0	0.00e+00	0	29	0	1391460352	42	5349
2026-01-26 22:33:12.15	19.07	28.64	-33.7	-34.6	25.2	0.00e+00	0	29	0	1394606080	42	5311
2026-01-26 22:33:13.16	18.77	28.56	-33.7	-34.6	25.2	0.00e+00	0	29	0	1397751808	40	5953
2026-01-26 22:33:14.17	18.47	28.48	-34.0	-34.8	24.9	0.00e+00	0	29	0	1400897536	40	6124
2026-01-26 22:33:15.18	18.17	28.41	-34.2	-35.1	24.7	0.00e+00	0	29	0	1404043264	40	6316
2026-01-26 22:33:16.19	17.88	28.33	-34.4	-35.3	24.5	0.00e+00	0	29	0	1407188992	40	6442
2026-01-26 22:33:17.20	17.58	28.25	-34.6	-35.5	24.4	0.00e+00	0	29	0	1410334720	40	6589
2026-01-26 22:33:18.21	17.29	28.18	-34.5	-35.4	24.5	0.00e+00	0	29	0	1413480448	40	6501
2026-01-26 22:33:19.22	16.99	28.10	-34.3	-35.2	24.6	0.00e+00	0	29	0	1416626176	40	6385
2026-01-26 22:33:20.23	16.70	28.02	-34.3	-35.2	24.6	0.00e+00	0	29	0	1419771904	40	6392
2026-01-26 22:33:21.24	16.41	27.94	-34.6	-35.5	24.6	0.00e+00	0	29	0	1422917632	40	6586
2026-01-26 22:33:22.25	16.13	27.86	-34.8	-35.7	24.4	0.00e+00	0	29	0	1426063360	42	6010
2026-01-26 22:33:23.26	15.84	27.78	-35.0	-36.0	24.2	0.00e+00	0	29	0	1429209088	42	6223
2026-01-26 22:33:24.27	15.56	27.69	-35.2	-36.1	24.1	0.00e+00	0	29	0	1432354816	42	6331
2026-01-26 22:33:25.28	15.27	27.61	-35.2	-36.2	24.1	0.00e+00	0	29	0	1435500544	42	6354
2026-01-26 22:33:26.29	14.99	27.53	-35.0	-35.9	24.2	0.00e+00	0	29	0	1438646272	42	6164
2026-01-26 22:33:27.30	14.71	27.45	-34.9	-35.8	24.2	0.00e+00	0	29	0	1441792000	42	6132
2026-01-26 22:33:28.31	14.43	27.36	-34.6	-35.5	24.4	0.00e+00	0	29	0	1444937728	42	5866
2026-01-26 22:33:29.32	14.15	27.28	-34.5	-35.3	24.5	0.00e+00	0	29	0	1448083456	42	5789
2026-01-26 22:33:30.33	13.88	27.19	-34.2	-35.1	24.8	0.00e+00	0	29	0	1451229184	42	5605
2026-01-26 22:33:31.34	13.60	27.11	-34.0	-34.8	25.0	0.00e+00	0	29	0	1454374912	42	5452
2026-01-26 22:33:32.35	13.33	27.02	-33.9	-34.7	25.1	0.00e+00	0	29	0	1457520640	42	5383
2026-01-26 22:33:33.36	13.06	26.94	-34.0	-34.9	25.0	0.00e+00	0	29	0	1460666368	42	5481
2026-01-26 22:33:34.37	12.79	26.85	-34.0	-34.9	25.0	0.00e+00	0	29	0	1463812096	42	5512
2026-01-26 22:33:35.38	12.52	26.76	-34.0	-34.9	24.8	0.00e+00	0	29	0	1466957824	42	5478
2026-01-26 22:33:36.39	12.25	26.68	-33.9	-34.8	24.9	0.00e+00	0	29	0	1471152128	42	5417
2026-01-26 22:33:37.40	11.98	26.59	-33.5	-34.3	25.2	0.00e+00	0	29	0	1473249280	40	5764
2026-01-26 22:33:38.41	11.72	26.50	-33.6	-34.4	25.2	0.00e+00	0	29	0	1476395008	40	5837
2026-01-26 22:33:39.42	11.46	26.41	-33.6	-34.5	25.1	0.00e+00	0	29	0	1479540736	40	5867
2026-01-26 22:33:40.44	11.19	26.32	-33.9	-34.7	25.0	0.00e+00	0	29	0	1482686464	40	6055
2026-01-26 22:33:41.44	10.94	26.23	-34.1	-35.0	24.9	0.00e+00	0	29	0	1486880768	40	6252
2026-01-26 22:33:42.46	10.68	26.14	-34.4	-35.2	24.7	0.00e+00	0	29	0	1490026496	40	6414
2026-01-26 22:33:43.47	10.42	26.05	-34.5	-35.4	24.5	0.00e+00	0	29	0	1493172224	40	6522
2026-01-26 22:33:44.48	10.16	25.96	-34.6	-35.5	24.4	0.00e+00	0	29	0	1496317952	40	6605
2026-01-26 22:33:45.49	9.91	25.87	-34.6	-35.6	24.3	0.00e+00	0	29	0	1498415104	40	6651
2026-01-26 22:33:46.50	9.66	25.78	-34.5	-35.4	24.2	0.00e+00	0	29	0	1502609408	40	6532
2026-01-26 22:33:47.51	9.41	25.69	-34.3	-35.2	24.4	0.00e+00	0	29	0	1505755136	40	6415
2026-01-26 22:33:48.52	9.16	25.60	-34.3	-35.2	24.4	0.00e+00	0	29	0	1508900864	40	6409
2026-01-26 22:33:49.53	8.91	25.51	-34.3	-35.2	24.5	0.00e+00	0	29	0	1512046592	40	6400
2026-01-26 22:33:50.54	8.66	25.41	-34.4	-35.3	24.4	0.00e+00	0	29	0	1515192320	40	6481
2026-01-26 22:33:51.55	8.42	25.32	-34.6	-35.5	24.3	0.00e+00	0	29	0	1518338048	40	6610
2026-01-26 22:33:52.56	8.17	25.23	-34.6	-35.6	24.2	0.00e+00	0	29	0	1521483776	40	6656
2026-01-26 22:33:53.57	7.93	25.14	-34.6	-35.5	24.2	0.00e+00	0	29	0	1524629504	40	6623
2026-01-26 22:33:54.59	7.69	25.04	-34.6	-35.5	24.2	0.00e+00	0	29	0	1527775232	40	6633
2026-01-26 22:33:55.60	7.45	24.95	-34.6	-35.6	24.3	0.00e+00	0	29	0	1530920960	40	6652
2026-01-26 22:33:56.60	7.21	24.86	-34.7	-35.6	24.3	0.00e+00	0	29	0	1534066688	40	6697
2026-01-26 22:33:57.61	6.98	24.76	-34.6	-35.5	24.4	0.00e+00	0	29	0	1537212416	40	6623
2026-01-26 22:33:58.62	6.74	24.67	-34.6	-35.4	24.5	0.00e+00	0	29	0	1540358144	42	5847
2026-01-26 22:33:59.64	6.50	24.57	-34.7	-35.5	24.5	0.00e+00	0	29	0	1543503872	42	5926
2026-01-26 22:34:00.64	6.27	24.48	-34.6	-35.5	24.4	0.00e+00	0	29	0	1546649600	42	5920
2026-01-26 22:34:01.65	6.04	24.39	-34.5	-35.4	24.4	0.00e+00	0	29	0	1549795328	42	5844
2026-01-26 22:34:02.66	5.81	24.29	-34.6	-35.5	24.5	0.00e+00	0	29	0	1552941056	42	5899
2026-01-26 22:34:03.67	5.59	24.20	-34.5	-35.4	24.5	0.00e+00	0	29	0	1556086784	42	5814
2026-01-26 22:34:04.68	5.36	24.10	-34.4	-35.3	24.5	0.00e+00	0	29	0	1559232512	42	5750
2026-01-26 22:34:05.69	5.13	24.01	-34.6	-35.5	24.5	0.00e+00	0	29	0	1562378240	42	5873
2026-01-26 22:34:06.70	4.91	23.91	-34.5	-35.4	24.5	0.00e+00	0	29	0	1565523968	42	5837
2026-01-26 22:34:07.72	4.69	23.82	-34.3	-35.2	24.7	0.00e+00	0	29	0	1568669696	42	5711
2026-01-26 22:34:08.73	4.46	23.72	-34.3	-35.2	24.8	0.00e+00	0	29	0	1571815424	42	5671
2026-01-26 22:34:09.74	4.24	23.63	-34.3	-35.2	24.8	0.00e+00	0	29	0	1574961152	42	5717
2026-01-26 22:34:10.75	4.03	23.53	-34.5	-35.4	24.6	0.00e+00	0	29	0	1578106880	42	5812
2026-01-26 22:34:11.76	3.81	23.43	-34.7	-35.5	24.5	0.00e+00	0	29	0	1581252608	42	5922
2026-01-26 22:34:12.77	3.59	23.34	-34.6	-35.6	24.4	0.00e+00	0	29	0	1584398336	42	5927
2026-01-26 22:34:13.78	3.38	23.24	-34.7	-35.6	24.3	0.00e+00	0	29	0	1587544064	42	5959
2026-01-26 22:34:14.79	3.17	23.15	-34.6	-35.5	24.3	0.00e+00	0	29	0	1590689792	42	5909
2026-01-26 22:34:15.80	2.95	23.05	-34.6	-35.5	24.4	0.00e+00	0	29	0	1593835520	42	5917
2026-01-26 22:34:16.81	2.74	22.95	-34.5	-35.4	24.4	0.00e+00	0	29	0	1596981248	42	5857
2026-01-26 22:34:17.82	2.53	22.86	-34.5	-35.4	24.4	0.00e+00	0	29	0	1600126976	42	5812
2026-01-26 22:34:18.83	2.33	22.76	-34.6	-35.5	24.2	0.00e+00	0	29	0	1603272704	42	5911
2026-01-26 22:34:19.84	2.12	22.66	-34.5	-35.4	24.5	0.00e+00	0	29	0	1606418432	42	5840
2026-01-26 22:34:20.85	1.91	22.57	-34.7	-35.6	24.4	0.00e+00	0	29	0	1609564160	42	5976
2026-01-26 22:34:21.86	1.71	22.47	-34.6	-35.5	24.5	0.00e+00	0	29	0	1612709888	42	5901
2026-01-26 22:34:22.87	1.51	22.38	-34.7	-35.6	24.4	0.00e+00	0	29	0	1615855616	42	5934
2026-01-26 22:34:23.88	1.31	22.28	-34.7	-35.6	24.4	0.00e+00	0	29	0	1619001344	42	5971
2026-01-26 22:34:24.89	1.11	22.18	-34.3	-35.2	24.8	0.00e+00	0	29	0	1622147072	42	5661
2026-01-26 22:34:25.90	0.91	22.09	-34.3	-35.1	24.7	0.00e+00	0	29	0	1625292800	42	5652
2026-01-26 22:34:26.91	0.71	21.99	-34.1	-35.0	24.9	0.00e+00	0	29	0	1628438528	42	5546
2026-01-26 22:34:27.92	0.51	21.89	-34.1	-35.0	24.8	0.00e+00	0	29	0	1631584256	42	5541
2026-01-26 22:34:28.93	0.32	21.80	-34.3	-35.1	24.8	0.00e+00	0	29	0	1634729984	42	5650
2026-01-26 22:34:29.94	0.12	21.70	-34.2	-35.1	24.8	0.00e+00	0	29	0	1637875712	42	5603
2026-01-26 22:34:30.95	359.93	21.60	-34.3	-35.2	24.8	0.00e+00	0	29	0	1641021440	42	5662
2026-01-26 22:34:31.97	359.74	21.51	-34.1	-35.0	24.8	0.00e+00	0	29	0	1644167168	42	5573
2026-01-26 22:34:32.98	359.55	21.41	-34.0	-34.9	24.9	0.00e+00	0	29	0	1647312896	42	5470
2026-01-26 22:34:33.99	359.36	21.31	-34.1	-35.0	24.8	0.00e+00	0	29	0	1650458624	42	5556
2026-01-26 22:34:35.00	359.17	21.22	-34.0	-34.9	24.8	0.00e+00	0	29	0	1653604352	42	5479
2026-01-26 22:34:36.01	358.98	21.12	-33.9	-34.8	25.0	0.00e+00	0	29	0	1656750080	42	5424
2026-01-26 22:34:37.02	358.80	21.03	-33.8	-34.7	25.0	0.00e+00	0	29	0	1659895808	42	5376
2026-01-26 22:34:38.03	358.61	20.93	-34.0	-34.8	25.0	0.00e+00	0	29	0	1663041536	42	5462
2026-01-26 22:34:39.04	358.43	20.83	-34.2	-35.1	24.8	0.00e+00	0	29	0	1666187264	42	5601
2026-01-26 22:34:40.05	358.25	20.74	-34.3	-35.2	24.7	0.00e+00	0	29	0	1669332992	42	5676
2026-01-26 22:34:41.06	358.07	20.64	-34.4	-35.3	24.6	0.00e+00	0	29	0	1672478720	42	5739
2026-01-26 22:34:42.07	357.89	20.55	-34.6	-35.5	24.4	0.00e+00	0	29	0	1675624448	42	5885
2026-01-26 22:34:43.08	357.71	20.45	-34.5	-35.4	24.6	0.00e+00	0	29	0	1678770176	42	5812
2026-01-26 22:34:44.09	357.53	20.35	-34.6	-35.5	24.5	0.00e+00	0	29	0	1681915904	42	5912
2026-01-26 22:34:45.10	357.36	20.26	-34.7	-35.6	24.3	0.00e+00	0	29	0	1685061632	42	5941
2026-01-26 22:34:46.11	357.18	20.16	-34.5	-35.3	24.5	0.00e+00	0	28	0	1688207360	42	5788
2026-01-26 22:34:47.12	357.01	20.07	-34.4	-35.3	24.6	0.00e+00	0	29	0	1691353088	42	5728
2026-01-26 22:34:48.13	356.83	19.97	-34.2	-35.1	24.7	0.00e+00	0	29	0	1694498816	42	5635
2026-01-26 22:34:49.14	356.66	19.88	-34.2	-35.1	24.7	0.00e+00	0	29	0	1697644544	42	5631
2026-01-26 22:34:50.15	356.49	19.78	-34.1	-35.0	24.8	0.00e+00	0	29	0	1700790272	42	5573
2026-01-26 22:34:51.16	356.32	19.69	-34.2	-35.0	24.8	0.00e+00	0	29	0	1703936000	42	5570
2026-01-26 22:34:52.17	356.15	19.59	-34.1	-34.9	24.9	0.00e+00	0	29	0	1707081728	42	5521
2026-01-26 22:34:53.18	355.99	19.50	-34.0	-34.9	24.9	0.00e+00	0	29	0	1710227456	42	5495
2026-01-26 22:34:54.19	355.82	19.40	-34.1	-34.9	24.7	0.00e+00	0	28	0	1713373184	42	5529
2026-01-26 22:34:55.20	355.65	19.31	-34.4	-35.3	24.5	0.00e+00	0	29	0	1716518912	42	5754
2026-01-26 22:34:56.21	355.49	19.21	-34.4	-35.3	24.4	0.00e+00	0	29	0	1719664640	42	5779
2026-01-26 22:34:57.22	355.33	19.12	-34.6	-35.5	24.3	0.00e+00	0	29	0	1722810368	42	5897
2026-01-26 22:34:58.23	355.16	19.02	-34.5	-35.5	24.3	0.00e+00	0	29	0	1725956096	42	5859
2026-01-26 22:34:59.24	355.00	18.93	-34.5	-35.5	24.3	0.00e+00	0	28	0	1729101824	42	5861
2026-01-26 22:35:00.25	354.84	18.83	-34.5	-35.4	24.3	0.00e+00	0	29	0	1732247552	42	5810
2026-01-26 22:35:01.26	354.68	18.74	-34.4	-35.3	24.2	0.00e+00	0	29	0	1735393280	42	5788
2026-01-26 22:35:02.27	354.52	18.65	-34.4	-35.3	24.3	0.00e+00	0	29	0	1738539008	42	5741
2026-01-26 22:35:03.28	354.37	18.55	-34.3	-35.2	24.4	0.00e+00	0	29	0	1741684736	42	5693
2026-01-26 22:35:04.29	354.21	18.46	-34.3	-35.2	24.5	0.00e+00	0	29	0	1744830464	42	5678
2026-01-26 22:35:05.30	354.05	18.36	-34.5	-35.4	24.2	0.00e+00	0	28	0	1747976192	42	5850
2026-01-26 22:35:06.31	353.90	18.27	-34.3	-35.3	24.5	0.00e+00	0	28	0	1751121920	42	5729
2026-01-26 22:35:07.32	353.75	18.18	-34.6	-35.5	24.3	0.00e+00	0	28	0	1754267648	42	5870
2026-01-26 22:35:08.33	353.59	18.08	-34.8	-35.7	24.3	0.00e+00	0	28	0	1757413376	42	6026
2026-01-26 22:35:09.34	353.44	17.99	-34.7	-35.6	24.2	0.00e+00	0	28	0	1760559104	42	5986
2026-01-26 22:35:10.35	353.29	17.90	-34.9	-35.8	24.1	0.00e+00	0	28	0	1764753408	42	6087
2026-01-26 22:35:11.36	353.14	17.81	-34.9	-35.8	24.1	0.00e+00	0	28	0	1766850560	42	6094
2026-01-26 22:35:12.37	352.99	17.71	-34.9	-35.8	24.1	0.00e+00	0	28	0	1769996288	42	6096
2026-01-26 22:35:13.38	352.85	17.62	-34.9	-35.8	23.9	0.00e+00	0	28	0	1773142016	42	6098
2026-01-26 22:35:14.39	352.70	17.53	-34.8	-35.8	23.9	0.00e+00	0	28	0	1776287744	42	6076
2026-01-26 22:35:15.40	352.55	17.44	-34.7	-35.6	24.0	0.00e+00	0	28	0	1780482048	42	5992
2026-01-26 22:35:16.41	352.41	17.34	-34.7	-35.7	23.9	0.00e+00	0	28	0	1783627776	42	6006
2026-01-26 22:35:17.42	352.26	17.25	-34.6	-35.6	24.1	0.00e+00	0	28	0	1785724928	42	5939
2026-01-26 22:35:18.43	352.12	17.16	-34.5	-35.4	24.3	0.00e+00	0	28	0	1788870656	42	5834
2026-01-26 22:35:19.44	351.98	17.07	-34.5	-35.4	24.3	0.00e+00	0	28	0	1793064960	42	5824
2026-01-26 22:35:20.45	351.84	16.98	-34.5	-35.4	24.5	0.00e+00	0	28	0	1796210688	42	5844
2026-01-26 22:35:21.46	351.70	16.89	-34.4	-35.3	24.5	0.00e+00	0	28	0	1799356416	42	5736
2026-01-26 22:35:22.47	351.56	16.80	-34.4	-35.3	24.4	0.00e+00	0	28	0	1802502144	42	5780
2026-01-26 22:35:23.48	351.42	16.71	-34.5	-35.4	24.5	0.00e+00	0	28	0	1805647872	42	5804
2026-01-26 22:35:24.49	351.28	16.61	-34.7	-35.6	24.3	0.00e+00	0	28	0	1808793600	42	5927
2026-01-26 22:35:25.50	351.14	16.52	-34.8	-35.7	24.3	0.00e+00	0	28	0	1811939328	42	6014
2026-01-26 22:35:26.51	351.01	16.43	-34.8	-35.7	24.3	0.00e+00	0	28	0	1815085056	42	6026
2026-01-26 22:35:27.52	350.87	16.34	-34.8	-35.7	24.1	0.00e+00	0	28	0	1818230784	42	6061
2026-01-26 22:35:28.53	350.74	16.25	-34.9	-35.8	24.1	0.00e+00	0	28	0	1821376512	42	6134
2026-01-26 22:35:29.54	350.60	16.16	-35.0	-36.0	24.0	0.00e+00	0	28	0	1824522240	42	6223
2026-01-26 22:35:30.55	350.47	16.07	-35.1	-36.0	23.8	0.00e+00	0	28	0	1827667968	42	6274
2026-01-26 22:35:31.56	350.34	15.98	-35.1	-36.0	23.9	0.00e+00	0	28	0	1830813696	42	6241
2026-01-26 22:35:32.57	350.21	15.89	-34.7	-35.7	24.1	0.00e+00	0	28	0	1833959424	42	5998
2026-01-26 22:35:33.58	350.08	15.81	-34.7	-35.6	24.1	0.00e+00	0	28	0	1837105152	42	5980
2026-01-26 22:35:34.59	349.95	15.72	-34.6	-35.5	24.2	0.00e+00	0	28	0	1840250880	42	5912
2026-01-26 22:35:35.60	349.82	15.63	-34.6	-35.5	24.2	0.00e+00	0	28	0	1843396608	42	5914
2026-01-26 22:35:36.61	349.69	15.54	-34.6	-35.5	24.2	0.00e+00	0	28	0	1846542336	42	5913
2026-01-26 22:35:37.62	349.56	15.45	-34.7	-35.6	24.2	0.00e+00	0	28	0	1849688064	42	5989
2026-01-26 22:35:38.63	349.43	15.36	-34.6	-35.5	24.3	0.00e+00	0	28	0	1852833792	42	5893
2026-01-26 22:35:39.64	349.31	15.27	-34.8	-35.7	24.3	0.00e+00	0	28	0	1855979520	42	6013
2026-01-26 22:35:40.65	349.18	15.19	-34.7	-35.6	24.3	0.00e+00	0	28	0	1859125248	42	5966
2026-01-26 22:35:41.66	349.06	15.10	-34.9	-35.8	24.1	0.00e+00	0	28	0	1862270976	42	6077
2026-01-26 22:35:42.68	348.93	15.01	-34.9	-35.8	24.1	0.00e+00	0	28	0	1865416704	42	6112
2026-01-26 22:35:43.69	348.81	14.92	-35.1	-36.0	24.0	0.00e+00	0	28	0	1868562432	42	6241
2026-01-26 22:35:44.70	348.69	14.83	-35.1	-36.1	23.9	0.00e+00	0	28	0	1871708160	42	6284
2026-01-26 22:35:45.70	348.57	14.75	-35.2	-36.1	23.9	0.00e+00	0	28	0	1874853888	42	6294
2026-01-26 22:35:46.71	348.45	14.66	-35.2	-36.2	23.8	0.00e+00	0	28	0	1877999616	42	6363
2026-01-26 22:35:47.72	348.33	14.57	-35.2	-36.2	23.8	0.00e+00	0	28	0	1881145344	42	6361
2026-01-26 22:35:48.73	348.21	14.49	-35.4	-36.4	23.7	0.00e+00	0	28	0	1884291072	42	6509
2026-01-26 22:35:49.74	348.09	14.40	-35.3	-36.2	23.8	0.00e+00	0	28	0	1887436800	42	6405
2026-01-26 22:35:50.75	347.97	14.32	-35.3	-36.2	23.7	0.00e+00	0	28	0	1890582528	42	6394
2026-01-26 22:35:51.76	347.86	14.23	-35.3	-36.2	23.7	0.00e+00	0	28	0	1893728256	42	6384
2026-01-26 22:35:52.77	347.74	14.14	-35.2	-36.1	23.8	0.00e+00	0	28	0	1896873984	42	6294
2026-01-26 22:35:53.78	347.62	14.06	-35.2	-36.1	23.8	0.00e+00	0	28	0	1900019712	42	6332
2026-01-26 22:35:54.79	347.51	13.97	-35.1	-36.0	24.0	0.00e+00	0	28	0	1903165440	42	6251
2026-01-26 22:35:55.80	347.39	13.89	-35.2	-36.1	23.9	0.00e+00	0	28	0	1906311168	42	6342
2026-01-26 22:35:56.81	347.28	13.80	-35.3	-36.2	23.8	0.00e+00	0	28	0	1909456896	42	6404
2026-01-26 22:35:57.82	347.17	13.72	-35.3	-36.3	23.7	0.00e+00	0	28	0	1912602624	42	6449
2026-01-26 22:35:58.84	347.05	13.63	-35.3	-36.3	23.7	0.00e+00	0	28	0	1915748352	42	6442
2026-01-26 22:35:59.84	346.94	13.55	-35.4	-36.4	23.6	0.00e+00	0	28	0	1918894080	42	6503
2026-01-26 22:36:00.85	346.83	13.46	-35.5	-36.5	23.6	0.00e+00	0	28	0	1922039808	42	6594
2026-01-26 22:36:01.86	346.72	13.38	-35.5	-36.4	23.6	0.00e+00	0	28	0	1925185536	42	6542
2026-01-26 22:36:02.87	346.61	13.30	-35.6	-36.6	23.5	0.00e+00	0	28	0	1928331264	42	6686
2026-01-26 22:36:03.88	346.50	13.21	-35.8	-36.7	23.2	0.00e+00	0	28	0	1931476992	44	6058
2026-01-26 22:36:04.89	346.39	13.13	-35.8	-36.8	23.3	0.00e+00	0	28	0	1934622720	44	6081
2026-01-26 22:36:05.90	346.29	13.04	-36.0	-36.9	23.2	0.00e+00	0	28	0	1937768448	44	6199
2026-01-26 22:36:06.91	346.18	12.96	-36.1	-37.1	22.9	0.00e+00	0	28	0	1940914176	44	6324
2026-01-26 22:36:07.93	346.07	12.88	-36.4	-37.4	22.8	0.00e+00	0	28	0	1944059904	44	6548
2026-01-26 22:36:08.93	345.97	12.80	-36.5	-37.5	22.7	0.00e+00	0	28	0	1947205632	44	6607
2026-01-26 22:36:09.94	345.86	12.71	-36.2	-37.2	22.8	0.00e+00	0	28	0	1950351360	44	6397
2026-01-26 22:36:10.95	345.76	12.63	-36.4	-37.5	22.7	0.00e+00	0	28	0	1953497088	44	6574
2026-01-26 22:36:11.96	345.65	12.55	-36.3	-37.3	22.8	0.00e+00	0	28	0	1956642816	44	6446
2026-01-26 22:36:12.97	345.55	12.47	-36.4	-37.4	22.7	0.00e+00	0	28	0	1959788544	44	6536
2026-01-26 22:36:13.97	345.45	12.38	-36.4	-37.4	22.5	0.00e+00	0	28	0	1962934272	44	6561
2026-01-26 22:36:14.99	345.34	12.30	-36.3	-37.3	22.7	0.00e+00	0	28	0	1966080000	44	6454
2026-01-26 22:36:16.00	345.24	12.22	-36.3	-37.4	22.6	0.00e+00	0	28	0	1969225728	44	6499
2026-01-26 22:36:17.01	345.14	12.14	-36.6	-37.7	22.3	0.00e+00	0	28	0	1972371456	44	6732
2026-01-26 22:36:18.02	345.04	12.06	-36.4	-37.5	22.7	0.00e+00	0	28	0	1975517184	44	6581
2026-01-26 22:36:19.03	344.94	11.98	-36.4	-37.4	22.7	0.00e+00	0	28	0	1978662912	44	6522
2026-01-26 22:36:20.04	344.84	11.90	-36.1	-37.1	22.9	0.00e+00	0	28	0	1981808640	44	6323
2026-01-26 22:36:21.04	344.74	11.82	-35.9	-37.0	23.0	0.00e+00	0	28	0	1984954368	44	6206
2026-01-26 22:36:22.05	344.64	11.73	-35.9	-36.9	23.0	0.00e+00	0	28	0	1988100096	44	6205
2026-01-26 22:36:23.06	344.55	11.65	-36.0	-37.0	23.0	0.00e+00	0	28	0	1991245824	44	6245
2026-01-26 22:36:24.07	344.45	11.57	-35.9	-36.9	23.1	0.00e+00	0	28	0	1994391552	44	6148
2026-01-26 22:36:25.08	344.35	11.49	-36.0	-37.0	23.0	0.00e+00	0	28	0	1997537280	44	6234
2026-01-26 22:36:26.09	344.26	11.41	-36.0	-37.0	22.9	0.00e+00	0	28	0	2000683008	44	6237
2026-01-26 22:36:27.11	344.16	11.33	-36.3	-37.3	22.9	0.00e+00	0	28	0	2003828736	44	6450
2026-01-26 22:36:28.12	344.06	11.25	-36.3	-37.3	22.7	0.00e+00	0	28	0	2006974464	44	6451
