passes_logs/2026/01/26/R4.6S_Anadyr/R4.6S_Anadyr__20260126_163920_NOAA_20_JPSS-1_rec.log

#Pass ID: 20260126_163920_NOAA 20 (JPSS-1)
#Satellite: NOAA 20 (JPSS-1)
#Configuration: NOAA 20
#almurnet v.1.7.20251203
#Start time: 2026-01-26 16:39:21

#Version: 2.2.20231116
#Station: R4.6S_Anadyr
#Location: 177.4865 lon 64.73178 lat
#TLE: 1 43013U 17073A   26025.90277267  .00000170  00000+0  10165-3 0  9997
#TLE: 2 43013  98.7646 326.7276 0001032  23.5492 336.5731 14.19540457424285

#Time	Az	El	Level	Level2	SNR	BER	BlckErr	Temp	State	Recorded	gain1	gain2
2026-01-26 16:39:21.88	27.11	0.11	-49.6	-64.6	3.4	1.51e+00	0	26	0	0	60	61212
2026-01-26 16:39:22.89	27.07	0.16	-50.1	-65.2	3.6	1.51e+00	0	27	104	0	60	65930
2026-01-26 16:39:23.90	27.02	0.22	-50.1	-65.3	3.6	1.51e+00	0	28	104	0	60	66423
2026-01-26 16:39:24.91	26.98	0.28	-49.9	-65.1	3.6	1.51e+00	0	28	104	0	60	65392
2026-01-26 16:39:25.92	26.93	0.33	-49.6	-64.8	3.6	1.51e+00	0	28	104	0	60	62835
2026-01-26 16:39:26.93	26.89	0.39	-49.6	-64.9	3.6	1.51e+00	0	28	104	0	60	63298
2026-01-26 16:39:27.94	26.84	0.45	-49.5	-64.7	3.6	1.51e+00	0	28	104	0	60	62129
2026-01-26 16:39:28.95	26.80	0.51	-49.5	-64.7	3.6	1.51e+00	0	27	104	0	60	62318
2026-01-26 16:39:29.96	26.75	0.56	-49.5	-64.7	3.6	1.51e+00	0	28	104	0	60	62333
2026-01-26 16:39:30.97	26.70	0.62	-49.5	-64.7	3.6	1.51e+00	0	28	104	0	60	62045
2026-01-26 16:39:31.98	26.66	0.68	-49.5	-64.7	3.6	1.51e+00	0	28	104	0	60	61926
2026-01-26 16:39:32.99	26.61	0.74	-49.4	-64.6	3.6	1.51e+00	0	28	104	0	60	61438
2026-01-26 16:39:33.99	26.56	0.79	-49.4	-64.6	3.6	1.51e+00	0	28	104	0	60	61151
2026-01-26 16:39:35.00	26.52	0.85	-49.4	-64.6	3.6	1.51e+00	0	28	104	0	60	61105
2026-01-26 16:39:36.01	26.47	0.91	-49.3	-64.5	3.6	1.51e+00	0	28	104	0	60	60824
2026-01-26 16:39:37.02	26.42	0.97	-49.3	-64.5	3.6	1.51e+00	0	28	104	0	60	60440
2026-01-26 16:39:38.03	26.38	1.02	-49.2	-64.4	3.6	1.51e+00	0	28	104	0	60	59919
2026-01-26 16:39:39.04	26.33	1.08	-49.1	-64.4	3.6	1.51e+00	0	28	104	0	60	59686
2026-01-26 16:39:40.05	26.28	1.14	-49.0	-64.3	3.6	1.51e+00	0	28	104	0	60	59114
2026-01-26 16:39:41.06	26.23	1.20	-49.0	-64.2	3.5	1.51e+00	0	28	104	0	60	58428
2026-01-26 16:39:42.07	26.18	1.26	-48.9	-64.1	3.6	1.51e+00	0	28	104	0	60	57850
2026-01-26 16:39:43.08	26.14	1.32	-48.8	-64.0	3.6	1.51e+00	0	28	104	0	60	57214
2026-01-26 16:39:44.09	26.09	1.38	-48.6	-63.8	3.6	1.51e+00	0	28	104	0	60	56102
2026-01-26 16:39:45.11	26.04	1.43	-48.5	-63.6	3.6	1.51e+00	0	28	104	0	60	54777
2026-01-26 16:39:46.12	25.99	1.49	-48.1	-63.3	3.6	1.51e+00	0	28	104	0	60	52732
2026-01-26 16:39:47.13	25.94	1.55	-48.1	-63.3	3.6	1.51e+00	0	28	104	0	60	52699
2026-01-26 16:39:48.14	25.89	1.61	-48.0	-63.2	3.6	1.51e+00	0	28	104	0	60	52446
2026-01-26 16:39:49.15	25.84	1.67	-48.0	-63.2	3.6	1.51e+00	0	28	104	0	60	52224
2026-01-26 16:39:50.16	25.79	1.73	-48.0	-63.2	3.6	1.51e+00	0	28	104	0	60	52372
2026-01-26 16:39:51.17	25.74	1.79	-48.0	-63.2	3.6	1.51e+00	0	28	104	0	60	52366
2026-01-26 16:39:52.17	25.69	1.85	-48.0	-63.2	3.6	1.51e+00	0	28	104	0	60	52162
2026-01-26 16:39:53.19	25.64	1.91	-48.0	-63.2	3.6	1.51e+00	0	28	104	0	60	52342
2026-01-26 16:39:54.19	25.59	1.97	-48.1	-63.2	3.6	1.51e+00	0	28	104	0	60	52472
2026-01-26 16:39:55.20	25.54	2.03	-48.0	-63.2	3.6	1.51e+00	0	28	104	0	60	52441
2026-01-26 16:39:56.22	25.48	2.09	-48.0	-63.2	3.6	1.51e+00	0	28	104	0	60	52107
2026-01-26 16:39:57.23	25.43	2.15	-48.0	-63.1	3.6	1.51e+00	0	28	104	0	60	51768
2026-01-26 16:39:58.24	25.38	2.21	-48.0	-63.1	3.6	1.51e+00	0	28	104	0	60	51837
2026-01-26 16:39:59.25	25.33	2.27	-48.0	-63.2	3.6	1.51e+00	0	28	104	0	60	52148
2026-01-26 16:40:00.25	25.28	2.33	-48.0	-63.2	3.6	1.51e+00	0	28	104	0	60	51995
2026-01-26 16:40:01.27	25.22	2.39	-48.0	-63.2	3.6	1.51e+00	0	28	104	0	60	52439
2026-01-26 16:40:02.28	25.17	2.45	-48.0	-63.2	3.6	1.51e+00	0	28	104	0	60	52094
2026-01-26 16:40:03.29	25.12	2.51	-48.1	-63.2	3.6	1.51e+00	0	28	104	0	60	52435
2026-01-26 16:40:04.29	25.07	2.57	-48.0	-63.2	3.6	1.51e+00	0	28	104	0	60	52098
2026-01-26 16:40:05.30	25.01	2.63	-48.0	-63.2	3.6	1.51e+00	0	28	104	0	60	52155
2026-01-26 16:40:06.31	24.96	2.69	-48.0	-63.2	3.6	1.51e+00	0	28	104	0	60	51956
2026-01-26 16:40:07.32	24.90	2.75	-48.0	-63.0	3.6	1.51e+00	0	28	104	0	60	51030
2026-01-26 16:40:08.33	24.85	2.82	-48.0	-62.8	3.6	1.51e+00	0	28	104	0	60	49955
2026-01-26 16:40:09.34	24.80	2.88	-48.0	-62.2	3.6	1.51e+00	0	28	104	0	60	46723
2026-01-26 16:40:10.35	24.74	2.94	-48.0	-62.2	3.6	1.51e+00	0	28	104	0	60	46617
2026-01-26 16:40:11.36	24.69	3.00	-48.0	-62.6	3.6	1.51e+00	0	28	104	0	60	48736
2026-01-26 16:40:12.37	24.63	3.06	-48.0	-63.1	3.6	1.51e+00	0	28	104	0	60	51748
2026-01-26 16:40:13.38	24.58	3.12	-48.0	-62.8	3.6	1.51e+00	0	28	104	0	60	49644
2026-01-26 16:40:14.39	24.52	3.18	-47.9	-60.8	3.7	1.51e+00	0	28	104	0	60	39757
2026-01-26 16:40:15.40	24.46	3.25	-47.5	-56.1	6.0	1.27e+00	19	28	104	0	60	23054
2026-01-26 16:40:16.41	24.41	3.31	-46.9	-52.9	8.7	1.02e-01	64	28	0	1048576	60	15871
2026-01-26 16:40:17.42	24.35	3.37	-46.3	-50.9	11.0	9.57e-03	63	28	0	3145728	60	12732
2026-01-26 16:40:18.43	24.30	3.43	-45.6	-49.3	12.9	1.79e-04	65	28	0	4194304	60	10564
2026-01-26 16:40:19.44	24.24	3.50	-44.9	-48.0	14.2	2.97e-05	0	28	0	6291456	60	9105
2026-01-26 16:40:20.45	24.18	3.56	-44.8	-47.9	14.3	7.00e-07	92	28	0	8388608	60	8960
2026-01-26 16:40:21.45	24.12	3.62	-48.0	-60.8	4.0	1.00e+00	0	28	104	9437184	60	39513
2026-01-26 16:40:22.46	24.07	3.68	-43.5	-45.7	17.3	1.11e-03	92	28	0	9437184	60	6948
2026-01-26 16:40:23.47	24.01	3.75	-47.9	-63.0	3.6	1.51e+00	0	28	104	10485760	60	51140
2026-01-26 16:40:24.48	23.95	3.81	-47.6	-55.8	7.1	1.44e+00	63	28	104	10485760	60	22252
2026-01-26 16:40:25.49	23.89	3.87	-46.5	-51.5	9.9	2.31e-04	0	28	0	11534336	60	13589
2026-01-26 16:40:26.50	23.83	3.93	-44.9	-48.0	14.4	0.00e+00	0	28	0	12582912	60	9085
2026-01-26 16:40:27.51	23.77	4.00	-43.7	-46.0	16.3	0.00e+00	92	28	0	14680064	60	7210
2026-01-26 16:40:28.52	23.72	4.06	-44.1	-46.7	15.7	0.00e+00	2	28	0	16777216	60	7797
2026-01-26 16:40:29.53	23.66	4.13	-43.7	-46.0	16.7	0.00e+00	90	28	0	18874368	60	7253
2026-01-26 16:40:30.54	23.60	4.19	-43.1	-45.0	17.3	0.00e+00	17	28	0	19922944	60	6458
2026-01-26 16:40:31.55	23.54	4.25	-43.3	-45.4	17.1	0.00e+00	0	28	0	22020096	60	6738
2026-01-26 16:40:32.56	23.48	4.32	-43.0	-45.0	16.8	0.00e+00	0	28	0	24117248	60	6419
2026-01-26 16:40:33.57	23.41	4.38	-43.5	-45.6	16.9	0.00e+00	0	28	0	26214400	60	6911
2026-01-26 16:40:34.57	23.35	4.44	-43.3	-45.4	17.6	0.00e+00	64	28	0	28311552	60	6749
2026-01-26 16:40:35.58	23.29	4.51	-42.8	-44.7	17.7	0.00e+00	0	28	0	30408704	58	6999
2026-01-26 16:40:36.59	23.23	4.57	-42.3	-44.0	18.3	0.00e+00	92	28	0	31457280	58	6464
2026-01-26 16:40:37.60	23.17	4.64	-42.1	-43.8	18.7	0.00e+00	0	28	0	33554432	58	6291
2026-01-26 16:40:38.61	23.11	4.70	-41.8	-43.3	19.2	0.00e+00	3	29	0	35651584	56	6677
2026-01-26 16:40:39.62	23.04	4.77	-41.8	-43.3	19.1	0.00e+00	0	28	0	37748736	56	6648
2026-01-26 16:40:40.63	22.98	4.83	-41.1	-42.5	20.0	0.00e+00	63	28	0	39845888	56	6044
2026-01-26 16:40:41.63	22.92	4.90	-41.4	-42.8	19.7	0.00e+00	0	29	0	40894464	56	6277
2026-01-26 16:40:42.64	22.86	4.96	-41.4	-42.9	19.7	0.00e+00	0	28	0	42991616	56	6329
2026-01-26 16:40:43.65	22.79	5.03	-41.4	-42.8	19.6	0.00e+00	92	28	0	45088768	56	6283
2026-01-26 16:40:44.66	22.73	5.09	-41.5	-43.0	19.6	0.00e+00	19	28	0	47185920	56	6394
2026-01-26 16:40:45.67	22.66	5.16	-41.1	-42.5	20.0	0.00e+00	90	28	0	49283072	56	6055
2026-01-26 16:40:46.68	22.60	5.22	-41.7	-43.2	19.4	0.00e+00	62	28	0	50331648	56	6566
2026-01-26 16:40:47.69	22.54	5.29	-41.4	-42.8	19.8	0.00e+00	17	29	0	52428800	56	6264
2026-01-26 16:40:48.70	22.47	5.35	-41.4	-42.8	19.6	0.00e+00	0	28	0	54525952	56	6317
2026-01-26 16:40:49.71	22.40	5.42	-41.3	-42.6	19.9	0.00e+00	6	28	0	56623104	56	6169
2026-01-26 16:40:50.72	22.34	5.49	-41.6	-43.0	19.7	0.00e+00	90	28	0	58720256	56	6446
2026-01-26 16:40:51.72	22.27	5.55	-41.6	-43.0	19.4	0.00e+00	5	29	0	59768832	56	6456
2026-01-26 16:40:52.73	22.21	5.62	-41.7	-43.1	19.5	0.00e+00	90	28	0	61865984	56	6526
2026-01-26 16:40:53.74	22.14	5.69	-41.4	-42.8	19.8	0.00e+00	5	28	0	63963136	56	6259
2026-01-26 16:40:54.75	22.07	5.75	-41.2	-42.6	20.0	0.00e+00	6	28	0	66060288	56	6147
2026-01-26 16:40:55.76	22.01	5.82	-41.5	-42.9	19.8	0.00e+00	5	28	0	68157440	56	6332
2026-01-26 16:40:56.77	21.94	5.89	-41.6	-43.0	19.7	0.00e+00	7	28	0	69206016	56	6452
2026-01-26 16:40:57.78	21.87	5.95	-41.4	-42.8	19.8	0.00e+00	92	29	0	71303168	56	6301
2026-01-26 16:40:58.79	21.80	6.02	-41.4	-42.7	20.0	0.00e+00	5	29	0	73400320	56	6237
2026-01-26 16:40:59.80	21.73	6.09	-41.5	-42.9	19.8	0.00e+00	92	29	0	75497472	56	6361
2026-01-26 16:41:00.81	21.66	6.15	-41.4	-42.8	19.8	0.00e+00	58	28	0	77594624	56	6301
2026-01-26 16:41:01.82	21.59	6.22	-41.6	-43.0	19.7	0.00e+00	59	28	0	78643200	56	6423
2026-01-26 16:41:02.83	21.53	6.29	-41.2	-42.5	20.2	0.00e+00	0	29	0	80740352	56	6096
2026-01-26 16:41:03.83	21.46	6.36	-41.3	-42.7	20.0	0.00e+00	59	29	0	82837504	56	6213
2026-01-26 16:41:04.84	21.39	6.43	-41.4	-42.8	20.0	0.00e+00	0	28	0	84934656	56	6271
2026-01-26 16:41:05.85	21.31	6.49	-41.6	-43.0	19.8	0.00e+00	0	28	0	87031808	56	6436
2026-01-26 16:41:06.86	21.24	6.56	-41.7	-43.1	19.6	0.00e+00	92	28	0	88080384	56	6498
2026-01-26 16:41:07.87	21.17	6.63	-41.5	-42.9	20.0	0.00e+00	27	28	0	90177536	56	6344
2026-01-26 16:41:08.88	21.10	6.70	-41.4	-42.8	20.0	0.00e+00	92	29	0	92274688	56	6267
2026-01-26 16:41:09.89	21.03	6.77	-41.4	-42.8	20.0	0.00e+00	23	29	0	94371840	56	6268
2026-01-26 16:41:10.90	20.96	6.84	-41.5	-42.9	19.9	0.00e+00	23	28	0	96468992	56	6337
2026-01-26 16:41:11.91	20.88	6.91	-41.6	-43.0	19.8	0.00e+00	24	29	0	98566144	56	6414
2026-01-26 16:41:12.92	20.81	6.97	-41.7	-43.1	19.7	0.00e+00	6	28	0	99614720	56	6525
2026-01-26 16:41:13.93	20.74	7.04	-41.5	-42.9	19.8	0.00e+00	92	28	0	101711872	56	6369
2026-01-26 16:41:14.94	20.66	7.11	-41.4	-42.8	19.9	0.00e+00	22	28	0	103809024	56	6247
2026-01-26 16:41:15.95	20.59	7.18	-41.6	-43.1	19.8	0.00e+00	92	28	0	105906176	56	6478
2026-01-26 16:41:16.96	20.51	7.25	-41.5	-42.9	19.9	0.00e+00	0	28	0	108003328	56	6343
2026-01-26 16:41:17.97	20.44	7.32	-41.5	-42.8	20.0	0.00e+00	6	28	0	109051904	56	6311
2026-01-26 16:41:18.97	20.36	7.39	-41.3	-42.7	20.1	0.00e+00	0	28	0	111149056	56	6200
2026-01-26 16:41:19.98	20.29	7.46	-41.8	-43.2	19.7	0.00e+00	0	28	0	113246208	56	6579
2026-01-26 16:41:20.99	20.21	7.53	-41.3	-42.6	20.1	0.00e+00	0	28	0	115343360	56	6163
2026-01-26 16:41:22.00	20.13	7.60	-41.4	-42.7	20.2	0.00e+00	0	28	0	117440512	56	6226
2026-01-26 16:41:23.00	20.06	7.67	-41.1	-42.4	20.4	0.00e+00	92	28	0	118489088	56	5984
2026-01-26 16:41:24.01	19.98	7.74	-41.2	-42.5	20.3	0.00e+00	65	29	0	120586240	56	6060
2026-01-26 16:41:25.02	19.90	7.81	-41.0	-42.3	20.5	0.00e+00	16	29	0	122683392	56	5951
2026-01-26 16:41:26.03	19.82	7.88	-41.0	-42.3	20.5	0.00e+00	0	29	0	124780544	56	5934
2026-01-26 16:41:27.04	19.75	7.96	-41.0	-42.3	20.5	0.00e+00	59	29	0	126877696	56	5921
2026-01-26 16:41:28.05	19.67	8.03	-41.0	-42.3	20.5	0.00e+00	0	28	0	127926272	56	5908
2026-01-26 16:41:29.06	19.59	8.10	-40.9	-42.1	20.6	0.00e+00	22	28	0	130023424	56	5800
2026-01-26 16:41:30.07	19.51	8.17	-40.9	-42.1	20.7	0.00e+00	92	29	0	132120576	56	5826
2026-01-26 16:41:31.08	19.43	8.24	-40.7	-41.9	20.7	0.00e+00	20	28	0	134217728	54	6390
2026-01-26 16:41:32.09	19.35	8.31	-40.6	-41.8	20.8	0.00e+00	92	29	0	136314880	54	6314
2026-01-26 16:41:33.10	19.27	8.38	-40.6	-41.9	20.9	0.00e+00	0	29	0	137363456	54	6321
2026-01-26 16:41:34.10	19.19	8.46	-40.8	-42.0	20.7	0.00e+00	0	28	0	139460608	54	6455
2026-01-26 16:41:35.11	19.10	8.53	-40.6	-41.8	20.9	0.00e+00	2	28	0	141557760	54	6310
2026-01-26 16:41:36.12	19.02	8.60	-40.6	-41.8	20.9	0.00e+00	2	28	0	143654912	54	6302
2026-01-26 16:41:37.13	18.94	8.67	-40.8	-42.1	20.7	0.00e+00	90	28	0	145752064	54	6475
2026-01-26 16:41:38.14	18.86	8.75	-40.4	-41.6	21.2	0.00e+00	0	29	0	146800640	54	6146
2026-01-26 16:41:39.15	18.77	8.82	-40.5	-41.7	21.1	0.00e+00	90	29	0	148897792	54	6209
2026-01-26 16:41:40.16	18.69	8.89	-40.5	-41.7	21.1	0.00e+00	2	29	0	150994944	54	6232
2026-01-26 16:41:41.17	18.60	8.97	-40.5	-41.6	21.2	0.00e+00	0	29	0	153092096	54	6164
2026-01-26 16:41:42.18	18.52	9.04	-40.4	-41.6	21.2	0.00e+00	0	29	0	155189248	54	6142
2026-01-26 16:41:43.19	18.43	9.11	-40.5	-41.7	21.1	0.00e+00	0	29	0	156237824	54	6236
2026-01-26 16:41:44.20	18.35	9.19	-40.5	-41.7	21.1	0.00e+00	92	28	0	158334976	54	6223
2026-01-26 16:41:45.21	18.26	9.26	-40.4	-41.6	21.4	0.00e+00	64	29	0	160432128	54	6121
2026-01-26 16:41:46.21	18.17	9.33	-40.4	-41.6	21.2	0.00e+00	91	29	0	162529280	54	6138
2026-01-26 16:41:47.22	18.09	9.41	-40.3	-41.5	21.3	0.00e+00	3	29	0	164626432	54	6080
2026-01-26 16:41:48.23	18.00	9.48	-40.3	-41.5	21.4	0.00e+00	65	29	0	165675008	54	6037
2026-01-26 16:41:49.24	17.91	9.56	-40.4	-41.5	21.3	0.00e+00	63	29	0	167772160	54	6095
2026-01-26 16:41:50.25	17.82	9.63	-40.2	-41.4	21.5	0.00e+00	64	29	0	169869312	54	5970
2026-01-26 16:41:51.26	17.73	9.70	-40.2	-41.4	21.5	0.00e+00	0	29	0	171966464	54	5969
2026-01-26 16:41:52.27	17.64	9.78	-40.2	-41.3	21.5	0.00e+00	63	29	0	174063616	54	5944
2026-01-26 16:41:53.28	17.55	9.85	-40.2	-41.4	21.4	0.00e+00	92	29	0	175112192	54	5988
2026-01-26 16:41:54.29	17.46	9.93	-40.3	-41.5	21.4	0.00e+00	63	29	0	177209344	54	6046
2026-01-26 16:41:55.30	17.37	10.01	-40.2	-41.3	21.6	0.00e+00	11	29	0	179306496	54	5939
2026-01-26 16:41:56.31	17.28	10.08	-40.2	-41.4	21.5	0.00e+00	0	29	0	181403648	54	6001
2026-01-26 16:41:57.32	17.19	10.16	-40.2	-41.4	21.5	0.00e+00	24	29	0	183500800	54	5977
2026-01-26 16:41:58.33	17.10	10.23	-40.1	-41.2	21.7	0.00e+00	20	29	0	184549376	54	5863
2026-01-26 16:41:59.33	17.00	10.31	-40.2	-41.3	21.6	0.00e+00	2	29	0	186646528	54	5911
2026-01-26 16:42:00.34	16.91	10.38	-40.0	-41.2	21.7	0.00e+00	91	29	0	188743680	54	5829
2026-01-26 16:42:01.35	16.82	10.46	-40.1	-41.3	21.6	0.00e+00	0	29	0	190840832	54	5921
2026-01-26 16:42:02.36	16.72	10.54	-40.2	-41.3	21.5	0.00e+00	92	29	0	192937984	54	5950
2026-01-26 16:42:03.37	16.63	10.61	-40.3	-41.4	21.4	0.00e+00	0	29	0	195035136	54	6023
2026-01-26 16:42:04.38	16.53	10.69	-40.2	-41.3	21.5	0.00e+00	0	29	0	196083712	54	5915
2026-01-26 16:42:05.39	16.44	10.77	-40.1	-41.2	21.7	0.00e+00	0	29	0	198180864	54	5877
2026-01-26 16:42:06.40	16.34	10.84	-40.2	-41.3	21.6	0.00e+00	67	29	0	200278016	54	5909
2026-01-26 16:42:07.41	16.24	10.92	-40.1	-41.2	21.7	0.00e+00	66	29	0	202375168	54	5843
2026-01-26 16:42:08.42	16.14	11.00	-40.3	-41.4	21.5	0.00e+00	69	29	0	204472320	54	5987
2026-01-26 16:42:09.43	16.05	11.08	-40.1	-41.2	21.7	0.00e+00	90	29	0	205520896	54	5838
2026-01-26 16:42:10.44	15.95	11.15	-40.0	-41.1	21.6	0.00e+00	0	29	0	207618048	54	5801
2026-01-26 16:42:11.45	15.85	11.23	-40.0	-41.1	21.8	0.00e+00	0	29	0	209715200	54	5769
2026-01-26 16:42:12.46	15.75	11.31	-39.9	-41.0	21.8	0.00e+00	65	29	0	211812352	54	5710
2026-01-26 16:42:13.47	15.65	11.39	-39.9	-41.0	21.8	0.00e+00	66	29	0	213909504	54	5713
2026-01-26 16:42:14.48	15.55	11.47	-39.9	-40.9	21.9	0.00e+00	66	29	0	214958080	54	5681
2026-01-26 16:42:15.49	15.45	11.54	-39.9	-40.9	21.9	0.00e+00	16	29	0	217055232	54	5693
2026-01-26 16:42:16.49	15.34	11.62	-39.9	-41.0	22.0	0.00e+00	92	29	0	219152384	54	5738
2026-01-26 16:42:17.51	15.24	11.70	-39.8	-40.9	22.0	0.00e+00	2	29	0	221249536	54	5660
2026-01-26 16:42:18.51	15.14	11.78	-40.0	-41.1	21.9	0.00e+00	2	29	0	223346688	54	5766
2026-01-26 16:42:19.52	15.04	11.86	-39.9	-40.9	22.0	0.00e+00	2	29	0	224395264	54	5691
2026-01-26 16:42:20.53	14.93	11.94	-39.9	-41.0	22.0	0.00e+00	16	29	0	226492416	54	5712
2026-01-26 16:42:21.54	14.83	12.02	-39.9	-40.9	21.9	0.00e+00	16	29	0	228589568	54	5687
2026-01-26 16:42:22.55	14.72	12.10	-40.2	-41.3	21.7	0.00e+00	2	29	0	230686720	54	5937
2026-01-26 16:42:23.56	14.61	12.18	-40.2	-41.4	21.7	0.00e+00	90	29	0	232783872	54	5967
2026-01-26 16:42:24.57	14.51	12.26	-40.2	-41.3	21.5	0.00e+00	0	29	0	233832448	54	5962
2026-01-26 16:42:25.58	14.40	12.34	-40.1	-41.2	21.5	0.00e+00	92	29	0	235929600	54	5834
2026-01-26 16:42:26.59	14.29	12.42	-40.1	-41.2	21.8	0.00e+00	0	29	0	238026752	54	5878
2026-01-26 16:42:27.60	14.18	12.50	-39.9	-41.0	22.0	0.00e+00	0	29	0	240123904	54	5728
2026-01-26 16:42:28.61	14.08	12.58	-39.8	-40.9	22.0	0.00e+00	0	29	0	242221056	54	5668
2026-01-26 16:42:29.61	13.97	12.66	-39.9	-41.0	22.0	0.00e+00	59	29	0	243269632	54	5696
2026-01-26 16:42:30.62	13.86	12.74	-40.1	-41.2	21.7	0.00e+00	0	29	0	245366784	54	5866
2026-01-26 16:42:31.63	13.75	12.82	-39.8	-40.9	22.1	0.00e+00	58	29	0	247463936	54	5645
2026-01-26 16:42:32.64	13.63	12.90	-39.9	-41.0	21.9	0.00e+00	92	29	0	249561088	54	5698
2026-01-26 16:42:33.65	13.52	12.98	-39.8	-40.8	22.2	0.00e+00	59	29	0	251658240	52	6305
2026-01-26 16:42:34.66	13.41	13.06	-39.9	-41.0	22.1	0.00e+00	0	29	0	252706816	52	6423
2026-01-26 16:42:35.67	13.29	13.15	-39.8	-40.9	22.1	0.00e+00	0	29	0	254803968	52	6340
2026-01-26 16:42:36.68	13.18	13.23	-39.9	-40.9	22.1	0.00e+00	17	29	0	256901120	52	6364
2026-01-26 16:42:37.69	13.07	13.31	-40.0	-41.1	21.9	0.00e+00	56	29	0	258998272	52	6499
2026-01-26 16:42:38.70	12.95	13.39	-39.9	-41.0	22.0	0.00e+00	17	29	0	261095424	52	6437
2026-01-26 16:42:39.71	12.83	13.48	-40.0	-41.0	21.9	0.00e+00	92	29	0	263192576	52	6455
2026-01-26 16:42:40.71	12.72	13.56	-40.0	-41.1	22.1	0.00e+00	16	29	0	264241152	52	6491
2026-01-26 16:42:41.72	12.60	13.64	-40.0	-41.1	21.8	0.00e+00	90	29	0	266338304	52	6517
2026-01-26 16:42:42.73	12.48	13.72	-40.0	-41.0	21.9	0.00e+00	0	29	0	268435456	52	6461
2026-01-26 16:42:43.74	12.36	13.81	-40.0	-41.1	21.8	0.00e+00	5	29	0	270532608	52	6516
2026-01-26 16:42:44.75	12.24	13.89	-40.1	-41.1	21.6	0.00e+00	6	29	0	272629760	52	6535
2026-01-26 16:42:45.76	12.12	13.97	-40.0	-41.0	21.8	0.00e+00	0	29	0	273678336	52	6460
2026-01-26 16:42:46.77	12.00	14.06	-40.0	-41.1	22.0	0.00e+00	92	29	0	275775488	52	6471
2026-01-26 16:42:47.78	11.88	14.14	-40.1	-41.2	21.8	0.00e+00	0	29	0	277872640	52	6543
2026-01-26 16:42:48.79	11.76	14.22	-39.9	-41.0	22.0	0.00e+00	92	29	0	279969792	52	6411
2026-01-26 16:42:49.80	11.64	14.31	-40.0	-41.1	22.0	0.00e+00	5	29	0	282066944	52	6473
2026-01-26 16:42:50.81	11.51	14.39	-40.0	-41.0	22.0	0.00e+00	0	28	0	283115520	52	6462
2026-01-26 16:42:51.82	11.39	14.48	-40.1	-41.2	21.9	0.00e+00	64	29	0	285212672	52	6593
2026-01-26 16:42:52.83	11.26	14.56	-40.3	-41.4	21.7	0.00e+00	66	29	0	287309824	52	6749
2026-01-26 16:42:53.84	11.14	14.64	-40.3	-41.4	21.8	0.00e+00	0	29	0	289406976	52	6696
2026-01-26 16:42:54.84	11.01	14.73	-40.0	-41.1	21.9	0.00e+00	20	29	0	291504128	52	6493
2026-01-26 16:42:55.85	10.88	14.81	-39.9	-41.0	22.1	0.00e+00	90	29	0	292552704	52	6436
2026-01-26 16:42:56.86	10.76	14.90	-39.9	-41.0	22.1	0.00e+00	61	29	0	294649856	52	6394
2026-01-26 16:42:57.87	10.63	14.98	-40.1	-41.1	22.0	0.00e+00	2	29	0	296747008	52	6533
2026-01-26 16:42:58.88	10.50	15.07	-39.9	-40.9	22.2	0.00e+00	61	29	0	298844160	52	6364
2026-01-26 16:42:59.89	10.37	15.15	-39.8	-40.8	22.3	0.00e+00	26	29	0	300941312	52	6277
2026-01-26 16:43:00.90	10.24	15.24	-39.8	-40.9	22.2	0.00e+00	28	29	0	301989888	52	6361
2026-01-26 16:43:01.91	10.10	15.32	-39.8	-40.8	22.2	0.00e+00	6	29	0	304087040	52	6295
2026-01-26 16:43:02.92	9.97	15.41	-39.7	-40.8	22.3	0.00e+00	92	29	0	306184192	52	6260
2026-01-26 16:43:03.93	9.84	15.50	-39.8	-40.8	22.3	0.00e+00	6	29	0	308281344	52	6301
2026-01-26 16:43:04.94	9.70	15.58	-39.7	-40.7	22.3	0.00e+00	92	29	0	310378496	52	6228
2026-01-26 16:43:05.95	9.57	15.67	-39.8	-40.8	22.3	0.00e+00	0	29	0	311427072	52	6263
2026-01-26 16:43:06.96	9.43	15.76	-39.8	-40.9	22.3	0.00e+00	6	29	0	313524224	52	6346
2026-01-26 16:43:07.97	9.29	15.84	-39.7	-40.7	22.3	0.00e+00	0	29	0	315621376	52	6218
2026-01-26 16:43:08.98	9.16	15.93	-39.7	-40.7	22.4	0.00e+00	0	29	0	317718528	52	6244
2026-01-26 16:43:09.98	9.02	16.02	-39.7	-40.7	22.3	0.00e+00	88	29	0	319815680	52	6226
2026-01-26 16:43:10.99	8.88	16.10	-39.7	-40.7	22.3	0.00e+00	66	29	0	320864256	52	6201
2026-01-26 16:43:12.00	8.74	16.19	-39.8	-40.8	22.3	0.00e+00	92	29	0	322961408	52	6284
2026-01-26 16:43:13.01	8.60	16.28	-39.8	-40.8	22.3	0.00e+00	68	29	0	325058560	52	6282
2026-01-26 16:43:14.02	8.46	16.36	-39.8	-40.8	22.3	0.00e+00	0	29	0	327155712	52	6283
2026-01-26 16:43:15.03	8.32	16.45	-39.7	-40.7	22.3	0.00e+00	0	29	0	329252864	52	6243
2026-01-26 16:43:16.04	8.17	16.54	-39.7	-40.7	22.4	0.00e+00	66	29	0	330301440	52	6234
2026-01-26 16:43:17.05	8.03	16.63	-39.4	-40.4	22.6	0.00e+00	0	29	0	332398592	52	5982
2026-01-26 16:43:18.06	7.88	16.71	-39.3	-40.3	22.7	0.00e+00	13	29	0	334495744	52	5956
2026-01-26 16:43:19.06	7.74	16.80	-39.5	-40.6	22.5	0.00e+00	91	29	0	336592896	52	6104
2026-01-26 16:43:20.07	7.59	16.89	-39.3	-40.3	22.8	0.00e+00	15	29	0	338690048	52	5900
2026-01-26 16:43:21.08	7.44	16.98	-39.3	-40.3	22.8	0.00e+00	92	29	0	339738624	52	5898
2026-01-26 16:43:22.09	7.29	17.07	-39.2	-40.2	22.9	0.00e+00	68	29	0	341835776	52	5867
2026-01-26 16:43:23.10	7.14	17.16	-39.0	-40.0	23.1	0.00e+00	14	29	0	343932928	52	5726
2026-01-26 16:43:24.11	6.99	17.24	-39.1	-40.1	23.0	0.00e+00	0	29	0	346030080	52	5790
2026-01-26 16:43:25.11	6.84	17.33	-39.3	-40.3	22.8	0.00e+00	0	29	0	348127232	52	5901
2026-01-26 16:43:26.12	6.69	17.42	-39.1	-40.0	23.0	0.00e+00	92	29	0	349175808	52	5752
2026-01-26 16:43:27.13	6.54	17.51	-39.2	-40.2	22.8	0.00e+00	0	29	0	351272960	52	5835
2026-01-26 16:43:28.14	6.38	17.60	-39.1	-40.1	22.9	0.00e+00	90	29	0	353370112	52	5812
2026-01-26 16:43:29.15	6.23	17.69	-39.3	-40.2	22.8	0.00e+00	0	29	0	355467264	52	5892
2026-01-26 16:43:30.15	6.08	17.78	-39.3	-40.3	22.7	0.00e+00	2	29	0	357564416	52	5947
2026-01-26 16:43:31.16	5.92	17.87	-39.3	-40.3	22.5	0.00e+00	0	29	0	359661568	52	5935
2026-01-26 16:43:32.17	5.76	17.96	-39.3	-40.3	22.0	0.00e+00	0	29	0	360710144	52	5899
2026-01-26 16:43:33.18	5.60	18.04	-39.2	-40.1	22.9	0.00e+00	0	29	0	362807296	52	5815
2026-01-26 16:43:34.19	5.44	18.13	-39.1	-40.1	22.8	0.00e+00	0	29	0	364904448	52	5801
2026-01-26 16:43:35.20	5.28	18.22	-39.3	-40.3	22.9	0.00e+00	90	29	0	367001600	52	5915
2026-01-26 16:43:36.21	5.12	18.31	-39.3	-40.2	22.8	0.00e+00	67	29	0	369098752	52	5889
2026-01-26 16:43:37.22	4.96	18.40	-39.0	-39.9	23.2	0.00e+00	2	29	0	370147328	52	5683
2026-01-26 16:43:38.22	4.79	18.49	-39.0	-40.0	23.1	0.00e+00	66	29	0	372244480	52	5715
2026-01-26 16:43:39.23	4.63	18.58	-39.1	-40.0	23.1	0.00e+00	0	29	0	374341632	52	5737
2026-01-26 16:43:40.24	4.46	18.67	-39.0	-39.9	23.2	0.00e+00	0	29	0	376438784	52	5683
2026-01-26 16:43:41.25	4.30	18.76	-39.0	-40.0	23.2	0.00e+00	21	29	0	378535936	52	5720
2026-01-26 16:43:42.26	4.13	18.85	-39.0	-40.0	23.0	0.00e+00	92	29	0	379584512	52	5707
2026-01-26 16:43:43.27	3.96	18.94	-38.9	-39.8	23.2	0.00e+00	61	29	0	381681664	52	5615
2026-01-26 16:43:44.28	3.79	19.04	-38.9	-39.9	23.2	0.00e+00	92	29	0	383778816	52	5634
2026-01-26 16:43:45.29	3.62	19.13	-38.9	-39.8	23.1	0.00e+00	14	29	0	385875968	52	5628
2026-01-26 16:43:46.30	3.45	19.22	-38.8	-39.7	23.3	0.00e+00	2	29	0	387973120	52	5521
2026-01-26 16:43:47.31	3.28	19.31	-38.8	-39.7	23.3	0.00e+00	0	29	0	389021696	50	6243
2026-01-26 16:43:48.32	3.10	19.40	-38.7	-39.6	23.5	0.00e+00	0	29	0	391118848	50	6120
2026-01-26 16:43:49.33	2.93	19.49	-38.8	-39.8	23.3	0.00e+00	92	29	0	393216000	50	6255
2026-01-26 16:43:50.34	2.75	19.58	-38.9	-39.8	23.3	0.00e+00	20	29	0	395313152	50	6266
2026-01-26 16:43:51.35	2.57	19.67	-39.0	-39.9	23.2	0.00e+00	92	29	0	397410304	50	6355
2026-01-26 16:43:52.36	2.40	19.76	-39.1	-40.1	23.0	0.00e+00	0	29	0	398458880	50	6491
2026-01-26 16:43:53.37	2.22	19.85	-39.2	-40.1	23.0	0.00e+00	2	29	0	400556032	50	6520
2026-01-26 16:43:54.38	2.04	19.94	-39.1	-40.0	23.1	0.00e+00	3	29	0	402653184	50	6447
2026-01-26 16:43:55.38	1.86	20.03	-39.2	-40.1	22.9	0.00e+00	0	29	0	404750336	50	6529
2026-01-26 16:43:56.39	1.67	20.12	-39.2	-40.2	22.8	0.00e+00	0	29	0	406847488	50	6583
2026-01-26 16:43:57.40	1.49	20.21	-39.1	-40.1	23.0	0.00e+00	67	29	0	407896064	50	6499
2026-01-26 16:43:58.41	1.31	20.31	-39.3	-40.2	22.9	0.00e+00	92	29	0	409993216	50	6606
2026-01-26 16:43:59.42	1.12	20.40	-39.2	-40.2	22.9	0.00e+00	62	29	0	412090368	50	6574
2026-01-26 16:44:00.43	0.93	20.49	-39.4	-40.4	22.6	0.00e+00	91	29	0	414187520	50	6753
2026-01-26 16:44:01.44	0.75	20.58	-39.6	-40.6	22.4	0.00e+00	0	29	0	416284672	52	6136
2026-01-26 16:44:02.45	0.56	20.67	-39.8	-40.9	22.1	0.00e+00	2	29	0	417333248	52	6331
2026-01-26 16:44:03.46	0.37	20.76	-40.0	-41.0	22.1	0.00e+00	0	29	0	419430400	52	6424
2026-01-26 16:44:04.47	0.17	20.85	-39.7	-40.8	22.4	0.00e+00	69	29	0	421527552	52	6252
2026-01-26 16:44:05.48	359.98	20.94	-39.4	-40.3	22.8	0.00e+00	92	29	0	423624704	52	5950
2026-01-26 16:44:06.49	359.79	21.03	-39.3	-40.2	22.9	0.00e+00	18	29	0	425721856	52	5884
2026-01-26 16:44:07.50	359.59	21.13	-39.3	-40.3	22.9	0.00e+00	92	29	0	427819008	52	5900
2026-01-26 16:44:08.51	359.40	21.22	-39.3	-40.3	22.9	0.00e+00	12	29	0	428867584	52	5906
2026-01-26 16:44:09.52	359.20	21.31	-39.2	-40.2	23.0	0.00e+00	2	29	0	430964736	52	5864
2026-01-26 16:44:10.53	359.00	21.40	-39.1	-40.1	23.1	0.00e+00	0	29	0	433061888	52	5785
2026-01-26 16:44:11.54	358.80	21.49	-39.2	-40.2	23.0	0.00e+00	0	29	0	435159040	52	5831
2026-01-26 16:44:12.55	358.60	21.58	-39.0	-40.0	23.2	0.00e+00	92	29	0	437256192	52	5706
2026-01-26 16:44:13.56	358.40	21.67	-38.9	-39.9	23.2	0.00e+00	0	29	0	438304768	52	5643
2026-01-26 16:44:14.57	358.20	21.76	-38.9	-39.8	23.3	0.00e+00	92	29	0	440401920	52	5588
2026-01-26 16:44:15.58	357.99	21.85	-38.9	-39.9	23.2	0.00e+00	0	29	0	442499072	50	6319
2026-01-26 16:44:16.59	357.79	21.94	-38.7	-39.7	23.4	0.00e+00	2	29	0	444596224	50	6179
2026-01-26 16:44:17.60	357.58	22.03	-38.8	-39.8	23.3	0.00e+00	67	29	0	446693376	50	6254
2026-01-26 16:44:18.61	357.37	22.12	-38.6	-39.5	23.4	0.00e+00	0	29	0	447741952	50	6084
2026-01-26 16:44:19.62	357.16	22.21	-38.5	-39.4	23.6	0.00e+00	68	29	0	449839104	50	6004
2026-01-26 16:44:20.63	356.95	22.30	-38.5	-39.3	23.6	0.00e+00	0	29	0	451936256	50	5961
2026-01-26 16:44:21.64	356.74	22.39	-38.5	-39.4	23.7	0.00e+00	92	29	0	454033408	50	5971
2026-01-26 16:44:22.64	356.53	22.48	-38.6	-39.5	23.4	0.00e+00	19	29	0	456130560	50	6088
2026-01-26 16:44:23.65	356.31	22.57	-38.5	-39.4	23.6	0.00e+00	92	29	0	457179136	50	5999
2026-01-26 16:44:24.66	356.10	22.66	-38.6	-39.5	23.5	0.00e+00	12	29	0	459276288	50	6080
2026-01-26 16:44:25.68	355.88	22.75	-38.5	-39.4	23.5	0.00e+00	16	29	0	461373440	50	6025
2026-01-26 16:44:26.68	355.66	22.84	-38.6	-39.5	23.6	0.00e+00	2	29	0	463470592	50	6044
2026-01-26 16:44:27.69	355.44	22.93	-38.3	-39.2	23.8	0.00e+00	0	29	0	465567744	50	5838
2026-01-26 16:44:28.70	355.22	23.02	-38.3	-39.2	23.7	0.00e+00	92	29	0	466616320	50	5893
2026-01-26 16:44:29.71	355.00	23.11	-38.8	-39.7	23.6	0.00e+00	5	29	0	468713472	50	6228
2026-01-26 16:44:30.72	354.78	23.20	-38.0	-38.9	23.8	0.00e+00	92	29	0	470810624	50	5668
2026-01-26 16:44:31.73	354.55	23.29	-38.4	-39.3	23.8	0.00e+00	5	29	0	472907776	50	5938
2026-01-26 16:44:32.74	354.33	23.38	-38.2	-39.1	23.8	0.00e+00	6	29	0	475004928	50	5799
2026-01-26 16:44:33.75	354.10	23.46	-38.2	-39.1	23.9	0.00e+00	0	29	0	476053504	50	5785
2026-01-26 16:44:34.76	353.87	23.55	-38.2	-39.1	23.7	0.00e+00	0	29	0	478150656	50	5809
2026-01-26 16:44:35.77	353.64	23.64	-38.1	-39.0	24.0	0.00e+00	53	29	0	480247808	50	5736
2026-01-26 16:44:36.78	353.41	23.73	-38.2	-39.1	24.0	0.00e+00	6	29	0	482344960	50	5783
2026-01-26 16:44:37.79	353.18	23.82	-38.1	-39.0	23.8	0.00e+00	90	29	0	484442112	50	5729
2026-01-26 16:44:38.80	352.94	23.90	-37.9	-38.8	24.1	0.00e+00	0	29	0	485490688	50	5572
2026-01-26 16:44:39.80	352.71	23.99	-38.0	-38.9	24.0	0.00e+00	62	29	0	487587840	50	5641
2026-01-26 16:44:40.81	352.47	24.08	-37.7	-38.6	24.3	0.00e+00	67	29	0	489684992	48	6119
2026-01-26 16:44:41.82	352.24	24.16	-37.6	-38.5	24.4	0.00e+00	0	29	0	491782144	48	6055
2026-01-26 16:44:42.83	352.00	24.25	-37.7	-38.6	24.3	0.00e+00	67	29	0	493879296	48	6109
2026-01-26 16:44:43.84	351.76	24.34	-37.6	-38.5	24.3	0.00e+00	65	29	0	494927872	48	6046
2026-01-26 16:44:44.84	351.52	24.42	-37.7	-38.6	24.3	0.00e+00	91	29	0	497025024	48	6105
2026-01-26 16:44:45.85	351.28	24.51	-37.7	-38.5	24.5	0.00e+00	61	29	0	499122176	48	6097
2026-01-26 16:44:46.86	351.03	24.59	-37.6	-38.4	24.5	0.00e+00	92	29	0	501219328	48	6002
2026-01-26 16:44:47.87	350.79	24.68	-37.7	-38.5	24.4	0.00e+00	60	29	0	503316480	48	6069
2026-01-26 16:44:48.88	350.54	24.76	-37.7	-38.6	24.3	0.00e+00	19	29	0	504365056	48	6142
2026-01-26 16:44:49.89	350.29	24.85	-37.6	-38.5	24.5	0.00e+00	0	29	0	506462208	48	6047
2026-01-26 16:44:50.90	350.04	24.93	-37.7	-38.5	24.5	0.00e+00	19	29	0	508559360	48	6093
2026-01-26 16:44:51.91	349.79	25.01	-38.1	-38.9	24.3	0.00e+00	90	29	0	510656512	48	6365
2026-01-26 16:44:52.93	349.53	25.10	-37.8	-38.6	24.3	0.00e+00	6	29	0	512753664	48	6139
2026-01-26 16:44:53.94	349.28	25.18	-37.9	-38.7	24.3	0.00e+00	92	29	0	513802240	48	6224
2026-01-26 16:44:54.94	349.03	25.26	-38.3	-39.1	24.0	0.00e+00	0	29	0	515899392	48	6533
2026-01-26 16:44:55.95	348.77	25.34	-38.1	-39.0	24.1	0.00e+00	0	29	0	517996544	48	6419
2026-01-26 16:44:56.97	348.51	25.43	-38.3	-39.2	23.8	0.00e+00	0	29	0	520093696	48	6588
2026-01-26 16:44:57.97	348.25	25.51	-38.3	-39.2	23.7	0.00e+00	8	29	0	522190848	48	6563
2026-01-26 16:44:58.98	347.99	25.59	-38.4	-39.3	23.8	0.00e+00	92	29	0	524288000	48	6671
2026-01-26 16:44:59.99	347.73	25.67	-38.6	-39.5	23.6	0.00e+00	0	29	0	525336576	48	6789
2026-01-26 16:45:01.00	347.47	25.75	-38.4	-39.3	23.8	0.00e+00	92	29	0	527433728	48	6646
2026-01-26 16:45:02.01	347.20	25.83	-38.4	-39.3	23.8	0.00e+00	63	29	0	529530880	48	6681
2026-01-26 16:45:03.02	346.94	25.91	-38.3	-39.2	23.8	0.00e+00	31	29	0	531628032	48	6582
2026-01-26 16:45:04.03	346.67	25.99	-38.4	-39.3	23.7	0.00e+00	62	29	0	533725184	48	6627
2026-01-26 16:45:05.04	346.40	26.07	-38.6	-39.5	23.6	0.00e+00	0	29	0	534773760	48	6817
2026-01-26 16:45:06.05	346.13	26.14	-38.8	-39.7	23.4	0.00e+00	61	29	0	536870912	48	6993
2026-01-26 16:45:07.06	345.86	26.22	-38.7	-39.7	23.5	0.00e+00	15	29	0	538968064	50	6184
2026-01-26 16:45:08.07	345.59	26.30	-38.7	-39.6	23.6	0.00e+00	90	29	0	541065216	50	6125
2026-01-26 16:45:09.08	345.31	26.38	-38.7	-39.6	23.3	0.00e+00	11	29	0	543162368	50	6111
2026-01-26 16:45:10.08	345.04	26.45	-38.8	-39.7	23.4	0.00e+00	90	29	0	544210944	50	6194
2026-01-26 16:45:11.10	344.76	26.53	-38.8	-39.8	23.4	0.00e+00	2	29	0	546308096	50	6253
2026-01-26 16:45:12.11	344.48	26.60	-38.9	-39.8	23.3	0.00e+00	18	29	0	548405248	50	6294
2026-01-26 16:45:13.12	344.21	26.68	-39.1	-40.0	23.2	0.00e+00	0	29	0	550502400	50	6437
2026-01-26 16:45:14.12	343.93	26.75	-39.2	-40.2	23.0	0.00e+00	13	29	0	552599552	50	6543
2026-01-26 16:45:15.13	343.65	26.82	-39.2	-40.2	23.0	0.00e+00	91	29	0	553648128	50	6544
2026-01-26 16:45:16.14	343.36	26.90	-39.2	-40.2	22.9	0.00e+00	0	29	0	555745280	50	6596
2026-01-26 16:45:17.15	343.08	26.97	-39.2	-40.2	23.0	0.00e+00	91	29	0	557842432	50	6576
2026-01-26 16:45:18.16	342.79	27.04	-39.2	-40.1	23.0	0.00e+00	0	29	0	559939584	50	6515
2026-01-26 16:45:19.17	342.50	27.11	-39.1	-40.1	22.8	0.00e+00	0	29	0	562036736	50	6472
2026-01-26 16:45:20.18	342.22	27.18	-39.3	-40.2	22.9	0.00e+00	0	29	0	563085312	50	6610
2026-01-26 16:45:21.19	341.93	27.25	-39.5	-40.5	22.6	0.00e+00	0	29	0	565182464	50	6836
2026-01-26 16:45:22.20	341.64	27.32	-39.2	-40.2	23.0	0.00e+00	91	29	0	567279616	50	6565
2026-01-26 16:45:23.21	341.34	27.39	-39.1	-40.1	23.0	0.00e+00	0	29	0	569376768	50	6497
2026-01-26 16:45:24.22	341.05	27.46	-38.8	-39.7	23.4	0.00e+00	91	29	0	571473920	50	6211
2026-01-26 16:45:25.23	340.76	27.52	-38.9	-39.9	23.3	0.00e+00	69	29	0	572522496	50	6334
2026-01-26 16:45:26.23	340.46	27.59	-38.8	-39.7	23.3	0.00e+00	52	29	0	574619648	50	6242
2026-01-26 16:45:27.24	340.16	27.66	-38.9	-39.8	23.3	0.00e+00	62	29	0	576716800	50	6287
2026-01-26 16:45:28.25	339.87	27.72	-39.1	-40.1	23.0	0.00e+00	64	29	0	578813952	50	6486
2026-01-26 16:45:29.26	339.57	27.78	-38.9	-39.9	23.3	0.00e+00	0	29	0	580911104	50	6338
2026-01-26 16:45:30.27	339.27	27.85	-39.0	-39.9	23.2	0.00e+00	12	29	0	581959680	50	6373
2026-01-26 16:45:31.28	338.96	27.91	-38.9	-39.8	23.3	0.00e+00	92	29	0	584056832	50	6281
2026-01-26 16:45:32.29	338.66	27.97	-38.8	-39.8	23.4	0.00e+00	68	29	0	586153984	50	6267
2026-01-26 16:45:33.30	338.36	28.03	-38.8	-39.7	23.4	0.00e+00	90	29	0	588251136	50	6228
2026-01-26 16:45:34.31	338.05	28.10	-38.9	-39.9	23.3	0.00e+00	19	29	0	590348288	50	6357
2026-01-26 16:45:35.32	337.74	28.15	-39.0	-39.9	23.3	0.00e+00	17	29	0	592445440	50	6390
2026-01-26 16:45:36.32	337.44	28.21	-38.7	-39.6	23.5	0.00e+00	14	29	0	593494016	50	6152
2026-01-26 16:45:37.33	337.13	28.27	-38.8	-39.7	23.5	0.00e+00	2	29	0	595591168	50	6201
2026-01-26 16:45:38.34	336.82	28.33	-38.9	-39.8	23.3	0.00e+00	91	29	0	597688320	50	6301
2026-01-26 16:45:39.35	336.51	28.39	-39.0	-40.0	23.2	0.00e+00	0	29	0	599785472	50	6407
2026-01-26 16:45:40.36	336.20	28.44	-39.1	-40.0	23.1	0.00e+00	91	29	0	601882624	50	6456
2026-01-26 16:45:41.37	335.88	28.50	-39.1	-40.1	23.2	0.00e+00	0	29	0	602931200	50	6507
2026-01-26 16:45:42.38	335.57	28.55	-39.0	-40.0	23.2	0.00e+00	0	29	0	605028352	50	6428
2026-01-26 16:45:43.39	335.25	28.60	-38.9	-39.8	23.4	0.00e+00	0	29	0	607125504	50	6306
2026-01-26 16:45:44.40	334.93	28.66	-39.0	-40.0	23.3	0.00e+00	0	29	0	609222656	50	6400
2026-01-26 16:45:45.41	334.62	28.71	-39.0	-40.0	23.1	0.00e+00	34	29	0	611319808	50	6421
2026-01-26 16:45:46.42	334.30	28.76	-39.2	-40.1	23.0	0.00e+00	0	29	0	612368384	50	6511
2026-01-26 16:45:47.43	333.98	28.81	-39.5	-40.5	22.8	0.00e+00	92	29	0	614465536	50	6804
2026-01-26 16:45:48.44	333.66	28.86	-39.4	-40.4	22.9	0.00e+00	69	29	0	616562688	50	6731
2026-01-26 16:45:49.44	333.34	28.90	-39.6	-40.6	22.6	0.00e+00	12	29	0	618659840	50	6862
2026-01-26 16:45:50.45	333.02	28.95	-39.6	-40.6	22.7	0.00e+00	63	29	0	620756992	50	6867
2026-01-26 16:45:51.46	332.69	29.00	-39.8	-40.9	22.5	0.00e+00	18	29	0	621805568	52	6332
2026-01-26 16:45:52.48	332.36	29.04	-39.8	-40.8	22.6	0.00e+00	0	29	0	623902720	52	6265
2026-01-26 16:45:53.48	332.04	29.08	-39.6	-40.6	22.7	0.00e+00	68	29	0	625999872	52	6150
2026-01-26 16:45:54.49	331.72	29.13	-39.6	-40.5	22.7	0.00e+00	92	29	0	628097024	52	6098
2026-01-26 16:45:55.50	331.39	29.17	-39.5	-40.5	22.7	0.00e+00	0	29	0	630194176	52	6072
2026-01-26 16:45:56.51	331.06	29.21	-39.7	-40.7	22.7	0.00e+00	90	29	0	631242752	52	6187
2026-01-26 16:45:57.52	330.73	29.25	-39.7	-40.7	22.6	0.00e+00	13	29	0	633339904	52	6196
2026-01-26 16:45:58.53	330.40	29.29	-39.8	-40.9	22.6	0.00e+00	0	29	0	635437056	52	6342
2026-01-26 16:45:59.53	330.07	29.33	-39.6	-40.6	22.8	0.00e+00	18	29	0	637534208	52	6110
2026-01-26 16:46:00.54	329.74	29.36	-39.7	-40.6	22.7	0.00e+00	10	29	0	639631360	52	6168
2026-01-26 16:46:01.55	329.41	29.40	-39.7	-40.7	22.5	0.00e+00	92	29	0	640679936	52	6214
2026-01-26 16:46:02.56	329.08	29.44	-39.7	-40.7	22.8	0.00e+00	0	29	0	642777088	52	6181
2026-01-26 16:46:03.57	328.74	29.47	-40.0	-41.0	22.5	0.00e+00	91	29	0	644874240	52	6435
2026-01-26 16:46:04.58	328.41	29.50	-40.0	-41.1	22.4	0.00e+00	0	29	0	646971392	52	6481
2026-01-26 16:46:05.59	328.07	29.53	-39.9	-40.9	22.6	0.00e+00	0	29	0	649068544	52	6364
2026-01-26 16:46:06.60	327.74	29.56	-39.5	-40.4	22.9	0.00e+00	62	29	0	650117120	52	6027
2026-01-26 16:46:07.61	327.40	29.59	-39.4	-40.3	23.0	0.00e+00	0	29	0	652214272	52	5946
2026-01-26 16:46:08.62	327.07	29.62	-39.3	-40.2	23.1	0.00e+00	68	29	0	654311424	52	5862
2026-01-26 16:46:09.63	326.73	29.65	-39.5	-40.4	22.9	0.00e+00	0	29	0	656408576	52	6002
2026-01-26 16:46:10.64	326.39	29.68	-39.7	-40.7	22.8	0.00e+00	92	29	0	658505728	52	6193
2026-01-26 16:46:11.65	326.05	29.70	-40.1	-41.1	22.6	0.00e+00	0	29	0	660602880	52	6513
2026-01-26 16:46:12.66	325.71	29.73	-39.9	-40.9	22.3	0.00e+00	43	29	0	661651456	52	6342
2026-01-26 16:46:13.67	325.37	29.75	-39.7	-40.6	22.7	0.00e+00	69	29	0	663748608	52	6171
2026-01-26 16:46:14.68	325.03	29.77	-39.6	-40.6	22.8	0.00e+00	66	29	0	665845760	52	6116
2026-01-26 16:46:15.69	324.69	29.79	-39.8	-40.8	22.5	0.00e+00	63	29	0	667942912	52	6293
2026-01-26 16:46:16.70	324.35	29.81	-40.0	-41.1	22.3	0.00e+00	13	29	0	670040064	52	6483
2026-01-26 16:46:17.71	324.01	29.83	-40.5	-41.6	21.9	0.00e+00	91	29	0	671088640	52	6885
2026-01-26 16:46:18.72	323.67	29.85	-40.7	-41.8	21.8	0.00e+00	0	29	0	673185792	52	7012
2026-01-26 16:46:19.73	323.33	29.86	-40.6	-41.7	21.9	0.00e+00	5	29	0	675282944	52	6969
2026-01-26 16:46:20.74	322.98	29.88	-40.5	-41.6	21.9	0.00e+00	6	29	0	677380096	52	6884
2026-01-26 16:46:21.75	322.64	29.89	-40.2	-41.2	22.3	0.00e+00	0	29	0	679477248	52	6596
2026-01-26 16:46:22.76	322.30	29.91	-40.4	-41.5	22.0	0.00e+00	6	29	0	680525824	52	6777
2026-01-26 16:46:23.76	321.96	29.92	-40.6	-41.7	21.9	0.00e+00	5	29	0	682622976	52	6966
2026-01-26 16:46:24.77	321.61	29.93	-40.8	-41.9	21.5	0.00e+00	91	29	0	684720128	54	6373
2026-01-26 16:46:25.78	321.27	29.94	-40.7	-41.8	21.7	0.00e+00	0	29	0	686817280	54	6317
2026-01-26 16:46:26.79	320.93	29.95	-40.7	-41.8	21.8	0.00e+00	90	29	0	688914432	54	6289
2026-01-26 16:46:27.80	320.58	29.95	-40.6	-41.6	21.7	0.00e+00	67	29	0	689963008	54	6172
2026-01-26 16:46:28.80	320.24	29.96	-40.7	-41.8	21.8	0.00e+00	68	29	0	692060160	54	6268
2026-01-26 16:46:29.81	319.90	29.96	-40.8	-41.9	21.6	0.00e+00	67	29	0	694157312	54	6361
2026-01-26 16:46:30.82	319.55	29.97	-40.9	-42.1	21.4	0.00e+00	0	29	0	696254464	54	6502
2026-01-26 16:46:31.83	319.21	29.97	-40.6	-41.7	21.7	0.00e+00	66	29	0	698351616	54	6215
2026-01-26 16:46:32.84	318.86	29.97	-41.1	-42.3	21.5	0.00e+00	68	29	0	699400192	54	6624
2026-01-26 16:46:33.84	318.52	29.97	-41.0	-42.1	21.3	0.00e+00	91	29	0	701497344	54	6532
2026-01-26 16:46:34.85	318.18	29.97	-41.1	-42.2	21.4	0.00e+00	17	29	0	703594496	54	6575
2026-01-26 16:46:35.86	317.83	29.97	-41.4	-42.6	21.4	0.00e+00	24	29	0	705691648	54	6919
2026-01-26 16:46:36.87	317.49	29.97	-40.9	-42.0	21.3	0.00e+00	67	29	0	707788800	54	6405
2026-01-26 16:46:37.88	317.14	29.96	-41.1	-42.3	21.6	0.00e+00	67	29	0	708837376	54	6624
2026-01-26 16:46:38.89	316.80	29.96	-40.7	-41.8	21.7	0.00e+00	40	29	0	710934528	54	6279
2026-01-26 16:46:39.90	316.45	29.95	-40.8	-41.8	21.5	0.00e+00	7	29	0	713031680	54	6312
2026-01-26 16:46:40.91	316.11	29.94	-41.1	-42.2	21.8	0.00e+00	92	29	0	715128832	54	6610
2026-01-26 16:46:41.92	315.76	29.93	-40.6	-41.7	21.8	0.00e+00	0	29	0	717225984	54	6221
2026-01-26 16:46:42.93	315.42	29.92	-40.7	-41.8	21.8	0.00e+00	41	29	0	718274560	54	6272
2026-01-26 16:46:43.94	315.08	29.91	-40.6	-41.7	21.9	0.00e+00	22	29	0	720371712	54	6199
2026-01-26 16:46:44.95	314.73	29.90	-40.3	-41.3	22.2	0.00e+00	6	29	0	722468864	54	5949
2026-01-26 16:46:45.96	314.39	29.88	-40.2	-41.3	22.3	0.00e+00	5	29	0	724566016	54	5924
2026-01-26 16:46:46.96	314.05	29.87	-40.0	-41.0	22.5	0.00e+00	6	29	0	726663168	54	5724
2026-01-26 16:46:47.97	313.71	29.85	-40.0	-41.0	22.4	0.00e+00	91	29	0	727711744	54	5712
2026-01-26 16:46:48.98	313.37	29.84	-40.0	-41.0	22.4	0.00e+00	6	29	0	729808896	54	5741
2026-01-26 16:46:49.99	313.02	29.82	-40.0	-41.1	22.3	0.00e+00	91	29	0	731906048	54	5771
2026-01-26 16:46:51.00	312.68	29.80	-40.1	-41.2	22.4	0.00e+00	0	29	0	734003200	54	5856
2026-01-26 16:46:52.01	312.34	29.78	-40.0	-41.0	22.3	0.00e+00	0	29	0	736100352	54	5715
2026-01-26 16:46:53.02	312.00	29.76	-40.0	-41.0	22.5	0.00e+00	0	29	0	737148928	54	5727
2026-01-26 16:46:54.02	311.67	29.73	-39.8	-40.8	22.5	0.00e+00	0	29	0	739246080	52	6314
2026-01-26 16:46:55.03	311.33	29.71	-39.5	-40.5	23.0	0.00e+00	0	29	0	741343232	52	6039
2026-01-26 16:46:56.04	310.99	29.68	-39.6	-40.6	22.9	0.00e+00	61	29	0	743440384	52	6137
2026-01-26 16:46:57.05	310.65	29.66	-39.8	-40.8	22.7	0.00e+00	92	29	0	745537536	52	6275
2026-01-26 16:46:58.06	310.31	29.63	-39.6	-40.5	23.0	0.00e+00	19	29	0	746586112	52	6087
2026-01-26 16:46:59.07	309.97	29.60	-39.6	-40.5	23.1	0.00e+00	92	29	0	748683264	52	6079
2026-01-26 16:47:00.08	309.64	29.57	-39.6	-40.5	22.9	0.00e+00	20	29	0	750780416	52	6084
2026-01-26 16:47:01.08	309.30	29.54	-39.4	-40.4	23.0	0.00e+00	62	29	0	752877568	52	5968
2026-01-26 16:47:02.09	308.97	29.51	-39.4	-40.4	22.9	0.00e+00	19	29	0	754974720	52	5979
2026-01-26 16:47:03.10	308.63	29.48	-39.3	-40.2	23.3	0.00e+00	18	29	0	757071872	52	5858
2026-01-26 16:47:04.11	308.30	29.45	-39.3	-40.2	23.3	0.00e+00	92	29	0	758120448	52	5854
2026-01-26 16:47:05.12	307.97	29.41	-39.1	-40.1	23.4	0.00e+00	12	29	0	760217600	52	5772
2026-01-26 16:47:06.13	307.63	29.38	-39.2	-40.1	23.1	0.00e+00	92	29	0	762314752	52	5826
2026-01-26 16:47:07.14	307.30	29.34	-39.4	-40.4	22.9	0.00e+00	12	29	0	764411904	52	5985
2026-01-26 16:47:08.15	306.97	29.30	-39.4	-40.3	23.0	0.00e+00	2	29	0	766509056	52	5929
2026-01-26 16:47:09.16	306.64	29.26	-39.6	-40.5	22.6	0.00e+00	0	29	0	767557632	52	6101
2026-01-26 16:47:10.17	306.31	29.22	-39.6	-40.6	22.7	0.00e+00	0	29	0	769654784	52	6125
2026-01-26 16:47:11.18	305.98	29.18	-39.4	-40.4	23.0	0.00e+00	74	29	0	771751936	52	5978
2026-01-26 16:47:12.19	305.65	29.14	-39.4	-40.3	23.1	0.00e+00	0	29	0	773849088	52	5947
2026-01-26 16:47:13.20	305.33	29.10	-39.2	-40.2	23.1	0.00e+00	90	29	0	775946240	52	5834
2026-01-26 16:47:14.21	305.00	29.05	-39.1	-40.0	23.4	0.00e+00	66	29	0	776994816	52	5743
2026-01-26 16:47:15.22	304.67	29.01	-39.1	-40.0	23.2	0.00e+00	42	29	0	779091968	52	5751
2026-01-26 16:47:16.23	304.35	28.96	-39.5	-40.4	23.1	0.00e+00	0	29	0	781189120	52	6026
2026-01-26 16:47:17.24	304.03	28.92	-39.4	-40.4	23.0	0.00e+00	66	29	0	783286272	52	5971
2026-01-26 16:47:18.25	303.70	28.87	-39.8	-40.8	22.7	0.00e+00	0	29	0	785383424	52	6274
2026-01-26 16:47:19.26	303.38	28.82	-39.7	-40.6	22.8	0.00e+00	16	29	0	786432000	52	6172
2026-01-26 16:47:20.26	303.07	28.77	-39.5	-40.5	22.8	0.00e+00	92	29	0	788529152	52	6076
2026-01-26 16:47:21.27	302.75	28.72	-39.6	-40.6	22.7	0.00e+00	15	29	0	790626304	52	6150
2026-01-26 16:47:22.29	302.42	28.67	-39.8	-40.8	22.6	0.00e+00	92	29	0	792723456	52	6272
2026-01-26 16:47:23.30	302.11	28.62	-39.8	-40.8	22.6	0.00e+00	0	29	0	794820608	52	6292
2026-01-26 16:47:24.31	301.79	28.56	-39.9	-40.9	22.4	0.00e+00	3	29	0	795869184	52	6375
2026-01-26 16:47:25.32	301.48	28.51	-39.8	-40.8	22.5	0.00e+00	15	28	0	797966336	52	6314
2026-01-26 16:47:26.32	301.16	28.46	-39.9	-40.9	22.4	0.00e+00	19	29	0	800063488	52	6383
2026-01-26 16:47:27.34	300.85	28.40	-40.0	-41.0	22.3	0.00e+00	92	29	0	802160640	52	6448
2026-01-26 16:47:28.35	300.54	28.34	-40.1	-41.2	22.3	0.00e+00	0	29	0	804257792	52	6577
2026-01-26 16:47:29.36	300.22	28.29	-39.9	-41.0	22.5	0.00e+00	92	29	0	805306368	52	6406
2026-01-26 16:47:30.36	299.92	28.23	-40.0	-41.0	22.4	0.00e+00	0	29	0	807403520	52	6401
2026-01-26 16:47:31.37	299.61	28.17	-40.1	-41.1	22.3	0.00e+00	0	29	0	809500672	52	6480
2026-01-26 16:47:32.38	299.30	28.11	-40.1	-41.1	22.2	0.00e+00	0	29	0	811597824	52	6521
2026-01-26 16:47:33.39	298.99	28.05	-40.3	-41.3	22.1	0.00e+00	0	29	0	813694976	52	6687
2026-01-26 16:47:34.40	298.69	27.99	-40.3	-41.3	22.0	0.00e+00	92	29	0	814743552	52	6690
2026-01-26 16:47:35.40	298.39	27.93	-40.3	-41.4	22.0	0.00e+00	0	29	0	816840704	52	6709
2026-01-26 16:47:36.41	298.08	27.86	-40.1	-41.2	22.2	0.00e+00	92	29	0	818937856	52	6568
2026-01-26 16:47:37.42	297.78	27.80	-40.1	-41.2	22.2	0.00e+00	67	29	0	821035008	52	6552
2026-01-26 16:47:38.43	297.48	27.74	-40.1	-41.1	22.3	0.00e+00	0	28	0	823132160	52	6490
2026-01-26 16:47:39.44	297.18	27.67	-40.0	-41.0	22.1	0.00e+00	0	29	0	824180736	52	6419
2026-01-26 16:47:40.45	296.88	27.61	-40.2	-41.2	22.1	0.00e+00	15	29	0	826277888	52	6604
2026-01-26 16:47:41.46	296.59	27.54	-40.2	-41.3	22.1	0.00e+00	38	29	0	828375040	52	6627
2026-01-26 16:47:42.47	296.29	27.47	-40.4	-41.4	22.0	0.00e+00	68	29	0	830472192	52	6745
2026-01-26 16:47:43.48	296.00	27.41	-40.2	-41.3	22.1	0.00e+00	92	29	0	832569344	52	6648
2026-01-26 16:47:44.49	295.70	27.34	-40.3	-41.4	22.0	0.00e+00	71	29	0	833617920	52	6703
2026-01-26 16:47:45.50	295.41	27.27	-40.3	-41.4	22.0	0.00e+00	92	29	0	835715072	52	6696
2026-01-26 16:47:46.51	295.12	27.20	-40.2	-41.2	21.9	0.00e+00	3	29	0	837812224	52	6582
2026-01-26 16:47:47.52	294.83	27.13	-40.1	-41.1	22.3	0.00e+00	2	29	0	839909376	52	6503
2026-01-26 16:47:48.53	294.54	27.06	-39.9	-40.9	22.3	0.00e+00	13	29	0	842006528	52	6369
2026-01-26 16:47:49.54	294.26	26.99	-39.9	-41.0	22.3	0.00e+00	14	29	0	843055104	52	6414
2026-01-26 16:47:50.55	293.97	26.91	-40.0	-41.0	22.3	0.00e+00	92	29	0	845152256	52	6432
2026-01-26 16:47:51.56	293.69	26.84	-40.0	-41.1	22.3	0.00e+00	2	29	0	847249408	52	6479
2026-01-26 16:47:52.57	293.41	26.77	-40.1	-41.2	22.2	0.00e+00	92	29	0	849346560	52	6571
2026-01-26 16:47:53.58	293.12	26.69	-40.0	-41.1	22.3	0.00e+00	0	29	0	851443712	52	6488
2026-01-26 16:47:54.59	292.84	26.62	-40.0	-41.0	22.4	0.00e+00	0	29	0	853540864	52	6428
2026-01-26 16:47:55.60	292.56	26.54	-40.0	-41.1	22.3	0.00e+00	0	29	0	854589440	52	6473
2026-01-26 16:47:56.61	292.29	26.47	-39.9	-40.9	22.4	0.00e+00	0	29	0	856686592	52	6365
2026-01-26 16:47:57.62	292.01	26.39	-39.9	-41.0	22.4	0.00e+00	15	29	0	858783744	52	6400
2026-01-26 16:47:58.63	291.74	26.32	-39.8	-40.8	22.5	0.00e+00	59	29	0	860880896	52	6251
2026-01-26 16:47:59.64	291.46	26.24	-39.7	-40.7	22.6	0.00e+00	92	29	0	862978048	52	6232
2026-01-26 16:48:00.64	291.19	26.16	-39.5	-40.4	22.8	0.00e+00	60	29	0	864026624	52	6020
2026-01-26 16:48:01.65	290.92	26.08	-39.4	-40.4	22.9	0.00e+00	91	29	0	866123776	52	5974
2026-01-26 16:48:02.66	290.65	26.00	-39.3	-40.2	23.1	0.00e+00	0	29	0	868220928	52	5863
2026-01-26 16:48:03.67	290.38	25.93	-39.3	-40.3	23.1	0.00e+00	0	29	0	870318080	52	5912
2026-01-26 16:48:04.68	290.12	25.85	-39.4	-40.4	23.0	0.00e+00	55	29	0	872415232	52	6007
2026-01-26 16:48:05.69	289.85	25.77	-39.4	-40.4	22.9	0.00e+00	15	29	0	873463808	52	6001
2026-01-26 16:48:06.70	289.59	25.69	-39.4	-40.3	22.9	0.00e+00	91	29	0	875560960	52	5945
2026-01-26 16:48:07.71	289.32	25.61	-39.4	-40.4	22.8	0.00e+00	16	29	0	877658112	52	5989
2026-01-26 16:48:08.72	289.06	25.52	-39.1	-40.1	23.1	0.00e+00	91	29	0	879755264	52	5768
2026-01-26 16:48:09.72	288.80	25.44	-39.2	-40.1	23.1	0.00e+00	16	29	0	881852416	52	5811
2026-01-26 16:48:10.74	288.54	25.36	-39.3	-40.2	23.0	0.00e+00	0	29	0	882900992	52	5891
2026-01-26 16:48:11.74	288.29	25.28	-39.4	-40.4	22.9	0.00e+00	5	28	0	884998144	52	6013
2026-01-26 16:48:12.75	288.03	25.20	-39.5	-40.4	22.9	0.00e+00	6	29	0	887095296	52	6013
2026-01-26 16:48:13.76	287.78	25.11	-38.9	-39.8	23.4	0.00e+00	92	29	0	889192448	52	5617
2026-01-26 16:48:14.77	287.52	25.03	-38.6	-39.5	23.7	0.00e+00	7	29	0	891289600	50	6044
2026-01-26 16:48:15.78	287.27	24.95	-38.6	-39.5	23.7	0.00e+00	92	29	0	892338176	50	6086
2026-01-26 16:48:16.79	287.02	24.86	-38.5	-39.4	23.7	0.00e+00	5	29	0	894435328	50	5978
2026-01-26 16:48:17.80	286.77	24.78	-38.7	-39.6	23.4	0.00e+00	0	29	0	896532480	50	6168
2026-01-26 16:48:18.81	286.52	24.69	-38.8	-39.7	23.4	0.00e+00	64	29	0	898629632	50	6186
2026-01-26 16:48:19.82	286.28	24.61	-38.8	-39.7	23.5	0.00e+00	63	29	0	900726784	50	6204
2026-01-26 16:48:20.83	286.03	24.52	-38.5	-39.4	23.7	0.00e+00	67	29	0	901775360	50	5992
2026-01-26 16:48:21.83	285.79	24.44	-38.6	-39.5	23.6	0.00e+00	66	29	0	903872512	50	6094
2026-01-26 16:48:22.84	285.55	24.35	-38.2	-39.0	24.1	0.00e+00	93	29	0	905969664	50	5755
2026-01-26 16:48:23.85	285.31	24.26	-38.1	-38.9	24.0	0.00e+00	63	29	0	908066816	50	5676
2026-01-26 16:48:24.86	285.07	24.18	-38.1	-38.9	24.1	0.00e+00	92	29	0	910163968	50	5691
2026-01-26 16:48:25.87	284.83	24.09	-37.9	-38.8	24.3	0.00e+00	6	29	0	911212544	50	5567
2026-01-26 16:48:26.88	284.59	24.00	-37.9	-38.7	24.3	0.00e+00	26	29	0	913309696	50	5547
2026-01-26 16:48:27.89	284.35	23.92	-37.8	-38.6	24.3	0.00e+00	59	29	0	915406848	48	6149
2026-01-26 16:48:28.90	284.12	23.83	-37.8	-38.7	24.3	0.00e+00	7	29	0	917504000	48	6174
2026-01-26 16:48:29.91	283.89	23.74	-37.9	-38.7	24.3	0.00e+00	92	29	0	919601152	48	6218
2026-01-26 16:48:30.92	283.65	23.65	-38.0	-38.9	24.3	0.00e+00	29	29	0	921698304	48	6338
2026-01-26 16:48:31.93	283.42	23.57	-37.8	-38.6	24.4	0.00e+00	92	29	0	922746880	48	6140
2026-01-26 16:48:32.94	283.19	23.48	-37.6	-38.4	24.4	0.00e+00	6	29	0	924844032	48	6024
2026-01-26 16:48:33.95	282.96	23.39	-37.8	-38.6	24.4	0.00e+00	0	29	0	926941184	48	6121
2026-01-26 16:48:34.96	282.74	23.30	-37.4	-38.2	24.8	0.00e+00	0	29	0	929038336	48	5860
2026-01-26 16:48:35.97	282.51	23.21	-37.4	-38.2	24.8	0.00e+00	0	29	0	931135488	48	5874
2026-01-26 16:48:36.98	282.29	23.12	-37.5	-38.3	24.7	0.00e+00	92	29	0	932184064	48	5919
2026-01-26 16:48:37.98	282.07	23.03	-37.4	-38.2	24.8	0.00e+00	0	29	0	934281216	48	5854
2026-01-26 16:48:39.00	281.84	22.94	-37.4	-38.2	24.7	0.00e+00	91	29	0	936378368	48	5835
2026-01-26 16:48:40.00	281.62	22.85	-37.3	-38.1	24.8	0.00e+00	0	29	0	938475520	48	5820
2026-01-26 16:48:41.01	281.41	22.76	-37.2	-38.0	24.8	0.00e+00	66	29	0	940572672	48	5733
2026-01-26 16:48:42.02	281.19	22.67	-37.2	-38.0	24.9	0.00e+00	64	29	0	941621248	48	5733
2026-01-26 16:48:43.03	280.97	22.58	-37.1	-37.9	24.9	0.00e+00	0	29	0	943718400	48	5675
2026-01-26 16:48:44.04	280.76	22.49	-37.2	-38.0	24.9	0.00e+00	65	29	0	945815552	48	5724
2026-01-26 16:48:45.05	280.54	22.40	-37.0	-37.8	25.0	0.00e+00	66	29	0	947912704	48	5589
2026-01-26 16:48:46.06	280.33	22.31	-37.0	-37.7	25.2	0.00e+00	92	29	0	950009856	48	5560
2026-01-26 16:48:47.07	280.12	22.22	-36.9	-37.7	25.2	0.00e+00	17	29	0	951058432	48	5508
2026-01-26 16:48:48.08	279.91	22.13	-37.0	-37.8	25.1	0.00e+00	79	29	0	953155584	48	5587
2026-01-26 16:48:49.09	279.70	22.04	-36.7	-37.4	25.4	0.00e+00	15	29	0	955252736	46	6013
2026-01-26 16:48:50.10	279.49	21.95	-36.7	-37.4	25.5	0.00e+00	2	29	0	957349888	46	5998
2026-01-26 16:48:51.11	279.28	21.86	-36.7	-37.4	25.4	0.00e+00	26	29	0	959447040	46	6031
2026-01-26 16:48:52.12	279.08	21.77	-36.6	-37.4	25.5	0.00e+00	18	29	0	960495616	46	5995
2026-01-26 16:48:53.12	278.87	21.68	-36.6	-37.4	25.5	0.00e+00	92	29	0	962592768	46	5975
2026-01-26 16:48:54.13	278.67	21.59	-36.6	-37.3	25.6	0.00e+00	0	29	0	964689920	46	5952
2026-01-26 16:48:55.14	278.47	21.50	-36.4	-37.2	25.6	0.00e+00	92	29	0	966787072	46	5832
2026-01-26 16:48:56.15	278.27	21.41	-36.4	-37.1	25.6	0.00e+00	0	29	0	968884224	46	5814
2026-01-26 16:48:57.16	278.07	21.32	-36.4	-37.1	25.5	0.00e+00	2	29	0	969932800	46	5819
2026-01-26 16:48:58.17	277.87	21.22	-36.5	-37.2	25.5	0.00e+00	0	29	0	972029952	46	5887
2026-01-26 16:48:59.18	277.67	21.13	-36.5	-37.2	25.5	0.00e+00	0	29	0	974127104	46	5887
2026-01-26 16:49:00.19	277.48	21.04	-36.6	-37.4	25.4	0.00e+00	75	29	0	976224256	46	5995
2026-01-26 16:49:01.20	277.28	20.95	-36.6	-37.4	25.3	0.00e+00	0	29	0	978321408	46	5967
2026-01-26 16:49:02.21	277.09	20.86	-36.5	-37.2	25.4	0.00e+00	92	29	0	979369984	46	5872
2026-01-26 16:49:03.22	276.90	20.77	-36.5	-37.2	25.4	0.00e+00	59	29	0	981467136	46	5889
2026-01-26 16:49:04.23	276.71	20.68	-36.7	-37.5	25.3	0.00e+00	4	29	0	983564288	46	6061
2026-01-26 16:49:05.24	276.52	20.59	-36.8	-37.6	25.3	0.00e+00	64	29	0	985661440	46	6143
2026-01-26 16:49:06.25	276.33	20.49	-37.0	-37.8	25.1	0.00e+00	64	29	0	987758592	46	6261
2026-01-26 16:49:07.25	276.14	20.40	-36.8	-37.6	25.2	0.00e+00	59	29	0	989855744	46	6151
2026-01-26 16:49:08.26	275.95	20.31	-37.1	-37.9	25.0	0.00e+00	17	29	0	990904320	46	6333
2026-01-26 16:49:09.27	275.77	20.22	-37.1	-37.9	24.9	0.00e+00	90	29	0	993001472	46	6333
2026-01-26 16:49:10.28	275.58	20.13	-37.0	-37.8	25.0	0.00e+00	64	29	0	995098624	46	6305
2026-01-26 16:49:11.30	275.40	20.04	-36.8	-37.6	25.2	0.00e+00	0	29	0	997195776	46	6135
2026-01-26 16:49:12.30	275.22	19.95	-36.9	-37.7	24.9	0.00e+00	2	29	0	999292928	46	6226
2026-01-26 16:49:13.31	275.04	19.86	-36.9	-37.6	24.6	0.00e+00	2	29	0	1000341504	46	6162
2026-01-26 16:49:14.32	274.86	19.76	-36.8	-37.6	25.1	0.00e+00	0	29	0	1002438656	46	6108
2026-01-26 16:49:15.34	274.68	19.67	-36.9	-37.7	25.0	0.00e+00	0	29	0	1004535808	46	6223
2026-01-26 16:49:16.35	274.50	19.58	-36.9	-37.7	25.1	0.00e+00	92	29	0	1006632960	46	6197
2026-01-26 16:49:17.35	274.32	19.49	-37.3	-38.1	23.8	0.00e+00	2	29	0	1008730112	46	6486
2026-01-26 16:49:18.36	274.15	19.40	-37.1	-37.9	25.0	0.00e+00	91	29	0	1009778688	46	6381
2026-01-26 16:49:19.37	273.97	19.31	-37.2	-38.0	24.8	0.00e+00	3	29	0	1011875840	46	6401
2026-01-26 16:49:20.38	273.80	19.22	-37.2	-38.0	24.8	0.00e+00	0	29	0	1013972992	46	6446
2026-01-26 16:49:21.39	273.62	19.13	-37.1	-37.9	24.9	0.00e+00	2	29	0	1016070144	46	6359
2026-01-26 16:49:22.40	273.45	19.04	-37.2	-37.9	24.9	0.00e+00	0	29	0	1018167296	46	6388
2026-01-26 16:49:23.41	273.28	18.95	-37.2	-38.0	24.9	0.00e+00	92	29	0	1019215872	46	6402
2026-01-26 16:49:24.42	273.11	18.86	-37.3	-38.1	24.8	0.00e+00	0	29	0	1021313024	46	6538
2026-01-26 16:49:25.43	272.94	18.76	-37.2	-38.0	24.9	0.00e+00	92	29	0	1023410176	46	6436
2026-01-26 16:49:26.44	272.78	18.67	-37.6	-38.4	24.5	0.00e+00	0	29	0	1025507328	46	6726
2026-01-26 16:49:27.44	272.61	18.58	-37.5	-38.3	24.6	0.00e+00	24	29	0	1027604480	46	6648
2026-01-26 16:49:28.45	272.45	18.49	-37.8	-38.6	24.4	0.00e+00	58	29	0	1028653056	48	6138
2026-01-26 16:49:29.46	272.28	18.40	-38.0	-38.9	24.2	0.00e+00	59	29	0	1030750208	48	6351
2026-01-26 16:49:30.47	272.12	18.31	-38.0	-38.8	24.1	0.00e+00	47	29	0	1032847360	48	6283
2026-01-26 16:49:31.48	271.95	18.22	-38.0	-38.8	24.1	0.00e+00	0	29	0	1034944512	48	6305
2026-01-26 16:49:32.49	271.79	18.13	-38.2	-39.1	24.0	0.00e+00	90	29	0	1037041664	48	6469
2026-01-26 16:49:33.50	271.63	18.04	-38.2	-39.0	24.0	0.00e+00	22	29	0	1038090240	48	6458
2026-01-26 16:49:34.51	271.47	17.95	-38.2	-39.0	24.0	0.00e+00	92	29	0	1040187392	48	6447
2026-01-26 16:49:35.52	271.31	17.86	-38.1	-39.0	24.0	0.00e+00	19	29	0	1042284544	48	6423
2026-01-26 16:49:36.53	271.16	17.77	-37.9	-38.7	24.1	0.00e+00	18	29	0	1044381696	48	6236
2026-01-26 16:49:37.54	271.00	17.68	-37.9	-38.7	24.2	0.00e+00	0	29	0	1046478848	48	6211
2026-01-26 16:49:38.55	270.84	17.60	-38.0	-38.8	24.2	0.00e+00	2	29	0	1047527424	48	6308
2026-01-26 16:49:39.56	270.69	17.51	-38.1	-38.9	24.1	0.00e+00	92	29	0	1049624576	48	6367
2026-01-26 16:49:40.56	270.54	17.42	-38.0	-38.8	24.1	0.00e+00	0	28	0	1051721728	48	6313
2026-01-26 16:49:41.57	270.38	17.33	-38.0	-38.8	24.1	0.00e+00	92	29	0	1053818880	48	6283
2026-01-26 16:49:42.58	270.23	17.24	-38.1	-38.9	23.9	0.00e+00	2	29	0	1055916032	48	6384
2026-01-26 16:49:43.59	270.08	17.15	-38.0	-38.8	24.1	0.00e+00	0	29	0	1056964608	48	6296
2026-01-26 16:49:44.60	269.93	17.06	-38.1	-39.0	24.0	0.00e+00	48	28	0	1059061760	48	6409
2026-01-26 16:49:45.61	269.78	16.97	-38.0	-38.8	24.0	0.00e+00	61	29	0	1061158912	48	6313
2026-01-26 16:49:46.62	269.63	16.88	-38.1	-39.0	23.9	0.00e+00	76	29	0	1063256064	48	6417
2026-01-26 16:49:47.63	269.48	16.80	-38.1	-38.9	24.0	0.00e+00	2	29	0	1065353216	48	6376
2026-01-26 16:49:48.64	269.34	16.71	-38.3	-39.1	23.8	0.00e+00	92	29	0	1066401792	48	6530
2026-01-26 16:49:49.65	269.19	16.62	-38.2	-39.0	24.0	0.00e+00	17	29	0	1068498944	48	6463
2026-01-26 16:49:50.66	269.04	16.53	-38.2	-39.1	23.8	0.00e+00	20	29	0	1070596096	48	6474
2026-01-26 16:49:51.67	268.90	16.44	-38.3	-39.2	23.6	0.00e+00	63	29	0	1072693248	48	6570
2026-01-26 16:49:52.68	268.76	16.36	-38.3	-39.2	23.7	0.00e+00	62	29	0	1074790400	48	6576
2026-01-26 16:49:53.68	268.62	16.27	-38.4	-39.3	23.6	0.00e+00	44	29	0	1075838976	48	6665
2026-01-26 16:49:54.69	268.47	16.18	-38.4	-39.3	23.7	0.00e+00	0	29	0	1077936128	48	6657
2026-01-26 16:49:55.70	268.33	16.09	-38.7	-39.6	23.3	0.00e+00	92	29	0	1080033280	48	6881
2026-01-26 16:49:56.71	268.19	16.01	-38.5	-39.4	23.6	0.00e+00	24	29	0	1082130432	48	6707
2026-01-26 16:49:57.72	268.05	15.92	-38.5	-39.4	23.6	0.00e+00	92	29	0	1084227584	48	6714
2026-01-26 16:49:58.73	267.91	15.83	-38.5	-39.4	23.5	0.00e+00	5	29	0	1086324736	48	6739
2026-01-26 16:49:59.74	267.78	15.75	-38.4	-39.3	23.7	0.00e+00	6	29	0	1087373312	48	6662
2026-01-26 16:50:00.75	267.64	15.66	-38.5	-39.4	23.6	0.00e+00	5	29	0	1089470464	48	6723
2026-01-26 16:50:01.76	267.50	15.57	-38.5	-39.4	23.5	0.00e+00	0	29	0	1091567616	48	6763
2026-01-26 16:50:02.77	267.37	15.49	-38.4	-39.3	23.6	0.00e+00	91	29	0	1093664768	48	6671
2026-01-26 16:50:03.78	267.23	15.40	-38.5	-39.4	23.5	0.00e+00	6	29	0	1095761920	48	6739
2026-01-26 16:50:04.79	267.10	15.31	-38.6	-39.5	23.4	0.00e+00	92	29	0	1096810496	48	6807
2026-01-26 16:50:05.80	266.97	15.23	-38.6	-39.5	23.5	0.00e+00	0	29	0	1098907648	48	6833
2026-01-26 16:50:06.80	266.84	15.14	-38.7	-39.6	23.2	0.00e+00	60	29	0	1101004800	48	6917
2026-01-26 16:50:07.81	266.71	15.06	-38.8	-39.8	23.2	0.00e+00	0	29	0	1103101952	50	6248
2026-01-26 16:50:08.82	266.58	14.97	-38.8	-39.8	23.1	0.00e+00	0	29	0	1105199104	50	6264
2026-01-26 16:50:09.84	266.44	14.88	-38.9	-39.9	23.1	0.00e+00	62	29	0	1106247680	50	6328
2026-01-26 16:50:10.84	266.32	14.80	-39.0	-40.0	23.1	0.00e+00	25	29	0	1108344832	50	6392
2026-01-26 16:50:11.85	266.19	14.72	-39.1	-40.1	23.0	0.00e+00	90	29	0	1110441984	50	6507
2026-01-26 16:50:12.86	266.06	14.63	-39.1	-40.1	22.9	0.00e+00	60	29	0	1112539136	50	6491
2026-01-26 16:50:13.87	265.93	14.55	-39.0	-40.0	23.0	0.00e+00	92	29	0	1114636288	50	6424
2026-01-26 16:50:14.88	265.81	14.46	-39.0	-39.9	23.1	0.00e+00	26	29	0	1115684864	50	6360
2026-01-26 16:50:15.89	265.68	14.38	-39.1	-40.0	23.0	0.00e+00	25	29	0	1117782016	50	6445
2026-01-26 16:50:16.89	265.56	14.29	-39.0	-40.0	23.0	0.00e+00	47	29	0	1119879168	50	6420
2026-01-26 16:50:17.90	265.44	14.21	-39.1	-40.0	22.9	0.00e+00	7	29	0	1121976320	50	6440
2026-01-26 16:50:18.91	265.31	14.12	-39.1	-40.1	22.8	0.00e+00	92	29	0	1124073472	50	6487
2026-01-26 16:50:19.92	265.19	14.04	-39.1	-40.1	22.8	0.00e+00	26	29	0	1125122048	50	6490
2026-01-26 16:50:20.93	265.07	13.96	-39.2	-40.2	22.7	0.00e+00	92	29	0	1127219200	50	6582
2026-01-26 16:50:21.94	264.95	13.87	-39.2	-40.1	22.8	0.00e+00	7	29	0	1129316352	50	6524
2026-01-26 16:50:22.95	264.83	13.79	-39.3	-40.3	22.5	0.00e+00	6	29	0	1131413504	50	6679
2026-01-26 16:50:23.96	264.71	13.71	-39.5	-40.5	22.5	0.00e+00	6	29	0	1133510656	50	6813
2026-01-26 16:50:24.97	264.59	13.62	-39.7	-40.7	22.3	0.00e+00	7	29	0	1134559232	50	6985
2026-01-26 16:50:25.98	264.47	13.54	-39.7	-40.7	22.3	0.00e+00	91	29	0	1136656384	52	6243
2026-01-26 16:50:26.99	264.35	13.46	-39.9	-41.0	22.2	0.00e+00	7	29	0	1138753536	52	6403
2026-01-26 16:50:28.00	264.23	13.38	-39.8	-40.9	22.0	0.00e+00	91	29	0	1140850688	52	6335
2026-01-26 16:50:29.01	264.12	13.29	-40.1	-41.1	22.0	0.00e+00	0	29	0	1142947840	52	6538
2026-01-26 16:50:30.01	264.00	13.21	-39.9	-40.9	22.1	0.00e+00	57	29	0	1143996416	52	6368
2026-01-26 16:50:31.02	263.89	13.13	-39.9	-41.0	22.1	0.00e+00	0	29	0	1146093568	52	6420
2026-01-26 16:50:32.04	263.77	13.05	-39.8	-40.8	22.2	0.00e+00	0	28	0	1148190720	52	6306
2026-01-26 16:50:33.04	263.66	12.97	-39.8	-40.9	22.1	0.00e+00	92	29	0	1150287872	52	6332
2026-01-26 16:50:34.05	263.55	12.88	-39.8	-40.9	22.2	0.00e+00	55	29	0	1152385024	52	6326
2026-01-26 16:50:35.06	263.44	12.80	-39.7	-40.7	22.3	0.00e+00	92	29	0	1154482176	52	6221
2026-01-26 16:50:36.07	263.32	12.72	-39.7	-40.7	22.4	0.00e+00	61	29	0	1155530752	52	6217
2026-01-26 16:50:37.08	263.21	12.64	-39.8	-40.8	22.2	0.00e+00	92	29	0	1157627904	52	6300
2026-01-26 16:50:38.08	263.10	12.56	-39.7	-40.7	22.3	0.00e+00	20	29	0	1159725056	52	6230
2026-01-26 16:50:39.09	262.99	12.48	-39.7	-40.7	22.2	0.00e+00	20	29	0	1161822208	52	6236
2026-01-26 16:50:40.10	262.88	12.40	-39.8	-40.8	22.2	0.00e+00	51	29	0	1163919360	52	6278
2026-01-26 16:50:41.11	262.78	12.32	-39.8	-40.9	22.1	0.00e+00	0	29	0	1164967936	52	6352
2026-01-26 16:50:42.12	262.67	12.24	-39.8	-40.9	22.0	0.00e+00	91	29	0	1167065088	52	6353
2026-01-26 16:50:43.12	262.56	12.16	-40.0	-41.1	22.0	0.00e+00	0	29	0	1169162240	52	6489
2026-01-26 16:50:44.13	262.45	12.08	-39.9	-41.0	21.9	0.00e+00	92	29	0	1171259392	52	6426
2026-01-26 16:50:45.14	262.35	12.00	-40.0	-41.1	21.9	0.00e+00	21	29	0	1172307968	52	6474
2026-01-26 16:50:46.15	262.24	11.92	-39.9	-40.9	22.0	0.00e+00	0	29	0	1174405120	52	6365
2026-01-26 16:50:47.16	262.14	11.84	-40.0	-41.1	21.8	0.00e+00	0	29	0	1176502272	52	6484
2026-01-26 16:50:48.17	262.03	11.76	-40.0	-41.1	21.8	0.00e+00	0	29	0	1178599424	52	6495
2026-01-26 16:50:49.18	261.93	11.68	-39.9	-41.0	22.0	0.00e+00	92	29	0	1180696576	52	6407
2026-01-26 16:50:50.19	261.82	11.60	-39.9	-41.0	21.9	0.00e+00	2	29	0	1182793728	52	6436
2026-01-26 16:50:51.20	261.72	11.52	-39.9	-40.9	22.0	0.00e+00	90	29	0	1183842304	52	6390
2026-01-26 16:50:52.21	261.62	11.44	-40.1	-41.2	21.8	0.00e+00	0	29	0	1185939456	52	6564
2026-01-26 16:50:53.22	261.52	11.36	-40.3	-41.4	21.6	0.00e+00	60	29	0	1188036608	52	6728
2026-01-26 16:50:54.23	261.42	11.29	-39.9	-41.0	21.9	0.00e+00	0	29	0	1190133760	52	6411
2026-01-26 16:50:55.24	261.32	11.21	-39.9	-41.0	21.9	0.00e+00	59	29	0	1192230912	52	6422
2026-01-26 16:50:56.25	261.22	11.13	-40.2	-41.3	21.6	0.00e+00	92	29	0	1193279488	52	6677
