passes_logs/2026/01/26/R4.6S_Anadyr/R4.6S_Anadyr__20260126_193737_SUOMI_NPP_rec.log

#Pass ID: 20260126_193737_SUOMI NPP
#Satellite: SUOMI NPP
#Configuration: NPP
#almurnet v.1.7.20251203
#Start time: 2026-01-26 19:37:41

#Version: 2.2.20231116
#Station: R4.6S_Anadyr
#Location: 177.4865 lon 64.73178 lat
#TLE: 1 37849U 11061A   26025.95877665  .00000192  00000+0  11229-3 0  9997
#TLE: 2 37849  98.7822 327.9136 0002155  44.9234 315.2116 14.19530109738267

#Time	Az	El	Level	Level2	SNR	BER	BlckErr	Temp	State	Recorded	gain1	gain2
2026-01-26 19:37:41.08	54.77	0.16	-50.6	-64.4	3.3	1.54e+00	0	28	0	0	60	59668
2026-01-26 19:37:42.09	54.69	0.21	-50.9	-66.1	3.6	1.51e+00	0	28	104	0	60	73238
2026-01-26 19:37:43.10	54.62	0.26	-49.6	-64.8	3.6	1.51e+00	0	28	104	0	60	63021
2026-01-26 19:37:44.11	54.54	0.31	-49.4	-64.6	3.6	1.51e+00	0	28	104	0	60	61585
2026-01-26 19:37:45.12	54.46	0.36	-49.3	-64.5	3.6	1.51e+00	0	28	104	0	60	60575
2026-01-26 19:37:46.13	54.38	0.41	-49.4	-64.6	3.6	1.51e+00	0	28	104	0	60	61465
2026-01-26 19:37:47.13	54.31	0.45	-49.4	-64.5	3.6	1.51e+00	0	28	104	0	60	60942
2026-01-26 19:37:48.14	54.23	0.50	-49.3	-64.5	3.6	1.51e+00	0	28	104	0	60	60359
2026-01-26 19:37:49.15	54.15	0.55	-49.2	-64.4	3.6	1.51e+00	0	28	104	0	60	60304
2026-01-26 19:37:50.16	54.07	0.60	-49.2	-64.4	3.6	1.51e+00	0	28	104	0	60	59831
2026-01-26 19:37:51.17	53.99	0.65	-49.2	-64.3	3.6	1.51e+00	0	28	104	0	60	59530
2026-01-26 19:37:52.18	53.91	0.70	-49.2	-64.4	3.6	1.51e+00	0	28	104	0	60	59813
2026-01-26 19:37:53.19	53.83	0.75	-49.1	-64.3	3.6	1.51e+00	0	28	104	0	60	59416
2026-01-26 19:37:54.20	53.75	0.80	-49.1	-64.3	3.6	1.51e+00	0	28	104	0	60	59326
2026-01-26 19:37:55.21	53.67	0.85	-49.0	-64.3	3.6	1.51e+00	0	28	104	0	60	59185
2026-01-26 19:37:56.22	53.59	0.90	-49.0	-64.2	3.6	1.51e+00	0	28	104	0	60	58601
2026-01-26 19:37:57.23	53.51	0.95	-49.0	-64.1	3.6	1.51e+00	0	28	104	0	60	58229
2026-01-26 19:37:58.24	53.43	1.00	-48.9	-64.1	3.6	1.51e+00	0	28	104	0	60	58052
2026-01-26 19:37:59.25	53.35	1.05	-48.8	-64.0	3.6	1.51e+00	0	28	104	0	60	57370
2026-01-26 19:38:00.26	53.27	1.10	-48.7	-63.9	3.6	1.51e+00	0	28	104	0	60	56790
2026-01-26 19:38:01.27	53.18	1.15	-48.5	-63.8	3.6	1.51e+00	0	28	104	0	60	56035
2026-01-26 19:38:02.28	53.10	1.19	-48.5	-63.6	3.6	1.51e+00	0	28	104	0	60	54952
2026-01-26 19:38:03.29	53.02	1.24	-48.1	-63.3	3.6	1.51e+00	0	28	104	0	60	53114
2026-01-26 19:38:04.30	52.94	1.29	-47.7	-62.8	3.6	1.51e+00	0	28	104	0	60	49989
2026-01-26 19:38:05.31	52.85	1.34	-47.6	-62.8	3.6	1.51e+00	0	28	104	0	60	49828
2026-01-26 19:38:06.32	52.77	1.39	-47.6	-62.8	3.6	1.51e+00	0	28	104	0	60	50134
2026-01-26 19:38:07.33	52.69	1.44	-47.6	-62.8	3.6	1.51e+00	0	28	104	0	60	49815
2026-01-26 19:38:08.34	52.60	1.49	-47.6	-62.8	3.6	1.51e+00	0	28	104	0	60	49967
2026-01-26 19:38:09.35	52.52	1.54	-47.7	-62.8	3.6	1.51e+00	0	28	104	0	60	49924
2026-01-26 19:38:10.36	52.43	1.59	-47.6	-62.8	3.6	1.51e+00	0	28	104	0	60	49875
2026-01-26 19:38:11.37	52.35	1.64	-47.6	-62.8	3.6	1.51e+00	0	28	104	0	60	50064
2026-01-26 19:38:12.38	52.26	1.69	-47.6	-62.7	3.6	1.51e+00	0	28	104	0	60	49464
2026-01-26 19:38:13.39	52.18	1.74	-47.6	-62.8	3.6	1.51e+00	0	28	104	0	60	49732
2026-01-26 19:38:14.40	52.09	1.79	-47.6	-62.8	3.6	1.51e+00	0	28	104	0	60	49863
2026-01-26 19:38:15.41	52.01	1.84	-47.6	-62.8	3.6	1.51e+00	0	28	104	0	60	49855
2026-01-26 19:38:16.42	51.92	1.89	-47.6	-62.7	3.6	1.51e+00	0	28	104	0	60	49570
2026-01-26 19:38:17.43	51.83	1.94	-47.6	-62.7	3.6	1.51e+00	0	28	104	0	60	49580
2026-01-26 19:38:18.44	51.75	1.99	-47.6	-62.7	3.6	1.51e+00	0	28	104	0	60	49398
2026-01-26 19:38:19.45	51.66	2.04	-47.6	-62.7	3.5	1.51e+00	0	28	104	0	60	49119
2026-01-26 19:38:20.46	51.57	2.09	-47.6	-62.7	3.6	1.51e+00	0	28	104	0	60	49287
2026-01-26 19:38:21.47	51.48	2.14	-47.6	-62.6	3.6	1.51e+00	0	28	104	0	60	48758
2026-01-26 19:38:22.48	51.39	2.19	-47.6	-62.7	3.6	1.51e+00	0	28	104	0	60	49114
2026-01-26 19:38:23.49	51.31	2.24	-47.6	-62.7	3.6	1.51e+00	0	28	104	0	60	49389
2026-01-26 19:38:24.50	51.22	2.29	-47.6	-62.8	3.6	1.51e+00	0	28	104	0	60	49780
2026-01-26 19:38:25.51	51.13	2.34	-47.6	-62.8	3.6	1.51e+00	0	28	104	0	60	49620
2026-01-26 19:38:26.52	51.04	2.39	-47.6	-62.7	3.6	1.51e+00	0	28	104	0	60	49316
2026-01-26 19:38:27.53	50.95	2.44	-47.6	-62.7	3.6	1.51e+00	0	28	104	0	60	49135
2026-01-26 19:38:28.54	50.86	2.49	-47.6	-62.7	3.6	1.51e+00	0	28	104	0	60	49335
2026-01-26 19:38:29.55	50.77	2.54	-47.6	-62.8	3.6	1.51e+00	0	28	104	0	60	49797
2026-01-26 19:38:30.56	50.68	2.59	-47.6	-62.5	3.6	1.51e+00	0	29	104	0	60	48231
2026-01-26 19:38:31.58	50.59	2.65	-47.6	-62.1	3.6	1.51e+00	0	29	104	0	60	45808
2026-01-26 19:38:32.59	50.49	2.70	-47.6	-61.9	3.6	1.51e+00	0	28	104	0	60	44852
2026-01-26 19:38:33.60	50.40	2.75	-47.6	-62.6	3.6	1.51e+00	0	29	104	0	60	48544
2026-01-26 19:38:34.61	50.31	2.80	-47.6	-61.9	3.6	1.51e+00	0	29	104	0	60	45225
2026-01-26 19:38:35.62	50.22	2.85	-47.4	-58.5	3.9	1.50e+00	0	28	104	0	60	30441
2026-01-26 19:38:36.63	50.13	2.90	-46.8	-54.1	7.4	7.39e-01	77	29	104	0	60	18332
2026-01-26 19:38:37.64	50.03	2.95	-46.1	-51.2	10.4	3.20e-02	67	29	0	1048576	60	13110
2026-01-26 19:38:38.65	49.94	3.00	-44.4	-47.5	14.1	2.15e-04	0	28	0	3145728	60	8573
2026-01-26 19:38:39.66	49.85	3.05	-47.3	-56.2	4.4	1.02e-04	48	29	0	5242880	60	23214
2026-01-26 19:38:40.67	49.75	3.10	-47.2	-55.9	4.7	1.40e+00	0	29	104	5242880	60	22514
2026-01-26 19:38:41.68	49.66	3.15	-46.8	-54.4	5.4	3.23e-04	91	29	104	5242880	60	19058
2026-01-26 19:38:42.69	49.56	3.20	-47.5	-61.5	3.6	1.51e+00	0	29	104	5242880	60	42797
2026-01-26 19:38:43.69	49.47	3.25	-45.7	-50.4	11.4	1.49e+00	5	29	0	5242880	60	11911
2026-01-26 19:38:44.70	49.37	3.30	-46.1	-51.3	10.2	1.94e-02	90	29	0	6291456	60	13256
2026-01-26 19:38:45.71	49.28	3.35	-46.0	-51.0	10.7	7.36e-03	0	29	0	8388608	60	12899
2026-01-26 19:38:46.72	49.18	3.40	-45.7	-50.3	10.8	1.65e-02	32	29	0	10485760	60	11788
2026-01-26 19:38:47.73	49.08	3.45	-45.8	-50.3	11.4	1.81e-03	0	29	0	12582912	60	11893
2026-01-26 19:38:48.74	48.99	3.50	-45.8	-50.4	11.1	3.24e-03	91	29	0	13631488	60	12013
2026-01-26 19:38:49.75	48.89	3.55	-45.8	-50.5	11.0	3.03e-03	0	29	0	15728640	60	12043
2026-01-26 19:38:50.76	48.79	3.61	-45.7	-50.1	11.3	9.96e-04	91	29	0	17825792	60	11562
2026-01-26 19:38:51.77	48.70	3.66	-46.2	-51.4	9.5	3.55e-03	16	29	0	19922944	60	13377
2026-01-26 19:38:52.78	48.60	3.71	-46.1	-51.0	10.0	5.14e-03	0	29	0	22020096	60	12873
2026-01-26 19:38:53.79	48.50	3.76	-46.6	-52.5	9.8	8.75e-03	60	29	0	24117248	60	15203
2026-01-26 19:38:54.80	48.40	3.81	-46.2	-51.2	10.1	7.34e-03	0	29	0	25165824	60	13167
2026-01-26 19:38:55.81	48.30	3.86	-46.5	-52.2	9.3	7.25e-03	84	29	0	27262976	60	14790
2026-01-26 19:38:56.82	48.20	3.91	-44.7	-47.8	14.2	2.63e-03	0	29	0	29360128	60	8854
2026-01-26 19:38:57.83	48.10	3.96	-45.2	-48.9	12.8	4.11e-05	92	29	0	31457280	60	10120
2026-01-26 19:38:58.84	48.00	4.01	-45.3	-49.1	12.6	8.23e-05	57	29	0	33554432	60	10260
2026-01-26 19:38:59.85	47.90	4.06	-45.1	-48.6	14.1	3.57e-04	0	29	0	34603008	60	9714
2026-01-26 19:39:00.86	47.80	4.11	-44.6	-47.7	14.1	1.50e-06	90	29	0	36700160	60	8796
2026-01-26 19:39:01.86	47.70	4.16	-43.4	-45.8	16.4	7.00e-07	0	29	0	38797312	60	7008
2026-01-26 19:39:02.87	47.60	4.21	-43.4	-45.7	16.2	0.00e+00	90	29	0	40894464	60	6957
2026-01-26 19:39:03.88	47.50	4.27	-43.8	-46.4	16.0	0.00e+00	0	29	0	42991616	60	7550
2026-01-26 19:39:04.89	47.39	4.32	-43.6	-46.1	16.1	0.00e+00	92	29	0	44040192	60	7267
2026-01-26 19:39:05.90	47.29	4.37	-43.1	-45.3	16.8	7.00e-07	0	29	0	46137344	60	6668
2026-01-26 19:39:06.91	47.19	4.42	-42.8	-44.8	17.2	0.00e+00	0	29	0	48234496	58	7075
2026-01-26 19:39:07.92	47.08	4.47	-42.7	-44.7	17.5	0.00e+00	92	29	0	50331648	58	6974
2026-01-26 19:39:08.93	46.98	4.52	-42.4	-44.3	17.7	0.00e+00	0	29	0	52428800	58	6642
2026-01-26 19:39:09.94	46.88	4.57	-42.8	-44.9	17.0	0.00e+00	76	29	0	53477376	58	7166
2026-01-26 19:39:10.95	46.77	4.62	-43.0	-45.1	17.0	0.00e+00	0	29	0	55574528	58	7295
2026-01-26 19:39:11.96	46.67	4.67	-43.1	-45.3	16.8	0.00e+00	92	29	0	57671680	58	7495
2026-01-26 19:39:12.97	46.56	4.72	-42.7	-44.8	17.2	0.00e+00	9	29	0	59768832	58	7008
2026-01-26 19:39:13.98	46.45	4.78	-42.8	-44.8	17.3	0.00e+00	0	29	0	61865984	58	7064
2026-01-26 19:39:14.99	46.35	4.83	-42.1	-43.9	18.1	0.00e+00	85	29	0	62914560	58	6378
2026-01-26 19:39:16.00	46.24	4.88	-42.5	-44.5	17.5	0.00e+00	0	29	0	65011712	58	6804
2026-01-26 19:39:17.00	46.14	4.93	-41.9	-43.7	18.3	0.00e+00	77	29	0	67108864	58	6195
2026-01-26 19:39:18.01	46.03	4.98	-42.1	-43.9	18.1	0.00e+00	0	29	0	69206016	58	6324
2026-01-26 19:39:19.02	45.92	5.03	-42.3	-44.1	17.9	0.00e+00	77	29	0	71303168	58	6532
2026-01-26 19:39:20.03	45.81	5.08	-42.5	-44.4	17.7	0.00e+00	0	29	0	72351744	58	6747
2026-01-26 19:39:21.04	45.70	5.13	-42.5	-44.4	17.6	0.00e+00	0	29	0	74448896	58	6709
2026-01-26 19:39:22.05	45.60	5.18	-42.6	-44.6	17.6	0.00e+00	56	29	0	76546048	58	6877
2026-01-26 19:39:23.06	45.49	5.23	-42.6	-44.6	17.5	0.00e+00	0	29	0	78643200	58	6897
2026-01-26 19:39:24.07	45.38	5.28	-42.3	-44.1	18.0	0.00e+00	0	29	0	80740352	58	6524
2026-01-26 19:39:25.08	45.27	5.34	-42.0	-43.8	18.2	0.00e+00	0	29	0	81788928	58	6292
2026-01-26 19:39:26.09	45.16	5.39	-41.8	-43.5	18.6	0.00e+00	91	29	0	83886080	56	6775
2026-01-26 19:39:27.10	45.05	5.44	-41.6	-43.2	18.9	0.00e+00	0	29	0	85983232	56	6588
2026-01-26 19:39:28.11	44.93	5.49	-41.9	-43.6	18.6	0.00e+00	31	29	0	88080384	56	6866
2026-01-26 19:39:29.12	44.82	5.54	-41.8	-43.5	18.7	0.00e+00	91	29	0	90177536	56	6812
2026-01-26 19:39:30.13	44.71	5.59	-41.5	-43.1	19.0	0.00e+00	0	29	0	92274688	56	6518
2026-01-26 19:39:31.14	44.60	5.64	-41.6	-43.2	18.9	0.00e+00	28	29	0	93323264	56	6614
2026-01-26 19:39:32.15	44.49	5.69	-41.4	-42.9	19.1	0.00e+00	0	29	0	95420416	56	6337
2026-01-26 19:39:33.16	44.37	5.74	-41.1	-42.6	19.5	0.00e+00	92	29	0	97517568	56	6110
2026-01-26 19:39:34.17	44.26	5.80	-41.4	-42.9	19.3	0.00e+00	0	29	0	99614720	56	6323
2026-01-26 19:39:35.18	44.14	5.85	-41.1	-42.6	19.5	0.00e+00	91	29	0	101711872	56	6124
2026-01-26 19:39:36.19	44.03	5.90	-41.1	-42.6	19.5	0.00e+00	0	29	0	102760448	56	6116
2026-01-26 19:39:37.20	43.91	5.95	-41.5	-43.0	19.3	0.00e+00	0	29	0	104857600	56	6430
2026-01-26 19:39:38.21	43.80	6.00	-41.0	-42.4	19.6	0.00e+00	51	29	0	106954752	56	5976
2026-01-26 19:39:39.22	43.68	6.05	-41.3	-42.8	19.2	0.00e+00	0	29	0	109051904	56	6268
2026-01-26 19:39:40.23	43.57	6.10	-41.2	-42.7	19.3	0.00e+00	88	29	0	111149056	56	6202
2026-01-26 19:39:41.24	43.45	6.15	-41.6	-43.1	19.0	0.00e+00	0	29	0	112197632	56	6536
2026-01-26 19:39:42.24	43.34	6.20	-41.2	-42.6	19.5	0.00e+00	92	29	0	114294784	56	6171
2026-01-26 19:39:43.26	43.22	6.25	-41.2	-42.6	19.5	0.00e+00	79	29	0	116391936	56	6153
2026-01-26 19:39:44.27	43.10	6.30	-40.8	-42.2	19.9	0.00e+00	0	29	0	118489088	56	5887
2026-01-26 19:39:45.27	42.98	6.35	-41.1	-42.6	19.5	0.00e+00	92	29	0	120586240	56	6135
2026-01-26 19:39:46.28	42.86	6.41	-40.8	-42.2	19.6	0.00e+00	0	29	0	121634816	56	5866
2026-01-26 19:39:47.29	42.74	6.46	-40.7	-42.1	19.9	0.00e+00	78	29	0	123731968	54	6503
2026-01-26 19:39:48.30	42.62	6.51	-40.7	-42.0	19.9	0.00e+00	0	29	0	125829120	54	6444
2026-01-26 19:39:49.31	42.50	6.56	-40.5	-41.9	20.1	0.00e+00	78	29	0	127926272	54	6323
2026-01-26 19:39:50.32	42.38	6.61	-40.8	-42.1	20.0	0.00e+00	0	29	0	130023424	54	6527
2026-01-26 19:39:51.33	42.26	6.66	-40.9	-42.3	19.9	0.00e+00	0	29	0	131072000	54	6633
2026-01-26 19:39:52.34	42.14	6.71	-40.8	-42.2	19.9	0.00e+00	92	29	0	133169152	54	6555
2026-01-26 19:39:53.35	42.02	6.76	-40.9	-42.3	19.8	0.00e+00	0	29	0	135266304	54	6680
2026-01-26 19:39:54.36	41.90	6.81	-41.2	-42.6	19.5	0.00e+00	50	29	0	137363456	54	6922
2026-01-26 19:39:55.37	41.78	6.86	-41.0	-42.5	19.8	0.00e+00	0	29	0	139460608	54	6775
2026-01-26 19:39:56.38	41.65	6.91	-41.2	-42.6	19.6	0.00e+00	90	29	0	140509184	54	6871
2026-01-26 19:39:57.39	41.53	6.96	-41.1	-42.5	19.7	0.00e+00	0	29	0	142606336	54	6808
2026-01-26 19:39:58.39	41.41	7.01	-41.0	-42.5	19.7	0.00e+00	12	29	0	144703488	54	6781
2026-01-26 19:39:59.40	41.28	7.06	-41.2	-42.7	19.4	0.00e+00	77	29	0	146800640	54	6973
2026-01-26 19:40:00.41	41.16	7.11	-41.2	-42.6	19.4	0.00e+00	0	29	0	148897792	54	6924
2026-01-26 19:40:01.42	41.03	7.17	-41.2	-42.7	19.5	0.00e+00	78	29	0	149946368	54	6929
2026-01-26 19:40:02.43	40.91	7.22	-41.0	-42.5	19.8	0.00e+00	0	29	0	152043520	54	6783
2026-01-26 19:40:03.45	40.78	7.27	-41.3	-42.8	19.4	0.00e+00	92	29	0	154140672	54	7066
2026-01-26 19:40:04.45	40.65	7.32	-41.4	-42.9	19.3	0.00e+00	0	29	0	156237824	54	7168
2026-01-26 19:40:05.46	40.53	7.37	-41.4	-42.9	19.3	0.00e+00	83	29	0	158334976	54	7120
2026-01-26 19:40:06.47	40.40	7.42	-41.3	-42.8	19.4	0.00e+00	0	29	0	160432128	54	7047
2026-01-26 19:40:07.48	40.27	7.47	-41.4	-42.9	19.5	0.00e+00	0	29	0	161480704	54	7107
2026-01-26 19:40:08.49	40.14	7.52	-41.3	-42.7	19.5	0.00e+00	43	29	0	163577856	54	6990
2026-01-26 19:40:09.50	40.02	7.57	-41.2	-42.7	19.6	0.00e+00	0	29	0	165675008	54	6968
2026-01-26 19:40:10.50	39.89	7.62	-40.7	-42.1	20.1	0.00e+00	92	29	0	167772160	54	6479
2026-01-26 19:40:11.52	39.76	7.67	-40.7	-42.1	20.0	0.00e+00	0	29	0	169869312	54	6504
2026-01-26 19:40:12.53	39.63	7.72	-40.6	-41.9	20.2	0.00e+00	72	29	0	170917888	54	6384
2026-01-26 19:40:13.53	39.50	7.77	-40.8	-42.2	20.0	0.00e+00	0	29	0	173015040	54	6561
2026-01-26 19:40:14.54	39.37	7.82	-40.8	-42.2	20.1	0.00e+00	0	29	0	175112192	54	6565
2026-01-26 19:40:15.55	39.23	7.87	-40.9	-42.2	19.8	0.00e+00	75	29	0	177209344	54	6598
2026-01-26 19:40:16.57	39.10	7.92	-40.9	-42.3	19.9	0.00e+00	0	29	0	179306496	54	6651
2026-01-26 19:40:17.57	38.97	7.97	-40.8	-42.2	20.1	0.00e+00	81	29	0	180355072	54	6552
2026-01-26 19:40:18.59	38.84	8.02	-40.6	-41.9	20.3	0.00e+00	0	29	0	182452224	54	6334
2026-01-26 19:40:19.59	38.70	8.07	-40.6	-41.9	20.2	0.00e+00	56	29	0	184549376	54	6386
2026-01-26 19:40:20.60	38.57	8.12	-40.5	-41.8	20.4	0.00e+00	0	29	0	186646528	54	6271
2026-01-26 19:40:21.61	38.44	8.17	-40.7	-42.0	20.2	0.00e+00	0	29	0	188743680	54	6442
2026-01-26 19:40:22.62	38.30	8.22	-40.8	-42.2	20.1	0.00e+00	92	29	0	189792256	54	6559
2026-01-26 19:40:23.63	38.17	8.27	-40.7	-42.1	20.2	0.00e+00	0	29	0	191889408	54	6480
2026-01-26 19:40:24.64	38.03	8.32	-40.8	-42.2	20.1	0.00e+00	89	29	0	193986560	54	6543
2026-01-26 19:40:25.65	37.89	8.36	-40.9	-42.3	19.9	0.00e+00	0	29	0	196083712	54	6656
2026-01-26 19:40:26.66	37.76	8.41	-41.0	-42.4	19.8	0.00e+00	80	29	0	198180864	54	6722
2026-01-26 19:40:27.66	37.62	8.46	-41.1	-42.6	19.7	0.00e+00	0	29	0	199229440	54	6888
2026-01-26 19:40:28.67	37.48	8.51	-41.2	-42.7	19.6	0.00e+00	0	29	0	201326592	54	6979
2026-01-26 19:40:29.68	37.35	8.56	-41.2	-42.7	19.6	0.00e+00	92	29	0	203423744	54	7006
2026-01-26 19:40:30.69	37.21	8.61	-41.2	-42.7	19.6	0.00e+00	0	29	0	205520896	54	6999
2026-01-26 19:40:31.70	37.07	8.66	-41.3	-42.8	19.7	0.00e+00	74	29	0	207618048	54	7023
2026-01-26 19:40:32.71	36.93	8.71	-41.1	-42.5	19.7	0.00e+00	0	29	0	208666624	54	6834
2026-01-26 19:40:33.72	36.79	8.76	-41.0	-42.4	19.8	0.00e+00	86	29	0	210763776	54	6766
2026-01-26 19:40:34.73	36.65	8.81	-40.8	-42.2	20.0	0.00e+00	0	29	0	212860928	54	6601
2026-01-26 19:40:35.74	36.51	8.86	-40.9	-42.3	20.0	0.00e+00	0	29	0	214958080	54	6642
2026-01-26 19:40:36.75	36.37	8.90	-40.8	-42.1	20.2	0.00e+00	58	29	0	217055232	54	6502
2026-01-26 19:40:37.76	36.22	8.95	-40.7	-42.1	20.2	0.00e+00	0	29	0	218103808	54	6482
2026-01-26 19:40:38.77	36.08	9.00	-40.6	-42.0	20.3	0.00e+00	77	29	0	220200960	54	6409
2026-01-26 19:40:39.78	35.94	9.05	-40.7	-42.0	20.3	0.00e+00	0	29	0	222298112	54	6424
2026-01-26 19:40:40.79	35.79	9.10	-40.7	-42.1	20.2	0.00e+00	85	29	0	224395264	54	6490
2026-01-26 19:40:41.80	35.65	9.15	-40.6	-42.0	20.3	0.00e+00	0	29	0	226492416	54	6411
2026-01-26 19:40:42.80	35.51	9.19	-40.3	-41.6	20.6	0.00e+00	14	29	0	228589568	54	6167
2026-01-26 19:40:43.82	35.36	9.24	-40.2	-41.5	20.7	0.00e+00	28	29	0	229638144	54	6059
2026-01-26 19:40:44.83	35.22	9.29	-40.1	-41.3	21.0	0.00e+00	0	29	0	231735296	54	5961
2026-01-26 19:40:45.83	35.07	9.34	-39.8	-41.0	21.3	0.00e+00	3	29	0	233832448	54	5716
2026-01-26 19:40:46.84	34.93	9.39	-40.1	-41.3	21.1	0.00e+00	0	29	0	235929600	52	6640
2026-01-26 19:40:47.85	34.78	9.43	-39.8	-41.0	21.2	0.00e+00	79	29	0	238026752	52	6422
2026-01-26 19:40:48.86	34.63	9.48	-39.9	-41.1	21.1	0.00e+00	0	29	0	239075328	52	6475
2026-01-26 19:40:49.87	34.48	9.53	-40.2	-41.4	20.9	0.00e+00	84	29	0	241172480	52	6752
2026-01-26 19:40:50.88	34.34	9.58	-40.0	-41.2	21.2	0.00e+00	0	29	0	243269632	52	6602
2026-01-26 19:40:51.89	34.19	9.63	-39.6	-40.8	21.4	0.00e+00	0	29	0	245366784	52	6256
2026-01-26 19:40:52.90	34.04	9.67	-39.5	-40.6	21.6	0.00e+00	76	29	0	247463936	52	6136
2026-01-26 19:40:53.91	33.89	9.72	-39.3	-40.4	21.2	0.00e+00	0	29	0	248512512	52	5981
2026-01-26 19:40:54.92	33.74	9.77	-39.1	-40.2	21.9	0.00e+00	92	29	0	250609664	52	5845
2026-01-26 19:40:55.93	33.59	9.81	-39.1	-40.2	21.8	0.00e+00	0	29	0	252706816	52	5871
2026-01-26 19:40:56.94	33.44	9.86	-39.1	-40.1	22.1	0.00e+00	92	29	0	254803968	52	5812
2026-01-26 19:40:57.95	33.28	9.91	-38.9	-40.0	22.1	0.00e+00	79	29	0	256901120	52	5711
2026-01-26 19:40:58.95	33.13	9.95	-38.7	-39.7	22.4	0.00e+00	0	29	0	257949696	52	5538
2026-01-26 19:40:59.96	32.98	10.00	-38.8	-39.8	22.2	0.00e+00	51	29	0	260046848	50	6268
2026-01-26 19:41:00.97	32.83	10.05	-38.9	-40.0	22.1	0.00e+00	0	29	0	262144000	50	6419
2026-01-26 19:41:01.98	32.67	10.09	-39.0	-40.1	21.9	0.00e+00	90	29	0	264241152	50	6503
2026-01-26 19:41:02.99	32.52	10.14	-39.2	-40.3	21.7	0.00e+00	0	29	0	266338304	50	6679
2026-01-26 19:41:04.00	32.36	10.19	-39.6	-40.7	21.4	0.00e+00	0	29	0	267386880	50	6977
2026-01-26 19:41:05.01	32.21	10.23	-39.8	-41.0	21.3	0.00e+00	0	29	0	269484032	50	7219
2026-01-26 19:41:06.02	32.05	10.28	-39.8	-41.0	21.2	0.00e+00	0	29	0	271581184	52	6428
2026-01-26 19:41:07.03	31.90	10.32	-39.9	-41.1	21.2	0.00e+00	33	29	0	273678336	52	6521
2026-01-26 19:41:08.04	31.74	10.37	-39.7	-40.9	21.3	0.00e+00	0	29	0	275775488	52	6354
2026-01-26 19:41:09.05	31.58	10.42	-39.5	-40.6	21.5	0.00e+00	58	29	0	276824064	52	6137
2026-01-26 19:41:10.06	31.43	10.46	-39.3	-40.4	21.7	0.00e+00	0	29	0	278921216	52	6016
2026-01-26 19:41:11.07	31.27	10.51	-39.5	-40.6	21.7	0.00e+00	0	29	0	281018368	52	6138
2026-01-26 19:41:12.07	31.11	10.55	-39.2	-40.3	21.7	0.00e+00	0	29	0	283115520	52	5932
2026-01-26 19:41:13.08	30.95	10.60	-39.0	-40.0	22.0	0.00e+00	0	29	0	285212672	52	5744
2026-01-26 19:41:14.09	30.79	10.64	-38.9	-39.9	22.2	0.00e+00	49	29	0	286261248	52	5691
2026-01-26 19:41:15.10	30.63	10.69	-38.7	-39.7	22.3	0.00e+00	0	29	0	288358400	50	6234
2026-01-26 19:41:16.11	30.47	10.73	-38.4	-39.3	22.6	0.00e+00	58	29	0	290455552	50	5954
2026-01-26 19:41:17.12	30.31	10.78	-38.3	-39.3	22.7	0.00e+00	0	29	0	292552704	50	5903
2026-01-26 19:41:18.13	30.15	10.82	-38.1	-39.1	22.8	0.00e+00	0	29	0	294649856	50	5791
2026-01-26 19:41:19.14	29.99	10.86	-38.2	-39.2	22.8	0.00e+00	0	29	0	295698432	50	5830
2026-01-26 19:41:20.15	29.82	10.91	-38.2	-39.1	22.8	0.00e+00	0	29	0	297795584	50	5811
2026-01-26 19:41:21.16	29.66	10.95	-38.1	-39.1	22.9	0.00e+00	0	29	0	299892736	50	5767
2026-01-26 19:41:22.16	29.50	11.00	-38.1	-39.1	22.9	0.00e+00	0	29	0	301989888	50	5772
2026-01-26 19:41:23.17	29.33	11.04	-38.2	-39.2	22.7	0.00e+00	92	29	0	304087040	50	5859
2026-01-26 19:41:24.18	29.17	11.08	-38.2	-39.1	22.8	0.00e+00	0	29	0	305135616	50	5815
2026-01-26 19:41:25.19	29.00	11.13	-38.4	-39.3	22.6	0.00e+00	33	29	0	307232768	50	5961
2026-01-26 19:41:26.20	28.84	11.17	-38.5	-39.5	22.4	0.00e+00	0	29	0	309329920	50	6091
2026-01-26 19:41:27.21	28.67	11.21	-38.6	-39.7	22.4	0.00e+00	0	29	0	311427072	50	6194
2026-01-26 19:41:28.22	28.51	11.26	-38.7	-39.7	22.3	0.00e+00	0	29	0	313524224	50	6201
2026-01-26 19:41:29.23	28.34	11.30	-38.3	-39.3	22.6	0.00e+00	0	29	0	314572800	50	5912
2026-01-26 19:41:30.24	28.17	11.34	-38.3	-39.2	22.8	0.00e+00	88	29	0	316669952	50	5878
2026-01-26 19:41:31.25	28.00	11.38	-37.9	-38.8	23.1	0.00e+00	0	29	0	318767104	50	5590
2026-01-26 19:41:32.26	27.84	11.43	-37.8	-38.7	22.7	0.00e+00	92	29	0	320864256	50	5521
2026-01-26 19:41:33.26	27.67	11.47	-37.7	-38.6	23.1	0.00e+00	0	29	0	322961408	48	6135
2026-01-26 19:41:34.27	27.50	11.51	-37.9	-38.8	23.0	0.00e+00	0	29	0	325058560	48	6298
2026-01-26 19:41:35.28	27.33	11.55	-37.9	-38.8	23.1	0.00e+00	0	29	0	326107136	48	6294
2026-01-26 19:41:36.29	27.16	11.59	-38.0	-38.9	22.9	0.00e+00	0	29	0	328204288	48	6352
2026-01-26 19:41:37.30	26.99	11.63	-38.0	-38.9	23.0	0.00e+00	77	29	0	330301440	48	6371
2026-01-26 19:41:38.31	26.81	11.67	-38.1	-39.1	22.9	0.00e+00	0	29	0	332398592	48	6491
2026-01-26 19:41:39.32	26.64	11.72	-38.3	-39.3	22.7	0.00e+00	92	29	0	334495744	48	6669
2026-01-26 19:41:40.33	26.47	11.76	-38.4	-39.4	22.7	0.00e+00	0	30	0	335544320	48	6707
2026-01-26 19:41:41.34	26.30	11.80	-38.5	-39.5	22.6	0.00e+00	0	29	0	337641472	48	6798
2026-01-26 19:41:42.35	26.12	11.84	-38.5	-39.6	22.6	0.00e+00	0	29	0	339738624	48	6874
2026-01-26 19:41:43.36	25.95	11.88	-38.5	-39.5	22.5	0.00e+00	0	29	0	341835776	48	6808
2026-01-26 19:41:44.37	25.78	11.92	-38.7	-39.7	22.4	0.00e+00	8	29	0	343932928	48	6969
2026-01-26 19:41:45.38	25.60	11.96	-38.7	-39.7	22.0	0.00e+00	0	29	0	344981504	48	6984
2026-01-26 19:41:46.39	25.43	12.00	-38.8	-39.8	22.3	0.00e+00	50	29	0	347078656	50	6274
2026-01-26 19:41:47.40	25.25	12.04	-38.8	-39.8	22.3	0.00e+00	0	29	0	349175808	50	6298
2026-01-26 19:41:48.41	25.07	12.08	-38.5	-39.4	22.7	0.00e+00	0	29	0	351272960	50	6032
2026-01-26 19:41:49.42	24.90	12.12	-38.5	-39.5	22.6	0.00e+00	0	29	0	353370112	50	6082
2026-01-26 19:41:50.43	24.72	12.15	-38.4	-39.4	22.7	0.00e+00	0	29	0	354418688	50	5971
2026-01-26 19:41:51.43	24.54	12.19	-38.4	-39.4	22.7	0.00e+00	3	29	0	356515840	50	5978
2026-01-26 19:41:52.44	24.36	12.23	-38.8	-39.8	22.4	0.00e+00	0	29	0	358612992	50	6307
2026-01-26 19:41:53.45	24.19	12.27	-39.0	-40.0	22.2	0.00e+00	92	29	0	360710144	50	6455
2026-01-26 19:41:54.46	24.01	12.31	-39.1	-40.2	22.0	0.00e+00	0	30	0	362807296	50	6588
2026-01-26 19:41:55.47	23.83	12.34	-39.0	-40.1	22.2	0.00e+00	0	29	0	363855872	50	6501
2026-01-26 19:41:56.48	23.65	12.38	-39.1	-40.2	22.1	0.00e+00	0	29	0	365953024	50	6548
2026-01-26 19:41:57.49	23.47	12.42	-39.0	-40.1	22.1	0.00e+00	0	30	0	368050176	50	6519
2026-01-26 19:41:58.50	23.28	12.46	-38.7	-39.7	22.4	0.00e+00	65	29	0	370147328	50	6212
2026-01-26 19:41:59.51	23.10	12.49	-38.8	-39.9	22.3	0.00e+00	0	29	0	372244480	50	6322
2026-01-26 19:42:00.52	22.92	12.53	-38.6	-39.6	22.4	0.00e+00	71	29	0	373293056	50	6119
2026-01-26 19:42:01.53	22.74	12.57	-38.5	-39.5	22.4	0.00e+00	0	29	0	375390208	50	6095
2026-01-26 19:42:02.54	22.56	12.60	-38.4	-39.3	22.7	0.00e+00	6	30	0	377487360	50	5960
2026-01-26 19:42:03.55	22.37	12.64	-38.2	-39.1	22.9	0.00e+00	0	30	0	379584512	50	5824
2026-01-26 19:42:04.56	22.19	12.67	-38.3	-39.3	22.7	0.00e+00	0	30	0	381681664	50	5911
2026-01-26 19:42:05.57	22.00	12.71	-38.3	-39.2	22.8	0.00e+00	73	30	0	382730240	50	5893
2026-01-26 19:42:06.58	21.82	12.75	-38.5	-39.5	22.5	0.00e+00	0	30	0	384827392	50	6070
2026-01-26 19:42:07.59	21.63	12.78	-38.5	-39.5	22.5	0.00e+00	72	29	0	386924544	50	6067
2026-01-26 19:42:08.60	21.45	12.81	-38.6	-39.6	22.6	0.00e+00	0	29	0	389021696	50	6127
2026-01-26 19:42:09.61	21.26	12.85	-38.6	-39.6	22.5	0.00e+00	15	29	0	391118848	50	6142
2026-01-26 19:42:10.62	21.08	12.88	-38.4	-39.4	22.7	0.00e+00	0	30	0	393216000	50	6017
2026-01-26 19:42:11.63	20.89	12.92	-38.4	-39.3	22.7	0.00e+00	0	29	0	394264576	50	5962
2026-01-26 19:42:12.64	20.70	12.95	-38.2	-39.1	22.9	0.00e+00	0	30	0	396361728	50	5827
2026-01-26 19:42:13.65	20.51	12.98	-38.1	-39.0	22.8	0.00e+00	0	30	0	398458880	50	5760
2026-01-26 19:42:14.65	20.33	13.02	-38.1	-39.1	22.9	0.00e+00	73	29	0	400556032	50	5783
2026-01-26 19:42:15.66	20.14	13.05	-38.2	-39.1	22.9	0.00e+00	0	29	0	402653184	50	5814
2026-01-26 19:42:16.67	19.95	13.08	-38.4	-39.4	22.7	0.00e+00	80	30	0	403701760	50	5966
2026-01-26 19:42:17.68	19.76	13.12	-38.5	-39.6	22.6	0.00e+00	0	29	0	405798912	50	6108
2026-01-26 19:42:18.69	19.57	13.15	-39.0	-40.0	22.2	0.00e+00	0	29	0	407896064	50	6459
2026-01-26 19:42:19.70	19.38	13.18	-39.4	-40.5	21.9	0.00e+00	0	30	0	409993216	50	6805
2026-01-26 19:42:20.71	19.19	13.21	-39.6	-40.8	21.5	0.00e+00	0	30	0	412090368	50	7030
2026-01-26 19:42:21.72	19.00	13.24	-39.5	-40.7	21.6	0.00e+00	0	30	0	413138944	50	6982
2026-01-26 19:42:22.73	18.81	13.27	-39.3	-40.4	21.7	0.00e+00	0	30	0	415236096	50	6763
2026-01-26 19:42:23.74	18.62	13.30	-38.8	-39.8	22.4	0.00e+00	77	30	0	417333248	50	6304
2026-01-26 19:42:24.75	18.42	13.34	-38.6	-39.6	22.5	0.00e+00	0	29	0	419430400	50	6150
2026-01-26 19:42:25.75	18.23	13.37	-38.5	-39.4	22.7	0.00e+00	0	30	0	421527552	50	6033
2026-01-26 19:42:26.76	18.04	13.40	-38.4	-39.4	22.5	0.00e+00	0	30	0	422576128	50	6012
2026-01-26 19:42:27.77	17.85	13.42	-37.9	-38.8	22.9	0.00e+00	0	30	0	424673280	50	5591
2026-01-26 19:42:28.78	17.65	13.45	-37.7	-38.6	23.0	0.00e+00	73	30	0	426770432	48	6112
2026-01-26 19:42:29.79	17.46	13.48	-37.6	-38.4	23.4	0.00e+00	0	30	0	428867584	48	6027
2026-01-26 19:42:30.80	17.26	13.51	-37.3	-38.2	23.6	0.00e+00	44	30	0	430964736	48	5874
2026-01-26 19:42:31.81	17.07	13.54	-37.5	-38.4	23.4	0.00e+00	0	30	0	432013312	48	5966
2026-01-26 19:42:32.82	16.87	13.57	-37.5	-38.4	23.5	0.00e+00	0	30	0	434110464	48	6009
2026-01-26 19:42:33.83	16.68	13.60	-37.8	-38.7	23.2	0.00e+00	0	30	0	436207616	48	6233
2026-01-26 19:42:34.84	16.48	13.62	-37.9	-38.8	23.2	0.00e+00	0	29	0	438304768	48	6284
2026-01-26 19:42:35.84	16.29	13.65	-37.8	-38.7	23.3	0.00e+00	0	29	0	440401920	48	6242
2026-01-26 19:42:36.86	16.09	13.68	-37.7	-38.6	23.5	0.00e+00	0	30	0	441450496	48	6133
2026-01-26 19:42:37.86	15.89	13.71	-37.6	-38.5	23.3	0.00e+00	92	30	0	443547648	48	6042
2026-01-26 19:42:38.87	15.69	13.73	-37.5	-38.4	23.5	0.00e+00	0	30	0	445644800	48	5972
2026-01-26 19:42:39.88	15.50	13.76	-37.6	-38.4	23.3	0.00e+00	80	29	0	447741952	48	6023
2026-01-26 19:42:40.90	15.30	13.78	-37.9	-38.8	23.0	0.00e+00	0	30	0	449839104	48	6267
2026-01-26 19:42:41.90	15.10	13.81	-37.9	-38.8	22.8	0.00e+00	0	29	0	450887680	48	6270
2026-01-26 19:42:42.91	14.90	13.83	-38.2	-39.1	22.8	0.00e+00	0	30	0	452984832	48	6528
2026-01-26 19:42:43.92	14.70	13.86	-38.6	-39.6	22.7	0.00e+00	0	30	0	455081984	48	6859
2026-01-26 19:42:44.93	14.50	13.88	-38.5	-39.5	22.6	0.00e+00	78	29	0	457179136	50	6048
2026-01-26 19:42:45.94	14.30	13.91	-39.0	-40.1	22.2	0.00e+00	0	30	0	459276288	50	6473
2026-01-26 19:42:46.95	14.10	13.93	-38.8	-39.8	22.4	0.00e+00	39	30	0	461373440	50	6253
2026-01-26 19:42:47.96	13.90	13.95	-38.8	-39.8	22.4	0.00e+00	0	30	0	462422016	50	6278
2026-01-26 19:42:48.97	13.70	13.98	-38.7	-39.7	22.5	0.00e+00	0	30	0	464519168	50	6200
2026-01-26 19:42:49.98	13.50	14.00	-39.0	-40.0	22.3	0.00e+00	0	30	0	466616320	50	6443
2026-01-26 19:42:50.99	13.29	14.02	-38.7	-39.7	22.4	0.00e+00	0	30	0	468713472	50	6239
2026-01-26 19:42:52.00	13.09	14.05	-38.8	-39.8	22.4	0.00e+00	78	29	0	470810624	50	6285
2026-01-26 19:42:53.01	12.89	14.07	-38.8	-39.8	22.5	0.00e+00	0	30	0	471859200	50	6275
2026-01-26 19:42:54.02	12.69	14.09	-38.8	-39.8	22.2	0.00e+00	92	30	0	473956352	50	6280
2026-01-26 19:42:55.03	12.49	14.11	-38.9	-39.9	22.2	0.00e+00	0	30	0	476053504	50	6369
2026-01-26 19:42:56.04	12.28	14.13	-39.0	-40.1	22.3	0.00e+00	0	30	0	478150656	50	6472
2026-01-26 19:42:57.05	12.08	14.15	-39.0	-40.1	22.2	0.00e+00	0	30	0	480247808	50	6505
2026-01-26 19:42:58.06	11.87	14.17	-39.0	-40.1	22.2	0.00e+00	0	29	0	481296384	50	6504
2026-01-26 19:42:59.07	11.67	14.19	-39.0	-40.1	22.2	0.00e+00	53	30	0	483393536	50	6471
2026-01-26 19:43:00.08	11.47	14.21	-39.0	-40.1	22.2	0.00e+00	0	29	0	485490688	50	6521
2026-01-26 19:43:01.09	11.26	14.23	-39.0	-40.1	22.1	0.00e+00	48	30	0	487587840	50	6482
2026-01-26 19:43:02.10	11.06	14.25	-38.9	-39.9	22.3	0.00e+00	0	30	0	489684992	50	6347
2026-01-26 19:43:03.11	10.85	14.27	-38.5	-39.5	22.7	0.00e+00	0	30	0	490733568	50	6054
2026-01-26 19:43:04.12	10.65	14.28	-38.5	-39.5	22.7	0.00e+00	0	30	0	492830720	50	6069
2026-01-26 19:43:05.13	10.44	14.30	-38.4	-39.3	22.9	0.00e+00	0	30	0	494927872	50	5949
2026-01-26 19:43:06.14	10.24	14.32	-38.1	-39.0	23.0	0.00e+00	18	30	0	497025024	50	5727
2026-01-26 19:43:07.15	10.03	14.34	-37.9	-38.9	23.1	0.00e+00	0	30	0	499122176	50	5632
2026-01-26 19:43:08.15	9.82	14.35	-37.9	-38.9	23.0	0.00e+00	92	30	0	500170752	50	5635
2026-01-26 19:43:09.16	9.62	14.37	-37.9	-38.8	23.2	0.00e+00	0	29	0	502267904	50	5599
2026-01-26 19:43:10.17	9.41	14.39	-38.1	-39.0	22.9	0.00e+00	0	30	0	504365056	50	5756
2026-01-26 19:43:11.18	9.20	14.40	-38.1	-39.0	23.0	0.00e+00	0	30	0	506462208	50	5747
2026-01-26 19:43:12.19	9.00	14.42	-38.1	-39.1	23.0	0.00e+00	33	30	0	508559360	50	5791
2026-01-26 19:43:13.20	8.79	14.43	-38.3	-39.2	22.8	0.00e+00	65	30	0	509607936	50	5883
2026-01-26 19:43:14.21	8.58	14.45	-38.4	-39.3	22.7	0.00e+00	0	29	0	511705088	50	5956
2026-01-26 19:43:15.22	8.37	14.46	-38.3	-39.3	22.8	0.00e+00	90	30	0	513802240	50	5936
2026-01-26 19:43:16.23	8.17	14.47	-38.6	-39.5	22.6	0.00e+00	0	30	0	515899392	50	6102
2026-01-26 19:43:17.24	7.96	14.49	-38.4	-39.3	22.9	0.00e+00	46	30	0	517996544	50	5960
2026-01-26 19:43:18.25	7.75	14.50	-38.2	-39.1	22.9	0.00e+00	0	30	0	519045120	50	5819
2026-01-26 19:43:19.26	7.54	14.51	-38.0	-38.9	22.8	0.00e+00	0	30	0	521142272	50	5679
2026-01-26 19:43:20.27	7.33	14.52	-38.1	-39.0	23.0	0.00e+00	0	30	0	523239424	50	5729
2026-01-26 19:43:21.28	7.12	14.54	-38.0	-39.0	23.0	0.00e+00	0	30	0	525336576	50	5702
2026-01-26 19:43:22.29	6.91	14.55	-38.2	-39.1	23.0	0.00e+00	45	30	0	527433728	50	5806
2026-01-26 19:43:23.30	6.71	14.56	-38.3	-39.2	22.9	0.00e+00	0	30	0	529530880	50	5883
2026-01-26 19:43:24.31	6.50	14.57	-38.2	-39.2	22.9	0.00e+00	78	30	0	530579456	50	5834
2026-01-26 19:43:25.32	6.29	14.58	-38.3	-39.2	22.9	0.00e+00	0	30	0	532676608	50	5891
2026-01-26 19:43:26.33	6.08	14.59	-38.5	-39.5	22.6	0.00e+00	0	30	0	534773760	50	6062
2026-01-26 19:43:27.33	5.87	14.60	-38.7	-39.7	22.5	0.00e+00	0	30	0	536870912	50	6225
2026-01-26 19:43:28.35	5.66	14.61	-38.9	-39.9	22.2	0.00e+00	0	30	0	538968064	50	6373
2026-01-26 19:43:29.35	5.45	14.62	-38.7	-39.7	22.5	0.00e+00	13	30	0	540016640	50	6209
2026-01-26 19:43:30.36	5.24	14.63	-38.5	-39.5	22.7	0.00e+00	0	29	0	542113792	50	6085
2026-01-26 19:43:31.37	5.03	14.63	-38.4	-39.4	22.8	0.00e+00	57	30	0	544210944	50	5994
2026-01-26 19:43:32.38	4.82	14.64	-38.5	-39.5	22.7	0.00e+00	0	29	0	546308096	50	6101
2026-01-26 19:43:33.39	4.61	14.65	-38.4	-39.4	22.8	0.00e+00	0	30	0	547356672	50	6014
2026-01-26 19:43:34.40	4.40	14.65	-38.4	-39.4	22.8	0.00e+00	0	30	0	549453824	50	5982
2026-01-26 19:43:35.41	4.19	14.66	-38.5	-39.5	22.8	0.00e+00	0	29	0	551550976	50	6036
2026-01-26 19:43:36.42	3.98	14.67	-38.4	-39.4	22.7	0.00e+00	79	29	0	553648128	50	6012
2026-01-26 19:43:37.43	3.76	14.67	-38.5	-39.5	22.6	0.00e+00	0	30	0	555745280	50	6061
2026-01-26 19:43:38.44	3.55	14.68	-38.6	-39.6	22.5	0.00e+00	58	30	0	557842432	50	6113
2026-01-26 19:43:39.45	3.34	14.68	-38.7	-39.7	22.5	0.00e+00	0	30	0	558891008	50	6195
2026-01-26 19:43:40.46	3.13	14.69	-38.2	-39.2	22.9	0.00e+00	0	30	0	560988160	50	5876
2026-01-26 19:43:41.47	2.92	14.69	-38.2	-39.1	22.9	0.00e+00	0	30	0	563085312	50	5823
2026-01-26 19:43:42.48	2.71	14.70	-38.1	-39.1	23.0	0.00e+00	0	30	0	565182464	50	5787
2026-01-26 19:43:43.49	2.50	14.70	-38.3	-39.3	22.9	0.00e+00	72	30	0	567279616	50	5910
2026-01-26 19:43:44.50	2.29	14.70	-38.4	-39.3	22.8	0.00e+00	0	30	0	568328192	50	5952
2026-01-26 19:43:45.51	2.08	14.70	-38.6	-39.6	22.6	0.00e+00	68	30	0	570425344	50	6121
2026-01-26 19:43:46.52	1.86	14.71	-38.7	-39.7	22.4	0.00e+00	0	30	0	572522496	50	6204
2026-01-26 19:43:47.52	1.65	14.71	-38.8	-39.8	22.6	0.00e+00	38	30	0	574619648	50	6296
2026-01-26 19:43:48.53	1.44	14.71	-38.7	-39.8	22.5	0.00e+00	0	30	0	576716800	50	6247
2026-01-26 19:43:49.54	1.23	14.71	-38.6	-39.6	22.6	0.00e+00	0	30	0	577765376	50	6116
2026-01-26 19:43:50.55	1.02	14.71	-38.4	-39.4	22.8	0.00e+00	72	30	0	579862528	50	5967
2026-01-26 19:43:51.55	0.81	14.71	-38.2	-39.2	23.0	0.00e+00	0	30	0	581959680	50	5858
2026-01-26 19:43:52.56	0.60	14.71	-37.9	-38.9	23.1	0.00e+00	75	30	0	584056832	50	5636
2026-01-26 19:43:53.57	0.39	14.71	-37.9	-38.9	23.3	0.00e+00	0	30	0	586153984	50	5635
2026-01-26 19:43:54.58	0.18	14.71	-37.7	-38.6	23.4	0.00e+00	67	30	0	587202560	50	5488
2026-01-26 19:43:55.59	359.96	14.71	-37.9	-38.8	23.2	0.00e+00	0	30	0	589299712	48	6276
2026-01-26 19:43:56.60	359.75	14.71	-37.7	-38.7	23.3	0.00e+00	0	30	0	591396864	48	6187
2026-01-26 19:43:57.61	359.54	14.71	-38.0	-38.9	23.1	0.00e+00	0	30	0	593494016	48	6363
2026-01-26 19:43:58.62	359.33	14.70	-37.9	-38.9	23.1	0.00e+00	0	30	0	595591168	48	6349
2026-01-26 19:43:59.63	359.12	14.70	-38.1	-39.0	22.9	0.00e+00	38	30	0	596639744	48	6444
2026-01-26 19:44:00.64	358.91	14.70	-38.2	-39.2	22.9	0.00e+00	0	30	0	598736896	48	6567
2026-01-26 19:44:01.65	358.70	14.69	-38.4	-39.4	22.7	0.00e+00	92	30	0	600834048	48	6724
2026-01-26 19:44:02.66	358.49	14.69	-38.5	-39.5	22.6	0.00e+00	0	30	0	602931200	48	6827
2026-01-26 19:44:03.67	358.27	14.68	-38.6	-39.6	22.5	0.00e+00	0	30	0	605028352	48	6916
2026-01-26 19:44:04.68	358.06	14.68	-38.7	-39.7	22.4	0.00e+00	0	30	0	606076928	48	6981
2026-01-26 19:44:05.68	357.85	14.67	-38.7	-39.7	22.4	0.00e+00	0	30	0	608174080	50	6225
2026-01-26 19:44:06.69	357.64	14.67	-38.8	-39.8	22.4	0.00e+00	74	30	0	610271232	50	6292
2026-01-26 19:44:07.70	357.43	14.66	-38.9	-39.9	21.7	0.00e+00	0	30	0	612368384	50	6376
2026-01-26 19:44:08.71	357.22	14.66	-39.1	-40.1	22.0	0.00e+00	90	30	0	614465536	50	6533
2026-01-26 19:44:09.72	357.01	14.65	-39.1	-40.1	22.1	0.00e+00	0	30	0	615514112	50	6525
2026-01-26 19:44:10.73	356.80	14.64	-39.3	-40.4	21.8	0.00e+00	0	30	0	617611264	50	6765
2026-01-26 19:44:11.74	356.59	14.64	-39.4	-40.5	21.9	0.00e+00	0	30	0	619708416	50	6801
2026-01-26 19:44:12.75	356.38	14.63	-38.7	-39.8	22.4	0.00e+00	0	30	0	621805568	50	6246
2026-01-26 19:44:13.76	356.17	14.62	-38.7	-39.8	22.4	0.00e+00	77	30	0	623902720	50	6266
2026-01-26 19:44:14.77	355.96	14.61	-38.5	-39.5	22.7	0.00e+00	0	30	0	624951296	50	6061
2026-01-26 19:44:15.78	355.75	14.60	-38.5	-39.5	22.6	0.00e+00	92	30	0	627048448	50	6091
2026-01-26 19:44:16.79	355.54	14.59	-38.5	-39.5	22.6	0.00e+00	0	30	0	629145600	50	6070
2026-01-26 19:44:17.80	355.33	14.58	-38.3	-39.3	22.8	0.00e+00	0	30	0	631242752	50	5912
2026-01-26 19:44:18.81	355.12	14.57	-38.2	-39.1	22.9	0.00e+00	0	30	0	633339904	50	5820
2026-01-26 19:44:19.82	354.91	14.56	-38.3	-39.3	22.8	0.00e+00	0	30	0	635437056	50	5933
2026-01-26 19:44:20.83	354.70	14.55	-38.4	-39.4	22.7	0.00e+00	41	30	0	636485632	50	5996
2026-01-26 19:44:21.84	354.49	14.54	-38.1	-39.0	23.1	0.00e+00	0	30	0	638582784	50	5736
2026-01-26 19:44:22.85	354.28	14.53	-38.2	-39.1	22.9	0.00e+00	92	30	0	640679936	50	5820
2026-01-26 19:44:23.85	354.08	14.52	-38.6	-39.6	22.5	0.00e+00	0	30	0	642777088	50	6130
2026-01-26 19:44:24.86	353.87	14.50	-38.5	-39.5	22.6	0.00e+00	60	30	0	644874240	50	6037
2026-01-26 19:44:25.87	353.66	14.49	-38.4	-39.4	22.8	0.00e+00	0	30	0	645922816	50	5970
2026-01-26 19:44:26.88	353.45	14.48	-38.5	-39.5	22.8	0.00e+00	0	30	0	648019968	50	6060
2026-01-26 19:44:27.89	353.24	14.46	-38.0	-39.0	23.0	0.00e+00	17	30	0	650117120	50	5723
2026-01-26 19:44:28.90	353.04	14.45	-38.0	-39.0	23.1	0.00e+00	0	30	0	652214272	50	5698
2026-01-26 19:44:29.91	352.83	14.44	-37.7	-38.6	23.4	0.00e+00	75	30	0	654311424	48	6133
2026-01-26 19:44:30.92	352.62	14.42	-37.7	-38.7	23.3	0.00e+00	0	30	0	655360000	48	6189
2026-01-26 19:44:31.93	352.41	14.41	-37.7	-38.6	23.3	0.00e+00	81	30	0	657457152	48	6116
2026-01-26 19:44:32.94	352.21	14.39	-37.9	-38.9	23.1	0.00e+00	0	30	0	659554304	48	6330
2026-01-26 19:44:33.95	352.00	14.37	-38.2	-39.1	22.9	0.00e+00	0	30	0	661651456	48	6517
2026-01-26 19:44:34.96	351.79	14.36	-38.4	-39.4	22.5	0.00e+00	0	30	0	663748608	48	6766
2026-01-26 19:44:35.97	351.59	14.34	-38.2	-39.2	22.8	0.00e+00	0	30	0	664797184	48	6546
2026-01-26 19:44:36.98	351.38	14.32	-38.0	-38.9	23.0	0.00e+00	74	30	0	666894336	48	6367
2026-01-26 19:44:37.99	351.18	14.31	-38.3	-39.3	22.7	0.00e+00	0	30	0	668991488	48	6676
2026-01-26 19:44:39.00	350.97	14.29	-38.4	-39.5	22.5	0.00e+00	92	30	0	671088640	48	6774
2026-01-26 19:44:40.01	350.76	14.27	-38.6	-39.6	22.6	0.00e+00	0	30	0	673185792	48	6885
2026-01-26 19:44:41.02	350.56	14.25	-38.5	-39.6	22.6	0.00e+00	0	30	0	674234368	48	6856
2026-01-26 19:44:42.03	350.35	14.24	-38.5	-39.5	22.6	0.00e+00	0	30	0	676331520	48	6840
2026-01-26 19:44:43.04	350.15	14.22	-38.8	-39.8	22.4	0.00e+00	0	30	0	678428672	50	6290
2026-01-26 19:44:44.05	349.95	14.20	-38.9	-39.9	22.3	0.00e+00	0	30	0	680525824	50	6387
2026-01-26 19:44:45.05	349.74	14.18	-38.9	-39.9	22.2	0.00e+00	0	30	0	682622976	50	6369
2026-01-26 19:44:46.06	349.54	14.16	-39.2	-40.3	22.1	0.00e+00	37	30	0	683671552	50	6670
2026-01-26 19:44:47.07	349.34	14.14	-39.3	-40.4	21.7	0.00e+00	0	30	0	685768704	50	6714
2026-01-26 19:44:48.08	349.13	14.12	-39.3	-40.4	21.8	0.00e+00	0	30	0	687865856	50	6699
2026-01-26 19:44:49.09	348.93	14.10	-38.8	-39.9	22.4	0.00e+00	0	30	0	689963008	50	6328
2026-01-26 19:44:50.10	348.73	14.07	-38.3	-39.3	22.7	0.00e+00	0	30	0	692060160	50	5960
2026-01-26 19:44:51.11	348.53	14.05	-38.2	-39.1	22.9	0.00e+00	20	30	0	694157312	50	5828
2026-01-26 19:44:52.12	348.32	14.03	-38.0	-39.0	23.1	0.00e+00	0	30	0	695205888	50	5730
2026-01-26 19:44:53.13	348.12	14.01	-38.0	-39.0	23.1	0.00e+00	46	30	0	697303040	50	5699
2026-01-26 19:44:54.14	347.92	13.98	-38.2	-39.2	22.8	0.00e+00	0	30	0	699400192	50	5881
2026-01-26 19:44:55.15	347.72	13.96	-38.2	-39.1	22.9	0.00e+00	0	30	0	701497344	50	5828
2026-01-26 19:44:56.16	347.52	13.94	-38.2	-39.2	22.8	0.00e+00	33	30	0	703594496	50	5840
2026-01-26 19:44:57.17	347.32	13.91	-38.4	-39.4	22.6	0.00e+00	0	30	0	704643072	50	5968
2026-01-26 19:44:58.18	347.12	13.89	-38.4	-39.3	22.5	0.00e+00	65	30	0	706740224	50	5948
2026-01-26 19:44:59.18	346.92	13.87	-38.2	-39.2	22.9	0.00e+00	0	30	0	708837376	50	5834
2026-01-26 19:45:00.19	346.72	13.84	-37.9	-38.8	23.1	0.00e+00	72	30	0	710934528	50	5620
2026-01-26 19:45:01.20	346.52	13.82	-38.0	-39.0	23.1	0.00e+00	0	30	0	713031680	50	5713
2026-01-26 19:45:02.21	346.32	13.79	-37.8	-38.7	23.3	0.00e+00	92	30	0	714080256	48	6216
2026-01-26 19:45:03.22	346.12	13.77	-37.8	-38.7	23.3	0.00e+00	33	30	0	716177408	48	6187
2026-01-26 19:45:04.23	345.93	13.74	-37.9	-38.8	23.2	0.00e+00	0	30	0	718274560	48	6278
2026-01-26 19:45:05.24	345.73	13.71	-38.1	-39.1	22.9	0.00e+00	0	30	0	720371712	48	6480
2026-01-26 19:45:06.25	345.53	13.69	-38.2	-39.2	22.9	0.00e+00	0	30	0	722468864	48	6544
2026-01-26 19:45:07.26	345.33	13.66	-38.7	-39.7	22.4	0.00e+00	76	30	0	723517440	48	6996
2026-01-26 19:45:08.27	345.14	13.63	-39.1	-40.2	22.1	0.00e+00	0	30	0	725614592	50	6584
2026-01-26 19:45:09.28	344.94	13.61	-38.8	-39.9	22.3	0.00e+00	92	30	0	727711744	50	6321
2026-01-26 19:45:10.29	344.75	13.58	-38.7	-39.7	22.3	0.00e+00	0	30	0	729808896	50	6239
2026-01-26 19:45:11.30	344.55	13.55	-38.6	-39.6	22.5	0.00e+00	0	30	0	731906048	50	6136
2026-01-26 19:45:12.31	344.35	13.52	-38.7	-39.8	22.4	0.00e+00	0	30	0	732954624	50	6247
2026-01-26 19:45:13.32	344.16	13.49	-38.7	-39.8	22.4	0.00e+00	0	30	0	735051776	50	6260
2026-01-26 19:45:14.33	343.97	13.46	-38.7	-39.8	22.4	0.00e+00	77	30	0	737148928	50	6262
2026-01-26 19:45:15.34	343.77	13.43	-38.8	-39.8	22.3	0.00e+00	0	30	0	739246080	50	6306
2026-01-26 19:45:16.35	343.58	13.40	-38.9	-40.0	22.3	0.00e+00	84	30	0	741343232	50	6439
2026-01-26 19:45:17.36	343.38	13.37	-38.8	-39.9	22.3	0.00e+00	0	30	0	742391808	50	6335
2026-01-26 19:45:18.37	343.19	13.34	-38.9	-40.0	22.2	0.00e+00	0	30	0	744488960	50	6410
2026-01-26 19:45:19.38	343.00	13.31	-39.0	-40.0	22.2	0.00e+00	0	30	0	746586112	50	6460
2026-01-26 19:45:20.39	342.81	13.28	-38.6	-39.6	22.6	0.00e+00	0	30	0	748683264	50	6129
2026-01-26 19:45:21.40	342.62	13.25	-38.6	-39.7	22.6	0.00e+00	77	30	0	750780416	50	6188
2026-01-26 19:45:22.41	342.42	13.22	-38.5	-39.5	22.7	0.00e+00	0	30	0	751828992	50	6043
2026-01-26 19:45:23.42	342.23	13.19	-38.3	-39.3	22.8	0.00e+00	88	30	0	753926144	50	5948
2026-01-26 19:45:24.42	342.05	13.16	-38.1	-39.1	23.0	0.00e+00	0	30	0	756023296	50	5775
2026-01-26 19:45:25.43	341.86	13.13	-38.0	-39.0	23.0	0.00e+00	0	30	0	758120448	50	5718
2026-01-26 19:45:26.44	341.67	13.09	-38.0	-39.0	23.1	0.00e+00	0	30	0	760217600	50	5722
2026-01-26 19:45:27.45	341.48	13.06	-38.1	-39.1	22.9	0.00e+00	0	30	0	762314752	50	5783
2026-01-26 19:45:28.46	341.29	13.03	-38.2	-39.2	22.9	0.00e+00	0	30	0	763363328	50	5863
2026-01-26 19:45:29.47	341.10	13.00	-37.9	-38.8	23.1	0.00e+00	0	30	0	765460480	50	5609
2026-01-26 19:45:30.48	340.91	12.96	-38.1	-39.0	23.0	0.00e+00	72	30	0	767557632	50	5740
2026-01-26 19:45:31.49	340.72	12.93	-37.9	-38.8	23.2	0.00e+00	0	30	0	769654784	50	5630
2026-01-26 19:45:32.50	340.54	12.89	-37.8	-38.7	23.2	0.00e+00	0	30	0	771751936	48	6192
2026-01-26 19:45:33.51	340.35	12.86	-37.8	-38.7	23.1	0.00e+00	0	30	0	772800512	48	6230
2026-01-26 19:45:34.52	340.16	12.83	-37.7	-38.6	23.3	0.00e+00	0	30	0	774897664	48	6163
2026-01-26 19:45:35.53	339.98	12.79	-37.6	-38.5	23.4	0.00e+00	0	30	0	776994816	48	6083
2026-01-26 19:45:36.54	339.79	12.76	-37.4	-38.3	23.5	0.00e+00	0	30	0	779091968	48	5921
2026-01-26 19:45:37.55	339.61	12.72	-37.4	-38.2	23.6	0.00e+00	69	30	0	781189120	48	5893
2026-01-26 19:45:38.56	339.42	12.69	-37.7	-38.6	23.2	0.00e+00	0	30	0	782237696	48	6167
2026-01-26 19:45:39.57	339.24	12.65	-38.1	-39.0	23.0	0.00e+00	30	30	0	784334848	48	6420
2026-01-26 19:45:40.57	339.06	12.61	-38.1	-39.0	23.0	0.00e+00	0	30	0	786432000	48	6427
2026-01-26 19:45:41.58	338.88	12.58	-38.3	-39.3	22.5	0.00e+00	0	30	0	788529152	48	6625
2026-01-26 19:45:42.59	338.69	12.54	-38.5	-39.5	22.6	0.00e+00	0	29	0	790626304	48	6842
2026-01-26 19:45:43.60	338.51	12.51	-38.5	-39.6	22.5	0.00e+00	0	30	0	791674880	48	6868
2026-01-26 19:45:44.61	338.33	12.47	-38.5	-39.6	22.5	0.00e+00	82	29	0	793772032	48	6859
2026-01-26 19:45:45.62	338.15	12.43	-38.6	-39.7	22.4	0.00e+00	0	30	0	795869184	48	6936
2026-01-26 19:45:46.63	337.97	12.39	-39.0	-40.1	22.1	0.00e+00	92	30	0	797966336	50	6499
2026-01-26 19:45:47.64	337.79	12.36	-39.2	-40.3	21.9	0.00e+00	0	30	0	800063488	50	6667
2026-01-26 19:45:48.65	337.61	12.32	-39.1	-40.2	22.0	0.00e+00	0	30	0	801112064	50	6589
2026-01-26 19:45:49.66	337.43	12.28	-39.1	-40.1	22.0	0.00e+00	0	30	0	803209216	50	6530
2026-01-26 19:45:50.67	337.25	12.24	-39.1	-40.2	22.0	0.00e+00	0	30	0	805306368	50	6577
2026-01-26 19:45:51.68	337.07	12.21	-38.8	-39.9	22.2	0.00e+00	9	30	0	807403520	50	6333
2026-01-26 19:45:52.69	336.89	12.17	-39.0	-40.0	21.9	0.00e+00	0	30	0	809500672	50	6432
2026-01-26 19:45:53.70	336.72	12.13	-39.0	-40.0	22.1	0.00e+00	86	30	0	810549248	50	6453
2026-01-26 19:45:54.70	336.54	12.09	-39.0	-40.0	22.1	0.00e+00	0	30	0	812646400	50	6449
2026-01-26 19:45:55.71	336.37	12.05	-39.0	-40.0	22.0	0.00e+00	0	30	0	814743552	50	6449
2026-01-26 19:45:56.72	336.19	12.01	-38.8	-39.9	22.1	0.00e+00	0	29	0	816840704	50	6340
2026-01-26 19:45:57.73	336.01	11.97	-38.9	-39.9	22.1	0.00e+00	0	30	0	818937856	50	6349
2026-01-26 19:45:58.74	335.84	11.93	-39.0	-40.1	22.1	0.00e+00	0	30	0	819986432	50	6490
2026-01-26 19:45:59.75	335.66	11.89	-39.0	-40.1	22.1	0.00e+00	0	29	0	822083584	50	6482
2026-01-26 19:46:00.76	335.49	11.85	-38.8	-39.8	22.3	0.00e+00	83	30	0	824180736	50	6311
2026-01-26 19:46:01.77	335.32	11.81	-39.0	-40.0	22.1	0.00e+00	0	29	0	826277888	50	6440
2026-01-26 19:46:02.78	335.14	11.77	-39.1	-40.2	22.0	0.00e+00	17	30	0	828375040	50	6584
2026-01-26 19:46:03.78	334.97	11.73	-39.0	-40.0	22.1	0.00e+00	0	29	0	829423616	50	6444
2026-01-26 19:46:04.79	334.80	11.69	-38.8	-39.9	22.3	0.00e+00	0	29	0	831520768	50	6336
2026-01-26 19:46:05.80	334.63	11.65	-39.0	-40.1	22.2	0.00e+00	0	29	0	833617920	50	6476
2026-01-26 19:46:06.81	334.46	11.61	-39.0	-40.1	22.0	0.00e+00	0	29	0	835715072	50	6509
2026-01-26 19:46:07.82	334.29	11.57	-39.4	-40.5	21.7	0.00e+00	89	29	0	837812224	50	6784
2026-01-26 19:46:08.83	334.12	11.52	-39.5	-40.6	21.6	0.00e+00	0	30	0	838860800	50	6907
2026-01-26 19:46:09.84	333.95	11.48	-39.5	-40.6	21.7	0.00e+00	92	29	0	840957952	50	6900
2026-01-26 19:46:10.85	333.78	11.44	-39.6	-40.7	21.6	0.00e+00	0	29	0	843055104	50	6951
2026-01-26 19:46:11.86	333.61	11.40	-39.5	-40.6	21.7	0.00e+00	0	29	0	845152256	50	6875
2026-01-26 19:46:12.87	333.44	11.36	-39.2	-40.2	21.9	0.00e+00	65	30	0	847249408	50	6601
2026-01-26 19:46:13.88	333.27	11.31	-39.2	-40.2	22.0	0.00e+00	0	29	0	848297984	50	6582
2026-01-26 19:46:14.89	333.11	11.27	-38.9	-39.9	22.2	0.00e+00	23	29	0	850395136	50	6344
2026-01-26 19:46:15.90	332.94	11.23	-38.8	-39.7	22.3	0.00e+00	0	30	0	852492288	50	6241
2026-01-26 19:46:16.91	332.77	11.18	-38.8	-39.7	22.4	0.00e+00	61	29	0	854589440	50	6229
2026-01-26 19:46:17.92	332.61	11.14	-38.9	-39.8	22.3	0.00e+00	0	29	0	856686592	50	6314
2026-01-26 19:46:18.93	332.44	11.10	-39.1	-40.1	22.0	0.00e+00	0	29	0	858783744	50	6513
2026-01-26 19:46:19.94	332.28	11.05	-39.5	-40.6	21.6	0.00e+00	0	30	0	859832320	50	6864
2026-01-26 19:46:20.95	332.11	11.01	-39.8	-40.9	21.4	0.00e+00	0	29	0	861929472	50	7101
2026-01-26 19:46:21.96	331.95	10.97	-40.2	-41.4	20.9	0.00e+00	15	29	0	864026624	52	6739
2026-01-26 19:46:22.97	331.79	10.92	-40.5	-41.8	20.6	0.00e+00	0	29	0	866123776	52	7026
2026-01-26 19:46:23.98	331.63	10.88	-40.4	-41.6	20.8	0.00e+00	88	29	0	868220928	54	6145
2026-01-26 19:46:24.99	331.46	10.83	-40.7	-42.0	20.3	0.00e+00	0	29	0	869269504	54	6448
2026-01-26 19:46:26.00	331.30	10.79	-40.8	-42.2	20.3	0.00e+00	0	29	0	871366656	54	6563
2026-01-26 19:46:27.01	331.14	10.75	-40.6	-41.8	20.6	0.00e+00	0	29	0	873463808	54	6296
2026-01-26 19:46:28.02	330.98	10.70	-40.4	-41.6	20.6	0.00e+00	0	30	0	875560960	54	6148
2026-01-26 19:46:29.03	330.82	10.66	-40.3	-41.5	20.9	0.00e+00	5	29	0	877658112	54	6093
2026-01-26 19:46:30.04	330.66	10.61	-40.1	-41.2	21.1	0.00e+00	0	29	0	878706688	54	5896
2026-01-26 19:46:31.04	330.50	10.57	-39.9	-41.0	21.3	0.00e+00	46	29	0	880803840	54	5737
2026-01-26 19:46:32.05	330.34	10.52	-39.9	-41.0	21.2	0.00e+00	0	29	0	882900992	54	5741
2026-01-26 19:46:33.06	330.18	10.48	-39.9	-41.1	21.3	0.00e+00	0	29	0	884998144	54	5772
2026-01-26 19:46:34.07	330.03	10.43	-40.3	-41.5	20.7	0.00e+00	0	29	0	887095296	54	6099
2026-01-26 19:46:35.07	329.87	10.39	-40.8	-42.1	20.3	0.00e+00	0	29	0	888143872	54	6467
2026-01-26 19:46:36.08	329.71	10.34	-41.4	-42.8	19.6	0.00e+00	0	29	0	890241024	54	7039
2026-01-26 19:46:37.09	329.56	10.29	-42.0	-43.6	18.9	0.00e+00	0	29	0	892338176	56	6905
2026-01-26 19:46:38.10	329.40	10.25	-42.6	-44.3	18.3	0.00e+00	77	29	0	894435328	56	7495
2026-01-26 19:46:39.11	329.25	10.20	-42.7	-44.4	18.2	0.00e+00	0	29	0	896532480	56	7594
2026-01-26 19:46:40.12	329.09	10.16	-42.8	-44.6	18.0	0.00e+00	0	29	0	897581056	58	6903
2026-01-26 19:46:41.13	328.94	10.11	-42.4	-44.2	18.4	0.00e+00	0	29	0	899678208	58	6549
2026-01-26 19:46:42.14	328.78	10.06	-42.2	-43.9	18.6	0.00e+00	0	29	0	901775360	58	6334
2026-01-26 19:46:43.15	328.63	10.02	-42.0	-43.6	18.9	0.00e+00	0	29	0	903872512	58	6151
2026-01-26 19:46:44.16	328.48	9.97	-42.0	-43.5	19.1	0.00e+00	0	29	0	905969664	58	6091
2026-01-26 19:46:45.17	328.33	9.92	-42.2	-43.8	18.6	0.00e+00	83	29	0	907018240	58	6314
2026-01-26 19:46:46.17	328.18	9.88	-41.7	-43.2	19.3	0.00e+00	0	29	0	909115392	56	6559
2026-01-26 19:46:47.18	328.02	9.83	-41.7	-43.2	19.3	0.00e+00	92	29	0	911212544	56	6579
2026-01-26 19:46:48.19	327.87	9.78	-41.9	-43.4	19.2	0.00e+00	0	29	0	913309696	56	6740
2026-01-26 19:46:49.20	327.72	9.74	-41.7	-43.2	19.4	0.00e+00	0	29	0	915406848	56	6551
2026-01-26 19:46:50.21	327.57	9.69	-41.4	-42.9	19.7	0.00e+00	0	29	0	916455424	56	6328
2026-01-26 19:46:51.22	327.42	9.64	-41.2	-42.5	19.8	0.00e+00	0	29	0	918552576	56	6095
2026-01-26 19:46:52.23	327.28	9.59	-41.3	-42.7	19.9	0.00e+00	73	29	0	920649728	56	6208
2026-01-26 19:46:53.24	327.13	9.55	-41.0	-42.4	20.2	0.00e+00	0	29	0	922746880	56	5978
2026-01-26 19:46:54.25	326.98	9.50	-41.3	-42.6	19.9	0.00e+00	90	29	0	924844032	56	6165
2026-01-26 19:46:55.26	326.83	9.45	-40.9	-42.2	20.2	0.00e+00	0	29	0	926941184	56	5880
2026-01-26 19:46:56.27	326.69	9.40	-40.9	-42.2	20.3	0.00e+00	0	29	0	927989760	56	5879
2026-01-26 19:46:57.28	326.54	9.36	-40.9	-42.2	20.3	0.00e+00	0	29	0	930086912	56	5857
2026-01-26 19:46:58.29	326.39	9.31	-40.9	-42.2	20.3	0.00e+00	0	29	0	932184064	56	5848
2026-01-26 19:46:59.30	326.25	9.26	-40.9	-42.2	20.3	0.00e+00	39	29	0	934281216	56	5864
2026-01-26 19:47:00.31	326.10	9.21	-40.8	-42.1	20.3	0.00e+00	0	29	0	936378368	54	6520
2026-01-26 19:47:01.32	325.96	9.16	-40.7	-42.0	20.4	0.00e+00	84	29	0	937426944	54	6403
2026-01-26 19:47:02.32	325.82	9.12	-40.4	-41.6	20.6	0.00e+00	0	29	0	939524096	54	6154
2026-01-26 19:47:03.33	325.67	9.07	-40.3	-41.4	20.9	0.00e+00	0	29	0	941621248	54	6027
2026-01-26 19:47:04.34	325.53	9.02	-40.1	-41.3	21.1	0.00e+00	0	29	0	943718400	54	5906
2026-01-26 19:47:05.35	325.39	8.97	-40.0	-41.2	21.1	0.00e+00	0	29	0	945815552	54	5869
2026-01-26 19:47:06.36	325.25	8.92	-39.8	-41.0	21.2	0.00e+00	69	29	0	946864128	54	5713
2026-01-26 19:47:07.37	325.10	8.87	-39.9	-41.0	21.2	0.00e+00	0	29	0	948961280	52	6427
2026-01-26 19:47:08.38	324.96	8.82	-40.0	-41.2	21.1	0.00e+00	89	29	0	951058432	52	6574
2026-01-26 19:47:09.39	324.82	8.78	-39.8	-40.9	21.1	0.00e+00	0	29	0	953155584	52	6378
2026-01-26 19:47:10.40	324.68	8.73	-39.9	-41.1	21.2	0.00e+00	0	29	0	955252736	52	6478
2026-01-26 19:47:11.41	324.54	8.68	-40.0	-41.1	21.1	0.00e+00	0	29	0	956301312	52	6539
2026-01-26 19:47:12.42	324.40	8.63	-40.0	-41.2	21.1	0.00e+00	0	29	0	958398464	52	6590
2026-01-26 19:47:13.43	324.27	8.58	-40.0	-41.1	21.1	0.00e+00	65	29	0	960495616	52	6535
2026-01-26 19:47:14.44	324.13	8.53	-39.9	-41.1	21.1	0.00e+00	0	29	0	962592768	52	6479
2026-01-26 19:47:15.45	323.99	8.48	-40.1	-41.3	20.9	0.00e+00	92	29	0	964689920	52	6670
2026-01-26 19:47:16.46	323.85	8.43	-40.3	-41.5	20.7	0.00e+00	0	29	0	965738496	52	6838
2026-01-26 19:47:17.46	323.72	8.38	-40.8	-42.1	20.2	0.00e+00	69	29	0	967835648	54	6512
2026-01-26 19:47:18.47	323.58	8.33	-40.8	-42.1	20.3	0.00e+00	0	29	0	969932800	54	6489
2026-01-26 19:47:19.48	323.45	8.28	-41.0	-42.4	20.0	0.00e+00	0	29	0	972029952	54	6703
2026-01-26 19:47:20.49	323.31	8.23	-40.7	-42.0	20.3	0.00e+00	0	29	0	974127104	54	6440
2026-01-26 19:47:21.50	323.17	8.19	-41.0	-42.3	19.9	0.00e+00	0	29	0	975175680	54	6664
2026-01-26 19:47:22.51	323.04	8.14	-40.8	-42.1	20.2	0.00e+00	92	29	0	977272832	54	6505
2026-01-26 19:47:23.52	322.91	8.09	-40.3	-41.5	20.6	0.00e+00	0	29	0	979369984	54	6095
2026-01-26 19:47:24.53	322.77	8.04	-40.4	-41.7	20.5	0.00e+00	77	29	0	981467136	54	6203
2026-01-26 19:47:25.54	322.64	7.99	-40.5	-41.7	20.4	0.00e+00	0	29	0	983564288	54	6229
2026-01-26 19:47:26.55	322.51	7.94	-40.5	-41.8	20.5	0.00e+00	0	29	0	984612864	54	6259
2026-01-26 19:47:27.56	322.38	7.89	-40.6	-41.9	20.4	0.00e+00	17	29	0	986710016	54	6340
2026-01-26 19:47:28.56	322.25	7.84	-40.5	-41.7	20.5	0.00e+00	0	29	0	988807168	54	6245
2026-01-26 19:47:29.57	322.11	7.79	-40.2	-41.4	20.9	0.00e+00	65	29	0	990904320	54	6032
2026-01-26 19:47:30.58	321.98	7.74	-40.3	-41.5	20.8	0.00e+00	33	29	0	993001472	54	6092
2026-01-26 19:47:31.59	321.85	7.69	-40.1	-41.3	20.9	0.00e+00	70	29	0	994050048	54	5948
2026-01-26 19:47:32.60	321.72	7.64	-39.9	-41.0	21.1	0.00e+00	0	29	0	996147200	54	5756
2026-01-26 19:47:33.61	321.59	7.59	-39.6	-40.7	21.5	0.00e+00	0	29	0	998244352	52	6222
2026-01-26 19:47:34.62	321.47	7.54	-39.6	-40.7	21.4	0.00e+00	0	29	0	1000341504	52	6229
2026-01-26 19:47:35.63	321.34	7.49	-39.3	-40.4	21.7	0.00e+00	0	29	0	1002438656	52	5989
2026-01-26 19:47:36.64	321.21	7.44	-39.2	-40.3	21.8	0.00e+00	21	29	0	1003487232	52	5931
2026-01-26 19:47:37.65	321.08	7.39	-39.2	-40.2	21.9	0.00e+00	0	29	0	1005584384	52	5878
2026-01-26 19:47:38.66	320.95	7.34	-38.8	-39.8	22.0	0.00e+00	75	29	0	1007681536	50	6268
2026-01-26 19:47:39.67	320.83	7.29	-38.8	-39.9	22.1	0.00e+00	0	29	0	1009778688	50	6342
2026-01-26 19:47:40.68	320.70	7.24	-38.7	-39.7	22.3	0.00e+00	0	29	0	1011875840	50	6235
2026-01-26 19:47:41.68	320.58	7.19	-38.8	-39.9	22.2	0.00e+00	0	29	0	1012924416	50	6318
2026-01-26 19:47:42.70	320.45	7.13	-38.8	-39.9	22.1	0.00e+00	0	29	0	1015021568	50	6329
2026-01-26 19:47:43.70	320.33	7.08	-38.9	-39.9	22.0	0.00e+00	70	29	0	1017118720	50	6374
2026-01-26 19:47:44.71	320.20	7.03	-39.1	-40.2	21.8	0.00e+00	0	29	0	1019215872	50	6547
2026-01-26 19:47:45.72	320.08	6.98	-39.4	-40.5	21.5	0.00e+00	70	29	0	1021313024	50	6801
2026-01-26 19:47:46.73	319.96	6.93	-39.3	-40.4	21.6	0.00e+00	0	29	0	1023410176	50	6728
2026-01-26 19:47:47.74	319.83	6.88	-39.2	-40.3	21.6	0.00e+00	0	29	0	1024458752	50	6668
2026-01-26 19:47:48.75	319.71	6.83	-39.1	-40.2	21.7	0.00e+00	0	29	0	1026555904	50	6564
2026-01-26 19:47:49.76	319.59	6.78	-39.2	-40.3	21.7	0.00e+00	0	29	0	1028653056	50	6659
2026-01-26 19:47:50.77	319.47	6.73	-39.1	-40.2	21.7	0.00e+00	0	29	0	1030750208	50	6592
2026-01-26 19:47:51.78	319.35	6.68	-39.0	-40.1	21.9	0.00e+00	0	29	0	1032847360	50	6484
2026-01-26 19:47:52.79	319.22	6.63	-39.0	-40.1	21.8	0.00e+00	68	29	0	1033895936	50	6509
2026-01-26 19:47:53.80	319.10	6.58	-38.8	-39.8	22.0	0.00e+00	0	29	0	1035993088	50	6303
2026-01-26 19:47:54.81	318.98	6.53	-38.9	-40.0	21.8	0.00e+00	78	29	0	1038090240	50	6424
2026-01-26 19:47:55.82	318.86	6.48	-39.2	-40.3	21.7	0.00e+00	0	29	0	1040187392	50	6631
2026-01-26 19:47:56.83	318.75	6.43	-39.5	-40.6	21.3	0.00e+00	0	29	0	1042284544	50	6903
2026-01-26 19:47:57.84	318.63	6.38	-39.4	-40.5	21.5	0.00e+00	0	29	0	1043333120	50	6815
2026-01-26 19:47:58.85	318.51	6.32	-39.3	-40.4	21.6	0.00e+00	0	29	0	1045430272	50	6728
2026-01-26 19:47:59.85	318.39	6.27	-39.4	-40.5	21.4	0.00e+00	69	29	0	1047527424	50	6844
2026-01-26 19:48:00.86	318.27	6.22	-39.7	-40.9	21.2	0.00e+00	0	29	0	1049624576	52	6369
2026-01-26 19:48:01.87	318.16	6.17	-39.7	-40.9	21.2	0.00e+00	72	29	0	1051721728	52	6329
2026-01-26 19:48:02.88	318.04	6.12	-40.0	-41.3	21.0	0.00e+00	0	29	0	1052770304	52	6628
2026-01-26 19:48:03.89	317.92	6.07	-39.7	-40.8	21.2	0.00e+00	0	29	0	1054867456	52	6315
2026-01-26 19:48:04.90	317.81	6.02	-40.1	-41.3	20.9	0.00e+00	0	29	0	1056964608	52	6686
2026-01-26 19:48:05.91	317.69	5.97	-40.2	-41.5	20.7	0.00e+00	0	29	0	1059061760	52	6800
2026-01-26 19:48:06.92	317.58	5.92	-39.8	-41.0	21.2	0.00e+00	71	29	0	1061158912	52	6417
2026-01-26 19:48:07.93	317.46	5.87	-39.9	-41.1	21.0	0.00e+00	0	29	0	1062207488	52	6516
2026-01-26 19:48:08.94	317.35	5.82	-39.8	-41.0	21.0	0.00e+00	92	29	0	1064304640	52	6422
2026-01-26 19:48:09.95	317.24	5.76	-39.9	-41.2	20.9	0.00e+00	0	29	0	1066401792	52	6541
2026-01-26 19:48:10.96	317.12	5.71	-39.8	-41.0	21.0	0.00e+00	0	29	0	1068498944	52	6448
2026-01-26 19:48:11.97	317.01	5.66	-40.1	-41.4	20.7	0.00e+00	0	29	0	1070596096	52	6727
2026-01-26 19:48:12.98	316.90	5.61	-39.9	-41.1	20.9	0.00e+00	0	29	0	1071644672	52	6491
2026-01-26 19:48:13.99	316.79	5.56	-39.8	-41.0	20.9	0.00e+00	0	29	0	1073741824	52	6446
2026-01-26 19:48:15.00	316.67	5.51	-39.8	-41.0	20.8	0.00e+00	0	29	0	1075838976	52	6401
2026-01-26 19:48:16.00	316.56	5.46	-39.8	-41.0	20.9	0.00e+00	75	29	0	1077936128	52	6398
2026-01-26 19:48:17.01	316.45	5.41	-40.0	-41.2	20.8	0.00e+00	0	29	0	1080033280	52	6544
2026-01-26 19:48:18.02	316.34	5.36	-40.1	-41.3	20.6	0.00e+00	0	29	0	1081081856	52	6663
2026-01-26 19:48:19.03	316.23	5.31	-39.6	-40.8	21.1	0.00e+00	0	29	0	1083179008	52	6264
2026-01-26 19:48:20.04	316.12	5.26	-39.9	-41.1	20.8	0.00e+00	0	29	0	1085276160	52	6515
2026-01-26 19:48:21.05	316.01	5.20	-39.6	-40.7	21.3	0.00e+00	0	29	0	1087373312	52	6226
2026-01-26 19:48:22.06	315.90	5.15	-39.3	-40.5	21.2	0.00e+00	0	29	0	1089470464	52	6035
2026-01-26 19:48:23.07	315.80	5.10	-39.5	-40.6	21.4	0.00e+00	92	29	0	1091567616	52	6156
2026-01-26 19:48:24.08	315.69	5.05	-39.9	-41.1	20.8	0.00e+00	0	29	0	1092616192	52	6467
2026-01-26 19:48:25.09	315.58	5.00	-39.4	-40.5	21.5	0.00e+00	41	29	0	1094713344	52	6064
2026-01-26 19:48:26.10	315.47	4.95	-39.3	-40.4	21.3	0.00e+00	0	29	0	1096810496	52	6020
2026-01-26 19:48:27.11	315.36	4.90	-39.4	-40.5	21.3	0.00e+00	0	29	0	1098907648	52	6093
2026-01-26 19:48:28.12	315.26	4.85	-39.4	-40.5	21.3	0.00e+00	0	29	0	1101004800	52	6081
2026-01-26 19:48:29.12	315.15	4.80	-39.6	-40.7	21.1	0.00e+00	0	29	0	1102053376	52	6243
2026-01-26 19:48:30.13	315.05	4.75	-39.4	-40.5	21.4	0.00e+00	91	29	0	1104150528	52	6101
2026-01-26 19:48:31.14	314.94	4.70	-39.5	-40.7	21.1	0.00e+00	0	29	0	1106247680	52	6189
2026-01-26 19:48:32.15	314.84	4.64	-39.7	-40.9	20.9	0.00e+00	90	29	0	1108344832	52	6369
2026-01-26 19:48:33.16	314.73	4.59	-39.9	-41.1	20.8	0.00e+00	0	29	0	1110441984	52	6535
2026-01-26 19:48:34.17	314.63	4.54	-40.4	-41.7	20.4	0.00e+00	33	29	0	1111490560	52	6967
2026-01-26 19:48:35.17	314.52	4.49	-40.2	-41.5	20.4	0.00e+00	17	29	0	1113587712	52	6834
2026-01-26 19:48:36.18	314.42	4.44	-41.0	-42.5	19.6	0.00e+00	0	29	0	1115684864	54	6797
2026-01-26 19:48:37.19	314.32	4.39	-40.5	-41.8	20.0	0.00e+00	68	29	0	1117782016	54	6300
2026-01-26 19:48:38.20	314.22	4.34	-40.8	-42.2	19.7	0.00e+00	0	29	0	1119879168	54	6553
2026-01-26 19:48:39.21	314.11	4.29	-41.1	-42.5	19.4	0.00e+00	75	29	0	1120927744	54	6813
2026-01-26 19:48:40.22	314.01	4.24	-41.1	-42.5	19.5	0.00e+00	0	29	0	1123024896	54	6842
2026-01-26 19:48:41.23	313.91	4.19	-41.1	-42.6	19.3	0.00e+00	0	29	0	1125122048	54	6863
2026-01-26 19:48:42.24	313.81	4.14	-40.7	-42.1	19.8	0.00e+00	0	29	0	1127219200	54	6517
2026-01-26 19:48:43.25	313.71	4.09	-40.3	-41.6	20.3	0.00e+00	0	29	0	1129316352	54	6149
2026-01-26 19:48:44.26	313.61	4.03	-39.9	-41.1	20.6	0.00e+00	21	29	0	1130364928	54	5784
2026-01-26 19:48:45.27	313.51	3.98	-39.9	-41.2	20.5	0.00e+00	0	29	0	1132462080	54	5845
2026-01-26 19:48:46.28	313.41	3.93	-40.0	-41.3	20.5	0.00e+00	71	29	0	1134559232	52	6633
2026-01-26 19:48:47.29	313.31	3.88	-39.7	-40.9	20.8	0.00e+00	0	29	0	1136656384	52	6354
2026-01-26 19:48:48.30	313.21	3.83	-40.0	-41.3	20.5	0.00e+00	0	29	0	1138753536	52	6638
2026-01-26 19:48:49.31	313.11	3.78	-39.4	-40.5	21.1	0.00e+00	0	29	0	1139802112	52	6099
2026-01-26 19:48:50.32	313.01	3.73	-39.8	-41.0	20.8	0.00e+00	0	29	0	1141899264	52	6449
2026-01-26 19:48:51.33	312.91	3.68	-39.5	-40.7	20.9	0.00e+00	71	29	0	1143996416	52	6192
2026-01-26 19:48:52.34	312.81	3.63	-39.7	-40.9	20.8	0.00e+00	0	29	0	1146093568	52	6377
2026-01-26 19:48:53.35	312.72	3.58	-39.8	-41.0	20.8	0.00e+00	68	29	0	1148190720	52	6415
2026-01-26 19:48:54.36	312.62	3.53	-40.0	-41.2	20.5	0.00e+00	0	29	0	1149239296	52	6585
2026-01-26 19:48:55.37	312.52	3.48	-40.1	-41.4	20.3	0.00e+00	0	29	0	1151336448	52	6749
2026-01-26 19:48:56.38	312.43	3.43	-40.3	-41.6	20.2	0.00e+00	0	29	0	1153433600	52	6851
2026-01-26 19:48:57.38	312.33	3.38	-39.7	-40.9	20.8	0.00e+00	0	29	0	1155530752	52	6323
2026-01-26 19:48:58.39	312.24	3.32	-39.6	-40.8	20.8	0.00e+00	0	29	0	1157627904	52	6276
2026-01-26 19:48:59.40	312.14	3.27	-40.3	-41.7	20.1	0.00e+00	0	29	0	1159725056	52	6937
2026-01-26 19:49:00.41	312.04	3.22	-40.7	-42.1	19.6	0.00e+00	67	29	0	1160773632	54	6522
2026-01-26 19:49:01.42	311.95	3.17	-40.5	-41.9	19.9	0.00e+00	0	29	0	1162870784	54	6357
2026-01-26 19:49:02.43	311.86	3.12	-41.0	-42.5	19.2	0.00e+00	71	29	0	1164967936	54	6833
2026-01-26 19:49:03.44	311.76	3.07	-41.1	-42.7	19.3	0.00e+00	0	29	0	1167065088	54	6933
2026-01-26 19:49:04.45	311.67	3.02	-45.9	-50.6	3.7	3.73e-05	0	29	0	1169162240	54	17314
2026-01-26 19:49:05.46	311.57	2.97	-48.4	-63.5	3.6	1.51e+00	0	29	104	1169162240	60	54308
2026-01-26 19:49:06.47	311.48	2.92	-48.7	-63.9	3.6	1.51e+00	0	29	104	1169162240	60	56410
2026-01-26 19:49:07.48	311.39	2.87	-48.9	-64.0	3.6	1.51e+00	0	29	104	1169162240	60	57277
2026-01-26 19:49:08.49	311.30	2.82	-49.0	-64.2	3.6	1.51e+00	0	29	104	1169162240	60	58414
2026-01-26 19:49:09.51	311.20	2.77	-49.1	-64.2	3.6	1.51e+00	0	29	104	1169162240	60	58909
2026-01-26 19:49:10.52	311.11	2.72	-49.1	-64.3	3.6	1.51e+00	0	29	104	1169162240	60	59440
2026-01-26 19:49:11.53	311.02	2.67	-49.2	-64.4	3.6	1.51e+00	0	29	104	1169162240	60	59833
2026-01-26 19:49:12.53	310.93	2.62	-49.2	-64.4	3.6	1.51e+00	0	29	104	1169162240	60	59694
2026-01-26 19:49:13.54	310.84	2.57	-49.2	-64.4	3.6	1.51e+00	0	29	104	1169162240	60	59734
2026-01-26 19:49:14.55	310.75	2.52	-49.2	-64.4	3.6	1.51e+00	0	29	104	1169162240	60	59899
2026-01-26 19:49:15.56	310.66	2.47	-49.2	-64.4	3.6	1.51e+00	0	29	104	1169162240	60	59888
2026-01-26 19:49:16.57	310.57	2.42	-49.2	-64.4	3.6	1.51e+00	0	29	104	1169162240	60	59902
2026-01-26 19:49:17.58	310.48	2.37	-49.2	-64.4	3.6	1.51e+00	0	29	104	1169162240	60	59922
2026-01-26 19:49:18.59	310.39	2.32	-49.2	-64.4	3.6	1.51e+00	0	29	104	1169162240	60	59663
2026-01-26 19:49:19.60	310.30	2.27	-49.2	-64.3	3.6	1.51e+00	0	29	104	1169162240	60	59342
