passes_logs/2026/01/26/R4.6S_Anadyr/R4.6S_Anadyr__20260126_131837_NOAA_20_JPSS-1_rec.log

#Pass ID: 20260126_131837_NOAA 20 (JPSS-1)
#Satellite: NOAA 20 (JPSS-1)
#Configuration: NOAA 20
#almurnet v.1.7.20251203
#Start time: 2026-01-26 13:18:38

#Version: 2.2.20231116
#Station: R4.6S_Anadyr
#Location: 177.4865 lon 64.73178 lat
#TLE: 1 43013U 17073A   26025.90277267  .00000170  00000+0  10165-3 0  9997
#TLE: 2 43013  98.7646 326.7276 0001032  23.5492 336.5731 14.19540457424285

#Time	Az	El	Level	Level2	SNR	BER	BlckErr	Temp	State	Recorded	gain1	gain2
2026-01-26 13:18:38.64	18.80	0.06	-49.2	-64.2	3.5	1.51e+00	0	26	0	0	60	58706
2026-01-26 13:18:39.65	18.85	0.11	-49.6	-64.7	3.6	1.51e+00	0	27	104	0	60	62433
2026-01-26 13:18:40.66	18.89	0.17	-49.5	-64.7	3.6	1.51e+00	0	28	104	0	60	61880
2026-01-26 13:18:41.67	18.94	0.23	-49.2	-64.5	3.6	1.51e+00	0	28	104	0	60	60875
2026-01-26 13:18:42.68	18.99	0.28	-49.2	-64.5	3.6	1.51e+00	0	28	104	0	60	60803
2026-01-26 13:18:43.69	19.03	0.34	-49.3	-64.5	3.6	1.51e+00	0	28	104	0	60	60752
2026-01-26 13:18:44.70	19.08	0.40	-49.2	-64.5	3.6	1.51e+00	0	28	104	0	60	60665
2026-01-26 13:18:45.71	19.13	0.45	-49.3	-64.5	3.6	1.51e+00	0	28	104	0	60	60647
2026-01-26 13:18:46.72	19.18	0.51	-49.3	-64.5	3.6	1.51e+00	0	28	104	0	60	60930
2026-01-26 13:18:47.73	19.23	0.57	-49.3	-64.5	3.6	1.51e+00	0	28	104	0	60	60696
2026-01-26 13:18:48.74	19.27	0.62	-49.3	-64.5	3.6	1.51e+00	0	28	104	0	60	60835
2026-01-26 13:18:49.75	19.32	0.68	-49.3	-64.5	3.6	1.51e+00	0	28	104	0	60	60615
2026-01-26 13:18:50.76	19.37	0.74	-49.2	-64.4	3.6	1.51e+00	0	28	104	0	60	60288
2026-01-26 13:18:51.77	19.42	0.79	-49.2	-64.4	3.6	1.51e+00	0	28	104	0	60	60182
2026-01-26 13:18:52.78	19.47	0.85	-49.2	-64.4	3.6	1.51e+00	0	28	104	0	60	60029
2026-01-26 13:18:53.79	19.52	0.91	-49.1	-64.4	3.6	1.51e+00	0	28	104	0	60	59697
2026-01-26 13:18:54.80	19.57	0.97	-49.1	-64.3	3.6	1.51e+00	0	28	104	0	60	59173
2026-01-26 13:18:55.81	19.62	1.03	-49.0	-64.2	3.6	1.51e+00	0	28	104	0	60	58342
2026-01-26 13:18:56.82	19.67	1.08	-48.9	-64.1	3.6	1.51e+00	0	28	104	0	60	57664
2026-01-26 13:18:57.83	19.72	1.14	-48.7	-64.0	3.6	1.51e+00	0	28	104	0	60	57150
2026-01-26 13:18:58.84	19.77	1.20	-48.7	-63.9	3.6	1.51e+00	0	28	104	0	60	56810
2026-01-26 13:18:59.85	19.82	1.26	-48.6	-63.8	3.6	1.51e+00	0	28	104	0	60	56254
2026-01-26 13:19:00.86	19.87	1.32	-48.4	-63.6	3.6	1.51e+00	0	28	104	0	60	54835
2026-01-26 13:19:01.87	19.92	1.37	-48.2	-63.5	3.6	1.51e+00	0	28	104	0	60	53807
2026-01-26 13:19:02.88	19.97	1.43	-47.9	-63.2	3.6	1.51e+00	0	28	104	0	60	51971
2026-01-26 13:19:03.89	20.02	1.49	-47.9	-63.1	3.6	1.51e+00	0	28	104	0	60	51495
2026-01-26 13:19:04.90	20.07	1.55	-47.9	-63.0	3.6	1.51e+00	0	28	104	0	60	51228
2026-01-26 13:19:05.91	20.12	1.61	-47.9	-63.0	3.6	1.51e+00	0	28	104	0	60	51220
2026-01-26 13:19:06.92	20.17	1.67	-47.9	-63.0	3.6	1.51e+00	0	28	104	0	60	50843
2026-01-26 13:19:07.93	20.23	1.73	-47.9	-63.0	3.6	1.51e+00	0	28	104	0	60	50798
2026-01-26 13:19:08.94	20.28	1.78	-47.9	-63.0	3.6	1.51e+00	0	28	104	0	60	50823
2026-01-26 13:19:09.95	20.33	1.84	-47.9	-63.0	3.6	1.51e+00	0	28	104	0	60	50887
2026-01-26 13:19:10.96	20.38	1.90	-47.9	-63.0	3.6	1.51e+00	0	28	104	0	60	51221
2026-01-26 13:19:11.96	20.43	1.96	-47.9	-63.0	3.6	1.51e+00	0	28	104	0	60	51342
2026-01-26 13:19:12.97	20.49	2.02	-47.9	-63.0	3.6	1.51e+00	0	28	104	0	60	51228
2026-01-26 13:19:13.98	20.54	2.08	-47.9	-63.0	3.6	1.51e+00	0	28	104	0	60	51340
2026-01-26 13:19:15.00	20.59	2.14	-47.9	-63.0	3.6	1.51e+00	0	28	104	0	60	51348
2026-01-26 13:19:16.00	20.65	2.20	-47.9	-63.0	3.6	1.51e+00	0	28	104	0	60	51160
2026-01-26 13:19:17.01	20.70	2.26	-47.9	-62.9	3.6	1.51e+00	0	28	104	0	60	50567
2026-01-26 13:19:18.02	20.75	2.32	-47.9	-62.8	3.6	1.51e+00	0	28	104	0	60	49797
2026-01-26 13:19:19.03	20.81	2.38	-47.9	-62.5	3.6	1.51e+00	0	28	104	0	60	47971
2026-01-26 13:19:20.04	20.86	2.44	-47.9	-62.5	3.6	1.51e+00	0	28	104	0	60	47980
2026-01-26 13:19:21.05	20.92	2.50	-47.9	-62.6	3.6	1.51e+00	0	28	104	0	60	49017
2026-01-26 13:19:22.06	20.97	2.56	-47.9	-63.0	3.6	1.51e+00	0	28	104	0	60	51183
2026-01-26 13:19:23.07	21.02	2.62	-47.9	-62.5	3.6	1.51e+00	0	28	104	0	60	48480
2026-01-26 13:19:24.08	21.08	2.68	-47.7	-59.2	4.0	1.46e+00	0	28	0	0	60	32936
2026-01-26 13:19:25.08	21.13	2.74	-47.3	-54.6	6.4	6.07e-01	2	29	0	1048576	60	19428
2026-01-26 13:19:26.09	21.19	2.80	-46.5	-51.8	9.7	5.88e-02	92	28	0	3145728	60	14079
2026-01-26 13:19:27.10	21.24	2.86	-45.7	-49.7	12.2	4.05e-03	0	28	0	5242880	60	11009
2026-01-26 13:19:28.11	21.30	2.93	-45.0	-48.4	13.6	7.60e-06	0	28	0	7340032	60	9503
2026-01-26 13:19:29.12	21.36	2.99	-43.9	-46.4	15.8	7.00e-07	0	28	0	8388608	60	7517
2026-01-26 13:19:30.13	21.41	3.05	-43.4	-45.6	16.7	0.00e+00	2	28	0	10485760	60	6887
2026-01-26 13:19:31.14	21.47	3.11	-42.7	-44.7	17.5	0.00e+00	0	28	0	12582912	60	6209
2026-01-26 13:19:32.15	21.52	3.17	-43.0	-45.1	16.8	0.00e+00	0	29	0	14680064	58	7333
2026-01-26 13:19:33.16	21.58	3.23	-42.9	-45.0	17.0	0.00e+00	92	29	0	16777216	58	7221
2026-01-26 13:19:34.17	21.64	3.29	-43.4	-45.7	16.3	0.00e+00	81	29	0	17825792	58	7822
2026-01-26 13:19:35.18	21.70	3.36	-44.3	-47.1	14.8	0.00e+00	49	29	0	19922944	60	8146
2026-01-26 13:19:36.19	21.75	3.42	-44.7	-47.8	15.1	3.00e-06	81	29	0	22020096	60	8882
2026-01-26 13:19:37.20	21.81	3.48	-43.1	-45.2	17.1	0.00e+00	2	29	0	24117248	58	7363
2026-01-26 13:19:38.21	21.87	3.54	-47.3	-56.4	4.6	8.14e-01	0	29	104	25165824	60	23978
2026-01-26 13:19:39.22	21.93	3.61	-47.5	-55.5	6.6	6.29e-02	0	29	0	25165824	60	21523
2026-01-26 13:19:40.23	21.98	3.67	-44.1	-46.6	15.8	0.00e+00	92	29	0	27262976	60	7710
2026-01-26 13:19:41.24	22.04	3.73	-47.9	-62.7	3.6	1.36e+00	0	29	104	28311552	60	49482
2026-01-26 13:19:42.25	22.10	3.79	-43.5	-45.8	15.9	1.33e+00	90	29	104	28311552	60	7072
2026-01-26 13:19:43.26	22.16	3.86	-43.8	-46.3	15.7	0.00e+00	0	29	0	29360128	60	7443
2026-01-26 13:19:44.27	22.22	3.92	-43.8	-46.1	16.3	0.00e+00	0	29	0	30408704	60	7328
2026-01-26 13:19:45.28	22.28	3.98	-43.4	-45.6	16.7	0.00e+00	0	29	0	32505856	60	6902
2026-01-26 13:19:46.29	22.34	4.05	-43.1	-45.1	17.2	0.00e+00	0	29	0	34603008	60	6529
2026-01-26 13:19:47.30	22.40	4.11	-43.0	-45.1	17.3	0.00e+00	80	29	0	36700160	60	6467
2026-01-26 13:19:48.31	22.46	4.17	-43.1	-45.2	17.1	0.00e+00	78	29	0	38797312	60	6601
2026-01-26 13:19:49.32	22.52	4.24	-42.4	-44.2	18.0	0.00e+00	92	29	0	39845888	58	6592
2026-01-26 13:19:50.32	22.58	4.30	-42.8	-44.7	17.8	0.00e+00	78	29	0	41943040	58	6957
2026-01-26 13:19:51.33	22.64	4.36	-42.9	-44.8	17.6	0.00e+00	0	29	0	44040192	58	7065
2026-01-26 13:19:52.34	22.70	4.43	-42.5	-44.3	17.9	0.00e+00	0	29	0	46137344	58	6680
2026-01-26 13:19:53.35	22.76	4.49	-42.5	-44.4	18.2	0.00e+00	78	29	0	48234496	58	6699
2026-01-26 13:19:54.36	22.82	4.56	-42.1	-43.7	18.6	0.00e+00	11	29	0	49283072	58	6231
2026-01-26 13:19:55.37	22.89	4.62	-42.3	-44.0	18.4	0.00e+00	0	29	0	51380224	58	6413
2026-01-26 13:19:56.38	22.95	4.68	-42.5	-44.3	17.9	0.00e+00	92	29	0	53477376	58	6686
2026-01-26 13:19:57.39	23.01	4.75	-42.2	-43.9	18.5	0.00e+00	8	29	0	55574528	58	6322
2026-01-26 13:19:58.40	23.07	4.81	-42.0	-43.6	18.8	0.00e+00	92	29	0	57671680	58	6146
2026-01-26 13:19:59.41	23.14	4.88	-41.8	-43.4	19.0	0.00e+00	7	29	0	58720256	58	6012
2026-01-26 13:20:00.42	23.20	4.94	-41.9	-43.5	18.7	0.00e+00	8	29	0	60817408	58	6056
2026-01-26 13:20:01.43	23.26	5.01	-41.9	-43.6	18.9	0.00e+00	0	29	0	62914560	56	6851
2026-01-26 13:20:02.44	23.33	5.07	-41.9	-43.5	19.0	0.00e+00	6	29	0	65011712	56	6797
2026-01-26 13:20:03.45	23.39	5.14	-42.0	-43.7	18.7	0.00e+00	92	29	0	67108864	56	6938
2026-01-26 13:20:04.45	23.45	5.21	-42.1	-43.7	18.9	0.00e+00	5	29	0	68157440	56	6934
2026-01-26 13:20:05.46	23.52	5.27	-42.2	-43.8	18.8	0.00e+00	91	29	0	70254592	56	7055
2026-01-26 13:20:06.47	23.58	5.34	-41.8	-43.4	19.3	0.00e+00	6	29	0	72351744	56	6707
2026-01-26 13:20:07.48	23.65	5.40	-41.9	-43.5	19.0	0.00e+00	0	29	0	74448896	56	6802
2026-01-26 13:20:08.49	23.71	5.47	-41.9	-43.4	19.1	0.00e+00	6	29	0	76546048	56	6741
2026-01-26 13:20:09.50	23.78	5.54	-41.5	-42.9	19.7	0.00e+00	5	29	0	77594624	56	6354
2026-01-26 13:20:10.51	23.84	5.60	-41.5	-43.0	19.4	0.00e+00	59	29	0	79691776	56	6435
2026-01-26 13:20:11.52	23.91	5.67	-41.3	-42.8	19.8	0.00e+00	76	29	0	81788928	56	6262
2026-01-26 13:20:12.53	23.98	5.73	-41.5	-42.9	19.6	0.00e+00	92	29	0	83886080	56	6366
2026-01-26 13:20:13.54	24.04	5.80	-41.3	-42.7	19.8	0.00e+00	0	29	0	85983232	56	6237
2026-01-26 13:20:14.55	24.11	5.87	-41.3	-42.7	19.9	0.00e+00	78	29	0	87031808	56	6230
2026-01-26 13:20:15.56	24.18	5.94	-41.3	-42.7	19.9	0.00e+00	78	29	0	89128960	56	6175
2026-01-26 13:20:16.57	24.24	6.00	-40.9	-42.2	20.3	0.00e+00	79	29	0	91226112	56	5888
2026-01-26 13:20:17.58	24.31	6.07	-41.4	-42.8	19.8	0.00e+00	0	29	0	93323264	56	6287
2026-01-26 13:20:18.59	24.38	6.14	-41.2	-42.6	20.0	0.00e+00	79	29	0	95420416	56	6132
2026-01-26 13:20:19.60	24.45	6.21	-41.2	-42.6	19.9	0.00e+00	92	29	0	96468992	56	6154
2026-01-26 13:20:20.61	24.52	6.27	-41.1	-42.4	20.1	0.00e+00	9	29	0	98566144	56	6021
2026-01-26 13:20:21.61	24.59	6.34	-41.3	-42.7	20.0	0.00e+00	74	29	0	100663296	56	6176
2026-01-26 13:20:22.62	24.65	6.41	-41.3	-42.7	19.8	0.00e+00	6	29	0	102760448	56	6186
2026-01-26 13:20:23.63	24.72	6.48	-41.2	-42.5	20.2	0.00e+00	8	29	0	104857600	56	6082
2026-01-26 13:20:24.64	24.79	6.55	-41.1	-42.4	20.1	0.00e+00	5	29	0	105906176	56	6024
2026-01-26 13:20:25.65	24.86	6.61	-41.1	-42.4	20.2	0.00e+00	0	29	0	108003328	56	6006
2026-01-26 13:20:26.65	24.93	6.68	-41.1	-42.5	20.2	0.00e+00	90	29	0	110100480	56	6040
2026-01-26 13:20:27.66	25.00	6.75	-41.0	-42.3	20.3	0.00e+00	0	29	0	112197632	56	5961
2026-01-26 13:20:28.67	25.08	6.82	-41.0	-42.3	20.3	0.00e+00	91	29	0	114294784	56	5923
2026-01-26 13:20:29.68	25.15	6.89	-40.9	-42.3	20.4	0.00e+00	0	29	0	116391936	56	5899
2026-01-26 13:20:30.69	25.22	6.96	-40.9	-42.1	20.3	0.00e+00	6	29	0	117440512	56	5827
2026-01-26 13:20:31.70	25.29	7.03	-40.7	-42.0	20.6	0.00e+00	5	29	0	119537664	54	6402
2026-01-26 13:20:32.71	25.36	7.10	-40.8	-42.1	20.5	0.00e+00	81	29	0	121634816	54	6486
2026-01-26 13:20:33.72	25.44	7.17	-40.6	-41.9	20.7	0.00e+00	75	29	0	123731968	54	6359
2026-01-26 13:20:34.73	25.51	7.24	-40.8	-42.1	20.5	0.00e+00	75	29	0	125829120	54	6477
2026-01-26 13:20:35.74	25.58	7.31	-40.5	-41.7	20.9	0.00e+00	92	29	0	126877696	54	6193
2026-01-26 13:20:36.74	25.66	7.38	-40.5	-41.7	20.9	0.00e+00	0	29	0	128974848	54	6196
2026-01-26 13:20:37.75	25.73	7.45	-40.4	-41.6	21.0	0.00e+00	81	29	0	131072000	54	6127
2026-01-26 13:20:38.76	25.80	7.52	-40.5	-41.7	21.0	0.00e+00	80	29	0	133169152	54	6193
2026-01-26 13:20:39.77	25.88	7.59	-40.2	-41.4	21.2	0.00e+00	79	29	0	135266304	54	5976
2026-01-26 13:20:40.78	25.95	7.66	-40.1	-41.2	21.3	0.00e+00	75	29	0	136314880	54	5884
2026-01-26 13:20:41.79	26.03	7.73	-40.1	-41.2	21.3	0.00e+00	73	29	0	138412032	54	5892
2026-01-26 13:20:42.80	26.10	7.80	-40.0	-41.1	21.4	0.00e+00	92	29	0	140509184	54	5803
2026-01-26 13:20:43.81	26.18	7.87	-39.9	-41.1	21.5	0.00e+00	4	29	0	142606336	54	5768
2026-01-26 13:20:44.82	26.26	7.95	-39.9	-41.1	21.6	0.00e+00	92	29	0	144703488	54	5772
2026-01-26 13:20:45.83	26.33	8.02	-39.9	-41.0	21.7	0.00e+00	0	29	0	145752064	52	6402
2026-01-26 13:20:46.84	26.41	8.09	-39.9	-41.0	21.6	0.00e+00	0	29	0	147849216	52	6401
2026-01-26 13:20:47.85	26.49	8.16	-39.9	-41.0	21.7	0.00e+00	1	29	0	149946368	52	6454
2026-01-26 13:20:48.86	26.57	8.23	-39.7	-40.8	21.8	0.00e+00	2	29	0	152043520	52	6271
2026-01-26 13:20:49.87	26.64	8.31	-39.8	-40.9	21.7	0.00e+00	90	29	0	154140672	52	6365
2026-01-26 13:20:50.88	26.72	8.38	-39.8	-40.9	21.7	0.00e+00	0	29	0	155189248	52	6368
2026-01-26 13:20:51.89	26.80	8.45	-39.7	-40.7	21.9	0.00e+00	90	29	0	157286400	52	6232
2026-01-26 13:20:52.89	26.88	8.52	-39.7	-40.8	21.9	0.00e+00	0	29	0	159383552	52	6248
2026-01-26 13:20:53.90	26.96	8.60	-39.7	-40.7	21.9	0.00e+00	0	29	0	161480704	52	6229
2026-01-26 13:20:54.91	27.04	8.67	-39.7	-40.7	21.9	0.00e+00	0	29	0	163577856	52	6226
2026-01-26 13:20:55.92	27.12	8.74	-39.5	-40.6	21.9	0.00e+00	79	29	0	164626432	52	6140
2026-01-26 13:20:56.93	27.20	8.82	-39.6	-40.6	22.0	0.00e+00	75	29	0	166723584	52	6155
2026-01-26 13:20:57.94	27.28	8.89	-39.4	-40.4	22.0	0.00e+00	75	29	0	168820736	52	6015
2026-01-26 13:20:58.95	27.36	8.96	-39.5	-40.5	22.1	0.00e+00	91	29	0	170917888	52	6102
2026-01-26 13:20:59.96	27.45	9.04	-39.2	-40.2	22.3	0.00e+00	80	29	0	173015040	52	5865
2026-01-26 13:21:00.97	27.53	9.11	-39.2	-40.2	22.4	0.00e+00	43	29	0	174063616	52	5845
2026-01-26 13:21:01.98	27.61	9.19	-39.1	-40.1	22.5	0.00e+00	80	29	0	176160768	52	5775
2026-01-26 13:21:02.98	27.69	9.26	-39.3	-40.3	22.3	0.00e+00	80	29	0	178257920	52	5923
2026-01-26 13:21:04.00	27.78	9.34	-39.2	-40.2	22.5	0.00e+00	61	29	0	180355072	52	5835
2026-01-26 13:21:05.00	27.86	9.41	-39.1	-40.1	22.6	0.00e+00	1	29	0	182452224	52	5783
2026-01-26 13:21:06.01	27.94	9.48	-39.0	-39.9	22.6	0.00e+00	92	29	0	184549376	52	5685
2026-01-26 13:21:07.02	28.03	9.56	-39.1	-40.0	22.6	0.00e+00	0	29	0	185597952	52	5756
2026-01-26 13:21:08.03	28.11	9.64	-39.0	-40.0	22.7	0.00e+00	92	29	0	187695104	52	5713
2026-01-26 13:21:09.04	28.20	9.71	-39.0	-40.0	22.6	0.00e+00	1	29	0	189792256	52	5732
2026-01-26 13:21:10.05	28.29	9.79	-39.0	-40.0	22.6	0.00e+00	0	29	0	191889408	52	5731
2026-01-26 13:21:11.06	28.37	9.86	-39.1	-40.1	22.5	0.00e+00	0	29	0	193986560	52	5806
2026-01-26 13:21:12.07	28.46	9.94	-39.0	-40.0	22.6	0.00e+00	0	29	0	195035136	52	5729
2026-01-26 13:21:13.08	28.55	10.02	-39.0	-40.0	22.7	0.00e+00	92	29	0	197132288	52	5728
2026-01-26 13:21:14.09	28.63	10.09	-39.0	-40.0	22.7	0.00e+00	0	29	0	199229440	52	5722
2026-01-26 13:21:15.10	28.72	10.17	-39.2	-40.2	22.5	0.00e+00	92	29	0	201326592	52	5874
2026-01-26 13:21:16.11	28.81	10.25	-39.1	-40.1	22.7	0.00e+00	0	29	0	203423744	52	5780
2026-01-26 13:21:17.12	28.90	10.32	-39.0	-39.9	22.8	0.00e+00	81	29	0	204472320	52	5688
2026-01-26 13:21:18.13	28.99	10.40	-39.0	-40.0	22.7	0.00e+00	0	29	0	206569472	52	5746
2026-01-26 13:21:19.13	29.08	10.48	-38.9	-39.9	22.9	0.00e+00	0	29	0	208666624	52	5661
2026-01-26 13:21:20.14	29.17	10.55	-38.9	-39.8	22.9	0.00e+00	0	29	0	210763776	52	5612
2026-01-26 13:21:21.15	29.26	10.63	-38.8	-39.8	23.0	0.00e+00	75	29	0	212860928	52	5573
2026-01-26 13:21:22.16	29.35	10.71	-39.0	-40.0	22.7	0.00e+00	92	29	0	213909504	50	6393
2026-01-26 13:21:23.17	29.44	10.79	-38.5	-39.5	23.2	0.00e+00	0	29	0	216006656	50	6052
2026-01-26 13:21:24.18	29.53	10.87	-38.6	-39.6	23.1	0.00e+00	91	29	0	218103808	50	6121
2026-01-26 13:21:25.19	29.63	10.95	-38.6	-39.6	23.1	0.00e+00	81	29	0	220200960	50	6117
2026-01-26 13:21:26.20	29.72	11.02	-38.6	-39.5	23.1	0.00e+00	0	29	0	222298112	50	6083
2026-01-26 13:21:27.21	29.81	11.10	-38.6	-39.5	23.1	0.00e+00	2	29	0	223346688	50	6087
2026-01-26 13:21:28.22	29.91	11.18	-38.5	-39.4	23.2	0.00e+00	0	29	0	225443840	50	6005
2026-01-26 13:21:29.23	30.00	11.26	-38.6	-39.6	23.1	0.00e+00	91	29	0	227540992	50	6132
2026-01-26 13:21:30.24	30.10	11.34	-38.7	-39.7	23.1	0.00e+00	0	29	0	229638144	50	6181
2026-01-26 13:21:31.25	30.19	11.42	-38.5	-39.5	23.2	0.00e+00	92	29	0	231735296	50	6052
2026-01-26 13:21:32.26	30.29	11.50	-38.6	-39.5	23.3	0.00e+00	0	29	0	232783872	50	6055
2026-01-26 13:21:33.26	30.38	11.58	-38.5	-39.4	23.3	0.00e+00	0	29	0	234881024	50	6008
2026-01-26 13:21:34.28	30.48	11.66	-38.6	-39.5	23.1	0.00e+00	0	29	0	236978176	50	6086
2026-01-26 13:21:35.28	30.58	11.74	-38.6	-39.5	23.0	0.00e+00	0	29	0	239075328	50	6095
2026-01-26 13:21:36.29	30.68	11.82	-38.6	-39.6	23.2	0.00e+00	87	29	0	241172480	50	6121
2026-01-26 13:21:37.30	30.78	11.90	-38.6	-39.6	23.1	0.00e+00	0	29	0	242221056	50	6127
2026-01-26 13:21:38.31	30.88	11.98	-38.6	-39.6	23.0	0.00e+00	91	29	0	244318208	50	6131
2026-01-26 13:21:39.32	30.97	12.06	-38.6	-39.6	23.1	0.00e+00	0	29	0	246415360	50	6121
2026-01-26 13:21:40.33	31.07	12.15	-38.6	-39.5	23.3	0.00e+00	80	29	0	248512512	50	6100
2026-01-26 13:21:41.34	31.18	12.23	-38.4	-39.3	23.3	0.00e+00	0	29	0	250609664	50	5955
2026-01-26 13:21:42.35	31.28	12.31	-38.3	-39.2	23.5	0.00e+00	80	29	0	251658240	50	5887
2026-01-26 13:21:43.36	31.38	12.39	-38.2	-39.1	23.6	0.00e+00	0	29	0	253755392	50	5764
2026-01-26 13:21:44.37	31.48	12.47	-38.4	-39.3	23.3	0.00e+00	0	29	0	255852544	50	5930
2026-01-26 13:21:45.37	31.58	12.56	-38.2	-39.1	23.5	0.00e+00	92	29	0	257949696	50	5798
2026-01-26 13:21:46.39	31.69	12.64	-38.3	-39.2	23.2	0.00e+00	0	29	0	260046848	50	5833
2026-01-26 13:21:47.39	31.79	12.72	-38.2	-39.1	23.4	0.00e+00	0	29	0	261095424	50	5817
2026-01-26 13:21:48.40	31.89	12.80	-38.2	-39.1	23.6	0.00e+00	0	29	0	263192576	50	5804
2026-01-26 13:21:49.41	32.00	12.89	-38.1	-39.0	23.7	0.00e+00	5	29	0	265289728	50	5754
2026-01-26 13:21:50.42	32.10	12.97	-38.3	-39.2	23.6	0.00e+00	0	29	0	267386880	50	5842
2026-01-26 13:21:51.43	32.21	13.05	-38.1	-39.0	23.7	0.00e+00	0	29	0	269484032	50	5727
2026-01-26 13:21:52.44	32.32	13.14	-38.3	-39.2	23.6	0.00e+00	92	29	0	270532608	50	5857
2026-01-26 13:21:53.45	32.43	13.22	-38.2	-39.1	23.5	0.00e+00	7	29	0	272629760	50	5820
2026-01-26 13:21:54.46	32.53	13.31	-38.3	-39.2	23.6	0.00e+00	0	29	0	274726912	50	5835
2026-01-26 13:21:55.47	32.64	13.39	-38.2	-39.1	23.6	0.00e+00	5	29	0	276824064	50	5779
2026-01-26 13:21:56.48	32.75	13.48	-38.4	-39.3	23.5	0.00e+00	6	29	0	278921216	50	5914
2026-01-26 13:21:57.49	32.86	13.56	-38.4	-39.3	23.4	0.00e+00	5	29	0	281018368	50	5936
2026-01-26 13:21:58.49	32.97	13.64	-38.5	-39.4	23.3	0.00e+00	0	29	0	282066944	50	6021
2026-01-26 13:21:59.50	33.08	13.73	-38.4	-39.4	23.4	0.00e+00	92	29	0	284164096	50	5974
2026-01-26 13:22:00.51	33.19	13.82	-38.5	-39.5	23.3	0.00e+00	0	29	0	286261248	50	6053
2026-01-26 13:22:01.52	33.30	13.90	-38.5	-39.4	23.3	0.00e+00	91	29	0	288358400	50	6031
2026-01-26 13:22:02.53	33.42	13.99	-38.5	-39.5	23.4	0.00e+00	0	29	0	290455552	50	6043
2026-01-26 13:22:03.54	33.53	14.07	-38.6	-39.5	23.2	0.00e+00	76	29	0	291504128	50	6092
2026-01-26 13:22:04.55	33.64	14.16	-38.6	-39.6	23.2	0.00e+00	0	29	0	293601280	50	6123
2026-01-26 13:22:05.56	33.76	14.25	-38.8	-39.7	23.1	0.00e+00	83	29	0	295698432	50	6201
2026-01-26 13:22:06.57	33.87	14.33	-38.8	-39.7	23.1	0.00e+00	0	29	0	297795584	50	6243
2026-01-26 13:22:07.58	33.99	14.42	-38.9	-39.9	23.1	0.00e+00	80	29	0	299892736	50	6327
2026-01-26 13:22:08.59	34.11	14.51	-39.0	-39.9	22.9	0.00e+00	92	29	0	300941312	50	6388
2026-01-26 13:22:09.60	34.22	14.59	-38.9	-39.8	23.0	0.00e+00	4	29	0	303038464	50	6297
2026-01-26 13:22:10.61	34.34	14.68	-38.8	-39.7	23.2	0.00e+00	6	29	0	305135616	50	6228
2026-01-26 13:22:11.61	34.46	14.77	-38.8	-39.8	23.1	0.00e+00	11	29	0	307232768	50	6256
2026-01-26 13:22:12.62	34.58	14.86	-38.9	-39.8	23.0	0.00e+00	5	29	0	309329920	50	6305
2026-01-26 13:22:13.63	34.70	14.94	-38.9	-39.8	23.0	0.00e+00	0	29	0	310378496	50	6306
2026-01-26 13:22:14.65	34.82	15.03	-38.9	-39.9	23.1	0.00e+00	6	29	0	312475648	50	6351
2026-01-26 13:22:15.66	34.94	15.12	-38.8	-39.8	23.0	0.00e+00	91	29	0	314572800	50	6268
2026-01-26 13:22:16.66	35.06	15.21	-39.0	-39.9	22.9	0.00e+00	0	29	0	316669952	50	6372
2026-01-26 13:22:17.68	35.19	15.30	-38.9	-39.9	23.0	0.00e+00	89	29	0	318767104	50	6330
2026-01-26 13:22:18.68	35.31	15.39	-39.0	-40.0	23.0	0.00e+00	6	29	0	319815680	50	6403
2026-01-26 13:22:19.69	35.43	15.48	-38.9	-39.9	22.8	0.00e+00	0	29	0	321912832	50	6328
2026-01-26 13:22:20.70	35.56	15.57	-39.0	-39.9	22.5	0.00e+00	0	29	0	324009984	50	6373
2026-01-26 13:22:21.71	35.68	15.66	-38.9	-39.8	23.0	0.00e+00	0	29	0	326107136	50	6284
2026-01-26 13:22:22.72	35.81	15.75	-38.9	-39.8	23.0	0.00e+00	53	29	0	328204288	50	6298
2026-01-26 13:22:23.73	35.94	15.84	-38.9	-39.9	23.0	0.00e+00	80	29	0	329252864	50	6332
2026-01-26 13:22:24.74	36.06	15.93	-39.1	-40.1	22.8	0.00e+00	92	29	0	331350016	50	6487
2026-01-26 13:22:25.75	36.19	16.02	-39.0	-40.0	23.0	0.00e+00	77	29	0	333447168	50	6418
2026-01-26 13:22:26.76	36.32	16.11	-39.1	-40.1	22.9	0.00e+00	4	29	0	335544320	50	6480
2026-01-26 13:22:27.76	36.45	16.20	-39.3	-40.2	22.8	0.00e+00	4	29	0	337641472	50	6609
2026-01-26 13:22:28.77	36.58	16.29	-39.2	-40.1	22.8	0.00e+00	0	29	0	338690048	50	6536
2026-01-26 13:22:29.78	36.71	16.38	-39.2	-40.2	22.8	0.00e+00	72	29	0	340787200	50	6583
2026-01-26 13:22:30.79	36.85	16.47	-39.1	-40.1	22.9	0.00e+00	0	29	0	342884352	50	6482
2026-01-26 13:22:31.80	36.98	16.57	-39.3	-40.3	22.6	0.00e+00	90	29	0	344981504	50	6654
2026-01-26 13:22:32.81	37.11	16.66	-39.3	-40.3	22.7	0.00e+00	0	29	0	347078656	50	6624
2026-01-26 13:22:33.82	37.25	16.75	-39.2	-40.2	22.8	0.00e+00	2	29	0	349175808	50	6591
2026-01-26 13:22:34.83	37.38	16.84	-39.2	-40.1	22.8	0.00e+00	4	29	0	350224384	50	6536
2026-01-26 13:22:35.84	37.52	16.94	-39.3	-40.3	22.7	0.00e+00	2	29	0	352321536	50	6640
2026-01-26 13:22:36.85	37.66	17.03	-39.4	-40.4	22.6	0.00e+00	0	29	0	354418688	50	6735
2026-01-26 13:22:37.86	37.79	17.12	-39.4	-40.4	22.5	0.00e+00	0	29	0	356515840	50	6716
2026-01-26 13:22:38.86	37.93	17.21	-39.4	-40.4	22.6	0.00e+00	92	30	0	358612992	50	6734
2026-01-26 13:22:39.87	38.07	17.31	-39.3	-40.2	22.7	0.00e+00	0	29	0	359661568	50	6615
2026-01-26 13:22:40.88	38.21	17.40	-39.3	-40.3	22.6	0.00e+00	92	29	0	361758720	50	6684
2026-01-26 13:22:41.89	38.35	17.50	-39.3	-40.3	22.7	0.00e+00	0	30	0	363855872	50	6649
2026-01-26 13:22:42.90	38.49	17.59	-39.2	-40.2	22.8	0.00e+00	0	30	0	365953024	50	6566
2026-01-26 13:22:43.91	38.64	17.68	-39.1	-40.1	22.9	0.00e+00	81	29	0	368050176	50	6502
2026-01-26 13:22:44.92	38.78	17.78	-38.9	-39.8	23.1	0.00e+00	0	29	0	369098752	50	6291
2026-01-26 13:22:45.93	38.93	17.87	-38.9	-39.9	23.1	0.00e+00	12	29	0	371195904	50	6326
2026-01-26 13:22:46.94	39.07	17.97	-38.8	-39.7	23.0	0.00e+00	0	29	0	373293056	50	6217
2026-01-26 13:22:47.95	39.22	18.06	-38.7	-39.6	23.3	0.00e+00	92	29	0	375390208	50	6154
2026-01-26 13:22:48.96	39.36	18.16	-38.7	-39.6	23.3	0.00e+00	81	29	0	377487360	50	6118
2026-01-26 13:22:49.97	39.51	18.25	-38.6	-39.5	23.4	0.00e+00	76	29	0	378535936	50	6081
2026-01-26 13:22:50.98	39.66	18.35	-38.7	-39.6	23.4	0.00e+00	0	29	0	380633088	50	6111
2026-01-26 13:22:51.99	39.81	18.45	-38.8	-39.7	23.3	0.00e+00	76	29	0	382730240	50	6197
2026-01-26 13:22:53.00	39.96	18.54	-38.8	-39.7	23.2	0.00e+00	79	29	0	384827392	50	6215
2026-01-26 13:22:54.01	40.12	18.64	-38.8	-39.8	23.2	0.00e+00	0	29	0	386924544	50	6268
2026-01-26 13:22:55.02	40.27	18.73	-38.9	-39.8	23.2	0.00e+00	92	29	0	387973120	50	6278
2026-01-26 13:22:56.03	40.42	18.83	-38.8	-39.8	23.2	0.00e+00	0	29	0	390070272	50	6265
2026-01-26 13:22:57.04	40.58	18.93	-38.8	-39.8	23.2	0.00e+00	85	29	0	392167424	50	6252
2026-01-26 13:22:58.04	40.73	19.02	-38.8	-39.8	23.3	0.00e+00	2	29	0	394264576	50	6260
2026-01-26 13:22:59.05	40.89	19.12	-38.7	-39.6	23.4	0.00e+00	0	29	0	396361728	50	6123
2026-01-26 13:23:00.06	41.04	19.22	-38.6	-39.5	23.4	0.00e+00	2	29	0	397410304	50	6099
2026-01-26 13:23:01.06	41.20	19.31	-38.6	-39.5	23.4	0.00e+00	0	29	0	399507456	50	6068
2026-01-26 13:23:02.07	41.36	19.41	-38.8	-39.7	23.3	0.00e+00	92	30	0	401604608	50	6198
2026-01-26 13:23:03.08	41.52	19.51	-38.7	-39.7	23.4	0.00e+00	0	29	0	403701760	50	6175
2026-01-26 13:23:04.09	41.68	19.61	-38.9	-39.9	23.1	0.00e+00	92	30	0	405798912	50	6336
2026-01-26 13:23:05.10	41.85	19.71	-38.7	-39.6	23.3	0.00e+00	2	30	0	406847488	50	6170
2026-01-26 13:23:06.11	42.01	19.80	-38.6	-39.5	23.4	0.00e+00	2	29	0	408944640	50	6083
2026-01-26 13:23:07.12	42.17	19.90	-38.8	-39.7	23.1	0.00e+00	0	29	0	411041792	50	6212
2026-01-26 13:23:08.13	42.34	20.00	-38.5	-39.4	23.2	0.00e+00	81	29	0	413138944	50	5969
2026-01-26 13:23:09.14	42.51	20.10	-38.4	-39.3	23.7	0.00e+00	84	30	0	415236096	50	5910
2026-01-26 13:23:10.15	42.67	20.20	-38.3	-39.2	23.3	0.00e+00	81	29	0	416284672	50	5852
2026-01-26 13:23:11.16	42.84	20.30	-38.3	-39.1	23.8	0.00e+00	91	29	0	418381824	50	5822
2026-01-26 13:23:12.17	43.01	20.40	-38.1	-39.0	23.9	0.00e+00	81	30	0	420478976	50	5705
2026-01-26 13:23:13.18	43.18	20.50	-38.1	-39.0	23.9	0.00e+00	32	29	0	422576128	50	5743
2026-01-26 13:23:14.19	43.36	20.60	-38.1	-38.9	23.9	0.00e+00	0	30	0	424673280	50	5683
2026-01-26 13:23:15.20	43.53	20.70	-38.2	-39.1	23.8	0.00e+00	0	30	0	425721856	50	5786
2026-01-26 13:23:16.21	43.70	20.80	-38.2	-39.0	23.8	0.00e+00	0	30	0	427819008	50	5747
2026-01-26 13:23:17.22	43.88	20.90	-38.2	-39.0	23.9	0.00e+00	2	30	0	429916160	50	5758
2026-01-26 13:23:18.23	44.05	21.00	-38.0	-38.9	24.0	0.00e+00	92	29	0	432013312	50	5644
2026-01-26 13:23:19.24	44.23	21.10	-38.1	-39.0	24.0	0.00e+00	0	29	0	434110464	50	5700
2026-01-26 13:23:20.24	44.41	21.20	-38.0	-38.8	24.1	0.00e+00	67	30	0	435159040	50	5615
2026-01-26 13:23:21.25	44.59	21.30	-37.9	-38.8	24.1	0.00e+00	0	30	0	437256192	50	5604
2026-01-26 13:23:22.26	44.77	21.40	-37.9	-38.7	24.2	0.00e+00	0	29	0	439353344	50	5553
2026-01-26 13:23:23.27	44.95	21.50	-37.7	-38.6	24.2	0.00e+00	0	30	0	441450496	50	5457
2026-01-26 13:23:24.28	45.13	21.60	-37.6	-38.4	24.4	0.00e+00	0	29	0	443547648	48	6017
2026-01-26 13:23:25.29	45.32	21.70	-37.4	-38.3	24.5	0.00e+00	92	30	0	445644800	48	5901
2026-01-26 13:23:26.30	45.50	21.80	-37.4	-38.2	24.5	0.00e+00	0	29	0	446693376	48	5895
2026-01-26 13:23:27.31	45.69	21.90	-37.3	-38.1	24.6	0.00e+00	92	30	0	448790528	48	5814
2026-01-26 13:23:28.32	45.88	22.00	-37.6	-38.5	24.6	0.00e+00	81	29	0	450887680	48	6043
2026-01-26 13:23:29.33	46.07	22.11	-37.5	-38.3	24.5	0.00e+00	0	29	0	452984832	48	5948
2026-01-26 13:23:30.34	46.26	22.21	-37.3	-38.1	24.7	0.00e+00	0	29	0	455081984	48	5801
2026-01-26 13:23:31.35	46.45	22.31	-37.1	-37.9	24.8	0.00e+00	0	29	0	456130560	48	5671
2026-01-26 13:23:32.36	46.64	22.41	-36.9	-37.7	25.0	0.00e+00	79	29	0	458227712	48	5528
2026-01-26 13:23:33.37	46.84	22.51	-36.7	-37.4	25.2	0.00e+00	0	29	0	460324864	46	6016
2026-01-26 13:23:34.38	47.03	22.61	-36.7	-37.5	25.0	0.00e+00	90	29	0	462422016	46	6071
2026-01-26 13:23:35.39	47.23	22.72	-36.7	-37.5	25.2	0.00e+00	0	30	0	464519168	46	6056
2026-01-26 13:23:36.40	47.43	22.82	-36.8	-37.6	25.0	0.00e+00	90	29	0	465567744	46	6108
2026-01-26 13:23:37.41	47.62	22.92	-36.5	-37.2	25.4	0.00e+00	6	30	0	467664896	46	5875
2026-01-26 13:23:38.41	47.82	23.02	-36.5	-37.2	25.4	0.00e+00	5	29	0	469762048	46	5889
2026-01-26 13:23:39.42	48.02	23.12	-36.7	-37.4	25.2	0.00e+00	0	30	0	471859200	46	6016
2026-01-26 13:23:40.44	48.23	23.23	-36.7	-37.5	25.0	0.00e+00	6	30	0	473956352	46	6092
2026-01-26 13:23:41.44	48.43	23.33	-36.9	-37.7	25.0	0.00e+00	92	29	0	475004928	46	6180
2026-01-26 13:23:42.45	48.64	23.43	-36.8	-37.6	25.2	0.00e+00	5	30	0	477102080	46	6154
2026-01-26 13:23:43.46	48.84	23.53	-37.0	-37.8	24.9	0.00e+00	92	29	0	479199232	46	6291
2026-01-26 13:23:44.47	49.05	23.63	-36.8	-37.6	25.1	0.00e+00	7	29	0	481296384	46	6138
2026-01-26 13:23:45.48	49.26	23.74	-36.7	-37.5	25.2	0.00e+00	0	29	0	483393536	46	6072
2026-01-26 13:23:46.49	49.47	23.84	-36.8	-37.5	25.2	0.00e+00	0	29	0	484442112	46	6099
2026-01-26 13:23:47.50	49.68	23.94	-36.9	-37.7	25.0	0.00e+00	5	30	0	486539264	46	6222
2026-01-26 13:23:48.51	49.90	24.04	-36.8	-37.6	25.2	0.00e+00	92	30	0	488636416	46	6123
2026-01-26 13:23:49.52	50.11	24.15	-37.0	-37.8	25.0	0.00e+00	84	30	0	490733568	46	6283
2026-01-26 13:23:50.53	50.33	24.25	-37.1	-37.9	24.8	0.00e+00	92	30	0	492830720	46	6369
2026-01-26 13:23:51.54	50.55	24.35	-37.1	-37.9	24.8	0.00e+00	83	29	0	493879296	46	6334
2026-01-26 13:23:52.55	50.76	24.45	-37.1	-38.0	24.8	0.00e+00	84	29	0	495976448	46	6403
2026-01-26 13:23:53.56	50.99	24.56	-37.1	-37.9	24.9	0.00e+00	5	30	0	498073600	46	6386
2026-01-26 13:23:54.57	51.21	24.66	-37.3	-38.1	24.7	0.00e+00	2	30	0	500170752	46	6515
2026-01-26 13:23:55.57	51.43	24.76	-37.2	-38.1	24.7	0.00e+00	61	30	0	502267904	46	6472
2026-01-26 13:23:56.58	51.65	24.86	-37.2	-38.0	24.8	0.00e+00	9	29	0	503316480	46	6422
2026-01-26 13:23:57.59	51.88	24.96	-37.3	-38.1	24.7	0.00e+00	90	30	0	505413632	46	6518
2026-01-26 13:23:58.60	52.11	25.07	-37.3	-38.2	24.3	0.00e+00	78	29	0	507510784	46	6563
2026-01-26 13:23:59.61	52.33	25.17	-37.4	-38.2	24.5	0.00e+00	92	29	0	509607936	46	6608
2026-01-26 13:24:00.62	52.57	25.27	-37.5	-38.4	24.5	0.00e+00	6	30	0	511705088	46	6724
2026-01-26 13:24:01.63	52.80	25.37	-37.5	-38.4	24.4	0.00e+00	0	30	0	513802240	46	6749
2026-01-26 13:24:02.64	53.03	25.47	-37.5	-38.4	24.6	0.00e+00	7	29	0	514850816	46	6705
2026-01-26 13:24:03.65	53.27	25.58	-37.4	-38.2	24.7	0.00e+00	7	29	0	516947968	46	6580
2026-01-26 13:24:04.65	53.50	25.68	-37.4	-38.2	24.7	0.00e+00	91	30	0	519045120	46	6611
2026-01-26 13:24:05.66	53.74	25.78	-37.5	-38.3	24.6	0.00e+00	0	30	0	521142272	46	6635
2026-01-26 13:24:06.67	53.98	25.88	-37.7	-38.5	24.3	0.00e+00	91	29	0	523239424	46	6825
2026-01-26 13:24:07.68	54.22	25.98	-37.9	-38.7	24.2	0.00e+00	7	30	0	524288000	48	6211
2026-01-26 13:24:08.69	54.46	26.08	-38.1	-38.9	23.9	0.00e+00	0	29	0	526385152	48	6374
2026-01-26 13:24:09.70	54.70	26.18	-38.3	-39.2	23.7	0.00e+00	0	30	0	528482304	48	6575
2026-01-26 13:24:10.71	54.95	26.28	-38.3	-39.2	23.8	0.00e+00	81	30	0	530579456	48	6598
2026-01-26 13:24:11.72	55.19	26.38	-38.5	-39.4	23.6	0.00e+00	64	30	0	532676608	48	6696
2026-01-26 13:24:12.73	55.44	26.48	-38.5	-39.4	23.6	0.00e+00	82	30	0	533725184	48	6739
2026-01-26 13:24:13.74	55.69	26.58	-38.5	-39.4	23.6	0.00e+00	92	30	0	535822336	48	6731
2026-01-26 13:24:14.75	55.94	26.68	-38.5	-39.4	23.7	0.00e+00	0	30	0	537919488	48	6718
2026-01-26 13:24:15.76	56.20	26.78	-38.7	-39.6	23.6	0.00e+00	82	30	0	540016640	48	6897
2026-01-26 13:24:16.77	56.45	26.88	-38.6	-39.5	23.5	0.00e+00	0	30	0	542113792	48	6808
2026-01-26 13:24:17.78	56.71	26.98	-38.6	-39.5	23.6	0.00e+00	81	29	0	543162368	48	6774
2026-01-26 13:24:18.79	56.97	27.08	-38.7	-39.6	23.5	0.00e+00	65	29	0	545259520	48	6874
2026-01-26 13:24:19.79	57.22	27.18	-38.5	-39.4	23.6	0.00e+00	82	30	0	547356672	48	6739
2026-01-26 13:24:20.80	57.48	27.28	-38.6	-39.5	23.5	0.00e+00	92	30	0	549453824	48	6830
2026-01-26 13:24:21.81	57.75	27.38	-38.7	-39.6	23.4	0.00e+00	0	30	0	551550976	48	6926
2026-01-26 13:24:22.82	58.01	27.47	-38.7	-39.6	23.4	0.00e+00	92	29	0	552599552	50	6150
2026-01-26 13:24:23.83	58.27	27.57	-39.0	-39.9	23.1	0.00e+00	0	29	0	554696704	50	6363
2026-01-26 13:24:24.84	58.54	27.67	-39.3	-40.3	22.8	0.00e+00	0	29	0	556793856	50	6644
2026-01-26 13:24:25.84	58.81	27.77	-39.7	-40.7	22.5	0.00e+00	1	29	0	558891008	50	6975
2026-01-26 13:24:26.85	59.08	27.86	-40.1	-41.1	22.2	0.00e+00	0	29	0	560988160	52	6523
2026-01-26 13:24:27.86	59.35	27.96	-40.1	-41.1	22.1	0.00e+00	92	29	0	562036736	52	6532
2026-01-26 13:24:28.87	59.62	28.06	-40.2	-41.3	22.0	0.00e+00	3	29	0	564133888	52	6668
2026-01-26 13:24:29.88	59.90	28.15	-40.3	-41.4	21.7	0.00e+00	92	30	0	566231040	52	6763
2026-01-26 13:24:30.89	60.18	28.25	-40.5	-41.7	21.7	0.00e+00	0	30	0	568328192	52	6934
2026-01-26 13:24:31.90	60.45	28.34	-40.7	-41.9	21.4	0.00e+00	17	30	0	570425344	52	7127
2026-01-26 13:24:32.91	60.73	28.44	-41.0	-42.2	21.1	0.00e+00	0	29	0	571473920	54	6591
2026-01-26 13:24:33.92	61.02	28.53	-41.3	-42.5	20.7	0.00e+00	0	30	0	573571072	54	6845
2026-01-26 13:24:34.93	61.30	28.62	-41.5	-42.8	20.5	0.00e+00	52	30	0	575668224	54	7032
2026-01-26 13:24:35.94	61.58	28.72	-41.7	-43.0	20.3	0.00e+00	0	30	0	577765376	54	7175
2026-01-26 13:24:36.95	61.87	28.81	-41.6	-42.9	20.5	0.00e+00	92	29	0	579862528	54	7125
2026-01-26 13:24:37.96	62.16	28.90	-41.9	-43.2	20.3	0.00e+00	81	29	0	581959680	56	6586
2026-01-26 13:24:38.97	62.45	28.99	-41.7	-43.0	20.5	0.00e+00	0	29	0	583008256	56	6428
2026-01-26 13:24:39.98	62.74	29.09	-41.5	-42.8	20.7	0.00e+00	81	30	0	585105408	56	6253
2026-01-26 13:24:40.98	63.03	29.18	-41.5	-42.7	20.8	0.00e+00	82	29	0	587202560	56	6230
2026-01-26 13:24:41.99	63.33	29.27	-41.3	-42.5	20.9	0.00e+00	69	29	0	589299712	56	6075
2026-01-26 13:24:43.00	63.62	29.36	-41.4	-42.7	20.7	0.00e+00	2	30	0	590348288	56	6175
2026-01-26 13:24:44.01	63.92	29.45	-41.7	-43.0	20.4	0.00e+00	92	29	0	592445440	56	6453
2026-01-26 13:24:45.02	64.22	29.54	-41.9	-43.3	20.1	0.00e+00	0	29	0	594542592	56	6633
2026-01-26 13:24:46.03	64.52	29.62	-42.1	-43.5	19.9	0.00e+00	92	29	0	596639744	56	6825
2026-01-26 13:24:47.04	64.82	29.71	-42.0	-43.4	20.1	0.00e+00	0	29	0	598736896	56	6700
2026-01-26 13:24:48.05	65.13	29.80	-41.9	-43.4	20.1	0.00e+00	0	29	0	599785472	56	6708
2026-01-26 13:24:49.06	65.43	29.89	-41.6	-43.0	20.6	0.00e+00	0	29	0	601882624	56	6395
2026-01-26 13:24:50.07	65.74	29.97	-41.1	-42.3	21.1	0.00e+00	0	29	0	603979776	56	5934
2026-01-26 13:24:51.08	66.05	30.06	-41.2	-42.4	20.9	0.00e+00	92	29	0	606076928	56	6029
2026-01-26 13:24:52.08	66.36	30.14	-40.6	-41.8	21.6	0.00e+00	0	30	0	608174080	54	6258
2026-01-26 13:24:53.09	66.67	30.22	-40.5	-41.7	21.6	0.00e+00	91	29	0	610271232	54	6208
2026-01-26 13:24:54.10	66.99	30.31	-40.4	-41.6	21.7	0.00e+00	0	29	0	611319808	54	6106
2026-01-26 13:24:55.11	67.30	30.39	-40.5	-41.6	21.5	0.00e+00	0	29	0	613416960	54	6159
2026-01-26 13:24:56.12	67.62	30.47	-40.5	-41.6	21.6	0.00e+00	0	29	0	615514112	54	6168
2026-01-26 13:24:57.13	67.94	30.55	-40.6	-41.8	21.6	0.00e+00	0	29	0	617611264	54	6301
2026-01-26 13:24:58.14	68.26	30.63	-40.7	-41.9	21.5	0.00e+00	0	29	0	619708416	54	6356
2026-01-26 13:24:59.15	68.58	30.71	-40.7	-41.9	21.5	0.00e+00	0	29	0	620756992	54	6365
2026-01-26 13:25:00.16	68.91	30.79	-40.9	-42.0	21.3	0.00e+00	92	29	0	622854144	54	6449
2026-01-26 13:25:01.17	69.23	30.87	-40.7	-41.8	21.5	0.00e+00	79	29	0	624951296	54	6284
2026-01-26 13:25:02.18	69.56	30.95	-40.3	-41.3	21.9	0.00e+00	71	29	0	627048448	54	5963
2026-01-26 13:25:03.19	69.89	31.03	-40.1	-41.2	22.1	0.00e+00	80	29	0	629145600	54	5835
2026-01-26 13:25:04.20	70.22	31.10	-40.0	-41.1	22.0	0.00e+00	0	29	0	630194176	54	5773
2026-01-26 13:25:05.21	70.55	31.18	-40.1	-41.1	22.2	0.00e+00	81	29	0	632291328	54	5816
2026-01-26 13:25:06.21	70.88	31.25	-40.4	-41.5	21.8	0.00e+00	2	29	0	634388480	54	6076
2026-01-26 13:25:07.22	71.21	31.32	-40.8	-42.0	21.3	0.00e+00	92	29	0	636485632	54	6442
2026-01-26 13:25:08.24	71.55	31.40	-41.6	-42.9	20.4	0.00e+00	0	29	0	638582784	54	7138
2026-01-26 13:25:09.25	71.89	31.47	-42.2	-43.6	19.9	0.00e+00	92	29	0	639631360	56	6861
2026-01-26 13:25:10.25	72.22	31.54	-42.0	-43.4	20.1	0.00e+00	0	29	0	641728512	56	6702
2026-01-26 13:25:11.26	72.56	31.61	-41.7	-43.0	20.4	0.00e+00	0	29	0	643825664	56	6394
2026-01-26 13:25:12.27	72.91	31.68	-41.6	-42.8	20.7	0.00e+00	0	29	0	645922816	56	6301
2026-01-26 13:25:13.28	73.25	31.75	-40.4	-41.5	21.8	0.00e+00	2	29	0	648019968	54	6100
2026-01-26 13:25:14.29	73.59	31.81	-40.2	-41.2	22.0	0.00e+00	84	29	0	649068544	54	5868
2026-01-26 13:25:15.30	73.94	31.88	-40.1	-41.1	22.1	0.00e+00	2	29	0	651165696	54	5814
2026-01-26 13:25:16.31	74.29	31.94	-40.1	-41.2	22.0	0.00e+00	92	29	0	653262848	54	5847
2026-01-26 13:25:17.32	74.64	32.01	-40.4	-41.5	21.8	0.00e+00	0	29	0	655360000	54	6059
2026-01-26 13:25:18.33	74.99	32.07	-40.5	-41.6	21.7	0.00e+00	81	29	0	657457152	54	6123
2026-01-26 13:25:19.34	75.34	32.13	-40.6	-41.8	21.5	0.00e+00	81	29	0	658505728	54	6265
2026-01-26 13:25:20.35	75.69	32.19	-40.7	-41.9	21.4	0.00e+00	0	29	0	660602880	54	6355
2026-01-26 13:25:21.36	76.04	32.25	-40.8	-41.9	21.3	0.00e+00	84	29	0	662700032	54	6386
2026-01-26 13:25:22.37	76.40	32.31	-40.9	-42.1	21.0	0.00e+00	2	29	0	664797184	54	6519
2026-01-26 13:25:23.38	76.76	32.37	-40.9	-42.0	21.3	0.00e+00	92	29	0	666894336	54	6444
2026-01-26 13:25:24.39	77.11	32.43	-40.8	-42.0	21.3	0.00e+00	82	29	0	667942912	54	6432
2026-01-26 13:25:25.39	77.47	32.48	-40.6	-41.7	21.6	0.00e+00	92	29	0	670040064	54	6243
2026-01-26 13:25:26.40	77.83	32.53	-40.6	-41.7	21.6	0.00e+00	5	29	0	672137216	54	6187
2026-01-26 13:25:27.41	78.19	32.59	-40.8	-41.9	21.5	0.00e+00	3	29	0	674234368	54	6369
2026-01-26 13:25:28.42	78.55	32.64	-41.1	-42.3	21.0	0.00e+00	14	29	0	676331520	54	6619
2026-01-26 13:25:29.43	78.92	32.69	-40.9	-42.1	21.2	0.00e+00	5	29	0	678428672	54	6516
2026-01-26 13:25:30.44	79.28	32.74	-41.0	-42.2	21.1	0.00e+00	90	29	0	679477248	54	6599
2026-01-26 13:25:31.45	79.65	32.79	-41.1	-42.3	21.1	0.00e+00	0	29	0	681574400	54	6645
2026-01-26 13:25:32.46	80.01	32.84	-40.9	-42.1	21.3	0.00e+00	92	29	0	683671552	54	6466
2026-01-26 13:25:33.47	80.38	32.88	-40.9	-42.0	21.3	0.00e+00	0	29	0	685768704	54	6458
2026-01-26 13:25:34.48	80.75	32.93	-40.6	-41.7	21.5	0.00e+00	7	29	0	687865856	54	6231
2026-01-26 13:25:35.49	81.12	32.97	-40.5	-41.6	21.7	0.00e+00	0	29	0	688914432	54	6139
2026-01-26 13:25:36.50	81.49	33.01	-40.4	-41.5	21.7	0.00e+00	0	29	0	691011584	54	6065
2026-01-26 13:25:37.51	81.87	33.05	-40.3	-41.4	21.8	0.00e+00	92	29	0	693108736	54	6022
2026-01-26 13:25:38.52	82.24	33.09	-40.3	-41.4	21.8	0.00e+00	0	29	0	695205888	54	5999
2026-01-26 13:25:39.53	82.61	33.13	-40.7	-41.8	21.5	0.00e+00	92	29	0	697303040	54	6283
2026-01-26 13:25:40.53	82.98	33.17	-40.8	-42.0	21.3	0.00e+00	0	29	0	698351616	54	6417
2026-01-26 13:25:41.54	83.36	33.21	-41.2	-42.4	20.9	0.00e+00	67	29	0	700448768	54	6764
2026-01-26 13:25:42.55	83.74	33.24	-41.1	-42.4	20.9	0.00e+00	83	29	0	702545920	54	6696
2026-01-26 13:25:43.56	84.11	33.27	-41.0	-42.2	21.1	0.00e+00	84	29	0	704643072	54	6587
2026-01-26 13:25:44.57	84.49	33.31	-41.0	-42.2	21.2	0.00e+00	0	29	0	706740224	54	6580
2026-01-26 13:25:45.58	84.87	33.34	-41.0	-42.1	21.1	0.00e+00	0	29	0	707788800	54	6539
2026-01-26 13:25:46.59	85.25	33.37	-41.3	-42.5	20.9	0.00e+00	92	29	0	709885952	54	6798
2026-01-26 13:25:47.60	85.63	33.40	-41.4	-42.7	20.7	0.00e+00	3	29	0	711983104	54	6951
2026-01-26 13:25:48.61	86.01	33.42	-41.5	-42.7	20.6	0.00e+00	46	29	0	714080256	54	7006
2026-01-26 13:25:49.62	86.39	33.45	-41.6	-42.9	20.5	0.00e+00	0	29	0	716177408	54	7111
2026-01-26 13:25:50.63	86.77	33.47	-41.3	-42.6	20.7	0.00e+00	3	29	0	717225984	54	6863
2026-01-26 13:25:51.64	87.15	33.49	-41.0	-42.2	21.2	0.00e+00	4	29	0	719323136	54	6572
2026-01-26 13:25:52.65	87.54	33.52	-41.1	-42.3	21.3	0.00e+00	7	29	0	721420288	54	6631
2026-01-26 13:25:53.66	87.92	33.54	-40.7	-41.8	21.6	0.00e+00	91	29	0	723517440	54	6283
2026-01-26 13:25:54.67	88.30	33.55	-40.2	-41.3	21.9	0.00e+00	0	29	0	725614592	54	5938
2026-01-26 13:25:55.68	88.69	33.57	-40.3	-41.4	21.9	0.00e+00	92	29	0	726663168	54	5994
2026-01-26 13:25:56.69	89.07	33.59	-40.6	-41.7	21.5	0.00e+00	6	29	0	728760320	54	6210
2026-01-26 13:25:57.69	89.45	33.60	-40.8	-42.0	21.3	0.00e+00	6	29	0	730857472	54	6432
2026-01-26 13:25:58.70	89.84	33.61	-41.1	-42.3	21.0	0.00e+00	0	29	0	732954624	54	6677
2026-01-26 13:25:59.71	90.23	33.63	-41.1	-42.4	20.9	0.00e+00	0	29	0	735051776	54	6730
2026-01-26 13:26:00.72	90.61	33.64	-40.9	-42.1	21.2	0.00e+00	92	29	0	736100352	54	6522
2026-01-26 13:26:01.73	91.00	33.64	-40.8	-41.9	21.5	0.00e+00	0	29	0	738197504	54	6343
2026-01-26 13:26:02.73	91.38	33.65	-40.6	-41.7	21.5	0.00e+00	92	29	0	740294656	54	6243
2026-01-26 13:26:03.74	91.77	33.66	-40.4	-41.6	21.7	0.00e+00	0	29	0	742391808	54	6115
2026-01-26 13:26:04.75	92.15	33.66	-40.5	-41.8	21.5	0.00e+00	81	29	0	744488960	54	6283
2026-01-26 13:26:05.76	92.54	33.66	-40.7	-41.9	21.4	0.00e+00	0	29	0	746586112	54	6352
2026-01-26 13:26:06.77	92.93	33.67	-40.9	-42.1	21.1	0.00e+00	81	29	0	747634688	54	6539
2026-01-26 13:26:07.78	93.31	33.67	-40.9	-42.2	21.2	0.00e+00	62	29	0	749731840	54	6573
2026-01-26 13:26:08.79	93.70	33.67	-40.9	-42.1	21.3	0.00e+00	0	29	0	751828992	54	6483
2026-01-26 13:26:09.80	94.09	33.66	-40.1	-41.1	22.0	0.00e+00	92	29	0	753926144	54	5823
2026-01-26 13:26:10.81	94.47	33.66	-40.0	-41.1	21.5	0.00e+00	0	29	0	756023296	54	5788
2026-01-26 13:26:11.82	94.86	33.65	-40.1	-41.2	22.0	0.00e+00	57	29	0	757071872	54	5866
2026-01-26 13:26:12.83	95.25	33.65	-40.0	-41.0	22.1	0.00e+00	2	29	0	759169024	54	5742
2026-01-26 13:26:13.84	95.63	33.64	-39.5	-40.5	22.7	0.00e+00	0	29	0	761266176	52	6084
2026-01-26 13:26:14.85	96.02	33.63	-39.7	-40.7	22.6	0.00e+00	0	29	0	763363328	52	6176
2026-01-26 13:26:15.85	96.40	33.62	-40.1	-41.1	22.0	0.00e+00	0	29	0	764411904	52	6523
2026-01-26 13:26:16.86	96.79	33.60	-41.1	-42.3	21.1	0.00e+00	92	29	0	766509056	54	6630
2026-01-26 13:26:17.87	97.17	33.59	-41.3	-42.6	20.8	0.00e+00	0	29	0	768606208	54	6856
2026-01-26 13:26:18.88	97.56	33.57	-41.2	-42.4	21.0	0.00e+00	92	29	0	770703360	54	6715
2026-01-26 13:26:19.89	97.94	33.56	-40.9	-42.1	21.2	0.00e+00	0	29	0	772800512	54	6493
2026-01-26 13:26:20.90	98.33	33.54	-41.2	-42.4	20.9	0.00e+00	0	29	0	774897664	54	6740
2026-01-26 13:26:21.91	98.71	33.52	-41.3	-42.6	20.8	0.00e+00	74	29	0	775946240	54	6860
2026-01-26 13:26:22.92	99.09	33.50	-41.4	-42.6	20.8	0.00e+00	0	29	0	778043392	54	6919
2026-01-26 13:26:23.93	99.48	33.48	-41.3	-42.5	20.9	0.00e+00	92	29	0	780140544	54	6831
2026-01-26 13:26:24.94	99.86	33.45	-41.4	-42.7	20.7	0.00e+00	0	29	0	782237696	54	6949
2026-01-26 13:26:25.95	100.24	33.43	-41.4	-42.7	20.5	0.00e+00	92	29	0	784334848	54	6955
2026-01-26 13:26:26.96	100.62	33.40	-41.2	-42.5	20.9	0.00e+00	0	29	0	785383424	54	6800
2026-01-26 13:26:27.97	101.00	33.37	-41.0	-42.2	21.2	0.00e+00	78	29	0	787480576	54	6581
2026-01-26 13:26:28.97	101.38	33.34	-40.8	-41.9	21.3	0.00e+00	77	29	0	789577728	54	6388
2026-01-26 13:26:29.98	101.76	33.31	-40.9	-42.2	21.1	0.00e+00	0	29	0	791674880	54	6548
2026-01-26 13:26:30.99	102.14	33.28	-41.1	-42.4	20.9	0.00e+00	62	29	0	793772032	54	6715
2026-01-26 13:26:32.00	102.51	33.25	-41.4	-42.7	20.7	0.00e+00	77	29	0	794820608	54	6955
2026-01-26 13:26:33.01	102.89	33.21	-41.3	-42.5	20.8	0.00e+00	92	29	0	796917760	54	6832
2026-01-26 13:26:34.02	103.27	33.18	-41.4	-42.6	20.7	0.00e+00	0	29	0	799014912	54	6874
2026-01-26 13:26:35.03	103.64	33.14	-41.6	-42.8	20.6	0.00e+00	39	29	0	801112064	54	7075
2026-01-26 13:26:36.03	104.01	33.10	-41.7	-43.0	20.3	0.00e+00	0	29	0	803209216	54	7229
2026-01-26 13:26:37.04	104.39	33.06	-41.7	-43.1	20.4	0.00e+00	0	29	0	804257792	56	6466
2026-01-26 13:26:38.05	104.76	33.02	-41.9	-43.3	20.3	0.00e+00	0	29	0	806354944	56	6636
2026-01-26 13:26:39.06	105.13	32.98	-42.1	-43.5	19.9	0.00e+00	0	29	0	808452096	56	6828
2026-01-26 13:26:40.07	105.50	32.94	-42.0	-43.3	20.2	0.00e+00	92	29	0	810549248	56	6678
2026-01-26 13:26:41.08	105.87	32.89	-41.4	-42.7	20.8	0.00e+00	0	29	0	812646400	56	6202
2026-01-26 13:26:42.09	106.24	32.85	-41.0	-42.2	21.2	0.00e+00	92	29	0	813694976	56	5853
2026-01-26 13:26:43.10	106.61	32.80	-40.7	-41.8	21.5	0.00e+00	0	29	0	815792128	54	6290
2026-01-26 13:26:44.11	106.98	32.75	-40.5	-41.7	21.7	0.00e+00	81	29	0	817889280	54	6179
2026-01-26 13:26:45.12	107.34	32.70	-40.6	-41.9	21.4	0.00e+00	0	29	0	819986432	54	6363
2026-01-26 13:26:46.13	107.71	32.65	-41.0	-42.4	20.9	0.00e+00	0	29	0	822083584	54	6751
2026-01-26 13:26:47.14	108.07	32.60	-41.0	-42.3	21.0	0.00e+00	42	29	0	823132160	54	6677
2026-01-26 13:26:48.15	108.43	32.55	-41.1	-42.3	21.1	0.00e+00	81	29	0	825229312	54	6688
2026-01-26 13:26:49.16	108.79	32.49	-41.0	-42.2	21.1	0.00e+00	90	29	0	827326464	54	6593
2026-01-26 13:26:50.17	109.15	32.44	-40.8	-41.9	21.4	0.00e+00	0	29	0	829423616	54	6346
2026-01-26 13:26:51.18	109.51	32.38	-40.7	-41.8	21.4	0.00e+00	0	29	0	831520768	54	6266
2026-01-26 13:26:52.19	109.87	32.32	-40.9	-42.0	21.3	0.00e+00	0	29	0	832569344	54	6430
2026-01-26 13:26:53.20	110.23	32.26	-41.0	-42.2	21.1	0.00e+00	0	29	0	834666496	54	6604
2026-01-26 13:26:54.21	110.58	32.20	-41.1	-42.3	21.0	0.00e+00	85	29	0	836763648	54	6641
2026-01-26 13:26:55.22	110.94	32.14	-41.1	-42.3	21.0	0.00e+00	0	29	0	838860800	54	6681
2026-01-26 13:26:56.23	111.29	32.08	-40.7	-41.8	21.5	0.00e+00	92	29	0	840957952	54	6308
2026-01-26 13:26:57.24	111.64	32.02	-40.4	-41.5	21.8	0.00e+00	2	29	0	843055104	54	6098
2026-01-26 13:26:58.24	111.98	31.95	-40.5	-41.6	21.8	0.00e+00	58	29	0	844103680	54	6139
2026-01-26 13:26:59.25	112.33	31.89	-40.4	-41.5	21.9	0.00e+00	0	29	0	846200832	54	6076
2026-01-26 13:27:00.26	112.68	31.82	-40.4	-41.5	21.7	0.00e+00	0	29	0	848297984	54	6059
2026-01-26 13:27:01.27	113.03	31.76	-40.7	-41.9	21.5	0.00e+00	0	29	0	850395136	54	6332
2026-01-26 13:27:02.28	113.37	31.69	-40.4	-41.4	21.9	0.00e+00	0	29	0	852492288	54	6026
2026-01-26 13:27:03.29	113.71	31.62	-40.4	-41.4	21.8	0.00e+00	90	29	0	853540864	54	6033
2026-01-26 13:27:04.30	114.05	31.55	-40.6	-41.7	21.5	0.00e+00	0	29	0	855638016	54	6231
2026-01-26 13:27:05.31	114.39	31.48	-41.0	-42.2	21.0	0.00e+00	92	28	0	857735168	54	6589
2026-01-26 13:27:06.32	114.73	31.41	-41.2	-42.4	21.0	0.00e+00	0	29	0	859832320	54	6750
2026-01-26 13:27:07.33	115.07	31.33	-41.2	-42.4	21.0	0.00e+00	0	29	0	861929472	54	6733
2026-01-26 13:27:08.34	115.41	31.26	-41.0	-42.2	21.1	0.00e+00	81	29	0	862978048	54	6555
2026-01-26 13:27:09.35	115.74	31.19	-40.9	-42.0	21.3	0.00e+00	81	29	0	865075200	54	6456
2026-01-26 13:27:10.36	116.07	31.11	-40.8	-41.9	21.3	0.00e+00	83	29	0	867172352	54	6374
2026-01-26 13:27:11.36	116.40	31.04	-41.0	-42.2	21.1	0.00e+00	0	29	0	869269504	54	6544
2026-01-26 13:27:12.38	116.73	30.96	-40.9	-42.1	21.3	0.00e+00	90	28	0	871366656	54	6503
2026-01-26 13:27:13.39	117.06	30.88	-40.8	-41.9	21.4	0.00e+00	81	29	0	872415232	54	6363
2026-01-26 13:27:14.40	117.39	30.80	-40.7	-41.8	21.5	0.00e+00	2	29	0	874512384	54	6286
2026-01-26 13:27:15.41	117.71	30.72	-40.3	-41.3	22.0	0.00e+00	0	29	0	876609536	54	5960
2026-01-26 13:27:16.41	118.03	30.64	-40.5	-41.6	21.7	0.00e+00	0	29	0	878706688	54	6173
2026-01-26 13:27:17.42	118.35	30.56	-40.4	-41.5	21.7	0.00e+00	18	29	0	880803840	54	6055
2026-01-26 13:27:18.43	118.67	30.48	-40.6	-41.7	21.6	0.00e+00	0	29	0	881852416	54	6215
2026-01-26 13:27:19.44	118.99	30.40	-40.8	-42.0	21.4	0.00e+00	92	29	0	883949568	54	6414
2026-01-26 13:27:20.45	119.31	30.32	-41.1	-42.4	21.0	0.00e+00	5	29	0	886046720	54	6694
2026-01-26 13:27:21.46	119.63	30.23	-41.0	-42.2	21.2	0.00e+00	1	28	0	888143872	54	6597
2026-01-26 13:27:22.47	119.94	30.15	-41.1	-42.2	21.2	0.00e+00	0	29	0	890241024	54	6594
2026-01-26 13:27:23.48	120.25	30.06	-41.0	-42.2	21.2	0.00e+00	0	28	0	891289600	54	6572
2026-01-26 13:27:24.49	120.56	29.98	-41.1	-42.3	21.0	0.00e+00	6	29	0	893386752	54	6660
2026-01-26 13:27:25.49	120.87	29.89	-41.0	-42.2	21.1	0.00e+00	0	29	0	895483904	54	6611
2026-01-26 13:27:26.50	121.18	29.81	-40.5	-41.6	21.7	0.00e+00	91	28	0	897581056	54	6149
2026-01-26 13:27:27.51	121.48	29.72	-40.0	-41.0	22.2	0.00e+00	76	28	0	899678208	54	5732
2026-01-26 13:27:28.52	121.78	29.63	-39.8	-40.9	22.4	0.00e+00	92	28	0	900726784	52	6330
2026-01-26 13:27:29.53	122.09	29.54	-39.7	-40.8	22.5	0.00e+00	0	28	0	902823936	52	6249
2026-01-26 13:27:30.54	122.39	29.45	-39.9	-40.9	22.4	0.00e+00	0	28	0	904921088	52	6384
2026-01-26 13:27:31.55	122.69	29.36	-40.3	-41.4	22.0	0.00e+00	76	28	0	907018240	52	6749
2026-01-26 13:27:32.56	122.99	29.27	-40.4	-41.5	21.8	0.00e+00	10	28	0	909115392	52	6788
2026-01-26 13:27:33.57	123.28	29.18	-40.3	-41.4	21.9	0.00e+00	81	28	0	911212544	52	6704
2026-01-26 13:27:34.58	123.58	29.09	-40.4	-41.5	21.9	0.00e+00	2	28	0	912261120	52	6815
2026-01-26 13:27:35.59	123.87	29.00	-40.2	-41.3	22.0	0.00e+00	92	29	0	914358272	52	6661
2026-01-26 13:27:36.60	124.16	28.91	-40.4	-41.5	21.9	0.00e+00	83	28	0	916455424	52	6805
2026-01-26 13:27:37.61	124.45	28.81	-40.6	-41.8	21.4	0.00e+00	7	28	0	918552576	52	7035
2026-01-26 13:27:38.62	124.74	28.72	-40.8	-42.0	21.2	0.00e+00	5	28	0	920649728	54	6444
2026-01-26 13:27:39.63	125.02	28.63	-40.7	-41.9	21.5	0.00e+00	8	28	0	921698304	54	6327
2026-01-26 13:27:40.64	125.31	28.53	-40.3	-41.4	21.9	0.00e+00	0	29	0	923795456	54	5973
2026-01-26 13:27:41.65	125.59	28.44	-40.0	-41.0	22.4	0.00e+00	3	28	0	925892608	54	5725
2026-01-26 13:27:42.66	125.87	28.34	-39.3	-40.3	23.0	0.00e+00	92	29	0	927989760	52	5898
2026-01-26 13:27:43.67	126.15	28.25	-39.8	-40.9	22.4	0.00e+00	0	28	0	930086912	52	6340
2026-01-26 13:27:44.67	126.43	28.15	-40.3	-41.4	21.8	0.00e+00	90	28	0	931135488	52	6758
2026-01-26 13:27:45.68	126.70	28.05	-40.7	-41.9	21.4	0.00e+00	0	28	0	933232640	52	7143
2026-01-26 13:27:46.69	126.98	27.96	-40.5	-41.7	21.6	0.00e+00	0	29	0	935329792	52	6930
2026-01-26 13:27:47.70	127.25	27.86	-40.0	-41.0	22.5	0.00e+00	0	29	0	937426944	52	6435
2026-01-26 13:27:48.71	127.52	27.76	-38.9	-39.8	23.2	0.00e+00	81	29	0	939524096	52	5590
2026-01-26 13:27:49.72	127.79	27.67	-38.9	-39.8	23.3	0.00e+00	92	29	0	940572672	52	5575
2026-01-26 13:27:50.73	128.06	27.57	-39.3	-40.2	22.8	0.00e+00	0	28	0	942669824	52	5895
2026-01-26 13:27:51.74	128.33	27.47	-40.1	-41.1	22.1	0.00e+00	92	28	0	944766976	52	6509
2026-01-26 13:27:52.75	128.59	27.37	-40.7	-41.9	21.3	0.00e+00	80	28	0	946864128	52	7118
2026-01-26 13:27:53.76	128.85	27.27	-40.8	-41.9	21.3	0.00e+00	1	28	0	948961280	54	6389
2026-01-26 13:27:54.77	129.12	27.17	-40.3	-41.4	21.8	0.00e+00	81	28	0	950009856	54	6029
2026-01-26 13:27:55.78	129.38	27.07	-39.9	-40.9	22.3	0.00e+00	76	28	0	952107008	54	5671
2026-01-26 13:27:56.79	129.64	26.97	-39.7	-40.7	22.6	0.00e+00	0	28	0	954204160	52	6182
2026-01-26 13:27:57.80	129.89	26.87	-39.9	-40.9	22.4	0.00e+00	4	28	0	956301312	52	6348
2026-01-26 13:27:58.81	130.15	26.77	-40.3	-41.5	21.8	0.00e+00	92	28	0	958398464	52	6785
2026-01-26 13:27:59.82	130.40	26.67	-40.7	-42.0	20.3	0.00e+00	4	28	0	959447040	52	7173
2026-01-26 13:28:00.83	130.65	26.57	-40.6	-41.9	21.4	0.00e+00	55	28	0	961544192	54	6325
2026-01-26 13:28:01.83	130.90	26.47	-40.1	-41.3	22.0	0.00e+00	0	28	0	963641344	54	5897
2026-01-26 13:28:02.84	131.15	26.37	-40.1	-41.1	22.0	0.00e+00	0	28	0	965738496	54	5804
2026-01-26 13:28:03.85	131.40	26.27	-39.7	-40.7	22.7	0.00e+00	5	28	0	967835648	52	6194
2026-01-26 13:28:04.86	131.65	26.17	-39.6	-40.6	22.6	0.00e+00	0	28	0	968884224	52	6131
2026-01-26 13:28:05.87	131.89	26.07	-40.2	-41.3	22.0	0.00e+00	90	28	0	970981376	52	6679
2026-01-26 13:28:06.88	132.13	25.97	-40.6	-41.8	21.5	0.00e+00	0	28	0	973078528	52	7050
2026-01-26 13:28:07.89	132.38	25.87	-41.0	-42.3	21.1	0.00e+00	90	28	0	975175680	54	6656
2026-01-26 13:28:08.90	132.62	25.76	-40.4	-41.6	21.7	0.00e+00	2	28	0	977272832	54	6117
2026-01-26 13:28:09.91	132.86	25.66	-39.7	-40.7	22.6	0.00e+00	0	28	0	979369984	54	5551
2026-01-26 13:28:10.92	133.09	25.56	-38.8	-39.7	23.4	0.00e+00	3	28	0	980418560	52	5534
2026-01-26 13:28:11.93	133.33	25.46	-38.6	-39.5	23.7	0.00e+00	81	28	0	982515712	50	6085
2026-01-26 13:28:12.94	133.56	25.35	-38.8	-39.7	23.3	0.00e+00	92	28	0	984612864	50	6195
2026-01-26 13:28:13.95	133.80	25.25	-39.1	-40.0	23.1	0.00e+00	81	28	0	986710016	50	6455
2026-01-26 13:28:14.96	134.03	25.15	-39.4	-40.4	22.8	0.00e+00	93	28	0	988807168	50	6753
2026-01-26 13:28:15.97	134.26	25.05	-39.4	-40.4	22.6	0.00e+00	1	28	0	989855744	50	6751
2026-01-26 13:28:16.98	134.48	24.94	-39.3	-40.3	22.9	0.00e+00	0	28	0	991952896	50	6653
2026-01-26 13:28:17.99	134.71	24.84	-38.9	-39.9	23.3	0.00e+00	80	28	0	994050048	50	6324
2026-01-26 13:28:19.00	134.94	24.74	-38.5	-39.5	23.7	0.00e+00	0	28	0	996147200	50	6050
2026-01-26 13:28:20.01	135.16	24.64	-38.2	-39.1	23.9	0.00e+00	91	28	0	998244352	50	5780
2026-01-26 13:28:21.01	135.38	24.53	-38.2	-39.1	23.9	0.00e+00	0	28	0	999292928	50	5803
2026-01-26 13:28:22.02	135.60	24.43	-38.7	-39.7	23.4	0.00e+00	92	28	0	1001390080	50	6174
2026-01-26 13:28:23.03	135.82	24.33	-39.0	-40.0	23.2	0.00e+00	2	28	0	1003487232	50	6412
2026-01-26 13:28:24.04	136.04	24.22	-39.1	-40.1	23.0	0.00e+00	92	28	0	1005584384	50	6497
2026-01-26 13:28:25.05	136.26	24.12	-39.0	-40.0	23.2	0.00e+00	0	28	0	1007681536	50	6398
2026-01-26 13:28:26.06	136.47	24.02	-38.9	-39.8	23.2	0.00e+00	0	28	0	1008730112	50	6311
2026-01-26 13:28:27.07	136.69	23.92	-38.1	-39.0	24.1	0.00e+00	0	28	0	1010827264	50	5705
2026-01-26 13:28:28.08	136.90	23.81	-37.6	-38.4	24.5	0.00e+00	2	28	0	1012924416	48	5987
2026-01-26 13:28:29.09	137.11	23.71	-37.5	-38.3	24.7	0.00e+00	92	28	0	1015021568	48	5915
2026-01-26 13:28:30.10	137.32	23.61	-37.5	-38.3	24.6	0.00e+00	0	28	0	1017118720	48	5942
2026-01-26 13:28:31.11	137.53	23.50	-37.6	-38.4	24.5	0.00e+00	92	28	0	1018167296	48	6018
2026-01-26 13:28:32.12	137.74	23.40	-37.7	-38.6	24.4	0.00e+00	78	28	0	1020264448	48	6121
2026-01-26 13:28:33.13	137.94	23.30	-37.7	-38.5	24.5	0.00e+00	0	28	0	1022361600	48	6084
2026-01-26 13:28:34.14	138.15	23.19	-37.4	-38.2	24.7	0.00e+00	2	28	0	1024458752	48	5863
2026-01-26 13:28:35.15	138.35	23.09	-37.2	-38.0	24.9	0.00e+00	0	28	0	1026555904	48	5718
2026-01-26 13:28:36.16	138.56	22.99	-37.0	-37.8	25.0	0.00e+00	92	28	0	1027604480	48	5585
2026-01-26 13:28:37.17	138.76	22.89	-36.9	-37.7	25.1	0.00e+00	81	28	0	1029701632	48	5506
2026-01-26 13:28:38.17	138.95	22.78	-37.1	-37.9	24.9	0.00e+00	92	28	0	1031798784	48	5666
2026-01-26 13:28:39.18	139.15	22.68	-37.1	-37.9	24.9	0.00e+00	81	28	0	1033895936	48	5665
2026-01-26 13:28:40.19	139.35	22.58	-37.3	-38.1	24.8	0.00e+00	81	28	0	1035993088	48	5828
2026-01-26 13:28:41.20	139.55	22.48	-37.5	-38.3	24.6	0.00e+00	81	28	0	1037041664	48	5910
2026-01-26 13:28:42.21	139.74	22.37	-37.5	-38.4	24.1	0.00e+00	0	28	0	1039138816	48	5968
2026-01-26 13:28:43.22	139.93	22.27	-37.2	-38.0	24.8	0.00e+00	0	28	0	1041235968	48	5750
2026-01-26 13:28:44.23	140.13	22.17	-37.2	-37.9	24.8	0.00e+00	0	28	0	1043333120	48	5694
2026-01-26 13:28:45.24	140.32	22.07	-36.9	-37.7	25.0	0.00e+00	91	28	0	1045430272	48	5532
2026-01-26 13:28:46.25	140.51	21.96	-36.8	-37.5	24.4	0.00e+00	1	28	0	1046478848	46	6086
2026-01-26 13:28:47.26	140.69	21.86	-36.7	-37.5	25.2	0.00e+00	90	28	0	1048576000	46	6067
2026-01-26 13:28:48.27	140.88	21.76	-36.7	-37.5	25.2	0.00e+00	0	28	0	1050673152	46	6065
2026-01-26 13:28:49.28	141.07	21.66	-36.9	-37.7	25.1	0.00e+00	0	28	0	1052770304	46	6194
2026-01-26 13:28:50.29	141.25	21.56	-37.0	-37.8	25.0	0.00e+00	0	28	0	1054867456	46	6268
2026-01-26 13:28:51.29	141.44	21.46	-37.2	-38.0	24.8	0.00e+00	0	28	0	1055916032	46	6407
2026-01-26 13:28:52.30	141.62	21.36	-37.2	-38.0	24.8	0.00e+00	92	28	0	1058013184	46	6453
2026-01-26 13:28:53.31	141.80	21.25	-37.0	-37.8	24.9	0.00e+00	0	28	0	1060110336	46	6310
2026-01-26 13:28:54.32	141.98	21.15	-37.1	-37.9	25.0	0.00e+00	92	28	0	1062207488	46	6346
2026-01-26 13:28:55.34	142.16	21.05	-36.7	-37.5	25.2	0.00e+00	0	28	0	1064304640	46	6072
2026-01-26 13:28:56.34	142.34	20.95	-36.6	-37.4	25.4	0.00e+00	0	28	0	1065353216	46	6003
2026-01-26 13:28:57.35	142.51	20.85	-36.8	-37.5	25.2	0.00e+00	0	28	0	1067450368	46	6097
2026-01-26 13:28:58.36	142.69	20.75	-36.5	-37.3	25.4	0.00e+00	0	28	0	1069547520	46	5928
2026-01-26 13:28:59.37	142.86	20.65	-36.6	-37.4	25.3	0.00e+00	73	28	0	1071644672	46	5974
2026-01-26 13:29:00.38	143.04	20.55	-36.9	-37.6	25.0	0.00e+00	72	28	0	1073741824	46	6159
2026-01-26 13:29:01.39	143.21	20.45	-37.1	-37.9	24.8	0.00e+00	92	28	0	1075838976	46	6326
2026-01-26 13:29:02.40	143.38	20.35	-37.4	-38.2	24.6	0.00e+00	10	28	0	1076887552	46	6585
2026-01-26 13:29:03.41	143.55	20.25	-37.5	-38.4	24.5	0.00e+00	5	28	0	1078984704	46	6696
2026-01-26 13:29:04.42	143.72	20.15	-37.6	-38.5	24.4	0.00e+00	6	28	0	1081081856	46	6792
2026-01-26 13:29:05.43	143.89	20.05	-37.7	-38.6	24.3	0.00e+00	2	28	0	1083179008	48	6115
2026-01-26 13:29:06.44	144.06	19.95	-37.8	-38.6	24.3	0.00e+00	0	28	0	1085276160	48	6167
2026-01-26 13:29:07.45	144.22	19.85	-37.2	-38.1	24.7	0.00e+00	0	28	0	1086324736	48	5768
2026-01-26 13:29:08.46	144.39	19.75	-37.2	-38.0	24.7	0.00e+00	92	28	0	1088421888	48	5744
2026-01-26 13:29:09.47	144.55	19.65	-37.1	-37.9	24.8	0.00e+00	0	28	0	1090519040	48	5695
2026-01-26 13:29:10.48	144.71	19.55	-37.1	-37.9	24.8	0.00e+00	92	28	0	1092616192	48	5691
2026-01-26 13:29:11.49	144.88	19.45	-37.2	-38.0	24.7	0.00e+00	7	28	0	1094713344	48	5728
2026-01-26 13:29:12.49	145.04	19.36	-37.2	-38.1	24.7	0.00e+00	0	28	0	1095761920	48	5764
2026-01-26 13:29:13.50	145.19	19.26	-37.4	-38.2	24.6	0.00e+00	0	28	0	1097859072	48	5847
2026-01-26 13:29:14.51	145.35	19.16	-37.5	-38.4	24.5	0.00e+00	78	28	0	1099956224	48	5971
2026-01-26 13:29:15.52	145.51	19.06	-37.6	-38.5	24.3	0.00e+00	92	28	0	1102053376	48	6038
2026-01-26 13:29:16.53	145.67	18.96	-37.5	-38.3	24.5	0.00e+00	77	28	0	1104150528	48	5944
2026-01-26 13:29:17.54	145.82	18.87	-37.5	-38.4	24.4	0.00e+00	92	28	0	1105199104	48	5976
2026-01-26 13:29:18.55	145.98	18.77	-37.5	-38.4	24.4	0.00e+00	0	28	0	1107296256	48	5986
2026-01-26 13:29:19.56	146.13	18.67	-37.6	-38.4	24.4	0.00e+00	76	28	0	1109393408	48	6016
2026-01-26 13:29:20.57	146.29	18.57	-37.5	-38.3	24.4	0.00e+00	7	28	0	1111490560	48	5940
2026-01-26 13:29:21.58	146.44	18.48	-37.6	-38.5	24.3	0.00e+00	0	28	0	1113587712	48	6043
2026-01-26 13:29:22.59	146.59	18.38	-37.9	-38.8	24.0	0.00e+00	78	28	0	1114636288	48	6258
2026-01-26 13:29:23.60	146.74	18.28	-37.7	-38.6	24.2	0.00e+00	77	28	0	1116733440	48	6124
2026-01-26 13:29:24.61	146.89	18.19	-37.9	-38.7	24.0	0.00e+00	92	28	0	1118830592	48	6240
2026-01-26 13:29:25.62	147.04	18.09	-37.9	-38.8	24.0	0.00e+00	6	28	0	1120927744	48	6262
2026-01-26 13:29:26.63	147.19	18.00	-38.0	-38.9	24.0	0.00e+00	41	28	0	1123024896	48	6363
2026-01-26 13:29:27.63	147.33	17.90	-38.2	-39.1	23.8	0.00e+00	14	28	0	1124073472	48	6480
2026-01-26 13:29:28.64	147.48	17.81	-37.9	-38.8	24.0	0.00e+00	6	28	0	1126170624	48	6278
2026-01-26 13:29:29.65	147.62	17.71	-37.9	-38.8	24.1	0.00e+00	0	28	0	1128267776	48	6272
2026-01-26 13:29:30.66	147.77	17.61	-38.1	-39.0	23.9	0.00e+00	0	28	0	1130364928	48	6408
2026-01-26 13:29:31.67	147.91	17.52	-38.3	-39.2	23.7	0.00e+00	90	28	0	1132462080	48	6581
2026-01-26 13:29:32.68	148.05	17.43	-38.7	-39.6	23.3	0.00e+00	0	28	0	1133510656	48	6887
2026-01-26 13:29:33.69	148.19	17.33	-39.0	-40.0	23.0	0.00e+00	90	28	0	1135607808	50	6435
2026-01-26 13:29:34.70	148.33	17.24	-39.2	-40.2	22.8	0.00e+00	0	28	0	1137704960	50	6584
2026-01-26 13:29:35.71	148.47	17.14	-39.5	-40.5	22.5	0.00e+00	78	28	0	1139802112	50	6811
2026-01-26 13:29:36.72	148.61	17.05	-39.5	-40.6	22.5	0.00e+00	0	28	0	1141899264	50	6862
2026-01-26 13:29:37.73	148.75	16.95	-39.6	-40.7	22.5	0.00e+00	78	28	0	1143996416	50	6939
2026-01-26 13:29:38.73	148.89	16.86	-39.2	-40.2	22.9	0.00e+00	91	28	0	1145044992	50	6555
2026-01-26 13:29:39.74	149.02	16.77	-39.1	-40.0	23.0	0.00e+00	76	28	0	1147142144	50	6442
2026-01-26 13:29:40.75	149.16	16.68	-38.8	-39.7	23.2	0.00e+00	92	28	0	1149239296	50	6244
2026-01-26 13:29:41.76	149.29	16.58	-38.5	-39.4	23.5	0.00e+00	78	28	0	1151336448	50	5995
2026-01-26 13:29:42.77	149.43	16.49	-38.5	-39.4	23.6	0.00e+00	77	28	0	1153433600	50	5976
2026-01-26 13:29:43.78	149.56	16.40	-38.4	-39.3	23.6	0.00e+00	77	28	0	1154482176	50	5954
2026-01-26 13:29:44.79	149.69	16.30	-38.6	-39.5	23.4	0.00e+00	77	28	0	1156579328	50	6058
2026-01-26 13:29:45.80	149.82	16.21	-38.8	-39.7	23.2	0.00e+00	91	28	0	1158676480	50	6204
2026-01-26 13:29:46.81	149.96	16.12	-39.0	-40.0	23.0	0.00e+00	3	28	0	1160773632	50	6391
2026-01-26 13:29:47.81	150.08	16.03	-39.2	-40.2	22.8	0.00e+00	92	28	0	1162870784	50	6568
2026-01-26 13:29:48.82	150.21	15.94	-39.3	-40.4	22.7	0.00e+00	5	28	0	1163919360	50	6694
2026-01-26 13:29:49.83	150.34	15.85	-39.4	-40.4	22.6	0.00e+00	90	28	0	1166016512	50	6765
2026-01-26 13:29:50.84	150.47	15.76	-39.5	-40.5	22.5	0.00e+00	0	28	0	1168113664	50	6788
2026-01-26 13:29:51.85	150.60	15.67	-39.4	-40.4	22.5	0.00e+00	4	28	0	1170210816	50	6708
2026-01-26 13:29:52.86	150.72	15.57	-39.2	-40.2	22.6	0.00e+00	23	28	0	1172307968	50	6605
2026-01-26 13:29:53.87	150.85	15.48	-39.1	-40.1	22.9	0.00e+00	0	28	0	1173356544	50	6465
2026-01-26 13:29:54.88	150.97	15.39	-39.0	-40.0	23.0	0.00e+00	90	28	0	1175453696	50	6401
2026-01-26 13:29:55.89	151.10	15.30	-38.6	-39.5	23.4	0.00e+00	0	28	0	1177550848	50	6084
2026-01-26 13:29:56.90	151.22	15.21	-38.5	-39.4	23.4	0.00e+00	92	28	0	1179648000	50	6029
2026-01-26 13:29:57.91	151.34	15.12	-38.5	-39.4	23.5	0.00e+00	73	28	0	1181745152	50	6015
2026-01-26 13:29:58.92	151.47	15.03	-38.6	-39.6	23.4	0.00e+00	0	28	0	1182793728	50	6116
2026-01-26 13:29:59.93	151.59	14.95	-38.7	-39.6	23.3	0.00e+00	0	28	0	1184890880	50	6144
2026-01-26 13:30:00.93	151.71	14.86	-38.9	-39.8	23.2	0.00e+00	72	28	0	1186988032	50	6287
2026-01-26 13:30:01.94	151.83	14.77	-39.1	-40.0	23.0	0.00e+00	92	28	0	1189085184	50	6448
2026-01-26 13:30:02.95	151.95	14.68	-39.2	-40.2	22.8	0.00e+00	3	28	0	1191182336	50	6570
2026-01-26 13:30:03.96	152.06	14.59	-39.4	-40.4	22.6	0.00e+00	93	28	0	1192230912	50	6730
2026-01-26 13:30:04.97	152.18	14.50	-39.4	-40.5	22.5	0.00e+00	5	28	0	1194328064	50	6787
2026-01-26 13:30:05.98	152.30	14.42	-39.4	-40.4	22.5	0.00e+00	78	28	0	1196425216	50	6752
2026-01-26 13:30:06.99	152.42	14.33	-39.3	-40.3	22.6	0.00e+00	77	28	0	1198522368	50	6672
2026-01-26 13:30:08.00	152.53	14.24	-39.3	-40.4	22.6	0.00e+00	4	28	0	1200619520	50	6698
2026-01-26 13:30:09.01	152.65	14.15	-39.1	-40.1	22.9	0.00e+00	39	28	0	1201668096	50	6465
2026-01-26 13:30:10.02	152.76	14.07	-38.8	-39.7	23.1	0.00e+00	5	28	0	1203765248	50	6244
2026-01-26 13:30:11.03	152.88	13.98	-38.8	-39.7	23.0	0.00e+00	92	28	0	1205862400	50	6214
2026-01-26 13:30:12.03	152.99	13.89	-38.7	-39.7	23.1	0.00e+00	0	28	0	1207959552	50	6180
2026-01-26 13:30:13.04	153.10	13.81	-38.7	-39.7	23.1	0.00e+00	67	28	0	1210056704	50	6199
2026-01-26 13:30:14.05	153.21	13.72	-38.8	-39.8	22.9	0.00e+00	3	28	0	1211105280	50	6281
