passes_logs/2026/01/26/R4.6S_Anadyr/R4.6S_Anadyr__20260126_072043_TY-42_rec.log

#Pass ID: 20260126_072043_TY-42
#Satellite: TY-42
#Configuration: TY-42_900M
#almurnet v.1.7.20251203
#Start time: 2026-01-26 07:21:15

#Version: 2.2.20231116
#Station: R4.6S_Anadyr
#Location: 177.4865 lon 64.73178 lat
#TLE: 1 64048U 25103A   26025.90722222  .00008016  00000-0  38191-3 0 09994
#TLE: 2 64048 097.4113 101.1198 0001664 095.7251 298.2114 15.19193032 38479

#Time	Az	El	Level	Level2	SNR	BER	BlckErr	Temp	State	Recorded	gain1	gain2
2026-01-26 07:21:15.07	99.70	1.80	-49.9	-61.6	3.5	8.46e-01	0	27	0	0	60	43329
2026-01-26 07:21:16.08	99.60	1.86	-46.4	-49.1	6.1	0.00e+00	0	28	104	0	60	34796
2026-01-26 07:21:17.09	99.50	1.92	-46.4	-49.1	6.1	0.00e+00	0	28	104	0	60	34973
2026-01-26 07:21:18.10	99.40	1.98	-46.4	-49.0	6.1	0.00e+00	0	28	104	0	60	34685
2026-01-26 07:21:19.11	99.30	2.04	-46.4	-49.0	6.1	0.00e+00	0	28	104	0	60	34676
2026-01-26 07:21:20.12	99.20	2.09	-46.4	-49.1	6.1	0.00e+00	0	28	104	0	60	34946
2026-01-26 07:21:21.13	99.10	2.15	-46.4	-49.1	6.1	0.00e+00	0	29	104	0	60	34879
2026-01-26 07:21:22.14	99.00	2.21	-46.4	-49.1	6.1	0.00e+00	0	29	104	0	60	35027
2026-01-26 07:21:23.15	98.89	2.27	-46.4	-49.1	6.1	0.00e+00	0	29	104	0	60	34947
2026-01-26 07:21:24.16	98.79	2.33	-46.5	-49.2	6.1	0.00e+00	0	29	104	0	60	35234
2026-01-26 07:21:25.17	98.69	2.39	-46.5	-49.2	6.1	0.00e+00	0	29	104	0	60	35206
2026-01-26 07:21:26.18	98.58	2.45	-46.6	-49.2	6.1	0.00e+00	0	29	104	0	60	35480
2026-01-26 07:21:27.19	98.48	2.51	-46.5	-49.2	6.1	0.00e+00	0	29	104	0	60	35362
2026-01-26 07:21:28.20	98.37	2.57	-46.5	-49.2	6.1	0.00e+00	0	29	104	0	60	35487
2026-01-26 07:21:29.21	98.27	2.63	-46.6	-49.2	6.1	0.00e+00	0	29	104	0	60	35380
2026-01-26 07:21:30.22	98.16	2.70	-46.6	-49.3	6.1	0.00e+00	0	29	104	0	60	35756
2026-01-26 07:21:31.23	98.06	2.76	-46.7	-49.3	6.1	0.00e+00	0	29	104	0	60	35864
2026-01-26 07:21:32.24	97.95	2.82	-46.7	-49.5	6.1	0.00e+00	0	29	104	0	60	36362
2026-01-26 07:21:33.25	97.84	2.88	-46.7	-49.4	6.1	0.00e+00	0	29	104	0	60	35954
2026-01-26 07:21:34.26	97.73	2.94	-46.7	-49.4	6.1	0.00e+00	0	29	104	0	60	36144
2026-01-26 07:21:35.27	97.62	3.00	-46.7	-49.4	6.1	0.00e+00	0	29	104	0	60	35951
2026-01-26 07:21:36.29	97.51	3.06	-46.6	-49.3	6.1	0.00e+00	0	29	104	0	60	35567
2026-01-26 07:21:37.30	97.40	3.12	-46.5	-49.2	6.1	0.00e+00	0	29	104	0	60	35437
2026-01-26 07:21:38.31	97.29	3.18	-46.6	-49.2	6.1	0.00e+00	0	29	104	0	60	35475
2026-01-26 07:21:39.32	97.18	3.24	-46.5	-49.2	6.1	0.00e+00	0	29	104	0	60	35283
2026-01-26 07:21:40.33	97.07	3.31	-46.5	-49.2	6.1	0.00e+00	0	29	104	0	60	35513
2026-01-26 07:21:41.34	96.96	3.37	-46.7	-49.5	6.1	0.00e+00	0	29	104	0	60	36440
2026-01-26 07:21:42.35	96.84	3.43	-46.8	-49.5	6.1	0.00e+00	0	29	104	0	60	36518
2026-01-26 07:21:43.35	96.73	3.49	-47.4	-50.0	6.1	0.00e+00	0	29	104	0	60	38718
2026-01-26 07:21:44.36	96.62	3.55	-47.2	-49.9	6.1	0.00e+00	0	29	104	0	60	38184
2026-01-26 07:21:45.37	96.50	3.61	-46.6	-49.3	6.1	0.00e+00	0	29	104	0	60	35675
2026-01-26 07:21:46.38	96.39	3.68	-46.9	-49.6	6.1	0.00e+00	0	29	104	0	60	36828
2026-01-26 07:21:47.39	96.27	3.74	-47.5	-50.1	6.1	0.00e+00	0	29	104	0	60	39342
2026-01-26 07:21:48.39	96.15	3.80	-47.5	-50.1	6.1	0.00e+00	0	29	104	0	60	38988
2026-01-26 07:21:49.40	96.04	3.86	-47.4	-50.0	6.1	0.00e+00	0	29	104	0	60	38683
2026-01-26 07:21:50.41	95.92	3.92	-47.3	-50.0	6.1	0.00e+00	0	29	104	0	60	38642
2026-01-26 07:21:51.42	95.80	3.99	-47.1	-49.8	6.1	0.00e+00	0	29	104	0	60	38022
2026-01-26 07:21:52.43	95.68	4.05	-47.7	-50.3	6.1	0.00e+00	0	29	104	0	60	40222
2026-01-26 07:21:53.44	95.56	4.11	-47.3	-49.9	6.1	0.00e+00	0	29	104	0	60	38160
2026-01-26 07:21:54.45	95.44	4.17	-47.3	-49.9	6.1	0.00e+00	0	29	104	0	60	38359
2026-01-26 07:21:55.46	95.32	4.24	-47.3	-49.9	6.1	0.00e+00	0	29	104	0	60	38395
2026-01-26 07:21:56.47	95.19	4.30	-46.9	-49.6	6.1	0.00e+00	0	29	104	0	60	37016
2026-01-26 07:21:57.47	95.07	4.36	-47.2	-49.7	6.1	0.00e+00	0	30	104	0	60	37521
2026-01-26 07:21:58.48	94.95	4.43	-47.7	-50.3	6.1	0.00e+00	0	30	104	0	60	40032
2026-01-26 07:21:59.49	94.82	4.49	-47.6	-50.2	6.1	0.00e+00	0	30	104	0	60	39638
2026-01-26 07:22:00.50	94.70	4.55	-47.2	-49.8	6.1	0.00e+00	0	30	104	0	60	38052
2026-01-26 07:22:01.51	94.57	4.62	-47.3	-49.9	6.1	0.00e+00	0	30	104	0	60	38506
2026-01-26 07:22:02.52	94.45	4.68	-47.6	-50.2	6.1	0.00e+00	0	30	104	0	60	39750
2026-01-26 07:22:03.53	94.32	4.74	-47.8	-50.3	6.1	0.00e+00	0	30	104	0	60	40151
2026-01-26 07:22:04.54	94.19	4.81	-47.5	-50.1	6.1	0.00e+00	0	30	104	0	60	39179
2026-01-26 07:22:05.55	94.06	4.87	-47.6	-50.2	6.1	0.00e+00	0	30	104	0	60	39509
2026-01-26 07:22:06.56	93.93	4.93	-47.8	-50.3	6.1	0.00e+00	0	30	104	0	60	40309
2026-01-26 07:22:07.57	93.80	5.00	-47.7	-50.3	6.1	0.00e+00	0	30	104	0	60	39894
2026-01-26 07:22:08.58	93.67	5.06	-48.1	-50.6	6.1	0.00e+00	0	30	104	0	60	41526
2026-01-26 07:22:09.59	93.54	5.13	-47.8	-50.4	6.1	0.00e+00	0	30	104	0	60	40401
2026-01-26 07:22:10.59	93.41	5.19	-47.4	-50.1	6.1	0.00e+00	0	30	104	0	60	39077
2026-01-26 07:22:11.60	93.28	5.25	-47.0	-49.7	6.1	0.00e+00	0	30	104	0	60	37259
2026-01-26 07:22:12.61	93.15	5.32	-47.2	-49.7	6.1	0.00e+00	0	30	104	0	60	37620
2026-01-26 07:22:13.62	93.01	5.38	-47.2	-49.7	6.1	0.00e+00	0	30	104	0	60	37561
2026-01-26 07:22:14.63	92.88	5.45	-47.4	-50.0	6.1	0.00e+00	0	30	104	0	60	38889
2026-01-26 07:22:15.64	92.74	5.51	-47.5	-50.1	6.1	0.00e+00	0	30	104	0	60	39252
2026-01-26 07:22:16.65	92.60	5.58	-48.1	-50.6	6.1	0.00e+00	0	30	104	0	60	41569
2026-01-26 07:22:17.65	92.47	5.64	-48.2	-50.7	6.1	0.00e+00	0	30	104	0	60	41899
2026-01-26 07:22:18.67	92.33	5.71	-35.3	-35.6	10.7	0.00e+00	692	30	104	0	48	14758
2026-01-26 07:22:19.67	92.19	5.77	-34.2	-34.6	11.7	0.00e+00	5179	30	104	0	44	16470
2026-01-26 07:22:20.69	92.05	5.84	-36.0	-36.3	12.3	0.00e+00	0	30	0	75497472	44	20186
2026-01-26 07:22:21.70	91.91	5.90	-34.7	-35.1	13.5	1.06e-01	0	30	0	192937984	42	19595
2026-01-26 07:22:22.70	91.77	5.97	-34.8	-35.2	12.9	7.75e-02	0	30	0	301989888	44	17671
2026-01-26 07:22:23.71	91.62	6.03	-32.6	-33.1	13.6	7.75e-02	0	30	0	411041792	40	17441
2026-01-26 07:22:24.72	91.48	6.10	-32.4	-32.9	14.3	2.91e-02	0	30	0	528482304	40	17020
2026-01-26 07:22:25.73	91.34	6.16	-32.9	-33.3	13.8	2.91e-02	0	30	0	637534208	40	18008
2026-01-26 07:22:26.74	91.19	6.23	-31.6	-32.0	14.2	2.45e-02	0	30	0	754974720	40	15484
2026-01-26 07:22:27.75	91.05	6.29	-33.9	-34.3	13.8	2.45e-02	0	30	0	872415232	42	17849
2026-01-26 07:22:28.76	90.90	6.36	-33.0	-33.5	13.6	2.91e-02	0	30	0	981467136	40	18224
2026-01-26 07:22:29.77	90.75	6.42	-33.8	-34.2	13.1	2.65e-02	0	30	0	1098907648	44	15699
2026-01-26 07:22:30.78	90.61	6.49	-31.9	-32.4	14.7	2.65e-02	0	30	0	1207959552	38	18136
2026-01-26 07:22:31.79	90.46	6.55	-31.3	-31.8	15.3	2.56e-02	0	30	0	1325400064	38	16816
2026-01-26 07:22:32.80	90.31	6.62	-29.2	-29.7	15.8	2.56e-02	0	30	0	1442840576	36	14935
2026-01-26 07:22:33.81	90.16	6.69	-29.7	-30.2	15.8	3.35e-03	0	30	0	1551892480	34	17621
2026-01-26 07:22:34.81	90.01	6.75	-30.0	-30.6	15.4	2.44e-03	0	30	0	1660944384	34	18454
2026-01-26 07:22:35.82	89.85	6.82	-30.8	-31.3	15.2	2.44e-03	0	31	0	1778384896	36	17812
2026-01-26 07:22:36.83	89.70	6.88	-30.1	-30.6	15.3	3.05e-03	0	30	0	1887436800	34	18460
2026-01-26 07:22:37.84	89.55	6.95	-29.2	-29.7	15.6	3.05e-03	0	30	0	2004877312	34	16730
2026-01-26 07:22:38.85	89.39	7.02	-30.5	-31.0	15.8	1.80e-03	0	30	0	2122317824	34	19315
2026-01-26 07:22:39.86	89.24	7.08	-28.5	-29.0	15.8	1.80e-03	0	31	0	2231369728	32	17312
2026-01-26 07:22:40.87	89.08	7.15	-28.5	-29.0	15.8	1.71e-03	0	31	0	2340421632	32	17266
2026-01-26 07:22:41.88	88.92	7.22	-30.1	-30.5	15.7	1.71e-03	0	31	0	2457862144	32	20568
2026-01-26 07:22:42.89	88.76	7.28	-29.1	-29.5	15.4	1.20e-03	0	31	0	2575302656	34	16417
2026-01-26 07:22:43.90	88.60	7.35	-29.4	-29.9	15.7	1.35e-03	0	31	0	2684354560	32	19139
2026-01-26 07:22:44.91	88.44	7.42	-29.6	-30.1	15.5	1.35e-03	0	31	0	2801795072	32	19559
2026-01-26 07:22:45.91	88.28	7.48	-29.5	-29.9	15.5	2.29e-03	0	31	0	2910846976	34	17083
2026-01-26 07:22:46.92	88.12	7.55	-29.5	-30.0	15.0	2.29e-03	0	31	0	3028287488	34	17343
2026-01-26 07:22:47.93	87.96	7.62	-29.9	-30.3	15.4	3.50e-03	0	31	0	3137339392	34	17971
2026-01-26 07:22:48.94	87.79	7.68	-29.2	-29.6	16.1	3.50e-03	0	31	0	3254779904	32	18642
2026-01-26 07:22:49.95	87.63	7.75	-29.0	-29.5	15.9	1.89e-03	0	31	0	3372220416	34	16397
2026-01-26 07:22:50.96	87.46	7.82	-28.8	-29.3	16.0	1.89e-03	0	31	0	3481272320	32	17927
2026-01-26 07:22:51.97	87.29	7.88	-29.0	-29.5	16.1	6.97e-04	0	31	0	3590324224	32	18222
2026-01-26 07:22:52.98	87.13	7.95	-28.5	-29.1	16.1	6.97e-04	0	31	0	3707764736	32	17406
2026-01-26 07:22:53.99	86.96	8.02	-28.3	-28.8	16.3	3.71e-04	0	31	0	3825205248	32	16928
2026-01-26 07:22:55.00	86.79	8.08	-28.2	-28.7	16.3	3.71e-04	0	31	0	3934257152	30	18846
2026-01-26 07:22:56.01	86.62	8.15	-28.5	-29.0	16.2	2.62e-04	0	31	0	4051697664	30	19477
2026-01-26 07:22:57.01	86.45	8.22	-28.0	-28.5	16.0	3.87e-04	0	31	0	4160749568	30	18299
2026-01-26 07:22:58.02	86.27	8.28	-28.9	-29.3	16.1	3.87e-04	0	31	0	4278190080	30	20153
2026-01-26 07:22:59.03	86.10	8.35	-27.4	-27.9	16.3	3.32e-04	0	31	0	4387241984	32	15187
2026-01-26 07:23:00.04	85.92	8.42	-29.3	-29.8	16.3	3.32e-04	0	31	0	4504682496	32	18987
2026-01-26 07:23:01.05	85.75	8.49	-28.3	-28.7	16.1	4.41e-04	0	31	0	4613734400	30	18836
2026-01-26 07:23:02.06	85.57	8.55	-29.0	-29.4	16.0	6.97e-04	0	31	0	4731174912	34	16170
2026-01-26 07:23:03.07	85.39	8.62	-27.3	-27.8	16.5	6.97e-04	0	31	0	4840226816	30	16950
2026-01-26 07:23:04.08	85.21	8.69	-27.3	-27.8	16.5	1.69e-04	0	31	0	4957667328	28	18967
2026-01-26 07:23:05.09	85.03	8.76	-27.2	-27.7	16.6	1.69e-04	0	31	0	5075107840	30	16700
2026-01-26 07:23:06.10	84.85	8.82	-27.1	-27.6	16.6	1.69e-04	0	31	0	5184159744	30	16498
2026-01-26 07:23:07.10	84.67	8.89	-27.2	-27.7	16.6	9.26e-05	0	31	0	5301600256	28	18783
2026-01-26 07:23:08.11	84.49	8.96	-26.7	-27.1	16.7	4.90e-05	0	31	0	5410652160	28	17527
2026-01-26 07:23:09.12	84.30	9.02	-26.7	-27.2	16.7	4.90e-05	0	31	0	5519704064	28	17721
2026-01-26 07:23:10.13	84.12	9.09	-27.0	-27.4	16.5	5.44e-05	0	31	0	5637144576	28	18179
2026-01-26 07:23:11.14	83.93	9.16	-26.7	-27.1	16.6	5.44e-05	0	31	0	5754585088	28	17581
2026-01-26 07:23:12.15	83.74	9.23	-27.7	-28.2	16.4	1.31e-04	0	31	0	5863636992	30	17621
2026-01-26 07:23:13.16	83.56	9.29	-27.1	-27.6	16.6	1.31e-04	0	31	0	5981077504	30	16525
2026-01-26 07:23:14.17	83.37	9.36	-27.4	-27.9	16.5	8.17e-05	0	31	0	6090129408	28	19205
2026-01-26 07:23:15.17	83.18	9.43	-26.9	-27.4	16.6	7.08e-05	0	31	0	6199181312	28	18063
2026-01-26 07:23:16.18	82.99	9.49	-26.1	-26.6	16.8	7.08e-05	0	31	0	6316621824	28	16526
2026-01-26 07:23:17.19	82.79	9.56	-26.3	-26.7	16.7	1.08e-05	0	31	0	6434062336	28	16809
2026-01-26 07:23:18.20	82.60	9.63	-25.9	-26.4	16.7	1.08e-05	0	31	0	6543114240	28	16128
2026-01-26 07:23:19.21	82.40	9.70	-25.9	-26.3	16.8	5.40e-06	0	31	0	6660554752	28	16018
2026-01-26 07:23:20.22	82.21	9.76	-26.1	-26.6	16.8	5.40e-06	0	31	0	6769606656	28	16489
2026-01-26 07:23:21.23	82.01	9.83	-26.0	-26.4	16.9	2.72e-05	0	31	0	6887047168	28	16219
2026-01-26 07:23:22.23	81.81	9.90	-25.9	-26.3	16.9	2.72e-05	0	31	0	6996099072	26	17988
2026-01-26 07:23:23.24	81.61	9.96	-25.5	-26.0	16.9	5.40e-06	0	31	0	7113539584	26	17220
2026-01-26 07:23:24.25	81.41	10.03	-25.7	-26.2	16.8	5.40e-06	0	31	0	7230980096	26	17690
2026-01-26 07:23:25.26	81.21	10.10	-25.7	-26.2	16.9	1.08e-05	0	31	0	7340032000	26	17698
2026-01-26 07:23:26.27	81.01	10.16	-25.7	-26.1	16.9	1.08e-05	0	31	0	7449083904	26	17547
2026-01-26 07:23:27.28	80.80	10.23	-25.6	-26.1	16.9	1.08e-05	0	31	0	7566524416	26	17407
2026-01-26 07:23:28.28	80.60	10.30	-25.6	-26.0	17.0	0.00e+00	0	31	0	7675576320	26	17312
2026-01-26 07:23:29.30	80.39	10.36	-25.4	-25.8	17.0	0.00e+00	0	31	0	7793016832	26	16948
2026-01-26 07:23:30.31	80.18	10.43	-25.7	-26.2	17.0	5.40e-06	0	31	0	7910457344	26	17657
2026-01-26 07:23:31.32	79.98	10.50	-25.7	-26.2	16.9	5.40e-06	0	31	0	8019509248	26	17680
2026-01-26 07:23:32.32	79.77	10.56	-25.5	-25.9	17.0	0.00e+00	0	31	0	8128561152	26	17136
2026-01-26 07:23:33.33	79.56	10.63	-25.4	-25.9	16.9	0.00e+00	0	31	0	8246001664	26	17006
2026-01-26 07:23:34.34	79.34	10.70	-25.6	-26.0	16.8	5.40e-06	0	31	0	8363442176	26	17330
2026-01-26 07:23:35.35	79.13	10.76	-25.3	-25.8	17.0	5.40e-06	0	31	0	8472494080	26	16874
2026-01-26 07:23:36.36	78.92	10.83	-25.7	-26.2	16.9	5.40e-06	0	31	0	8589934592	26	17630
2026-01-26 07:23:37.37	78.70	10.89	-25.8	-26.3	16.9	5.40e-06	0	31	0	8698986496	26	17820
2026-01-26 07:23:38.38	78.48	10.96	-25.4	-25.8	16.9	5.40e-06	0	31	0	8816427008	26	16963
2026-01-26 07:23:39.39	78.27	11.03	-25.4	-25.8	16.9	5.40e-06	0	31	0	8933867520	26	16967
2026-01-26 07:23:40.40	78.05	11.09	-25.3	-25.8	17.0	0.00e+00	0	31	0	9042919424	26	16841
2026-01-26 07:23:41.41	77.83	11.16	-25.3	-25.8	16.8	0.00e+00	0	31	0	9160359936	26	16833
2026-01-26 07:23:42.42	77.60	11.22	-25.4	-25.9	16.9	1.63e-05	0	31	0	9269411840	26	17070
2026-01-26 07:23:43.43	77.38	11.29	-25.3	-25.8	17.0	1.63e-05	0	31	0	9378463744	26	16828
2026-01-26 07:23:44.44	77.16	11.35	-25.3	-25.8	17.0	0.00e+00	0	31	0	9495904256	26	16837
2026-01-26 07:23:45.45	76.93	11.42	-25.3	-25.7	16.9	0.00e+00	0	31	0	9613344768	26	16693
2026-01-26 07:23:46.45	76.71	11.48	-25.6	-26.1	16.3	0.00e+00	0	31	0	9722396672	26	17419
2026-01-26 07:23:47.46	76.48	11.55	-25.3	-25.8	16.1	0.00e+00	0	31	0	9839837184	26	16814
2026-01-26 07:23:48.47	76.25	11.61	-25.1	-25.5	16.4	1.63e-05	0	31	0	9948889088	26	16381
2026-01-26 07:23:49.48	76.02	11.68	-25.1	-25.5	16.5	5.44e-05	0	31	0	10057940992	26	16356
2026-01-26 07:23:50.49	75.79	11.74	-25.2	-25.6	16.6	5.44e-05	0	31	0	10183770112	26	16486
2026-01-26 07:23:51.50	75.56	11.80	-25.1	-25.5	17.0	3.26e-05	0	31	0	10292822016	26	16378
2026-01-26 07:23:52.51	75.32	11.87	-25.1	-25.5	17.0	0.00e+00	0	31	0	10401873920	26	16404
2026-01-26 07:23:53.52	75.09	11.93	-25.1	-25.5	16.9	0.00e+00	0	31	0	10519314432	26	16341
2026-01-26 07:23:54.53	74.85	11.99	-25.2	-25.6	16.4	2.17e-05	0	31	0	10628366336	26	16532
2026-01-26 07:23:55.54	74.61	12.06	-25.2	-25.7	16.4	2.17e-05	0	31	0	10745806848	26	16660
2026-01-26 07:23:56.55	74.37	12.12	-25.2	-25.6	16.6	2.72e-05	0	32	0	10863247360	26	16510
2026-01-26 07:23:57.55	74.13	12.18	-24.9	-25.3	16.6	2.72e-05	0	31	0	10972299264	26	16031
2026-01-26 07:23:58.56	73.89	12.25	-25.0	-25.4	16.9	2.72e-05	0	31	0	11089739776	26	16171
2026-01-26 07:23:59.57	73.65	12.31	-24.9	-25.4	17.0	5.40e-06	0	31	0	11198791680	26	16099
2026-01-26 07:24:00.59	73.40	12.37	-25.0	-25.4	17.0	0.00e+00	0	31	0	11307843584	26	16160
2026-01-26 07:24:01.60	73.16	12.43	-25.0	-25.5	17.0	0.00e+00	0	31	0	11425284096	26	16296
2026-01-26 07:24:02.61	72.91	12.49	-24.8	-25.2	17.1	0.00e+00	0	31	0	11542724608	26	15802
2026-01-26 07:24:03.61	72.67	12.56	-25.1	-25.5	17.1	0.00e+00	0	31	0	11651776512	26	16376
2026-01-26 07:24:04.62	72.42	12.62	-24.8	-25.2	17.1	0.00e+00	0	31	0	11769217024	26	15837
2026-01-26 07:24:05.63	72.17	12.68	-24.6	-25.0	17.1	0.00e+00	0	31	0	11878268928	24	17397
2026-01-26 07:24:06.64	71.92	12.74	-24.7	-25.1	17.1	0.00e+00	0	31	0	11995709440	24	17596
2026-01-26 07:24:07.65	71.66	12.80	-24.8	-25.2	17.1	0.00e+00	0	31	0	12113149952	24	17780
2026-01-26 07:24:08.66	71.41	12.86	-25.0	-25.4	17.0	0.00e+00	0	32	0	12222201856	24	18161
2026-01-26 07:24:09.67	71.16	12.92	-24.9	-25.3	17.0	0.00e+00	0	31	0	12331253760	24	17884
2026-01-26 07:24:10.68	70.90	12.98	-25.1	-25.6	17.0	0.00e+00	0	31	0	12448694272	24	18460
2026-01-26 07:24:11.69	70.64	13.04	-25.4	-25.8	16.9	0.00e+00	0	32	0	12566134784	24	18907
2026-01-26 07:24:12.70	70.38	13.10	-24.8	-25.2	16.8	5.40e-06	0	32	0	12675186688	24	17656
2026-01-26 07:24:13.71	70.12	13.16	-24.6	-25.0	16.5	5.40e-06	0	31	0	12792627200	24	17385
2026-01-26 07:24:14.72	69.86	13.21	-24.8	-25.3	16.2	1.63e-05	0	32	0	12901679104	24	17806
2026-01-26 07:24:15.73	69.60	13.27	-24.6	-25.0	16.2	1.63e-05	0	32	0	13019119616	24	17378
2026-01-26 07:24:16.74	69.33	13.33	-24.7	-25.1	16.4	4.90e-05	0	32	0	13136560128	24	17458
2026-01-26 07:24:17.75	69.07	13.39	-47.5	-50.1	6.1	4.90e-05	0	31	104	13195280384	60	39209
2026-01-26 07:24:18.75	68.81	13.44	-47.9	-50.5	6.1	4.90e-05	0	31	104	13195280384	60	41262
2026-01-26 07:24:19.76	68.54	13.50	-47.6	-50.4	6.1	4.35e-05	0	31	104	13195280384	60	40360
2026-01-26 07:24:20.77	68.27	13.56	-47.3	-50.0	6.1	4.35e-05	0	31	104	13195280384	60	38668
2026-01-26 07:24:21.78	68.00	13.61	-45.6	-48.4	6.3	4.35e-05	0	31	104	13195280384	60	32151
2026-01-26 07:24:22.79	67.73	13.67	-46.7	-49.4	6.2	4.35e-05	0	31	104	13195280384	60	36208
2026-01-26 07:24:23.80	67.46	13.72	-47.2	-50.0	6.1	4.35e-05	0	31	104	13195280384	60	38583
2026-01-26 07:24:24.81	67.18	13.78	-47.9	-50.6	6.1	4.35e-05	0	31	104	13195280384	60	41276
2026-01-26 07:24:25.82	66.91	13.83	-47.8	-50.5	6.1	4.35e-05	0	31	104	13195280384	60	40815
2026-01-26 07:24:26.83	66.63	13.88	-47.8	-50.5	6.1	4.35e-05	0	31	104	13195280384	60	40869
2026-01-26 07:24:27.83	66.36	13.94	-48.7	-51.2	6.1	4.35e-05	0	31	104	13195280384	60	44506
2026-01-26 07:24:28.84	66.08	13.99	-48.6	-51.2	6.1	4.35e-05	0	31	104	13195280384	60	44255
2026-01-26 07:24:29.85	65.80	14.04	-48.1	-50.7	6.1	4.35e-05	0	31	104	13195280384	60	41819
2026-01-26 07:24:30.86	65.52	14.10	-48.5	-51.0	6.1	4.35e-05	0	31	104	13195280384	60	43506
2026-01-26 07:24:31.87	65.24	14.15	-48.3	-50.9	6.1	0.00e+00	0	31	104	13195280384	60	42811
2026-01-26 07:24:32.87	64.96	14.20	-48.4	-51.0	6.1	0.00e+00	0	31	104	13195280384	60	43539
2026-01-26 07:24:33.88	64.67	14.25	-48.5	-51.1	6.1	0.00e+00	0	31	104	13195280384	60	43841
2026-01-26 07:24:34.89	64.39	14.30	-48.5	-51.0	6.1	0.00e+00	0	31	104	13195280384	60	43498
2026-01-26 07:24:35.90	64.10	14.35	-48.6	-51.1	6.1	0.00e+00	0	31	104	13195280384	60	44064
2026-01-26 07:24:36.91	63.81	14.40	-48.2	-50.8	6.1	0.00e+00	0	31	104	13195280384	60	42327
2026-01-26 07:24:37.92	63.52	14.45	-46.9	-49.6	6.2	0.00e+00	0	31	104	13195280384	60	37082
2026-01-26 07:24:38.93	63.23	14.50	-48.8	-51.3	6.1	0.00e+00	0	31	104	13195280384	60	45073
2026-01-26 07:24:39.94	62.94	14.54	-46.6	-49.4	6.2	0.00e+00	0	31	104	13195280384	60	36114
2026-01-26 07:24:40.95	62.65	14.59	-45.8	-48.6	6.2	0.00e+00	0	31	104	13195280384	60	32833
2026-01-26 07:24:41.96	62.36	14.64	-47.5	-50.2	6.1	0.00e+00	0	31	104	13195280384	60	39631
2026-01-26 07:24:42.97	62.06	14.68	-48.4	-51.0	6.1	0.00e+00	0	31	104	13195280384	60	43430
2026-01-26 07:24:43.97	61.77	14.73	-48.0	-50.6	6.1	0.00e+00	0	31	104	13195280384	60	41418
2026-01-26 07:24:44.98	61.47	14.77	-47.4	-50.1	6.1	0.00e+00	0	31	104	13195280384	60	38967
2026-01-26 07:24:45.99	61.18	14.82	-47.9	-50.5	6.1	0.00e+00	0	31	104	13195280384	60	41169
2026-01-26 07:24:47.00	60.88	14.86	-48.5	-51.0	6.0	0.00e+00	0	31	104	13195280384	60	43645
2026-01-26 07:24:48.01	60.58	14.91	-47.5	-50.2	6.1	0.00e+00	0	31	104	13195280384	60	39602
2026-01-26 07:24:49.02	60.28	14.95	-48.6	-51.1	6.1	0.00e+00	0	31	104	13195280384	60	43850
2026-01-26 07:24:50.03	59.98	14.99	-48.8	-51.3	6.1	0.00e+00	0	31	104	13195280384	60	44846
2026-01-26 07:24:51.04	59.67	15.03	-48.3	-50.9	6.1	0.00e+00	0	31	104	13195280384	60	42792
2026-01-26 07:24:52.05	59.37	15.07	-48.3	-50.9	6.1	0.00e+00	0	31	104	13195280384	60	42746
2026-01-26 07:24:53.06	59.07	15.11	-47.9	-50.5	6.1	0.00e+00	0	31	104	13195280384	60	41056
2026-01-26 07:24:54.07	58.76	15.15	-48.8	-51.2	6.1	0.00e+00	0	31	104	13195280384	60	44646
2026-01-26 07:24:55.07	58.46	15.19	-47.4	-50.1	6.1	0.00e+00	0	31	104	13195280384	60	39370
2026-01-26 07:24:56.08	58.15	15.23	-48.6	-51.2	6.1	0.00e+00	0	31	104	13195280384	60	44293
2026-01-26 07:24:57.09	57.84	15.27	-48.6	-51.1	6.1	0.00e+00	0	31	104	13195280384	60	44058
2026-01-26 07:24:58.10	57.53	15.30	-47.9	-50.6	6.1	0.00e+00	0	31	104	13195280384	60	41534
2026-01-26 07:24:59.11	57.22	15.34	-48.4	-51.0	6.0	0.00e+00	0	31	104	13195280384	60	43467
2026-01-26 07:25:00.12	56.91	15.38	-48.5	-51.1	6.1	0.00e+00	0	31	104	13195280384	60	43967
2026-01-26 07:25:01.13	56.60	15.41	-48.0	-50.6	6.1	0.00e+00	0	31	104	13195280384	60	41538
2026-01-26 07:25:02.14	56.29	15.45	-48.8	-51.2	6.1	0.00e+00	0	31	104	13195280384	60	44714
2026-01-26 07:25:03.15	55.97	15.48	-48.6	-51.1	6.1	0.00e+00	0	31	104	13195280384	60	44027
2026-01-26 07:25:04.15	55.66	15.51	-48.7	-51.2	6.1	0.00e+00	0	31	104	13195280384	60	44577
2026-01-26 07:25:05.16	55.35	15.55	-48.9	-51.4	6.1	0.00e+00	0	31	104	13195280384	60	45552
2026-01-26 07:25:06.17	55.03	15.58	-48.6	-51.1	6.1	0.00e+00	0	31	104	13195280384	60	43936
2026-01-26 07:25:07.18	54.71	15.61	-47.9	-50.6	6.1	0.00e+00	0	31	104	13195280384	60	41415
2026-01-26 07:25:08.19	54.40	15.64	-48.4	-51.0	6.1	0.00e+00	0	31	104	13195280384	60	43280
2026-01-26 07:25:09.20	54.08	15.67	-47.9	-50.6	6.1	0.00e+00	0	31	104	13195280384	60	41512
2026-01-26 07:25:10.21	53.76	15.70	-48.8	-51.3	6.1	0.00e+00	0	31	104	13195280384	60	45201
2026-01-26 07:25:11.22	53.44	15.72	-48.8	-51.3	6.1	0.00e+00	0	31	104	13195280384	60	44778
2026-01-26 07:25:12.23	53.12	15.75	-48.6	-51.1	6.1	0.00e+00	0	31	104	13195280384	60	44091
2026-01-26 07:25:13.24	52.80	15.78	-48.7	-51.2	6.1	0.00e+00	0	31	104	13195280384	60	44272
2026-01-26 07:25:14.24	52.48	15.80	-48.6	-51.2	6.1	0.00e+00	0	31	104	13195280384	60	44292
2026-01-26 07:25:15.25	52.16	15.83	-48.9	-51.3	6.1	0.00e+00	0	31	104	13195280384	60	45231
2026-01-26 07:25:16.26	51.83	15.85	-48.9	-51.4	6.1	0.00e+00	0	31	104	13195280384	60	45262
2026-01-26 07:25:17.27	51.51	15.88	-48.9	-51.4	6.1	0.00e+00	0	31	104	13195280384	60	45391
2026-01-26 07:25:18.28	51.19	15.90	-48.8	-51.2	6.1	0.00e+00	0	31	104	13195280384	60	44674
2026-01-26 07:25:19.29	50.86	15.92	-48.8	-51.3	6.1	0.00e+00	0	31	104	13195280384	60	45088
2026-01-26 07:25:20.30	50.54	15.94	-48.6	-51.1	6.1	0.00e+00	0	31	104	13195280384	60	44139
2026-01-26 07:25:21.31	50.21	15.96	-48.7	-51.3	6.1	0.00e+00	0	31	104	13195280384	60	44736
2026-01-26 07:25:22.31	49.89	15.98	-48.6	-51.2	6.1	0.00e+00	0	31	104	13195280384	60	44286
2026-01-26 07:25:23.32	49.56	16.00	-48.5	-51.1	6.1	0.00e+00	0	31	104	13195280384	60	43786
2026-01-26 07:25:24.33	49.23	16.02	-48.1	-50.7	6.1	0.00e+00	0	31	104	13195280384	60	42007
2026-01-26 07:25:25.34	48.91	16.04	-48.5	-51.0	6.1	0.00e+00	0	31	104	13195280384	60	43452
2026-01-26 07:25:26.35	48.58	16.05	-48.5	-51.0	6.1	0.00e+00	0	31	104	13195280384	60	43595
2026-01-26 07:25:27.35	48.25	16.07	-48.7	-51.2	6.1	0.00e+00	0	31	104	13195280384	60	44715
2026-01-26 07:25:28.36	47.92	16.08	-48.8	-51.3	6.1	0.00e+00	0	31	104	13195280384	60	44827
2026-01-26 07:25:29.37	47.60	16.10	-48.9	-51.4	6.1	0.00e+00	0	31	104	13195280384	60	45321
2026-01-26 07:25:30.38	47.27	16.11	-48.3	-50.9	6.1	0.00e+00	0	31	104	13195280384	60	42880
2026-01-26 07:25:31.39	46.94	16.12	-48.0	-50.7	6.1	0.00e+00	0	31	104	13195280384	60	41795
2026-01-26 07:25:32.40	46.61	16.13	-48.5	-51.1	6.1	0.00e+00	0	31	104	13195280384	60	43957
2026-01-26 07:25:33.41	46.28	16.14	-48.6	-51.1	6.1	0.00e+00	0	31	104	13195280384	60	43853
2026-01-26 07:25:34.42	45.94	16.15	-47.9	-50.6	6.1	0.00e+00	0	31	104	13195280384	60	41470
2026-01-26 07:25:35.43	45.61	16.16	-48.2	-50.8	6.1	0.00e+00	0	31	104	13195280384	60	42609
2026-01-26 07:25:36.44	45.28	16.17	-48.3	-50.8	6.1	0.00e+00	0	31	104	13195280384	60	42678
2026-01-26 07:25:37.45	44.95	16.18	-48.4	-51.0	6.1	0.00e+00	0	31	104	13195280384	60	43279
2026-01-26 07:25:38.46	44.62	16.18	-48.9	-51.4	6.1	0.00e+00	0	31	104	13195280384	60	45431
2026-01-26 07:25:39.47	44.29	16.19	-48.8	-51.4	6.1	0.00e+00	0	31	104	13195280384	60	45595
2026-01-26 07:25:40.48	43.96	16.19	-48.8	-51.3	6.1	0.00e+00	0	31	104	13195280384	60	45126
2026-01-26 07:25:41.49	43.62	16.20	-48.8	-51.3	6.1	0.00e+00	0	31	104	13195280384	60	44832
2026-01-26 07:25:42.49	43.30	16.20	-47.5	-50.2	6.1	0.00e+00	0	31	104	13195280384	60	39630
2026-01-26 07:25:43.50	42.96	16.20	-48.0	-50.6	6.1	0.00e+00	0	31	104	13195280384	60	41519
2026-01-26 07:25:44.51	42.63	16.20	-47.4	-50.0	6.1	0.00e+00	0	31	104	13195280384	60	38918
2026-01-26 07:25:45.52	42.30	16.20	-48.4	-51.0	6.1	0.00e+00	0	31	104	13195280384	60	43359
2026-01-26 07:25:46.53	41.97	16.20	-48.7	-51.2	6.1	0.00e+00	0	31	104	13195280384	60	44624
2026-01-26 07:25:47.54	41.64	16.20	-48.1	-50.7	6.1	0.00e+00	0	31	104	13195280384	60	41804
2026-01-26 07:25:48.55	41.30	16.20	-47.9	-50.5	6.1	0.00e+00	0	31	104	13195280384	60	41144
2026-01-26 07:25:49.56	40.97	16.19	-47.2	-50.0	6.1	0.00e+00	0	31	104	13195280384	60	38539
2026-01-26 07:25:50.57	40.64	16.19	-48.4	-51.0	6.1	0.00e+00	0	31	104	13195280384	60	43228
2026-01-26 07:25:51.58	40.31	16.19	-48.2	-50.8	6.1	0.00e+00	0	31	104	13195280384	60	42477
2026-01-26 07:25:52.59	39.98	16.18	-48.4	-51.0	6.1	0.00e+00	0	31	104	13195280384	60	43422
2026-01-26 07:25:53.59	39.65	16.17	-47.7	-50.4	6.1	0.00e+00	0	31	104	13195280384	60	40677
2026-01-26 07:25:54.61	39.31	16.17	-47.9	-50.5	6.1	0.00e+00	0	31	104	13195280384	60	41257
2026-01-26 07:25:55.61	38.99	16.16	-47.9	-50.5	6.1	0.00e+00	0	31	104	13195280384	60	41140
2026-01-26 07:25:56.62	38.66	16.15	-48.5	-51.1	6.1	0.00e+00	0	31	104	13195280384	60	43728
2026-01-26 07:25:57.63	38.33	16.14	-48.4	-50.9	6.1	0.00e+00	0	31	104	13195280384	60	43065
2026-01-26 07:25:58.64	38.00	16.13	-48.5	-51.1	6.1	0.00e+00	0	31	104	13195280384	60	43955
2026-01-26 07:25:59.65	37.67	16.12	-48.9	-51.4	6.1	0.00e+00	0	31	104	13195280384	60	45409
2026-01-26 07:26:00.66	37.34	16.10	-48.5	-51.0	6.1	0.00e+00	0	31	104	13195280384	60	43678
2026-01-26 07:26:01.67	37.01	16.09	-48.5	-51.0	6.1	0.00e+00	0	31	104	13195280384	60	43235
2026-01-26 07:26:02.68	36.68	16.08	-48.9	-51.4	6.1	0.00e+00	0	31	104	13195280384	60	45544
2026-01-26 07:26:03.69	36.35	16.06	-48.8	-51.3	6.1	0.00e+00	0	31	104	13195280384	60	44942
2026-01-26 07:26:04.70	36.02	16.05	-48.7	-51.2	6.1	0.00e+00	0	31	104	13195280384	60	44472
2026-01-26 07:26:05.70	35.70	16.03	-48.8	-51.3	6.1	0.00e+00	0	31	104	13195280384	60	44871
2026-01-26 07:26:06.72	35.37	16.01	-48.3	-50.9	6.1	0.00e+00	0	31	104	13195280384	60	43006
2026-01-26 07:26:07.73	35.04	15.99	-48.7	-51.2	6.1	0.00e+00	0	31	104	13195280384	60	44544
2026-01-26 07:26:08.74	34.71	15.97	-48.5	-51.1	6.1	0.00e+00	0	31	104	13195280384	60	43791
2026-01-26 07:26:09.75	34.39	15.95	-48.8	-51.3	6.1	0.00e+00	0	31	104	13195280384	60	44921
2026-01-26 07:26:10.76	34.06	15.93	-48.7	-51.2	6.1	0.00e+00	0	31	104	13195280384	60	44661
2026-01-26 07:26:11.77	33.74	15.91	-48.7	-51.3	6.1	0.00e+00	0	31	104	13195280384	60	44800
2026-01-26 07:26:12.78	33.42	15.89	-48.9	-51.4	6.1	0.00e+00	0	31	104	13195280384	60	45392
2026-01-26 07:26:13.79	33.09	15.87	-48.8	-51.3	6.1	0.00e+00	0	31	104	13195280384	60	44922
2026-01-26 07:26:14.80	32.77	15.84	-48.8	-51.3	6.1	0.00e+00	0	31	104	13195280384	60	45092
2026-01-26 07:26:15.81	32.45	15.82	-48.8	-51.3	6.1	0.00e+00	0	31	104	13195280384	60	44832
2026-01-26 07:26:16.82	32.13	15.79	-48.7	-51.2	6.1	0.00e+00	0	31	104	13195280384	60	44354
2026-01-26 07:26:17.83	31.80	15.77	-48.8	-51.3	6.1	0.00e+00	0	31	104	13195280384	60	44920
2026-01-26 07:26:18.83	31.49	15.74	-48.6	-51.1	6.1	0.00e+00	0	31	104	13195280384	60	44090
2026-01-26 07:26:19.84	31.17	15.71	-48.4	-50.9	6.1	0.00e+00	0	31	104	13195280384	60	43122
2026-01-26 07:26:20.85	30.85	15.69	-48.6	-51.1	6.1	0.00e+00	0	31	104	13195280384	60	44042
2026-01-26 07:26:21.86	30.53	15.66	-48.7	-51.2	6.1	0.00e+00	0	31	104	13195280384	60	44647
2026-01-26 07:26:22.87	30.21	15.63	-48.7	-51.2	6.1	0.00e+00	0	31	104	13195280384	60	44534
2026-01-26 07:26:23.87	29.90	15.60	-48.8	-51.2	6.1	0.00e+00	0	31	104	13195280384	60	44598
2026-01-26 07:26:24.88	29.58	15.57	-48.8	-51.3	6.1	0.00e+00	0	31	104	13195280384	60	45189
2026-01-26 07:26:25.89	29.27	15.53	-48.9	-51.4	6.1	0.00e+00	0	31	104	13195280384	60	45326
2026-01-26 07:26:26.90	28.95	15.50	-48.8	-51.3	6.1	0.00e+00	0	31	104	13195280384	60	44964
2026-01-26 07:26:27.91	28.64	15.47	-48.8	-51.3	6.1	0.00e+00	0	31	104	13195280384	60	45138
2026-01-26 07:26:28.92	28.33	15.43	-48.8	-51.3	6.1	0.00e+00	0	31	104	13195280384	60	44904
2026-01-26 07:26:29.93	28.02	15.40	-48.7	-51.2	6.1	0.00e+00	0	31	104	13195280384	60	44614
2026-01-26 07:26:30.94	27.71	15.36	-48.7	-51.2	6.1	0.00e+00	0	31	104	13195280384	60	44525
2026-01-26 07:26:31.95	27.40	15.33	-48.6	-51.1	6.1	0.00e+00	0	31	104	13195280384	60	43924
2026-01-26 07:26:32.96	27.09	15.29	-48.7	-51.2	6.1	0.00e+00	0	31	104	13195280384	60	44505
2026-01-26 07:26:33.97	26.78	15.25	-48.0	-50.7	6.1	0.00e+00	0	31	104	13195280384	60	41941
2026-01-26 07:26:34.98	26.47	15.22	-48.8	-51.3	6.1	0.00e+00	0	31	104	13195280384	60	44937
2026-01-26 07:26:35.98	26.17	15.18	-48.4	-51.0	6.1	0.00e+00	0	31	104	13195280384	60	43411
2026-01-26 07:26:36.99	25.86	15.14	-48.7	-51.2	6.1	0.00e+00	0	31	104	13195280384	60	44631
2026-01-26 07:26:38.00	25.56	15.10	-48.5	-51.1	6.1	0.00e+00	0	31	104	13195280384	60	43844
2026-01-26 07:26:39.01	25.25	15.06	-48.5	-51.1	6.1	0.00e+00	0	31	104	13195280384	60	43805
2026-01-26 07:26:40.02	24.95	15.02	-48.9	-51.3	6.1	0.00e+00	0	31	104	13195280384	60	45131
2026-01-26 07:26:41.03	24.65	14.98	-48.8	-51.3	6.1	0.00e+00	0	31	104	13195280384	60	45213
2026-01-26 07:26:42.04	24.35	14.93	-48.7	-51.1	6.1	0.00e+00	0	31	104	13195280384	60	44180
2026-01-26 07:26:43.05	24.05	14.89	-48.5	-51.1	6.1	0.00e+00	0	31	104	13195280384	60	43800
2026-01-26 07:26:44.06	23.75	14.85	-48.4	-50.9	6.1	0.00e+00	0	31	104	13195280384	60	43086
2026-01-26 07:26:45.07	23.46	14.80	-48.6	-51.2	6.1	0.00e+00	0	31	104	13195280384	60	44232
2026-01-26 07:26:46.08	23.16	14.76	-48.7	-51.2	6.1	0.00e+00	0	31	104	13195280384	60	44294
2026-01-26 07:26:47.09	22.86	14.71	-48.8	-51.3	6.1	0.00e+00	0	31	104	13195280384	60	44892
2026-01-26 07:26:48.10	22.57	14.67	-48.8	-51.2	6.1	0.00e+00	0	31	104	13195280384	60	44603
2026-01-26 07:26:49.11	22.28	14.62	-48.8	-51.3	6.1	0.00e+00	0	31	104	13195280384	60	44916
2026-01-26 07:26:50.12	21.99	14.57	-48.9	-51.3	6.1	0.00e+00	0	31	104	13195280384	60	45193
2026-01-26 07:26:51.13	21.69	14.53	-48.8	-51.3	6.1	0.00e+00	0	31	104	13195280384	60	44993
2026-01-26 07:26:52.13	21.41	14.48	-48.9	-51.3	6.1	0.00e+00	0	31	104	13195280384	60	45126
2026-01-26 07:26:53.14	21.12	14.43	-48.8	-51.3	6.1	0.00e+00	0	31	104	13195280384	60	44989
2026-01-26 07:26:54.15	20.83	14.38	-48.8	-51.3	6.1	0.00e+00	0	31	104	13195280384	60	45073
2026-01-26 07:26:55.16	20.55	14.33	-48.9	-51.4	6.1	0.00e+00	0	31	104	13195280384	60	45388
2026-01-26 07:26:56.17	20.26	14.28	-48.9	-51.4	6.1	0.00e+00	0	31	104	13195280384	60	45349
2026-01-26 07:26:57.18	19.98	14.23	-48.8	-51.3	6.1	0.00e+00	0	31	104	13195280384	60	44915
2026-01-26 07:26:58.18	19.70	14.18	-48.8	-51.3	6.1	0.00e+00	0	31	104	13195280384	60	44947
2026-01-26 07:26:59.19	19.41	14.13	-48.7	-51.2	6.1	0.00e+00	0	31	104	13195280384	60	44687
2026-01-26 07:27:00.20	19.13	14.08	-48.7	-51.2	6.1	0.00e+00	0	31	104	13195280384	60	44396
2026-01-26 07:27:01.21	18.85	14.03	-48.8	-51.3	6.1	0.00e+00	0	31	104	13195280384	60	44942
2026-01-26 07:27:02.22	18.58	13.97	-48.7	-51.3	6.1	0.00e+00	0	31	104	13195280384	60	44756
2026-01-26 07:27:03.23	18.30	13.92	-48.8	-51.3	6.1	0.00e+00	0	32	104	13195280384	60	44832
2026-01-26 07:27:04.24	18.02	13.87	-48.9	-51.3	6.1	0.00e+00	0	31	104	13195280384	60	45017
2026-01-26 07:27:05.24	17.75	13.81	-48.8	-51.3	6.1	0.00e+00	0	31	104	13195280384	60	44998
2026-01-26 07:27:06.25	17.48	13.76	-48.8	-51.3	6.1	0.00e+00	0	31	104	13195280384	60	44840
2026-01-26 07:27:07.26	17.21	13.71	-48.7	-51.2	6.1	0.00e+00	0	31	104	13195280384	60	44410
2026-01-26 07:27:08.27	16.94	13.65	-48.8	-51.2	6.1	0.00e+00	0	31	104	13195280384	60	44545
2026-01-26 07:27:09.28	16.67	13.60	-48.8	-51.3	6.1	0.00e+00	0	31	104	13195280384	60	44778
2026-01-26 07:27:10.29	16.40	13.54	-48.8	-51.3	6.1	0.00e+00	0	31	104	13195280384	60	45156
2026-01-26 07:27:11.30	16.13	13.48	-48.9	-51.3	6.1	0.00e+00	0	31	104	13195280384	60	45139
2026-01-26 07:27:12.31	15.86	13.43	-48.8	-51.2	6.0	0.00e+00	0	31	104	13195280384	60	44681
2026-01-26 07:27:13.32	15.60	13.37	-48.8	-51.3	6.1	0.00e+00	0	31	104	13195280384	60	44914
2026-01-26 07:27:14.33	15.34	13.31	-48.7	-51.2	6.1	0.00e+00	0	31	104	13195280384	60	44497
2026-01-26 07:27:15.33	15.08	13.26	-48.8	-51.3	6.1	0.00e+00	0	31	104	13195280384	60	44761
2026-01-26 07:27:16.34	14.81	13.20	-48.8	-51.3	6.1	0.00e+00	0	31	104	13195280384	60	45124
2026-01-26 07:27:17.35	14.55	13.14	-48.9	-51.3	6.1	0.00e+00	0	31	104	13195280384	60	45189
2026-01-26 07:27:18.36	14.30	13.08	-48.7	-51.2	6.1	0.00e+00	0	31	104	13195280384	60	44383
2026-01-26 07:27:19.37	14.04	13.02	-48.8	-51.3	6.1	0.00e+00	0	31	104	13195280384	60	45244
2026-01-26 07:27:20.38	13.78	12.96	-48.9	-51.3	6.1	0.00e+00	0	31	104	13195280384	60	45234
2026-01-26 07:27:21.39	13.53	12.90	-48.9	-51.3	6.1	0.00e+00	0	31	104	13195280384	60	45068
2026-01-26 07:27:22.39	13.28	12.84	-48.8	-51.3	6.1	0.00e+00	0	31	104	13195280384	60	44993
2026-01-26 07:27:23.41	13.02	12.78	-48.8	-51.3	6.1	0.00e+00	0	31	104	13195280384	60	44882
2026-01-26 07:27:24.41	12.77	12.72	-48.9	-51.3	6.1	0.00e+00	0	31	104	13195280384	60	45226
2026-01-26 07:27:25.42	12.52	12.66	-48.8	-51.3	6.1	0.00e+00	0	31	104	13195280384	60	44967
2026-01-26 07:27:26.43	12.27	12.60	-48.8	-51.3	6.1	0.00e+00	0	31	104	13195280384	60	45021
2026-01-26 07:27:27.44	12.03	12.54	-48.8	-51.3	6.1	0.00e+00	0	31	104	13195280384	60	44839
2026-01-26 07:27:28.45	11.78	12.48	-48.8	-51.3	6.1	0.00e+00	0	31	104	13195280384	60	44957
2026-01-26 07:27:29.46	11.54	12.42	-48.8	-51.3	6.1	0.00e+00	0	31	104	13195280384	60	44882
2026-01-26 07:27:30.47	11.29	12.36	-48.8	-51.2	6.1	0.00e+00	0	31	104	13195280384	60	44487
2026-01-26 07:27:31.48	11.05	12.29	-48.7	-51.3	6.1	0.00e+00	0	31	104	13195280384	60	44834
2026-01-26 07:27:32.49	10.81	12.23	-48.8	-51.3	6.1	0.00e+00	0	31	104	13195280384	60	44877
2026-01-26 07:27:33.49	10.57	12.17	-48.8	-51.3	6.1	0.00e+00	0	31	104	13195280384	60	44767
2026-01-26 07:27:34.50	10.33	12.11	-48.7	-51.2	6.1	0.00e+00	0	31	104	13195280384	60	44396
2026-01-26 07:27:35.52	10.09	12.04	-48.8	-51.3	6.1	0.00e+00	0	31	104	13195280384	60	44752
2026-01-26 07:27:36.53	9.86	11.98	-48.7	-51.2	6.1	0.00e+00	0	31	104	13195280384	60	44547
2026-01-26 07:27:37.54	9.62	11.92	-48.8	-51.3	6.1	0.00e+00	0	31	104	13195280384	60	44777
2026-01-26 07:27:38.55	9.39	11.85	-48.8	-51.2	6.1	0.00e+00	0	31	104	13195280384	60	44532
2026-01-26 07:27:39.56	9.15	11.79	-48.8	-51.2	6.1	0.00e+00	0	31	104	13195280384	60	44563
2026-01-26 07:27:40.57	8.92	11.73	-48.7	-51.2	6.1	0.00e+00	0	31	104	13195280384	60	44475
2026-01-26 07:27:41.57	8.70	11.66	-48.8	-51.3	6.1	0.00e+00	0	31	104	13195280384	60	44988
2026-01-26 07:27:42.58	8.47	11.60	-48.7	-51.2	6.1	0.00e+00	0	31	104	13195280384	60	44692
2026-01-26 07:27:43.59	8.24	11.53	-48.7	-51.2	6.1	0.00e+00	0	31	104	13195280384	60	44480
2026-01-26 07:27:44.60	8.01	11.47	-48.8	-51.3	6.1	0.00e+00	0	31	104	13195280384	60	45004
2026-01-26 07:27:45.61	7.79	11.41	-48.8	-51.2	6.1	0.00e+00	0	31	104	13195280384	60	44686
2026-01-26 07:27:46.61	7.57	11.34	-48.8	-51.2	6.1	0.00e+00	0	31	104	13195280384	60	44494
2026-01-26 07:27:47.62	7.34	11.28	-48.7	-51.2	6.1	0.00e+00	0	31	104	13195280384	60	44453
2026-01-26 07:27:48.63	7.12	11.21	-48.7	-51.2	6.1	0.00e+00	0	31	104	13195280384	60	44418
2026-01-26 07:27:49.64	6.90	11.15	-48.7	-51.2	6.1	0.00e+00	0	31	104	13195280384	60	44241
2026-01-26 07:27:50.65	6.68	11.08	-48.8	-51.2	6.1	0.00e+00	0	31	104	13195280384	60	44495
2026-01-26 07:27:51.65	6.47	11.02	-48.7	-51.2	6.1	0.00e+00	0	31	104	13195280384	60	44663
2026-01-26 07:27:52.66	6.25	10.95	-48.7	-51.2	6.1	0.00e+00	0	31	104	13195280384	60	44334
2026-01-26 07:27:53.67	6.03	10.89	-48.7	-51.2	6.0	0.00e+00	0	31	104	13195280384	60	44664
2026-01-26 07:27:54.68	5.82	10.82	-48.6	-51.1	6.1	0.00e+00	0	31	104	13195280384	60	43965
2026-01-26 07:27:55.69	5.61	10.75	-48.7	-51.2	6.1	0.00e+00	0	31	104	13195280384	60	44274
2026-01-26 07:27:56.70	5.39	10.69	-48.8	-51.2	6.0	0.00e+00	0	31	104	13195280384	60	44654
2026-01-26 07:27:57.71	5.18	10.62	-48.6	-51.1	6.1	0.00e+00	0	31	104	13195280384	60	44105
2026-01-26 07:27:58.72	4.97	10.56	-48.7	-51.1	6.1	0.00e+00	0	31	104	13195280384	60	44091
2026-01-26 07:27:59.73	4.77	10.49	-48.6	-51.1	6.1	0.00e+00	0	31	104	13195280384	60	44149
2026-01-26 07:28:00.74	4.56	10.42	-48.7	-51.2	6.1	0.00e+00	0	31	104	13195280384	60	44616
2026-01-26 07:28:01.75	4.35	10.36	-48.7	-51.2	6.1	0.00e+00	0	31	104	13195280384	60	44296
2026-01-26 07:28:02.76	4.15	10.29	-48.6	-51.1	6.1	0.00e+00	0	31	104	13195280384	60	43887
2026-01-26 07:28:03.77	3.94	10.22	-48.6	-51.1	6.1	0.00e+00	0	31	104	13195280384	60	43822
2026-01-26 07:28:04.78	3.74	10.16	-48.7	-51.2	6.1	0.00e+00	0	31	104	13195280384	60	44534
2026-01-26 07:28:05.79	3.54	10.09	-48.6	-51.1	6.1	0.00e+00	0	31	104	13195280384	60	43946
2026-01-26 07:28:06.80	3.34	10.02	-48.6	-51.1	6.1	0.00e+00	0	31	104	13195280384	60	44040
2026-01-26 07:28:07.81	3.14	9.96	-48.5	-51.0	6.1	0.00e+00	0	31	104	13195280384	60	43496
2026-01-26 07:28:08.82	2.94	9.89	-48.5	-51.1	6.1	0.00e+00	0	31	104	13195280384	60	43726
2026-01-26 07:28:09.83	2.74	9.82	-48.6	-51.1	6.1	0.00e+00	0	31	104	13195280384	60	43840
2026-01-26 07:28:10.83	2.55	9.76	-48.7	-51.1	6.1	0.00e+00	0	31	104	13195280384	60	44118
2026-01-26 07:28:11.84	2.36	9.69	-48.6	-51.1	6.1	0.00e+00	0	31	104	13195280384	60	44163
2026-01-26 07:28:12.85	2.16	9.62	-48.7	-51.2	6.1	0.00e+00	0	31	104	13195280384	60	44514
2026-01-26 07:28:13.86	1.97	9.56	-48.6	-51.1	6.1	0.00e+00	0	31	104	13195280384	60	43779
2026-01-26 07:28:14.87	1.78	9.49	-48.7	-51.2	6.1	0.00e+00	0	31	104	13195280384	60	44649
2026-01-26 07:28:15.88	1.59	9.42	-48.7	-51.2	6.0	0.00e+00	0	31	104	13195280384	60	44348
2026-01-26 07:28:16.89	1.40	9.36	-48.7	-51.2	6.1	0.00e+00	0	31	104	13195280384	60	44460
2026-01-26 07:28:17.89	1.21	9.29	-48.6	-51.1	6.1	0.00e+00	0	31	104	13195280384	60	43877
2026-01-26 07:28:18.90	1.02	9.22	-48.6	-51.1	6.1	0.00e+00	0	31	104	13195280384	60	43904
2026-01-26 07:28:19.91	0.84	9.16	-48.6	-51.1	6.0	0.00e+00	0	31	104	13195280384	60	43966
2026-01-26 07:28:20.92	0.65	9.09	-48.7	-51.1	6.1	0.00e+00	0	31	104	13195280384	60	44191
2026-01-26 07:28:21.92	0.47	9.02	-48.6	-51.0	6.1	0.00e+00	0	31	104	13195280384	60	43658
2026-01-26 07:28:22.93	0.29	8.96	-48.7	-51.2	6.1	0.00e+00	0	31	104	13195280384	60	44369
2026-01-26 07:28:23.94	0.11	8.89	-48.7	-51.1	6.1	0.00e+00	0	31	104	13195280384	60	44152
2026-01-26 07:28:24.95	359.93	8.82	-48.7	-51.2	6.1	0.00e+00	0	31	104	13195280384	60	44482
2026-01-26 07:28:25.96	359.75	8.75	-48.6	-51.0	6.1	0.00e+00	0	32	104	13195280384	60	43692
2026-01-26 07:28:26.97	359.57	8.69	-48.7	-51.1	6.1	0.00e+00	0	31	104	13195280384	60	44123
2026-01-26 07:28:27.98	359.39	8.62	-48.6	-51.1	6.1	0.00e+00	0	31	104	13195280384	60	43872
2026-01-26 07:28:28.99	359.21	8.55	-48.6	-51.1	6.1	0.00e+00	0	31	104	13195280384	60	43900
2026-01-26 07:28:30.00	359.04	8.49	-48.5	-51.0	6.1	0.00e+00	0	31	104	13195280384	60	43410
2026-01-26 07:28:31.01	358.86	8.42	-48.6	-51.1	6.1	0.00e+00	0	31	104	13195280384	60	43837
2026-01-26 07:28:32.02	358.69	8.35	-48.7	-51.1	6.1	0.00e+00	0	31	104	13195280384	60	43969
2026-01-26 07:28:33.03	358.52	8.29	-48.8	-51.3	6.1	0.00e+00	0	31	104	13195280384	60	44805
2026-01-26 07:28:34.04	358.34	8.22	-48.6	-51.1	6.1	0.00e+00	0	31	104	13195280384	60	43822
2026-01-26 07:28:35.05	358.17	8.15	-48.3	-50.8	6.1	0.00e+00	0	31	104	13195280384	60	42605
2026-01-26 07:28:36.05	358.01	8.09	-48.6	-51.1	6.1	0.00e+00	0	31	104	13195280384	60	43871
2026-01-26 07:28:37.06	357.84	8.02	-48.7	-51.2	6.1	0.00e+00	0	31	104	13195280384	60	44640
2026-01-26 07:28:38.07	357.67	7.95	-48.6	-51.1	6.1	0.00e+00	0	31	104	13195280384	60	43881
2026-01-26 07:28:39.08	357.50	7.89	-48.7	-51.1	6.1	0.00e+00	0	31	104	13195280384	60	44127
2026-01-26 07:28:40.09	357.34	7.82	-48.3	-50.9	6.1	0.00e+00	0	31	104	13195280384	60	42902
2026-01-26 07:28:41.10	357.17	7.75	-48.7	-51.1	6.1	0.00e+00	0	31	104	13195280384	60	44158
2026-01-26 07:28:42.11	357.01	7.69	-48.4	-50.9	6.1	0.00e+00	0	31	104	13195280384	60	43190
2026-01-26 07:28:43.12	356.85	7.62	-48.6	-51.0	6.0	0.00e+00	0	31	104	13195280384	60	43667
2026-01-26 07:28:44.13	356.68	7.55	-48.6	-51.1	6.1	0.00e+00	0	31	104	13195280384	60	43963
2026-01-26 07:28:45.13	356.52	7.49	-48.6	-51.1	6.1	0.00e+00	0	31	104	13195280384	60	43850
2026-01-26 07:28:46.14	356.36	7.42	-48.4	-50.9	6.1	0.00e+00	0	31	104	13195280384	60	42905
2026-01-26 07:28:47.15	356.20	7.35	-48.6	-51.1	6.1	0.00e+00	0	31	104	13195280384	60	43815
2026-01-26 07:28:48.16	356.05	7.29	-48.6	-51.1	6.1	0.00e+00	0	31	104	13195280384	60	44125
2026-01-26 07:28:49.17	355.89	7.22	-48.6	-51.1	6.1	0.00e+00	0	31	104	13195280384	60	43976
2026-01-26 07:28:50.18	355.73	7.16	-48.3	-50.9	6.1	0.00e+00	0	31	104	13195280384	60	42778
2026-01-26 07:28:51.19	355.58	7.09	-48.6	-51.1	6.1	0.00e+00	0	31	104	13195280384	60	43926
2026-01-26 07:28:52.19	355.42	7.02	-48.5	-51.0	6.1	0.00e+00	0	31	104	13195280384	60	43381
2026-01-26 07:28:53.20	355.27	6.96	-48.5	-51.0	6.1	0.00e+00	0	31	104	13195280384	60	43499
2026-01-26 07:28:54.20	355.12	6.89	-48.4	-50.8	6.1	0.00e+00	0	31	104	13195280384	60	42524
2026-01-26 07:28:55.21	354.97	6.83	-48.4	-50.9	6.1	0.00e+00	0	31	104	13195280384	60	43046
2026-01-26 07:28:56.22	354.82	6.76	-48.5	-51.0	6.1	0.00e+00	0	31	104	13195280384	60	43594
2026-01-26 07:28:57.23	354.66	6.69	-48.5	-51.0	6.1	0.00e+00	0	31	104	13195280384	60	43327
2026-01-26 07:28:58.24	354.52	6.63	-48.5	-51.0	6.1	0.00e+00	0	31	104	13195280384	60	43501
2026-01-26 07:28:59.25	354.37	6.56	-48.5	-51.0	6.1	0.00e+00	0	31	104	13195280384	60	43304
2026-01-26 07:29:00.25	354.22	6.50	-48.6	-51.1	6.1	0.00e+00	0	31	104	13195280384	60	43956
2026-01-26 07:29:01.26	354.07	6.43	-48.5	-51.0	6.1	0.00e+00	0	31	104	13195280384	60	43560
2026-01-26 07:29:02.27	353.93	6.37	-48.3	-50.9	6.1	0.00e+00	0	31	104	13195280384	60	42750
2026-01-26 07:29:03.27	353.78	6.30	-48.4	-50.8	6.1	0.00e+00	0	31	104	13195280384	60	42623
2026-01-26 07:29:04.28	353.64	6.24	-48.4	-50.9	6.1	0.00e+00	0	31	104	13195280384	60	42766
2026-01-26 07:29:05.29	353.50	6.17	-48.5	-51.1	6.1	0.00e+00	0	31	104	13195280384	60	43750
2026-01-26 07:29:06.30	353.35	6.11	-48.4	-50.8	6.1	0.00e+00	0	31	104	13195280384	60	42618
2026-01-26 07:29:07.31	353.21	6.04	-48.5	-51.0	6.1	0.00e+00	0	31	104	13195280384	60	43212
2026-01-26 07:29:08.32	353.07	5.98	-48.6	-51.1	6.1	0.00e+00	0	31	104	13195280384	60	43775
2026-01-26 07:29:09.33	352.93	5.91	-48.4	-50.9	6.1	0.00e+00	0	31	104	13195280384	60	42938
2026-01-26 07:29:10.34	352.79	5.85	-48.2	-50.7	6.1	0.00e+00	0	31	104	13195280384	60	42008
2026-01-26 07:29:11.34	352.65	5.78	-48.4	-50.9	6.1	0.00e+00	0	31	104	13195280384	60	42777
2026-01-26 07:29:12.36	352.51	5.72	-48.5	-51.0	6.1	0.00e+00	0	31	104	13195280384	60	43277
2026-01-26 07:29:13.37	352.38	5.65	-48.5	-51.0	6.1	0.00e+00	0	31	104	13195280384	60	43439
2026-01-26 07:29:14.37	352.24	5.59	-48.1	-50.6	6.1	0.00e+00	0	31	104	13195280384	60	41706
2026-01-26 07:29:15.38	352.11	5.53	-48.3	-50.8	6.1	0.00e+00	0	31	104	13195280384	60	42386
2026-01-26 07:29:16.39	351.97	5.46	-48.3	-50.8	6.1	0.00e+00	0	31	104	13195280384	60	42312
2026-01-26 07:29:17.40	351.84	5.40	-48.4	-50.8	6.1	0.00e+00	0	31	104	13195280384	60	42657
2026-01-26 07:29:18.41	351.70	5.33	-48.2	-50.7	6.0	0.00e+00	0	31	104	13195280384	60	41990
2026-01-26 07:29:19.41	351.57	5.27	-48.2	-50.7	6.1	0.00e+00	0	31	104	13195280384	60	41991
2026-01-26 07:29:20.42	351.44	5.21	-48.3	-50.7	6.1	0.00e+00	0	31	104	13195280384	60	42182
2026-01-26 07:29:21.43	351.31	5.14	-48.3	-50.8	6.1	0.00e+00	0	31	104	13195280384	60	42333
2026-01-26 07:29:22.44	351.18	5.08	-48.1	-50.7	6.1	0.00e+00	0	31	104	13195280384	60	41831
2026-01-26 07:29:23.45	351.05	5.01	-48.2	-50.7	6.1	0.00e+00	0	31	104	13195280384	60	41805
2026-01-26 07:29:24.45	350.92	4.95	-48.3	-50.8	6.1	0.00e+00	0	31	104	13195280384	60	42531
2026-01-26 07:29:25.46	350.79	4.89	-48.2	-50.7	6.1	0.00e+00	0	31	104	13195280384	60	42045
2026-01-26 07:29:26.47	350.67	4.82	-48.2	-50.7	6.1	0.00e+00	0	31	104	13195280384	60	42167
2026-01-26 07:29:27.48	350.54	4.76	-48.3	-50.9	6.1	0.00e+00	0	31	104	13195280384	60	42815
2026-01-26 07:29:28.49	350.41	4.70	-48.3	-50.7	6.1	0.00e+00	0	31	104	13195280384	60	42035
2026-01-26 07:29:29.50	350.29	4.63	-48.3	-50.8	6.1	0.00e+00	0	31	104	13195280384	60	42468
2026-01-26 07:29:30.51	350.16	4.57	-48.1	-50.6	6.1	0.00e+00	0	31	104	13195280384	60	41388
2026-01-26 07:29:31.52	350.04	4.51	-48.2	-50.7	6.1	0.00e+00	0	31	104	13195280384	60	41908
2026-01-26 07:29:32.53	349.92	4.44	-48.3	-50.8	6.1	0.00e+00	0	31	104	13195280384	60	42552
2026-01-26 07:29:33.54	349.79	4.38	-48.2	-50.7	6.1	0.00e+00	0	31	104	13195280384	60	41954
2026-01-26 07:29:34.55	349.67	4.32	-48.0	-50.5	6.1	0.00e+00	0	31	104	13195280384	60	41038
2026-01-26 07:29:35.56	349.55	4.26	-47.8	-50.4	6.1	0.00e+00	0	31	104	13195280384	60	40472
2026-01-26 07:29:36.57	349.43	4.19	-48.2	-50.7	6.1	0.00e+00	0	31	104	13195280384	60	41900
2026-01-26 07:29:37.58	349.31	4.13	-48.1	-50.6	6.1	0.00e+00	0	31	104	13195280384	60	41329
2026-01-26 07:29:38.59	349.19	4.07	-47.9	-50.3	6.1	0.00e+00	0	31	104	13195280384	60	40319
2026-01-26 07:29:39.60	349.07	4.01	-48.0	-50.5	6.1	0.00e+00	0	31	104	13195280384	60	41096
2026-01-26 07:29:40.61	348.96	3.94	-48.1	-50.5	6.1	0.00e+00	0	31	104	13195280384	60	41248
2026-01-26 07:29:41.62	348.84	3.88	-47.9	-50.4	6.1	0.00e+00	0	31	104	13195280384	60	40562
2026-01-26 07:29:42.63	348.72	3.82	-47.4	-49.9	6.1	0.00e+00	0	31	104	13195280384	60	38349
2026-01-26 07:29:43.63	348.61	3.76	-47.7	-50.1	6.1	0.00e+00	0	31	104	13195280384	60	39399
2026-01-26 07:29:44.65	348.49	3.70	-47.4	-49.9	6.1	0.00e+00	0	31	104	13195280384	60	38230
2026-01-26 07:29:45.65	348.38	3.64	-46.5	-49.0	6.1	0.00e+00	0	31	104	13195280384	60	34581
2026-01-26 07:29:46.66	348.26	3.57	-46.0	-48.5	6.1	0.00e+00	0	31	104	13195280384	60	32656
2026-01-26 07:29:47.67	348.15	3.51	-45.1	-47.6	6.1	0.00e+00	0	31	104	13195280384	60	29351
2026-01-26 07:29:48.68	348.04	3.45	-45.2	-47.7	6.1	0.00e+00	0	31	104	13195280384	60	29570
2026-01-26 07:29:49.68	347.93	3.39	-46.5	-49.0	6.1	0.00e+00	0	31	104	13195280384	60	34675
2026-01-26 07:29:50.69	347.82	3.33	-45.8	-48.2	6.1	0.00e+00	0	31	104	13195280384	60	31614
2026-01-26 07:29:51.71	347.70	3.27	-45.1	-47.5	6.1	0.00e+00	0	31	104	13195280384	60	29207
2026-01-26 07:29:52.72	347.59	3.21	-44.7	-47.2	6.1	0.00e+00	0	31	104	13195280384	60	28146
2026-01-26 07:29:53.72	347.48	3.15	-44.5	-47.0	6.1	0.00e+00	0	31	104	13195280384	60	27304
2026-01-26 07:29:54.73	347.38	3.08	-44.3	-46.8	6.1	0.00e+00	0	31	104	13195280384	60	26791
2026-01-26 07:29:55.74	347.27	3.02	-44.2	-46.6	6.1	0.00e+00	0	31	104	13195280384	60	26315
2026-01-26 07:29:56.75	347.16	2.96	-44.0	-46.5	6.1	0.00e+00	0	31	104	13195280384	60	25774
2026-01-26 07:29:57.76	347.05	2.90	-44.5	-47.1	6.1	0.00e+00	0	31	104	13195280384	60	27661
2026-01-26 07:29:58.77	346.94	2.84	-48.0	-50.5	6.1	0.00e+00	0	31	104	13195280384	60	40956
2026-01-26 07:29:59.78	346.84	2.78	-48.7	-51.2	6.0	0.00e+00	0	31	104	13195280384	60	44229
2026-01-26 07:30:00.79	346.73	2.72	-48.8	-51.3	6.1	0.00e+00	0	31	104	13195280384	60	44961
2026-01-26 07:30:01.80	346.63	2.66	-49.0	-51.4	6.1	0.00e+00	0	31	104	13195280384	60	45736
2026-01-26 07:30:02.81	346.52	2.60	-49.1	-51.6	6.1	0.00e+00	0	31	104	13195280384	60	46403
2026-01-26 07:30:03.82	346.42	2.54	-49.2	-51.7	6.1	0.00e+00	0	31	104	13195280384	60	47037
2026-01-26 07:30:04.83	346.32	2.48	-49.5	-51.9	6.1	0.00e+00	0	31	104	13195280384	60	48389
2026-01-26 07:30:05.84	346.21	2.42	-49.2	-51.7	6.1	0.00e+00	0	31	104	13195280384	60	47238
2026-01-26 07:30:06.85	346.11	2.36	-49.2	-51.7	6.1	0.00e+00	0	31	104	13195280384	60	47140
2026-01-26 07:30:07.86	346.01	2.30	-49.3	-51.8	6.1	0.00e+00	0	31	104	13195280384	60	47899
2026-01-26 07:30:08.87	345.91	2.24	-49.3	-51.8	6.1	0.00e+00	0	31	104	13195280384	60	47546
2026-01-26 07:30:09.88	345.81	2.18	-48.8	-51.4	6.1	0.00e+00	0	31	104	13195280384	60	45434
2026-01-26 07:30:10.89	345.71	2.12	-49.4	-51.8	6.1	0.00e+00	0	31	104	13195280384	60	47908
2026-01-26 07:30:11.90	345.61	2.06	-49.4	-51.9	6.1	0.00e+00	0	31	104	13195280384	60	48347
2026-01-26 07:30:12.92	345.51	2.00	-49.5	-52.0	6.1	0.00e+00	0	31	104	13195280384	60	48635
2026-01-26 07:30:13.92	345.41	1.94	-49.2	-51.7	6.1	0.00e+00	0	31	104	13195280384	60	47113
2026-01-26 07:30:14.93	345.31	1.89	-49.5	-52.0	6.1	0.00e+00	0	31	104	13195280384	60	48847
2026-01-26 07:30:15.95	345.21	1.83	-49.5	-52.0	6.1	0.00e+00	0	31	104	13195280384	60	48660
2026-01-26 07:30:16.96	345.12	1.77	-48.8	-51.4	6.1	0.00e+00	0	31	104	13195280384	60	45465
2026-01-26 07:30:17.97	345.02	1.71	-49.6	-52.0	6.1	0.00e+00	0	31	104	13195280384	60	49036
2026-01-26 07:30:18.98	344.92	1.65	-49.8	-52.2	6.1	0.00e+00	0	31	104	13195280384	60	50116
2026-01-26 07:30:19.99	344.83	1.59	-49.3	-51.8	6.1	0.00e+00	0	31	104	13195280384	60	47616
2026-01-26 07:30:21.00	344.73	1.53	-50.0	-52.5	6.1	0.00e+00	0	31	104	13195280384	60	51436
2026-01-26 07:30:22.01	344.64	1.47	-49.4	-51.8	6.1	0.00e+00	0	31	104	13195280384	60	47848
2026-01-26 07:30:23.02	344.55	1.42	-49.7	-52.2	6.1	0.00e+00	0	31	104	13195280384	60	49733
2026-01-26 07:30:24.03	344.45	1.36	-49.5	-52.0	6.1	0.00e+00	0	31	104	13195280384	60	48624
2026-01-26 07:30:25.04	344.36	1.30	-49.8	-52.3	6.1	0.00e+00	0	31	104	13195280384	60	50229
2026-01-26 07:30:26.05	344.27	1.24	-49.6	-52.1	6.1	0.00e+00	0	31	104	13195280384	60	49468
2026-01-26 07:30:27.06	344.17	1.18	-49.9	-52.4	6.1	0.00e+00	0	31	104	13195280384	60	50846
2026-01-26 07:30:28.06	344.08	1.13	-49.7	-52.1	6.1	0.00e+00	0	31	104	13195280384	60	49584
2026-01-26 07:30:29.07	343.99	1.07	-49.8	-52.2	6.1	0.00e+00	0	31	104	13195280384	60	50051
2026-01-26 07:30:30.09	343.90	1.01	-49.5	-51.9	6.1	0.00e+00	0	31	104	13195280384	60	48280
2026-01-26 07:30:31.09	343.81	0.95	-49.6	-52.1	6.1	0.00e+00	0	31	104	13195280384	60	49176
2026-01-26 07:30:32.10	343.72	0.90	-49.7	-52.1	6.1	0.00e+00	0	31	104	13195280384	60	49532
2026-01-26 07:30:33.11	343.63	0.84	-49.6	-52.0	6.1	0.00e+00	0	31	104	13195280384	60	48693
2026-01-26 07:30:34.12	343.54	0.78	-49.8	-52.3	6.1	0.00e+00	0	31	104	13195280384	60	50496
2026-01-26 07:30:35.13	343.46	0.72	-49.9	-52.3	6.1	0.00e+00	0	31	104	13195280384	60	50515
2026-01-26 07:30:36.14	343.37	0.67	-50.1	-52.6	6.1	0.00e+00	0	31	104	13195280384	60	52177
2026-01-26 07:30:37.15	343.28	0.61	-50.5	-52.9	6.1	0.00e+00	0	31	104	13195280384	60	54198
2026-01-26 07:30:38.16	343.19	0.55	-49.9	-52.4	6.1	0.00e+00	0	31	104	13195280384	60	50942
2026-01-26 07:30:39.17	343.11	0.50	-50.1	-52.6	6.1	0.00e+00	0	31	104	13195280384	60	52179
2026-01-26 07:30:40.18	343.02	0.44	-50.0	-52.4	6.1	0.00e+00	0	31	104	13195280384	60	51348
2026-01-26 07:30:41.19	342.94	0.38	-49.6	-52.1	6.1	0.00e+00	0	31	104	13195280384	60	49205
2026-01-26 07:30:42.20	342.85	0.33	-49.6	-52.0	6.1	0.00e+00	0	31	104	13195280384	60	48902
2026-01-26 07:30:43.21	342.77	0.27	-50.1	-52.5	6.1	0.00e+00	0	31	104	13195280384	60	51543
2026-01-26 07:30:44.22	342.68	0.21	-49.7	-52.2	6.1	0.00e+00	0	31	104	13195280384	60	50083
2026-01-26 07:30:45.23	342.60	0.16	-50.1	-52.6	6.1	0.00e+00	0	31	104	13195280384	60	52069
2026-01-26 07:30:46.25	342.51	0.10	-50.0	-52.4	6.1	0.00e+00	0	31	104	13195280384	60	51315
2026-01-26 07:30:47.26	342.43	0.04	-50.0	-52.5	6.1	0.00e+00	0	31	104	13195280384	60	51563
2026-01-26 07:30:48.27	342.35	-0.01	-50.1	-52.5	6.1	0.00e+00	0	31	104	13195280384	60	51835

#Closed at: 2026-01-26 07:30:48
#Recorded file [13195 MB]: D:/lorett/data/35029_260126_192115.dat