passes_logs/2026/01/26/R4.6S_Anadyr/R4.6S_Anadyr__20260126_145905_NOAA_20_JPSS-1_rec.log

#Pass ID: 20260126_145905_NOAA 20 (JPSS-1)
#Satellite: NOAA 20 (JPSS-1)
#Configuration: NOAA 20
#almurnet v.1.7.20251203
#Start time: 2026-01-26 14:59:07

#Version: 2.2.20231116
#Station: R4.6S_Anadyr
#Location: 177.4865 lon 64.73178 lat
#TLE: 1 43013U 17073A   26025.90277267  .00000170  00000+0  10165-3 0  9997
#TLE: 2 43013  98.7646 326.7276 0001032  23.5492 336.5731 14.19540457424285

#Time	Az	El	Level	Level2	SNR	BER	BlckErr	Temp	State	Recorded	gain1	gain2
2026-01-26 14:59:07.29	21.08	0.13	-49.6	-64.6	3.5	1.51e+00	0	25	0	0	60	61192
2026-01-26 14:59:08.30	21.08	0.19	-50.5	-65.6	3.6	1.51e+00	0	26	104	0	60	69126
2026-01-26 14:59:09.31	21.07	0.25	-50.3	-65.5	3.5	1.51e+00	0	26	104	0	60	68173
2026-01-26 14:59:10.32	21.07	0.31	-50.0	-65.3	3.6	1.51e+00	0	26	104	0	60	66220
2026-01-26 14:59:11.33	21.07	0.37	-49.9	-65.1	3.6	1.51e+00	0	26	104	0	60	64999
2026-01-26 14:59:12.34	21.07	0.43	-49.7	-65.0	3.6	1.51e+00	0	26	104	0	60	64431
2026-01-26 14:59:13.35	21.06	0.49	-49.6	-64.9	3.6	1.51e+00	0	27	104	0	60	63554
2026-01-26 14:59:14.36	21.06	0.56	-49.7	-65.0	3.6	1.51e+00	0	27	104	0	60	64207
2026-01-26 14:59:15.37	21.06	0.62	-49.7	-64.9	3.6	1.51e+00	0	27	104	0	60	63771
2026-01-26 14:59:16.38	21.05	0.68	-49.7	-64.9	3.6	1.51e+00	0	27	104	0	60	63208
2026-01-26 14:59:17.39	21.05	0.74	-49.7	-64.9	3.6	1.51e+00	0	27	104	0	60	63393
2026-01-26 14:59:18.40	21.05	0.80	-49.7	-64.8	3.6	1.51e+00	0	27	104	0	60	63131
2026-01-26 14:59:19.41	21.04	0.86	-49.4	-64.8	3.6	1.51e+00	0	27	104	0	60	63064
2026-01-26 14:59:20.42	21.04	0.93	-49.6	-64.8	3.6	1.51e+00	0	27	104	0	60	62577
2026-01-26 14:59:21.43	21.04	0.99	-49.5	-64.7	3.6	1.51e+00	0	27	104	0	60	61964
2026-01-26 14:59:22.44	21.03	1.05	-49.4	-64.7	3.6	1.51e+00	0	27	104	0	60	61872
2026-01-26 14:59:23.45	21.03	1.11	-49.4	-64.6	3.6	1.51e+00	0	27	104	0	60	61263
2026-01-26 14:59:24.46	21.03	1.18	-49.2	-64.4	3.6	1.51e+00	0	27	104	0	60	60230
2026-01-26 14:59:25.47	21.03	1.24	-49.1	-64.3	3.6	1.51e+00	0	27	104	0	60	59537
2026-01-26 14:59:26.48	21.02	1.30	-49.0	-64.3	3.6	1.51e+00	0	27	104	0	60	59259
2026-01-26 14:59:27.49	21.02	1.36	-48.9	-64.1	3.6	1.51e+00	0	27	104	0	60	57899
2026-01-26 14:59:28.50	21.01	1.43	-48.8	-64.0	3.6	1.51e+00	0	27	104	0	60	57206
2026-01-26 14:59:29.51	21.01	1.49	-48.6	-63.8	3.6	1.51e+00	0	27	104	0	60	55967
2026-01-26 14:59:30.52	21.01	1.55	-48.3	-63.4	3.6	1.51e+00	0	27	104	0	60	53757
2026-01-26 14:59:31.53	21.00	1.62	-48.3	-63.3	3.6	1.51e+00	0	27	104	0	60	52828
2026-01-26 14:59:32.54	21.00	1.68	-48.3	-63.3	3.6	1.51e+00	0	27	104	0	60	52953
2026-01-26 14:59:33.55	21.00	1.74	-48.3	-63.3	3.6	1.51e+00	0	27	104	0	60	52918
2026-01-26 14:59:34.56	20.99	1.81	-48.3	-63.3	3.6	1.51e+00	0	27	104	0	60	52702
2026-01-26 14:59:35.57	20.99	1.87	-48.3	-63.3	3.6	1.51e+00	0	27	104	0	60	52794
2026-01-26 14:59:36.58	20.99	1.94	-48.3	-63.4	3.6	1.51e+00	0	27	104	0	60	53473
2026-01-26 14:59:37.59	20.98	2.00	-48.3	-63.4	3.6	1.51e+00	0	27	104	0	60	53334
2026-01-26 14:59:38.60	20.98	2.06	-48.3	-63.4	3.6	1.51e+00	0	27	104	0	60	53535
2026-01-26 14:59:39.61	20.98	2.13	-48.3	-63.4	3.6	1.51e+00	0	27	104	0	60	53460
2026-01-26 14:59:40.62	20.97	2.19	-48.3	-63.4	3.6	1.51e+00	0	27	104	0	60	53430
2026-01-26 14:59:41.63	20.97	2.26	-48.3	-63.4	3.6	1.51e+00	0	27	104	0	60	53456
2026-01-26 14:59:42.64	20.96	2.32	-48.3	-63.3	3.6	1.51e+00	0	27	104	0	60	52967
2026-01-26 14:59:43.65	20.96	2.39	-48.2	-63.2	3.6	1.51e+00	0	27	104	0	60	52248
2026-01-26 14:59:44.66	20.96	2.45	-48.2	-62.9	3.6	1.51e+00	0	27	104	0	60	50512
2026-01-26 14:59:45.67	20.95	2.52	-48.2	-62.3	3.6	1.51e+00	0	27	104	0	60	47327
2026-01-26 14:59:46.68	20.95	2.59	-48.2	-62.2	3.6	1.51e+00	0	27	104	0	60	46743
2026-01-26 14:59:47.69	20.94	2.65	-48.2	-61.9	3.6	1.51e+00	0	27	104	0	60	44853
2026-01-26 14:59:48.70	20.94	2.72	-48.2	-61.5	3.7	1.51e+00	0	27	104	0	60	43060
2026-01-26 14:59:49.71	20.94	2.78	-48.2	-61.7	3.6	1.50e+00	0	27	104	0	60	44013
2026-01-26 14:59:50.72	20.93	2.85	-48.2	-61.6	3.6	1.51e+00	0	27	104	0	60	43669
2026-01-26 14:59:51.73	20.93	2.92	-48.2	-62.4	3.6	1.51e+00	0	27	104	0	60	47871
2026-01-26 14:59:52.73	20.92	2.98	-48.2	-61.6	3.6	1.51e+00	0	27	104	0	60	43467
2026-01-26 14:59:53.74	20.92	3.05	-48.0	-58.7	4.0	1.42e+00	29	27	0	0	60	31187
2026-01-26 14:59:54.75	20.91	3.12	-47.9	-56.2	5.2	7.24e-01	0	27	0	1048576	60	23460
2026-01-26 14:59:55.76	20.91	3.18	-47.5	-54.1	7.8	2.71e-01	92	27	0	3145728	60	18369
2026-01-26 14:59:56.77	20.91	3.25	-46.8	-52.0	10.2	1.63e-02	82	27	0	5242880	60	14441
2026-01-26 14:59:57.78	20.90	3.32	-46.4	-50.9	11.5	3.68e-03	92	27	0	7340032	60	12645
2026-01-26 14:59:58.79	20.90	3.39	-45.8	-49.4	12.8	5.87e-05	82	27	0	9437184	60	10724
2026-01-26 14:59:59.80	20.89	3.45	-45.1	-48.2	14.2	5.79e-05	2	27	0	10485760	60	9247
2026-01-26 15:00:00.81	20.89	3.52	-44.9	-47.8	14.7	3.80e-06	0	27	0	12582912	60	8910
2026-01-26 15:00:01.82	20.88	3.59	-44.6	-47.3	15.1	0.00e+00	0	27	0	14680064	60	8419
2026-01-26 15:00:02.83	20.88	3.66	-45.0	-48.0	14.4	0.00e+00	92	27	0	16777216	60	9117
2026-01-26 15:00:03.84	20.87	3.73	-44.7	-47.5	14.9	0.00e+00	0	27	0	18874368	60	8599
2026-01-26 15:00:04.85	20.87	3.79	-44.9	-47.8	14.6	0.00e+00	92	27	0	20971520	60	8901
2026-01-26 15:00:05.86	20.86	3.86	-43.8	-46.1	16.6	0.00e+00	2	27	0	22020096	60	7264
2026-01-26 15:00:06.87	20.86	3.93	-42.9	-44.8	17.6	0.00e+00	2	27	0	24117248	58	7063
2026-01-26 15:00:07.88	20.85	4.00	-48.2	-61.0	3.6	9.03e-03	0	27	104	26214400	60	40773
2026-01-26 15:00:08.89	20.85	4.07	-46.6	-51.2	11.1	5.69e-01	0	27	104	26214400	60	13184
2026-01-26 15:00:09.90	20.84	4.14	-48.1	-60.3	3.4	2.01e-01	38	27	0	27262976	60	37528
2026-01-26 15:00:10.91	20.84	4.21	-44.9	-48.0	5.9	1.39e+00	0	27	104	27262976	60	9048
2026-01-26 15:00:11.92	20.83	4.28	-44.9	-47.8	14.7	7.00e-07	91	27	0	27262976	60	8837
2026-01-26 15:00:12.93	20.83	4.35	-44.6	-47.4	15.2	0.00e+00	3	27	0	29360128	60	8440
2026-01-26 15:00:13.94	20.82	4.42	-44.6	-47.2	15.3	0.00e+00	78	27	0	30408704	60	8298
2026-01-26 15:00:14.95	20.82	4.49	-43.8	-46.0	16.8	0.00e+00	3	27	0	32505856	60	7171
2026-01-26 15:00:15.96	20.81	4.56	-42.7	-44.4	18.3	0.00e+00	0	27	0	34603008	60	6001
2026-01-26 15:00:16.96	20.81	4.63	-42.5	-44.2	18.5	0.00e+00	75	27	0	36700160	58	6563
2026-01-26 15:00:17.97	20.80	4.70	-42.7	-44.5	18.1	0.00e+00	2	27	0	38797312	58	6779
2026-01-26 15:00:18.98	20.80	4.77	-42.6	-44.4	18.3	0.00e+00	92	27	0	39845888	58	6715
2026-01-26 15:00:19.99	20.79	4.84	-42.7	-44.5	18.2	0.00e+00	78	27	0	41943040	58	6806
2026-01-26 15:00:21.00	20.79	4.91	-42.5	-44.2	18.6	0.00e+00	92	27	0	44040192	58	6587
2026-01-26 15:00:22.00	20.78	4.99	-42.6	-44.3	18.5	0.00e+00	0	27	0	46137344	58	6651
2026-01-26 15:00:23.01	20.77	5.06	-42.5	-44.2	18.5	0.00e+00	0	27	0	48234496	58	6551
2026-01-26 15:00:24.02	20.77	5.13	-42.3	-43.9	18.8	0.00e+00	0	27	0	49283072	58	6372
2026-01-26 15:00:25.03	20.76	5.20	-42.4	-44.0	18.7	0.00e+00	2	27	0	51380224	58	6462
2026-01-26 15:00:26.04	20.76	5.27	-42.3	-44.0	18.8	0.00e+00	92	27	0	53477376	58	6391
2026-01-26 15:00:27.04	20.75	5.35	-42.4	-44.1	18.7	0.00e+00	0	27	0	55574528	58	6495
2026-01-26 15:00:28.05	20.75	5.42	-42.3	-44.0	18.8	0.00e+00	90	27	0	57671680	58	6417
2026-01-26 15:00:29.06	20.74	5.49	-42.3	-43.9	18.7	0.00e+00	2	27	0	58720256	58	6351
2026-01-26 15:00:30.07	20.73	5.56	-42.6	-44.2	18.6	0.00e+00	0	27	0	60817408	58	6603
2026-01-26 15:00:31.08	20.73	5.64	-42.4	-44.0	18.7	0.00e+00	2	27	0	62914560	58	6421
2026-01-26 15:00:32.09	20.72	5.71	-42.4	-44.0	18.9	0.00e+00	0	27	0	65011712	58	6398
2026-01-26 15:00:33.10	20.72	5.79	-42.4	-44.0	18.9	0.00e+00	78	27	0	67108864	58	6453
2026-01-26 15:00:34.11	20.71	5.86	-42.9	-44.6	18.1	0.00e+00	2	27	0	68157440	58	6920
2026-01-26 15:00:35.12	20.70	5.93	-42.7	-44.4	18.3	0.00e+00	92	27	0	70254592	58	6694
2026-01-26 15:00:36.13	20.70	6.01	-42.6	-44.3	18.6	0.00e+00	4	27	0	72351744	58	6640
2026-01-26 15:00:37.14	20.69	6.08	-42.8	-44.5	18.4	0.00e+00	5	27	0	74448896	58	6783
2026-01-26 15:00:38.14	20.68	6.16	-42.2	-43.8	19.0	0.00e+00	77	27	0	76546048	58	6273
2026-01-26 15:00:39.15	20.68	6.23	-42.5	-44.1	18.9	0.00e+00	77	27	0	77594624	58	6475
2026-01-26 15:00:40.16	20.67	6.31	-42.4	-44.0	19.0	0.00e+00	0	27	0	79691776	58	6403
2026-01-26 15:00:41.17	20.67	6.38	-42.2	-43.7	19.1	0.00e+00	77	27	0	81788928	58	6239
2026-01-26 15:00:42.18	20.66	6.46	-42.2	-43.8	19.1	0.00e+00	92	27	0	83886080	58	6284
2026-01-26 15:00:43.19	20.65	6.54	-42.4	-44.0	18.9	0.00e+00	0	27	0	85983232	58	6449
2026-01-26 15:00:44.20	20.65	6.61	-42.3	-43.9	19.1	0.00e+00	92	27	0	87031808	58	6326
2026-01-26 15:00:45.21	20.64	6.69	-42.2	-43.7	19.2	0.00e+00	2	27	0	89128960	58	6218
2026-01-26 15:00:46.21	20.63	6.76	-42.1	-43.6	19.4	0.00e+00	2	27	0	91226112	58	6118
2026-01-26 15:00:47.22	20.62	6.84	-42.0	-43.5	19.4	0.00e+00	0	27	0	93323264	58	6092
2026-01-26 15:00:48.23	20.62	6.92	-41.8	-43.2	19.7	0.00e+00	0	27	0	95420416	58	5888
2026-01-26 15:00:49.24	20.61	7.00	-41.8	-43.3	19.6	0.00e+00	92	27	0	96468992	58	5920
2026-01-26 15:00:50.25	20.60	7.07	-41.7	-43.2	19.8	0.00e+00	0	27	0	98566144	58	5831
2026-01-26 15:00:51.25	20.60	7.15	-41.8	-43.3	19.7	0.00e+00	2	27	0	100663296	56	6627
2026-01-26 15:00:52.26	20.59	7.23	-42.0	-43.4	19.6	0.00e+00	3	27	0	102760448	56	6765
2026-01-26 15:00:53.27	20.58	7.31	-41.8	-43.2	19.8	0.00e+00	0	27	0	104857600	56	6542
2026-01-26 15:00:54.28	20.57	7.38	-42.0	-43.4	19.5	0.00e+00	0	27	0	105906176	56	6756
2026-01-26 15:00:55.29	20.57	7.46	-41.9	-43.3	19.8	0.00e+00	2	27	0	108003328	56	6649
2026-01-26 15:00:56.30	20.56	7.54	-41.8	-43.2	19.8	0.00e+00	0	27	0	110100480	56	6552
2026-01-26 15:00:57.31	20.55	7.62	-41.7	-43.1	19.9	0.00e+00	0	27	0	112197632	56	6468
2026-01-26 15:00:58.32	20.54	7.70	-41.6	-43.0	20.0	0.00e+00	92	27	0	114294784	56	6406
2026-01-26 15:00:59.33	20.54	7.78	-41.9	-43.3	19.8	0.00e+00	0	27	0	115343360	56	6623
2026-01-26 15:01:00.34	20.53	7.86	-41.7	-43.1	20.0	0.00e+00	64	27	0	117440512	56	6513
2026-01-26 15:01:01.35	20.52	7.94	-41.7	-43.1	20.0	0.00e+00	81	27	0	119537664	56	6520
2026-01-26 15:01:02.36	20.51	8.02	-41.7	-43.1	20.1	0.00e+00	81	27	0	121634816	56	6472
2026-01-26 15:01:03.36	20.51	8.10	-41.7	-43.0	19.9	0.00e+00	82	27	0	123731968	56	6460
2026-01-26 15:01:04.37	20.50	8.18	-41.8	-43.2	20.0	0.00e+00	0	27	0	125829120	56	6572
2026-01-26 15:01:05.39	20.49	8.26	-41.8	-43.2	19.9	0.00e+00	90	27	0	126877696	56	6546
2026-01-26 15:01:06.39	20.48	8.35	-41.5	-42.8	20.2	0.00e+00	0	27	0	128974848	56	6313
2026-01-26 15:01:07.40	20.47	8.43	-41.6	-42.9	20.1	0.00e+00	69	27	0	131072000	56	6374
2026-01-26 15:01:08.41	20.47	8.51	-41.5	-42.8	20.3	0.00e+00	6	27	0	133169152	56	6267
2026-01-26 15:01:09.42	20.46	8.59	-41.7	-43.0	20.1	0.00e+00	0	27	0	135266304	56	6437
2026-01-26 15:01:10.43	20.45	8.67	-41.5	-42.8	20.2	0.00e+00	0	27	0	136314880	56	6305
2026-01-26 15:01:11.44	20.44	8.76	-41.3	-42.6	20.5	0.00e+00	0	28	0	138412032	56	6155
2026-01-26 15:01:12.44	20.43	8.84	-41.4	-42.7	20.4	0.00e+00	92	27	0	140509184	56	6182
2026-01-26 15:01:13.45	20.42	8.92	-41.3	-42.6	20.4	0.00e+00	3	27	0	142606336	56	6163
2026-01-26 15:01:14.46	20.41	9.01	-41.3	-42.5	20.5	0.00e+00	70	27	0	144703488	56	6091
2026-01-26 15:01:15.47	20.41	9.09	-41.3	-42.6	20.5	0.00e+00	3	27	0	145752064	56	6164
2026-01-26 15:01:16.48	20.40	9.17	-41.3	-42.5	20.5	0.00e+00	4	27	0	147849216	56	6096
2026-01-26 15:01:17.49	20.39	9.26	-41.3	-42.6	20.6	0.00e+00	5	27	0	149946368	56	6125
2026-01-26 15:01:18.49	20.38	9.34	-41.3	-42.6	20.5	0.00e+00	3	27	0	152043520	56	6156
2026-01-26 15:01:19.50	20.37	9.43	-41.5	-42.8	20.3	0.00e+00	92	27	0	154140672	56	6268
2026-01-26 15:01:20.51	20.36	9.51	-41.4	-42.7	20.4	0.00e+00	82	27	0	155189248	56	6214
2026-01-26 15:01:21.52	20.35	9.60	-41.2	-42.5	20.6	0.00e+00	92	27	0	157286400	56	6052
2026-01-26 15:01:22.53	20.34	9.69	-41.1	-42.3	20.8	0.00e+00	3	27	0	159383552	56	5960
2026-01-26 15:01:23.54	20.33	9.77	-41.3	-42.5	20.6	0.00e+00	83	27	0	161480704	56	6098
2026-01-26 15:01:24.55	20.32	9.86	-41.1	-42.4	20.7	0.00e+00	3	27	0	163577856	56	5992
2026-01-26 15:01:25.56	20.31	9.95	-41.1	-42.4	20.8	0.00e+00	87	27	0	164626432	56	5981
2026-01-26 15:01:26.56	20.30	10.03	-41.1	-42.3	20.8	0.00e+00	0	27	0	166723584	56	5959
2026-01-26 15:01:27.57	20.29	10.12	-41.1	-42.3	20.8	0.00e+00	87	27	0	168820736	56	5939
2026-01-26 15:01:28.58	20.28	10.21	-41.3	-42.5	20.6	0.00e+00	91	27	0	170917888	56	6084
2026-01-26 15:01:29.59	20.27	10.30	-41.1	-42.4	20.8	0.00e+00	0	27	0	173015040	56	5977
2026-01-26 15:01:30.60	20.26	10.38	-41.0	-42.2	21.0	0.00e+00	92	27	0	174063616	56	5867
2026-01-26 15:01:31.61	20.25	10.47	-41.1	-42.3	20.9	0.00e+00	0	27	0	176160768	56	5953
2026-01-26 15:01:32.61	20.24	10.56	-41.0	-42.2	20.9	0.00e+00	6	27	0	178257920	56	5881
2026-01-26 15:01:33.62	20.23	10.65	-41.0	-42.2	21.0	0.00e+00	0	27	0	180355072	56	5844
2026-01-26 15:01:34.63	20.22	10.74	-41.0	-42.2	20.9	0.00e+00	7	27	0	182452224	56	5890
2026-01-26 15:01:35.64	20.21	10.83	-41.0	-42.2	20.9	0.00e+00	92	27	0	183500800	56	5869
2026-01-26 15:01:36.65	20.20	10.92	-41.2	-42.5	20.8	0.00e+00	0	27	0	185597952	56	6036
2026-01-26 15:01:37.66	20.19	11.01	-40.9	-42.1	21.1	0.00e+00	92	27	0	187695104	56	5818
2026-01-26 15:01:38.67	20.18	11.10	-41.0	-42.2	21.0	0.00e+00	5	27	0	189792256	56	5864
2026-01-26 15:01:39.68	20.17	11.19	-41.2	-42.5	20.7	0.00e+00	5	27	0	191889408	56	6058
2026-01-26 15:01:40.69	20.16	11.29	-41.2	-42.4	20.8	0.00e+00	5	27	0	192937984	56	6009
2026-01-26 15:01:41.70	20.15	11.38	-41.2	-42.5	20.6	0.00e+00	6	27	0	195035136	56	6058
2026-01-26 15:01:42.71	20.14	11.47	-41.4	-42.6	20.6	0.00e+00	90	27	0	197132288	56	6173
2026-01-26 15:01:43.72	20.13	11.56	-40.9	-42.0	21.2	0.00e+00	5	27	0	199229440	56	5754
2026-01-26 15:01:44.73	20.12	11.66	-40.9	-42.1	21.1	0.00e+00	90	27	0	201326592	56	5779
2026-01-26 15:01:45.73	20.10	11.75	-40.9	-42.1	21.1	0.00e+00	77	27	0	202375168	56	5821
2026-01-26 15:01:46.74	20.09	11.84	-40.9	-42.1	21.0	0.00e+00	75	27	0	204472320	56	5817
2026-01-26 15:01:47.75	20.08	11.94	-40.9	-42.1	21.1	0.00e+00	0	27	0	206569472	56	5788
2026-01-26 15:01:48.76	20.07	12.03	-40.8	-41.9	21.2	0.00e+00	76	27	0	208666624	56	5675
2026-01-26 15:01:49.77	20.06	12.13	-40.8	-42.0	21.2	0.00e+00	0	27	0	210763776	54	6424
2026-01-26 15:01:50.78	20.05	12.22	-40.6	-41.8	21.4	0.00e+00	0	27	0	211812352	54	6258
2026-01-26 15:01:51.79	20.03	12.32	-40.6	-41.8	21.3	0.00e+00	92	27	0	213909504	54	6277
2026-01-26 15:01:52.80	20.02	12.41	-40.7	-41.8	21.4	0.00e+00	0	27	0	216006656	54	6303
2026-01-26 15:01:53.81	20.01	12.51	-40.6	-41.8	21.5	0.00e+00	3	27	0	218103808	54	6275
2026-01-26 15:01:54.82	20.00	12.61	-40.5	-41.6	21.5	0.00e+00	2	27	0	220200960	54	6159
2026-01-26 15:01:55.83	19.98	12.70	-40.5	-41.6	21.6	0.00e+00	0	27	0	222298112	54	6136
2026-01-26 15:01:56.84	19.97	12.80	-40.4	-41.5	21.7	0.00e+00	0	27	0	223346688	54	6095
2026-01-26 15:01:57.85	19.96	12.90	-40.5	-41.7	21.5	0.00e+00	0	27	0	225443840	54	6203
2026-01-26 15:01:58.86	19.95	13.00	-40.5	-41.6	21.5	0.00e+00	92	27	0	227540992	54	6143
2026-01-26 15:01:59.87	19.93	13.10	-40.4	-41.5	21.6	0.00e+00	2	27	0	229638144	54	6095
2026-01-26 15:02:00.87	19.92	13.19	-40.4	-41.5	21.6	0.00e+00	92	27	0	231735296	54	6087
2026-01-26 15:02:01.88	19.91	13.29	-40.3	-41.4	21.7	0.00e+00	5	27	0	232783872	54	6005
2026-01-26 15:02:02.89	19.89	13.39	-40.3	-41.4	21.8	0.00e+00	2	28	0	234881024	54	5967
2026-01-26 15:02:03.90	19.88	13.49	-40.2	-41.3	21.9	0.00e+00	81	27	0	236978176	54	5956
2026-01-26 15:02:04.91	19.87	13.59	-40.2	-41.3	21.9	0.00e+00	1	28	0	239075328	54	5931
2026-01-26 15:02:05.92	19.85	13.70	-40.2	-41.3	21.9	0.00e+00	0	27	0	241172480	54	5912
2026-01-26 15:02:06.93	19.84	13.80	-40.1	-41.2	22.0	0.00e+00	5	28	0	242221056	54	5859
2026-01-26 15:02:07.94	19.83	13.90	-40.1	-41.2	21.9	0.00e+00	92	28	0	244318208	54	5866
2026-01-26 15:02:08.95	19.81	14.00	-40.1	-41.2	22.0	0.00e+00	76	27	0	246415360	54	5830
2026-01-26 15:02:09.96	19.80	14.10	-40.1	-41.2	22.0	0.00e+00	0	27	0	248512512	54	5871
2026-01-26 15:02:10.96	19.78	14.21	-40.1	-41.2	22.1	0.00e+00	3	27	0	250609664	54	5848
2026-01-26 15:02:11.97	19.77	14.31	-40.0	-41.0	22.2	0.00e+00	81	27	0	251658240	54	5759
2026-01-26 15:02:12.98	19.76	14.41	-39.9	-41.0	22.2	0.00e+00	0	27	0	253755392	54	5716
2026-01-26 15:02:13.99	19.74	14.52	-39.9	-41.0	22.2	0.00e+00	0	27	0	255852544	54	5700
2026-01-26 15:02:15.00	19.73	14.62	-40.0	-41.0	22.1	0.00e+00	92	27	0	257949696	54	5748
2026-01-26 15:02:16.01	19.71	14.73	-40.1	-41.1	22.1	0.00e+00	0	27	0	260046848	54	5806
2026-01-26 15:02:17.02	19.70	14.84	-39.9	-41.0	22.2	0.00e+00	92	27	0	261095424	54	5701
2026-01-26 15:02:18.03	19.68	14.94	-39.8	-40.8	22.4	0.00e+00	2	28	0	263192576	54	5599
2026-01-26 15:02:19.04	19.67	15.05	-39.9	-40.9	22.3	0.00e+00	0	28	0	265289728	54	5684
2026-01-26 15:02:20.04	19.65	15.16	-39.7	-40.7	22.5	0.00e+00	0	27	0	267386880	52	6225
2026-01-26 15:02:21.05	19.64	15.26	-39.6	-40.6	22.5	0.00e+00	2	27	0	269484032	52	6157
2026-01-26 15:02:22.06	19.62	15.37	-39.6	-40.6	22.5	0.00e+00	92	28	0	270532608	52	6164
2026-01-26 15:02:23.07	19.60	15.48	-39.6	-40.7	22.6	0.00e+00	2	27	0	272629760	52	6174
2026-01-26 15:02:24.08	19.59	15.59	-39.6	-40.7	22.5	0.00e+00	92	27	0	274726912	52	6175
2026-01-26 15:02:25.09	19.57	15.70	-39.5	-40.5	22.6	0.00e+00	0	27	0	276824064	52	6057
2026-01-26 15:02:26.09	19.56	15.81	-39.5	-40.5	22.7	0.00e+00	0	27	0	278921216	52	6088
2026-01-26 15:02:27.10	19.54	15.92	-39.5	-40.5	22.7	0.00e+00	0	27	0	279969792	52	6050
2026-01-26 15:02:28.11	19.52	16.03	-39.5	-40.5	22.7	0.00e+00	1	28	0	282066944	52	6075
2026-01-26 15:02:29.12	19.51	16.14	-39.4	-40.3	22.9	0.00e+00	0	27	0	284164096	52	5938
2026-01-26 15:02:30.13	19.49	16.26	-39.4	-40.3	22.9	0.00e+00	74	28	0	286261248	52	5951
2026-01-26 15:02:31.14	19.47	16.37	-39.4	-40.4	22.9	0.00e+00	92	27	0	288358400	52	5980
2026-01-26 15:02:32.15	19.45	16.48	-39.3	-40.2	22.9	0.00e+00	74	27	0	289406976	52	5895
2026-01-26 15:02:33.16	19.44	16.60	-39.4	-40.3	22.9	0.00e+00	92	27	0	291504128	52	5954
2026-01-26 15:02:34.17	19.42	16.71	-39.4	-40.3	22.9	0.00e+00	0	27	0	293601280	52	5946
2026-01-26 15:02:35.18	19.40	16.83	-39.2	-40.2	22.9	0.00e+00	0	27	0	295698432	52	5861
2026-01-26 15:02:36.18	19.38	16.94	-39.2	-40.1	23.2	0.00e+00	79	27	0	297795584	52	5820
2026-01-26 15:02:37.19	19.37	17.06	-39.1	-40.1	23.2	0.00e+00	0	27	0	298844160	52	5762
2026-01-26 15:02:38.20	19.35	17.17	-39.1	-40.1	23.1	0.00e+00	91	27	0	300941312	52	5782
2026-01-26 15:02:39.21	19.33	17.29	-39.0	-40.0	23.2	0.00e+00	0	27	0	303038464	52	5696
2026-01-26 15:02:40.22	19.31	17.41	-39.1	-40.0	23.1	0.00e+00	91	27	0	305135616	52	5726
2026-01-26 15:02:41.23	19.29	17.53	-39.1	-40.0	23.3	0.00e+00	0	27	0	307232768	52	5751
2026-01-26 15:02:42.24	19.27	17.64	-38.9	-39.8	23.4	0.00e+00	2	28	0	308281344	52	5588
2026-01-26 15:02:43.25	19.25	17.76	-38.8	-39.7	23.5	0.00e+00	0	27	0	310378496	52	5559
2026-01-26 15:02:44.26	19.24	17.88	-38.9	-39.8	23.3	0.00e+00	1	27	0	312475648	52	5612
2026-01-26 15:02:45.27	19.22	18.00	-38.8	-39.7	23.5	0.00e+00	0	27	0	314572800	52	5512
2026-01-26 15:02:46.28	19.20	18.13	-38.7	-39.6	23.5	0.00e+00	0	27	0	316669952	52	5489
2026-01-26 15:02:47.28	19.18	18.25	-38.7	-39.5	23.5	0.00e+00	92	27	0	318767104	50	6097
2026-01-26 15:02:48.29	19.16	18.37	-38.7	-39.6	23.5	0.00e+00	7	27	0	319815680	50	6163
2026-01-26 15:02:49.30	19.14	18.49	-38.6	-39.5	23.5	0.00e+00	7	27	0	321912832	50	6095
2026-01-26 15:02:50.31	19.12	18.62	-38.7	-39.6	23.5	0.00e+00	2	27	0	324009984	50	6143
2026-01-26 15:02:51.32	19.09	18.74	-38.7	-39.6	23.5	0.00e+00	2	27	0	326107136	50	6155
2026-01-26 15:02:52.33	19.07	18.86	-38.6	-39.4	23.6	0.00e+00	0	27	0	328204288	50	6027
2026-01-26 15:02:53.34	19.05	18.99	-38.5	-39.4	23.7	0.00e+00	80	27	0	329252864	50	5985
2026-01-26 15:02:54.35	19.03	19.12	-38.5	-39.3	23.8	0.00e+00	90	28	0	331350016	50	5953
2026-01-26 15:02:55.36	19.01	19.24	-38.4	-39.3	23.9	0.00e+00	75	27	0	333447168	50	5924
2026-01-26 15:02:56.36	18.99	19.37	-38.4	-39.3	23.8	0.00e+00	92	27	0	335544320	50	5947
2026-01-26 15:02:57.38	18.97	19.50	-38.5	-39.4	23.8	0.00e+00	5	27	0	337641472	50	5976
2026-01-26 15:02:58.38	18.94	19.63	-38.4	-39.3	23.9	0.00e+00	0	27	0	338690048	50	5919
2026-01-26 15:02:59.39	18.92	19.75	-38.4	-39.3	23.8	0.00e+00	0	27	0	340787200	50	5944
2026-01-26 15:03:00.40	18.90	19.88	-38.7	-39.6	23.7	0.00e+00	5	27	0	342884352	50	6147
2026-01-26 15:03:01.41	18.88	20.02	-38.6	-39.5	23.6	0.00e+00	92	27	0	344981504	50	6089
2026-01-26 15:03:02.42	18.85	20.15	-38.4	-39.3	23.9	0.00e+00	6	27	0	347078656	50	5934
2026-01-26 15:03:03.43	18.83	20.28	-38.5	-39.3	23.8	0.00e+00	92	27	0	348127232	50	5953
2026-01-26 15:03:04.44	18.81	20.41	-38.4	-39.3	23.9	0.00e+00	0	27	0	350224384	50	5939
2026-01-26 15:03:05.44	18.78	20.54	-38.6	-39.5	23.9	0.00e+00	0	27	0	352321536	50	6044
2026-01-26 15:03:06.45	18.76	20.68	-38.4	-39.3	23.9	0.00e+00	7	27	0	354418688	50	5902
2026-01-26 15:03:07.46	18.74	20.81	-38.5	-39.4	23.8	0.00e+00	0	27	0	356515840	50	5972
2026-01-26 15:03:08.47	18.71	20.95	-38.5	-39.4	23.6	0.00e+00	0	27	0	357564416	50	6002
2026-01-26 15:03:09.48	18.69	21.09	-38.9	-39.9	23.3	0.00e+00	6	27	0	359661568	50	6329
2026-01-26 15:03:10.49	18.66	21.22	-38.5	-39.4	23.9	0.00e+00	90	27	0	361758720	50	5980
2026-01-26 15:03:11.50	18.64	21.36	-38.4	-39.3	23.8	0.00e+00	7	27	0	363855872	50	5922
2026-01-26 15:03:12.51	18.61	21.50	-38.3	-39.2	24.0	0.00e+00	81	27	0	365953024	50	5866
2026-01-26 15:03:13.52	18.58	21.64	-38.6	-39.5	23.8	0.00e+00	0	27	0	367001600	50	6072
2026-01-26 15:03:14.53	18.56	21.78	-38.2	-39.1	24.1	0.00e+00	80	27	0	369098752	50	5794
2026-01-26 15:03:15.54	18.53	21.92	-38.3	-39.2	24.0	0.00e+00	0	27	0	371195904	50	5863
2026-01-26 15:03:16.55	18.51	22.06	-38.4	-39.2	23.9	0.00e+00	84	27	0	373293056	50	5889
2026-01-26 15:03:17.56	18.48	22.20	-38.3	-39.2	24.0	0.00e+00	91	27	0	375390208	50	5830
2026-01-26 15:03:18.56	18.45	22.34	-38.4	-39.2	24.0	0.00e+00	77	27	0	376438784	50	5872
2026-01-26 15:03:19.57	18.42	22.49	-38.3	-39.1	24.0	0.00e+00	92	27	0	378535936	50	5813
2026-01-26 15:03:20.58	18.40	22.63	-38.3	-39.2	24.0	0.00e+00	0	27	0	380633088	50	5843
2026-01-26 15:03:21.59	18.37	22.78	-38.3	-39.1	24.0	0.00e+00	0	27	0	382730240	50	5821
2026-01-26 15:03:22.60	18.34	22.93	-38.5	-39.4	23.7	0.00e+00	0	27	0	384827392	50	5991
2026-01-26 15:03:23.60	18.31	23.07	-38.4	-39.3	24.0	0.00e+00	0	27	0	386924544	50	5925
2026-01-26 15:03:24.61	18.28	23.22	-38.2	-39.0	24.0	0.00e+00	81	27	0	387973120	50	5752
2026-01-26 15:03:25.62	18.25	23.37	-38.0	-38.8	24.3	0.00e+00	0	27	0	390070272	50	5624
2026-01-26 15:03:26.63	18.22	23.52	-38.1	-39.0	24.2	0.00e+00	92	27	0	392167424	50	5705
2026-01-26 15:03:27.64	18.19	23.67	-38.1	-38.9	24.2	0.00e+00	0	27	0	394264576	50	5661
2026-01-26 15:03:28.65	18.16	23.82	-38.2	-39.1	24.2	0.00e+00	6	27	0	395313152	50	5774
2026-01-26 15:03:29.66	18.13	23.97	-38.2	-39.0	24.2	0.00e+00	10	27	0	397410304	50	5746
2026-01-26 15:03:30.67	18.10	24.13	-38.2	-39.1	24.0	0.00e+00	6	27	0	399507456	50	5795
2026-01-26 15:03:31.68	18.07	24.28	-38.2	-39.0	24.2	0.00e+00	0	27	0	401604608	50	5732
2026-01-26 15:03:32.69	18.04	24.44	-38.3	-39.1	24.1	0.00e+00	7	27	0	403701760	50	5803
2026-01-26 15:03:33.70	18.01	24.59	-38.3	-39.2	23.8	0.00e+00	92	27	0	404750336	50	5863
2026-01-26 15:03:34.70	17.98	24.75	-38.6	-39.5	23.8	0.00e+00	73	27	0	406847488	50	6080
2026-01-26 15:03:35.71	17.94	24.91	-38.8	-39.7	23.6	0.00e+00	92	27	0	408944640	50	6194
2026-01-26 15:03:36.72	17.91	25.06	-38.7	-39.6	23.8	0.00e+00	10	27	0	411041792	50	6121
2026-01-26 15:03:37.73	17.88	25.22	-38.8	-39.7	23.7	0.00e+00	74	27	0	413138944	50	6174
2026-01-26 15:03:38.74	17.84	25.38	-38.7	-39.6	23.7	0.00e+00	81	27	0	415236096	50	6141
2026-01-26 15:03:39.75	17.81	25.55	-38.5	-39.4	23.9	0.00e+00	79	27	0	416284672	50	5973
2026-01-26 15:03:40.76	17.77	25.71	-38.6	-39.5	23.8	0.00e+00	92	27	0	418381824	50	6082
2026-01-26 15:03:41.77	17.74	25.87	-38.6	-39.5	23.7	0.00e+00	77	27	0	420478976	50	6055
2026-01-26 15:03:42.78	17.70	26.04	-38.7	-39.6	23.7	0.00e+00	90	28	0	422576128	50	6150
2026-01-26 15:03:43.79	17.67	26.20	-38.9	-39.8	23.4	0.00e+00	73	27	0	424673280	50	6274
2026-01-26 15:03:44.80	17.63	26.37	-39.0	-39.9	23.4	0.00e+00	72	28	0	425721856	50	6367
2026-01-26 15:03:45.80	17.60	26.54	-38.8	-39.7	23.6	0.00e+00	0	27	0	427819008	50	6224
2026-01-26 15:03:46.81	17.56	26.70	-38.8	-39.7	23.6	0.00e+00	0	28	0	429916160	50	6215
2026-01-26 15:03:47.82	17.52	26.87	-38.9	-39.8	23.4	0.00e+00	92	27	0	432013312	50	6317
2026-01-26 15:03:48.83	17.48	27.05	-39.0	-39.9	23.4	0.00e+00	0	28	0	434110464	50	6382
2026-01-26 15:03:49.84	17.44	27.22	-39.1	-40.0	23.2	0.00e+00	92	27	0	435159040	50	6441
2026-01-26 15:03:50.85	17.41	27.39	-39.1	-40.0	23.3	0.00e+00	0	28	0	437256192	50	6464
2026-01-26 15:03:51.86	17.37	27.56	-39.3	-40.2	23.1	0.00e+00	8	27	0	439353344	50	6599
2026-01-26 15:03:52.87	17.33	27.74	-39.5	-40.5	22.9	0.00e+00	0	28	0	441450496	50	6774
2026-01-26 15:03:53.88	17.29	27.92	-39.5	-40.5	22.9	0.00e+00	9	28	0	443547648	50	6805
2026-01-26 15:03:54.88	17.25	28.09	-39.8	-40.8	22.6	0.00e+00	2	27	0	444596224	50	7029
2026-01-26 15:03:55.89	17.20	28.27	-40.0	-41.0	22.4	0.00e+00	0	27	0	446693376	52	6423
2026-01-26 15:03:56.90	17.16	28.45	-40.3	-41.3	22.2	0.00e+00	90	27	0	448790528	52	6687
2026-01-26 15:03:57.91	17.12	28.63	-40.5	-41.5	21.9	0.00e+00	5	27	0	450887680	52	6828
2026-01-26 15:03:58.92	17.08	28.81	-40.5	-41.5	22.0	0.00e+00	92	27	0	452984832	52	6821
2026-01-26 15:03:59.93	17.03	29.00	-40.5	-41.6	21.9	0.00e+00	10	27	0	454033408	52	6858
2026-01-26 15:04:00.93	16.99	29.18	-40.7	-41.8	21.8	0.00e+00	73	27	0	456130560	54	6288
2026-01-26 15:04:01.94	16.95	29.36	-40.7	-41.9	21.7	0.00e+00	80	27	0	458227712	54	6323
2026-01-26 15:04:02.95	16.90	29.55	-40.7	-41.8	21.7	0.00e+00	0	27	0	460324864	54	6291
2026-01-26 15:04:03.96	16.86	29.74	-40.7	-41.8	21.7	0.00e+00	92	27	0	462422016	54	6264
2026-01-26 15:04:04.97	16.81	29.93	-40.8	-42.0	21.6	0.00e+00	77	28	0	463470592	54	6395
2026-01-26 15:04:05.98	16.76	30.12	-41.0	-42.2	21.3	0.00e+00	92	27	0	465567744	54	6564
2026-01-26 15:04:06.99	16.72	30.31	-40.9	-42.1	21.5	0.00e+00	74	27	0	467664896	54	6481
2026-01-26 15:04:08.00	16.67	30.50	-41.2	-42.3	21.3	0.00e+00	0	27	0	469762048	54	6674
2026-01-26 15:04:09.01	16.62	30.70	-41.1	-42.3	21.4	0.00e+00	0	27	0	471859200	54	6656
2026-01-26 15:04:10.02	16.57	30.89	-41.3	-42.5	21.1	0.00e+00	0	27	0	472907776	54	6788
2026-01-26 15:04:11.03	16.52	31.09	-41.2	-42.3	21.3	0.00e+00	90	27	0	475004928	54	6687
2026-01-26 15:04:12.03	16.47	31.28	-41.3	-42.4	21.1	0.00e+00	2	27	0	477102080	54	6763
2026-01-26 15:04:13.05	16.42	31.49	-41.3	-42.6	21.0	0.00e+00	92	27	0	479199232	54	6850
2026-01-26 15:04:14.05	16.37	31.68	-41.4	-42.6	21.0	0.00e+00	0	27	0	481296384	54	6925
2026-01-26 15:04:15.06	16.31	31.89	-41.6	-42.8	20.8	0.00e+00	9	27	0	483393536	54	7051
2026-01-26 15:04:16.07	16.26	32.09	-41.7	-42.9	20.7	0.00e+00	0	28	0	484442112	54	7168
2026-01-26 15:04:17.08	16.21	32.30	-41.7	-42.9	20.7	0.00e+00	0	27	0	486539264	54	7153
2026-01-26 15:04:18.09	16.15	32.50	-41.8	-43.1	20.6	0.00e+00	2	28	0	488636416	56	6486
2026-01-26 15:04:19.10	16.10	32.71	-41.6	-42.9	20.7	0.00e+00	0	27	0	490733568	56	6323
2026-01-26 15:04:20.11	16.04	32.92	-41.6	-42.9	20.9	0.00e+00	90	28	0	492830720	56	6321
2026-01-26 15:04:21.12	15.98	33.13	-41.5	-42.6	21.1	0.00e+00	76	27	0	493879296	56	6173
2026-01-26 15:04:22.13	15.93	33.34	-41.4	-42.5	21.2	0.00e+00	92	27	0	495976448	56	6097
2026-01-26 15:04:23.14	15.87	33.55	-41.4	-42.6	21.2	0.00e+00	70	27	0	498073600	56	6105
2026-01-26 15:04:24.15	15.81	33.77	-41.2	-42.4	21.3	0.00e+00	70	28	0	500170752	56	5981
2026-01-26 15:04:25.16	15.75	33.98	-41.0	-42.1	21.5	0.00e+00	0	27	0	502267904	56	5828
2026-01-26 15:04:26.16	15.69	34.20	-40.9	-42.0	21.7	0.00e+00	0	27	0	503316480	56	5760
2026-01-26 15:04:27.17	15.62	34.42	-40.8	-41.9	21.7	0.00e+00	92	27	0	505413632	56	5681
2026-01-26 15:04:28.18	15.56	34.64	-40.4	-41.5	22.1	0.00e+00	0	27	0	507510784	54	6067
2026-01-26 15:04:29.19	15.50	34.86	-40.5	-41.6	21.9	0.00e+00	92	27	0	509607936	54	6148
2026-01-26 15:04:30.20	15.43	35.09	-40.2	-41.3	22.4	0.00e+00	0	27	0	511705088	54	5923
2026-01-26 15:04:31.21	15.37	35.31	-39.7	-40.7	22.9	0.00e+00	1	27	0	512753664	52	6179
2026-01-26 15:04:32.21	15.30	35.54	-39.7	-40.7	22.9	0.00e+00	0	27	0	514850816	52	6185
2026-01-26 15:04:33.22	15.23	35.77	-39.4	-40.3	23.2	0.00e+00	0	27	0	516947968	52	5950
2026-01-26 15:04:34.23	15.16	36.00	-39.4	-40.3	23.1	0.00e+00	11	27	0	519045120	52	5933
2026-01-26 15:04:35.24	15.09	36.23	-39.0	-39.9	23.5	0.00e+00	0	27	0	521142272	52	5681
2026-01-26 15:04:36.25	15.02	36.46	-38.7	-39.6	23.8	0.00e+00	92	27	0	522190848	50	6114
2026-01-26 15:04:37.26	14.95	36.70	-38.4	-39.2	24.0	0.00e+00	0	28	0	524288000	50	5875
2026-01-26 15:04:38.27	14.88	36.93	-38.7	-39.5	23.9	0.00e+00	8	27	0	526385152	50	6094
2026-01-26 15:04:39.28	14.80	37.17	-38.9	-39.8	23.6	0.00e+00	10	27	0	528482304	50	6254
2026-01-26 15:04:40.29	14.73	37.41	-38.9	-39.7	23.6	0.00e+00	10	27	0	530579456	50	6239
2026-01-26 15:04:41.29	14.65	37.65	-39.0	-39.9	23.6	0.00e+00	0	27	0	531628032	50	6385
2026-01-26 15:04:42.30	14.58	37.89	-39.1	-40.0	23.5	0.00e+00	0	27	0	533725184	50	6423
2026-01-26 15:04:43.31	14.50	38.14	-38.5	-39.3	24.2	0.00e+00	92	27	0	535822336	50	5920
2026-01-26 15:04:44.32	14.42	38.38	-38.9	-39.8	23.4	0.00e+00	72	27	0	537919488	50	6266
2026-01-26 15:04:45.33	14.33	38.63	-39.3	-40.2	23.4	0.00e+00	90	27	0	540016640	50	6560
2026-01-26 15:04:46.34	14.25	38.88	-38.7	-39.6	23.6	0.00e+00	8	27	0	541065216	50	6138
2026-01-26 15:04:47.35	14.17	39.14	-39.2	-40.1	23.4	0.00e+00	10	27	0	543162368	50	6484
2026-01-26 15:04:48.35	14.08	39.39	-39.1	-40.0	23.5	0.00e+00	72	27	0	545259520	50	6462
2026-01-26 15:04:49.36	14.00	39.64	-39.2	-40.1	23.4	0.00e+00	74	27	0	547356672	50	6537
2026-01-26 15:04:50.37	13.91	39.90	-39.2	-40.1	23.4	0.00e+00	92	27	0	549453824	50	6471
2026-01-26 15:04:51.38	13.82	40.16	-38.9	-39.8	23.7	0.00e+00	0	28	0	550502400	50	6255
2026-01-26 15:04:52.39	13.73	40.42	-39.2	-40.1	23.3	0.00e+00	93	27	0	552599552	50	6516
2026-01-26 15:04:53.40	13.63	40.68	-39.5	-40.4	23.0	0.00e+00	0	27	0	554696704	50	6734
2026-01-26 15:04:54.40	13.54	40.95	-39.9	-40.8	22.7	0.00e+00	53	27	0	556793856	52	6316
2026-01-26 15:04:55.42	13.44	41.21	-39.8	-40.7	22.8	0.00e+00	0	27	0	558891008	52	6233
2026-01-26 15:04:56.42	13.35	41.48	-40.1	-41.1	22.5	0.00e+00	0	27	0	559939584	52	6501
2026-01-26 15:04:57.43	13.25	41.75	-39.8	-40.8	22.8	0.00e+00	3	28	0	562036736	52	6280
2026-01-26 15:04:58.44	13.15	42.02	-39.9	-40.9	22.6	0.00e+00	0	27	0	564133888	52	6384
2026-01-26 15:04:59.45	13.04	42.30	-40.2	-41.2	22.4	0.00e+00	92	28	0	566231040	52	6595
2026-01-26 15:05:00.46	12.94	42.57	-40.6	-41.7	22.0	0.00e+00	9	27	0	568328192	52	6935
2026-01-26 15:05:01.47	12.83	42.85	-40.6	-41.7	22.0	0.00e+00	92	27	0	570425344	52	6964
2026-01-26 15:05:02.48	12.72	43.13	-40.5	-41.5	22.1	0.00e+00	10	27	0	571473920	54	6076
2026-01-26 15:05:03.49	12.61	43.41	-40.7	-41.8	21.9	0.00e+00	8	27	0	573571072	54	6300
2026-01-26 15:05:04.50	12.50	43.70	-40.9	-42.0	21.4	0.00e+00	6	28	0	575668224	54	6400
2026-01-26 15:05:05.51	12.38	43.98	-40.9	-42.0	21.2	0.00e+00	0	27	0	577765376	54	6409
2026-01-26 15:05:06.52	12.27	44.27	-41.0	-42.1	21.6	0.00e+00	90	27	0	579862528	54	6531
2026-01-26 15:05:07.53	12.15	44.56	-41.1	-42.2	21.5	0.00e+00	8	27	0	580911104	54	6578
2026-01-26 15:05:08.54	12.03	44.85	-40.4	-41.4	22.1	0.00e+00	91	27	0	583008256	54	6018
2026-01-26 15:05:09.54	11.90	45.15	-40.4	-41.5	22.1	0.00e+00	11	27	0	585105408	54	6039
2026-01-26 15:05:10.56	11.78	45.45	-40.6	-41.7	22.0	0.00e+00	76	27	0	587202560	54	6194
2026-01-26 15:05:11.56	11.65	45.74	-40.7	-41.8	21.8	0.00e+00	76	27	0	589299712	54	6285
2026-01-26 15:05:12.57	11.52	46.04	-40.9	-42.0	21.8	0.00e+00	0	27	0	590348288	54	6417
2026-01-26 15:05:13.58	11.38	46.34	-40.9	-42.0	21.6	0.00e+00	90	27	0	592445440	54	6449
2026-01-26 15:05:14.59	11.25	46.65	-40.9	-42.1	21.6	0.00e+00	76	27	0	594542592	54	6466
2026-01-26 15:05:15.60	11.11	46.95	-41.1	-42.2	21.3	0.00e+00	92	27	0	596639744	54	6595
2026-01-26 15:05:16.61	10.97	47.26	-41.8	-43.0	20.7	0.00e+00	0	27	0	598736896	54	7247
2026-01-26 15:05:17.62	10.82	47.57	-42.1	-43.4	20.4	0.00e+00	86	27	0	599785472	56	6738
2026-01-26 15:05:18.63	10.67	47.88	-42.5	-43.9	19.9	0.00e+00	6	27	0	601882624	56	7148
2026-01-26 15:05:19.64	10.52	48.20	-42.6	-44.1	19.6	0.00e+00	6	28	0	603979776	58	6498
2026-01-26 15:05:20.64	10.37	48.51	-42.4	-43.8	20.0	0.00e+00	0	27	0	606076928	58	6272
2026-01-26 15:05:21.65	10.21	48.83	-42.0	-43.3	20.5	0.00e+00	11	27	0	608174080	58	5955
2026-01-26 15:05:22.66	10.05	49.15	-41.4	-42.6	21.2	0.00e+00	92	27	0	609222656	56	6138
2026-01-26 15:05:23.67	9.89	49.48	-41.0	-42.1	21.7	0.00e+00	11	27	0	611319808	56	5792
2026-01-26 15:05:24.68	9.72	49.80	-40.8	-41.9	21.7	0.00e+00	90	27	0	613416960	54	6324
2026-01-26 15:05:25.69	9.55	50.13	-40.6	-41.6	21.9	0.00e+00	5	27	0	615514112	54	6171
2026-01-26 15:05:26.70	9.37	50.46	-39.4	-40.4	23.2	0.00e+00	5	27	0	617611264	52	5996
2026-01-26 15:05:27.71	9.19	50.79	-39.0	-39.9	23.5	0.00e+00	0	27	0	618659840	52	5695
2026-01-26 15:05:28.72	9.01	51.12	-38.7	-39.6	23.8	0.00e+00	75	28	0	620756992	52	5487
2026-01-26 15:05:29.73	8.82	51.46	-38.3	-39.2	24.1	0.00e+00	91	27	0	622854144	50	5861
2026-01-26 15:05:30.74	8.63	51.79	-37.8	-38.6	23.8	0.00e+00	7	27	0	624951296	50	5463
2026-01-26 15:05:31.75	8.43	52.13	-37.6	-38.4	24.8	0.00e+00	92	27	0	627048448	48	6006
2026-01-26 15:05:32.76	8.23	52.47	-37.5	-38.3	24.9	0.00e+00	0	27	0	628097024	48	5927
2026-01-26 15:05:33.77	8.03	52.82	-37.5	-38.3	24.5	0.00e+00	0	27	0	630194176	48	5956
2026-01-26 15:05:34.77	7.82	53.16	-37.6	-38.4	24.8	0.00e+00	69	27	0	632291328	48	6017
2026-01-26 15:05:35.78	7.60	53.51	-37.6	-38.4	24.8	0.00e+00	0	27	0	634388480	48	5998
2026-01-26 15:05:36.79	7.38	53.86	-37.4	-38.3	24.7	0.00e+00	4	28	0	636485632	48	5898
2026-01-26 15:05:37.80	7.15	54.21	-37.4	-38.2	24.9	0.00e+00	0	27	0	638582784	48	5832
2026-01-26 15:05:38.81	6.92	54.56	-37.4	-38.2	25.0	0.00e+00	92	27	0	639631360	48	5829
2026-01-26 15:05:39.82	6.68	54.92	-37.3	-38.1	24.9	0.00e+00	0	28	0	641728512	48	5797
2026-01-26 15:05:40.83	6.43	55.27	-37.7	-38.5	24.6	0.00e+00	92	28	0	643825664	48	6089
2026-01-26 15:05:41.84	6.18	55.63	-38.1	-38.9	24.1	0.00e+00	0	27	0	645922816	48	6367
2026-01-26 15:05:42.85	5.93	55.99	-38.3	-39.2	24.1	0.00e+00	0	27	0	646971392	48	6553
2026-01-26 15:05:43.86	5.66	56.36	-38.8	-39.7	23.6	0.00e+00	0	27	0	649068544	48	6988
2026-01-26 15:05:44.87	5.39	56.72	-39.6	-40.6	22.9	0.00e+00	0	27	0	651165696	50	6893
2026-01-26 15:05:45.88	5.11	57.09	-40.5	-41.5	21.9	0.00e+00	92	27	0	653262848	52	6844
2026-01-26 15:05:46.88	4.82	57.45	-40.5	-41.6	22.1	0.00e+00	0	27	0	655360000	52	6850
2026-01-26 15:05:47.89	4.53	57.82	-40.7	-41.8	21.8	0.00e+00	92	27	0	656408576	54	6277
2026-01-26 15:05:48.90	4.23	58.19	-41.5	-42.7	20.9	0.00e+00	70	27	0	658505728	54	6977
2026-01-26 15:05:49.91	3.91	58.56	-41.7	-43.0	20.8	0.00e+00	70	27	0	660602880	56	6441
2026-01-26 15:05:50.92	3.59	58.94	-41.6	-42.8	21.0	0.00e+00	0	27	0	662700032	56	6267
2026-01-26 15:05:51.93	3.26	59.31	-41.4	-42.6	21.1	0.00e+00	10	28	0	664797184	56	6144
2026-01-26 15:05:52.94	2.92	59.69	-40.8	-41.9	21.9	0.00e+00	78	27	0	666894336	56	5665
2026-01-26 15:05:53.95	2.57	60.07	-39.3	-40.3	23.2	0.00e+00	71	28	0	667942912	52	5907
2026-01-26 15:05:54.96	2.21	60.45	-38.6	-39.5	23.7	0.00e+00	90	28	0	670040064	50	6058
2026-01-26 15:05:55.97	1.84	60.83	-38.5	-39.4	24.0	0.00e+00	77	27	0	672137216	50	5968
2026-01-26 15:05:56.98	1.46	61.21	-38.2	-39.0	24.3	0.00e+00	0	28	0	674234368	50	5748
2026-01-26 15:05:57.99	1.06	61.59	-37.6	-38.4	24.9	0.00e+00	0	28	0	676331520	48	6024
2026-01-26 15:05:59.00	0.65	61.98	-37.3	-38.0	25.1	0.00e+00	76	27	0	677380096	48	5754
2026-01-26 15:06:00.00	0.24	62.36	-37.2	-38.0	25.0	0.00e+00	88	27	0	679477248	48	5733
2026-01-26 15:06:01.02	359.80	62.75	-37.8	-38.6	24.6	0.00e+00	0	27	0	681574400	48	6138
2026-01-26 15:06:02.03	359.35	63.13	-38.2	-39.0	24.3	0.00e+00	92	27	0	683671552	48	6430
2026-01-26 15:06:03.04	358.88	63.52	-37.8	-38.7	24.5	0.00e+00	0	27	0	685768704	48	6177
2026-01-26 15:06:04.05	358.40	63.91	-37.7	-38.5	24.6	0.00e+00	92	27	0	686817280	48	6087
2026-01-26 15:06:05.06	357.91	64.30	-37.8	-38.7	24.4	0.00e+00	0	27	0	688914432	48	6180
2026-01-26 15:06:06.06	357.40	64.68	-37.9	-38.7	24.4	0.00e+00	11	27	0	691011584	48	6242
2026-01-26 15:06:07.07	356.87	65.07	-38.0	-38.8	24.4	0.00e+00	12	27	0	693108736	48	6277
2026-01-26 15:06:08.08	356.32	65.46	-37.9	-38.7	24.5	0.00e+00	2	27	0	695205888	48	6209
2026-01-26 15:06:09.09	355.75	65.85	-38.4	-39.2	24.0	0.00e+00	92	27	0	696254464	48	6578
2026-01-26 15:06:10.10	355.15	66.23	-38.9	-39.8	23.5	0.00e+00	0	27	0	698351616	50	6265
2026-01-26 15:06:11.11	354.54	66.62	-39.6	-40.6	22.9	0.00e+00	90	28	0	700448768	50	6876
2026-01-26 15:06:12.12	353.91	67.01	-39.8	-40.8	22.6	0.00e+00	70	28	0	702545920	52	6294
2026-01-26 15:06:13.13	353.25	67.39	-40.2	-41.2	22.1	0.00e+00	13	27	0	704643072	52	6598
2026-01-26 15:06:14.14	352.56	67.78	-40.1	-41.1	22.4	0.00e+00	75	27	0	705691648	52	6526
2026-01-26 15:06:15.15	351.85	68.16	-39.8	-40.8	22.8	0.00e+00	69	27	0	707788800	52	6298
2026-01-26 15:06:16.16	351.11	68.54	-39.8	-40.8	22.9	0.00e+00	92	28	0	709885952	52	6312
2026-01-26 15:06:17.17	350.35	68.92	-40.3	-41.3	22.4	0.00e+00	0	28	0	711983104	52	6648
2026-01-26 15:06:18.18	349.55	69.30	-39.4	-40.4	23.2	0.00e+00	92	27	0	714080256	52	5996
2026-01-26 15:06:19.19	348.72	69.67	-38.9	-39.8	23.7	0.00e+00	0	27	0	715128832	52	5611
2026-01-26 15:06:20.20	347.86	70.04	-38.9	-39.8	23.7	0.00e+00	11	28	0	717225984	50	6246
2026-01-26 15:06:21.21	346.96	70.41	-38.5	-39.3	24.0	0.00e+00	0	28	0	719323136	50	5945
2026-01-26 15:06:22.22	346.02	70.78	-38.3	-39.2	24.2	0.00e+00	0	27	0	721420288	50	5846
2026-01-26 15:06:23.23	345.05	71.14	-37.7	-38.4	24.8	0.00e+00	80	27	0	723517440	50	5369
2026-01-26 15:06:24.23	344.04	71.50	-37.7	-38.5	24.1	0.00e+00	0	27	0	724566016	48	6040
2026-01-26 15:06:25.24	342.99	71.85	-38.2	-39.1	24.3	0.00e+00	92	27	0	726663168	48	6473
2026-01-26 15:06:26.25	341.89	72.20	-38.3	-39.1	24.3	0.00e+00	0	28	0	728760320	48	6535
2026-01-26 15:06:27.26	340.74	72.54	-38.7	-39.6	23.8	0.00e+00	0	28	0	730857472	48	6855
2026-01-26 15:06:28.27	339.54	72.88	-39.9	-40.9	22.8	0.00e+00	6	27	0	732954624	52	6367
2026-01-26 15:06:29.28	338.30	73.21	-40.4	-41.4	22.4	0.00e+00	0	28	0	735051776	52	6735
2026-01-26 15:06:30.29	337.00	73.53	-39.7	-40.7	23.2	0.00e+00	0	27	0	736100352	52	6176
2026-01-26 15:06:31.30	335.65	73.85	-39.8	-40.7	23.0	0.00e+00	5	27	0	738197504	52	6236
2026-01-26 15:06:32.31	334.24	74.16	-39.9	-40.8	22.8	0.00e+00	90	27	0	740294656	52	6291
2026-01-26 15:06:33.32	332.78	74.46	-40.0	-41.0	22.7	0.00e+00	5	27	0	742391808	52	6419
2026-01-26 15:06:34.33	331.25	74.75	-40.8	-41.8	21.7	0.00e+00	92	27	0	744488960	54	6304
2026-01-26 15:06:35.34	329.67	75.03	-40.5	-41.5	22.1	0.00e+00	0	27	0	745537536	54	6065
2026-01-26 15:06:36.34	328.04	75.29	-40.4	-41.4	22.1	0.00e+00	71	28	0	747634688	54	6003
2026-01-26 15:06:37.35	326.33	75.55	-40.6	-41.6	22.0	0.00e+00	0	28	0	749731840	54	6162
2026-01-26 15:06:38.36	324.56	75.80	-41.3	-42.5	21.3	0.00e+00	72	27	0	751828992	54	6775
2026-01-26 15:06:39.37	322.72	76.03	-41.1	-42.2	21.7	0.00e+00	92	28	0	753926144	54	6565
2026-01-26 15:06:40.38	320.83	76.24	-41.0	-42.2	21.6	0.00e+00	0	27	0	754974720	54	6556
2026-01-26 15:06:41.39	318.87	76.45	-41.7	-42.9	20.8	0.00e+00	92	27	0	757071872	54	7168
2026-01-26 15:06:42.40	316.85	76.63	-41.9	-43.1	20.8	0.00e+00	5	27	0	759169024	56	6505
2026-01-26 15:06:43.41	314.78	76.80	-42.2	-43.5	20.5	0.00e+00	5	27	0	761266176	56	6823
2026-01-26 15:06:44.42	312.66	76.96	-41.5	-42.7	21.1	0.00e+00	0	27	0	763363328	56	6223
2026-01-26 15:06:45.43	310.48	77.09	-41.2	-42.3	21.6	0.00e+00	5	27	0	764411904	56	5917
2026-01-26 15:06:46.44	308.26	77.21	-41.9	-43.2	20.8	0.00e+00	14	27	0	766509056	56	6572
2026-01-26 15:06:47.45	306.00	77.31	-43.2	-44.6	19.7	0.00e+00	0	27	0	768606208	58	6915
2026-01-26 15:06:48.46	303.71	77.39	-42.7	-44.0	20.2	0.00e+00	92	27	0	770703360	58	6459
2026-01-26 15:06:49.47	301.39	77.45	-41.9	-43.1	20.9	0.00e+00	0	27	0	772800512	58	5780
2026-01-26 15:06:50.48	299.06	77.49	-41.6	-42.8	21.1	0.00e+00	11	27	0	773849088	56	6312
2026-01-26 15:06:51.49	296.71	77.51	-41.6	-42.8	21.0	0.00e+00	10	27	0	775946240	56	6285
2026-01-26 15:06:52.49	294.38	77.50	-41.6	-42.8	21.0	0.00e+00	10	27	0	778043392	56	6313
2026-01-26 15:06:53.50	292.04	77.48	-41.4	-42.6	21.0	0.00e+00	0	27	0	780140544	56	6134
2026-01-26 15:06:54.51	289.70	77.44	-41.0	-42.1	21.4	0.00e+00	10	28	0	782237696	56	5804
2026-01-26 15:06:55.52	287.39	77.38	-41.4	-42.6	21.2	0.00e+00	92	27	0	783286272	56	6105
2026-01-26 15:06:56.53	285.11	77.29	-41.4	-42.6	21.3	0.00e+00	80	27	0	785383424	56	6120
2026-01-26 15:06:57.54	282.85	77.19	-41.0	-42.0	22.0	0.00e+00	92	27	0	787480576	56	5752
2026-01-26 15:06:58.55	280.64	77.07	-40.6	-41.7	22.1	0.00e+00	80	27	0	789577728	54	6190
2026-01-26 15:06:59.56	278.47	76.93	-40.9	-42.0	21.6	0.00e+00	81	27	0	791674880	54	6406
2026-01-26 15:07:00.57	276.36	76.77	-41.5	-42.7	21.1	0.00e+00	0	27	0	792723456	54	6968
2026-01-26 15:07:01.57	274.31	76.60	-42.3	-43.6	20.5	0.00e+00	79	28	0	794820608	56	6902
2026-01-26 15:07:02.58	272.31	76.41	-42.6	-44.0	19.9	0.00e+00	92	28	0	796917760	56	7216
2026-01-26 15:07:03.59	270.36	76.21	-42.8	-44.2	19.7	0.00e+00	0	27	0	799014912	58	6609
2026-01-26 15:07:04.60	268.47	75.99	-42.8	-44.2	20.0	0.00e+00	90	27	0	801112064	58	6574
2026-01-26 15:07:05.61	266.65	75.75	-42.2	-43.5	20.4	0.00e+00	0	27	0	803209216	58	6075
2026-01-26 15:07:06.62	264.89	75.50	-41.9	-43.2	20.9	0.00e+00	0	27	0	804257792	58	5847
2026-01-26 15:07:07.63	263.19	75.25	-41.9	-43.1	20.7	0.00e+00	0	27	0	806354944	58	5806
2026-01-26 15:07:08.64	261.55	74.97	-42.6	-43.9	20.2	0.00e+00	8	27	0	808452096	58	6381
2026-01-26 15:07:09.65	259.98	74.69	-42.6	-44.0	19.9	0.00e+00	0	28	0	810549248	58	6415
2026-01-26 15:07:10.66	258.47	74.40	-41.7	-42.9	21.2	0.00e+00	11	28	0	812646400	58	5686
2026-01-26 15:07:11.67	257.01	74.10	-41.7	-42.9	21.1	0.00e+00	92	28	0	813694976	56	6345
2026-01-26 15:07:12.68	255.61	73.79	-41.8	-42.9	21.1	0.00e+00	10	28	0	815792128	56	6373
2026-01-26 15:07:13.68	254.28	73.47	-41.8	-42.9	21.3	0.00e+00	27	27	0	817889280	56	6378
2026-01-26 15:07:14.69	252.99	73.15	-41.9	-43.1	21.0	0.00e+00	12	27	0	819986432	56	6492
2026-01-26 15:07:15.70	251.76	72.82	-41.0	-42.0	22.2	0.00e+00	10	28	0	822083584	56	5747
2026-01-26 15:07:16.71	250.57	72.48	-40.2	-41.1	22.9	0.00e+00	3	27	0	823132160	54	5827
2026-01-26 15:07:17.73	249.42	72.13	-40.3	-41.3	23.0	0.00e+00	70	27	0	825229312	54	5923
2026-01-26 15:07:18.73	248.34	71.78	-40.2	-41.1	23.2	0.00e+00	90	27	0	827326464	54	5808
2026-01-26 15:07:19.74	247.29	71.43	-40.9	-41.9	22.9	0.00e+00	71	27	0	829423616	54	6356
2026-01-26 15:07:20.75	246.28	71.07	-40.7	-41.7	22.7	0.00e+00	91	27	0	831520768	54	6196
2026-01-26 15:07:21.76	245.31	70.70	-41.2	-42.3	22.2	0.00e+00	0	27	0	832569344	54	6616
2026-01-26 15:07:22.77	244.38	70.34	-41.7	-42.8	21.8	0.00e+00	2	27	0	834666496	54	7024
2026-01-26 15:07:23.78	243.49	69.97	-41.6	-42.7	21.5	0.00e+00	73	27	0	836763648	56	6210
2026-01-26 15:07:24.79	242.63	69.59	-42.0	-43.1	21.3	0.00e+00	0	27	0	838860800	56	6536
2026-01-26 15:07:25.80	241.81	69.22	-41.9	-43.1	21.5	0.00e+00	5	28	0	840957952	56	6491
2026-01-26 15:07:26.81	241.02	68.84	-41.9	-43.1	21.4	0.00e+00	2	27	0	842006528	56	6477
2026-01-26 15:07:27.82	240.25	68.46	-41.7	-42.9	21.5	0.00e+00	92	28	0	844103680	56	6332
2026-01-26 15:07:28.83	239.52	68.08	-41.1	-42.2	21.5	0.00e+00	2	27	0	846200832	56	5880
2026-01-26 15:07:29.84	238.81	67.69	-41.0	-42.0	22.1	0.00e+00	2	28	0	848297984	56	5740
2026-01-26 15:07:30.84	238.14	67.31	-41.1	-42.1	22.0	0.00e+00	0	27	0	850395136	56	5818
2026-01-26 15:07:31.85	237.49	66.92	-41.0	-42.0	22.1	0.00e+00	4	27	0	851443712	54	6461
2026-01-26 15:07:32.86	236.85	66.54	-41.1	-42.1	22.3	0.00e+00	19	28	0	853540864	54	6496
2026-01-26 15:07:33.87	236.24	66.15	-40.4	-41.4	22.7	0.00e+00	2	27	0	855638016	54	6021
2026-01-26 15:07:34.88	235.66	65.76	-40.0	-40.9	23.3	0.00e+00	92	28	0	857735168	54	5649
2026-01-26 15:07:35.89	235.09	65.37	-39.8	-40.7	23.8	0.00e+00	0	27	0	859832320	52	6242
2026-01-26 15:07:36.90	234.54	64.98	-39.8	-40.7	23.9	0.00e+00	91	28	0	860880896	52	6188
2026-01-26 15:07:37.91	234.01	64.59	-38.1	-38.9	24.8	0.00e+00	72	27	0	862978048	50	5662
2026-01-26 15:07:38.92	233.50	64.21	-36.9	-37.7	25.7	0.00e+00	5	28	0	865075200	48	5509
2026-01-26 15:07:39.93	233.01	63.82	-36.8	-37.5	25.5	0.00e+00	0	27	0	867172352	48	5416
2026-01-26 15:07:40.94	232.53	63.43	-36.6	-37.4	25.7	0.00e+00	9	27	0	869269504	46	5984
2026-01-26 15:07:41.95	232.07	63.04	-36.9	-37.6	25.5	0.00e+00	92	27	0	870318080	46	6145
2026-01-26 15:07:42.96	231.62	62.65	-37.1	-37.9	25.2	0.00e+00	0	27	0	872415232	46	6320
2026-01-26 15:07:43.97	231.19	62.27	-37.7	-38.5	24.9	0.00e+00	90	27	0	874512384	46	6833
2026-01-26 15:07:44.98	230.77	61.88	-37.8	-38.6	24.7	0.00e+00	0	27	0	876609536	48	6117
2026-01-26 15:07:45.98	230.37	61.50	-38.1	-38.9	24.4	0.00e+00	71	27	0	878706688	48	6377
2026-01-26 15:07:46.99	229.98	61.12	-38.7	-39.6	23.7	0.00e+00	0	27	0	879755264	48	6895
2026-01-26 15:07:48.00	229.59	60.74	-39.1	-40.1	23.2	0.00e+00	0	28	0	881852416	50	6473
2026-01-26 15:07:49.01	229.22	60.35	-40.2	-41.2	22.3	0.00e+00	66	28	0	883949568	52	6615
2026-01-26 15:07:50.02	228.86	59.97	-41.2	-42.4	21.0	0.00e+00	0	27	0	886046720	54	6756
2026-01-26 15:07:51.03	228.52	59.59	-42.5	-43.8	20.0	0.00e+00	92	27	0	888143872	56	7087
2026-01-26 15:07:52.04	228.18	59.22	-42.9	-44.5	19.3	0.00e+00	0	27	0	889192448	58	6792
2026-01-26 15:07:53.05	227.85	58.84	-43.2	-44.9	18.9	0.00e+00	92	27	0	891289600	58	7132
2026-01-26 15:07:54.06	227.53	58.47	-42.7	-44.3	19.5	0.00e+00	2	27	0	893386752	58	6616
2026-01-26 15:07:55.07	227.22	58.09	-43.0	-44.5	19.3	0.00e+00	0	27	0	895483904	58	6803
2026-01-26 15:07:56.08	226.92	57.72	-42.9	-44.4	19.2	0.00e+00	9	28	0	897581056	58	6759
2026-01-26 15:07:57.09	226.62	57.35	-43.0	-44.5	19.4	0.00e+00	5	27	0	898629632	58	6780
2026-01-26 15:07:58.09	226.34	56.99	-41.9	-43.2	20.6	0.00e+00	92	27	0	900726784	58	5831
2026-01-26 15:07:59.10	226.06	56.62	-41.3	-42.5	21.3	0.00e+00	2	27	0	902823936	56	6064
2026-01-26 15:08:00.11	225.79	56.25	-41.0	-42.2	21.5	0.00e+00	92	27	0	904921088	56	5831
2026-01-26 15:08:01.12	225.52	55.89	-40.3	-41.4	22.1	0.00e+00	4	27	0	907018240	54	6014
2026-01-26 15:08:02.13	225.27	55.53	-39.9	-40.9	22.6	0.00e+00	2	27	0	909115392	54	5675
2026-01-26 15:08:03.13	225.02	55.17	-39.9	-40.9	22.7	0.00e+00	0	27	0	910163968	52	6356
2026-01-26 15:08:04.14	224.78	54.82	-39.6	-40.6	22.8	0.00e+00	11	27	0	912261120	52	6123
2026-01-26 15:08:05.15	224.54	54.46	-39.4	-40.4	23.0	0.00e+00	92	27	0	914358272	52	5995
2026-01-26 15:08:06.16	224.31	54.11	-39.5	-40.5	22.7	0.00e+00	70	27	0	916455424	52	6038
2026-01-26 15:08:07.18	224.08	53.75	-39.2	-40.2	23.3	0.00e+00	92	27	0	918552576	52	5865
2026-01-26 15:08:08.18	223.86	53.40	-38.8	-39.7	23.9	0.00e+00	70	27	0	919601152	50	6238
2026-01-26 15:08:09.19	223.64	53.06	-38.5	-39.4	23.8	0.00e+00	0	27	0	921698304	50	6026
2026-01-26 15:08:10.20	223.43	52.71	-39.2	-40.1	23.3	0.00e+00	0	27	0	923795456	50	6507
2026-01-26 15:08:11.21	223.23	52.37	-39.2	-40.1	23.4	0.00e+00	2	27	0	925892608	50	6529
2026-01-26 15:08:12.22	223.03	52.03	-38.9	-39.9	23.5	0.00e+00	92	27	0	927989760	50	6320
2026-01-26 15:08:13.23	222.83	51.69	-39.3	-40.3	23.2	0.00e+00	0	27	0	929038336	50	6639
2026-01-26 15:08:14.24	222.64	51.35	-39.9	-40.9	22.5	0.00e+00	92	27	0	931135488	52	6338
2026-01-26 15:08:15.25	222.45	51.01	-39.8	-40.8	22.8	0.00e+00	0	27	0	933232640	52	6253
2026-01-26 15:08:16.26	222.27	50.68	-39.9	-40.9	22.6	0.00e+00	10	27	0	935329792	52	6365
2026-01-26 15:08:17.27	222.09	50.35	-40.4	-41.4	22.2	0.00e+00	0	27	0	937426944	52	6761
2026-01-26 15:08:18.28	221.91	50.02	-40.9	-42.0	21.6	0.00e+00	2	27	0	938475520	54	6409
2026-01-26 15:08:19.29	221.74	49.69	-41.1	-42.3	21.4	0.00e+00	0	28	0	940572672	54	6639
2026-01-26 15:08:20.30	221.57	49.36	-41.2	-42.4	21.2	0.00e+00	8	27	0	942669824	54	6717
2026-01-26 15:08:21.31	221.41	49.04	-40.8	-41.9	21.6	0.00e+00	92	27	0	944766976	54	6355
2026-01-26 15:08:22.32	221.25	48.72	-41.2	-42.3	21.3	0.00e+00	73	28	0	946864128	54	6666
2026-01-26 15:08:23.33	221.09	48.40	-41.4	-42.7	21.1	0.00e+00	92	27	0	947912704	54	6952
2026-01-26 15:08:24.33	220.94	48.09	-41.4	-42.6	21.0	0.00e+00	72	27	0	950009856	54	6889
2026-01-26 15:08:25.35	220.79	47.77	-41.2	-42.3	21.1	0.00e+00	6	27	0	952107008	54	6688
2026-01-26 15:08:26.35	220.64	47.46	-41.2	-42.4	21.1	0.00e+00	0	27	0	954204160	54	6744
2026-01-26 15:08:27.36	220.50	47.15	-41.0	-42.2	21.2	0.00e+00	0	27	0	956301312	54	6553
2026-01-26 15:08:28.37	220.36	46.84	-40.8	-41.9	21.8	0.00e+00	92	27	0	957349888	54	6350
2026-01-26 15:08:29.38	220.22	46.53	-40.6	-41.7	21.8	0.00e+00	78	28	0	959447040	54	6229
2026-01-26 15:08:30.39	220.08	46.23	-41.0	-42.1	21.5	0.00e+00	92	27	0	961544192	54	6537
2026-01-26 15:08:31.40	219.95	45.92	-41.1	-42.3	21.4	0.00e+00	80	27	0	963641344	54	6639
2026-01-26 15:08:32.40	219.82	45.63	-41.1	-42.3	21.3	0.00e+00	0	27	0	965738496	54	6644
2026-01-26 15:08:33.41	219.69	45.33	-41.1	-42.3	21.3	0.00e+00	5	28	0	966787072	54	6662
2026-01-26 15:08:34.42	219.56	45.03	-40.9	-42.1	21.5	0.00e+00	6	27	0	968884224	54	6505
2026-01-26 15:08:35.43	219.44	44.74	-40.8	-41.9	21.6	0.00e+00	86	28	0	970981376	54	6365
2026-01-26 15:08:36.44	219.32	44.44	-41.3	-42.5	21.2	0.00e+00	7	27	0	973078528	54	6792
2026-01-26 15:08:37.45	219.20	44.15	-41.6	-42.9	20.6	0.00e+00	92	27	0	975175680	54	7092
2026-01-26 15:08:38.46	219.08	43.86	-42.1	-43.4	20.2	0.00e+00	5	27	0	977272832	56	6760
2026-01-26 15:08:39.47	218.97	43.58	-42.1	-43.4	20.3	0.00e+00	92	27	0	978321408	56	6757
2026-01-26 15:08:40.48	218.85	43.29	-42.3	-43.7	20.1	0.00e+00	5	27	0	980418560	56	6950
2026-01-26 15:08:41.49	218.74	43.01	-42.2	-43.6	20.1	0.00e+00	6	27	0	982515712	56	6916
2026-01-26 15:08:42.50	218.64	42.73	-42.2	-43.6	20.3	0.00e+00	0	28	0	984612864	56	6912
2026-01-26 15:08:43.51	218.53	42.45	-41.8	-43.1	20.7	0.00e+00	7	27	0	986710016	56	6530
2026-01-26 15:08:44.52	218.42	42.18	-41.8	-43.0	20.7	0.00e+00	92	27	0	987758592	56	6453
2026-01-26 15:08:45.53	218.32	41.90	-41.7	-42.9	21.1	0.00e+00	77	27	0	989855744	56	6369
2026-01-26 15:08:46.54	218.22	41.63	-41.3	-42.5	21.2	0.00e+00	92	27	0	991952896	56	6060
2026-01-26 15:08:47.55	218.12	41.36	-41.4	-42.5	21.2	0.00e+00	81	27	0	994050048	56	6099
2026-01-26 15:08:48.56	218.02	41.09	-41.4	-42.6	21.1	0.00e+00	0	28	0	996147200	56	6170
2026-01-26 15:08:49.56	217.93	40.82	-41.5	-42.7	21.0	0.00e+00	0	28	0	997195776	56	6214
2026-01-26 15:08:50.57	217.83	40.56	-41.7	-42.9	20.8	0.00e+00	0	28	0	999292928	56	6363
2026-01-26 15:08:51.58	217.74	40.29	-41.9	-43.2	20.5	0.00e+00	92	27	0	1001390080	56	6596
2026-01-26 15:08:52.59	217.65	40.03	-41.9	-43.3	20.5	0.00e+00	0	27	0	1003487232	56	6623
2026-01-26 15:08:53.59	217.56	39.78	-41.8	-43.1	20.7	0.00e+00	92	27	0	1005584384	56	6466
2026-01-26 15:08:54.60	217.47	39.52	-41.6	-42.9	20.8	0.00e+00	0	28	0	1006632960	56	6338
2026-01-26 15:08:55.61	217.38	39.26	-41.8	-43.1	20.7	0.00e+00	7	27	0	1008730112	56	6475
2026-01-26 15:08:56.62	217.30	39.01	-41.9	-43.2	20.5	0.00e+00	8	27	0	1010827264	56	6548
2026-01-26 15:08:57.63	217.21	38.76	-41.9	-43.2	20.6	0.00e+00	0	28	0	1012924416	56	6580
2026-01-26 15:08:58.64	217.13	38.50	-41.3	-42.4	21.3	0.00e+00	21	27	0	1015021568	56	6028
2026-01-26 15:08:59.65	217.05	38.26	-41.1	-42.3	21.4	0.00e+00	8	27	0	1016070144	56	5900
2026-01-26 15:09:00.66	216.97	38.01	-41.0	-42.1	21.7	0.00e+00	92	27	0	1018167296	56	5790
2026-01-26 15:09:01.67	216.89	37.76	-40.7	-41.8	21.9	0.00e+00	3	28	0	1020264448	56	5601
2026-01-26 15:09:02.68	216.81	37.52	-40.5	-41.6	22.0	0.00e+00	33	27	0	1022361600	54	6106
2026-01-26 15:09:03.69	216.74	37.28	-40.6	-41.7	21.8	0.00e+00	2	27	0	1024458752	54	6196
2026-01-26 15:09:04.70	216.66	37.04	-40.7	-41.7	21.8	0.00e+00	6	27	0	1025507328	54	6243
2026-01-26 15:09:05.71	216.59	36.80	-40.8	-41.9	21.7	0.00e+00	0	28	0	1027604480	54	6321
2026-01-26 15:09:06.72	216.51	36.56	-40.6	-41.7	21.8	0.00e+00	73	28	0	1029701632	54	6219
2026-01-26 15:09:07.72	216.44	36.33	-40.2	-41.3	22.4	0.00e+00	92	27	0	1031798784	54	5905
2026-01-26 15:09:08.73	216.37	36.09	-40.3	-41.3	22.3	0.00e+00	75	27	0	1033895936	54	5912
2026-01-26 15:09:09.74	216.30	35.86	-40.1	-41.1	22.5	0.00e+00	90	27	0	1034944512	54	5768
2026-01-26 15:09:10.75	216.23	35.63	-40.2	-41.2	22.3	0.00e+00	7	28	0	1037041664	54	5863
2026-01-26 15:09:11.76	216.16	35.40	-40.1	-41.2	22.4	0.00e+00	74	27	0	1039138816	54	5840
2026-01-26 15:09:12.77	216.10	35.18	-40.3	-41.3	22.2	0.00e+00	73	28	0	1041235968	54	5954
2026-01-26 15:09:13.77	216.03	34.95	-40.3	-41.4	22.2	0.00e+00	0	28	0	1043333120	54	5982
2026-01-26 15:09:14.78	215.97	34.73	-40.3	-41.4	22.2	0.00e+00	91	28	0	1044381696	54	5969
2026-01-26 15:09:15.79	215.90	34.51	-40.4	-41.5	22.1	0.00e+00	0	28	0	1046478848	54	6062
2026-01-26 15:09:16.80	215.84	34.28	-40.6	-41.7	21.8	0.00e+00	91	28	0	1048576000	54	6207
2026-01-26 15:09:17.81	215.78	34.07	-40.6	-41.6	21.9	0.00e+00	0	28	0	1050673152	54	6169
2026-01-26 15:09:18.82	215.72	33.85	-40.9	-42.0	21.6	0.00e+00	92	28	0	1052770304	54	6422
2026-01-26 15:09:19.83	215.66	33.63	-41.0	-42.1	21.5	0.00e+00	0	28	0	1053818880	54	6509
2026-01-26 15:09:20.84	215.60	33.42	-41.0	-42.1	21.5	0.00e+00	0	27	0	1055916032	54	6527
2026-01-26 15:09:21.85	215.54	33.20	-41.2	-42.4	21.2	0.00e+00	0	28	0	1058013184	54	6713
2026-01-26 15:09:22.86	215.48	32.99	-41.4	-42.6	21.0	0.00e+00	0	28	0	1060110336	54	6858
2026-01-26 15:09:23.86	215.42	32.78	-41.5	-42.7	20.9	0.00e+00	92	28	0	1062207488	54	6947
2026-01-26 15:09:24.87	215.37	32.57	-41.5	-42.7	20.9	0.00e+00	6	28	0	1063256064	54	6984
2026-01-26 15:09:25.88	215.31	32.36	-41.7	-43.0	20.7	0.00e+00	92	28	0	1065353216	54	7187
2026-01-26 15:09:26.89	215.26	32.16	-41.8	-43.1	20.6	0.00e+00	0	28	0	1067450368	56	6523
2026-01-26 15:09:27.90	215.20	31.95	-42.0	-43.3	20.5	0.00e+00	79	28	0	1069547520	56	6627
2026-01-26 15:09:28.91	215.15	31.75	-42.1	-43.5	20.3	0.00e+00	1	28	0	1071644672	56	6807
2026-01-26 15:09:29.92	215.09	31.55	-42.3	-43.7	20.2	0.00e+00	81	28	0	1073741824	56	6931
2026-01-26 15:09:30.93	215.04	31.35	-42.2	-43.6	20.1	0.00e+00	92	28	0	1074790400	56	6892
2026-01-26 15:09:31.94	214.99	31.15	-42.2	-43.6	20.2	0.00e+00	81	28	0	1076887552	56	6865
2026-01-26 15:09:32.94	214.94	30.95	-42.3	-43.7	20.1	0.00e+00	92	28	0	1078984704	56	6943
2026-01-26 15:09:33.95	214.89	30.75	-42.2	-43.6	20.2	0.00e+00	77	28	0	1081081856	56	6861
2026-01-26 15:09:34.96	214.84	30.56	-42.3	-43.6	20.2	0.00e+00	0	28	0	1083179008	56	6912
2026-01-26 15:09:35.97	214.79	30.36	-42.0	-43.4	20.4	0.00e+00	0	28	0	1084227584	56	6704
2026-01-26 15:09:36.98	214.74	30.17	-42.0	-43.3	20.5	0.00e+00	76	28	0	1086324736	56	6639
2026-01-26 15:09:37.99	214.70	29.98	-42.0	-43.3	20.5	0.00e+00	70	28	0	1088421888	56	6663
2026-01-26 15:09:39.00	214.65	29.79	-41.9	-43.2	20.5	0.00e+00	2	28	0	1090519040	56	6612
2026-01-26 15:09:40.01	214.60	29.60	-41.6	-42.8	20.9	0.00e+00	92	28	0	1092616192	56	6271
2026-01-26 15:09:41.02	214.56	29.41	-41.7	-42.9	20.9	0.00e+00	0	28	0	1093664768	56	6366
2026-01-26 15:09:42.02	214.51	29.22	-41.7	-42.9	20.8	0.00e+00	22	28	0	1095761920	56	6383
2026-01-26 15:09:43.04	214.47	29.04	-41.6	-42.8	20.9	0.00e+00	0	28	0	1097859072	56	6278
2026-01-26 15:09:44.04	214.42	28.85	-41.5	-42.8	21.0	0.00e+00	0	28	0	1099956224	56	6250
2026-01-26 15:09:45.05	214.38	28.67	-41.5	-42.7	21.1	0.00e+00	8	28	0	1102053376	56	6228
2026-01-26 15:09:46.06	214.34	28.49	-41.6	-42.8	20.9	0.00e+00	0	28	0	1103101952	56	6295
2026-01-26 15:09:47.07	214.29	28.31	-41.4	-42.6	21.2	0.00e+00	92	28	0	1105199104	56	6167
2026-01-26 15:09:48.08	214.25	28.13	-41.2	-42.3	21.4	0.00e+00	7	28	0	1107296256	56	5956
2026-01-26 15:09:49.09	214.21	27.95	-41.1	-42.2	21.5	0.00e+00	92	28	0	1109393408	56	5873
2026-01-26 15:09:50.10	214.17	27.77	-40.8	-41.9	21.8	0.00e+00	74	28	0	1111490560	56	5692
2026-01-26 15:09:51.11	214.13	27.59	-40.7	-41.8	21.9	0.00e+00	75	28	0	1112539136	54	6269
2026-01-26 15:09:52.12	214.09	27.42	-40.7	-41.8	21.9	0.00e+00	0	28	0	1114636288	54	6246
2026-01-26 15:09:53.13	214.05	27.24	-40.4	-41.4	22.2	0.00e+00	77	28	0	1116733440	54	6013
2026-01-26 15:09:54.14	214.01	27.07	-40.5	-41.5	22.0	0.00e+00	92	28	0	1118830592	54	6084
2026-01-26 15:09:55.15	213.97	26.90	-40.5	-41.5	22.1	0.00e+00	0	28	0	1120927744	54	6096
2026-01-26 15:09:56.16	213.93	26.73	-40.3	-41.4	22.2	0.00e+00	90	28	0	1121976320	54	5994
2026-01-26 15:09:57.17	213.89	26.56	-40.4	-41.5	22.1	0.00e+00	80	28	0	1124073472	54	6047
2026-01-26 15:09:58.18	213.86	26.39	-40.7	-41.8	21.8	0.00e+00	81	28	0	1126170624	54	6291
2026-01-26 15:09:59.19	213.82	26.22	-40.4	-41.4	22.2	0.00e+00	81	28	0	1128267776	54	6017
2026-01-26 15:10:00.20	213.78	26.05	-40.5	-41.6	22.0	0.00e+00	80	28	0	1130364928	54	6111
2026-01-26 15:10:01.21	213.75	25.89	-40.6	-41.7	21.9	0.00e+00	69	28	0	1131413504	54	6200
2026-01-26 15:10:02.22	213.71	25.72	-40.4	-41.4	22.1	0.00e+00	0	28	0	1133510656	54	6018
2026-01-26 15:10:03.23	213.68	25.56	-40.4	-41.5	22.1	0.00e+00	92	28	0	1135607808	54	6065
2026-01-26 15:10:04.23	213.64	25.40	-40.3	-41.3	22.2	0.00e+00	0	28	0	1137704960	54	5963
2026-01-26 15:10:05.24	213.61	25.24	-40.4	-41.5	22.1	0.00e+00	92	28	0	1139802112	54	6050
2026-01-26 15:10:06.25	213.57	25.08	-40.2	-41.3	22.2	0.00e+00	3	28	0	1141899264	54	5898
2026-01-26 15:10:07.26	213.54	24.92	-40.1	-41.1	22.3	0.00e+00	0	28	0	1142947840	54	5820
2026-01-26 15:10:08.27	213.51	24.76	-39.8	-40.8	22.7	0.00e+00	0	28	0	1145044992	54	5588
2026-01-26 15:10:09.28	213.47	24.60	-39.9	-40.9	22.5	0.00e+00	2	28	0	1147142144	54	5682
2026-01-26 15:10:10.29	213.44	24.44	-39.7	-40.7	22.8	0.00e+00	91	28	0	1149239296	54	5531
2026-01-26 15:10:11.30	213.41	24.28	-39.5	-40.4	23.0	0.00e+00	0	28	0	1150287872	52	6024
2026-01-26 15:10:12.31	213.38	24.13	-39.6	-40.6	22.8	0.00e+00	92	28	0	1152385024	52	6145
2026-01-26 15:10:13.32	213.34	23.97	-39.7	-40.7	22.8	0.00e+00	5	28	0	1154482176	52	6223
2026-01-26 15:10:14.33	213.31	23.82	-39.4	-40.4	23.1	0.00e+00	2	28	0	1156579328	52	5971
2026-01-26 15:10:15.34	213.28	23.67	-39.5	-40.4	23.0	0.00e+00	80	28	0	1158676480	52	6027
2026-01-26 15:10:16.34	213.25	23.52	-39.4	-40.4	23.0	0.00e+00	4	28	0	1159725056	52	5994
2026-01-26 15:10:17.35	213.22	23.37	-39.3	-40.2	23.2	0.00e+00	91	28	0	1161822208	52	5856
2026-01-26 15:10:18.36	213.19	23.22	-39.4	-40.3	23.1	0.00e+00	0	28	0	1163919360	52	5928
2026-01-26 15:10:19.37	213.16	23.07	-39.2	-40.1	23.3	0.00e+00	92	28	0	1166016512	52	5783
2026-01-26 15:10:20.38	213.13	22.92	-39.2	-40.1	23.3	0.00e+00	78	28	0	1168113664	52	5828
2026-01-26 15:10:21.39	213.10	22.77	-39.3	-40.3	23.2	0.00e+00	77	28	0	1170210816	52	5916
2026-01-26 15:10:22.40	213.07	22.63	-39.3	-40.3	23.1	0.00e+00	79	28	0	1171259392	52	5902
2026-01-26 15:10:23.40	213.05	22.48	-39.5	-40.5	23.0	0.00e+00	0	28	0	1173356544	52	6049
2026-01-26 15:10:24.41	213.02	22.34	-39.6	-40.5	23.0	0.00e+00	85	28	0	1175453696	52	6079
2026-01-26 15:10:25.42	212.99	22.19	-39.7	-40.6	22.9	0.00e+00	5	28	0	1177550848	52	6170
2026-01-26 15:10:26.43	212.96	22.05	-39.6	-40.5	23.0	0.00e+00	95	28	0	1179648000	52	6090
2026-01-26 15:10:27.44	212.94	21.91	-39.6	-40.6	22.9	0.00e+00	0	28	0	1180696576	52	6118
2026-01-26 15:10:28.45	212.91	21.76	-39.7	-40.6	22.8	0.00e+00	22	28	0	1182793728	52	6173
2026-01-26 15:10:29.46	212.88	21.62	-39.7	-40.7	22.7	0.00e+00	0	28	0	1184890880	52	6177
2026-01-26 15:10:30.47	212.85	21.48	-39.7	-40.6	22.9	0.00e+00	5	28	0	1186988032	52	6164
2026-01-26 15:10:31.48	212.83	21.34	-39.8	-40.8	22.7	0.00e+00	6	28	0	1189085184	52	6264
2026-01-26 15:10:32.49	212.80	21.21	-39.8	-40.8	22.7	0.00e+00	5	28	0	1190133760	52	6283
2026-01-26 15:10:33.50	212.78	21.07	-39.8	-40.8	22.6	0.00e+00	92	28	0	1192230912	52	6277
2026-01-26 15:10:34.51	212.75	20.93	-40.0	-41.0	22.5	0.00e+00	82	28	0	1194328064	52	6407
2026-01-26 15:10:35.52	212.73	20.79	-40.1	-41.1	22.4	0.00e+00	85	28	0	1196425216	52	6502
2026-01-26 15:10:36.53	212.70	20.66	-40.1	-41.1	22.4	0.00e+00	83	28	0	1198522368	52	6505
2026-01-26 15:10:37.54	212.68	20.52	-40.1	-41.2	22.4	0.00e+00	3	28	0	1199570944	52	6556
2026-01-26 15:10:38.55	212.65	20.39	-40.1	-41.1	22.4	0.00e+00	1	28	0	1201668096	52	6505
2026-01-26 15:10:39.56	212.63	20.25	-40.4	-41.5	22.0	0.00e+00	83	28	0	1203765248	52	6823
2026-01-26 15:10:40.56	212.60	20.12	-40.1	-41.2	22.3	0.00e+00	92	28	0	1205862400	52	6542
2026-01-26 15:10:41.58	212.58	19.99	-40.2	-41.2	22.3	0.00e+00	0	28	0	1207959552	52	6599
2026-01-26 15:10:42.59	212.56	19.86	-40.3	-41.4	22.1	0.00e+00	90	28	0	1209008128	52	6698
