passes_logs/2026/01/26/R4.6S_Anadyr/R4.6S_Anadyr__20260126_175840_SUOMI_NPP_rec.log

#Pass ID: 20260126_175840_SUOMI NPP
#Satellite: SUOMI NPP
#Configuration: NPP
#almurnet v.1.7.20251203
#Start time: 2026-01-26 17:58:43

#Version: 2.2.20231116
#Station: R4.6S_Anadyr
#Location: 177.4865 lon 64.73178 lat
#TLE: 1 37849U 11061A   26025.95877665  .00000192  00000+0  11229-3 0  9997
#TLE: 2 37849  98.7822 327.9136 0002155  44.9234 315.2116 14.19530109738267

#Time	Az	El	Level	Level2	SNR	BER	BlckErr	Temp	State	Recorded	gain1	gain2
2026-01-26 17:58:43.63	35.45	0.14	-49.8	-67.5	3.5	3.03e+01	0	27	0	0	60	91187
2026-01-26 17:58:44.63	35.39	0.19	-50.6	-65.7	3.6	1.51e+00	0	28	104	0	60	69744
2026-01-26 17:58:45.64	35.32	0.25	-50.8	-66.0	3.6	1.51e+00	0	28	104	0	60	71796
2026-01-26 17:58:46.65	35.25	0.30	-49.7	-64.8	3.6	1.51e+00	0	28	104	0	60	63006
2026-01-26 17:58:47.66	35.19	0.35	-50.1	-65.3	3.6	1.51e+00	0	28	104	0	60	66526
2026-01-26 17:58:48.67	35.12	0.40	-50.6	-65.7	3.6	1.51e+00	0	28	104	0	60	69961
2026-01-26 17:58:49.68	35.05	0.46	-49.9	-65.1	3.6	1.51e+00	0	28	104	0	60	65105
2026-01-26 17:58:50.69	34.98	0.51	-49.4	-64.7	3.6	1.51e+00	0	28	104	0	60	61940
2026-01-26 17:58:51.70	34.92	0.56	-49.3	-64.5	3.6	1.51e+00	0	28	104	0	60	60688
2026-01-26 17:58:52.71	34.85	0.61	-49.3	-64.4	3.6	1.51e+00	0	28	104	0	60	60239
2026-01-26 17:58:53.72	34.78	0.67	-49.2	-64.5	3.6	1.51e+00	0	28	104	0	60	60635
2026-01-26 17:58:54.73	34.71	0.72	-49.3	-64.4	3.6	1.51e+00	0	28	104	0	60	60249
2026-01-26 17:58:55.74	34.64	0.77	-49.2	-64.4	3.5	1.51e+00	0	28	104	0	60	60072
2026-01-26 17:58:56.75	34.57	0.82	-49.1	-64.3	3.6	1.51e+00	0	28	104	0	60	59553
2026-01-26 17:58:57.75	34.50	0.88	-49.1	-64.3	3.6	1.51e+00	0	28	104	0	60	59282
2026-01-26 17:58:58.77	34.43	0.93	-49.1	-64.3	3.6	1.51e+00	0	28	104	0	60	59113
2026-01-26 17:58:59.78	34.36	0.98	-49.0	-64.2	3.6	1.51e+00	0	28	104	0	60	58468
2026-01-26 17:59:00.79	34.29	1.04	-49.0	-64.1	3.6	1.51e+00	0	28	104	0	60	58041
2026-01-26 17:59:01.80	34.22	1.09	-48.9	-64.1	3.6	1.51e+00	0	28	104	0	60	57825
2026-01-26 17:59:02.81	34.15	1.14	-48.8	-64.1	3.6	1.51e+00	0	28	104	0	60	57638
2026-01-26 17:59:03.82	34.08	1.20	-48.8	-63.9	3.6	1.51e+00	0	28	104	0	60	56754
2026-01-26 17:59:04.83	34.01	1.25	-48.7	-63.9	3.6	1.51e+00	0	28	104	0	60	56519
2026-01-26 17:59:05.84	33.94	1.30	-48.5	-63.7	3.6	1.51e+00	0	28	104	0	60	55233
2026-01-26 17:59:06.85	33.87	1.36	-48.2	-63.5	3.6	1.51e+00	0	28	104	0	60	54100
2026-01-26 17:59:07.86	33.80	1.41	-48.0	-63.2	3.6	1.51e+00	0	28	104	0	60	52299
2026-01-26 17:59:08.87	33.72	1.46	-47.7	-62.9	3.6	1.51e+00	0	28	104	0	60	50277
2026-01-26 17:59:09.88	33.65	1.52	-47.7	-62.8	3.6	1.51e+00	0	29	104	0	60	50099
2026-01-26 17:59:10.89	33.58	1.57	-47.7	-62.7	3.6	1.51e+00	0	29	104	0	60	49457
2026-01-26 17:59:11.90	33.51	1.62	-47.7	-62.8	3.6	1.51e+00	0	29	104	0	60	49974
2026-01-26 17:59:12.91	33.43	1.68	-47.7	-62.8	3.6	1.51e+00	0	29	104	0	60	49947
2026-01-26 17:59:13.92	33.36	1.73	-47.7	-62.8	3.6	1.51e+00	0	29	104	0	60	50165
2026-01-26 17:59:14.93	33.28	1.78	-47.7	-62.8	3.6	1.51e+00	0	29	104	0	60	50092
2026-01-26 17:59:15.94	33.21	1.84	-47.7	-62.8	3.6	1.51e+00	0	29	104	0	60	49983
2026-01-26 17:59:16.95	33.14	1.89	-47.7	-62.9	3.6	1.51e+00	0	29	104	0	60	50221
2026-01-26 17:59:17.96	33.06	1.95	-47.7	-62.8	3.6	1.51e+00	0	29	104	0	60	49895
2026-01-26 17:59:18.97	32.99	2.00	-47.7	-62.8	3.6	1.51e+00	0	29	104	0	60	50046
2026-01-26 17:59:19.98	32.91	2.05	-47.7	-62.8	3.6	1.51e+00	0	29	104	0	60	49828
2026-01-26 17:59:20.99	32.83	2.11	-47.7	-62.7	3.6	1.51e+00	0	29	104	0	60	49465
2026-01-26 17:59:22.00	32.76	2.16	-47.7	-62.7	3.6	1.51e+00	0	29	104	0	60	49538
2026-01-26 17:59:23.00	32.68	2.22	-47.7	-62.7	3.6	1.51e+00	0	29	104	0	60	49545
2026-01-26 17:59:24.01	32.61	2.27	-47.7	-62.8	3.6	1.51e+00	0	29	104	0	60	49964
2026-01-26 17:59:25.03	32.53	2.32	-47.7	-62.9	3.6	1.51e+00	0	29	104	0	60	50603
2026-01-26 17:59:26.04	32.45	2.38	-47.7	-62.8	3.6	1.51e+00	0	29	104	0	60	50043
2026-01-26 17:59:27.05	32.37	2.43	-47.7	-62.8	3.6	1.51e+00	0	29	104	0	60	49792
2026-01-26 17:59:28.05	32.30	2.49	-47.7	-62.8	3.6	1.51e+00	0	29	104	0	60	49696
2026-01-26 17:59:29.06	32.22	2.54	-47.7	-62.8	3.6	1.51e+00	0	29	104	0	60	49819
2026-01-26 17:59:30.07	32.14	2.60	-47.7	-62.9	3.6	1.51e+00	0	29	104	0	60	50326
2026-01-26 17:59:31.08	32.06	2.65	-47.7	-62.7	3.6	1.51e+00	0	29	104	0	60	49253
2026-01-26 17:59:32.09	31.98	2.71	-47.7	-62.4	3.6	1.51e+00	0	29	104	0	60	47903
2026-01-26 17:59:33.10	31.90	2.76	-47.7	-62.1	3.6	1.51e+00	0	29	104	0	60	46016
2026-01-26 17:59:34.11	31.82	2.82	-47.7	-62.5	3.6	1.51e+00	0	29	104	0	60	48158
2026-01-26 17:59:35.12	31.75	2.87	-47.7	-62.8	3.6	1.51e+00	0	29	104	0	60	49805
2026-01-26 17:59:36.13	31.66	2.93	-47.6	-60.7	3.6	1.51e+00	0	29	104	0	60	39190
2026-01-26 17:59:37.14	31.58	2.98	-47.2	-55.6	5.7	6.35e-01	0	29	0	0	60	21840
2026-01-26 17:59:38.15	31.50	3.04	-46.6	-52.6	8.8	4.69e-02	56	29	0	2097152	60	15409
2026-01-26 17:59:39.16	31.42	3.09	-45.8	-50.2	11.4	3.61e-03	0	29	0	4194304	60	11752
2026-01-26 17:59:40.17	31.34	3.15	-45.3	-49.1	12.5	1.11e-04	63	29	0	5242880	60	10351
2026-01-26 17:59:41.18	31.26	3.20	-44.3	-47.3	14.5	3.00e-06	33	29	0	7340032	60	8352
2026-01-26 17:59:42.19	31.18	3.26	-47.7	-61.6	3.6	1.18e+00	0	29	104	8388608	60	43423
2026-01-26 17:59:43.20	31.09	3.31	-47.3	-56.5	6.2	1.50e+00	2	29	104	8388608	60	24037
2026-01-26 17:59:44.21	31.01	3.37	-45.1	-48.7	13.3	7.24e-05	0	29	0	9437184	60	9788
2026-01-26 17:59:45.22	30.93	3.42	-42.8	-44.9	17.3	0.00e+00	0	29	0	10485760	60	6366
2026-01-26 17:59:46.23	30.85	3.48	-47.5	-61.7	3.6	8.38e-01	0	29	104	11534336	60	43728
2026-01-26 17:59:47.24	30.76	3.53	-42.4	-44.4	16.7	5.24e-01	54	29	104	11534336	58	6738
2026-01-26 17:59:48.24	30.68	3.59	-42.7	-44.8	17.4	0.00e+00	0	29	0	12582912	58	7049
2026-01-26 17:59:49.25	30.59	3.64	-42.3	-44.2	17.6	0.00e+00	90	29	0	13631488	58	6549
2026-01-26 17:59:50.26	30.51	3.70	-42.4	-44.3	17.5	0.00e+00	0	29	0	15728640	58	6690
2026-01-26 17:59:51.27	30.42	3.76	-42.3	-44.2	17.7	0.00e+00	0	29	0	17825792	56	7363
2026-01-26 17:59:52.28	30.34	3.81	-42.2	-44.1	17.7	0.00e+00	0	29	0	19922944	56	7260
2026-01-26 17:59:53.29	30.25	3.87	-41.9	-43.7	18.4	0.00e+00	0	29	0	22020096	56	6946
2026-01-26 17:59:54.30	30.17	3.92	-42.1	-43.8	18.2	0.00e+00	59	29	0	23068672	56	7069
2026-01-26 17:59:55.31	30.08	3.98	-41.8	-43.5	18.4	0.00e+00	0	29	0	25165824	56	6837
2026-01-26 17:59:56.32	29.99	4.04	-41.8	-43.5	18.4	0.00e+00	91	29	0	27262976	56	6775
2026-01-26 17:59:57.32	29.91	4.09	-41.5	-43.1	19.0	0.00e+00	0	29	0	29360128	56	6493
2026-01-26 17:59:58.33	29.82	4.15	-41.6	-43.2	18.5	0.00e+00	21	29	0	31457280	56	6563
2026-01-26 17:59:59.34	29.73	4.20	-41.6	-43.1	18.7	0.00e+00	0	29	0	32505856	56	6539
2026-01-26 18:00:00.36	29.64	4.26	-42.0	-43.8	18.3	0.00e+00	0	29	0	34603008	56	7026
2026-01-26 18:00:01.37	29.56	4.32	-41.3	-42.9	19.1	0.00e+00	56	29	0	36700160	56	6343
2026-01-26 18:00:02.38	29.47	4.37	-41.9	-43.5	18.5	0.00e+00	0	29	0	38797312	56	6824
2026-01-26 18:00:03.38	29.38	4.43	-41.6	-43.2	18.8	0.00e+00	74	29	0	40894464	56	6576
2026-01-26 18:00:04.39	29.29	4.48	-41.5	-43.1	18.8	0.00e+00	0	29	0	41943040	56	6481
2026-01-26 18:00:05.40	29.20	4.54	-41.3	-42.9	19.0	0.00e+00	0	29	0	44040192	56	6320
2026-01-26 18:00:06.41	29.11	4.60	-41.1	-42.6	19.2	0.00e+00	0	29	0	46137344	56	6147
2026-01-26 18:00:07.42	29.02	4.65	-41.3	-42.8	19.2	0.00e+00	0	29	0	48234496	56	6285
2026-01-26 18:00:08.43	28.93	4.71	-41.1	-42.6	19.2	0.00e+00	0	29	0	50331648	56	6138
2026-01-26 18:00:09.44	28.84	4.77	-41.2	-42.6	19.4	0.00e+00	0	29	0	51380224	56	6157
2026-01-26 18:00:10.45	28.74	4.82	-41.2	-42.7	19.5	0.00e+00	87	29	0	53477376	56	6204
2026-01-26 18:00:11.46	28.65	4.88	-41.1	-42.5	19.5	0.00e+00	0	29	0	55574528	56	6070
2026-01-26 18:00:12.47	28.56	4.94	-40.9	-42.3	19.7	0.00e+00	90	29	0	57671680	56	5949
2026-01-26 18:00:13.48	28.47	5.00	-40.8	-42.2	19.9	0.00e+00	0	29	0	59768832	56	5837
2026-01-26 18:00:14.49	28.37	5.05	-41.0	-42.4	19.7	0.00e+00	0	29	0	60817408	56	5974
2026-01-26 18:00:15.50	28.28	5.11	-40.8	-42.2	19.8	0.00e+00	0	29	0	62914560	54	6589
2026-01-26 18:00:16.51	28.18	5.17	-40.6	-42.0	20.0	0.00e+00	0	29	0	65011712	54	6407
2026-01-26 18:00:17.52	28.09	5.22	-40.9	-42.3	19.7	0.00e+00	78	29	0	67108864	54	6685
2026-01-26 18:00:18.52	28.00	5.28	-40.8	-42.1	19.9	0.00e+00	0	29	0	69206016	54	6506
2026-01-26 18:00:19.53	27.90	5.34	-40.7	-42.1	19.9	0.00e+00	80	29	0	70254592	54	6468
2026-01-26 18:00:20.54	27.81	5.39	-40.9	-42.3	19.8	0.00e+00	0	29	0	72351744	54	6676
2026-01-26 18:00:21.55	27.71	5.45	-40.8	-42.1	19.9	0.00e+00	0	29	0	74448896	54	6535
2026-01-26 18:00:22.56	27.61	5.51	-40.9	-42.3	19.7	0.00e+00	0	29	0	76546048	54	6649
2026-01-26 18:00:23.57	27.52	5.57	-41.0	-42.4	19.4	0.00e+00	33	29	0	78643200	54	6730
2026-01-26 18:00:24.58	27.42	5.62	-41.1	-42.5	19.5	0.00e+00	29	29	0	79691776	54	6801
2026-01-26 18:00:25.59	27.32	5.68	-41.4	-42.9	19.2	0.00e+00	0	29	0	81788928	54	7119
2026-01-26 18:00:26.60	27.22	5.74	-41.7	-43.2	19.0	0.00e+00	92	29	0	83886080	56	6603
2026-01-26 18:00:27.61	27.13	5.80	-41.6	-43.2	19.0	0.00e+00	0	29	0	85983232	56	6552
2026-01-26 18:00:28.62	27.03	5.85	-41.5	-43.0	19.1	0.00e+00	0	29	0	88080384	56	6435
2026-01-26 18:00:29.63	26.93	5.91	-41.3	-42.8	19.3	0.00e+00	0	29	0	89128960	56	6273
2026-01-26 18:00:30.64	26.83	5.97	-41.3	-42.8	19.3	0.00e+00	0	29	0	91226112	56	6257
2026-01-26 18:00:31.64	26.73	6.03	-42.0	-43.6	18.6	0.00e+00	16	29	0	93323264	56	6899
2026-01-26 18:00:32.65	26.63	6.08	-41.8	-43.4	18.9	0.00e+00	0	29	0	95420416	56	6745
2026-01-26 18:00:33.66	26.53	6.14	-41.8	-43.4	18.9	0.00e+00	83	29	0	97517568	56	6756
2026-01-26 18:00:34.67	26.43	6.20	-42.0	-43.6	18.9	0.00e+00	0	29	0	99614720	56	6925
2026-01-26 18:00:35.68	26.33	6.26	-41.6	-43.2	19.1	0.00e+00	0	29	0	100663296	56	6547
2026-01-26 18:00:36.68	26.22	6.32	-42.1	-43.7	18.7	0.00e+00	0	29	0	102760448	56	6989
2026-01-26 18:00:37.69	26.12	6.37	-41.9	-43.5	18.6	0.00e+00	0	29	0	104857600	56	6831
2026-01-26 18:00:38.70	26.02	6.43	-41.8	-43.4	18.8	0.00e+00	19	29	0	106954752	56	6709
2026-01-26 18:00:39.71	25.92	6.49	-42.5	-44.2	18.3	0.00e+00	0	29	0	109051904	56	7395
2026-01-26 18:00:40.72	25.81	6.55	-41.7	-43.3	19.0	0.00e+00	90	29	0	110100480	56	6625
2026-01-26 18:00:41.73	25.71	6.61	-41.1	-42.5	19.7	0.00e+00	0	29	0	112197632	56	6096
2026-01-26 18:00:42.74	25.60	6.66	-41.1	-42.5	19.6	0.00e+00	0	29	0	114294784	56	6041
2026-01-26 18:00:43.75	25.50	6.72	-40.9	-42.3	20.0	0.00e+00	0	29	0	116391936	56	5898
2026-01-26 18:00:44.76	25.39	6.78	-41.1	-42.5	19.6	0.00e+00	0	29	0	118489088	56	6065
2026-01-26 18:00:45.77	25.29	6.84	-41.0	-42.3	19.9	0.00e+00	0	29	0	119537664	56	5950
2026-01-26 18:00:46.78	25.18	6.90	-40.9	-42.2	19.9	0.00e+00	0	29	0	121634816	56	5879
2026-01-26 18:00:47.79	25.07	6.96	-41.1	-42.6	19.7	0.00e+00	54	29	0	123731968	56	6104
2026-01-26 18:00:48.80	24.97	7.01	-40.8	-42.1	19.9	0.00e+00	0	29	0	125829120	56	5815
2026-01-26 18:00:49.80	24.86	7.07	-40.9	-42.2	20.0	0.00e+00	92	29	0	127926272	56	5877
2026-01-26 18:00:50.82	24.75	7.13	-41.3	-42.7	19.6	0.00e+00	0	29	0	128974848	56	6231
2026-01-26 18:00:51.83	24.64	7.19	-41.3	-42.7	19.7	0.00e+00	0	29	0	131072000	56	6211
2026-01-26 18:00:52.84	24.53	7.25	-41.0	-42.3	19.9	0.00e+00	0	29	0	133169152	56	5945
2026-01-26 18:00:53.85	24.42	7.31	-41.1	-42.5	19.7	0.00e+00	0	29	0	135266304	56	6100
2026-01-26 18:00:54.86	24.31	7.37	-41.5	-43.1	19.3	0.00e+00	25	29	0	137363456	56	6471
2026-01-26 18:00:55.86	24.21	7.42	-41.6	-43.1	19.3	0.00e+00	0	29	0	138412032	56	6474
2026-01-26 18:00:56.87	24.09	7.48	-41.5	-43.0	19.3	0.00e+00	89	29	0	140509184	56	6410
2026-01-26 18:00:57.88	23.98	7.54	-41.4	-42.9	19.5	0.00e+00	0	29	0	142606336	56	6361
2026-01-26 18:00:58.89	23.87	7.60	-41.4	-42.9	19.5	0.00e+00	0	29	0	144703488	56	6362
2026-01-26 18:00:59.90	23.76	7.66	-41.1	-42.6	19.8	0.00e+00	0	29	0	146800640	56	6132
2026-01-26 18:01:00.91	23.65	7.72	-41.3	-42.8	19.4	0.00e+00	0	29	0	147849216	56	6246
2026-01-26 18:01:01.92	23.53	7.78	-41.5	-43.0	19.3	0.00e+00	22	29	0	149946368	56	6401
2026-01-26 18:01:02.93	23.42	7.84	-41.2	-42.6	19.8	0.00e+00	0	29	0	152043520	56	6145
2026-01-26 18:01:03.94	23.31	7.89	-41.6	-43.1	19.3	0.00e+00	57	29	0	154140672	56	6522
2026-01-26 18:01:04.95	23.19	7.95	-41.3	-42.8	19.5	0.00e+00	0	29	0	156237824	56	6252
2026-01-26 18:01:05.96	23.08	8.01	-41.3	-42.8	19.6	0.00e+00	0	29	0	157286400	56	6286
2026-01-26 18:01:06.97	22.96	8.07	-41.5	-43.0	19.4	0.00e+00	0	29	0	159383552	56	6449
2026-01-26 18:01:07.98	22.84	8.13	-41.3	-42.7	19.7	0.00e+00	0	29	0	161480704	56	6212
2026-01-26 18:01:08.99	22.73	8.19	-41.3	-42.8	19.5	0.00e+00	22	29	0	163577856	56	6274
2026-01-26 18:01:10.00	22.61	8.25	-41.1	-42.5	19.9	0.00e+00	0	29	0	165675008	56	6064
2026-01-26 18:01:11.01	22.49	8.31	-40.9	-42.3	20.0	0.00e+00	59	29	0	167772160	56	5941
2026-01-26 18:01:12.02	22.38	8.37	-40.7	-42.0	20.3	0.00e+00	0	29	0	168820736	56	5736
2026-01-26 18:01:13.03	22.26	8.43	-40.8	-42.1	20.2	0.00e+00	0	29	0	170917888	54	6521
2026-01-26 18:01:14.04	22.14	8.49	-40.7	-42.0	20.2	0.00e+00	0	29	0	173015040	54	6433
2026-01-26 18:01:15.05	22.02	8.54	-40.7	-42.0	20.3	0.00e+00	0	29	0	175112192	54	6444
2026-01-26 18:01:16.05	21.90	8.60	-40.6	-42.0	20.3	0.00e+00	28	29	0	177209344	54	6414
2026-01-26 18:01:17.06	21.78	8.66	-40.8	-42.2	20.0	0.00e+00	0	29	0	178257920	54	6579
2026-01-26 18:01:18.07	21.66	8.72	-40.5	-41.8	20.4	0.00e+00	23	29	0	180355072	54	6290
2026-01-26 18:01:19.08	21.54	8.78	-40.6	-41.9	20.4	0.00e+00	0	29	0	182452224	54	6345
2026-01-26 18:01:20.09	21.42	8.84	-40.3	-41.5	20.7	0.00e+00	36	29	0	184549376	54	6071
2026-01-26 18:01:21.10	21.29	8.90	-40.0	-41.2	20.9	0.00e+00	0	29	0	186646528	54	5892
2026-01-26 18:01:22.11	21.17	8.96	-40.1	-41.3	20.9	0.00e+00	0	29	0	187695104	54	5916
2026-01-26 18:01:23.12	21.05	9.02	-40.1	-41.3	21.0	0.00e+00	0	29	0	189792256	54	5905
2026-01-26 18:01:24.13	20.92	9.08	-40.2	-41.4	20.9	0.00e+00	0	29	0	191889408	54	6019
2026-01-26 18:01:25.14	20.80	9.14	-40.2	-41.4	20.7	0.00e+00	87	29	0	193986560	54	6025
2026-01-26 18:01:26.15	20.67	9.20	-40.3	-41.6	20.6	0.00e+00	0	29	0	196083712	54	6158
2026-01-26 18:01:27.16	20.55	9.26	-40.5	-41.8	20.5	0.00e+00	91	30	0	197132288	54	6256
2026-01-26 18:01:28.16	20.42	9.31	-40.7	-42.1	20.3	0.00e+00	0	29	0	199229440	54	6479
2026-01-26 18:01:29.17	20.30	9.37	-40.7	-42.1	20.3	0.00e+00	0	29	0	201326592	54	6472
2026-01-26 18:01:30.18	20.17	9.43	-40.6	-42.0	20.2	0.00e+00	0	29	0	203423744	54	6407
2026-01-26 18:01:31.19	20.04	9.49	-40.7	-42.1	20.3	0.00e+00	0	29	0	205520896	54	6474
2026-01-26 18:01:32.20	19.91	9.55	-40.4	-41.7	20.6	0.00e+00	56	29	0	206569472	54	6236
2026-01-26 18:01:33.21	19.78	9.61	-40.6	-42.0	20.4	0.00e+00	0	30	0	208666624	54	6397
2026-01-26 18:01:34.22	19.65	9.67	-40.7	-42.1	20.2	0.00e+00	92	29	0	210763776	54	6483
2026-01-26 18:01:35.23	19.52	9.73	-41.0	-42.4	20.0	0.00e+00	0	30	0	212860928	54	6731
2026-01-26 18:01:36.24	19.39	9.79	-40.8	-42.2	20.2	0.00e+00	0	30	0	214958080	54	6572
2026-01-26 18:01:37.25	19.26	9.85	-41.0	-42.4	20.1	0.00e+00	0	30	0	216006656	54	6702
2026-01-26 18:01:38.26	19.13	9.91	-40.7	-42.0	20.1	0.00e+00	0	30	0	218103808	54	6452
2026-01-26 18:01:39.27	19.00	9.97	-40.8	-42.1	20.3	0.00e+00	55	30	0	220200960	54	6526
2026-01-26 18:01:40.28	18.87	10.03	-40.5	-41.8	20.5	0.00e+00	0	30	0	222298112	54	6257
2026-01-26 18:01:41.29	18.73	10.09	-40.2	-41.4	20.7	0.00e+00	91	30	0	224395264	54	5995
2026-01-26 18:01:42.30	18.60	10.15	-40.0	-41.2	20.5	0.00e+00	0	30	0	225443840	54	5877
2026-01-26 18:01:43.31	18.47	10.20	-40.1	-41.3	20.9	0.00e+00	0	30	0	227540992	54	5918
2026-01-26 18:01:44.32	18.33	10.26	-39.8	-41.0	21.3	0.00e+00	0	30	0	229638144	54	5719
2026-01-26 18:01:45.33	18.20	10.32	-40.0	-41.2	21.1	0.00e+00	0	30	0	231735296	54	5848
2026-01-26 18:01:46.33	18.06	10.38	-40.0	-41.3	20.8	0.00e+00	0	30	0	233832448	54	5904
2026-01-26 18:01:47.34	17.93	10.44	-40.0	-41.2	21.0	0.00e+00	0	30	0	235929600	54	5888
2026-01-26 18:01:48.35	17.79	10.50	-40.0	-41.2	21.1	0.00e+00	70	30	0	236978176	54	5862
2026-01-26 18:01:49.36	17.65	10.56	-40.0	-41.2	21.1	0.00e+00	0	30	0	239075328	54	5887
2026-01-26 18:01:50.37	17.51	10.62	-39.9	-41.1	21.2	0.00e+00	0	30	0	241172480	54	5804
2026-01-26 18:01:51.38	17.37	10.68	-40.0	-41.2	21.1	0.00e+00	0	30	0	243269632	54	5849
2026-01-26 18:01:52.39	17.23	10.74	-40.1	-41.3	20.9	0.00e+00	0	30	0	245366784	54	5953
2026-01-26 18:01:53.40	17.09	10.80	-40.2	-41.4	20.9	0.00e+00	0	30	0	246415360	54	5991
2026-01-26 18:01:54.41	16.95	10.86	-40.5	-41.8	20.8	0.00e+00	0	30	0	248512512	54	6251
2026-01-26 18:01:55.42	16.81	10.92	-40.3	-41.6	20.9	0.00e+00	92	30	0	250609664	54	6105
2026-01-26 18:01:56.43	16.67	10.97	-40.2	-41.5	20.8	0.00e+00	0	30	0	252706816	54	6034
2026-01-26 18:01:57.44	16.53	11.03	-40.3	-41.5	20.8	0.00e+00	85	30	0	253755392	54	6079
2026-01-26 18:01:58.44	16.39	11.09	-40.3	-41.5	20.9	0.00e+00	0	30	0	255852544	54	6056
2026-01-26 18:01:59.45	16.24	11.15	-40.1	-41.3	21.1	0.00e+00	0	30	0	257949696	54	5908
2026-01-26 18:02:00.46	16.10	11.21	-40.0	-41.1	21.2	0.00e+00	0	30	0	260046848	54	5819
2026-01-26 18:02:01.47	15.96	11.27	-40.1	-41.3	21.1	0.00e+00	0	30	0	262144000	54	5937
2026-01-26 18:02:02.48	15.81	11.33	-40.1	-41.3	21.1	0.00e+00	31	30	0	264241152	54	5920
2026-01-26 18:02:03.48	15.67	11.39	-40.0	-41.2	21.0	0.00e+00	0	30	0	265289728	54	5871
2026-01-26 18:02:04.49	15.52	11.44	-40.0	-41.2	21.2	0.00e+00	90	29	0	267386880	54	5851
2026-01-26 18:02:05.50	15.37	11.50	-39.8	-40.9	21.4	0.00e+00	0	30	0	269484032	54	5660
2026-01-26 18:02:06.51	15.23	11.56	-39.8	-40.9	21.5	0.00e+00	0	30	0	271581184	52	6376
2026-01-26 18:02:07.51	15.08	11.62	-39.7	-40.8	21.4	0.00e+00	0	30	0	273678336	52	6317
2026-01-26 18:02:08.52	14.93	11.68	-40.0	-41.1	21.3	0.00e+00	0	30	0	274726912	52	6496
2026-01-26 18:02:09.53	14.78	11.74	-40.1	-41.3	21.1	0.00e+00	54	30	0	276824064	52	6617
2026-01-26 18:02:10.54	14.63	11.80	-40.2	-41.4	21.1	0.00e+00	0	30	0	278921216	54	5987
2026-01-26 18:02:11.55	14.48	11.85	-40.1	-41.2	21.2	0.00e+00	79	30	0	281018368	54	5895
2026-01-26 18:02:12.56	14.33	11.91	-39.9	-41.0	21.4	0.00e+00	0	30	0	283115520	54	5717
2026-01-26 18:02:13.57	14.18	11.97	-40.1	-41.3	21.1	0.00e+00	0	30	0	284164096	54	5940
2026-01-26 18:02:14.58	14.02	12.03	-40.3	-41.4	20.8	0.00e+00	0	30	0	286261248	54	6032
2026-01-26 18:02:15.59	13.87	12.09	-40.1	-41.3	21.0	0.00e+00	0	30	0	288358400	54	5962
2026-01-26 18:02:16.60	13.72	12.15	-40.0	-41.1	21.3	0.00e+00	10	30	0	290455552	54	5806
2026-01-26 18:02:17.61	13.56	12.20	-40.1	-41.2	21.1	0.00e+00	0	30	0	292552704	54	5893
2026-01-26 18:02:18.62	13.41	12.26	-40.0	-41.1	21.2	0.00e+00	92	30	0	293601280	54	5818
2026-01-26 18:02:19.62	13.25	12.32	-40.2	-41.4	21.0	0.00e+00	0	30	0	295698432	54	5989
2026-01-26 18:02:20.63	13.10	12.38	-40.5	-41.8	20.8	0.00e+00	63	30	0	297795584	54	6250
2026-01-26 18:02:21.64	12.94	12.43	-40.5	-41.7	20.8	0.00e+00	0	30	0	299892736	54	6238
2026-01-26 18:02:22.65	12.78	12.49	-40.4	-41.6	20.8	0.00e+00	0	30	0	301989888	54	6155
2026-01-26 18:02:23.66	12.63	12.55	-40.3	-41.5	20.8	0.00e+00	0	30	0	303038464	54	6060
2026-01-26 18:02:24.67	12.47	12.61	-40.3	-41.5	20.9	0.00e+00	0	30	0	305135616	54	6046
2026-01-26 18:02:25.68	12.31	12.66	-40.3	-41.5	20.9	0.00e+00	60	30	0	307232768	54	6090
2026-01-26 18:02:26.68	12.15	12.72	-40.3	-41.5	21.0	0.00e+00	0	30	0	309329920	54	6079
2026-01-26 18:02:27.69	11.99	12.78	-40.4	-41.6	20.9	0.00e+00	17	30	0	311427072	54	6133
2026-01-26 18:02:28.70	11.83	12.84	-40.6	-41.9	20.5	0.00e+00	0	30	0	312475648	54	6378
2026-01-26 18:02:29.71	11.67	12.89	-40.5	-41.7	20.7	0.00e+00	0	30	0	314572800	54	6243
2026-01-26 18:02:30.72	11.50	12.95	-40.4	-41.7	20.8	0.00e+00	0	30	0	316669952	54	6176
2026-01-26 18:02:31.73	11.34	13.01	-40.2	-41.4	21.0	0.00e+00	0	30	0	318767104	54	6032
2026-01-26 18:02:32.74	11.18	13.06	-40.1	-41.3	21.1	0.00e+00	56	30	0	320864256	54	5904
2026-01-26 18:02:33.75	11.01	13.12	-40.0	-41.2	21.2	0.00e+00	0	30	0	321912832	54	5864
2026-01-26 18:02:34.76	10.85	13.18	-40.0	-41.2	21.2	0.00e+00	92	30	0	324009984	54	5836
2026-01-26 18:02:35.77	10.68	13.23	-40.3	-41.5	21.0	0.00e+00	0	30	0	326107136	54	6089
2026-01-26 18:02:36.78	10.52	13.29	-40.6	-41.9	20.7	0.00e+00	0	30	0	328204288	54	6347
2026-01-26 18:02:37.79	10.35	13.35	-40.6	-41.9	20.6	0.00e+00	0	30	0	330301440	54	6362
2026-01-26 18:02:38.80	10.18	13.40	-40.5	-41.8	20.7	0.00e+00	0	30	0	332398592	54	6257
2026-01-26 18:02:39.80	10.01	13.46	-40.2	-41.4	20.9	0.00e+00	57	30	0	333447168	54	5992
2026-01-26 18:02:40.81	9.84	13.51	-39.8	-41.0	21.2	0.00e+00	0	30	0	335544320	54	5719
2026-01-26 18:02:41.82	9.68	13.57	-39.7	-40.9	21.4	0.00e+00	92	30	0	337641472	52	6336
2026-01-26 18:02:42.83	9.51	13.63	-39.8	-40.9	21.6	0.00e+00	0	30	0	339738624	52	6364
2026-01-26 18:02:43.84	9.33	13.68	-39.6	-40.7	21.7	0.00e+00	0	30	0	341835776	52	6230
2026-01-26 18:02:44.85	9.16	13.74	-39.7	-40.8	21.6	0.00e+00	0	30	0	342884352	52	6306
2026-01-26 18:02:45.86	8.99	13.79	-39.4	-40.5	21.9	0.00e+00	0	30	0	344981504	52	6039
2026-01-26 18:02:46.87	8.82	13.85	-39.0	-40.0	22.3	0.00e+00	0	30	0	347078656	52	5741
2026-01-26 18:02:47.88	8.64	13.90	-39.1	-40.1	22.2	0.00e+00	0	30	0	349175808	52	5812
2026-01-26 18:02:48.89	8.47	13.96	-38.8	-39.8	22.5	0.00e+00	90	30	0	351272960	52	5585
2026-01-26 18:02:49.90	8.30	14.01	-38.4	-39.3	22.8	0.00e+00	0	30	0	352321536	50	5945
2026-01-26 18:02:50.91	8.12	14.07	-38.4	-39.4	22.7	0.00e+00	0	30	0	354418688	50	6018
2026-01-26 18:02:51.92	7.94	14.12	-38.5	-39.5	22.7	0.00e+00	0	30	0	356515840	50	6083
2026-01-26 18:02:52.93	7.77	14.17	-38.6	-39.5	22.6	0.00e+00	0	30	0	358612992	50	6103
2026-01-26 18:02:53.94	7.59	14.23	-38.5	-39.5	22.7	0.00e+00	60	30	0	360710144	50	6086
2026-01-26 18:02:54.95	7.41	14.28	-38.4	-39.4	22.8	0.00e+00	0	30	0	361758720	50	6004
2026-01-26 18:02:55.96	7.23	14.34	-38.4	-39.4	22.7	0.00e+00	92	30	0	363855872	50	5994
2026-01-26 18:02:56.97	7.05	14.39	-38.3	-39.3	22.8	0.00e+00	0	30	0	365953024	50	5943
2026-01-26 18:02:57.98	6.87	14.44	-38.3	-39.3	22.6	0.00e+00	92	30	0	368050176	50	5938
2026-01-26 18:02:58.99	6.69	14.50	-38.3	-39.3	22.7	0.00e+00	0	30	0	370147328	50	5937
2026-01-26 18:02:59.99	6.51	14.55	-38.4	-39.4	22.7	0.00e+00	0	30	0	371195904	50	5967
2026-01-26 18:03:01.00	6.33	14.60	-38.3	-39.3	22.8	0.00e+00	0	30	0	373293056	50	5938
2026-01-26 18:03:02.01	6.15	14.66	-38.2	-39.2	22.9	0.00e+00	0	30	0	375390208	50	5854
2026-01-26 18:03:03.02	5.96	14.71	-38.1	-39.0	23.0	0.00e+00	90	30	0	377487360	50	5755
2026-01-26 18:03:04.03	5.78	14.76	-38.0	-39.0	23.1	0.00e+00	0	30	0	379584512	50	5700
2026-01-26 18:03:05.03	5.60	14.81	-38.1	-39.0	23.0	0.00e+00	70	30	0	380633088	50	5746
2026-01-26 18:03:06.04	5.41	14.86	-38.1	-39.1	23.0	0.00e+00	0	30	0	382730240	50	5780
2026-01-26 18:03:07.05	5.23	14.92	-38.3	-39.2	22.8	0.00e+00	0	30	0	384827392	50	5895
2026-01-26 18:03:08.06	5.04	14.97	-38.5	-39.5	22.6	0.00e+00	0	30	0	386924544	50	6091
2026-01-26 18:03:09.07	4.85	15.02	-38.8	-39.8	22.4	0.00e+00	0	30	0	389021696	50	6285
2026-01-26 18:03:10.08	4.66	15.07	-38.7	-39.7	22.5	0.00e+00	34	30	0	390070272	50	6226
2026-01-26 18:03:11.09	4.48	15.12	-38.7	-39.7	22.5	0.00e+00	0	30	0	392167424	50	6223
2026-01-26 18:03:12.10	4.29	15.17	-38.8	-39.9	22.3	0.00e+00	92	30	0	394264576	50	6332
2026-01-26 18:03:13.11	4.10	15.22	-38.7	-39.8	22.5	0.00e+00	0	30	0	396361728	50	6256
2026-01-26 18:03:14.12	3.91	15.27	-38.6	-39.7	22.5	0.00e+00	0	30	0	398458880	50	6189
2026-01-26 18:03:15.13	3.71	15.32	-38.6	-39.7	22.6	0.00e+00	0	30	0	399507456	50	6204
2026-01-26 18:03:16.14	3.52	15.37	-38.6	-39.7	22.5	0.00e+00	0	30	0	401604608	50	6194
2026-01-26 18:03:17.15	3.33	15.42	-38.3	-39.3	22.8	0.00e+00	42	30	0	403701760	50	5962
2026-01-26 18:03:18.16	3.14	15.47	-38.3	-39.3	22.9	0.00e+00	0	30	0	405798912	50	5915
2026-01-26 18:03:19.16	2.95	15.52	-37.8	-38.8	23.4	0.00e+00	92	30	0	407896064	50	5571
2026-01-26 18:03:20.17	2.75	15.57	-37.5	-38.4	23.6	0.00e+00	0	30	0	408944640	48	6014
2026-01-26 18:03:21.18	2.56	15.62	-37.5	-38.4	23.6	0.00e+00	0	30	0	411041792	48	6020
2026-01-26 18:03:22.19	2.36	15.67	-37.3	-38.2	23.8	0.00e+00	0	30	0	413138944	48	5868
2026-01-26 18:03:23.20	2.16	15.72	-37.4	-38.3	23.6	0.00e+00	0	30	0	415236096	48	5920
2026-01-26 18:03:24.21	1.97	15.77	-37.6	-38.5	23.5	0.00e+00	57	30	0	417333248	48	6075
2026-01-26 18:03:25.22	1.77	15.81	-37.5	-38.4	23.6	0.00e+00	33	30	0	418381824	48	5999
2026-01-26 18:03:26.23	1.57	15.86	-37.6	-38.5	23.5	0.00e+00	92	30	0	420478976	48	6046
2026-01-26 18:03:27.24	1.37	15.91	-37.5	-38.4	23.3	0.00e+00	0	30	0	422576128	48	6018
2026-01-26 18:03:28.24	1.17	15.95	-37.6	-38.5	23.4	0.00e+00	0	30	0	424673280	48	6052
2026-01-26 18:03:29.25	0.97	16.00	-37.7	-38.6	23.4	0.00e+00	0	30	0	426770432	48	6132
2026-01-26 18:03:30.26	0.77	16.05	-37.8	-38.7	23.4	0.00e+00	0	30	0	428867584	48	6193
2026-01-26 18:03:31.27	0.57	16.09	-37.8	-38.7	23.3	0.00e+00	0	30	0	429916160	48	6228
2026-01-26 18:03:32.28	0.37	16.14	-37.7	-38.6	23.4	0.00e+00	0	30	0	432013312	48	6152
2026-01-26 18:03:33.29	0.17	16.19	-37.9	-38.9	23.4	0.00e+00	92	30	0	434110464	48	6347
2026-01-26 18:03:34.30	359.96	16.23	-37.7	-38.7	23.5	0.00e+00	0	30	0	436207616	48	6177
2026-01-26 18:03:35.31	359.76	16.28	-37.7	-38.6	23.5	0.00e+00	92	30	0	438304768	48	6159
2026-01-26 18:03:36.32	359.55	16.32	-37.8	-38.8	23.4	0.00e+00	0	30	0	439353344	48	6255
2026-01-26 18:03:37.32	359.35	16.37	-37.8	-38.7	23.4	0.00e+00	0	30	0	441450496	48	6237
2026-01-26 18:03:38.33	359.14	16.41	-37.5	-38.4	23.5	0.00e+00	0	30	0	443547648	48	6024
2026-01-26 18:03:39.35	358.94	16.45	-37.4	-38.3	23.6	0.00e+00	0	30	0	445644800	48	5956
2026-01-26 18:03:40.36	358.73	16.50	-37.5	-38.3	23.6	0.00e+00	58	30	0	447741952	48	5962
2026-01-26 18:03:41.36	358.52	16.54	-37.4	-38.3	23.6	0.00e+00	0	30	0	448790528	48	5904
2026-01-26 18:03:42.38	358.31	16.58	-37.1	-38.0	23.8	0.00e+00	62	30	0	450887680	48	5731
2026-01-26 18:03:43.38	358.11	16.63	-37.3	-38.2	23.7	0.00e+00	0	30	0	452984832	48	5843
2026-01-26 18:03:44.39	357.90	16.67	-37.4	-38.3	23.6	0.00e+00	0	30	0	455081984	48	5953
2026-01-26 18:03:45.40	357.69	16.71	-37.6	-38.6	23.5	0.00e+00	0	30	0	457179136	48	6113
2026-01-26 18:03:46.41	357.48	16.75	-37.6	-38.5	23.5	0.00e+00	0	30	0	458227712	48	6063
2026-01-26 18:03:47.42	357.26	16.80	-37.4	-38.3	23.6	0.00e+00	61	30	0	460324864	48	5958
2026-01-26 18:03:48.43	357.05	16.84	-37.4	-38.3	23.8	0.00e+00	0	30	0	462422016	48	5918
2026-01-26 18:03:49.43	356.84	16.88	-37.7	-38.6	23.6	0.00e+00	75	30	0	464519168	48	6117
2026-01-26 18:03:50.44	356.63	16.92	-37.6	-38.5	23.6	0.00e+00	0	30	0	466616320	48	6101
2026-01-26 18:03:51.45	356.41	16.96	-37.9	-38.8	23.3	0.00e+00	0	30	0	467664896	48	6286
2026-01-26 18:03:52.46	356.20	17.00	-38.1	-39.1	22.8	0.00e+00	0	30	0	469762048	48	6471
2026-01-26 18:03:53.47	355.99	17.04	-38.4	-39.4	22.9	0.00e+00	0	30	0	471859200	48	6741
2026-01-26 18:03:54.47	355.77	17.08	-38.1	-39.0	23.1	0.00e+00	0	30	0	473956352	48	6458
2026-01-26 18:03:55.48	355.56	17.11	-38.0	-39.0	23.2	0.00e+00	0	30	0	476053504	48	6435
2026-01-26 18:03:56.49	355.34	17.15	-38.0	-39.0	23.1	0.00e+00	64	30	0	477102080	48	6447
2026-01-26 18:03:57.50	355.12	17.19	-37.9	-39.0	23.1	0.00e+00	0	30	0	479199232	48	6392
2026-01-26 18:03:58.51	354.91	17.23	-37.9	-38.9	23.2	0.00e+00	0	30	0	481296384	48	6363
2026-01-26 18:03:59.52	354.69	17.27	-37.7	-38.7	23.5	0.00e+00	0	30	0	483393536	48	6193
2026-01-26 18:04:00.53	354.47	17.30	-37.4	-38.3	23.7	0.00e+00	0	30	0	485490688	48	5955
2026-01-26 18:04:01.54	354.25	17.34	-37.3	-38.2	23.8	0.00e+00	0	30	0	486539264	48	5868
2026-01-26 18:04:02.55	354.03	17.38	-37.0	-37.8	24.0	0.00e+00	0	30	0	488636416	48	5619
2026-01-26 18:04:03.56	353.81	17.41	-36.8	-37.7	24.0	0.00e+00	91	30	0	490733568	48	5514
2026-01-26 18:04:04.57	353.59	17.45	-36.7	-37.5	23.7	0.00e+00	0	30	0	492830720	46	6086
2026-01-26 18:04:05.58	353.37	17.48	-36.8	-37.7	23.9	0.00e+00	22	30	0	494927872	46	6191
2026-01-26 18:04:06.59	353.15	17.52	-36.8	-37.6	24.1	0.00e+00	0	30	0	495976448	46	6128
2026-01-26 18:04:07.60	352.92	17.55	-37.0	-37.9	23.9	0.00e+00	0	30	0	498073600	46	6326
2026-01-26 18:04:08.61	352.70	17.58	-36.8	-37.7	24.2	0.00e+00	0	30	0	500170752	46	6215
2026-01-26 18:04:09.62	352.48	17.62	-36.6	-37.4	24.3	0.00e+00	0	30	0	502267904	46	6023
2026-01-26 18:04:10.63	352.25	17.65	-36.6	-37.4	24.4	0.00e+00	72	30	0	504365056	46	5983
2026-01-26 18:04:11.63	352.03	17.68	-36.7	-37.5	24.3	0.00e+00	0	30	0	505413632	46	6090
2026-01-26 18:04:12.64	351.81	17.72	-37.0	-37.9	23.9	0.00e+00	55	30	0	507510784	46	6329
2026-01-26 18:04:13.65	351.58	17.75	-37.2	-38.1	23.8	0.00e+00	0	30	0	509607936	46	6504
2026-01-26 18:04:14.66	351.35	17.78	-37.4	-38.3	23.7	0.00e+00	0	30	0	511705088	46	6687
2026-01-26 18:04:15.67	351.13	17.81	-37.3	-38.2	23.6	0.00e+00	0	30	0	513802240	46	6588
2026-01-26 18:04:16.68	350.90	17.84	-37.7	-38.6	23.2	0.00e+00	0	30	0	514850816	48	6155
2026-01-26 18:04:17.69	350.67	17.87	-37.8	-38.8	23.3	0.00e+00	54	30	0	516947968	48	6247
2026-01-26 18:04:18.70	350.45	17.90	-37.4	-38.3	23.7	0.00e+00	0	30	0	519045120	48	5950
2026-01-26 18:04:19.71	350.22	17.93	-37.8	-38.7	23.3	0.00e+00	90	30	0	521142272	48	6240
2026-01-26 18:04:20.72	349.99	17.96	-38.0	-39.0	23.1	0.00e+00	0	30	0	523239424	48	6416
2026-01-26 18:04:21.73	349.76	17.99	-38.2	-39.2	23.0	0.00e+00	0	30	0	525336576	48	6548
2026-01-26 18:04:22.73	349.53	18.01	-38.2	-39.2	23.1	0.00e+00	0	30	0	526385152	48	6552
2026-01-26 18:04:23.74	349.30	18.04	-38.1	-39.0	23.3	0.00e+00	0	30	0	528482304	48	6453
2026-01-26 18:04:24.75	349.07	18.07	-37.7	-38.7	23.4	0.00e+00	8	30	0	530579456	48	6177
2026-01-26 18:04:25.76	348.84	18.09	-37.7	-38.6	23.5	0.00e+00	0	30	0	532676608	48	6138
2026-01-26 18:04:26.77	348.61	18.12	-37.7	-38.6	23.4	0.00e+00	92	30	0	534773760	48	6140
2026-01-26 18:04:27.78	348.38	18.15	-37.9	-38.8	23.1	0.00e+00	0	30	0	535822336	48	6283
2026-01-26 18:04:28.79	348.15	18.17	-38.2	-39.2	22.8	0.00e+00	0	30	0	537919488	48	6553
2026-01-26 18:04:29.79	347.92	18.20	-38.3	-39.3	22.9	0.00e+00	0	30	0	540016640	48	6679
2026-01-26 18:04:30.80	347.69	18.22	-38.4	-39.4	22.9	0.00e+00	0	30	0	542113792	48	6696
2026-01-26 18:04:31.81	347.45	18.24	-38.3	-39.3	23.1	0.00e+00	58	30	0	544210944	48	6634
2026-01-26 18:04:32.82	347.22	18.27	-37.9	-38.9	23.3	0.00e+00	0	30	0	545259520	48	6335
2026-01-26 18:04:33.83	346.99	18.29	-37.8	-38.8	23.3	0.00e+00	58	30	0	547356672	48	6256
2026-01-26 18:04:34.84	346.75	18.31	-38.1	-39.0	23.2	0.00e+00	0	30	0	549453824	48	6448
2026-01-26 18:04:35.85	346.52	18.33	-37.8	-38.8	23.5	0.00e+00	37	30	0	551550976	48	6247
2026-01-26 18:04:36.86	346.28	18.36	-38.0	-39.0	23.4	0.00e+00	0	30	0	553648128	48	6411
2026-01-26 18:04:37.87	346.05	18.38	-38.0	-38.9	23.3	0.00e+00	0	30	0	554696704	48	6378
2026-01-26 18:04:38.88	345.81	18.40	-37.8	-38.7	23.4	0.00e+00	0	30	0	556793856	48	6232
2026-01-26 18:04:39.88	345.58	18.42	-37.9	-38.8	23.5	0.00e+00	0	30	0	558891008	48	6293
2026-01-26 18:04:40.89	345.34	18.44	-37.8	-38.7	23.3	0.00e+00	58	30	0	560988160	48	6221
2026-01-26 18:04:41.90	345.10	18.46	-38.3	-39.2	23.0	0.00e+00	0	30	0	563085312	48	6597
2026-01-26 18:04:42.91	344.87	18.47	-38.1	-39.1	23.2	0.00e+00	72	30	0	564133888	48	6478
2026-01-26 18:04:43.92	344.63	18.49	-38.4	-39.4	22.9	0.00e+00	0	30	0	566231040	48	6722
2026-01-26 18:04:44.93	344.39	18.51	-38.5	-39.5	22.9	0.00e+00	0	30	0	568328192	48	6830
2026-01-26 18:04:45.94	344.16	18.53	-38.4	-39.4	22.9	0.00e+00	0	30	0	570425344	48	6697
2026-01-26 18:04:46.95	343.92	18.54	-38.5	-39.5	22.9	0.00e+00	0	30	0	572522496	48	6822
2026-01-26 18:04:47.96	343.68	18.56	-38.7	-39.7	22.7	0.00e+00	13	30	0	573571072	50	6186
2026-01-26 18:04:48.97	343.44	18.58	-38.6	-39.5	22.8	0.00e+00	0	30	0	575668224	50	6099
2026-01-26 18:04:49.98	343.20	18.59	-38.6	-39.6	22.6	0.00e+00	61	30	0	577765376	50	6156
2026-01-26 18:04:50.99	342.96	18.61	-39.0	-40.1	22.2	0.00e+00	0	30	0	579862528	50	6488
2026-01-26 18:04:52.00	342.73	18.62	-39.5	-40.6	21.8	0.00e+00	0	30	0	581959680	50	6884
2026-01-26 18:04:53.01	342.49	18.63	-40.0	-41.2	21.3	0.00e+00	0	30	0	583008256	52	6554
2026-01-26 18:04:54.02	342.25	18.65	-40.4	-41.6	21.0	0.00e+00	0	30	0	585105408	52	6916
2026-01-26 18:04:55.03	342.01	18.66	-40.2	-41.4	21.2	0.00e+00	61	30	0	587202560	52	6765
2026-01-26 18:04:56.04	341.77	18.67	-39.8	-40.9	21.7	0.00e+00	0	30	0	589299712	52	6379
2026-01-26 18:04:57.05	341.53	18.68	-39.5	-40.6	22.0	0.00e+00	78	30	0	591396864	52	6119
2026-01-26 18:04:58.06	341.29	18.69	-39.1	-40.2	22.3	0.00e+00	0	30	0	593494016	52	5851
2026-01-26 18:04:59.07	341.05	18.70	-39.3	-40.4	22.1	0.00e+00	0	30	0	594542592	52	5999
2026-01-26 18:05:00.07	340.81	18.71	-38.7	-39.7	22.7	0.00e+00	0	30	0	596639744	50	6208
2026-01-26 18:05:01.08	340.57	18.72	-38.7	-39.7	22.5	0.00e+00	0	30	0	598736896	50	6228
2026-01-26 18:05:02.09	340.33	18.73	-38.7	-39.7	22.6	0.00e+00	49	30	0	600834048	50	6196
2026-01-26 18:05:03.10	340.09	18.74	-39.0	-40.0	22.4	0.00e+00	0	30	0	602931200	50	6461
2026-01-26 18:05:04.11	339.84	18.75	-39.0	-40.1	22.4	0.00e+00	32	30	0	603979776	50	6500
2026-01-26 18:05:05.11	339.61	18.75	-38.9	-40.0	22.4	0.00e+00	0	30	0	606076928	50	6430
2026-01-26 18:05:06.12	339.36	18.76	-38.9	-39.9	22.5	0.00e+00	0	30	0	608174080	50	6377
2026-01-26 18:05:07.14	339.12	18.77	-38.3	-39.3	22.9	0.00e+00	0	30	0	610271232	50	5924
2026-01-26 18:05:08.15	338.88	18.77	-38.3	-39.3	22.9	0.00e+00	0	30	0	612368384	50	5921
2026-01-26 18:05:09.16	338.64	18.78	-38.1	-39.1	23.1	0.00e+00	0	30	0	613416960	50	5784
2026-01-26 18:05:10.16	338.40	18.78	-37.8	-38.8	23.3	0.00e+00	0	30	0	615514112	50	5609
2026-01-26 18:05:11.17	338.16	18.79	-37.9	-38.9	23.1	0.00e+00	90	30	0	617611264	50	5648
2026-01-26 18:05:12.19	337.91	18.79	-38.0	-39.0	23.2	0.00e+00	0	30	0	619708416	50	5738
2026-01-26 18:05:13.20	337.67	18.79	-38.3	-39.4	22.9	0.00e+00	0	30	0	621805568	50	5981
2026-01-26 18:05:14.20	337.43	18.80	-38.0	-39.0	23.1	0.00e+00	0	30	0	622854144	50	5744
2026-01-26 18:05:15.22	337.19	18.80	-38.3	-39.3	22.9	0.00e+00	0	30	0	624951296	50	5921
2026-01-26 18:05:16.23	336.94	18.80	-38.4	-39.4	22.8	0.00e+00	33	30	0	627048448	50	6027
2026-01-26 18:05:17.24	336.70	18.80	-38.5	-39.5	22.7	0.00e+00	0	30	0	629145600	50	6101
2026-01-26 18:05:18.25	336.46	18.80	-38.5	-39.6	22.8	0.00e+00	48	30	0	631242752	50	6127
2026-01-26 18:05:19.26	336.22	18.80	-38.3	-39.3	22.9	0.00e+00	0	30	0	632291328	50	5944
2026-01-26 18:05:20.27	335.98	18.80	-38.2	-39.2	23.0	0.00e+00	90	30	0	634388480	50	5869
2026-01-26 18:05:21.28	335.73	18.80	-38.3	-39.3	23.0	0.00e+00	0	30	0	636485632	50	5921
2026-01-26 18:05:22.28	335.49	18.80	-38.4	-39.4	22.9	0.00e+00	0	30	0	638582784	50	6027
2026-01-26 18:05:23.29	335.25	18.79	-38.2	-39.2	23.1	0.00e+00	0	30	0	640679936	50	5839
2026-01-26 18:05:24.30	335.01	18.79	-38.0	-39.0	23.2	0.00e+00	0	30	0	641728512	50	5704
2026-01-26 18:05:25.31	334.77	18.79	-38.0	-38.9	23.3	0.00e+00	60	30	0	643825664	50	5695
2026-01-26 18:05:26.32	334.53	18.79	-37.9	-38.9	23.4	0.00e+00	0	30	0	645922816	50	5653
2026-01-26 18:05:27.33	334.28	18.78	-37.8	-38.7	23.4	0.00e+00	92	30	0	648019968	48	6204
2026-01-26 18:05:28.34	334.04	18.78	-37.9	-38.8	23.3	0.00e+00	0	30	0	650117120	48	6275
2026-01-26 18:05:29.35	333.80	18.77	-38.1	-39.1	23.1	0.00e+00	0	30	0	651165696	48	6475
2026-01-26 18:05:30.36	333.56	18.76	-38.5	-39.5	22.8	0.00e+00	0	30	0	653262848	48	6784
2026-01-26 18:05:31.36	333.32	18.76	-38.6	-39.6	22.6	0.00e+00	0	30	0	655360000	48	6876
2026-01-26 18:05:32.37	333.08	18.75	-39.0	-40.0	22.2	0.00e+00	56	30	0	657457152	50	6445
2026-01-26 18:05:33.38	332.84	18.74	-39.3	-40.4	21.8	0.00e+00	0	30	0	659554304	50	6744
2026-01-26 18:05:34.39	332.60	18.74	-39.4	-40.5	22.0	0.00e+00	91	30	0	661651456	50	6787
2026-01-26 18:05:35.40	332.36	18.73	-39.2	-40.3	22.1	0.00e+00	0	30	0	662700032	50	6638
2026-01-26 18:05:36.41	332.11	18.72	-38.9	-39.9	22.5	0.00e+00	0	30	0	664797184	50	6388
2026-01-26 18:05:37.42	331.87	18.71	-38.4	-39.4	22.9	0.00e+00	0	30	0	666894336	50	6000
2026-01-26 18:05:38.43	331.63	18.70	-38.3	-39.3	22.9	0.00e+00	0	30	0	668991488	50	5935
2026-01-26 18:05:39.44	331.39	18.69	-38.1	-39.0	23.2	0.00e+00	54	30	0	671088640	50	5727
2026-01-26 18:05:40.45	331.15	18.68	-37.6	-38.5	23.6	0.00e+00	0	30	0	672137216	48	6040
2026-01-26 18:05:41.46	330.91	18.66	-37.4	-38.3	23.5	0.00e+00	92	30	0	674234368	48	5916
2026-01-26 18:05:42.47	330.67	18.65	-37.7	-38.6	23.6	0.00e+00	0	30	0	676331520	48	6128
2026-01-26 18:05:43.48	330.43	18.64	-37.7	-38.6	23.4	0.00e+00	82	30	0	678428672	48	6130
2026-01-26 18:05:44.48	330.20	18.63	-37.9	-38.8	23.4	0.00e+00	0	30	0	679477248	48	6315
2026-01-26 18:05:45.49	329.96	18.61	-38.0	-39.0	23.2	0.00e+00	0	30	0	681574400	48	6400
2026-01-26 18:05:46.50	329.72	18.60	-37.8	-38.7	23.3	0.00e+00	0	30	0	683671552	48	6205
2026-01-26 18:05:47.51	329.48	18.58	-37.7	-38.6	23.3	0.00e+00	0	30	0	685768704	48	6166
2026-01-26 18:05:48.52	329.24	18.57	-37.6	-38.5	23.6	0.00e+00	52	30	0	687865856	48	6072
2026-01-26 18:05:49.53	329.00	18.55	-37.6	-38.5	23.7	0.00e+00	0	30	0	689963008	48	6071
2026-01-26 18:05:50.54	328.76	18.54	-37.6	-38.5	23.5	0.00e+00	92	29	0	691011584	48	6097
2026-01-26 18:05:51.55	328.53	18.52	-38.0	-38.9	23.3	0.00e+00	0	29	0	693108736	48	6363
2026-01-26 18:05:52.56	328.29	18.50	-37.8	-38.7	23.4	0.00e+00	0	29	0	695205888	48	6213
2026-01-26 18:05:53.57	328.05	18.48	-37.4	-38.3	23.7	0.00e+00	0	30	0	697303040	48	5950
2026-01-26 18:05:54.58	327.81	18.47	-37.4	-38.3	23.5	0.00e+00	0	30	0	699400192	48	5898
2026-01-26 18:05:55.59	327.58	18.45	-37.2	-38.1	23.9	0.00e+00	52	29	0	700448768	48	5788
2026-01-26 18:05:56.60	327.34	18.43	-37.1	-38.0	23.9	0.00e+00	0	30	0	702545920	48	5740
2026-01-26 18:05:57.61	327.11	18.41	-37.1	-38.0	23.9	0.00e+00	55	29	0	704643072	48	5713
2026-01-26 18:05:58.62	326.87	18.39	-37.1	-37.9	24.0	0.00e+00	0	30	0	706740224	48	5690
2026-01-26 18:05:59.63	326.63	18.37	-36.8	-37.6	24.2	0.00e+00	0	30	0	708837376	48	5500
2026-01-26 18:06:00.64	326.40	18.35	-36.9	-37.7	24.1	0.00e+00	0	30	0	709885952	48	5554
2026-01-26 18:06:01.65	326.16	18.32	-37.0	-37.8	24.1	0.00e+00	0	30	0	711983104	48	5603
2026-01-26 18:06:02.65	325.93	18.30	-36.9	-37.7	24.2	0.00e+00	47	30	0	714080256	48	5544
2026-01-26 18:06:03.66	325.70	18.28	-36.9	-37.7	24.1	0.00e+00	0	30	0	716177408	48	5556
2026-01-26 18:06:04.67	325.46	18.26	-36.9	-37.8	24.0	0.00e+00	58	30	0	718274560	48	5582
2026-01-26 18:06:05.68	325.23	18.23	-37.2	-38.1	23.6	0.00e+00	0	30	0	719323136	48	5775
2026-01-26 18:06:06.69	325.00	18.21	-37.0	-37.8	24.1	0.00e+00	0	29	0	721420288	48	5611
2026-01-26 18:06:07.69	324.77	18.18	-37.3	-38.2	23.8	0.00e+00	0	29	0	723517440	48	5848
2026-01-26 18:06:08.70	324.54	18.16	-37.2	-38.1	23.9	0.00e+00	0	29	0	725614592	48	5792
2026-01-26 18:06:09.71	324.30	18.13	-37.4	-38.3	23.7	0.00e+00	60	29	0	727711744	48	5934
2026-01-26 18:06:10.72	324.07	18.11	-37.6	-38.6	23.6	0.00e+00	0	29	0	728760320	48	6107
2026-01-26 18:06:11.73	323.84	18.08	-37.7	-38.6	23.5	0.00e+00	92	29	0	730857472	48	6130
2026-01-26 18:06:12.74	323.61	18.05	-38.0	-38.9	23.2	0.00e+00	0	29	0	732954624	48	6369
2026-01-26 18:06:13.75	323.38	18.03	-37.8	-38.8	23.4	0.00e+00	0	30	0	735051776	48	6254
2026-01-26 18:06:14.76	323.15	18.00	-37.8	-38.8	23.4	0.00e+00	0	29	0	737148928	48	6251
2026-01-26 18:06:15.77	322.92	17.97	-37.9	-38.8	23.4	0.00e+00	0	29	0	738197504	48	6291
2026-01-26 18:06:16.78	322.69	17.94	-37.9	-38.9	23.2	0.00e+00	57	30	0	740294656	48	6319
2026-01-26 18:06:17.79	322.46	17.91	-38.2	-39.1	23.0	0.00e+00	0	30	0	742391808	48	6536
2026-01-26 18:06:18.80	322.24	17.88	-38.6	-39.6	22.6	0.00e+00	90	30	0	744488960	48	6855
2026-01-26 18:06:19.81	322.01	17.85	-38.9	-39.9	22.6	0.00e+00	0	29	0	746586112	50	6364
2026-01-26 18:06:20.82	321.78	17.82	-38.8	-39.8	22.4	0.00e+00	17	29	0	747634688	50	6306
2026-01-26 18:06:21.83	321.55	17.79	-39.0	-40.0	22.4	0.00e+00	0	30	0	749731840	50	6438
2026-01-26 18:06:22.83	321.33	17.76	-38.9	-39.9	22.5	0.00e+00	0	30	0	751828992	50	6357
2026-01-26 18:06:23.84	321.10	17.73	-38.8	-39.8	22.7	0.00e+00	0	30	0	753926144	50	6268
2026-01-26 18:06:24.85	320.88	17.70	-39.1	-40.1	22.5	0.00e+00	0	30	0	756023296	50	6512
2026-01-26 18:06:25.86	320.65	17.67	-38.8	-39.8	22.6	0.00e+00	47	30	0	757071872	50	6276
2026-01-26 18:06:26.87	320.43	17.63	-38.5	-39.5	22.8	0.00e+00	0	30	0	759169024	50	6047
2026-01-26 18:06:27.88	320.21	17.60	-38.8	-39.8	22.6	0.00e+00	92	29	0	761266176	50	6282
2026-01-26 18:06:28.89	319.98	17.57	-38.9	-39.9	22.6	0.00e+00	0	29	0	763363328	50	6339
2026-01-26 18:06:29.90	319.76	17.53	-38.9	-39.9	22.7	0.00e+00	0	29	0	765460480	50	6353
2026-01-26 18:06:30.91	319.54	17.50	-38.9	-39.9	22.6	0.00e+00	0	29	0	767557632	50	6361
2026-01-26 18:06:31.92	319.32	17.46	-38.7	-39.7	22.7	0.00e+00	0	29	0	768606208	50	6184
2026-01-26 18:06:32.93	319.09	17.43	-38.7	-39.7	22.7	0.00e+00	59	29	0	770703360	50	6183
2026-01-26 18:06:33.93	318.88	17.39	-39.0	-40.0	22.5	0.00e+00	0	29	0	772800512	50	6422
2026-01-26 18:06:34.94	318.66	17.36	-39.4	-40.4	22.2	0.00e+00	90	29	0	774897664	50	6759
2026-01-26 18:06:35.96	318.43	17.32	-39.2	-40.3	22.0	0.00e+00	0	29	0	776994816	50	6640
2026-01-26 18:06:36.96	318.22	17.28	-39.3	-40.3	22.2	0.00e+00	0	29	0	778043392	50	6654
2026-01-26 18:06:37.98	318.00	17.25	-39.5	-40.6	22.0	0.00e+00	0	29	0	780140544	50	6871
2026-01-26 18:06:38.98	317.78	17.21	-39.4	-40.5	22.1	0.00e+00	0	29	0	782237696	50	6798
2026-01-26 18:06:40.00	317.56	17.17	-39.1	-40.1	22.3	0.00e+00	5	29	0	784334848	50	6501
2026-01-26 18:06:41.01	317.34	17.13	-39.1	-40.1	22.5	0.00e+00	0	29	0	786432000	50	6476
2026-01-26 18:06:42.01	317.13	17.09	-38.8	-39.8	22.7	0.00e+00	92	29	0	787480576	50	6250
2026-01-26 18:06:43.02	316.91	17.06	-38.8	-39.8	22.7	0.00e+00	0	29	0	789577728	50	6274
2026-01-26 18:06:44.03	316.70	17.02	-38.6	-39.6	22.8	0.00e+00	0	29	0	791674880	50	6144
2026-01-26 18:06:45.05	316.48	16.98	-38.6	-39.5	22.8	0.00e+00	0	29	0	793772032	50	6096
2026-01-26 18:06:46.06	316.27	16.94	-38.7	-39.6	22.8	0.00e+00	0	29	0	795869184	50	6163
2026-01-26 18:06:47.07	316.05	16.90	-38.5	-39.4	22.9	0.00e+00	34	29	0	796917760	50	6033
2026-01-26 18:06:48.08	315.84	16.85	-38.5	-39.5	22.9	0.00e+00	0	29	0	799014912	50	6052
2026-01-26 18:06:49.08	315.63	16.81	-38.6	-39.5	22.9	0.00e+00	48	29	0	801112064	50	6075
2026-01-26 18:06:50.09	315.42	16.77	-38.4	-39.3	23.1	0.00e+00	0	29	0	803209216	50	5924
2026-01-26 18:06:51.10	315.21	16.73	-38.4	-39.4	23.1	0.00e+00	0	29	0	805306368	50	5980
2026-01-26 18:06:52.11	315.00	16.69	-38.3	-39.2	23.0	0.00e+00	0	29	0	806354944	50	5861
2026-01-26 18:06:53.12	314.79	16.65	-38.0	-38.9	22.9	0.00e+00	0	29	0	808452096	50	5688
2026-01-26 18:06:54.13	314.58	16.60	-37.9	-38.8	23.3	0.00e+00	0	29	0	810549248	50	5577
2026-01-26 18:06:55.14	314.37	16.56	-37.7	-38.5	23.7	0.00e+00	0	29	0	812646400	48	6089
2026-01-26 18:06:56.15	314.16	16.52	-37.5	-38.4	23.7	0.00e+00	92	29	0	814743552	48	6001
2026-01-26 18:06:57.16	313.95	16.47	-37.5	-38.4	23.7	0.00e+00	33	29	0	815792128	48	5997
2026-01-26 18:06:58.17	313.74	16.43	-37.9	-38.7	23.6	0.00e+00	92	29	0	817889280	48	6235
2026-01-26 18:06:59.18	313.54	16.39	-38.0	-38.9	23.3	0.00e+00	0	29	0	819986432	48	6372
2026-01-26 18:07:00.18	313.33	16.34	-37.7	-38.6	23.6	0.00e+00	0	29	0	822083584	48	6122
2026-01-26 18:07:01.19	313.13	16.30	-37.8	-38.6	23.6	0.00e+00	9	29	0	824180736	48	6157
2026-01-26 18:07:02.20	312.92	16.25	-37.9	-38.8	23.4	0.00e+00	0	29	0	825229312	48	6259
2026-01-26 18:07:03.21	312.72	16.21	-38.1	-39.1	23.2	0.00e+00	60	29	0	827326464	48	6468
2026-01-26 18:07:04.22	312.52	16.16	-38.6	-39.6	22.8	0.00e+00	0	29	0	829423616	48	6869
2026-01-26 18:07:05.23	312.31	16.12	-39.1	-40.1	22.4	0.00e+00	92	29	0	831520768	50	6511
2026-01-26 18:07:06.24	312.11	16.07	-39.6	-40.7	21.6	0.00e+00	0	29	0	833617920	52	6239
2026-01-26 18:07:07.25	311.91	16.02	-39.9	-41.0	21.6	0.00e+00	0	29	0	835715072	52	6438
2026-01-26 18:07:08.26	311.71	15.98	-40.0	-41.1	21.6	0.00e+00	0	29	0	836763648	52	6492
2026-01-26 18:07:09.27	311.51	15.93	-39.8	-40.9	21.5	0.00e+00	0	29	0	838860800	52	6336
2026-01-26 18:07:10.28	311.31	15.88	-39.6	-40.7	21.8	0.00e+00	23	29	0	840957952	52	6216
2026-01-26 18:07:11.29	311.11	15.83	-39.5	-40.6	22.0	0.00e+00	0	29	0	843055104	52	6125
2026-01-26 18:07:12.30	310.91	15.79	-39.4	-40.5	22.0	0.00e+00	54	29	0	845152256	52	6059
2026-01-26 18:07:13.31	310.71	15.74	-39.4	-40.4	22.0	0.00e+00	0	29	0	846200832	52	6011
2026-01-26 18:07:14.32	310.52	15.69	-39.6	-40.7	21.9	0.00e+00	0	29	0	848297984	52	6180
2026-01-26 18:07:15.32	310.32	15.64	-39.5	-40.6	21.9	0.00e+00	0	29	0	850395136	52	6150
2026-01-26 18:07:16.33	310.13	15.59	-39.5	-40.6	22.0	0.00e+00	0	29	0	852492288	52	6121
2026-01-26 18:07:17.35	309.93	15.54	-39.6	-40.6	21.9	0.00e+00	22	29	0	854589440	52	6164
2026-01-26 18:07:18.36	309.74	15.49	-39.5	-40.6	22.0	0.00e+00	0	29	0	855638016	52	6143
2026-01-26 18:07:19.36	309.54	15.45	-39.5	-40.5	22.1	0.00e+00	74	29	0	857735168	52	6082
2026-01-26 18:07:20.38	309.35	15.40	-39.1	-40.1	22.4	0.00e+00	0	29	0	859832320	52	5763
2026-01-26 18:07:21.38	309.16	15.35	-39.1	-40.1	22.5	0.00e+00	0	29	0	861929472	52	5774
2026-01-26 18:07:22.39	308.97	15.30	-38.6	-39.5	22.9	0.00e+00	0	29	0	864026624	50	6087
2026-01-26 18:07:23.40	308.78	15.25	-38.5	-39.4	22.9	0.00e+00	0	29	0	865075200	50	5986
2026-01-26 18:07:24.41	308.58	15.19	-38.2	-39.1	23.2	0.00e+00	57	29	0	867172352	50	5815
2026-01-26 18:07:25.42	308.39	15.14	-38.3	-39.2	23.0	0.00e+00	0	29	0	869269504	50	5875
2026-01-26 18:07:26.43	308.21	15.09	-38.2	-39.1	23.1	0.00e+00	56	29	0	871366656	50	5765
2026-01-26 18:07:27.44	308.02	15.04	-38.0	-38.9	23.3	0.00e+00	0	29	0	873463808	50	5671
2026-01-26 18:07:28.45	307.83	14.99	-38.0	-38.9	23.3	0.00e+00	23	29	0	874512384	50	5657
2026-01-26 18:07:29.46	307.64	14.94	-38.0	-38.9	23.4	0.00e+00	0	29	0	876609536	50	5642
2026-01-26 18:07:30.47	307.46	14.89	-38.2	-39.1	23.1	0.00e+00	0	29	0	878706688	50	5798
2026-01-26 18:07:31.48	307.27	14.83	-38.4	-39.3	23.0	0.00e+00	0	29	0	880803840	50	5956
2026-01-26 18:07:32.49	307.08	14.78	-38.6	-39.5	22.8	0.00e+00	0	29	0	882900992	50	6068
2026-01-26 18:07:33.50	306.90	14.73	-38.6	-39.6	22.6	0.00e+00	41	29	0	883949568	50	6117
2026-01-26 18:07:34.51	306.72	14.68	-38.9	-39.9	22.5	0.00e+00	0	29	0	886046720	50	6371
2026-01-26 18:07:35.52	306.53	14.62	-39.1	-40.1	22.6	0.00e+00	44	29	0	888143872	50	6538
2026-01-26 18:07:36.53	306.35	14.57	-38.9	-39.9	22.5	0.00e+00	0	29	0	890241024	50	6327
2026-01-26 18:07:37.53	306.17	14.52	-38.8	-39.8	22.7	0.00e+00	0	29	0	892338176	50	6280
2026-01-26 18:07:38.54	305.99	14.47	-38.6	-39.5	22.6	0.00e+00	49	29	0	893386752	50	6097
2026-01-26 18:07:39.55	305.81	14.41	-38.4	-39.3	23.0	0.00e+00	0	29	0	895483904	50	5938
2026-01-26 18:07:40.56	305.63	14.36	-38.3	-39.2	23.1	0.00e+00	51	29	0	897581056	50	5891
2026-01-26 18:07:41.57	305.45	14.30	-38.5	-39.4	22.9	0.00e+00	0	29	0	899678208	50	5991
2026-01-26 18:07:42.58	305.27	14.25	-38.4	-39.3	22.9	0.00e+00	79	29	0	901775360	50	5947
2026-01-26 18:07:43.59	305.09	14.20	-38.8	-39.8	22.7	0.00e+00	0	29	0	903872512	50	6257
2026-01-26 18:07:44.60	304.91	14.14	-38.9	-39.8	22.5	0.00e+00	0	29	0	904921088	50	6306
2026-01-26 18:07:45.61	304.74	14.09	-39.1	-40.1	22.4	0.00e+00	0	29	0	907018240	50	6523
2026-01-26 18:07:46.62	304.56	14.03	-39.5	-40.5	22.0	0.00e+00	0	29	0	909115392	50	6814
2026-01-26 18:07:47.63	304.39	13.98	-40.5	-41.7	21.2	0.00e+00	37	29	0	911212544	52	6928
2026-01-26 18:07:48.64	304.21	13.92	-40.8	-42.1	20.8	0.00e+00	0	29	0	912261120	52	7261
2026-01-26 18:07:49.65	304.04	13.87	-41.2	-42.5	20.3	0.00e+00	92	29	0	914358272	54	6839
2026-01-26 18:07:50.66	303.86	13.81	-41.4	-42.8	20.0	0.00e+00	0	29	0	916455424	54	7011
2026-01-26 18:07:51.67	303.69	13.76	-41.6	-43.0	20.0	0.00e+00	0	29	0	918552576	54	7197
2026-01-26 18:07:52.67	303.52	13.70	-41.5	-42.8	20.2	0.00e+00	0	29	0	920649728	54	7075
2026-01-26 18:07:53.68	303.35	13.65	-41.5	-42.9	20.2	0.00e+00	0	29	0	921698304	54	7095
2026-01-26 18:07:54.69	303.18	13.59	-41.2	-42.6	20.2	0.00e+00	27	29	0	923795456	54	6857
2026-01-26 18:07:55.70	303.01	13.54	-40.7	-41.9	20.8	0.00e+00	0	29	0	925892608	54	6387
2026-01-26 18:07:56.71	302.84	13.48	-40.6	-41.9	20.8	0.00e+00	75	29	0	927989760	54	6326
2026-01-26 18:07:57.72	302.67	13.42	-40.7	-41.9	20.9	0.00e+00	0	29	0	930086912	54	6357
2026-01-26 18:07:58.73	302.50	13.37	-40.7	-41.9	20.9	0.00e+00	42	29	0	932184064	54	6352
2026-01-26 18:07:59.74	302.33	13.31	-40.5	-41.8	21.0	0.00e+00	0	29	0	933232640	54	6248
2026-01-26 18:08:00.75	302.17	13.26	-40.3	-41.5	21.2	0.00e+00	0	29	0	935329792	54	6050
2026-01-26 18:08:01.76	302.00	13.20	-40.2	-41.4	21.2	0.00e+00	55	29	0	937426944	54	5982
2026-01-26 18:08:02.77	301.83	13.14	-40.1	-41.2	21.5	0.00e+00	0	29	0	939524096	54	5890
2026-01-26 18:08:03.78	301.67	13.09	-39.8	-40.8	21.7	0.00e+00	92	29	0	941621248	54	5620
2026-01-26 18:08:04.79	301.50	13.03	-39.7	-40.7	22.0	0.00e+00	0	29	0	942669824	52	6225
2026-01-26 18:08:05.80	301.34	12.97	-39.7	-40.7	21.9	0.00e+00	73	29	0	944766976	52	6244
2026-01-26 18:08:06.81	301.18	12.91	-39.8	-40.9	21.6	0.00e+00	0	29	0	946864128	52	6351
2026-01-26 18:08:07.82	301.01	12.86	-40.1	-41.3	21.1	0.00e+00	33	29	0	948961280	52	6632
2026-01-26 18:08:08.83	300.85	12.80	-40.3	-41.5	21.2	0.00e+00	0	29	0	951058432	52	6771
2026-01-26 18:08:09.84	300.69	12.74	-40.4	-41.6	21.2	0.00e+00	0	29	0	952107008	52	6851
2026-01-26 18:08:10.85	300.53	12.69	-40.1	-41.3	21.4	0.00e+00	75	29	0	954204160	52	6628
2026-01-26 18:08:11.86	300.37	12.63	-40.2	-41.3	21.4	0.00e+00	0	29	0	956301312	52	6627
2026-01-26 18:08:12.86	300.21	12.57	-40.1	-41.2	21.5	0.00e+00	90	29	0	958398464	52	6565
2026-01-26 18:08:13.87	300.05	12.51	-39.8	-40.9	21.8	0.00e+00	0	29	0	960495616	52	6326
2026-01-26 18:08:14.88	299.90	12.46	-39.5	-40.5	22.0	0.00e+00	0	29	0	961544192	52	6066
2026-01-26 18:08:15.89	299.74	12.40	-39.2	-40.2	22.4	0.00e+00	0	29	0	963641344	52	5869
2026-01-26 18:08:16.90	299.58	12.34	-39.3	-40.4	22.2	0.00e+00	0	29	0	965738496	52	5967
2026-01-26 18:08:17.91	299.43	12.28	-39.3	-40.3	22.2	0.00e+00	57	29	0	967835648	52	5946
2026-01-26 18:08:18.91	299.27	12.22	-39.2	-40.3	22.2	0.00e+00	0	29	0	969932800	52	5910
2026-01-26 18:08:19.92	299.12	12.17	-39.3	-40.3	22.1	0.00e+00	60	29	0	970981376	52	5927
2026-01-26 18:08:20.93	298.96	12.11	-39.4	-40.4	22.1	0.00e+00	33	29	0	973078528	52	6029
2026-01-26 18:08:21.94	298.81	12.05	-39.6	-40.6	21.8	0.00e+00	0	29	0	975175680	52	6147
2026-01-26 18:08:22.95	298.66	11.99	-39.7	-40.7	21.7	0.00e+00	0	29	0	977272832	52	6243
2026-01-26 18:08:23.96	298.50	11.93	-39.9	-41.0	21.5	0.00e+00	0	29	0	979369984	52	6447
2026-01-26 18:08:24.97	298.35	11.88	-40.0	-41.1	21.5	0.00e+00	56	29	0	980418560	52	6520
2026-01-26 18:08:25.98	298.20	11.82	-40.0	-41.1	21.2	0.00e+00	0	29	0	982515712	52	6489
2026-01-26 18:08:26.99	298.05	11.76	-40.1	-41.2	21.4	0.00e+00	71	29	0	984612864	52	6585
2026-01-26 18:08:28.00	297.90	11.70	-40.0	-41.2	21.3	0.00e+00	0	29	0	986710016	52	6543
2026-01-26 18:08:29.01	297.75	11.64	-40.2	-41.4	21.4	0.00e+00	0	29	0	988807168	52	6693
2026-01-26 18:08:30.02	297.60	11.58	-40.1	-41.2	21.5	0.00e+00	0	29	0	989855744	52	6579
2026-01-26 18:08:31.03	297.45	11.52	-39.7	-40.8	21.7	0.00e+00	0	29	0	991952896	52	6309
2026-01-26 18:08:32.04	297.31	11.46	-39.6	-40.7	21.9	0.00e+00	24	29	0	994050048	52	6180
2026-01-26 18:08:33.05	297.16	11.41	-39.9	-41.0	21.7	0.00e+00	0	29	0	996147200	52	6437
2026-01-26 18:08:34.06	297.01	11.35	-39.7	-40.7	21.8	0.00e+00	60	29	0	998244352	52	6240
2026-01-26 18:08:35.07	296.87	11.29	-39.6	-40.7	21.9	0.00e+00	0	29	0	1000341504	52	6189
2026-01-26 18:08:36.08	296.72	11.23	-39.4	-40.5	22.0	0.00e+00	30	29	0	1001390080	52	6035
2026-01-26 18:08:37.08	296.58	11.17	-39.3	-40.4	22.2	0.00e+00	0	29	0	1003487232	52	5973
2026-01-26 18:08:38.10	296.43	11.11	-39.2	-40.3	22.3	0.00e+00	0	29	0	1005584384	52	5903
2026-01-26 18:08:39.10	296.29	11.05	-39.0	-40.0	22.6	0.00e+00	33	29	0	1007681536	52	5704
2026-01-26 18:08:40.11	296.15	10.99	-38.7	-39.6	22.8	0.00e+00	0	29	0	1009778688	50	6172
2026-01-26 18:08:41.12	296.01	10.93	-38.4	-39.3	23.0	0.00e+00	25	29	0	1010827264	50	5936
2026-01-26 18:08:42.13	295.86	10.88	-38.3	-39.3	23.1	0.00e+00	0	29	0	1012924416	50	5901
2026-01-26 18:08:43.14	295.72	10.82	-38.0	-38.9	23.3	0.00e+00	33	29	0	1015021568	50	5636
2026-01-26 18:08:44.15	295.58	10.76	-38.2	-39.2	23.0	0.00e+00	0	29	0	1017118720	50	5838
2026-01-26 18:08:45.16	295.44	10.70	-38.2	-39.1	23.1	0.00e+00	0	29	0	1019215872	50	5780
2026-01-26 18:08:46.17	295.30	10.64	-38.1	-39.0	22.9	0.00e+00	9	29	0	1020264448	50	5740
2026-01-26 18:08:47.17	295.17	10.58	-38.4	-39.4	22.8	0.00e+00	33	29	0	1022361600	50	5972
2026-01-26 18:08:48.18	295.03	10.52	-38.5	-39.5	22.8	0.00e+00	55	29	0	1024458752	50	6067
2026-01-26 18:08:49.19	294.89	10.46	-38.6	-39.6	22.7	0.00e+00	0	29	0	1026555904	50	6106
2026-01-26 18:08:50.20	294.75	10.40	-38.4	-39.4	22.7	0.00e+00	90	29	0	1028653056	50	6000
2026-01-26 18:08:51.21	294.62	10.34	-38.7	-39.7	22.6	0.00e+00	0	29	0	1029701632	50	6180
2026-01-26 18:08:52.22	294.48	10.28	-38.6	-39.6	22.6	0.00e+00	0	29	0	1031798784	50	6155
2026-01-26 18:08:53.23	294.35	10.22	-38.5	-39.5	22.7	0.00e+00	33	29	0	1033895936	50	6070
2026-01-26 18:08:54.23	294.21	10.16	-38.7	-39.7	22.6	0.00e+00	0	29	0	1035993088	50	6189
2026-01-26 18:08:55.24	294.08	10.11	-38.6	-39.6	22.7	0.00e+00	35	29	0	1038090240	50	6118
2026-01-26 18:08:56.25	293.94	10.05	-38.3	-39.2	23.0	0.00e+00	0	29	0	1039138816	50	5879
2026-01-26 18:08:57.26	293.81	9.99	-38.2	-39.1	23.0	0.00e+00	55	29	0	1041235968	50	5807
2026-01-26 18:08:58.27	293.68	9.93	-38.5	-39.5	22.9	0.00e+00	0	29	0	1043333120	50	6036
2026-01-26 18:08:59.28	293.55	9.87	-38.1	-39.0	23.1	0.00e+00	0	29	0	1045430272	50	5735
2026-01-26 18:09:00.29	293.41	9.81	-38.2	-39.1	23.1	0.00e+00	0	29	0	1047527424	50	5793
2026-01-26 18:09:01.30	293.28	9.75	-38.3	-39.2	23.0	0.00e+00	0	29	0	1048576000	50	5862
2026-01-26 18:09:02.31	293.15	9.69	-38.2	-39.2	23.1	0.00e+00	34	29	0	1050673152	50	5831
2026-01-26 18:09:03.31	293.02	9.63	-38.3	-39.2	23.0	0.00e+00	0	29	0	1052770304	50	5886
2026-01-26 18:09:04.32	292.90	9.57	-38.4	-39.4	22.9	0.00e+00	64	29	0	1054867456	50	5977
2026-01-26 18:09:05.33	292.77	9.51	-38.5	-39.5	22.8	0.00e+00	0	29	0	1056964608	50	6052
2026-01-26 18:09:06.34	292.64	9.45	-38.7	-39.7	22.6	0.00e+00	0	29	0	1058013184	50	6211
2026-01-26 18:09:07.35	292.51	9.39	-38.8	-39.8	22.7	0.00e+00	0	29	0	1060110336	50	6286
2026-01-26 18:09:08.36	292.38	9.33	-38.9	-39.9	22.4	0.00e+00	0	29	0	1062207488	50	6380
2026-01-26 18:09:09.37	292.26	9.27	-38.7	-39.7	22.6	0.00e+00	0	29	0	1064304640	50	6216
2026-01-26 18:09:10.38	292.13	9.21	-38.8	-39.9	22.2	0.00e+00	0	29	0	1066401792	50	6318
2026-01-26 18:09:11.38	292.01	9.16	-39.0	-40.0	22.2	0.00e+00	91	29	0	1067450368	50	6413
2026-01-26 18:09:12.39	291.88	9.10	-38.9	-39.9	22.1	0.00e+00	0	29	0	1069547520	50	6383
2026-01-26 18:09:13.40	291.76	9.04	-39.1	-40.1	22.0	0.00e+00	88	29	0	1071644672	50	6536
2026-01-26 18:09:14.41	291.63	8.98	-39.1	-40.2	22.0	0.00e+00	0	29	0	1073741824	50	6568
2026-01-26 18:09:15.42	291.51	8.92	-39.3	-40.4	21.8	0.00e+00	0	29	0	1075838976	50	6711
2026-01-26 18:09:16.43	291.39	8.86	-39.5	-40.6	21.5	0.00e+00	0	29	0	1076887552	50	6868
2026-01-26 18:09:17.44	291.26	8.80	-39.7	-40.9	21.0	0.00e+00	0	29	0	1078984704	50	7094
2026-01-26 18:09:18.45	291.14	8.74	-39.7	-40.8	21.4	0.00e+00	47	29	0	1081081856	50	7066
2026-01-26 18:09:19.45	291.02	8.68	-39.5	-40.6	21.6	0.00e+00	0	29	0	1083179008	52	6138
2026-01-26 18:09:20.46	290.90	8.62	-39.1	-40.2	22.0	0.00e+00	92	29	0	1085276160	52	5838
2026-01-26 18:09:21.47	290.78	8.56	-39.0	-40.1	22.1	0.00e+00	0	29	0	1086324736	52	5762
2026-01-26 18:09:22.48	290.66	8.50	-38.9	-39.9	22.2	0.00e+00	0	29	0	1088421888	52	5665
2026-01-26 18:09:23.49	290.54	8.44	-38.5	-39.5	22.6	0.00e+00	0	29	0	1090519040	50	6060
2026-01-26 18:09:24.50	290.42	8.39	-38.4	-39.4	22.6	0.00e+00	0	29	0	1092616192	50	5973
2026-01-26 18:09:25.51	290.30	8.33	-38.4	-39.3	22.7	0.00e+00	44	29	0	1094713344	50	5955
2026-01-26 18:09:26.51	290.18	8.27	-38.2	-39.2	22.8	0.00e+00	0	29	0	1096810496	50	5834
2026-01-26 18:09:27.52	290.07	8.21	-38.2	-39.2	22.8	0.00e+00	76	29	0	1097859072	50	5869
2026-01-26 18:09:28.53	289.95	8.15	-38.4	-39.4	22.7	0.00e+00	0	29	0	1099956224	50	5977
2026-01-26 18:09:29.54	289.83	8.09	-38.7	-39.7	22.5	0.00e+00	0	29	0	1102053376	50	6205
2026-01-26 18:09:30.55	289.72	8.03	-38.5	-39.5	22.6	0.00e+00	0	29	0	1104150528	50	6077
2026-01-26 18:09:31.56	289.60	7.97	-38.9	-39.9	22.3	0.00e+00	0	29	0	1106247680	50	6355
2026-01-26 18:09:32.57	289.49	7.91	-39.2	-40.3	21.9	0.00e+00	52	29	0	1107296256	50	6626
2026-01-26 18:09:33.58	289.37	7.85	-39.5	-40.5	21.8	0.00e+00	0	29	0	1109393408	50	6845
2026-01-26 18:09:34.59	289.26	7.79	-39.7	-40.8	21.5	0.00e+00	90	29	0	1111490560	50	7061
2026-01-26 18:09:35.60	289.14	7.74	-39.7	-40.8	21.5	0.00e+00	0	29	0	1113587712	50	7073
2026-01-26 18:09:36.61	289.03	7.68	-40.0	-41.2	21.2	0.00e+00	0	29	0	1115684864	52	6545
2026-01-26 18:09:37.62	288.92	7.62	-40.3	-41.5	20.9	0.00e+00	0	29	0	1116733440	52	6848
2026-01-26 18:09:38.63	288.81	7.56	-39.9	-41.0	21.3	0.00e+00	0	29	0	1118830592	52	6451
2026-01-26 18:09:39.64	288.69	7.50	-39.9	-41.0	21.2	0.00e+00	50	29	0	1120927744	52	6449
2026-01-26 18:09:40.65	288.58	7.44	-40.1	-41.2	21.2	0.00e+00	0	29	0	1123024896	52	6607
2026-01-26 18:09:41.65	288.47	7.38	-39.6	-40.7	21.6	0.00e+00	92	29	0	1125122048	52	6190
2026-01-26 18:09:42.66	288.36	7.32	-39.4	-40.5	21.7	0.00e+00	0	29	0	1126170624	52	6083
2026-01-26 18:09:43.67	288.25	7.27	-39.4	-40.5	21.7	0.00e+00	0	29	0	1128267776	52	6076
2026-01-26 18:09:44.68	288.14	7.21	-39.2	-40.3	21.8	0.00e+00	0	29	0	1130364928	52	5908
2026-01-26 18:09:45.69	288.03	7.15	-39.1	-40.2	22.0	0.00e+00	0	29	0	1132462080	52	5843
2026-01-26 18:09:46.70	287.92	7.09	-39.4	-40.5	21.6	0.00e+00	41	29	0	1134559232	52	6062
2026-01-26 18:09:47.71	287.82	7.03	-39.2	-40.2	21.8	0.00e+00	0	29	0	1135607808	52	5881
2026-01-26 18:09:48.72	287.71	6.97	-39.3	-40.4	21.7	0.00e+00	92	29	0	1137704960	52	5989
2026-01-26 18:09:49.73	287.60	6.91	-39.2	-40.3	21.8	0.00e+00	0	29	0	1139802112	52	5918
2026-01-26 18:09:50.74	287.49	6.86	-39.3	-40.4	21.7	0.00e+00	92	29	0	1141899264	52	6006
2026-01-26 18:09:51.75	287.39	6.80	-39.1	-40.1	21.9	0.00e+00	0	29	0	1143996416	52	5824
2026-01-26 18:09:52.76	287.28	6.74	-39.5	-40.6	21.5	0.00e+00	0	29	0	1145044992	52	6169
2026-01-26 18:09:53.77	287.18	6.68	-39.6	-40.7	21.4	0.00e+00	0	29	0	1147142144	52	6203
2026-01-26 18:09:54.78	287.07	6.62	-39.5	-40.6	21.5	0.00e+00	0	28	0	1149239296	52	6129
2026-01-26 18:09:55.79	286.97	6.56	-39.8	-41.0	21.2	0.00e+00	16	29	0	1151336448	52	6415
2026-01-26 18:09:56.79	286.86	6.51	-39.9	-41.1	21.0	0.00e+00	0	29	0	1153433600	52	6524
2026-01-26 18:09:57.80	286.76	6.45	-40.2	-41.4	20.8	0.00e+00	92	29	0	1154482176	52	6737
2026-01-26 18:09:58.81	286.66	6.39	-40.2	-41.4	20.7	0.00e+00	0	29	0	1156579328	52	6734
2026-01-26 18:09:59.82	286.55	6.33	-40.6	-41.9	20.5	0.00e+00	0	28	0	1158676480	52	7094
2026-01-26 18:10:00.83	286.45	6.27	-40.5	-41.8	20.4	0.00e+00	0	29	0	1160773632	52	7062
2026-01-26 18:10:01.84	286.35	6.22	-40.6	-41.9	20.3	0.00e+00	0	29	0	1162870784	52	7111
2026-01-26 18:10:02.85	286.25	6.16	-40.7	-42.0	20.3	0.00e+00	16	29	0	1164967936	54	6447
2026-01-26 18:10:03.86	286.14	6.10	-40.5	-41.8	20.3	0.00e+00	0	29	0	1166016512	54	6305
2026-01-26 18:10:04.87	286.04	6.04	-40.5	-41.8	20.2	0.00e+00	92	28	0	1168113664	54	6314
2026-01-26 18:10:05.87	285.94	5.99	-40.3	-41.6	20.5	0.00e+00	0	29	0	1170210816	54	6139
2026-01-26 18:10:06.88	285.84	5.93	-40.2	-41.5	20.5	0.00e+00	0	29	0	1172307968	54	6063
2026-01-26 18:10:07.90	285.74	5.87	-40.5	-41.7	20.5	0.00e+00	0	29	0	1174405120	54	6239
2026-01-26 18:10:08.90	285.64	5.81	-40.3	-41.6	20.4	0.00e+00	33	28	0	1175453696	54	6116
2026-01-26 18:10:09.91	285.55	5.75	-40.2	-41.4	20.6	0.00e+00	52	28	0	1177550848	54	5990
2026-01-26 18:10:10.92	285.45	5.70	-39.8	-41.0	21.0	0.00e+00	0	28	0	1179648000	54	5732
2026-01-26 18:10:11.93	285.35	5.64	-40.2	-41.4	20.6	0.00e+00	92	28	0	1181745152	54	6021
2026-01-26 18:10:12.94	285.25	5.58	-40.1	-41.3	20.6	0.00e+00	0	29	0	1183842304	54	5964
2026-01-26 18:10:13.95	285.15	5.52	-40.4	-41.6	20.4	0.00e+00	0	29	0	1184890880	54	6164
2026-01-26 18:10:14.96	285.06	5.47	-40.6	-41.9	20.1	0.00e+00	0	28	0	1186988032	54	6389
2026-01-26 18:10:15.97	284.96	5.41	-40.5	-41.8	20.1	0.00e+00	0	28	0	1189085184	54	6294
2026-01-26 18:10:16.98	284.86	5.35	-41.1	-42.6	19.5	0.00e+00	51	29	0	1191182336	54	6878
2026-01-26 18:10:17.99	284.77	5.30	-41.3	-42.8	19.3	0.00e+00	0	29	0	1193279488	54	7029
2026-01-26 18:10:19.00	284.67	5.24	-41.7	-43.3	18.9	0.00e+00	92	28	0	1194328064	54	7459
2026-01-26 18:10:20.01	284.58	5.18	-41.5	-43.0	19.0	0.00e+00	0	29	0	1196425216	54	7214
2026-01-26 18:10:21.02	284.48	5.12	-41.9	-43.5	18.8	0.00e+00	86	29	0	1198522368	56	6829
