passes_logs/2026/01/26/R4.6S_Anadyr/R4.6S_Anadyr__20260126_033034_FENGYUN_3D_rec.log

#Pass ID: 20260126_033034_FENGYUN 3D
#Satellite: FENGYUN 3D
#Configuration: FENGYUN 3D
#almurnet v.1.7.20251203
#Start time: 2026-01-26 03:30:37

#Version: 2.2.20231116
#Station: R4.6S_Anadyr
#Location: 177.4865 lon 64.73178 lat
#TLE: 1 43010U 17072A   26025.50461972  .00000046  00000+0  43592-4 0  9990
#TLE: 2 43010  98.9962 357.4844 0002523  89.7890 270.3575 14.19699798424744

#Time	Az	El	Level	Level2	SNR	BER	BlckErr	Temp	State	Recorded	gain1	gain2
2026-01-26 03:30:37.62	187.46	0.18	-50.8	-61.5	3.3	8.41e-01	0	28	0	0	60	42865
2026-01-26 03:30:38.63	187.50	0.24	-50.6	-62.8	3.6	8.44e-01	0	28	104	0	60	49974
2026-01-26 03:30:39.64	187.55	0.30	-51.5	-63.6	3.6	8.44e-01	0	28	104	0	60	54855
2026-01-26 03:30:40.65	187.59	0.36	-50.4	-62.6	3.6	8.45e-01	0	28	104	0	60	48896
2026-01-26 03:30:41.66	187.63	0.41	-50.4	-62.5	3.6	8.44e-01	0	28	104	0	60	48471
2026-01-26 03:30:42.67	187.67	0.47	-49.9	-62.1	3.6	8.43e-01	0	28	104	0	60	45988
2026-01-26 03:30:43.68	187.71	0.53	-49.7	-61.8	3.6	8.45e-01	0	28	104	0	60	44566
2026-01-26 03:30:44.68	187.76	0.59	-50.2	-62.4	3.6	8.45e-01	0	28	104	0	60	47915
2026-01-26 03:30:45.69	187.80	0.65	-50.0	-62.1	3.6	8.46e-01	0	28	104	0	60	46164
2026-01-26 03:30:46.70	187.84	0.71	-49.9	-62.0	3.6	8.45e-01	0	28	104	0	60	45735
2026-01-26 03:30:47.71	187.88	0.77	-49.5	-61.7	3.6	8.44e-01	0	28	104	0	60	43710
2026-01-26 03:30:48.72	187.93	0.82	-49.6	-61.8	3.6	8.45e-01	0	28	104	0	60	44502
2026-01-26 03:30:49.73	187.97	0.88	-49.6	-61.7	3.6	8.45e-01	0	28	104	0	60	43862
2026-01-26 03:30:50.74	188.01	0.94	-49.6	-61.8	3.6	8.45e-01	0	28	104	0	60	44590
2026-01-26 03:30:51.75	188.06	1.00	-49.5	-61.7	3.6	8.45e-01	0	28	104	0	60	44066
2026-01-26 03:30:52.76	188.10	1.06	-49.6	-61.7	3.6	8.45e-01	0	28	104	0	60	44092
2026-01-26 03:30:53.77	188.14	1.12	-49.1	-61.2	3.6	8.46e-01	0	28	104	0	60	41566
2026-01-26 03:30:54.78	188.19	1.18	-48.8	-61.0	3.6	8.46e-01	0	28	104	0	60	40419
2026-01-26 03:30:55.79	188.23	1.24	-48.8	-60.9	3.6	8.45e-01	0	28	104	0	60	40116
2026-01-26 03:30:56.80	188.27	1.30	-48.4	-60.4	3.6	8.45e-01	0	28	104	0	60	37750
2026-01-26 03:30:57.81	188.32	1.36	-48.4	-60.5	3.6	8.45e-01	0	28	104	0	60	38119
2026-01-26 03:30:58.82	188.36	1.42	-48.2	-60.3	3.6	8.46e-01	0	28	104	0	60	37623
2026-01-26 03:30:59.83	188.41	1.48	-48.6	-60.7	3.6	8.46e-01	0	28	104	0	60	39241
2026-01-26 03:31:00.84	188.45	1.54	-48.7	-60.8	3.6	8.46e-01	0	28	104	0	60	39719
2026-01-26 03:31:01.85	188.50	1.60	-48.7	-60.7	3.6	8.45e-01	0	28	104	0	60	39386
2026-01-26 03:31:02.86	188.54	1.66	-48.3	-60.3	3.6	8.45e-01	0	28	104	0	60	37584
2026-01-26 03:31:03.87	188.59	1.72	-48.2	-60.3	3.6	8.46e-01	0	28	104	0	60	37388
2026-01-26 03:31:04.88	188.63	1.78	-48.3	-60.2	3.6	8.45e-01	0	28	104	0	60	37136
2026-01-26 03:31:05.89	188.68	1.84	-48.5	-60.4	3.6	8.45e-01	0	28	104	0	60	37670
2026-01-26 03:31:06.90	188.73	1.91	-48.4	-60.3	3.6	8.45e-01	0	28	104	0	60	37390
2026-01-26 03:31:07.91	188.77	1.97	-48.7	-60.5	3.6	8.45e-01	0	28	104	0	60	38474
2026-01-26 03:31:08.92	188.82	2.03	-48.6	-60.5	3.6	8.45e-01	0	28	104	0	60	38478
2026-01-26 03:31:09.93	188.86	2.09	-48.3	-60.2	3.6	8.44e-01	0	28	104	0	60	37115
2026-01-26 03:31:10.94	188.91	2.15	-48.4	-60.3	3.6	8.45e-01	0	28	104	0	60	37433
2026-01-26 03:31:11.95	188.96	2.21	-48.1	-60.0	3.6	8.46e-01	0	28	104	0	60	36235
2026-01-26 03:31:12.96	189.00	2.27	-48.3	-60.3	3.6	8.45e-01	0	28	104	0	60	37205
2026-01-26 03:31:13.97	189.05	2.34	-48.8	-60.8	3.6	8.46e-01	0	28	104	0	60	39414
2026-01-26 03:31:14.98	189.10	2.40	-48.8	-60.8	3.6	8.46e-01	0	28	104	0	60	39804
2026-01-26 03:31:15.99	189.15	2.46	-48.5	-60.6	3.6	8.46e-01	0	28	104	0	60	38867
2026-01-26 03:31:17.00	189.19	2.52	-49.0	-60.9	3.6	8.45e-01	0	28	104	0	60	40199
2026-01-26 03:31:18.01	189.24	2.58	-49.0	-60.5	3.6	8.46e-01	0	28	104	0	60	38149
2026-01-26 03:31:19.02	189.29	2.65	-48.7	-59.7	3.5	8.45e-01	0	28	104	0	60	34985
2026-01-26 03:31:20.03	189.34	2.71	-48.5	-59.5	3.6	8.45e-01	0	28	104	0	60	33938
2026-01-26 03:31:21.04	189.39	2.77	-48.3	-58.4	3.6	8.43e-01	0	28	104	0	60	30072
2026-01-26 03:31:22.05	189.44	2.84	-48.0	-57.9	3.6	8.44e-01	0	28	104	0	60	28353
2026-01-26 03:31:23.06	189.48	2.90	-48.0	-54.9	5.0	8.24e-01	0	28	0	0	60	20147
2026-01-26 03:31:24.07	189.53	2.96	-46.4	-49.8	8.4	1.63e-01	0	28	0	2097152	60	11215
2026-01-26 03:31:25.08	189.58	3.02	-46.1	-49.6	9.6	3.31e-02	0	28	0	7340032	60	10920
2026-01-26 03:31:26.09	189.63	3.09	-44.3	-46.6	14.1	7.64e-04	0	28	0	13631488	60	7706
2026-01-26 03:31:27.10	189.68	3.15	-42.1	-43.6	17.0	4.50e-06	0	28	0	18874368	56	6863
2026-01-26 03:31:28.11	189.73	3.21	-41.3	-42.5	17.7	0.00e+00	0	28	0	24117248	56	6092
2026-01-26 03:31:29.12	189.78	3.28	-40.3	-41.4	19.0	0.00e+00	0	28	0	30408704	54	5995
2026-01-26 03:31:30.13	189.83	3.34	-39.1	-40.1	19.5	0.00e+00	0	28	0	35651584	52	5790
2026-01-26 03:31:31.14	189.88	3.41	-38.7	-39.7	19.8	0.00e+00	0	28	0	41943040	50	6176
2026-01-26 03:31:32.15	189.93	3.47	-39.4	-40.4	19.1	0.00e+00	0	28	0	47185920	50	6739
2026-01-26 03:31:33.16	189.98	3.54	-39.7	-40.7	18.8	0.00e+00	0	28	0	53477376	50	6990
2026-01-26 03:31:34.17	190.03	3.60	-48.3	-59.3	3.6	6.05e-01	0	28	104	56623104	60	33246
2026-01-26 03:31:35.18	190.09	3.66	-39.9	-41.0	18.0	7.55e-01	0	28	104	56623104	48	8092
2026-01-26 03:31:36.19	190.14	3.73	-44.6	-46.7	14.0	2.14e-03	0	29	0	58720256	60	7781
2026-01-26 03:31:37.20	190.19	3.79	-43.5	-45.4	14.8	2.20e-06	0	28	0	63963136	60	6706
2026-01-26 03:31:38.21	190.24	3.86	-38.0	-38.9	20.8	0.00e+00	0	28	0	70254592	50	5681
2026-01-26 03:31:39.22	190.29	3.92	-37.4	-38.2	21.2	0.00e+00	0	28	0	75497472	48	5860
2026-01-26 03:31:40.23	190.34	3.99	-37.3	-38.1	21.4	0.00e+00	0	28	0	80740352	48	5814
2026-01-26 03:31:41.24	190.40	4.05	-37.9	-38.7	21.1	0.00e+00	0	28	0	87031808	48	6238
2026-01-26 03:31:42.25	190.45	4.12	-37.8	-38.7	21.2	0.00e+00	0	28	0	92274688	48	6212
2026-01-26 03:31:43.26	190.50	4.19	-38.3	-39.2	20.8	0.00e+00	0	29	0	98566144	48	6574
2026-01-26 03:31:44.27	190.56	4.25	-37.9	-38.7	21.7	0.00e+00	0	28	0	103809024	48	6213
2026-01-26 03:31:45.28	190.61	4.32	-36.9	-37.7	22.2	0.00e+00	0	28	0	110100480	48	5550
2026-01-26 03:31:46.29	190.66	4.38	-37.4	-38.2	21.8	0.00e+00	0	28	0	115343360	48	5892
2026-01-26 03:31:47.30	190.72	4.45	-36.8	-37.6	22.3	0.00e+00	0	28	0	120586240	46	6153
2026-01-26 03:31:48.31	190.77	4.52	-37.0	-37.8	22.2	0.00e+00	0	28	0	126877696	46	6264
2026-01-26 03:31:49.32	190.83	4.58	-37.2	-38.0	21.9	0.00e+00	0	28	0	132120576	46	6399
2026-01-26 03:31:50.33	190.88	4.65	-37.8	-38.6	21.3	0.00e+00	0	29	0	137363456	48	6164
2026-01-26 03:31:51.34	190.93	4.72	-37.2	-38.0	22.3	0.00e+00	0	28	0	143654912	48	5736
2026-01-26 03:31:52.35	190.99	4.78	-39.3	-40.2	20.3	0.00e+00	0	29	0	148897792	50	6579
2026-01-26 03:31:53.36	191.05	4.85	-38.4	-39.3	21.0	0.00e+00	0	29	0	155189248	50	5906
2026-01-26 03:31:54.37	191.10	4.92	-38.7	-39.7	20.5	0.00e+00	0	29	0	160432128	52	5505
2026-01-26 03:31:55.38	191.16	4.98	-39.3	-40.3	19.6	0.00e+00	0	29	0	166723584	50	6675
2026-01-26 03:31:56.39	191.21	5.05	-39.3	-40.3	19.3	0.00e+00	0	28	0	171966464	50	6679
2026-01-26 03:31:57.40	191.27	5.12	-38.9	-39.9	20.0	0.00e+00	0	29	0	178257920	52	5665
2026-01-26 03:31:58.41	191.33	5.19	-38.6	-39.5	20.0	0.00e+00	0	29	0	183500800	48	6837
2026-01-26 03:31:59.42	191.38	5.26	-38.7	-39.6	20.3	0.00e+00	0	29	0	188743680	50	6138
2026-01-26 03:32:00.43	191.44	5.32	-37.8	-38.7	20.6	0.00e+00	0	29	0	195035136	50	5551
2026-01-26 03:32:01.44	191.50	5.39	-39.4	-40.4	19.5	0.00e+00	0	29	0	200278016	50	6719
2026-01-26 03:32:02.45	191.55	5.46	-37.8	-38.7	21.2	0.00e+00	0	29	0	206569472	50	5523
2026-01-26 03:32:03.46	191.61	5.53	-38.5	-39.5	20.5	0.00e+00	0	29	0	211812352	50	6044
2026-01-26 03:32:04.47	191.67	5.60	-39.0	-39.9	20.1	0.00e+00	0	29	0	217055232	50	6371
2026-01-26 03:32:05.48	191.73	5.67	-39.2	-40.2	19.5	0.00e+00	0	28	0	223346688	50	6568
2026-01-26 03:32:06.49	191.79	5.74	-38.8	-39.7	19.7	0.00e+00	0	29	0	228589568	50	6241
2026-01-26 03:32:07.50	191.84	5.81	-39.0	-39.9	20.3	0.00e+00	0	29	0	234881024	50	6383
2026-01-26 03:32:08.51	191.90	5.88	-38.2	-39.1	21.0	0.00e+00	0	29	0	240123904	50	5792
2026-01-26 03:32:09.52	191.96	5.94	-38.5	-39.4	20.7	0.00e+00	0	29	0	245366784	50	6002
2026-01-26 03:32:10.53	192.02	6.01	-37.9	-38.8	21.2	0.00e+00	0	29	0	251658240	50	5618
2026-01-26 03:32:11.54	192.08	6.08	-38.5	-39.4	21.0	0.00e+00	0	29	0	256901120	50	5994
2026-01-26 03:32:12.55	192.14	6.15	-37.0	-37.8	22.0	0.00e+00	0	29	0	263192576	48	5603
2026-01-26 03:32:13.56	192.20	6.22	-37.0	-37.8	22.0	0.00e+00	0	29	0	268435456	48	5594
2026-01-26 03:32:14.57	192.26	6.30	-36.4	-37.2	22.6	0.00e+00	0	29	0	274726912	46	5876
2026-01-26 03:32:15.58	192.32	6.37	-36.4	-37.3	22.6	0.00e+00	0	29	0	279969792	46	5898
2026-01-26 03:32:16.59	192.39	6.44	-36.3	-37.1	22.8	0.00e+00	0	29	0	286261248	46	5800
2026-01-26 03:32:17.60	192.45	6.51	-36.4	-37.2	22.7	0.00e+00	0	29	0	291504128	46	5853
2026-01-26 03:32:18.61	192.51	6.58	-35.7	-36.4	23.2	0.00e+00	0	29	0	296747008	46	5366
2026-01-26 03:32:19.62	192.57	6.65	-36.7	-37.4	23.1	0.00e+00	0	29	0	303038464	46	6014
2026-01-26 03:32:20.63	192.63	6.72	-36.2	-36.9	22.9	0.00e+00	0	29	0	308281344	46	5660
2026-01-26 03:32:21.64	192.70	6.79	-35.6	-36.3	23.4	0.00e+00	0	29	0	314572800	46	5296
2026-01-26 03:32:22.65	192.76	6.86	-35.7	-36.5	23.4	0.00e+00	0	29	0	319815680	44	6049
2026-01-26 03:32:23.66	192.82	6.94	-35.5	-36.2	23.6	0.00e+00	0	29	0	325058560	44	5857
2026-01-26 03:32:24.67	192.89	7.01	-35.4	-36.1	23.5	0.00e+00	0	29	0	331350016	44	5815
2026-01-26 03:32:25.68	192.95	7.08	-35.5	-36.3	23.6	0.00e+00	0	29	0	336592896	44	5905
2026-01-26 03:32:26.69	193.01	7.15	-35.8	-36.6	23.1	0.00e+00	0	29	0	342884352	44	6129
2026-01-26 03:32:27.70	193.08	7.23	-36.0	-36.7	23.3	0.00e+00	0	29	0	348127232	44	6212
2026-01-26 03:32:28.71	193.14	7.30	-36.6	-37.3	23.0	0.00e+00	0	29	0	353370112	44	6690
2026-01-26 03:32:29.72	193.21	7.37	-35.9	-36.6	23.8	0.00e+00	0	29	0	359661568	44	6130
2026-01-26 03:32:30.73	193.27	7.45	-35.2	-35.9	24.1	0.00e+00	0	29	0	364904448	44	5658
2026-01-26 03:32:31.74	193.34	7.52	-35.2	-35.9	24.3	0.00e+00	0	29	0	371195904	44	5651
2026-01-26 03:32:32.75	193.40	7.59	-35.1	-35.8	24.2	0.00e+00	0	29	0	376438784	44	5589
2026-01-26 03:32:33.76	193.47	7.67	-35.0	-35.7	24.3	0.00e+00	0	29	0	382730240	44	5503
2026-01-26 03:32:34.77	193.54	7.74	-34.9	-35.6	24.4	0.00e+00	0	29	0	387973120	44	5479
2026-01-26 03:32:35.78	193.60	7.81	-34.9	-35.7	24.2	0.00e+00	0	29	0	394264576	42	6178
2026-01-26 03:32:36.80	193.67	7.89	-34.9	-35.6	24.1	0.00e+00	0	29	0	399507456	42	6162
2026-01-26 03:32:37.81	193.74	7.96	-34.8	-35.5	24.1	0.00e+00	0	29	0	404750336	42	6091
2026-01-26 03:32:38.82	193.81	8.04	-35.5	-36.2	23.8	0.00e+00	0	29	0	411041792	42	6570
2026-01-26 03:32:39.82	193.88	8.11	-35.8	-36.5	24.1	0.00e+00	0	29	0	416284672	44	6057
2026-01-26 03:32:40.83	193.94	8.19	-35.2	-35.9	24.2	0.00e+00	0	29	0	422576128	44	5683
2026-01-26 03:32:41.84	194.01	8.26	-34.5	-35.2	24.8	0.00e+00	0	29	0	427819008	42	5879
2026-01-26 03:32:42.85	194.08	8.34	-34.6	-35.3	24.5	0.00e+00	0	29	0	433061888	42	5950
2026-01-26 03:32:43.86	194.15	8.41	-34.6	-35.3	24.4	0.00e+00	0	29	0	439353344	42	5951
2026-01-26 03:32:44.87	194.22	8.49	-34.8	-35.5	24.4	0.00e+00	0	29	0	444596224	42	6053
2026-01-26 03:32:45.88	194.29	8.57	-34.7	-35.4	24.4	0.00e+00	0	29	0	450887680	42	5977
2026-01-26 03:32:46.89	194.36	8.64	-34.5	-35.1	24.5	0.00e+00	0	29	0	456130560	42	5816
2026-01-26 03:32:47.90	194.43	8.72	-34.6	-35.3	24.4	0.00e+00	0	29	0	461373440	42	5928
2026-01-26 03:32:48.91	194.50	8.79	-34.6	-35.3	24.5	0.00e+00	0	29	0	467664896	42	5901
2026-01-26 03:32:49.92	194.58	8.87	-35.0	-35.7	24.2	0.00e+00	0	29	0	472907776	42	6241
2026-01-26 03:32:50.93	194.65	8.95	-34.7	-35.4	24.6	0.00e+00	0	29	0	479199232	42	5976
2026-01-26 03:32:51.94	194.72	9.03	-35.1	-35.8	24.6	0.00e+00	0	29	0	484442112	42	6291
2026-01-26 03:32:52.95	194.79	9.10	-35.4	-36.2	24.5	0.00e+00	0	29	0	490733568	42	6547
2026-01-26 03:32:53.96	194.87	9.18	-35.7	-36.4	24.5	0.00e+00	0	29	0	495976448	42	6723
2026-01-26 03:32:54.97	194.94	9.26	-35.2	-35.9	24.4	0.00e+00	0	29	0	501219328	42	6353
2026-01-26 03:32:55.98	195.01	9.34	-35.2	-35.9	24.5	0.00e+00	0	29	0	507510784	42	6384
2026-01-26 03:32:56.99	195.09	9.41	-35.1	-35.8	24.7	0.00e+00	0	29	0	512753664	42	6292
2026-01-26 03:32:58.00	195.16	9.49	-34.7	-35.4	24.8	0.00e+00	0	29	0	519045120	42	6010
2026-01-26 03:32:59.01	195.24	9.57	-34.6	-35.3	24.7	0.00e+00	0	29	0	524288000	42	5909
2026-01-26 03:33:00.02	195.31	9.65	-34.7	-35.5	24.8	0.00e+00	0	29	0	529530880	42	6034
2026-01-26 03:33:01.03	195.39	9.73	-34.8	-35.5	24.8	0.00e+00	0	29	0	535822336	42	6067
2026-01-26 03:33:02.04	195.46	9.81	-34.8	-35.5	24.7	0.00e+00	0	29	0	541065216	42	6049
2026-01-26 03:33:03.05	195.54	9.89	-34.9	-35.6	24.7	0.00e+00	0	29	0	547356672	42	6147
2026-01-26 03:33:04.05	195.62	9.97	-34.8	-35.5	24.8	0.00e+00	0	29	0	552599552	42	6047
2026-01-26 03:33:05.06	195.69	10.05	-35.0	-35.7	24.7	0.00e+00	0	29	0	557842432	42	6215
2026-01-26 03:33:06.08	195.77	10.13	-34.4	-35.1	24.9	0.00e+00	0	29	0	564133888	42	5815
2026-01-26 03:33:07.08	195.85	10.21	-34.6	-35.3	24.8	0.00e+00	0	29	0	569376768	42	5902
2026-01-26 03:33:08.09	195.93	10.29	-34.8	-35.5	24.7	0.00e+00	0	29	0	575668224	42	6051
2026-01-26 03:33:09.10	196.01	10.37	-34.7	-35.4	24.9	0.00e+00	0	29	0	580911104	42	5988
2026-01-26 03:33:10.11	196.09	10.45	-34.4	-35.1	24.9	0.00e+00	0	29	0	587202560	42	5780
2026-01-26 03:33:11.12	196.17	10.53	-34.5	-35.2	25.0	0.00e+00	0	29	0	592445440	42	5876
2026-01-26 03:33:12.13	196.25	10.61	-34.7	-35.4	24.8	0.00e+00	0	29	0	597688320	42	5992
2026-01-26 03:33:13.14	196.33	10.69	-35.1	-35.8	25.0	0.00e+00	0	29	0	603979776	42	6275
2026-01-26 03:33:14.15	196.41	10.78	-35.1	-35.9	24.8	0.00e+00	0	29	0	609222656	42	6323
2026-01-26 03:33:15.16	196.49	10.86	-35.5	-36.2	25.0	0.00e+00	0	29	0	615514112	42	6572
2026-01-26 03:33:16.17	196.57	10.94	-35.2	-35.9	25.0	0.00e+00	0	29	0	620756992	44	5652
2026-01-26 03:33:17.18	196.66	11.02	-35.0	-35.7	24.9	0.00e+00	0	29	0	625999872	44	5503
2026-01-26 03:33:18.18	196.74	11.11	-35.3	-36.0	24.9	0.00e+00	0	29	0	632291328	44	5704
2026-01-26 03:33:19.20	196.82	11.19	-35.6	-36.3	24.9	0.00e+00	0	29	0	637534208	44	5908
2026-01-26 03:33:20.21	196.90	11.27	-35.2	-35.9	24.7	0.00e+00	0	29	0	643825664	42	6348
2026-01-26 03:33:21.22	196.99	11.36	-35.2	-35.9	25.0	0.00e+00	0	29	0	649068544	42	6338
2026-01-26 03:33:22.23	197.07	11.44	-35.1	-35.8	25.1	0.00e+00	0	29	0	654311424	44	5586
2026-01-26 03:33:23.24	197.16	11.52	-34.7	-35.4	25.2	0.00e+00	0	29	0	660602880	42	6000
2026-01-26 03:33:24.24	197.24	11.61	-35.0	-35.7	25.0	0.00e+00	0	29	0	665845760	42	6220
2026-01-26 03:33:25.26	197.33	11.69	-35.1	-35.7	25.1	0.00e+00	0	29	0	672137216	42	6232
2026-01-26 03:33:26.27	197.42	11.78	-35.0	-35.7	25.2	0.00e+00	0	29	0	677380096	42	6192
2026-01-26 03:33:27.28	197.50	11.86	-35.1	-35.7	25.2	0.00e+00	0	29	0	683671552	42	6231
2026-01-26 03:33:28.29	197.59	11.95	-34.9	-35.6	25.0	0.00e+00	0	29	0	688914432	42	6138
2026-01-26 03:33:29.30	197.68	12.03	-34.7	-35.4	25.3	0.00e+00	0	29	0	695205888	42	5971
2026-01-26 03:33:30.31	197.77	12.12	-34.5	-35.1	25.2	0.00e+00	0	29	0	700448768	42	5819
2026-01-26 03:33:31.32	197.86	12.20	-34.3	-34.9	25.1	0.00e+00	0	29	0	705691648	42	5690
2026-01-26 03:33:32.33	197.95	12.29	-34.2	-34.9	25.1	0.00e+00	0	29	0	711983104	42	5655
2026-01-26 03:33:33.34	198.04	12.38	-33.8	-34.5	25.6	0.00e+00	0	29	0	717225984	42	5398
2026-01-26 03:33:34.35	198.13	12.46	-33.8	-34.5	25.6	0.00e+00	0	29	0	723517440	42	5392
2026-01-26 03:33:35.36	198.22	12.55	-33.7	-34.4	25.6	0.00e+00	0	29	0	728760320	42	5343
2026-01-26 03:33:36.37	198.31	12.64	-33.5	-34.1	25.7	0.00e+00	0	29	0	734003200	40	5828
2026-01-26 03:33:37.38	198.40	12.72	-33.7	-34.4	25.6	0.00e+00	0	29	0	740294656	40	5983
2026-01-26 03:33:38.39	198.49	12.81	-33.5	-34.1	25.8	0.00e+00	0	29	0	745537536	40	5788
2026-01-26 03:33:39.40	198.59	12.90	-33.8	-34.5	25.5	0.00e+00	0	29	0	751828992	40	6044
2026-01-26 03:33:40.41	198.68	12.99	-33.8	-34.4	25.1	0.00e+00	0	29	0	757071872	40	6018
2026-01-26 03:33:41.42	198.77	13.08	-34.5	-35.2	25.1	0.00e+00	0	29	0	762314752	40	6580
2026-01-26 03:33:42.43	198.87	13.16	-34.5	-35.2	25.0	0.00e+00	0	29	0	768606208	42	5856
2026-01-26 03:33:43.44	198.96	13.25	-34.5	-35.2	25.0	0.00e+00	0	29	0	773849088	42	5832
2026-01-26 03:33:44.45	199.06	13.34	-34.1	-34.8	25.2	0.00e+00	0	29	0	780140544	42	5608
2026-01-26 03:33:45.46	199.16	13.43	-34.7	-35.4	24.8	0.00e+00	0	29	0	785383424	42	5988
2026-01-26 03:33:46.47	199.25	13.52	-34.2	-34.8	25.2	0.00e+00	0	29	0	791674880	42	5615
2026-01-26 03:33:47.48	199.35	13.61	-34.1	-34.8	25.1	0.00e+00	0	29	0	796917760	42	5583
2026-01-26 03:33:48.49	199.45	13.70	-34.1	-34.8	25.0	0.00e+00	0	29	0	803209216	40	6286
2026-01-26 03:33:49.50	199.55	13.79	-33.9	-34.6	25.4	0.00e+00	0	29	0	808452096	40	6104
2026-01-26 03:33:50.51	199.65	13.88	-33.6	-34.3	25.6	0.00e+00	0	29	0	813694976	40	5946
2026-01-26 03:33:51.52	199.75	13.97	-33.7	-34.4	25.7	0.00e+00	0	29	0	819986432	40	6027
2026-01-26 03:33:52.53	199.85	14.06	-33.6	-34.3	25.7	0.00e+00	0	29	0	825229312	40	5954
2026-01-26 03:33:53.53	199.95	14.16	-33.4	-34.1	26.0	0.00e+00	0	29	0	831520768	40	5783
2026-01-26 03:33:54.54	200.05	14.25	-33.4	-34.1	25.7	0.00e+00	0	29	0	836763648	40	5764
2026-01-26 03:33:55.55	200.15	14.34	-33.5	-34.1	25.8	0.00e+00	0	29	0	842006528	40	5827
2026-01-26 03:33:56.57	200.25	14.43	-33.2	-33.9	26.1	0.00e+00	0	29	0	848297984	40	5669
2026-01-26 03:33:57.58	200.36	14.52	-33.7	-34.4	25.7	0.00e+00	0	29	0	853540864	40	5981
2026-01-26 03:33:58.58	200.46	14.62	-33.5	-34.1	25.8	0.00e+00	0	29	0	859832320	40	5819
2026-01-26 03:33:59.59	200.56	14.71	-33.4	-34.1	25.8	0.00e+00	0	29	0	865075200	40	5782
2026-01-26 03:34:00.60	200.67	14.80	-33.6	-34.3	25.8	0.00e+00	0	29	0	870318080	40	5946
2026-01-26 03:34:01.61	200.78	14.90	-33.4	-34.1	25.9	0.00e+00	0	29	0	876609536	40	5786
2026-01-26 03:34:02.62	200.88	14.99	-33.4	-34.1	25.9	0.00e+00	0	29	0	881852416	40	5815
2026-01-26 03:34:03.63	200.99	15.08	-33.9	-34.5	25.6	0.00e+00	0	29	0	888143872	40	6098
2026-01-26 03:34:04.64	201.10	15.18	-34.5	-35.2	24.8	0.00e+00	0	29	0	893386752	40	6607
2026-01-26 03:34:05.65	201.21	15.27	-34.3	-35.0	25.2	0.00e+00	0	29	0	899678208	42	5718
2026-01-26 03:34:06.66	201.31	15.37	-33.6	-34.3	26.0	0.00e+00	0	29	0	904921088	42	5281
2026-01-26 03:34:07.67	201.42	15.46	-33.9	-34.6	25.8	0.00e+00	0	29	0	910163968	40	6127
2026-01-26 03:34:08.68	201.54	15.56	-33.8	-34.5	25.7	0.00e+00	0	29	0	916455424	40	6077
2026-01-26 03:34:09.69	201.65	15.66	-34.0	-34.6	25.6	0.00e+00	0	29	0	921698304	40	6165
2026-01-26 03:34:10.70	201.76	15.75	-34.0	-34.7	25.4	0.00e+00	0	29	0	927989760	40	6212
2026-01-26 03:34:11.71	201.87	15.85	-33.8	-34.4	25.9	0.00e+00	0	29	0	933232640	40	6002
2026-01-26 03:34:12.72	201.98	15.94	-34.0	-34.7	25.9	0.00e+00	0	29	0	938475520	40	6228
2026-01-26 03:34:13.73	202.10	16.04	-33.8	-34.5	25.3	0.00e+00	0	29	0	944766976	40	6045
2026-01-26 03:34:14.74	202.21	16.14	-34.1	-34.8	25.5	0.00e+00	0	29	0	950009856	42	5571
2026-01-26 03:34:15.75	202.33	16.24	-33.6	-34.3	26.2	0.00e+00	0	29	0	956301312	42	5259
2026-01-26 03:34:16.76	202.44	16.33	-33.6	-34.3	25.9	0.00e+00	0	29	0	961544192	40	5913
2026-01-26 03:34:17.77	202.56	16.43	-34.0	-34.7	26.0	0.00e+00	0	29	0	966787072	40	6224
2026-01-26 03:34:18.78	202.68	16.53	-33.6	-34.2	26.1	0.00e+00	0	29	0	973078528	40	5881
2026-01-26 03:34:19.79	202.80	16.63	-33.8	-34.5	25.9	0.00e+00	0	29	0	978321408	40	6036
2026-01-26 03:34:20.80	202.92	16.73	-34.6	-35.2	25.3	0.00e+00	0	29	0	984612864	40	6605
2026-01-26 03:34:21.81	203.04	16.83	-34.3	-35.0	25.1	0.00e+00	0	29	0	989855744	42	5758
2026-01-26 03:34:22.82	203.16	16.93	-34.5	-35.2	25.1	0.00e+00	0	29	0	996147200	42	5876
2026-01-26 03:34:23.83	203.28	17.03	-34.2	-34.9	25.7	0.00e+00	0	29	0	1001390080	42	5654
2026-01-26 03:34:24.84	203.40	17.13	-34.7	-35.3	25.7	0.00e+00	0	29	0	1007681536	42	5944
2026-01-26 03:34:25.85	203.52	17.23	-33.9	-34.6	25.8	0.00e+00	0	29	0	1012924416	40	6123
2026-01-26 03:34:26.86	203.65	17.33	-33.8	-34.5	25.9	0.00e+00	0	29	0	1018167296	40	6054
2026-01-26 03:34:27.87	203.77	17.43	-33.9	-34.5	25.8	0.00e+00	0	29	0	1024458752	40	6092
2026-01-26 03:34:28.88	203.90	17.53	-34.2	-34.9	25.3	0.00e+00	0	29	0	1029701632	40	6351
2026-01-26 03:34:29.89	204.02	17.63	-35.4	-36.1	24.7	0.00e+00	0	29	0	1035993088	42	6508
2026-01-26 03:34:30.90	204.15	17.73	-34.6	-35.2	25.2	0.00e+00	0	29	0	1041235968	42	5844
2026-01-26 03:34:31.91	204.28	17.83	-34.7	-35.3	25.1	0.00e+00	0	29	0	1046478848	44	5304
2026-01-26 03:34:32.92	204.41	17.94	-34.8	-35.5	25.5	0.00e+00	0	29	0	1052770304	42	6065
2026-01-26 03:34:33.93	204.53	18.04	-35.1	-35.8	24.9	0.00e+00	0	29	0	1058013184	42	6252
2026-01-26 03:34:34.93	204.66	18.14	-34.4	-35.1	24.8	0.00e+00	0	29	0	1064304640	42	5827
2026-01-26 03:34:35.94	204.79	18.25	-35.4	-36.1	24.6	0.00e+00	0	29	0	1069547520	44	5793
2026-01-26 03:34:36.95	204.93	18.35	-35.6	-36.3	24.6	0.00e+00	0	29	0	1074790400	42	6668
2026-01-26 03:34:37.96	205.06	18.45	-34.5	-35.2	25.5	0.00e+00	0	29	0	1081081856	42	5829
2026-01-26 03:34:38.97	205.19	18.56	-34.2	-34.9	25.6	0.00e+00	0	29	0	1086324736	42	5655
2026-01-26 03:34:39.98	205.33	18.66	-34.7	-35.4	25.5	0.00e+00	0	29	0	1092616192	42	6009
2026-01-26 03:34:40.99	205.46	18.77	-35.5	-36.2	25.1	0.00e+00	0	29	0	1097859072	42	6578
2026-01-26 03:34:42.01	205.60	18.87	-34.4	-35.0	26.2	0.00e+00	0	29	0	1104150528	42	5756
2026-01-26 03:34:43.02	205.74	18.98	-33.7	-34.3	26.3	0.00e+00	0	29	0	1109393408	40	5922
2026-01-26 03:34:44.03	205.88	19.08	-33.3	-33.9	26.6	0.00e+00	0	29	0	1114636288	40	5679
2026-01-26 03:34:45.03	206.02	19.19	-33.0	-33.6	26.8	0.00e+00	0	29	0	1120927744	38	6144
2026-01-26 03:34:46.04	206.16	19.29	-32.5	-33.1	26.7	0.00e+00	0	29	0	1126170624	38	5818
2026-01-26 03:34:47.06	206.30	19.40	-33.7	-34.4	26.3	0.00e+00	0	29	0	1132462080	38	6709
2026-01-26 03:34:48.06	206.44	19.51	-34.3	-35.0	26.1	0.00e+00	0	29	0	1137704960	40	6430
2026-01-26 03:34:49.07	206.58	19.61	-34.0	-34.6	25.7	0.00e+00	0	29	0	1142947840	40	6166
2026-01-26 03:34:50.08	206.73	19.72	-33.8	-34.4	26.3	0.00e+00	0	29	0	1149239296	42	5354
2026-01-26 03:34:51.10	206.87	19.83	-33.8	-34.4	26.0	0.00e+00	0	29	0	1154482176	40	6015
2026-01-26 03:34:52.10	207.02	19.94	-33.7	-34.4	26.2	0.00e+00	0	29	0	1160773632	40	5971
2026-01-26 03:34:53.11	207.16	20.05	-33.7	-34.4	26.0	0.00e+00	0	29	0	1166016512	40	5984
2026-01-26 03:34:54.12	207.31	20.15	-33.1	-33.7	26.8	0.00e+00	0	29	0	1171259392	40	5548
2026-01-26 03:34:55.13	207.46	20.26	-34.2	-34.9	26.6	0.00e+00	0	29	0	1177550848	40	6343
2026-01-26 03:34:56.14	207.61	20.37	-33.9	-34.6	26.6	0.00e+00	0	29	0	1182793728	40	6115
2026-01-26 03:34:57.15	207.76	20.48	-33.9	-34.5	26.6	0.00e+00	0	29	0	1189085184	40	6083
2026-01-26 03:34:58.16	207.91	20.59	-32.9	-33.5	26.9	0.00e+00	0	29	0	1194328064	40	5423
2026-01-26 03:34:59.17	208.07	20.70	-32.8	-33.4	26.9	0.00e+00	0	29	0	1200619520	38	6010
2026-01-26 03:35:00.18	208.22	20.81	-33.5	-34.2	26.8	0.00e+00	0	29	0	1205862400	38	6567
2026-01-26 03:35:01.19	208.38	20.92	-33.2	-33.9	27.0	0.00e+00	0	29	0	1212153856	38	6336
2026-01-26 03:35:02.20	208.53	21.03	-32.6	-33.3	27.2	0.00e+00	0	29	0	1217396736	38	5901
2026-01-26 03:35:03.21	208.69	21.14	-32.4	-33.0	27.2	0.00e+00	0	29	0	1222639616	38	5721
2026-01-26 03:35:04.22	208.85	21.25	-32.1	-32.7	27.5	0.00e+00	0	29	0	1228931072	38	5525
2026-01-26 03:35:05.23	209.01	21.37	-32.3	-33.0	27.2	0.00e+00	0	29	0	1234173952	38	5717
2026-01-26 03:35:06.24	209.17	21.48	-32.2	-32.9	27.4	0.00e+00	0	29	0	1240465408	38	5656
2026-01-26 03:35:07.25	209.33	21.59	-31.9	-32.5	27.5	0.00e+00	0	29	0	1245708288	38	5409
2026-01-26 03:35:08.26	209.49	21.70	-31.7	-32.3	27.6	0.00e+00	0	29	0	1250951168	36	5921
2026-01-26 03:35:09.27	209.66	21.82	-31.9	-32.5	27.5	0.00e+00	0	29	0	1257242624	36	6099
2026-01-26 03:35:10.28	209.82	21.93	-32.7	-33.3	27.4	0.00e+00	0	29	0	1262485504	36	6687
2026-01-26 03:35:11.29	209.99	22.04	-33.3	-33.9	27.3	0.00e+00	0	29	0	1268776960	38	6367
2026-01-26 03:35:12.30	210.16	22.15	-33.0	-33.6	27.5	0.00e+00	0	29	0	1274019840	38	6138
2026-01-26 03:35:13.31	210.33	22.27	-33.8	-34.4	27.2	0.00e+00	0	29	0	1279262720	40	5997
2026-01-26 03:35:14.32	210.50	22.38	-33.8	-34.5	27.2	0.00e+00	0	29	0	1285554176	40	6035
2026-01-26 03:35:15.33	210.67	22.50	-33.3	-34.0	26.9	0.00e+00	0	29	0	1290797056	40	5707
2026-01-26 03:35:16.34	210.84	22.61	-34.2	-34.8	27.1	0.00e+00	0	29	0	1297088512	40	6300
2026-01-26 03:35:17.35	211.02	22.73	-34.2	-34.9	27.1	0.00e+00	0	29	0	1302331392	40	6324
2026-01-26 03:35:18.36	211.19	22.84	-33.4	-34.1	25.7	0.00e+00	0	29	0	1308622848	40	5773
2026-01-26 03:35:19.37	211.37	22.96	-35.1	-35.7	27.4	0.00e+00	0	29	0	1313865728	38	7848
2026-01-26 03:35:20.38	211.55	23.07	-33.9	-34.5	27.0	0.00e+00	0	29	0	1319108608	40	6080
2026-01-26 03:35:21.39	211.72	23.19	-33.5	-34.1	26.7	0.00e+00	0	29	0	1325400064	40	5824
2026-01-26 03:35:22.40	211.90	23.30	-33.2	-33.9	27.2	0.00e+00	0	29	0	1330642944	40	5636
2026-01-26 03:35:23.41	212.09	23.42	-32.3	-32.9	27.6	0.00e+00	0	29	0	1336934400	38	5664
2026-01-26 03:35:24.41	212.27	23.53	-32.5	-33.1	27.9	0.00e+00	0	29	0	1342177280	38	5788
2026-01-26 03:35:25.42	212.45	23.65	-31.9	-32.5	27.8	0.00e+00	0	29	0	1347420160	38	5392
2026-01-26 03:35:26.43	212.64	23.77	-31.6	-32.3	27.7	0.00e+00	0	29	0	1353711616	36	5921
2026-01-26 03:35:27.44	212.82	23.89	-32.5	-33.1	27.6	0.00e+00	0	29	0	1358954496	36	6505
2026-01-26 03:35:28.45	213.01	24.00	-32.8	-33.4	27.3	0.00e+00	0	29	0	1365245952	38	6019
2026-01-26 03:35:29.46	213.20	24.12	-32.3	-33.0	27.8	0.00e+00	0	29	0	1370488832	38	5724
2026-01-26 03:35:30.47	213.39	24.24	-31.8	-32.4	27.9	0.00e+00	0	29	0	1375731712	38	5340
2026-01-26 03:35:31.48	213.58	24.36	-31.5	-32.2	27.7	0.00e+00	0	29	0	1382023168	36	5847
2026-01-26 03:35:32.49	213.78	24.47	-32.1	-32.7	27.9	0.00e+00	0	29	0	1387266048	36	6223
2026-01-26 03:35:33.50	213.97	24.59	-31.8	-32.4	27.9	0.00e+00	0	29	0	1393557504	36	6029
2026-01-26 03:35:34.51	214.17	24.71	-31.9	-32.5	27.9	0.00e+00	0	29	0	1398800384	36	6100
2026-01-26 03:35:35.52	214.37	24.83	-32.5	-33.2	27.8	0.00e+00	0	29	0	1405091840	38	5868
2026-01-26 03:35:36.53	214.57	24.95	-32.4	-33.0	27.8	0.00e+00	0	29	0	1410334720	38	5736
2026-01-26 03:35:37.54	214.77	25.07	-32.5	-33.1	27.6	0.00e+00	0	29	0	1416626176	38	5793
2026-01-26 03:35:38.55	214.97	25.19	-31.6	-32.3	28.0	0.00e+00	0	29	0	1421869056	36	5903
2026-01-26 03:35:39.56	215.18	25.31	-31.4	-32.0	28.1	0.00e+00	0	29	0	1427111936	36	5745
2026-01-26 03:35:40.57	215.38	25.43	-31.7	-32.3	28.2	0.00e+00	0	29	0	1433403392	36	5919
2026-01-26 03:35:41.58	215.59	25.55	-31.7	-32.3	28.1	0.00e+00	0	29	0	1438646272	36	5936
2026-01-26 03:35:42.59	215.80	25.67	-31.4	-32.0	28.1	0.00e+00	0	29	0	1444937728	36	5726
2026-01-26 03:35:43.60	216.01	25.79	-31.7	-32.3	28.1	0.00e+00	0	29	0	1450180608	36	5959
2026-01-26 03:35:44.61	216.22	25.91	-31.5	-32.1	28.2	0.00e+00	0	29	0	1455423488	36	5777
2026-01-26 03:35:45.61	216.43	26.02	-31.8	-32.5	28.0	0.00e+00	0	29	0	1461714944	36	6037
2026-01-26 03:35:46.62	216.65	26.15	-31.3	-31.9	28.0	0.00e+00	0	29	0	1466957824	36	5666
2026-01-26 03:35:47.63	216.86	26.27	-30.7	-31.3	28.2	0.00e+00	0	29	0	1472200704	36	5311
2026-01-26 03:35:48.64	217.08	26.39	-31.5	-32.1	27.9	0.00e+00	0	29	0	1478492160	34	6513
2026-01-26 03:35:49.65	217.30	26.51	-31.7	-32.4	28.0	0.00e+00	0	29	0	1483735040	36	5986
2026-01-26 03:35:50.66	217.52	26.63	-31.0	-31.6	28.2	0.00e+00	0	29	0	1490026496	36	5468
2026-01-26 03:35:51.68	217.75	26.75	-31.3	-31.9	28.2	0.00e+00	0	29	0	1495269376	36	5667
2026-01-26 03:35:52.69	217.97	26.87	-31.3	-31.9	28.2	0.00e+00	0	29	0	1501560832	36	5664
2026-01-26 03:35:53.70	218.20	26.99	-30.9	-31.5	28.2	0.00e+00	0	29	0	1506803712	36	5431
2026-01-26 03:35:54.71	218.42	27.11	-31.4	-32.0	28.2	0.00e+00	0	29	0	1513095168	36	5741
2026-01-26 03:35:55.72	218.65	27.23	-31.4	-32.0	28.2	0.00e+00	0	29	0	1518338048	36	5748
2026-01-26 03:35:56.73	218.89	27.36	-31.2	-31.8	28.2	0.00e+00	0	29	0	1523580928	36	5628
2026-01-26 03:35:57.74	219.12	27.48	-30.9	-31.5	28.1	0.00e+00	0	29	0	1529872384	36	5395
2026-01-26 03:35:58.75	219.35	27.60	-30.9	-31.6	28.2	0.00e+00	0	29	0	1535115264	34	6123
2026-01-26 03:35:59.76	219.59	27.72	-30.9	-31.5	28.2	0.00e+00	0	29	0	1541406720	34	6071
2026-01-26 03:36:00.77	219.83	27.84	-30.8	-31.5	28.4	0.00e+00	0	29	0	1546649600	34	6048
2026-01-26 03:36:01.78	220.07	27.96	-31.0	-31.6	28.4	0.00e+00	0	29	0	1551892480	34	6128
2026-01-26 03:36:02.79	220.31	28.08	-31.1	-31.7	28.4	0.00e+00	0	29	0	1558183936	34	6189
2026-01-26 03:36:03.80	220.55	28.21	-31.0	-31.6	28.4	0.00e+00	0	29	0	1563426816	34	6138
2026-01-26 03:36:04.81	220.80	28.33	-31.2	-31.8	28.2	0.00e+00	0	29	0	1569718272	34	6272
2026-01-26 03:36:05.82	221.05	28.45	-31.8	-32.5	28.3	0.00e+00	0	29	0	1574961152	36	6042
2026-01-26 03:36:06.83	221.30	28.57	-31.9	-32.6	28.2	0.00e+00	0	29	0	1580204032	36	6104
2026-01-26 03:36:07.84	221.55	28.69	-32.0	-32.6	28.4	0.00e+00	0	29	0	1586495488	36	6132
2026-01-26 03:36:08.85	221.80	28.81	-31.7	-32.3	28.4	0.00e+00	0	29	0	1591738368	36	5930
2026-01-26 03:36:09.86	222.06	28.93	-31.0	-31.6	28.4	0.00e+00	0	29	0	1598029824	36	5499
2026-01-26 03:36:10.87	222.31	29.05	-31.1	-31.7	28.4	0.00e+00	0	29	0	1603272704	36	5556
2026-01-26 03:36:11.88	222.57	29.18	-31.3	-31.9	28.4	0.00e+00	0	29	0	1609564160	36	5651
2026-01-26 03:36:12.89	222.83	29.30	-31.0	-31.6	28.3	0.00e+00	0	29	0	1614807040	34	6141
2026-01-26 03:36:13.90	223.09	29.42	-30.6	-31.3	28.6	0.00e+00	0	29	0	1621098496	34	5901
2026-01-26 03:36:14.91	223.36	29.54	-30.7	-31.3	28.6	0.00e+00	0	29	0	1626341376	34	5960
2026-01-26 03:36:15.92	223.63	29.66	-30.9	-31.5	28.6	0.00e+00	0	29	0	1631584256	34	6089
2026-01-26 03:36:16.93	223.89	29.78	-32.0	-32.7	27.4	0.00e+00	0	30	0	1637875712	34	6951
2026-01-26 03:36:17.94	224.16	29.90	-31.9	-32.5	28.2	0.00e+00	0	29	0	1643118592	36	6051
2026-01-26 03:36:18.95	224.44	30.02	-31.2	-31.9	28.4	0.00e+00	0	29	0	1649410048	36	5632
2026-01-26 03:36:19.96	224.71	30.14	-31.0	-31.6	28.4	0.00e+00	0	29	0	1654652928	36	5443
2026-01-26 03:36:20.97	224.99	30.26	-30.6	-31.2	28.6	0.00e+00	0	30	0	1659895808	34	5888
2026-01-26 03:36:21.98	225.26	30.38	-30.8	-31.4	28.5	0.00e+00	0	30	0	1666187264	34	5991
2026-01-26 03:36:22.99	225.54	30.50	-30.3	-30.9	28.7	0.00e+00	0	29	0	1671430144	34	5685
2026-01-26 03:36:24.00	225.83	30.62	-30.4	-31.0	28.7	0.00e+00	0	29	0	1677721600	34	5716
2026-01-26 03:36:25.01	226.11	30.73	-30.1	-30.7	28.7	0.00e+00	0	29	0	1682964480	34	5550
2026-01-26 03:36:26.02	226.40	30.85	-30.2	-30.8	28.8	0.00e+00	0	30	0	1688207360	34	5585
2026-01-26 03:36:27.03	226.69	30.97	-30.5	-31.1	28.5	0.00e+00	0	29	0	1694498816	34	5784
2026-01-26 03:36:28.04	226.98	31.09	-30.6	-31.2	28.4	0.00e+00	0	29	0	1699741696	34	5867
2026-01-26 03:36:29.05	227.27	31.21	-30.5	-31.1	28.5	0.00e+00	0	29	0	1706033152	34	5802
2026-01-26 03:36:30.06	227.56	31.32	-30.4	-31.0	28.5	0.00e+00	0	29	0	1711276032	34	5751
2026-01-26 03:36:31.07	227.86	31.44	-31.1	-31.7	28.4	0.00e+00	0	29	0	1717567488	34	6201
2026-01-26 03:36:32.08	228.16	31.56	-31.1	-31.8	28.4	0.00e+00	0	29	0	1722810368	34	6251
2026-01-26 03:36:33.09	228.46	31.67	-31.1	-31.8	28.0	0.00e+00	0	29	0	1729101824	34	6280
2026-01-26 03:36:34.10	228.76	31.79	-31.3	-31.9	28.4	0.00e+00	0	29	0	1734344704	36	5652
2026-01-26 03:36:35.11	229.07	31.90	-30.9	-31.5	28.3	0.00e+00	0	29	0	1739587584	36	5417
2026-01-26 03:36:36.12	229.38	32.02	-31.0	-31.6	28.2	0.00e+00	0	29	0	1745879040	36	5502
2026-01-26 03:36:37.13	229.69	32.13	-31.0	-31.6	28.4	0.00e+00	0	29	0	1751121920	34	6124
2026-01-26 03:36:38.14	230.00	32.24	-31.4	-32.1	28.5	0.00e+00	0	29	0	1757413376	34	6476
2026-01-26 03:36:39.15	230.31	32.36	-30.7	-31.3	28.5	0.00e+00	0	29	0	1762656256	34	5931
2026-01-26 03:36:40.16	230.63	32.47	-30.6	-31.2	28.2	0.00e+00	0	29	0	1767899136	34	5877
2026-01-26 03:36:41.17	230.94	32.58	-30.8	-31.4	28.2	0.00e+00	0	29	0	1774190592	34	6000
2026-01-26 03:36:42.19	231.27	32.70	-31.2	-31.9	28.3	0.00e+00	0	29	0	1779433472	34	6323
2026-01-26 03:36:43.20	231.59	32.81	-30.4	-31.0	28.5	0.00e+00	0	29	0	1785724928	34	5757
2026-01-26 03:36:44.21	231.91	32.92	-30.9	-31.5	28.4	0.00e+00	0	29	0	1790967808	34	6065
2026-01-26 03:36:45.22	232.24	33.03	-31.0	-31.6	28.5	0.00e+00	0	29	0	1796210688	34	6152
2026-01-26 03:36:46.23	232.57	33.14	-31.0	-31.6	28.4	0.00e+00	0	29	0	1802502144	34	6170
2026-01-26 03:36:47.24	232.90	33.24	-32.0	-32.7	28.4	0.00e+00	0	29	0	1807745024	36	6186
2026-01-26 03:36:48.25	233.23	33.35	-32.3	-32.9	27.5	0.00e+00	0	29	0	1814036480	36	6388
2026-01-26 03:36:49.25	233.57	33.46	-31.5	-32.1	28.6	0.00e+00	0	29	0	1819279360	38	5174
2026-01-26 03:36:50.26	233.90	33.57	-32.5	-33.1	26.4	0.00e+00	0	29	0	1825570816	34	7334
2026-01-26 03:36:51.22	234.23	33.67	-31.9	-32.5	28.5	0.00e+00	0	29	0	1830813696	36	6061
2026-01-26 03:36:52.23	234.57	33.77	-32.0	-32.6	28.3	0.00e+00	0	29	0	1837105152	36	6142
2026-01-26 03:36:53.24	234.91	33.88	-32.4	-33.0	27.9	0.00e+00	0	29	0	1842348032	36	6416
2026-01-26 03:36:54.25	235.26	33.98	-32.0	-32.7	28.0	0.00e+00	0	30	0	1847590912	36	6186
2026-01-26 03:36:55.26	235.61	34.08	-32.5	-33.2	27.5	0.00e+00	0	29	0	1853882368	38	5846
2026-01-26 03:36:56.27	235.96	34.18	-33.4	-34.1	27.2	0.00e+00	0	29	0	1859125248	38	6498
2026-01-26 03:36:57.28	236.31	34.29	-31.4	-32.0	28.5	0.00e+00	0	29	0	1865416704	36	5715
2026-01-26 03:36:58.29	236.66	34.39	-31.1	-31.7	28.8	0.00e+00	0	30	0	1870659584	36	5522
2026-01-26 03:36:59.30	237.02	34.49	-31.9	-32.5	28.7	0.00e+00	0	29	0	1875902464	36	6046
2026-01-26 03:37:00.31	237.38	34.58	-31.6	-32.2	28.7	0.00e+00	0	29	0	1882193920	36	5893
2026-01-26 03:37:01.32	237.74	34.68	-31.8	-32.4	28.6	0.00e+00	0	29	0	1887436800	34	6704
2026-01-26 03:37:02.32	238.10	34.78	-31.5	-32.1	28.3	0.00e+00	0	29	0	1892679680	36	5810
2026-01-26 03:37:03.33	238.47	34.87	-31.9	-32.5	28.2	0.00e+00	0	29	0	1898971136	36	6092
2026-01-26 03:37:04.34	238.83	34.97	-31.6	-32.2	28.3	0.00e+00	0	29	0	1904214016	36	5865
2026-01-26 03:37:05.35	239.20	35.06	-31.0	-31.6	28.3	0.00e+00	0	29	0	1910505472	36	5463
2026-01-26 03:37:06.36	239.57	35.15	-30.3	-30.9	28.6	0.00e+00	0	30	0	1915748352	34	5662
2026-01-26 03:37:07.37	239.95	35.24	-30.8	-31.4	28.4	0.00e+00	0	29	0	1922039808	34	5984
2026-01-26 03:37:08.38	240.32	35.34	-30.8	-31.4	28.2	0.00e+00	0	29	0	1927282688	34	5996
2026-01-26 03:37:09.39	240.70	35.42	-30.7	-31.4	28.5	0.00e+00	0	29	0	1933574144	34	5989
2026-01-26 03:37:10.40	241.08	35.51	-31.4	-32.0	28.3	0.00e+00	0	29	0	1938817024	34	6426
2026-01-26 03:37:11.41	241.46	35.60	-31.2	-31.9	27.9	0.00e+00	0	29	0	1944059904	34	6334
2026-01-26 03:37:12.42	241.85	35.69	-31.0	-31.6	28.7	0.00e+00	0	29	0	1950351360	36	5495
2026-01-26 03:37:13.43	242.23	35.77	-31.2	-31.9	28.7	0.00e+00	0	29	0	1955594240	34	6335
2026-01-26 03:37:14.44	242.62	35.85	-31.5	-32.1	28.7	0.00e+00	0	29	0	1961885696	36	5795
2026-01-26 03:37:15.45	243.01	35.94	-30.6	-31.1	28.9	0.00e+00	0	29	0	1967128576	34	5821
2026-01-26 03:37:16.46	243.40	36.02	-30.4	-30.9	29.0	0.00e+00	0	29	0	1972371456	34	5689
2026-01-26 03:37:17.47	243.79	36.10	-30.4	-31.0	28.7	0.00e+00	0	29	0	1978662912	34	5760
2026-01-26 03:37:18.48	244.19	36.18	-30.8	-31.5	28.5	0.00e+00	0	29	0	1983905792	34	6045
2026-01-26 03:37:19.49	244.59	36.25	-31.5	-32.1	28.2	0.00e+00	0	30	0	1990197248	34	6537
2026-01-26 03:37:20.50	244.99	36.33	-30.7	-31.4	28.6	0.00e+00	0	30	0	1995440128	34	5966
2026-01-26 03:37:21.51	245.39	36.40	-30.0	-30.7	28.9	0.00e+00	0	29	0	2000683008	34	5508
2026-01-26 03:37:22.52	245.79	36.48	-30.0	-30.6	28.8	0.00e+00	0	29	0	2006974464	34	5464
2026-01-26 03:37:23.53	246.19	36.55	-30.1	-30.8	28.7	0.00e+00	0	30	0	2012217344	34	5592
2026-01-26 03:37:24.54	246.60	36.62	-30.4	-31.1	28.6	0.00e+00	0	30	0	2018508800	34	5772
2026-01-26 03:37:25.54	247.00	36.69	-30.8	-31.4	28.6	0.00e+00	0	29	0	2023751680	34	6020
2026-01-26 03:37:26.56	247.42	36.75	-30.3	-30.9	29.0	0.00e+00	0	29	0	2030043136	34	5657
2026-01-26 03:37:27.56	247.82	36.82	-30.9	-31.5	29.0	0.00e+00	0	29	0	2035286016	34	6043
2026-01-26 03:37:28.58	248.24	36.88	-30.6	-31.2	28.9	0.00e+00	0	30	0	2040528896	34	5872
2026-01-26 03:37:29.58	248.65	36.95	-31.2	-31.8	28.8	0.00e+00	0	29	0	2046820352	34	6265
2026-01-26 03:37:30.59	249.07	37.01	-30.7	-31.3	28.5	0.00e+00	0	29	0	2052063232	34	5943
2026-01-26 03:37:31.60	249.48	37.07	-31.2	-31.8	28.7	0.00e+00	0	29	0	2058354688	34	6302
2026-01-26 03:37:32.61	249.90	37.12	-31.2	-31.9	28.3	0.00e+00	0	29	0	2063597568	36	5646
2026-01-26 03:37:33.62	250.32	37.18	-30.2	-30.9	28.8	0.00e+00	0	29	0	2068840448	34	5639
2026-01-26 03:37:34.64	250.75	37.24	-30.5	-31.1	28.8	0.00e+00	0	29	0	2075131904	34	5828
2026-01-26 03:37:35.64	251.17	37.29	-31.3	-31.9	28.4	0.00e+00	0	29	0	2080374784	34	6342
2026-01-26 03:37:36.65	251.59	37.34	-30.0	-30.6	29.0	0.00e+00	0	29	0	2086666240	34	5451
2026-01-26 03:37:37.66	252.02	37.39	-30.3	-31.0	28.9	0.00e+00	0	29	0	2091909120	34	5710
2026-01-26 03:37:38.67	252.44	37.44	-29.8	-30.4	29.0	0.00e+00	0	29	0	2097152000	34	5332
2026-01-26 03:37:39.68	252.87	37.49	-30.9	-31.5	28.6	0.00e+00	0	29	0	2103443456	34	6066
2026-01-26 03:37:40.69	253.30	37.53	-30.6	-31.2	28.8	0.00e+00	0	29	0	2108686336	34	5843
2026-01-26 03:37:41.70	253.73	37.57	-30.7	-31.3	28.9	0.00e+00	0	29	0	2114977792	34	5951
2026-01-26 03:37:42.71	254.16	37.62	-31.6	-32.3	27.9	0.00e+00	0	29	0	2120220672	36	5920
2026-01-26 03:37:43.72	254.60	37.66	-32.5	-33.1	27.7	0.00e+00	0	29	0	2126512128	38	5806
2026-01-26 03:37:44.73	255.03	37.69	-32.3	-32.8	28.6	0.00e+00	0	29	0	2131755008	38	5630
2026-01-26 03:37:45.74	255.46	37.73	-32.3	-32.9	28.3	0.00e+00	0	29	0	2138046464	36	6379
2026-01-26 03:37:46.75	255.90	37.76	-32.5	-33.1	27.9	0.00e+00	0	29	0	2143289344	38	5768
2026-01-26 03:37:47.76	256.34	37.80	-32.7	-33.4	27.8	0.00e+00	0	29	0	2148532224	36	6747
2026-01-26 03:37:48.77	256.77	37.83	-31.8	-32.4	28.5	0.00e+00	0	29	0	2154823680	38	5361
2026-01-26 03:37:49.78	257.21	37.86	-32.7	-33.3	27.8	0.00e+00	0	29	0	2160066560	38	5936
2026-01-26 03:37:50.79	257.65	37.88	-32.8	-33.4	27.9	0.00e+00	0	29	0	2166358016	36	6757
2026-01-26 03:37:51.80	258.09	37.91	-32.0	-32.6	28.7	0.00e+00	0	29	0	2171600896	40	4872
2026-01-26 03:37:52.81	258.53	37.93	-32.3	-32.9	27.9	0.00e+00	0	29	0	2176843776	36	6335
2026-01-26 03:37:53.82	258.97	37.96	-32.1	-32.7	28.5	0.00e+00	0	29	0	2183135232	36	6233
2026-01-26 03:37:54.83	259.41	37.97	-31.3	-31.9	28.5	0.00e+00	0	29	0	2188378112	36	5687
2026-01-26 03:37:55.84	259.85	37.99	-30.7	-31.3	28.8	0.00e+00	0	29	0	2194669568	36	5282
2026-01-26 03:37:56.85	260.30	38.01	-31.2	-31.8	28.5	0.00e+00	0	29	0	2199912448	36	5572
2026-01-26 03:37:57.86	260.74	38.02	-30.9	-31.5	28.8	0.00e+00	0	29	0	2205155328	36	5421
2026-01-26 03:37:58.87	261.18	38.04	-30.7	-31.3	28.8	0.00e+00	0	30	0	2211446784	34	5939
2026-01-26 03:37:59.88	261.62	38.05	-30.6	-31.2	28.8	0.00e+00	0	29	0	2216689664	34	5868
2026-01-26 03:38:00.89	262.07	38.05	-30.7	-31.4	28.5	0.00e+00	0	29	0	2222981120	34	5979
2026-01-26 03:38:01.90	262.51	38.06	-31.8	-32.4	28.6	0.00e+00	0	29	0	2228224000	36	6024
2026-01-26 03:38:02.91	262.96	38.07	-31.1	-31.6	28.4	0.00e+00	0	29	0	2234515456	36	5478
2026-01-26 03:38:03.91	263.39	38.07	-31.4	-32.0	28.6	0.00e+00	0	30	0	2239758336	34	6406
2026-01-26 03:38:04.92	263.84	38.07	-31.1	-31.7	28.7	0.00e+00	0	29	0	2245001216	34	6231
2026-01-26 03:38:05.94	264.29	38.07	-30.6	-31.2	28.9	0.00e+00	0	29	0	2251292672	34	5831
2026-01-26 03:38:06.95	264.73	38.07	-31.0	-31.6	28.8	0.00e+00	0	30	0	2256535552	34	6134
2026-01-26 03:38:07.96	265.17	38.06	-31.1	-31.8	28.7	0.00e+00	0	29	0	2262827008	34	6280
2026-01-26 03:38:08.96	265.61	38.06	-30.5	-31.1	28.7	0.00e+00	0	29	0	2268069888	34	5777
2026-01-26 03:38:09.97	266.06	38.05	-30.6	-31.2	28.7	0.00e+00	0	29	0	2273312768	34	5888
2026-01-26 03:38:10.98	266.50	38.04	-29.7	-30.4	28.9	0.00e+00	0	29	0	2279604224	32	5966
2026-01-26 03:38:11.99	266.94	38.02	-30.3	-30.9	28.6	0.00e+00	0	30	0	2284847104	32	6380
2026-01-26 03:38:13.00	267.39	38.01	-30.3	-30.9	28.6	0.00e+00	0	29	0	2291138560	34	5695
2026-01-26 03:38:14.01	267.83	37.99	-30.1	-30.8	28.6	0.00e+00	0	29	0	2296381440	34	5579
2026-01-26 03:38:15.02	268.27	37.98	-31.3	-31.9	28.3	0.00e+00	0	29	0	2301624320	34	6363
2026-01-26 03:38:16.03	268.71	37.96	-31.1	-31.7	28.8	0.00e+00	0	29	0	2307915776	36	5543
2026-01-26 03:38:17.04	269.15	37.94	-30.9	-31.5	28.9	0.00e+00	0	29	0	2313158656	34	6051
2026-01-26 03:38:18.05	269.59	37.91	-30.2	-30.8	28.9	0.00e+00	0	29	0	2319450112	34	5577
2026-01-26 03:38:19.06	270.03	37.89	-30.7	-31.2	29.0	0.00e+00	0	29	0	2324692992	34	5883
2026-01-26 03:38:20.07	270.47	37.86	-30.7	-31.3	28.9	0.00e+00	0	30	0	2330984448	34	5963
2026-01-26 03:38:21.08	270.91	37.83	-30.1	-30.7	28.9	0.00e+00	0	29	0	2336227328	34	5539
2026-01-26 03:38:22.09	271.34	37.80	-30.2	-30.7	28.7	0.00e+00	0	29	0	2342518784	34	5544
2026-01-26 03:38:23.10	271.78	37.77	-31.1	-31.7	28.6	0.00e+00	0	29	0	2347761664	32	6981
2026-01-26 03:38:24.11	272.21	37.73	-31.1	-31.7	28.6	0.00e+00	0	29	0	2353004544	34	6188
2026-01-26 03:38:25.12	272.65	37.70	-30.8	-31.4	28.9	0.00e+00	0	29	0	2359296000	34	6000
2026-01-26 03:38:26.13	273.08	37.66	-30.8	-31.4	28.9	0.00e+00	0	30	0	2364538880	34	6005
2026-01-26 03:38:27.13	273.51	37.62	-30.7	-31.3	28.8	0.00e+00	0	29	0	2370830336	34	5941
2026-01-26 03:38:28.14	273.94	37.58	-31.2	-31.8	28.8	0.00e+00	0	29	0	2376073216	34	6303
2026-01-26 03:38:29.15	274.37	37.54	-31.2	-31.8	28.7	0.00e+00	0	29	0	2381316096	36	5621
2026-01-26 03:38:30.17	274.80	37.49	-31.3	-31.8	28.7	0.00e+00	0	29	0	2387607552	36	5611
2026-01-26 03:38:31.17	275.23	37.45	-31.0	-31.6	28.7	0.00e+00	0	29	0	2392850432	36	5483
2026-01-26 03:38:32.18	275.65	37.40	-31.5	-32.2	28.4	0.00e+00	0	29	0	2399141888	36	5836
2026-01-26 03:38:33.19	276.08	37.35	-30.5	-31.1	28.7	0.00e+00	0	29	0	2404384768	36	5192
2026-01-26 03:38:34.20	276.50	37.30	-32.1	-32.6	28.3	0.00e+00	0	29	0	2409627648	36	6135
2026-01-26 03:38:35.21	276.93	37.24	-32.7	-33.4	28.2	0.00e+00	0	29	0	2415919104	38	6028
2026-01-26 03:38:36.22	277.35	37.19	-31.4	-32.1	28.6	0.00e+00	0	29	0	2421161984	36	5781
2026-01-26 03:38:37.23	277.77	37.13	-31.4	-32.1	28.6	0.00e+00	0	29	0	2427453440	36	5765
2026-01-26 03:38:38.24	278.19	37.07	-31.3	-31.9	28.7	0.00e+00	0	29	0	2432696320	36	5637
2026-01-26 03:38:39.25	278.60	37.02	-31.0	-31.6	28.8	0.00e+00	0	29	0	2438987776	36	5447
2026-01-26 03:38:40.26	279.02	36.95	-31.5	-32.1	28.6	0.00e+00	0	29	0	2444230656	36	5818
2026-01-26 03:38:41.27	279.43	36.89	-31.6	-32.3	28.5	0.00e+00	0	29	0	2449473536	36	5928
2026-01-26 03:38:42.28	279.84	36.83	-31.8	-32.4	28.7	0.00e+00	0	29	0	2455764992	36	6013
2026-01-26 03:38:43.29	280.25	36.76	-31.7	-32.3	28.8	0.00e+00	0	29	0	2461007872	36	5962
2026-01-26 03:38:44.29	280.66	36.70	-31.5	-32.2	28.1	0.00e+00	0	29	0	2467299328	36	5858
2026-01-26 03:38:45.31	281.07	36.63	-32.1	-32.7	28.4	0.00e+00	0	30	0	2472542208	38	5549
2026-01-26 03:38:46.32	281.48	36.56	-32.3	-32.8	28.6	0.00e+00	0	30	0	2477785088	36	6267
2026-01-26 03:38:47.33	281.88	36.49	-31.7	-32.3	28.4	0.00e+00	0	29	0	2484076544	36	5922
2026-01-26 03:38:48.34	282.28	36.41	-31.2	-31.8	28.7	0.00e+00	0	29	0	2489319424	36	5628
2026-01-26 03:38:49.35	282.68	36.34	-30.8	-31.4	28.6	0.00e+00	0	29	0	2495610880	36	5373
2026-01-26 03:38:50.36	283.08	36.26	-30.4	-31.1	28.3	0.00e+00	0	29	0	2500853760	34	5776
2026-01-26 03:38:51.37	283.48	36.19	-31.4	-32.0	28.1	0.00e+00	0	29	0	2506096640	34	6425
2026-01-26 03:38:52.38	283.87	36.11	-31.1	-31.7	28.5	0.00e+00	0	29	0	2512388096	34	6204
2026-01-26 03:38:53.39	284.27	36.03	-31.0	-31.7	28.6	0.00e+00	0	30	0	2517630976	34	6221
2026-01-26 03:38:54.40	284.66	35.95	-31.1	-31.7	28.6	0.00e+00	0	29	0	2523922432	34	6239
2026-01-26 03:38:55.41	285.04	35.87	-30.7	-31.2	28.9	0.00e+00	0	29	0	2529165312	34	5879
2026-01-26 03:38:56.42	285.43	35.78	-31.5	-32.1	28.5	0.00e+00	0	29	0	2535456768	34	6480
2026-01-26 03:38:57.43	285.82	35.70	-30.9	-31.6	28.7	0.00e+00	0	30	0	2540699648	34	6106
2026-01-26 03:38:58.44	286.20	35.61	-31.0	-31.5	28.8	0.00e+00	0	30	0	2546991104	34	6076
2026-01-26 03:38:59.44	286.58	35.53	-30.9	-31.4	28.4	0.00e+00	0	29	0	2552233984	34	6008
2026-01-26 03:39:00.45	286.96	35.44	-31.9	-32.5	28.3	0.00e+00	0	29	0	2557476864	36	6061
2026-01-26 03:39:01.46	287.33	35.35	-31.3	-32.0	27.9	0.00e+00	0	29	0	2563768320	36	5727
2026-01-26 03:39:02.47	287.71	35.26	-31.7	-32.3	28.0	0.00e+00	0	29	0	2569011200	36	5939
2026-01-26 03:39:03.48	288.08	35.17	-32.1	-32.6	28.1	0.00e+00	0	29	0	2574254080	36	6172
2026-01-26 03:39:04.49	288.45	35.08	-31.5	-32.1	28.3	0.00e+00	0	29	0	2580545536	36	5802
2026-01-26 03:39:05.50	288.82	34.99	-31.5	-32.1	28.4	0.00e+00	0	29	0	2585788416	36	5796
2026-01-26 03:39:06.51	289.19	34.89	-32.8	-33.5	27.9	0.00e+00	0	29	0	2592079872	36	6774
2026-01-26 03:39:07.52	289.55	34.80	-31.9	-32.6	27.9	0.00e+00	0	30	0	2597322752	38	5483
2026-01-26 03:39:08.53	289.92	34.70	-31.6	-32.2	28.0	0.00e+00	0	29	0	2602565632	36	5868
2026-01-26 03:39:09.54	290.28	34.60	-32.1	-32.7	28.1	0.00e+00	0	29	0	2608857088	36	6185
2026-01-26 03:39:10.55	290.63	34.51	-32.1	-32.7	28.1	0.00e+00	0	30	0	2614099968	36	6191
2026-01-26 03:39:11.56	290.99	34.41	-31.4	-31.9	28.5	0.00e+00	0	29	0	2620391424	36	5668
2026-01-26 03:39:12.57	291.34	34.31	-31.6	-32.3	27.8	0.00e+00	0	29	0	2625634304	36	5916
2026-01-26 03:39:13.58	291.70	34.21	-32.0	-32.5	28.4	0.00e+00	0	29	0	2631925760	36	6098
2026-01-26 03:39:14.59	292.05	34.10	-31.8	-32.3	28.4	0.00e+00	0	29	0	2637168640	36	5955
2026-01-26 03:39:15.60	292.39	34.00	-32.1	-32.7	27.7	0.00e+00	0	29	0	2643460096	38	5560
2026-01-26 03:39:16.60	292.74	33.90	-32.4	-33.0	27.8	0.00e+00	0	29	0	2648702976	40	5110
2026-01-26 03:39:17.61	293.08	33.80	-32.2	-32.8	28.1	0.00e+00	0	30	0	2653945856	38	5601
2026-01-26 03:39:18.62	293.42	33.69	-33.1	-33.7	27.9	0.00e+00	0	29	0	2660237312	38	6212
2026-01-26 03:39:19.63	293.76	33.59	-33.6	-34.2	27.5	0.00e+00	0	29	0	2665480192	40	5891
2026-01-26 03:39:20.64	294.10	33.48	-32.9	-33.5	28.1	0.00e+00	0	29	0	2671771648	38	6063
2026-01-26 03:39:21.64	294.43	33.38	-32.1	-32.8	28.0	0.00e+00	0	29	0	2677014528	38	5578
2026-01-26 03:39:22.65	294.76	33.27	-32.6	-33.2	28.0	0.00e+00	0	29	0	2682257408	38	5896
2026-01-26 03:39:23.66	295.09	33.16	-32.7	-33.3	28.0	0.00e+00	0	29	0	2688548864	38	5913
2026-01-26 03:39:24.67	295.42	33.05	-32.8	-33.5	27.9	0.00e+00	0	29	0	2693791744	38	6053
2026-01-26 03:39:25.68	295.74	32.94	-33.3	-33.9	27.8	0.00e+00	0	29	0	2700083200	38	6346
2026-01-26 03:39:26.69	296.07	32.83	-32.6	-33.2	27.6	0.00e+00	0	29	0	2705326080	38	5844
2026-01-26 03:39:27.70	296.39	32.72	-32.7	-33.4	27.4	0.00e+00	0	30	0	2710568960	40	5354
2026-01-26 03:39:28.71	296.71	32.61	-33.1	-33.6	27.6	0.00e+00	0	30	0	2716860416	38	6132
2026-01-26 03:39:29.72	297.03	32.50	-32.7	-33.3	28.1	0.00e+00	0	29	0	2722103296	38	5957
2026-01-26 03:39:30.73	297.34	32.39	-32.0	-32.7	28.4	0.00e+00	0	29	0	2728394752	38	5512
2026-01-26 03:39:31.74	297.65	32.27	-33.5	-34.1	28.0	0.00e+00	0	29	0	2733637632	38	6486
2026-01-26 03:39:32.75	297.97	32.16	-32.8	-33.3	27.7	0.00e+00	0	29	0	2739929088	38	5956
2026-01-26 03:39:33.76	298.27	32.05	-32.9	-33.5	27.7	0.00e+00	0	29	0	2745171968	38	6061
2026-01-26 03:39:34.77	298.58	31.93	-33.2	-33.8	27.7	0.00e+00	0	29	0	2750414848	40	5575
2026-01-26 03:39:35.77	298.88	31.82	-33.1	-33.8	26.9	0.00e+00	0	29	0	2756706304	40	5596
2026-01-26 03:39:36.78	299.18	31.70	-33.6	-34.3	27.1	0.00e+00	0	30	0	2761949184	38	6653
2026-01-26 03:39:37.80	299.49	31.59	-32.8	-33.3	27.5	0.00e+00	0	29	0	2768240640	38	5934
2026-01-26 03:39:38.80	299.78	31.47	-32.5	-33.0	27.9	0.00e+00	0	29	0	2773483520	38	5757
2026-01-26 03:39:39.81	300.08	31.36	-32.3	-32.8	27.5	0.00e+00	0	30	0	2778726400	38	5618
2026-01-26 03:39:40.82	300.37	31.24	-32.0	-32.7	27.9	0.00e+00	0	29	0	2785017856	36	6208
2026-01-26 03:39:41.84	300.67	31.12	-32.4	-33.0	27.8	0.00e+00	0	30	0	2790260736	36	6419
2026-01-26 03:39:42.84	300.96	31.01	-32.5	-33.2	27.3	0.00e+00	0	30	0	2796552192	38	5872
2026-01-26 03:39:43.85	301.24	30.89	-32.5	-33.2	27.4	0.00e+00	0	29	0	2801795072	38	5836
2026-01-26 03:39:44.86	301.53	30.77	-32.6	-33.1	27.5	0.00e+00	0	30	0	2807037952	38	5825
2026-01-26 03:39:45.87	301.81	30.65	-32.3	-32.9	28.1	0.00e+00	0	30	0	2813329408	36	6337
2026-01-26 03:39:46.88	302.09	30.54	-32.5	-33.3	27.8	0.00e+00	0	29	0	2818572288	36	6618
2026-01-26 03:39:47.89	302.37	30.42	-32.4	-33.1	27.9	0.00e+00	0	30	0	2824863744	38	5781
2026-01-26 03:39:48.90	302.65	30.30	-33.4	-33.9	27.6	0.00e+00	0	30	0	2830106624	38	6385
2026-01-26 03:39:49.91	302.93	30.18	-32.9	-33.5	28.0	0.00e+00	0	29	0	2836398080	38	6100
2026-01-26 03:39:50.92	303.20	30.06	-31.9	-32.5	28.0	0.00e+00	0	29	0	2841640960	38	5383
2026-01-26 03:39:51.93	303.47	29.94	-32.8	-33.5	27.6	0.00e+00	0	29	0	2847932416	38	6054
2026-01-26 03:39:52.94	303.74	29.82	-31.8	-32.5	27.6	0.00e+00	0	30	0	2853175296	38	5388
2026-01-26 03:39:53.95	304.01	29.70	-33.6	-34.1	26.9	0.00e+00	0	30	0	2858418176	40	5788
2026-01-26 03:39:54.96	304.28	29.58	-32.6	-33.2	26.5	0.00e+00	0	30	0	2864709632	42	4657
2026-01-26 03:39:55.97	304.54	29.46	-32.0	-32.6	27.3	0.00e+00	0	30	0	2869952512	36	6110
2026-01-26 03:39:56.98	304.80	29.34	-32.5	-33.1	27.7	0.00e+00	0	30	0	2876243968	38	5776
2026-01-26 03:39:58.00	305.06	29.22	-31.8	-32.4	28.0	0.00e+00	0	30	0	2881486848	36	5981
2026-01-26 03:39:59.01	305.32	29.10	-31.8	-32.3	27.5	0.00e+00	0	30	0	2886729728	40	4692
2026-01-26 03:40:00.01	305.58	28.98	-32.3	-32.9	27.4	0.00e+00	0	29	0	2893021184	36	6359
2026-01-26 03:40:01.02	305.83	28.86	-32.5	-33.0	27.7	0.00e+00	0	30	0	2898264064	36	6455
2026-01-26 03:40:02.04	306.09	28.74	-33.0	-33.6	27.6	0.00e+00	0	29	0	2904555520	38	6104
2026-01-26 03:40:03.05	306.34	28.62	-31.9	-32.5	27.2	0.00e+00	0	30	0	2909798400	38	5419
2026-01-26 03:40:04.06	306.59	28.50	-33.1	-33.7	27.7	1.10e-06	0	29	0	2915041280	38	6214
2026-01-26 03:40:05.07	306.83	28.38	-32.7	-33.4	27.5	0.00e+00	0	30	0	2921332736	38	6003
2026-01-26 03:40:06.08	307.08	28.26	-32.7	-33.4	27.6	0.00e+00	0	30	0	2926575616	40	5350
2026-01-26 03:40:07.09	307.32	28.14	-33.8	-34.6	26.8	0.00e+00	0	30	0	2932867072	38	6853
2026-01-26 03:40:08.10	307.56	28.02	-33.1	-33.8	27.4	0.00e+00	0	30	0	2938109952	38	6272
2026-01-26 03:40:09.11	307.80	27.90	-33.0	-33.6	27.6	0.00e+00	0	30	0	2943352832	40	5441
2026-01-26 03:40:10.11	308.04	27.78	-32.7	-33.2	27.6	0.00e+00	0	30	0	2949644288	40	5254
2026-01-26 03:40:11.12	308.27	27.66	-33.2	-33.7	27.2	0.00e+00	0	30	0	2954887168	40	5546
2026-01-26 03:40:12.13	308.51	27.53	-33.0	-33.7	27.5	0.00e+00	0	29	0	2961178624	40	5512
2026-01-26 03:40:13.14	308.74	27.41	-32.5	-33.1	26.8	0.00e+00	0	30	0	2966421504	40	5148
2026-01-26 03:40:14.15	308.97	27.29	-33.1	-33.8	26.5	0.00e+00	0	30	0	2972712960	42	5015
2026-01-26 03:40:15.16	309.20	27.17	-33.2	-33.9	27.1	0.00e+00	0	30	0	2977955840	40	5668
2026-01-26 03:40:16.17	309.43	27.05	-34.8	-35.3	26.2	0.00e+00	0	30	0	2983198720	40	6689
2026-01-26 03:40:17.18	309.66	26.93	-33.3	-34.0	27.9	0.00e+00	0	30	0	2989490176	40	5734
2026-01-26 03:40:18.19	309.88	26.81	-34.3	-35.0	27.5	0.00e+00	0	30	0	2994733056	40	6403
2026-01-26 03:40:19.20	310.10	26.69	-32.2	-32.9	26.9	0.00e+00	0	30	0	3001024512	38	5693
2026-01-26 03:40:20.21	310.32	26.57	-33.3	-34.0	27.9	0.00e+00	0	30	0	3006267392	38	6433
2026-01-26 03:40:21.22	310.54	26.45	-32.1	-32.7	27.5	0.00e+00	0	30	0	3011510272	38	5533
2026-01-26 03:40:22.23	310.76	26.33	-33.5	-34.1	27.7	0.00e+00	0	29	0	3017801728	38	6529
2026-01-26 03:40:23.24	310.98	26.21	-33.0	-33.5	27.0	0.00e+00	0	30	0	3023044608	38	6039
2026-01-26 03:40:24.25	311.19	26.09	-32.2	-32.9	27.7	0.00e+00	0	30	0	3029336064	38	5664
2026-01-26 03:40:25.26	311.40	25.97	-35.3	-36.0	27.1	0.00e+00	0	30	0	3034578944	40	7221
2026-01-26 03:40:26.27	311.62	25.85	-34.2	-35.0	24.7	0.00e+00	0	30	0	3039821824	40	6394
2026-01-26 03:40:27.28	311.83	25.73	-33.1	-33.7	26.9	0.00e+00	0	30	0	3046113280	40	5522
2026-01-26 03:40:28.29	312.03	25.61	-33.3	-34.2	26.9	0.00e+00	0	30	0	3051356160	40	5868
2026-01-26 03:40:29.30	312.24	25.50	-32.7	-33.4	27.5	0.00e+00	0	30	0	3057647616	38	6033
2026-01-26 03:40:30.31	312.45	25.38	-33.8	-34.5	27.1	0.00e+00	0	29	0	3062890496	38	6846
2026-01-26 03:40:31.32	312.65	25.26	-33.1	-33.7	26.8	0.00e+00	0	30	0	3069181952	38	6218
2026-01-26 03:40:32.33	312.85	25.14	-32.6	-33.2	27.1	0.00e+00	0	29	0	3074424832	38	5847
2026-01-26 03:40:33.34	313.05	25.02	-32.6	-33.3	27.2	0.00e+00	0	30	0	3080716288	38	5918
2026-01-26 03:40:34.35	313.25	24.90	-33.7	-34.4	27.3	0.00e+00	0	30	0	3085959168	40	5986
2026-01-26 03:40:35.36	313.45	24.78	-33.1	-33.9	27.5	0.00e+00	0	30	0	3091202048	40	5651
2026-01-26 03:40:36.36	313.64	24.67	-33.1	-33.8	27.3	0.00e+00	0	30	0	3097493504	40	5580
2026-01-26 03:40:37.38	313.84	24.55	-33.6	-34.4	26.7	0.00e+00	0	30	0	3102736384	40	5966
2026-01-26 03:40:38.38	314.03	24.43	-33.4	-33.9	26.9	0.00e+00	0	30	0	3109027840	40	5695
2026-01-26 03:40:39.39	314.23	24.32	-33.9	-34.6	26.2	0.00e+00	0	30	0	3114270720	40	6165
2026-01-26 03:40:40.40	314.42	24.20	-34.6	-35.1	27.2	0.00e+00	0	30	0	3119513600	42	5766
2026-01-26 03:40:41.41	314.61	24.08	-34.8	-35.4	26.7	0.00e+00	0	30	0	3125805056	42	6033
2026-01-26 03:40:42.42	314.79	23.96	-33.4	-34.0	27.3	0.00e+00	0	30	0	3131047936	40	5748
2026-01-26 03:40:43.43	314.98	23.85	-33.3	-33.9	27.3	0.00e+00	0	29	0	3137339392	40	5654
2026-01-26 03:40:44.44	315.17	23.73	-32.5	-33.2	27.4	0.00e+00	0	30	0	3142582272	40	5201
2026-01-26 03:40:45.45	315.35	23.62	-32.7	-33.4	27.3	0.00e+00	0	29	0	3147825152	40	5372
2026-01-26 03:40:46.46	315.53	23.50	-32.9	-33.5	27.3	0.00e+00	0	29	0	3154116608	38	6075
2026-01-26 03:40:47.47	315.71	23.39	-33.8	-34.2	27.5	0.00e+00	0	30	0	3159359488	40	5881
2026-01-26 03:40:48.48	315.89	23.27	-33.5	-34.2	26.8	0.00e+00	0	30	0	3165650944	38	6549
2026-01-26 03:40:49.49	316.07	23.15	-32.8	-33.5	27.6	0.00e+00	0	30	0	3170893824	38	6076
2026-01-26 03:40:50.50	316.25	23.04	-33.6	-34.2	26.9	0.00e+00	0	30	0	3177185280	42	5236
2026-01-26 03:40:51.51	316.43	22.93	-33.6	-34.2	27.2	0.00e+00	0	30	0	3182428160	40	5832
2026-01-26 03:40:52.52	316.60	22.81	-33.6	-34.3	26.5	0.00e+00	0	30	0	3187671040	40	5918
2026-01-26 03:40:53.53	316.78	22.70	-34.1	-34.8	26.2	0.00e+00	0	30	0	3193962496	42	5595
2026-01-26 03:40:54.54	316.95	22.58	-33.9	-34.7	26.5	0.00e+00	0	30	0	3199205376	40	6232
2026-01-26 03:40:55.55	317.12	22.47	-33.9	-34.5	26.6	0.00e+00	0	30	0	3205496832	40	6058
2026-01-26 03:40:56.56	317.29	22.36	-34.5	-35.3	27.1	0.00e+00	0	30	0	3210739712	40	6630
2026-01-26 03:40:57.57	317.46	22.24	-33.2	-33.9	26.9	0.00e+00	0	30	0	3215982592	40	5691
2026-01-26 03:40:58.58	317.63	22.13	-32.9	-33.5	27.3	0.00e+00	0	30	0	3222274048	40	5404
2026-01-26 03:40:59.59	317.79	22.02	-33.6	-34.1	27.1	0.00e+00	0	30	0	3227516928	40	5816
2026-01-26 03:41:00.60	317.96	21.91	-32.5	-33.0	27.4	0.00e+00	0	30	0	3233808384	38	5730
2026-01-26 03:41:01.61	318.12	21.79	-32.5	-33.2	27.2	0.00e+00	0	30	0	3239051264	38	5888
2026-01-26 03:41:02.62	318.29	21.68	-33.6	-34.1	27.4	0.00e+00	0	30	0	3244294144	38	6509
2026-01-26 03:41:03.63	318.45	21.57	-33.8	-34.5	27.1	0.00e+00	0	30	0	3250585600	40	6069
2026-01-26 03:41:04.64	318.61	21.46	-35.0	-35.7	26.8	0.00e+00	0	30	0	3255828480	40	6940
2026-01-26 03:41:05.65	318.77	21.35	-34.6	-35.4	26.2	0.00e+00	0	30	0	3262119936	40	6751
2026-01-26 03:41:06.66	318.93	21.24	-33.2	-33.7	27.0	0.00e+00	0	30	0	3267362816	40	5561
2026-01-26 03:41:07.67	319.09	21.13	-33.5	-34.0	27.1	0.00e+00	0	30	0	3273654272	40	5759
2026-01-26 03:41:08.68	319.24	21.02	-33.4	-34.1	27.1	0.00e+00	0	30	0	3278897152	40	5794
2026-01-26 03:41:09.69	319.40	20.91	-34.5	-35.2	26.9	0.00e+00	0	30	0	3285188608	40	6590
2026-01-26 03:41:10.70	319.55	20.80	-34.8	-35.2	26.9	0.00e+00	0	29	0	3290431488	40	6579
2026-01-26 03:41:11.71	319.70	20.69	-33.3	-33.9	27.2	0.00e+00	0	29	0	3295674368	40	5678
2026-01-26 03:41:12.71	319.86	20.58	-34.4	-34.9	27.1	0.00e+00	0	30	0	3301965824	40	6378
2026-01-26 03:41:13.72	320.01	20.47	-33.9	-34.7	26.9	0.00e+00	0	29	0	3307208704	40	6202
2026-01-26 03:41:14.73	320.16	20.36	-33.8	-34.4	27.0	0.00e+00	0	29	0	3313500160	40	6028
2026-01-26 03:41:15.74	320.31	20.25	-34.9	-35.5	26.6	0.00e+00	0	30	0	3318743040	40	6848
2026-01-26 03:41:16.75	320.45	20.15	-34.0	-34.7	26.7	0.00e+00	0	30	0	3323985920	42	5534
2026-01-26 03:41:17.76	320.60	20.04	-33.9	-34.4	26.7	0.00e+00	0	29	0	3330277376	40	6025
2026-01-26 03:41:18.77	320.75	19.93	-34.0	-34.8	26.2	0.00e+00	0	30	0	3335520256	40	6246
2026-01-26 03:41:19.78	320.89	19.83	-33.9	-34.5	26.5	0.00e+00	0	30	0	3340763136	40	6091
2026-01-26 03:41:20.79	321.04	19.72	-34.4	-35.1	26.3	0.00e+00	0	30	0	3347054592	42	5790
2026-01-26 03:41:21.80	321.18	19.61	-34.8	-35.5	26.6	0.00e+00	0	30	0	3352297472	42	6059
2026-01-26 03:41:22.81	321.32	19.51	-33.9	-34.4	26.6	0.00e+00	0	29	0	3358588928	40	6003
2026-01-26 03:41:23.82	321.46	19.40	-33.9	-34.5	26.6	0.00e+00	0	30	0	3363831808	40	6043
2026-01-26 03:41:24.83	321.60	19.29	-34.1	-34.6	26.6	0.00e+00	0	30	0	3370123264	40	6171
2026-01-26 03:41:25.84	321.74	19.19	-34.0	-34.8	26.4	0.00e+00	0	30	0	3375366144	42	5588
2026-01-26 03:41:26.85	321.88	19.08	-34.2	-34.8	26.6	0.00e+00	0	30	0	3381657600	40	6263
2026-01-26 03:41:27.86	322.02	18.98	-34.6	-35.2	26.0	0.00e+00	0	30	0	3386900480	40	6579
2026-01-26 03:41:28.87	322.15	18.87	-34.0	-34.5	26.5	0.00e+00	0	30	0	3392143360	42	5418
2026-01-26 03:41:29.88	322.29	18.77	-34.8	-35.5	26.3	0.00e+00	0	30	0	3398434816	42	6099
2026-01-26 03:41:30.89	322.43	18.67	-34.2	-34.9	26.3	0.00e+00	0	30	0	3403677696	42	5633
2026-01-26 03:41:31.90	322.56	18.56	-34.5	-35.1	26.2	0.00e+00	0	30	0	3409969152	42	5779
2026-01-26 03:41:32.91	322.69	18.46	-34.6	-35.3	26.2	0.00e+00	0	30	0	3415212032	42	5911
2026-01-26 03:41:33.92	322.82	18.36	-35.5	-36.1	26.0	0.00e+00	0	30	0	3420454912	42	6515
2026-01-26 03:41:34.93	322.96	18.25	-34.8	-35.4	25.9	0.00e+00	0	30	0	3426746368	42	6016
2026-01-26 03:41:35.94	323.09	18.15	-34.1	-34.9	26.1	0.00e+00	0	30	0	3431989248	42	5640
2026-01-26 03:41:36.95	323.22	18.05	-35.3	-36.0	25.8	0.00e+00	0	30	0	3438280704	42	6406
2026-01-26 03:41:37.96	323.34	17.95	-34.5	-35.2	26.1	0.00e+00	0	30	0	3443523584	42	5890
2026-01-26 03:41:38.97	323.47	17.85	-34.6	-35.4	25.9	0.00e+00	0	30	0	3448766464	42	5998
2026-01-26 03:41:39.98	323.60	17.75	-34.4	-35.0	26.3	0.00e+00	0	30	0	3455057920	42	5741
2026-01-26 03:41:40.99	323.73	17.64	-34.2	-34.8	26.2	0.00e+00	0	30	0	3460300800	42	5584
2026-01-26 03:41:42.00	323.85	17.54	-33.8	-34.6	26.3	0.00e+00	0	30	0	3466592256	40	6122
2026-01-26 03:41:43.01	323.98	17.44	-34.6	-35.2	26.4	0.00e+00	0	30	0	3471835136	40	6547
2026-01-26 03:41:44.02	324.10	17.34	-35.1	-35.7	25.9	0.00e+00	0	30	0	3478126592	42	6242
2026-01-26 03:41:45.03	324.22	17.24	-34.0	-34.5	26.2	0.00e+00	0	29	0	3483369472	40	6065
2026-01-26 03:41:46.04	324.35	17.14	-34.6	-35.1	26.3	0.00e+00	0	30	0	3489660928	40	6536
2026-01-26 03:41:47.05	324.47	17.04	-33.8	-34.3	26.1	0.00e+00	0	30	0	3494903808	40	5964
2026-01-26 03:41:48.06	324.59	16.95	-34.5	-35.0	26.3	0.00e+00	0	29	0	3500146688	40	6449
2026-01-26 03:41:49.07	324.71	16.85	-34.6	-35.2	26.3	0.00e+00	0	30	0	3506438144	40	6547
2026-01-26 03:41:50.08	324.83	16.75	-34.8	-35.5	26.1	0.00e+00	0	30	0	3511681024	42	6041
2026-01-26 03:41:51.09	324.95	16.65	-35.3	-36.1	26.1	0.00e+00	0	30	0	3517972480	42	6501
2026-01-26 03:41:52.10	325.06	16.55	-34.4	-35.1	26.1	0.00e+00	0	30	0	3523215360	42	5814
2026-01-26 03:41:53.11	325.18	16.45	-35.2	-36.0	25.7	0.00e+00	0	30	0	3528458240	42	6426
2026-01-26 03:41:54.12	325.30	16.36	-34.9	-35.5	26.0	0.00e+00	0	30	0	3534749696	42	6089
2026-01-26 03:41:55.12	325.41	16.26	-35.2	-35.7	26.0	0.00e+00	0	30	0	3539992576	44	5520
2026-01-26 03:41:56.13	325.53	16.16	-34.1	-34.9	26.0	0.00e+00	0	30	0	3546284032	42	5651
2026-01-26 03:41:57.14	325.64	16.07	-34.3	-35.0	26.0	0.00e+00	0	30	0	3551526912	42	5746
2026-01-26 03:41:58.15	325.75	15.97	-34.2	-34.8	25.9	0.00e+00	0	30	0	3556769792	42	5569
2026-01-26 03:41:59.16	325.87	15.88	-34.1	-34.9	26.0	0.00e+00	0	30	0	3563061248	42	5640
2026-01-26 03:42:00.17	325.98	15.78	-33.8	-34.4	26.0	0.00e+00	0	30	0	3568304128	40	5975
2026-01-26 03:42:01.18	326.09	15.69	-34.3	-34.9	25.9	0.00e+00	0	30	0	3574595584	40	6365
2026-01-26 03:42:02.19	326.20	15.59	-33.5	-34.1	25.9	0.00e+00	0	30	0	3579838464	40	5762
2026-01-26 03:42:03.20	326.31	15.50	-34.4	-35.0	25.7	0.00e+00	0	29	0	3586129920	40	6424
2026-01-26 03:42:04.21	326.42	15.40	-34.5	-35.3	25.7	0.00e+00	0	30	0	3591372800	42	5912
2026-01-26 03:42:05.22	326.53	15.31	-34.6	-35.2	25.9	0.00e+00	0	30	0	3596615680	42	5860
2026-01-26 03:42:06.23	326.64	15.21	-34.2	-35.0	25.5	0.00e+00	0	30	0	3602907136	42	5719
2026-01-26 03:42:07.24	326.75	15.12	-34.4	-35.0	25.8	0.00e+00	0	30	0	3608150016	42	5699
