passes_logs/2026/01/26/R4.6S_Anadyr/R4.6S_Anadyr__20260126_143830_SUOMI_NPP_rec.log

#Pass ID: 20260126_143830_SUOMI NPP
#Satellite: SUOMI NPP
#Configuration: NPP
#almurnet v.1.7.20251203
#Start time: 2026-01-26 14:38:31

#Version: 2.2.20231116
#Station: R4.6S_Anadyr
#Location: 177.4865 lon 64.73178 lat
#TLE: 1 37849U 11061A   26025.95877665  .00000192  00000+0  11229-3 0  9997
#TLE: 2 37849  98.7822 327.9136 0002155  44.9234 315.2116 14.19530109738267

#Time	Az	El	Level	Level2	SNR	BER	BlckErr	Temp	State	Recorded	gain1	gain2
2026-01-26 14:38:31.13	20.24	0.05	-49.7	-62.1	3.4	1.52e+00	0	27	0	0	60	44889
2026-01-26 14:38:32.14	20.25	0.11	-50.8	-66.0	3.6	1.51e+00	0	28	104	0	60	72221
2026-01-26 14:38:33.15	20.26	0.17	-50.0	-65.3	3.6	1.51e+00	0	28	104	0	60	66280
2026-01-26 14:38:34.15	20.27	0.23	-50.2	-65.3	3.6	1.51e+00	0	28	104	0	60	66658
2026-01-26 14:38:35.17	20.28	0.29	-49.8	-65.0	3.6	1.51e+00	0	28	104	0	60	64620
2026-01-26 14:38:36.18	20.28	0.35	-49.6	-64.9	3.6	1.51e+00	0	28	104	0	60	63601
2026-01-26 14:38:37.19	20.29	0.41	-49.6	-64.8	3.6	1.51e+00	0	28	104	0	60	63078
2026-01-26 14:38:38.19	20.30	0.48	-49.5	-64.9	3.6	1.51e+00	0	28	104	0	60	63213
2026-01-26 14:38:39.20	20.31	0.54	-49.6	-64.9	3.6	1.51e+00	0	28	104	0	60	63292
2026-01-26 14:38:40.21	20.32	0.60	-49.6	-64.8	3.6	1.51e+00	0	28	104	0	60	62996
2026-01-26 14:38:41.22	20.33	0.66	-49.6	-64.8	3.5	1.51e+00	0	28	104	0	60	62914
2026-01-26 14:38:42.23	20.34	0.72	-49.6	-64.8	3.6	1.51e+00	0	28	104	0	60	62869
2026-01-26 14:38:43.24	20.35	0.78	-49.6	-64.8	3.6	1.51e+00	0	28	104	0	60	62590
2026-01-26 14:38:44.26	20.36	0.84	-49.5	-64.7	3.6	1.51e+00	0	28	104	0	60	62067
2026-01-26 14:38:45.27	20.37	0.91	-49.5	-64.7	3.6	1.51e+00	0	28	104	0	60	61948
2026-01-26 14:38:46.28	20.38	0.97	-49.4	-64.6	3.6	1.51e+00	0	29	104	0	60	61079
2026-01-26 14:38:47.29	20.39	1.03	-49.3	-64.5	3.6	1.51e+00	0	29	104	0	60	60723
2026-01-26 14:38:48.30	20.40	1.09	-49.2	-64.4	3.6	1.51e+00	0	29	104	0	60	60216
2026-01-26 14:38:49.31	20.41	1.15	-49.1	-64.3	3.6	1.51e+00	0	28	104	0	60	59278
2026-01-26 14:38:50.32	20.42	1.22	-49.0	-64.2	3.6	1.51e+00	0	28	104	0	60	58517
2026-01-26 14:38:51.33	20.43	1.28	-48.9	-64.1	3.6	1.51e+00	0	29	104	0	60	58024
2026-01-26 14:38:52.34	20.44	1.34	-48.8	-64.0	3.6	1.51e+00	0	29	104	0	60	57250
2026-01-26 14:38:53.35	20.45	1.40	-48.6	-63.8	3.6	1.51e+00	0	29	104	0	60	55717
2026-01-26 14:38:54.36	20.46	1.47	-48.4	-63.5	3.6	1.51e+00	0	29	104	0	60	54047
2026-01-26 14:38:55.37	20.47	1.53	-48.2	-63.2	3.6	1.51e+00	0	29	104	0	60	52355
2026-01-26 14:38:56.38	20.48	1.59	-48.2	-63.3	3.6	1.51e+00	0	29	104	0	60	52721
2026-01-26 14:38:57.39	20.49	1.66	-48.2	-63.3	3.6	1.51e+00	0	29	104	0	60	52993
2026-01-26 14:38:58.40	20.50	1.72	-48.2	-63.3	3.6	1.51e+00	0	29	104	0	60	52808
2026-01-26 14:38:59.41	20.51	1.79	-48.2	-63.3	3.6	1.51e+00	0	29	104	0	60	53119
2026-01-26 14:39:00.42	20.52	1.85	-48.2	-63.4	3.6	1.51e+00	0	29	104	0	60	53337
2026-01-26 14:39:01.43	20.53	1.91	-48.2	-63.4	3.6	1.51e+00	0	29	104	0	60	53335
2026-01-26 14:39:02.44	20.54	1.98	-48.2	-63.4	3.6	1.51e+00	0	29	104	0	60	53578
2026-01-26 14:39:03.45	20.55	2.04	-48.2	-63.4	3.6	1.51e+00	0	29	104	0	60	53412
2026-01-26 14:39:04.46	20.56	2.11	-48.3	-63.4	3.6	1.51e+00	0	29	104	0	60	53698
2026-01-26 14:39:05.47	20.57	2.17	-48.2	-63.4	3.6	1.51e+00	0	29	104	0	60	53245
2026-01-26 14:39:06.48	20.58	2.24	-48.2	-63.2	3.6	1.51e+00	0	29	104	0	60	52290
2026-01-26 14:39:07.49	20.59	2.30	-48.2	-62.6	3.6	1.51e+00	0	29	104	0	60	48687
2026-01-26 14:39:08.50	20.60	2.36	-48.2	-62.3	3.6	1.51e+00	0	29	104	0	60	47200
2026-01-26 14:39:09.51	20.61	2.43	-48.2	-61.8	3.6	1.51e+00	0	29	104	0	60	44286
2026-01-26 14:39:10.52	20.62	2.50	-48.2	-61.6	3.6	1.51e+00	0	29	104	0	60	43511
2026-01-26 14:39:11.53	20.63	2.56	-48.1	-61.3	3.6	1.50e+00	0	29	104	0	60	42002
2026-01-26 14:39:12.54	20.64	2.63	-48.2	-61.4	3.6	1.50e+00	0	29	104	0	60	42702
2026-01-26 14:39:13.55	20.65	2.69	-48.2	-61.9	3.6	1.51e+00	0	29	104	0	60	45051
2026-01-26 14:39:14.56	20.66	2.76	-48.2	-62.1	3.6	1.51e+00	0	29	104	0	60	45827
2026-01-26 14:39:15.57	20.67	2.82	-48.1	-60.1	4.0	1.50e+00	0	29	104	0	60	36591
2026-01-26 14:39:16.58	20.68	2.89	-47.9	-56.7	4.9	8.52e-01	0	29	0	1048576	60	24691
2026-01-26 14:39:17.59	20.69	2.96	-47.4	-54.2	7.4	3.44e-01	51	29	0	3145728	60	18454
2026-01-26 14:39:18.59	20.70	3.02	-47.2	-53.3	8.6	5.99e-02	0	29	0	4194304	60	16766
2026-01-26 14:39:19.60	20.71	3.09	-46.2	-50.5	11.2	1.27e-03	86	29	0	6291456	60	12122
2026-01-26 14:39:20.61	20.72	3.16	-45.8	-49.5	12.7	2.25e-04	0	29	0	8388608	60	10850
2026-01-26 14:39:21.62	20.73	3.22	-44.8	-47.7	14.6	5.18e-05	0	29	0	10485760	60	8796
2026-01-26 14:39:22.64	20.74	3.29	-44.6	-47.5	15.1	0.00e+00	0	29	0	12582912	60	8538
2026-01-26 14:39:23.64	20.75	3.36	-43.8	-46.1	16.2	0.00e+00	0	29	0	14680064	60	7333
2026-01-26 14:39:24.65	20.76	3.43	-43.2	-45.3	17.1	0.00e+00	70	29	0	15728640	60	6623
2026-01-26 14:39:25.66	20.78	3.49	-43.2	-45.3	17.0	0.00e+00	0	29	0	17825792	60	6646
2026-01-26 14:39:26.67	20.79	3.56	-43.6	-45.9	16.4	0.00e+00	92	29	0	19922944	60	7106
2026-01-26 14:39:27.68	20.80	3.63	-44.0	-46.5	15.9	0.00e+00	0	29	0	22020096	60	7618
2026-01-26 14:39:28.69	20.81	3.70	-44.5	-47.3	15.0	0.00e+00	0	29	0	24117248	60	8369
2026-01-26 14:39:29.70	20.82	3.77	-42.7	-44.6	17.4	0.00e+00	0	29	0	25165824	58	6906
2026-01-26 14:39:30.71	20.83	3.83	-43.3	-45.4	16.3	0.00e+00	0	29	0	27262976	58	7557
2026-01-26 14:39:31.72	20.84	3.90	-47.5	-54.9	5.8	0.00e+00	0	29	0	29360128	60	20020
2026-01-26 14:39:32.73	20.85	3.97	-45.2	-48.3	13.7	3.51e-01	0	29	104	29360128	60	9432
2026-01-26 14:39:33.74	20.86	4.04	-48.1	-59.6	3.4	0.00e+00	92	29	0	30408704	60	34689
2026-01-26 14:39:34.75	20.87	4.11	-47.0	-53.1	5.4	1.51e+00	0	29	104	30408704	60	16320
2026-01-26 14:39:35.75	20.88	4.18	-45.9	-50.0	12.2	1.18e-04	0	29	0	30408704	60	11366
2026-01-26 14:39:36.77	20.89	4.25	-46.2	-50.5	12.2	3.84e-04	0	29	0	32505856	60	12047
2026-01-26 14:39:37.78	20.90	4.32	-45.6	-49.0	13.9	1.72e-04	0	29	0	33554432	60	10171
2026-01-26 14:39:38.79	20.92	4.39	-43.6	-45.8	16.6	0.00e+00	0	29	0	35651584	60	7042
2026-01-26 14:39:39.80	20.93	4.46	-43.8	-46.0	16.5	0.00e+00	0	29	0	37748736	60	7248
2026-01-26 14:39:40.81	20.94	4.53	-44.3	-46.9	15.7	0.00e+00	75	29	0	39845888	60	7961
2026-01-26 14:39:41.82	20.95	4.60	-43.8	-46.1	16.1	0.00e+00	0	29	0	41943040	60	7290
2026-01-26 14:39:42.83	20.96	4.67	-44.4	-46.9	16.1	0.00e+00	44	29	0	42991616	60	7983
2026-01-26 14:39:43.83	20.97	4.74	-44.5	-47.1	15.5	0.00e+00	0	29	0	45088768	60	8193
2026-01-26 14:39:44.84	20.98	4.81	-43.4	-45.4	17.2	0.00e+00	0	29	0	47185920	60	6744
2026-01-26 14:39:45.85	20.99	4.88	-42.6	-44.4	18.1	0.00e+00	33	29	0	49283072	58	6696
2026-01-26 14:39:46.86	21.00	4.95	-42.8	-44.6	18.0	0.00e+00	0	29	0	51380224	58	6870
2026-01-26 14:39:47.87	21.02	5.03	-43.0	-45.0	17.6	0.00e+00	86	29	0	52428800	58	7180
2026-01-26 14:39:48.88	21.03	5.10	-42.8	-44.6	17.7	0.00e+00	0	29	0	54525952	58	6900
2026-01-26 14:39:49.89	21.04	5.17	-42.4	-44.1	18.7	0.00e+00	25	29	0	56623104	58	6496
2026-01-26 14:39:50.90	21.05	5.24	-41.7	-43.2	19.2	0.00e+00	0	29	0	58720256	56	6610
2026-01-26 14:39:51.91	21.06	5.31	-41.5	-43.0	19.6	0.00e+00	0	29	0	60817408	56	6407
2026-01-26 14:39:52.92	21.07	5.39	-41.5	-43.0	19.5	0.00e+00	9	29	0	61865984	56	6401
2026-01-26 14:39:53.93	21.08	5.46	-41.4	-42.8	19.7	0.00e+00	0	29	0	63963136	56	6287
2026-01-26 14:39:54.94	21.10	5.53	-41.3	-42.7	19.8	0.00e+00	92	29	0	66060288	56	6216
2026-01-26 14:39:55.95	21.11	5.61	-41.4	-42.8	19.6	0.00e+00	0	29	0	68157440	56	6313
2026-01-26 14:39:56.96	21.12	5.68	-41.3	-42.7	19.9	0.00e+00	70	29	0	70254592	56	6196
2026-01-26 14:39:57.98	21.13	5.75	-41.2	-42.5	20.0	0.00e+00	0	29	0	71303168	56	6084
2026-01-26 14:39:58.98	21.14	5.83	-41.2	-42.5	20.0	0.00e+00	0	29	0	73400320	56	6073
2026-01-26 14:39:59.99	21.15	5.90	-41.2	-42.6	20.0	0.00e+00	0	29	0	75497472	56	6109
2026-01-26 14:40:01.00	21.17	5.97	-41.0	-42.4	20.1	0.00e+00	0	29	0	77594624	56	5985
2026-01-26 14:40:02.01	21.18	6.05	-41.1	-42.4	20.1	0.00e+00	51	29	0	79691776	56	5997
2026-01-26 14:40:03.02	21.19	6.12	-41.2	-42.5	20.1	0.00e+00	0	29	0	80740352	56	6074
2026-01-26 14:40:04.03	21.20	6.20	-41.2	-42.6	20.0	0.00e+00	46	29	0	82837504	56	6149
2026-01-26 14:40:05.04	21.21	6.27	-40.6	-41.8	20.6	0.00e+00	0	29	0	84934656	54	6315
2026-01-26 14:40:06.05	21.22	6.35	-40.9	-42.2	20.1	0.00e+00	0	29	0	87031808	54	6583
2026-01-26 14:40:07.06	21.24	6.42	-40.9	-42.2	20.2	0.00e+00	0	29	0	89128960	54	6589
2026-01-26 14:40:08.06	21.25	6.50	-40.9	-42.2	20.3	0.00e+00	0	29	0	90177536	54	6547
2026-01-26 14:40:09.07	21.26	6.58	-40.8	-42.0	20.6	0.00e+00	47	29	0	92274688	54	6449
2026-01-26 14:40:10.08	21.27	6.65	-41.0	-42.3	20.3	0.00e+00	0	29	0	94371840	54	6627
2026-01-26 14:40:11.09	21.28	6.73	-40.7	-42.0	20.5	0.00e+00	91	29	0	96468992	54	6418
2026-01-26 14:40:12.10	21.30	6.81	-40.7	-42.0	20.5	0.00e+00	0	29	0	98566144	54	6429
2026-01-26 14:40:13.11	21.31	6.88	-40.7	-41.9	20.5	0.00e+00	0	29	0	100663296	54	6358
2026-01-26 14:40:14.11	21.32	6.96	-40.7	-41.9	20.6	0.00e+00	0	29	0	101711872	54	6366
2026-01-26 14:40:15.12	21.33	7.04	-40.6	-41.9	20.7	0.00e+00	0	29	0	103809024	54	6349
2026-01-26 14:40:16.13	21.34	7.11	-40.5	-41.7	20.9	0.00e+00	0	29	0	105906176	54	6220
2026-01-26 14:40:17.14	21.36	7.19	-40.5	-41.8	20.8	0.00e+00	33	29	0	108003328	54	6248
2026-01-26 14:40:18.15	21.37	7.27	-40.3	-41.4	21.1	0.00e+00	78	29	0	110100480	54	6027
2026-01-26 14:40:19.16	21.38	7.35	-40.3	-41.5	21.0	0.00e+00	0	29	0	111149056	54	6056
2026-01-26 14:40:20.17	21.39	7.43	-40.3	-41.5	21.1	0.00e+00	38	29	0	113246208	54	6035
2026-01-26 14:40:21.18	21.41	7.50	-40.2	-41.4	21.1	0.00e+00	0	29	0	115343360	54	6008
2026-01-26 14:40:22.19	21.42	7.58	-40.1	-41.3	21.2	0.00e+00	33	29	0	117440512	54	5931
2026-01-26 14:40:23.20	21.43	7.66	-40.2	-41.4	21.1	0.00e+00	57	29	0	119537664	54	6018
2026-01-26 14:40:24.21	21.44	7.74	-40.3	-41.4	21.0	0.00e+00	0	29	0	120586240	54	6030
2026-01-26 14:40:25.22	21.46	7.82	-40.2	-41.3	21.1	0.00e+00	67	29	0	122683392	54	5961
2026-01-26 14:40:26.23	21.47	7.90	-40.1	-41.2	21.2	0.00e+00	0	29	0	124780544	54	5887
2026-01-26 14:40:27.24	21.48	7.98	-40.2	-41.4	21.2	0.00e+00	92	29	0	126877696	54	5983
2026-01-26 14:40:28.25	21.50	8.06	-39.9	-41.1	21.4	0.00e+00	0	29	0	128974848	54	5766
2026-01-26 14:40:29.26	21.51	8.14	-40.2	-41.3	21.2	0.00e+00	0	29	0	130023424	54	5962
2026-01-26 14:40:30.27	21.52	8.23	-40.1	-41.3	21.2	0.00e+00	0	29	0	132120576	54	5934
2026-01-26 14:40:31.28	21.53	8.31	-40.0	-41.1	21.3	0.00e+00	0	29	0	134217728	54	5804
2026-01-26 14:40:32.29	21.55	8.39	-40.1	-41.2	21.3	0.00e+00	62	29	0	136314880	54	5869
2026-01-26 14:40:33.30	21.56	8.47	-40.1	-41.2	21.3	0.00e+00	0	29	0	138412032	54	5896
2026-01-26 14:40:34.31	21.57	8.55	-40.4	-41.5	21.0	0.00e+00	78	29	0	139460608	54	6092
2026-01-26 14:40:35.32	21.59	8.63	-39.9	-41.1	21.5	0.00e+00	0	29	0	141557760	54	5771
2026-01-26 14:40:36.33	21.60	8.72	-40.0	-41.1	21.5	0.00e+00	0	29	0	143654912	54	5823
2026-01-26 14:40:37.33	21.61	8.80	-39.7	-40.8	21.7	0.00e+00	0	29	0	145752064	54	5619
2026-01-26 14:40:38.34	21.63	8.88	-39.7	-40.8	21.7	0.00e+00	0	29	0	147849216	52	6311
2026-01-26 14:40:39.35	21.64	8.97	-39.6	-40.7	21.8	0.00e+00	0	29	0	148897792	52	6176
2026-01-26 14:40:40.36	21.65	9.05	-39.9	-41.0	21.6	0.00e+00	0	29	0	150994944	52	6433
2026-01-26 14:40:41.37	21.67	9.13	-39.8	-40.9	21.7	0.00e+00	82	29	0	153092096	52	6361
2026-01-26 14:40:42.37	21.68	9.22	-39.8	-40.9	21.6	0.00e+00	0	29	0	155189248	52	6375
2026-01-26 14:40:43.38	21.69	9.30	-39.6	-40.7	21.8	0.00e+00	0	29	0	157286400	52	6181
2026-01-26 14:40:44.39	21.71	9.39	-39.6	-40.6	21.8	0.00e+00	0	29	0	158334976	52	6165
2026-01-26 14:40:45.40	21.72	9.47	-39.3	-40.3	22.2	0.00e+00	0	30	0	160432128	52	5937
2026-01-26 14:40:46.41	21.73	9.56	-39.4	-40.5	22.1	0.00e+00	63	29	0	162529280	52	6044
2026-01-26 14:40:47.42	21.75	9.64	-39.4	-40.4	22.1	0.00e+00	0	29	0	164626432	52	6016
2026-01-26 14:40:48.43	21.76	9.73	-39.5	-40.6	22.0	0.00e+00	71	29	0	166723584	52	6128
2026-01-26 14:40:49.44	21.78	9.82	-39.4	-40.5	22.0	0.00e+00	0	30	0	168820736	52	6052
2026-01-26 14:40:50.45	21.79	9.90	-39.5	-40.5	22.0	0.00e+00	0	29	0	169869312	52	6101
2026-01-26 14:40:51.46	21.80	9.99	-39.7	-40.8	21.7	0.00e+00	0	29	0	171966464	52	6273
2026-01-26 14:40:52.47	21.82	10.08	-39.8	-40.8	21.7	0.00e+00	0	29	0	174063616	52	6317
2026-01-26 14:40:53.48	21.83	10.16	-39.4	-40.5	22.0	0.00e+00	9	29	0	176160768	52	6066
2026-01-26 14:40:54.49	21.85	10.25	-39.5	-40.5	22.0	0.00e+00	0	29	0	177209344	52	6074
2026-01-26 14:40:55.50	21.86	10.34	-39.3	-40.3	22.2	0.00e+00	86	30	0	179306496	52	5956
2026-01-26 14:40:56.51	21.87	10.43	-39.2	-40.2	22.3	0.00e+00	0	30	0	181403648	52	5882
2026-01-26 14:40:57.52	21.89	10.52	-39.0	-40.0	22.5	0.00e+00	92	30	0	183500800	52	5702
2026-01-26 14:40:58.53	21.90	10.61	-38.9	-39.9	22.6	0.00e+00	0	30	0	185597952	52	5645
2026-01-26 14:40:59.54	21.92	10.70	-39.1	-40.1	22.4	0.00e+00	0	29	0	186646528	52	5772
2026-01-26 14:41:00.55	21.93	10.79	-39.0	-40.0	22.5	0.00e+00	0	30	0	188743680	52	5743
2026-01-26 14:41:01.56	21.95	10.88	-38.9	-39.9	22.5	0.00e+00	0	29	0	190840832	50	6348
2026-01-26 14:41:02.57	21.96	10.97	-39.3	-40.4	22.2	0.00e+00	80	29	0	192937984	50	6720
2026-01-26 14:41:03.58	21.98	11.06	-38.9	-39.9	22.6	0.00e+00	0	30	0	195035136	50	6324
2026-01-26 14:41:04.59	21.99	11.15	-38.8	-39.7	22.7	0.00e+00	67	30	0	197132288	50	6239
2026-01-26 14:41:05.59	22.01	11.24	-38.9	-40.0	22.5	0.00e+00	0	30	0	198180864	50	6391
2026-01-26 14:41:06.60	22.02	11.33	-38.8	-39.8	22.6	0.00e+00	0	30	0	200278016	50	6287
2026-01-26 14:41:07.61	22.04	11.42	-38.7	-39.7	22.8	0.00e+00	0	30	0	202375168	50	6190
2026-01-26 14:41:08.62	22.05	11.52	-38.7	-39.7	22.7	0.00e+00	0	30	0	204472320	50	6181
2026-01-26 14:41:09.63	22.07	11.61	-38.5	-39.5	22.9	0.00e+00	16	30	0	206569472	50	6053
2026-01-26 14:41:10.64	22.08	11.70	-38.5	-39.4	23.0	0.00e+00	0	30	0	207618048	50	6003
2026-01-26 14:41:11.65	22.10	11.79	-38.7	-39.6	22.7	0.00e+00	91	30	0	209715200	50	6161
2026-01-26 14:41:12.66	22.11	11.89	-38.7	-39.6	22.8	0.00e+00	0	30	0	211812352	50	6159
2026-01-26 14:41:13.67	22.13	11.98	-38.6	-39.5	22.8	0.00e+00	0	30	0	213909504	50	6093
2026-01-26 14:41:14.67	22.14	12.08	-38.6	-39.5	22.9	0.00e+00	0	30	0	216006656	50	6092
2026-01-26 14:41:15.69	22.16	12.17	-38.7	-39.7	22.8	0.00e+00	0	29	0	217055232	50	6183
2026-01-26 14:41:16.69	22.17	12.27	-38.4	-39.4	23.0	0.00e+00	0	29	0	219152384	50	5967
2026-01-26 14:41:17.70	22.19	12.36	-38.4	-39.3	23.0	0.00e+00	0	30	0	221249536	50	5924
2026-01-26 14:41:18.71	22.20	12.46	-38.3	-39.2	23.0	0.00e+00	70	30	0	223346688	50	5882
2026-01-26 14:41:19.72	22.22	12.56	-38.2	-39.2	23.3	0.00e+00	0	30	0	225443840	50	5846
2026-01-26 14:41:20.73	22.24	12.65	-38.2	-39.1	23.2	0.00e+00	0	30	0	226492416	50	5790
2026-01-26 14:41:21.74	22.25	12.75	-38.3	-39.3	23.1	0.00e+00	0	29	0	228589568	50	5907
2026-01-26 14:41:22.75	22.27	12.85	-38.1	-39.1	23.1	0.00e+00	0	30	0	230686720	50	5764
2026-01-26 14:41:23.76	22.28	12.95	-38.3	-39.2	23.2	0.00e+00	0	30	0	232783872	50	5859
2026-01-26 14:41:24.77	22.30	13.04	-38.3	-39.3	23.1	0.00e+00	0	30	0	234881024	50	5902
2026-01-26 14:41:25.78	22.32	13.14	-38.7	-39.7	23.0	0.00e+00	69	29	0	235929600	50	6175
2026-01-26 14:41:26.79	22.33	13.24	-38.0	-38.9	23.4	0.00e+00	0	30	0	238026752	50	5684
2026-01-26 14:41:27.80	22.35	13.34	-38.0	-38.8	23.4	0.00e+00	3	30	0	240123904	50	5630
2026-01-26 14:41:28.81	22.37	13.44	-38.0	-38.9	23.3	0.00e+00	0	30	0	242221056	50	5667
2026-01-26 14:41:29.82	22.38	13.54	-37.9	-38.8	23.5	0.00e+00	0	30	0	244318208	48	6283
2026-01-26 14:41:30.83	22.40	13.64	-37.8	-38.7	23.6	0.00e+00	65	30	0	245366784	48	6196
2026-01-26 14:41:31.83	22.42	13.74	-37.7	-38.6	23.6	0.00e+00	0	30	0	247463936	48	6132
2026-01-26 14:41:32.84	22.43	13.85	-38.0	-38.9	23.4	0.00e+00	71	30	0	249561088	48	6319
2026-01-26 14:41:33.85	22.45	13.95	-37.9	-38.8	23.5	0.00e+00	0	30	0	251658240	48	6279
2026-01-26 14:41:34.86	22.47	14.05	-37.9	-38.8	23.4	0.00e+00	30	30	0	253755392	48	6300
2026-01-26 14:41:35.87	22.48	14.15	-37.7	-38.6	23.6	0.00e+00	0	30	0	254803968	48	6157
2026-01-26 14:41:36.88	22.50	14.26	-37.9	-38.8	23.5	0.00e+00	0	30	0	256901120	48	6257
2026-01-26 14:41:37.89	22.52	14.36	-38.2	-39.1	23.3	0.00e+00	0	30	0	258998272	48	6470
2026-01-26 14:41:38.90	22.54	14.46	-38.1	-38.9	23.3	0.00e+00	0	30	0	261095424	48	6388
2026-01-26 14:41:39.91	22.55	14.57	-37.9	-38.8	23.5	0.00e+00	69	30	0	263192576	48	6287
2026-01-26 14:41:40.92	22.57	14.68	-37.9	-38.8	23.4	0.00e+00	0	30	0	265289728	48	6271
2026-01-26 14:41:41.93	22.59	14.78	-38.1	-39.0	23.3	0.00e+00	90	29	0	266338304	48	6425
2026-01-26 14:41:42.94	22.61	14.89	-37.8	-38.7	23.3	0.00e+00	0	30	0	268435456	48	6226
2026-01-26 14:41:43.95	22.62	14.99	-37.8	-38.7	23.1	0.00e+00	0	30	0	270532608	48	6217
2026-01-26 14:41:44.95	22.64	15.10	-37.7	-38.5	23.3	0.00e+00	0	29	0	272629760	48	6079
2026-01-26 14:41:45.96	22.66	15.21	-37.8	-38.6	23.2	0.00e+00	0	30	0	274726912	48	6171
2026-01-26 14:41:46.97	22.68	15.32	-37.7	-38.6	23.4	0.00e+00	0	30	0	275775488	48	6108
2026-01-26 14:41:47.98	22.70	15.42	-37.7	-38.6	23.3	0.00e+00	0	30	0	277872640	48	6117
2026-01-26 14:41:48.99	22.71	15.53	-37.5	-38.4	23.6	0.00e+00	65	29	0	279969792	48	5997
2026-01-26 14:41:50.00	22.73	15.64	-37.8	-38.7	23.5	0.00e+00	0	29	0	282066944	48	6184
2026-01-26 14:41:51.00	22.75	15.75	-37.6	-38.4	23.7	0.00e+00	0	30	0	284164096	48	6017
2026-01-26 14:41:52.01	22.77	15.86	-37.7	-38.5	23.8	0.00e+00	0	30	0	285212672	48	6102
2026-01-26 14:41:53.02	22.79	15.97	-37.5	-38.4	23.8	0.00e+00	0	30	0	287309824	48	5990
2026-01-26 14:41:54.03	22.81	16.08	-37.5	-38.4	23.8	0.00e+00	0	30	0	289406976	48	5974
2026-01-26 14:41:55.04	22.83	16.20	-37.4	-38.3	23.9	0.00e+00	0	29	0	291504128	48	5898
2026-01-26 14:41:56.05	22.85	16.31	-37.5	-38.4	24.0	0.00e+00	51	29	0	293601280	48	5976
2026-01-26 14:41:57.06	22.86	16.42	-37.6	-38.4	23.9	0.00e+00	0	30	0	294649856	48	6030
2026-01-26 14:41:58.07	22.88	16.54	-37.7	-38.6	23.8	0.00e+00	0	30	0	296747008	48	6121
2026-01-26 14:41:59.08	22.90	16.65	-37.8	-38.6	23.7	0.00e+00	0	30	0	298844160	48	6159
2026-01-26 14:42:00.09	22.92	16.76	-37.8	-38.7	23.7	0.00e+00	0	29	0	300941312	48	6219
2026-01-26 14:42:01.09	22.94	16.88	-37.8	-38.7	23.6	0.00e+00	71	29	0	303038464	48	6207
2026-01-26 14:42:02.10	22.96	16.99	-37.8	-38.7	23.8	0.00e+00	0	29	0	304087040	48	6179
2026-01-26 14:42:03.11	22.98	17.11	-37.9	-38.8	23.6	0.00e+00	87	29	0	306184192	48	6251
2026-01-26 14:42:04.12	23.00	17.23	-38.0	-38.9	23.6	0.00e+00	33	29	0	308281344	48	6332
2026-01-26 14:42:05.13	23.02	17.35	-37.9	-38.8	23.6	0.00e+00	81	29	0	310378496	48	6297
2026-01-26 14:42:06.15	23.04	17.46	-38.0	-38.9	23.6	0.00e+00	0	29	0	312475648	48	6333
2026-01-26 14:42:07.15	23.06	17.58	-38.1	-39.0	23.5	0.00e+00	0	30	0	313524224	48	6429
2026-01-26 14:42:08.16	23.08	17.70	-38.1	-39.0	23.4	0.00e+00	0	29	0	315621376	48	6457
2026-01-26 14:42:09.17	23.10	17.82	-38.2	-39.1	23.4	0.00e+00	0	29	0	317718528	48	6481
2026-01-26 14:42:10.18	23.12	17.94	-38.4	-39.3	23.3	0.00e+00	70	29	0	319815680	48	6652
2026-01-26 14:42:11.19	23.15	18.06	-38.3	-39.2	23.4	0.00e+00	0	30	0	321912832	48	6604
2026-01-26 14:42:12.20	23.17	18.18	-38.4	-39.3	23.3	0.00e+00	78	29	0	322961408	48	6641
2026-01-26 14:42:13.21	23.19	18.31	-38.3	-39.2	23.4	0.00e+00	0	29	0	325058560	48	6564
2026-01-26 14:42:14.22	23.21	18.43	-38.4	-39.3	23.3	0.00e+00	0	29	0	327155712	48	6668
2026-01-26 14:42:15.23	23.23	18.55	-38.4	-39.3	23.3	0.00e+00	0	29	0	329252864	48	6647
2026-01-26 14:42:16.24	23.25	18.68	-38.7	-39.6	23.1	0.00e+00	0	29	0	331350016	48	6897
2026-01-26 14:42:17.25	23.27	18.80	-38.8	-39.8	23.0	0.00e+00	73	29	0	333447168	48	7035
2026-01-26 14:42:18.26	23.30	18.92	-38.8	-39.7	23.0	0.00e+00	0	29	0	334495744	50	6235
2026-01-26 14:42:19.27	23.32	19.05	-38.6	-39.6	23.1	0.00e+00	92	29	0	336592896	50	6126
2026-01-26 14:42:20.28	23.34	19.18	-38.9	-39.9	23.0	0.00e+00	0	30	0	338690048	50	6344
2026-01-26 14:42:21.29	23.36	19.30	-39.0	-40.0	22.8	0.00e+00	0	29	0	340787200	50	6419
2026-01-26 14:42:22.30	23.38	19.43	-38.8	-39.8	22.9	0.00e+00	0	29	0	342884352	50	6272
2026-01-26 14:42:23.30	23.41	19.56	-38.9	-39.9	22.9	0.00e+00	0	29	0	343932928	50	6354
2026-01-26 14:42:24.32	23.43	19.69	-39.2	-40.2	22.5	0.00e+00	0	29	0	346030080	50	6545
2026-01-26 14:42:25.32	23.45	19.82	-39.5	-40.5	22.4	0.00e+00	0	29	0	348127232	52	6076
2026-01-26 14:42:26.33	23.48	19.95	-39.5	-40.5	22.4	0.00e+00	77	29	0	350224384	52	6044
2026-01-26 14:42:27.34	23.50	20.08	-39.5	-40.5	22.5	0.00e+00	0	29	0	352321536	52	6050
2026-01-26 14:42:28.35	23.52	20.21	-39.5	-40.5	22.3	0.00e+00	0	29	0	353370112	52	6080
2026-01-26 14:42:29.36	23.55	20.34	-39.7	-40.7	22.2	0.00e+00	0	29	0	355467264	52	6245
2026-01-26 14:42:30.37	23.57	20.48	-39.5	-40.6	22.4	0.00e+00	0	29	0	357564416	52	6115
2026-01-26 14:42:31.38	23.59	20.61	-39.6	-40.7	22.3	0.00e+00	0	29	0	359661568	52	6190
2026-01-26 14:42:32.39	23.62	20.75	-39.8	-40.9	22.1	0.00e+00	0	29	0	361758720	52	6365
2026-01-26 14:42:33.40	23.64	20.88	-39.7	-40.7	22.2	0.00e+00	90	29	0	362807296	52	6202
2026-01-26 14:42:34.41	23.67	21.02	-39.7	-40.8	22.0	0.00e+00	0	29	0	364904448	52	6255
2026-01-26 14:42:35.42	23.69	21.15	-39.6	-40.6	22.4	0.00e+00	36	29	0	367001600	52	6139
2026-01-26 14:42:36.43	23.72	21.29	-39.5	-40.5	22.3	0.00e+00	0	29	0	369098752	52	6096
2026-01-26 14:42:37.44	23.74	21.43	-39.5	-40.5	22.5	0.00e+00	0	29	0	371195904	52	6092
2026-01-26 14:42:38.45	23.77	21.57	-39.6	-40.6	22.5	0.00e+00	0	29	0	372244480	52	6116
2026-01-26 14:42:39.46	23.79	21.71	-39.4	-40.4	22.3	0.00e+00	0	29	0	374341632	52	5976
2026-01-26 14:42:40.47	23.82	21.85	-39.8	-40.8	22.2	0.00e+00	91	29	0	376438784	52	6287
2026-01-26 14:42:41.48	23.84	21.99	-39.3	-40.3	22.5	0.00e+00	0	29	0	378535936	52	5928
2026-01-26 14:42:42.49	23.87	22.13	-39.5	-40.5	22.5	0.00e+00	85	29	0	380633088	52	6037
2026-01-26 14:42:43.50	23.89	22.28	-39.6	-40.6	22.3	0.00e+00	0	29	0	381681664	52	6156
2026-01-26 14:42:44.51	23.92	22.42	-39.8	-40.8	22.2	0.00e+00	0	29	0	383778816	52	6281
2026-01-26 14:42:45.52	23.95	22.56	-39.7	-40.8	22.2	0.00e+00	9	29	0	385875968	52	6247
2026-01-26 14:42:46.53	23.97	22.71	-39.8	-40.8	22.2	0.00e+00	0	29	0	387973120	52	6271
2026-01-26 14:42:47.54	24.00	22.86	-39.8	-40.9	22.1	0.00e+00	67	29	0	390070272	52	6329
2026-01-26 14:42:48.55	24.03	23.00	-39.8	-40.8	22.1	0.00e+00	0	29	0	391118848	52	6272
2026-01-26 14:42:49.55	24.05	23.15	-39.8	-40.8	22.3	0.00e+00	74	29	0	393216000	52	6264
2026-01-26 14:42:50.56	24.08	23.30	-39.7	-40.8	22.3	0.00e+00	0	29	0	395313152	52	6250
2026-01-26 14:42:51.57	24.11	23.45	-39.8	-40.8	22.2	0.00e+00	0	29	0	397410304	52	6285
2026-01-26 14:42:52.59	24.14	23.60	-39.6	-40.6	22.4	0.00e+00	0	29	0	399507456	52	6143
2026-01-26 14:42:53.59	24.17	23.75	-39.7	-40.7	22.3	0.00e+00	0	29	0	401604608	52	6217
2026-01-26 14:42:54.60	24.19	23.90	-39.2	-40.1	22.6	0.00e+00	72	29	0	402653184	52	5795
2026-01-26 14:42:55.61	24.22	24.05	-39.2	-40.2	22.8	0.00e+00	0	29	0	404750336	52	5854
2026-01-26 14:42:56.62	24.25	24.21	-39.1	-40.1	22.7	0.00e+00	72	29	0	406847488	52	5781
2026-01-26 14:42:57.63	24.28	24.36	-39.1	-40.1	22.7	0.00e+00	0	29	0	408944640	52	5785
2026-01-26 14:42:58.64	24.31	24.52	-39.1	-40.0	22.8	0.00e+00	0	29	0	409993216	52	5751
2026-01-26 14:42:59.65	24.34	24.68	-39.3	-40.3	22.6	0.00e+00	33	29	0	412090368	52	5944
2026-01-26 14:43:00.65	24.37	24.83	-39.4	-40.4	22.6	0.00e+00	0	29	0	414187520	52	5975
2026-01-26 14:43:01.66	24.40	24.99	-39.1	-40.0	22.8	0.00e+00	71	29	0	416284672	52	5748
2026-01-26 14:43:02.67	24.43	25.15	-39.4	-40.4	22.6	0.00e+00	0	29	0	418381824	52	6003
2026-01-26 14:43:03.68	24.46	25.31	-39.2	-40.1	22.7	0.00e+00	59	29	0	419430400	52	5820
2026-01-26 14:43:04.69	24.49	25.47	-39.0	-40.0	22.8	0.00e+00	0	29	0	421527552	52	5714
2026-01-26 14:43:05.70	24.52	25.64	-39.1	-40.1	22.8	0.00e+00	0	29	0	423624704	52	5793
2026-01-26 14:43:06.70	24.56	25.80	-39.0	-40.0	22.8	0.00e+00	0	29	0	425721856	52	5718
2026-01-26 14:43:07.72	24.59	25.96	-39.0	-39.9	22.9	0.00e+00	0	29	0	427819008	52	5680
2026-01-26 14:43:08.73	24.62	26.13	-39.1	-40.0	22.9	0.00e+00	0	29	0	429916160	50	6456
2026-01-26 14:43:09.73	24.65	26.29	-39.1	-40.1	22.9	0.00e+00	0	29	0	430964736	50	6519
2026-01-26 14:43:10.74	24.68	26.46	-39.1	-40.1	22.8	0.00e+00	74	29	0	433061888	50	6528
2026-01-26 14:43:11.75	24.72	26.63	-39.6	-40.6	22.3	0.00e+00	0	29	0	435159040	50	6889
2026-01-26 14:43:12.76	24.75	26.80	-39.5	-40.5	22.3	0.00e+00	70	29	0	437256192	50	6816
2026-01-26 14:43:13.77	24.78	26.97	-39.4	-40.4	22.5	0.00e+00	0	29	0	439353344	50	6746
2026-01-26 14:43:14.78	24.82	27.14	-39.3	-40.3	22.5	0.00e+00	0	29	0	440401920	50	6647
2026-01-26 14:43:15.79	24.85	27.32	-39.3	-40.3	22.6	0.00e+00	0	29	0	442499072	50	6669
2026-01-26 14:43:16.80	24.89	27.49	-39.5	-40.5	22.5	0.00e+00	0	29	0	444596224	50	6813
2026-01-26 14:43:17.81	24.92	27.67	-39.4	-40.4	22.8	0.00e+00	72	29	0	446693376	50	6704
2026-01-26 14:43:18.82	24.96	27.84	-39.0	-40.0	22.9	0.00e+00	0	29	0	448790528	50	6448
2026-01-26 14:43:19.83	24.99	28.02	-39.4	-40.4	22.5	0.00e+00	92	29	0	449839104	50	6714
2026-01-26 14:43:20.83	25.03	28.20	-38.8	-39.8	22.9	0.00e+00	0	29	0	451936256	50	6272
2026-01-26 14:43:21.84	25.07	28.38	-38.8	-39.8	23.0	0.00e+00	0	29	0	454033408	50	6284
2026-01-26 14:43:22.85	25.10	28.56	-39.2	-40.2	22.7	0.00e+00	0	29	0	456130560	50	6594
2026-01-26 14:43:23.86	25.14	28.74	-39.4	-40.4	22.6	0.00e+00	0	29	0	458227712	50	6733
2026-01-26 14:43:24.87	25.18	28.92	-39.5	-40.6	22.4	0.00e+00	36	29	0	459276288	50	6865
2026-01-26 14:43:25.88	25.21	29.11	-39.6	-40.7	22.3	0.00e+00	0	29	0	461373440	52	6212
2026-01-26 14:43:26.89	25.25	29.29	-40.1	-41.2	21.9	0.00e+00	90	29	0	463470592	52	6552
2026-01-26 14:43:27.90	25.29	29.48	-40.1	-41.2	21.8	0.00e+00	0	29	0	465567744	52	6566
2026-01-26 14:43:28.91	25.33	29.67	-40.2	-41.3	21.8	0.00e+00	0	29	0	467664896	52	6654
2026-01-26 14:43:29.92	25.37	29.86	-40.3	-41.5	21.8	0.00e+00	0	29	0	468713472	52	6796
2026-01-26 14:43:30.93	25.41	30.05	-40.4	-41.6	21.4	0.00e+00	0	29	0	470810624	52	6850
2026-01-26 14:43:31.94	25.45	30.24	-40.6	-41.7	21.4	0.00e+00	0	29	0	472907776	54	6233
2026-01-26 14:43:32.95	25.49	30.43	-40.6	-41.8	21.3	0.00e+00	0	29	0	475004928	54	6277
2026-01-26 14:43:33.96	25.53	30.63	-41.2	-42.5	20.9	0.00e+00	87	29	0	477102080	54	6821
2026-01-26 14:43:34.97	25.57	30.82	-41.6	-42.9	20.5	0.00e+00	0	29	0	478150656	54	7146
2026-01-26 14:43:35.97	25.62	31.02	-41.1	-42.3	20.9	0.00e+00	0	29	0	480247808	54	6648
2026-01-26 14:43:36.98	25.66	31.21	-42.1	-43.5	19.8	0.00e+00	0	29	0	482344960	56	6801
2026-01-26 14:43:37.99	25.70	31.41	-42.3	-43.8	19.7	0.00e+00	0	29	0	484442112	56	7074
2026-01-26 14:43:39.00	25.74	31.62	-42.4	-44.0	19.5	0.00e+00	43	29	0	486539264	56	7175
2026-01-26 14:43:40.00	25.79	31.82	-42.9	-44.6	18.8	0.00e+00	0	29	0	487587840	58	6891
2026-01-26 14:43:41.01	25.83	32.02	-42.8	-44.5	19.0	0.00e+00	51	29	0	489684992	58	6805
2026-01-26 14:43:42.02	25.88	32.22	-42.6	-44.2	19.3	0.00e+00	0	29	0	491782144	58	6569
2026-01-26 14:43:43.03	25.92	32.43	-42.6	-44.2	19.3	0.00e+00	44	29	0	493879296	58	6605
2026-01-26 14:43:44.04	25.97	32.64	-41.9	-43.3	20.1	0.00e+00	0	29	0	495976448	58	5909
2026-01-26 14:43:45.05	26.02	32.85	-42.4	-43.9	19.5	0.00e+00	0	29	0	498073600	58	6365
2026-01-26 14:43:46.06	26.06	33.06	-42.1	-43.6	20.0	0.00e+00	25	29	0	499122176	58	6166
2026-01-26 14:43:47.07	26.11	33.27	-42.1	-43.6	19.7	0.00e+00	0	29	0	501219328	58	6113
2026-01-26 14:43:48.08	26.16	33.49	-41.8	-43.2	20.2	0.00e+00	91	29	0	503316480	56	6554
2026-01-26 14:43:49.09	26.21	33.70	-41.3	-42.6	20.8	0.00e+00	0	29	0	505413632	56	6149
2026-01-26 14:43:50.09	26.26	33.92	-40.7	-41.9	21.6	0.00e+00	91	29	0	507510784	54	6342
2026-01-26 14:43:51.10	26.31	34.13	-40.0	-41.1	22.0	0.00e+00	0	29	0	508559360	54	5822
2026-01-26 14:43:52.11	26.36	34.35	-39.6	-40.6	22.5	0.00e+00	0	29	0	510656512	52	6150
2026-01-26 14:43:53.12	26.41	34.58	-39.1	-40.1	22.8	0.00e+00	0	29	0	512753664	52	5802
2026-01-26 14:43:54.13	26.46	34.80	-39.2	-40.2	22.9	0.00e+00	0	29	0	514850816	50	6560
2026-01-26 14:43:55.14	26.51	35.02	-38.6	-39.5	23.2	0.00e+00	72	29	0	515899392	50	6089
2026-01-26 14:43:56.15	26.57	35.25	-38.8	-39.7	23.1	0.00e+00	0	29	0	517996544	50	6214
2026-01-26 14:43:57.16	26.62	35.48	-38.4	-39.3	23.4	0.00e+00	91	29	0	520093696	50	5933
2026-01-26 14:43:58.17	26.68	35.71	-38.2	-39.0	23.6	0.00e+00	0	29	0	522190848	50	5751
2026-01-26 14:43:59.18	26.73	35.94	-38.1	-39.0	23.7	0.00e+00	0	29	0	524288000	50	5715
2026-01-26 14:44:00.19	26.79	36.17	-38.6	-39.5	23.4	0.00e+00	0	29	0	526385152	50	6064
2026-01-26 14:44:01.20	26.84	36.40	-38.1	-38.9	23.8	0.00e+00	0	29	0	527433728	50	5695
2026-01-26 14:44:02.21	26.90	36.64	-38.1	-39.0	23.5	0.00e+00	4	29	0	529530880	50	5724
2026-01-26 14:44:03.21	26.96	36.88	-38.1	-39.0	23.5	0.00e+00	0	29	0	531628032	50	5701
2026-01-26 14:44:04.22	27.02	37.12	-38.3	-39.2	23.4	0.00e+00	80	29	0	533725184	50	5862
2026-01-26 14:44:05.23	27.08	37.36	-38.6	-39.6	23.2	0.00e+00	0	29	0	535822336	50	6120
2026-01-26 14:44:06.24	27.14	37.60	-38.9	-39.8	23.1	0.00e+00	0	29	0	536870912	50	6295
2026-01-26 14:44:07.25	27.20	37.84	-39.0	-40.0	22.9	0.00e+00	0	29	0	538968064	50	6407
2026-01-26 14:44:08.26	27.26	38.09	-39.0	-40.0	22.7	0.00e+00	0	29	0	541065216	50	6439
2026-01-26 14:44:09.26	27.33	38.34	-39.0	-40.0	23.0	0.00e+00	0	29	0	543162368	50	6415
2026-01-26 14:44:10.27	27.39	38.59	-39.1	-40.1	22.8	0.00e+00	0	29	0	545259520	50	6473
2026-01-26 14:44:11.28	27.46	38.84	-39.1	-40.1	22.8	0.00e+00	74	29	0	546308096	50	6477
2026-01-26 14:44:12.29	27.52	39.09	-39.4	-40.4	22.6	0.00e+00	0	29	0	548405248	50	6736
2026-01-26 14:44:13.30	27.59	39.35	-39.2	-40.2	22.9	0.00e+00	0	29	0	550502400	50	6577
2026-01-26 14:44:14.31	27.66	39.60	-39.9	-41.0	22.1	0.00e+00	0	29	0	552599552	52	6446
2026-01-26 14:44:15.32	27.73	39.86	-39.8	-40.9	22.0	0.00e+00	0	29	0	554696704	52	6365
2026-01-26 14:44:16.33	27.80	40.12	-40.2	-41.4	21.5	0.00e+00	57	29	0	555745280	52	6728
2026-01-26 14:44:17.34	27.87	40.39	-40.4	-41.5	21.3	0.00e+00	0	29	0	557842432	52	6848
2026-01-26 14:44:18.35	27.94	40.65	-40.3	-41.4	21.8	0.00e+00	63	29	0	559939584	52	6750
2026-01-26 14:44:19.36	28.02	40.92	-40.5	-41.7	21.3	0.00e+00	0	29	0	562036736	52	6997
2026-01-26 14:44:20.37	28.09	41.19	-40.1	-41.2	21.9	0.00e+00	47	29	0	564133888	54	5849
2026-01-26 14:44:21.38	28.17	41.46	-40.5	-41.6	21.5	0.00e+00	0	29	0	565182464	54	6155
2026-01-26 14:44:22.39	28.24	41.73	-39.6	-40.7	22.4	0.00e+00	0	29	0	567279616	54	5509
2026-01-26 14:44:23.40	28.32	42.01	-39.2	-40.2	22.9	0.00e+00	57	29	0	569376768	52	5893
2026-01-26 14:44:24.41	28.40	42.28	-38.8	-39.7	23.1	0.00e+00	0	29	0	571473920	52	5548
2026-01-26 14:44:25.42	28.48	42.56	-38.5	-39.4	23.4	0.00e+00	67	29	0	573571072	50	5973
2026-01-26 14:44:26.43	28.56	42.84	-38.3	-39.2	23.3	0.00e+00	0	29	0	574619648	50	5848
2026-01-26 14:44:27.44	28.65	43.13	-38.1	-39.0	23.6	0.00e+00	72	29	0	576716800	50	5745
2026-01-26 14:44:28.45	28.73	43.41	-38.4	-39.3	23.5	0.00e+00	0	29	0	578813952	50	5947
2026-01-26 14:44:29.45	28.82	43.70	-38.2	-39.1	23.8	0.00e+00	0	29	0	580911104	50	5826
2026-01-26 14:44:30.46	28.91	43.99	-38.9	-39.9	23.0	0.00e+00	0	29	0	583008256	50	6375
2026-01-26 14:44:31.47	29.00	44.28	-39.0	-40.0	22.9	0.00e+00	0	29	0	584056832	50	6443
2026-01-26 14:44:32.48	29.09	44.57	-39.5	-40.5	22.3	0.00e+00	70	29	0	586153984	50	6844
2026-01-26 14:44:33.48	29.18	44.86	-40.4	-41.6	21.5	0.00e+00	0	29	0	588251136	52	6882
2026-01-26 14:44:34.49	29.28	45.16	-40.3	-41.5	21.6	0.00e+00	82	29	0	590348288	54	6075
2026-01-26 14:44:35.50	29.37	45.46	-41.4	-42.8	20.5	0.00e+00	0	29	0	592445440	54	7056
2026-01-26 14:44:36.52	29.47	45.77	-42.0	-43.5	20.0	0.00e+00	0	29	0	594542592	56	6836
2026-01-26 14:44:37.52	29.57	46.07	-42.3	-43.9	19.5	0.00e+00	0	29	0	595591168	56	7155
2026-01-26 14:44:38.53	29.67	46.37	-42.3	-43.8	19.7	0.00e+00	0	29	0	597688320	56	7055
2026-01-26 14:44:39.54	29.78	46.68	-42.5	-44.0	19.7	0.00e+00	0	29	0	599785472	56	7236
2026-01-26 14:44:40.55	29.88	46.99	-42.0	-43.5	19.9	0.00e+00	0	29	0	601882624	56	6820
2026-01-26 14:44:41.56	29.99	47.31	-42.2	-43.7	19.6	0.00e+00	70	29	0	603979776	56	6938
2026-01-26 14:44:42.57	30.10	47.62	-41.6	-43.0	20.3	0.00e+00	0	29	0	605028352	56	6438
2026-01-26 14:44:43.58	30.21	47.94	-40.3	-41.4	22.0	0.00e+00	0	29	0	607125504	54	5984
2026-01-26 14:44:44.59	30.33	48.26	-39.9	-41.0	22.1	0.00e+00	0	29	0	609222656	54	5705
2026-01-26 14:44:45.60	30.44	48.58	-39.1	-40.1	22.8	0.00e+00	0	29	0	611319808	52	5769
2026-01-26 14:44:46.61	30.56	48.90	-38.6	-39.5	23.2	0.00e+00	0	29	0	613416960	50	6072
2026-01-26 14:44:47.61	30.68	49.23	-38.3	-39.2	23.4	0.00e+00	0	29	0	614465536	50	5888
2026-01-26 14:44:48.62	30.80	49.56	-38.0	-38.9	23.5	0.00e+00	92	29	0	616562688	50	5631
2026-01-26 14:44:49.63	30.93	49.89	-37.9	-38.8	23.7	0.00e+00	0	29	0	618659840	50	5607
2026-01-26 14:44:50.64	31.06	50.22	-37.2	-38.1	24.3	0.00e+00	12	29	0	620756992	48	5799
2026-01-26 14:44:51.65	31.19	50.56	-37.8	-38.7	23.7	0.00e+00	0	29	0	622854144	48	6220
2026-01-26 14:44:52.66	31.33	50.90	-37.4	-38.3	24.1	0.00e+00	0	29	0	623902720	48	5913
2026-01-26 14:44:53.67	31.47	51.24	-37.2	-38.1	24.4	0.00e+00	0	29	0	625999872	48	5764
2026-01-26 14:44:54.68	31.61	51.58	-36.8	-37.7	24.6	0.00e+00	0	29	0	628097024	48	5518
2026-01-26 14:44:55.69	31.75	51.92	-36.5	-37.3	24.8	0.00e+00	70	29	0	630194176	46	5955
2026-01-26 14:44:56.69	31.90	52.27	-37.0	-37.8	24.6	0.00e+00	0	29	0	632291328	46	6298
2026-01-26 14:44:57.70	32.05	52.62	-36.6	-37.4	24.7	0.00e+00	92	29	0	633339904	46	6000
2026-01-26 14:44:58.71	32.20	52.97	-36.3	-37.1	25.0	0.00e+00	0	29	0	635437056	46	5826
2026-01-26 14:44:59.72	32.36	53.32	-36.5	-37.3	24.7	0.00e+00	0	29	0	637534208	46	5940
2026-01-26 14:45:00.73	32.52	53.68	-36.3	-37.1	24.9	0.00e+00	0	29	0	639631360	46	5792
2026-01-26 14:45:01.74	32.69	54.04	-35.8	-36.5	25.4	0.00e+00	0	29	0	641728512	44	6102
2026-01-26 14:45:02.75	32.86	54.40	-35.8	-36.6	25.3	0.00e+00	76	29	0	642777088	44	6135
2026-01-26 14:45:03.76	33.03	54.76	-35.6	-36.3	25.5	0.00e+00	0	29	0	644874240	44	5947
2026-01-26 14:45:04.77	33.21	55.13	-35.4	-36.1	25.5	0.00e+00	76	29	0	646971392	44	5823
2026-01-26 14:45:05.78	33.39	55.50	-35.3	-36.0	25.7	0.00e+00	0	29	0	649068544	44	5761
2026-01-26 14:45:06.79	33.58	55.87	-35.7	-36.5	25.3	0.00e+00	0	29	0	651165696	44	6099
2026-01-26 14:45:07.80	33.78	56.24	-35.8	-36.6	24.9	0.00e+00	0	29	0	652214272	44	6113
2026-01-26 14:45:08.81	33.97	56.61	-35.3	-36.0	25.5	0.00e+00	0	29	0	654311424	44	5745
2026-01-26 14:45:09.82	34.18	56.99	-35.0	-35.8	25.8	0.00e+00	0	29	0	656408576	44	5592
2026-01-26 14:45:10.83	34.39	57.37	-35.1	-35.9	25.9	0.00e+00	0	29	0	658505728	42	6322
2026-01-26 14:45:11.84	34.60	57.75	-35.0	-35.7	25.7	0.00e+00	92	29	0	660602880	42	6195
2026-01-26 14:45:12.85	34.82	58.14	-35.4	-36.2	25.6	0.00e+00	0	29	0	662700032	42	6567
2026-01-26 14:45:13.86	35.05	58.52	-35.8	-36.6	25.3	0.00e+00	0	29	0	663748608	44	6116
2026-01-26 14:45:14.87	35.28	58.91	-35.4	-36.1	25.5	0.00e+00	0	29	0	665845760	44	5799
2026-01-26 14:45:15.88	35.52	59.30	-35.9	-36.6	25.3	0.00e+00	0	29	0	667942912	44	6150
2026-01-26 14:45:16.89	35.77	59.69	-36.2	-37.0	24.9	0.00e+00	0	29	0	670040064	44	6440
2026-01-26 14:45:17.89	36.02	60.08	-37.1	-37.9	24.3	0.00e+00	0	29	0	672137216	46	6383
2026-01-26 14:45:18.90	36.29	60.48	-37.3	-38.1	24.4	0.00e+00	79	29	0	673185792	46	6517
2026-01-26 14:45:19.91	36.56	60.87	-37.1	-38.0	24.3	0.00e+00	0	29	0	675282944	46	6436
2026-01-26 14:45:20.92	36.84	61.27	-36.3	-37.1	25.0	0.00e+00	9	29	0	677380096	46	5787
2026-01-26 14:45:21.93	37.13	61.67	-36.3	-37.1	24.6	0.00e+00	0	29	0	679477248	46	5791
2026-01-26 14:45:22.93	37.42	62.07	-36.1	-36.9	25.1	0.00e+00	0	29	0	680525824	46	5654
2026-01-26 14:45:23.94	37.73	62.48	-37.1	-38.0	24.3	0.00e+00	57	29	0	682622976	46	6416
2026-01-26 14:45:24.95	38.05	62.89	-37.2	-38.1	24.3	0.00e+00	0	29	0	684720128	46	6486
2026-01-26 14:45:25.96	38.38	63.29	-36.5	-37.4	24.7	0.00e+00	76	29	0	686817280	46	5969
2026-01-26 14:45:26.97	38.72	63.70	-36.4	-37.2	24.8	0.00e+00	0	29	0	688914432	46	5852
2026-01-26 14:45:27.98	39.07	64.12	-36.9	-37.7	24.2	0.00e+00	29	29	0	691011584	46	6235
2026-01-26 14:45:28.99	39.44	64.53	-36.7	-37.6	24.6	0.00e+00	0	29	0	692060160	46	6117
2026-01-26 14:45:29.99	39.82	64.94	-36.5	-37.3	24.9	0.00e+00	0	29	0	694157312	46	5906
2026-01-26 14:45:31.00	40.21	65.35	-36.3	-37.1	25.0	0.00e+00	0	29	0	696254464	46	5793
2026-01-26 14:45:32.01	40.62	65.77	-36.1	-36.9	25.2	0.00e+00	0	29	0	698351616	46	5663
2026-01-26 14:45:33.02	41.04	66.19	-36.2	-37.0	24.9	0.00e+00	26	29	0	700448768	46	5726
2026-01-26 14:45:34.03	41.48	66.61	-37.0	-37.8	24.1	0.00e+00	0	29	0	701497344	46	6297
2026-01-26 14:45:35.04	41.94	67.03	-37.8	-38.7	23.9	0.00e+00	62	29	0	703594496	46	6930
2026-01-26 14:45:36.05	42.41	67.45	-38.3	-39.2	23.5	0.00e+00	0	29	0	705691648	48	6556
2026-01-26 14:45:37.06	42.91	67.87	-37.8	-38.6	24.1	0.00e+00	0	29	0	707788800	48	6130
2026-01-26 14:45:38.07	43.43	68.29	-37.4	-38.2	24.3	0.00e+00	0	29	0	709885952	48	5844
2026-01-26 14:45:39.08	43.97	68.71	-38.3	-39.3	23.5	0.00e+00	0	29	0	710934528	48	6642
2026-01-26 14:45:40.09	44.53	69.13	-40.3	-41.5	21.7	0.00e+00	21	29	0	713031680	52	6775
2026-01-26 14:45:41.10	45.11	69.56	-40.7	-41.9	21.6	0.00e+00	0	29	0	715128832	54	6355
2026-01-26 14:45:42.11	45.73	69.98	-40.8	-41.9	21.0	0.00e+00	85	29	0	717225984	54	6389
2026-01-26 14:45:43.11	46.36	70.39	-41.0	-42.1	21.1	0.00e+00	0	29	0	719323136	54	6527
2026-01-26 14:45:44.12	47.03	70.82	-41.5	-42.8	20.6	0.00e+00	33	29	0	720371712	54	7065
2026-01-26 14:45:45.13	47.74	71.24	-40.7	-41.9	20.7	0.00e+00	0	29	0	722468864	54	6369
2026-01-26 14:45:46.14	48.47	71.65	-40.6	-41.7	21.5	0.00e+00	0	29	0	724566016	54	6232
2026-01-26 14:45:47.15	49.25	72.07	-41.2	-42.4	21.2	0.00e+00	79	29	0	726663168	54	6757
2026-01-26 14:45:48.16	50.06	72.49	-41.1	-42.4	20.8	0.00e+00	33	29	0	728760320	54	6729
2026-01-26 14:45:49.17	50.91	72.90	-42.5	-44.2	19.6	0.00e+00	64	29	0	729808896	58	6608
2026-01-26 14:45:50.18	51.81	73.31	-43.1	-45.0	18.5	0.00e+00	0	29	0	731906048	58	7175
2026-01-26 14:45:51.19	52.75	73.72	-42.8	-44.4	19.5	0.00e+00	0	29	0	734003200	58	6699
2026-01-26 14:45:52.20	53.75	74.13	-40.3	-41.4	21.7	0.00e+00	0	29	0	736100352	54	5995
2026-01-26 14:45:53.21	54.80	74.53	-38.7	-39.6	23.3	0.00e+00	0	29	0	738197504	52	5499
2026-01-26 14:45:54.22	55.91	74.93	-38.9	-39.8	22.8	0.00e+00	80	29	0	739246080	50	6294
2026-01-26 14:45:55.23	57.08	75.33	-39.1	-40.1	22.8	0.00e+00	0	29	0	741343232	50	6488
2026-01-26 14:45:56.24	58.31	75.72	-39.6	-40.6	22.4	0.00e+00	77	29	0	743440384	50	6891
2026-01-26 14:45:57.25	59.62	76.10	-40.3	-41.5	21.5	0.00e+00	0	29	0	745537536	52	6774
2026-01-26 14:45:58.26	61.00	76.48	-41.3	-42.5	21.0	0.00e+00	0	29	0	747634688	54	6838
2026-01-26 14:45:59.27	62.47	76.85	-39.0	-39.9	23.0	0.00e+00	0	29	0	748683264	52	5695
2026-01-26 14:46:00.28	64.02	77.21	-39.1	-40.1	23.1	0.00e+00	0	29	0	750780416	52	5763
2026-01-26 14:46:01.29	65.66	77.57	-39.8	-40.8	22.4	0.00e+00	0	29	0	752877568	52	6275
2026-01-26 14:46:02.30	67.40	77.91	-38.9	-39.8	23.1	0.00e+00	0	29	0	754974720	52	5576
2026-01-26 14:46:03.31	69.24	78.24	-38.6	-39.5	23.5	0.00e+00	73	29	0	757071872	50	6049
2026-01-26 14:46:04.32	71.20	78.56	-39.6	-40.6	22.4	0.00e+00	0	29	0	759169024	50	6865
2026-01-26 14:46:05.33	73.26	78.87	-40.4	-41.5	21.5	0.00e+00	92	29	0	760217600	52	6776
2026-01-26 14:46:06.34	75.44	79.17	-40.6	-41.8	21.8	0.00e+00	0	29	0	762314752	54	6248
2026-01-26 14:46:07.35	77.74	79.45	-39.7	-40.7	22.2	0.00e+00	0	28	0	764411904	52	6240
2026-01-26 14:46:08.36	80.16	79.71	-39.7	-40.8	22.2	0.00e+00	0	29	0	766509056	52	6309
2026-01-26 14:46:09.36	82.69	79.95	-40.5	-41.8	21.4	0.00e+00	0	29	0	768606208	52	7036
2026-01-26 14:46:10.38	85.38	80.17	-40.4	-41.6	21.5	0.00e+00	62	29	0	769654784	52	6911
2026-01-26 14:46:11.39	88.17	80.37	-41.3	-42.6	20.8	0.00e+00	33	29	0	771751936	54	6880
2026-01-26 14:46:12.40	91.07	80.55	-41.9	-43.4	20.2	0.00e+00	92	29	0	773849088	56	6699
2026-01-26 14:46:13.41	94.08	80.70	-41.9	-43.2	20.4	0.00e+00	0	29	0	775946240	56	6589
2026-01-26 14:46:14.42	97.18	80.83	-40.6	-41.7	21.7	0.00e+00	0	28	0	778043392	54	6214
2026-01-26 14:46:15.43	100.36	80.93	-39.9	-41.0	22.0	0.00e+00	0	28	0	779091968	54	5713
2026-01-26 14:46:16.44	103.60	81.00	-40.3	-41.4	21.7	0.00e+00	0	29	0	781189120	54	5991
2026-01-26 14:46:17.45	106.89	81.05	-39.8	-40.8	22.2	0.00e+00	71	29	0	783286272	54	5620
2026-01-26 14:46:18.45	110.16	81.06	-39.7	-40.7	22.3	0.00e+00	0	29	0	785383424	52	6209
2026-01-26 14:46:19.46	113.47	81.04	-40.8	-42.0	21.3	0.00e+00	77	29	0	787480576	54	6397
2026-01-26 14:46:20.47	116.75	81.00	-42.1	-43.5	19.9	0.00e+00	0	29	0	788529152	56	6792
2026-01-26 14:46:21.48	119.99	80.93	-41.3	-42.6	20.8	0.00e+00	0	28	0	790626304	56	6111
2026-01-26 14:46:22.49	123.17	80.83	-41.7	-43.1	20.5	0.00e+00	33	29	0	792723456	56	6479
2026-01-26 14:46:23.50	126.27	80.70	-43.6	-45.5	18.4	0.00e+00	0	29	0	794820608	58	7648
2026-01-26 14:46:24.51	129.28	80.55	-41.9	-43.2	20.4	0.00e+00	73	29	0	796917760	58	5865
2026-01-26 14:46:25.52	132.18	80.37	-40.3	-41.4	21.9	0.00e+00	0	29	0	797966336	54	5993
2026-01-26 14:46:26.53	134.97	80.17	-41.0	-42.2	21.0	0.00e+00	92	29	0	800063488	54	6585
2026-01-26 14:46:27.54	137.63	79.94	-42.5	-44.0	19.9	0.00e+00	0	29	0	802160640	56	7186
2026-01-26 14:46:28.55	140.18	79.70	-42.1	-43.4	20.3	0.00e+00	0	29	0	804257792	56	6738
2026-01-26 14:46:29.56	142.60	79.44	-41.0	-42.1	21.4	0.00e+00	0	29	0	806354944	56	5821
2026-01-26 14:46:30.57	144.90	79.16	-41.1	-42.2	21.4	0.00e+00	0	29	0	807403520	56	5882
2026-01-26 14:46:31.58	147.08	78.86	-39.9	-40.9	22.4	0.00e+00	0	29	0	809500672	54	5667
2026-01-26 14:46:32.59	149.14	78.56	-39.9	-40.9	22.5	0.00e+00	0	29	0	811597824	52	6355
2026-01-26 14:46:33.60	151.09	78.23	-39.5	-40.4	22.4	0.00e+00	92	29	0	813694976	52	6030
2026-01-26 14:46:34.61	152.93	77.90	-39.7	-40.7	22.3	0.00e+00	0	29	0	815792128	52	6180
2026-01-26 14:46:35.62	154.67	77.55	-40.3	-41.4	21.4	0.00e+00	0	29	0	816840704	52	6723
2026-01-26 14:46:36.63	156.31	77.20	-39.7	-40.7	22.6	0.00e+00	0	29	0	818937856	52	6234
2026-01-26 14:46:37.64	157.86	76.84	-38.4	-39.3	23.5	0.00e+00	0	28	0	821035008	50	5909
2026-01-26 14:46:38.65	159.32	76.47	-37.5	-38.4	24.2	0.00e+00	0	28	0	823132160	48	5974
2026-01-26 14:46:39.65	160.69	76.09	-38.8	-39.7	23.4	0.00e+00	0	29	0	825229312	48	6985
2026-01-26 14:46:40.66	162.00	75.71	-39.3	-40.2	23.0	0.00e+00	92	29	0	827326464	50	6614
2026-01-26 14:46:41.67	163.23	75.32	-40.7	-41.9	21.6	0.00e+00	0	29	0	828375040	52	7133
2026-01-26 14:46:42.68	164.40	74.92	-40.9	-42.1	21.8	0.00e+00	80	28	0	830472192	54	6491
2026-01-26 14:46:43.69	165.51	74.52	-39.8	-40.8	22.3	0.00e+00	0	29	0	832569344	54	5610
2026-01-26 14:46:44.70	166.56	74.12	-39.5	-40.5	22.5	0.00e+00	0	28	0	834666496	52	6035
2026-01-26 14:46:45.71	167.55	73.71	-39.4	-40.4	22.7	0.00e+00	9	29	0	836763648	52	5993
2026-01-26 14:46:46.72	168.50	73.30	-37.7	-38.5	24.2	0.00e+00	0	28	0	837812224	50	5433
2026-01-26 14:46:47.73	169.39	72.89	-38.1	-39.0	23.7	0.00e+00	0	28	0	839909376	48	6391
2026-01-26 14:46:48.74	170.25	72.47	-39.8	-40.8	22.3	0.00e+00	0	28	0	842006528	50	7044
2026-01-26 14:46:49.75	171.06	72.06	-40.5	-41.5	21.8	0.00e+00	78	29	0	844103680	54	6082
2026-01-26 14:46:50.76	171.83	71.64	-42.0	-43.4	20.0	0.00e+00	0	28	0	846200832	54	7547
2026-01-26 14:46:51.76	172.56	71.22	-44.5	-46.6	17.6	0.00e+00	0	28	0	847249408	60	7695
2026-01-26 14:46:52.77	173.26	70.80	-44.3	-46.2	17.9	0.00e+00	0	28	0	849346560	60	7421
2026-01-26 14:46:53.78	173.93	70.38	-41.9	-43.3	20.0	0.00e+00	0	28	0	851443712	58	5925
2026-01-26 14:46:54.79	174.58	69.96	-42.9	-44.5	19.0	0.00e+00	73	28	0	853540864	58	6838
2026-01-26 14:46:55.80	175.19	69.54	-45.1	-47.6	16.0	0.00e+00	0	28	0	855638016	60	8637
2026-01-26 14:46:56.81	175.78	69.11	-44.6	-46.7	17.1	0.00e+00	71	28	0	856686592	60	7852
2026-01-26 14:46:57.82	176.34	68.69	-44.3	-46.3	17.6	0.00e+00	0	28	0	858783744	60	7508
2026-01-26 14:46:58.83	176.88	68.27	-42.3	-43.7	20.1	0.00e+00	0	29	0	860880896	58	6221
2026-01-26 14:46:59.84	177.39	67.85	-38.4	-39.2	23.7	0.00e+00	0	28	0	862978048	50	5876
2026-01-26 14:47:00.85	177.89	67.42	-37.6	-38.3	24.4	0.00e+00	2	29	0	865075200	48	5957
2026-01-26 14:47:01.86	178.36	67.00	-37.8	-38.7	23.8	0.00e+00	73	28	0	866123776	48	6176
2026-01-26 14:47:02.87	178.82	66.58	-38.5	-39.4	23.5	0.00e+00	0	29	0	868220928	50	5986
2026-01-26 14:47:03.88	179.26	66.16	-38.1	-39.0	23.8	0.00e+00	75	29	0	870318080	50	5730
2026-01-26 14:47:04.89	179.68	65.74	-37.7	-38.5	24.1	0.00e+00	0	28	0	872415232	50	5423
2026-01-26 14:47:05.90	180.09	65.33	-38.4	-39.4	23.3	0.00e+00	0	28	0	874512384	48	6723
2026-01-26 14:47:06.91	180.48	64.91	-40.7	-42.0	21.3	0.00e+00	0	29	0	875560960	52	7212
2026-01-26 14:47:07.92	180.86	64.50	-40.3	-41.5	21.6	0.00e+00	0	29	0	877658112	54	6079
2026-01-26 14:47:08.93	181.23	64.08	-38.9	-39.9	23.2	0.00e+00	0	28	0	879755264	52	5636
2026-01-26 14:47:09.94	181.58	63.67	-38.8	-39.8	23.1	0.00e+00	0	28	0	881852416	50	6292
2026-01-26 14:47:10.95	181.92	63.26	-38.1	-38.9	23.6	0.00e+00	74	28	0	883949568	50	5693
2026-01-26 14:47:11.96	182.25	62.85	-38.0	-38.9	23.9	0.00e+00	0	29	0	884998144	48	6318
2026-01-26 14:47:12.97	182.57	62.44	-38.6	-39.6	23.4	0.00e+00	92	29	0	887095296	48	6865
2026-01-26 14:47:13.97	182.87	62.04	-39.0	-40.1	22.8	0.00e+00	0	28	0	889192448	50	6476
2026-01-26 14:47:14.98	183.17	61.64	-37.9	-38.8	24.0	0.00e+00	0	28	0	891289600	50	5606
2026-01-26 14:47:15.99	183.46	61.23	-36.4	-37.1	24.9	0.00e+00	0	29	0	893386752	46	5810
2026-01-26 14:47:17.00	183.74	60.83	-36.9	-37.7	24.6	0.00e+00	0	28	0	895483904	46	6219
2026-01-26 14:47:18.01	184.01	60.43	-37.5	-38.4	24.0	0.00e+00	38	28	0	896532480	46	6719
2026-01-26 14:47:19.02	184.28	60.04	-37.9	-38.7	23.8	0.00e+00	0	28	0	898629632	48	6243
2026-01-26 14:47:20.03	184.53	59.64	-38.9	-39.8	23.0	0.00e+00	76	28	0	900726784	50	6309
2026-01-26 14:47:21.04	184.78	59.25	-39.4	-40.4	22.5	0.00e+00	0	28	0	902823936	50	6765
2026-01-26 14:47:22.05	185.02	58.86	-39.1	-40.1	22.8	0.00e+00	0	28	0	904921088	50	6475
2026-01-26 14:47:23.06	185.25	58.47	-38.5	-39.4	23.4	0.00e+00	0	28	0	905969664	50	6024
2026-01-26 14:47:24.07	185.48	58.09	-39.2	-40.3	22.7	0.00e+00	0	28	0	908066816	50	6647
2026-01-26 14:47:25.08	185.70	57.70	-37.4	-38.3	24.1	0.00e+00	58	28	0	910163968	48	5955
2026-01-26 14:47:26.09	185.91	57.32	-36.4	-37.2	24.9	0.00e+00	0	28	0	912261120	46	5853
2026-01-26 14:47:27.10	186.12	56.94	-36.8	-37.6	24.5	0.00e+00	90	28	0	914358272	46	6154
2026-01-26 14:47:28.11	186.33	56.56	-37.8	-38.7	23.8	0.00e+00	0	28	0	915406848	48	6203
2026-01-26 14:47:29.12	186.52	56.19	-37.7	-38.6	24.1	0.00e+00	0	28	0	917504000	48	6120
2026-01-26 14:47:30.13	186.72	55.81	-37.9	-38.8	23.8	0.00e+00	0	28	0	919601152	48	6284
2026-01-26 14:47:31.13	186.90	55.44	-38.9	-39.9	23.1	0.00e+00	0	28	0	921698304	50	6375
2026-01-26 14:47:32.14	187.09	55.08	-39.4	-40.4	22.7	0.00e+00	71	28	0	923795456	52	6003
2026-01-26 14:47:33.16	187.27	54.71	-38.4	-39.3	23.3	0.00e+00	0	28	0	924844032	50	5949
2026-01-26 14:47:34.16	187.44	54.34	-37.9	-38.8	23.7	0.00e+00	90	28	0	926941184	50	5627
2026-01-26 14:47:35.17	187.61	53.98	-38.4	-39.4	23.2	0.00e+00	0	28	0	929038336	48	6700
2026-01-26 14:47:36.18	187.77	53.62	-40.5	-41.7	20.0	0.00e+00	0	28	0	931135488	52	6972
2026-01-26 14:47:37.19	187.93	53.27	-42.0	-43.6	19.8	0.00e+00	0	28	0	933232640	56	6890
2026-01-26 14:47:38.20	188.09	52.91	-41.0	-42.3	21.0	0.00e+00	0	28	0	934281216	56	5959
2026-01-26 14:47:39.21	188.25	52.56	-39.4	-40.4	22.6	0.00e+00	73	28	0	936378368	52	5998
2026-01-26 14:47:40.22	188.40	52.21	-38.8	-39.7	23.3	0.00e+00	0	28	0	938475520	50	6232
2026-01-26 14:47:41.23	188.54	51.86	-38.7	-39.6	23.1	0.00e+00	90	28	0	940572672	50	6147
2026-01-26 14:47:42.24	188.69	51.51	-39.6	-40.6	22.4	0.00e+00	0	28	0	942669824	50	6904
2026-01-26 14:47:43.25	188.83	51.17	-40.1	-41.3	21.7	0.00e+00	35	28	0	943718400	52	6630
2026-01-26 14:47:44.26	188.97	50.83	-40.6	-41.8	21.5	0.00e+00	0	28	0	945815552	52	7037
2026-01-26 14:47:45.27	189.10	50.49	-40.5	-41.7	21.4	0.00e+00	0	28	0	947912704	54	6186
2026-01-26 14:47:46.28	189.23	50.15	-39.5	-40.6	22.6	0.00e+00	9	28	0	950009856	52	6110
2026-01-26 14:47:47.29	189.36	49.82	-38.8	-39.7	23.2	0.00e+00	0	28	0	952107008	52	5548
2026-01-26 14:47:48.30	189.49	49.49	-38.2	-39.0	23.5	0.00e+00	92	28	0	953155584	50	5753
2026-01-26 14:47:49.30	189.61	49.16	-38.6	-39.5	23.3	0.00e+00	0	28	0	955252736	50	6068
2026-01-26 14:47:50.32	189.73	48.83	-39.1	-40.1	22.8	0.00e+00	92	28	0	957349888	50	6506
2026-01-26 14:47:51.33	189.85	48.50	-40.2	-41.3	21.8	0.00e+00	0	28	0	959447040	52	6649
2026-01-26 14:47:52.33	189.97	48.18	-43.3	-45.2	17.9	0.00e+00	0	28	0	961544192	56	8267
2026-01-26 14:47:53.34	190.08	47.86	-45.7	-49.3	14.3	0.00e+00	0	28	0	963641344	60	10510
2026-01-26 14:47:54.35	190.19	47.55	-46.1	-50.2	13.3	6.71e-05	0	28	0	964689920	60	11717
2026-01-26 14:47:55.36	190.30	47.23	-44.8	-47.6	16.3	3.96e-05	92	28	0	966787072	60	8629
2026-01-26 14:47:56.37	190.41	46.92	-42.1	-43.6	20.0	0.00e+00	0	28	0	968884224	58	6119
2026-01-26 14:47:57.38	190.52	46.60	-40.6	-41.7	21.5	0.00e+00	70	28	0	970981376	54	6239
2026-01-26 14:47:58.39	190.62	46.30	-39.9	-41.0	22.1	0.00e+00	0	28	0	972029952	54	5712
2026-01-26 14:47:59.40	190.72	45.99	-39.8	-40.9	21.9	0.00e+00	0	28	0	974127104	54	5632
2026-01-26 14:48:00.41	190.82	45.68	-40.6	-41.7	21.0	0.00e+00	0	28	0	976224256	54	6236
2026-01-26 14:48:01.41	190.92	45.38	-42.3	-43.8	19.5	0.00e+00	0	28	0	978321408	56	7044
2026-01-26 14:48:02.42	191.01	45.08	-43.3	-45.2	18.5	0.00e+00	7	28	0	980418560	58	7374
2026-01-26 14:48:03.43	191.11	44.78	-42.2	-43.7	19.4	0.00e+00	0	28	0	981467136	58	6207
2026-01-26 14:48:04.44	191.20	44.49	-40.5	-41.8	21.4	0.00e+00	92	28	0	983564288	54	6267
2026-01-26 14:48:05.45	191.29	44.19	-40.4	-41.7	21.5	0.00e+00	0	28	0	985661440	54	6197
2026-01-26 14:48:06.46	191.38	43.90	-39.2	-40.2	22.6	0.00e+00	0	28	0	987758592	52	5888
2026-01-26 14:48:07.47	191.47	43.61	-37.8	-38.7	23.8	0.00e+00	0	28	0	989855744	50	5523
2026-01-26 14:48:08.48	191.56	43.32	-37.4	-38.3	24.2	0.00e+00	0	28	0	991952896	48	5917
2026-01-26 14:48:09.49	191.64	43.04	-37.4	-38.2	24.2	0.00e+00	6	28	0	993001472	48	5854
2026-01-26 14:48:10.50	191.72	42.75	-37.3	-38.1	24.2	0.00e+00	0	28	0	995098624	48	5800
2026-01-26 14:48:11.51	191.81	42.47	-38.1	-39.0	23.5	0.00e+00	70	28	0	997195776	48	6447
2026-01-26 14:48:12.52	191.89	42.19	-38.9	-40.0	22.8	0.00e+00	0	28	0	999292928	50	6401
2026-01-26 14:48:13.53	191.97	41.92	-39.2	-40.3	22.5	0.00e+00	13	28	0	1001390080	50	6654
2026-01-26 14:48:14.54	192.04	41.64	-39.9	-41.1	22.1	0.00e+00	0	28	0	1002438656	52	6494
2026-01-26 14:48:15.55	192.12	41.37	-40.1	-41.3	21.5	0.00e+00	0	28	0	1004535808	52	6635
2026-01-26 14:48:16.56	192.20	41.10	-40.4	-41.6	21.5	0.00e+00	0	28	0	1006632960	52	6901
2026-01-26 14:48:17.57	192.27	40.83	-39.7	-40.8	22.3	0.00e+00	0	28	0	1008730112	52	6268
2026-01-26 14:48:18.58	192.34	40.56	-39.6	-40.6	22.4	0.00e+00	67	28	0	1010827264	52	6173
2026-01-26 14:48:19.59	192.42	40.29	-38.0	-38.9	23.6	0.00e+00	0	28	0	1011875840	50	5694
2026-01-26 14:48:20.60	192.49	40.03	-37.5	-38.3	24.3	0.00e+00	28	28	0	1013972992	48	5956
2026-01-26 14:48:21.61	192.56	39.77	-37.1	-37.9	24.5	0.00e+00	0	28	0	1016070144	48	5677
2026-01-26 14:48:22.62	192.63	39.51	-37.1	-37.9	24.3	0.00e+00	0	28	0	1018167296	46	6368
2026-01-26 14:48:23.63	192.69	39.25	-37.6	-38.4	24.1	0.00e+00	57	28	0	1020264448	46	6769
2026-01-26 14:48:24.64	192.76	38.99	-38.4	-39.4	23.2	0.00e+00	0	28	0	1021313024	48	6700
2026-01-26 14:48:25.65	192.83	38.74	-40.6	-41.8	21.5	0.00e+00	69	28	0	1023410176	52	7008
2026-01-26 14:48:26.66	192.89	38.49	-41.5	-42.8	20.4	0.00e+00	0	28	0	1025507328	54	7073
2026-01-26 14:48:27.67	192.96	38.24	-43.6	-45.7	17.9	0.00e+00	79	28	0	1027604480	58	7808
2026-01-26 14:48:28.67	193.02	37.99	-45.4	-48.6	14.8	0.00e+00	0	28	0	1029701632	60	9759
2026-01-26 14:48:29.68	193.08	37.74	-45.9	-49.6	13.8	7.00e-07	0	28	0	1030750208	60	10959
2026-01-26 14:48:30.70	193.14	37.50	-46.5	-51.2	12.6	1.79e-04	41	28	0	1032847360	60	13138
2026-01-26 14:48:31.71	193.20	37.25	-45.5	-49.0	15.0	7.00e-07	0	28	0	1034944512	60	10204
2026-01-26 14:48:32.71	193.26	37.01	-43.8	-46.0	18.0	0.00e+00	65	28	0	1037041664	60	7222
2026-01-26 14:48:33.72	193.32	36.77	-41.4	-42.8	20.5	0.00e+00	0	28	0	1039138816	56	6299
2026-01-26 14:48:34.73	193.38	36.53	-40.3	-41.4	21.7	0.00e+00	90	28	0	1040187392	54	6027
2026-01-26 14:48:35.74	193.44	36.30	-39.0	-40.0	22.9	0.00e+00	0	28	0	1042284544	52	5732
2026-01-26 14:48:36.75	193.49	36.06	-38.8	-39.8	22.9	0.00e+00	0	28	0	1044381696	52	5576
2026-01-26 14:48:37.76	193.55	35.83	-39.3	-40.3	22.9	0.00e+00	0	28	0	1046478848	52	5937
2026-01-26 14:48:38.77	193.60	35.60	-39.3	-40.3	22.6	0.00e+00	0	28	0	1048576000	52	5963
2026-01-26 14:48:39.77	193.66	35.37	-39.8	-40.9	22.1	0.00e+00	72	28	0	1049624576	52	6354
2026-01-26 14:48:40.78	193.71	35.14	-40.9	-42.2	21.1	0.00e+00	0	28	0	1051721728	54	6600
2026-01-26 14:48:41.79	193.76	34.92	-41.8	-43.3	19.8	0.00e+00	92	28	0	1053818880	56	6654
2026-01-26 14:48:42.80	193.82	34.69	-42.5	-44.3	18.8	0.00e+00	0	28	0	1055916032	56	7446
2026-01-26 14:48:43.81	193.87	34.47	-43.9	-46.3	17.2	0.00e+00	0	28	0	1058013184	60	7475
2026-01-26 14:48:44.81	193.92	34.25	-45.2	-48.2	15.8	0.00e+00	0	28	0	1060110336	60	9341
2026-01-26 14:48:45.83	193.97	34.02	-45.9	-49.6	13.8	1.50e-06	0	28	0	1061158912	60	10865
2026-01-26 14:48:46.83	194.02	33.81	-46.9	-52.1	11.1	1.20e-04	0	28	0	1063256064	60	14631
2026-01-26 14:48:47.85	194.07	33.59	-46.3	-50.9	12.2	1.16e-04	0	28	0	1065353216	60	12617
2026-01-26 14:48:48.85	194.12	33.37	-46.8	-52.0	11.2	6.84e-04	82	28	0	1067450368	60	14322
2026-01-26 14:48:49.86	194.16	33.16	-46.8	-51.8	11.6	1.41e-03	0	28	0	1069547520	60	13998
2026-01-26 14:48:50.87	194.21	32.95	-45.6	-49.0	14.4	1.14e-05	0	28	0	1070596096	60	10160
2026-01-26 14:48:51.88	194.26	32.74	-44.5	-47.1	16.6	7.00e-07	0	28	0	1072693248	60	8151
2026-01-26 14:48:52.89	194.30	32.53	-44.2	-46.6	17.1	0.00e+00	0	28	0	1074790400	60	7689
2026-01-26 14:48:53.90	194.35	32.32	-42.7	-44.4	19.1	0.00e+00	72	28	0	1076887552	58	6694
2026-01-26 14:48:54.91	194.40	32.11	-41.9	-43.4	20.0	0.00e+00	0	28	0	1078984704	58	6017
2026-01-26 14:48:55.92	194.44	31.90	-41.4	-42.7	20.6	0.00e+00	84	28	0	1080033280	56	6231
2026-01-26 14:48:56.93	194.48	31.70	-41.1	-42.4	20.9	0.00e+00	0	28	0	1082130432	56	6007
2026-01-26 14:48:57.93	194.53	31.50	-41.0	-42.2	21.1	0.00e+00	92	28	0	1084227584	56	5889
2026-01-26 14:48:58.94	194.57	31.30	-41.4	-42.7	20.8	0.00e+00	0	28	0	1086324736	56	6206
2026-01-26 14:48:59.95	194.61	31.10	-41.2	-42.4	20.8	0.00e+00	0	28	0	1088421888	56	6019
2026-01-26 14:49:00.96	194.66	30.90	-41.6	-43.0	20.5	0.00e+00	0	28	0	1089470464	56	6392
2026-01-26 14:49:01.97	194.70	30.70	-42.1	-43.5	19.8	0.00e+00	0	28	0	1091567616	56	6800
2026-01-26 14:49:02.98	194.74	30.51	-42.6	-44.1	19.3	0.00e+00	51	28	0	1093664768	56	7321
2026-01-26 14:49:04.00	194.78	30.31	-42.6	-44.2	19.2	0.00e+00	0	28	0	1095761920	56	7402
2026-01-26 14:49:05.00	194.82	30.12	-42.5	-44.1	19.3	0.00e+00	92	28	0	1097859072	56	7269
2026-01-26 14:49:06.01	194.86	29.93	-42.2	-43.7	20.2	0.00e+00	0	28	0	1098907648	56	6938
2026-01-26 14:49:07.02	194.90	29.73	-41.5	-43.0	20.4	0.00e+00	0	28	0	1101004800	56	6394
2026-01-26 14:49:08.03	194.94	29.54	-41.1	-42.4	20.9	0.00e+00	0	28	0	1103101952	56	5998
2026-01-26 14:49:09.04	194.98	29.36	-40.7	-41.9	21.3	0.00e+00	0	28	0	1105199104	56	5672
2026-01-26 14:49:10.05	195.01	29.17	-40.3	-41.5	21.6	0.00e+00	51	28	0	1107296256	54	6045
2026-01-26 14:49:11.06	195.05	28.98	-39.9	-41.0	21.9	0.00e+00	0	28	0	1108344832	54	5707
2026-01-26 14:49:12.07	195.09	28.80	-40.1	-41.2	21.8	0.00e+00	65	28	0	1110441984	54	5846
2026-01-26 14:49:13.08	195.13	28.61	-40.1	-41.2	21.8	0.00e+00	0	28	0	1112539136	54	5871
2026-01-26 14:49:14.09	195.16	28.43	-39.8	-40.9	22.2	0.00e+00	0	28	0	1114636288	52	6348
2026-01-26 14:49:15.10	195.20	28.25	-39.9	-40.9	22.0	0.00e+00	0	28	0	1116733440	52	6388
2026-01-26 14:49:16.11	195.24	28.07	-39.8	-40.9	22.2	0.00e+00	0	28	0	1117782016	52	6325
2026-01-26 14:49:17.12	195.27	27.89	-39.5	-40.5	22.6	0.00e+00	68	28	0	1119879168	52	6087
2026-01-26 14:49:18.13	195.31	27.71	-39.0	-40.0	22.8	0.00e+00	0	28	0	1121976320	52	5716
2026-01-26 14:49:19.14	195.34	27.54	-38.9	-39.8	23.0	0.00e+00	92	28	0	1124073472	52	5590
2026-01-26 14:49:20.15	195.38	27.36	-38.4	-39.3	23.4	0.00e+00	0	28	0	1126170624	50	5946
2026-01-26 14:49:21.16	195.41	27.19	-38.4	-39.3	23.4	0.00e+00	0	28	0	1128267776	50	5900
2026-01-26 14:49:22.17	195.44	27.01	-38.1	-39.0	23.7	0.00e+00	0	28	0	1129316352	50	5705
2026-01-26 14:49:23.18	195.48	26.84	-37.8	-38.6	24.0	0.00e+00	0	28	0	1131413504	50	5499
2026-01-26 14:49:24.19	195.51	26.67	-38.0	-38.9	23.5	0.00e+00	0	28	0	1133510656	50	5670
2026-01-26 14:49:25.20	195.54	26.50	-37.6	-38.5	24.0	0.00e+00	0	28	0	1135607808	48	6058
2026-01-26 14:49:26.21	195.58	26.33	-37.4	-38.2	24.2	0.00e+00	92	28	0	1137704960	48	5864
2026-01-26 14:49:27.22	195.61	26.16	-37.4	-38.2	24.3	0.00e+00	0	28	0	1138753536	48	5888
2026-01-26 14:49:28.23	195.64	26.00	-37.4	-38.3	24.2	0.00e+00	15	28	0	1140850688	48	5936
2026-01-26 14:49:29.24	195.67	25.83	-37.3	-38.2	24.2	0.00e+00	0	28	0	1142947840	48	5835
2026-01-26 14:49:30.25	195.70	25.67	-37.2	-38.1	24.2	0.00e+00	0	28	0	1145044992	48	5785
2026-01-26 14:49:31.25	195.73	25.50	-37.4	-38.3	24.0	0.00e+00	49	28	0	1147142144	48	5916
2026-01-26 14:49:32.27	195.77	25.34	-37.5	-38.4	24.0	0.00e+00	0	28	0	1148190720	48	6014
2026-01-26 14:49:33.28	195.80	25.18	-37.8	-38.7	23.8	0.00e+00	69	28	0	1150287872	48	6218
2026-01-26 14:49:34.29	195.83	25.02	-38.1	-39.1	23.7	0.00e+00	0	28	0	1152385024	48	6466
2026-01-26 14:49:35.30	195.86	24.86	-38.1	-39.1	23.5	0.00e+00	91	28	0	1154482176	48	6474
2026-01-26 14:49:36.30	195.89	24.70	-38.1	-39.0	23.6	0.00e+00	0	28	0	1156579328	48	6431
2026-01-26 14:49:37.31	195.92	24.54	-38.3	-39.3	23.4	0.00e+00	0	28	0	1157627904	48	6629
2026-01-26 14:49:38.32	195.94	24.38	-38.1	-39.0	23.7	0.00e+00	0	28	0	1159725056	48	6411
2026-01-26 14:49:39.33	195.97	24.23	-38.0	-39.0	23.7	0.00e+00	0	28	0	1161822208	48	6398
2026-01-26 14:49:40.34	196.00	24.07	-37.9	-38.8	23.5	0.00e+00	27	28	0	1163919360	48	6287
2026-01-26 14:49:41.35	196.03	23.92	-37.8	-38.7	23.9	0.00e+00	0	28	0	1166016512	48	6175
2026-01-26 14:49:42.36	196.06	23.77	-37.5	-38.4	24.0	0.00e+00	86	28	0	1167065088	48	5986
2026-01-26 14:49:43.37	196.09	23.61	-37.4	-38.3	24.1	0.00e+00	0	28	0	1169162240	48	5900
2026-01-26 14:49:44.38	196.11	23.46	-37.0	-37.9	24.4	0.00e+00	0	28	0	1171259392	48	5650
2026-01-26 14:49:45.39	196.14	23.31	-36.7	-37.5	24.7	0.00e+00	0	28	0	1173356544	46	6094
2026-01-26 14:49:46.40	196.17	23.16	-36.7	-37.6	24.7	0.00e+00	0	28	0	1175453696	46	6112
2026-01-26 14:49:47.41	196.20	23.01	-36.6	-37.4	24.5	0.00e+00	59	28	0	1176502272	46	5994
2026-01-26 14:49:48.41	196.22	22.86	-36.6	-37.4	24.8	0.00e+00	0	28	0	1178599424	46	5994
2026-01-26 14:49:49.42	196.25	22.72	-36.6	-37.5	24.7	0.00e+00	86	28	0	1180696576	46	6037
2026-01-26 14:49:50.43	196.28	22.57	-36.7	-37.5	24.7	0.00e+00	0	28	0	1182793728	46	6080
2026-01-26 14:49:51.44	196.30	22.43	-36.8	-37.6	24.6	0.00e+00	0	28	0	1184890880	46	6134
2026-01-26 14:49:52.45	196.33	22.28	-36.8	-37.6	24.6	0.00e+00	0	28	0	1185939456	46	6170
2026-01-26 14:49:53.46	196.35	22.14	-36.9	-37.7	24.5	0.00e+00	0	28	0	1188036608	46	6244
2026-01-26 14:49:54.47	196.38	21.99	-37.0	-37.8	24.4	0.00e+00	19	28	0	1190133760	46	6297
2026-01-26 14:49:55.48	196.41	21.85	-37.1	-37.9	24.3	0.00e+00	0	28	0	1192230912	46	6368
2026-01-26 14:49:56.49	196.43	21.71	-37.1	-37.9	24.3	0.00e+00	78	28	0	1194328064	46	6389
2026-01-26 14:49:57.50	196.46	21.57	-37.1	-37.9	24.4	0.00e+00	0	28	0	1196425216	46	6363
2026-01-26 14:49:58.51	196.48	21.43	-37.4	-38.3	24.1	0.00e+00	0	28	0	1197473792	46	6636
2026-01-26 14:49:59.52	196.50	21.29	-37.5	-38.4	24.1	0.00e+00	0	28	0	1199570944	46	6694
2026-01-26 14:50:00.53	196.53	21.15	-37.5	-38.4	24.0	0.00e+00	0	28	0	1201668096	46	6723
2026-01-26 14:50:01.54	196.55	21.01	-37.8	-38.7	23.7	0.00e+00	0	28	0	1203765248	48	6235
2026-01-26 14:50:02.55	196.58	20.88	-37.8	-38.7	23.7	0.00e+00	0	28	0	1205862400	48	6235
2026-01-26 14:50:03.55	196.60	20.74	-37.8	-38.7	23.8	0.00e+00	84	28	0	1206910976	48	6198
2026-01-26 14:50:04.56	196.62	20.60	-38.1	-39.0	23.5	0.00e+00	0	28	0	1209008128	48	6431
2026-01-26 14:50:05.57	196.65	20.47	-38.4	-39.3	23.4	0.00e+00	3	28	0	1211105280	48	6645
2026-01-26 14:50:06.58	196.67	20.34	-38.1	-39.1	23.4	0.00e+00	0	28	0	1213202432	48	6467
2026-01-26 14:50:07.59	196.69	20.20	-38.0	-38.9	23.7	0.00e+00	0	28	0	1215299584	48	6319
