passes_logs/2026/01/26/R4.6S_Anadyr/R4.6S_Anadyr__20260126_014948_FENGYUN_3D_rec.log

#Pass ID: 20260126_014948_FENGYUN 3D
#Satellite: FENGYUN 3D
#Configuration: FENGYUN 3D
#almurnet v.1.7.20251203
#Start time: 2026-01-26 01:49:51

#Version: 2.2.20231116
#Station: R4.6S_Anadyr
#Location: 177.4865 lon 64.73178 lat
#TLE: 1 43010U 17072A   26025.50461972  .00000046  00000+0  43592-4 0  9990
#TLE: 2 43010  98.9962 357.4844 0002523  89.7890 270.3575 14.19699798424744

#Time	Az	El	Level	Level2	SNR	BER	BlckErr	Temp	State	Recorded	gain1	gain2
2026-01-26 01:49:51.16	144.97	0.17	-51.1	-66.0	3.5	1.51e+00	0	28	0	0	60	72426
2026-01-26 01:49:52.17	144.96	0.23	-51.7	-63.8	3.6	8.45e-01	0	29	104	0	60	56054
2026-01-26 01:49:53.18	144.95	0.29	-51.4	-63.5	3.6	8.46e-01	0	29	104	0	60	54109
2026-01-26 01:49:54.19	144.94	0.35	-50.7	-62.8	3.6	8.45e-01	0	29	104	0	60	50094
2026-01-26 01:49:55.20	144.93	0.41	-50.9	-63.0	3.6	8.46e-01	0	29	104	0	60	51038
2026-01-26 01:49:56.21	144.92	0.47	-50.0	-62.1	3.6	8.45e-01	0	29	104	0	60	45825
2026-01-26 01:49:57.22	144.92	0.53	-50.6	-62.7	3.6	8.45e-01	0	29	104	0	60	49319
2026-01-26 01:49:58.23	144.91	0.60	-50.2	-62.3	3.6	8.45e-01	0	29	104	0	60	47194
2026-01-26 01:49:59.24	144.90	0.66	-50.0	-62.2	3.6	8.45e-01	0	29	104	0	60	46389
2026-01-26 01:50:00.25	144.89	0.72	-50.2	-62.3	3.6	8.44e-01	0	29	104	0	60	47372
2026-01-26 01:50:01.26	144.88	0.78	-49.8	-61.9	3.6	8.44e-01	0	29	104	0	60	44777
2026-01-26 01:50:02.27	144.87	0.84	-50.3	-62.4	3.6	8.45e-01	0	29	104	0	60	47615
2026-01-26 01:50:03.28	144.86	0.91	-49.9	-62.0	3.6	8.46e-01	0	29	104	0	60	45737
2026-01-26 01:50:04.29	144.85	0.97	-50.1	-62.3	3.6	8.46e-01	0	29	104	0	60	46872
2026-01-26 01:50:05.30	144.84	1.03	-49.9	-62.0	3.6	8.45e-01	0	29	104	0	60	45498
2026-01-26 01:50:06.31	144.83	1.09	-49.2	-62.0	3.6	8.45e-01	0	29	104	0	60	45291
2026-01-26 01:50:07.32	144.82	1.16	-49.8	-62.0	3.6	8.44e-01	0	29	104	0	60	45700
2026-01-26 01:50:08.33	144.81	1.22	-49.7	-61.9	3.6	8.46e-01	0	29	104	0	60	45207
2026-01-26 01:50:09.34	144.80	1.28	-49.7	-61.9	3.6	8.46e-01	0	29	104	0	60	44790
2026-01-26 01:50:10.35	144.79	1.35	-49.6	-61.8	3.6	8.45e-01	0	29	104	0	60	44334
2026-01-26 01:50:11.36	144.78	1.41	-49.6	-61.8	3.5	8.46e-01	0	29	104	0	60	44252
2026-01-26 01:50:12.37	144.77	1.47	-49.0	-61.2	3.6	8.46e-01	0	29	104	0	60	41304
2026-01-26 01:50:13.38	144.76	1.54	-48.3	-60.8	3.6	8.46e-01	0	29	104	0	60	39559
2026-01-26 01:50:14.39	144.75	1.60	-48.3	-60.5	3.6	8.45e-01	0	29	104	0	60	38367
2026-01-26 01:50:15.40	144.74	1.66	-47.7	-60.3	3.6	8.46e-01	0	29	104	0	60	37281
2026-01-26 01:50:16.41	144.73	1.73	-48.1	-60.1	3.6	8.45e-01	0	29	104	0	60	36469
2026-01-26 01:50:17.42	144.72	1.79	-48.1	-60.2	3.6	8.45e-01	0	29	104	0	60	37106
2026-01-26 01:50:18.43	144.71	1.86	-48.1	-60.2	3.6	8.45e-01	0	29	104	0	60	36777
2026-01-26 01:50:19.44	144.70	1.92	-48.0	-60.1	3.6	8.45e-01	0	29	104	0	60	36727
2026-01-26 01:50:20.45	144.69	1.99	-47.9	-59.9	3.6	8.45e-01	0	29	104	0	60	35761
2026-01-26 01:50:21.46	144.68	2.05	-48.1	-60.1	3.6	8.44e-01	0	29	104	0	60	36477
2026-01-26 01:50:22.47	144.67	2.12	-48.1	-60.2	3.6	8.45e-01	0	29	104	0	60	36782
2026-01-26 01:50:23.48	144.66	2.18	-47.9	-59.9	3.6	8.45e-01	0	30	104	0	60	35851
2026-01-26 01:50:24.49	144.65	2.25	-47.8	-60.0	3.5	8.45e-01	0	30	104	0	60	36033
2026-01-26 01:50:25.50	144.64	2.31	-48.0	-60.2	3.6	8.45e-01	0	30	104	0	60	36832
2026-01-26 01:50:26.51	144.63	2.38	-48.0	-60.2	3.6	8.46e-01	0	29	104	0	60	36842
2026-01-26 01:50:27.52	144.62	2.44	-47.9	-60.0	3.6	8.45e-01	0	30	104	0	60	36165
2026-01-26 01:50:28.53	144.61	2.51	-48.0	-60.1	3.6	8.46e-01	0	29	104	0	60	36636
2026-01-26 01:50:29.54	144.60	2.58	-47.9	-60.0	3.6	8.44e-01	0	30	104	0	60	36179
2026-01-26 01:50:30.55	144.58	2.64	-47.8	-59.8	3.6	8.45e-01	0	29	104	0	60	35385
2026-01-26 01:50:31.56	144.57	2.71	-48.0	-60.0	3.6	8.45e-01	0	30	104	0	60	35954
2026-01-26 01:50:32.57	144.56	2.77	-48.0	-60.1	3.6	8.46e-01	0	30	104	0	60	36370
2026-01-26 01:50:33.58	144.55	2.84	-48.2	-60.3	3.6	8.46e-01	0	30	104	0	60	37237
2026-01-26 01:50:34.59	144.54	2.91	-48.5	-60.5	3.6	8.46e-01	0	30	104	0	60	38085
2026-01-26 01:50:35.60	144.53	2.97	-48.7	-60.7	3.5	8.46e-01	0	30	104	0	60	39271
2026-01-26 01:50:36.61	144.52	3.04	-48.1	-59.9	3.6	8.46e-01	0	30	104	0	60	35620
2026-01-26 01:50:37.62	144.51	3.11	-48.5	-59.7	3.6	8.45e-01	0	30	104	0	60	34772
2026-01-26 01:50:38.63	144.49	3.18	-48.1	-59.3	3.6	8.44e-01	0	30	104	0	60	33405
2026-01-26 01:50:39.64	144.48	3.24	-47.7	-55.3	3.8	8.41e-01	0	30	104	0	60	21133
2026-01-26 01:50:40.65	144.47	3.31	-47.6	-53.6	5.9	5.90e-01	0	30	0	1048576	60	17255
2026-01-26 01:50:41.66	144.46	3.38	-46.3	-49.6	10.7	2.77e-02	0	30	0	6291456	60	10939
2026-01-26 01:50:42.67	144.45	3.45	-45.8	-48.8	10.4	2.05e-03	0	30	0	11534336	60	9922
2026-01-26 01:50:43.67	144.44	3.51	-44.4	-46.6	13.3	7.77e-04	0	30	0	17825792	60	7722
2026-01-26 01:50:44.68	144.42	3.58	-43.0	-44.7	14.9	2.20e-06	0	30	0	23068672	60	6239
2026-01-26 01:50:45.69	144.41	3.65	-41.8	-43.1	16.9	0.00e+00	0	30	0	29360128	58	5827
2026-01-26 01:50:46.70	144.40	3.72	-41.3	-42.6	16.9	0.00e+00	0	30	0	34603008	56	6124
2026-01-26 01:50:47.71	144.39	3.79	-41.0	-42.3	16.9	0.00e+00	0	30	0	39845888	54	6681
2026-01-26 01:50:48.71	144.38	3.86	-40.3	-41.5	17.8	0.00e+00	0	30	0	46137344	54	6051
2026-01-26 01:50:49.72	144.36	3.93	-44.1	-46.4	9.7	0.00e+00	0	30	0	51380224	58	8469
2026-01-26 01:50:50.73	144.35	4.00	-40.0	-41.1	17.4	6.44e-02	0	30	104	52428800	52	6525
2026-01-26 01:50:51.74	144.34	4.07	-43.5	-45.6	11.0	0.00e+00	0	30	0	55574528	56	8642
2026-01-26 01:50:52.75	144.33	4.14	-45.2	-48.6	9.1	2.79e-02	0	30	104	56623104	60	9722
2026-01-26 01:50:53.76	144.32	4.21	-41.0	-42.4	16.0	1.10e-06	0	30	0	59768832	52	7577
2026-01-26 01:50:54.77	144.30	4.28	-40.2	-41.3	18.3	1.76e-04	0	30	0	65011712	56	5301
2026-01-26 01:50:55.78	144.29	4.35	-39.9	-41.0	19.2	0.00e+00	0	30	0	71303168	52	6450
2026-01-26 01:50:56.79	144.28	4.42	-39.2	-40.3	19.4	0.00e+00	0	30	0	76546048	52	5906
2026-01-26 01:50:57.80	144.26	4.49	-39.2	-40.2	19.2	0.00e+00	0	30	0	82837504	52	5884
2026-01-26 01:50:58.81	144.25	4.56	-39.3	-40.4	19.6	0.00e+00	0	30	0	88080384	52	5989
2026-01-26 01:50:59.83	144.24	4.63	-39.3	-40.4	19.6	0.00e+00	0	30	0	94371840	52	5971
2026-01-26 01:51:00.83	144.23	4.70	-39.1	-40.0	20.0	0.00e+00	0	30	0	99614720	52	5746
2026-01-26 01:51:01.84	144.21	4.77	-38.6	-39.6	20.0	0.00e+00	0	30	0	104857600	50	6129
2026-01-26 01:51:02.85	144.20	4.84	-39.0	-40.0	19.9	0.00e+00	0	30	0	111149056	50	6403
2026-01-26 01:51:03.86	144.19	4.92	-39.1	-40.1	20.2	0.00e+00	0	30	0	116391936	50	6480
2026-01-26 01:51:04.87	144.17	4.99	-39.0	-40.0	20.2	0.00e+00	0	30	0	121634816	50	6442
2026-01-26 01:51:05.88	144.16	5.06	-39.5	-40.5	19.7	0.00e+00	0	30	0	127926272	50	6833
2026-01-26 01:51:06.89	144.15	5.13	-39.0	-40.0	19.7	0.00e+00	0	30	0	133169152	50	6412
2026-01-26 01:51:07.90	144.13	5.21	-38.4	-39.4	20.1	0.00e+00	0	30	0	139460608	50	5970
2026-01-26 01:51:08.91	144.12	5.28	-39.4	-40.4	20.0	0.00e+00	0	30	0	144703488	50	6698
2026-01-26 01:51:09.92	144.10	5.35	-38.4	-39.4	20.4	0.00e+00	0	30	0	150994944	50	5974
2026-01-26 01:51:10.93	144.09	5.42	-38.5	-39.4	20.8	0.00e+00	0	30	0	156237824	50	5972
2026-01-26 01:51:11.94	144.08	5.50	-38.5	-39.5	20.3	0.00e+00	0	30	0	162529280	50	6050
2026-01-26 01:51:12.95	144.06	5.57	-38.7	-39.7	20.1	0.00e+00	0	30	0	167772160	50	6177
2026-01-26 01:51:13.96	144.05	5.65	-38.4	-39.4	20.2	0.00e+00	0	30	0	173015040	50	5976
2026-01-26 01:51:14.97	144.03	5.72	-38.0	-38.9	21.1	0.00e+00	0	30	0	179306496	50	5664
2026-01-26 01:51:15.98	144.02	5.79	-38.4	-39.3	20.6	0.00e+00	0	30	0	184549376	50	5964
2026-01-26 01:51:16.99	144.01	5.87	-38.3	-39.3	20.7	0.00e+00	0	30	0	190840832	50	5936
2026-01-26 01:51:18.00	143.99	5.94	-38.6	-39.6	20.8	0.00e+00	0	30	0	196083712	50	6115
2026-01-26 01:51:19.02	143.98	6.02	-38.0	-39.0	20.8	0.00e+00	0	30	0	201326592	50	5709
2026-01-26 01:51:20.03	143.96	6.09	-38.1	-39.0	20.8	0.00e+00	0	30	0	207618048	48	6456
2026-01-26 01:51:21.04	143.95	6.17	-38.4	-39.3	20.9	0.00e+00	0	30	0	212860928	48	6661
2026-01-26 01:51:22.05	143.93	6.24	-37.8	-38.7	21.1	0.00e+00	0	30	0	219152384	48	6236
2026-01-26 01:51:23.06	143.92	6.32	-38.3	-39.2	20.9	0.00e+00	0	30	0	224395264	48	6554
2026-01-26 01:51:24.07	143.90	6.40	-37.9	-38.8	21.2	0.00e+00	0	30	0	229638144	48	6273
2026-01-26 01:51:25.08	143.89	6.47	-37.6	-38.5	21.3	0.00e+00	0	30	0	235929600	48	6034
2026-01-26 01:51:26.09	143.87	6.55	-38.0	-38.9	21.2	0.00e+00	0	30	0	241172480	48	6360
2026-01-26 01:51:27.10	143.86	6.63	-38.0	-38.8	21.6	0.00e+00	0	30	0	247463936	48	6288
2026-01-26 01:51:28.11	143.84	6.70	-37.8	-38.7	21.4	0.00e+00	0	30	0	252706816	48	6204
2026-01-26 01:51:29.12	143.83	6.78	-37.1	-38.0	21.8	0.00e+00	0	30	0	258998272	48	5716
2026-01-26 01:51:30.12	143.81	6.86	-37.3	-38.2	21.7	0.00e+00	0	30	0	264241152	48	5875
2026-01-26 01:51:31.13	143.79	6.93	-37.2	-38.0	21.6	0.00e+00	0	30	0	270532608	48	5759
2026-01-26 01:51:32.14	143.78	7.01	-37.4	-38.3	21.7	0.00e+00	0	30	0	275775488	48	5932
2026-01-26 01:51:33.15	143.76	7.09	-37.2	-38.0	21.9	0.00e+00	0	30	0	281018368	48	5753
2026-01-26 01:51:34.16	143.75	7.17	-37.2	-38.1	21.9	0.00e+00	0	30	0	287309824	48	5799
2026-01-26 01:51:35.17	143.73	7.25	-36.7	-37.6	22.1	0.00e+00	0	30	0	292552704	46	6120
2026-01-26 01:51:36.18	143.71	7.32	-36.7	-37.5	22.1	0.00e+00	0	30	0	298844160	46	6043
2026-01-26 01:51:37.19	143.70	7.40	-36.5	-37.2	22.2	0.00e+00	0	30	0	304087040	46	5885
2026-01-26 01:51:38.20	143.68	7.48	-36.5	-37.3	22.1	0.00e+00	0	30	0	309329920	46	5949
2026-01-26 01:51:39.21	143.67	7.56	-36.6	-37.4	22.0	0.00e+00	0	30	0	315621376	46	5996
2026-01-26 01:51:40.22	143.65	7.64	-36.7	-37.5	22.0	0.00e+00	0	30	0	320864256	46	6088
2026-01-26 01:51:41.23	143.63	7.72	-36.7	-37.5	22.1	0.00e+00	0	30	0	327155712	46	6066
2026-01-26 01:51:42.23	143.62	7.80	-36.6	-37.4	22.4	0.00e+00	0	30	0	332398592	46	6000
2026-01-26 01:51:43.24	143.60	7.88	-36.6	-37.4	22.5	0.00e+00	0	30	0	337641472	46	5987
2026-01-26 01:51:44.26	143.58	7.96	-36.2	-37.0	22.5	0.00e+00	0	30	0	343932928	46	5751
2026-01-26 01:51:45.27	143.56	8.04	-36.7	-37.5	22.4	0.00e+00	0	30	0	349175808	46	6046
2026-01-26 01:51:46.28	143.55	8.13	-36.6	-37.4	22.5	0.00e+00	0	30	0	355467264	46	5979
2026-01-26 01:51:47.28	143.53	8.21	-36.6	-37.4	22.5	0.00e+00	0	30	0	360710144	46	5974
2026-01-26 01:51:48.29	143.51	8.29	-36.6	-37.4	22.3	0.00e+00	0	30	0	367001600	46	5974
2026-01-26 01:51:49.30	143.49	8.37	-36.4	-37.2	22.5	0.00e+00	0	30	0	372244480	46	5854
2026-01-26 01:51:50.31	143.48	8.45	-36.2	-37.0	22.6	0.00e+00	0	30	0	377487360	46	5740
2026-01-26 01:51:51.32	143.46	8.54	-36.0	-36.8	22.9	0.00e+00	0	30	0	383778816	46	5573
2026-01-26 01:51:52.33	143.44	8.62	-36.3	-37.0	23.0	0.00e+00	0	30	0	389021696	46	5748
2026-01-26 01:51:53.34	143.42	8.70	-36.0	-36.8	22.9	0.00e+00	0	30	0	395313152	46	5582
2026-01-26 01:51:54.35	143.40	8.78	-36.3	-37.1	22.8	0.00e+00	0	30	0	400556032	46	5811
2026-01-26 01:51:55.36	143.39	8.87	-36.4	-37.1	22.9	0.00e+00	0	30	0	405798912	46	5808
2026-01-26 01:51:56.37	143.37	8.95	-36.4	-37.1	23.0	0.00e+00	0	30	0	412090368	46	5821
2026-01-26 01:51:57.38	143.35	9.04	-36.1	-36.9	23.0	0.00e+00	0	30	0	417333248	46	5666
2026-01-26 01:51:58.40	143.33	9.12	-36.3	-37.1	22.8	0.00e+00	0	30	0	423624704	46	5797
2026-01-26 01:51:59.40	143.31	9.21	-36.3	-37.0	22.9	0.00e+00	0	30	0	428867584	46	5716
2026-01-26 01:52:00.41	143.29	9.29	-36.4	-37.2	23.0	0.00e+00	0	30	0	434110464	46	5852
2026-01-26 01:52:01.42	143.27	9.38	-36.1	-36.9	23.0	0.00e+00	0	30	0	440401920	46	5667
2026-01-26 01:52:02.43	143.25	9.46	-36.3	-37.0	23.1	0.00e+00	0	30	0	445644800	46	5745
2026-01-26 01:52:03.44	143.23	9.55	-35.9	-36.7	23.0	0.00e+00	0	30	0	451936256	46	5531
2026-01-26 01:52:04.45	143.22	9.63	-35.9	-36.7	23.1	0.00e+00	0	30	0	457179136	46	5507
2026-01-26 01:52:05.46	143.20	9.72	-35.8	-36.5	23.2	0.00e+00	0	30	0	463470592	44	6090
2026-01-26 01:52:06.47	143.18	9.81	-35.9	-36.6	23.4	0.00e+00	0	30	0	468713472	44	6137
2026-01-26 01:52:07.48	143.16	9.89	-35.7	-36.4	23.3	0.00e+00	0	30	0	475004928	44	6017
2026-01-26 01:52:08.49	143.14	9.98	-35.8	-36.6	22.9	0.00e+00	0	30	0	480247808	44	6123
2026-01-26 01:52:09.50	143.12	10.07	-36.4	-37.2	22.7	0.00e+00	0	30	0	485490688	44	6561
2026-01-26 01:52:10.51	143.10	10.16	-36.4	-37.2	22.0	0.00e+00	0	30	0	491782144	44	6541
2026-01-26 01:52:11.52	143.07	10.25	-36.3	-37.1	22.6	0.00e+00	0	30	0	497025024	46	5810
2026-01-26 01:52:12.53	143.05	10.33	-35.9	-36.7	22.7	0.00e+00	0	30	0	503316480	46	5524
2026-01-26 01:52:13.54	143.03	10.42	-35.5	-36.3	22.8	0.00e+00	0	30	0	508559360	44	5917
2026-01-26 01:52:14.55	143.01	10.51	-35.9	-36.6	21.5	0.00e+00	0	30	0	513802240	44	6152
2026-01-26 01:52:15.56	142.99	10.60	-35.8	-36.5	23.0	0.00e+00	0	30	0	520093696	44	6080
2026-01-26 01:52:16.57	142.97	10.69	-35.9	-36.7	21.4	0.00e+00	0	30	0	525336576	44	6188
2026-01-26 01:52:17.58	142.95	10.78	-36.0	-36.8	23.2	0.00e+00	0	30	0	531628032	44	6281
2026-01-26 01:52:18.59	142.93	10.87	-35.7	-36.5	23.4	0.00e+00	0	30	0	536870912	44	6038
2026-01-26 01:52:19.60	142.91	10.96	-35.7	-36.5	23.2	0.00e+00	0	30	0	542113792	44	6055
2026-01-26 01:52:20.61	142.88	11.05	-35.5	-36.2	23.3	0.00e+00	0	30	0	548405248	44	5891
2026-01-26 01:52:21.62	142.86	11.15	-35.6	-36.3	23.3	0.00e+00	0	30	0	553648128	44	5959
2026-01-26 01:52:22.63	142.84	11.24	-35.5	-36.2	23.2	0.00e+00	0	30	0	559939584	44	5877
2026-01-26 01:52:23.64	142.82	11.33	-35.4	-36.1	23.3	0.00e+00	0	30	0	565182464	44	5801
2026-01-26 01:52:24.65	142.80	11.42	-35.3	-36.0	23.1	0.00e+00	0	30	0	571473920	44	5752
2026-01-26 01:52:25.66	142.77	11.52	-35.3	-36.1	23.4	0.00e+00	0	30	0	576716800	44	5766
2026-01-26 01:52:26.67	142.75	11.61	-35.5	-36.2	23.6	0.00e+00	0	30	0	581959680	44	5872
2026-01-26 01:52:27.67	142.73	11.70	-35.5	-36.2	23.6	0.00e+00	0	30	0	588251136	44	5887
2026-01-26 01:52:28.69	142.70	11.80	-35.7	-36.4	21.7	0.00e+00	0	30	0	593494016	44	5992
2026-01-26 01:52:29.70	142.68	11.89	-35.3	-36.0	23.5	0.00e+00	0	30	0	599785472	44	5719
2026-01-26 01:52:30.70	142.66	11.99	-35.4	-36.1	22.8	0.00e+00	0	30	0	605028352	44	5803
2026-01-26 01:52:31.71	142.63	12.08	-35.3	-36.1	23.6	0.00e+00	0	30	0	610271232	44	5772
2026-01-26 01:52:32.72	142.61	12.18	-35.2	-35.9	23.3	0.00e+00	0	30	0	616562688	44	5668
2026-01-26 01:52:33.73	142.59	12.27	-35.4	-36.1	23.4	0.00e+00	0	30	0	621805568	44	5801
2026-01-26 01:52:34.74	142.56	12.37	-35.0	-35.7	23.7	0.00e+00	0	30	0	628097024	44	5548
2026-01-26 01:52:35.75	142.54	12.46	-35.1	-35.8	22.4	0.00e+00	0	30	0	633339904	44	5605
2026-01-26 01:52:36.76	142.51	12.56	-35.1	-35.8	23.7	0.00e+00	0	30	0	638582784	44	5624
2026-01-26 01:52:37.77	142.49	12.66	-34.9	-35.6	24.1	0.00e+00	0	30	0	644874240	44	5473
2026-01-26 01:52:38.78	142.46	12.76	-35.0	-35.7	24.1	0.00e+00	0	30	0	650117120	44	5503
2026-01-26 01:52:39.79	142.44	12.85	-34.7	-35.4	24.2	0.00e+00	0	30	0	656408576	44	5376
2026-01-26 01:52:40.80	142.41	12.95	-34.8	-35.5	24.2	0.00e+00	0	30	0	661651456	42	6075
2026-01-26 01:52:41.81	142.39	13.05	-34.7	-35.4	24.3	0.00e+00	0	30	0	667942912	42	6012
2026-01-26 01:52:42.82	142.36	13.15	-34.7	-35.4	24.4	0.00e+00	0	30	0	673185792	42	5994
2026-01-26 01:52:43.83	142.34	13.25	-34.7	-35.4	24.4	0.00e+00	0	30	0	679477248	42	6008
2026-01-26 01:52:44.84	142.31	13.35	-34.8	-35.5	24.3	0.00e+00	0	30	0	684720128	42	6059
2026-01-26 01:52:45.85	142.28	13.45	-34.7	-35.4	24.5	0.00e+00	0	30	0	689963008	42	6030
2026-01-26 01:52:46.86	142.26	13.55	-34.6	-35.3	24.7	0.00e+00	0	30	0	696254464	42	5904
2026-01-26 01:52:47.87	142.23	13.65	-34.8	-35.5	24.7	0.00e+00	0	30	0	701497344	42	6054
2026-01-26 01:52:48.88	142.20	13.76	-34.6	-35.3	24.8	0.00e+00	0	30	0	707788800	42	5941
2026-01-26 01:52:49.89	142.18	13.86	-34.6	-35.3	24.9	0.00e+00	0	30	0	713031680	42	5929
2026-01-26 01:52:50.90	142.15	13.96	-34.6	-35.3	25.0	0.00e+00	0	30	0	718274560	42	5931
2026-01-26 01:52:51.91	142.12	14.06	-34.8	-35.5	25.0	0.00e+00	0	30	0	724566016	42	6092
2026-01-26 01:52:52.92	142.09	14.17	-34.4	-35.0	25.2	0.00e+00	0	30	0	729808896	42	5740
2026-01-26 01:52:53.93	142.07	14.27	-34.4	-35.1	25.1	0.00e+00	0	30	0	736100352	42	5811
2026-01-26 01:52:54.94	142.04	14.38	-34.3	-35.0	25.2	0.00e+00	0	30	0	741343232	42	5708
2026-01-26 01:52:55.95	142.01	14.48	-34.4	-35.0	25.4	0.00e+00	0	30	0	746586112	42	5737
2026-01-26 01:52:56.96	141.98	14.59	-34.7	-35.4	25.5	0.00e+00	0	30	0	752877568	42	5981
2026-01-26 01:52:57.97	141.95	14.69	-34.4	-35.1	25.6	0.00e+00	0	30	0	758120448	42	5781
2026-01-26 01:52:58.98	141.92	14.80	-34.2	-34.9	25.5	0.00e+00	0	30	0	764411904	42	5660
2026-01-26 01:52:59.99	141.89	14.90	-34.0	-34.7	25.5	0.00e+00	0	30	0	769654784	42	5523
2026-01-26 01:53:01.00	141.87	15.01	-34.1	-34.7	25.6	0.00e+00	0	30	0	775946240	42	5544
2026-01-26 01:53:02.01	141.84	15.12	-34.3	-34.9	25.7	0.00e+00	0	30	0	781189120	42	5686
2026-01-26 01:53:03.02	141.81	15.23	-34.3	-35.0	25.8	0.00e+00	0	30	0	786432000	42	5699
2026-01-26 01:53:04.03	141.78	15.33	-34.1	-34.8	25.8	0.00e+00	0	30	0	792723456	42	5594
2026-01-26 01:53:05.03	141.75	15.44	-33.8	-34.5	25.8	0.00e+00	0	30	0	797966336	42	5410
2026-01-26 01:53:06.04	141.71	15.55	-33.8	-34.5	25.7	0.00e+00	0	30	0	804257792	40	6075
2026-01-26 01:53:07.05	141.68	15.66	-33.4	-34.1	26.2	0.00e+00	0	30	0	809500672	40	5781
2026-01-26 01:53:08.06	141.65	15.77	-33.3	-33.9	26.3	0.00e+00	0	30	0	814743552	40	5659
2026-01-26 01:53:09.07	141.62	15.88	-33.2	-33.9	26.2	0.00e+00	0	30	0	821035008	40	5660
2026-01-26 01:53:10.08	141.59	15.99	-33.6	-34.3	26.1	0.00e+00	0	30	0	826277888	40	5919
2026-01-26 01:53:11.09	141.56	16.11	-33.3	-33.9	26.4	0.00e+00	0	30	0	832569344	40	5672
2026-01-26 01:53:12.10	141.53	16.22	-33.5	-34.1	26.3	0.00e+00	0	30	0	837812224	40	5784
2026-01-26 01:53:13.12	141.49	16.33	-33.4	-34.1	26.2	0.00e+00	0	30	0	843055104	40	5765
2026-01-26 01:53:14.12	141.46	16.44	-33.5	-34.1	26.2	0.00e+00	0	30	0	849346560	40	5805
2026-01-26 01:53:15.13	141.43	16.56	-33.1	-33.8	26.3	0.00e+00	0	30	0	854589440	40	5567
2026-01-26 01:53:16.15	141.39	16.67	-33.2	-33.8	26.4	0.00e+00	0	30	0	860880896	40	5616
2026-01-26 01:53:17.15	141.36	16.79	-33.5	-34.1	26.3	0.00e+00	0	30	0	866123776	40	5803
2026-01-26 01:53:18.17	141.33	16.90	-33.5	-34.2	26.2	0.00e+00	0	30	0	872415232	40	5837
2026-01-26 01:53:19.18	141.29	17.02	-34.1	-34.8	26.3	0.00e+00	0	30	0	877658112	40	6271
2026-01-26 01:53:20.18	141.26	17.14	-33.4	-34.0	26.3	0.00e+00	0	30	0	883949568	40	5727
2026-01-26 01:53:21.20	141.22	17.25	-33.4	-34.1	26.4	0.00e+00	0	30	0	889192448	40	5762
2026-01-26 01:53:22.21	141.19	17.37	-33.1	-33.7	26.5	0.00e+00	0	30	0	894435328	40	5555
2026-01-26 01:53:23.22	141.15	17.49	-33.3	-33.9	26.4	0.00e+00	0	30	0	900726784	40	5656
2026-01-26 01:53:24.23	141.12	17.61	-33.3	-33.9	26.4	0.00e+00	0	30	0	905969664	40	5693
2026-01-26 01:53:25.23	141.08	17.73	-33.2	-33.8	26.5	0.00e+00	0	30	0	912261120	40	5590
2026-01-26 01:53:26.24	141.05	17.85	-32.9	-33.5	26.6	0.00e+00	0	30	0	917504000	40	5403
2026-01-26 01:53:27.25	141.01	17.97	-33.2	-33.8	26.7	0.00e+00	0	30	0	922746880	40	5608
2026-01-26 01:53:28.26	140.97	18.09	-33.0	-33.7	26.7	0.00e+00	0	30	0	929038336	40	5519
2026-01-26 01:53:29.27	140.93	18.21	-32.8	-33.5	26.8	0.00e+00	0	30	0	934281216	40	5378
2026-01-26 01:53:30.28	140.90	18.33	-33.0	-33.7	26.8	0.00e+00	0	30	0	940572672	40	5507
2026-01-26 01:53:31.29	140.86	18.46	-32.9	-33.5	26.7	0.00e+00	0	30	0	945815552	40	5436
2026-01-26 01:53:32.30	140.82	18.58	-33.1	-33.8	26.9	0.00e+00	0	30	0	951058432	40	5585
2026-01-26 01:53:33.31	140.78	18.70	-32.7	-33.3	26.9	0.00e+00	0	30	0	957349888	38	5938
2026-01-26 01:53:34.32	140.74	18.83	-32.6	-33.3	27.0	0.00e+00	0	30	0	962592768	38	5900
2026-01-26 01:53:35.33	140.70	18.95	-32.8	-33.4	27.0	0.00e+00	0	30	0	968884224	38	6004
2026-01-26 01:53:36.34	140.67	19.08	-32.6	-33.2	27.0	0.00e+00	0	30	0	974127104	38	5843
2026-01-26 01:53:37.35	140.63	19.21	-32.6	-33.2	26.9	0.00e+00	0	30	0	980418560	38	5855
2026-01-26 01:53:38.36	140.59	19.33	-32.7	-33.4	26.8	0.00e+00	0	30	0	985661440	38	5971
2026-01-26 01:53:39.36	140.54	19.46	-32.8	-33.5	26.9	0.00e+00	0	30	0	990904320	38	6077
2026-01-26 01:53:40.37	140.50	19.59	-32.8	-33.4	27.1	0.00e+00	0	30	0	997195776	38	5988
2026-01-26 01:53:41.39	140.46	19.72	-32.8	-33.4	27.0	0.00e+00	0	30	0	1002438656	38	5983
2026-01-26 01:53:42.40	140.42	19.85	-32.6	-33.2	26.8	0.00e+00	0	30	0	1008730112	38	5889
2026-01-26 01:53:43.41	140.38	19.98	-33.3	-33.9	26.8	0.00e+00	0	30	0	1013972992	38	6340
2026-01-26 01:53:44.42	140.34	20.11	-33.1	-33.7	26.8	0.00e+00	0	30	0	1019215872	38	6228
2026-01-26 01:53:45.43	140.29	20.24	-32.9	-33.5	26.6	0.00e+00	0	30	0	1025507328	38	6103
2026-01-26 01:53:46.44	140.25	20.37	-33.5	-34.1	26.6	0.00e+00	0	30	0	1030750208	38	6527
2026-01-26 01:53:47.45	140.21	20.51	-33.3	-33.9	26.5	0.00e+00	0	30	0	1037041664	38	6366
2026-01-26 01:53:48.46	140.16	20.64	-33.4	-34.1	26.6	0.00e+00	0	30	0	1042284544	38	6520
2026-01-26 01:53:49.47	140.12	20.77	-32.9	-33.5	26.9	0.00e+00	0	30	0	1047527424	38	6084
2026-01-26 01:53:50.48	140.07	20.91	-32.7	-33.3	27.0	0.00e+00	0	30	0	1053818880	38	5945
2026-01-26 01:53:51.49	140.03	21.05	-32.3	-32.9	27.1	0.00e+00	0	30	0	1059061760	38	5695
2026-01-26 01:53:52.50	139.98	21.18	-32.6	-33.2	26.9	0.00e+00	0	30	0	1065353216	38	5883
2026-01-26 01:53:53.51	139.93	21.32	-32.7	-33.3	26.9	0.00e+00	0	30	0	1070596096	38	5929
2026-01-26 01:53:54.52	139.89	21.46	-32.8	-33.5	27.0	0.00e+00	0	30	0	1076887552	38	6041
2026-01-26 01:53:55.53	139.84	21.60	-33.0	-33.7	26.8	0.00e+00	0	30	0	1082130432	38	6184
2026-01-26 01:53:56.54	139.79	21.74	-32.7	-33.3	26.8	0.00e+00	0	30	0	1088421888	38	5958
2026-01-26 01:53:57.55	139.75	21.88	-33.3	-33.9	26.6	0.00e+00	0	30	0	1093664768	38	6384
2026-01-26 01:53:58.56	139.70	22.02	-32.6	-33.2	27.0	0.00e+00	0	30	0	1098907648	38	5859
2026-01-26 01:53:59.57	139.65	22.16	-32.0	-32.7	27.4	0.00e+00	0	30	0	1105199104	38	5514
2026-01-26 01:54:00.58	139.60	22.30	-32.4	-33.1	27.4	0.00e+00	0	30	0	1110441984	38	5790
2026-01-26 01:54:01.59	139.55	22.45	-32.4	-33.0	27.4	0.00e+00	0	30	0	1116733440	38	5716
2026-01-26 01:54:02.60	139.50	22.59	-32.0	-32.7	27.5	0.00e+00	0	30	0	1121976320	38	5514
2026-01-26 01:54:03.61	139.45	22.74	-32.1	-32.8	27.4	0.00e+00	0	30	0	1127219200	38	5594
2026-01-26 01:54:04.62	139.40	22.88	-31.9	-32.5	27.6	0.00e+00	0	30	0	1133510656	38	5398
2026-01-26 01:54:05.63	139.34	23.03	-31.5	-32.1	27.7	0.00e+00	0	30	0	1138753536	36	5804
2026-01-26 01:54:06.64	139.29	23.17	-32.0	-32.7	27.4	0.00e+00	0	30	0	1145044992	36	6180
2026-01-26 01:54:07.65	139.24	23.32	-32.7	-33.4	27.0	0.00e+00	0	30	0	1150287872	36	6706
2026-01-26 01:54:08.66	139.19	23.47	-31.8	-32.4	27.6	0.00e+00	0	30	0	1155530752	38	5354
2026-01-26 01:54:09.67	139.13	23.62	-32.5	-33.1	27.1	0.00e+00	0	30	0	1161822208	36	6528
2026-01-26 01:54:10.68	139.08	23.77	-32.3	-32.9	27.4	0.00e+00	0	30	0	1167065088	36	6338
2026-01-26 01:54:11.70	139.02	23.93	-31.8	-32.4	27.4	0.00e+00	0	30	0	1173356544	36	5966
2026-01-26 01:54:12.71	138.97	24.08	-31.6	-32.2	27.6	0.00e+00	0	30	0	1178599424	36	5892
2026-01-26 01:54:13.71	138.91	24.23	-31.7	-32.3	27.6	0.00e+00	0	30	0	1184890880	36	5924
2026-01-26 01:54:14.73	138.85	24.39	-31.9	-32.5	27.7	0.00e+00	0	30	0	1190133760	36	6059
2026-01-26 01:54:15.74	138.79	24.54	-31.6	-32.2	27.8	0.00e+00	0	30	0	1196425216	36	5851
2026-01-26 01:54:16.75	138.74	24.70	-31.6	-32.2	27.7	0.00e+00	0	30	0	1201668096	36	5871
2026-01-26 01:54:17.76	138.68	24.85	-31.9	-32.5	27.8	0.00e+00	0	30	0	1206910976	36	6066
2026-01-26 01:54:18.77	138.62	25.01	-31.6	-32.2	27.8	0.00e+00	0	30	0	1213202432	36	5896
2026-01-26 01:54:19.78	138.56	25.17	-31.4	-32.0	27.9	0.00e+00	0	30	0	1218445312	36	5717
2026-01-26 01:54:20.79	138.50	25.33	-31.6	-32.3	27.6	0.00e+00	0	30	0	1224736768	36	5916
2026-01-26 01:54:21.79	138.44	25.49	-31.5	-32.1	27.6	0.00e+00	0	30	0	1229979648	36	5797
2026-01-26 01:54:22.80	138.38	25.65	-31.2	-31.8	27.9	0.00e+00	0	30	0	1235222528	36	5625
2026-01-26 01:54:23.81	138.31	25.81	-31.2	-31.8	27.9	0.00e+00	0	30	0	1241513984	36	5603
2026-01-26 01:54:24.82	138.25	25.98	-31.5	-32.2	27.7	0.00e+00	0	30	0	1246756864	36	5829
2026-01-26 01:54:25.83	138.19	26.14	-31.3	-31.9	27.7	0.00e+00	0	30	0	1253048320	36	5659
2026-01-26 01:54:26.84	138.12	26.30	-31.1	-31.7	28.0	0.00e+00	0	30	0	1258291200	36	5531
2026-01-26 01:54:27.85	138.06	26.47	-31.3	-31.9	27.9	0.00e+00	0	30	0	1263534080	36	5659
2026-01-26 01:54:28.86	137.99	26.64	-31.4	-32.0	27.9	0.00e+00	0	30	0	1269825536	36	5714
2026-01-26 01:54:29.87	137.92	26.81	-31.5	-32.1	27.9	0.00e+00	0	30	0	1275068416	36	5819
2026-01-26 01:54:30.88	137.85	26.98	-31.4	-32.0	27.8	0.00e+00	0	30	0	1281359872	36	5745
2026-01-26 01:54:31.89	137.79	27.15	-31.7	-32.3	27.8	0.00e+00	0	30	0	1286602752	36	5947
2026-01-26 01:54:32.90	137.72	27.32	-31.6	-32.2	27.8	0.00e+00	0	30	0	1292894208	36	5861
2026-01-26 01:54:33.91	137.65	27.49	-31.5	-32.1	27.8	0.00e+00	0	30	0	1298137088	36	5815
2026-01-26 01:54:34.92	137.58	27.66	-31.4	-32.0	27.8	0.00e+00	0	30	0	1303379968	36	5758
2026-01-26 01:54:35.93	137.51	27.84	-31.5	-32.1	28.0	0.00e+00	0	30	0	1309671424	36	5803
2026-01-26 01:54:36.94	137.43	28.01	-31.3	-32.0	28.0	0.00e+00	0	30	0	1314914304	36	5700
2026-01-26 01:54:37.95	137.36	28.19	-31.3	-31.9	28.0	0.00e+00	0	30	0	1321205760	36	5671
2026-01-26 01:54:38.96	137.29	28.37	-31.5	-32.1	28.1	0.00e+00	0	30	0	1326448640	36	5803
2026-01-26 01:54:39.97	137.21	28.55	-31.4	-32.0	28.1	0.00e+00	0	30	0	1331691520	36	5713
2026-01-26 01:54:40.98	137.14	28.72	-31.2	-31.8	28.2	0.00e+00	0	30	0	1337982976	36	5601
2026-01-26 01:54:42.00	137.06	28.91	-30.9	-31.6	28.2	0.00e+00	0	30	0	1343225856	36	5448
2026-01-26 01:54:43.01	136.98	29.09	-31.2	-31.8	28.2	0.00e+00	0	30	0	1349517312	36	5583
2026-01-26 01:54:44.01	136.90	29.27	-31.2	-31.8	28.2	0.00e+00	0	30	0	1354760192	36	5569
2026-01-26 01:54:45.02	136.82	29.45	-31.2	-31.8	28.3	0.00e+00	0	30	0	1361051648	36	5582
2026-01-26 01:54:46.03	136.74	29.64	-31.0	-31.6	28.2	0.00e+00	0	30	0	1366294528	36	5492
2026-01-26 01:54:47.04	136.66	29.83	-31.1	-31.7	28.1	0.00e+00	0	30	0	1371537408	36	5538
2026-01-26 01:54:48.06	136.58	30.02	-31.1	-31.7	28.2	0.00e+00	0	30	0	1377828864	36	5525
2026-01-26 01:54:49.07	136.50	30.20	-31.4	-32.0	28.0	0.00e+00	0	30	0	1383071744	36	5708
2026-01-26 01:54:50.08	136.41	30.39	-31.3	-31.9	27.9	0.00e+00	0	30	0	1389363200	36	5661
2026-01-26 01:54:51.09	136.33	30.59	-31.1	-31.7	28.2	0.00e+00	0	30	0	1394606080	36	5538
2026-01-26 01:54:52.10	136.24	30.78	-30.8	-31.4	28.5	0.00e+00	0	30	0	1400897536	34	5973
2026-01-26 01:54:53.11	136.15	30.97	-30.7	-31.3	28.5	0.00e+00	0	30	0	1406140416	34	5942
2026-01-26 01:54:54.12	136.06	31.17	-30.7	-31.4	28.5	0.00e+00	0	30	0	1411383296	34	5971
2026-01-26 01:54:55.13	135.98	31.36	-30.7	-31.4	28.2	0.00e+00	0	30	0	1417674752	34	5967
2026-01-26 01:54:56.14	135.88	31.56	-30.7	-31.4	28.4	0.00e+00	0	30	0	1422917632	34	5980
2026-01-26 01:54:57.15	135.79	31.76	-31.3	-31.8	28.1	0.00e+00	0	30	0	1429209088	34	6314
2026-01-26 01:54:58.16	135.70	31.96	-30.5	-31.1	28.3	0.00e+00	0	30	0	1434451968	34	5820
2026-01-26 01:54:59.17	135.61	32.16	-30.8	-31.4	28.3	0.00e+00	0	30	0	1439694848	34	5978
2026-01-26 01:55:00.18	135.51	32.36	-30.9	-31.5	28.3	0.00e+00	0	30	0	1445986304	34	6084
2026-01-26 01:55:01.19	135.41	32.57	-31.1	-31.7	28.4	0.00e+00	0	30	0	1451229184	34	6203
2026-01-26 01:55:02.20	135.31	32.77	-31.3	-31.8	28.2	0.00e+00	0	30	0	1457520640	34	6315
2026-01-26 01:55:03.21	135.22	32.98	-31.2	-31.8	28.2	0.00e+00	0	30	0	1462763520	36	5582
2026-01-26 01:55:04.22	135.12	33.18	-31.3	-32.0	28.2	0.00e+00	0	30	0	1468006400	36	5699
2026-01-26 01:55:05.23	135.01	33.39	-30.9	-31.5	28.5	0.00e+00	0	30	0	1474297856	36	5390
2026-01-26 01:55:06.24	134.91	33.60	-30.9	-31.4	28.4	0.00e+00	0	30	0	1479540736	34	6027
2026-01-26 01:55:07.25	134.81	33.81	-31.1	-31.7	28.4	0.00e+00	0	30	0	1485832192	34	6239
2026-01-26 01:55:08.26	134.70	34.03	-30.9	-31.5	28.3	0.00e+00	0	30	0	1491075072	34	6076
2026-01-26 01:55:09.27	134.59	34.24	-30.8	-31.4	28.3	0.00e+00	0	30	0	1497366528	34	6009
2026-01-26 01:55:10.28	134.48	34.46	-31.0	-31.7	28.2	0.00e+00	0	30	0	1502609408	34	6181
2026-01-26 01:55:11.29	134.37	34.67	-30.9	-31.5	28.5	0.00e+00	0	30	0	1508900864	34	6101
2026-01-26 01:55:12.30	134.26	34.89	-30.8	-31.4	28.5	0.00e+00	0	30	0	1514143744	34	5990
2026-01-26 01:55:13.31	134.15	35.11	-30.9	-31.5	28.5	0.00e+00	0	30	0	1519386624	34	6081
2026-01-26 01:55:14.32	134.03	35.33	-30.9	-31.5	28.5	0.00e+00	0	30	0	1525678080	34	6076
2026-01-26 01:55:15.33	133.91	35.55	-30.8	-31.4	28.6	0.00e+00	0	30	0	1530920960	34	5991
2026-01-26 01:55:16.34	133.80	35.78	-30.9	-31.5	28.5	0.00e+00	0	30	0	1537212416	34	6096
2026-01-26 01:55:17.35	133.68	36.00	-30.7	-31.3	28.6	0.00e+00	0	30	0	1542455296	34	5933
2026-01-26 01:55:18.36	133.55	36.23	-30.9	-31.5	28.6	0.00e+00	0	30	0	1547698176	34	6074
2026-01-26 01:55:19.37	133.43	36.46	-30.5	-31.0	28.7	0.00e+00	0	30	0	1553989632	34	5756
2026-01-26 01:55:20.38	133.31	36.69	-30.7	-31.3	28.5	0.00e+00	0	30	0	1559232512	34	5898
2026-01-26 01:55:21.39	133.18	36.92	-31.1	-31.7	28.4	0.00e+00	0	30	0	1565523968	34	6206
2026-01-26 01:55:22.40	133.05	37.15	-31.1	-31.7	28.2	0.00e+00	0	30	0	1570766848	34	6218
2026-01-26 01:55:23.42	132.92	37.39	-31.2	-31.8	28.4	0.00e+00	0	30	0	1576009728	34	6268
2026-01-26 01:55:24.42	132.79	37.62	-31.8	-32.4	28.1	0.00e+00	0	30	0	1582301184	34	6739
2026-01-26 01:55:25.44	132.65	37.86	-31.2	-31.8	28.4	0.00e+00	0	30	0	1587544064	36	5600
2026-01-26 01:55:26.45	132.51	38.10	-31.0	-31.6	28.5	0.00e+00	0	30	0	1593835520	36	5462
2026-01-26 01:55:27.46	132.37	38.34	-30.9	-31.5	28.3	0.00e+00	0	30	0	1599078400	36	5424
2026-01-26 01:55:28.47	132.23	38.58	-31.4	-32.0	28.0	0.00e+00	0	30	0	1605369856	36	5717
2026-01-26 01:55:29.48	132.09	38.82	-31.5	-32.2	27.9	0.00e+00	0	30	0	1610612736	36	5844
2026-01-26 01:55:30.49	131.94	39.07	-31.5	-32.1	28.0	0.00e+00	0	30	0	1616904192	36	5808
2026-01-26 01:55:31.50	131.80	39.32	-31.8	-32.4	27.8	0.00e+00	0	30	0	1622147072	36	5986
2026-01-26 01:55:32.51	131.65	39.56	-31.3	-31.9	28.2	0.00e+00	0	30	0	1627389952	36	5633
2026-01-26 01:55:33.52	131.49	39.81	-31.5	-32.1	28.0	0.00e+00	0	30	0	1633681408	36	5796
2026-01-26 01:55:34.53	131.34	40.06	-31.5	-32.1	27.6	0.00e+00	0	30	0	1638924288	36	5784
2026-01-26 01:55:35.54	131.18	40.32	-31.5	-32.1	27.8	0.00e+00	0	30	0	1645215744	36	5806
2026-01-26 01:55:36.55	131.02	40.57	-32.2	-32.8	27.7	0.00e+00	0	30	0	1650458624	36	6308
2026-01-26 01:55:37.56	130.86	40.82	-32.5	-33.1	27.4	0.00e+00	0	30	0	1655701504	36	6472
2026-01-26 01:55:38.57	130.69	41.08	-32.2	-32.9	27.2	0.00e+00	0	30	0	1661992960	38	5652
2026-01-26 01:55:39.58	130.53	41.34	-31.9	-32.5	27.6	0.00e+00	0	30	0	1667235840	38	5419
2026-01-26 01:55:40.59	130.36	41.60	-31.9	-32.5	27.5	0.00e+00	0	30	0	1673527296	36	6083
2026-01-26 01:55:41.60	130.18	41.86	-32.1	-32.7	27.5	0.00e+00	0	30	0	1678770176	36	6228
2026-01-26 01:55:42.61	130.01	42.13	-31.2	-31.8	28.0	0.00e+00	0	30	0	1684013056	36	5590
2026-01-26 01:55:43.62	129.83	42.39	-31.4	-32.0	27.7	0.00e+00	0	30	0	1690304512	36	5746
2026-01-26 01:55:44.63	129.65	42.66	-31.9	-32.5	27.6	0.00e+00	0	30	0	1695547392	36	6065
2026-01-26 01:55:45.64	129.46	42.92	-32.2	-32.8	27.5	0.00e+00	0	30	0	1701838848	36	6284
2026-01-26 01:55:46.65	129.27	43.19	-31.9	-32.5	27.6	0.00e+00	0	30	0	1707081728	36	6096
2026-01-26 01:55:47.66	129.08	43.46	-32.7	-33.3	26.9	0.00e+00	0	30	0	1713373184	36	6686
2026-01-26 01:55:48.67	128.89	43.74	-31.7	-32.3	27.6	0.00e+00	0	30	0	1718616064	36	5915
2026-01-26 01:55:49.68	128.69	44.01	-32.8	-33.4	27.4	0.00e+00	0	30	0	1724907520	36	6743
2026-01-26 01:55:50.69	128.48	44.29	-32.4	-33.0	27.1	0.00e+00	0	30	0	1730150400	38	5706
2026-01-26 01:55:51.70	128.28	44.56	-32.4	-33.1	27.5	0.00e+00	0	30	0	1735393280	38	5771
2026-01-26 01:55:52.71	128.07	44.84	-32.8	-33.4	27.2	0.00e+00	0	30	0	1741684736	38	6000
2026-01-26 01:55:53.72	127.86	45.12	-32.4	-33.0	27.6	0.00e+00	0	30	0	1746927616	38	5733
2026-01-26 01:55:54.73	127.64	45.40	-32.8	-33.4	27.6	0.00e+00	0	30	0	1753219072	38	5991
2026-01-26 01:55:55.74	127.42	45.69	-31.5	-32.2	27.9	0.00e+00	0	30	0	1758461952	36	5830
2026-01-26 01:55:56.75	127.19	45.97	-32.6	-33.2	27.3	0.00e+00	0	30	0	1763704832	36	6581
2026-01-26 01:55:57.76	126.97	46.26	-31.6	-32.2	27.8	0.00e+00	0	30	0	1769996288	36	5849
2026-01-26 01:55:58.77	126.73	46.55	-31.7	-32.3	27.8	0.00e+00	0	30	0	1775239168	36	5919
2026-01-26 01:55:59.78	126.50	46.84	-30.7	-31.4	28.2	0.00e+00	0	30	0	1781530624	36	5321
2026-01-26 01:56:00.79	126.25	47.13	-31.3	-31.9	28.1	0.00e+00	0	30	0	1786773504	34	6340
2026-01-26 01:56:01.80	126.01	47.42	-31.5	-32.1	27.7	0.00e+00	0	30	0	1792016384	34	6528
2026-01-26 01:56:02.81	125.75	47.71	-31.4	-32.0	27.8	0.00e+00	0	30	0	1798307840	34	6438
2026-01-26 01:56:03.82	125.50	48.01	-31.7	-32.3	27.7	0.00e+00	0	30	0	1803550720	36	5906
2026-01-26 01:56:04.83	125.24	48.30	-32.4	-33.1	27.1	0.00e+00	0	30	0	1809842176	36	6467
2026-01-26 01:56:05.84	124.97	48.60	-32.3	-32.9	27.5	0.00e+00	0	30	0	1815085056	36	6357
2026-01-26 01:56:06.85	124.70	48.90	-32.1	-32.7	27.3	0.00e+00	0	30	0	1821376512	36	6190
2026-01-26 01:56:07.86	124.42	49.20	-32.4	-33.1	27.4	0.00e+00	0	30	0	1826619392	38	5775
2026-01-26 01:56:08.87	124.14	49.50	-32.6	-33.2	27.4	0.00e+00	0	30	0	1831862272	38	5878
2026-01-26 01:56:09.88	123.85	49.80	-32.8	-33.4	27.2	0.00e+00	0	30	0	1838153728	38	5979
2026-01-26 01:56:10.89	123.56	50.11	-32.3	-33.0	27.2	0.00e+00	0	30	0	1843396608	38	5708
2026-01-26 01:56:11.90	123.26	50.41	-32.6	-33.2	27.1	0.00e+00	0	30	0	1849688064	38	5856
2026-01-26 01:56:12.91	122.95	50.72	-32.6	-33.2	27.1	0.00e+00	0	30	0	1854930944	38	5873
2026-01-26 01:56:13.92	122.64	51.03	-32.9	-33.5	26.7	0.00e+00	0	30	0	1860173824	38	6071
2026-01-26 01:56:14.93	122.32	51.34	-32.4	-33.1	27.0	0.00e+00	0	30	0	1866465280	38	5763
2026-01-26 01:56:15.94	121.99	51.65	-32.1	-32.8	27.4	0.00e+00	0	30	0	1871708160	38	5579
2026-01-26 01:56:16.95	121.66	51.96	-31.4	-32.1	27.6	0.00e+00	0	30	0	1877999616	36	5782
2026-01-26 01:56:17.96	121.32	52.27	-31.4	-32.0	27.6	0.00e+00	0	30	0	1883242496	36	5711
2026-01-26 01:56:18.97	120.97	52.58	-31.9	-32.5	27.5	0.00e+00	0	30	0	1888485376	36	6083
2026-01-26 01:56:19.98	120.62	52.89	-32.2	-32.7	27.3	0.00e+00	0	30	0	1894776832	36	6238
2026-01-26 01:56:20.99	120.25	53.21	-32.0	-32.5	27.6	0.00e+00	0	30	0	1900019712	36	6100
2026-01-26 01:56:22.00	119.88	53.52	-31.8	-32.4	27.7	0.00e+00	0	30	0	1906311168	36	5965
2026-01-26 01:56:23.01	119.50	53.84	-31.9	-32.5	27.5	0.00e+00	0	30	0	1911554048	36	6098
2026-01-26 01:56:24.02	119.12	54.16	-31.9	-32.5	27.7	0.00e+00	0	30	0	1917845504	36	6096
2026-01-26 01:56:25.03	118.72	54.47	-31.3	-31.9	28.0	0.00e+00	0	30	0	1923088384	36	5649
2026-01-26 01:56:26.04	118.32	54.79	-31.5	-32.2	27.8	0.00e+00	0	30	0	1929379840	36	5852
2026-01-26 01:56:27.05	117.90	55.11	-31.9	-32.5	27.5	0.00e+00	0	30	0	1934622720	36	6080
2026-01-26 01:56:28.06	117.48	55.43	-32.1	-32.7	27.6	0.00e+00	0	30	0	1939865600	36	6212
2026-01-26 01:56:29.07	117.04	55.74	-31.9	-32.4	27.5	0.00e+00	0	30	0	1946157056	36	6029
2026-01-26 01:56:30.08	116.60	56.06	-31.6	-32.2	27.7	0.00e+00	0	30	0	1951399936	36	5857
2026-01-26 01:56:31.09	116.15	56.38	-31.6	-32.2	27.4	0.00e+00	0	30	0	1957691392	36	5875
2026-01-26 01:56:32.10	115.68	56.70	-31.7	-32.3	27.4	0.00e+00	0	30	0	1962934272	36	5956
2026-01-26 01:56:33.11	115.21	57.02	-31.7	-32.3	27.5	0.00e+00	0	30	0	1968177152	36	5941
2026-01-26 01:56:34.12	114.72	57.34	-31.8	-32.4	27.4	0.00e+00	0	30	0	1974468608	36	5985
2026-01-26 01:56:35.13	114.22	57.66	-31.5	-32.1	27.8	0.00e+00	0	30	0	1979711488	36	5772
2026-01-26 01:56:36.14	113.71	57.98	-31.6	-32.2	27.6	0.00e+00	0	30	0	1986002944	36	5856
2026-01-26 01:56:37.15	113.19	58.29	-31.6	-32.3	27.5	0.00e+00	0	30	0	1991245824	36	5902
2026-01-26 01:56:38.16	112.66	58.61	-31.6	-32.3	27.7	0.00e+00	0	30	0	1996488704	36	5908
2026-01-26 01:56:39.16	112.11	58.92	-31.7	-32.3	27.5	0.00e+00	0	30	0	2002780160	36	5926
2026-01-26 01:56:40.17	111.55	59.24	-31.2	-31.8	27.8	0.00e+00	0	30	0	2008023040	36	5599
2026-01-26 01:56:41.18	110.98	59.55	-32.0	-32.6	27.5	0.00e+00	0	30	0	2014314496	36	6165
2026-01-26 01:56:42.20	110.38	59.87	-31.8	-32.4	27.5	0.00e+00	0	30	0	2019557376	36	6033
2026-01-26 01:56:43.21	109.78	60.18	-31.9	-32.5	27.5	0.00e+00	0	30	0	2025848832	36	6056
2026-01-26 01:56:44.21	109.17	60.49	-31.6	-32.2	28.0	0.00e+00	0	30	0	2031091712	36	5862
2026-01-26 01:56:45.22	108.53	60.80	-31.3	-31.9	28.1	0.00e+00	0	30	0	2036334592	36	5680
2026-01-26 01:56:46.23	107.88	61.11	-31.2	-31.8	28.1	0.00e+00	0	30	0	2042626048	36	5592
2026-01-26 01:56:47.24	107.22	61.41	-31.0	-31.6	28.2	0.00e+00	0	30	0	2047868928	36	5474
2026-01-26 01:56:48.25	106.53	61.71	-31.3	-32.0	28.0	0.00e+00	0	30	0	2054160384	36	5708
2026-01-26 01:56:49.26	105.84	62.01	-31.1	-31.7	28.2	0.00e+00	0	30	0	2059403264	36	5529
2026-01-26 01:56:50.27	105.12	62.31	-30.9	-31.5	28.4	0.00e+00	0	30	0	2064646144	34	6091
2026-01-26 01:56:51.28	104.38	62.61	-30.8	-31.4	28.4	0.00e+00	0	30	0	2070937600	34	5983
2026-01-26 01:56:52.29	103.63	62.90	-31.1	-31.7	28.1	0.00e+00	0	30	0	2076180480	34	6196
2026-01-26 01:56:53.30	102.86	63.19	-30.5	-31.1	28.5	0.00e+00	0	30	0	2082471936	34	5824
2026-01-26 01:56:54.31	102.07	63.48	-29.9	-30.5	28.9	0.00e+00	0	30	0	2087714816	34	5411
2026-01-26 01:56:55.32	101.26	63.76	-29.8	-30.4	28.8	0.00e+00	0	30	0	2092957696	32	5996
2026-01-26 01:56:56.33	100.43	64.04	-30.0	-30.7	28.6	0.00e+00	0	30	0	2099249152	32	6175
2026-01-26 01:56:57.34	99.58	64.32	-30.1	-30.7	28.7	0.00e+00	0	30	0	2104492032	32	6219
2026-01-26 01:56:58.35	98.71	64.59	-30.1	-30.7	28.7	0.00e+00	0	30	0	2110783488	32	6196
2026-01-26 01:56:59.36	97.82	64.86	-29.9	-30.4	28.9	0.00e+00	0	30	0	2116026368	32	6033
2026-01-26 01:57:00.36	96.92	65.12	-29.8	-30.4	29.0	0.00e+00	0	30	0	2122317824	32	5966
2026-01-26 01:57:01.37	95.98	65.37	-29.6	-30.2	29.0	0.00e+00	0	30	0	2127560704	32	5856
2026-01-26 01:57:02.38	95.03	65.63	-29.7	-30.3	29.0	0.00e+00	0	30	0	2133852160	32	5908
2026-01-26 01:57:03.39	94.05	65.87	-30.3	-30.9	28.8	0.00e+00	0	30	0	2139095040	32	6372
2026-01-26 01:57:04.40	93.05	66.11	-30.8	-31.4	28.4	0.00e+00	0	30	0	2144337920	34	6005
2026-01-26 01:57:05.41	92.03	66.35	-30.2	-30.8	28.7	0.00e+00	0	30	0	2150629376	34	5605
2026-01-26 01:57:06.42	90.98	66.58	-30.3	-30.9	29.1	0.00e+00	0	30	0	2155872256	34	5644
2026-01-26 01:57:07.43	89.92	66.80	-29.8	-30.4	29.1	0.00e+00	0	30	0	2162163712	34	5324
2026-01-26 01:57:08.44	88.83	67.01	-29.6	-30.2	29.1	0.00e+00	0	30	0	2167406592	32	5843
2026-01-26 01:57:09.45	87.72	67.22	-29.7	-30.3	29.1	0.00e+00	0	30	0	2172649472	32	5932
2026-01-26 01:57:10.46	86.59	67.42	-30.0	-30.5	29.1	0.00e+00	0	30	0	2178940928	32	6098
2026-01-26 01:57:11.47	85.43	67.61	-29.8	-30.4	29.1	0.00e+00	0	30	0	2184183808	32	5988
2026-01-26 01:57:12.48	84.26	67.80	-29.8	-30.4	29.2	0.00e+00	0	30	0	2190475264	32	5975
2026-01-26 01:57:13.49	83.06	67.97	-29.9	-30.5	29.1	0.00e+00	0	30	0	2195718144	32	6067
2026-01-26 01:57:14.50	81.84	68.14	-30.4	-31.0	29.1	0.00e+00	0	30	0	2200961024	32	6427
2026-01-26 01:57:15.51	80.61	68.30	-30.1	-30.8	28.8	0.00e+00	0	30	0	2207252480	32	6256
2026-01-26 01:57:16.52	79.35	68.45	-30.3	-30.9	29.0	0.00e+00	0	30	0	2212495360	32	6325
2026-01-26 01:57:17.53	78.08	68.58	-30.0	-30.6	29.0	0.00e+00	0	30	0	2218786816	32	6153
2026-01-26 01:57:18.54	76.78	68.71	-29.9	-30.4	29.0	0.00e+00	0	30	0	2224029696	32	6014
2026-01-26 01:57:19.55	75.48	68.83	-30.2	-30.8	29.1	0.00e+00	0	30	0	2230321152	32	6300
2026-01-26 01:57:20.56	74.15	68.94	-29.9	-30.5	29.0	0.00e+00	0	30	0	2235564032	32	6047
2026-01-26 01:57:21.57	72.82	69.04	-29.9	-30.5	29.3	0.00e+00	0	30	0	2240806912	32	6035
2026-01-26 01:57:22.58	71.47	69.13	-29.7	-30.4	28.9	0.00e+00	0	30	0	2247098368	32	5989
2026-01-26 01:57:23.59	70.10	69.21	-29.8	-30.4	29.0	0.00e+00	0	30	0	2252341248	32	5985
2026-01-26 01:57:24.60	68.73	69.27	-29.7	-30.4	29.0	0.00e+00	0	30	0	2258632704	32	5990
2026-01-26 01:57:25.61	67.35	69.33	-30.2	-30.8	29.0	0.00e+00	0	30	0	2263875584	32	6253
2026-01-26 01:57:26.62	65.96	69.37	-30.0	-30.6	29.0	0.00e+00	0	30	0	2269118464	32	6119
2026-01-26 01:57:27.63	64.57	69.40	-30.1	-30.7	28.9	0.00e+00	0	30	0	2275409920	32	6194
2026-01-26 01:57:28.64	63.17	69.42	-29.8	-30.4	29.0	0.00e+00	0	30	0	2280652800	32	6004
2026-01-26 01:57:29.65	61.77	69.43	-30.0	-30.5	29.1	0.00e+00	0	30	0	2286944256	32	6082
2026-01-26 01:57:30.66	60.37	69.43	-30.0	-30.6	28.9	0.00e+00	0	30	0	2292187136	32	6110
2026-01-26 01:57:31.68	58.96	69.42	-29.9	-30.5	28.9	0.00e+00	0	30	0	2298478592	32	6076
2026-01-26 01:57:32.68	57.58	69.39	-29.8	-30.4	29.1	0.00e+00	0	30	0	2303721472	32	6012
2026-01-26 01:57:33.69	56.19	69.36	-30.2	-30.7	29.1	0.00e+00	0	30	0	2308964352	32	6211
2026-01-26 01:57:34.70	54.80	69.31	-30.1	-30.7	28.8	0.00e+00	0	30	0	2315255808	32	6207
2026-01-26 01:57:35.71	53.43	69.25	-29.7	-30.3	28.8	0.00e+00	0	30	0	2320498688	32	5945
2026-01-26 01:57:36.72	52.06	69.18	-29.6	-30.2	29.0	0.00e+00	0	30	0	2326790144	32	5876
2026-01-26 01:57:37.73	50.70	69.10	-29.9	-30.5	28.7	0.00e+00	0	30	0	2332033024	32	6076
2026-01-26 01:57:38.74	49.35	69.01	-30.1	-30.7	28.8	0.00e+00	0	30	0	2337275904	32	6174
2026-01-26 01:57:39.75	48.02	68.91	-29.8	-30.4	29.1	0.00e+00	0	30	0	2343567360	32	5992
2026-01-26 01:57:40.77	46.69	68.79	-29.7	-30.3	29.1	0.00e+00	0	30	0	2348810240	32	5958
2026-01-26 01:57:41.78	45.39	68.67	-30.0	-30.6	29.1	0.00e+00	0	30	0	2355101696	32	6136
2026-01-26 01:57:42.79	44.10	68.54	-30.1	-30.8	28.9	0.00e+00	0	30	0	2360344576	32	6246
2026-01-26 01:57:43.80	42.84	68.40	-30.4	-31.1	28.9	0.00e+00	0	30	0	2366636032	32	6467
2026-01-26 01:57:44.81	41.59	68.24	-29.9	-30.4	29.0	0.00e+00	0	30	0	2371878912	32	6026
2026-01-26 01:57:45.82	40.36	68.08	-29.7	-30.3	28.9	0.00e+00	0	30	0	2377121792	32	5919
2026-01-26 01:57:46.83	39.15	67.91	-29.6	-30.2	29.1	0.00e+00	0	30	0	2383413248	32	5840
2026-01-26 01:57:47.83	37.97	67.74	-29.6	-30.2	29.1	0.00e+00	0	30	0	2388656128	32	5848
2026-01-26 01:57:48.84	36.81	67.55	-29.9	-30.5	28.9	0.00e+00	0	30	0	2394947584	32	6037
2026-01-26 01:57:49.85	35.66	67.36	-30.6	-31.2	28.8	0.00e+00	0	30	0	2400190464	32	6547
2026-01-26 01:57:50.86	34.54	67.15	-30.4	-31.1	28.8	0.00e+00	0	30	0	2405433344	32	6472
2026-01-26 01:57:51.87	33.43	66.94	-29.9	-30.5	28.7	0.00e+00	0	30	0	2411724800	32	6060
2026-01-26 01:57:52.88	32.35	66.73	-30.6	-31.2	28.7	0.00e+00	0	30	0	2416967680	34	5862
2026-01-26 01:57:53.89	31.29	66.50	-30.6	-31.3	28.3	0.00e+00	0	30	0	2423259136	34	5909
2026-01-26 01:57:54.90	30.26	66.27	-30.3	-31.0	28.7	0.00e+00	0	30	0	2428502016	34	5711
2026-01-26 01:57:55.91	29.25	66.04	-32.3	-33.0	27.4	0.00e+00	0	30	0	2433744896	34	7208
2026-01-26 01:57:56.92	28.25	65.79	-30.6	-31.1	28.8	0.00e+00	0	30	0	2440036352	34	5791
2026-01-26 01:57:57.93	27.29	65.55	-30.0	-30.5	29.2	0.00e+00	0	30	0	2445279232	34	5433
2026-01-26 01:57:58.94	26.34	65.29	-29.9	-30.4	29.1	0.00e+00	0	30	0	2451570688	32	5995
2026-01-26 01:57:59.95	25.41	65.03	-30.9	-31.5	28.6	0.00e+00	0	30	0	2456813568	32	6821
2026-01-26 01:58:00.96	24.51	64.77	-30.6	-31.3	28.6	0.00e+00	0	30	0	2463105024	34	5897
2026-01-26 01:58:01.97	23.63	64.50	-30.6	-31.2	28.5	0.00e+00	0	30	0	2468347904	34	5845
2026-01-26 01:58:02.98	22.76	64.23	-30.9	-31.5	28.6	0.00e+00	0	30	0	2474639360	34	6058
2026-01-26 01:58:03.99	21.92	63.95	-30.7	-31.3	28.8	0.00e+00	0	30	0	2479882240	34	5916
2026-01-26 01:58:05.00	21.10	63.67	-31.5	-32.0	28.0	0.00e+00	0	30	0	2485125120	34	6443
2026-01-26 01:58:06.01	20.30	63.39	-31.5	-32.2	28.1	0.00e+00	0	30	0	2491416576	34	6562
2026-01-26 01:58:07.02	19.51	63.10	-31.1	-31.8	28.1	0.00e+00	0	30	0	2496659456	34	6290
2026-01-26 01:58:08.04	18.74	62.81	-31.3	-32.0	27.9	0.00e+00	0	30	0	2502950912	34	6447
2026-01-26 01:58:09.04	18.00	62.52	-30.9	-31.5	28.3	0.00e+00	0	30	0	2508193792	34	6063
2026-01-26 01:58:10.05	17.28	62.22	-30.5	-31.0	28.5	0.00e+00	0	30	0	2513436672	34	5744
2026-01-26 01:58:11.06	16.57	61.92	-30.4	-31.1	28.5	0.00e+00	0	30	0	2519728128	34	5776
2026-01-26 01:58:12.07	15.87	61.62	-30.4	-31.0	28.6	0.00e+00	0	30	0	2524971008	34	5727
2026-01-26 01:58:13.09	15.19	61.31	-30.4	-31.0	28.5	0.00e+00	0	30	0	2531262464	34	5753
2026-01-26 01:58:14.09	14.54	61.01	-30.6	-31.2	28.4	0.00e+00	0	30	0	2536505344	34	5834
2026-01-26 01:58:15.10	13.90	60.70	-31.3	-31.8	28.0	0.00e+00	0	30	0	2541748224	34	6314
2026-01-26 01:58:16.11	13.27	60.40	-30.7	-31.3	28.4	0.00e+00	0	30	0	2548039680	34	5956
2026-01-26 01:58:17.12	12.66	60.08	-30.6	-31.1	28.4	0.00e+00	0	30	0	2553282560	34	5799
2026-01-26 01:58:18.13	12.06	59.77	-31.9	-32.5	28.0	0.00e+00	0	30	0	2559574016	36	6097
2026-01-26 01:58:19.14	11.47	59.46	-32.5	-33.1	27.6	0.00e+00	0	30	0	2564816896	36	6497
2026-01-26 01:58:20.15	10.91	59.15	-31.8	-32.3	27.9	0.00e+00	0	30	0	2571108352	36	5956
2026-01-26 01:58:21.16	10.35	58.83	-31.5	-32.0	28.3	0.00e+00	0	30	0	2576351232	36	5741
2026-01-26 01:58:22.17	9.81	58.52	-31.9	-32.6	27.6	0.00e+00	0	30	0	2581594112	36	6166
2026-01-26 01:58:23.18	9.28	58.20	-31.5	-32.1	28.2	0.00e+00	0	30	0	2587885568	36	5790
2026-01-26 01:58:24.19	8.76	57.88	-31.3	-31.9	28.1	0.00e+00	0	30	0	2593128448	36	5686
2026-01-26 01:58:25.20	8.25	57.56	-31.6	-32.2	28.0	0.00e+00	0	30	0	2599419904	36	5873
2026-01-26 01:58:26.21	7.76	57.25	-32.0	-32.6	27.9	0.00e+00	0	30	0	2604662784	36	6122
2026-01-26 01:58:27.22	7.28	56.93	-31.4	-32.1	28.1	0.00e+00	0	30	0	2609905664	36	5769
2026-01-26 01:58:28.23	6.81	56.61	-31.5	-32.2	27.9	0.00e+00	0	30	0	2616197120	36	5876
2026-01-26 01:58:29.24	6.35	56.29	-32.2	-32.9	27.5	0.00e+00	0	30	0	2621440000	36	6335
2026-01-26 01:58:30.25	5.90	55.97	-32.8	-33.5	27.1	0.00e+00	0	30	0	2627731456	38	6091
2026-01-26 01:58:31.26	5.46	55.66	-32.0	-32.7	27.6	0.00e+00	0	30	0	2632974336	38	5519
2026-01-26 01:58:32.27	5.03	55.34	-32.5	-33.1	27.7	0.00e+00	0	30	0	2638217216	38	5790
2026-01-26 01:58:33.28	4.61	55.02	-31.8	-32.5	27.8	0.00e+00	0	30	0	2644508672	38	5411
2026-01-26 01:58:34.29	4.20	54.70	-31.6	-32.3	27.9	0.00e+00	0	30	0	2649751552	36	5926
2026-01-26 01:58:35.30	3.80	54.39	-32.0	-32.5	27.9	0.00e+00	0	30	0	2656043008	36	6073
2026-01-26 01:58:36.31	3.41	54.07	-31.8	-32.3	28.0	0.00e+00	0	30	0	2661285888	36	5939
2026-01-26 01:58:37.32	3.02	53.76	-31.7	-32.3	27.9	0.00e+00	0	30	0	2667577344	36	5920
2026-01-26 01:58:38.33	2.65	53.44	-31.9	-32.4	27.9	0.00e+00	0	30	0	2672820224	36	6000
2026-01-26 01:58:39.34	2.28	53.13	-31.9	-32.4	27.8	0.00e+00	0	30	0	2679111680	36	6003
2026-01-26 01:58:40.35	1.92	52.82	-32.2	-32.7	27.6	0.00e+00	0	30	0	2684354560	36	6240
2026-01-26 01:58:41.36	1.57	52.50	-31.9	-32.5	27.6	0.00e+00	0	30	0	2689597440	36	6054
2026-01-26 01:58:42.37	1.22	52.19	-32.1	-32.6	27.7	0.00e+00	0	30	0	2695888896	36	6154
2026-01-26 01:58:43.38	0.89	51.88	-31.8	-32.3	27.8	0.00e+00	0	30	0	2701131776	36	5930
2026-01-26 01:58:44.39	0.56	51.57	-32.0	-32.5	27.4	0.00e+00	0	30	0	2707423232	36	6073
2026-01-26 01:58:45.40	0.23	51.26	-32.1	-32.8	27.4	0.00e+00	0	30	0	2712666112	36	6270
2026-01-26 01:58:46.41	359.92	50.96	-31.8	-32.5	27.7	0.00e+00	0	30	0	2717908992	36	6046
2026-01-26 01:58:47.42	359.61	50.65	-32.1	-32.6	27.7	0.00e+00	0	30	0	2724200448	36	6140
2026-01-26 01:58:48.43	359.30	50.34	-31.7	-32.4	27.8	0.00e+00	0	30	0	2729443328	36	5981
2026-01-26 01:58:49.44	359.01	50.04	-31.4	-31.9	27.7	0.00e+00	0	30	0	2735734784	36	5664
2026-01-26 01:58:50.45	358.71	49.74	-31.3	-32.0	27.9	0.00e+00	0	30	0	2740977664	36	5696
2026-01-26 01:58:51.46	358.43	49.44	-31.1	-31.7	28.2	0.00e+00	0	30	0	2746220544	36	5534
2026-01-26 01:58:52.47	358.15	49.14	-30.8	-31.5	28.2	0.00e+00	0	30	0	2752512000	36	5415
2026-01-26 01:58:53.48	357.87	48.84	-30.5	-31.2	28.4	0.00e+00	0	30	0	2757754880	34	5856
2026-01-26 01:58:54.49	357.60	48.54	-30.9	-31.6	28.0	0.00e+00	0	30	0	2764046336	34	6123
2026-01-26 01:58:55.50	357.34	48.24	-30.6	-31.1	28.4	0.00e+00	0	30	0	2769289216	34	5787
2026-01-26 01:58:56.51	357.08	47.95	-30.6	-31.2	28.4	0.00e+00	0	30	0	2775580672	34	5873
2026-01-26 01:58:57.52	356.83	47.65	-30.4	-30.9	28.5	0.00e+00	0	30	0	2780823552	34	5658
2026-01-26 01:58:58.53	356.58	47.36	-30.6	-31.1	28.4	0.00e+00	0	30	0	2787115008	34	5814
2026-01-26 01:58:59.54	356.33	47.07	-30.9	-31.5	28.3	0.00e+00	0	30	0	2792357888	34	6049
2026-01-26 01:59:00.55	356.09	46.78	-30.8	-31.4	28.3	0.00e+00	0	30	0	2797600768	34	6026
2026-01-26 01:59:01.56	355.86	46.49	-30.5	-31.1	28.4	0.00e+00	0	30	0	2803892224	34	5780
2026-01-26 01:59:02.58	355.62	46.21	-30.3	-31.0	28.6	0.00e+00	0	30	0	2809135104	34	5710
2026-01-26 01:59:03.59	355.39	45.92	-30.1	-30.7	28.7	0.00e+00	0	30	0	2815426560	34	5520
2026-01-26 01:59:04.60	355.17	45.64	-30.3	-30.8	28.5	0.00e+00	0	30	0	2820669440	34	5618
2026-01-26 01:59:05.60	354.96	45.36	-30.5	-31.0	28.5	0.00e+00	0	30	0	2825912320	34	5713
2026-01-26 01:59:06.61	354.74	45.08	-30.6	-31.1	28.4	0.00e+00	0	30	0	2832203776	34	5790
2026-01-26 01:59:07.62	354.53	44.80	-30.6	-31.2	28.3	0.00e+00	0	31	0	2837446656	34	5883
2026-01-26 01:59:08.63	354.32	44.52	-30.4	-31.1	28.2	0.00e+00	0	30	0	2843738112	34	5814
2026-01-26 01:59:09.64	354.12	44.25	-30.4	-31.0	28.3	0.00e+00	0	30	0	2848980992	34	5756
2026-01-26 01:59:10.66	353.92	43.97	-30.2	-30.9	28.6	0.00e+00	0	30	0	2854223872	34	5632
2026-01-26 01:59:11.67	353.72	43.70	-30.2	-30.7	28.8	0.00e+00	0	30	0	2860515328	34	5536
2026-01-26 01:59:12.67	353.53	43.43	-30.0	-30.5	28.7	0.00e+00	0	30	0	2865758208	34	5397
2026-01-26 01:59:13.68	353.34	43.16	-30.0	-30.5	28.8	0.00e+00	0	30	0	2872049664	34	5428
2026-01-26 01:59:14.69	353.15	42.89	-30.2	-30.7	28.6	0.00e+00	0	30	0	2877292544	34	5519
2026-01-26 01:59:15.70	352.97	42.62	-30.2	-30.7	28.6	0.00e+00	0	30	0	2883584000	34	5537
2026-01-26 01:59:16.71	352.79	42.36	-30.3	-30.9	28.5	0.00e+00	0	30	0	2888826880	34	5646
2026-01-26 01:59:17.72	352.61	42.09	-30.4	-30.9	28.4	0.00e+00	0	30	0	2894069760	34	5687
2026-01-26 01:59:18.73	352.43	41.83	-30.3	-30.9	28.5	0.00e+00	0	30	0	2900361216	34	5653
2026-01-26 01:59:19.74	352.26	41.57	-30.1	-30.6	28.6	0.00e+00	0	30	0	2905604096	34	5501
2026-01-26 01:59:20.75	352.09	41.31	-30.0	-30.7	28.6	0.00e+00	0	30	0	2911895552	34	5529
2026-01-26 01:59:21.76	351.93	41.06	-29.8	-30.3	28.7	0.00e+00	0	30	0	2917138432	34	5288
2026-01-26 01:59:22.77	351.76	40.80	-29.7	-30.2	28.9	0.00e+00	0	30	0	2922381312	32	5867
2026-01-26 01:59:23.78	351.60	40.55	-29.6	-30.1	29.0	0.00e+00	0	30	0	2928672768	32	5764
2026-01-26 01:59:24.79	351.44	40.29	-30.4	-30.9	28.8	0.00e+00	0	30	0	2933915648	32	6334
2026-01-26 01:59:25.80	351.29	40.04	-30.2	-30.7	28.7	0.00e+00	0	30	0	2940207104	32	6245
2026-01-26 01:59:26.80	351.13	39.80	-30.0	-30.5	28.8	0.00e+00	0	30	0	2945449984	32	6061
2026-01-26 01:59:27.81	350.98	39.55	-30.3	-30.8	28.8	0.00e+00	0	30	0	2950692864	32	6264
2026-01-26 01:59:28.83	350.83	39.30	-29.8	-30.5	28.9	0.00e+00	0	30	0	2956984320	32	6044
2026-01-26 01:59:29.84	350.69	39.05	-29.9	-30.5	28.8	0.00e+00	0	30	0	2962227200	32	6095
2026-01-26 01:59:30.85	350.54	38.81	-29.7	-30.2	28.9	0.00e+00	0	30	0	2968518656	32	5878
2026-01-26 01:59:31.86	350.40	38.57	-29.8	-30.3	29.0	0.00e+00	0	30	0	2973761536	32	5930
2026-01-26 01:59:32.87	350.26	38.33	-29.7	-30.3	29.0	0.00e+00	0	30	0	2980052992	32	5943
2026-01-26 01:59:33.88	350.12	38.09	-29.6	-30.1	29.1	0.00e+00	0	30	0	2985295872	32	5774
2026-01-26 01:59:34.89	349.99	37.85	-29.9	-30.4	28.6	0.00e+00	0	30	0	2991587328	32	5980
2026-01-26 01:59:35.90	349.85	37.62	-29.8	-30.5	29.0	0.00e+00	0	30	0	2996830208	32	6057
2026-01-26 01:59:36.91	349.72	37.38	-29.8	-30.5	29.0	0.00e+00	0	30	0	3002073088	32	6050
2026-01-26 01:59:37.92	349.59	37.15	-29.7	-30.3	28.9	0.00e+00	0	30	0	3008364544	32	5904
2026-01-26 01:59:38.93	349.46	36.92	-29.9	-30.4	28.7	0.00e+00	0	30	0	3013607424	32	6011
2026-01-26 01:59:39.94	349.34	36.69	-30.1	-30.6	28.5	0.00e+00	0	30	0	3019898880	32	6118
2026-01-26 01:59:40.95	349.21	36.46	-30.1	-30.7	28.6	0.00e+00	0	30	0	3025141760	32	6184
2026-01-26 01:59:41.96	349.09	36.23	-30.2	-30.8	28.5	0.00e+00	0	30	0	3030384640	32	6300
2026-01-26 01:59:42.97	348.97	36.01	-29.8	-30.5	28.8	0.00e+00	0	30	0	3036676096	32	6067
2026-01-26 01:59:43.98	348.85	35.78	-30.0	-30.6	28.7	0.00e+00	0	30	0	3041918976	32	6166
2026-01-26 01:59:44.98	348.73	35.56	-30.2	-30.7	28.7	0.00e+00	0	30	0	3048210432	32	6225
2026-01-26 01:59:46.00	348.62	35.34	-30.8	-31.5	28.2	0.00e+00	0	30	0	3053453312	32	6790
2026-01-26 01:59:47.01	348.50	35.12	-30.5	-31.0	28.3	0.00e+00	0	30	0	3058696192	34	5753
2026-01-26 01:59:48.02	348.39	34.90	-30.8	-31.5	28.0	0.00e+00	0	30	0	3064987648	34	6097
2026-01-26 01:59:49.03	348.28	34.68	-30.5	-31.1	28.4	0.00e+00	0	30	0	3070230528	34	5820
2026-01-26 01:59:50.04	348.17	34.47	-30.6	-31.3	28.1	0.00e+00	0	30	0	3076521984	34	5929
2026-01-26 01:59:51.05	348.06	34.25	-30.4	-31.0	28.4	0.00e+00	0	30	0	3081764864	34	5725
2026-01-26 01:59:52.06	347.95	34.04	-30.2	-30.8	28.4	0.00e+00	0	30	0	3088056320	34	5573
2026-01-26 01:59:53.07	347.85	33.83	-30.2	-30.7	28.5	0.00e+00	0	30	0	3093299200	34	5559
2026-01-26 01:59:54.08	347.74	33.62	-30.4	-31.1	28.3	0.00e+00	0	30	0	3099590656	34	5800
2026-01-26 01:59:55.09	347.64	33.41	-30.5	-31.1	28.4	0.00e+00	0	30	0	3104833536	34	5824
2026-01-26 01:59:56.10	347.54	33.20	-30.4	-31.0	28.2	0.00e+00	0	30	0	3110076416	34	5752
2026-01-26 01:59:57.11	347.44	32.99	-30.7	-31.2	28.1	0.00e+00	0	30	0	3116367872	34	5878
2026-01-26 01:59:58.12	347.34	32.79	-30.1	-30.6	28.5	0.00e+00	0	30	0	3121610752	34	5491
2026-01-26 01:59:59.13	347.25	32.58	-30.0	-30.6	28.5	0.00e+00	0	30	0	3127902208	34	5445
2026-01-26 02:00:00.14	347.15	32.38	-30.1	-30.6	28.5	0.00e+00	0	30	0	3133145088	34	5488
2026-01-26 02:00:01.15	347.05	32.18	-30.2	-30.7	28.4	0.00e+00	0	30	0	3138387968	34	5537
2026-01-26 02:00:02.16	346.96	31.98	-30.4	-30.9	28.4	0.00e+00	0	30	0	3144679424	34	5695
2026-01-26 02:00:03.17	346.87	31.78	-30.4	-30.9	28.4	0.00e+00	0	30	0	3149922304	34	5668
2026-01-26 02:00:04.18	346.78	31.58	-30.5	-31.0	28.4	0.00e+00	0	30	0	3156213760	34	5756
2026-01-26 02:00:05.19	346.69	31.39	-30.4	-30.9	28.3	0.00e+00	0	30	0	3161456640	34	5665
2026-01-26 02:00:06.20	346.60	31.19	-30.5	-31.0	28.4	0.00e+00	0	30	0	3166699520	34	5739
2026-01-26 02:00:07.21	346.51	31.00	-30.4	-31.1	28.3	0.00e+00	0	30	0	3172990976	34	5818
2026-01-26 02:00:08.22	346.42	30.81	-30.4	-30.9	28.4	0.00e+00	0	30	0	3178233856	34	5667
2026-01-26 02:00:09.23	346.34	30.62	-30.3	-30.8	28.5	0.00e+00	0	30	0	3184525312	34	5615
2026-01-26 02:00:10.24	346.25	30.42	-30.3	-30.8	28.3	0.00e+00	0	30	0	3189768192	34	5619
2026-01-26 02:00:11.25	346.17	30.24	-30.4	-30.9	28.5	0.00e+00	0	30	0	3196059648	34	5656
2026-01-26 02:00:12.26	346.09	30.05	-30.5	-31.0	28.4	0.00e+00	0	30	0	3201302528	34	5745
2026-01-26 02:00:13.27	346.01	29.86	-30.4	-31.0	28.3	0.00e+00	0	30	0	3206545408	34	5700
2026-01-26 02:00:14.28	345.93	29.68	-30.4	-31.0	28.3	0.00e+00	0	30	0	3212836864	34	5738
2026-01-26 02:00:15.29	345.85	29.49	-30.6	-31.3	28.2	0.00e+00	0	30	0	3218079744	34	5918
2026-01-26 02:00:16.30	345.77	29.31	-30.5	-31.1	28.3	0.00e+00	0	30	0	3224371200	34	5819
2026-01-26 02:00:17.31	345.69	29.13	-30.4	-31.1	28.3	0.00e+00	0	30	0	3229614080	34	5808
2026-01-26 02:00:18.33	345.61	28.94	-30.5	-31.2	28.3	0.00e+00	0	30	0	3235905536	34	5845
2026-01-26 02:00:19.34	345.54	28.76	-30.8	-31.5	28.2	0.00e+00	0	30	0	3241148416	34	6050
2026-01-26 02:00:20.35	345.46	28.58	-30.7	-31.4	28.1	0.00e+00	0	30	0	3246391296	34	5968
2026-01-26 02:00:21.36	345.39	28.41	-30.5	-31.2	28.3	0.00e+00	0	30	0	3252682752	34	5850
2026-01-26 02:00:22.37	345.32	28.23	-30.3	-31.0	28.4	0.00e+00	0	30	0	3257925632	34	5743
2026-01-26 02:00:23.38	345.24	28.05	-30.5	-31.0	28.3	0.00e+00	0	30	0	3264217088	34	5737
2026-01-26 02:00:24.38	345.17	27.88	-30.6	-31.1	28.3	0.00e+00	0	30	0	3269459968	34	5813
2026-01-26 02:00:25.39	345.10	27.71	-30.4	-30.9	28.4	0.00e+00	0	30	0	3274702848	34	5668
2026-01-26 02:00:26.40	345.03	27.53	-30.4	-30.9	28.4	0.00e+00	0	30	0	3280994304	34	5662
2026-01-26 02:00:27.41	344.96	27.36	-30.4	-30.9	28.3	0.00e+00	0	30	0	3286237184	34	5641
2026-01-26 02:00:28.42	344.89	27.19	-30.3	-30.8	28.4	0.00e+00	0	30	0	3292528640	34	5629
2026-01-26 02:00:29.43	344.83	27.02	-30.7	-31.2	28.2	0.00e+00	0	30	0	3297771520	34	5873
2026-01-26 02:00:30.44	344.76	26.85	-30.7	-31.3	28.3	0.00e+00	0	30	0	3304062976	34	5899
2026-01-26 02:00:31.45	344.69	26.69	-30.7	-31.2	28.2	0.00e+00	0	30	0	3309305856	34	5878
2026-01-26 02:00:32.46	344.63	26.52	-30.8	-31.3	28.2	0.00e+00	0	30	0	3314548736	34	5923
2026-01-26 02:00:33.47	344.56	26.36	-30.7	-31.2	28.2	0.00e+00	0	30	0	3320840192	34	5893
2026-01-26 02:00:34.48	344.50	26.19	-30.8	-31.3	28.0	0.00e+00	0	30	0	3326083072	34	5961
2026-01-26 02:00:35.49	344.44	26.03	-31.2	-31.8	27.8	0.00e+00	0	30	0	3332374528	34	6260
2026-01-26 02:00:36.50	344.37	25.86	-30.9	-31.4	28.0	0.00e+00	0	30	0	3337617408	34	6020
2026-01-26 02:00:37.51	344.31	25.70	-30.9	-31.5	28.1	0.00e+00	0	30	0	3342860288	34	6063
2026-01-26 02:00:38.52	344.25	25.54	-30.9	-31.5	28.0	0.00e+00	0	30	0	3349151744	34	6054
2026-01-26 02:00:39.53	344.19	25.38	-31.1	-31.7	27.8	0.00e+00	0	30	0	3354394624	34	6188
2026-01-26 02:00:40.54	344.13	25.22	-31.1	-31.7	28.0	0.00e+00	0	30	0	3360686080	34	6189
2026-01-26 02:00:41.55	344.07	25.07	-31.1	-31.6	28.0	0.00e+00	0	30	0	3365928960	34	6156
2026-01-26 02:00:42.56	344.01	24.91	-30.9	-31.4	28.0	0.00e+00	0	30	0	3371171840	34	6000
2026-01-26 02:00:43.57	343.95	24.75	-31.0	-31.7	28.1	0.00e+00	0	30	0	3377463296	34	6194
2026-01-26 02:00:44.58	343.90	24.60	-31.0	-31.7	27.9	0.00e+00	0	30	0	3382706176	34	6207
2026-01-26 02:00:45.59	343.84	24.44	-31.2	-31.7	28.1	0.00e+00	0	30	0	3388997632	34	6207
2026-01-26 02:00:46.60	343.78	24.29	-31.0	-31.5	28.0	0.00e+00	0	30	0	3394240512	34	6083
2026-01-26 02:00:47.61	343.73	24.14	-31.1	-31.7	28.0	0.00e+00	0	30	0	3400531968	34	6195
2026-01-26 02:00:48.62	343.67	23.99	-31.0	-31.6	28.1	0.00e+00	0	30	0	3405774848	34	6117
2026-01-26 02:00:49.63	343.62	23.83	-31.0	-31.5	27.9	0.00e+00	0	30	0	3412066304	34	6075
2026-01-26 02:00:50.64	343.56	23.68	-31.0	-31.6	27.8	0.00e+00	0	30	0	3417309184	34	6117
2026-01-26 02:00:51.66	343.51	23.53	-31.4	-32.1	27.8	0.00e+00	0	30	0	3422552064	34	6527
2026-01-26 02:00:52.67	343.46	23.39	-31.2	-31.9	27.8	0.00e+00	0	30	0	3428843520	34	6366
2026-01-26 02:00:53.68	343.40	23.24	-31.0	-31.7	28.0	0.00e+00	0	30	0	3434086400	34	6207
2026-01-26 02:00:54.69	343.35	23.09	-31.2	-31.7	27.8	0.00e+00	0	30	0	3440377856	34	6211
2026-01-26 02:00:55.70	343.30	22.94	-31.2	-31.9	27.7	0.00e+00	0	30	0	3445620736	34	6357
2026-01-26 02:00:56.71	343.25	22.80	-31.4	-32.1	27.6	0.00e+00	0	30	0	3450863616	34	6466
2026-01-26 02:00:57.72	343.20	22.66	-31.5	-32.2	27.6	0.00e+00	0	30	0	3457155072	34	6557
2026-01-26 02:00:58.73	343.15	22.51	-31.6	-32.3	27.5	0.00e+00	0	30	0	3462397952	34	6634
2026-01-26 02:00:59.74	343.10	22.37	-32.3	-33.0	26.8	0.00e+00	0	30	0	3468689408	36	6391
2026-01-26 02:01:00.75	343.05	22.23	-31.6	-32.2	27.5	0.00e+00	0	30	0	3473932288	36	5832
2026-01-26 02:01:01.76	343.00	22.09	-31.6	-32.2	27.4	0.00e+00	0	30	0	3479175168	36	5858
2026-01-26 02:01:02.76	342.96	21.95	-31.8	-32.4	27.2	0.00e+00	0	30	0	3485466624	36	5979
2026-01-26 02:01:03.77	342.91	21.81	-31.8	-32.4	27.2	0.00e+00	0	30	0	3490709504	36	5977
2026-01-26 02:01:04.78	342.86	21.67	-31.8	-32.4	27.4	0.00e+00	0	30	0	3497000960	36	5999
2026-01-26 02:01:05.79	342.82	21.53	-31.8	-32.3	27.4	0.00e+00	0	30	0	3502243840	36	5936
2026-01-26 02:01:06.80	342.77	21.39	-31.9	-32.6	27.3	0.00e+00	0	30	0	3508535296	36	6137
2026-01-26 02:01:07.81	342.72	21.26	-31.9	-32.4	27.1	0.00e+00	0	30	0	3513778176	36	6029
2026-01-26 02:01:08.82	342.68	21.12	-31.9	-32.5	27.2	0.00e+00	0	30	0	3519021056	36	6069
2026-01-26 02:01:09.83	342.63	20.98	-32.0	-32.7	27.1	0.00e+00	0	30	0	3525312512	36	6210
2026-01-26 02:01:10.84	342.59	20.85	-31.7	-32.4	27.3	0.00e+00	0	30	0	3530555392	36	6017
2026-01-26 02:01:11.85	342.55	20.71	-31.8	-32.3	27.4	0.00e+00	0	30	0	3536846848	36	5932
2026-01-26 02:01:12.86	342.50	20.58	-32.0	-32.7	27.3	0.00e+00	0	30	0	3542089728	36	6226
2026-01-26 02:01:13.87	342.46	20.45	-32.3	-33.0	27.1	0.00e+00	0	30	0	3547332608	36	6462
2026-01-26 02:01:14.88	342.42	20.32	-32.3	-32.9	27.3	0.00e+00	0	30	0	3553624064	36	6324
2026-01-26 02:01:15.89	342.38	20.19	-32.2	-32.7	27.1	0.00e+00	0	30	0	3558866944	36	6242
2026-01-26 02:01:16.90	342.33	20.06	-33.0	-33.6	26.5	0.00e+00	0	30	0	3565158400	38	6105
2026-01-26 02:01:17.91	342.29	19.93	-32.1	-32.7	27.1	0.00e+00	0	30	0	3570401280	38	5503
2026-01-26 02:01:18.92	342.25	19.80	-32.1	-32.6	27.1	0.00e+00	0	30	0	3575644160	38	5494
2026-01-26 02:01:19.93	342.21	19.67	-32.1	-32.6	27.2	0.00e+00	0	30	0	3581935616	38	5473
2026-01-26 02:01:20.94	342.17	19.54	-32.1	-32.7	27.1	0.00e+00	0	30	0	3587178496	38	5512
2026-01-26 02:01:21.95	342.13	19.41	-32.4	-32.9	26.8	0.00e+00	0	30	0	3593469952	38	5666
