passes_logs/2026/01/26/R4.6S_Anadyr/R4.6S_Anadyr__20260126_155830_AQUA_rec.log

#Pass ID: 20260126_155830_AQUA
#Satellite: AQUA
#Configuration: AQUA
#almurnet v.1.7.20251203
#Start time: 2026-01-26 15:58:33

#Version: 2.2.20231116
#Station: R4.6S_Anadyr
#Location: 177.4865 lon 64.73178 lat
#TLE: 1 27424U 02022A   26025.91340420  .00001969  00000+0  40368-3 0  9991
#TLE: 2 27424  98.4100 352.5253 0001880  65.2649  27.8322 14.61861165262482

#Time	Az	El	Level	Level2	SNR	BER	BlckErr	Temp	State	Recorded	gain1	gain2
2026-01-26 15:58:33.35	19.63	0.20	-50.1	-66.5	3.2	3.02e+01	0	27	0	0	60	81736
2026-01-26 15:58:34.35	19.65	0.26	-50.1	-68.0	3.5	3.02e+01	0	27	104	0	60	96614
2026-01-26 15:58:35.36	19.67	0.33	-50.0	-67.9	3.5	3.02e+01	0	27	104	0	60	95993
2026-01-26 15:58:36.37	19.69	0.39	-50.1	-67.9	3.5	3.02e+01	0	27	104	0	60	95984
2026-01-26 15:58:37.38	19.71	0.45	-50.1	-67.9	3.5	3.02e+01	0	27	104	0	60	95664
2026-01-26 15:58:38.39	19.73	0.51	-50.1	-68.0	3.5	3.02e+01	0	27	104	0	60	96400
2026-01-26 15:58:39.40	19.75	0.58	-50.1	-68.0	3.5	3.02e+01	0	27	104	0	60	96193
2026-01-26 15:58:40.41	19.77	0.64	-50.0	-68.0	3.5	3.02e+01	0	27	104	0	60	96205
2026-01-26 15:58:41.42	19.79	0.70	-50.1	-67.9	3.5	3.02e+01	0	27	104	0	60	95570
2026-01-26 15:58:42.43	19.81	0.76	-50.0	-67.9	3.5	3.02e+01	0	27	104	0	60	95484
2026-01-26 15:58:43.44	19.83	0.83	-49.9	-67.8	3.5	3.02e+01	0	27	104	0	60	94724
2026-01-26 15:58:44.45	19.85	0.89	-49.8	-67.8	3.5	3.02e+01	0	27	104	0	60	94642
2026-01-26 15:58:45.46	19.88	0.95	-49.8	-67.7	3.5	3.02e+01	0	27	104	0	60	93585
2026-01-26 15:58:46.47	19.90	1.02	-49.8	-67.6	3.5	3.02e+01	0	27	104	0	60	92361
2026-01-26 15:58:47.48	19.92	1.08	-49.7	-67.5	3.5	3.02e+01	0	27	104	0	60	91000
2026-01-26 15:58:48.49	19.94	1.15	-49.4	-67.3	3.5	3.02e+01	0	27	104	0	60	89613
2026-01-26 15:58:49.50	19.96	1.21	-49.3	-67.3	3.5	3.02e+01	0	27	104	0	60	89030
2026-01-26 15:58:50.51	19.98	1.27	-49.2	-67.1	3.5	3.02e+01	0	27	104	0	60	87191
2026-01-26 15:58:51.52	20.00	1.34	-49.3	-67.0	3.5	3.02e+01	0	27	104	0	60	85915
2026-01-26 15:58:52.53	20.02	1.40	-49.0	-66.5	3.5	3.02e+01	0	27	104	0	60	81304
2026-01-26 15:58:53.55	20.05	1.47	-48.8	-66.1	3.5	3.02e+01	0	27	104	0	60	77559
2026-01-26 15:58:54.56	20.07	1.53	-48.8	-66.2	3.5	3.02e+01	0	27	104	0	60	78599
2026-01-26 15:58:55.57	20.09	1.60	-48.7	-66.1	3.5	3.02e+01	0	27	104	0	60	77791
2026-01-26 15:58:56.58	20.11	1.66	-48.7	-65.9	3.5	3.02e+01	0	27	104	0	60	76208
2026-01-26 15:58:57.59	20.13	1.73	-48.7	-65.8	3.5	3.02e+01	0	27	104	0	60	74986
2026-01-26 15:58:58.60	20.16	1.79	-48.7	-65.9	3.5	3.02e+01	0	27	104	0	60	75598
2026-01-26 15:58:59.61	20.18	1.86	-48.7	-66.0	3.5	3.02e+01	0	27	104	0	60	76770
2026-01-26 15:59:00.62	20.20	1.92	-48.7	-66.0	3.5	3.02e+01	0	27	104	0	60	76620
2026-01-26 15:59:01.63	20.22	1.99	-48.7	-66.1	3.5	3.02e+01	0	27	104	0	60	77771
2026-01-26 15:59:02.64	20.24	2.06	-48.7	-66.1	3.5	3.02e+01	0	27	104	0	60	77726
2026-01-26 15:59:03.65	20.27	2.12	-48.7	-66.2	3.5	3.02e+01	0	27	104	0	60	78850
2026-01-26 15:59:04.66	20.29	2.19	-48.7	-66.2	3.5	3.02e+01	0	27	104	0	60	78376
2026-01-26 15:59:05.67	20.31	2.26	-48.7	-66.3	3.5	3.02e+01	0	27	104	0	60	79463
2026-01-26 15:59:06.69	20.33	2.32	-48.7	-66.1	3.5	3.02e+01	0	27	104	0	60	77766
2026-01-26 15:59:07.70	20.36	2.39	-48.7	-65.3	3.5	3.02e+01	0	27	104	0	60	70980
2026-01-26 15:59:08.71	20.38	2.46	-48.7	-64.0	3.7	3.02e+01	0	27	104	0	60	60827
2026-01-26 15:59:09.71	20.40	2.52	-48.6	-63.2	4.1	3.02e+01	0	27	104	0	60	55546
2026-01-26 15:59:10.73	20.43	2.59	-48.5	-61.4	5.0	3.02e+01	0	27	104	0	60	45283
2026-01-26 15:59:11.74	20.45	2.66	-48.5	-61.0	5.1	3.02e+01	0	27	104	0	60	43410
2026-01-26 15:59:12.75	20.47	2.73	-48.6	-61.8	4.6	3.02e+01	0	27	104	0	60	47095
2026-01-26 15:59:13.76	20.50	2.80	-48.5	-61.4	4.5	3.02e+01	0	27	104	0	60	45314
2026-01-26 15:59:14.77	20.52	2.86	-48.4	-59.5	5.6	3.02e+01	25	27	104	0	60	36184
2026-01-26 15:59:15.78	20.54	2.93	-48.0	-56.2	7.6	3.02e+01	92	27	0	524288	60	24857
2026-01-26 15:59:16.79	20.57	3.00	-46.9	-51.9	11.6	3.02e+01	58	27	0	2621440	60	15137
2026-01-26 15:59:17.80	20.59	3.07	-45.9	-49.8	13.1	3.02e+01	61	27	0	4718592	60	11877
2026-01-26 15:59:18.81	20.61	3.14	-44.3	-47.1	15.3	3.02e+01	55	27	0	6291456	60	8672
2026-01-26 15:59:19.81	20.64	3.21	-42.8	-45.0	17.6	3.02e+01	58	27	0	8388608	60	6835
2026-01-26 15:59:20.82	20.66	3.28	-41.8	-43.7	18.7	3.02e+01	50	27	0	10485760	60	5884
2026-01-26 15:59:21.83	20.69	3.35	-41.1	-42.8	19.0	3.02e+01	58	27	0	12058624	58	5982
2026-01-26 15:59:22.84	20.71	3.42	-40.6	-42.3	19.3	3.02e+01	58	27	0	14155776	56	6332
2026-01-26 15:59:23.85	20.73	3.49	-40.7	-42.4	18.9	3.02e+01	45	27	0	15728640	56	6356
2026-01-26 15:59:24.86	20.76	3.56	-40.2	-41.9	20.0	3.02e+01	60	27	0	17825792	56	5998
2026-01-26 15:59:25.87	20.78	3.63	-40.9	-42.7	19.1	3.02e+01	59	27	0	19922944	56	6595
2026-01-26 15:59:26.88	20.81	3.70	-41.7	-43.6	18.7	3.02e+01	56	27	0	21495808	56	7319
2026-01-26 15:59:27.89	20.83	3.77	-43.2	-45.6	19.9	3.02e+01	60	27	0	23592960	58	8229
2026-01-26 15:59:28.90	20.86	3.84	-39.1	-40.6	25.3	3.02e+01	46	27	0	25165824	54	5799
2026-01-26 15:59:29.91	20.88	3.91	-42.9	-45.2	20.9	3.02e+01	60	27	0	27262976	58	7818
2026-01-26 15:59:30.92	20.91	3.98	-48.6	-64.4	3.6	3.02e+01	0	28	104	28835840	60	63549
2026-01-26 15:59:31.93	20.93	4.05	-41.3	-43.2	23.1	3.02e+01	45	28	0	28835840	56	6988
2026-01-26 15:59:32.94	20.96	4.12	-48.4	-60.7	3.6	3.02e+01	79	28	104	30408704	60	41828
2026-01-26 15:59:33.95	20.98	4.19	-42.4	-44.8	21.2	3.02e+01	60	28	104	30408704	60	6704
2026-01-26 15:59:34.96	21.01	4.27	-42.8	-45.0	21.1	3.02e+01	59	28	0	31981568	60	6839
2026-01-26 15:59:35.97	21.03	4.34	-42.7	-44.9	21.5	3.02e+01	57	28	0	34078720	60	6763
2026-01-26 15:59:36.97	21.06	4.41	-42.0	-43.9	22.2	3.02e+01	50	28	0	35651584	58	6797
2026-01-26 15:59:37.98	21.08	4.48	-42.5	-44.6	21.1	3.02e+01	54	28	0	37748736	58	7315
2026-01-26 15:59:38.99	21.11	4.56	-42.6	-44.7	22.0	3.02e+01	59	28	0	39321600	60	6633
2026-01-26 15:59:40.00	21.14	4.63	-40.8	-42.5	23.8	3.02e+01	53	28	0	41418752	58	5767
2026-01-26 15:59:41.01	21.16	4.70	-39.6	-41.1	24.9	3.02e+01	59	28	0	43515904	54	6203
2026-01-26 15:59:42.02	21.19	4.78	-39.4	-41.0	24.9	3.02e+01	61	27	0	45088768	54	6071
2026-01-26 15:59:43.03	21.22	4.85	-39.1	-40.6	25.3	3.02e+01	61	27	0	47185920	54	5836
2026-01-26 15:59:44.04	21.24	4.93	-39.3	-40.8	25.1	3.02e+01	60	28	0	49283072	54	5990
2026-01-26 15:59:45.05	21.27	5.00	-39.0	-40.5	25.4	3.02e+01	51	28	0	50855936	54	5751
2026-01-26 15:59:46.06	21.30	5.07	-39.1	-40.6	25.3	3.02e+01	59	28	0	52953088	52	6517
2026-01-26 15:59:47.07	21.32	5.15	-39.0	-40.5	25.4	3.02e+01	59	28	0	54525952	52	6435
2026-01-26 15:59:48.08	21.35	5.22	-39.1	-40.6	25.2	3.02e+01	46	28	0	56623104	52	6544
2026-01-26 15:59:49.09	21.38	5.30	-39.0	-40.5	25.4	3.02e+01	57	27	0	58720256	52	6485
2026-01-26 15:59:50.10	21.40	5.37	-39.2	-40.7	25.3	3.02e+01	60	28	0	60293120	52	6610
2026-01-26 15:59:51.11	21.43	5.45	-38.9	-40.3	25.4	3.02e+01	56	28	0	62390272	52	6329
2026-01-26 15:59:52.12	21.46	5.53	-39.2	-40.7	25.5	3.02e+01	59	28	0	64487424	52	6636
2026-01-26 15:59:53.13	21.49	5.60	-38.7	-40.1	25.8	3.02e+01	51	28	0	66060288	52	6193
2026-01-26 15:59:54.14	21.51	5.68	-38.3	-39.7	26.3	3.02e+01	59	28	0	68157440	52	5903
2026-01-26 15:59:55.15	21.54	5.76	-37.8	-39.2	26.9	3.02e+01	61	28	0	69730304	50	6236
2026-01-26 15:59:56.16	21.57	5.83	-38.1	-39.4	26.8	3.02e+01	52	28	0	71827456	50	6422
2026-01-26 15:59:57.16	21.60	5.91	-37.9	-39.2	26.9	3.02e+01	62	28	0	73924608	50	6254
2026-01-26 15:59:58.17	21.63	5.99	-37.8	-39.2	26.9	3.02e+01	44	28	0	75497472	50	6244
2026-01-26 15:59:59.18	21.66	6.06	-37.9	-39.3	26.9	3.02e+01	58	28	0	77594624	50	6313
2026-01-26 16:00:00.19	21.68	6.14	-38.0	-39.4	26.7	3.02e+01	54	28	0	79167488	50	6402
2026-01-26 16:00:01.20	21.71	6.22	-37.8	-39.2	27.0	3.02e+01	55	28	0	81264640	50	6210
2026-01-26 16:00:02.21	21.74	6.30	-37.8	-39.1	27.0	3.02e+01	60	28	0	83361792	50	6191
2026-01-26 16:00:03.22	21.77	6.38	-37.7	-39.0	27.1	3.02e+01	56	28	0	84934656	50	6120
2026-01-26 16:00:04.23	21.80	6.46	-37.7	-39.0	27.1	3.02e+01	60	28	0	87031808	50	6114
2026-01-26 16:00:05.24	21.83	6.54	-37.6	-38.9	27.2	3.02e+01	58	28	0	88604672	50	6033
2026-01-26 16:00:06.25	21.86	6.61	-37.4	-38.7	27.5	3.02e+01	59	28	0	90701824	50	5887
2026-01-26 16:00:07.26	21.89	6.69	-37.7	-39.0	27.2	3.02e+01	59	28	0	92798976	50	6089
2026-01-26 16:00:08.27	21.92	6.77	-37.7	-39.0	27.2	3.02e+01	54	28	0	94371840	50	6106
2026-01-26 16:00:09.28	21.95	6.85	-37.7	-39.1	27.2	3.02e+01	45	28	0	96468992	50	6144
2026-01-26 16:00:10.29	21.98	6.94	-37.6	-38.9	27.4	3.02e+01	58	28	0	98041856	50	6039
2026-01-26 16:00:11.29	22.01	7.02	-37.4	-38.7	27.5	3.02e+01	56	28	0	100139008	50	5907
2026-01-26 16:00:12.30	22.04	7.10	-37.5	-38.8	27.5	3.02e+01	57	28	0	102236160	50	5980
2026-01-26 16:00:13.31	22.07	7.18	-37.5	-38.8	27.5	3.02e+01	61	28	0	103809024	50	5956
2026-01-26 16:00:14.32	22.10	7.26	-37.5	-38.8	27.5	3.02e+01	47	28	0	105906176	50	5959
2026-01-26 16:00:15.33	22.13	7.34	-37.4	-38.7	27.4	3.02e+01	60	28	0	107479040	50	5921
2026-01-26 16:00:16.34	22.16	7.42	-37.5	-38.8	27.6	3.02e+01	61	28	0	109576192	50	5952
2026-01-26 16:00:17.35	22.19	7.51	-37.2	-38.5	27.8	3.02e+01	47	28	0	111673344	50	5767
2026-01-26 16:00:18.36	22.22	7.59	-37.4	-38.7	27.6	3.02e+01	61	28	0	113246208	50	5875
2026-01-26 16:00:19.37	22.26	7.67	-37.4	-38.7	27.6	3.02e+01	61	28	0	115343360	50	5868
2026-01-26 16:00:20.38	22.29	7.76	-37.3	-38.6	27.7	3.02e+01	60	28	0	117440512	50	5826
2026-01-26 16:00:21.39	22.32	7.84	-37.2	-38.5	27.7	3.02e+01	60	28	0	119013376	50	5787
2026-01-26 16:00:22.40	22.35	7.92	-37.1	-38.4	27.8	3.02e+01	48	28	0	121110528	50	5666
2026-01-26 16:00:23.41	22.38	8.01	-37.1	-38.4	27.7	3.02e+01	60	28	0	122683392	50	5720
2026-01-26 16:00:24.42	22.42	8.09	-37.1	-38.3	27.8	3.02e+01	60	28	0	124780544	50	5648
2026-01-26 16:00:25.42	22.45	8.18	-37.2	-38.5	27.7	3.02e+01	57	28	0	126877696	50	5764
2026-01-26 16:00:26.44	22.48	8.26	-37.0	-38.3	27.9	3.02e+01	61	28	0	128450560	48	6284
2026-01-26 16:00:27.45	22.51	8.35	-37.1	-38.4	26.9	3.02e+01	53	28	0	130547712	48	6373
2026-01-26 16:00:28.46	22.55	8.43	-37.1	-38.4	27.2	3.02e+01	60	28	0	132120576	48	6353
2026-01-26 16:00:29.47	22.58	8.52	-36.9	-38.2	27.6	3.02e+01	58	28	0	134217728	48	6226
2026-01-26 16:00:30.48	22.61	8.61	-36.9	-38.1	27.7	3.02e+01	47	28	0	136314880	48	6198
2026-01-26 16:00:31.48	22.65	8.69	-36.9	-38.2	27.9	3.02e+01	61	28	0	137887744	48	6223
2026-01-26 16:00:32.50	22.68	8.78	-37.1	-38.3	27.8	3.02e+01	62	28	0	139984896	48	6348
2026-01-26 16:00:33.51	22.71	8.87	-37.2	-38.4	27.7	3.02e+01	58	28	0	141557760	48	6420
2026-01-26 16:00:34.52	22.75	8.96	-36.9	-38.1	28.1	3.02e+01	62	28	0	143654912	48	6178
2026-01-26 16:00:35.53	22.78	9.05	-37.2	-38.5	27.9	3.02e+01	49	28	0	145752064	48	6459
2026-01-26 16:00:36.54	22.82	9.13	-36.9	-38.2	28.1	3.02e+01	59	28	0	147324928	48	6240
2026-01-26 16:00:37.55	22.85	9.22	-37.1	-38.4	27.8	3.02e+01	60	28	0	149422080	48	6377
2026-01-26 16:00:38.56	22.89	9.31	-37.1	-38.4	28.0	3.02e+01	48	28	0	150994944	48	6394
2026-01-26 16:00:39.57	22.92	9.40	-37.0	-38.3	28.0	3.02e+01	60	28	0	153092096	48	6284
2026-01-26 16:00:40.57	22.96	9.49	-37.2	-38.4	27.9	3.02e+01	58	28	0	155189248	48	6417
2026-01-26 16:00:41.59	22.99	9.58	-37.0	-38.3	28.1	3.02e+01	59	28	0	156762112	48	6298
2026-01-26 16:00:42.59	23.03	9.67	-36.9	-38.2	28.1	3.02e+01	60	28	0	158859264	48	6249
2026-01-26 16:00:43.60	23.07	9.76	-37.0	-38.3	28.1	3.02e+01	58	28	0	160956416	48	6307
2026-01-26 16:00:44.61	23.10	9.86	-37.0	-38.2	28.2	3.02e+01	59	28	0	162529280	48	6264
2026-01-26 16:00:45.62	23.14	9.95	-37.1	-38.4	27.9	3.02e+01	59	28	0	164626432	48	6390
2026-01-26 16:00:46.63	23.18	10.04	-37.0	-38.2	28.2	3.02e+01	51	28	0	166199296	48	6258
2026-01-26 16:00:47.64	23.21	10.13	-37.1	-38.3	28.1	3.02e+01	59	28	0	168296448	48	6348
2026-01-26 16:00:48.65	23.25	10.22	-36.9	-38.2	28.2	3.02e+01	59	28	0	170393600	48	6240
2026-01-26 16:00:49.66	23.29	10.32	-36.9	-38.2	28.2	3.02e+01	59	28	0	171966464	48	6228
2026-01-26 16:00:50.67	23.32	10.41	-36.9	-38.2	28.1	3.02e+01	59	28	0	174063616	48	6252
2026-01-26 16:00:51.68	23.36	10.51	-36.9	-38.2	28.1	3.02e+01	46	28	0	175636480	48	6251
2026-01-26 16:00:52.69	23.40	10.60	-36.8	-38.0	28.3	3.02e+01	59	28	0	177733632	48	6134
2026-01-26 16:00:53.70	23.44	10.70	-36.7	-38.0	28.3	3.02e+01	59	28	0	179830784	48	6090
2026-01-26 16:00:54.71	23.48	10.79	-36.7	-38.0	28.3	3.02e+01	47	28	0	181403648	48	6111
2026-01-26 16:00:55.72	23.52	10.89	-36.8	-38.1	28.3	3.02e+01	58	28	0	183500800	48	6136
2026-01-26 16:00:56.72	23.55	10.98	-36.9	-38.1	28.3	3.02e+01	58	28	0	185597952	48	6203
2026-01-26 16:00:57.73	23.59	11.08	-36.6	-37.9	28.5	3.02e+01	55	28	0	187170816	48	5999
2026-01-26 16:00:58.74	23.63	11.18	-36.6	-37.8	28.4	3.02e+01	60	28	0	189267968	48	5989
2026-01-26 16:00:59.75	23.67	11.27	-36.6	-37.8	28.4	3.02e+01	48	28	0	190840832	48	5990
2026-01-26 16:01:00.76	23.71	11.37	-36.5	-37.8	28.4	3.02e+01	61	28	0	192937984	48	5946
2026-01-26 16:01:01.77	23.75	11.47	-36.4	-37.7	28.6	3.02e+01	59	28	0	195035136	48	5883
2026-01-26 16:01:02.78	23.79	11.57	-36.3	-37.5	28.8	3.02e+01	46	28	0	196608000	48	5790
2026-01-26 16:01:03.79	23.83	11.67	-36.4	-37.6	28.8	3.02e+01	60	28	0	198705152	48	5813
2026-01-26 16:01:04.80	23.88	11.77	-36.2	-37.4	28.9	3.02e+01	48	28	0	200278016	48	5725
2026-01-26 16:01:05.81	23.92	11.87	-36.3	-37.6	28.8	3.02e+01	59	28	0	202375168	48	5812
2026-01-26 16:01:06.82	23.96	11.97	-36.2	-37.4	28.9	3.02e+01	60	28	0	204472320	48	5706
2026-01-26 16:01:07.82	24.00	12.07	-36.4	-37.6	28.8	3.02e+01	53	28	0	206045184	48	5847
2026-01-26 16:01:08.83	24.04	12.17	-36.3	-37.6	28.8	3.02e+01	61	28	0	208142336	48	5817
2026-01-26 16:01:09.84	24.08	12.27	-36.4	-37.7	28.7	3.02e+01	59	28	0	209715200	48	5885
2026-01-26 16:01:10.85	24.13	12.37	-36.3	-37.6	28.9	3.02e+01	61	28	0	211812352	48	5796
2026-01-26 16:01:11.86	24.17	12.47	-36.4	-37.7	28.8	3.02e+01	61	28	0	213909504	48	5873
2026-01-26 16:01:12.87	24.21	12.58	-36.4	-37.7	28.8	3.02e+01	46	28	0	215482368	48	5880
2026-01-26 16:01:13.88	24.26	12.68	-36.6	-37.8	28.7	3.02e+01	58	28	0	217579520	48	5977
2026-01-26 16:01:14.89	24.30	12.79	-36.5	-37.7	28.7	3.02e+01	59	28	0	219152384	48	5906
2026-01-26 16:01:15.90	24.35	12.89	-36.4	-37.6	28.9	3.02e+01	45	28	0	221249536	48	5831
2026-01-26 16:01:16.91	24.39	13.00	-36.3	-37.5	28.9	3.02e+01	59	28	0	223346688	48	5779
2026-01-26 16:01:17.92	24.43	13.10	-36.3	-37.6	28.9	3.02e+01	61	28	0	224919552	48	5817
2026-01-26 16:01:18.93	24.48	13.21	-36.4	-37.6	28.9	3.02e+01	56	28	0	227016704	48	5830
2026-01-26 16:01:19.94	24.52	13.31	-36.2	-37.4	29.0	3.02e+01	56	28	0	229113856	48	5670
2026-01-26 16:01:20.95	24.57	13.42	-36.3	-37.5	28.9	3.02e+01	53	28	0	230686720	48	5761
2026-01-26 16:01:21.96	24.62	13.53	-36.4	-37.7	28.7	3.02e+01	57	28	0	232783872	48	5880
2026-01-26 16:01:22.97	24.66	13.64	-36.3	-37.6	28.9	3.02e+01	60	28	0	234356736	48	5811
2026-01-26 16:01:23.97	24.71	13.74	-36.4	-37.7	28.7	3.02e+01	49	28	0	236453888	48	5873
2026-01-26 16:01:24.98	24.76	13.85	-36.4	-37.6	28.7	3.02e+01	57	28	0	238551040	48	5846
2026-01-26 16:01:25.99	24.80	13.96	-36.5	-37.7	28.9	3.02e+01	60	28	0	240123904	48	5921
2026-01-26 16:01:27.00	24.85	14.07	-35.9	-37.2	29.3	3.02e+01	59	28	0	242221056	48	5538
2026-01-26 16:01:28.01	24.90	14.18	-36.1	-37.3	29.2	3.02e+01	61	28	0	243793920	46	6333
2026-01-26 16:01:29.02	24.95	14.30	-35.9	-37.1	29.4	3.02e+01	50	28	0	245891072	46	6189
2026-01-26 16:01:30.03	25.00	14.41	-36.0	-37.2	29.3	3.02e+01	60	28	0	247988224	46	6257
2026-01-26 16:01:31.04	25.05	14.52	-36.3	-37.6	29.0	3.02e+01	59	28	0	249561088	46	6507
2026-01-26 16:01:32.05	25.10	14.63	-36.2	-37.4	29.1	3.02e+01	47	28	0	251658240	46	6395
2026-01-26 16:01:33.06	25.15	14.75	-36.2	-37.5	29.1	3.02e+01	60	28	0	253755392	46	6445
2026-01-26 16:01:34.07	25.20	14.86	-36.1	-37.3	29.2	3.02e+01	58	28	0	255328256	46	6291
2026-01-26 16:01:35.08	25.25	14.98	-36.2	-37.4	29.1	3.02e+01	56	28	0	257425408	46	6372
2026-01-26 16:01:36.09	25.30	15.09	-35.9	-37.2	29.3	3.02e+01	60	28	0	258998272	46	6230
2026-01-26 16:01:37.10	25.35	15.21	-36.1	-37.3	29.2	3.02e+01	49	28	0	261095424	46	6294
2026-01-26 16:01:38.10	25.40	15.32	-36.0	-37.2	29.3	3.02e+01	60	28	0	262668288	46	6246
2026-01-26 16:01:39.12	25.45	15.44	-36.1	-37.3	29.2	3.02e+01	57	28	0	264765440	46	6332
2026-01-26 16:01:40.13	25.50	15.56	-35.9	-37.1	29.3	3.02e+01	60	28	0	266862592	46	6174
2026-01-26 16:01:41.13	25.56	15.68	-36.0	-37.2	29.3	3.02e+01	59	28	0	268435456	46	6230
2026-01-26 16:01:42.14	25.61	15.79	-36.0	-37.2	29.3	3.02e+01	46	28	0	270532608	46	6229
2026-01-26 16:01:43.15	25.66	15.91	-35.8	-36.9	29.5	3.02e+01	57	28	0	272105472	46	6061
2026-01-26 16:01:44.16	25.72	16.03	-35.8	-37.0	29.5	3.02e+01	57	28	0	274202624	46	6079
2026-01-26 16:01:45.17	25.77	16.16	-35.7	-36.9	29.6	3.02e+01	50	28	0	276299776	46	6009
2026-01-26 16:01:46.18	25.83	16.28	-35.6	-36.8	29.6	3.02e+01	59	28	0	277872640	46	5980
2026-01-26 16:01:47.19	25.88	16.40	-35.6	-36.8	29.6	3.02e+01	57	28	0	279969792	46	5979
2026-01-26 16:01:48.20	25.94	16.52	-35.8	-37.0	29.5	3.02e+01	58	28	0	282066944	46	6102
2026-01-26 16:01:49.21	26.00	16.65	-35.7	-36.9	29.5	3.02e+01	57	28	0	283639808	46	5998
2026-01-26 16:01:50.22	26.05	16.77	-35.9	-37.1	29.4	3.02e+01	45	28	0	285736960	46	6169
2026-01-26 16:01:51.23	26.11	16.89	-35.7	-36.9	29.6	3.02e+01	60	28	0	287309824	46	6047
2026-01-26 16:01:52.24	26.17	17.02	-35.8	-37.0	29.5	3.02e+01	58	28	0	289406976	46	6097
2026-01-26 16:01:53.25	26.23	17.15	-35.9	-37.1	29.4	3.02e+01	46	28	0	291504128	46	6162
2026-01-26 16:01:54.26	26.29	17.27	-35.9	-37.1	29.4	3.02e+01	58	28	0	293076992	46	6171
2026-01-26 16:01:55.27	26.34	17.40	-36.2	-37.4	29.3	3.02e+01	59	28	0	295174144	46	6371
2026-01-26 16:01:56.27	26.40	17.53	-36.0	-37.2	29.4	3.02e+01	58	28	0	297271296	46	6277
2026-01-26 16:01:57.28	26.46	17.66	-36.2	-37.4	29.1	3.02e+01	59	28	0	298844160	46	6397
2026-01-26 16:01:58.29	26.52	17.79	-36.1	-37.3	29.2	3.02e+01	55	28	0	300941312	46	6297
2026-01-26 16:01:59.30	26.59	17.92	-35.9	-37.1	29.4	3.02e+01	58	28	0	302514176	46	6189
2026-01-26 16:02:00.31	26.65	18.05	-36.0	-37.2	29.4	3.02e+01	62	28	0	304611328	46	6239
2026-01-26 16:02:01.32	26.71	18.18	-35.9	-37.1	29.5	3.02e+01	46	28	0	306708480	46	6170
2026-01-26 16:02:02.33	26.77	18.31	-35.9	-37.1	29.5	3.02e+01	63	28	0	308281344	46	6149
2026-01-26 16:02:03.34	26.84	18.45	-36.0	-37.2	29.4	3.02e+01	59	28	0	310378496	46	6253
2026-01-26 16:02:04.35	26.90	18.58	-36.0	-37.2	29.4	3.02e+01	60	28	0	311951360	46	6255
2026-01-26 16:02:05.36	26.96	18.72	-35.7	-36.9	29.7	3.02e+01	58	28	0	314048512	46	6013
2026-01-26 16:02:06.37	27.03	18.85	-35.8	-37.1	29.5	3.02e+01	60	28	0	316145664	46	6137
2026-01-26 16:02:07.38	27.10	18.99	-35.8	-37.0	29.6	3.02e+01	58	28	0	317718528	46	6085
2026-01-26 16:02:08.39	27.16	19.13	-35.9	-37.1	29.5	3.02e+01	57	28	0	319815680	46	6164
2026-01-26 16:02:09.40	27.23	19.27	-36.0	-37.2	29.4	3.02e+01	46	28	0	321388544	46	6220
2026-01-26 16:02:10.42	27.30	19.41	-36.0	-37.2	29.4	3.02e+01	59	28	0	323485696	46	6246
2026-01-26 16:02:11.43	27.36	19.55	-36.1	-37.3	29.2	3.02e+01	51	28	0	325582848	46	6334
2026-01-26 16:02:12.44	27.43	19.69	-36.0	-37.2	29.3	3.02e+01	60	28	0	327155712	46	6250
2026-01-26 16:02:13.45	27.50	19.83	-36.0	-37.2	29.3	3.02e+01	58	28	0	329252864	46	6276
2026-01-26 16:02:14.45	27.57	19.97	-36.0	-37.2	29.4	3.02e+01	51	28	0	330825728	46	6217
2026-01-26 16:02:15.46	27.64	20.11	-35.8	-37.0	29.5	3.02e+01	58	28	0	332922880	46	6128
2026-01-26 16:02:16.47	27.71	20.26	-36.0	-37.2	29.4	3.02e+01	59	28	0	335020032	46	6243
2026-01-26 16:02:17.48	27.79	20.40	-36.0	-37.2	29.4	3.02e+01	52	28	0	336592896	46	6237
2026-01-26 16:02:18.49	27.86	20.55	-35.8	-37.0	29.4	3.02e+01	61	28	0	338690048	46	6134
2026-01-26 16:02:19.50	27.93	20.69	-35.8	-37.0	29.7	3.02e+01	44	28	0	340262912	46	6116
2026-01-26 16:02:20.51	28.01	20.84	-35.8	-37.0	29.6	3.02e+01	61	28	0	342360064	46	6082
2026-01-26 16:02:21.52	28.08	20.99	-35.8	-37.0	29.6	3.02e+01	61	28	0	344457216	46	6091
2026-01-26 16:02:22.53	28.16	21.14	-36.0	-37.2	29.5	3.02e+01	46	28	0	346030080	46	6220
2026-01-26 16:02:23.54	28.23	21.29	-36.0	-37.2	29.4	3.02e+01	60	28	0	348127232	46	6270
2026-01-26 16:02:24.55	28.31	21.44	-36.2	-37.4	29.3	3.02e+01	59	28	0	350224384	46	6370
2026-01-26 16:02:25.56	28.39	21.59	-36.2	-37.4	29.3	3.02e+01	62	28	0	351797248	46	6360
2026-01-26 16:02:26.57	28.46	21.75	-36.1	-37.3	29.3	3.02e+01	59	28	0	353894400	46	6329
2026-01-26 16:02:27.58	28.54	21.90	-36.1	-37.3	29.4	3.02e+01	49	28	0	355467264	46	6317
2026-01-26 16:02:28.59	28.62	22.06	-36.0	-37.2	29.4	3.02e+01	58	28	0	357564416	46	6266
2026-01-26 16:02:29.60	28.70	22.21	-36.0	-37.1	29.5	3.02e+01	60	28	0	359661568	46	6203
2026-01-26 16:02:30.61	28.79	22.37	-36.1	-37.3	29.4	3.02e+01	48	28	0	361234432	46	6299
2026-01-26 16:02:31.62	28.87	22.53	-36.0	-37.2	29.4	3.02e+01	60	28	0	363331584	46	6261
2026-01-26 16:02:32.63	28.95	22.69	-36.1	-37.3	29.3	3.02e+01	59	28	0	365428736	46	6339
2026-01-26 16:02:33.63	29.03	22.85	-36.1	-37.3	29.4	3.02e+01	61	28	0	367001600	46	6293
2026-01-26 16:02:34.64	29.12	23.01	-36.3	-37.5	29.3	3.02e+01	57	28	0	369098752	46	6456
2026-01-26 16:02:35.65	29.21	23.17	-36.2	-37.4	29.3	3.02e+01	59	28	0	370671616	46	6377
2026-01-26 16:02:36.66	29.29	23.34	-36.2	-37.4	29.2	3.02e+01	59	28	0	372768768	46	6406
2026-01-26 16:02:37.67	29.38	23.50	-36.3	-37.5	29.2	3.02e+01	59	28	0	374865920	46	6473
2026-01-26 16:02:38.68	29.47	23.67	-36.3	-37.5	29.2	3.02e+01	44	28	0	376438784	46	6469
2026-01-26 16:02:39.69	29.56	23.83	-36.3	-37.5	29.3	3.02e+01	60	28	0	378535936	46	6446
2026-01-26 16:02:40.70	29.65	24.00	-36.3	-37.5	29.2	3.02e+01	60	28	0	380108800	46	6454
2026-01-26 16:02:41.71	29.74	24.17	-36.2	-37.4	29.3	3.02e+01	58	28	0	382205952	46	6389
2026-01-26 16:02:42.72	29.83	24.34	-36.1	-37.3	29.4	3.02e+01	59	28	0	384303104	46	6325
2026-01-26 16:02:43.73	29.93	24.51	-36.1	-37.3	29.3	3.02e+01	58	28	0	385875968	46	6324
2026-01-26 16:02:44.74	30.02	24.68	-36.3	-37.5	29.2	3.02e+01	57	28	0	387973120	46	6439
2026-01-26 16:02:45.75	30.12	24.86	-36.3	-37.5	29.2	3.02e+01	61	28	0	389545984	46	6487
2026-01-26 16:02:46.76	30.21	25.03	-36.5	-37.7	28.9	3.02e+01	50	28	0	391643136	46	6632
2026-01-26 16:02:47.76	30.31	25.21	-36.5	-37.7	28.8	3.02e+01	59	28	0	393740288	46	6637
2026-01-26 16:02:48.77	30.41	25.38	-36.5	-37.7	28.9	3.02e+01	50	28	0	395313152	46	6616
2026-01-26 16:02:49.78	30.51	25.56	-36.4	-37.6	28.9	3.02e+01	60	28	0	397410304	46	6567
2026-01-26 16:02:50.79	30.61	25.74	-36.3	-37.5	29.0	3.02e+01	59	28	0	398983168	46	6479
2026-01-26 16:02:51.80	30.71	25.92	-36.1	-37.3	29.3	3.02e+01	52	28	0	401080320	46	6300
2026-01-26 16:02:52.81	30.81	26.10	-36.3	-37.5	29.2	3.02e+01	57	28	0	403177472	46	6432
2026-01-26 16:02:53.82	30.92	26.29	-36.4	-37.6	29.1	3.02e+01	59	28	0	404750336	46	6537
2026-01-26 16:02:54.83	31.02	26.47	-36.4	-37.7	29.0	3.02e+01	61	28	0	406847488	46	6581
2026-01-26 16:02:55.84	31.13	26.66	-36.6	-37.8	28.9	3.02e+01	60	28	0	408420352	46	6691
2026-01-26 16:02:56.85	31.24	26.85	-36.6	-37.9	28.8	3.02e+01	49	28	0	410517504	46	6727
2026-01-26 16:02:57.86	31.35	27.03	-36.3	-37.5	29.2	3.02e+01	60	28	0	412614656	46	6461
2026-01-26 16:02:58.87	31.46	27.22	-36.4	-37.6	29.1	3.02e+01	54	28	0	414187520	46	6531
2026-01-26 16:02:59.87	31.57	27.41	-35.9	-37.0	29.5	3.02e+01	46	28	0	416284672	46	6133
2026-01-26 16:03:00.89	31.68	27.61	-36.0	-37.2	29.4	3.02e+01	60	28	0	418381824	46	6225
2026-01-26 16:03:01.90	31.80	27.80	-35.9	-37.1	29.5	3.02e+01	58	28	0	419954688	46	6204
2026-01-26 16:03:02.91	31.91	28.00	-36.1	-37.3	29.4	3.02e+01	56	28	0	422051840	46	6297
2026-01-26 16:03:03.92	32.03	28.19	-36.1	-37.3	29.4	3.02e+01	61	28	0	423624704	46	6331
2026-01-26 16:03:04.92	32.15	28.39	-36.0	-37.2	29.5	3.02e+01	54	28	0	425721856	46	6231
2026-01-26 16:03:05.93	32.27	28.59	-35.9	-37.1	29.5	3.02e+01	59	28	0	427819008	46	6189
2026-01-26 16:03:06.94	32.39	28.79	-36.0	-37.2	29.5	3.02e+01	59	28	0	429391872	46	6239
2026-01-26 16:03:07.95	32.52	28.99	-36.0	-37.2	29.5	3.02e+01	45	28	0	431489024	46	6225
2026-01-26 16:03:08.96	32.64	29.20	-36.1	-37.3	29.4	3.02e+01	57	28	0	433586176	46	6311
2026-01-26 16:03:09.97	32.77	29.40	-35.9	-37.1	29.6	3.02e+01	62	28	0	435159040	46	6151
2026-01-26 16:03:10.98	32.90	29.61	-35.9	-37.1	29.5	3.02e+01	59	28	0	437256192	46	6184
2026-01-26 16:03:11.99	33.03	29.82	-36.2	-37.4	29.2	3.02e+01	60	28	0	438829056	46	6421
2026-01-26 16:03:13.00	33.16	30.03	-36.5	-37.7	29.1	3.02e+01	59	28	0	440926208	46	6644
2026-01-26 16:03:14.01	33.29	30.24	-36.2	-37.4	29.4	3.02e+01	60	28	0	443023360	46	6391
2026-01-26 16:03:15.02	33.43	30.45	-36.0	-37.2	29.5	3.02e+01	57	28	0	444596224	46	6226
2026-01-26 16:03:16.03	33.56	30.66	-36.1	-37.3	29.5	3.02e+01	46	28	0	446693376	46	6285
2026-01-26 16:03:17.04	33.70	30.88	-35.7	-36.9	29.8	3.02e+01	58	28	0	448266240	46	6023
2026-01-26 16:03:18.05	33.84	31.10	-36.0	-37.2	29.4	3.02e+01	62	28	0	450363392	46	6271
2026-01-26 16:03:19.06	33.98	31.32	-36.2	-37.4	29.3	3.02e+01	61	28	0	451936256	46	6404
2026-01-26 16:03:20.07	34.13	31.54	-36.1	-37.3	29.4	3.02e+01	60	28	0	454033408	46	6348
2026-01-26 16:03:21.08	34.28	31.76	-36.0	-37.2	29.5	3.02e+01	48	28	0	456130560	46	6246
2026-01-26 16:03:22.09	34.42	31.98	-35.8	-37.0	29.6	3.02e+01	60	28	0	457703424	46	6114
2026-01-26 16:03:23.10	34.57	32.21	-36.1	-37.2	29.4	3.02e+01	60	28	0	459800576	46	6273
2026-01-26 16:03:24.11	34.73	32.43	-36.2	-37.4	29.2	3.02e+01	54	28	0	461897728	46	6410
2026-01-26 16:03:25.12	34.88	32.66	-36.2	-37.4	29.2	3.02e+01	59	28	0	463470592	46	6416
2026-01-26 16:03:26.13	35.04	32.89	-36.2	-37.4	29.2	3.02e+01	46	28	0	465567744	46	6387
2026-01-26 16:03:27.13	35.20	33.12	-36.3	-37.6	29.1	3.02e+01	57	28	0	467140608	46	6509
2026-01-26 16:03:28.14	35.36	33.36	-36.4	-37.6	29.0	3.02e+01	59	28	0	469237760	46	6551
2026-01-26 16:03:29.15	35.52	33.59	-36.4	-37.6	29.1	3.02e+01	50	28	0	471334912	46	6539
2026-01-26 16:03:30.16	35.69	33.83	-36.5	-37.7	29.0	3.02e+01	62	28	0	472907776	46	6648
2026-01-26 16:03:31.17	35.86	34.07	-36.5	-37.8	29.0	3.02e+01	59	28	0	475004928	46	6663
2026-01-26 16:03:32.18	36.03	34.31	-36.6	-37.8	28.9	3.02e+01	59	28	0	476577792	46	6713
2026-01-26 16:03:33.19	36.20	34.55	-36.6	-37.8	29.0	3.02e+01	62	28	0	478674944	46	6682
2026-01-26 16:03:34.20	36.38	34.79	-36.9	-38.2	28.7	3.02e+01	45	28	0	480772096	46	6963
2026-01-26 16:03:35.21	36.56	35.04	-37.1	-38.4	28.5	3.02e+01	58	28	0	482344960	48	6386
2026-01-26 16:03:36.22	36.74	35.29	-37.1	-38.3	28.6	3.02e+01	58	28	0	484442112	48	6340
2026-01-26 16:03:37.23	36.92	35.53	-37.0	-38.2	28.7	3.02e+01	45	28	0	486539264	48	6266
2026-01-26 16:03:38.24	37.11	35.79	-37.2	-38.4	28.4	3.02e+01	59	28	0	488112128	48	6423
2026-01-26 16:03:39.25	37.30	36.04	-37.6	-38.9	28.0	3.02e+01	58	28	0	490209280	48	6771
2026-01-26 16:03:40.26	37.50	36.29	-37.7	-39.0	28.0	3.02e+01	55	28	0	491782144	48	6829
2026-01-26 16:03:41.27	37.69	36.55	-37.8	-39.0	27.9	3.02e+01	60	28	0	493879296	48	6862
2026-01-26 16:03:42.28	37.89	36.81	-38.2	-39.5	27.6	3.02e+01	58	28	0	495976448	50	6450
2026-01-26 16:03:43.29	38.09	37.07	-37.8	-39.1	28.1	3.02e+01	60	28	0	497549312	50	6135
2026-01-26 16:03:44.30	38.30	37.33	-37.9	-39.2	27.9	3.02e+01	61	28	0	499646464	50	6236
2026-01-26 16:03:45.31	38.51	37.59	-38.1	-39.4	27.7	3.02e+01	46	28	0	501219328	50	6356
2026-01-26 16:03:46.32	38.72	37.86	-37.9	-39.1	27.9	3.02e+01	63	28	0	503316480	50	6204
2026-01-26 16:03:47.33	38.94	38.12	-38.0	-39.4	27.7	3.02e+01	60	28	0	505413632	50	6352
2026-01-26 16:03:48.34	39.16	38.39	-37.9	-39.2	27.8	3.02e+01	58	28	0	506986496	50	6244
2026-01-26 16:03:49.35	39.38	38.66	-37.8	-39.1	27.9	3.02e+01	58	28	0	509083648	50	6190
2026-01-26 16:03:50.36	39.61	38.94	-37.7	-39.0	28.0	3.02e+01	57	28	0	510656512	50	6097
2026-01-26 16:03:51.37	39.84	39.21	-37.6	-38.9	28.1	3.02e+01	61	28	0	512753664	50	6053
2026-01-26 16:03:52.37	40.07	39.48	-37.7	-39.0	28.0	3.02e+01	59	28	0	514850816	50	6126
2026-01-26 16:03:53.38	40.31	39.76	-37.8	-39.1	28.0	3.02e+01	46	28	0	516423680	50	6163
2026-01-26 16:03:54.39	40.55	40.04	-37.6	-38.9	28.1	3.02e+01	60	28	0	518520832	50	5999
2026-01-26 16:03:55.40	40.80	40.32	-37.4	-38.6	28.3	3.02e+01	59	28	0	520093696	50	5837
2026-01-26 16:03:56.41	41.05	40.61	-37.4	-38.7	28.3	3.02e+01	59	28	0	522190848	50	5866
2026-01-26 16:03:57.42	41.31	40.89	-36.7	-37.9	29.0	3.02e+01	56	28	0	524288000	48	6047
2026-01-26 16:03:58.42	41.57	41.17	-36.9	-38.1	28.9	3.02e+01	51	28	0	525860864	48	6164
2026-01-26 16:03:59.43	41.83	41.46	-36.9	-38.2	28.8	3.02e+01	59	28	0	527958016	48	6243
2026-01-26 16:04:00.44	42.10	41.75	-36.7	-37.9	28.9	3.02e+01	59	28	0	530055168	48	6049
2026-01-26 16:04:01.45	42.38	42.05	-36.3	-37.5	29.3	3.02e+01	56	28	0	531628032	48	5738
2026-01-26 16:04:02.46	42.66	42.34	-36.3	-37.5	29.4	3.02e+01	60	28	0	533725184	48	5737
2026-01-26 16:04:03.47	42.95	42.64	-36.1	-37.3	29.5	3.02e+01	45	28	0	535298048	48	5628
2026-01-26 16:04:04.48	43.24	42.93	-36.0	-37.2	29.5	3.02e+01	60	28	0	537395200	48	5550
2026-01-26 16:04:05.49	43.53	43.23	-36.1	-37.3	29.5	3.02e+01	60	28	0	539492352	48	5627
2026-01-26 16:04:06.50	43.83	43.53	-35.7	-36.9	29.8	3.02e+01	51	28	0	541065216	46	6035
2026-01-26 16:04:07.51	44.14	43.84	-35.7	-36.9	29.8	3.02e+01	57	28	0	543162368	46	6026
2026-01-26 16:04:08.52	44.46	44.14	-35.7	-36.9	29.8	3.02e+01	60	28	0	544735232	46	6041
2026-01-26 16:04:09.53	44.78	44.44	-35.5	-36.7	30.0	3.02e+01	59	28	0	546832384	46	5890
2026-01-26 16:04:10.54	45.10	44.75	-35.7	-36.9	29.8	3.02e+01	56	28	0	548929536	46	6042
2026-01-26 16:04:11.55	45.43	45.06	-35.8	-37.0	29.8	3.02e+01	43	28	0	550502400	46	6121
2026-01-26 16:04:12.56	45.77	45.37	-35.6	-36.8	29.9	3.02e+01	58	28	0	552599552	46	5960
2026-01-26 16:04:13.57	46.12	45.68	-35.5	-36.7	30.0	3.02e+01	59	28	0	554696704	46	5881
2026-01-26 16:04:14.58	46.47	46.00	-35.6	-36.8	29.9	3.02e+01	51	28	0	556269568	46	5939
2026-01-26 16:04:15.58	46.83	46.31	-35.5	-36.7	30.0	3.02e+01	61	28	0	558366720	46	5864
2026-01-26 16:04:16.59	47.19	46.62	-35.4	-36.5	30.2	3.02e+01	61	28	0	559939584	46	5783
2026-01-26 16:04:17.60	47.57	46.94	-35.6	-36.8	29.8	3.02e+01	60	28	0	562036736	46	5977
2026-01-26 16:04:18.61	47.95	47.26	-35.3	-36.4	30.1	3.02e+01	56	28	0	564133888	46	5718
2026-01-26 16:04:19.62	48.34	47.58	-35.4	-36.6	30.1	3.02e+01	52	28	0	565706752	46	5797
2026-01-26 16:04:20.63	48.74	47.90	-35.3	-36.5	30.2	3.02e+01	60	28	0	567803904	46	5757
2026-01-26 16:04:21.64	49.14	48.22	-35.3	-36.4	30.2	3.02e+01	61	28	0	569376768	46	5712
2026-01-26 16:04:22.65	49.56	48.54	-35.3	-36.5	30.2	3.02e+01	51	28	0	571473920	46	5752
2026-01-26 16:04:23.66	49.98	48.86	-35.5	-36.7	30.0	3.02e+01	60	28	0	573046784	46	5899
2026-01-26 16:04:24.67	50.41	49.19	-35.3	-36.4	30.3	3.02e+01	62	28	0	575143936	46	5702
2026-01-26 16:04:25.68	50.86	49.51	-35.5	-36.7	30.1	3.02e+01	59	28	0	577241088	46	5864
2026-01-26 16:04:26.68	51.30	49.84	-35.4	-36.5	30.1	3.02e+01	60	28	0	578813952	46	5791
2026-01-26 16:04:27.70	51.77	50.17	-35.5	-36.6	30.1	3.02e+01	49	28	0	580911104	46	5856
2026-01-26 16:04:28.70	52.23	50.49	-35.6	-36.7	30.0	3.02e+01	57	28	0	583008256	46	5914
2026-01-26 16:04:29.71	52.72	50.82	-35.3	-36.5	30.2	3.02e+01	61	28	0	584581120	46	5760
2026-01-26 16:04:30.72	53.21	51.14	-35.5	-36.7	30.1	3.02e+01	51	28	0	586678272	46	5887
2026-01-26 16:04:31.73	53.71	51.47	-35.5	-36.7	30.0	3.02e+01	58	28	0	588251136	46	5882
2026-01-26 16:04:32.74	54.23	51.80	-35.6	-36.8	29.8	3.02e+01	61	28	0	590348288	46	5970
2026-01-26 16:04:33.75	54.75	52.13	-35.7	-36.9	29.9	3.02e+01	60	28	0	592445440	46	6029
2026-01-26 16:04:34.76	55.29	52.45	-35.8	-37.0	29.9	3.02e+01	57	28	0	594018304	46	6107
2026-01-26 16:04:35.77	55.84	52.78	-35.5	-36.7	30.0	3.02e+01	54	28	0	596115456	46	5881
2026-01-26 16:04:36.78	56.40	53.11	-35.6	-36.7	30.1	3.02e+01	59	28	0	598212608	46	5920
2026-01-26 16:04:37.79	56.97	53.43	-35.5	-36.7	30.0	3.02e+01	64	28	0	599785472	46	5883
2026-01-26 16:04:38.80	57.56	53.76	-35.3	-36.4	30.3	3.02e+01	48	28	0	601882624	46	5721
2026-01-26 16:04:39.81	58.16	54.08	-35.3	-36.5	30.2	3.02e+01	63	28	0	603455488	46	5739
2026-01-26 16:04:40.81	58.77	54.40	-35.3	-36.5	30.3	3.02e+01	45	28	0	605552640	46	5738
2026-01-26 16:04:41.82	59.40	54.73	-35.7	-36.8	30.0	3.02e+01	59	28	0	607649792	46	5994
2026-01-26 16:04:42.83	60.04	55.05	-35.6	-36.7	29.9	3.02e+01	60	28	0	609222656	46	5914
2026-01-26 16:04:43.84	60.70	55.37	-35.7	-36.8	30.0	3.02e+01	47	28	0	611319808	46	5980
2026-01-26 16:04:44.85	61.37	55.68	-36.0	-37.2	29.6	3.02e+01	60	28	0	612892672	46	6240
2026-01-26 16:04:45.86	62.06	56.00	-36.2	-37.4	29.5	3.02e+01	61	28	0	614989824	46	6358
2026-01-26 16:04:46.87	62.77	56.31	-36.4	-37.6	29.3	3.02e+01	57	28	0	617086976	46	6502
2026-01-26 16:04:47.87	63.48	56.62	-36.7	-37.9	28.9	3.02e+01	61	28	0	618659840	46	6791
2026-01-26 16:04:48.88	64.21	56.93	-36.8	-38.1	28.9	3.02e+01	54	28	0	620756992	46	6894
2026-01-26 16:04:49.89	64.97	57.24	-37.1	-38.3	28.6	3.02e+01	58	28	0	622329856	48	6349
2026-01-26 16:04:50.90	65.74	57.54	-37.3	-38.5	28.5	3.02e+01	60	28	0	624427008	48	6481
2026-01-26 16:04:51.91	66.52	57.84	-37.5	-38.7	28.2	3.02e+01	46	28	0	626524160	48	6642
2026-01-26 16:04:52.92	67.33	58.14	-37.4	-38.7	28.3	3.02e+01	58	28	0	628097024	48	6607
2026-01-26 16:04:53.93	68.15	58.43	-37.8	-39.1	27.9	3.02e+01	58	28	0	630194176	48	6959
2026-01-26 16:04:54.94	68.99	58.72	-37.6	-38.9	28.2	3.02e+01	55	28	0	631767040	50	6004
2026-01-26 16:04:55.94	69.84	59.00	-38.0	-39.3	27.7	3.02e+01	59	28	0	633864192	50	6329
2026-01-26 16:04:56.95	70.72	59.28	-37.7	-39.0	28.1	3.02e+01	61	28	0	635961344	50	6081
2026-01-26 16:04:57.96	71.62	59.55	-37.8	-39.1	28.1	3.02e+01	61	28	0	637534208	50	6189
2026-01-26 16:04:58.97	72.53	59.82	-38.0	-39.3	27.8	3.02e+01	60	28	0	639631360	50	6341
2026-01-26 16:04:59.98	73.47	60.09	-38.1	-39.4	27.7	3.02e+01	40	28	0	641204224	50	6416
2026-01-26 16:05:00.99	74.42	60.34	-38.5	-39.8	27.5	3.02e+01	60	28	0	643301376	50	6686
2026-01-26 16:05:02.00	75.40	60.60	-38.5	-39.9	27.3	3.02e+01	61	28	0	645398528	50	6736
2026-01-26 16:05:03.01	76.39	60.84	-38.8	-40.1	27.1	3.02e+01	58	28	0	646971392	50	6938
2026-01-26 16:05:04.02	77.40	61.08	-38.9	-40.2	27.0	3.02e+01	61	28	0	649068544	50	7011
2026-01-26 16:05:05.03	78.43	61.31	-39.1	-40.4	26.8	3.02e+01	49	28	0	651165696	52	6415
2026-01-26 16:05:06.04	79.48	61.54	-39.4	-40.8	26.5	3.02e+01	61	28	0	652738560	52	6673
2026-01-26 16:05:07.05	80.55	61.76	-39.1	-40.5	26.8	3.02e+01	59	28	0	654835712	52	6457
2026-01-26 16:05:08.06	81.64	61.97	-39.4	-40.8	26.5	3.02e+01	45	28	0	656408576	52	6691
2026-01-26 16:05:09.07	82.75	62.17	-39.2	-40.6	26.8	3.02e+01	60	28	0	658505728	52	6532
2026-01-26 16:05:10.08	83.87	62.36	-39.6	-41.0	26.3	3.02e+01	54	28	0	660602880	52	6866
2026-01-26 16:05:11.08	85.00	62.54	-39.3	-40.6	26.6	3.02e+01	58	28	0	662175744	52	6546
2026-01-26 16:05:12.09	86.16	62.72	-39.3	-40.7	26.6	3.02e+01	60	28	0	664272896	52	6598
2026-01-26 16:05:13.10	87.34	62.88	-39.9	-41.4	25.8	3.02e+01	49	28	0	665845760	52	7141
2026-01-26 16:05:14.11	88.53	63.04	-39.7	-41.1	26.1	3.02e+01	60	28	0	667942912	54	6199
2026-01-26 16:05:15.12	89.74	63.18	-40.3	-41.8	25.7	3.02e+01	59	28	0	670040064	54	6667
2026-01-26 16:05:16.13	90.96	63.32	-39.6	-41.0	26.3	3.02e+01	58	28	0	671612928	54	6132
2026-01-26 16:05:17.13	92.18	63.44	-39.6	-41.0	26.2	3.02e+01	58	28	0	673710080	54	6127
2026-01-26 16:05:18.14	93.43	63.56	-39.3	-40.7	26.5	3.02e+01	48	28	0	675282944	54	5879
2026-01-26 16:05:19.15	94.69	63.66	-39.7	-41.1	26.2	3.02e+01	59	28	0	677380096	54	6170
2026-01-26 16:05:20.16	95.96	63.75	-39.4	-40.8	26.5	3.02e+01	59	28	0	679477248	54	5943
2026-01-26 16:05:21.17	97.24	63.83	-39.8	-41.2	26.1	3.02e+01	44	28	0	681050112	54	6256
2026-01-26 16:05:22.18	98.52	63.90	-39.1	-40.5	26.8	3.02e+01	61	28	0	683147264	54	5748
2026-01-26 16:05:23.19	99.82	63.96	-39.5	-40.9	26.4	3.02e+01	59	28	0	684720128	54	6012
2026-01-26 16:05:24.20	101.12	64.01	-38.9	-40.3	27.0	3.02e+01	57	28	0	686817280	52	6296
2026-01-26 16:05:25.21	102.43	64.04	-39.3	-40.7	26.6	3.02e+01	57	28	0	688914432	52	6601
2026-01-26 16:05:26.22	103.73	64.07	-38.9	-40.3	27.0	3.02e+01	45	28	0	690487296	52	6296
2026-01-26 16:05:27.23	105.04	64.08	-39.3	-40.6	26.6	3.02e+01	58	28	0	692584448	52	6568
2026-01-26 16:05:28.24	106.36	64.07	-38.8	-40.2	27.1	3.02e+01	59	28	0	694681600	52	6225
2026-01-26 16:05:29.25	107.67	64.06	-39.0	-40.4	26.9	3.02e+01	45	28	0	696254464	52	6369
2026-01-26 16:05:30.26	108.97	64.04	-38.8	-40.1	27.1	3.02e+01	59	28	0	698351616	52	6161
2026-01-26 16:05:31.27	110.28	64.00	-39.1	-40.5	26.7	3.02e+01	62	28	0	699924480	52	6474
2026-01-26 16:05:32.28	111.58	63.95	-38.9	-40.3	27.0	3.02e+01	59	28	0	702021632	52	6313
2026-01-26 16:05:33.28	112.86	63.89	-39.0	-40.3	26.9	3.02e+01	61	28	0	704118784	52	6317
2026-01-26 16:05:34.30	114.16	63.82	-38.8	-40.2	27.1	3.02e+01	60	28	0	705691648	52	6216
2026-01-26 16:05:35.30	115.42	63.73	-38.9	-40.2	27.1	3.02e+01	59	28	0	707788800	52	6249
2026-01-26 16:05:36.31	116.69	63.64	-38.9	-40.2	27.1	3.02e+01	62	28	0	709361664	52	6251
2026-01-26 16:05:37.32	117.95	63.53	-38.4	-39.7	27.5	3.02e+01	46	28	0	711458816	52	5866
2026-01-26 16:05:38.33	119.20	63.42	-38.8	-40.1	27.1	3.02e+01	59	28	0	713555968	52	6200
2026-01-26 16:05:39.34	120.43	63.29	-38.6	-39.9	27.1	3.02e+01	59	28	0	715128832	52	6054
2026-01-26 16:05:40.35	121.65	63.15	-38.6	-39.9	27.4	3.02e+01	60	28	0	717225984	52	6035
2026-01-26 16:05:41.36	122.85	63.00	-38.2	-39.4	27.6	3.02e+01	54	28	0	718798848	52	5717
2026-01-26 16:05:42.37	124.04	62.84	-38.6	-39.9	27.4	3.02e+01	57	28	0	720896000	52	6037
2026-01-26 16:05:43.38	125.21	62.68	-37.8	-39.1	28.0	3.02e+01	60	28	0	722993152	50	6141
2026-01-26 16:05:44.39	126.37	62.50	-37.7	-39.0	28.0	3.02e+01	59	28	0	724566016	50	6122
2026-01-26 16:05:45.40	127.51	62.31	-38.0	-39.3	27.8	3.02e+01	46	28	0	726663168	50	6315
2026-01-26 16:05:46.41	128.63	62.12	-38.7	-40.1	27.0	3.02e+01	58	28	0	728236032	50	6931
2026-01-26 16:05:47.42	129.73	61.91	-37.7	-38.9	28.1	3.02e+01	52	28	0	730333184	50	6041
2026-01-26 16:05:48.43	130.82	61.70	-37.5	-38.8	28.2	3.02e+01	59	28	0	732430336	50	5941
2026-01-26 16:05:49.44	131.89	61.48	-37.6	-38.8	28.1	3.02e+01	57	28	0	734003200	50	5989
2026-01-26 16:05:50.44	132.92	61.26	-37.4	-38.6	28.4	3.02e+01	51	28	0	736100352	50	5827
2026-01-26 16:05:51.45	133.95	61.02	-37.3	-38.5	28.5	3.02e+01	61	28	0	737673216	50	5778
2026-01-26 16:05:52.46	134.96	60.78	-37.2	-38.5	28.5	3.02e+01	59	28	0	739770368	50	5734
2026-01-26 16:05:53.47	135.95	60.54	-37.2	-38.5	28.5	3.02e+01	56	28	0	741867520	50	5739
2026-01-26 16:05:54.48	136.92	60.28	-37.3	-38.6	28.4	3.02e+01	63	28	0	743440384	50	5812
2026-01-26 16:05:55.49	137.87	60.02	-37.2	-38.5	28.4	3.02e+01	54	28	0	745537536	50	5742
2026-01-26 16:05:56.50	138.80	59.75	-37.1	-38.3	28.6	3.02e+01	60	28	0	747634688	50	5657
2026-01-26 16:05:57.51	139.71	59.48	-37.7	-39.0	28.2	3.02e+01	58	28	0	749207552	50	6068
2026-01-26 16:05:58.52	140.61	59.21	-37.2	-38.5	28.5	3.02e+01	47	28	0	751304704	50	5754
2026-01-26 16:05:59.52	141.47	58.93	-37.1	-38.3	28.7	3.02e+01	59	28	0	752877568	50	5646
2026-01-26 16:06:00.53	142.33	58.64	-37.3	-38.5	28.5	3.02e+01	52	28	0	754974720	50	5785
2026-01-26 16:06:01.54	143.17	58.35	-37.0	-38.3	28.6	3.02e+01	61	28	0	757071872	50	5619
2026-01-26 16:06:02.55	143.99	58.06	-36.8	-38.0	28.9	3.02e+01	60	28	0	758644736	48	6112
2026-01-26 16:06:03.56	144.79	57.76	-36.9	-38.1	28.8	3.02e+01	59	28	0	760741888	48	6189
2026-01-26 16:06:04.57	145.57	57.46	-37.0	-38.2	28.6	3.02e+01	61	28	0	762839040	48	6269
2026-01-26 16:06:05.58	146.34	57.16	-36.5	-37.8	29.1	3.02e+01	58	28	0	764411904	48	5927
2026-01-26 16:06:06.59	147.09	56.85	-36.1	-37.3	29.5	3.02e+01	47	28	0	766509056	48	5630
2026-01-26 16:06:07.60	147.82	56.54	-36.1	-37.3	29.5	3.02e+01	58	28	0	768081920	48	5647
2026-01-26 16:06:08.61	148.54	56.23	-36.4	-37.6	29.2	3.02e+01	56	28	0	770179072	48	5841
2026-01-26 16:06:09.62	149.24	55.91	-36.4	-37.6	29.4	3.02e+01	60	28	0	772276224	48	5854
2026-01-26 16:06:10.64	149.94	55.59	-36.1	-37.3	29.4	3.02e+01	57	28	0	773849088	46	6307
2026-01-26 16:06:11.64	150.60	55.27	-35.3	-36.4	30.3	3.02e+01	52	28	0	775946240	46	5722
2026-01-26 16:06:12.65	151.25	54.95	-35.6	-36.8	30.0	3.02e+01	60	28	0	777519104	46	5936
2026-01-26 16:06:13.66	151.89	54.63	-35.8	-37.1	29.7	3.02e+01	59	28	0	779616256	46	6139
2026-01-26 16:06:14.67	152.52	54.31	-35.7	-36.9	29.8	3.02e+01	46	28	0	781713408	46	6038
2026-01-26 16:06:15.68	153.13	53.98	-35.7	-36.9	29.9	3.02e+01	61	28	0	783286272	46	6006
2026-01-26 16:06:16.69	153.73	53.66	-35.5	-36.7	29.9	3.02e+01	60	28	0	785383424	46	5894
2026-01-26 16:06:17.70	154.32	53.33	-35.3	-36.5	30.3	3.02e+01	55	28	0	786956288	46	5726
2026-01-26 16:06:18.71	154.89	53.00	-35.9	-37.1	29.8	3.02e+01	59	28	0	789053440	46	6165
2026-01-26 16:06:19.72	155.45	52.68	-36.1	-37.3	29.5	3.02e+01	50	28	0	791150592	46	6308
2026-01-26 16:06:20.72	155.99	52.35	-35.9	-37.1	29.7	3.02e+01	56	28	0	792723456	46	6172
2026-01-26 16:06:21.73	156.52	52.02	-36.0	-37.2	29.5	3.02e+01	55	28	0	794820608	46	6227
2026-01-26 16:06:22.74	157.05	51.69	-35.9	-37.1	29.7	3.02e+01	49	28	0	796393472	46	6170
2026-01-26 16:06:23.75	157.56	51.36	-36.1	-37.3	29.6	3.02e+01	57	28	0	798490624	46	6308
2026-01-26 16:06:24.76	158.06	51.04	-36.2	-37.4	29.4	3.02e+01	47	28	0	800587776	46	6394
2026-01-26 16:06:25.77	158.55	50.71	-36.6	-37.8	29.1	3.02e+01	59	28	0	802160640	46	6704
2026-01-26 16:06:26.78	159.03	50.38	-36.9	-38.2	28.8	3.02e+01	59	28	0	804257792	46	6989
2026-01-26 16:06:27.79	159.50	50.05	-36.8	-38.0	28.9	3.02e+01	55	28	0	805830656	46	6844
2026-01-26 16:06:28.80	159.96	49.72	-36.3	-37.5	29.3	3.02e+01	61	28	0	807927808	46	6456
2026-01-26 16:06:29.81	160.41	49.40	-36.3	-37.5	29.4	3.02e+01	55	28	0	810024960	46	6450
2026-01-26 16:06:30.82	160.85	49.07	-36.9	-38.2	28.8	3.02e+01	60	28	0	811597824	46	6967
2026-01-26 16:06:31.83	161.28	48.75	-36.9	-38.2	28.7	3.02e+01	59	28	0	813694976	48	6216
2026-01-26 16:06:32.83	161.70	48.43	-36.5	-37.7	29.1	3.02e+01	48	28	0	815792128	48	5884
2026-01-26 16:06:33.84	162.11	48.10	-36.6	-37.8	29.1	3.02e+01	63	28	0	817364992	48	5975
2026-01-26 16:06:34.85	162.51	47.78	-36.8	-38.1	28.9	3.02e+01	61	28	0	819462144	48	6149
2026-01-26 16:06:35.86	162.91	47.46	-36.7	-37.9	29.1	3.02e+01	45	28	0	821035008	48	6034
2026-01-26 16:06:36.87	163.30	47.14	-36.9	-38.1	29.0	3.02e+01	59	28	0	823132160	48	6191
2026-01-26 16:06:37.88	163.68	46.82	-36.9	-38.1	28.9	3.02e+01	63	28	0	825229312	48	6166
2026-01-26 16:06:38.89	164.05	46.50	-36.8	-38.1	28.9	3.02e+01	61	28	0	826802176	48	6148
2026-01-26 16:06:39.90	164.42	46.19	-36.8	-38.1	28.9	3.02e+01	60	28	0	828899328	48	6153
2026-01-26 16:06:40.91	164.78	45.87	-36.7	-38.0	28.9	3.02e+01	57	28	0	830996480	48	6084
2026-01-26 16:06:41.92	165.13	45.56	-36.8	-38.0	29.1	3.02e+01	58	28	0	832569344	48	6099
2026-01-26 16:06:42.93	165.47	45.24	-36.5	-37.8	29.2	3.02e+01	60	28	0	834666496	48	5932
2026-01-26 16:06:43.94	165.81	44.93	-36.6	-37.9	29.0	3.02e+01	44	28	0	836239360	48	6009
2026-01-26 16:06:44.95	166.14	44.62	-36.3	-37.5	29.5	3.02e+01	58	28	0	838336512	48	5759
2026-01-26 16:06:45.96	166.46	44.32	-36.3	-37.5	29.4	3.02e+01	60	28	0	840433664	48	5778
2026-01-26 16:06:46.97	166.78	44.01	-36.3	-37.5	29.4	3.02e+01	65	28	0	842006528	48	5772
2026-01-26 16:06:47.98	167.09	43.71	-36.4	-37.6	29.4	3.02e+01	62	28	0	844103680	48	5797
2026-01-26 16:06:48.99	167.40	43.40	-36.5	-37.7	29.1	3.02e+01	48	28	0	845676544	48	5892
2026-01-26 16:06:50.00	167.70	43.10	-36.4	-37.6	29.2	3.02e+01	58	28	0	847773696	48	5848
2026-01-26 16:06:51.01	168.00	42.80	-36.3	-37.5	29.3	3.02e+01	59	28	0	849870848	48	5781
2026-01-26 16:06:52.02	168.29	42.50	-36.4	-37.6	29.2	3.02e+01	45	28	0	851443712	48	5851
2026-01-26 16:06:53.03	168.57	42.21	-36.6	-37.9	29.0	3.02e+01	61	28	0	853540864	48	6016
2026-01-26 16:06:54.04	168.85	41.91	-36.7	-37.9	29.0	3.02e+01	56	28	0	855113728	48	6042
2026-01-26 16:06:55.05	169.12	41.62	-36.7	-37.9	28.9	3.02e+01	58	28	0	857210880	48	6024
2026-01-26 16:06:56.06	169.39	41.33	-36.8	-38.0	29.0	3.02e+01	61	28	0	859308032	48	6106
2026-01-26 16:06:57.07	169.66	41.04	-36.8	-38.0	29.0	3.02e+01	48	28	0	860880896	48	6107
2026-01-26 16:06:58.08	169.92	40.75	-36.9	-38.1	28.8	3.02e+01	59	28	0	862978048	48	6200
2026-01-26 16:06:59.09	170.17	40.47	-37.2	-38.5	28.5	3.02e+01	58	28	0	864550912	48	6459
2026-01-26 16:07:00.10	170.42	40.18	-37.4	-38.7	28.4	3.02e+01	52	28	0	866648064	48	6594
2026-01-26 16:07:01.11	170.67	39.90	-37.0	-38.2	28.7	3.02e+01	61	28	0	868745216	48	6236
2026-01-26 16:07:02.11	170.91	39.62	-36.9	-38.1	28.9	3.02e+01	57	28	0	870318080	48	6175
2026-01-26 16:07:03.12	171.15	39.34	-37.0	-38.3	28.8	3.02e+01	58	28	0	872415232	48	6298
2026-01-26 16:07:04.13	171.38	39.07	-37.2	-38.5	28.7	3.02e+01	59	28	0	873988096	48	6448
2026-01-26 16:07:05.14	171.61	38.79	-37.3	-38.6	28.5	3.02e+01	51	28	0	876085248	48	6499
2026-01-26 16:07:06.15	171.84	38.52	-37.4	-38.7	28.4	3.02e+01	58	28	0	878182400	48	6591
2026-01-26 16:07:07.16	172.06	38.25	-37.2	-38.5	28.4	3.02e+01	58	28	0	879755264	48	6458
2026-01-26 16:07:08.17	172.28	37.98	-36.9	-38.1	28.8	3.02e+01	61	28	0	881852416	48	6189
2026-01-26 16:07:09.18	172.49	37.71	-36.6	-37.8	29.2	3.02e+01	57	28	0	883949568	48	5976
2026-01-26 16:07:10.19	172.71	37.45	-36.6	-37.8	29.1	3.02e+01	44	28	0	885522432	48	5983
2026-01-26 16:07:11.20	172.91	37.18	-36.4	-37.6	29.4	3.02e+01	60	28	0	887619584	48	5808
2026-01-26 16:07:12.21	173.12	36.92	-36.3	-37.5	29.4	3.02e+01	59	28	0	889192448	48	5731
2026-01-26 16:07:13.22	173.32	36.66	-36.2	-37.3	29.5	3.02e+01	45	28	0	891289600	48	5659
2026-01-26 16:07:14.23	173.52	36.40	-36.4	-37.6	29.3	3.02e+01	58	28	0	893386752	48	5838
2026-01-26 16:07:15.24	173.72	36.14	-36.6	-37.8	29.1	3.02e+01	60	28	0	894959616	48	5973
2026-01-26 16:07:16.25	173.91	35.89	-36.8	-38.0	29.3	3.02e+01	61	28	0	897056768	48	6134
2026-01-26 16:07:17.26	174.10	35.64	-36.5	-37.7	29.3	3.02e+01	63	28	0	898629632	48	5891
2026-01-26 16:07:18.27	174.28	35.38	-36.6	-37.8	29.2	3.02e+01	58	28	0	900726784	48	5950
2026-01-26 16:07:19.28	174.47	35.14	-36.1	-37.3	29.7	3.02e+01	60	28	0	902823936	48	5597
2026-01-26 16:07:20.29	174.65	34.89	-35.6	-36.8	30.0	3.02e+01	54	28	0	904396800	46	5974
2026-01-26 16:07:21.29	174.83	34.64	-35.5	-36.7	29.9	3.02e+01	46	28	0	906493952	46	5891
2026-01-26 16:07:22.30	175.00	34.40	-35.4	-36.6	30.3	3.02e+01	59	28	0	908066816	46	5829
2026-01-26 16:07:23.31	175.17	34.16	-35.4	-36.6	30.2	3.02e+01	62	28	0	910163968	46	5811
2026-01-26 16:07:24.32	175.34	33.92	-35.6	-36.8	30.0	3.02e+01	59	28	0	912261120	46	5929
2026-01-26 16:07:25.33	175.51	33.68	-35.5	-36.7	30.1	3.02e+01	62	28	0	913833984	46	5892
2026-01-26 16:07:26.33	175.68	33.44	-35.6	-36.8	30.0	3.02e+01	58	28	0	915931136	46	5971
2026-01-26 16:07:27.34	175.84	33.21	-35.4	-36.6	30.1	3.02e+01	58	28	0	917504000	46	5829
2026-01-26 16:07:28.35	176.00	32.97	-35.1	-36.3	30.4	3.02e+01	61	28	0	919601152	46	5611
2026-01-26 16:07:29.36	176.16	32.74	-35.1	-36.2	30.3	3.02e+01	53	28	0	921698304	46	5584
2026-01-26 16:07:30.37	176.32	32.51	-34.9	-36.1	30.5	3.02e+01	58	28	0	923271168	46	5490
2026-01-26 16:07:31.38	176.47	32.28	-34.9	-36.0	30.4	3.02e+01	60	28	0	925368320	44	6121
2026-01-26 16:07:32.39	176.62	32.05	-34.9	-36.1	30.5	3.02e+01	59	28	0	927465472	44	6166
2026-01-26 16:07:33.39	176.77	31.83	-35.0	-36.1	30.4	3.02e+01	58	28	0	929038336	44	6205
2026-01-26 16:07:34.40	176.92	31.61	-34.9	-36.1	30.3	3.02e+01	45	28	0	931135488	44	6177
2026-01-26 16:07:35.41	177.06	31.38	-34.9	-36.1	30.4	3.02e+01	60	28	0	932708352	44	6164
2026-01-26 16:07:36.42	177.21	31.16	-34.7	-35.9	30.5	3.02e+01	58	28	0	934805504	44	6008
2026-01-26 16:07:37.43	177.35	30.94	-34.6	-35.7	30.6	3.02e+01	59	28	0	936902656	44	5910
2026-01-26 16:07:38.44	177.49	30.73	-34.7	-35.9	30.6	3.02e+01	61	28	0	938475520	44	6005
2026-01-26 16:07:39.45	177.63	30.51	-34.7	-35.9	30.6	3.02e+01	60	28	0	940572672	44	5995
2026-01-26 16:07:40.46	177.76	30.30	-34.8	-36.0	30.5	3.02e+01	59	28	0	942145536	44	6096
2026-01-26 16:07:41.47	177.90	30.08	-34.8	-35.9	30.5	3.02e+01	58	28	0	944242688	44	6054
2026-01-26 16:07:42.48	178.03	29.87	-35.1	-36.2	30.4	3.02e+01	44	28	0	946339840	44	6270
2026-01-26 16:07:43.49	178.16	29.66	-35.1	-36.2	30.3	3.02e+01	59	28	0	947912704	44	6248
2026-01-26 16:07:44.50	178.29	29.45	-35.1	-36.3	30.2	3.02e+01	62	28	0	950009856	44	6326
2026-01-26 16:07:45.51	178.42	29.25	-35.3	-36.5	30.1	3.02e+01	56	28	0	952107008	44	6426
2026-01-26 16:07:46.52	178.54	29.04	-35.3	-36.5	30.0	3.02e+01	59	28	0	953679872	44	6446
2026-01-26 16:07:47.53	178.67	28.84	-35.4	-36.6	29.9	3.02e+01	50	28	0	955777024	44	6525
2026-01-26 16:07:48.54	178.79	28.63	-35.4	-36.6	30.0	3.02e+01	56	28	0	957349888	44	6528
2026-01-26 16:07:49.55	178.91	28.43	-35.5	-36.6	29.9	3.02e+01	61	28	0	959447040	44	6566
2026-01-26 16:07:50.56	179.03	28.23	-35.4	-36.6	29.9	3.02e+01	48	28	0	961544192	44	6528
2026-01-26 16:07:51.57	179.15	28.03	-35.3	-36.5	30.1	3.02e+01	60	28	0	963117056	44	6426
2026-01-26 16:07:52.57	179.27	27.84	-35.3	-36.5	30.0	3.02e+01	57	28	0	965214208	44	6453
2026-01-26 16:07:53.59	179.38	27.64	-35.4	-36.5	30.0	3.02e+01	61	28	0	966787072	44	6488
2026-01-26 16:07:54.59	179.50	27.45	-35.3	-36.5	30.1	3.02e+01	57	28	0	968884224	44	6436
2026-01-26 16:07:55.61	179.61	27.26	-35.4	-36.6	30.0	3.02e+01	59	28	0	970457088	44	6510
2026-01-26 16:07:56.62	179.72	27.06	-35.6	-36.7	29.9	3.02e+01	59	28	0	972554240	44	6638
2026-01-26 16:07:57.62	179.83	26.88	-35.6	-36.8	29.8	3.02e+01	58	28	0	974651392	44	6663
2026-01-26 16:07:58.63	179.94	26.69	-35.6	-36.8	29.8	3.02e+01	48	28	0	976224256	44	6682
2026-01-26 16:07:59.64	180.05	26.50	-35.7	-36.8	29.8	3.02e+01	60	28	0	978321408	44	6708
2026-01-26 16:08:00.65	180.15	26.31	-35.7	-36.9	29.7	3.02e+01	55	28	0	980418560	44	6746
2026-01-26 16:08:01.66	180.26	26.13	-35.8	-37.0	29.6	3.02e+01	60	28	0	981991424	44	6877
2026-01-26 16:08:02.67	180.36	25.94	-35.9	-37.1	29.6	3.02e+01	59	28	0	984088576	44	6884
2026-01-26 16:08:03.68	180.47	25.76	-35.7	-36.9	29.7	3.02e+01	54	28	0	985661440	44	6775
2026-01-26 16:08:04.69	180.57	25.58	-35.9	-37.1	29.6	3.02e+01	57	28	0	987758592	46	6153
2026-01-26 16:08:05.69	180.67	25.40	-36.0	-37.2	29.5	3.02e+01	60	28	0	989855744	46	6231
2026-01-26 16:08:06.70	180.77	25.22	-36.1	-37.3	29.3	3.02e+01	45	28	0	991428608	46	6306
2026-01-26 16:08:07.71	180.86	25.05	-36.1	-37.3	29.3	3.02e+01	62	28	0	993525760	46	6298
2026-01-26 16:08:08.73	180.96	24.87	-36.0	-37.2	29.4	3.02e+01	59	28	0	995622912	46	6260
2026-01-26 16:08:09.73	181.06	24.70	-36.2	-37.4	29.2	3.02e+01	59	28	0	997195776	46	6413
2026-01-26 16:08:10.74	181.15	24.52	-36.1	-37.3	29.3	3.02e+01	58	28	0	999292928	46	6333
2026-01-26 16:08:11.75	181.24	24.35	-36.4	-37.6	29.0	3.02e+01	58	28	0	1000865792	46	6545
2026-01-26 16:08:12.76	181.34	24.18	-36.6	-37.8	28.9	3.02e+01	60	28	0	1002962944	46	6726
2026-01-26 16:08:13.77	181.43	24.01	-36.7	-37.9	28.9	3.02e+01	60	28	0	1005060096	46	6764
2026-01-26 16:08:14.77	181.52	23.84	-36.6	-37.9	29.0	3.02e+01	47	28	0	1006632960	46	6739
2026-01-26 16:08:15.78	181.61	23.67	-36.5	-37.8	29.0	3.02e+01	60	28	0	1008730112	46	6662
2026-01-26 16:08:16.79	181.70	23.50	-36.3	-37.5	29.1	3.02e+01	50	28	0	1010302976	46	6472
2026-01-26 16:08:17.80	181.79	23.34	-36.3	-37.5	29.2	3.02e+01	61	28	0	1012400128	46	6458
2026-01-26 16:08:18.81	181.87	23.17	-36.5	-37.7	28.9	3.02e+01	59	28	0	1014497280	46	6649
2026-01-26 16:08:19.82	181.96	23.01	-36.2	-37.4	29.2	3.02e+01	54	28	0	1016070144	46	6376
2026-01-26 16:08:20.83	182.04	22.85	-36.2	-37.4	29.3	3.02e+01	60	28	0	1018167296	46	6367
2026-01-26 16:08:21.84	182.13	22.68	-36.0	-37.2	29.5	3.02e+01	62	28	0	1019740160	46	6222
2026-01-26 16:08:22.85	182.21	22.52	-36.0	-37.1	29.5	3.02e+01	59	28	0	1021837312	46	6200
2026-01-26 16:08:23.86	182.29	22.36	-36.1	-37.3	29.4	3.02e+01	61	28	0	1023934464	46	6280
2026-01-26 16:08:24.87	182.38	22.21	-36.1	-37.3	29.3	3.02e+01	54	28	0	1025507328	46	6336
2026-01-26 16:08:25.88	182.46	22.05	-36.0	-37.2	29.5	3.02e+01	60	28	0	1027604480	46	6219
2026-01-26 16:08:26.89	182.54	21.89	-35.9	-37.0	29.6	3.02e+01	59	28	0	1029177344	46	6126
2026-01-26 16:08:27.89	182.62	21.74	-35.9	-37.1	29.6	3.02e+01	45	28	0	1031274496	46	6145
2026-01-26 16:08:28.90	182.69	21.58	-35.8	-37.0	29.7	3.02e+01	57	28	0	1033371648	46	6124
2026-01-26 16:08:29.91	182.77	21.43	-36.0	-37.2	29.6	3.02e+01	61	28	0	1034944512	46	6228
2026-01-26 16:08:30.92	182.85	21.28	-36.0	-37.2	29.6	3.02e+01	61	28	0	1037041664	46	6253
2026-01-26 16:08:31.93	182.93	21.12	-36.0	-37.2	29.6	3.02e+01	59	28	0	1038614528	46	6249
2026-01-26 16:08:32.94	183.00	20.97	-36.1	-37.3	29.4	3.02e+01	53	28	0	1040711680	46	6328
2026-01-26 16:08:33.95	183.08	20.82	-36.2	-37.4	29.4	3.02e+01	56	28	0	1042808832	46	6402
2026-01-26 16:08:34.96	183.15	20.68	-36.0	-37.2	29.5	3.02e+01	61	28	0	1044381696	46	6256
2026-01-26 16:08:35.97	183.22	20.53	-36.0	-37.3	29.4	3.02e+01	51	28	0	1046478848	46	6283
2026-01-26 16:08:36.97	183.30	20.38	-36.1	-37.3	29.4	3.02e+01	58	28	0	1048576000	46	6331
2026-01-26 16:08:37.98	183.37	20.24	-36.2	-37.5	29.2	3.02e+01	60	28	0	1050148864	46	6430
2026-01-26 16:08:38.99	183.44	20.09	-36.0	-37.2	29.4	3.02e+01	60	28	0	1052246016	46	6249
2026-01-26 16:08:40.01	183.51	19.94	-36.1	-37.3	29.3	3.02e+01	59	28	0	1053818880	46	6335
2026-01-26 16:08:41.01	183.58	19.80	-35.9	-37.2	29.5	3.02e+01	50	28	0	1055916032	46	6206
2026-01-26 16:08:42.02	183.65	19.66	-35.9	-37.1	29.6	3.02e+01	61	28	0	1058013184	46	6154
2026-01-26 16:08:43.03	183.72	19.52	-36.0	-37.2	29.5	3.02e+01	50	28	0	1059586048	46	6238
2026-01-26 16:08:44.04	183.79	19.38	-36.0	-37.2	29.5	3.02e+01	46	28	0	1061683200	46	6231
2026-01-26 16:08:45.05	183.85	19.24	-36.0	-37.2	29.5	3.02e+01	59	28	0	1063256064	46	6240
2026-01-26 16:08:46.06	183.92	19.10	-36.1	-37.3	29.4	3.02e+01	57	28	0	1065353216	46	6306
2026-01-26 16:08:47.07	183.99	18.96	-36.0	-37.2	29.5	3.02e+01	55	28	0	1067450368	46	6221
2026-01-26 16:08:48.07	184.05	18.82	-35.8	-37.0	29.5	3.02e+01	58	28	0	1069023232	46	6102
2026-01-26 16:08:49.08	184.12	18.69	-36.0	-37.2	29.4	3.02e+01	51	28	0	1071120384	46	6221
2026-01-26 16:08:50.09	184.18	18.55	-35.7	-36.9	29.6	3.02e+01	62	28	0	1072693248	46	6045
2026-01-26 16:08:51.10	184.25	18.41	-35.7	-36.9	29.7	3.02e+01	57	28	0	1074790400	46	6018
2026-01-26 16:08:52.11	184.31	18.28	-35.7	-36.9	29.7	3.02e+01	53	28	0	1076887552	46	6024
2026-01-26 16:08:53.12	184.37	18.15	-35.5	-36.7	29.8	3.02e+01	61	28	0	1078460416	46	5911
2026-01-26 16:08:54.13	184.43	18.01	-35.5	-36.7	29.7	3.02e+01	57	28	0	1080557568	46	5902
2026-01-26 16:08:55.14	184.50	17.88	-35.5	-36.7	29.8	3.02e+01	60	28	0	1082130432	46	5900
2026-01-26 16:08:56.15	184.56	17.75	-35.6	-36.8	29.6	3.02e+01	61	28	0	1084227584	46	5979
2026-01-26 16:08:57.16	184.62	17.62	-35.6	-36.8	29.6	3.02e+01	45	28	0	1086324736	46	5975
2026-01-26 16:08:58.17	184.68	17.49	-35.6	-36.8	29.7	3.02e+01	57	28	0	1087897600	46	5946
2026-01-26 16:08:59.18	184.74	17.36	-35.8	-37.0	29.5	3.02e+01	59	28	0	1089994752	46	6116
2026-01-26 16:09:00.19	184.80	17.23	-35.7	-36.9	29.6	3.02e+01	57	28	0	1091567616	46	6026
2026-01-26 16:09:01.19	184.85	17.10	-35.7	-36.9	29.5	3.02e+01	62	28	0	1093664768	46	6057
2026-01-26 16:09:02.20	184.91	16.98	-35.7	-36.9	29.6	3.02e+01	45	28	0	1095761920	46	6034
2026-01-26 16:09:03.21	184.97	16.85	-35.7	-36.9	29.6	3.02e+01	61	28	0	1097334784	46	6042
2026-01-26 16:09:04.22	185.03	16.72	-35.6	-36.9	29.6	3.02e+01	58	28	0	1099431936	46	5997
2026-01-26 16:09:05.23	185.08	16.60	-35.6	-36.8	29.7	3.02e+01	39	28	0	1101529088	46	5967
2026-01-26 16:09:06.24	185.14	16.48	-35.7	-36.9	29.6	3.02e+01	60	28	0	1103101952	46	6052
2026-01-26 16:09:07.25	185.20	16.35	-35.7	-36.9	29.6	3.02e+01	58	28	0	1105199104	46	6033
2026-01-26 16:09:08.26	185.25	16.23	-35.8	-37.0	29.5	3.02e+01	60	28	0	1106771968	46	6086
2026-01-26 16:09:09.27	185.31	16.11	-35.8	-37.0	29.5	3.02e+01	61	28	0	1108869120	46	6111
2026-01-26 16:09:10.28	185.36	15.98	-35.8	-37.0	29.5	3.02e+01	57	28	0	1110966272	46	6116
2026-01-26 16:09:11.29	185.41	15.86	-35.8	-37.0	29.5	3.02e+01	61	28	0	1112539136	46	6104
2026-01-26 16:09:12.30	185.47	15.74	-35.8	-37.0	29.5	3.02e+01	60	28	0	1114636288	46	6086
2026-01-26 16:09:13.31	185.52	15.62	-35.8	-37.0	29.6	3.02e+01	45	28	0	1116209152	46	6092
2026-01-26 16:09:14.32	185.57	15.50	-35.9	-37.2	29.4	3.02e+01	63	28	0	1118306304	46	6207
2026-01-26 16:09:15.33	185.63	15.39	-35.8	-37.0	29.6	3.02e+01	61	28	0	1120403456	46	6101
2026-01-26 16:09:16.33	185.68	15.27	-35.9	-37.1	29.4	3.02e+01	60	28	0	1121976320	46	6197
2026-01-26 16:09:17.34	185.73	15.15	-35.8	-37.1	29.4	3.02e+01	59	28	0	1124073472	46	6142
2026-01-26 16:09:18.35	185.78	15.03	-35.9	-37.1	29.4	3.02e+01	45	28	0	1125646336	46	6168
2026-01-26 16:09:19.36	185.83	14.92	-35.8	-37.0	29.5	3.02e+01	61	28	0	1127743488	46	6118
2026-01-26 16:09:20.38	185.88	14.80	-35.7	-37.0	29.5	3.02e+01	57	28	0	1129840640	46	6084
2026-01-26 16:09:21.39	185.93	14.69	-35.8	-37.0	29.5	3.02e+01	46	28	0	1131413504	46	6096
2026-01-26 16:09:22.40	185.98	14.57	-35.9	-37.1	29.4	3.02e+01	59	28	0	1133510656	46	6205
2026-01-26 16:09:23.41	186.03	14.46	-35.8	-37.0	29.4	3.02e+01	61	28	0	1135083520	46	6131
2026-01-26 16:09:24.42	186.08	14.35	-35.8	-37.0	29.4	3.02e+01	52	28	0	1137180672	46	6123
2026-01-26 16:09:25.43	186.13	14.23	-35.9	-37.1	29.3	3.02e+01	56	28	0	1139277824	46	6166
2026-01-26 16:09:26.44	186.18	14.12	-35.9	-37.1	29.4	3.02e+01	58	28	0	1140850688	46	6179
2026-01-26 16:09:27.44	186.22	14.01	-35.9	-37.1	29.5	3.02e+01	58	28	0	1142947840	46	6169
2026-01-26 16:09:28.45	186.27	13.90	-35.8	-37.0	29.4	3.02e+01	57	28	0	1145044992	46	6133
2026-01-26 16:09:29.46	186.32	13.79	-35.9	-37.1	29.3	3.02e+01	46	28	0	1146617856	46	6152
2026-01-26 16:09:30.47	186.37	13.68	-35.8	-37.1	29.4	3.02e+01	60	28	0	1148715008	46	6147
2026-01-26 16:09:31.48	186.41	13.57	-35.9	-37.1	29.3	3.02e+01	45	28	0	1150287872	46	6191
2026-01-26 16:09:32.49	186.46	13.46	-35.8	-37.0	29.4	3.02e+01	60	28	0	1152385024	46	6112
2026-01-26 16:09:33.50	186.50	13.35	-35.9	-37.1	29.2	3.02e+01	60	28	0	1154482176	46	6179
2026-01-26 16:09:34.51	186.55	13.24	-35.8	-37.0	29.4	3.02e+01	54	28	0	1156055040	46	6101
2026-01-26 16:09:35.52	186.59	13.14	-35.8	-37.0	29.4	3.02e+01	60	28	0	1158152192	46	6100
2026-01-26 16:09:36.53	186.64	13.03	-35.8	-37.0	29.4	3.02e+01	62	28	0	1159725056	46	6127
2026-01-26 16:09:37.54	186.68	12.92	-35.9	-37.1	29.3	3.02e+01	57	28	0	1161822208	46	6198
2026-01-26 16:09:38.54	186.73	12.82	-35.9	-37.1	29.3	3.02e+01	58	28	0	1163919360	46	6187
2026-01-26 16:09:39.56	186.77	12.71	-36.0	-37.2	29.3	3.02e+01	49	28	0	1165492224	46	6237
2026-01-26 16:09:40.56	186.81	12.61	-36.0	-37.3	29.2	3.02e+01	58	28	0	1167589376	46	6287
2026-01-26 16:09:41.57	186.86	12.51	-36.1	-37.3	29.3	3.02e+01	61	28	0	1169686528	46	6336
2026-01-26 16:09:42.58	186.90	12.40	-36.1	-37.3	29.2	3.02e+01	45	28	0	1171259392	46	6345
2026-01-26 16:09:43.59	186.94	12.30	-36.1	-37.3	29.2	3.02e+01	59	28	0	1173356544	46	6350
2026-01-26 16:09:44.60	186.99	12.20	-36.0	-37.3	29.2	3.02e+01	59	28	0	1174929408	46	6296
2026-01-26 16:09:45.61	187.03	12.09	-36.1	-37.3	29.2	3.02e+01	59	28	0	1177026560	46	6324
2026-01-26 16:09:46.62	187.07	11.99	-36.1	-37.4	29.0	3.02e+01	55	28	0	1179123712	46	6399
2026-01-26 16:09:47.63	187.11	11.89	-36.2	-37.5	29.0	3.02e+01	52	28	0	1180696576	46	6433
2026-01-26 16:09:48.64	187.15	11.79	-36.2	-37.5	29.0	3.02e+01	57	28	0	1182793728	46	6433
2026-01-26 16:09:49.65	187.19	11.69	-36.2	-37.4	29.0	3.02e+01	60	28	0	1184366592	46	6419
2026-01-26 16:09:50.66	187.23	11.59	-36.2	-37.5	29.0	3.02e+01	46	28	0	1186463744	46	6452
2026-01-26 16:09:51.67	187.27	11.49	-36.3	-37.6	28.9	3.02e+01	59	28	0	1188560896	46	6504
2026-01-26 16:09:52.68	187.31	11.39	-36.2	-37.5	29.0	3.02e+01	59	28	0	1190133760	46	6439
2026-01-26 16:09:53.68	187.35	11.29	-36.2	-37.5	29.0	3.02e+01	57	28	0	1192230912	46	6447
2026-01-26 16:09:54.69	187.39	11.19	-36.0	-37.3	29.1	3.02e+01	60	28	0	1193803776	46	6300
2026-01-26 16:09:55.71	187.43	11.09	-36.2	-37.4	29.0	3.02e+01	46	28	0	1195900928	46	6405
2026-01-26 16:09:56.72	187.47	11.00	-36.4	-37.6	28.9	3.02e+01	60	28	0	1197998080	46	6555
2026-01-26 16:09:57.73	187.51	10.90	-36.2	-37.5	29.0	3.02e+01	60	28	0	1199570944	46	6442
2026-01-26 16:09:58.74	187.55	10.80	-36.2	-37.5	28.9	3.02e+01	46	28	0	1201668096	46	6424
2026-01-26 16:09:59.75	187.59	10.71	-36.3	-37.6	28.9	3.02e+01	61	28	0	1203240960	46	6507
2026-01-26 16:10:00.76	187.62	10.61	-36.5	-37.8	28.7	3.02e+01	62	28	0	1205338112	46	6677
2026-01-26 16:10:01.77	187.66	10.51	-36.3	-37.6	28.8	3.02e+01	60	28	0	1207435264	46	6518
2026-01-26 16:10:02.77	187.70	10.42	-36.6	-37.8	28.6	3.02e+01	61	28	0	1209008128	46	6692
2026-01-26 16:10:03.78	187.74	10.33	-36.5	-37.8	28.7	3.02e+01	55	28	0	1211105280	46	6674
