passes_logs/2026/01/26/R4.6S_Anadyr/R4.6S_Anadyr__20260126_153529_FENGYUN_3D_rec.log

#Pass ID: 20260126_153529_FENGYUN 3D
#Satellite: FENGYUN 3D
#Configuration: FENGYUN 3D
#almurnet v.1.7.20251203
#Start time: 2026-01-26 15:35:30

#Version: 2.2.20231116
#Station: R4.6S_Anadyr
#Location: 177.4865 lon 64.73178 lat
#TLE: 1 43010U 17072A   26025.99795741 -.00000136  00000+0 -42313-4 0  9999
#TLE: 2 43010  98.9962 357.9855 0002515  89.6991 270.4472 14.19699257424818

#Time	Az	El	Level	Level2	SNR	BER	BlckErr	Temp	State	Recorded	gain1	gain2
2026-01-26 15:35:30.73	19.46	0.09	-49.9	-64.8	3.5	1.51e+00	0	25	0	0	60	62702
2026-01-26 15:35:31.74	19.51	0.14	-51.2	-63.3	3.6	8.46e-01	0	26	104	0	60	52966
2026-01-26 15:35:32.74	19.55	0.20	-50.4	-62.5	3.6	8.46e-01	0	26	104	0	60	48131
2026-01-26 15:35:33.75	19.59	0.26	-50.1	-62.3	3.6	8.46e-01	0	26	104	0	60	47197
2026-01-26 15:35:34.76	19.63	0.32	-49.8	-61.9	3.5	8.45e-01	0	26	104	0	60	44921
2026-01-26 15:35:35.77	19.67	0.37	-49.7	-61.9	3.6	8.45e-01	0	27	104	0	60	44922
2026-01-26 15:35:36.78	19.72	0.43	-49.7	-61.9	3.6	8.45e-01	0	27	104	0	60	45121
2026-01-26 15:35:37.79	19.76	0.49	-49.8	-61.9	3.6	8.46e-01	0	27	104	0	60	45075
2026-01-26 15:35:38.80	19.80	0.55	-49.8	-61.9	3.6	8.46e-01	0	26	104	0	60	44731
2026-01-26 15:35:39.81	19.85	0.60	-49.9	-62.0	3.6	8.46e-01	0	27	104	0	60	45447
2026-01-26 15:35:40.82	19.89	0.66	-49.7	-61.9	3.6	8.46e-01	0	27	104	0	60	44977
2026-01-26 15:35:41.83	19.93	0.72	-49.7	-61.8	3.6	8.45e-01	0	27	104	0	60	44510
2026-01-26 15:35:42.84	19.98	0.78	-49.6	-61.8	3.6	8.47e-01	0	27	104	0	60	44369
2026-01-26 15:35:43.85	20.02	0.84	-49.5	-61.7	3.6	8.47e-01	0	27	104	0	60	43938
2026-01-26 15:35:44.86	20.06	0.90	-49.6	-61.7	3.6	8.44e-01	0	27	104	0	60	43732
2026-01-26 15:35:45.87	20.11	0.95	-49.5	-61.6	3.6	8.46e-01	0	27	104	0	60	43627
2026-01-26 15:35:46.88	20.15	1.01	-49.4	-61.5	3.6	8.44e-01	0	27	104	0	60	42955
2026-01-26 15:35:47.89	20.20	1.07	-49.3	-61.4	3.6	8.44e-01	0	27	104	0	60	42569
2026-01-26 15:35:48.89	20.24	1.13	-49.2	-61.3	3.5	8.44e-01	0	27	104	0	60	42211
2026-01-26 15:35:49.90	20.29	1.19	-49.1	-61.1	3.6	8.45e-01	0	27	104	0	60	41206
2026-01-26 15:35:50.91	20.33	1.25	-49.0	-61.2	3.6	8.45e-01	0	27	104	0	60	41382
2026-01-26 15:35:51.92	20.37	1.31	-48.9	-61.0	3.6	8.46e-01	0	27	104	0	60	40712
2026-01-26 15:35:52.93	20.42	1.37	-48.8	-60.8	3.6	8.45e-01	0	27	104	0	60	39763
2026-01-26 15:35:53.94	20.47	1.43	-48.6	-60.6	3.6	8.45e-01	0	27	104	0	60	38911
2026-01-26 15:35:54.95	20.51	1.49	-48.2	-60.3	3.6	8.45e-01	0	27	104	0	60	37325
2026-01-26 15:35:55.96	20.56	1.55	-48.2	-60.2	3.6	8.46e-01	0	27	104	0	60	36967
2026-01-26 15:35:56.97	20.60	1.61	-48.2	-60.1	3.6	8.47e-01	0	27	104	0	60	36728
2026-01-26 15:35:57.98	20.65	1.67	-48.2	-59.9	3.6	8.45e-01	0	27	104	0	60	35926
2026-01-26 15:35:58.99	20.69	1.73	-48.2	-60.0	3.6	8.46e-01	0	27	104	0	60	36265
2026-01-26 15:36:00.00	20.74	1.79	-48.2	-60.0	3.6	8.45e-01	0	27	104	0	60	36107
2026-01-26 15:36:01.01	20.79	1.85	-48.2	-60.1	3.6	8.47e-01	0	27	104	0	60	36747
2026-01-26 15:36:02.02	20.83	1.91	-48.2	-60.2	3.6	8.46e-01	0	27	104	0	60	36965
2026-01-26 15:36:03.03	20.88	1.97	-48.2	-60.3	3.6	8.44e-01	0	27	104	0	60	37229
2026-01-26 15:36:04.04	20.93	2.03	-48.2	-60.3	3.6	8.45e-01	0	27	104	0	60	37266
2026-01-26 15:36:05.05	20.97	2.09	-48.2	-60.3	3.6	8.46e-01	0	27	104	0	60	37387
2026-01-26 15:36:06.06	21.02	2.15	-48.2	-60.3	3.6	8.46e-01	0	27	104	0	60	37598
2026-01-26 15:36:07.07	21.07	2.21	-48.2	-60.3	3.6	8.45e-01	0	27	104	0	60	37531
2026-01-26 15:36:08.08	21.12	2.27	-48.2	-60.2	3.6	8.45e-01	0	27	104	0	60	36853
2026-01-26 15:36:09.09	21.16	2.33	-48.2	-59.8	3.6	8.45e-01	0	27	104	0	60	35444
2026-01-26 15:36:10.10	21.21	2.39	-48.1	-59.2	3.6	8.46e-01	0	27	104	0	60	32970
2026-01-26 15:36:11.11	21.26	2.45	-48.0	-58.4	3.6	8.45e-01	0	27	104	0	60	30068
2026-01-26 15:36:12.12	21.31	2.52	-48.1	-58.8	3.6	8.45e-01	0	27	104	0	60	31592
2026-01-26 15:36:13.13	21.36	2.58	-48.2	-59.6	3.6	8.44e-01	0	27	104	0	60	34625
2026-01-26 15:36:14.14	21.41	2.64	-48.2	-60.3	3.6	8.46e-01	0	27	104	0	60	37236
2026-01-26 15:36:15.15	21.46	2.70	-47.7	-56.2	3.9	8.44e-01	0	27	104	0	60	23330
2026-01-26 15:36:16.16	21.50	2.76	-46.7	-51.5	7.4	3.22e-01	0	27	0	0	60	13540
2026-01-26 15:36:17.17	21.55	2.83	-44.7	-47.2	12.1	3.70e-03	0	27	0	5242880	60	8306
2026-01-26 15:36:18.18	21.60	2.89	-42.2	-43.7	15.6	4.50e-06	0	27	0	11534336	58	6239
2026-01-26 15:36:19.19	21.65	2.95	-40.3	-41.5	17.8	0.00e+00	0	27	0	16777216	54	6041
2026-01-26 15:36:20.20	21.70	3.01	-39.5	-40.6	18.9	0.00e+00	0	27	0	23068672	54	5479
2026-01-26 15:36:21.21	21.75	3.07	-38.1	-39.0	20.5	0.00e+00	0	27	0	28311552	50	5724
2026-01-26 15:36:22.22	21.80	3.14	-37.7	-38.6	20.7	0.00e+00	0	27	0	33554432	48	6126
2026-01-26 15:36:23.23	21.85	3.20	-36.9	-37.8	21.5	0.00e+00	0	27	0	39845888	48	5580
2026-01-26 15:36:24.24	21.90	3.26	-36.6	-37.5	21.8	0.00e+00	0	27	0	45088768	46	6042
2026-01-26 15:36:25.25	21.96	3.33	-37.1	-38.0	21.3	0.00e+00	0	27	0	51380224	46	6406
2026-01-26 15:36:26.26	22.01	3.39	-38.1	-39.0	20.3	0.00e+00	0	27	0	56623104	48	6426
2026-01-26 15:36:27.27	22.06	3.45	-39.0	-40.0	19.0	0.00e+00	0	27	0	61865984	50	6419
2026-01-26 15:36:28.28	22.11	3.52	-40.1	-41.2	18.6	0.00e+00	0	27	0	68157440	52	6608
2026-01-26 15:36:29.29	22.16	3.58	-38.5	-39.5	20.0	0.00e+00	0	27	0	73400320	50	6055
2026-01-26 15:36:30.30	22.21	3.64	-36.6	-37.4	21.7	0.00e+00	0	27	0	79691776	48	5376
2026-01-26 15:36:31.31	22.26	3.71	-48.1	-58.8	3.7	8.46e-01	0	27	104	81788928	60	31551
2026-01-26 15:36:32.32	22.32	3.77	-39.4	-40.4	18.8	6.32e-02	0	27	104	81788928	56	4789
2026-01-26 15:36:33.33	22.37	3.84	-44.7	-46.9	13.4	2.78e-02	0	27	0	84934656	60	8040
2026-01-26 15:36:34.34	22.42	3.90	-38.5	-39.5	20.2	0.00e+00	0	27	0	91226112	50	6061
2026-01-26 15:36:35.35	22.48	3.96	-37.8	-38.7	20.8	0.00e+00	0	27	0	96468992	48	6216
2026-01-26 15:36:36.36	22.53	4.03	-38.2	-39.2	20.4	0.00e+00	0	27	0	101711872	48	6567
2026-01-26 15:36:37.37	22.58	4.09	-38.4	-39.4	20.2	0.00e+00	0	27	0	108003328	48	6728
2026-01-26 15:36:38.38	22.63	4.16	-38.2	-39.1	20.4	0.00e+00	0	27	0	113246208	48	6514
2026-01-26 15:36:39.39	22.69	4.22	-38.1	-39.1	20.4	0.00e+00	0	27	0	119537664	48	6489
2026-01-26 15:36:40.41	22.74	4.29	-37.7	-38.6	20.9	0.00e+00	0	27	0	124780544	48	6163
2026-01-26 15:36:41.41	22.80	4.35	-37.9	-38.8	20.7	0.00e+00	0	27	0	130023424	48	6283
2026-01-26 15:36:42.42	22.85	4.42	-37.2	-38.0	21.3	0.00e+00	0	27	0	136314880	48	5747
2026-01-26 15:36:43.43	22.91	4.49	-37.4	-38.3	21.3	0.00e+00	0	27	0	141557760	48	5936
2026-01-26 15:36:44.44	22.96	4.55	-37.5	-38.4	21.0	0.00e+00	0	27	0	146800640	48	6012
2026-01-26 15:36:45.45	23.02	4.62	-37.4	-38.3	21.4	0.00e+00	0	27	0	153092096	48	5904
2026-01-26 15:36:46.45	23.07	4.68	-37.7	-38.6	21.1	0.00e+00	0	27	0	158334976	48	6117
2026-01-26 15:36:47.46	23.13	4.75	-37.5	-38.3	21.3	0.00e+00	0	27	0	164626432	48	5935
2026-01-26 15:36:48.47	23.18	4.81	-37.3	-38.1	21.4	0.00e+00	0	27	0	169869312	48	5827
2026-01-26 15:36:49.48	23.24	4.88	-37.0	-37.9	21.6	0.00e+00	0	27	0	176160768	48	5667
2026-01-26 15:36:50.49	23.29	4.95	-36.9	-37.8	21.9	0.00e+00	0	27	0	181403648	46	6257
2026-01-26 15:36:51.50	23.35	5.01	-36.5	-37.3	22.3	0.00e+00	0	27	0	187695104	46	5916
2026-01-26 15:36:52.49	23.41	5.08	-36.9	-37.7	21.9	0.00e+00	0	27	0	192937984	46	6240
2026-01-26 15:36:53.50	23.46	5.15	-37.0	-37.9	21.8	0.00e+00	0	27	0	198180864	46	6320
2026-01-26 15:36:54.51	23.52	5.21	-36.4	-37.2	22.3	0.00e+00	0	27	0	204472320	46	5889
2026-01-26 15:36:55.52	23.58	5.28	-36.7	-37.5	22.1	0.00e+00	0	27	0	209715200	46	6096
2026-01-26 15:36:56.53	23.64	5.35	-36.1	-36.9	22.6	0.00e+00	0	27	0	216006656	46	5672
2026-01-26 15:36:57.54	23.69	5.42	-36.2	-37.0	22.7	0.00e+00	0	27	0	221249536	46	5698
2026-01-26 15:36:58.55	23.75	5.48	-35.8	-36.6	23.1	0.00e+00	0	27	0	226492416	46	5456
2026-01-26 15:36:59.56	23.81	5.55	-36.0	-36.8	22.7	0.00e+00	0	27	0	232783872	44	6268
2026-01-26 15:37:00.57	23.87	5.62	-35.7	-36.4	23.2	0.00e+00	0	27	0	238026752	44	6021
2026-01-26 15:37:01.58	23.93	5.69	-35.8	-36.5	23.0	0.00e+00	0	27	0	244318208	44	6085
2026-01-26 15:37:02.59	23.99	5.76	-35.4	-36.1	23.4	0.00e+00	0	27	0	249561088	44	5804
2026-01-26 15:37:03.60	24.05	5.83	-35.4	-36.1	23.4	0.00e+00	0	27	0	254803968	44	5823
2026-01-26 15:37:04.61	24.11	5.89	-35.5	-36.2	23.4	0.00e+00	0	27	0	261095424	44	5865
2026-01-26 15:37:05.62	24.17	5.96	-35.5	-36.2	23.3	0.00e+00	0	27	0	266338304	44	5870
2026-01-26 15:37:06.63	24.23	6.03	-35.5	-36.3	23.3	0.00e+00	0	27	0	272629760	44	5902
2026-01-26 15:37:07.64	24.29	6.10	-35.7	-36.5	23.3	0.00e+00	0	27	0	277872640	44	6055
2026-01-26 15:37:08.65	24.35	6.17	-36.0	-36.8	22.9	0.00e+00	0	27	0	284164096	44	6281
2026-01-26 15:37:09.66	24.41	6.24	-35.8	-36.6	23.0	0.00e+00	0	27	0	289406976	44	6129
2026-01-26 15:37:10.67	24.47	6.31	-35.6	-36.3	23.4	0.00e+00	0	27	0	294649856	44	5929
2026-01-26 15:37:11.68	24.53	6.38	-35.5	-36.3	23.4	0.00e+00	0	27	0	300941312	44	5910
2026-01-26 15:37:12.70	24.59	6.45	-35.8	-36.5	23.1	0.00e+00	0	27	0	306184192	44	6094
2026-01-26 15:37:13.71	24.65	6.52	-35.7	-36.4	23.5	0.00e+00	0	27	0	312475648	44	6003
2026-01-26 15:37:14.71	24.72	6.59	-35.5	-36.2	23.3	0.00e+00	0	27	0	317718528	44	5861
2026-01-26 15:37:15.72	24.78	6.66	-35.5	-36.2	23.4	0.00e+00	0	27	0	322961408	44	5882
2026-01-26 15:37:16.73	24.84	6.73	-35.7	-36.4	23.3	0.00e+00	0	27	0	329252864	44	6003
2026-01-26 15:37:17.74	24.91	6.80	-35.2	-36.0	23.6	0.00e+00	0	27	0	334495744	44	5702
2026-01-26 15:37:18.75	24.97	6.87	-35.6	-36.4	23.4	0.00e+00	0	27	0	340787200	44	5992
2026-01-26 15:37:19.76	25.03	6.94	-35.5	-36.3	23.4	0.00e+00	0	27	0	346030080	44	5908
2026-01-26 15:37:20.77	25.10	7.01	-35.5	-36.2	23.5	0.00e+00	0	27	0	351272960	44	5889
2026-01-26 15:37:21.77	25.16	7.09	-35.4	-36.1	23.4	0.00e+00	0	27	0	357564416	44	5811
2026-01-26 15:37:22.78	25.22	7.16	-35.9	-36.6	23.0	0.00e+00	0	27	0	362807296	44	6164
2026-01-26 15:37:23.79	25.29	7.23	-35.9	-36.7	23.1	0.00e+00	0	27	0	369098752	44	6213
2026-01-26 15:37:24.80	25.35	7.30	-36.0	-36.8	23.0	0.00e+00	0	27	0	374341632	44	6248
2026-01-26 15:37:25.81	25.42	7.37	-36.0	-36.8	23.0	0.00e+00	0	27	0	380633088	44	6287
2026-01-26 15:37:26.82	25.49	7.45	-36.2	-37.0	22.8	0.00e+00	0	27	0	385875968	44	6424
2026-01-26 15:37:27.83	25.55	7.52	-35.5	-36.3	23.5	0.00e+00	0	28	0	392167424	44	5916
2026-01-26 15:37:28.84	25.62	7.59	-35.3	-36.0	23.7	0.00e+00	0	27	0	397410304	44	5749
2026-01-26 15:37:29.85	25.69	7.66	-35.4	-36.1	23.7	0.00e+00	0	27	0	402653184	44	5820
2026-01-26 15:37:30.86	25.75	7.74	-35.4	-36.1	23.7	0.00e+00	0	27	0	408944640	44	5813
2026-01-26 15:37:31.87	25.82	7.81	-35.4	-36.2	23.5	0.00e+00	0	28	0	414187520	44	5845
2026-01-26 15:37:32.88	25.89	7.88	-35.2	-35.9	23.9	0.00e+00	0	27	0	420478976	44	5655
2026-01-26 15:37:33.89	25.96	7.96	-35.2	-36.0	23.8	0.00e+00	0	27	0	425721856	44	5734
2026-01-26 15:37:34.90	26.02	8.03	-35.5	-36.2	23.5	0.00e+00	0	28	0	430964736	44	5865
2026-01-26 15:37:35.91	26.09	8.10	-35.4	-36.2	23.8	0.00e+00	0	27	0	437256192	44	5833
2026-01-26 15:37:36.92	26.16	8.18	-35.0	-35.8	24.0	0.00e+00	0	27	0	442499072	44	5575
2026-01-26 15:37:37.93	26.23	8.25	-35.0	-35.7	24.0	0.00e+00	0	27	0	448790528	44	5526
2026-01-26 15:37:38.94	26.30	8.33	-35.7	-36.4	23.5	0.00e+00	0	28	0	454033408	44	6025
2026-01-26 15:37:39.95	26.37	8.40	-35.1	-35.8	24.0	0.00e+00	0	28	0	459276288	44	5626
2026-01-26 15:37:40.96	26.44	8.48	-35.3	-36.1	23.7	0.00e+00	0	27	0	465567744	44	5790
2026-01-26 15:37:41.97	26.51	8.55	-35.5	-36.2	23.7	0.00e+00	0	27	0	470810624	44	5855
2026-01-26 15:37:42.98	26.58	8.63	-35.1	-35.8	24.1	0.00e+00	0	27	0	477102080	44	5592
2026-01-26 15:37:43.98	26.65	8.70	-34.8	-35.5	24.2	0.00e+00	0	27	0	482344960	44	5407
2026-01-26 15:37:44.99	26.72	8.78	-34.9	-35.6	24.3	0.00e+00	0	28	0	488636416	44	5461
2026-01-26 15:37:46.01	26.80	8.85	-35.1	-35.8	24.1	0.00e+00	0	28	0	493879296	42	6307
2026-01-26 15:37:47.01	26.87	8.93	-34.8	-35.5	24.3	0.00e+00	0	27	0	499122176	42	6039
2026-01-26 15:37:48.02	26.94	9.01	-34.9	-35.6	24.2	0.00e+00	0	27	0	505413632	42	6143
2026-01-26 15:37:49.03	27.01	9.08	-34.8	-35.5	24.5	0.00e+00	0	28	0	510656512	42	6045
2026-01-26 15:37:50.04	27.09	9.16	-34.5	-35.2	24.5	0.00e+00	0	28	0	516947968	42	5850
2026-01-26 15:37:51.05	27.16	9.24	-34.6	-35.4	24.5	0.00e+00	0	28	0	522190848	42	5965
2026-01-26 15:37:52.06	27.24	9.31	-34.5	-35.2	24.6	0.00e+00	0	28	0	527433728	42	5855
2026-01-26 15:37:53.07	27.31	9.39	-34.5	-35.2	24.6	0.00e+00	0	28	0	533725184	42	5879
2026-01-26 15:37:54.08	27.39	9.47	-34.5	-35.2	24.6	0.00e+00	0	28	0	538968064	42	5869
2026-01-26 15:37:55.09	27.46	9.55	-34.9	-35.6	24.3	0.00e+00	0	27	0	545259520	42	6149
2026-01-26 15:37:56.10	27.54	9.62	-34.3	-35.0	24.9	0.00e+00	0	27	0	550502400	42	5761
2026-01-26 15:37:57.11	27.61	9.70	-34.2	-34.9	24.9	0.00e+00	0	27	0	555745280	42	5670
2026-01-26 15:37:58.12	27.69	9.78	-34.2	-34.9	24.9	0.00e+00	0	27	0	562036736	42	5654
2026-01-26 15:37:59.13	27.77	9.86	-34.4	-35.1	24.6	0.00e+00	0	27	0	567279616	42	5823
2026-01-26 15:38:00.14	27.84	9.94	-34.5	-35.1	24.7	0.00e+00	0	28	0	573571072	42	5821
2026-01-26 15:38:01.15	27.92	10.02	-34.5	-35.2	24.7	0.00e+00	0	27	0	578813952	42	5830
2026-01-26 15:38:02.15	28.00	10.09	-34.1	-34.8	25.0	0.00e+00	0	28	0	585105408	42	5616
2026-01-26 15:38:03.16	28.08	10.17	-34.2	-34.9	25.0	0.00e+00	0	28	0	590348288	42	5651
2026-01-26 15:38:04.17	28.15	10.25	-34.3	-35.0	24.9	0.00e+00	0	28	0	595591168	42	5725
2026-01-26 15:38:05.18	28.23	10.33	-34.5	-35.2	24.8	0.00e+00	0	28	0	601882624	42	5831
2026-01-26 15:38:06.19	28.31	10.41	-34.2	-34.9	25.0	0.00e+00	0	28	0	607125504	42	5683
2026-01-26 15:38:07.20	28.39	10.49	-34.2	-34.8	24.9	0.00e+00	0	28	0	613416960	42	5625
2026-01-26 15:38:08.21	28.47	10.57	-34.2	-34.9	24.9	0.00e+00	0	28	0	618659840	42	5638
2026-01-26 15:38:09.22	28.55	10.65	-34.1	-34.7	25.1	0.00e+00	0	28	0	623902720	42	5564
2026-01-26 15:38:10.23	28.64	10.74	-34.2	-34.9	24.9	0.00e+00	0	28	0	630194176	42	5635
2026-01-26 15:38:11.24	28.72	10.82	-34.4	-35.2	24.8	0.00e+00	0	28	0	635437056	42	5837
2026-01-26 15:38:12.25	28.80	10.90	-34.2	-34.9	25.0	0.00e+00	0	28	0	641728512	42	5685
2026-01-26 15:38:13.26	28.88	10.98	-34.1	-34.8	25.1	0.00e+00	0	28	0	646971392	42	5591
2026-01-26 15:38:14.27	28.96	11.06	-34.2	-34.9	25.0	0.00e+00	0	28	0	652214272	42	5637
2026-01-26 15:38:15.27	29.05	11.14	-34.1	-34.8	25.1	0.00e+00	0	28	0	658505728	42	5612
2026-01-26 15:38:16.28	29.13	11.22	-34.3	-35.0	25.0	0.00e+00	0	28	0	663748608	42	5731
2026-01-26 15:38:17.29	29.21	11.31	-34.0	-34.7	25.2	0.00e+00	0	28	0	670040064	42	5527
2026-01-26 15:38:18.30	29.30	11.39	-33.9	-34.6	25.2	0.00e+00	0	28	0	675282944	42	5484
2026-01-26 15:38:19.31	29.38	11.47	-34.0	-34.6	25.3	0.00e+00	0	28	0	681574400	42	5488
2026-01-26 15:38:20.32	29.47	11.55	-33.8	-34.5	25.4	0.00e+00	0	28	0	686817280	40	6049
2026-01-26 15:38:21.33	29.56	11.64	-34.0	-34.7	25.1	0.00e+00	0	28	0	693108736	40	6204
2026-01-26 15:38:22.34	29.64	11.72	-33.6	-34.3	25.5	0.00e+00	0	28	0	698351616	40	5934
2026-01-26 15:38:23.35	29.73	11.81	-33.8	-34.4	25.5	0.00e+00	0	28	0	703594496	40	6018
2026-01-26 15:38:24.36	29.82	11.89	-33.7	-34.3	25.5	0.00e+00	0	28	0	709885952	40	5936
2026-01-26 15:38:25.37	29.91	11.97	-33.7	-34.3	25.5	0.00e+00	0	28	0	715128832	40	5949
2026-01-26 15:38:26.38	29.99	12.06	-33.9	-34.6	25.2	0.00e+00	0	28	0	721420288	40	6150
2026-01-26 15:38:27.39	30.08	12.14	-33.7	-34.4	25.4	0.00e+00	0	28	0	726663168	40	5981
2026-01-26 15:38:28.40	30.17	12.23	-33.7	-34.3	25.3	0.00e+00	0	28	0	731906048	40	5951
2026-01-26 15:38:29.41	30.26	12.31	-33.8	-34.5	25.3	0.00e+00	0	28	0	738197504	40	6055
2026-01-26 15:38:30.42	30.35	12.40	-33.5	-34.2	25.6	0.00e+00	0	28	0	743440384	40	5848
2026-01-26 15:38:31.43	30.44	12.48	-33.6	-34.3	25.5	0.00e+00	0	28	0	749731840	40	5910
2026-01-26 15:38:32.44	30.53	12.57	-33.6	-34.3	25.6	0.00e+00	0	28	0	754974720	40	5925
2026-01-26 15:38:33.45	30.63	12.66	-33.6	-34.2	25.6	0.00e+00	0	28	0	760217600	40	5872
2026-01-26 15:38:34.46	30.72	12.74	-33.3	-34.0	25.9	0.00e+00	0	28	0	766509056	40	5707
2026-01-26 15:38:35.47	30.81	12.83	-33.4	-34.1	25.8	0.00e+00	0	28	0	771751936	40	5773
2026-01-26 15:38:36.48	30.91	12.92	-33.3	-34.0	25.8	0.00e+00	0	28	0	778043392	40	5705
2026-01-26 15:38:37.49	31.00	13.00	-33.4	-34.0	25.8	0.00e+00	0	28	0	783286272	40	5753
2026-01-26 15:38:38.50	31.09	13.09	-33.3	-34.0	25.8	0.00e+00	0	28	0	789577728	40	5732
2026-01-26 15:38:39.51	31.19	13.18	-33.4	-34.0	25.8	0.00e+00	0	28	0	794820608	40	5745
2026-01-26 15:38:40.51	31.28	13.26	-33.5	-34.1	25.7	0.00e+00	0	28	0	800063488	40	5799
2026-01-26 15:38:41.52	31.38	13.35	-33.7	-34.3	25.6	0.00e+00	0	28	0	806354944	40	5928
2026-01-26 15:38:42.53	31.48	13.44	-33.7	-34.3	25.6	0.00e+00	0	28	0	811597824	40	5933
2026-01-26 15:38:43.54	31.57	13.53	-33.8	-34.5	25.6	0.00e+00	0	28	0	817889280	40	6038
2026-01-26 15:38:44.55	31.67	13.62	-33.5	-34.2	25.6	0.00e+00	0	28	0	823132160	40	5854
2026-01-26 15:38:45.56	31.77	13.71	-33.7	-34.3	25.6	0.00e+00	0	28	0	828375040	40	5943
2026-01-26 15:38:46.57	31.87	13.80	-33.4	-34.1	25.7	0.00e+00	0	28	0	834666496	40	5772
2026-01-26 15:38:47.58	31.97	13.89	-33.4	-34.1	25.8	0.00e+00	0	28	0	839909376	40	5780
2026-01-26 15:38:48.59	32.07	13.98	-33.3	-33.9	25.9	0.00e+00	0	28	0	846200832	40	5688
2026-01-26 15:38:49.60	32.17	14.07	-33.2	-33.8	26.0	0.00e+00	0	28	0	851443712	40	5624
2026-01-26 15:38:50.61	32.27	14.16	-33.2	-33.8	26.0	0.00e+00	0	28	0	856686592	40	5611
2026-01-26 15:38:51.62	32.37	14.25	-33.3	-33.9	26.0	0.00e+00	0	28	0	862978048	40	5681
2026-01-26 15:38:52.63	32.47	14.34	-33.0	-33.6	26.1	0.00e+00	0	28	0	868220928	40	5493
2026-01-26 15:38:53.64	32.58	14.43	-32.8	-33.5	26.3	0.00e+00	0	28	0	874512384	40	5397
2026-01-26 15:38:54.65	32.68	14.52	-33.1	-33.7	26.1	0.00e+00	0	28	0	879755264	40	5538
2026-01-26 15:38:55.66	32.78	14.61	-32.9	-33.6	26.3	0.00e+00	0	28	0	886046720	40	5440
2026-01-26 15:38:56.67	32.89	14.71	-33.0	-33.7	26.2	0.00e+00	0	28	0	891289600	40	5507
2026-01-26 15:38:57.68	32.99	14.80	-32.9	-33.6	26.2	0.00e+00	0	28	0	896532480	40	5473
2026-01-26 15:38:58.68	33.10	14.89	-33.0	-33.6	26.2	0.00e+00	0	28	0	902823936	40	5478
2026-01-26 15:38:59.69	33.21	14.98	-33.1	-33.7	26.2	0.00e+00	0	28	0	908066816	40	5558
2026-01-26 15:39:00.70	33.31	15.08	-33.1	-33.8	26.1	0.00e+00	0	28	0	914358272	40	5575
2026-01-26 15:39:01.71	33.42	15.17	-33.3	-34.0	25.9	0.00e+00	0	28	0	919601152	40	5706
2026-01-26 15:39:02.72	33.53	15.26	-33.2	-33.8	26.0	0.00e+00	0	28	0	924844032	40	5625
2026-01-26 15:39:03.73	33.64	15.36	-33.3	-33.9	26.0	0.00e+00	0	28	0	931135488	40	5680
2026-01-26 15:39:04.74	33.75	15.45	-33.1	-33.7	26.1	0.00e+00	0	28	0	936378368	40	5555
2026-01-26 15:39:05.75	33.86	15.54	-33.1	-33.7	26.1	0.00e+00	0	28	0	942669824	40	5536
2026-01-26 15:39:06.76	33.97	15.64	-33.0	-33.6	26.2	0.00e+00	0	28	0	947912704	40	5492
2026-01-26 15:39:07.77	34.08	15.73	-32.9	-33.5	26.3	0.00e+00	0	28	0	953155584	40	5423
2026-01-26 15:39:08.78	34.20	15.83	-32.8	-33.4	26.5	0.00e+00	0	28	0	959447040	40	5348
2026-01-26 15:39:09.78	34.31	15.92	-32.7	-33.3	26.4	0.00e+00	0	28	0	964689920	38	5962
2026-01-26 15:39:10.79	34.42	16.02	-32.7	-33.4	26.4	0.00e+00	0	28	0	970981376	38	5972
2026-01-26 15:39:11.80	34.54	16.12	-32.8	-33.4	26.4	0.00e+00	0	28	0	976224256	38	6010
2026-01-26 15:39:12.81	34.65	16.21	-32.6	-33.3	26.6	0.00e+00	0	28	0	982515712	38	5912
2026-01-26 15:39:13.83	34.77	16.31	-32.6	-33.3	26.5	0.00e+00	0	28	0	987758592	38	5915
2026-01-26 15:39:14.83	34.89	16.41	-32.6	-33.3	26.6	0.00e+00	0	28	0	994050048	38	5905
2026-01-26 15:39:15.84	35.00	16.50	-32.6	-33.3	26.5	0.00e+00	0	28	0	999292928	38	5922
2026-01-26 15:39:16.85	35.12	16.60	-32.6	-33.3	26.5	0.00e+00	0	28	0	1004535808	38	5904
2026-01-26 15:39:17.86	35.24	16.70	-32.6	-33.3	26.5	0.00e+00	0	28	0	1010827264	38	5914
2026-01-26 15:39:18.87	35.36	16.80	-32.7	-33.4	26.4	0.00e+00	0	28	0	1016070144	38	5976
2026-01-26 15:39:19.88	35.48	16.89	-32.9	-33.5	26.4	0.00e+00	0	28	0	1022361600	38	6084
2026-01-26 15:39:20.89	35.60	16.99	-32.9	-33.5	26.4	0.00e+00	0	28	0	1027604480	38	6091
2026-01-26 15:39:21.90	35.72	17.09	-32.9	-33.5	26.4	0.00e+00	0	28	0	1032847360	38	6080
2026-01-26 15:39:22.91	35.85	17.19	-32.8	-33.5	26.4	0.00e+00	0	28	0	1039138816	38	6074
2026-01-26 15:39:23.92	35.97	17.29	-32.8	-33.5	26.4	0.00e+00	0	28	0	1044381696	38	6038
2026-01-26 15:39:24.93	36.09	17.39	-32.7	-33.4	26.4	0.00e+00	0	28	0	1050673152	38	5993
2026-01-26 15:39:25.94	36.22	17.49	-33.0	-33.6	26.1	0.00e+00	0	28	0	1055916032	38	6167
2026-01-26 15:39:26.95	36.35	17.59	-32.7	-33.4	26.5	0.00e+00	0	28	0	1061158912	38	5993
2026-01-26 15:39:27.95	36.47	17.69	-32.7	-33.3	26.5	0.00e+00	0	28	0	1067450368	38	5964
2026-01-26 15:39:28.96	36.60	17.79	-32.6	-33.2	26.6	0.00e+00	0	28	0	1072693248	38	5879
2026-01-26 15:39:29.97	36.73	17.89	-32.7	-33.3	26.5	0.00e+00	0	28	0	1078984704	38	5935
2026-01-26 15:39:30.98	36.86	17.99	-32.5	-33.2	26.7	0.00e+00	0	28	0	1084227584	38	5880
2026-01-26 15:39:31.99	36.99	18.09	-32.4	-33.1	26.6	0.00e+00	0	28	0	1090519040	38	5781
2026-01-26 15:39:33.00	37.12	18.20	-32.5	-33.1	26.6	0.00e+00	0	28	0	1095761920	38	5806
2026-01-26 15:39:34.01	37.25	18.30	-32.3	-33.0	26.9	0.00e+00	0	28	0	1101004800	38	5698
2026-01-26 15:39:35.02	37.38	18.40	-32.4	-33.0	26.8	0.00e+00	0	28	0	1107296256	38	5730
2026-01-26 15:39:36.03	37.52	18.50	-32.3	-33.0	26.8	0.00e+00	0	28	0	1112539136	38	5718
2026-01-26 15:39:37.04	37.65	18.61	-32.4	-33.0	26.7	0.00e+00	0	28	0	1118830592	38	5737
2026-01-26 15:39:38.05	37.79	18.71	-32.4	-33.1	26.7	0.00e+00	0	28	0	1124073472	38	5776
2026-01-26 15:39:39.06	37.92	18.81	-32.4	-33.0	26.9	0.00e+00	0	28	0	1129316352	38	5759
2026-01-26 15:39:40.07	38.06	18.92	-32.2	-32.8	27.0	0.00e+00	0	28	0	1135607808	38	5600
2026-01-26 15:39:41.08	38.20	19.02	-32.2	-32.8	27.0	0.00e+00	0	28	0	1140850688	38	5602
2026-01-26 15:39:42.09	38.34	19.13	-32.2	-32.8	26.9	0.00e+00	0	28	0	1147142144	38	5630
2026-01-26 15:39:43.10	38.48	19.23	-32.2	-32.8	26.9	0.00e+00	0	28	0	1152385024	38	5625
2026-01-26 15:39:44.11	38.62	19.34	-32.1	-32.8	27.0	0.00e+00	0	28	0	1157627904	38	5574
2026-01-26 15:39:45.11	38.76	19.44	-32.1	-32.8	27.0	0.00e+00	0	28	0	1163919360	38	5598
2026-01-26 15:39:46.12	38.90	19.55	-32.0	-32.7	27.1	0.00e+00	0	28	0	1169162240	38	5515
2026-01-26 15:39:47.13	39.04	19.65	-32.1	-32.7	27.1	0.00e+00	0	28	0	1175453696	38	5547
2026-01-26 15:39:48.14	39.19	19.76	-32.0	-32.6	27.1	0.00e+00	0	28	0	1180696576	38	5477
2026-01-26 15:39:49.15	39.33	19.86	-32.1	-32.7	27.1	0.00e+00	0	28	0	1186988032	38	5533
2026-01-26 15:39:50.16	39.48	19.97	-31.8	-32.5	27.2	0.00e+00	0	28	0	1192230912	38	5383
2026-01-26 15:39:51.17	39.63	20.08	-31.9	-32.5	27.2	0.00e+00	0	28	0	1197473792	38	5402
2026-01-26 15:39:52.18	39.77	20.19	-32.0	-32.7	27.0	0.00e+00	0	28	0	1203765248	38	5515
2026-01-26 15:39:53.18	39.92	20.29	-32.0	-32.6	27.1	0.00e+00	0	28	0	1209008128	38	5446
2026-01-26 15:39:54.19	40.07	20.40	-32.0	-32.7	27.1	0.00e+00	0	28	0	1215299584	38	5510
2026-01-26 15:39:55.20	40.22	20.51	-32.0	-32.6	27.2	0.00e+00	0	28	0	1220542464	38	5453
2026-01-26 15:39:56.21	40.38	20.62	-32.0	-32.6	27.1	0.00e+00	0	28	0	1225785344	38	5476
2026-01-26 15:39:57.22	40.53	20.72	-32.1	-32.8	27.0	0.00e+00	0	28	0	1232076800	38	5581
2026-01-26 15:39:58.23	40.69	20.83	-32.1	-32.8	27.1	0.00e+00	0	28	0	1237319680	38	5572
2026-01-26 15:39:59.25	40.84	20.94	-32.1	-32.7	27.1	0.00e+00	0	28	0	1243611136	38	5530
2026-01-26 15:40:00.25	41.00	21.05	-32.2	-32.8	27.0	0.00e+00	0	28	0	1248854016	38	5591
2026-01-26 15:40:01.26	41.16	21.16	-32.0	-32.7	27.1	0.00e+00	0	28	0	1254096896	38	5516
2026-01-26 15:40:02.27	41.32	21.27	-32.0	-32.7	27.2	0.00e+00	0	28	0	1260388352	38	5520
2026-01-26 15:40:03.28	41.48	21.38	-31.7	-32.3	27.4	0.00e+00	0	28	0	1265631232	36	5932
2026-01-26 15:40:04.29	41.64	21.49	-31.8	-32.4	27.4	0.00e+00	0	28	0	1271922688	36	5980
2026-01-26 15:40:05.30	41.80	21.60	-31.7	-32.3	27.3	0.00e+00	0	28	0	1277165568	36	5933
2026-01-26 15:40:06.31	41.96	21.71	-31.5	-32.1	27.5	0.00e+00	0	28	0	1283457024	36	5799
2026-01-26 15:40:07.32	42.13	21.83	-31.5	-32.1	27.6	0.00e+00	0	28	0	1288699904	36	5802
2026-01-26 15:40:08.33	42.29	21.94	-31.4	-32.0	27.7	0.00e+00	0	28	0	1293942784	36	5754
2026-01-26 15:40:09.34	42.46	22.05	-31.2	-31.8	27.7	0.00e+00	0	28	0	1300234240	36	5621
2026-01-26 15:40:10.35	42.63	22.16	-31.4	-32.0	27.7	0.00e+00	0	28	0	1305477120	36	5718
2026-01-26 15:40:11.36	42.80	22.27	-31.3	-32.0	27.7	0.00e+00	0	28	0	1311768576	36	5697
2026-01-26 15:40:12.37	42.97	22.39	-31.5	-32.1	27.5	0.00e+00	0	28	0	1317011456	36	5808
2026-01-26 15:40:13.38	43.14	22.50	-31.5	-32.1	27.6	0.00e+00	0	28	0	1323302912	36	5826
2026-01-26 15:40:14.39	43.31	22.61	-31.3	-31.9	27.7	0.00e+00	0	28	0	1328545792	36	5682
2026-01-26 15:40:15.40	43.49	22.73	-31.4	-32.0	27.7	0.00e+00	0	28	0	1333788672	36	5715
2026-01-26 15:40:16.41	43.66	22.84	-31.3	-31.9	27.7	0.00e+00	0	28	0	1340080128	36	5690
2026-01-26 15:40:17.42	43.84	22.95	-31.5	-32.1	27.7	0.00e+00	0	28	0	1345323008	36	5798
2026-01-26 15:40:18.43	44.02	23.07	-31.4	-32.0	27.7	0.00e+00	0	28	0	1351614464	36	5750
2026-01-26 15:40:19.44	44.20	23.18	-31.4	-32.0	27.7	0.00e+00	0	28	0	1356857344	36	5756
2026-01-26 15:40:20.46	44.38	23.30	-31.1	-31.8	27.9	0.00e+00	0	28	0	1362100224	36	5571
2026-01-26 15:40:21.47	44.56	23.41	-31.2	-31.8	27.7	0.00e+00	0	28	0	1368391680	36	5627
2026-01-26 15:40:22.47	44.74	23.53	-31.2	-31.8	27.8	0.00e+00	0	28	0	1373634560	36	5608
2026-01-26 15:40:23.48	44.93	23.64	-31.1	-31.7	27.9	0.00e+00	0	28	0	1379926016	36	5540
2026-01-26 15:40:24.49	45.11	23.76	-31.3	-31.9	27.7	0.00e+00	0	28	0	1385168896	36	5683
2026-01-26 15:40:25.50	45.30	23.87	-31.2	-31.8	27.8	0.00e+00	0	28	0	1391460352	36	5626
2026-01-26 15:40:26.51	45.49	23.99	-31.3	-32.0	27.6	0.00e+00	0	28	0	1396703232	36	5703
2026-01-26 15:40:27.52	45.68	24.10	-31.3	-31.9	27.7	0.00e+00	0	28	0	1401946112	36	5655
2026-01-26 15:40:28.53	45.87	24.22	-31.2	-31.9	27.8	0.00e+00	0	28	0	1408237568	36	5635
2026-01-26 15:40:29.54	46.06	24.34	-31.2	-31.8	27.8	0.00e+00	0	28	0	1413480448	36	5630
2026-01-26 15:40:30.55	46.25	24.45	-31.3	-32.0	27.7	0.00e+00	0	28	0	1419771904	36	5717
2026-01-26 15:40:31.56	46.45	24.57	-31.2	-31.8	27.8	0.00e+00	0	28	0	1425014784	36	5569
2026-01-26 15:40:32.57	46.65	24.69	-31.3	-31.9	27.7	0.00e+00	0	28	0	1430257664	36	5652
2026-01-26 15:40:33.58	46.84	24.80	-31.0	-31.6	27.9	0.00e+00	0	28	0	1436549120	36	5480
2026-01-26 15:40:34.59	47.04	24.92	-31.1	-31.7	27.9	0.00e+00	0	28	0	1441792000	36	5544
2026-01-26 15:40:35.60	47.24	25.04	-31.0	-31.6	28.0	0.00e+00	0	28	0	1448083456	36	5473
2026-01-26 15:40:36.61	47.45	25.16	-30.9	-31.6	28.0	0.00e+00	0	28	0	1453326336	36	5442
2026-01-26 15:40:37.62	47.65	25.27	-30.8	-31.4	28.1	0.00e+00	0	28	0	1458569216	36	5337
2026-01-26 15:40:38.63	47.86	25.39	-30.8	-31.4	28.1	0.00e+00	0	28	0	1464860672	36	5318
2026-01-26 15:40:39.63	48.06	25.51	-30.8	-31.4	28.0	0.00e+00	0	28	0	1470103552	36	5372
2026-01-26 15:40:40.64	48.27	25.63	-30.8	-31.4	28.0	0.00e+00	0	28	0	1476395008	36	5359
2026-01-26 15:40:41.65	48.48	25.75	-30.8	-31.4	28.0	0.00e+00	0	28	0	1481637888	36	5360
2026-01-26 15:40:42.66	48.69	25.86	-30.9	-31.5	28.0	0.00e+00	0	28	0	1487929344	36	5409
2026-01-26 15:40:43.67	48.90	25.98	-30.9	-31.5	28.0	0.00e+00	0	28	0	1493172224	36	5395
2026-01-26 15:40:44.68	49.12	26.10	-30.9	-31.5	28.0	0.00e+00	0	28	0	1499463680	36	5396
2026-01-26 15:40:45.69	49.34	26.22	-30.8	-31.4	28.1	0.00e+00	0	28	0	1504706560	36	5338
2026-01-26 15:40:46.70	49.55	26.34	-30.8	-31.4	28.1	0.00e+00	0	28	0	1509949440	34	5983
2026-01-26 15:40:47.71	49.77	26.46	-30.8	-31.5	28.0	0.00e+00	0	28	0	1516240896	34	6037
2026-01-26 15:40:48.72	49.99	26.58	-31.1	-31.7	28.0	0.00e+00	0	28	0	1521483776	34	6184
2026-01-26 15:40:49.73	50.22	26.70	-31.2	-31.8	27.8	0.00e+00	0	28	0	1527775232	34	6289
2026-01-26 15:40:50.74	50.44	26.82	-31.0	-31.6	28.0	0.00e+00	0	28	0	1533018112	34	6139
2026-01-26 15:40:51.75	50.67	26.94	-31.1	-31.8	25.2	0.00e+00	0	28	0	1538260992	34	6277
2026-01-26 15:40:52.76	50.89	27.06	-30.9	-31.5	25.8	0.00e+00	0	28	0	1544552448	34	6100
2026-01-26 15:40:53.77	51.12	27.18	-31.1	-31.7	26.5	0.00e+00	0	28	0	1549795328	34	6231
2026-01-26 15:40:54.78	51.36	27.29	-31.1	-31.7	26.1	0.00e+00	0	28	0	1556086784	34	6218
2026-01-26 15:40:55.78	51.59	27.41	-31.3	-31.9	26.1	0.00e+00	0	28	0	1561329664	34	6376
2026-01-26 15:40:56.79	51.82	27.53	-30.8	-31.4	28.1	0.00e+00	0	28	0	1566572544	34	6020
2026-01-26 15:40:57.80	52.06	27.65	-30.8	-31.5	28.1	0.00e+00	0	28	0	1572864000	34	6045
2026-01-26 15:40:58.81	52.29	27.77	-30.7	-31.3	28.2	0.00e+00	0	28	0	1578106880	34	5952
2026-01-26 15:40:59.82	52.53	27.89	-30.6	-31.2	28.3	0.00e+00	0	28	0	1584398336	34	5874
2026-01-26 15:41:00.83	52.78	28.01	-30.6	-31.3	28.3	0.00e+00	0	28	0	1589641216	34	5903
2026-01-26 15:41:01.84	53.02	28.13	-30.6	-31.2	28.3	0.00e+00	0	28	0	1595932672	34	5843
2026-01-26 15:41:02.85	53.26	28.25	-30.5	-31.1	28.3	0.00e+00	0	28	0	1601175552	34	5811
2026-01-26 15:41:03.86	53.51	28.37	-30.7	-31.3	28.2	0.00e+00	0	28	0	1606418432	34	5920
2026-01-26 15:41:04.86	53.76	28.49	-30.4	-31.0	28.3	0.00e+00	0	28	0	1612709888	34	5753
2026-01-26 15:41:05.87	54.01	28.61	-30.5	-31.2	28.2	0.00e+00	0	28	0	1617952768	34	5836
2026-01-26 15:41:06.88	54.26	28.73	-30.5	-31.2	28.1	0.00e+00	0	28	0	1624244224	34	5834
2026-01-26 15:41:07.89	54.51	28.85	-30.6	-31.2	28.0	0.00e+00	0	28	0	1629487104	34	5866
2026-01-26 15:41:08.90	54.77	28.97	-30.5	-31.2	28.1	0.00e+00	0	28	0	1634729984	34	5842
2026-01-26 15:41:09.91	55.03	29.09	-30.4	-31.0	28.3	0.00e+00	0	28	0	1641021440	34	5747
2026-01-26 15:41:10.92	55.29	29.20	-30.4	-31.0	28.3	0.00e+00	0	28	0	1646264320	34	5715
2026-01-26 15:41:11.93	55.55	29.32	-30.0	-30.6	28.7	0.00e+00	0	28	0	1652555776	34	5482
2026-01-26 15:41:12.94	55.81	29.44	-30.0	-30.6	28.7	0.00e+00	0	28	0	1657798656	34	5491
2026-01-26 15:41:13.95	56.08	29.56	-30.3	-31.0	28.5	0.00e+00	0	28	0	1663041536	34	5710
2026-01-26 15:41:14.96	56.34	29.68	-30.4	-31.1	28.4	0.00e+00	0	28	0	1669332992	34	5776
2026-01-26 15:41:15.97	56.61	29.80	-30.6	-31.2	28.2	0.00e+00	0	28	0	1674575872	34	5868
2026-01-26 15:41:16.98	56.89	29.92	-30.4	-31.0	28.4	0.00e+00	0	28	0	1680867328	34	5748
2026-01-26 15:41:17.99	57.16	30.03	-30.3	-30.9	28.6	0.00e+00	0	28	0	1686110208	34	5657
2026-01-26 15:41:19.00	57.43	30.15	-30.3	-30.9	28.4	0.00e+00	0	28	0	1692401664	34	5688
2026-01-26 15:41:20.01	57.71	30.27	-30.3	-30.9	28.5	0.00e+00	0	28	0	1697644544	34	5654
2026-01-26 15:41:21.02	57.99	30.39	-30.3	-30.9	28.5	0.00e+00	0	28	0	1702887424	34	5672
2026-01-26 15:41:22.03	58.27	30.50	-30.3	-30.9	28.4	0.00e+00	0	28	0	1709178880	34	5692
2026-01-26 15:41:23.04	58.55	30.62	-30.3	-31.0	28.4	0.00e+00	0	28	0	1714421760	34	5709
2026-01-26 15:41:24.05	58.84	30.74	-30.4	-31.1	28.4	0.00e+00	0	28	0	1720713216	34	5765
2026-01-26 15:41:25.05	59.12	30.85	-30.1	-30.7	28.5	0.00e+00	0	28	0	1725956096	34	5552
2026-01-26 15:41:26.06	59.41	30.97	-30.2	-30.8	28.5	0.00e+00	0	28	0	1731198976	34	5574
2026-01-26 15:41:27.07	59.70	31.08	-30.1	-30.7	28.6	0.00e+00	0	28	0	1737490432	34	5542
2026-01-26 15:41:28.08	60.00	31.20	-30.4	-31.0	28.3	0.00e+00	0	28	0	1742733312	34	5745
2026-01-26 15:41:29.09	60.29	31.31	-30.5	-31.1	28.4	0.00e+00	0	28	0	1749024768	34	5798
2026-01-26 15:41:30.10	60.59	31.43	-30.4	-31.1	28.4	0.00e+00	0	28	0	1754267648	34	5766
2026-01-26 15:41:31.11	60.89	31.54	-30.4	-31.1	28.3	0.00e+00	0	28	0	1759510528	34	5785
2026-01-26 15:41:32.12	61.19	31.65	-30.3	-30.9	28.4	0.00e+00	0	28	0	1765801984	34	5688
2026-01-26 15:41:33.13	61.50	31.77	-30.2	-30.9	28.5	0.00e+00	0	28	0	1771044864	34	5631
2026-01-26 15:41:34.14	61.80	31.88	-30.3	-30.9	28.4	0.00e+00	0	28	0	1777336320	34	5643
2026-01-26 15:41:35.15	62.11	31.99	-30.4	-31.0	28.3	0.00e+00	0	28	0	1782579200	34	5707
2026-01-26 15:41:36.16	62.42	32.10	-30.2	-30.7	28.6	0.00e+00	0	28	0	1788870656	34	5564
2026-01-26 15:41:37.17	62.73	32.22	-30.2	-30.8	28.4	0.00e+00	0	28	0	1794113536	34	5612
2026-01-26 15:41:38.18	63.05	32.33	-30.2	-30.9	28.4	0.00e+00	0	28	0	1800404992	34	5640
2026-01-26 15:41:39.19	63.36	32.44	-30.5	-31.1	28.4	0.00e+00	0	28	0	1805647872	34	5819
2026-01-26 15:41:40.20	63.68	32.55	-30.4	-31.0	28.4	0.00e+00	0	28	0	1810890752	34	5703
2026-01-26 15:41:41.21	64.00	32.66	-30.3	-30.9	28.5	0.00e+00	0	28	0	1817182208	34	5686
2026-01-26 15:41:42.21	64.32	32.76	-30.3	-30.9	28.5	0.00e+00	0	28	0	1822425088	34	5687
2026-01-26 15:41:43.22	64.65	32.87	-30.5	-31.1	28.4	0.00e+00	0	28	0	1827667968	34	5803
2026-01-26 15:41:44.23	64.97	32.98	-30.5	-31.1	28.4	0.00e+00	0	28	0	1833959424	34	5797
2026-01-26 15:41:45.24	65.30	33.09	-30.6	-31.2	28.3	0.00e+00	0	28	0	1839202304	34	5857
2026-01-26 15:41:46.25	65.63	33.19	-30.4	-31.0	28.3	0.00e+00	0	28	0	1845493760	34	5747
2026-01-26 15:41:47.26	65.97	33.30	-30.3	-30.9	28.4	0.00e+00	0	28	0	1850736640	34	5646
2026-01-26 15:41:48.27	66.30	33.40	-30.0	-30.7	28.6	0.00e+00	0	28	0	1855979520	34	5505
2026-01-26 15:41:49.28	66.64	33.51	-30.1	-30.7	28.6	0.00e+00	0	28	0	1862270976	34	5549
2026-01-26 15:41:50.29	66.98	33.61	-30.3	-30.9	28.5	0.00e+00	0	28	0	1867513856	34	5676
2026-01-26 15:41:51.30	67.32	33.71	-30.3	-30.9	28.5	0.00e+00	0	28	0	1873805312	34	5692
2026-01-26 15:41:52.31	67.66	33.81	-30.3	-30.9	28.5	0.00e+00	0	28	0	1879048192	34	5692
2026-01-26 15:41:53.32	68.01	33.92	-30.3	-30.9	28.6	0.00e+00	0	28	0	1885339648	34	5648
2026-01-26 15:41:54.32	68.36	34.01	-30.3	-30.9	28.6	0.00e+00	0	28	0	1890582528	34	5668
2026-01-26 15:41:55.33	68.71	34.11	-29.9	-30.5	28.8	0.00e+00	0	28	0	1896873984	34	5410
2026-01-26 15:41:56.34	69.06	34.21	-29.8	-30.4	28.7	0.00e+00	0	28	0	1902116864	34	5341
2026-01-26 15:41:57.35	69.41	34.31	-30.0	-30.6	28.6	0.00e+00	0	28	0	1907359744	34	5471
2026-01-26 15:41:58.36	69.77	34.41	-30.2	-30.8	28.6	0.00e+00	0	28	0	1913651200	34	5568
2026-01-26 15:41:59.37	70.13	34.50	-30.3	-30.9	28.5	0.00e+00	0	28	0	1918894080	34	5656
2026-01-26 15:42:00.38	70.49	34.60	-30.3	-30.9	28.5	0.00e+00	0	28	0	1925185536	34	5695
2026-01-26 15:42:01.39	70.85	34.69	-30.1	-30.7	28.6	0.00e+00	0	28	0	1930428416	34	5545
2026-01-26 15:42:02.41	71.22	34.79	-30.1	-30.7	28.6	0.00e+00	0	28	0	1935671296	34	5565
2026-01-26 15:42:03.41	71.58	34.88	-30.1	-30.7	28.6	0.00e+00	0	28	0	1941962752	34	5553
2026-01-26 15:42:04.42	71.95	34.97	-30.0	-30.6	28.7	0.00e+00	0	28	0	1947205632	34	5440
2026-01-26 15:42:05.43	72.32	35.06	-30.1	-30.7	28.6	0.00e+00	0	28	0	1953497088	34	5547
2026-01-26 15:42:06.44	72.70	35.15	-30.0	-30.7	28.8	0.00e+00	0	28	0	1958739968	34	5504
2026-01-26 15:42:07.45	73.07	35.23	-30.1	-30.7	28.7	0.00e+00	0	28	0	1963982848	34	5556
2026-01-26 15:42:08.47	73.45	35.32	-30.3	-30.9	28.4	0.00e+00	0	28	0	1970274304	34	5678
2026-01-26 15:42:09.47	73.83	35.41	-30.3	-31.0	28.6	0.00e+00	0	28	0	1975517184	34	5707
2026-01-26 15:42:10.48	74.21	35.49	-30.1	-30.7	28.6	0.00e+00	0	28	0	1981808640	34	5541
2026-01-26 15:42:11.49	74.59	35.57	-29.9	-30.5	28.7	0.00e+00	0	28	0	1987051520	34	5427
2026-01-26 15:42:12.50	74.98	35.65	-30.1	-30.7	28.7	0.00e+00	0	28	0	1993342976	34	5549
2026-01-26 15:42:13.51	75.36	35.74	-29.9	-30.5	28.7	0.00e+00	0	28	0	1998585856	34	5435
2026-01-26 15:42:14.52	75.75	35.82	-30.0	-30.7	28.7	0.00e+00	0	28	0	2003828736	34	5524
2026-01-26 15:42:15.53	76.14	35.89	-30.0	-30.7	28.8	0.00e+00	0	28	0	2010120192	34	5525
2026-01-26 15:42:16.54	76.54	35.97	-30.1	-30.7	28.7	0.00e+00	0	28	0	2015363072	34	5544
2026-01-26 15:42:17.55	76.93	36.05	-29.8	-30.4	28.9	0.00e+00	0	28	0	2021654528	32	6014
2026-01-26 15:42:18.56	77.33	36.12	-29.8	-30.4	28.9	0.00e+00	0	28	0	2026897408	32	5990
2026-01-26 15:42:19.57	77.72	36.19	-29.7	-30.3	29.0	0.00e+00	0	28	0	2032140288	32	5911
2026-01-26 15:42:20.58	78.12	36.27	-29.8	-30.4	28.8	0.00e+00	0	28	0	2038431744	32	6023
2026-01-26 15:42:21.59	78.52	36.34	-30.0	-30.7	28.6	0.00e+00	0	28	0	2043674624	32	6188
2026-01-26 15:42:22.60	78.93	36.40	-30.1	-30.7	28.6	0.00e+00	0	28	0	2049966080	32	6192
2026-01-26 15:42:23.61	79.33	36.47	-30.0	-30.7	28.7	0.00e+00	0	28	0	2055208960	32	6177
2026-01-26 15:42:24.62	79.74	36.54	-29.9	-30.6	28.6	0.00e+00	0	28	0	2060451840	32	6108
2026-01-26 15:42:25.63	80.15	36.60	-29.8	-30.4	28.9	0.00e+00	0	28	0	2066743296	32	6006
2026-01-26 15:42:26.64	80.56	36.67	-29.8	-30.4	28.7	0.00e+00	0	28	0	2071986176	32	6022
2026-01-26 15:42:27.65	80.97	36.73	-29.9	-30.5	28.8	0.00e+00	0	28	0	2078277632	32	6056
2026-01-26 15:42:28.65	81.38	36.79	-29.9	-30.6	28.8	0.00e+00	0	28	0	2083520512	32	6111
2026-01-26 15:42:29.66	81.79	36.84	-30.1	-30.7	28.6	0.00e+00	0	28	0	2089811968	32	6202
2026-01-26 15:42:30.67	82.21	36.90	-30.1	-30.7	28.7	0.00e+00	0	28	0	2095054848	32	6243
2026-01-26 15:42:31.68	82.62	36.96	-30.0	-30.7	28.8	0.00e+00	0	28	0	2101346304	32	6175
2026-01-26 15:42:32.69	83.04	37.01	-30.0	-30.6	28.9	0.00e+00	0	28	0	2106589184	32	6114
2026-01-26 15:42:33.70	83.46	37.06	-30.3	-30.9	28.6	0.00e+00	0	28	0	2111832064	32	6351
2026-01-26 15:42:34.71	83.88	37.11	-29.9	-30.5	28.7	0.00e+00	0	28	0	2118123520	32	6052
2026-01-26 15:42:35.72	84.30	37.16	-30.0	-30.6	28.7	0.00e+00	0	28	0	2123366400	32	6160
2026-01-26 15:42:36.73	84.73	37.21	-29.5	-30.2	29.0	0.00e+00	0	28	0	2129657856	32	5849
2026-01-26 15:42:37.74	85.15	37.26	-30.2	-30.8	28.6	0.00e+00	0	28	0	2134900736	32	6310
2026-01-26 15:42:38.75	85.58	37.30	-30.8	-31.4	28.3	0.00e+00	0	28	0	2140143616	36	5364
2026-01-26 15:42:39.76	86.01	37.34	-30.1	-30.7	28.7	0.00e+00	0	28	0	2146435072	34	5539
2026-01-26 15:42:40.77	86.43	37.38	-30.1	-30.7	28.5	0.00e+00	0	28	0	2151677952	34	5552
2026-01-26 15:42:41.78	86.86	37.42	-30.4	-31.0	28.4	0.00e+00	0	28	0	2157969408	34	5724
2026-01-26 15:42:42.79	87.29	37.46	-30.6	-31.1	28.4	0.00e+00	0	28	0	2163212288	34	5820
2026-01-26 15:42:43.80	87.72	37.50	-29.9	-30.6	28.6	0.00e+00	0	28	0	2168455168	34	5455
2026-01-26 15:42:44.81	88.16	37.53	-29.9	-30.6	28.7	0.00e+00	0	28	0	2174746624	34	5443
2026-01-26 15:42:45.82	88.59	37.56	-29.8	-30.4	28.9	0.00e+00	0	28	0	2179989504	34	5350
2026-01-26 15:42:46.83	89.02	37.59	-29.8	-30.3	28.8	0.00e+00	0	28	0	2186280960	32	5960
2026-01-26 15:42:47.84	89.46	37.62	-29.8	-30.4	28.8	0.00e+00	0	28	0	2191523840	32	5967
2026-01-26 15:42:48.85	89.89	37.65	-29.7	-30.3	28.8	0.00e+00	0	28	0	2197815296	32	5950
2026-01-26 15:42:49.86	90.33	37.67	-29.8	-30.4	28.9	0.00e+00	0	28	0	2203058176	32	5980
2026-01-26 15:42:50.86	90.76	37.69	-30.3	-30.9	28.6	0.00e+00	0	28	0	2208301056	32	6342
2026-01-26 15:42:51.87	91.20	37.71	-30.0	-30.6	28.7	0.00e+00	0	28	0	2214592512	32	6153
2026-01-26 15:42:52.88	91.64	37.73	-29.9	-30.5	28.7	0.00e+00	0	28	0	2219835392	32	6102
2026-01-26 15:42:53.89	92.07	37.75	-29.9	-30.5	28.8	0.00e+00	0	28	0	2226126848	32	6066
2026-01-26 15:42:54.90	92.51	37.77	-29.6	-30.2	29.0	0.00e+00	0	28	0	2231369728	32	5888
2026-01-26 15:42:55.91	92.95	37.78	-29.6	-30.2	28.9	0.00e+00	0	28	0	2236612608	32	5884
2026-01-26 15:42:56.92	93.39	37.79	-29.7	-30.3	28.9	0.00e+00	0	28	0	2242904064	32	5959
2026-01-26 15:42:57.93	93.83	37.80	-29.8	-30.4	28.8	0.00e+00	0	28	0	2248146944	32	6031
2026-01-26 15:42:58.94	94.27	37.81	-29.9	-30.5	28.8	0.00e+00	0	28	0	2254438400	32	6045
2026-01-26 15:42:59.95	94.71	37.82	-29.8	-30.4	28.9	0.00e+00	0	28	0	2259681280	32	5999
2026-01-26 15:43:00.96	95.15	37.82	-29.8	-30.4	28.9	0.00e+00	0	28	0	2264924160	32	5987
2026-01-26 15:43:01.97	95.59	37.83	-29.8	-30.4	28.9	0.00e+00	0	28	0	2271215616	32	6018
2026-01-26 15:43:02.98	96.03	37.83	-30.0	-30.7	28.7	0.00e+00	0	28	0	2276458496	32	6174
2026-01-26 15:43:03.98	96.47	37.83	-30.3	-31.0	28.5	0.00e+00	0	28	0	2282749952	32	6440
2026-01-26 15:43:04.99	96.91	37.82	-30.2	-30.8	28.5	0.00e+00	0	28	0	2287992832	32	6259
2026-01-26 15:43:06.00	97.35	37.82	-30.4	-31.0	28.3	0.00e+00	0	28	0	2294284288	32	6451
2026-01-26 15:43:07.01	97.79	37.81	-30.0	-30.6	28.7	0.00e+00	0	28	0	2299527168	32	6173
2026-01-26 15:43:08.02	98.23	37.80	-29.7	-30.3	28.9	0.00e+00	0	28	0	2304770048	32	5955
2026-01-26 15:43:09.03	98.67	37.79	-29.9	-30.5	28.7	0.00e+00	0	28	0	2311061504	32	6087
2026-01-26 15:43:10.04	99.11	37.78	-29.8	-30.4	28.7	0.00e+00	0	28	0	2316304384	32	6012
2026-01-26 15:43:11.05	99.55	37.77	-29.7	-30.2	28.7	0.00e+00	0	28	0	2322595840	32	5889
2026-01-26 15:43:12.06	99.99	37.75	-29.7	-30.3	28.5	0.00e+00	0	28	0	2327838720	32	5923
2026-01-26 15:43:13.07	100.43	37.73	-29.5	-30.1	28.7	0.00e+00	0	28	0	2333081600	32	5794
2026-01-26 15:43:14.08	100.87	37.71	-29.7	-30.3	28.5	0.00e+00	0	28	0	2339373056	32	5960
2026-01-26 15:43:15.09	101.30	37.69	-29.9	-30.6	28.7	0.00e+00	0	28	0	2344615936	32	6106
2026-01-26 15:43:16.10	101.74	37.67	-29.8	-30.4	28.9	0.00e+00	0	28	0	2350907392	32	6012
2026-01-26 15:43:17.11	102.18	37.64	-29.9	-30.5	28.8	0.00e+00	0	28	0	2356150272	32	6093
2026-01-26 15:43:18.12	102.61	37.62	-29.9	-30.5	28.8	0.00e+00	0	28	0	2361393152	32	6045
2026-01-26 15:43:19.13	103.05	37.59	-29.9	-30.5	28.7	0.00e+00	0	28	0	2367684608	32	6047
2026-01-26 15:43:20.14	103.48	37.56	-29.9	-30.5	28.7	0.00e+00	0	28	0	2372927488	32	6088
2026-01-26 15:43:21.15	103.91	37.53	-29.8	-30.5	28.8	0.00e+00	0	28	0	2379218944	32	6040
2026-01-26 15:43:22.16	104.35	37.49	-29.9	-30.6	28.7	0.00e+00	0	28	0	2384461824	32	6117
2026-01-26 15:43:23.18	104.78	37.46	-30.0	-30.7	28.7	0.00e+00	0	28	0	2390753280	32	6187
2026-01-26 15:43:24.19	105.21	37.42	-30.4	-31.1	28.1	0.00e+00	0	28	0	2395996160	32	6498
2026-01-26 15:43:25.20	105.64	37.38	-30.5	-31.1	28.5	0.00e+00	0	28	0	2402287616	32	6514
2026-01-26 15:43:26.21	106.07	37.34	-30.3	-31.0	28.4	0.00e+00	0	28	0	2407530496	32	6405
2026-01-26 15:43:27.21	106.49	37.30	-30.4	-31.1	28.5	0.00e+00	0	28	0	2412773376	32	6465
2026-01-26 15:43:28.23	106.92	37.25	-29.9	-30.5	28.6	0.00e+00	0	28	0	2419064832	32	6038
2026-01-26 15:43:29.24	107.35	37.20	-30.3	-30.8	28.5	0.00e+00	0	28	0	2424307712	32	6292
2026-01-26 15:43:30.25	107.77	37.16	-30.0	-30.7	28.6	0.00e+00	0	28	0	2430599168	32	6176
2026-01-26 15:43:31.26	108.20	37.11	-30.2	-30.8	28.6	0.00e+00	0	28	0	2435842048	32	6291
2026-01-26 15:43:32.27	108.62	37.06	-30.5	-31.2	28.4	0.00e+00	0	28	0	2441084928	32	6541
2026-01-26 15:43:33.28	109.04	37.00	-30.3	-30.9	28.6	0.00e+00	0	28	0	2447376384	32	6339
2026-01-26 15:43:34.29	109.46	36.95	-30.2	-30.8	28.5	0.00e+00	0	28	0	2452619264	32	6266
2026-01-26 15:43:35.30	109.87	36.89	-30.3	-30.9	28.5	0.00e+00	0	28	0	2458910720	32	6320
2026-01-26 15:43:36.31	110.29	36.84	-30.2	-30.8	28.6	0.00e+00	0	28	0	2464153600	32	6255
2026-01-26 15:43:37.32	110.70	36.78	-30.4	-31.0	28.5	0.00e+00	0	28	0	2469396480	32	6440
2026-01-26 15:43:38.33	111.12	36.72	-30.3	-30.9	28.4	0.00e+00	0	28	0	2475687936	32	6383
2026-01-26 15:43:39.34	111.53	36.66	-30.2	-30.8	28.6	0.00e+00	0	28	0	2480930816	32	6269
2026-01-26 15:43:40.35	111.94	36.59	-30.6	-31.2	28.4	0.00e+00	0	28	0	2487222272	32	6558
2026-01-26 15:43:41.36	112.35	36.53	-30.1	-30.8	28.6	0.00e+00	0	28	0	2492465152	32	6249
2026-01-26 15:43:42.37	112.75	36.46	-30.2	-30.8	28.5	0.00e+00	0	28	0	2498756608	32	6317
2026-01-26 15:43:43.38	113.16	36.39	-29.9	-30.6	28.7	0.00e+00	0	28	0	2503999488	32	6133
2026-01-26 15:43:44.39	113.56	36.32	-29.9	-30.4	28.8	0.00e+00	0	28	0	2510290944	32	6018
2026-01-26 15:43:45.40	113.96	36.25	-30.0	-30.6	28.7	0.00e+00	0	28	0	2515533824	32	6168
2026-01-26 15:43:46.41	114.37	36.18	-29.8	-30.3	28.8	0.00e+00	0	28	0	2520776704	32	5956
2026-01-26 15:43:47.42	114.76	36.11	-29.8	-30.5	28.8	0.00e+00	0	28	0	2527068160	32	6042
2026-01-26 15:43:48.43	115.16	36.03	-30.1	-30.7	28.7	0.00e+00	0	28	0	2532311040	32	6228
2026-01-26 15:43:49.44	115.55	35.96	-30.0	-30.7	28.6	0.00e+00	0	28	0	2538602496	32	6226
2026-01-26 15:43:50.45	115.95	35.88	-30.1	-30.6	28.6	0.00e+00	0	28	0	2543845376	32	6142
2026-01-26 15:43:51.46	116.34	35.80	-30.0	-30.6	28.7	0.00e+00	0	28	0	2549088256	32	6119
2026-01-26 15:43:52.47	116.73	35.72	-30.5	-31.2	28.3	0.00e+00	0	28	0	2555379712	32	6553
2026-01-26 15:43:53.48	117.12	35.64	-30.1	-30.7	28.6	0.00e+00	0	28	0	2560622592	32	6205
2026-01-26 15:43:54.49	117.50	35.56	-30.2	-30.8	28.6	0.00e+00	0	28	0	2566914048	32	6277
2026-01-26 15:43:55.50	117.88	35.47	-30.4	-30.9	28.5	0.00e+00	0	28	0	2572156928	32	6384
2026-01-26 15:43:56.51	118.27	35.39	-30.3	-30.9	28.5	0.00e+00	0	28	0	2577399808	32	6344
2026-01-26 15:43:57.52	118.65	35.30	-30.2	-30.9	28.5	0.00e+00	0	28	0	2583691264	32	6329
2026-01-26 15:43:58.53	119.02	35.22	-30.4	-31.1	28.4	0.00e+00	0	28	0	2588934144	32	6482
2026-01-26 15:43:59.54	119.40	35.13	-30.4	-31.0	28.3	0.00e+00	0	28	0	2595225600	32	6462
2026-01-26 15:44:00.55	119.77	35.04	-30.4	-31.1	28.5	0.00e+00	0	28	0	2600468480	32	6468
2026-01-26 15:44:01.56	120.14	34.95	-30.5	-31.1	28.4	0.00e+00	0	28	0	2606759936	32	6466
2026-01-26 15:44:02.57	120.51	34.86	-30.1	-30.7	28.6	0.00e+00	0	28	0	2612002816	32	6226
2026-01-26 15:44:03.58	120.88	34.77	-30.2	-30.8	28.4	0.00e+00	0	28	0	2617245696	32	6315
2026-01-26 15:44:04.59	121.25	34.67	-30.4	-31.1	28.4	0.00e+00	0	28	0	2623537152	32	6522
2026-01-26 15:44:05.60	121.61	34.58	-30.5	-31.2	28.4	0.00e+00	0	28	0	2628780032	32	6545
2026-01-26 15:44:06.61	121.97	34.48	-30.5	-31.2	28.3	0.00e+00	0	28	0	2635071488	32	6543
2026-01-26 15:44:07.62	122.33	34.39	-30.5	-31.0	28.3	0.00e+00	0	28	0	2640314368	32	6448
2026-01-26 15:44:08.63	122.69	34.29	-30.2	-30.9	28.5	0.00e+00	0	28	0	2646605824	32	6368
2026-01-26 15:44:09.64	123.04	34.19	-30.1	-30.7	28.5	0.00e+00	0	28	0	2651848704	32	6201
2026-01-26 15:44:10.65	123.40	34.09	-30.1	-30.7	28.6	0.00e+00	0	28	0	2657091584	32	6181
2026-01-26 15:44:11.66	123.75	33.99	-30.3	-30.8	28.5	0.00e+00	0	28	0	2663383040	32	6277
2026-01-26 15:44:12.67	124.10	33.89	-30.4	-31.1	28.4	0.00e+00	0	28	0	2668625920	32	6473
2026-01-26 15:44:13.68	124.44	33.79	-30.6	-31.3	28.3	0.00e+00	0	28	0	2674917376	32	6628
2026-01-26 15:44:14.69	124.79	33.69	-30.8	-31.5	28.1	0.00e+00	0	28	0	2680160256	34	6075
2026-01-26 15:44:15.70	125.13	33.58	-30.6	-31.2	28.3	0.00e+00	0	28	0	2685403136	34	5861
2026-01-26 15:44:16.71	125.47	33.48	-30.3	-30.9	28.4	0.00e+00	0	28	0	2691694592	34	5646
2026-01-26 15:44:17.72	125.81	33.37	-30.4	-30.9	28.5	0.00e+00	0	28	0	2696937472	34	5678
2026-01-26 15:44:18.73	126.15	33.27	-30.3	-30.9	28.5	0.00e+00	0	28	0	2703228928	34	5654
2026-01-26 15:44:19.74	126.48	33.16	-30.3	-30.8	28.5	0.00e+00	0	28	0	2708471808	34	5596
2026-01-26 15:44:20.75	126.81	33.06	-30.5	-31.1	28.2	0.00e+00	0	28	0	2713714688	34	5803
2026-01-26 15:44:21.76	127.14	32.95	-30.6	-31.2	28.2	0.00e+00	0	28	0	2720006144	34	5884
2026-01-26 15:44:22.77	127.47	32.84	-30.5	-31.2	28.3	0.00e+00	0	28	0	2725249024	34	5870
2026-01-26 15:44:23.78	127.79	32.73	-30.5	-31.1	28.3	0.00e+00	0	28	0	2731540480	34	5765
2026-01-26 15:44:24.79	128.12	32.62	-30.4	-31.0	28.3	0.00e+00	0	28	0	2736783360	34	5705
2026-01-26 15:44:25.80	128.44	32.51	-30.5	-31.2	28.3	0.00e+00	0	28	0	2743074816	34	5856
2026-01-26 15:44:26.81	128.76	32.40	-30.5	-31.1	28.3	0.00e+00	0	28	0	2748317696	34	5773
2026-01-26 15:44:27.82	129.07	32.29	-30.5	-31.1	28.3	0.00e+00	0	28	0	2753560576	34	5784
2026-01-26 15:44:28.83	129.39	32.18	-30.6	-31.1	28.2	0.00e+00	0	27	0	2759852032	34	5826
2026-01-26 15:44:29.84	129.70	32.07	-30.7	-31.4	28.1	0.00e+00	0	28	0	2765094912	34	6012
2026-01-26 15:44:30.85	130.01	31.96	-30.5	-31.0	28.2	0.00e+00	0	28	0	2771386368	34	5752
2026-01-26 15:44:31.86	130.32	31.84	-30.5	-31.2	28.3	0.00e+00	0	28	0	2776629248	34	5872
2026-01-26 15:44:32.87	130.63	31.73	-30.5	-31.1	28.2	0.00e+00	0	28	0	2781872128	34	5820
2026-01-26 15:44:33.88	130.93	31.62	-30.3	-30.8	28.4	0.00e+00	0	28	0	2788163584	34	5622
2026-01-26 15:44:34.89	131.23	31.50	-30.3	-30.8	28.4	0.00e+00	0	28	0	2793406464	34	5616
2026-01-26 15:44:35.90	131.53	31.39	-30.3	-31.0	28.4	0.00e+00	0	28	0	2799697920	34	5704
2026-01-26 15:44:36.91	131.83	31.27	-30.4	-30.9	28.3	0.00e+00	0	28	0	2804940800	34	5667
2026-01-26 15:44:37.92	132.13	31.16	-30.4	-31.0	28.3	0.00e+00	0	28	0	2811232256	34	5750
2026-01-26 15:44:38.92	132.42	31.04	-30.6	-31.2	28.2	0.00e+00	0	28	0	2816475136	34	5858
2026-01-26 15:44:39.93	132.71	30.93	-30.7	-31.3	28.2	0.00e+00	0	28	0	2821718016	34	5943
2026-01-26 15:44:40.94	133.00	30.81	-30.9	-31.4	28.0	0.00e+00	0	28	0	2828009472	34	6003
2026-01-26 15:44:41.95	133.29	30.69	-30.7	-31.3	28.1	0.00e+00	0	28	0	2833252352	34	5918
2026-01-26 15:44:42.96	133.57	30.58	-30.8	-31.5	28.0	0.00e+00	0	28	0	2839543808	34	6051
2026-01-26 15:44:43.97	133.86	30.46	-30.8	-31.4	28.1	0.00e+00	0	28	0	2844786688	34	5978
2026-01-26 15:44:44.98	134.14	30.34	-30.7	-31.4	28.1	0.00e+00	0	28	0	2851078144	34	6011
2026-01-26 15:44:45.99	134.42	30.22	-30.6	-31.1	28.1	0.00e+00	0	28	0	2856321024	34	5825
2026-01-26 15:44:47.00	134.69	30.10	-30.6	-31.3	28.0	0.00e+00	0	28	0	2861563904	34	5931
2026-01-26 15:44:48.01	134.97	29.99	-30.6	-31.3	28.1	0.00e+00	0	28	0	2867855360	34	5899
2026-01-26 15:44:49.02	135.24	29.87	-30.5	-31.2	28.1	0.00e+00	0	28	0	2873098240	34	5893
2026-01-26 15:44:50.03	135.52	29.75	-30.7	-31.3	28.1	0.00e+00	0	28	0	2879389696	34	5949
2026-01-26 15:44:51.04	135.78	29.63	-30.7	-31.5	28.0	0.00e+00	0	28	0	2884632576	34	6034
2026-01-26 15:44:52.05	136.05	29.51	-30.9	-31.5	27.8	0.00e+00	0	28	0	2889875456	34	6079
2026-01-26 15:44:53.05	136.32	29.39	-30.9	-31.5	27.7	0.00e+00	0	28	0	2896166912	34	6080
2026-01-26 15:44:54.06	136.58	29.27	-30.9	-31.6	27.5	0.00e+00	0	28	0	2901409792	34	6112
2026-01-26 15:44:55.07	136.84	29.15	-30.8	-31.4	27.9	0.00e+00	0	28	0	2906652672	34	5995
2026-01-26 15:44:56.08	137.10	29.03	-30.7	-31.3	27.8	0.00e+00	0	28	0	2912944128	34	5911
2026-01-26 15:44:57.09	137.36	28.91	-30.8	-31.5	27.6	0.00e+00	0	28	0	2918187008	34	6072
2026-01-26 15:44:58.10	137.62	28.79	-31.0	-31.6	27.7	0.00e+00	0	28	0	2924478464	34	6109
2026-01-26 15:44:59.11	137.87	28.67	-31.1	-31.6	27.6	0.00e+00	0	28	0	2929721344	34	6160
2026-01-26 15:45:00.12	138.12	28.55	-31.3	-32.0	27.4	0.00e+00	0	28	0	2936012800	34	6455
2026-01-26 15:45:01.13	138.37	28.43	-31.1	-31.8	27.6	0.00e+00	0	28	0	2941255680	34	6281
2026-01-26 15:45:02.14	138.62	28.31	-31.1	-31.7	27.8	0.00e+00	0	28	0	2947547136	34	6234
2026-01-26 15:45:03.14	138.87	28.19	-30.8	-31.5	28.0	0.00e+00	0	28	0	2952790016	34	6093
2026-01-26 15:45:04.16	139.12	28.07	-30.8	-31.5	28.0	0.00e+00	0	28	0	2958032896	34	6067
2026-01-26 15:45:05.17	139.36	27.95	-30.7	-31.3	28.1	0.00e+00	0	28	0	2964324352	34	5907
2026-01-26 15:45:06.18	139.60	27.83	-30.7	-31.3	28.1	0.00e+00	0	28	0	2969567232	34	5953
2026-01-26 15:45:07.18	139.84	27.71	-30.7	-31.4	28.1	0.00e+00	0	28	0	2975858688	34	5979
2026-01-26 15:45:08.19	140.08	27.59	-30.8	-31.3	28.1	0.00e+00	0	28	0	2981101568	34	5940
2026-01-26 15:45:09.21	140.32	27.47	-30.8	-31.4	28.1	0.00e+00	0	28	0	2986344448	34	5976
2026-01-26 15:45:10.21	140.55	27.35	-30.9	-31.4	27.9	0.00e+00	0	28	0	2992635904	34	6014
2026-01-26 15:45:11.22	140.78	27.23	-31.0	-31.5	27.9	0.00e+00	0	28	0	2997878784	34	6083
2026-01-26 15:45:12.23	141.01	27.11	-31.1	-31.7	27.7	0.00e+00	0	28	0	3004170240	34	6175
2026-01-26 15:45:13.24	141.24	26.99	-30.9	-31.6	28.0	0.00e+00	0	28	0	3009413120	34	6115
2026-01-26 15:45:14.25	141.47	26.87	-30.6	-31.2	28.2	0.00e+00	0	28	0	3014656000	34	5871
2026-01-26 15:45:15.26	141.70	26.75	-30.6	-31.2	28.3	0.00e+00	0	28	0	3020947456	34	5833
2026-01-26 15:45:16.27	141.92	26.63	-30.6	-31.2	28.1	0.00e+00	0	28	0	3026190336	34	5859
2026-01-26 15:45:17.28	142.14	26.51	-30.7	-31.3	28.1	0.00e+00	0	28	0	3032481792	34	5906
2026-01-26 15:45:18.29	142.37	26.39	-30.6	-31.3	28.2	0.00e+00	0	28	0	3037724672	34	5949
2026-01-26 15:45:19.30	142.58	26.27	-30.7	-31.4	28.1	0.00e+00	0	28	0	3044016128	34	6009
2026-01-26 15:45:20.31	142.80	26.15	-30.8	-31.5	27.9	0.00e+00	0	28	0	3049259008	34	6068
2026-01-26 15:45:21.32	143.02	26.03	-30.8	-31.3	28.0	0.00e+00	0	28	0	3054501888	34	5952
2026-01-26 15:45:22.33	143.23	25.91	-30.8	-31.5	27.9	0.00e+00	0	28	0	3060793344	34	6080
2026-01-26 15:45:23.34	143.45	25.79	-30.6	-31.3	28.1	0.00e+00	0	28	0	3066036224	34	5963
2026-01-26 15:45:24.35	143.66	25.67	-30.7	-31.3	28.1	0.00e+00	0	28	0	3072327680	34	5960
2026-01-26 15:45:25.36	143.87	25.55	-30.7	-31.2	28.0	0.00e+00	0	28	0	3077570560	34	5896
2026-01-26 15:45:26.37	144.08	25.44	-30.7	-31.2	28.1	0.00e+00	0	28	0	3082813440	34	5880
2026-01-26 15:45:27.38	144.29	25.32	-30.8	-31.5	27.9	0.00e+00	0	28	0	3089104896	34	6071
2026-01-26 15:45:28.39	144.49	25.20	-30.9	-31.4	27.9	0.00e+00	0	28	0	3094347776	34	6008
2026-01-26 15:45:29.40	144.70	25.08	-31.0	-31.7	27.8	0.00e+00	0	28	0	3100639232	34	6234
2026-01-26 15:45:30.41	144.90	24.96	-31.0	-31.7	27.9	0.00e+00	0	28	0	3105882112	34	6181
2026-01-26 15:45:31.42	145.10	24.84	-31.1	-31.9	27.8	0.00e+00	0	28	0	3111124992	34	6324
2026-01-26 15:45:32.43	145.30	24.72	-31.0	-31.8	27.8	0.00e+00	0	28	0	3117416448	34	6251
2026-01-26 15:45:33.44	145.50	24.61	-31.1	-31.8	27.8	0.00e+00	0	28	0	3122659328	34	6294
2026-01-26 15:45:34.45	145.69	24.49	-31.0	-31.8	27.9	0.00e+00	0	28	0	3128950784	34	6246
2026-01-26 15:45:35.46	145.89	24.37	-30.9	-31.5	27.9	0.00e+00	0	28	0	3134193664	34	6053
2026-01-26 15:45:36.47	146.08	24.25	-31.0	-31.5	27.9	0.00e+00	0	28	0	3140485120	34	6080
2026-01-26 15:45:37.48	146.28	24.14	-30.8	-31.5	28.0	0.00e+00	0	28	0	3145728000	34	6083
2026-01-26 15:45:38.49	146.47	24.02	-30.9	-31.6	27.9	0.00e+00	0	28	0	3152019456	34	6131
2026-01-26 15:45:39.50	146.66	23.90	-31.0	-31.6	27.8	0.00e+00	0	28	0	3157262336	34	6141
2026-01-26 15:45:40.51	146.85	23.79	-31.1	-31.6	27.8	0.00e+00	0	28	0	3162505216	34	6158
2026-01-26 15:45:41.52	147.03	23.67	-31.2	-31.8	27.7	0.00e+00	0	28	0	3168796672	34	6290
2026-01-26 15:45:42.53	147.22	23.56	-31.4	-32.1	27.5	0.00e+00	0	28	0	3174039552	34	6536
2026-01-26 15:45:43.54	147.40	23.44	-31.4	-32.1	27.5	0.00e+00	0	28	0	3180331008	34	6518
2026-01-26 15:45:44.55	147.59	23.32	-31.4	-32.0	27.5	0.00e+00	0	28	0	3185573888	34	6428
2026-01-26 15:45:45.56	147.77	23.21	-31.4	-32.0	27.5	0.00e+00	0	28	0	3190816768	34	6427
2026-01-26 15:45:46.57	147.95	23.09	-31.2	-31.9	27.7	0.00e+00	0	28	0	3197108224	34	6371
2026-01-26 15:45:47.58	148.13	22.98	-31.3	-31.8	27.6	0.00e+00	0	28	0	3202351104	34	6295
2026-01-26 15:45:48.58	148.30	22.86	-31.2	-31.8	27.7	0.00e+00	0	28	0	3208642560	34	6265
2026-01-26 15:45:49.59	148.48	22.75	-31.2	-31.8	27.8	0.00e+00	0	28	0	3213885440	34	6305
2026-01-26 15:45:50.60	148.66	22.64	-31.2	-31.7	27.6	0.00e+00	0	28	0	3219128320	34	6208
2026-01-26 15:45:51.61	148.83	22.52	-31.3	-32.0	27.6	0.00e+00	0	28	0	3225419776	34	6391
2026-01-26 15:45:52.62	149.00	22.41	-31.4	-32.1	27.5	0.00e+00	0	28	0	3230662656	34	6497
2026-01-26 15:45:53.63	149.17	22.29	-31.5	-32.2	27.5	0.00e+00	0	28	0	3236954112	34	6546
2026-01-26 15:45:54.64	149.34	22.18	-31.5	-32.0	27.5	0.00e+00	0	28	0	3242196992	34	6452
2026-01-26 15:45:55.64	149.51	22.07	-31.5	-32.1	27.3	0.00e+00	0	28	0	3248488448	34	6498
2026-01-26 15:45:56.65	149.68	21.96	-31.5	-32.2	27.4	0.00e+00	0	28	0	3253731328	34	6581
2026-01-26 15:45:57.66	149.85	21.84	-31.7	-32.4	27.3	0.00e+00	0	28	0	3258974208	34	6722
2026-01-26 15:45:58.67	150.01	21.73	-31.7	-32.2	27.3	0.00e+00	0	28	0	3265265664	34	6615
2026-01-26 15:45:59.68	150.18	21.62	-31.7	-32.4	27.2	0.00e+00	0	28	0	3270508544	36	6009
2026-01-26 15:46:00.70	150.34	21.51	-31.9	-32.5	27.1	0.00e+00	0	28	0	3276800000	36	6056
2026-01-26 15:46:01.70	150.50	21.40	-31.7	-32.2	27.3	0.00e+00	0	28	0	3282042880	36	5894
2026-01-26 15:46:02.71	150.66	21.29	-31.7	-32.4	27.3	0.00e+00	0	28	0	3287285760	36	5985
2026-01-26 15:46:03.72	150.82	21.17	-31.8	-32.4	27.2	0.00e+00	0	28	0	3293577216	36	5968
2026-01-26 15:46:04.73	150.98	21.06	-31.9	-32.5	27.1	0.00e+00	0	28	0	3298820096	36	6050
2026-01-26 15:46:05.74	151.14	20.95	-31.9	-32.5	27.1	0.00e+00	0	28	0	3305111552	36	6044
2026-01-26 15:46:06.75	151.30	20.84	-31.8	-32.5	27.1	0.00e+00	0	28	0	3310354432	36	6068
2026-01-26 15:46:07.76	151.45	20.73	-31.9	-32.6	27.1	0.00e+00	0	28	0	3315597312	36	6138
2026-01-26 15:46:08.77	151.61	20.62	-32.1	-32.8	27.0	0.00e+00	0	28	0	3321888768	36	6288
2026-01-26 15:46:09.78	151.76	20.52	-32.0	-32.8	26.9	0.00e+00	0	28	0	3327131648	36	6264
2026-01-26 15:46:10.78	151.91	20.41	-32.2	-32.9	26.9	0.00e+00	0	28	0	3333423104	36	6370
2026-01-26 15:46:11.80	152.07	20.30	-32.1	-32.6	26.9	0.00e+00	0	28	0	3338665984	36	6159
2026-01-26 15:46:12.81	152.22	20.19	-32.1	-32.8	26.9	0.00e+00	0	28	0	3344957440	36	6305
2026-01-26 15:46:13.82	152.37	20.08	-32.0	-32.7	27.0	0.00e+00	0	28	0	3350200320	36	6243
2026-01-26 15:46:14.82	152.51	19.97	-32.2	-33.0	26.8	0.00e+00	0	28	0	3355443200	36	6403
2026-01-26 15:46:15.83	152.66	19.87	-32.0	-32.7	27.0	0.00e+00	0	28	0	3361734656	36	6232
2026-01-26 15:46:16.84	152.81	19.76	-32.0	-32.6	27.0	0.00e+00	0	28	0	3366977536	36	6107
2026-01-26 15:46:17.85	152.95	19.65	-32.0	-32.7	27.0	0.00e+00	0	28	0	3373268992	36	6207
2026-01-26 15:46:18.86	153.10	19.55	-32.1	-32.7	26.9	0.00e+00	0	28	0	3378511872	36	6205
2026-01-26 15:46:19.87	153.24	19.44	-32.2	-32.8	26.8	0.00e+00	0	28	0	3383754752	36	6287
2026-01-26 15:46:20.88	153.38	19.33	-32.4	-33.2	26.6	0.00e+00	0	28	0	3390046208	36	6542
2026-01-26 15:46:21.88	153.52	19.23	-32.5	-33.3	26.5	0.00e+00	0	28	0	3395289088	36	6618
2026-01-26 15:46:22.89	153.66	19.12	-32.8	-33.4	26.3	0.00e+00	0	28	0	3401580544	36	6718
2026-01-26 15:46:23.90	153.80	19.02	-33.0	-33.6	26.1	0.00e+00	0	28	0	3406823424	38	6122
2026-01-26 15:46:24.91	153.94	18.91	-33.3	-34.0	25.7	0.00e+00	0	28	0	3412066304	38	6445
2026-01-26 15:46:25.92	154.08	18.81	-33.6	-34.2	25.4	0.00e+00	0	28	0	3418357760	38	6568
2026-01-26 15:46:26.92	154.21	18.70	-34.1	-34.8	24.7	0.00e+00	0	28	0	3423600640	40	6305
2026-01-26 15:46:27.93	154.35	18.60	-34.5	-35.3	24.2	0.00e+00	0	28	0	3429892096	40	6658
2026-01-26 15:46:28.94	154.49	18.50	-35.0	-35.7	23.6	0.00e+00	0	28	0	3435134976	42	6202
2026-01-26 15:46:29.95	154.62	18.39	-35.6	-36.3	22.9	0.00e+00	0	28	0	3441426432	42	6647
2026-01-26 15:46:30.96	154.75	18.29	-35.9	-36.8	22.3	0.00e+00	0	28	0	3446669312	44	6292
2026-01-26 15:46:31.97	154.89	18.19	-36.4	-37.3	21.7	0.00e+00	0	28	0	3451912192	44	6618
2026-01-26 15:46:32.98	155.02	18.08	-36.5	-37.4	21.5	0.00e+00	0	28	0	3458203648	44	6759
2026-01-26 15:46:33.99	155.15	17.98	-36.7	-37.6	21.4	0.00e+00	0	28	0	3463446528	44	6877
2026-01-26 15:46:35.00	155.28	17.88	-36.6	-37.5	21.4	0.00e+00	0	28	0	3469737984	44	6828
2026-01-26 15:46:36.02	155.41	17.77	-36.3	-37.0	21.9	0.00e+00	0	28	0	3474980864	44	6455
2026-01-26 15:46:37.03	155.54	17.67	-35.9	-36.6	22.5	0.00e+00	0	28	0	3480223744	44	6148
2026-01-26 15:46:38.03	155.66	17.57	-35.6	-36.5	22.9	0.00e+00	0	28	0	3486515200	44	6048
2026-01-26 15:46:39.05	155.79	17.47	-35.4	-36.3	23.3	0.00e+00	0	28	0	3491758080	44	5909
2026-01-26 15:46:40.06	155.92	17.37	-34.8	-35.6	23.9	0.00e+00	0	28	0	3498049536	44	5497
2026-01-26 15:46:41.06	156.04	17.27	-34.6	-35.2	24.3	0.00e+00	0	28	0	3503292416	42	5863
2026-01-26 15:46:42.07	156.16	17.17	-34.5	-35.1	24.5	0.00e+00	0	28	0	3508535296	42	5812
2026-01-26 15:46:43.08	156.29	17.07	-33.8	-34.5	25.2	0.00e+00	0	28	0	3514826752	42	5433
2026-01-26 15:46:44.09	156.41	16.97	-33.4	-34.1	25.4	0.00e+00	0	28	0	3520069632	40	5765
2026-01-26 15:46:45.10	156.53	16.87	-33.4	-34.0	25.5	0.00e+00	0	28	0	3526361088	40	5736
2026-01-26 15:46:46.11	156.65	16.77	-33.4	-34.0	25.6	0.00e+00	0	28	0	3531603968	40	5730
2026-01-26 15:46:47.12	156.77	16.67	-33.0	-33.8	25.9	0.00e+00	0	28	0	3537895424	40	5569
2026-01-26 15:46:48.13	156.89	16.58	-33.1	-33.6	25.9	0.00e+00	0	28	0	3543138304	40	5500
2026-01-26 15:46:49.14	157.01	16.48	-33.0	-33.6	26.0	0.00e+00	0	28	0	3549429760	40	5468
2026-01-26 15:46:50.15	157.13	16.38	-33.0	-33.5	26.1	0.00e+00	0	28	0	3554672640	40	5427
2026-01-26 15:46:51.16	157.25	16.28	-33.1	-33.8	26.0	0.00e+00	0	28	0	3559915520	40	5608
2026-01-26 15:46:52.17	157.36	16.18	-32.9	-33.4	26.2	0.00e+00	0	28	0	3566206976	40	5362
2026-01-26 15:46:53.17	157.48	16.09	-32.9	-33.5	26.1	0.00e+00	0	28	0	3571449856	40	5404
2026-01-26 15:46:54.18	157.59	15.99	-32.9	-33.7	26.1	0.00e+00	0	28	0	3577741312	40	5504
2026-01-26 15:46:55.19	157.71	15.89	-33.0	-33.7	26.1	0.00e+00	0	28	0	3582984192	40	5541
2026-01-26 15:46:56.20	157.82	15.80	-32.9	-33.7	26.1	0.00e+00	0	28	0	3588227072	40	5513
2026-01-26 15:46:57.21	157.93	15.70	-33.1	-33.8	26.0	0.00e+00	0	28	0	3594518528	40	5598
2026-01-26 15:46:58.22	158.05	15.61	-33.1	-33.8	26.0	0.00e+00	0	28	0	3599761408	40	5627
2026-01-26 15:46:59.23	158.16	15.51	-33.2	-33.9	25.9	0.00e+00	0	28	0	3606052864	40	5680
2026-01-26 15:47:00.24	158.27	15.42	-33.3	-34.0	25.8	0.00e+00	0	28	0	3611295744	40	5751
2026-01-26 15:47:01.25	158.38	15.32	-33.3	-33.9	25.8	0.00e+00	0	28	0	3616538624	40	5663
2026-01-26 15:47:02.26	158.49	15.23	-33.3	-34.1	25.7	0.00e+00	0	28	0	3622830080	40	5780
2026-01-26 15:47:03.27	158.60	15.13	-33.4	-34.2	25.7	0.00e+00	0	28	0	3628072960	40	5862
2026-01-26 15:47:04.28	158.70	15.04	-33.6	-34.2	25.5	0.00e+00	0	28	0	3634364416	40	5863
2026-01-26 15:47:05.29	158.81	14.94	-33.5	-34.2	25.6	0.00e+00	0	28	0	3639607296	40	5880
