passes_logs/2026/01/26/R4.6S_Anadyr/R4.6S_Anadyr__20260126_173603_AQUA_rec.log

#Pass ID: 20260126_173603_AQUA
#Satellite: AQUA
#Configuration: AQUA
#almurnet v.1.7.20251203
#Start time: 2026-01-26 17:36:06

#Version: 2.2.20231116
#Station: R4.6S_Anadyr
#Location: 177.4865 lon 64.73178 lat
#TLE: 1 27424U 02022A   26025.91340420  .00001969  00000+0  40368-3 0  9991
#TLE: 2 27424  98.4100 352.5253 0001880  65.2649  27.8322 14.61861165262482

#Time	Az	El	Level	Level2	SNR	BER	BlckErr	Temp	State	Recorded	gain1	gain2
2026-01-26 17:36:06.21	21.73	0.16	-49.4	-61.2	3.5	8.45e-01	0	27	0	0	60	41479
2026-01-26 17:36:07.21	21.70	0.22	-50.4	-68.2	3.5	3.03e+01	0	28	104	0	60	99171
2026-01-26 17:36:08.22	21.67	0.28	-50.6	-68.5	3.5	3.03e+01	0	28	104	0	60	101942
2026-01-26 17:36:09.23	21.63	0.34	-51.0	-68.8	3.5	3.03e+01	0	28	104	0	60	106261
2026-01-26 17:36:10.24	21.59	0.40	-50.5	-68.4	3.5	3.03e+01	0	28	104	0	60	101676
2026-01-26 17:36:11.25	21.56	0.46	-50.9	-68.7	3.5	3.03e+01	0	28	104	0	60	105033
2026-01-26 17:36:12.26	21.52	0.52	-50.0	-67.9	3.5	3.03e+01	0	28	104	0	60	96090
2026-01-26 17:36:13.27	21.49	0.59	-49.7	-67.6	3.5	3.03e+01	0	28	104	0	60	91898
2026-01-26 17:36:14.28	21.45	0.65	-49.6	-67.5	3.5	3.03e+01	0	28	104	0	60	91551
2026-01-26 17:36:15.29	21.42	0.71	-49.6	-67.5	3.5	3.03e+01	0	28	104	0	60	90822
2026-01-26 17:36:16.30	21.38	0.77	-49.5	-67.4	3.5	3.03e+01	0	28	104	0	60	90131
2026-01-26 17:36:17.31	21.34	0.83	-49.6	-67.4	3.5	3.03e+01	0	28	104	0	60	90451
2026-01-26 17:36:18.32	21.31	0.89	-49.6	-67.5	3.5	3.03e+01	0	28	104	0	60	90776
2026-01-26 17:36:19.33	21.27	0.96	-49.5	-67.4	3.5	3.03e+01	0	28	104	0	60	90246
2026-01-26 17:36:20.34	21.23	1.02	-49.5	-67.4	3.5	3.03e+01	0	28	104	0	60	90236
2026-01-26 17:36:21.35	21.20	1.08	-49.3	-67.4	3.5	3.03e+01	0	28	104	0	60	89955
2026-01-26 17:36:22.36	21.16	1.14	-49.5	-67.4	3.5	3.03e+01	0	28	104	0	60	89977
2026-01-26 17:36:23.37	21.12	1.21	-49.4	-67.3	3.5	3.03e+01	0	29	104	0	60	88690
2026-01-26 17:36:24.38	21.08	1.27	-49.4	-67.3	3.5	3.03e+01	0	29	104	0	60	88704
2026-01-26 17:36:25.39	21.04	1.33	-48.9	-67.2	3.5	3.03e+01	0	29	104	0	60	88115
2026-01-26 17:36:26.40	21.01	1.39	-49.1	-67.0	3.5	3.03e+01	0	28	104	0	60	86220
2026-01-26 17:36:27.40	20.97	1.46	-49.1	-67.0	3.5	3.03e+01	0	29	104	0	60	85951
2026-01-26 17:36:28.41	20.93	1.52	-48.8	-66.8	3.5	3.03e+01	0	29	104	0	60	84426
2026-01-26 17:36:29.42	20.89	1.58	-48.8	-66.7	3.5	3.03e+01	0	29	104	0	60	83123
2026-01-26 17:36:30.43	20.85	1.65	-48.7	-66.6	3.5	3.03e+01	0	29	104	0	60	82345
2026-01-26 17:36:31.44	20.81	1.71	-48.6	-66.3	3.5	3.03e+01	0	29	104	0	60	79186
2026-01-26 17:36:32.44	20.77	1.77	-48.4	-66.1	3.5	3.03e+01	0	29	104	0	60	78120
2026-01-26 17:36:33.45	20.73	1.84	-48.3	-66.1	3.5	3.03e+01	0	29	104	0	60	77984
2026-01-26 17:36:34.46	20.69	1.90	-48.3	-66.1	3.5	3.03e+01	0	29	104	0	60	77576
2026-01-26 17:36:35.48	20.65	1.97	-48.3	-65.9	3.5	3.03e+01	0	29	104	0	60	76222
2026-01-26 17:36:36.49	20.61	2.03	-48.3	-65.8	3.5	3.03e+01	0	29	104	0	60	75375
2026-01-26 17:36:37.49	20.57	2.10	-48.3	-65.8	3.5	3.03e+01	0	29	104	0	60	74843
2026-01-26 17:36:38.50	20.53	2.16	-48.3	-65.8	3.5	3.03e+01	0	29	104	0	60	75339
2026-01-26 17:36:39.51	20.49	2.23	-48.3	-65.7	3.5	3.03e+01	0	29	104	0	60	74546
2026-01-26 17:36:40.52	20.45	2.29	-48.3	-65.5	3.5	3.03e+01	0	29	104	0	60	72640
2026-01-26 17:36:41.53	20.41	2.36	-48.3	-65.5	3.5	3.03e+01	0	29	104	0	60	72571
2026-01-26 17:36:42.54	20.37	2.42	-48.3	-65.4	3.5	3.03e+01	0	29	104	0	60	71507
2026-01-26 17:36:43.55	20.33	2.49	-48.3	-65.3	3.5	3.03e+01	0	29	104	0	60	70668
2026-01-26 17:36:44.56	20.28	2.55	-48.3	-65.5	3.5	3.03e+01	0	29	104	0	60	72399
2026-01-26 17:36:45.57	20.24	2.62	-48.3	-65.7	3.5	3.03e+01	0	29	104	0	60	74550
2026-01-26 17:36:46.58	20.20	2.68	-48.3	-66.0	3.5	3.03e+01	0	29	104	0	60	76603
2026-01-26 17:36:47.59	20.16	2.75	-48.3	-66.0	3.5	3.03e+01	0	29	104	0	60	76636
2026-01-26 17:36:48.60	20.11	2.82	-48.3	-65.9	3.5	3.03e+01	0	29	104	0	60	75896
2026-01-26 17:36:49.60	20.07	2.88	-48.3	-65.8	3.5	3.03e+01	0	29	104	0	60	75268
2026-01-26 17:36:50.61	20.03	2.95	-48.2	-65.2	3.5	3.03e+01	0	29	104	0	60	69688
2026-01-26 17:36:51.62	19.98	3.02	-48.2	-64.6	3.5	3.03e+01	0	29	104	0	60	65634
2026-01-26 17:36:52.35	19.95	3.06	-48.1	-64.3	3.5	3.03e+01	0	29	104	0	60	63326
2026-01-26 17:36:53.64	19.89	3.15	-48.1	-64.4	3.5	3.03e+01	0	29	104	0	60	63922
2026-01-26 17:36:54.36	19.86	3.20	-48.2	-64.9	3.5	3.03e+01	0	29	104	0	60	67788
2026-01-26 17:36:55.66	19.81	3.28	-48.3	-65.9	3.6	3.03e+01	0	29	104	0	60	75524
2026-01-26 17:36:56.38	19.77	3.33	-48.3	-65.8	3.5	3.03e+01	0	29	104	0	60	75301
2026-01-26 17:36:57.68	19.72	3.42	-47.7	-62.8	3.5	3.03e+01	0	29	104	0	60	53398
2026-01-26 17:36:58.40	19.68	3.47	-47.2	-61.2	3.5	3.03e+01	0	29	104	0	60	44145
2026-01-26 17:36:59.70	19.62	3.56	-45.8	-58.4	3.5	3.03e+01	0	29	104	0	60	31858
2026-01-26 17:37:00.42	19.59	3.60	-44.4	-56.2	3.5	3.03e+01	0	29	104	0	60	24763
2026-01-26 17:37:01.72	19.53	3.69	-43.8	-55.2	3.5	3.03e+01	0	29	104	0	60	22187
2026-01-26 17:37:02.44	19.50	3.74	-42.9	-53.9	3.5	3.03e+01	0	29	104	0	60	19083
2026-01-26 17:37:03.74	19.44	3.83	-41.9	-52.5	3.5	3.03e+01	0	29	104	0	60	16208
2026-01-26 17:37:04.46	19.41	3.88	-44.7	-56.4	3.5	3.03e+01	0	29	104	0	58	28570
2026-01-26 17:37:05.76	19.35	3.97	-48.2	-64.5	3.5	3.03e+01	0	29	104	0	60	64786
2026-01-26 17:37:06.48	19.31	4.02	-43.9	-55.1	3.5	3.03e+01	0	29	104	0	60	21889
2026-01-26 17:37:07.78	19.25	4.11	-38.2	-45.0	5.0	3.03e+01	0	29	104	0	52	10788
2026-01-26 17:37:08.50	19.22	4.16	-42.7	-53.5	3.5	3.03e+01	0	29	104	0	54	25869
2026-01-26 17:37:09.79	19.15	4.24	-37.8	-44.7	4.8	3.03e+01	0	29	104	0	52	10466
2026-01-26 17:37:10.52	19.12	4.30	-36.9	-42.1	6.3	3.03e+01	92	29	0	0	48	9774
2026-01-26 17:37:11.81	19.06	4.38	-37.8	-41.5	8.0	3.03e+01	29	29	0	2097152	48	9076
2026-01-26 17:37:12.54	19.02	4.44	-37.4	-40.6	9.0	3.03e+01	0	29	0	3670016	48	8244
2026-01-26 17:37:13.83	18.96	4.53	-37.3	-40.3	9.2	3.03e+01	0	29	0	6291456	48	7965
2026-01-26 17:37:14.55	18.92	4.58	-37.4	-40.3	10.2	3.03e+01	0	29	0	7340032	48	7907
2026-01-26 17:37:15.85	18.86	4.67	-37.2	-40.0	10.6	3.03e+01	0	29	0	9961472	48	7652
2026-01-26 17:37:16.57	18.82	4.72	-37.1	-39.9	10.4	3.03e+01	0	29	0	11010048	48	7610
2026-01-26 17:37:17.87	18.76	4.81	-37.3	-40.0	10.9	3.03e+01	0	29	0	13631488	48	7647
2026-01-26 17:37:18.59	18.72	4.86	-37.8	-40.5	11.6	3.03e+01	0	29	0	15204352	50	7238
2026-01-26 17:37:19.89	18.66	4.95	-37.1	-39.7	11.8	3.03e+01	0	29	0	17301504	50	6603
2026-01-26 17:37:20.61	18.62	5.00	-37.1	-39.7	11.3	3.03e+01	0	29	0	18874368	50	6618
2026-01-26 17:37:21.91	18.55	5.10	-37.4	-40.2	10.6	3.03e+01	0	29	0	20971520	48	7830
2026-01-26 17:37:22.63	18.52	5.15	-36.4	-39.1	11.0	3.03e+01	0	29	0	22544384	48	6893
2026-01-26 17:37:23.92	18.45	5.24	-36.4	-39.1	10.5	3.03e+01	0	29	0	25165824	48	6889
2026-01-26 17:37:24.64	18.41	5.29	-36.4	-39.4	10.1	3.03e+01	0	29	0	26214400	48	7134
2026-01-26 17:37:25.94	18.34	5.39	-36.5	-39.5	9.9	3.03e+01	0	29	0	28835840	48	7234
2026-01-26 17:37:26.66	18.31	5.44	-36.8	-39.9	9.7	3.03e+01	0	29	0	29884416	48	7553
2026-01-26 17:37:27.96	18.24	5.53	-37.0	-40.5	8.4	3.03e+01	0	29	0	32505856	48	8111
2026-01-26 17:37:28.68	18.20	5.59	-36.7	-39.8	9.1	3.03e+01	0	29	0	34078720	48	7461
2026-01-26 17:37:29.98	18.13	5.68	-37.4	-41.2	7.4	3.03e+01	46	29	0	36175872	48	8837
2026-01-26 17:37:30.70	18.09	5.73	-36.2	-39.8	7.7	3.03e+01	55	29	0	37748736	48	7506
2026-01-26 17:37:32.00	18.02	5.83	-36.8	-40.7	6.9	3.03e+01	92	29	0	39845888	48	8355
2026-01-26 17:37:32.72	17.98	5.88	-37.3	-41.5	6.2	3.03e+01	92	29	0	41418752	48	9132
2026-01-26 17:37:34.01	17.91	5.98	-37.8	-43.8	3.9	3.03e+01	0	29	104	42991616	48	11935
2026-01-26 17:37:34.74	17.87	6.03	-38.2	-44.9	3.7	3.03e+01	0	29	104	42991616	50	11968
2026-01-26 17:37:36.03	17.80	6.13	-39.3	-47.6	3.8	3.03e+01	0	29	104	42991616	52	14666
2026-01-26 17:37:36.76	17.76	6.18	-39.3	-48.2	3.7	3.03e+01	0	29	104	42991616	52	15660
2026-01-26 17:37:38.05	17.69	6.28	-37.8	-46.3	3.5	3.03e+01	0	29	104	42991616	50	14125
2026-01-26 17:37:38.77	17.64	6.33	-38.6	-48.5	3.5	3.03e+01	0	29	104	42991616	50	18224
2026-01-26 17:37:40.07	17.57	6.43	-40.2	-42.2	21.1	3.03e+01	0	29	104	42991616	52	7854
2026-01-26 17:37:40.79	17.53	6.48	-41.0	-42.8	22.3	3.03e+01	0	29	0	42991616	54	7538
2026-01-26 17:37:42.09	17.45	6.58	-46.4	-51.3	14.2	3.03e+01	0	29	0	45613056	60	14077
2026-01-26 17:37:42.81	17.41	6.63	-38.5	-40.1	22.0	3.03e+01	0	29	0	46661632	54	5473
2026-01-26 17:37:44.11	17.34	6.73	-38.1	-39.6	23.7	3.03e+01	0	29	0	49283072	50	6563
2026-01-26 17:37:44.83	17.29	6.79	-37.4	-38.8	24.1	3.03e+01	0	29	0	50331648	50	5992
2026-01-26 17:37:46.12	17.22	6.89	-37.7	-39.1	23.9	3.03e+01	0	29	0	52953088	50	6183
2026-01-26 17:37:46.84	17.18	6.94	-36.9	-38.3	24.5	3.03e+01	0	29	0	54525952	50	5619
2026-01-26 17:37:48.14	17.10	7.04	-36.9	-38.2	23.4	3.03e+01	0	29	0	56623104	48	6274
2026-01-26 17:37:48.86	17.06	7.10	-37.3	-38.7	23.0	3.03e+01	0	29	0	58195968	48	6639
2026-01-26 17:37:50.16	16.98	7.20	-38.1	-39.6	23.0	3.03e+01	0	29	0	60293120	50	6520
2026-01-26 17:37:50.88	16.93	7.25	-38.8	-40.4	22.7	3.03e+01	0	29	0	61865984	50	7148
2026-01-26 17:37:52.18	16.85	7.35	-39.1	-40.7	22.7	3.03e+01	0	29	0	64487424	52	6629
2026-01-26 17:37:52.90	16.81	7.41	-39.0	-40.6	23.3	3.03e+01	0	29	0	65536000	52	6508
2026-01-26 17:37:54.19	16.73	7.51	-39.7	-41.3	23.2	3.03e+01	0	29	0	68157440	52	7113
2026-01-26 17:37:54.92	16.68	7.57	-40.1	-41.8	22.0	3.03e+01	0	29	0	69206016	54	6686
2026-01-26 17:37:56.21	16.60	7.67	-39.8	-41.4	23.2	3.03e+01	0	29	0	71827456	54	6393
2026-01-26 17:37:56.93	16.56	7.73	-41.2	-43.0	22.3	3.03e+01	0	29	0	73400320	56	6867
2026-01-26 17:37:58.23	16.47	7.83	-41.2	-43.0	22.1	3.03e+01	0	29	0	75497472	56	6879
2026-01-26 17:37:58.95	16.43	7.89	-41.0	-42.8	21.7	3.03e+01	0	29	0	77070336	56	6705
2026-01-26 17:38:00.25	16.34	7.99	-41.7	-43.7	20.5	3.03e+01	0	29	0	79691776	58	6595
2026-01-26 17:38:00.97	16.30	8.05	-43.3	-45.8	18.6	3.03e+01	0	29	0	80740352	58	8411
2026-01-26 17:38:02.27	16.21	8.15	-44.2	-47.1	17.2	3.03e+01	0	29	0	83361792	60	8751
2026-01-26 17:38:02.99	16.17	8.21	-45.8	-49.9	14.6	3.03e+01	0	29	0	84410368	60	11975
2026-01-26 17:38:04.29	16.08	8.32	-47.0	-52.7	11.7	3.03e+01	0	29	0	87031808	60	16646
2026-01-26 17:38:05.01	16.03	8.37	-47.4	-54.1	11.2	3.03e+01	0	29	0	88604672	60	19483
2026-01-26 17:38:06.30	15.95	8.48	-47.8	-55.9	7.6	3.03e+01	87	29	0	90701824	60	24077
2026-01-26 17:38:07.03	15.90	8.54	-48.0	-59.1	3.9	3.03e+01	0	29	104	91750400	60	34719
2026-01-26 17:38:08.32	15.81	8.64	-48.2	-60.0	4.9	3.03e+01	0	29	104	91750400	60	38675
2026-01-26 17:38:09.05	15.76	8.70	-48.4	-63.6	3.6	3.03e+01	0	29	104	91750400	60	58473
2026-01-26 17:38:10.34	15.67	8.81	-48.5	-64.1	3.5	3.03e+01	0	29	104	91750400	60	61664
2026-01-26 17:38:11.07	15.62	8.87	-48.3	-61.1	3.7	3.03e+01	0	29	104	91750400	60	43647
2026-01-26 17:38:12.36	15.53	8.98	-48.0	-58.5	4.0	3.03e+01	18	29	0	91750400	60	32335
2026-01-26 17:38:13.08	15.48	9.04	-39.3	-49.8	3.5	3.03e+01	0	29	104	91750400	52	18876
2026-01-26 17:38:14.38	15.39	9.14	-45.1	-56.9	3.5	3.03e+01	0	29	104	91750400	60	26896
2026-01-26 17:38:15.10	15.34	9.20	-39.1	-49.5	3.5	3.03e+01	0	29	104	91750400	50	20333
2026-01-26 17:38:16.40	15.24	9.31	-36.5	-46.7	3.5	3.03e+01	0	29	104	91750400	48	16651
2026-01-26 17:38:17.12	15.19	9.37	-36.5	-46.8	3.6	3.03e+01	0	29	104	91750400	48	16709
2026-01-26 17:38:18.42	15.10	9.48	-36.8	-47.1	3.5	3.03e+01	0	29	104	91750400	48	17291
2026-01-26 17:38:19.14	15.05	9.54	-39.9	-50.3	3.6	3.03e+01	0	29	104	91750400	54	17888
2026-01-26 17:38:20.43	14.95	9.65	-37.4	-47.7	3.5	3.03e+01	0	29	104	91750400	48	18578
2026-01-26 17:38:21.16	14.90	9.72	-48.7	-64.5	3.5	3.03e+01	0	29	104	91750400	60	64296
2026-01-26 17:38:22.45	14.80	9.83	-39.5	-50.0	3.2	3.03e+01	0	29	104	91750400	60	12117
2026-01-26 17:38:23.17	14.75	9.89	-40.3	-50.9	3.5	3.03e+01	0	29	104	91750400	56	16960
2026-01-26 17:38:24.46	14.65	10.00	-36.7	-46.9	3.6	3.03e+01	0	29	104	91750400	48	16982
2026-01-26 17:38:25.19	14.59	10.06	-36.6	-46.8	3.5	3.03e+01	0	29	104	91750400	48	16714
2026-01-26 17:38:26.48	14.50	10.17	-36.4	-46.6	3.5	3.03e+01	0	29	104	91750400	48	16465
2026-01-26 17:38:27.20	14.44	10.24	-37.6	-47.9	3.5	3.03e+01	0	29	104	91750400	50	16926
2026-01-26 17:38:28.50	14.34	10.35	-38.9	-49.2	3.6	3.03e+01	0	29	104	91750400	54	15754
2026-01-26 17:38:29.23	14.28	10.41	-48.1	-63.2	3.6	3.03e+01	0	29	104	91750400	60	55429
2026-01-26 17:38:30.52	14.18	10.53	-39.2	-49.6	3.5	3.03e+01	0	29	104	91750400	52	18359
2026-01-26 17:38:31.24	14.12	10.59	-48.4	-65.4	3.5	3.03e+01	0	29	104	91750400	60	71429
2026-01-26 17:38:32.54	14.02	10.71	-39.9	-50.3	3.5	3.03e+01	0	29	104	91750400	54	17780
2026-01-26 17:38:33.26	13.96	10.77	-40.3	-50.8	3.6	3.03e+01	0	29	104	91750400	56	16793
2026-01-26 17:38:34.56	13.86	10.89	-41.1	-51.7	3.6	3.03e+01	0	29	104	91750400	54	20980
2026-01-26 17:38:35.28	13.80	10.95	-45.6	-57.7	3.5	3.03e+01	0	29	104	91750400	60	29657
2026-01-26 17:38:36.58	13.69	11.07	-38.7	-49.1	3.5	3.03e+01	0	30	104	91750400	52	17377
2026-01-26 17:38:37.30	13.63	11.13	-41.8	-52.7	3.5	3.03e+01	0	29	104	91750400	60	16556
2026-01-26 17:38:38.60	13.53	11.25	-39.8	-50.3	3.3	3.03e+01	0	29	104	91750400	48	25120
2026-01-26 17:38:39.32	13.47	11.31	-48.7	-65.4	3.5	3.03e+01	0	29	104	91750400	60	71508
2026-01-26 17:38:40.62	13.36	11.43	-36.5	-46.8	3.6	3.03e+01	0	29	104	91750400	48	16770
2026-01-26 17:38:41.34	13.30	11.50	-36.0	-46.3	3.5	3.03e+01	0	29	104	91750400	48	15809
2026-01-26 17:38:42.64	13.18	11.62	-42.7	-53.7	3.5	3.03e+01	0	29	104	91750400	54	26201
2026-01-26 17:38:43.36	13.12	11.68	-44.3	-55.8	3.6	3.03e+01	0	29	104	91750400	60	23792
2026-01-26 17:38:44.65	13.01	11.80	-45.9	-57.8	3.5	3.03e+01	0	29	104	91750400	56	37591
2026-01-26 17:38:45.37	12.95	11.87	-48.8	-64.1	3.5	3.03e+01	0	30	104	91750400	60	61979
2026-01-26 17:38:46.67	12.83	11.99	-36.1	-46.3	3.5	3.03e+01	0	29	104	91750400	48	15930
2026-01-26 17:38:47.39	12.77	12.06	-39.5	-49.9	3.6	3.03e+01	0	29	104	91750400	56	15168
2026-01-26 17:38:48.68	12.66	12.18	-37.0	-47.2	3.6	3.03e+01	0	29	104	91750400	48	17565
2026-01-26 17:38:49.40	12.59	12.24	-36.2	-46.4	3.5	3.03e+01	0	29	104	91750400	48	16016
2026-01-26 17:38:50.70	12.47	12.37	-35.6	-45.8	3.6	3.03e+01	0	29	104	91750400	46	16768
2026-01-26 17:38:51.42	12.41	12.43	-36.4	-46.6	3.5	3.03e+01	0	29	104	91750400	46	18520
2026-01-26 17:38:52.71	12.29	12.56	-43.6	-54.8	3.5	3.03e+01	0	29	104	91750400	54	29742
2026-01-26 17:38:53.43	12.22	12.63	-46.3	-58.9	3.5	3.03e+01	0	29	104	91750400	60	33736
2026-01-26 17:38:54.73	12.10	12.75	-47.9	-61.8	3.5	3.03e+01	0	29	104	91750400	60	47523
2026-01-26 17:38:55.46	12.03	12.82	-48.9	-65.4	3.5	3.03e+01	0	29	104	91750400	60	71285
2026-01-26 17:38:56.76	11.91	12.95	-39.4	-49.8	3.5	3.03e+01	0	29	104	91750400	54	16835
2026-01-26 17:38:57.48	11.84	13.01	-38.6	-48.9	3.5	3.03e+01	0	30	104	91750400	52	17029
2026-01-26 17:38:58.78	11.72	13.14	-39.8	-50.3	3.5	3.03e+01	0	29	104	91750400	50	22323
2026-01-26 17:38:59.50	11.65	13.21	-43.7	-55.0	3.5	3.03e+01	0	29	104	91750400	58	24174
2026-01-26 17:39:00.80	11.52	13.34	-41.4	-52.2	3.5	3.03e+01	0	29	104	91750400	52	24742
2026-01-26 17:39:01.52	11.45	13.41	-37.7	-48.0	3.5	3.03e+01	0	29	104	91750400	52	15349
2026-01-26 17:39:02.82	11.32	13.54	-49.1	-66.6	3.5	3.03e+01	0	30	104	91750400	60	82183
2026-01-26 17:39:03.54	11.25	13.61	-46.3	-58.6	3.6	3.03e+01	0	29	104	91750400	60	32768
2026-01-26 17:39:04.83	11.12	13.74	-35.7	-46.0	3.5	3.03e+01	0	29	104	91750400	46	17104
2026-01-26 17:39:05.56	11.05	13.81	-36.0	-46.2	3.5	3.03e+01	0	29	104	91750400	46	17666
2026-01-26 17:39:06.85	10.92	13.94	-45.2	-56.6	3.5	3.03e+01	0	30	104	91750400	60	26140
2026-01-26 17:39:07.58	10.84	14.01	-36.4	-46.6	3.5	3.03e+01	0	30	104	91750400	50	14666
2026-01-26 17:39:08.87	10.71	14.14	-47.9	-62.2	3.5	3.03e+01	0	30	104	91750400	60	49635
2026-01-26 17:39:09.59	10.63	14.21	-44.2	-55.5	3.5	3.03e+01	0	30	104	91750400	60	22972
2026-01-26 17:39:10.89	10.50	14.34	-48.8	-65.9	3.5	3.03e+01	0	30	104	91750400	60	75531
2026-01-26 17:39:11.61	10.42	14.42	-44.7	-56.2	3.5	3.03e+01	0	29	104	91750400	60	24789
2026-01-26 17:39:12.91	10.28	14.55	-37.7	-48.0	3.5	3.03e+01	0	29	104	91750400	50	17218
2026-01-26 17:39:13.63	10.21	14.62	-38.1	-48.4	3.5	3.03e+01	0	30	104	91750400	50	18034
2026-01-26 17:39:14.93	10.07	14.76	-48.7	-64.8	3.5	3.03e+01	0	30	104	91750400	60	66644
2026-01-26 17:39:15.64	9.99	14.83	-40.3	-50.8	3.3	3.03e+01	0	30	104	91750400	60	13406
2026-01-26 17:39:16.94	9.85	14.97	-48.7	-64.9	3.5	3.03e+01	0	30	104	91750400	60	67498
2026-01-26 17:39:17.66	9.77	15.04	-46.3	-58.6	3.5	3.03e+01	0	30	104	91750400	60	32712
2026-01-26 17:39:18.96	9.62	15.18	-39.5	-50.0	3.5	3.03e+01	0	30	104	91750400	50	21581
2026-01-26 17:39:19.67	9.54	15.25	-37.6	-47.9	3.6	3.03e+01	0	30	104	91750400	50	16961
2026-01-26 17:39:20.97	9.39	15.39	-36.0	-46.1	3.5	3.03e+01	0	30	104	91750400	46	17477
2026-01-26 17:39:21.69	9.31	15.46	-35.8	-46.1	3.5	3.03e+01	0	29	104	91750400	46	17344
2026-01-26 17:39:22.99	9.16	15.60	-36.5	-46.7	3.5	3.03e+01	0	30	104	91750400	46	18639
2026-01-26 17:39:23.71	9.08	15.68	-38.5	-48.8	3.5	3.03e+01	0	30	104	91750400	48	21238
2026-01-26 17:39:25.01	8.93	15.82	-48.8	-64.7	3.5	3.03e+01	0	30	104	91750400	60	66249
2026-01-26 17:39:25.73	8.84	15.89	-48.2	-62.7	3.6	3.03e+01	0	30	104	91750400	60	52380
2026-01-26 17:39:27.02	8.69	16.03	-44.5	-55.9	3.5	3.03e+01	0	30	104	91750400	60	23950
2026-01-26 17:39:27.74	8.60	16.11	-39.9	-50.3	3.6	3.03e+01	0	30	104	91750400	56	15880
2026-01-26 17:39:29.03	8.45	16.25	-39.8	-50.2	3.5	3.03e+01	0	30	104	91750400	52	19840
2026-01-26 17:39:29.75	8.36	16.33	-39.4	-49.9	3.5	3.03e+01	0	30	104	91750400	52	18996
2026-01-26 17:39:31.05	8.20	16.47	-36.5	-46.8	3.5	3.03e+01	0	29	104	91750400	48	16749
2026-01-26 17:39:31.77	8.11	16.55	-41.3	-51.9	3.6	3.03e+01	0	30	104	91750400	54	21465
2026-01-26 17:39:33.07	7.95	16.69	-48.0	-62.2	3.6	3.03e+01	0	30	104	91750400	60	49755
2026-01-26 17:39:33.79	7.86	16.77	-42.2	-53.2	3.5	3.03e+01	0	30	104	91750400	60	17526
2026-01-26 17:39:35.09	7.69	16.92	-48.9	-65.5	3.6	3.03e+01	0	30	104	91750400	60	72808
2026-01-26 17:39:35.81	7.60	17.00	-41.3	-51.9	3.5	3.03e+01	0	30	104	91750400	60	15150
2026-01-26 17:39:37.10	7.44	17.14	-38.9	-49.3	3.5	3.03e+01	0	30	104	91750400	54	15793
2026-01-26 17:39:37.82	7.34	17.22	-40.3	-50.8	3.5	3.03e+01	0	30	104	91750400	54	18800
2026-01-26 17:39:39.12	7.17	17.37	-44.0	-55.4	3.5	3.03e+01	0	30	104	91750400	60	22604
2026-01-26 17:39:39.84	7.08	17.45	-48.0	-62.5	3.5	3.03e+01	0	30	104	91750400	60	51170
2026-01-26 17:39:41.13	6.91	17.60	-46.3	-58.8	3.6	3.03e+01	0	30	104	91750400	60	33330
2026-01-26 17:39:41.85	6.81	17.68	-36.3	-46.5	3.5	3.03e+01	0	30	104	91750400	46	18226
2026-01-26 17:39:43.15	6.63	17.83	-48.8	-64.6	3.5	3.03e+01	0	30	104	91750400	60	65158
2026-01-26 17:39:43.87	6.54	17.91	-36.2	-46.4	3.5	3.03e+01	0	30	104	91750400	48	16093
2026-01-26 17:39:45.17	6.36	18.06	-35.3	-45.5	3.6	3.03e+01	0	30	104	91750400	46	16246
2026-01-26 17:39:45.89	6.26	18.14	-35.1	-45.2	3.5	3.03e+01	0	30	104	91750400	46	15750
2026-01-26 17:39:47.18	6.08	18.29	-49.1	-66.1	3.5	3.03e+01	0	30	104	91750400	60	77677
2026-01-26 17:39:47.90	5.98	18.38	-37.6	-47.8	3.5	3.03e+01	0	30	104	91750400	48	18953
2026-01-26 17:39:49.19	5.79	18.53	-48.9	-65.0	3.5	3.03e+01	0	30	104	91750400	60	68575
2026-01-26 17:39:49.91	5.69	18.61	-48.1	-62.6	3.5	3.03e+01	0	30	104	91750400	60	52038
2026-01-26 17:39:51.21	5.50	18.77	-45.5	-57.4	3.6	3.03e+01	0	30	104	91750400	60	28409
2026-01-26 17:39:51.93	5.40	18.85	-40.1	-50.5	3.5	3.03e+01	0	30	104	91750400	56	16276
2026-01-26 17:39:53.23	5.21	19.01	-39.5	-49.9	3.5	3.03e+01	0	30	104	91750400	54	17038
2026-01-26 17:39:53.95	5.10	19.09	-39.9	-50.3	3.5	3.03e+01	0	30	104	91750400	54	17727
2026-01-26 17:39:55.25	4.90	19.25	-43.3	-54.3	3.5	3.03e+01	0	30	104	91750400	60	19891
2026-01-26 17:39:55.97	4.80	19.33	-45.4	-57.2	3.5	3.03e+01	0	30	104	91750400	60	27899
2026-01-26 17:39:57.27	4.60	19.49	-46.5	-59.1	3.5	3.03e+01	0	30	104	91750400	60	34739
2026-01-26 17:39:57.99	4.49	19.58	-41.2	-51.8	3.5	3.03e+01	0	30	104	91750400	58	16779
2026-01-26 17:39:59.29	4.29	19.73	-49.3	-66.2	3.5	3.03e+01	0	30	104	91750400	60	78342
2026-01-26 17:40:00.01	4.17	19.82	-39.9	-50.3	3.4	3.03e+01	0	30	104	91750400	56	15938
2026-01-26 17:40:01.30	3.97	19.98	-39.2	-49.6	3.5	3.03e+01	0	30	104	91750400	52	18490
2026-01-26 17:40:02.03	3.86	20.07	-39.2	-49.5	3.6	3.03e+01	0	30	104	91750400	52	18283
2026-01-26 17:40:03.33	3.65	20.23	-43.5	-54.7	3.5	3.03e+01	0	30	104	91750400	60	20901
2026-01-26 17:40:04.05	3.53	20.32	-48.2	-62.6	3.5	3.03e+01	0	30	104	91750400	60	52202
2026-01-26 17:40:05.35	3.32	20.48	-43.3	-54.4	3.5	3.03e+01	0	30	104	91750400	60	20298
2026-01-26 17:40:06.07	3.20	20.57	-37.3	-47.5	3.5	3.03e+01	0	30	104	91750400	48	18127
2026-01-26 17:40:07.37	2.98	20.73	-49.2	-66.5	3.5	3.03e+01	0	30	104	91750400	60	81087
2026-01-26 17:40:08.09	2.86	20.82	-36.0	-46.2	3.5	3.03e+01	0	30	104	91750400	48	15709
2026-01-26 17:40:09.38	2.65	20.98	-35.6	-45.9	3.6	3.03e+01	0	30	104	91750400	46	16911
2026-01-26 17:40:10.10	2.52	21.07	-35.7	-45.9	3.5	3.03e+01	0	30	104	91750400	46	16976
2026-01-26 17:40:11.40	2.30	21.24	-46.5	-59.0	3.5	3.03e+01	0	30	104	91750400	60	34151
2026-01-26 17:40:12.12	2.17	21.33	-38.4	-48.8	3.6	3.03e+01	0	30	104	91750400	54	14902
2026-01-26 17:40:13.42	1.95	21.50	-49.2	-66.2	3.5	3.03e+01	0	30	104	91750400	60	78150
2026-01-26 17:40:14.14	1.82	21.59	-45.7	-57.7	3.6	3.03e+01	0	30	104	91750400	60	29527
2026-01-26 17:40:15.44	1.59	21.75	-40.3	-50.8	3.6	3.03e+01	0	30	104	91750400	60	13335
2026-01-26 17:40:16.16	1.46	21.85	-35.8	-46.0	3.5	3.03e+01	0	30	104	91750400	46	17150
2026-01-26 17:40:17.46	1.22	22.01	-35.7	-45.8	3.5	3.03e+01	0	30	104	91750400	46	16736
2026-01-26 17:40:18.18	1.09	22.11	-35.9	-46.0	3.6	3.03e+01	0	30	104	91750400	46	17214
2026-01-26 17:40:19.48	0.85	22.28	-40.4	-51.0	3.5	3.03e+01	0	30	104	91750400	60	13587
2026-01-26 17:40:20.20	0.72	22.37	-37.1	-47.3	3.5	3.03e+01	0	30	104	91750400	52	14156
2026-01-26 17:40:21.50	0.47	22.54	-48.5	-63.3	3.5	3.03e+01	0	30	104	91750400	60	56296
2026-01-26 17:40:22.22	0.34	22.64	-44.8	-56.4	3.6	3.03e+01	0	30	104	91750400	60	25432
2026-01-26 17:40:23.51	0.09	22.81	-44.1	-55.3	3.5	3.03e+01	0	30	104	91750400	60	22531
2026-01-26 17:40:24.24	359.95	22.90	-40.7	-51.2	3.6	3.03e+01	0	30	104	91750400	56	17616
2026-01-26 17:40:25.53	359.70	23.07	-39.5	-50.0	3.5	3.03e+01	0	30	104	91750400	56	15269
2026-01-26 17:40:26.25	359.56	23.17	-39.0	-49.4	3.5	3.03e+01	0	30	104	91750400	54	15985
2026-01-26 17:40:27.55	359.30	23.34	-39.0	-49.4	3.5	3.03e+01	0	30	104	91750400	52	17962
2026-01-26 17:40:28.27	359.15	23.44	-44.7	-56.2	3.6	3.03e+01	0	30	104	91750400	60	24885
2026-01-26 17:40:29.56	358.89	23.61	-43.0	-54.0	3.5	3.03e+01	0	30	104	91750400	60	19314
2026-01-26 17:40:30.28	358.74	23.71	-38.7	-49.0	3.6	3.03e+01	0	30	104	91750400	56	13625
2026-01-26 17:40:31.58	358.48	23.88	-45.0	-56.6	3.6	3.03e+01	0	30	104	91750400	60	25945
2026-01-26 17:40:32.30	358.33	23.98	-38.0	-48.3	3.5	3.03e+01	0	30	104	91750400	50	17794
2026-01-26 17:40:33.60	358.05	24.16	-37.6	-47.9	3.5	3.03e+01	0	30	104	91750400	50	16899
2026-01-26 17:40:34.32	357.90	24.25	-38.1	-48.4	3.5	3.03e+01	0	30	104	91750400	50	18001
2026-01-26 17:40:35.61	357.63	24.43	-45.9	-58.0	3.5	3.03e+01	0	30	104	91750400	60	30663
2026-01-26 17:40:36.33	357.47	24.53	-36.8	-47.0	3.5	3.03e+01	0	30	104	91750400	52	13611
2026-01-26 17:40:37.62	357.19	24.70	-45.7	-57.6	3.5	3.03e+01	0	30	104	91750400	60	29077
2026-01-26 17:40:38.35	357.03	24.80	-39.1	-49.5	3.4	3.03e+01	0	30	104	91750400	58	12842
2026-01-26 17:40:39.64	356.74	24.98	-36.7	-47.0	3.4	3.03e+01	0	30	104	91750400	50	15276
2026-01-26 17:40:40.36	356.58	25.08	-35.9	-46.1	3.5	3.03e+01	0	30	104	91750400	46	17388
2026-01-26 17:40:41.66	356.29	25.26	-36.2	-46.4	3.5	3.03e+01	0	30	104	91750400	46	17996
2026-01-26 17:40:42.38	356.12	25.36	-35.9	-46.1	3.5	3.03e+01	0	30	104	91750400	46	17330
2026-01-26 17:40:43.68	355.83	25.54	-37.6	-47.9	3.5	3.03e+01	0	30	104	91750400	50	16985
2026-01-26 17:40:44.40	355.66	25.64	-35.9	-46.1	3.5	3.03e+01	0	30	104	91750400	46	17483
2026-01-26 17:40:45.70	355.35	25.82	-47.2	-60.2	3.5	3.03e+01	0	30	104	91750400	60	39495
2026-01-26 17:40:46.42	355.18	25.92	-40.2	-50.7	3.5	3.03e+01	0	30	104	91750400	60	13149
2026-01-26 17:40:47.71	354.87	26.10	-42.9	-53.8	3.5	3.03e+01	0	30	104	91750400	60	18886
2026-01-26 17:40:48.43	354.70	26.20	-40.8	-51.4	3.5	3.03e+01	0	30	104	91750400	56	17962
2026-01-26 17:40:49.73	354.38	26.38	-40.0	-50.5	3.5	3.03e+01	0	30	104	91750400	56	16241
2026-01-26 17:40:50.45	354.21	26.49	-39.9	-50.4	3.5	3.03e+01	0	30	104	91750400	56	15984
2026-01-26 17:40:51.75	353.88	26.67	-44.2	-55.5	3.5	3.03e+01	0	30	104	91750400	60	22864
2026-01-26 17:40:52.47	353.70	26.77	-40.3	-50.9	3.5	3.03e+01	0	30	104	91750400	60	13457
2026-01-26 17:40:53.77	353.38	26.95	-39.2	-49.6	3.6	3.03e+01	0	30	104	91750400	52	18345
2026-01-26 17:40:54.49	353.19	27.06	-38.4	-48.6	3.8	3.03e+01	0	30	104	91750400	46	23236
2026-01-26 17:40:55.79	352.86	27.24	-42.1	-52.9	3.7	3.03e+01	0	30	104	91750400	60	16942
2026-01-26 17:40:56.51	352.67	27.34	-38.8	-49.1	3.5	3.03e+01	0	30	104	91750400	52	17447
2026-01-26 17:40:57.80	352.33	27.52	-38.0	-48.2	3.5	3.03e+01	0	30	104	91750400	50	17679
2026-01-26 17:40:58.53	352.14	27.63	-37.0	-47.3	3.5	3.03e+01	0	30	104	91750400	48	17731
2026-01-26 17:40:59.82	351.79	27.81	-46.4	-58.9	3.5	3.03e+01	0	30	104	91750400	60	33810
2026-01-26 17:41:00.54	351.60	27.91	-39.1	-49.5	3.5	3.03e+01	0	30	104	91750400	52	18185
2026-01-26 17:41:01.84	351.24	28.10	-36.8	-47.0	3.5	3.03e+01	0	30	104	91750400	46	19264
2026-01-26 17:41:02.56	351.04	28.20	-39.5	-50.0	3.5	3.03e+01	0	30	104	91750400	46	27203
2026-01-26 17:41:03.86	350.68	28.39	-36.3	-46.5	3.5	3.03e+01	0	30	104	91750400	48	16225
2026-01-26 17:41:04.58	350.48	28.49	-35.4	-45.5	3.6	3.03e+01	0	30	104	91750400	46	16230
2026-01-26 17:41:05.88	350.11	28.67	-35.2	-45.4	3.5	3.03e+01	0	30	104	91750400	46	15957
2026-01-26 17:41:06.60	349.91	28.78	-37.5	-47.7	3.5	3.03e+01	0	30	104	91750400	46	21021
2026-01-26 17:41:07.90	349.53	28.96	-38.9	-49.2	3.6	3.03e+01	0	30	104	91750400	52	17627
2026-01-26 17:41:08.62	349.32	29.07	-40.3	-50.7	3.5	3.03e+01	0	30	104	91750400	46	29414
2026-01-26 17:41:09.91	348.94	29.25	-47.0	-59.8	3.4	3.03e+01	0	30	104	91750400	60	37736
2026-01-26 17:41:10.63	348.73	29.35	-35.2	-45.3	3.5	3.03e+01	0	30	104	91750400	46	15913
2026-01-26 17:41:11.93	348.34	29.54	-36.6	-46.8	3.5	3.03e+01	0	30	104	91750400	48	16716
2026-01-26 17:41:12.65	348.12	29.64	-36.5	-46.6	3.5	3.03e+01	0	30	104	91750400	48	16482
2026-01-26 17:41:13.95	347.73	29.82	-37.2	-47.5	3.5	3.03e+01	0	30	104	91750400	48	18120
2026-01-26 17:41:14.67	347.50	29.93	-35.7	-45.9	3.5	3.03e+01	0	30	104	91750400	46	16946
2026-01-26 17:41:15.97	347.10	30.11	-45.4	-57.2	3.5	3.03e+01	0	30	104	91750400	60	27832
2026-01-26 17:41:16.69	346.87	30.21	-42.7	-53.6	3.5	3.03e+01	0	30	104	91750400	54	26122
2026-01-26 17:41:17.98	346.47	30.40	-40.1	-50.6	3.5	3.03e+01	0	30	104	91750400	54	18357
2026-01-26 17:41:18.70	346.24	30.50	-48.2	-62.6	3.5	3.03e+01	0	30	104	91750400	60	51637
2026-01-26 17:41:20.00	345.82	30.68	-36.6	-46.8	3.5	3.03e+01	0	30	104	91750400	48	16862
2026-01-26 17:41:20.73	345.58	30.78	-36.4	-46.6	3.6	3.03e+01	0	30	104	91750400	48	16470
2026-01-26 17:41:22.03	345.15	30.97	-36.5	-46.7	3.5	3.03e+01	0	30	104	91750400	48	16649
2026-01-26 17:41:22.75	344.91	31.07	-47.0	-59.9	3.5	3.03e+01	0	30	104	91750400	60	38045
2026-01-26 17:41:24.04	344.48	31.25	-38.2	-48.5	3.5	3.03e+01	0	30	104	91750400	52	16152
2026-01-26 17:41:24.76	344.24	31.35	-48.7	-63.9	3.5	3.03e+01	0	30	104	91750400	60	60089
2026-01-26 17:41:26.06	343.80	31.53	-47.2	-60.2	3.5	3.03e+01	0	30	104	91750400	60	39276
2026-01-26 17:41:26.78	343.55	31.63	-36.2	-46.4	3.5	3.03e+01	0	30	104	91750400	44	20217
2026-01-26 17:41:28.08	343.10	31.81	-35.4	-45.6	3.5	3.03e+01	0	30	104	91750400	46	16418
2026-01-26 17:41:28.80	342.85	31.91	-35.7	-45.9	3.6	3.03e+01	0	30	104	91750400	46	16939
2026-01-26 17:41:30.10	342.39	32.08	-36.1	-46.3	3.5	3.03e+01	0	30	104	91750400	46	17821
2026-01-26 17:41:30.82	342.13	32.18	-38.4	-48.7	3.5	3.03e+01	0	30	104	91750400	48	21013
2026-01-26 17:41:32.11	341.67	32.36	-47.7	-61.2	3.5	3.03e+01	0	30	104	91750400	60	44099
2026-01-26 17:41:32.83	341.41	32.45	-46.2	-58.5	3.5	3.03e+01	0	30	104	91750400	60	32457
2026-01-26 17:41:34.13	340.93	32.63	-38.6	-48.9	3.3	3.03e+01	0	30	104	91750400	56	13527
2026-01-26 17:41:34.85	340.67	32.73	-48.7	-63.8	3.6	3.03e+01	0	30	104	91750400	60	59313
2026-01-26 17:41:36.15	340.18	32.90	-37.2	-47.4	3.5	3.03e+01	0	30	104	91750400	50	16012
2026-01-26 17:41:36.87	339.91	33.00	-37.3	-47.5	3.5	3.03e+01	0	30	104	91750400	48	18107
2026-01-26 17:41:38.17	339.42	33.17	-36.8	-47.1	3.5	3.03e+01	0	30	104	91750400	48	17290
2026-01-26 17:41:38.88	339.15	33.26	-49.5	-66.8	3.5	3.03e+01	0	30	104	91750400	60	83928
2026-01-26 17:41:40.18	338.65	33.43	-37.5	-47.7	3.5	3.03e+01	0	30	104	91750400	52	14860
2026-01-26 17:41:40.90	338.37	33.52	-49.0	-64.8	3.5	3.03e+01	0	30	104	91750400	60	66723
2026-01-26 17:41:42.20	337.86	33.69	-46.0	-58.1	3.6	3.03e+01	0	30	104	91750400	60	31069
2026-01-26 17:41:42.92	337.58	33.78	-42.9	-53.7	3.5	3.03e+01	0	30	104	91750400	56	23357
2026-01-26 17:41:44.22	337.06	33.95	-39.3	-49.7	3.5	3.03e+01	0	30	104	91750400	54	16628
2026-01-26 17:41:44.94	336.77	34.04	-39.4	-49.7	3.5	3.03e+01	0	30	104	91750400	54	16688
2026-01-26 17:41:46.23	336.25	34.20	-40.6	-51.2	3.5	3.03e+01	0	30	104	91750400	54	19698
2026-01-26 17:41:46.95	335.96	34.29	-37.7	-48.0	3.5	3.03e+01	0	30	104	91750400	50	17260
2026-01-26 17:41:48.25	335.42	34.44	-45.7	-57.5	3.5	3.03e+01	0	30	104	91750400	60	28997
2026-01-26 17:41:48.97	335.13	34.53	-48.2	-62.3	3.5	3.03e+01	0	30	104	91750400	60	50092
2026-01-26 17:41:50.27	334.58	34.69	-38.8	-49.1	3.5	3.03e+01	0	30	104	91750400	54	15512
2026-01-26 17:41:50.99	334.28	34.77	-48.8	-63.8	3.5	3.03e+01	0	30	104	91750400	60	59943
2026-01-26 17:41:52.28	333.73	34.92	-38.7	-49.1	3.5	3.03e+01	0	30	104	91750400	52	17315
2026-01-26 17:41:53.00	333.43	35.01	-36.9	-47.1	3.5	3.03e+01	0	30	104	91750400	48	17470
2026-01-26 17:41:54.30	332.87	35.16	-38.6	-48.9	3.5	3.03e+01	0	30	104	91750400	48	21299
2026-01-26 17:41:55.02	332.56	35.24	-49.3	-65.7	3.5	3.03e+01	0	30	104	91750400	60	74153
2026-01-26 17:41:56.31	332.00	35.38	-36.9	-47.2	3.5	3.03e+01	0	30	104	91750400	52	13915
2026-01-26 17:41:57.03	331.68	35.46	-49.0	-64.7	3.5	3.03e+01	0	30	104	91750400	60	65781
2026-01-26 17:41:58.33	331.10	35.60	-41.9	-52.6	3.5	3.03e+01	0	30	104	91750400	60	16323
2026-01-26 17:41:59.05	330.78	35.68	-41.9	-52.6	3.6	3.03e+01	0	30	104	91750400	54	23127
2026-01-26 17:42:00.35	330.20	35.82	-37.1	-47.3	3.5	3.03e+01	0	30	104	91750400	48	17833
2026-01-26 17:42:01.07	329.88	35.89	-37.3	-47.6	3.5	3.03e+01	0	30	104	91750400	48	18396
2026-01-26 17:42:02.37	329.29	36.03	-36.2	-46.4	3.5	3.03e+01	0	30	104	91750400	48	16069
2026-01-26 17:42:03.08	328.96	36.10	-41.2	-51.7	3.5	3.03e+01	0	30	104	91750400	56	18728
2026-01-26 17:42:04.38	328.36	36.23	-43.5	-54.3	3.6	3.03e+01	0	30	104	91750400	60	20052
2026-01-26 17:42:05.10	328.03	36.30	-49.4	-66.0	3.5	3.03e+01	0	30	104	91750400	60	76534
2026-01-26 17:42:06.39	327.43	36.42	-38.3	-48.6	3.5	3.03e+01	0	30	104	91750400	52	16368
2026-01-26 17:42:07.11	327.09	36.49	-48.9	-64.4	3.5	3.03e+01	0	30	104	91750400	60	63882
2026-01-26 17:42:08.41	326.48	36.61	-41.0	-51.7	3.5	3.03e+01	0	30	104	91750400	56	18598
2026-01-26 17:42:09.13	326.14	36.67	-43.0	-53.9	3.5	3.03e+01	0	30	104	91750400	58	21488
2026-01-26 17:42:10.43	325.52	36.79	-46.1	-58.4	3.5	3.03e+01	0	30	104	91750400	60	31975
2026-01-26 17:42:11.15	325.17	36.85	-49.4	-67.3	3.5	3.03e+01	0	30	104	91750400	60	89434
2026-01-26 17:42:12.45	324.54	36.96	-45.7	-57.9	3.5	3.03e+01	0	30	104	91750400	60	30334
2026-01-26 17:42:13.17	324.19	37.02	-44.5	-55.9	3.5	3.03e+01	0	30	104	91750400	60	23882
2026-01-26 17:42:14.46	323.57	37.12	-37.7	-48.0	3.5	3.03e+01	0	30	104	91750400	50	17128
2026-01-26 17:42:15.19	323.21	37.18	-49.2	-65.8	3.5	3.03e+01	0	30	104	91750400	60	74758
2026-01-26 17:42:16.48	322.57	37.27	-38.5	-48.8	3.5	3.03e+01	0	30	104	91750400	50	18855
2026-01-26 17:42:17.19	322.22	37.33	-37.2	-47.4	3.5	3.03e+01	0	30	104	91750400	50	15959
2026-01-26 17:42:18.49	321.58	37.42	-37.7	-47.8	3.4	3.03e+01	0	30	104	91750400	50	16832
2026-01-26 17:42:19.21	321.22	37.47	-47.2	-60.4	3.5	3.03e+01	0	30	104	91750400	60	40145
2026-01-26 17:42:20.51	320.57	37.55	-41.1	-51.7	3.5	3.03e+01	0	30	104	91750400	60	14730
2026-01-26 17:42:21.23	320.20	37.60	-49.3	-66.1	3.5	3.03e+01	0	30	104	91750400	60	77755
2026-01-26 17:42:22.53	319.55	37.68	-37.6	-47.7	3.5	3.03e+01	0	30	104	91750400	48	18713
2026-01-26 17:42:23.25	319.18	37.72	-49.2	-65.0	3.5	3.03e+01	0	30	104	91750400	60	68401
2026-01-26 17:42:24.55	318.52	37.80	-37.3	-47.6	3.5	3.03e+01	0	30	104	91750400	50	16346
2026-01-26 17:42:25.27	318.15	37.84	-37.8	-48.1	3.5	3.03e+01	0	30	104	91750400	50	17478
2026-01-26 17:42:26.57	317.49	37.90	-45.0	-56.5	3.5	3.03e+01	0	30	104	91750400	58	28970
2026-01-26 17:42:27.29	317.11	37.94	-49.5	-67.0	3.5	3.03e+01	0	30	104	91750400	60	85836
2026-01-26 17:42:28.58	316.45	38.00	-42.5	-53.5	3.5	3.03e+01	0	30	104	91750400	50	32291
2026-01-26 17:42:29.31	316.07	38.03	-49.1	-64.7	3.5	3.03e+01	0	30	104	91750400	60	65820
2026-01-26 17:42:30.60	315.40	38.09	-37.5	-47.7	3.6	3.03e+01	0	30	104	91750400	54	13195
2026-01-26 17:42:31.33	315.02	38.11	-42.2	-52.9	3.6	3.03e+01	0	30	104	91750400	58	19155
2026-01-26 17:42:32.62	314.35	38.16	-37.6	-39.2	23.9	3.03e+01	60	30	104	91750400	50	6250
2026-01-26 17:42:33.34	313.97	38.19	-37.2	-38.5	28.0	3.03e+01	52	30	0	92798976	50	5744
2026-01-26 17:42:34.64	313.29	38.23	-37.7	-39.0	28.0	3.03e+01	59	30	0	94896128	50	6121
2026-01-26 17:42:35.36	312.92	38.25	-37.2	-38.4	28.2	3.03e+01	51	30	0	96468992	50	5714
2026-01-26 17:42:36.66	312.23	38.28	-36.2	-37.4	29.0	3.03e+01	55	30	0	99090432	48	5691
2026-01-26 17:42:37.38	311.85	38.30	-36.5	-37.7	29.0	3.03e+01	60	30	0	100139008	48	5898
2026-01-26 17:42:38.68	311.17	38.32	-36.6	-37.9	28.7	3.03e+01	50	30	0	102760448	48	6000
2026-01-26 17:42:39.40	310.79	38.34	-36.7	-38.0	28.6	3.03e+01	57	30	0	103809024	48	6068
2026-01-26 17:42:40.69	310.11	38.35	-36.4	-37.6	29.2	3.03e+01	58	30	0	106430464	48	5817
2026-01-26 17:42:41.42	309.72	38.36	-36.4	-37.6	29.0	3.03e+01	44	30	0	108003328	48	5846
2026-01-26 17:42:42.72	309.03	38.38	-36.5	-37.8	28.9	3.03e+01	58	30	0	110100480	48	5927
2026-01-26 17:42:43.43	308.66	38.38	-36.5	-37.7	29.0	3.03e+01	59	30	0	111673344	48	5878
2026-01-26 17:42:44.73	307.97	38.38	-36.8	-38.0	28.6	3.03e+01	59	30	0	114294784	48	6125
2026-01-26 17:42:45.45	307.59	38.39	-36.7	-38.0	28.7	3.03e+01	59	30	0	115343360	48	6066
2026-01-26 17:42:46.75	306.90	38.38	-36.6	-37.8	28.9	3.03e+01	44	30	0	117964800	48	5956
2026-01-26 17:42:47.47	306.52	38.38	-36.6	-37.9	28.7	3.03e+01	64	30	0	119013376	48	6017
2026-01-26 17:42:48.77	305.83	38.37	-36.1	-37.4	29.2	3.03e+01	56	30	0	121634816	48	5664
2026-01-26 17:42:49.49	305.45	38.36	-36.2	-37.4	29.2	3.03e+01	55	30	0	123207680	48	5707
2026-01-26 17:42:50.79	304.76	38.35	-36.9	-38.2	28.8	3.03e+01	61	30	0	125304832	48	6244
2026-01-26 17:42:51.51	304.38	38.34	-36.3	-37.5	29.1	3.03e+01	43	30	0	126877696	48	5758
2026-01-26 17:42:52.80	303.70	38.31	-36.3	-37.5	29.1	3.03e+01	59	30	0	128974848	48	5754
2026-01-26 17:42:53.53	303.31	38.30	-36.6	-37.8	28.9	3.03e+01	60	30	0	130547712	48	5975
2026-01-26 17:42:54.82	302.63	38.27	-36.2	-37.4	29.2	3.03e+01	58	30	0	132644864	48	5710
2026-01-26 17:42:55.55	302.25	38.25	-36.3	-37.5	29.1	3.03e+01	62	30	0	134217728	48	5769
2026-01-26 17:42:56.84	301.57	38.21	-36.3	-37.5	29.2	3.03e+01	52	30	0	136839168	48	5750
2026-01-26 17:42:57.57	301.19	38.19	-36.4	-37.6	29.2	3.03e+01	61	30	0	137887744	48	5839
2026-01-26 17:42:58.86	300.52	38.14	-36.3	-37.5	29.2	3.03e+01	60	30	0	140509184	48	5754
2026-01-26 17:42:59.58	300.14	38.12	-36.6	-37.9	28.8	3.03e+01	46	30	0	141557760	48	5995
2026-01-26 17:43:00.88	299.46	38.06	-37.2	-38.5	28.5	3.03e+01	59	30	0	144179200	48	6434
2026-01-26 17:43:01.60	299.09	38.03	-37.3	-38.6	28.4	3.03e+01	60	30	0	145752064	48	6548
2026-01-26 17:43:02.89	298.42	37.98	-37.1	-38.4	28.3	3.03e+01	59	30	0	147849216	48	6419
2026-01-26 17:43:03.62	298.05	37.94	-37.0	-38.2	28.5	3.03e+01	59	30	0	149422080	48	6254
2026-01-26 17:43:04.91	297.38	37.88	-36.5	-37.8	29.0	3.03e+01	45	30	0	152043520	48	5930
2026-01-26 17:43:05.64	297.01	37.84	-36.6	-37.8	28.9	3.03e+01	57	30	0	153092096	48	5977
2026-01-26 17:43:06.93	296.35	37.77	-37.0	-38.3	28.3	3.03e+01	60	30	0	155713536	48	6333
2026-01-26 17:43:07.65	295.98	37.73	-37.2	-38.5	28.4	3.03e+01	55	30	0	156762112	48	6497
2026-01-26 17:43:08.94	295.33	37.65	-37.7	-39.1	27.4	3.03e+01	59	30	0	159383552	48	6928
2026-01-26 17:43:09.66	294.97	37.60	-37.3	-38.6	27.8	3.03e+01	60	30	0	160956416	50	5829
2026-01-26 17:43:10.96	294.31	37.52	-38.0	-39.4	27.1	3.03e+01	59	30	0	163053568	50	6355
2026-01-26 17:43:11.68	293.95	37.47	-37.7	-39.0	27.1	3.03e+01	59	29	0	164626432	50	6086
2026-01-26 17:43:12.98	293.30	37.38	-39.3	-40.9	25.8	3.03e+01	53	30	0	166723584	50	7611
2026-01-26 17:43:13.70	292.94	37.33	-36.9	-38.1	26.4	3.03e+01	51	30	0	168296448	48	6184
2026-01-26 17:43:15.00	292.30	37.23	-38.3	-39.8	26.3	3.03e+01	57	30	0	170917888	50	6660
2026-01-26 17:43:15.72	291.95	37.18	-37.3	-38.6	27.1	3.03e+01	53	29	0	171966464	48	6524
2026-01-26 17:43:17.01	291.31	37.08	-38.2	-39.6	27.2	3.03e+01	63	30	0	174587904	50	6504
2026-01-26 17:43:17.73	290.96	37.02	-38.7	-40.3	26.2	3.03e+01	58	30	0	176160768	50	7050
2026-01-26 17:43:19.03	290.33	36.91	-37.5	-38.9	26.7	3.03e+01	58	30	0	178257920	50	6000
2026-01-26 17:43:19.75	289.99	36.85	-37.0	-38.4	27.9	3.03e+01	59	29	0	179830784	46	7131
2026-01-26 17:43:21.04	289.37	36.74	-37.2	-38.5	28.3	3.03e+01	50	30	0	181927936	48	6435
2026-01-26 17:43:21.77	289.02	36.68	-37.5	-38.8	28.0	3.03e+01	61	30	0	183500800	48	6699
2026-01-26 17:43:23.06	288.41	36.56	-36.6	-37.8	26.1	3.03e+01	58	29	0	185597952	50	5311
2026-01-26 17:43:23.79	288.06	36.49	-37.8	-39.2	27.2	3.03e+01	52	30	0	187170816	48	6985
2026-01-26 17:43:25.08	287.46	36.37	-37.5	-38.9	27.8	3.03e+01	58	29	0	189792256	48	6770
2026-01-26 17:43:25.81	287.12	36.30	-35.9	-37.0	29.3	3.03e+01	61	29	0	190840832	46	6110
2026-01-26 17:43:27.10	286.52	36.17	-36.0	-37.2	29.0	3.03e+01	58	29	0	193462272	46	6221
2026-01-26 17:43:27.82	286.19	36.10	-37.8	-39.1	27.2	3.03e+01	58	30	0	194510848	50	6188
2026-01-26 17:43:29.12	285.59	35.97	-38.0	-39.4	27.3	3.03e+01	52	30	0	197132288	48	7144
2026-01-26 17:43:29.84	285.27	35.89	-35.7	-36.8	29.3	3.03e+01	58	30	0	198705152	46	5985
2026-01-26 17:43:31.14	284.68	35.76	-36.0	-37.1	29.4	3.03e+01	59	30	0	200802304	46	6197
2026-01-26 17:43:31.86	284.36	35.68	-37.5	-38.9	27.7	3.03e+01	53	30	0	202375168	48	6773
2026-01-26 17:43:33.16	283.78	35.54	-37.1	-38.5	28.0	3.03e+01	59	30	0	204996608	48	6424
2026-01-26 17:43:33.88	283.46	35.46	-36.4	-37.6	28.9	3.03e+01	60	30	0	206045184	48	5823
2026-01-26 17:43:35.18	282.89	35.32	-37.5	-38.7	28.8	3.03e+01	57	30	0	208666624	48	6636
2026-01-26 17:43:35.90	282.58	35.24	-37.3	-38.5	28.7	3.03e+01	60	30	0	209715200	48	6461
2026-01-26 17:43:37.20	282.01	35.09	-37.1	-38.3	28.6	3.03e+01	53	30	0	212336640	48	6317
2026-01-26 17:43:37.92	281.70	35.00	-36.7	-37.9	28.9	3.03e+01	59	30	0	213909504	48	6009
2026-01-26 17:43:39.21	281.15	34.85	-36.8	-38.0	28.7	3.03e+01	61	30	0	216006656	48	6121
2026-01-26 17:43:39.93	280.85	34.77	-37.1	-38.4	28.2	3.03e+01	47	30	0	217579520	48	6353
2026-01-26 17:43:41.23	280.30	34.61	-37.1	-38.3	28.1	3.03e+01	59	30	0	219676672	50	5642
2026-01-26 17:43:41.95	280.00	34.53	-37.6	-38.8	28.1	3.03e+01	56	29	0	221249536	48	6724
2026-01-26 17:43:43.25	279.46	34.37	-36.6	-37.8	29.1	3.03e+01	55	30	0	223870976	48	5934
2026-01-26 17:43:43.97	279.17	34.28	-38.0	-39.4	27.6	3.03e+01	58	30	0	224919552	48	7143
2026-01-26 17:43:45.27	278.64	34.12	-37.5	-38.9	27.8	3.03e+01	44	30	0	227540992	48	6780
2026-01-26 17:43:45.99	278.35	34.03	-36.2	-37.3	29.1	3.03e+01	60	30	0	229113856	48	5650
2026-01-26 17:43:47.28	277.83	33.87	-36.6	-37.8	28.5	3.03e+01	58	30	0	231211008	48	5993
2026-01-26 17:43:48.00	277.54	33.77	-36.2	-37.4	29.2	3.03e+01	51	29	0	232783872	46	6390
2026-01-26 17:43:49.30	277.03	33.61	-36.2	-37.4	29.2	3.03e+01	60	30	0	234881024	48	5669
2026-01-26 17:43:50.02	276.75	33.52	-36.7	-37.9	28.5	3.03e+01	62	30	0	236453888	48	6059
2026-01-26 17:43:51.32	276.24	33.35	-36.2	-37.4	28.6	3.03e+01	61	30	0	239075328	48	5668
2026-01-26 17:43:52.04	275.97	33.25	-37.6	-39.0	27.3	3.03e+01	59	30	0	240123904	48	6835
2026-01-26 17:43:53.34	275.47	33.08	-36.8	-38.1	28.3	3.03e+01	51	30	0	242745344	48	6191
2026-01-26 17:43:54.06	275.20	32.99	-36.5	-37.7	28.7	3.03e+01	61	30	0	243793920	48	5908
2026-01-26 17:43:55.36	274.71	32.81	-37.5	-38.8	27.1	3.03e+01	61	30	0	246415360	48	6714
2026-01-26 17:43:56.08	274.44	32.72	-35.6	-36.7	29.7	3.03e+01	46	30	0	247988224	46	5906
2026-01-26 17:43:57.37	273.97	32.54	-36.3	-37.5	28.4	3.03e+01	58	30	0	250085376	46	6460
2026-01-26 17:43:58.09	273.70	32.44	-35.0	-36.1	29.4	3.03e+01	58	30	0	251658240	44	6188
2026-01-26 17:43:59.39	273.23	32.27	-35.8	-36.9	29.2	3.03e+01	58	30	0	253755392	46	6050
2026-01-26 17:44:00.11	272.97	32.17	-36.0	-37.2	28.9	3.03e+01	55	30	0	255328256	46	6208
2026-01-26 17:44:01.41	272.51	31.99	-36.3	-37.5	28.7	3.03e+01	44	30	0	257949696	48	5770
2026-01-26 17:44:02.13	272.26	31.89	-36.9	-38.1	27.8	3.03e+01	54	30	0	258998272	48	6191
2026-01-26 17:44:03.43	271.80	31.71	-36.3	-37.4	28.6	3.03e+01	58	30	0	261619712	48	5698
2026-01-26 17:44:04.15	271.55	31.61	-36.5	-37.6	27.9	3.03e+01	50	30	0	262668288	46	6572
2026-01-26 17:44:05.45	271.11	31.43	-36.0	-37.1	29.3	3.03e+01	56	30	0	265289728	48	5506
2026-01-26 17:44:06.17	270.86	31.33	-35.9	-37.1	28.4	3.03e+01	46	29	0	266862592	46	6137
2026-01-26 17:44:07.47	270.42	31.15	-35.9	-37.1	28.4	3.03e+01	58	30	0	268959744	48	5481
2026-01-26 17:44:08.19	270.18	31.05	-35.3	-36.4	29.1	3.03e+01	57	30	0	270532608	46	5707
2026-01-26 17:44:09.49	269.75	30.87	-35.8	-37.0	28.9	3.03e+01	52	30	0	273154048	46	6094
2026-01-26 17:44:10.21	269.51	30.76	-35.2	-36.3	29.6	3.03e+01	59	30	0	274202624	46	5606
2026-01-26 17:44:11.50	269.09	30.58	-36.8	-38.2	27.8	3.03e+01	46	30	0	276824064	46	6988
2026-01-26 17:44:12.23	268.86	30.48	-35.6	-36.8	29.4	3.03e+01	60	30	0	277872640	46	5943
2026-01-26 17:44:13.52	268.45	30.30	-36.6	-38.0	28.3	3.03e+01	60	30	0	280494080	46	6830
2026-01-26 17:44:14.25	268.21	30.19	-36.0	-37.2	28.3	3.03e+01	51	30	0	282066944	48	5552
2026-01-26 17:44:15.54	267.81	30.01	-36.3	-37.5	28.4	3.03e+01	60	30	0	284164096	46	6458
2026-01-26 17:44:16.26	267.59	29.91	-36.7	-38.0	28.2	3.03e+01	57	30	0	285736960	46	6826
2026-01-26 17:44:17.56	267.19	29.72	-35.4	-36.5	29.6	3.03e+01	58	30	0	287834112	46	5763
2026-01-26 17:44:18.28	266.97	29.62	-35.9	-37.2	29.1	3.03e+01	60	30	0	289406976	46	6212
2026-01-26 17:44:19.58	266.57	29.43	-35.7	-36.9	28.8	3.03e+01	45	30	0	292028416	46	6052
2026-01-26 17:44:20.30	266.36	29.33	-35.4	-36.6	29.7	3.03e+01	61	30	0	293076992	46	5796
2026-01-26 17:44:21.60	265.97	29.14	-36.5	-37.8	28.8	3.03e+01	60	30	0	295698432	46	6650
2026-01-26 17:44:22.32	265.76	29.04	-36.2	-37.4	28.8	3.03e+01	62	30	0	296747008	46	6401
2026-01-26 17:44:23.61	265.38	28.86	-35.4	-36.6	29.6	3.03e+01	61	30	0	299368448	46	5800
2026-01-26 17:44:24.34	265.17	28.75	-35.6	-36.8	29.5	3.03e+01	58	30	0	300941312	46	5969
2026-01-26 17:44:25.63	264.80	28.57	-35.8	-37.0	29.1	3.03e+01	57	30	0	303038464	46	6131
2026-01-26 17:44:26.35	264.60	28.46	-36.0	-37.2	29.1	3.03e+01	61	30	0	304611328	46	6219
2026-01-26 17:44:27.65	264.24	28.28	-36.9	-38.2	28.5	3.03e+01	57	30	0	307232768	48	6255
2026-01-26 17:44:28.37	264.04	28.18	-36.6	-37.8	28.8	3.03e+01	61	30	0	308281344	48	5992
2026-01-26 17:44:29.67	263.68	27.99	-35.8	-37.0	29.3	3.03e+01	59	30	0	310902784	48	5429
2026-01-26 17:44:30.39	263.48	27.89	-35.7	-36.9	29.4	3.03e+01	56	30	0	311951360	46	6017
2026-01-26 17:44:31.69	263.13	27.70	-35.7	-36.9	29.3	3.03e+01	57	30	0	314572800	46	6039
2026-01-26 17:44:32.41	262.94	27.60	-35.6	-36.8	29.4	3.03e+01	61	30	0	316145664	46	5937
2026-01-26 17:44:33.70	262.59	27.42	-35.6	-36.7	29.4	3.03e+01	56	30	0	318242816	46	5926
2026-01-26 17:44:34.43	262.40	27.31	-35.9	-37.2	29.1	3.03e+01	59	30	0	319815680	46	6233
2026-01-26 17:44:35.73	262.06	27.13	-36.1	-37.4	28.8	3.03e+01	54	30	0	321912832	46	6386
2026-01-26 17:44:36.45	261.88	27.02	-35.9	-37.1	29.1	3.03e+01	51	30	0	323485696	46	6143
2026-01-26 17:44:37.75	261.55	26.84	-35.8	-37.0	29.2	3.03e+01	60	30	0	326107136	46	6129
2026-01-26 17:44:38.47	261.36	26.74	-36.2	-37.4	28.8	3.03e+01	53	30	0	327155712	46	6394
2026-01-26 17:44:39.76	261.04	26.56	-36.3	-37.5	28.7	3.03e+01	59	30	0	329777152	46	6472
2026-01-26 17:44:40.48	260.86	26.45	-35.8	-37.0	29.2	3.03e+01	60	30	0	330825728	46	6118
2026-01-26 17:44:41.78	260.54	26.27	-35.8	-37.0	29.3	3.03e+01	61	30	0	333447168	46	6086
2026-01-26 17:44:42.50	260.37	26.17	-35.7	-36.9	29.4	3.03e+01	58	30	0	335020032	46	5996
2026-01-26 17:44:43.79	260.06	25.99	-35.9	-37.2	29.1	3.03e+01	46	30	0	337117184	46	6211
2026-01-26 17:44:44.51	259.88	25.89	-36.0	-37.2	29.0	3.03e+01	58	30	0	338690048	46	6238
2026-01-26 17:44:45.81	259.58	25.71	-35.6	-36.8	29.3	3.03e+01	60	30	0	340787200	46	5972
2026-01-26 17:44:46.53	259.41	25.60	-35.6	-36.8	29.4	3.03e+01	51	30	0	342360064	46	5944
2026-01-26 17:44:47.83	259.10	25.42	-36.1	-37.3	29.0	3.03e+01	59	30	0	344981504	46	6337
2026-01-26 17:44:48.55	258.94	25.32	-35.9	-37.1	29.2	3.03e+01	62	30	0	346030080	46	6167
2026-01-26 17:44:49.85	258.64	25.14	-36.0	-37.2	29.0	3.03e+01	57	30	0	348651520	46	6262
2026-01-26 17:44:50.56	258.48	25.04	-36.1	-37.4	28.9	3.03e+01	59	30	0	349700096	46	6367
2026-01-26 17:44:51.86	258.19	24.86	-35.9	-37.1	29.1	3.03e+01	44	30	0	352321536	46	6183
2026-01-26 17:44:52.58	258.03	24.77	-36.1	-37.3	28.8	3.03e+01	59	30	0	353894400	46	6332
2026-01-26 17:44:53.88	257.74	24.59	-36.0	-37.2	29.2	3.03e+01	57	30	0	355991552	46	6275
2026-01-26 17:44:54.60	257.59	24.49	-35.9	-37.1	29.2	3.03e+01	46	30	0	357564416	46	6151
2026-01-26 17:44:55.89	257.31	24.31	-36.0	-37.2	29.1	3.03e+01	60	30	0	360185856	46	6250
2026-01-26 17:44:56.62	257.15	24.21	-35.9	-37.1	29.1	3.03e+01	60	30	0	361234432	46	6142
2026-01-26 17:44:57.91	256.88	24.04	-36.0	-37.2	29.0	3.03e+01	58	30	0	363855872	46	6221
2026-01-26 17:44:58.64	256.73	23.94	-36.1	-37.3	29.1	3.03e+01	58	30	0	364904448	46	6303
2026-01-26 17:44:59.93	256.46	23.76	-36.1	-37.3	29.0	3.03e+01	49	30	0	367525888	46	6294
2026-01-26 17:45:00.65	256.31	23.66	-36.0	-37.3	28.9	3.03e+01	58	30	0	369098752	46	6294
2026-01-26 17:45:01.95	256.04	23.49	-36.0	-37.3	29.0	3.03e+01	60	30	0	371195904	46	6283
2026-01-26 17:45:02.67	255.90	23.39	-35.9	-37.1	29.1	3.03e+01	46	30	0	372768768	46	6164
2026-01-26 17:45:03.97	255.64	23.22	-36.1	-37.3	29.0	3.03e+01	56	30	0	374865920	46	6309
2026-01-26 17:45:04.69	255.49	23.12	-36.0	-37.3	29.1	3.03e+01	60	30	0	376438784	46	6279
2026-01-26 17:45:05.99	255.24	22.95	-35.9	-37.1	29.1	3.03e+01	55	30	0	379060224	46	6166
2026-01-26 17:45:06.71	255.10	22.85	-36.0	-37.2	29.1	3.03e+01	58	30	0	380108800	46	6260
2026-01-26 17:45:08.01	254.85	22.68	-36.0	-37.2	29.1	3.03e+01	47	30	0	382730240	46	6253
2026-01-26 17:45:08.73	254.71	22.59	-36.0	-37.3	29.0	3.03e+01	57	30	0	383778816	46	6283
2026-01-26 17:45:10.03	254.46	22.42	-35.9	-37.1	29.2	3.03e+01	60	30	0	386400256	46	6172
2026-01-26 17:45:10.75	254.33	22.32	-35.9	-37.1	29.1	3.03e+01	45	30	0	387973120	46	6170
2026-01-26 17:45:12.05	254.08	22.15	-35.9	-37.1	29.2	3.03e+01	60	30	0	390070272	46	6163
2026-01-26 17:45:12.77	253.95	22.06	-35.8	-37.0	29.3	3.03e+01	60	30	0	391643136	46	6087
2026-01-26 17:45:14.07	253.71	21.89	-36.0	-37.2	29.2	3.03e+01	61	30	0	393740288	46	6216
2026-01-26 17:45:14.79	253.58	21.80	-35.9	-37.1	29.1	3.03e+01	53	30	0	395313152	46	6205
2026-01-26 17:45:16.08	253.35	21.63	-36.2	-37.4	28.9	3.03e+01	49	30	0	397934592	46	6400
2026-01-26 17:45:16.81	253.22	21.54	-36.0	-37.2	28.9	3.03e+01	59	30	0	398983168	46	6276
2026-01-26 17:45:18.10	252.99	21.37	-36.1	-37.3	29.0	3.03e+01	58	30	0	401604608	46	6297
2026-01-26 17:45:18.82	252.86	21.28	-36.1	-37.3	28.8	3.03e+01	46	30	0	402653184	46	6342
2026-01-26 17:45:20.12	252.64	21.11	-36.1	-37.4	28.9	3.03e+01	54	30	0	405274624	46	6352
2026-01-26 17:45:20.85	252.51	21.02	-36.2	-37.5	28.8	3.03e+01	53	30	0	406847488	46	6431
2026-01-26 17:45:22.14	252.29	20.86	-36.1	-37.4	28.9	3.03e+01	56	30	0	408944640	46	6353
2026-01-26 17:45:22.86	252.17	20.77	-36.1	-37.3	29.0	3.03e+01	58	30	0	410517504	46	6309
2026-01-26 17:45:24.16	251.95	20.60	-36.0	-37.2	29.1	3.03e+01	50	30	0	413138944	46	6237
2026-01-26 17:45:24.88	251.83	20.51	-35.8	-37.0	29.2	3.03e+01	56	30	0	414187520	46	6121
2026-01-26 17:45:26.18	251.62	20.35	-35.7	-37.0	29.2	3.03e+01	46	30	0	416808960	46	6065
2026-01-26 17:45:26.90	251.50	20.26	-35.7	-36.9	29.3	3.03e+01	64	30	0	417857536	46	5998
2026-01-26 17:45:28.19	251.29	20.10	-35.7	-36.9	29.4	3.03e+01	61	30	0	420478976	46	6000
2026-01-26 17:45:28.91	251.18	20.01	-35.9	-37.2	29.0	3.03e+01	52	30	0	422051840	46	6219
2026-01-26 17:45:30.21	250.97	19.85	-36.1	-37.4	28.9	3.03e+01	60	30	0	424148992	46	6352
2026-01-26 17:45:30.93	250.86	19.76	-35.9	-37.1	29.0	3.03e+01	57	30	0	425721856	46	6191
2026-01-26 17:45:32.23	250.65	19.61	-35.7	-36.9	29.2	3.03e+01	57	30	0	428343296	46	6056
2026-01-26 17:45:32.95	250.54	19.52	-35.6	-36.7	29.4	3.03e+01	60	30	0	429391872	46	5917
2026-01-26 17:45:34.25	250.34	19.36	-35.6	-36.8	29.4	3.03e+01	44	30	0	432013312	46	5978
2026-01-26 17:45:34.97	250.23	19.27	-35.6	-36.8	29.3	3.03e+01	61	30	0	433061888	46	5964
2026-01-26 17:45:36.27	250.04	19.12	-35.8	-37.0	29.2	3.03e+01	57	30	0	435683328	46	6111
2026-01-26 17:45:36.99	249.93	19.03	-35.8	-37.0	29.2	3.03e+01	55	30	0	437256192	46	6102
2026-01-26 17:45:38.29	249.73	18.88	-35.9	-37.1	29.2	3.03e+01	57	30	0	439353344	46	6170
2026-01-26 17:45:39.01	249.63	18.79	-35.7	-37.0	29.2	3.03e+01	59	30	0	440926208	46	6068
2026-01-26 17:45:40.31	249.44	18.64	-35.7	-36.9	29.3	3.03e+01	56	30	0	443023360	46	6026
2026-01-26 17:45:41.03	249.33	18.55	-35.6	-36.8	29.4	3.03e+01	59	30	0	444596224	46	5931
2026-01-26 17:45:42.32	249.15	18.40	-35.8	-37.0	29.2	3.03e+01	55	30	0	446693376	46	6079
2026-01-26 17:45:43.04	249.05	18.32	-36.0	-37.2	29.0	3.03e+01	57	30	0	448266240	46	6260
2026-01-26 17:45:44.34	248.86	18.16	-36.0	-37.3	29.0	3.03e+01	51	30	0	450887680	46	6295
2026-01-26 17:45:45.06	248.76	18.08	-36.0	-37.2	28.9	3.03e+01	49	30	0	451936256	46	6270
2026-01-26 17:45:46.36	248.58	17.93	-35.9	-37.1	29.0	3.03e+01	60	30	0	454557696	46	6152
2026-01-26 17:45:47.08	248.48	17.85	-35.8	-37.0	29.1	3.03e+01	59	30	0	455606272	46	6084
2026-01-26 17:45:48.38	248.30	17.70	-35.9	-37.2	29.1	3.03e+01	60	30	0	458227712	46	6212
2026-01-26 17:45:49.10	248.21	17.61	-35.5	-36.7	29.3	3.03e+01	57	30	0	459800576	46	5908
2026-01-26 17:45:50.40	248.03	17.47	-35.7	-36.9	29.1	3.03e+01	49	30	0	461897728	46	6023
2026-01-26 17:45:51.12	247.94	17.38	-35.6	-36.8	29.3	3.03e+01	59	30	0	463470592	46	5969
2026-01-26 17:45:52.42	247.76	17.24	-35.6	-36.8	29.2	3.03e+01	59	30	0	466092032	46	5976
2026-01-26 17:45:53.14	247.67	17.16	-35.7	-36.9	29.1	3.03e+01	57	30	0	467140608	46	6014
2026-01-26 17:45:54.43	247.50	17.01	-35.7	-36.9	29.2	3.03e+01	60	30	0	469762048	46	6003
2026-01-26 17:45:55.15	247.41	16.93	-35.9	-37.1	29.0	3.03e+01	58	30	0	470810624	46	6169
2026-01-26 17:45:56.45	247.24	16.78	-35.7	-36.9	29.2	3.03e+01	58	30	0	473432064	46	6033
2026-01-26 17:45:57.17	247.15	16.70	-35.7	-36.9	29.2	3.03e+01	57	30	0	475004928	46	6012
2026-01-26 17:45:58.47	246.99	16.56	-35.7	-36.9	29.1	3.03e+01	52	30	0	477102080	46	6046
2026-01-26 17:45:59.19	246.90	16.48	-35.8	-37.1	29.0	3.03e+01	57	30	0	478674944	46	6138
2026-01-26 17:46:00.49	246.74	16.34	-35.9	-37.2	28.9	3.03e+01	61	30	0	481296384	46	6223
2026-01-26 17:46:01.21	246.65	16.26	-35.9	-37.1	29.0	3.03e+01	44	30	0	482344960	46	6169
2026-01-26 17:46:02.50	246.49	16.12	-35.8	-37.1	28.9	3.03e+01	58	30	0	484966400	46	6146
2026-01-26 17:46:03.23	246.40	16.04	-35.9	-37.1	29.0	3.03e+01	60	30	0	486014976	46	6164
2026-01-26 17:46:04.52	246.25	15.90	-35.7	-36.9	29.0	3.03e+01	61	30	0	488636416	46	6040
2026-01-26 17:46:05.24	246.16	15.82	-35.5	-36.7	29.2	3.03e+01	59	30	0	490209280	46	5889
2026-01-26 17:46:06.54	246.01	15.68	-35.4	-36.6	29.3	3.03e+01	49	30	0	492306432	46	5828
2026-01-26 17:46:07.26	245.92	15.61	-35.5	-36.7	29.2	3.03e+01	59	30	0	493879296	46	5913
2026-01-26 17:46:08.56	245.77	15.47	-35.7	-36.9	29.1	3.03e+01	56	30	0	495976448	46	6010
2026-01-26 17:46:09.28	245.69	15.39	-35.8	-37.0	29.0	3.03e+01	45	30	0	497549312	46	6088
2026-01-26 17:46:10.58	245.54	15.25	-35.9	-37.2	28.8	3.03e+01	57	30	0	500170752	46	6214
2026-01-26 17:46:11.30	245.46	15.18	-35.9	-37.2	28.8	3.03e+01	60	30	0	501219328	46	6217
2026-01-26 17:46:12.59	245.31	15.04	-36.1	-37.3	28.8	3.03e+01	60	30	0	503840768	46	6313
2026-01-26 17:46:13.31	245.23	14.97	-36.0	-37.3	28.9	3.03e+01	59	30	0	504889344	46	6288
2026-01-26 17:46:14.61	245.09	14.83	-35.8	-37.0	29.0	3.03e+01	43	30	0	507510784	46	6106
2026-01-26 17:46:15.33	245.01	14.76	-35.9	-37.1	28.9	3.03e+01	58	30	0	508559360	46	6184
2026-01-26 17:46:16.63	244.87	14.62	-35.7	-36.9	29.0	3.03e+01	58	30	0	511180800	46	6017
2026-01-26 17:46:17.35	244.79	14.55	-35.7	-36.9	29.0	3.03e+01	46	30	0	512753664	46	6062
2026-01-26 17:46:18.65	244.65	14.41	-35.9	-37.1	28.9	3.03e+01	56	30	0	514850816	46	6162
2026-01-26 17:46:19.37	244.57	14.34	-35.9	-37.2	28.9	3.03e+01	59	30	0	516423680	46	6208
2026-01-26 17:46:20.67	244.43	14.21	-35.9	-37.2	28.8	3.03e+01	59	30	0	519045120	46	6229
2026-01-26 17:46:21.38	244.36	14.14	-36.0	-37.3	28.7	3.03e+01	56	30	0	520093696	46	6289
2026-01-26 17:46:22.68	244.22	14.00	-36.3	-37.6	28.5	3.03e+01	53	30	0	522715136	46	6532
2026-01-26 17:46:23.40	244.15	13.93	-36.1	-37.3	28.7	3.03e+01	60	30	0	523763712	46	6311
2026-01-26 17:46:24.70	244.02	13.80	-36.1	-37.3	28.6	3.03e+01	57	30	0	526385152	46	6323
2026-01-26 17:46:25.43	243.94	13.73	-36.0	-37.3	28.8	3.03e+01	45	30	0	527958016	46	6278
2026-01-26 17:46:26.72	243.81	13.60	-35.9	-37.2	28.8	3.03e+01	57	30	0	530055168	46	6223
2026-01-26 17:46:27.44	243.74	13.53	-36.0	-37.2	28.8	3.03e+01	61	30	0	531628032	46	6234
2026-01-26 17:46:28.74	243.61	13.40	-36.2	-37.4	28.5	3.03e+01	59	30	0	534249472	46	6414
2026-01-26 17:46:29.46	243.54	13.33	-36.2	-37.5	28.6	3.03e+01	59	30	0	535298048	46	6438
2026-01-26 17:46:30.76	243.41	13.20	-36.2	-37.4	28.6	3.03e+01	45	30	0	537919488	46	6370
2026-01-26 17:46:31.48	243.34	13.13	-36.2	-37.4	28.6	3.03e+01	61	30	0	538968064	46	6405
2026-01-26 17:46:32.78	243.21	13.00	-36.3	-37.6	28.4	3.03e+01	58	30	0	541589504	46	6506
2026-01-26 17:46:33.50	243.14	12.93	-36.4	-37.6	28.4	3.03e+01	61	30	0	543162368	46	6555
2026-01-26 17:46:34.80	243.02	12.81	-36.4	-37.6	28.3	3.03e+01	56	30	0	545259520	46	6544
2026-01-26 17:46:35.52	242.95	12.74	-36.5	-37.7	28.3	3.03e+01	46	30	0	546832384	46	6626
2026-01-26 17:46:36.82	242.83	12.61	-36.7	-38.0	28.0	3.03e+01	59	29	0	548929536	46	6815
2026-01-26 17:46:37.54	242.76	12.54	-36.8	-38.1	27.9	3.03e+01	51	30	0	550502400	46	6899
2026-01-26 17:46:38.84	242.64	12.42	-36.9	-38.2	27.8	3.03e+01	58	29	0	553123840	48	6274
2026-01-26 17:46:39.56	242.57	12.35	-37.0	-38.4	27.6	3.03e+01	59	29	0	554172416	48	6353
2026-01-26 17:46:40.86	242.46	12.23	-36.9	-38.1	27.8	3.03e+01	54	30	0	556793856	48	6205
2026-01-26 17:46:41.58	242.39	12.16	-37.0	-38.3	27.6	3.03e+01	60	30	0	557842432	48	6314
2026-01-26 17:46:42.88	242.27	12.04	-37.1	-38.4	27.5	3.03e+01	58	30	0	560463872	48	6373
2026-01-26 17:46:43.59	242.21	11.97	-37.0	-38.4	27.6	3.03e+01	57	30	0	562036736	48	6362
2026-01-26 17:46:44.89	242.09	11.85	-37.3	-38.6	27.3	3.03e+01	61	30	0	564133888	48	6535
2026-01-26 17:46:45.61	242.03	11.78	-37.3	-38.7	27.3	3.03e+01	57	30	0	565706752	48	6577
2026-01-26 17:46:46.91	241.92	11.66	-37.5	-38.8	27.2	3.03e+01	62	30	0	568328192	48	6681
2026-01-26 17:46:47.63	241.85	11.60	-37.4	-38.7	27.2	3.03e+01	60	30	0	569376768	48	6634
2026-01-26 17:46:48.93	241.74	11.48	-37.5	-38.9	27.0	3.03e+01	45	30	0	571998208	48	6749
2026-01-26 17:46:49.65	241.68	11.41	-37.7	-39.0	26.9	3.03e+01	56	30	0	573046784	48	6881
2026-01-26 17:46:50.94	241.57	11.29	-37.9	-39.3	26.6	3.03e+01	58	30	0	575668224	48	7095
2026-01-26 17:46:51.66	241.51	11.23	-37.9	-39.2	26.7	3.03e+01	56	30	0	576716800	48	7043
2026-01-26 17:46:52.96	241.40	11.11	-38.0	-39.3	26.6	3.03e+01	58	30	0	579338240	48	7123
2026-01-26 17:46:53.68	241.34	11.04	-38.1	-39.5	26.4	3.03e+01	58	30	0	580911104	50	6460
2026-01-26 17:46:54.98	241.23	10.93	-38.3	-39.7	26.1	3.03e+01	64	30	0	583008256	50	6611
2026-01-26 17:46:55.69	241.17	10.86	-38.3	-39.8	26.2	3.03e+01	56	30	0	584581120	50	6652
2026-01-26 17:46:56.99	241.07	10.75	-38.4	-39.8	26.1	3.03e+01	59	30	0	587202560	50	6717
2026-01-26 17:46:57.71	241.01	10.68	-38.4	-39.9	25.9	3.03e+01	56	30	0	588251136	50	6767
2026-01-26 17:46:59.00	240.90	10.57	-38.5	-40.0	25.9	3.03e+01	60	30	0	590872576	50	6833
2026-01-26 17:46:59.73	240.85	10.50	-38.6	-40.1	25.8	3.03e+01	36	30	0	591921152	50	6905
2026-01-26 17:47:01.02	240.74	10.39	-38.8	-40.3	25.5	3.03e+01	60	30	0	594542592	50	7096
2026-01-26 17:47:01.75	240.69	10.33	-39.0	-40.5	25.5	3.03e+01	57	30	0	596115456	52	6487
2026-01-26 17:47:03.04	240.59	10.21	-39.2	-40.8	25.2	3.03e+01	58	30	0	598212608	52	6657
2026-01-26 17:47:03.77	240.53	10.15	-39.3	-40.9	25.1	3.03e+01	58	30	0	599785472	52	6744
2026-01-26 17:47:05.06	240.43	10.04	-39.7	-41.2	24.7	3.03e+01	47	30	0	601882624	52	7037
2026-01-26 17:47:05.78	240.37	9.97	-39.6	-41.1	24.8	3.03e+01	61	30	0	603455488	52	6941
2026-01-26 17:47:07.08	240.27	9.86	-39.8	-41.4	24.5	3.03e+01	59	30	0	606076928	52	7195
2026-01-26 17:47:07.80	240.22	9.80	-40.0	-41.6	24.4	3.03e+01	58	30	0	607125504	52	7324
2026-01-26 17:47:09.10	240.12	9.69	-40.2	-41.9	24.1	3.03e+01	59	30	0	609746944	54	6748
2026-01-26 17:47:09.82	240.07	9.63	-40.4	-42.1	23.8	3.03e+01	63	30	0	610795520	54	6907
2026-01-26 17:47:11.11	239.97	9.52	-40.6	-42.3	23.6	3.03e+01	60	30	0	613416960	54	7110
2026-01-26 17:47:11.83	239.92	9.46	-40.5	-42.3	23.7	3.03e+01	61	30	0	614989824	54	7061
2026-01-26 17:47:13.13	239.82	9.34	-40.8	-42.6	23.4	3.03e+01	55	30	0	617086976	54	7344
2026-01-26 17:47:13.85	239.77	9.28	-41.0	-42.8	23.2	3.03e+01	60	30	0	618659840	54	7492
2026-01-26 17:47:15.15	239.68	9.17	-41.1	-42.9	23.1	3.03e+01	59	30	0	621281280	56	6752
2026-01-26 17:47:15.87	239.62	9.11	-41.0	-42.9	23.2	3.03e+01	51	30	0	622329856	56	6732
2026-01-26 17:47:17.17	239.53	9.01	-41.1	-43.0	22.9	3.03e+01	64	30	0	624951296	56	6880
2026-01-26 17:47:17.89	239.48	8.95	-41.3	-43.3	22.7	3.03e+01	61	30	0	625999872	56	7075
2026-01-26 17:47:19.19	239.39	8.84	-41.4	-43.4	22.6	3.03e+01	58	30	0	628621312	56	7178
2026-01-26 17:47:19.91	239.34	8.78	-41.7	-43.6	22.3	3.03e+01	57	30	0	630194176	56	7365
2026-01-26 17:47:21.21	239.25	8.67	-41.7	-43.8	22.2	3.03e+01	52	30	0	632291328	56	7490
2026-01-26 17:47:21.93	239.20	8.61	-42.0	-44.1	22.0	3.03e+01	53	30	0	633864192	56	7728
2026-01-26 17:47:23.23	239.11	8.50	-42.3	-44.4	21.7	3.03e+01	58	30	0	635961344	58	7165
2026-01-26 17:47:23.95	239.06	8.45	-42.2	-44.4	21.5	3.03e+01	47	30	0	637534208	58	7161
2026-01-26 17:47:25.25	238.97	8.34	-42.5	-44.7	21.2	3.03e+01	58	30	0	640155648	58	7415
2026-01-26 17:47:25.97	238.92	8.28	-42.7	-44.9	21.0	3.03e+01	59	30	0	641204224	58	7594
2026-01-26 17:47:27.27	238.83	8.18	-42.8	-45.1	20.9	3.03e+01	58	30	0	643825664	58	7781
2026-01-26 17:47:27.99	238.79	8.12	-42.9	-45.2	20.7	3.03e+01	59	29	0	644874240	58	7872
2026-01-26 17:47:29.29	238.70	8.01	-43.0	-45.5	20.5	3.03e+01	55	30	0	647495680	60	7223
2026-01-26 17:47:30.01	238.65	7.96	-43.1	-45.7	20.3	3.03e+01	60	30	0	649068544	60	7443
2026-01-26 17:47:31.31	238.57	7.85	-43.3	-46.0	20.0	3.03e+01	60	29	0	651165696	60	7689
2026-01-26 17:47:32.03	238.52	7.79	-43.4	-46.2	19.7	3.03e+01	50	30	0	652738560	60	7900
2026-01-26 17:47:33.33	238.44	7.69	-43.6	-46.5	19.4	3.03e+01	60	29	0	654835712	60	8168
2026-01-26 17:47:34.05	238.39	7.63	-43.6	-46.8	19.2	3.03e+01	58	29	0	656408576	60	8431
2026-01-26 17:47:35.34	238.31	7.53	-44.1	-47.2	18.7	3.03e+01	59	29	0	659030016	60	8812
2026-01-26 17:47:36.06	238.26	7.47	-44.3	-47.3	18.5	3.03e+01	60	29	0	660078592	60	8951
2026-01-26 17:47:37.36	238.18	7.37	-44.5	-47.6	18.2	3.03e+01	46	30	0	662700032	60	9274
2026-01-26 17:47:38.08	238.14	7.32	-44.5	-47.8	18.1	3.03e+01	60	29	0	663748608	60	9396
2026-01-26 17:47:39.37	238.06	7.22	-44.8	-48.2	17.6	3.03e+01	57	29	0	666370048	60	9865
