passes_logs/2026/01/26/R4.6S_Anadyr/R4.6S_Anadyr__20260126_085317_TY-42_rec.log

#Pass ID: 20260126_085317_TY-42
#Satellite: TY-42
#Configuration: TY-42_900M
#almurnet v.1.7.20251203
#Start time: 2026-01-26 08:53:47

#Version: 2.2.20231116
#Station: R4.6S_Anadyr
#Location: 177.4865 lon 64.73178 lat
#TLE: 1 64048U 25103A   26025.90722222  .00008016  00000-0  38191-3 0 09994
#TLE: 2 64048 097.4113 101.1198 0001664 095.7251 298.2114 15.19193032 38479

#Time	Az	El	Level	Level2	SNR	BER	BlckErr	Temp	State	Recorded	gain1	gain2
2026-01-26 08:53:47.38	144.46	2.01	-49.8	-51.3	5.7	0.00e+00	0	25	0	0	60	45008
2026-01-26 08:53:48.38	144.44	2.08	-47.5	-50.1	6.1	0.00e+00	0	27	104	0	60	38997
2026-01-26 08:53:49.39	144.41	2.15	-47.4	-49.9	6.1	0.00e+00	0	27	104	0	60	38239
2026-01-26 08:53:50.40	144.39	2.23	-47.5	-50.0	6.1	0.00e+00	0	27	104	0	60	38551
2026-01-26 08:53:51.41	144.36	2.30	-47.4	-49.9	6.1	0.00e+00	0	27	104	0	60	38081
2026-01-26 08:53:52.42	144.34	2.37	-47.4	-49.9	6.1	0.00e+00	0	27	104	0	60	38071
2026-01-26 08:53:53.43	144.31	2.44	-47.5	-50.0	6.1	0.00e+00	0	27	104	0	60	38584
2026-01-26 08:53:54.44	144.28	2.51	-47.3	-49.8	6.1	0.00e+00	0	27	104	0	60	37894
2026-01-26 08:53:55.45	144.26	2.58	-47.4	-49.8	6.1	0.00e+00	0	28	104	0	60	38046
2026-01-26 08:53:56.46	144.23	2.65	-47.3	-49.8	6.1	0.00e+00	0	27	104	0	60	37894
2026-01-26 08:53:57.47	144.20	2.73	-47.4	-49.9	6.1	0.00e+00	0	28	104	0	60	38222
2026-01-26 08:53:58.48	144.18	2.80	-47.5	-50.0	6.1	0.00e+00	0	28	104	0	60	38770
2026-01-26 08:53:59.49	144.15	2.87	-47.6	-50.1	6.1	0.00e+00	0	28	104	0	60	39086
2026-01-26 08:54:00.49	144.12	2.94	-47.8	-50.3	6.1	0.00e+00	0	28	104	0	60	40204
2026-01-26 08:54:01.50	144.09	3.02	-47.5	-50.0	6.1	0.00e+00	0	28	104	0	60	38857
2026-01-26 08:54:02.51	144.06	3.09	-47.7	-50.1	6.1	0.00e+00	0	28	104	0	60	39370
2026-01-26 08:54:03.52	144.04	3.16	-47.6	-50.1	6.1	0.00e+00	0	28	104	0	60	39062
2026-01-26 08:54:04.53	144.01	3.24	-47.8	-50.2	6.1	0.00e+00	0	28	104	0	60	39560
2026-01-26 08:54:05.54	143.98	3.31	-47.8	-50.3	6.1	0.00e+00	0	28	104	0	60	40075
2026-01-26 08:54:06.55	143.95	3.39	-47.5	-50.0	6.1	0.00e+00	0	28	104	0	60	38663
2026-01-26 08:54:07.56	143.92	3.46	-47.6	-50.1	6.1	0.00e+00	0	28	104	0	60	39205
2026-01-26 08:54:08.57	143.89	3.54	-47.5	-49.9	6.1	0.00e+00	0	28	104	0	60	38472
2026-01-26 08:54:09.58	143.86	3.61	-47.5	-49.9	6.1	0.00e+00	0	28	104	0	60	38437
2026-01-26 08:54:10.59	143.83	3.69	-47.6	-50.0	6.1	0.00e+00	0	28	104	0	60	38918
2026-01-26 08:54:11.60	143.80	3.76	-47.4	-49.9	6.1	0.00e+00	0	28	104	0	60	38414
2026-01-26 08:54:12.60	143.77	3.84	-47.4	-49.8	6.1	0.00e+00	0	28	104	0	60	38008
2026-01-26 08:54:13.61	143.74	3.92	-47.4	-49.9	6.1	0.00e+00	0	28	104	0	60	38272
2026-01-26 08:54:14.62	143.71	3.99	-47.4	-49.9	6.1	0.00e+00	0	28	104	0	60	38236
2026-01-26 08:54:15.64	143.68	4.07	-47.5	-50.0	6.1	0.00e+00	0	28	104	0	60	38885
2026-01-26 08:54:16.64	143.65	4.15	-47.5	-50.0	6.1	0.00e+00	0	28	104	0	60	38716
2026-01-26 08:54:17.65	143.62	4.22	-47.4	-50.0	6.1	0.00e+00	0	28	104	0	60	38611
2026-01-26 08:54:18.66	143.59	4.30	-47.5	-50.0	6.1	0.00e+00	0	28	104	0	60	38858
2026-01-26 08:54:19.68	143.56	4.38	-47.6	-50.2	6.1	0.00e+00	0	28	104	0	60	39462
2026-01-26 08:54:20.69	143.52	4.46	-47.3	-49.8	6.1	0.00e+00	0	28	104	0	60	38023
2026-01-26 08:54:21.69	143.49	4.54	-47.5	-50.0	6.1	0.00e+00	0	28	104	0	60	38952
2026-01-26 08:54:22.70	143.46	4.62	-47.5	-50.0	6.1	0.00e+00	0	28	104	0	60	38703
2026-01-26 08:54:23.71	143.43	4.70	-47.5	-50.0	6.1	0.00e+00	0	28	104	0	60	38722
2026-01-26 08:54:24.72	143.39	4.78	-47.0	-49.6	6.1	0.00e+00	0	28	104	0	60	36792
2026-01-26 08:54:25.73	143.36	4.86	-47.1	-49.6	6.1	0.00e+00	0	28	104	0	60	36879
2026-01-26 08:54:26.74	143.33	4.94	-47.1	-49.6	6.1	0.00e+00	0	28	104	0	60	37121
2026-01-26 08:54:27.75	143.29	5.02	-47.4	-49.9	6.1	0.00e+00	0	28	104	0	60	38277
2026-01-26 08:54:28.76	143.26	5.10	-47.3	-49.7	6.1	0.00e+00	0	28	104	0	60	37629
2026-01-26 08:54:29.77	143.22	5.18	-47.5	-50.0	6.1	0.00e+00	0	28	104	0	60	38664
2026-01-26 08:54:30.78	143.19	5.26	-47.6	-50.1	6.1	0.00e+00	0	28	104	0	60	39089
2026-01-26 08:54:31.79	143.16	5.34	-47.4	-49.9	6.1	0.00e+00	0	28	104	0	60	38411
2026-01-26 08:54:32.80	143.12	5.42	-47.6	-50.2	6.1	0.00e+00	0	28	104	0	60	39457
2026-01-26 08:54:33.81	143.09	5.51	-47.6	-50.1	6.1	0.00e+00	0	28	104	0	60	38995
2026-01-26 08:54:34.81	143.05	5.59	-43.2	-44.1	7.4	0.00e+00	0	28	104	0	60	19730
2026-01-26 08:54:35.82	143.01	5.67	-34.4	-34.8	10.7	0.00e+00	0	28	104	0	46	15024
2026-01-26 08:54:36.83	142.98	5.76	-40.2	-40.7	9.3	0.00e+00	0	28	104	0	60	13282
2026-01-26 08:54:37.84	142.94	5.84	-35.6	-35.8	11.7	0.00e+00	5403	29	0	0	48	15062
2026-01-26 08:54:38.85	142.91	5.92	-35.6	-36.0	11.7	2.08e-01	116	29	0	109051904	46	17383
2026-01-26 08:54:39.86	142.87	6.01	-35.5	-35.9	11.9	2.08e-01	12	29	0	226492416	46	17122
2026-01-26 08:54:40.87	142.83	6.09	-33.9	-34.3	13.1	1.26e-01	0	29	0	335544320	44	15976
2026-01-26 08:54:41.89	142.79	6.18	-33.6	-34.1	13.1	1.26e-01	0	29	0	452984832	42	17415
2026-01-26 08:54:42.89	142.76	6.26	-33.8	-34.3	13.1	6.43e-02	0	29	0	570425344	42	17837
2026-01-26 08:54:43.90	142.72	6.35	-33.0	-33.5	13.4	6.43e-02	0	29	0	679477248	42	16294
2026-01-26 08:54:44.91	142.68	6.44	-34.0	-34.5	13.0	6.43e-02	0	29	0	788529152	42	18315
2026-01-26 08:54:45.92	142.64	6.52	-34.4	-34.8	12.9	6.01e-02	0	29	0	905969664	42	19059
2026-01-26 08:54:46.93	142.60	6.61	-33.4	-33.8	13.1	6.01e-02	0	29	0	1015021568	42	16971
2026-01-26 08:54:47.94	142.56	6.70	-32.9	-33.4	13.4	6.91e-02	0	29	0	1132462080	40	18163
2026-01-26 08:54:48.95	142.52	6.79	-33.2	-33.7	13.3	6.91e-02	0	29	0	1249902592	40	18679
2026-01-26 08:54:49.96	142.48	6.87	-32.9	-33.4	13.4	6.91e-02	0	29	0	1358954496	40	18094
2026-01-26 08:54:50.97	142.44	6.96	-32.1	-32.6	13.8	4.65e-02	0	29	0	1476395008	40	16509
2026-01-26 08:54:51.98	142.40	7.05	-32.1	-32.6	13.8	4.65e-02	0	29	0	1585446912	40	16591
2026-01-26 08:54:52.99	142.36	7.14	-32.2	-32.7	13.9	3.58e-02	0	29	0	1694498816	40	16620
2026-01-26 08:54:54.00	142.32	7.23	-31.7	-32.2	14.0	3.58e-02	0	29	0	1811939328	40	15832
2026-01-26 08:54:55.01	142.28	7.32	-31.6	-32.1	14.2	2.75e-02	0	29	0	1929379840	38	17585
2026-01-26 08:54:56.02	142.23	7.41	-31.6	-32.2	14.3	2.75e-02	0	29	0	2038431744	38	17615
2026-01-26 08:54:57.02	142.19	7.50	-31.5	-32.0	14.3	2.75e-02	0	29	0	2155872256	38	17268
2026-01-26 08:54:58.03	142.15	7.59	-31.3	-31.8	14.4	1.83e-02	0	29	0	2264924160	38	16980
2026-01-26 08:54:59.04	142.11	7.69	-31.6	-32.1	14.4	1.83e-02	0	29	0	2382364672	38	17516
2026-01-26 08:55:00.05	142.06	7.78	-31.3	-31.8	14.4	1.83e-02	0	29	0	2499805184	38	16938
2026-01-26 08:55:01.06	142.02	7.87	-31.1	-31.6	14.6	1.48e-02	0	29	0	2608857088	38	16465
2026-01-26 08:55:02.07	141.98	7.96	-31.0	-31.5	14.6	1.48e-02	0	29	0	2717908992	38	16410
2026-01-26 08:55:03.07	141.93	8.06	-31.2	-31.7	14.6	1.21e-02	0	29	0	2835349504	38	16635
2026-01-26 08:55:04.08	141.89	8.15	-30.8	-31.4	14.8	1.21e-02	0	29	0	2944401408	36	18025
2026-01-26 08:55:05.09	141.84	8.25	-30.7	-31.2	14.9	9.08e-03	0	29	0	3061841920	36	17736
2026-01-26 08:55:06.11	141.79	8.34	-30.6	-31.1	14.9	9.08e-03	0	29	0	3179282432	36	17472
2026-01-26 08:55:07.11	141.75	8.44	-30.5	-31.0	14.8	9.08e-03	0	29	0	3288334336	36	17385
2026-01-26 08:55:08.13	141.70	8.53	-30.7	-31.2	14.7	8.10e-03	0	30	0	3405774848	36	17689
2026-01-26 08:55:09.13	141.66	8.63	-30.5	-31.0	14.8	8.10e-03	0	29	0	3514826752	36	17314
2026-01-26 08:55:10.14	141.61	8.73	-30.2	-30.7	15.0	8.99e-03	0	29	0	3632267264	36	16809
2026-01-26 08:55:11.15	141.56	8.82	-30.1	-30.6	15.0	8.99e-03	0	29	0	3741319168	36	16610
2026-01-26 08:55:12.16	141.51	8.92	-30.1	-30.7	15.0	6.69e-03	0	30	0	3858759680	36	16622
2026-01-26 08:55:13.17	141.46	9.02	-30.1	-30.6	15.0	6.69e-03	0	30	0	3967811584	36	16600
2026-01-26 08:55:14.18	141.41	9.12	-30.0	-30.6	15.0	6.69e-03	0	29	0	4085252096	36	16470
2026-01-26 08:55:15.19	141.36	9.22	-30.3	-30.9	15.0	6.62e-03	0	30	0	4194304000	36	17006
2026-01-26 08:55:16.19	141.31	9.32	-30.3	-30.9	14.9	6.62e-03	0	30	0	4311744512	36	17047
2026-01-26 08:55:17.20	141.26	9.42	-30.3	-30.8	15.0	6.62e-03	0	30	0	4429185024	36	16952
2026-01-26 08:55:18.21	141.21	9.52	-30.4	-30.9	15.1	6.74e-03	0	30	0	4538236928	36	17164
2026-01-26 08:55:19.22	141.16	9.62	-30.2	-30.8	15.2	6.74e-03	0	30	0	4647288832	36	16855
2026-01-26 08:55:20.22	141.11	9.72	-30.5	-31.0	15.0	6.74e-03	0	30	0	4764729344	36	17250
2026-01-26 08:55:21.24	141.06	9.82	-30.1	-30.6	15.1	5.51e-03	0	30	0	4873781248	36	16588
2026-01-26 08:55:22.24	141.01	9.93	-30.4	-30.9	15.1	5.51e-03	0	30	0	4991221760	36	17180
2026-01-26 08:55:23.25	140.95	10.03	-29.9	-30.4	15.2	5.51e-03	0	30	0	5108662272	36	16163
2026-01-26 08:55:24.26	140.90	10.13	-29.7	-30.3	15.2	5.04e-03	0	30	0	5217714176	34	17833
2026-01-26 08:55:25.27	140.85	10.24	-29.6	-30.1	15.3	5.04e-03	0	30	0	5335154688	34	17562
2026-01-26 08:55:26.28	140.79	10.34	-29.7	-30.2	15.3	4.93e-03	0	30	0	5444206592	34	17744
2026-01-26 08:55:27.29	140.74	10.45	-29.6	-30.1	15.4	3.90e-03	0	30	0	5561647104	34	17516
2026-01-26 08:55:28.30	140.68	10.56	-29.2	-29.7	15.4	3.90e-03	0	30	0	5670699008	34	16743
2026-01-26 08:55:29.31	140.62	10.66	-29.2	-29.8	15.4	3.06e-03	0	30	0	5788139520	34	16844
2026-01-26 08:55:30.32	140.57	10.77	-29.1	-29.7	15.5	3.06e-03	0	30	0	5897191424	34	16673
2026-01-26 08:55:31.33	140.51	10.88	-28.8	-29.4	15.5	3.06e-03	0	30	0	6014631936	34	16103
2026-01-26 08:55:32.34	140.45	10.99	-29.0	-29.6	15.4	2.51e-03	0	30	0	6123683840	34	16438
2026-01-26 08:55:33.35	140.39	11.10	-28.5	-29.1	15.6	2.51e-03	0	30	0	6241124352	32	17410
2026-01-26 08:55:34.35	140.33	11.21	-28.3	-28.9	15.7	1.96e-03	0	30	0	6358564864	32	17043
2026-01-26 08:55:35.36	140.27	11.32	-28.3	-28.9	15.6	1.96e-03	0	30	0	6467616768	32	17025
2026-01-26 08:55:36.37	140.21	11.43	-28.2	-28.7	15.7	1.62e-03	0	30	0	6576668672	32	16743
2026-01-26 08:55:37.38	140.15	11.54	-28.0	-28.5	15.8	1.62e-03	0	30	0	6694109184	32	16376
2026-01-26 08:55:38.39	140.09	11.65	-27.6	-28.2	15.9	1.62e-03	0	30	0	6803161088	30	17675
2026-01-26 08:55:39.40	140.03	11.77	-27.5	-28.1	16.0	9.86e-04	0	30	0	6920601600	30	17411
2026-01-26 08:55:40.41	139.97	11.88	-27.3	-27.9	16.0	9.86e-04	0	30	0	7038042112	30	17021
2026-01-26 08:55:41.42	139.91	12.00	-27.5	-28.1	16.1	6.76e-04	0	30	0	7147094016	30	17445
2026-01-26 08:55:42.43	139.84	12.11	-27.2	-27.7	16.3	6.76e-04	0	30	0	7264534528	30	16693
2026-01-26 08:55:43.44	139.78	12.23	-27.0	-27.5	16.2	4.25e-04	0	30	0	7373586432	30	16427
2026-01-26 08:55:44.45	139.71	12.34	-26.6	-27.1	16.4	4.25e-04	0	30	0	7491026944	28	17593
2026-01-26 08:55:45.46	139.65	12.46	-26.3	-26.8	16.5	1.91e-04	0	30	0	7600078848	28	16984
2026-01-26 08:55:46.47	139.58	12.58	-26.4	-26.9	16.5	1.91e-04	0	30	0	7717519360	28	17200
2026-01-26 08:55:47.48	139.51	12.70	-25.8	-26.3	16.6	4.35e-05	0	30	0	7826571264	26	18006
2026-01-26 08:55:48.48	139.45	12.82	-26.0	-26.5	16.6	4.35e-05	0	30	0	7944011776	26	18421
2026-01-26 08:55:49.49	139.38	12.94	-25.5	-26.1	16.6	2.72e-05	0	30	0	8061452288	26	17459
2026-01-26 08:55:50.51	139.31	13.06	-25.6	-26.1	16.7	2.72e-05	0	30	0	8170504192	26	17558
2026-01-26 08:55:51.51	139.24	13.18	-25.4	-25.9	16.7	2.72e-05	0	30	0	8287944704	26	17135
2026-01-26 08:55:52.53	139.17	13.30	-25.2	-25.8	16.7	3.81e-05	0	30	0	8396996608	26	16877
2026-01-26 08:55:53.53	139.10	13.43	-25.3	-25.8	16.7	3.81e-05	0	30	0	8506048512	26	16975
2026-01-26 08:55:54.54	139.03	13.55	-25.3	-25.8	16.7	3.81e-05	0	30	0	8631877632	26	16951
2026-01-26 08:55:55.56	138.95	13.68	-25.1	-25.6	16.7	1.08e-05	0	30	0	8740929536	26	16616
2026-01-26 08:55:56.56	138.88	13.80	-24.8	-25.3	16.7	1.08e-05	0	30	0	8849981440	24	17979
2026-01-26 08:55:57.57	138.80	13.93	-24.7	-25.2	16.8	1.08e-05	0	30	0	8967421952	24	17697
2026-01-26 08:55:58.58	138.73	14.05	-24.6	-25.1	16.8	1.08e-05	0	30	0	9076473856	24	17557
2026-01-26 08:55:59.59	138.65	14.18	-24.6	-25.1	16.8	0.00e+00	0	30	0	9193914368	24	17507
2026-01-26 08:56:00.60	138.58	14.31	-24.4	-25.0	16.9	0.00e+00	0	30	0	9311354880	24	17222
2026-01-26 08:56:01.61	138.50	14.44	-24.2	-24.8	16.9	5.40e-06	0	30	0	9420406784	24	16844
2026-01-26 08:56:02.62	138.42	14.57	-24.3	-24.8	16.8	5.40e-06	0	30	0	9529458688	24	16991
2026-01-26 08:56:03.63	138.34	14.70	-24.1	-24.7	16.9	5.40e-06	0	30	0	9646899200	24	16695
2026-01-26 08:56:04.64	138.26	14.83	-24.3	-24.8	16.9	0.00e+00	0	30	0	9764339712	24	16967
2026-01-26 08:56:05.65	138.18	14.97	-24.2	-24.8	16.9	0.00e+00	0	30	0	9873391616	24	16885
2026-01-26 08:56:06.66	138.10	15.10	-24.1	-24.7	16.9	0.00e+00	0	30	0	9990832128	24	16648
2026-01-26 08:56:07.67	138.02	15.24	-24.0	-24.6	16.9	0.00e+00	0	30	0	10099884032	24	16442
2026-01-26 08:56:08.67	137.93	15.37	-24.0	-24.5	16.8	0.00e+00	0	30	0	10217324544	24	16378
2026-01-26 08:56:09.68	137.85	15.51	-23.7	-24.3	16.8	0.00e+00	0	30	0	10326376448	22	17851
2026-01-26 08:56:10.69	137.76	15.65	-23.8	-24.3	16.7	0.00e+00	0	30	0	10443816960	22	17988
2026-01-26 08:56:11.70	137.68	15.79	-23.7	-24.3	16.7	0.00e+00	0	30	0	10561257472	22	17852
2026-01-26 08:56:12.71	137.59	15.93	-23.7	-24.2	16.7	1.08e-05	0	30	0	10670309376	22	17705
2026-01-26 08:56:13.72	137.50	16.07	-23.5	-24.0	16.7	1.08e-05	0	30	0	10779361280	22	17321
2026-01-26 08:56:14.73	137.41	16.21	-23.4	-23.9	16.8	5.40e-06	0	30	0	10896801792	22	17160
2026-01-26 08:56:15.74	137.32	16.35	-23.6	-24.1	16.8	5.40e-06	0	30	0	11005853696	22	17520
2026-01-26 08:56:16.75	137.23	16.49	-23.4	-24.0	16.8	5.40e-06	0	30	0	11123294208	22	17242
2026-01-26 08:56:17.76	137.14	16.64	-23.7	-24.2	16.8	0.00e+00	0	30	0	11240734720	22	17710
2026-01-26 08:56:18.76	137.04	16.78	-23.5	-24.1	16.9	0.00e+00	0	30	0	11349786624	22	17435
2026-01-26 08:56:19.77	136.95	16.93	-23.5	-24.1	16.9	0.00e+00	0	30	0	11458838528	22	17457
2026-01-26 08:56:20.78	136.85	17.08	-23.6	-24.1	16.8	0.00e+00	0	30	0	11576279040	22	17528
2026-01-26 08:56:21.79	136.76	17.23	-23.3	-23.9	16.9	0.00e+00	0	30	0	11693719552	22	17043
2026-01-26 08:56:22.80	136.66	17.38	-23.0	-23.6	16.9	0.00e+00	0	30	0	11802771456	22	16480
2026-01-26 08:56:23.81	136.56	17.53	-23.0	-23.6	16.9	0.00e+00	0	30	0	11920211968	22	16503
2026-01-26 08:56:24.82	136.46	17.68	-22.9	-23.4	16.9	0.00e+00	0	30	0	12029263872	22	16224
2026-01-26 08:56:25.82	136.36	17.83	-23.2	-23.7	17.0	0.00e+00	0	30	0	12146704384	22	16735
2026-01-26 08:56:26.84	136.25	17.99	-22.9	-23.4	17.0	0.00e+00	0	30	0	12255756288	22	16226
2026-01-26 08:56:27.84	136.15	18.14	-22.8	-23.3	17.1	0.00e+00	0	31	0	12373196800	22	16026
2026-01-26 08:56:28.85	136.04	18.30	-22.7	-23.2	17.1	0.00e+00	0	30	0	12490637312	20	17803
2026-01-26 08:56:29.86	135.94	18.46	-22.6	-23.1	17.2	0.00e+00	0	30	0	12599689216	20	17564
2026-01-26 08:56:30.87	135.83	18.62	-22.5	-23.0	17.3	0.00e+00	0	30	0	12708741120	20	17349
2026-01-26 08:56:31.88	135.72	18.78	-22.7	-23.2	17.3	0.00e+00	0	31	0	12826181632	20	17736
2026-01-26 08:56:32.89	135.61	18.94	-22.7	-23.3	17.3	0.00e+00	0	31	0	12943622144	20	17831
2026-01-26 08:56:33.90	135.50	19.10	-23.1	-23.6	17.3	0.00e+00	0	30	0	13052674048	20	18597
2026-01-26 08:56:34.91	135.38	19.26	-22.6	-23.1	17.3	0.00e+00	0	31	0	13170114560	20	17498
2026-01-26 08:56:35.92	135.27	19.43	-22.4	-22.9	17.2	0.00e+00	0	30	0	13279166464	20	17150
2026-01-26 08:56:36.93	135.15	19.60	-22.4	-23.0	17.2	0.00e+00	0	30	0	13388218368	20	17216
2026-01-26 08:56:37.94	135.03	19.76	-22.2	-22.8	17.2	0.00e+00	0	30	0	13505658880	20	16871
2026-01-26 08:56:38.94	134.91	19.93	-22.1	-22.6	17.2	0.00e+00	0	30	0	13623099392	20	16543
2026-01-26 08:56:39.95	134.79	20.10	-21.7	-22.3	17.3	0.00e+00	0	31	0	13732151296	18	17870
2026-01-26 08:56:40.96	134.67	20.27	-21.7	-22.3	17.3	0.00e+00	0	31	0	13849591808	18	17888
2026-01-26 08:56:41.97	134.55	20.45	-21.6	-22.1	17.3	0.00e+00	0	31	0	13958643712	18	17567
2026-01-26 08:56:42.98	134.42	20.62	-21.3	-21.9	17.3	0.00e+00	0	31	0	14076084224	18	17105
2026-01-26 08:56:43.99	134.29	20.80	-21.1	-21.7	17.3	0.00e+00	0	30	0	14193524736	18	16701
2026-01-26 08:56:45.00	134.16	20.97	-21.1	-21.6	17.3	0.00e+00	0	31	0	14302576640	18	16591
2026-01-26 08:56:46.01	134.03	21.15	-21.1	-21.6	17.3	0.00e+00	0	31	0	14420017152	18	16539
2026-01-26 08:56:47.02	133.90	21.33	-21.0	-21.6	17.3	0.00e+00	0	31	0	14529069056	18	16486
2026-01-26 08:56:48.03	133.76	21.52	-21.2	-21.7	17.3	0.00e+00	0	31	0	14638120960	18	16752
2026-01-26 08:56:49.04	133.63	21.70	-20.8	-21.4	17.4	0.00e+00	0	31	0	14755561472	18	16082
2026-01-26 08:56:50.05	133.49	21.88	-21.5	-22.0	17.3	0.00e+00	0	31	0	14873001984	18	17309
2026-01-26 08:56:51.06	133.35	22.07	-21.4	-21.9	17.4	0.00e+00	0	31	0	14982053888	18	17058
2026-01-26 08:56:52.06	133.21	22.26	-20.9	-21.4	17.4	0.00e+00	0	31	0	15099494400	18	16185
2026-01-26 08:56:53.07	133.06	22.44	-21.0	-21.5	17.5	0.00e+00	0	31	0	15208546304	18	16385
2026-01-26 08:56:54.08	132.92	22.63	-20.7	-21.2	17.5	0.00e+00	0	31	0	15317598208	16	17755
2026-01-26 08:56:55.09	132.77	22.83	-20.7	-21.2	17.5	0.00e+00	0	31	0	15443427328	16	17774
2026-01-26 08:56:56.10	132.62	23.02	-20.8	-21.3	17.5	0.00e+00	0	31	0	15552479232	16	17850
2026-01-26 08:56:57.11	132.46	23.22	-20.8	-21.3	17.6	0.00e+00	0	31	0	15661531136	16	17875
2026-01-26 08:56:58.12	132.31	23.41	-20.8	-21.3	17.6	0.00e+00	0	31	0	15778971648	16	17850
2026-01-26 08:56:59.12	132.15	23.61	-20.8	-21.3	17.6	0.00e+00	0	31	0	15888023552	16	17985
2026-01-26 08:57:00.13	131.99	23.81	-20.7	-21.2	17.5	0.00e+00	0	31	0	16005464064	16	17745
2026-01-26 08:57:01.14	131.83	24.01	-20.4	-20.9	17.5	0.00e+00	0	31	0	16122904576	16	17118
2026-01-26 08:57:02.15	131.67	24.22	-20.6	-21.1	17.4	0.00e+00	0	31	0	16231956480	16	17547
2026-01-26 08:57:03.16	131.50	24.42	-20.3	-20.8	17.4	0.00e+00	0	31	0	16349396992	16	16905
2026-01-26 08:57:04.17	131.33	24.63	-20.2	-20.8	17.3	0.00e+00	0	31	0	16458448896	16	16830
2026-01-26 08:57:05.18	131.16	24.84	-19.9	-20.4	17.4	0.00e+00	0	31	0	16567500800	16	16223
2026-01-26 08:57:06.19	130.99	25.05	-19.8	-20.4	17.4	0.00e+00	0	31	0	16684941312	16	16153
2026-01-26 08:57:07.20	130.81	25.26	-19.8	-20.4	17.4	0.00e+00	0	31	0	16802381824	14	18026
2026-01-26 08:57:08.21	130.63	25.48	-19.6	-20.1	17.5	0.00e+00	0	31	0	16911433728	14	17521
2026-01-26 08:57:09.22	130.45	25.69	-19.7	-20.2	17.5	0.00e+00	0	31	0	17028874240	14	17769
2026-01-26 08:57:10.23	130.26	25.91	-19.7	-20.2	17.6	0.00e+00	0	31	0	17137926144	14	17716
2026-01-26 08:57:11.23	130.08	26.13	-19.5	-20.1	17.5	0.00e+00	0	31	0	17246978048	14	17411
2026-01-26 08:57:12.24	129.89	26.35	-19.5	-20.1	17.6	0.00e+00	0	31	0	17372807168	14	17402
2026-01-26 08:57:13.25	129.69	26.57	-19.6	-20.1	17.6	0.00e+00	0	31	0	17481859072	14	17560
2026-01-26 08:57:14.26	129.49	26.80	-19.3	-19.8	17.6	0.00e+00	0	31	0	17590910976	14	16983
2026-01-26 08:57:15.27	129.29	27.03	-18.9	-19.4	17.6	0.00e+00	0	31	0	17708351488	14	16216
2026-01-26 08:57:16.28	129.09	27.25	-18.9	-19.5	17.6	0.00e+00	0	31	0	17817403392	14	16276
2026-01-26 08:57:17.29	128.88	27.49	-18.8	-19.3	17.6	0.00e+00	0	31	0	17934843904	12	17876
2026-01-26 08:57:18.30	128.67	27.72	-18.6	-19.1	17.6	0.00e+00	0	31	0	18052284416	12	17482
2026-01-26 08:57:19.30	128.46	27.95	-18.5	-19.1	17.7	0.00e+00	0	31	0	18161336320	12	17448
2026-01-26 08:57:20.31	128.25	28.19	-18.4	-19.0	17.6	0.00e+00	0	31	0	18278776832	12	17213
2026-01-26 08:57:21.32	128.03	28.43	-18.3	-18.9	17.7	0.00e+00	0	31	0	18387828736	12	17009
2026-01-26 08:57:22.33	127.80	28.67	-18.2	-18.7	17.6	0.00e+00	0	31	0	18496880640	12	16752
2026-01-26 08:57:23.34	127.57	28.91	-18.3	-18.8	17.6	0.00e+00	0	31	0	18614321152	12	16936
2026-01-26 08:57:24.35	127.34	29.16	-18.2	-18.7	17.6	0.00e+00	0	31	0	18731761664	12	16691
2026-01-26 08:57:25.36	127.11	29.40	-18.0	-18.5	17.6	0.00e+00	0	31	0	18840813568	12	16330
2026-01-26 08:57:26.36	126.87	29.65	-18.2	-18.7	17.6	0.00e+00	0	31	0	18958254080	12	16774
2026-01-26 08:57:27.37	126.63	29.90	-17.9	-18.4	17.6	0.00e+00	0	31	0	19067305984	12	16057
2026-01-26 08:57:28.38	126.38	30.16	-17.5	-18.0	17.6	0.00e+00	0	31	0	19176357888	10	17316
2026-01-26 08:57:29.40	126.12	30.41	-17.6	-18.1	17.6	0.00e+00	0	31	0	19302187008	10	17556
2026-01-26 08:57:30.40	125.87	30.67	-17.3	-17.8	17.6	0.00e+00	0	31	0	19411238912	10	16891
2026-01-26 08:57:31.41	125.61	30.93	-17.4	-17.9	17.7	0.00e+00	0	31	0	19520290816	10	17012
2026-01-26 08:57:32.42	125.34	31.19	-17.4	-17.9	17.7	0.00e+00	0	31	0	19637731328	10	17034
2026-01-26 08:57:33.43	125.07	31.45	-17.3	-17.7	17.7	0.00e+00	0	31	0	19746783232	10	16793
2026-01-26 08:57:34.44	124.80	31.72	-17.2	-17.7	17.7	0.00e+00	0	31	0	19864223744	10	16679
2026-01-26 08:57:35.45	124.52	31.99	-17.1	-17.6	17.7	0.00e+00	0	31	0	19981664256	10	16534
2026-01-26 08:57:36.45	124.23	32.26	-17.2	-17.7	17.7	0.00e+00	0	31	0	20090716160	10	16626
2026-01-26 08:57:37.46	123.94	32.53	-17.0	-17.4	17.7	0.00e+00	0	31	0	20208156672	10	16183
2026-01-26 08:57:38.47	123.65	32.80	-16.9	-17.4	17.7	0.00e+00	0	31	0	20317208576	10	16094
2026-01-26 08:57:39.47	123.35	33.08	-16.9	-17.3	17.7	0.00e+00	0	31	0	20426260480	8	17947
2026-01-26 08:57:40.48	123.04	33.35	-16.9	-17.4	17.8	0.00e+00	0	31	0	20543700992	8	18097
2026-01-26 08:57:41.49	122.73	33.64	-17.1	-17.5	17.8	0.00e+00	0	31	0	20661141504	8	18370
2026-01-26 08:57:42.50	122.41	33.92	-17.2	-17.7	17.8	0.00e+00	0	31	0	20770193408	8	18646
2026-01-26 08:57:43.51	122.09	34.20	-16.5	-17.0	17.8	0.00e+00	0	31	0	20887633920	8	17264
2026-01-26 08:57:44.52	121.76	34.49	-16.5	-16.9	17.8	0.00e+00	0	31	0	20996685824	8	17065
2026-01-26 08:57:45.53	121.42	34.78	-16.5	-16.9	17.8	0.00e+00	0	31	0	21105737728	8	17163
2026-01-26 08:57:46.53	121.08	35.07	-16.5	-16.9	17.8	0.00e+00	0	31	0	21223178240	8	17195
2026-01-26 08:57:47.54	120.73	35.36	-16.3	-16.7	17.8	0.00e+00	0	31	0	21340618752	8	16690
2026-01-26 08:57:48.55	120.37	35.65	-16.4	-16.8	17.8	0.00e+00	0	31	0	21449670656	8	16970
2026-01-26 08:57:49.56	120.01	35.95	-16.1	-16.6	17.9	0.00e+00	0	31	0	21567111168	8	16449
2026-01-26 08:57:50.57	119.64	36.25	-16.2	-16.6	17.9	0.00e+00	0	31	0	21676163072	8	16577
2026-01-26 08:57:51.58	119.26	36.55	-16.1	-16.6	17.9	0.00e+00	0	31	0	21793603584	8	16442
2026-01-26 08:57:52.59	118.88	36.85	-16.2	-16.6	17.9	0.00e+00	0	31	0	21911044096	8	16565
2026-01-26 08:57:53.60	118.48	37.15	-16.0	-16.4	17.8	0.00e+00	0	31	0	22020096000	8	16224
2026-01-26 08:57:54.61	118.08	37.46	-15.8	-16.2	17.9	0.00e+00	0	31	0	22137536512	8	15848
2026-01-26 08:57:55.62	117.67	37.77	-16.3	-16.7	17.9	0.00e+00	0	31	0	22246588416	8	16722
2026-01-26 08:57:56.63	117.26	38.08	-16.0	-16.4	17.9	0.00e+00	0	31	0	22355640320	8	16203
2026-01-26 08:57:57.64	116.83	38.39	-16.4	-16.8	17.8	0.00e+00	0	31	0	22473080832	8	16997
2026-01-26 08:57:58.65	116.40	38.70	-16.0	-16.4	17.8	0.00e+00	0	31	0	22590521344	8	16235
2026-01-26 08:57:59.66	115.95	39.01	-17.0	-17.4	17.8	0.00e+00	0	31	0	22699573248	8	18138
2026-01-26 08:58:00.67	115.50	39.33	-16.4	-16.8	17.8	0.00e+00	0	31	0	22817013760	8	16993
2026-01-26 08:58:01.68	115.04	39.64	-16.0	-16.4	17.8	0.00e+00	0	31	0	22926065664	6	18100
2026-01-26 08:58:02.69	114.57	39.96	-16.1	-16.5	17.7	0.00e+00	0	31	0	23035117568	6	18363
2026-01-26 08:58:03.70	114.09	40.28	-17.3	-17.8	17.7	0.00e+00	0	31	0	23160946688	6	21313
2026-01-26 08:58:04.71	113.60	40.60	-17.9	-18.3	17.7	0.00e+00	0	31	0	23269998592	8	20123
2026-01-26 08:58:05.72	113.09	40.92	-18.1	-18.5	17.6	0.00e+00	0	31	0	23379050496	10	18363
2026-01-26 08:58:06.73	112.58	41.24	-17.0	-17.4	17.6	0.00e+00	0	31	0	23496491008	10	16183
2026-01-26 08:58:07.74	112.06	41.56	-17.2	-17.7	17.7	0.00e+00	0	31	0	23605542912	10	16689
2026-01-26 08:58:08.75	111.53	41.88	-16.2	-16.6	17.7	0.00e+00	0	31	0	23722983424	8	16584
2026-01-26 08:58:09.75	110.99	42.20	-15.2	-15.6	17.7	0.00e+00	0	31	0	23840423936	6	16527
2026-01-26 08:58:10.76	110.43	42.52	-15.2	-15.6	17.7	0.00e+00	0	31	0	23949475840	6	16601
2026-01-26 08:58:11.77	109.86	42.84	-15.4	-15.8	17.7	0.00e+00	0	31	0	24066916352	6	16875
2026-01-26 08:58:12.78	109.28	43.17	-15.4	-15.9	17.7	0.00e+00	0	31	0	24175968256	6	17078
2026-01-26 08:58:13.79	108.69	43.49	-14.7	-15.1	17.7	0.00e+00	0	31	0	24285020160	6	15582
2026-01-26 08:58:14.80	108.09	43.81	-14.3	-14.7	17.7	0.00e+00	0	31	0	24402460672	4	16717
2026-01-26 08:58:15.81	107.47	44.13	-14.1	-14.5	17.7	0.00e+00	0	31	0	24519901184	4	16404
2026-01-26 08:58:16.82	106.84	44.45	-14.2	-14.7	17.7	0.00e+00	0	31	0	24628953088	4	16684
2026-01-26 08:58:17.83	106.19	44.77	-14.1	-14.5	17.8	0.00e+00	0	31	0	24746393600	4	16382
2026-01-26 08:58:18.84	105.54	45.09	-14.0	-14.4	17.7	0.00e+00	0	31	0	24855445504	4	16114
2026-01-26 08:58:19.85	104.86	45.41	-13.9	-14.3	17.7	0.00e+00	0	31	0	24972886016	4	16012
2026-01-26 08:58:20.85	104.19	45.72	-13.9	-14.3	17.7	0.00e+00	0	31	0	25090326528	4	15953
2026-01-26 08:58:21.86	103.49	46.04	-14.0	-14.4	17.7	0.00e+00	0	31	0	25199378432	4	16216
2026-01-26 08:58:22.87	102.77	46.35	-13.8	-14.2	17.7	0.00e+00	0	31	0	25308430336	4	15741
2026-01-26 08:58:23.88	102.04	46.66	-14.0	-14.4	17.7	0.00e+00	0	31	0	25425870848	2	18126
2026-01-26 08:58:24.89	101.30	46.97	-13.7	-14.1	17.7	0.00e+00	0	31	0	25534922752	2	17561
2026-01-26 08:58:25.90	100.54	47.27	-13.8	-14.2	17.7	0.00e+00	0	31	0	25652363264	2	17639
2026-01-26 08:58:26.90	99.77	47.57	-14.1	-14.5	17.7	0.00e+00	0	31	0	25769803776	2	18282
2026-01-26 08:58:27.91	98.98	47.87	-13.8	-14.2	17.7	0.00e+00	0	31	0	25878855680	2	17629
2026-01-26 08:58:28.92	98.18	48.16	-13.5	-13.9	17.6	0.00e+00	0	31	0	25996296192	2	17180
2026-01-26 08:58:29.93	97.36	48.45	-13.5	-13.9	17.6	0.00e+00	0	31	0	26105348096	2	17071
2026-01-26 08:58:30.93	96.53	48.74	-13.4	-13.8	17.7	0.00e+00	0	31	0	26214400000	2	17000
2026-01-26 08:58:31.94	95.67	49.02	-13.3	-13.6	17.6	0.00e+00	0	31	0	26331840512	2	16610
2026-01-26 08:58:32.95	94.80	49.30	-13.6	-14.0	17.6	0.00e+00	0	31	0	26449281024	2	17298
2026-01-26 08:58:33.96	93.92	49.57	-13.4	-13.8	17.6	0.00e+00	0	31	0	26558332928	2	16827
2026-01-26 08:58:34.97	93.02	49.83	-13.2	-13.6	17.6	0.00e+00	0	31	0	26675773440	2	16484
2026-01-26 08:58:35.98	92.10	50.10	-13.3	-13.7	17.6	0.00e+00	0	31	0	26784825344	2	16657
2026-01-26 08:58:36.99	91.17	50.35	-14.1	-14.5	17.6	0.00e+00	0	31	0	26893877248	2	18341
2026-01-26 08:58:38.00	90.22	50.60	-13.3	-13.7	17.6	0.00e+00	0	31	0	27019706368	2	16642
2026-01-26 08:58:39.00	89.26	50.84	-13.0	-13.4	17.6	0.00e+00	0	31	0	27128758272	2	16159
2026-01-26 08:58:40.01	88.28	51.07	-13.0	-13.4	17.6	0.00e+00	0	31	0	27237810176	2	16079
2026-01-26 08:58:41.02	87.28	51.30	-13.1	-13.5	17.6	0.00e+00	0	31	0	27355250688	2	16361
2026-01-26 08:58:42.03	86.27	51.52	-13.1	-13.5	17.6	0.00e+00	0	31	0	27464302592	2	16260
2026-01-26 08:58:43.04	85.24	51.73	-12.9	-13.3	17.6	0.00e+00	0	31	0	27581743104	2	15919
2026-01-26 08:58:44.04	84.21	51.93	-12.9	-13.3	17.6	0.00e+00	0	31	0	27699183616	2	15889
2026-01-26 08:58:45.05	83.15	52.12	-13.0	-13.4	17.6	0.00e+00	0	31	0	27808235520	2	16083
2026-01-26 08:58:46.06	82.08	52.30	-12.8	-13.1	17.6	0.00e+00	0	31	0	27925676032	2	15675
2026-01-26 08:58:47.07	81.00	52.48	-12.1	-12.5	17.6	0.00e+00	0	31	0	28034727936	46	17412
2026-01-26 08:58:48.07	79.92	52.64	-12.2	-12.5	17.7	5.40e-06	0	31	0	28143779840	46	17554
2026-01-26 08:58:49.08	78.81	52.79	-11.9	-12.3	17.6	5.40e-06	0	31	0	28261220352	46	17122
2026-01-26 08:58:50.09	77.69	52.94	-12.1	-12.5	17.7	0.00e+00	0	31	0	28378660864	46	17516
2026-01-26 08:58:51.10	76.56	53.07	-11.8	-12.2	17.7	0.00e+00	0	31	0	28487712768	46	16905
2026-01-26 08:58:52.11	75.42	53.19	-12.0	-12.4	17.7	0.00e+00	0	31	0	28605153280	46	17316
2026-01-26 08:58:53.12	74.27	53.30	-12.4	-12.8	17.7	0.00e+00	0	31	0	28714205184	46	18164
2026-01-26 08:58:54.13	73.11	53.40	-12.1	-12.5	17.7	0.00e+00	0	31	0	28823257088	46	17517
2026-01-26 08:58:55.14	71.94	53.49	-12.3	-12.7	17.8	0.00e+00	0	31	0	28940697600	46	17922
2026-01-26 08:58:56.15	70.77	53.57	-12.0	-12.3	17.8	0.00e+00	0	31	0	29058138112	46	17113
2026-01-26 08:58:57.16	69.59	53.63	-12.0	-12.4	17.9	0.00e+00	0	31	0	29167190016	46	17212
2026-01-26 08:58:58.17	68.41	53.68	-11.9	-12.2	17.8	0.00e+00	0	31	0	29284630528	46	16989
2026-01-26 08:58:59.18	67.22	53.72	-11.9	-12.2	17.9	0.00e+00	0	31	0	29393682432	46	16983
2026-01-26 08:59:00.19	66.03	53.75	-11.8	-12.1	17.9	0.00e+00	0	31	0	29511122944	46	16777
2026-01-26 08:59:01.19	64.85	53.77	-11.7	-12.1	18.0	0.00e+00	0	31	0	29628563456	46	16661
2026-01-26 08:59:02.20	63.66	53.77	-11.7	-12.1	18.0	0.00e+00	0	31	0	29737615360	46	16646
2026-01-26 08:59:03.22	62.46	53.76	-11.8	-12.2	18.0	0.00e+00	0	31	0	29855055872	46	16878
2026-01-26 08:59:04.22	61.28	53.74	-11.9	-12.2	18.1	0.00e+00	0	31	0	29964107776	46	16894
2026-01-26 08:59:05.23	60.09	53.71	-11.8	-12.1	18.1	0.00e+00	0	31	0	30073159680	46	16747
2026-01-26 08:59:06.24	58.90	53.66	-12.4	-12.8	18.1	0.00e+00	0	31	0	30190600192	46	18017
2026-01-26 08:59:07.25	57.72	53.60	-12.2	-12.5	18.1	0.00e+00	0	31	0	30308040704	46	17565
2026-01-26 08:59:08.26	56.55	53.53	-12.3	-12.6	18.1	0.00e+00	0	31	0	30417092608	46	17716
2026-01-26 08:59:09.27	55.38	53.45	-12.0	-12.4	18.2	0.00e+00	0	31	0	30534533120	46	17210
2026-01-26 08:59:10.28	54.22	53.36	-11.7	-12.1	18.2	0.00e+00	0	31	0	30643585024	46	16634
2026-01-26 08:59:11.29	53.06	53.25	-12.0	-12.3	18.2	0.00e+00	0	31	0	30752636928	46	17180
2026-01-26 08:59:12.30	51.92	53.14	-12.1	-12.4	18.2	0.00e+00	0	31	0	30878466048	46	17341
2026-01-26 08:59:13.31	50.79	53.01	-12.0	-12.3	18.2	0.00e+00	0	31	0	30987517952	46	17188
2026-01-26 08:59:14.32	49.66	52.87	-12.0	-12.4	18.2	0.00e+00	0	31	0	31096569856	46	17284
2026-01-26 08:59:15.33	48.55	52.72	-12.1	-12.4	18.2	0.00e+00	0	31	0	31214010368	46	17369
2026-01-26 08:59:16.34	47.45	52.56	-12.0	-12.4	18.2	0.00e+00	0	31	0	31331450880	46	17211
2026-01-26 08:59:17.35	46.36	52.39	-11.9	-12.3	18.1	0.00e+00	0	31	0	31440502784	46	17039
2026-01-26 08:59:18.35	45.29	52.22	-12.3	-12.7	18.1	0.00e+00	0	31	0	31557943296	46	17860
2026-01-26 08:59:19.36	44.23	52.03	-12.2	-12.6	18.1	0.00e+00	0	31	0	31666995200	46	17617
2026-01-26 08:59:20.37	43.18	51.83	-12.2	-12.6	18.1	0.00e+00	0	31	0	31784435712	46	17612
2026-01-26 08:59:21.38	42.15	51.63	-12.8	-13.2	18.0	0.00e+00	0	31	0	31893487616	46	18928
2026-01-26 08:59:22.39	41.13	51.41	-12.5	-12.9	18.0	0.00e+00	0	31	0	32010928128	46	18281
2026-01-26 08:59:23.40	40.13	51.19	-13.2	-13.6	18.0	0.00e+00	0	31	0	32119980032	46	19870
2026-01-26 08:59:24.41	39.14	50.96	-12.4	-12.7	18.0	0.00e+00	0	31	0	32237420544	48	16004
2026-01-26 08:59:25.42	38.17	50.72	-12.4	-12.8	18.0	0.00e+00	0	31	0	32346472448	48	16088
2026-01-26 08:59:26.43	37.21	50.48	-12.2	-12.6	17.9	0.00e+00	0	31	0	32463912960	48	15697
2026-01-26 08:59:27.44	36.27	50.23	-12.3	-12.7	17.9	0.00e+00	0	31	0	32581353472	48	15983
2026-01-26 08:59:28.45	35.35	49.97	-12.4	-12.8	17.9	0.00e+00	0	31	0	32690405376	48	16084
2026-01-26 08:59:29.46	34.44	49.71	-12.7	-13.0	17.9	0.00e+00	0	31	0	32807845888	48	16577
2026-01-26 08:59:30.46	33.55	49.44	-13.1	-13.4	17.9	0.00e+00	0	31	0	32916897792	48	17390
2026-01-26 08:59:31.47	32.68	49.17	-12.8	-13.1	17.9	0.00e+00	0	31	0	33025949696	48	16780
2026-01-26 08:59:32.48	31.82	48.89	-12.7	-13.0	17.9	0.00e+00	0	31	0	33143390208	48	16575
2026-01-26 08:59:33.49	30.97	48.61	-12.8	-13.2	17.9	0.00e+00	0	31	0	33252442112	48	16867
2026-01-26 08:59:34.50	30.15	48.32	-13.2	-13.6	17.9	0.00e+00	0	31	0	33369882624	48	17727
2026-01-26 08:59:35.50	29.34	48.03	-12.9	-13.2	17.9	0.00e+00	0	31	0	33487323136	48	16965
2026-01-26 08:59:36.51	28.55	47.74	-13.0	-13.4	17.9	0.00e+00	0	31	0	33596375040	48	17207
2026-01-26 08:59:37.52	27.76	47.44	-13.6	-13.9	17.9	0.00e+00	0	31	0	33713815552	48	18343
2026-01-26 08:59:38.53	27.00	47.14	-13.1	-13.4	18.0	0.00e+00	0	31	0	33822867456	48	17364
2026-01-26 08:59:39.54	26.25	46.83	-13.4	-13.7	17.9	0.00e+00	0	31	0	33931919360	48	17975
2026-01-26 08:59:40.55	25.51	46.52	-13.3	-13.6	17.9	0.00e+00	0	31	0	34049359872	48	17777
2026-01-26 08:59:41.56	24.79	46.21	-13.2	-13.6	17.9	0.00e+00	0	31	0	34166800384	48	17651
2026-01-26 08:59:42.57	24.09	45.90	-13.7	-14.1	17.9	0.00e+00	0	31	0	34275852288	48	18684
2026-01-26 08:59:43.58	23.40	45.59	-13.3	-13.6	17.9	0.00e+00	0	31	0	34393292800	48	17720
2026-01-26 08:59:44.59	22.72	45.27	-13.3	-13.7	18.0	0.00e+00	0	31	0	34502344704	48	17806
2026-01-26 08:59:45.60	22.06	44.95	-13.3	-13.7	17.9	0.00e+00	0	31	0	34619785216	48	17891
2026-01-26 08:59:46.60	21.41	44.64	-13.7	-14.1	18.0	0.00e+00	0	31	0	34737225728	48	18693
2026-01-26 08:59:47.61	20.78	44.32	-13.8	-14.2	18.0	0.00e+00	0	31	0	34846277632	48	18940
2026-01-26 08:59:48.62	20.16	44.00	-14.2	-14.6	18.0	0.00e+00	0	31	0	34955329536	50	17686
2026-01-26 08:59:49.63	19.55	43.68	-14.4	-14.7	18.0	0.00e+00	0	31	0	35072770048	50	17958
2026-01-26 08:59:50.64	18.95	43.36	-14.4	-14.7	18.0	0.00e+00	0	31	0	35181821952	50	17926
2026-01-26 08:59:51.65	18.36	43.04	-14.1	-14.4	18.0	0.00e+00	0	31	0	35299262464	50	17396
2026-01-26 08:59:52.66	17.79	42.71	-14.3	-14.7	18.0	0.00e+00	0	31	0	35416702976	50	17831
2026-01-26 08:59:53.67	17.23	42.39	-14.4	-14.8	18.1	0.00e+00	0	31	0	35525754880	50	18118
2026-01-26 08:59:54.68	16.68	42.07	-14.5	-14.9	18.0	0.00e+00	0	31	0	35634806784	50	18240
2026-01-26 08:59:55.69	16.14	41.75	-15.0	-15.4	18.1	0.00e+00	0	31	0	35752247296	50	19404
2026-01-26 08:59:56.70	15.61	41.43	-48.2	-50.3	6.1	0.00e+00	0	31	104	35861299200	52	964717
2026-01-26 08:59:57.71	15.10	41.11	-49.2	-51.7	6.1	0.00e+00	0	31	104	35861299200	60	47085
2026-01-26 08:59:58.72	14.59	40.79	-49.0	-51.5	6.1	0.00e+00	0	31	104	35861299200	60	46178
2026-01-26 08:59:59.73	14.10	40.47	-48.9	-51.4	6.1	0.00e+00	0	31	104	35861299200	60	45406
2026-01-26 09:00:00.74	13.61	40.15	-48.9	-51.5	6.1	0.00e+00	0	31	104	35861299200	60	45927
2026-01-26 09:00:01.75	13.14	39.84	-49.0	-51.5	6.1	0.00e+00	0	31	104	35861299200	60	46025
2026-01-26 09:00:02.76	12.67	39.52	-49.0	-51.6	6.1	0.00e+00	0	31	104	35861299200	60	46305
2026-01-26 09:00:03.76	12.22	39.21	-49.2	-51.6	6.1	0.00e+00	0	31	104	35861299200	60	46833
2026-01-26 09:00:04.77	11.77	38.90	-49.2	-51.6	6.1	0.00e+00	0	31	104	35861299200	60	46493
2026-01-26 09:00:05.78	11.34	38.59	-49.0	-51.5	6.1	0.00e+00	0	31	104	35861299200	60	46196
2026-01-26 09:00:06.79	10.91	38.28	-49.1	-51.7	6.1	0.00e+00	0	31	104	35861299200	60	46890
2026-01-26 09:00:07.80	10.49	37.97	-49.2	-51.7	6.1	0.00e+00	0	31	104	35861299200	60	46934
2026-01-26 09:00:08.81	10.07	37.66	-49.1	-51.6	6.1	0.00e+00	0	31	104	35861299200	60	46499
2026-01-26 09:00:09.82	9.67	37.36	-48.9	-51.4	6.1	0.00e+00	0	31	104	35861299200	60	45759
2026-01-26 09:00:10.83	9.27	37.05	-49.1	-51.6	6.1	0.00e+00	0	31	104	35861299200	60	46430
2026-01-26 09:00:11.84	8.89	36.75	-49.2	-51.6	6.1	0.00e+00	0	31	104	35861299200	60	46688
2026-01-26 09:00:12.85	8.50	36.45	-49.2	-51.7	6.1	0.00e+00	0	31	104	35861299200	60	46999
2026-01-26 09:00:13.86	8.13	36.15	-49.2	-51.6	6.1	0.00e+00	0	31	104	35861299200	60	46616
2026-01-26 09:00:14.86	7.77	35.86	-49.2	-51.6	6.1	0.00e+00	0	31	104	35861299200	60	46813
2026-01-26 09:00:15.87	7.41	35.57	-49.3	-51.7	6.1	0.00e+00	0	31	104	35861299200	60	47263
2026-01-26 09:00:16.88	7.06	35.27	-49.2	-51.7	6.1	0.00e+00	0	31	104	35861299200	60	47011
2026-01-26 09:00:17.89	6.71	34.98	-49.1	-51.5	6.1	0.00e+00	0	31	104	35861299200	60	46147
2026-01-26 09:00:18.90	6.37	34.70	-49.2	-51.7	6.1	0.00e+00	0	31	104	35861299200	60	47007
2026-01-26 09:00:19.91	6.04	34.41	-49.1	-51.6	6.1	0.00e+00	0	31	104	35861299200	60	46318
2026-01-26 09:00:20.92	5.71	34.12	-49.2	-51.7	6.1	0.00e+00	0	31	104	35861299200	60	46984
2026-01-26 09:00:21.93	5.39	33.84	-49.1	-51.6	6.1	0.00e+00	0	31	104	35861299200	60	46513
2026-01-26 09:00:22.94	5.08	33.56	-49.2	-51.7	6.1	0.00e+00	0	31	104	35861299200	60	46925
2026-01-26 09:00:23.95	4.77	33.28	-49.3	-51.7	6.1	0.00e+00	0	31	104	35861299200	60	47219
2026-01-26 09:00:24.96	4.46	33.01	-49.3	-51.7	6.1	0.00e+00	0	31	104	35861299200	60	47282
2026-01-26 09:00:25.96	4.17	32.73	-49.1	-51.6	6.1	0.00e+00	0	31	104	35861299200	60	46677
2026-01-26 09:00:26.97	3.88	32.46	-49.2	-51.7	6.1	0.00e+00	0	31	104	35861299200	60	47160
2026-01-26 09:00:27.98	3.59	32.19	-49.0	-51.5	6.1	0.00e+00	0	31	104	35861299200	60	46005
2026-01-26 09:00:28.99	3.31	31.92	-48.8	-51.4	6.1	0.00e+00	0	31	104	35861299200	60	45283
2026-01-26 09:00:30.00	3.03	31.66	-48.9	-51.5	6.1	0.00e+00	0	31	104	35861299200	60	45862
2026-01-26 09:00:31.01	2.76	31.39	-49.0	-51.5	6.1	0.00e+00	0	31	104	35861299200	60	45845
2026-01-26 09:00:32.02	2.49	31.13	-49.0	-51.5	6.1	0.00e+00	0	31	104	35861299200	60	46283
2026-01-26 09:00:33.04	2.23	30.87	-48.9	-51.5	6.1	0.00e+00	0	31	104	35861299200	60	45912
2026-01-26 09:00:34.05	1.97	30.61	-49.2	-51.7	6.1	0.00e+00	0	31	104	35861299200	60	47099
2026-01-26 09:00:35.06	1.71	30.36	-49.1	-51.5	6.1	0.00e+00	0	31	104	35861299200	60	46234
2026-01-26 09:00:36.07	1.47	30.10	-49.1	-51.6	6.1	0.00e+00	0	31	104	35861299200	60	46383
2026-01-26 09:00:37.08	1.22	29.85	-49.2	-51.6	6.1	0.00e+00	0	31	104	35861299200	60	46777
2026-01-26 09:00:38.08	0.98	29.61	-49.2	-51.6	6.1	0.00e+00	0	31	104	35861299200	60	46675
2026-01-26 09:00:39.09	0.74	29.36	-49.1	-51.6	6.1	0.00e+00	0	31	104	35861299200	60	46494
2026-01-26 09:00:40.10	0.51	29.11	-49.0	-51.5	6.1	0.00e+00	0	31	104	35861299200	60	46267
2026-01-26 09:00:41.11	0.28	28.87	-49.0	-51.5	6.1	0.00e+00	0	31	104	35861299200	60	46201
2026-01-26 09:00:42.12	0.06	28.63	-49.2	-51.7	6.1	0.00e+00	0	31	104	35861299200	60	47146
2026-01-26 09:00:43.13	359.84	28.39	-49.0	-51.5	6.1	0.00e+00	0	31	104	35861299200	60	45997
2026-01-26 09:00:44.14	359.62	28.15	-49.2	-51.7	6.1	0.00e+00	0	31	104	35861299200	60	46902
2026-01-26 09:00:45.15	359.40	27.92	-49.1	-51.6	6.1	0.00e+00	0	31	104	35861299200	60	46568
2026-01-26 09:00:46.16	359.19	27.68	-49.2	-51.6	6.1	0.00e+00	0	31	104	35861299200	60	46739
2026-01-26 09:00:47.17	358.98	27.45	-49.2	-51.6	6.1	0.00e+00	0	31	104	35861299200	60	46735
2026-01-26 09:00:48.17	358.78	27.22	-49.3	-51.7	6.1	0.00e+00	0	31	104	35861299200	60	47270
2026-01-26 09:00:49.18	358.58	27.00	-49.2	-51.7	6.1	0.00e+00	0	31	104	35861299200	60	47315
2026-01-26 09:00:50.19	358.38	26.77	-49.3	-51.7	6.1	0.00e+00	0	31	104	35861299200	60	47317
2026-01-26 09:00:51.20	358.19	26.55	-49.3	-51.7	6.1	0.00e+00	0	31	104	35861299200	60	47079
2026-01-26 09:00:52.21	358.00	26.33	-49.2	-51.7	6.1	0.00e+00	0	31	104	35861299200	60	46982
2026-01-26 09:00:53.22	357.81	26.11	-49.1	-51.6	6.1	0.00e+00	0	31	104	35861299200	60	46510
2026-01-26 09:00:54.23	357.62	25.89	-49.2	-51.6	6.1	0.00e+00	0	31	104	35861299200	60	46725
2026-01-26 09:00:55.24	357.44	25.67	-49.2	-51.7	6.1	0.00e+00	0	31	104	35861299200	60	47137
2026-01-26 09:00:56.25	357.26	25.46	-49.2	-51.6	6.1	0.00e+00	0	31	104	35861299200	60	46747
2026-01-26 09:00:57.26	357.08	25.25	-49.2	-51.6	6.1	0.00e+00	0	31	104	35861299200	60	46766
2026-01-26 09:00:58.27	356.91	25.03	-49.1	-51.6	6.1	0.00e+00	0	31	104	35861299200	60	46392
2026-01-26 09:00:59.28	356.73	24.83	-49.1	-51.5	6.1	0.00e+00	0	31	104	35861299200	60	46135
2026-01-26 09:01:00.29	356.56	24.62	-49.0	-51.5	6.1	0.00e+00	0	31	104	35861299200	60	46199
2026-01-26 09:01:01.30	356.40	24.41	-49.1	-51.5	6.1	0.00e+00	0	31	104	35861299200	60	46269
2026-01-26 09:01:02.30	356.23	24.21	-49.1	-51.6	6.1	0.00e+00	0	31	104	35861299200	60	46528
2026-01-26 09:01:03.32	356.07	24.01	-49.1	-51.5	6.1	0.00e+00	0	31	104	35861299200	60	46280
2026-01-26 09:01:04.32	355.91	23.81	-49.0	-51.5	6.1	0.00e+00	0	31	104	35861299200	60	45972
2026-01-26 09:01:05.34	355.75	23.61	-49.0	-51.6	6.1	0.00e+00	0	31	104	35861299200	60	46342
2026-01-26 09:01:06.35	355.60	23.41	-49.0	-51.5	6.1	0.00e+00	0	31	104	35861299200	60	46114
2026-01-26 09:01:07.36	355.44	23.21	-49.1	-51.6	6.1	0.00e+00	0	31	104	35861299200	60	46736
2026-01-26 09:01:08.37	355.29	23.02	-49.1	-51.6	6.1	0.00e+00	0	31	104	35861299200	60	46318
2026-01-26 09:01:09.38	355.14	22.83	-49.0	-51.5	6.1	0.00e+00	0	31	104	35861299200	60	45905
2026-01-26 09:01:10.38	355.00	22.64	-49.0	-51.6	6.1	0.00e+00	0	31	104	35861299200	60	46437
2026-01-26 09:01:11.39	354.85	22.45	-49.0	-51.4	6.1	0.00e+00	0	31	104	35861299200	60	45711
2026-01-26 09:01:12.40	354.71	22.26	-49.1	-51.5	6.1	0.00e+00	0	31	104	35861299200	60	46251
2026-01-26 09:01:13.41	354.57	22.08	-49.0	-51.5	6.1	0.00e+00	0	31	104	35861299200	60	46268
2026-01-26 09:01:14.42	354.43	21.89	-49.1	-51.6	6.1	0.00e+00	0	31	104	35861299200	60	46831
2026-01-26 09:01:15.43	354.29	21.71	-49.0	-51.5	6.1	0.00e+00	0	31	104	35861299200	60	46266
2026-01-26 09:01:16.44	354.16	21.53	-49.1	-51.5	6.1	0.00e+00	0	31	104	35861299200	60	46253
2026-01-26 09:01:17.45	354.02	21.35	-49.1	-51.6	6.1	0.00e+00	0	30	104	35861299200	60	46516
2026-01-26 09:01:18.46	353.89	21.17	-49.0	-51.5	6.1	0.00e+00	0	31	104	35861299200	60	46133
2026-01-26 09:01:19.47	353.76	20.99	-49.0	-51.5	6.1	0.00e+00	0	31	104	35861299200	60	46246
2026-01-26 09:01:20.48	353.64	20.81	-49.0	-51.5	6.1	0.00e+00	0	31	104	35861299200	60	46129
2026-01-26 09:01:21.48	353.51	20.64	-49.0	-51.5	6.1	0.00e+00	0	31	104	35861299200	60	46131
2026-01-26 09:01:22.49	353.39	20.47	-49.1	-51.6	6.1	0.00e+00	0	31	104	35861299200	60	46361
2026-01-26 09:01:23.50	353.26	20.29	-49.1	-51.6	6.1	0.00e+00	0	30	104	35861299200	60	46654
2026-01-26 09:01:24.51	353.14	20.12	-49.1	-51.5	6.1	0.00e+00	0	31	104	35861299200	60	46192
2026-01-26 09:01:25.53	353.02	19.95	-49.2	-51.7	6.1	0.00e+00	0	31	104	35861299200	60	47056
2026-01-26 09:01:26.54	352.90	19.79	-49.1	-51.6	6.1	0.00e+00	0	31	104	35861299200	60	46576
2026-01-26 09:01:27.54	352.79	19.62	-49.0	-51.4	6.1	0.00e+00	0	31	104	35861299200	60	45726
2026-01-26 09:01:28.55	352.67	19.45	-49.0	-51.5	6.1	0.00e+00	0	31	104	35861299200	60	45800
2026-01-26 09:01:29.56	352.56	19.29	-49.0	-51.5	6.1	0.00e+00	0	31	104	35861299200	60	46149
2026-01-26 09:01:30.57	352.44	19.13	-49.1	-51.6	6.1	0.00e+00	0	30	104	35861299200	60	46348
2026-01-26 09:01:31.58	352.33	18.97	-49.0	-51.5	6.1	0.00e+00	0	30	104	35861299200	60	45806
2026-01-26 09:01:32.59	352.22	18.81	-49.0	-51.5	6.1	0.00e+00	0	31	104	35861299200	60	45889
2026-01-26 09:01:33.59	352.12	18.65	-49.0	-51.5	6.1	0.00e+00	0	31	104	35861299200	60	45885
2026-01-26 09:01:34.60	352.01	18.49	-49.0	-51.4	6.1	0.00e+00	0	31	104	35861299200	60	45715
2026-01-26 09:01:35.61	351.90	18.33	-48.9	-51.4	6.1	0.00e+00	0	31	104	35861299200	60	45331
2026-01-26 09:01:36.62	351.80	18.18	-49.0	-51.4	6.1	0.00e+00	0	31	104	35861299200	60	45722
2026-01-26 09:01:37.63	351.70	18.02	-49.0	-51.5	6.1	0.00e+00	0	31	104	35861299200	60	45781
2026-01-26 09:01:38.64	351.59	17.87	-49.0	-51.5	6.1	0.00e+00	0	31	104	35861299200	60	46267
2026-01-26 09:01:39.65	351.49	17.72	-49.0	-51.5	6.1	0.00e+00	0	31	104	35861299200	60	45890
2026-01-26 09:01:40.66	351.39	17.57	-48.9	-51.4	6.1	0.00e+00	0	31	104	35861299200	60	45586
2026-01-26 09:01:41.67	351.29	17.42	-49.0	-51.4	6.1	0.00e+00	0	31	104	35861299200	60	45666
2026-01-26 09:01:42.68	351.20	17.27	-48.9	-51.4	6.1	0.00e+00	0	30	104	35861299200	60	45748
2026-01-26 09:01:43.69	351.10	17.12	-49.0	-51.4	6.1	0.00e+00	0	31	104	35861299200	60	45645
2026-01-26 09:01:44.70	351.01	16.97	-49.0	-51.5	6.1	0.00e+00	0	31	104	35861299200	60	46027
2026-01-26 09:01:45.71	350.91	16.83	-49.1	-51.5	6.0	0.00e+00	0	31	104	35861299200	60	46059
2026-01-26 09:01:46.72	350.82	16.68	-49.0	-51.5	6.1	0.00e+00	0	31	104	35861299200	60	45954
2026-01-26 09:01:47.73	350.73	16.54	-49.0	-51.5	6.1	0.00e+00	0	30	104	35861299200	60	46158
2026-01-26 09:01:48.74	350.64	16.39	-49.1	-51.6	6.1	0.00e+00	0	31	104	35861299200	60	46485
2026-01-26 09:01:49.74	350.55	16.25	-49.1	-51.6	6.1	0.00e+00	0	31	104	35861299200	60	46388
2026-01-26 09:01:50.75	350.46	16.11	-49.0	-51.5	6.1	0.00e+00	0	31	104	35861299200	60	45958
2026-01-26 09:01:51.76	350.37	15.97	-49.0	-51.5	6.1	0.00e+00	0	31	104	35861299200	60	46234
2026-01-26 09:01:52.77	350.29	15.84	-48.9	-51.4	6.1	0.00e+00	0	31	104	35861299200	60	45607
2026-01-26 09:01:53.78	350.20	15.70	-49.1	-51.6	6.1	0.00e+00	0	30	104	35861299200	60	46729
2026-01-26 09:01:54.79	350.12	15.56	-49.1	-51.5	6.1	0.00e+00	0	31	104	35861299200	60	46122
2026-01-26 09:01:55.80	350.03	15.42	-49.1	-51.5	6.1	0.00e+00	0	31	104	35861299200	60	46212
2026-01-26 09:01:56.80	349.95	15.29	-48.9	-51.4	6.1	0.00e+00	0	31	104	35861299200	60	45535
2026-01-26 09:01:57.81	349.87	15.16	-48.9	-51.5	6.1	0.00e+00	0	30	104	35861299200	60	45888
2026-01-26 09:01:58.82	349.79	15.02	-48.9	-51.4	6.1	0.00e+00	0	30	104	35861299200	60	45689
2026-01-26 09:01:59.83	349.71	14.89	-48.8	-51.3	6.1	0.00e+00	0	30	104	35861299200	60	44838
2026-01-26 09:02:00.84	349.63	14.76	-48.8	-51.4	6.1	0.00e+00	0	31	104	35861299200	60	45267
2026-01-26 09:02:01.85	349.55	14.63	-49.0	-51.5	6.1	0.00e+00	0	30	104	35861299200	60	45928
2026-01-26 09:02:02.86	349.47	14.50	-48.9	-51.4	6.1	0.00e+00	0	31	104	35861299200	60	45368
2026-01-26 09:02:03.87	349.40	14.37	-49.0	-51.5	6.1	0.00e+00	0	30	104	35861299200	60	46168
2026-01-26 09:02:04.88	349.32	14.24	-48.9	-51.5	6.1	0.00e+00	0	31	104	35861299200	60	45824
2026-01-26 09:02:05.89	349.25	14.11	-48.9	-51.4	6.1	0.00e+00	0	31	104	35861299200	60	45306
2026-01-26 09:02:06.90	349.17	13.99	-48.9	-51.3	6.1	0.00e+00	0	31	104	35861299200	60	45152
2026-01-26 09:02:07.91	349.10	13.86	-48.8	-51.3	6.0	0.00e+00	0	31	104	35861299200	60	45039
2026-01-26 09:02:08.92	349.03	13.74	-48.9	-51.4	6.1	0.00e+00	0	31	104	35861299200	60	45322
2026-01-26 09:02:09.93	348.96	13.61	-48.9	-51.4	6.1	0.00e+00	0	31	104	35861299200	60	45322
2026-01-26 09:02:10.94	348.88	13.49	-48.9	-51.3	6.1	0.00e+00	0	31	104	35861299200	60	45219
2026-01-26 09:02:11.95	348.81	13.37	-48.8	-51.3	6.1	0.00e+00	0	31	104	35861299200	60	45072
2026-01-26 09:02:12.96	348.74	13.24	-48.9	-51.3	6.1	0.00e+00	0	31	104	35861299200	60	45175
2026-01-26 09:02:13.97	348.68	13.12	-48.9	-51.3	6.1	0.00e+00	0	31	104	35861299200	60	45125
2026-01-26 09:02:14.98	348.61	13.00	-48.9	-51.4	6.1	0.00e+00	0	31	104	35861299200	60	45359
2026-01-26 09:02:15.99	348.54	12.88	-48.8	-51.3	6.1	0.00e+00	0	31	104	35861299200	60	45161
2026-01-26 09:02:17.00	348.47	12.77	-48.9	-51.5	6.1	0.00e+00	0	31	104	35861299200	60	45797
2026-01-26 09:02:18.01	348.41	12.65	-49.0	-51.5	6.1	0.00e+00	0	31	104	35861299200	60	46186
2026-01-26 09:02:19.02	348.34	12.53	-48.9	-51.4	6.1	0.00e+00	0	30	104	35861299200	60	45617
2026-01-26 09:02:20.02	348.28	12.41	-48.9	-51.4	6.1	0.00e+00	0	30	104	35861299200	60	45333
2026-01-26 09:02:21.03	348.21	12.30	-48.9	-51.4	6.1	0.00e+00	0	31	104	35861299200	60	45356
2026-01-26 09:02:22.04	348.15	12.18	-48.8	-51.4	6.1	0.00e+00	0	31	104	35861299200	60	45252
2026-01-26 09:02:23.05	348.09	12.07	-48.8	-51.3	6.1	0.00e+00	0	31	104	35861299200	60	44970
2026-01-26 09:02:24.06	348.02	11.95	-48.8	-51.3	6.1	0.00e+00	0	31	104	35861299200	60	44962
2026-01-26 09:02:25.06	347.96	11.84	-48.9	-51.4	6.1	0.00e+00	0	30	104	35861299200	60	45437
2026-01-26 09:02:26.07	347.90	11.73	-48.9	-51.4	6.1	0.00e+00	0	31	104	35861299200	60	45456
2026-01-26 09:02:27.08	347.84	11.62	-48.9	-51.3	6.1	0.00e+00	0	31	104	35861299200	60	45202
2026-01-26 09:02:28.09	347.78	11.51	-48.7	-51.2	6.0	0.00e+00	0	31	104	35861299200	60	44634
2026-01-26 09:02:29.10	347.72	11.39	-48.7	-51.2	6.1	0.00e+00	0	31	104	35861299200	60	44618
2026-01-26 09:02:30.10	347.66	11.29	-48.8	-51.3	6.1	0.00e+00	0	31	104	35861299200	60	44747
2026-01-26 09:02:31.11	347.61	11.18	-48.8	-51.3	6.1	0.00e+00	0	31	104	35861299200	60	44895
2026-01-26 09:02:32.12	347.55	11.07	-48.8	-51.2	6.1	0.00e+00	0	31	104	35861299200	60	44549
2026-01-26 09:02:33.13	347.49	10.96	-48.8	-51.3	6.1	0.00e+00	0	31	104	35861299200	60	45227
2026-01-26 09:02:34.14	347.44	10.85	-48.9	-51.3	6.1	0.00e+00	0	31	104	35861299200	60	45163
2026-01-26 09:02:35.15	347.38	10.74	-48.8	-51.3	6.1	0.00e+00	0	31	104	35861299200	60	44902
2026-01-26 09:02:36.16	347.32	10.64	-48.9	-51.3	6.1	0.00e+00	0	31	104	35861299200	60	45155
2026-01-26 09:02:37.17	347.27	10.53	-48.9	-51.3	6.1	0.00e+00	0	30	104	35861299200	60	45133
2026-01-26 09:02:38.18	347.22	10.43	-48.7	-51.2	6.1	0.00e+00	0	31	104	35861299200	60	44587
2026-01-26 09:02:39.19	347.16	10.32	-48.9	-51.4	6.1	0.00e+00	0	31	104	35861299200	60	45335
2026-01-26 09:02:40.20	347.11	10.22	-48.8	-51.3	6.1	0.00e+00	0	31	104	35861299200	60	45083
2026-01-26 09:02:41.21	347.06	10.11	-48.9	-51.4	6.1	0.00e+00	0	31	104	35861299200	60	45280
2026-01-26 09:02:42.21	347.00	10.01	-48.8	-51.3	6.1	0.00e+00	0	31	104	35861299200	60	45009
2026-01-26 09:02:43.22	346.95	9.91	-48.7	-51.1	6.1	0.00e+00	0	30	104	35861299200	60	44211
2026-01-26 09:02:44.24	346.90	9.81	-48.7	-51.1	6.1	0.00e+00	0	31	104	35861299200	60	44091
2026-01-26 09:02:45.24	346.85	9.71	-48.8	-51.2	6.1	0.00e+00	0	31	104	35861299200	60	44521
2026-01-26 09:02:46.25	346.80	9.60	-48.7	-51.2	6.1	0.00e+00	0	31	104	35861299200	60	44636
2026-01-26 09:02:47.26	346.75	9.50	-48.6	-51.1	6.1	0.00e+00	0	31	104	35861299200	60	43806
2026-01-26 09:02:48.27	346.70	9.40	-48.6	-51.2	6.1	0.00e+00	0	31	104	35861299200	60	44240
2026-01-26 09:02:49.28	346.65	9.30	-48.7	-51.2	6.1	0.00e+00	0	31	104	35861299200	60	44362
2026-01-26 09:02:50.29	346.60	9.21	-48.7	-51.2	6.1	0.00e+00	0	31	104	35861299200	60	44537
2026-01-26 09:02:51.30	346.55	9.11	-48.6	-51.1	6.1	0.00e+00	0	31	104	35861299200	60	43849
2026-01-26 09:02:52.31	346.50	9.01	-48.7	-51.1	6.1	0.00e+00	0	30	104	35861299200	60	44072
2026-01-26 09:02:53.32	346.46	8.91	-48.7	-51.2	6.1	0.00e+00	0	31	104	35861299200	60	44219
2026-01-26 09:02:54.32	346.41	8.82	-48.7	-51.1	6.1	0.00e+00	0	31	104	35861299200	60	44096
2026-01-26 09:02:55.33	346.36	8.72	-48.5	-51.0	6.1	0.00e+00	0	31	104	35861299200	60	43221
2026-01-26 09:02:56.34	346.32	8.62	-48.7	-51.2	6.1	0.00e+00	0	31	104	35861299200	60	44336
2026-01-26 09:02:57.35	346.27	8.53	-48.6	-51.1	6.1	0.00e+00	0	31	104	35861299200	60	44021
2026-01-26 09:02:58.36	346.23	8.43	-48.7	-51.2	6.1	0.00e+00	0	31	104	35861299200	60	44503
2026-01-26 09:02:59.37	346.18	8.34	-48.6	-51.1	6.1	0.00e+00	0	30	104	35861299200	60	43898
2026-01-26 09:03:00.37	346.14	8.24	-48.6	-51.1	6.1	0.00e+00	0	30	104	35861299200	60	43966
2026-01-26 09:03:01.38	346.09	8.15	-48.7	-51.2	6.1	0.00e+00	0	31	104	35861299200	60	44436
2026-01-26 09:03:02.39	346.05	8.06	-48.7	-51.1	6.1	0.00e+00	0	31	104	35861299200	60	43969
2026-01-26 09:03:03.40	346.01	7.96	-48.5	-51.0	6.1	0.00e+00	0	31	104	35861299200	60	43256
2026-01-26 09:03:04.40	345.96	7.87	-48.5	-51.1	6.1	0.00e+00	0	31	104	35861299200	60	43718
2026-01-26 09:03:05.42	345.92	7.78	-48.6	-51.1	6.1	0.00e+00	0	31	104	35861299200	60	43950
2026-01-26 09:03:06.42	345.88	7.69	-48.6	-51.1	6.1	0.00e+00	0	31	104	35861299200	60	43747
2026-01-26 09:03:07.43	345.84	7.60	-48.4	-50.9	6.1	0.00e+00	0	31	104	35861299200	60	43102
2026-01-26 09:03:08.44	345.80	7.51	-48.4	-50.9	6.1	0.00e+00	0	31	104	35861299200	60	42852
2026-01-26 09:03:09.46	345.75	7.42	-48.7	-51.2	6.1	0.00e+00	0	31	104	35861299200	60	44660
2026-01-26 09:03:10.46	345.71	7.33	-48.6	-51.1	6.1	0.00e+00	0	31	104	35861299200	60	43816
2026-01-26 09:03:11.47	345.67	7.24	-48.2	-50.8	6.1	0.00e+00	0	31	104	35861299200	60	42298
2026-01-26 09:03:12.48	345.63	7.15	-48.3	-50.7	6.1	0.00e+00	0	31	104	35861299200	60	42192
2026-01-26 09:03:13.49	345.59	7.06	-48.6	-51.1	6.1	0.00e+00	0	31	104	35861299200	60	43887
2026-01-26 09:03:14.50	345.55	6.97	-48.3	-50.9	6.1	0.00e+00	0	31	104	35861299200	60	42803
2026-01-26 09:03:15.51	345.51	6.88	-48.2	-50.7	6.1	0.00e+00	0	31	104	35861299200	60	42156
2026-01-26 09:03:16.52	345.47	6.80	-48.3	-50.8	6.1	0.00e+00	0	30	104	35861299200	60	42458
2026-01-26 09:03:17.52	345.44	6.71	-48.4	-50.9	6.1	0.00e+00	0	30	104	35861299200	60	42881
2026-01-26 09:03:18.53	345.40	6.62	-48.1	-50.7	6.1	0.00e+00	0	30	104	35861299200	60	41866
2026-01-26 09:03:19.54	345.36	6.54	-48.2	-50.7	6.1	0.00e+00	0	30	104	35861299200	60	42211
2026-01-26 09:03:20.55	345.32	6.45	-48.2	-50.7	6.1	0.00e+00	0	30	104	35861299200	60	41840
2026-01-26 09:03:21.56	345.29	6.36	-48.2	-50.8	6.1	0.00e+00	0	30	104	35861299200	60	42674
2026-01-26 09:03:22.57	345.25	6.28	-48.5	-50.9	6.1	0.00e+00	0	31	104	35861299200	60	43095
2026-01-26 09:03:23.58	345.21	6.19	-48.0	-50.5	6.1	0.00e+00	0	31	104	35861299200	60	41135
2026-01-26 09:03:24.59	345.18	6.11	-47.9	-50.4	6.1	0.00e+00	0	30	104	35861299200	60	40783
2026-01-26 09:03:25.60	345.14	6.03	-48.4	-50.9	6.1	0.00e+00	0	31	104	35861299200	60	42901
2026-01-26 09:03:26.61	345.10	5.94	-48.0	-50.5	6.1	0.00e+00	0	31	104	35861299200	60	40814
2026-01-26 09:03:27.62	345.07	5.86	-47.0	-49.5	6.1	0.00e+00	0	30	104	35861299200	60	36663
2026-01-26 09:03:28.63	345.03	5.77	-46.6	-49.1	6.1	0.00e+00	0	31	104	35861299200	60	35061
2026-01-26 09:03:29.64	345.00	5.69	-46.2	-48.7	6.1	0.00e+00	0	30	104	35861299200	60	33405
2026-01-26 09:03:30.65	344.96	5.61	-45.7	-48.4	6.1	0.00e+00	0	30	104	35861299200	60	32279
2026-01-26 09:03:31.66	344.93	5.53	-45.8	-48.3	6.1	0.00e+00	0	31	104	35861299200	60	31699
2026-01-26 09:03:32.67	344.89	5.45	-47.2	-49.7	6.1	0.00e+00	0	30	104	35861299200	60	37340
2026-01-26 09:03:33.67	344.86	5.36	-47.1	-49.6	6.1	0.00e+00	0	30	104	35861299200	60	37057
2026-01-26 09:03:34.68	344.83	5.28	-46.2	-48.7	6.1	0.00e+00	0	31	104	35861299200	60	33332
2026-01-26 09:03:35.69	344.79	5.20	-47.2	-49.7	6.1	0.00e+00	0	30	104	35861299200	60	37305
2026-01-26 09:03:36.70	344.76	5.12	-45.6	-48.0	6.1	0.00e+00	0	31	104	35861299200	60	30927
2026-01-26 09:03:37.71	344.73	5.04	-45.5	-48.0	6.1	0.00e+00	0	30	104	35861299200	60	30776
2026-01-26 09:03:38.72	344.69	4.96	-45.1	-47.5	6.0	0.00e+00	0	31	104	35861299200	60	29183
2026-01-26 09:03:39.73	344.66	4.88	-44.9	-47.4	6.1	0.00e+00	0	30	104	35861299200	60	28816
2026-01-26 09:03:40.74	344.63	4.80	-46.0	-48.4	6.1	0.00e+00	0	30	104	35861299200	60	32326
2026-01-26 09:03:41.75	344.60	4.72	-45.8	-48.3	6.1	0.00e+00	0	30	104	35861299200	60	31848
2026-01-26 09:03:42.76	344.57	4.64	-45.2	-47.7	6.1	0.00e+00	0	31	104	35861299200	60	29574
2026-01-26 09:03:43.77	344.54	4.57	-45.9	-48.3	6.1	0.00e+00	0	31	104	35861299200	60	31857
2026-01-26 09:03:44.78	344.50	4.49	-44.8	-47.2	6.1	0.00e+00	0	31	104	35861299200	60	28105
2026-01-26 09:03:45.79	344.47	4.41	-44.5	-47.0	6.1	0.00e+00	0	30	104	35861299200	60	27476
2026-01-26 09:03:46.80	344.44	4.33	-44.3	-46.8	6.1	0.00e+00	0	30	104	35861299200	60	26935
2026-01-26 09:03:47.80	344.41	4.26	-44.4	-46.8	6.1	0.00e+00	0	31	104	35861299200	60	26943
2026-01-26 09:03:48.81	344.38	4.18	-45.1	-47.6	6.1	0.00e+00	0	31	104	35861299200	60	29284
2026-01-26 09:03:49.82	344.35	4.10	-45.4	-47.8	6.1	0.00e+00	0	31	104	35861299200	60	30192
2026-01-26 09:03:50.83	344.32	4.03	-44.7	-47.2	6.1	0.00e+00	0	31	104	35861299200	60	28114
2026-01-26 09:03:51.84	344.29	3.95	-44.3	-46.8	6.1	0.00e+00	0	31	104	35861299200	60	26794
2026-01-26 09:03:52.85	344.26	3.87	-44.2	-46.7	6.1	0.00e+00	0	31	104	35861299200	60	26417
2026-01-26 09:03:53.86	344.23	3.80	-44.1	-46.6	6.1	0.00e+00	0	30	104	35861299200	60	26060
2026-01-26 09:03:54.87	344.21	3.72	-44.0	-46.5	6.1	0.00e+00	0	31	104	35861299200	60	25929
2026-01-26 09:03:55.87	344.18	3.65	-44.1	-46.6	6.1	0.00e+00	0	31	104	35861299200	60	26239
2026-01-26 09:03:56.88	344.15	3.57	-44.5	-46.9	6.1	0.00e+00	0	30	104	35861299200	60	27244
2026-01-26 09:03:57.89	344.12	3.50	-44.6	-47.1	6.1	0.00e+00	0	31	104	35861299200	60	27785
2026-01-26 09:03:58.90	344.09	3.43	-44.1	-46.7	6.1	0.00e+00	0	31	104	35861299200	60	26339
2026-01-26 09:03:59.91	344.06	3.35	-44.1	-46.6	6.1	0.00e+00	0	31	104	35861299200	60	26136
2026-01-26 09:04:00.92	344.04	3.28	-44.1	-46.5	6.1	0.00e+00	0	31	104	35861299200	60	26027
2026-01-26 09:04:01.92	344.01	3.20	-44.0	-46.6	6.1	0.00e+00	0	31	104	35861299200	60	26047
2026-01-26 09:04:02.93	343.98	3.13	-44.0	-46.5	6.1	0.00e+00	0	31	104	35861299200	60	25950
2026-01-26 09:04:03.94	343.96	3.06	-44.0	-46.5	6.1	0.00e+00	0	30	104	35861299200	60	25865
2026-01-26 09:04:04.95	343.93	2.99	-44.1	-46.5	6.1	0.00e+00	0	30	104	35861299200	60	26025
2026-01-26 09:04:05.96	343.90	2.91	-45.2	-47.7	6.1	0.00e+00	0	31	104	35861299200	60	29779
2026-01-26 09:04:06.97	343.88	2.84	-48.3	-50.8	6.1	0.00e+00	0	31	104	35861299200	60	42652
2026-01-26 09:04:07.98	343.85	2.77	-48.6	-51.2	6.1	0.00e+00	0	31	104	35861299200	60	44368
2026-01-26 09:04:08.99	343.82	2.70	-48.8	-51.3	6.1	0.00e+00	0	30	104	35861299200	60	44791
2026-01-26 09:04:10.00	343.80	2.62	-48.8	-51.3	6.1	0.00e+00	0	31	104	35861299200	60	45186
2026-01-26 09:04:11.01	343.77	2.55	-49.1	-51.5	6.1	0.00e+00	0	30	104	35861299200	60	46265
2026-01-26 09:04:12.02	343.75	2.48	-49.1	-51.6	6.1	0.00e+00	0	31	104	35861299200	60	46660
2026-01-26 09:04:13.03	343.72	2.41	-49.3	-51.8	6.1	0.00e+00	0	31	104	35861299200	60	47597
2026-01-26 09:04:14.04	343.70	2.34	-49.3	-51.7	6.1	0.00e+00	0	30	104	35861299200	60	47216
2026-01-26 09:04:15.05	343.67	2.27	-49.4	-51.9	6.1	0.00e+00	0	30	104	35861299200	60	47980
2026-01-26 09:04:16.06	343.65	2.20	-49.5	-52.0	6.1	0.00e+00	0	31	104	35861299200	60	48666
2026-01-26 09:04:17.07	343.62	2.13	-49.8	-52.3	6.1	0.00e+00	0	30	104	35861299200	60	50335
2026-01-26 09:04:18.08	343.60	2.06	-49.4	-51.9	6.1	0.00e+00	0	30	104	35861299200	60	48228
2026-01-26 09:04:19.09	343.57	1.99	-49.4	-52.0	6.1	0.00e+00	0	31	104	35861299200	60	48564
2026-01-26 09:04:20.10	343.55	1.92	-48.7	-51.3	6.0	0.00e+00	0	30	104	35861299200	60	45137
2026-01-26 09:04:21.11	343.53	1.85	-49.5	-51.9	6.1	0.00e+00	0	31	104	35861299200	60	48377
2026-01-26 09:04:22.12	343.50	1.78	-49.4	-51.9	6.1	0.00e+00	0	30	104	35861299200	60	48107
2026-01-26 09:04:23.13	343.48	1.71	-49.6	-52.1	6.1	0.00e+00	0	31	104	35861299200	60	49581
2026-01-26 09:04:24.14	343.45	1.65	-49.2	-51.7	6.1	0.00e+00	0	31	104	35861299200	60	46960
2026-01-26 09:04:25.15	343.43	1.58	-49.0	-51.5	6.1	0.00e+00	0	31	104	35861299200	60	46123
2026-01-26 09:04:26.16	343.41	1.51	-49.6	-52.1	6.1	0.00e+00	0	31	104	35861299200	60	49457
2026-01-26 09:04:27.16	343.39	1.44	-49.5	-52.0	6.1	0.00e+00	0	31	104	35861299200	60	48493
2026-01-26 09:04:28.18	343.36	1.37	-49.5	-52.0	6.1	0.00e+00	0	31	104	35861299200	60	48723
2026-01-26 09:04:29.19	343.34	1.31	-50.0	-52.4	6.1	0.00e+00	0	31	104	35861299200	60	50898
2026-01-26 09:04:30.19	343.32	1.24	-49.8	-52.3	6.1	0.00e+00	0	31	104	35861299200	60	50432
2026-01-26 09:04:31.20	343.30	1.17	-49.6	-52.1	6.1	0.00e+00	0	31	104	35861299200	60	49368
2026-01-26 09:04:32.21	343.27	1.11	-49.7	-52.1	6.1	0.00e+00	0	30	104	35861299200	60	49504
2026-01-26 09:04:33.22	343.25	1.04	-49.9	-52.3	6.1	0.00e+00	0	31	104	35861299200	60	50750
2026-01-26 09:04:34.23	343.23	0.97	-49.6	-52.1	6.1	0.00e+00	0	31	104	35861299200	60	49196
2026-01-26 09:04:35.24	343.21	0.91	-49.8	-52.2	6.1	0.00e+00	0	30	104	35861299200	60	50180
2026-01-26 09:04:36.25	343.19	0.84	-50.2	-52.7	6.1	0.00e+00	0	30	104	35861299200	60	52554
2026-01-26 09:04:37.26	343.16	0.77	-49.8	-52.3	6.1	0.00e+00	0	31	104	35861299200	60	50328
2026-01-26 09:04:38.27	343.14	0.71	-50.1	-52.6	6.1	0.00e+00	0	31	104	35861299200	60	52223
2026-01-26 09:04:39.28	343.12	0.64	-50.1	-52.6	6.1	0.00e+00	0	31	104	35861299200	60	52289
2026-01-26 09:04:40.29	343.10	0.58	-49.8	-52.3	6.1	0.00e+00	0	31	104	35861299200	60	50588
2026-01-26 09:04:41.29	343.08	0.51	-50.5	-52.9	6.1	0.00e+00	0	31	104	35861299200	60	54347
2026-01-26 09:04:42.30	343.06	0.45	-50.5	-52.9	6.1	0.00e+00	0	31	104	35861299200	60	54082
2026-01-26 09:04:43.31	343.04	0.38	-49.5	-52.0	6.1	0.00e+00	0	31	104	35861299200	60	48794
2026-01-26 09:04:44.32	343.02	0.32	-50.3	-52.8	6.1	0.00e+00	0	31	104	35861299200	60	53344
2026-01-26 09:04:45.34	343.00	0.25	-50.2	-52.6	6.1	0.00e+00	0	30	104	35861299200	60	52492
2026-01-26 09:04:46.35	342.98	0.19	-50.0	-52.5	6.1	0.00e+00	0	31	104	35861299200	60	51460
2026-01-26 09:04:47.36	342.96	0.12	-49.7	-52.2	6.1	0.00e+00	0	31	104	35861299200	60	49733
2026-01-26 09:04:48.37	342.94	0.06	-49.8	-52.2	6.1	0.00e+00	0	31	104	35861299200	60	50023
2026-01-26 09:04:49.37	342.92	-0.00	-49.9	-52.4	6.1	0.00e+00	0	31	104	35861299200	60	50980
2026-01-26 09:04:50.38	342.90	-0.07	-49.9	-52.4	6.1	0.00e+00	0	31	104	35861299200	60	51159

#Closed at: 2026-01-26 09:04:51
#Recorded file [35861 MB]: D:/lorett/data/35029_260126_205347.dat