passes_logs/2026/01/26/R4.6S_Anadyr/R4.6S_Anadyr__20260126_125802_SUOMI_NPP_rec.log

#Pass ID: 20260126_125802_SUOMI NPP
#Satellite: SUOMI NPP
#Configuration: NPP
#almurnet v.1.7.20251203
#Start time: 2026-01-26 12:58:05

#Version: 2.2.20231116
#Station: R4.6S_Anadyr
#Location: 177.4865 lon 64.73178 lat
#TLE: 1 37849U 11061A   26025.95877665  .00000192  00000+0  11229-3 0  9997
#TLE: 2 37849  98.7822 327.9136 0002155  44.9234 315.2116 14.19530109738267

#Time	Az	El	Level	Level2	SNR	BER	BlckErr	Temp	State	Recorded	gain1	gain2
2026-01-26 12:58:05.61	18.92	0.15	-49.4	-62.0	3.4	1.52e+00	0	26	0	0	60	44127
2026-01-26 12:58:06.62	18.98	0.20	-49.7	-65.0	3.6	1.51e+00	0	27	104	0	60	64205
2026-01-26 12:58:07.63	19.04	0.25	-49.5	-64.8	3.6	1.51e+00	0	28	104	0	60	62720
2026-01-26 12:58:08.64	19.10	0.31	-49.6	-64.8	3.6	1.51e+00	0	27	104	0	60	62506
2026-01-26 12:58:09.65	19.16	0.36	-49.4	-64.6	3.6	1.51e+00	0	28	104	0	60	61177
2026-01-26 12:58:10.66	19.22	0.42	-49.3	-64.5	3.6	1.51e+00	0	28	104	0	60	60593
2026-01-26 12:58:11.67	19.28	0.47	-49.2	-64.5	3.6	1.51e+00	0	28	104	0	60	60518
2026-01-26 12:58:12.68	19.34	0.52	-49.2	-64.4	3.6	1.51e+00	0	28	104	0	60	60310
2026-01-26 12:58:13.68	19.40	0.58	-49.3	-64.5	3.6	1.51e+00	0	28	104	0	60	60743
2026-01-26 12:58:14.69	19.46	0.63	-49.3	-64.4	3.6	1.51e+00	0	28	104	0	60	60195
2026-01-26 12:58:15.70	19.53	0.69	-49.2	-64.4	3.6	1.51e+00	0	28	104	0	60	60127
2026-01-26 12:58:16.71	19.59	0.74	-49.2	-64.4	3.6	1.51e+00	0	28	104	0	60	60076
2026-01-26 12:58:17.72	19.65	0.79	-49.2	-64.4	3.6	1.51e+00	0	28	104	0	60	59660
2026-01-26 12:58:18.73	19.71	0.85	-49.1	-64.4	3.6	1.51e+00	0	28	104	0	60	59738
2026-01-26 12:58:19.74	19.78	0.90	-49.1	-64.3	3.6	1.51e+00	0	28	104	0	60	59347
2026-01-26 12:58:20.75	19.84	0.96	-49.1	-64.3	3.6	1.51e+00	0	28	104	0	60	59090
2026-01-26 12:58:21.76	19.90	1.01	-49.0	-64.2	3.6	1.51e+00	0	28	104	0	60	58521
2026-01-26 12:58:22.76	19.96	1.07	-48.9	-64.1	3.6	1.51e+00	0	28	104	0	60	58019
2026-01-26 12:58:23.78	20.03	1.12	-48.8	-64.0	3.6	1.51e+00	0	28	104	0	60	57339
2026-01-26 12:58:24.79	20.09	1.18	-48.8	-63.9	3.6	1.51e+00	0	28	104	0	60	56640
2026-01-26 12:58:25.80	20.16	1.23	-48.7	-63.8	3.6	1.51e+00	0	28	104	0	60	56297
2026-01-26 12:58:26.81	20.22	1.29	-48.6	-63.7	3.6	1.51e+00	0	28	104	0	60	55417
2026-01-26 12:58:27.82	20.28	1.34	-48.4	-63.6	3.6	1.51e+00	0	28	104	0	60	54602
2026-01-26 12:58:28.83	20.35	1.40	-48.2	-63.4	3.6	1.51e+00	0	28	104	0	60	53233
2026-01-26 12:58:29.84	20.41	1.45	-47.9	-63.0	3.6	1.51e+00	0	28	104	0	60	51135
2026-01-26 12:58:30.85	20.48	1.51	-47.8	-63.0	3.6	1.51e+00	0	28	104	0	60	50843
2026-01-26 12:58:31.86	20.54	1.56	-47.8	-62.9	3.6	1.51e+00	0	28	104	0	60	50735
2026-01-26 12:58:32.87	20.61	1.62	-47.7	-62.9	3.6	1.51e+00	0	28	104	0	60	50468
2026-01-26 12:58:33.88	20.67	1.68	-47.7	-62.8	3.6	1.51e+00	0	28	104	0	60	50052
2026-01-26 12:58:34.89	20.74	1.73	-47.7	-62.8	3.6	1.51e+00	0	28	104	0	60	49762
2026-01-26 12:58:35.90	20.81	1.79	-47.7	-62.8	3.6	1.51e+00	0	28	104	0	60	49634
2026-01-26 12:58:36.91	20.87	1.84	-47.7	-62.7	3.6	1.51e+00	0	28	104	0	60	49393
2026-01-26 12:58:37.92	20.94	1.90	-47.7	-62.7	3.6	1.51e+00	0	28	104	0	60	49144
2026-01-26 12:58:38.93	21.00	1.96	-47.7	-62.8	3.6	1.51e+00	0	28	104	0	60	50019
2026-01-26 12:58:39.94	21.07	2.01	-47.7	-62.8	3.6	1.51e+00	0	28	104	0	60	50095
2026-01-26 12:58:40.95	21.14	2.07	-47.7	-62.8	3.6	1.51e+00	0	28	104	0	60	50092
2026-01-26 12:58:41.96	21.21	2.12	-47.7	-62.8	3.6	1.51e+00	0	28	104	0	60	50003
2026-01-26 12:58:42.97	21.27	2.18	-47.7	-62.8	3.6	1.51e+00	0	28	104	0	60	50134
2026-01-26 12:58:43.98	21.34	2.24	-47.7	-62.9	3.6	1.51e+00	0	28	104	0	60	50282
2026-01-26 12:58:44.99	21.41	2.29	-47.7	-62.6	3.6	1.51e+00	0	28	104	0	60	48543
2026-01-26 12:58:46.00	21.48	2.35	-47.7	-62.0	3.6	1.51e+00	0	28	104	0	60	45646
2026-01-26 12:58:47.01	21.55	2.41	-47.7	-61.5	3.6	1.51e+00	0	28	104	0	60	42996
2026-01-26 12:58:48.02	21.62	2.46	-47.7	-61.5	3.6	1.51e+00	0	28	104	0	60	43042
2026-01-26 12:58:49.02	21.68	2.52	-47.7	-62.0	3.6	1.51e+00	0	29	104	0	60	45265
2026-01-26 12:58:50.03	21.75	2.58	-47.7	-62.0	3.6	1.51e+00	0	29	104	0	60	45687
2026-01-26 12:58:51.05	21.82	2.64	-47.5	-58.8	3.8	1.50e+00	0	29	104	0	60	31335
2026-01-26 12:58:52.06	21.89	2.69	-46.9	-53.7	7.7	4.22e-01	0	28	0	0	60	17483
2026-01-26 12:58:53.07	21.96	2.75	-45.7	-49.8	11.7	4.01e-03	80	28	0	2097152	60	11232
2026-01-26 12:58:54.08	22.03	2.81	-44.4	-47.4	14.6	1.90e-05	0	29	0	4194304	60	8488
2026-01-26 12:58:55.08	22.10	2.86	-43.2	-45.4	16.5	0.00e+00	13	29	0	5242880	60	6761
2026-01-26 12:58:56.10	22.18	2.92	-42.3	-44.2	17.6	0.00e+00	0	29	0	7340032	58	6591
2026-01-26 12:58:57.10	22.25	2.98	-41.5	-43.2	18.5	0.00e+00	0	28	0	9437184	56	6558
2026-01-26 12:58:58.11	22.32	3.04	-41.6	-43.2	18.6	0.00e+00	0	29	0	11534336	56	6599
2026-01-26 12:58:59.13	22.39	3.10	-41.6	-43.3	18.4	0.00e+00	15	29	0	13631488	56	6657
2026-01-26 12:59:00.14	22.46	3.15	-42.3	-44.3	17.4	0.00e+00	23	28	0	14680064	56	7450
2026-01-26 12:59:01.15	22.53	3.21	-44.0	-46.7	15.1	0.00e+00	0	29	0	16777216	60	7847
2026-01-26 12:59:02.16	22.61	3.27	-44.8	-48.1	13.6	0.00e+00	92	29	0	18874368	60	9201
2026-01-26 12:59:03.17	22.68	3.33	-46.1	-51.0	11.5	1.92e-03	0	29	0	20971520	60	12787
2026-01-26 12:59:04.18	22.75	3.39	-42.9	-45.1	16.4	0.00e+00	0	29	0	23068672	58	7308
2026-01-26 12:59:05.18	22.83	3.44	-47.6	-61.7	3.6	7.67e-01	0	29	104	23068672	60	43775
2026-01-26 12:59:06.19	22.90	3.50	-45.7	-50.1	12.0	6.74e-01	0	29	104	23068672	60	11520
2026-01-26 12:59:07.21	22.97	3.56	-42.9	-45.0	17.2	0.00e+00	14	28	0	24117248	60	6413
2026-01-26 12:59:08.21	23.05	3.62	-47.9	-62.5	3.6	6.32e-01	0	29	104	25165824	60	48404
2026-01-26 12:59:09.23	23.12	3.68	-43.3	-45.5	16.0	7.87e-01	91	28	104	25165824	60	6842
2026-01-26 12:59:10.24	23.20	3.74	-43.1	-45.2	17.2	0.00e+00	0	29	0	26214400	60	6582
2026-01-26 12:59:11.24	23.27	3.80	-43.0	-45.1	16.7	0.00e+00	0	29	0	27262976	58	7274
2026-01-26 12:59:12.25	23.35	3.86	-42.9	-45.0	17.0	0.00e+00	0	29	0	29360128	58	7192
2026-01-26 12:59:13.26	23.42	3.91	-42.3	-44.2	17.6	0.00e+00	0	29	0	31457280	58	6579
2026-01-26 12:59:14.27	23.50	3.97	-42.4	-44.3	17.3	0.00e+00	57	28	0	33554432	58	6662
2026-01-26 12:59:15.28	23.57	4.03	-42.6	-44.5	17.5	0.00e+00	0	29	0	35651584	58	6831
2026-01-26 12:59:16.29	23.65	4.09	-42.2	-44.0	17.9	0.00e+00	92	29	0	36700160	58	6462
2026-01-26 12:59:17.29	23.73	4.15	-42.7	-44.6	17.3	0.00e+00	0	29	0	38797312	58	6905
2026-01-26 12:59:18.31	23.80	4.21	-42.1	-43.9	18.2	0.00e+00	0	29	0	40894464	58	6325
2026-01-26 12:59:19.31	23.88	4.27	-42.5	-44.3	17.7	0.00e+00	0	29	0	42991616	58	6666
2026-01-26 12:59:20.32	23.96	4.33	-42.1	-43.9	18.3	0.00e+00	0	29	0	45088768	58	6337
2026-01-26 12:59:21.33	24.04	4.39	-41.7	-43.3	18.7	0.00e+00	64	29	0	46137344	56	6654
2026-01-26 12:59:22.34	24.11	4.45	-41.6	-43.2	19.0	0.00e+00	0	29	0	48234496	56	6546
2026-01-26 12:59:23.35	24.19	4.51	-41.8	-43.4	18.9	0.00e+00	82	29	0	50331648	56	6732
2026-01-26 12:59:24.36	24.27	4.57	-41.3	-42.8	19.2	0.00e+00	0	29	0	52428800	56	6255
2026-01-26 12:59:25.37	24.35	4.63	-40.8	-42.2	19.8	0.00e+00	46	29	0	54525952	56	5831
2026-01-26 12:59:26.38	24.43	4.69	-40.8	-42.1	19.9	0.00e+00	0	29	0	55574528	54	6524
2026-01-26 12:59:27.39	24.51	4.75	-40.7	-42.0	20.0	0.00e+00	0	29	0	57671680	54	6430
2026-01-26 12:59:28.40	24.59	4.81	-40.3	-41.6	20.2	0.00e+00	12	29	0	59768832	54	6171
2026-01-26 12:59:29.41	24.67	4.87	-40.3	-41.6	20.2	0.00e+00	0	29	0	61865984	54	6173
2026-01-26 12:59:30.41	24.75	4.93	-40.4	-41.7	20.2	0.00e+00	59	29	0	63963136	54	6221
2026-01-26 12:59:31.42	24.83	4.99	-40.2	-41.4	20.4	0.00e+00	0	29	0	65011712	54	6028
2026-01-26 12:59:32.43	24.91	5.05	-40.3	-41.6	20.3	0.00e+00	84	29	0	67108864	54	6138
2026-01-26 12:59:33.44	24.99	5.11	-40.0	-41.2	20.7	0.00e+00	0	29	0	69206016	54	5872
2026-01-26 12:59:34.44	25.07	5.17	-40.0	-41.2	20.8	0.00e+00	0	29	0	71303168	54	5879
2026-01-26 12:59:35.45	25.16	5.23	-39.8	-41.0	21.0	0.00e+00	0	29	0	73400320	52	6423
2026-01-26 12:59:36.46	25.24	5.30	-39.8	-41.0	20.9	0.00e+00	0	29	0	74448896	52	6464
2026-01-26 12:59:37.47	25.32	5.36	-39.8	-41.0	20.9	0.00e+00	8	29	0	76546048	52	6429
2026-01-26 12:59:38.48	25.40	5.42	-39.9	-41.1	20.9	0.00e+00	0	29	0	78643200	52	6487
2026-01-26 12:59:39.48	25.49	5.48	-39.7	-40.9	21.0	0.00e+00	90	29	0	80740352	52	6347
2026-01-26 12:59:40.49	25.57	5.54	-40.2	-41.5	20.5	0.00e+00	0	29	0	82837504	52	6792
2026-01-26 12:59:41.50	25.65	5.60	-39.8	-41.0	21.0	0.00e+00	0	29	0	83886080	52	6424
2026-01-26 12:59:42.51	25.74	5.66	-40.0	-41.2	20.7	0.00e+00	0	29	0	85983232	52	6609
2026-01-26 12:59:43.52	25.82	5.73	-39.9	-41.2	20.9	0.00e+00	0	29	0	88080384	52	6562
2026-01-26 12:59:44.53	25.91	5.79	-40.0	-41.3	20.6	0.00e+00	11	29	0	90177536	52	6618
2026-01-26 12:59:45.54	25.99	5.85	-39.9	-41.2	20.6	0.00e+00	0	29	0	92274688	52	6552
2026-01-26 12:59:46.55	26.08	5.91	-40.0	-41.3	20.7	0.00e+00	92	29	0	93323264	52	6640
2026-01-26 12:59:47.55	26.17	5.97	-40.4	-41.7	20.2	0.00e+00	15	29	0	95420416	52	6941
2026-01-26 12:59:48.56	26.25	6.04	-40.5	-41.8	20.2	0.00e+00	0	29	0	97517568	52	7079
2026-01-26 12:59:49.57	26.34	6.10	-40.1	-41.4	20.7	0.00e+00	0	29	0	99614720	52	6699
2026-01-26 12:59:50.58	26.43	6.16	-40.7	-42.1	20.0	0.00e+00	0	29	0	101711872	52	7261
2026-01-26 12:59:51.59	26.51	6.22	-40.9	-42.2	19.9	0.00e+00	61	29	0	102760448	54	6610
2026-01-26 12:59:52.60	26.60	6.29	-40.1	-41.4	20.7	0.00e+00	0	29	0	104857600	54	5984
2026-01-26 12:59:53.61	26.69	6.35	-40.2	-41.5	20.5	0.00e+00	52	29	0	106954752	54	6051
2026-01-26 12:59:54.62	26.78	6.41	-39.8	-41.0	21.0	0.00e+00	0	29	0	109051904	54	5710
2026-01-26 12:59:55.63	26.87	6.48	-39.9	-41.1	20.9	0.00e+00	0	29	0	111149056	54	5808
2026-01-26 12:59:56.64	26.96	6.54	-39.8	-41.0	21.0	0.00e+00	0	29	0	113246208	54	5737
2026-01-26 12:59:57.65	27.05	6.60	-39.9	-41.0	21.0	0.00e+00	0	29	0	114294784	54	5749
2026-01-26 12:59:58.66	27.14	6.67	-39.8	-41.0	21.1	0.00e+00	13	29	0	116391936	54	5723
2026-01-26 12:59:59.67	27.23	6.73	-40.2	-41.4	20.6	0.00e+00	0	29	0	118489088	54	6013
2026-01-26 13:00:00.68	27.32	6.79	-40.1	-41.3	20.8	0.00e+00	91	29	0	120586240	54	5944
2026-01-26 13:00:01.68	27.41	6.86	-40.0	-41.1	21.0	0.00e+00	0	29	0	122683392	54	5820
2026-01-26 13:00:02.70	27.50	6.92	-40.2	-41.4	20.7	0.00e+00	0	29	0	123731968	54	6031
2026-01-26 13:00:03.70	27.59	6.98	-40.2	-41.4	20.6	0.00e+00	0	29	0	125829120	54	6008
2026-01-26 13:00:04.71	27.68	7.05	-40.6	-41.9	20.3	0.00e+00	0	29	0	127926272	54	6379
2026-01-26 13:00:05.72	27.78	7.11	-40.7	-42.0	20.2	0.00e+00	16	29	0	130023424	54	6454
2026-01-26 13:00:06.73	27.87	7.18	-40.4	-41.6	20.6	0.00e+00	0	29	0	132120576	54	6151
2026-01-26 13:00:07.74	27.96	7.24	-40.0	-41.2	20.8	0.00e+00	13	29	0	133169152	52	6590
2026-01-26 13:00:08.75	28.06	7.30	-40.2	-41.4	20.8	0.00e+00	0	29	0	135266304	52	6722
2026-01-26 13:00:09.76	28.15	7.37	-39.8	-41.0	21.2	0.00e+00	91	29	0	137363456	52	6421
2026-01-26 13:00:10.77	28.25	7.43	-40.0	-41.2	21.0	0.00e+00	0	29	0	139460608	52	6575
2026-01-26 13:00:11.78	28.34	7.50	-39.9	-41.1	21.0	0.00e+00	0	29	0	141557760	52	6516
2026-01-26 13:00:12.79	28.44	7.56	-39.6	-40.8	21.2	0.00e+00	0	29	0	142606336	52	6254
2026-01-26 13:00:13.80	28.53	7.63	-39.7	-40.8	21.3	0.00e+00	0	29	0	144703488	52	6283
2026-01-26 13:00:14.81	28.63	7.69	-39.5	-40.6	21.4	0.00e+00	15	29	0	146800640	52	6154
2026-01-26 13:00:15.81	28.72	7.76	-39.5	-40.6	21.5	0.00e+00	0	29	0	148897792	52	6152
2026-01-26 13:00:16.82	28.82	7.82	-39.3	-40.4	21.7	0.00e+00	80	29	0	150994944	52	5988
2026-01-26 13:00:17.83	28.92	7.89	-39.4	-40.5	21.6	0.00e+00	0	29	0	152043520	52	6077
2026-01-26 13:00:18.84	29.02	7.95	-39.2	-40.2	21.8	0.00e+00	0	29	0	154140672	52	5879
2026-01-26 13:00:19.85	29.12	8.02	-39.3	-40.4	21.7	0.00e+00	0	29	0	156237824	52	6003
2026-01-26 13:00:20.86	29.21	8.08	-39.3	-40.4	21.7	0.00e+00	0	29	0	158334976	52	5971
2026-01-26 13:00:21.87	29.31	8.15	-39.1	-40.1	21.9	0.00e+00	17	29	0	160432128	52	5803
2026-01-26 13:00:22.88	29.41	8.21	-39.0	-40.0	22.0	0.00e+00	0	29	0	161480704	52	5758
2026-01-26 13:00:23.89	29.51	8.28	-39.0	-40.0	22.0	0.00e+00	47	29	0	163577856	52	5747
2026-01-26 13:00:24.89	29.61	8.35	-38.9	-40.0	21.9	0.00e+00	0	29	0	165675008	52	5703
2026-01-26 13:00:25.90	29.71	8.41	-39.1	-40.2	22.0	0.00e+00	0	29	0	167772160	52	5838
2026-01-26 13:00:26.91	29.81	8.48	-38.9	-40.0	22.1	0.00e+00	0	29	0	169869312	52	5719
2026-01-26 13:00:27.92	29.92	8.54	-38.8	-39.8	22.2	0.00e+00	0	29	0	170917888	52	5628
2026-01-26 13:00:28.93	30.02	8.61	-39.1	-40.1	21.9	0.00e+00	71	29	0	173015040	52	5822
2026-01-26 13:00:29.94	30.12	8.68	-38.9	-39.9	22.1	0.00e+00	0	29	0	175112192	52	5690
2026-01-26 13:00:30.95	30.22	8.74	-39.1	-40.1	22.0	0.00e+00	80	29	0	177209344	52	5800
2026-01-26 13:00:31.96	30.33	8.81	-39.1	-40.2	21.9	0.00e+00	0	29	0	179306496	52	5848
2026-01-26 13:00:32.97	30.43	8.88	-39.1	-40.2	21.9	0.00e+00	76	29	0	180355072	52	5857
2026-01-26 13:00:33.98	30.54	8.94	-39.2	-40.3	21.8	0.00e+00	0	29	0	182452224	52	5951
2026-01-26 13:00:34.98	30.64	9.01	-39.6	-40.7	21.6	0.00e+00	0	29	0	184549376	52	6211
2026-01-26 13:00:35.99	30.75	9.08	-39.6	-40.7	21.5	0.00e+00	0	29	0	186646528	52	6196
2026-01-26 13:00:37.00	30.85	9.14	-39.6	-40.8	21.5	0.00e+00	0	29	0	188743680	52	6251
2026-01-26 13:00:38.01	30.96	9.21	-39.9	-41.1	21.2	0.00e+00	92	29	0	189792256	52	6506
2026-01-26 13:00:39.02	31.07	9.28	-39.8	-40.9	21.3	0.00e+00	0	29	0	191889408	52	6361
2026-01-26 13:00:40.03	31.17	9.35	-39.8	-41.0	21.3	0.00e+00	41	29	0	193986560	52	6404
2026-01-26 13:00:41.04	31.28	9.41	-40.0	-41.2	21.1	0.00e+00	0	29	0	196083712	52	6569
2026-01-26 13:00:42.05	31.39	9.48	-40.1	-41.3	21.0	0.00e+00	0	29	0	198180864	52	6684
2026-01-26 13:00:43.06	31.50	9.55	-39.8	-41.0	21.3	0.00e+00	0	29	0	199229440	52	6420
2026-01-26 13:00:44.07	31.61	9.62	-40.1	-41.3	21.0	0.00e+00	0	29	0	201326592	52	6685
2026-01-26 13:00:45.08	31.72	9.68	-40.0	-41.2	21.1	0.00e+00	91	29	0	203423744	52	6560
2026-01-26 13:00:46.09	31.83	9.75	-40.0	-41.2	21.1	0.00e+00	0	29	0	205520896	52	6574
2026-01-26 13:00:47.10	31.94	9.82	-40.3	-41.5	20.9	0.00e+00	92	29	0	207618048	52	6778
2026-01-26 13:00:48.11	32.05	9.89	-40.0	-41.2	21.2	0.00e+00	0	29	0	209715200	52	6584
2026-01-26 13:00:49.12	32.16	9.96	-39.8	-40.9	21.5	0.00e+00	15	29	0	210763776	52	6363
2026-01-26 13:00:50.12	32.27	10.03	-39.8	-41.0	21.3	0.00e+00	0	29	0	212860928	52	6398
2026-01-26 13:00:51.13	32.38	10.09	-39.9	-41.1	21.3	0.00e+00	0	29	0	214958080	52	6505
2026-01-26 13:00:52.14	32.50	10.16	-39.9	-41.1	21.4	0.00e+00	90	29	0	217055232	52	6486
2026-01-26 13:00:53.15	32.61	10.23	-39.7	-40.9	21.5	0.00e+00	0	29	0	219152384	52	6331
2026-01-26 13:00:54.16	32.72	10.30	-39.8	-41.0	21.4	0.00e+00	92	29	0	220200960	52	6415
2026-01-26 13:00:55.17	32.84	10.37	-39.8	-40.9	21.5	0.00e+00	0	29	0	222298112	52	6379
2026-01-26 13:00:56.18	32.95	10.44	-39.8	-41.0	21.4	0.00e+00	0	29	0	224395264	52	6413
2026-01-26 13:00:57.19	33.07	10.51	-39.7	-40.8	21.6	0.00e+00	0	29	0	226492416	52	6269
2026-01-26 13:00:58.20	33.19	10.58	-39.8	-40.9	21.4	0.00e+00	0	29	0	228589568	52	6388
2026-01-26 13:00:59.21	33.30	10.65	-39.4	-40.5	21.8	0.00e+00	17	29	0	229638144	52	6084
2026-01-26 13:01:00.21	33.42	10.71	-39.5	-40.6	21.7	0.00e+00	0	29	0	231735296	52	6136
2026-01-26 13:01:01.22	33.54	10.78	-39.4	-40.4	21.8	0.00e+00	92	29	0	233832448	52	6030
2026-01-26 13:01:02.23	33.65	10.85	-39.3	-40.4	21.9	0.00e+00	0	29	0	235929600	52	5965
2026-01-26 13:01:03.24	33.77	10.92	-39.1	-40.2	22.0	0.00e+00	0	29	0	238026752	52	5847
2026-01-26 13:01:04.24	33.89	10.99	-38.8	-39.8	22.4	0.00e+00	0	29	0	239075328	52	5595
2026-01-26 13:01:05.25	34.01	11.06	-38.8	-39.8	22.3	0.00e+00	0	29	0	241172480	50	6258
2026-01-26 13:01:06.26	34.13	11.13	-38.7	-39.7	22.3	0.00e+00	18	29	0	243269632	50	6212
2026-01-26 13:01:07.27	34.25	11.20	-38.6	-39.6	22.1	0.00e+00	18	29	0	245366784	50	6156
2026-01-26 13:01:08.28	34.38	11.27	-38.6	-39.6	22.5	0.00e+00	68	29	0	247463936	50	6157
2026-01-26 13:01:09.29	34.50	11.34	-38.4	-39.4	22.5	0.00e+00	0	29	0	248512512	50	6010
2026-01-26 13:01:10.30	34.62	11.41	-38.4	-39.4	22.7	0.00e+00	79	29	0	250609664	50	6007
2026-01-26 13:01:11.31	34.74	11.48	-38.3	-39.3	22.8	0.00e+00	0	29	0	252706816	50	5928
2026-01-26 13:01:12.32	34.87	11.55	-38.5	-39.4	22.6	0.00e+00	0	29	0	254803968	50	6019
2026-01-26 13:01:13.32	34.99	11.62	-38.3	-39.3	22.8	0.00e+00	30	29	0	256901120	50	5905
2026-01-26 13:01:14.33	35.12	11.69	-38.2	-39.2	22.9	0.00e+00	0	29	0	257949696	50	5851
2026-01-26 13:01:15.34	35.24	11.76	-38.2	-39.2	22.8	0.00e+00	90	29	0	260046848	50	5852
2026-01-26 13:01:16.35	35.37	11.83	-38.3	-39.3	22.8	0.00e+00	0	29	0	262144000	50	5905
2026-01-26 13:01:17.36	35.49	11.91	-38.1	-39.1	23.0	0.00e+00	92	29	0	264241152	50	5779
2026-01-26 13:01:18.37	35.62	11.98	-38.1	-39.0	23.0	0.00e+00	22	29	0	266338304	50	5718
2026-01-26 13:01:19.38	35.75	12.05	-38.3	-39.2	22.8	0.00e+00	0	29	0	267386880	50	5873
2026-01-26 13:01:20.39	35.88	12.12	-38.2	-39.1	23.0	0.00e+00	8	29	0	269484032	50	5787
2026-01-26 13:01:21.39	36.01	12.19	-38.4	-39.4	22.9	0.00e+00	0	29	0	271581184	50	5971
2026-01-26 13:01:22.41	36.14	12.26	-38.6	-39.5	22.7	0.00e+00	7	29	0	273678336	50	6080
2026-01-26 13:01:23.41	36.27	12.33	-38.5	-39.5	22.7	0.00e+00	0	29	0	275775488	50	6064
2026-01-26 13:01:24.42	36.40	12.40	-38.7	-39.7	22.5	0.00e+00	73	29	0	276824064	50	6189
2026-01-26 13:01:25.43	36.53	12.47	-38.7	-39.6	22.7	0.00e+00	0	29	0	278921216	50	6166
2026-01-26 13:01:26.45	36.66	12.55	-38.6	-39.6	22.7	0.00e+00	0	29	0	281018368	50	6127
2026-01-26 13:01:27.46	36.79	12.62	-38.7	-39.7	22.6	0.00e+00	0	29	0	283115520	50	6196
2026-01-26 13:01:28.46	36.93	12.69	-38.6	-39.6	22.7	0.00e+00	0	29	0	285212672	50	6107
2026-01-26 13:01:29.47	37.06	12.76	-38.5	-39.4	22.8	0.00e+00	92	29	0	286261248	50	6028
2026-01-26 13:01:30.49	37.20	12.83	-38.5	-39.5	22.7	0.00e+00	0	29	0	288358400	50	6079
2026-01-26 13:01:31.49	37.33	12.91	-38.5	-39.5	22.6	0.00e+00	92	29	0	290455552	50	6081
2026-01-26 13:01:32.50	37.47	12.98	-38.9	-39.9	22.4	0.00e+00	0	29	0	292552704	50	6348
2026-01-26 13:01:33.51	37.60	13.05	-38.9	-39.9	22.4	0.00e+00	0	29	0	294649856	50	6383
2026-01-26 13:01:34.52	37.74	13.12	-38.8	-39.8	22.4	0.00e+00	0	29	0	295698432	50	6296
2026-01-26 13:01:35.53	37.88	13.19	-38.8	-39.8	22.4	0.00e+00	0	29	0	297795584	50	6301
2026-01-26 13:01:36.54	38.02	13.27	-39.0	-40.1	22.2	0.00e+00	13	29	0	299892736	50	6481
2026-01-26 13:01:37.55	38.16	13.34	-38.9	-39.9	22.3	0.00e+00	0	29	0	301989888	50	6332
2026-01-26 13:01:38.56	38.30	13.41	-38.9	-39.9	22.4	0.00e+00	92	29	0	304087040	50	6351
2026-01-26 13:01:39.56	38.44	13.48	-38.8	-39.8	22.4	0.00e+00	0	29	0	306184192	50	6317
2026-01-26 13:01:40.57	38.58	13.56	-38.8	-39.8	22.5	0.00e+00	92	29	0	307232768	50	6302
2026-01-26 13:01:41.58	38.72	13.63	-38.7	-39.6	22.6	0.00e+00	0	29	0	309329920	50	6166
2026-01-26 13:01:42.59	38.86	13.70	-38.5	-39.4	22.8	0.00e+00	0	29	0	311427072	50	6023
2026-01-26 13:01:43.60	39.00	13.77	-38.4	-39.4	22.9	0.00e+00	0	29	0	313524224	50	6007
2026-01-26 13:01:44.61	39.15	13.85	-38.1	-39.0	23.1	0.00e+00	0	29	0	315621376	50	5739
2026-01-26 13:01:45.62	39.29	13.92	-38.2	-39.2	23.1	0.00e+00	46	29	0	316669952	50	5837
2026-01-26 13:01:46.63	39.44	13.99	-38.1	-39.1	23.0	0.00e+00	0	29	0	318767104	50	5771
2026-01-26 13:01:47.64	39.58	14.07	-37.9	-38.8	23.3	0.00e+00	90	29	0	320864256	50	5624
2026-01-26 13:01:48.65	39.73	14.14	-37.9	-38.8	23.2	0.00e+00	0	29	0	322961408	50	5624
2026-01-26 13:01:49.66	39.88	14.21	-37.7	-38.7	23.4	0.00e+00	0	29	0	325058560	48	6180
2026-01-26 13:01:50.67	40.03	14.28	-37.7	-38.6	23.5	0.00e+00	0	29	0	326107136	48	6112
2026-01-26 13:01:51.68	40.18	14.36	-37.6	-38.5	23.5	0.00e+00	0	29	0	328204288	48	6097
2026-01-26 13:01:52.69	40.32	14.43	-37.6	-38.5	23.5	0.00e+00	45	29	0	330301440	48	6081
2026-01-26 13:01:53.70	40.47	14.50	-37.4	-38.3	23.6	0.00e+00	0	29	0	332398592	48	5934
2026-01-26 13:01:54.71	40.63	14.58	-37.5	-38.4	23.6	0.00e+00	90	29	0	334495744	48	5986
2026-01-26 13:01:55.72	40.78	14.65	-37.6	-38.5	23.5	0.00e+00	0	29	0	335544320	48	6034
2026-01-26 13:01:56.73	40.93	14.72	-37.7	-38.6	23.4	0.00e+00	0	29	0	337641472	48	6166
2026-01-26 13:01:57.73	41.08	14.80	-37.6	-38.5	23.5	0.00e+00	0	29	0	339738624	48	6049
2026-01-26 13:01:58.74	41.24	14.87	-37.7	-38.6	23.0	0.00e+00	0	29	0	341835776	48	6163
2026-01-26 13:01:59.75	41.39	14.94	-37.6	-38.5	22.5	0.00e+00	18	29	0	343932928	48	6066
2026-01-26 13:02:00.76	41.54	15.02	-37.5	-38.4	23.3	0.00e+00	0	29	0	344981504	48	5999
2026-01-26 13:02:01.77	41.70	15.09	-37.4	-38.3	23.7	0.00e+00	56	29	0	347078656	48	5941
2026-01-26 13:02:02.78	41.86	15.16	-37.5	-38.4	23.6	0.00e+00	0	30	0	349175808	48	5971
2026-01-26 13:02:03.79	42.02	15.24	-37.7	-38.6	23.5	0.00e+00	0	29	0	351272960	48	6142
2026-01-26 13:02:04.80	42.17	15.31	-37.7	-38.7	23.4	0.00e+00	0	29	0	353370112	48	6181
2026-01-26 13:02:05.81	42.33	15.39	-37.9	-38.8	23.3	0.00e+00	0	29	0	354418688	48	6288
2026-01-26 13:02:06.82	42.49	15.46	-38.1	-39.0	23.1	0.00e+00	40	29	0	356515840	48	6460
2026-01-26 13:02:07.82	42.65	15.53	-38.3	-39.2	23.0	0.00e+00	0	29	0	358612992	48	6608
2026-01-26 13:02:08.84	42.81	15.61	-38.2	-39.2	23.1	0.00e+00	92	29	0	360710144	48	6552
2026-01-26 13:02:09.84	42.97	15.68	-38.1	-39.0	23.1	0.00e+00	0	29	0	362807296	48	6449
2026-01-26 13:02:10.85	43.14	15.75	-38.3	-39.2	23.1	0.00e+00	0	29	0	363855872	48	6586
2026-01-26 13:02:11.86	43.30	15.83	-38.4	-39.4	22.9	0.00e+00	0	29	0	365953024	48	6712
2026-01-26 13:02:12.87	43.47	15.90	-38.1	-39.1	23.1	0.00e+00	0	29	0	368050176	48	6471
2026-01-26 13:02:13.88	43.63	15.97	-37.9	-38.8	23.3	0.00e+00	20	29	0	370147328	48	6315
2026-01-26 13:02:14.89	43.80	16.05	-38.0	-38.9	23.2	0.00e+00	0	29	0	372244480	48	6374
2026-01-26 13:02:15.90	43.96	16.12	-38.1	-39.0	23.2	0.00e+00	81	29	0	374341632	48	6413
2026-01-26 13:02:16.90	44.13	16.20	-38.0	-38.9	23.3	0.00e+00	0	29	0	375390208	48	6345
2026-01-26 13:02:17.91	44.30	16.27	-38.2	-39.1	23.2	0.00e+00	0	29	0	377487360	48	6512
2026-01-26 13:02:18.92	44.47	16.34	-38.1	-39.1	23.1	0.00e+00	0	29	0	379584512	48	6494
2026-01-26 13:02:19.93	44.64	16.42	-38.1	-39.0	23.2	0.00e+00	0	29	0	381681664	48	6429
2026-01-26 13:02:20.94	44.81	16.49	-38.4	-39.3	23.0	0.00e+00	22	29	0	383778816	48	6682
2026-01-26 13:02:21.95	44.98	16.56	-38.3	-39.2	23.2	0.00e+00	0	29	0	384827392	48	6593
2026-01-26 13:02:22.95	45.15	16.64	-37.7	-38.6	23.4	0.00e+00	17	29	0	386924544	48	6154
2026-01-26 13:02:23.96	45.32	16.71	-37.4	-38.3	23.8	0.00e+00	0	29	0	389021696	48	5911
2026-01-26 13:02:24.97	45.50	16.78	-37.4	-38.3	23.8	0.00e+00	90	29	0	391118848	48	5900
2026-01-26 13:02:25.98	45.67	16.86	-37.3	-38.2	23.8	0.00e+00	0	29	0	393216000	48	5872
2026-01-26 13:02:26.99	45.85	16.93	-37.2	-38.1	23.9	0.00e+00	0	29	0	394264576	48	5771
2026-01-26 13:02:28.00	46.03	17.01	-37.2	-38.1	23.9	0.00e+00	0	30	0	396361728	48	5801
2026-01-26 13:02:29.01	46.20	17.08	-37.1	-38.0	23.9	0.00e+00	0	29	0	398458880	48	5727
2026-01-26 13:02:30.02	46.38	17.15	-37.1	-37.9	23.9	0.00e+00	0	29	0	400556032	48	5689
2026-01-26 13:02:31.03	46.56	17.23	-37.1	-37.9	24.1	0.00e+00	0	29	0	402653184	48	5671
2026-01-26 13:02:32.04	46.74	17.30	-37.2	-38.1	23.8	0.00e+00	79	29	0	403701760	48	5801
2026-01-26 13:02:33.04	46.92	17.37	-37.2	-38.1	23.9	0.00e+00	0	30	0	405798912	48	5813
2026-01-26 13:02:34.05	47.10	17.44	-37.2	-38.1	23.9	0.00e+00	0	30	0	407896064	48	5762
2026-01-26 13:02:35.06	47.28	17.52	-37.0	-37.9	24.1	0.00e+00	0	29	0	409993216	48	5647
2026-01-26 13:02:36.07	47.47	17.59	-37.3	-38.2	23.8	0.00e+00	0	29	0	412090368	48	5860
2026-01-26 13:02:37.08	47.65	17.66	-37.2	-38.0	23.9	0.00e+00	81	29	0	413138944	48	5760
2026-01-26 13:02:38.09	47.84	17.74	-37.4	-38.3	23.5	0.00e+00	0	30	0	415236096	48	5917
2026-01-26 13:02:39.10	48.02	17.81	-37.3	-38.2	23.8	0.00e+00	58	30	0	417333248	48	5875
2026-01-26 13:02:40.11	48.21	17.88	-37.3	-38.2	23.8	0.00e+00	0	30	0	419430400	48	5857
2026-01-26 13:02:41.11	48.40	17.96	-37.4	-38.3	23.8	0.00e+00	0	30	0	421527552	48	5926
2026-01-26 13:02:42.12	48.58	18.03	-37.3	-38.1	23.9	0.00e+00	0	29	0	422576128	48	5819
2026-01-26 13:02:43.13	48.77	18.10	-37.1	-38.0	24.0	0.00e+00	17	29	0	424673280	48	5719
2026-01-26 13:02:44.14	48.96	18.17	-37.1	-37.9	24.1	0.00e+00	16	29	0	426770432	48	5676
2026-01-26 13:02:45.15	49.16	18.25	-37.4	-38.3	23.7	0.00e+00	0	29	0	428867584	48	5931
2026-01-26 13:02:46.16	49.35	18.32	-37.5	-38.4	23.7	0.00e+00	91	29	0	430964736	48	6005
2026-01-26 13:02:47.17	49.54	18.39	-37.4	-38.3	23.8	0.00e+00	0	29	0	432013312	48	5944
2026-01-26 13:02:48.18	49.73	18.46	-37.6	-38.5	23.6	0.00e+00	0	29	0	434110464	48	6083
2026-01-26 13:02:49.19	49.93	18.54	-37.6	-38.5	23.6	0.00e+00	0	29	0	436207616	48	6059
2026-01-26 13:02:50.20	50.13	18.61	-37.7	-38.7	23.5	0.00e+00	0	29	0	438304768	48	6191
2026-01-26 13:02:51.21	50.32	18.68	-37.6	-38.5	23.6	0.00e+00	14	29	0	440401920	48	6086
2026-01-26 13:02:52.22	50.52	18.75	-37.5	-38.4	23.6	0.00e+00	0	29	0	441450496	48	5996
2026-01-26 13:02:53.23	50.72	18.82	-37.5	-38.4	23.7	0.00e+00	92	30	0	443547648	48	6022
2026-01-26 13:02:54.24	50.92	18.89	-37.8	-38.7	23.0	0.00e+00	0	29	0	445644800	48	6224
2026-01-26 13:02:55.25	51.12	18.97	-37.7	-38.6	23.3	0.00e+00	72	29	0	447741952	48	6127
2026-01-26 13:02:56.25	51.32	19.04	-37.9	-38.9	23.2	0.00e+00	0	29	0	449839104	48	6334
2026-01-26 13:02:57.26	51.52	19.11	-37.8	-38.7	23.5	0.00e+00	0	29	0	450887680	48	6209
2026-01-26 13:02:58.27	51.72	19.18	-37.6	-38.5	23.6	0.00e+00	0	29	0	452984832	48	6063
2026-01-26 13:02:59.28	51.93	19.25	-37.3	-38.2	23.8	0.00e+00	0	29	0	455081984	48	5882
2026-01-26 13:03:00.29	52.13	19.32	-37.5	-38.4	23.6	0.00e+00	92	29	0	457179136	48	5973
2026-01-26 13:03:01.30	52.34	19.39	-37.5	-38.4	23.6	0.00e+00	0	29	0	459276288	48	6002
2026-01-26 13:03:02.31	52.54	19.46	-37.2	-38.1	23.8	0.00e+00	90	29	0	460324864	48	5767
2026-01-26 13:03:03.32	52.75	19.53	-37.3	-38.2	23.8	0.00e+00	0	29	0	462422016	48	5832
2026-01-26 13:03:04.32	52.96	19.60	-37.3	-38.2	23.8	0.00e+00	0	29	0	464519168	48	5879
2026-01-26 13:03:05.33	53.17	19.67	-37.6	-38.5	23.6	0.00e+00	0	29	0	466616320	48	6056
2026-01-26 13:03:06.34	53.38	19.74	-38.0	-39.0	23.3	0.00e+00	0	29	0	468713472	48	6392
2026-01-26 13:03:07.35	53.59	19.81	-38.2	-39.2	23.1	0.00e+00	90	29	0	470810624	48	6582
2026-01-26 13:03:08.36	53.80	19.88	-38.1	-39.1	23.1	0.00e+00	0	29	0	471859200	48	6471
2026-01-26 13:03:09.37	54.02	19.95	-38.2	-39.2	23.0	0.00e+00	92	29	0	473956352	48	6586
2026-01-26 13:03:10.38	54.23	20.02	-38.2	-39.1	23.1	0.00e+00	0	29	0	476053504	48	6504
2026-01-26 13:03:11.39	54.45	20.09	-38.3	-39.2	23.0	0.00e+00	0	29	0	478150656	48	6583
2026-01-26 13:03:12.40	54.66	20.15	-38.0	-38.9	23.2	0.00e+00	0	29	0	480247808	48	6358
2026-01-26 13:03:13.41	54.88	20.22	-38.4	-39.3	23.0	0.00e+00	0	29	0	481296384	48	6683
2026-01-26 13:03:14.42	55.10	20.29	-38.1	-39.1	23.2	0.00e+00	35	29	0	483393536	48	6491
2026-01-26 13:03:15.43	55.32	20.36	-38.2	-39.2	23.1	0.00e+00	0	29	0	485490688	48	6556
2026-01-26 13:03:16.44	55.54	20.43	-38.5	-39.4	22.8	0.00e+00	90	29	0	487587840	48	6763
2026-01-26 13:03:17.46	55.76	20.49	-38.3	-39.3	23.0	0.00e+00	0	29	0	489684992	48	6619
2026-01-26 13:03:18.46	55.98	20.56	-38.0	-39.0	23.2	0.00e+00	0	29	0	490733568	48	6404
2026-01-26 13:03:19.47	56.20	20.63	-38.0	-38.9	23.2	0.00e+00	0	29	0	492830720	48	6351
2026-01-26 13:03:20.48	56.43	20.69	-37.6	-38.5	23.6	0.00e+00	0	29	0	494927872	48	6084
2026-01-26 13:03:21.49	56.65	20.76	-37.7	-38.6	23.5	0.00e+00	18	29	0	497025024	48	6133
2026-01-26 13:03:22.50	56.88	20.83	-37.9	-38.9	23.2	0.00e+00	0	29	0	499122176	48	6349
2026-01-26 13:03:23.51	57.10	20.89	-38.5	-39.5	22.8	0.00e+00	66	29	0	500170752	48	6788
2026-01-26 13:03:24.52	57.33	20.96	-39.1	-40.2	22.3	0.00e+00	0	29	0	502267904	50	6611
2026-01-26 13:03:25.52	57.56	21.02	-39.4	-40.5	22.0	0.00e+00	92	29	0	504365056	50	6830
2026-01-26 13:03:26.53	57.79	21.09	-39.6	-40.7	21.9	0.00e+00	0	29	0	506462208	50	6980
2026-01-26 13:03:27.54	58.02	21.15	-38.8	-39.9	22.7	0.00e+00	0	29	0	508559360	50	6329
2026-01-26 13:03:28.55	58.25	21.22	-38.3	-39.3	23.1	0.00e+00	8	29	0	509607936	50	5903
2026-01-26 13:03:29.56	58.48	21.28	-37.9	-38.8	23.5	0.00e+00	0	29	0	511705088	50	5625
2026-01-26 13:03:30.57	58.71	21.35	-37.8	-38.8	23.4	0.00e+00	92	29	0	513802240	48	6246
2026-01-26 13:03:31.58	58.95	21.41	-37.8	-38.7	23.4	0.00e+00	0	29	0	515899392	48	6235
2026-01-26 13:03:32.59	59.18	21.47	-37.9	-38.9	23.4	0.00e+00	92	29	0	517996544	48	6334
2026-01-26 13:03:33.60	59.42	21.54	-37.9	-38.8	23.3	0.00e+00	0	29	0	519045120	48	6308
2026-01-26 13:03:34.61	59.66	21.60	-37.6	-38.6	23.5	0.00e+00	0	29	0	521142272	48	6142
2026-01-26 13:03:35.62	59.89	21.66	-37.4	-38.3	23.4	0.00e+00	0	29	0	523239424	48	5960
2026-01-26 13:03:36.63	60.13	21.72	-37.4	-38.3	23.6	0.00e+00	0	29	0	525336576	48	5919
2026-01-26 13:03:37.64	60.37	21.78	-37.6	-38.5	23.5	0.00e+00	16	29	0	527433728	48	6060
2026-01-26 13:03:38.65	60.61	21.84	-38.0	-38.9	23.4	0.00e+00	0	29	0	528482304	48	6370
2026-01-26 13:03:39.66	60.85	21.91	-38.0	-38.9	23.2	0.00e+00	47	29	0	530579456	48	6347
2026-01-26 13:03:40.66	61.10	21.97	-38.3	-39.3	23.1	0.00e+00	0	29	0	532676608	48	6622
2026-01-26 13:03:41.67	61.34	22.03	-38.2	-39.1	23.2	0.00e+00	0	29	0	534773760	48	6538
2026-01-26 13:03:42.68	61.58	22.09	-37.7	-38.6	23.6	0.00e+00	0	29	0	536870912	48	6142
2026-01-26 13:03:43.69	61.83	22.14	-37.7	-38.6	23.7	0.00e+00	0	29	0	538968064	48	6131
2026-01-26 13:03:44.70	62.07	22.20	-37.2	-38.1	24.0	0.00e+00	19	29	0	540016640	48	5763
2026-01-26 13:03:45.71	62.32	22.26	-37.3	-38.2	23.9	0.00e+00	0	29	0	542113792	48	5864
2026-01-26 13:03:46.72	62.57	22.32	-37.4	-38.3	23.8	0.00e+00	92	29	0	544210944	48	5898
2026-01-26 13:03:47.73	62.82	22.38	-37.4	-38.3	23.6	0.00e+00	0	29	0	546308096	48	5936
2026-01-26 13:03:48.74	63.07	22.44	-37.6	-38.5	23.6	0.00e+00	0	29	0	548405248	48	6054
2026-01-26 13:03:49.75	63.32	22.49	-37.7	-38.6	23.5	0.00e+00	0	29	0	549453824	48	6119
2026-01-26 13:03:50.75	63.57	22.55	-38.1	-39.0	23.2	0.00e+00	0	29	0	551550976	48	6456
2026-01-26 13:03:51.76	63.82	22.60	-38.7	-39.7	22.7	0.00e+00	21	29	0	553648128	48	6936
2026-01-26 13:03:52.77	64.08	22.66	-39.3	-40.3	22.3	0.00e+00	0	29	0	555745280	50	6676
2026-01-26 13:03:53.78	64.33	22.72	-39.3	-40.4	22.2	0.00e+00	73	29	0	557842432	50	6713
2026-01-26 13:03:54.79	64.59	22.77	-39.4	-40.4	22.1	0.00e+00	0	29	0	558891008	50	6758
2026-01-26 13:03:55.79	64.84	22.82	-38.8	-39.8	22.7	0.00e+00	44	29	0	560988160	50	6271
2026-01-26 13:03:56.80	65.10	22.88	-38.5	-39.5	23.0	0.00e+00	0	29	0	563085312	50	6063
2026-01-26 13:03:57.81	65.35	22.93	-38.0	-38.9	23.4	0.00e+00	0	29	0	565182464	50	5694
2026-01-26 13:03:58.82	65.61	22.98	-38.2	-39.1	23.2	0.00e+00	21	29	0	567279616	50	5820
2026-01-26 13:03:59.83	65.87	23.04	-38.0	-38.9	23.2	0.00e+00	0	29	0	568328192	50	5687
2026-01-26 13:04:00.84	66.13	23.09	-38.3	-39.3	23.1	0.00e+00	92	29	0	570425344	50	5919
2026-01-26 13:04:01.85	66.39	23.14	-38.9	-39.9	22.5	0.00e+00	0	29	0	572522496	50	6363
2026-01-26 13:04:02.86	66.66	23.19	-39.2	-40.2	22.3	0.00e+00	80	29	0	574619648	50	6590
2026-01-26 13:04:03.87	66.92	23.24	-39.2	-40.3	22.2	0.00e+00	0	29	0	576716800	50	6636
2026-01-26 13:04:04.88	67.18	23.29	-39.2	-40.2	22.2	0.00e+00	0	29	0	577765376	50	6612
2026-01-26 13:04:05.89	67.45	23.34	-39.0	-40.0	22.4	0.00e+00	21	29	0	579862528	50	6452
2026-01-26 13:04:06.90	67.71	23.39	-38.9	-39.9	22.6	0.00e+00	0	29	0	581959680	50	6376
2026-01-26 13:04:07.91	67.98	23.44	-38.9	-39.8	22.6	0.00e+00	82	29	0	584056832	50	6313
2026-01-26 13:04:08.92	68.25	23.48	-39.1	-40.1	22.5	0.00e+00	0	29	0	586153984	50	6515
2026-01-26 13:04:09.93	68.51	23.53	-39.1	-40.2	22.2	0.00e+00	78	29	0	587202560	50	6558
2026-01-26 13:04:10.94	68.78	23.58	-38.9	-40.0	22.4	0.00e+00	0	29	0	589299712	50	6407
2026-01-26 13:04:11.95	69.05	23.62	-39.0	-40.0	22.5	0.00e+00	0	29	0	591396864	50	6434
2026-01-26 13:04:12.96	69.32	23.67	-38.8	-39.8	22.5	0.00e+00	0	29	0	593494016	50	6288
2026-01-26 13:04:13.97	69.59	23.71	-39.1	-40.2	22.4	0.00e+00	0	29	0	595591168	50	6552
2026-01-26 13:04:14.98	69.87	23.76	-40.0	-41.1	21.5	0.00e+00	67	29	0	596639744	52	6537
2026-01-26 13:04:15.99	70.14	23.80	-40.7	-41.9	20.7	0.00e+00	0	29	0	598736896	52	7151
2026-01-26 13:04:17.00	70.41	23.85	-41.8	-43.4	19.5	0.00e+00	91	29	0	600834048	54	7540
2026-01-26 13:04:18.00	70.68	23.89	-41.9	-43.4	19.6	0.00e+00	0	29	0	602931200	56	6763
2026-01-26 13:04:19.01	70.96	23.93	-41.8	-43.3	19.8	0.00e+00	0	29	0	605028352	56	6671
2026-01-26 13:04:20.02	71.23	23.97	-41.2	-42.5	20.5	0.00e+00	0	29	0	606076928	56	6087
2026-01-26 13:04:21.03	71.51	24.01	-40.5	-41.7	20.9	0.00e+00	0	29	0	608174080	54	6191
2026-01-26 13:04:22.04	71.79	24.05	-40.2	-41.4	21.3	0.00e+00	56	29	0	610271232	54	5997
2026-01-26 13:04:23.05	72.06	24.09	-40.5	-41.7	21.1	0.00e+00	0	29	0	612368384	54	6190
2026-01-26 13:04:24.06	72.34	24.13	-40.4	-41.6	21.2	0.00e+00	88	29	0	614465536	54	6111
2026-01-26 13:04:25.07	72.62	24.17	-40.8	-42.0	20.8	0.00e+00	0	29	0	615514112	54	6445
2026-01-26 13:04:26.08	72.90	24.21	-40.4	-41.6	21.2	0.00e+00	0	29	0	617611264	54	6127
2026-01-26 13:04:27.08	73.18	24.24	-40.4	-41.6	21.2	0.00e+00	20	29	0	619708416	54	6148
2026-01-26 13:04:28.09	73.46	24.28	-40.0	-41.1	21.5	0.00e+00	0	29	0	621805568	54	5810
2026-01-26 13:04:29.10	73.74	24.31	-40.1	-41.2	21.6	0.00e+00	22	29	0	623902720	54	5867
2026-01-26 13:04:30.11	74.02	24.35	-40.0	-41.1	21.6	0.00e+00	24	29	0	624951296	54	5823
2026-01-26 13:04:31.12	74.31	24.38	-40.0	-41.1	21.5	0.00e+00	92	29	0	627048448	54	5806
2026-01-26 13:04:32.13	74.59	24.42	-40.3	-41.5	21.3	0.00e+00	0	29	0	629145600	54	6034
2026-01-26 13:04:33.14	74.87	24.45	-40.5	-41.8	20.9	0.00e+00	92	29	0	631242752	54	6290
2026-01-26 13:04:34.14	75.16	24.48	-40.6	-42.0	20.8	0.00e+00	0	29	0	633339904	54	6463
2026-01-26 13:04:35.15	75.44	24.51	-40.8	-42.2	20.6	0.00e+00	0	29	0	635437056	54	6614
2026-01-26 13:04:36.17	75.73	24.54	-40.8	-42.3	20.5	0.00e+00	23	29	0	636485632	54	6639
2026-01-26 13:04:37.18	76.02	24.57	-40.1	-41.4	21.3	0.00e+00	0	29	0	638582784	54	6033
2026-01-26 13:04:38.18	76.30	24.60	-39.8	-41.0	21.6	0.00e+00	58	29	0	640679936	54	5750
2026-01-26 13:04:39.19	76.59	24.63	-39.2	-40.2	22.3	0.00e+00	0	29	0	642777088	52	5877
2026-01-26 13:04:40.20	76.87	24.66	-39.0	-40.0	22.5	0.00e+00	91	29	0	644874240	52	5715
2026-01-26 13:04:41.21	77.16	24.69	-38.8	-39.7	22.6	0.00e+00	0	29	0	645922816	50	6233
2026-01-26 13:04:42.23	77.45	24.71	-38.6	-39.5	23.0	0.00e+00	0	29	0	648019968	50	6068
2026-01-26 13:04:43.23	77.74	24.74	-38.1	-39.0	23.3	0.00e+00	0	29	0	650117120	50	5748
2026-01-26 13:04:44.24	78.03	24.77	-37.8	-38.6	23.6	0.00e+00	0	29	0	652214272	50	5489
2026-01-26 13:04:45.25	78.32	24.79	-37.7	-38.5	23.5	0.00e+00	20	29	0	654311424	48	6085
2026-01-26 13:04:46.26	78.61	24.81	-38.0	-38.9	23.4	0.00e+00	0	29	0	655360000	48	6354
2026-01-26 13:04:47.27	78.90	24.84	-38.5	-39.4	22.9	0.00e+00	92	29	0	657457152	48	6755
2026-01-26 13:04:48.28	79.19	24.86	-39.0	-40.0	22.4	0.00e+00	0	29	0	659554304	50	6443
2026-01-26 13:04:49.29	79.49	24.88	-39.4	-40.4	22.2	0.00e+00	0	29	0	661651456	50	6764
2026-01-26 13:04:50.30	79.78	24.90	-39.2	-40.2	22.4	0.00e+00	0	29	0	663748608	50	6584
2026-01-26 13:04:51.31	80.07	24.92	-38.8	-39.8	22.7	0.00e+00	0	29	0	664797184	50	6259
2026-01-26 13:04:52.32	80.36	24.94	-38.3	-39.3	23.2	0.00e+00	76	29	0	666894336	50	5898
2026-01-26 13:04:53.33	80.66	24.96	-38.6	-39.5	22.9	0.00e+00	0	29	0	668991488	50	6086
2026-01-26 13:04:54.34	80.95	24.98	-38.7	-39.6	22.7	0.00e+00	90	29	0	671088640	50	6167
2026-01-26 13:04:55.35	81.25	24.99	-39.2	-40.3	22.3	0.00e+00	0	29	0	673185792	50	6631
2026-01-26 13:04:56.36	81.54	25.01	-39.2	-40.3	22.3	0.00e+00	15	29	0	674234368	50	6638
2026-01-26 13:04:57.37	81.83	25.02	-39.1	-40.1	22.5	0.00e+00	0	29	0	676331520	50	6471
2026-01-26 13:04:58.37	82.13	25.04	-38.8	-39.8	22.8	0.00e+00	0	29	0	678428672	50	6280
2026-01-26 13:04:59.38	82.42	25.05	-38.8	-39.7	22.7	0.00e+00	16	29	0	680525824	50	6235
2026-01-26 13:05:00.39	82.72	25.07	-38.8	-39.8	22.6	0.00e+00	0	29	0	682622976	50	6285
2026-01-26 13:05:01.40	83.01	25.08	-38.8	-39.9	22.6	0.00e+00	92	29	0	683671552	50	6319
2026-01-26 13:05:02.41	83.31	25.09	-38.7	-39.7	22.7	0.00e+00	0	29	0	685768704	50	6242
2026-01-26 13:05:03.42	83.60	25.10	-38.2	-39.1	23.2	0.00e+00	27	29	0	687865856	50	5822
2026-01-26 13:05:04.43	83.90	25.11	-37.5	-38.4	23.8	0.00e+00	0	29	0	689963008	48	5977
2026-01-26 13:05:05.44	84.20	25.12	-37.1	-37.9	24.0	0.00e+00	0	29	0	692060160	48	5662
2026-01-26 13:05:06.45	84.49	25.13	-37.0	-37.9	24.2	0.00e+00	40	29	0	693108736	48	5647
2026-01-26 13:05:07.46	84.79	25.13	-37.2	-38.1	23.9	0.00e+00	0	29	0	695205888	48	5777
2026-01-26 13:05:08.47	85.09	25.14	-37.6	-38.5	23.6	0.00e+00	13	29	0	697303040	48	6076
2026-01-26 13:05:09.48	85.38	25.15	-37.8	-38.7	23.5	0.00e+00	0	29	0	699400192	48	6204
2026-01-26 13:05:10.49	85.68	25.15	-38.0	-38.9	23.4	0.00e+00	53	29	0	701497344	48	6330
2026-01-26 13:05:11.50	85.98	25.16	-37.9	-38.8	23.5	0.00e+00	0	29	0	703594496	48	6267
2026-01-26 13:05:12.50	86.27	25.16	-37.8	-38.7	23.5	0.00e+00	0	29	0	704643072	48	6216
2026-01-26 13:05:13.51	86.57	25.16	-37.5	-38.3	23.8	0.00e+00	16	29	0	706740224	48	5946
2026-01-26 13:05:14.52	86.87	25.16	-37.5	-38.4	23.8	0.00e+00	0	29	0	708837376	48	6002
2026-01-26 13:05:15.53	87.17	25.17	-37.6	-38.5	23.6	0.00e+00	15	29	0	710934528	48	6044
2026-01-26 13:05:16.54	87.46	25.17	-37.8	-38.7	23.6	0.00e+00	0	29	0	713031680	48	6202
2026-01-26 13:05:17.55	87.76	25.17	-38.0	-38.9	23.3	0.00e+00	74	29	0	714080256	48	6343
2026-01-26 13:05:18.56	88.06	25.16	-38.1	-39.0	23.3	0.00e+00	0	29	0	716177408	48	6423
2026-01-26 13:05:19.57	88.36	25.16	-38.1	-39.0	23.1	0.00e+00	0	28	0	718274560	48	6459
2026-01-26 13:05:20.57	88.65	25.16	-38.6	-39.6	22.7	0.00e+00	0	28	0	720371712	48	6899
2026-01-26 13:05:21.58	88.95	25.16	-38.8	-39.8	22.6	0.00e+00	0	29	0	722468864	50	6296
2026-01-26 13:05:22.59	89.25	25.15	-39.2	-40.3	22.3	0.00e+00	65	29	0	723517440	50	6636
2026-01-26 13:05:23.60	89.54	25.15	-39.1	-40.2	22.4	0.00e+00	0	28	0	725614592	50	6563
2026-01-26 13:05:24.61	89.84	25.14	-38.9	-39.9	22.6	0.00e+00	92	29	0	727711744	50	6380
2026-01-26 13:05:25.62	90.14	25.13	-38.6	-39.6	22.8	0.00e+00	0	28	0	729808896	50	6151
2026-01-26 13:05:26.63	90.43	25.12	-38.3	-39.2	23.0	0.00e+00	0	29	0	731906048	50	5872
2026-01-26 13:05:27.64	90.73	25.12	-38.3	-39.2	23.1	0.00e+00	0	29	0	732954624	50	5863
2026-01-26 13:05:28.65	91.03	25.11	-38.0	-38.9	23.1	0.00e+00	0	29	0	735051776	50	5681
2026-01-26 13:05:29.65	91.32	25.10	-38.1	-39.1	22.8	0.00e+00	20	29	0	737148928	50	5766
2026-01-26 13:05:30.66	91.62	25.09	-37.6	-38.5	23.5	0.00e+00	0	28	0	739246080	48	6089
2026-01-26 13:05:31.67	91.91	25.07	-37.7	-38.6	23.5	0.00e+00	92	29	0	741343232	48	6167
2026-01-26 13:05:32.68	92.21	25.06	-37.7	-38.6	23.6	0.00e+00	0	29	0	742391808	48	6160
2026-01-26 13:05:33.69	92.50	25.05	-37.9	-38.8	23.4	0.00e+00	0	28	0	744488960	48	6256
2026-01-26 13:05:34.69	92.80	25.04	-37.9	-38.8	23.5	0.00e+00	0	29	0	746586112	48	6259
2026-01-26 13:05:35.70	93.09	25.02	-37.7	-38.6	23.6	0.00e+00	0	28	0	748683264	48	6104
2026-01-26 13:05:36.71	93.39	25.00	-37.4	-38.3	23.7	0.00e+00	19	29	0	750780416	48	5927
2026-01-26 13:05:37.72	93.68	24.99	-37.4	-38.3	23.7	0.00e+00	0	28	0	751828992	48	5935
2026-01-26 13:05:38.73	93.97	24.97	-37.4	-38.3	23.8	0.00e+00	69	28	0	753926144	48	5902
2026-01-26 13:05:39.74	94.27	24.95	-37.4	-38.3	23.8	0.00e+00	0	28	0	756023296	48	5937
2026-01-26 13:05:40.75	94.56	24.94	-37.4	-38.4	23.7	0.00e+00	27	28	0	758120448	48	5982
2026-01-26 13:05:41.76	94.86	24.92	-37.1	-38.0	24.0	0.00e+00	0	28	0	760217600	48	5717
2026-01-26 13:05:42.77	95.15	24.90	-37.0	-37.9	24.1	0.00e+00	0	29	0	761266176	48	5664
2026-01-26 13:05:43.78	95.44	24.87	-36.7	-37.6	24.3	0.00e+00	0	28	0	763363328	46	6116
2026-01-26 13:05:44.78	95.73	24.85	-37.0	-37.8	24.3	0.00e+00	0	28	0	765460480	46	6297
2026-01-26 13:05:45.79	96.02	24.83	-37.0	-37.9	24.0	0.00e+00	45	28	0	767557632	46	6339
2026-01-26 13:05:46.80	96.31	24.81	-37.1	-37.9	24.1	0.00e+00	0	28	0	769654784	46	6377
2026-01-26 13:05:47.81	96.60	24.78	-37.2	-38.0	24.0	0.00e+00	92	28	0	770703360	46	6456
2026-01-26 13:05:48.82	96.89	24.76	-36.9	-37.7	23.9	0.00e+00	0	28	0	772800512	46	6232
2026-01-26 13:05:49.83	97.18	24.73	-37.4	-38.3	23.8	0.00e+00	0	28	0	774897664	46	6649
2026-01-26 13:05:50.84	97.47	24.71	-37.5	-38.4	23.7	0.00e+00	0	28	0	776994816	46	6726
2026-01-26 13:05:51.84	97.76	24.68	-37.3	-38.1	23.9	0.00e+00	0	28	0	779091968	46	6526
2026-01-26 13:05:52.85	98.05	24.65	-37.3	-38.1	24.0	0.00e+00	20	28	0	780140544	46	6535
2026-01-26 13:05:53.86	98.34	24.63	-37.0	-37.9	24.1	0.00e+00	0	28	0	782237696	46	6349
2026-01-26 13:05:54.87	98.63	24.60	-37.0	-37.9	24.1	0.00e+00	92	28	0	784334848	46	6345
2026-01-26 13:05:55.88	98.91	24.57	-37.0	-37.8	24.1	0.00e+00	0	28	0	786432000	46	6306
2026-01-26 13:05:56.89	99.20	24.54	-36.9	-37.7	24.2	0.00e+00	0	28	0	788529152	46	6241
2026-01-26 13:05:57.90	99.48	24.51	-36.7	-37.5	24.3	0.00e+00	0	28	0	789577728	46	6093
2026-01-26 13:05:58.91	99.77	24.47	-36.5	-37.3	24.3	0.00e+00	0	28	0	791674880	46	5944
2026-01-26 13:05:59.92	100.06	24.44	-36.4	-37.2	24.6	0.00e+00	20	28	0	793772032	46	5870
2026-01-26 13:06:00.92	100.34	24.41	-36.4	-37.2	24.3	0.00e+00	0	28	0	795869184	46	5882
2026-01-26 13:06:01.93	100.62	24.37	-36.6	-37.4	24.5	0.00e+00	92	28	0	797966336	46	5988
2026-01-26 13:06:02.94	100.90	24.34	-36.5	-37.4	24.5	0.00e+00	0	28	0	800063488	46	5975
2026-01-26 13:06:03.95	101.19	24.30	-36.6	-37.5	24.4	0.00e+00	0	28	0	801112064	46	6047
2026-01-26 13:06:04.96	101.47	24.27	-36.4	-37.2	24.5	0.00e+00	0	28	0	803209216	46	5894
2026-01-26 13:06:05.97	101.75	24.23	-36.5	-37.3	24.5	0.00e+00	0	28	0	805306368	46	5945
2026-01-26 13:06:06.98	102.03	24.19	-36.0	-36.8	24.9	0.00e+00	36	28	0	807403520	46	5609
2026-01-26 13:06:07.99	102.31	24.16	-36.0	-36.8	24.9	0.00e+00	0	28	0	809500672	46	5567
2026-01-26 13:06:09.00	102.59	24.12	-35.9	-36.7	24.9	0.00e+00	70	28	0	810549248	46	5529
2026-01-26 13:06:10.01	102.87	24.08	-35.8	-36.6	24.9	0.00e+00	0	28	0	812646400	44	6116
2026-01-26 13:06:11.02	103.15	24.04	-36.2	-37.0	24.7	0.00e+00	0	28	0	814743552	44	6444
2026-01-26 13:06:12.02	103.42	24.00	-36.2	-37.1	24.7	0.00e+00	0	28	0	816840704	44	6475
2026-01-26 13:06:13.03	103.70	23.96	-36.0	-36.8	24.9	0.00e+00	0	28	0	818937856	44	6291
2026-01-26 13:06:14.04	103.97	23.92	-36.0	-36.8	24.8	0.00e+00	0	28	0	819986432	44	6278
2026-01-26 13:06:15.05	104.25	23.87	-35.5	-36.3	25.3	0.00e+00	0	28	0	822083584	44	5944
2026-01-26 13:06:16.06	104.52	23.83	-35.4	-36.2	25.2	0.00e+00	0	28	0	824180736	44	5860
2026-01-26 13:06:17.07	104.80	23.79	-35.2	-35.9	25.5	0.00e+00	0	28	0	826277888	44	5686
2026-01-26 13:06:18.08	105.07	23.74	-35.4	-36.2	25.2	0.00e+00	63	28	0	828375040	44	5891
2026-01-26 13:06:19.09	105.34	23.70	-35.9	-36.7	24.5	0.00e+00	0	28	0	829423616	44	6206
2026-01-26 13:06:20.10	105.61	23.65	-36.2	-37.0	24.7	0.00e+00	22	28	0	831520768	44	6411
2026-01-26 13:06:21.10	105.88	23.61	-35.8	-36.6	24.9	0.00e+00	17	28	0	833617920	44	6153
2026-01-26 13:06:22.12	106.15	23.56	-35.6	-36.4	25.2	0.00e+00	0	28	0	835715072	44	5988
2026-01-26 13:06:23.13	106.42	23.52	-35.4	-36.2	25.3	0.00e+00	14	28	0	837812224	44	5835
2026-01-26 13:06:24.14	106.69	23.47	-35.0	-35.8	25.5	0.00e+00	0	28	0	838860800	44	5584
2026-01-26 13:06:25.15	106.96	23.42	-35.1	-35.8	25.4	0.00e+00	92	28	0	840957952	44	5614
2026-01-26 13:06:26.15	107.22	23.37	-35.2	-36.0	25.4	0.00e+00	0	28	0	843055104	44	5696
2026-01-26 13:06:27.16	107.49	23.32	-35.6	-36.4	25.0	0.00e+00	15	28	0	845152256	44	5988
2026-01-26 13:06:28.17	107.75	23.27	-35.8	-36.6	25.0	0.00e+00	0	28	0	847249408	44	6163
2026-01-26 13:06:29.17	108.02	23.22	-36.1	-36.9	24.8	0.00e+00	0	28	0	848297984	44	6353
2026-01-26 13:06:30.18	108.28	23.17	-36.0	-36.8	24.8	0.00e+00	15	28	0	850395136	44	6265
2026-01-26 13:06:31.19	108.54	23.12	-35.9	-36.7	24.9	0.00e+00	0	28	0	852492288	44	6190
2026-01-26 13:06:32.20	108.80	23.07	-35.9	-36.7	24.9	0.00e+00	46	28	0	854589440	44	6214
2026-01-26 13:06:33.21	109.07	23.02	-35.6	-36.4	25.1	0.00e+00	0	28	0	856686592	44	5995
2026-01-26 13:06:34.21	109.32	22.97	-35.7	-36.4	25.1	0.00e+00	0	28	0	857735168	44	6020
2026-01-26 13:06:35.22	109.58	22.91	-35.8	-36.5	25.0	0.00e+00	0	28	0	859832320	44	6092
2026-01-26 13:06:36.23	109.84	22.86	-35.8	-36.6	25.0	0.00e+00	0	28	0	861929472	44	6139
2026-01-26 13:06:37.24	110.10	22.80	-35.9	-36.7	25.0	0.00e+00	18	28	0	864026624	44	6195
2026-01-26 13:06:38.25	110.36	22.75	-35.7	-36.5	24.9	0.00e+00	0	28	0	866123776	44	6088
2026-01-26 13:06:39.26	110.61	22.69	-35.7	-36.5	24.9	0.00e+00	92	28	0	867172352	44	6068
2026-01-26 13:06:40.27	110.87	22.64	-35.7	-36.4	24.9	0.00e+00	0	28	0	869269504	44	6026
2026-01-26 13:06:41.28	111.12	22.58	-36.0	-36.8	24.2	0.00e+00	0	28	0	871366656	44	6263
2026-01-26 13:06:42.29	111.37	22.53	-36.2	-37.0	24.6	0.00e+00	0	28	0	873463808	44	6447
2026-01-26 13:06:43.30	111.63	22.47	-36.4	-37.2	24.3	0.00e+00	0	28	0	875560960	44	6605
2026-01-26 13:06:44.31	111.88	22.41	-36.5	-37.4	24.3	0.00e+00	18	28	0	876609536	44	6698
2026-01-26 13:06:45.32	112.13	22.36	-36.5	-37.4	24.5	0.00e+00	0	28	0	878706688	44	6697
2026-01-26 13:06:46.33	112.38	22.30	-36.5	-37.3	24.4	0.00e+00	92	28	0	880803840	44	6676
2026-01-26 13:06:47.34	112.63	22.24	-36.4	-37.2	24.5	0.00e+00	0	28	0	882900992	44	6592
2026-01-26 13:06:48.34	112.87	22.18	-36.4	-37.2	24.5	0.00e+00	91	28	0	884998144	44	6570
2026-01-26 13:06:49.35	113.12	22.12	-36.6	-37.5	24.4	0.00e+00	0	28	0	886046720	44	6786
2026-01-26 13:06:50.36	113.36	22.06	-36.8	-37.6	24.2	0.00e+00	0	28	0	888143872	46	6157
2026-01-26 13:06:51.37	113.61	22.00	-37.0	-37.9	24.1	0.00e+00	0	28	0	890241024	46	6341
2026-01-26 13:06:52.38	113.85	21.94	-37.2	-38.1	23.7	0.00e+00	0	28	0	892338176	46	6500
2026-01-26 13:06:53.39	114.10	21.88	-36.9	-37.8	24.1	0.00e+00	92	28	0	894435328	46	6300
2026-01-26 13:06:54.40	114.34	21.82	-37.0	-37.9	24.1	0.00e+00	0	28	0	896532480	46	6339
2026-01-26 13:06:55.40	114.58	21.76	-36.7	-37.6	24.4	0.00e+00	91	28	0	897581056	46	6132
2026-01-26 13:06:56.41	114.82	21.70	-36.4	-37.2	24.5	0.00e+00	0	28	0	899678208	46	5875
2026-01-26 13:06:57.42	115.06	21.63	-36.5	-37.3	24.5	0.00e+00	0	28	0	901775360	46	5914
2026-01-26 13:06:58.43	115.29	21.57	-36.7	-37.6	24.2	0.00e+00	0	28	0	903872512	46	6108
2026-01-26 13:06:59.44	115.53	21.51	-36.9	-37.7	24.1	0.00e+00	0	28	0	905969664	46	6245
2026-01-26 13:07:00.45	115.77	21.44	-37.5	-38.4	23.6	0.00e+00	92	28	0	907018240	46	6750
2026-01-26 13:07:01.46	116.00	21.38	-37.8	-38.8	23.4	0.00e+00	0	28	0	909115392	46	7032
2026-01-26 13:07:02.47	116.24	21.32	-38.0	-38.9	23.2	0.00e+00	79	28	0	911212544	48	6382
2026-01-26 13:07:03.48	116.47	21.25	-38.1	-39.0	23.2	0.00e+00	0	28	0	913309696	48	6439
2026-01-26 13:07:04.49	116.71	21.19	-37.6	-38.6	23.6	0.00e+00	0	28	0	915406848	48	6108
2026-01-26 13:07:05.50	116.94	21.12	-36.9	-37.8	24.1	0.00e+00	0	28	0	916455424	48	5567
2026-01-26 13:07:06.50	117.17	21.06	-36.4	-37.2	24.4	0.00e+00	0	28	0	918552576	46	5844
2026-01-26 13:07:07.51	117.40	20.99	-36.1	-36.9	24.7	0.00e+00	13	28	0	920649728	46	5684
2026-01-26 13:07:08.53	117.63	20.93	-35.9	-36.7	24.9	0.00e+00	0	28	0	922746880	46	5551
2026-01-26 13:07:09.53	117.85	20.86	-36.1	-36.9	24.7	0.00e+00	92	28	0	924844032	46	5667
2026-01-26 13:07:10.54	118.08	20.79	-36.6	-37.5	24.3	0.00e+00	0	28	0	925892608	46	6045
2026-01-26 13:07:11.55	118.31	20.73	-37.0	-37.8	24.0	0.00e+00	17	28	0	927989760	46	6284
2026-01-26 13:07:12.56	118.53	20.66	-37.4	-38.3	23.8	0.00e+00	0	28	0	930086912	46	6645
2026-01-26 13:07:13.57	118.76	20.59	-37.5	-38.4	23.6	0.00e+00	0	28	0	932184064	46	6715
2026-01-26 13:07:14.57	118.98	20.53	-37.8	-38.8	23.4	0.00e+00	51	28	0	934281216	48	6253
2026-01-26 13:07:15.58	119.20	20.46	-37.7	-38.6	23.5	0.00e+00	0	28	0	935329792	48	6138
2026-01-26 13:07:16.59	119.42	20.39	-37.8	-38.7	23.4	0.00e+00	92	28	0	937426944	48	6193
2026-01-26 13:07:17.60	119.64	20.32	-37.8	-38.8	23.4	0.00e+00	0	28	0	939524096	48	6261
2026-01-26 13:07:18.61	119.86	20.25	-37.9	-38.8	23.3	0.00e+00	92	28	0	941621248	48	6282
2026-01-26 13:07:19.62	120.08	20.19	-37.8	-38.7	23.3	0.00e+00	0	28	0	943718400	48	6222
2026-01-26 13:07:20.63	120.30	20.12	-37.5	-38.5	23.6	0.00e+00	0	28	0	944766976	48	6054
2026-01-26 13:07:21.64	120.51	20.05	-37.7	-38.6	23.4	0.00e+00	14	28	0	946864128	48	6160
2026-01-26 13:07:22.64	120.73	19.98	-37.5	-38.5	23.5	0.00e+00	0	28	0	948961280	48	6076
2026-01-26 13:07:23.65	120.94	19.91	-37.5	-38.5	23.6	0.00e+00	90	28	0	951058432	48	6061
2026-01-26 13:07:24.66	121.16	19.84	-37.5	-38.5	23.6	0.00e+00	0	28	0	953155584	48	6043
2026-01-26 13:07:25.67	121.37	19.77	-37.6	-38.6	23.4	0.00e+00	92	28	0	954204160	48	6112
2026-01-26 13:07:26.68	121.58	19.70	-38.2	-39.2	23.0	0.00e+00	0	28	0	956301312	48	6563
2026-01-26 13:07:27.68	121.79	19.63	-38.5	-39.5	22.6	0.00e+00	0	28	0	958398464	48	6817
2026-01-26 13:07:28.70	122.00	19.56	-38.9	-40.0	22.4	0.00e+00	0	28	0	960495616	50	6409
2026-01-26 13:07:29.71	122.21	19.49	-38.9	-40.0	22.3	0.00e+00	0	28	0	962592768	50	6417
2026-01-26 13:07:30.72	122.42	19.42	-38.5	-39.5	22.7	0.00e+00	75	28	0	963641344	50	6046
2026-01-26 13:07:31.73	122.63	19.35	-38.3	-39.3	23.0	0.00e+00	0	28	0	965738496	50	5911
2026-01-26 13:07:32.73	122.83	19.28	-37.0	-37.9	23.9	0.00e+00	92	28	0	967835648	48	5674
2026-01-26 13:07:33.74	123.04	19.21	-36.7	-37.6	24.2	0.00e+00	0	28	0	969932800	46	6123
2026-01-26 13:07:34.75	123.24	19.13	-36.8	-37.6	24.2	0.00e+00	0	28	0	972029952	46	6140
2026-01-26 13:07:35.76	123.44	19.06	-36.8	-37.7	24.1	0.00e+00	0	28	0	973078528	46	6200
2026-01-26 13:07:36.76	123.64	18.99	-37.6	-38.5	23.4	0.00e+00	0	28	0	975175680	46	6820
2026-01-26 13:07:37.77	123.85	18.92	-38.0	-38.9	23.2	0.00e+00	14	28	0	977272832	48	6387
2026-01-26 13:07:38.78	124.05	18.85	-38.3	-39.3	23.0	0.00e+00	0	28	0	979369984	48	6654
2026-01-26 13:07:39.79	124.25	18.78	-38.2	-39.1	23.2	0.00e+00	57	28	0	981467136	48	6511
2026-01-26 13:07:40.80	124.45	18.70	-37.9	-38.9	23.3	0.00e+00	0	28	0	982515712	48	6330
2026-01-26 13:07:41.81	124.64	18.63	-37.8	-38.8	23.3	0.00e+00	57	28	0	984612864	48	6250
2026-01-26 13:07:42.82	124.84	18.56	-37.4	-38.2	23.6	0.00e+00	0	28	0	986710016	48	5894
2026-01-26 13:07:43.83	125.04	18.49	-37.5	-38.4	23.6	0.00e+00	0	28	0	988807168	48	5997
2026-01-26 13:07:44.84	125.23	18.41	-37.7	-38.7	23.4	0.00e+00	16	28	0	990904320	48	6177
2026-01-26 13:07:45.85	125.43	18.34	-38.0	-39.0	23.1	0.00e+00	0	28	0	991952896	48	6398
2026-01-26 13:07:46.86	125.62	18.27	-38.5	-39.5	22.6	0.00e+00	68	28	0	994050048	48	6781
2026-01-26 13:07:47.87	125.81	18.20	-38.3	-39.3	22.8	0.00e+00	0	28	0	996147200	48	6639
2026-01-26 13:07:48.87	126.00	18.12	-38.1	-39.1	23.0	0.00e+00	74	28	0	998244352	48	6486
2026-01-26 13:07:49.88	126.19	18.05	-37.8	-38.7	23.3	0.00e+00	0	28	0	1000341504	48	6228
2026-01-26 13:07:50.89	126.38	17.98	-37.4	-38.3	23.7	0.00e+00	0	28	0	1002438656	48	5959
2026-01-26 13:07:51.90	126.57	17.90	-37.2	-38.1	23.8	0.00e+00	0	28	0	1003487232	48	5790
2026-01-26 13:07:52.91	126.76	17.83	-37.2	-38.1	23.8	0.00e+00	0	28	0	1005584384	48	5770
2026-01-26 13:07:53.92	126.95	17.76	-37.3	-38.2	23.8	0.00e+00	90	28	0	1007681536	48	5863
2026-01-26 13:07:54.93	127.13	17.68	-37.6	-38.5	23.4	0.00e+00	0	28	0	1009778688	48	6097
2026-01-26 13:07:55.94	127.32	17.61	-37.8	-38.7	23.4	0.00e+00	92	28	0	1011875840	48	6240
2026-01-26 13:07:56.95	127.50	17.54	-37.7	-38.7	23.4	0.00e+00	0	28	0	1012924416	48	6197
2026-01-26 13:07:57.96	127.69	17.46	-37.6	-38.5	23.6	0.00e+00	0	28	0	1015021568	48	6078
2026-01-26 13:07:58.96	127.87	17.39	-37.4	-38.3	23.7	0.00e+00	0	28	0	1017118720	48	5922
2026-01-26 13:07:59.97	128.05	17.32	-36.9	-37.8	24.0	0.00e+00	0	28	0	1019215872	48	5596
2026-01-26 13:08:00.98	128.23	17.24	-36.7	-37.6	24.2	0.00e+00	22	28	0	1021313024	46	6104
2026-01-26 13:08:01.99	128.41	17.17	-36.8	-37.7	24.0	0.00e+00	0	28	0	1022361600	46	6184
2026-01-26 13:08:03.00	128.59	17.09	-37.0	-37.9	23.9	0.00e+00	92	28	0	1024458752	46	6339
2026-01-26 13:08:04.01	128.77	17.02	-37.4	-38.3	23.7	0.00e+00	0	28	0	1026555904	46	6617
2026-01-26 13:08:05.02	128.95	16.95	-37.7	-38.7	23.2	0.00e+00	0	28	0	1028653056	48	6190
2026-01-26 13:08:06.02	129.12	16.87	-38.2	-39.1	22.8	0.00e+00	0	28	0	1030750208	48	6531
2026-01-26 13:08:07.03	129.30	16.80	-38.5	-39.5	22.7	0.00e+00	0	28	0	1031798784	48	6824
2026-01-26 13:08:08.04	129.47	16.72	-38.2	-39.3	22.9	0.00e+00	77	28	0	1033895936	48	6627
2026-01-26 13:08:09.05	129.65	16.65	-38.0	-39.0	23.0	0.00e+00	0	28	0	1035993088	48	6398
2026-01-26 13:08:10.06	129.82	16.58	-37.8	-38.7	23.3	0.00e+00	89	28	0	1038090240	48	6220
2026-01-26 13:08:11.06	129.99	16.50	-37.6	-38.5	23.4	0.00e+00	0	28	0	1040187392	48	6035
2026-01-26 13:08:12.08	130.17	16.43	-37.4	-38.3	23.5	0.00e+00	0	28	0	1041235968	48	5939
2026-01-26 13:08:13.08	130.34	16.35	-37.3	-38.2	23.7	0.00e+00	0	28	0	1043333120	48	5894
2026-01-26 13:08:14.09	130.51	16.28	-37.2	-38.1	23.8	0.00e+00	0	28	0	1045430272	48	5801
2026-01-26 13:08:15.10	130.68	16.21	-37.2	-38.1	23.8	0.00e+00	48	28	0	1047527424	48	5785
2026-01-26 13:08:16.11	130.84	16.13	-37.3	-38.2	23.8	0.00e+00	0	28	0	1049624576	48	5883
2026-01-26 13:08:17.12	131.01	16.06	-37.3	-38.2	23.7	0.00e+00	92	28	0	1050673152	48	5852
2026-01-26 13:08:18.13	131.18	15.98	-37.2	-38.1	23.9	0.00e+00	0	28	0	1052770304	48	5787
2026-01-26 13:08:19.14	131.35	15.91	-37.1	-38.0	23.9	0.00e+00	83	28	0	1054867456	48	5731
2026-01-26 13:08:20.15	131.51	15.83	-37.0	-37.9	24.0	0.00e+00	16	28	0	1056964608	48	5660
2026-01-26 13:08:21.16	131.68	15.76	-36.8	-37.7	24.1	0.00e+00	0	28	0	1059061760	48	5504
2026-01-26 13:08:22.17	131.84	15.69	-37.0	-37.8	23.9	0.00e+00	4	28	0	1060110336	48	5608
2026-01-26 13:08:23.18	132.00	15.61	-37.2	-38.1	23.8	0.00e+00	19	28	0	1062207488	48	5775
2026-01-26 13:08:24.18	132.16	15.54	-37.7	-38.6	23.4	0.00e+00	92	28	0	1064304640	48	6120
2026-01-26 13:08:25.19	132.32	15.46	-38.4	-39.4	22.9	0.00e+00	0	28	0	1066401792	48	6706
2026-01-26 13:08:26.20	132.49	15.39	-38.7	-39.7	22.6	0.00e+00	92	28	0	1068498944	48	6965
2026-01-26 13:08:27.21	132.65	15.31	-39.2	-40.3	22.1	0.00e+00	20	28	0	1069547520	50	6685
2026-01-26 13:08:28.22	132.80	15.24	-39.4	-40.5	22.0	0.00e+00	0	28	0	1071644672	50	6781
2026-01-26 13:08:29.23	132.96	15.17	-39.4	-40.5	21.9	0.00e+00	0	28	0	1073741824	50	6803
2026-01-26 13:08:30.24	133.12	15.09	-39.3	-40.4	22.0	0.00e+00	0	28	0	1075838976	50	6741
2026-01-26 13:08:31.25	133.28	15.02	-38.9	-40.0	22.4	0.00e+00	90	28	0	1077936128	50	6417
2026-01-26 13:08:32.26	133.43	14.94	-38.8	-39.8	22.5	0.00e+00	0	28	0	1078984704	50	6307
2026-01-26 13:08:33.27	133.59	14.87	-38.2	-39.2	22.9	0.00e+00	92	28	0	1081081856	50	5867
2026-01-26 13:08:34.28	133.74	14.80	-38.0	-38.9	23.1	0.00e+00	0	28	0	1083179008	50	5683
2026-01-26 13:08:35.29	133.90	14.72	-37.8	-38.7	23.4	0.00e+00	0	28	0	1085276160	50	5539
2026-01-26 13:08:36.29	134.05	14.65	-37.5	-38.4	23.5	0.00e+00	0	28	0	1087373312	48	6023
2026-01-26 13:08:37.30	134.20	14.57	-37.4	-38.2	23.7	0.00e+00	0	28	0	1088421888	48	5896
2026-01-26 13:08:38.31	134.35	14.50	-37.3	-38.2	23.7	0.00e+00	75	28	0	1090519040	48	5878
2026-01-26 13:08:39.32	134.50	14.43	-37.2	-38.0	23.8	0.00e+00	0	28	0	1092616192	48	5752
2026-01-26 13:08:40.33	134.65	14.35	-37.2	-38.1	23.9	0.00e+00	90	28	0	1094713344	48	5768
2026-01-26 13:08:41.34	134.80	14.28	-37.0	-37.9	23.9	0.00e+00	0	28	0	1096810496	48	5636
2026-01-26 13:08:42.35	134.95	14.21	-37.0	-37.9	24.0	0.00e+00	0	28	0	1098907648	48	5637
2026-01-26 13:08:43.36	135.10	14.13	-36.8	-37.6	24.1	0.00e+00	0	28	0	1099956224	46	6155
2026-01-26 13:08:44.37	135.25	14.06	-36.9	-37.7	23.9	0.00e+00	0	28	0	1102053376	46	6237
2026-01-26 13:08:45.38	135.40	13.98	-37.0	-37.9	23.9	0.00e+00	8	28	0	1104150528	46	6340
2026-01-26 13:08:46.39	135.54	13.91	-37.4	-38.2	23.2	0.00e+00	0	28	0	1106247680	46	6596
2026-01-26 13:08:47.39	135.69	13.84	-37.6	-38.5	23.4	0.00e+00	70	28	0	1108344832	46	6839
2026-01-26 13:08:48.40	135.83	13.77	-37.8	-38.7	23.2	0.00e+00	0	28	0	1109393408	48	6228
2026-01-26 13:08:49.41	135.97	13.69	-38.2	-39.1	22.9	0.00e+00	61	28	0	1111490560	48	6512
2026-01-26 13:08:50.42	136.12	13.62	-38.3	-39.3	22.7	0.00e+00	0	28	0	1113587712	48	6656
2026-01-26 13:08:51.43	136.26	13.55	-38.6	-39.6	22.4	0.00e+00	0	28	0	1115684864	48	6912
2026-01-26 13:08:52.44	136.40	13.47	-39.0	-40.0	21.7	0.00e+00	6	28	0	1117782016	50	6452
2026-01-26 13:08:53.45	136.54	13.40	-39.1	-40.1	21.9	0.00e+00	0	28	0	1118830592	50	6507
2026-01-26 13:08:54.46	136.68	13.33	-38.9	-39.9	22.3	0.00e+00	45	27	0	1120927744	50	6349
2026-01-26 13:08:55.47	136.82	13.25	-38.9	-40.0	22.2	0.00e+00	0	27	0	1123024896	50	6427
2026-01-26 13:08:56.48	136.96	13.18	-38.6	-39.6	22.6	0.00e+00	0	28	0	1125122048	50	6157
2026-01-26 13:08:57.49	137.10	13.11	-38.6	-39.6	22.5	0.00e+00	0	28	0	1127219200	50	6156
2026-01-26 13:08:58.50	137.24	13.03	-38.4	-39.4	22.7	0.00e+00	0	28	0	1128267776	50	6021
2026-01-26 13:08:59.51	137.38	12.96	-38.5	-39.5	22.7	0.00e+00	9	28	0	1130364928	50	6075
2026-01-26 13:09:00.52	137.51	12.89	-38.2	-39.2	22.9	0.00e+00	0	28	0	1132462080	50	5867
2026-01-26 13:09:01.52	137.65	12.82	-38.1	-39.1	23.0	0.00e+00	92	28	0	1134559232	50	5796
2026-01-26 13:09:02.53	137.78	12.74	-38.3	-39.3	22.8	0.00e+00	0	28	0	1136656384	50	5919
2026-01-26 13:09:03.54	137.92	12.67	-38.2	-39.2	22.9	0.00e+00	91	28	0	1137704960	50	5876
2026-01-26 13:09:04.55	138.05	12.60	-38.1	-39.1	23.0	0.00e+00	0	28	0	1139802112	50	5784
2026-01-26 13:09:05.56	138.18	12.53	-38.1	-39.1	23.0	0.00e+00	0	27	0	1141899264	50	5782
2026-01-26 13:09:06.57	138.32	12.46	-38.2	-39.1	22.9	0.00e+00	0	28	0	1143996416	50	5824
2026-01-26 13:09:07.58	138.45	12.38	-38.3	-39.3	22.8	0.00e+00	0	28	0	1146093568	50	5931
2026-01-26 13:09:08.59	138.58	12.31	-38.4	-39.4	22.7	0.00e+00	21	27	0	1147142144	50	5992
2026-01-26 13:09:09.60	138.71	12.24	-38.3	-39.3	22.9	0.00e+00	0	27	0	1149239296	50	5910
2026-01-26 13:09:10.61	138.84	12.17	-38.4	-39.4	22.7	0.00e+00	92	28	0	1151336448	50	5976
2026-01-26 13:09:11.62	138.97	12.10	-38.2	-39.1	22.9	0.00e+00	0	27	0	1153433600	50	5803
2026-01-26 13:09:12.63	139.10	12.02	-38.2	-39.1	22.9	0.00e+00	0	27	0	1155530752	50	5820
2026-01-26 13:09:13.64	139.23	11.95	-38.6	-39.5	22.4	0.00e+00	0	27	0	1156579328	50	6096
2026-01-26 13:09:14.65	139.36	11.88	-38.8	-39.8	22.3	0.00e+00	0	27	0	1158676480	50	6271
2026-01-26 13:09:15.66	139.48	11.81	-39.0	-40.1	22.0	0.00e+00	10	27	0	1160773632	50	6469
2026-01-26 13:09:16.67	139.61	11.74	-39.3	-40.4	21.7	0.00e+00	0	27	0	1162870784	50	6761
2026-01-26 13:09:17.68	139.74	11.67	-39.6	-40.8	21.3	0.00e+00	92	28	0	1164967936	50	7030
2026-01-26 13:09:18.69	139.86	11.60	-40.1	-41.4	20.6	0.00e+00	0	27	0	1167065088	52	6709
2026-01-26 13:09:19.70	139.99	11.52	-40.5	-41.8	20.2	0.00e+00	0	27	0	1168113664	52	7029
2026-01-26 13:09:20.70	140.11	11.45	-40.7	-42.1	19.8	0.00e+00	0	27	0	1170210816	52	7284
2026-01-26 13:09:21.71	140.23	11.38	-41.2	-42.8	19.1	0.00e+00	0	27	0	1172307968	54	7060
2026-01-26 13:09:22.72	140.36	11.31	-41.4	-43.0	18.9	0.00e+00	25	27	0	1174405120	54	7228
2026-01-26 13:09:23.73	140.48	11.24	-42.0	-43.9	18.0	0.00e+00	0	27	0	1176502272	56	7122
2026-01-26 13:09:24.74	140.60	11.17	-42.4	-44.4	17.5	0.00e+00	90	27	0	1177550848	56	7524
2026-01-26 13:09:25.75	140.72	11.10	-42.1	-44.0	17.8	0.00e+00	0	27	0	1179648000	56	7204
2026-01-26 13:09:26.76	140.84	11.03	-42.2	-44.1	17.6	0.00e+00	90	27	0	1181745152	56	7323
2026-01-26 13:09:27.77	140.96	10.96	-42.2	-44.2	17.4	0.00e+00	0	27	0	1183842304	56	7366
2026-01-26 13:09:28.78	141.08	10.89	-42.1	-44.0	17.7	0.00e+00	0	27	0	1185939456	56	7223
2026-01-26 13:09:29.79	141.20	10.82	-42.0	-43.9	17.9	0.00e+00	8	27	0	1186988032	56	7099
2026-01-26 13:09:30.79	141.32	10.75	-41.5	-43.2	18.6	0.00e+00	0	27	0	1189085184	56	6584
2026-01-26 13:09:31.80	141.44	10.68	-41.4	-43.0	18.6	0.00e+00	79	27	0	1191182336	56	6462
2026-01-26 13:09:32.81	141.56	10.61	-41.2	-42.7	18.9	0.00e+00	0	27	0	1193279488	56	6226
2026-01-26 13:09:33.82	141.67	10.54	-40.9	-42.3	19.5	0.00e+00	90	27	0	1195376640	56	5962
2026-01-26 13:09:34.83	141.79	10.47	-40.8	-42.3	19.5	0.00e+00	0	27	0	1196425216	54	6643
2026-01-26 13:09:35.84	141.91	10.40	-40.5	-41.9	19.9	0.00e+00	0	28	0	1198522368	54	6365
2026-01-26 13:09:36.85	142.02	10.33	-40.6	-42.0	19.7	0.00e+00	0	27	0	1200619520	54	6416
2026-01-26 13:09:37.86	142.14	10.26	-40.3	-41.6	20.2	0.00e+00	0	27	0	1202716672	54	6123
2026-01-26 13:09:38.87	142.25	10.19	-40.2	-41.5	20.4	0.00e+00	12	27	0	1204813824	54	6100
2026-01-26 13:09:39.88	142.37	10.12	-40.2	-41.5	20.4	0.00e+00	0	27	0	1205862400	54	6042
2026-01-26 13:09:40.89	142.48	10.05	-39.9	-41.1	20.6	0.00e+00	92	27	0	1207959552	54	5826
2026-01-26 13:09:41.90	142.59	9.98	-39.6	-40.8	21.1	0.00e+00	0	28	0	1210056704	52	6278
