passes_logs/2026/01/26/R4.6S_Anadyr/R4.6S_Anadyr__20260126_225407_SUOMI_NPP_rec.log

#Pass ID: 20260126_225407_SUOMI NPP
#Satellite: SUOMI NPP
#Configuration: NPP
#almurnet v.1.7.20251203
#Start time: 2026-01-26 22:54:10

#Version: 2.2.20231116
#Station: R4.6S_Anadyr
#Location: 177.4865 lon 64.73178 lat
#TLE: 1 37849U 11061A   26026.52266023  .00000173  00000+0  10323-3 0  9994
#TLE: 2 37849  98.7822 328.4727 0002140  43.9411 316.1934 14.19530258738341

#Time	Az	El	Level	Level2	SNR	BER	BlckErr	Temp	State	Recorded	gain1	gain2
2026-01-26 22:54:10.79	122.20	0.19	-49.7	-63.5	3.3	1.54e+00	0	27	0	0	60	53803
2026-01-26 22:54:11.79	122.16	0.25	-49.3	-64.5	3.6	1.51e+00	0	27	104	0	60	60718
2026-01-26 22:54:12.80	122.13	0.31	-49.3	-64.5	3.6	1.51e+00	0	27	104	0	60	60629
2026-01-26 22:54:13.81	122.09	0.37	-49.3	-64.4	3.6	1.51e+00	0	27	104	0	60	60317
2026-01-26 22:54:14.82	122.06	0.43	-49.3	-64.5	3.6	1.51e+00	0	27	104	0	60	60817
2026-01-26 22:54:15.83	122.03	0.49	-49.2	-64.5	3.6	1.51e+00	0	27	104	0	60	60388
2026-01-26 22:54:16.84	121.99	0.55	-49.2	-64.5	3.6	1.51e+00	0	27	104	0	60	60748
2026-01-26 22:54:17.85	121.96	0.61	-49.3	-64.5	3.6	1.51e+00	0	28	104	0	60	60805
2026-01-26 22:54:18.86	121.92	0.67	-49.3	-64.5	3.6	1.51e+00	0	28	104	0	60	60648
2026-01-26 22:54:19.87	121.88	0.73	-49.2	-64.4	3.6	1.51e+00	0	28	104	0	60	60319
2026-01-26 22:54:20.88	121.85	0.79	-49.3	-64.5	3.6	1.51e+00	0	28	104	0	60	60561
2026-01-26 22:54:21.89	121.81	0.85	-49.3	-64.4	3.6	1.51e+00	0	28	104	0	60	60273
2026-01-26 22:54:22.90	121.78	0.91	-49.3	-64.5	3.6	1.51e+00	0	28	104	0	60	60431
2026-01-26 22:54:23.90	121.74	0.97	-49.2	-64.4	3.6	1.51e+00	0	27	104	0	60	60200
2026-01-26 22:54:24.91	121.71	1.03	-49.1	-64.3	3.6	1.51e+00	0	28	104	0	60	59080
2026-01-26 22:54:25.92	121.67	1.09	-49.0	-64.2	3.6	1.51e+00	0	28	104	0	60	58853
2026-01-26 22:54:26.93	121.63	1.15	-49.0	-64.2	3.6	1.51e+00	0	28	104	0	60	58824
2026-01-26 22:54:27.94	121.60	1.21	-48.6	-64.2	3.6	1.51e+00	0	28	104	0	60	58357
2026-01-26 22:54:28.95	121.56	1.27	-48.9	-64.0	3.6	1.51e+00	0	28	104	0	60	57275
2026-01-26 22:54:29.96	121.52	1.33	-48.7	-64.0	3.6	1.51e+00	0	28	104	0	60	57490
2026-01-26 22:54:30.97	121.49	1.39	-48.6	-63.9	3.6	1.51e+00	0	28	104	0	60	56686
2026-01-26 22:54:31.98	121.45	1.45	-48.5	-63.7	3.6	1.51e+00	0	27	104	0	60	55512
2026-01-26 22:54:32.99	121.41	1.51	-48.2	-63.5	3.6	1.51e+00	0	28	104	0	60	53960
2026-01-26 22:54:34.00	121.37	1.58	-47.2	-63.0	3.6	1.51e+00	0	28	104	0	60	50915
2026-01-26 22:54:35.01	121.34	1.64	-47.3	-62.9	3.6	1.51e+00	0	28	104	0	60	50742
2026-01-26 22:54:36.02	121.30	1.70	-47.3	-63.0	3.6	1.51e+00	0	28	104	0	60	50870
2026-01-26 22:54:37.03	121.26	1.76	-47.3	-62.9	3.6	1.51e+00	0	28	104	0	60	50689
2026-01-26 22:54:38.04	121.22	1.82	-47.2	-63.0	3.6	1.51e+00	0	28	104	0	60	50805
2026-01-26 22:54:39.05	121.18	1.88	-47.2	-62.9	3.6	1.51e+00	0	28	104	0	60	50583
2026-01-26 22:54:40.06	121.14	1.95	-47.3	-63.0	3.6	1.51e+00	0	28	104	0	60	50858
2026-01-26 22:54:41.07	121.10	2.01	-47.2	-63.0	3.6	1.51e+00	0	28	104	0	60	50878
2026-01-26 22:54:42.08	121.07	2.07	-47.3	-62.9	3.6	1.51e+00	0	28	104	0	60	50565
2026-01-26 22:54:43.09	121.03	2.13	-47.3	-62.9	3.6	1.51e+00	0	28	104	0	60	50590
2026-01-26 22:54:44.10	120.99	2.20	-47.2	-62.9	3.6	1.51e+00	0	28	104	0	60	50611
2026-01-26 22:54:45.11	120.95	2.26	-47.2	-62.9	3.6	1.51e+00	0	28	104	0	60	50400
2026-01-26 22:54:46.12	120.91	2.32	-47.2	-62.9	3.6	1.51e+00	0	28	104	0	60	50528
2026-01-26 22:54:47.13	120.87	2.39	-47.1	-62.9	3.6	1.51e+00	0	28	104	0	60	50392
2026-01-26 22:54:48.14	120.83	2.45	-47.1	-62.9	3.6	1.51e+00	0	28	104	0	60	50596
2026-01-26 22:54:49.15	120.79	2.51	-47.1	-62.9	3.6	1.51e+00	0	28	104	0	60	50684
2026-01-26 22:54:50.16	120.75	2.57	-47.1	-63.0	3.6	1.51e+00	0	28	104	0	60	50863
2026-01-26 22:54:51.17	120.71	2.64	-47.1	-62.9	3.6	1.51e+00	0	28	104	0	60	50607
2026-01-26 22:54:52.18	120.67	2.70	-47.2	-63.0	3.6	1.51e+00	0	28	104	0	60	51031
2026-01-26 22:54:53.19	120.62	2.77	-47.1	-62.9	3.6	1.51e+00	0	28	104	0	60	50513
2026-01-26 22:54:54.19	120.58	2.83	-47.1	-62.8	3.6	1.51e+00	0	28	104	0	60	49904
2026-01-26 22:54:55.20	120.54	2.89	-47.2	-62.8	3.6	1.51e+00	0	28	104	0	60	49855
2026-01-26 22:54:56.21	120.50	2.96	-47.1	-62.5	3.6	1.51e+00	0	28	104	0	60	48066
2026-01-26 22:54:57.22	120.46	3.02	-47.1	-62.7	3.6	1.51e+00	0	28	104	0	60	49197
2026-01-26 22:54:58.23	120.42	3.09	-47.1	-62.8	3.6	1.51e+00	0	28	104	0	60	50009
2026-01-26 22:54:59.24	120.37	3.15	-47.1	-62.1	3.6	1.51e+00	0	28	104	0	60	45962
2026-01-26 22:55:00.25	120.33	3.22	-47.0	-59.6	3.8	1.50e+00	0	28	104	0	60	34571
2026-01-26 22:55:01.26	120.29	3.28	-46.5	-54.8	7.6	7.65e-01	0	28	0	0	60	19835
2026-01-26 22:55:02.27	120.25	3.34	-46.0	-52.1	9.1	1.45e-02	0	28	0	1048576	60	14528
2026-01-26 22:55:03.28	120.20	3.41	-45.2	-49.6	12.2	4.81e-03	0	28	0	3145728	60	10922
2026-01-26 22:55:04.29	120.16	3.48	-44.5	-48.2	13.6	3.66e-05	0	28	0	5242880	60	9273
2026-01-26 22:55:05.31	120.12	3.54	-43.4	-46.2	15.7	0.00e+00	0	28	0	7340032	60	7399
2026-01-26 22:55:06.32	120.07	3.61	-44.6	-48.5	13.1	0.00e+00	0	28	0	9437184	60	9566
2026-01-26 22:55:07.32	120.03	3.67	-47.8	-62.7	3.6	1.51e+00	0	28	104	9437184	60	49187
2026-01-26 22:55:08.33	119.99	3.74	-45.9	-51.7	5.5	1.51e+00	0	28	104	9437184	60	13856
2026-01-26 22:55:09.34	119.94	3.80	-43.9	-47.3	15.1	3.00e-06	0	28	104	9437184	60	8377
2026-01-26 22:55:10.36	119.90	3.87	-42.2	-44.5	17.1	0.00e+00	0	28	0	10485760	58	6844
2026-01-26 22:55:11.37	119.85	3.94	-47.4	-58.6	4.3	1.03e+00	0	28	104	11534336	60	30716
2026-01-26 22:55:12.38	119.81	4.00	-42.9	-45.5	16.0	3.67e-01	0	28	104	11534336	60	6799
2026-01-26 22:55:13.39	119.76	4.07	-42.3	-44.6	17.3	0.00e+00	0	28	0	12582912	58	6870
2026-01-26 22:55:14.40	119.72	4.14	-41.8	-43.8	18.1	0.00e+00	0	28	0	14680064	56	7034
2026-01-26 22:55:15.41	119.67	4.20	-41.5	-43.3	18.6	0.00e+00	0	28	0	15728640	56	6633
2026-01-26 22:55:16.42	119.62	4.27	-41.3	-43.0	18.9	0.00e+00	0	28	0	17825792	56	6432
2026-01-26 22:55:17.43	119.58	4.34	-41.1	-42.7	19.3	0.00e+00	0	28	0	19922944	56	6187
2026-01-26 22:55:18.44	119.53	4.40	-41.2	-42.8	19.1	0.00e+00	0	28	0	22020096	56	6264
2026-01-26 22:55:19.45	119.49	4.47	-41.4	-42.9	19.2	0.00e+00	0	28	0	24117248	56	6363
2026-01-26 22:55:20.46	119.44	4.54	-41.6	-43.3	18.7	0.00e+00	0	28	0	25165824	56	6634
2026-01-26 22:55:21.47	119.39	4.61	-41.5	-43.1	18.9	0.00e+00	0	28	0	27262976	56	6508
2026-01-26 22:55:22.48	119.35	4.67	-41.8	-43.5	18.5	0.00e+00	0	28	0	29360128	56	6824
2026-01-26 22:55:23.49	119.30	4.74	-41.6	-43.2	18.8	0.00e+00	0	28	0	31457280	56	6594
2026-01-26 22:55:24.50	119.25	4.81	-41.6	-43.2	18.7	0.00e+00	0	28	0	33554432	56	6583
2026-01-26 22:55:25.51	119.20	4.88	-41.9	-43.7	18.4	0.00e+00	0	28	0	34603008	56	6949
2026-01-26 22:55:26.52	119.15	4.95	-41.6	-43.2	18.8	0.00e+00	0	28	0	36700160	56	6596
2026-01-26 22:55:27.53	119.11	5.02	-41.3	-42.8	19.2	0.00e+00	0	28	0	38797312	56	6280
2026-01-26 22:55:28.54	119.06	5.09	-41.2	-42.7	19.3	0.00e+00	0	28	0	40894464	56	6176
2026-01-26 22:55:29.55	119.01	5.15	-40.9	-42.4	19.6	0.00e+00	0	28	0	42991616	56	5985
2026-01-26 22:55:30.55	118.96	5.22	-41.0	-42.4	19.6	0.00e+00	0	28	0	44040192	56	6015
2026-01-26 22:55:31.56	118.91	5.29	-40.9	-42.4	19.6	0.00e+00	0	28	0	46137344	56	5979
2026-01-26 22:55:32.57	118.86	5.36	-41.0	-42.4	19.7	0.00e+00	0	28	0	48234496	56	6031
2026-01-26 22:55:33.58	118.81	5.43	-40.8	-42.2	19.9	0.00e+00	0	28	0	50331648	56	5882
2026-01-26 22:55:34.59	118.76	5.50	-41.4	-43.1	18.9	0.00e+00	0	28	0	52428800	54	7271
2026-01-26 22:55:35.60	118.71	5.57	-41.4	-43.1	18.9	0.00e+00	0	28	0	53477376	54	7276
2026-01-26 22:55:36.61	118.66	5.64	-41.9	-43.7	18.6	0.00e+00	0	28	0	55574528	56	6951
2026-01-26 22:55:37.62	118.61	5.71	-41.9	-43.6	18.5	0.00e+00	0	28	0	57671680	56	6924
2026-01-26 22:55:38.63	118.56	5.78	-41.9	-43.6	18.4	0.00e+00	0	28	0	59768832	56	6911
2026-01-26 22:55:39.64	118.51	5.85	-41.9	-43.5	18.6	0.00e+00	0	28	0	61865984	56	6835
2026-01-26 22:55:40.65	118.46	5.92	-41.7	-43.4	18.8	0.00e+00	0	28	0	63963136	56	6697
2026-01-26 22:55:41.66	118.40	5.99	-41.6	-43.2	19.0	0.00e+00	0	28	0	65011712	56	6553
2026-01-26 22:55:42.67	118.35	6.06	-41.7	-43.3	18.9	0.00e+00	0	28	0	67108864	56	6650
2026-01-26 22:55:43.68	118.30	6.14	-41.0	-42.4	19.7	0.00e+00	0	28	0	69206016	56	6024
2026-01-26 22:55:44.69	118.25	6.21	-41.0	-42.4	19.7	0.00e+00	0	28	0	71303168	56	6018
2026-01-26 22:55:45.70	118.19	6.28	-41.0	-42.4	19.7	0.00e+00	0	28	0	73400320	56	6023
2026-01-26 22:55:46.71	118.14	6.35	-41.0	-42.5	19.7	0.00e+00	0	28	0	74448896	56	6049
2026-01-26 22:55:47.72	118.09	6.42	-41.1	-42.6	19.6	0.00e+00	0	28	0	76546048	56	6157
2026-01-26 22:55:48.73	118.03	6.49	-41.2	-42.8	19.4	0.00e+00	0	28	0	78643200	56	6260
2026-01-26 22:55:49.74	117.98	6.57	-41.7	-43.4	18.8	0.00e+00	0	28	0	80740352	56	6740
2026-01-26 22:55:50.75	117.92	6.64	-41.6	-43.2	19.1	0.00e+00	0	28	0	82837504	56	6599
2026-01-26 22:55:51.76	117.87	6.71	-41.3	-42.9	19.3	0.00e+00	0	28	0	83886080	56	6363
2026-01-26 22:55:52.77	117.82	6.78	-41.2	-42.8	19.3	0.00e+00	0	28	0	85983232	56	6255
2026-01-26 22:55:53.78	117.76	6.86	-41.0	-42.5	19.8	0.00e+00	0	28	0	88080384	56	6064
2026-01-26 22:55:54.79	117.70	6.93	-40.8	-42.2	20.0	0.00e+00	0	28	0	90177536	54	6554
2026-01-26 22:55:55.80	117.65	7.00	-40.7	-42.1	20.0	0.00e+00	0	28	0	92274688	54	6488
2026-01-26 22:55:56.81	117.59	7.08	-40.4	-41.7	20.4	0.00e+00	0	28	0	93323264	54	6237
2026-01-26 22:55:57.82	117.54	7.15	-40.2	-41.4	20.7	0.00e+00	0	28	0	95420416	54	6007
2026-01-26 22:55:58.83	117.48	7.23	-40.3	-41.6	20.5	0.00e+00	0	28	0	97517568	54	6131
2026-01-26 22:55:59.84	117.42	7.30	-40.2	-41.4	20.7	0.00e+00	0	28	0	99614720	54	6030
2026-01-26 22:56:00.85	117.37	7.37	-40.3	-41.6	20.4	0.00e+00	0	28	0	101711872	54	6141
2026-01-26 22:56:01.86	117.31	7.45	-40.7	-42.1	20.0	0.00e+00	0	28	0	102760448	54	6506
2026-01-26 22:56:02.87	117.25	7.52	-40.9	-42.4	19.8	0.00e+00	0	28	0	104857600	54	6732
2026-01-26 22:56:03.88	117.19	7.60	-40.8	-42.3	20.0	0.00e+00	0	28	0	106954752	54	6630
2026-01-26 22:56:04.89	117.13	7.67	-40.9	-42.5	19.7	0.00e+00	0	28	0	109051904	54	6804
2026-01-26 22:56:05.89	117.07	7.75	-40.7	-42.2	20.0	0.00e+00	0	28	0	111149056	54	6603
2026-01-26 22:56:06.91	117.01	7.82	-40.4	-41.8	20.3	0.00e+00	0	28	0	112197632	54	6304
2026-01-26 22:56:07.92	116.96	7.90	-40.4	-41.7	20.3	0.00e+00	0	28	0	114294784	54	6240
2026-01-26 22:56:08.92	116.90	7.97	-40.4	-41.7	20.4	0.00e+00	0	28	0	116391936	54	6237
2026-01-26 22:56:09.93	116.84	8.05	-39.9	-41.1	21.0	0.00e+00	0	28	0	118489088	54	5793
2026-01-26 22:56:10.94	116.78	8.13	-39.8	-41.0	21.2	0.00e+00	0	28	0	120586240	52	6416
2026-01-26 22:56:11.95	116.71	8.20	-39.7	-40.8	21.2	0.00e+00	0	28	0	122683392	52	6316
2026-01-26 22:56:12.96	116.65	8.28	-39.5	-40.7	21.4	0.00e+00	0	28	0	123731968	52	6205
2026-01-26 22:56:13.97	116.59	8.36	-39.6	-40.8	21.3	0.00e+00	0	28	0	125829120	52	6267
2026-01-26 22:56:14.98	116.53	8.43	-39.7	-40.9	21.3	0.00e+00	0	28	0	127926272	52	6318
2026-01-26 22:56:15.99	116.47	8.51	-39.9	-41.2	21.0	0.00e+00	0	28	0	130023424	52	6550
2026-01-26 22:56:17.00	116.41	8.59	-40.2	-41.6	20.6	0.00e+00	0	28	0	132120576	52	6877
2026-01-26 22:56:18.01	116.34	8.67	-40.3	-41.6	20.6	0.00e+00	0	28	0	133169152	52	6917
2026-01-26 22:56:19.02	116.28	8.74	-40.1	-41.5	20.8	0.00e+00	0	28	0	135266304	52	6770
2026-01-26 22:56:20.03	116.22	8.82	-40.0	-41.4	20.7	0.00e+00	0	28	0	137363456	52	6731
2026-01-26 22:56:21.04	116.15	8.90	-39.7	-41.0	21.1	0.00e+00	0	28	0	139460608	52	6406
2026-01-26 22:56:22.05	116.09	8.98	-39.4	-40.6	21.5	0.00e+00	0	28	0	140509184	52	6156
2026-01-26 22:56:23.06	116.02	9.06	-39.5	-40.7	21.4	0.00e+00	0	28	0	142606336	52	6218
2026-01-26 22:56:24.07	115.96	9.14	-39.5	-40.6	21.5	0.00e+00	0	28	0	144703488	52	6163
2026-01-26 22:56:25.08	115.89	9.22	-39.8	-41.0	21.2	0.00e+00	0	28	0	146800640	52	6400
2026-01-26 22:56:26.08	115.83	9.29	-39.7	-40.8	21.3	0.00e+00	0	28	0	148897792	52	6316
2026-01-26 22:56:27.09	115.76	9.37	-39.6	-40.8	21.4	0.00e+00	0	28	0	150994944	52	6280
2026-01-26 22:56:28.10	115.69	9.45	-39.7	-40.8	21.4	0.00e+00	0	28	0	152043520	52	6289
2026-01-26 22:56:29.11	115.63	9.53	-39.6	-40.7	21.4	0.00e+00	0	28	0	154140672	52	6229
2026-01-26 22:56:30.12	115.56	9.61	-39.6	-40.8	21.3	0.00e+00	0	28	0	156237824	52	6280
2026-01-26 22:56:31.13	115.49	9.69	-39.6	-40.8	21.4	0.00e+00	0	28	0	158334976	52	6258
2026-01-26 22:56:32.14	115.42	9.78	-39.6	-40.7	21.4	0.00e+00	0	28	0	160432128	52	6231
2026-01-26 22:56:33.15	115.36	9.86	-39.8	-40.9	21.4	0.00e+00	0	28	0	161480704	52	6383
2026-01-26 22:56:34.16	115.29	9.94	-39.6	-40.7	21.3	0.00e+00	0	28	0	163577856	52	6243
2026-01-26 22:56:35.17	115.22	10.02	-39.3	-40.4	21.7	0.00e+00	0	28	0	165675008	52	6016
2026-01-26 22:56:36.18	115.15	10.10	-39.3	-40.4	21.8	0.00e+00	0	28	0	167772160	52	5992
2026-01-26 22:56:37.19	115.08	10.18	-39.1	-40.2	21.9	0.00e+00	0	28	0	169869312	52	5858
2026-01-26 22:56:38.20	115.01	10.26	-39.2	-40.3	21.7	0.00e+00	0	28	0	170917888	52	5953
2026-01-26 22:56:39.21	114.94	10.35	-39.5	-40.7	21.5	0.00e+00	0	28	0	173015040	52	6177
2026-01-26 22:56:40.22	114.87	10.43	-39.7	-40.9	21.3	0.00e+00	0	28	0	175112192	52	6380
2026-01-26 22:56:41.23	114.79	10.51	-39.8	-41.1	21.1	0.00e+00	0	28	0	177209344	52	6477
2026-01-26 22:56:42.24	114.72	10.59	-39.8	-41.1	21.3	0.00e+00	0	28	0	179306496	52	6508
2026-01-26 22:56:43.25	114.65	10.68	-40.3	-41.7	20.7	0.00e+00	0	28	0	180355072	52	6947
2026-01-26 22:56:44.26	114.58	10.76	-39.9	-41.2	21.1	0.00e+00	0	28	0	182452224	52	6571
2026-01-26 22:56:45.28	114.50	10.85	-39.7	-41.0	21.2	0.00e+00	0	28	0	184549376	52	6391
2026-01-26 22:56:46.29	114.43	10.93	-39.8	-41.0	21.2	0.00e+00	0	28	0	186646528	52	6436
2026-01-26 22:56:47.30	114.35	11.01	-39.7	-40.9	21.3	0.00e+00	0	28	0	188743680	52	6353
2026-01-26 22:56:48.31	114.28	11.10	-39.4	-40.5	21.7	0.00e+00	0	28	0	189792256	52	6082
2026-01-26 22:56:49.32	114.20	11.18	-39.4	-40.6	21.6	0.00e+00	0	28	0	191889408	52	6131
2026-01-26 22:56:50.33	114.13	11.27	-39.1	-40.2	21.9	0.00e+00	0	28	0	193986560	52	5893
2026-01-26 22:56:51.34	114.05	11.35	-39.2	-40.4	21.8	0.00e+00	0	28	0	196083712	52	5999
2026-01-26 22:56:52.35	113.97	11.44	-39.5	-40.7	21.5	0.00e+00	0	28	0	198180864	52	6194
2026-01-26 22:56:53.36	113.90	11.52	-39.7	-40.9	21.3	0.00e+00	0	28	0	200278016	52	6335
2026-01-26 22:56:54.36	113.82	11.61	-39.6	-40.7	21.5	0.00e+00	0	28	0	201326592	52	6241
2026-01-26 22:56:55.37	113.74	11.69	-39.5	-40.6	21.6	0.00e+00	0	28	0	203423744	52	6152
2026-01-26 22:56:56.38	113.66	11.78	-39.5	-40.7	21.5	0.00e+00	0	28	0	205520896	52	6186
2026-01-26 22:56:57.39	113.59	11.87	-39.2	-40.3	21.9	0.00e+00	0	28	0	207618048	52	5917
2026-01-26 22:56:58.40	113.51	11.95	-38.6	-39.6	22.2	0.00e+00	0	28	0	209715200	50	6164
2026-01-26 22:56:59.41	113.43	12.04	-39.1	-40.2	22.0	0.00e+00	0	28	0	210763776	50	6570
2026-01-26 22:57:00.42	113.35	12.13	-39.0	-40.1	22.1	0.00e+00	0	28	0	212860928	50	6488
2026-01-26 22:57:01.43	113.26	12.22	-38.8	-39.9	22.1	0.00e+00	0	28	0	214958080	50	6375
2026-01-26 22:57:02.44	113.18	12.30	-38.6	-39.8	22.2	0.00e+00	0	28	0	217055232	50	6263
2026-01-26 22:57:03.45	113.10	12.39	-38.9	-40.1	22.2	0.00e+00	0	28	0	219152384	50	6488
2026-01-26 22:57:04.46	113.02	12.48	-39.0	-40.2	22.0	0.00e+00	0	28	0	220200960	50	6561
2026-01-26 22:57:05.46	112.94	12.57	-39.1	-40.2	21.9	0.00e+00	0	28	0	222298112	50	6565
2026-01-26 22:57:06.47	112.85	12.66	-38.7	-39.8	22.3	0.00e+00	0	28	0	224395264	50	6255
2026-01-26 22:57:07.48	112.77	12.75	-38.8	-39.8	22.3	0.00e+00	0	28	0	226492416	50	6263
2026-01-26 22:57:08.49	112.69	12.84	-38.6	-39.6	22.5	0.00e+00	0	28	0	228589568	50	6153
2026-01-26 22:57:09.50	112.60	12.93	-38.4	-39.4	22.7	0.00e+00	0	28	0	229638144	50	5996
2026-01-26 22:57:10.51	112.51	13.02	-38.4	-39.4	22.6	0.00e+00	0	28	0	231735296	50	6021
2026-01-26 22:57:11.52	112.43	13.11	-38.4	-39.4	22.6	0.00e+00	0	28	0	233832448	50	6024
2026-01-26 22:57:12.52	112.34	13.19	-38.7	-39.8	22.4	0.00e+00	0	28	0	235929600	50	6251
2026-01-26 22:57:13.53	112.26	13.29	-38.8	-39.9	22.2	0.00e+00	0	28	0	238026752	50	6344
2026-01-26 22:57:14.54	112.17	13.38	-38.7	-39.8	22.3	0.00e+00	0	28	0	239075328	50	6270
2026-01-26 22:57:15.55	112.08	13.47	-38.6	-39.7	22.3	0.00e+00	0	28	0	241172480	50	6238
2026-01-26 22:57:16.56	111.99	13.56	-38.5	-39.6	22.5	0.00e+00	0	28	0	243269632	50	6119
2026-01-26 22:57:17.57	111.90	13.65	-38.4	-39.4	22.5	0.00e+00	0	28	0	245366784	50	6026
2026-01-26 22:57:18.58	111.81	13.74	-38.4	-39.4	22.7	0.00e+00	0	28	0	247463936	50	5971
2026-01-26 22:57:19.59	111.72	13.84	-38.0	-38.9	23.2	0.00e+00	0	28	0	248512512	50	5658
2026-01-26 22:57:20.60	111.63	13.93	-38.2	-39.1	22.9	0.00e+00	0	28	0	250609664	50	5805
2026-01-26 22:57:21.61	111.54	14.02	-38.1	-39.0	23.0	0.00e+00	0	28	0	252706816	50	5740
2026-01-26 22:57:22.62	111.45	14.11	-38.1	-39.1	22.9	0.00e+00	0	28	0	254803968	50	5764
2026-01-26 22:57:23.63	111.35	14.21	-38.5	-39.5	22.6	0.00e+00	0	28	0	256901120	50	6042
2026-01-26 22:57:24.64	111.26	14.30	-38.6	-39.6	22.4	0.00e+00	0	28	0	257949696	50	6150
2026-01-26 22:57:25.65	111.16	14.40	-38.7	-39.7	22.4	0.00e+00	0	28	0	260046848	50	6186
2026-01-26 22:57:26.66	111.07	14.49	-38.7	-39.7	22.5	0.00e+00	0	28	0	262144000	50	6236
2026-01-26 22:57:27.67	110.97	14.59	-38.5	-39.5	22.7	0.00e+00	0	28	0	264241152	50	6051
2026-01-26 22:57:28.68	110.88	14.68	-39.0	-40.0	22.3	0.00e+00	0	28	0	266338304	50	6425
2026-01-26 22:57:29.69	110.78	14.78	-38.6	-39.6	22.6	0.00e+00	0	28	0	267386880	50	6134
2026-01-26 22:57:30.70	110.68	14.87	-38.8	-39.8	22.5	0.00e+00	0	28	0	269484032	50	6247
2026-01-26 22:57:31.71	110.59	14.97	-38.9	-39.9	22.2	0.00e+00	0	28	0	271581184	50	6352
2026-01-26 22:57:32.72	110.49	15.06	-39.1	-40.1	22.1	0.00e+00	0	28	0	273678336	50	6500
2026-01-26 22:57:33.73	110.39	15.16	-39.2	-40.3	21.9	0.00e+00	0	28	0	275775488	50	6670
2026-01-26 22:57:34.73	110.29	15.25	-39.5	-40.6	21.8	0.00e+00	0	28	0	276824064	50	6894
2026-01-26 22:57:35.74	110.19	15.35	-39.5	-40.6	21.6	0.00e+00	0	28	0	278921216	50	6909
2026-01-26 22:57:36.76	110.09	15.45	-39.4	-40.6	21.7	0.00e+00	0	28	0	281018368	52	6109
2026-01-26 22:57:37.77	109.98	15.55	-39.4	-40.5	21.9	0.00e+00	0	28	0	283115520	52	6103
2026-01-26 22:57:38.78	109.88	15.65	-39.3	-40.4	22.0	0.00e+00	0	28	0	285212672	52	5998
2026-01-26 22:57:39.78	109.78	15.74	-39.2	-40.3	22.1	0.00e+00	0	28	0	287309824	52	5902
2026-01-26 22:57:40.79	109.68	15.84	-39.1	-40.1	22.4	0.00e+00	0	28	0	288358400	52	5798
2026-01-26 22:57:41.80	109.57	15.94	-39.4	-40.5	21.9	0.00e+00	0	28	0	290455552	52	6039
2026-01-26 22:57:42.81	109.47	16.04	-39.3	-40.4	22.0	0.00e+00	0	28	0	292552704	52	6019
2026-01-26 22:57:43.82	109.36	16.14	-39.2	-40.3	22.0	0.00e+00	0	28	0	294649856	52	5964
2026-01-26 22:57:44.83	109.25	16.24	-39.1	-40.2	22.2	0.00e+00	0	28	0	296747008	52	5865
2026-01-26 22:57:45.84	109.15	16.34	-39.1	-40.2	22.2	0.00e+00	0	28	0	297795584	52	5839
2026-01-26 22:57:46.85	109.04	16.44	-38.7	-39.7	22.6	0.00e+00	0	28	0	299892736	52	5565
2026-01-26 22:57:47.86	108.93	16.54	-38.4	-39.4	22.7	0.00e+00	0	28	0	301989888	50	6009
2026-01-26 22:57:48.87	108.82	16.64	-38.1	-39.0	22.9	0.00e+00	0	28	0	304087040	50	5758
2026-01-26 22:57:49.88	108.71	16.74	-38.4	-39.4	22.7	0.00e+00	0	28	0	306184192	50	6003
2026-01-26 22:57:50.89	108.60	16.84	-38.2	-39.2	22.9	0.00e+00	0	28	0	307232768	50	5844
2026-01-26 22:57:51.90	108.48	16.94	-38.4	-39.3	22.6	0.00e+00	0	28	0	309329920	50	5953
2026-01-26 22:57:52.91	108.37	17.05	-38.4	-39.3	22.8	0.00e+00	0	28	0	311427072	50	5937
2026-01-26 22:57:53.92	108.26	17.15	-38.1	-39.0	23.1	0.00e+00	0	28	0	313524224	50	5713
2026-01-26 22:57:54.92	108.14	17.25	-38.0	-39.0	23.1	0.00e+00	0	28	0	315621376	50	5701
2026-01-26 22:57:55.93	108.03	17.35	-38.2	-39.1	22.9	0.00e+00	0	28	0	316669952	50	5789
2026-01-26 22:57:56.94	107.91	17.46	-38.0	-38.9	23.1	0.00e+00	0	28	0	318767104	50	5670
2026-01-26 22:57:57.95	107.80	17.56	-38.3	-39.2	22.9	0.00e+00	0	28	0	320864256	50	5838
2026-01-26 22:57:58.96	107.68	17.66	-38.5	-39.4	22.8	0.00e+00	0	28	0	322961408	50	5998
2026-01-26 22:57:59.97	107.56	17.77	-38.1	-39.0	23.0	0.00e+00	0	28	0	325058560	50	5734
2026-01-26 22:58:00.98	107.44	17.87	-38.0	-38.9	23.2	0.00e+00	0	28	0	326107136	50	5684
2026-01-26 22:58:01.99	107.32	17.98	-38.2	-39.1	23.1	0.00e+00	0	28	0	328204288	50	5805
2026-01-26 22:58:03.00	107.20	18.08	-38.4	-39.3	22.8	0.00e+00	0	28	0	330301440	50	5950
2026-01-26 22:58:04.01	107.08	18.19	-38.6	-39.6	22.7	0.00e+00	0	28	0	332398592	50	6145
2026-01-26 22:58:05.02	106.95	18.29	-39.0	-40.0	22.3	0.00e+00	0	28	0	334495744	50	6424
2026-01-26 22:58:06.03	106.83	18.40	-38.7	-39.7	22.5	0.00e+00	0	28	0	335544320	50	6219
2026-01-26 22:58:07.04	106.71	18.51	-38.6	-39.6	22.6	0.00e+00	0	28	0	337641472	50	6144
2026-01-26 22:58:08.05	106.58	18.61	-38.8	-39.8	22.6	0.00e+00	0	28	0	339738624	50	6287
2026-01-26 22:58:09.05	106.45	18.72	-38.4	-39.4	22.7	0.00e+00	0	28	0	341835776	50	6004
2026-01-26 22:58:10.06	106.33	18.83	-38.6	-39.6	22.7	0.00e+00	0	28	0	343932928	50	6117
2026-01-26 22:58:11.07	106.20	18.94	-38.6	-39.5	22.7	0.00e+00	0	28	0	344981504	50	6096
2026-01-26 22:58:12.08	106.07	19.04	-38.7	-39.7	22.6	0.00e+00	0	28	0	347078656	50	6204
2026-01-26 22:58:13.09	105.94	19.15	-38.8	-39.8	22.3	0.00e+00	0	28	0	349175808	50	6304
2026-01-26 22:58:14.10	105.81	19.26	-38.5	-39.5	22.6	0.00e+00	0	28	0	351272960	50	6063
2026-01-26 22:58:15.11	105.68	19.37	-38.6	-39.5	22.8	0.00e+00	0	28	0	353370112	50	6098
2026-01-26 22:58:16.12	105.54	19.48	-38.3	-39.2	23.0	0.00e+00	0	28	0	354418688	50	5867
2026-01-26 22:58:17.13	105.41	19.59	-38.5	-39.5	22.8	0.00e+00	0	28	0	356515840	50	6065
2026-01-26 22:58:18.14	105.28	19.70	-38.5	-39.5	22.7	0.00e+00	0	28	0	358612992	50	6045
2026-01-26 22:58:19.15	105.14	19.81	-38.6	-39.6	22.7	0.00e+00	0	28	0	360710144	50	6109
2026-01-26 22:58:20.16	105.00	19.92	-38.9	-40.0	22.4	0.00e+00	0	28	0	362807296	50	6400
2026-01-26 22:58:21.17	104.86	20.03	-39.5	-40.6	22.0	0.00e+00	0	28	0	364904448	50	6918
2026-01-26 22:58:22.18	104.73	20.14	-39.2	-40.3	22.2	0.00e+00	0	28	0	365953024	50	6633
2026-01-26 22:58:23.19	104.59	20.25	-39.2	-40.3	22.2	0.00e+00	0	28	0	368050176	50	6685
2026-01-26 22:58:24.20	104.44	20.37	-39.3	-40.4	22.1	0.00e+00	0	28	0	370147328	52	5996
2026-01-26 22:58:25.21	104.30	20.48	-39.4	-40.5	22.0	0.00e+00	0	28	0	372244480	52	6045
2026-01-26 22:58:26.22	104.16	20.59	-39.5	-40.7	21.4	0.00e+00	0	28	0	374341632	52	6203
2026-01-26 22:58:27.23	104.02	20.70	-39.7	-40.9	21.6	0.00e+00	0	28	0	375390208	52	6355
2026-01-26 22:58:28.24	103.87	20.82	-39.7	-40.8	21.6	0.00e+00	0	28	0	377487360	52	6285
2026-01-26 22:58:29.25	103.72	20.93	-40.0	-41.2	21.7	0.00e+00	0	28	0	379584512	52	6582
2026-01-26 22:58:30.26	103.58	21.04	-39.5	-40.6	21.9	0.00e+00	0	28	0	381681664	52	6139
2026-01-26 22:58:31.26	103.43	21.16	-39.7	-40.8	21.8	0.00e+00	0	28	0	383778816	52	6304
2026-01-26 22:58:32.27	103.28	21.27	-39.6	-40.7	21.8	0.00e+00	0	28	0	384827392	52	6239
2026-01-26 22:58:33.28	103.13	21.39	-39.7	-40.8	21.9	0.00e+00	0	28	0	386924544	52	6287
2026-01-26 22:58:34.29	102.98	21.50	-39.9	-41.1	21.4	0.00e+00	0	28	0	389021696	52	6512
2026-01-26 22:58:35.31	102.82	21.62	-39.7	-40.9	21.6	0.00e+00	0	28	0	391118848	52	6333
2026-01-26 22:58:36.31	102.67	21.73	-39.4	-40.5	22.0	0.00e+00	0	28	0	393216000	52	6052
2026-01-26 22:58:37.32	102.51	21.85	-39.5	-40.5	22.0	0.00e+00	0	28	0	394264576	52	6103
2026-01-26 22:58:38.33	102.36	21.96	-39.4	-40.5	22.0	0.00e+00	0	28	0	396361728	52	6041
2026-01-26 22:58:39.34	102.20	22.08	-39.6	-40.6	21.9	0.00e+00	0	28	0	398458880	52	6150
2026-01-26 22:58:40.35	102.04	22.20	-39.1	-40.1	21.9	0.00e+00	0	28	0	400556032	52	5785
2026-01-26 22:58:41.36	101.88	22.31	-38.9	-39.8	22.4	0.00e+00	0	28	0	402653184	52	5624
2026-01-26 22:58:42.37	101.72	22.43	-39.0	-40.0	22.6	0.00e+00	0	28	0	403701760	50	6428
2026-01-26 22:58:43.38	101.56	22.55	-38.7	-39.7	22.6	0.00e+00	0	28	0	405798912	50	6200
2026-01-26 22:58:44.39	101.39	22.67	-38.6	-39.6	22.8	0.00e+00	0	28	0	407896064	50	6135
2026-01-26 22:58:45.40	101.23	22.78	-38.1	-39.0	23.2	0.00e+00	0	28	0	409993216	50	5743
2026-01-26 22:58:46.41	101.06	22.90	-38.2	-39.1	23.0	0.00e+00	0	28	0	412090368	50	5780
2026-01-26 22:58:47.42	100.89	23.02	-38.1	-39.0	23.2	0.00e+00	0	28	0	413138944	50	5739
2026-01-26 22:58:48.43	100.72	23.14	-38.2	-39.1	23.2	0.00e+00	0	28	0	415236096	50	5772
2026-01-26 22:58:49.44	100.55	23.26	-38.3	-39.2	22.9	0.00e+00	0	28	0	417333248	50	5843
2026-01-26 22:58:50.44	100.38	23.38	-38.6	-39.6	22.9	0.00e+00	0	28	0	419430400	50	6115
2026-01-26 22:58:51.45	100.21	23.50	-38.5	-39.5	22.9	0.00e+00	0	28	0	421527552	50	6040
2026-01-26 22:58:52.45	100.04	23.62	-38.5	-39.4	22.9	0.00e+00	0	28	0	422576128	50	5997
2026-01-26 22:58:53.46	99.86	23.74	-38.1	-39.0	23.2	0.00e+00	0	28	0	424673280	50	5703
2026-01-26 22:58:54.47	99.68	23.86	-38.1	-39.0	23.2	0.00e+00	0	28	0	426770432	50	5721
2026-01-26 22:58:55.47	99.51	23.98	-37.7	-38.5	23.5	0.00e+00	0	28	0	428867584	48	6076
2026-01-26 22:58:56.48	99.33	24.10	-38.0	-38.9	23.4	0.00e+00	0	28	0	430964736	48	6335
2026-01-26 22:58:57.49	99.15	24.22	-38.2	-39.1	23.1	0.00e+00	0	28	0	432013312	48	6490
2026-01-26 22:58:58.50	98.96	24.34	-38.3	-39.2	23.0	0.00e+00	0	28	0	434110464	48	6592
2026-01-26 22:58:59.51	98.78	24.46	-38.4	-39.3	23.0	0.00e+00	0	28	0	436207616	48	6653
2026-01-26 22:59:00.52	98.59	24.59	-38.3	-39.3	23.0	0.00e+00	0	28	0	438304768	48	6639
2026-01-26 22:59:01.53	98.41	24.71	-38.7	-39.7	22.7	0.00e+00	0	28	0	440401920	48	6942
2026-01-26 22:59:02.54	98.22	24.83	-39.1	-40.2	22.3	0.00e+00	0	28	0	441450496	50	6555
2026-01-26 22:59:03.55	98.03	24.95	-39.3	-40.4	22.0	0.00e+00	0	27	0	443547648	50	6710
2026-01-26 22:59:04.56	97.84	25.08	-39.8	-40.9	21.6	0.00e+00	0	28	0	445644800	52	6366
2026-01-26 22:59:05.57	97.64	25.20	-39.9	-41.0	21.7	0.00e+00	0	27	0	447741952	52	6431
2026-01-26 22:59:06.58	97.45	25.32	-39.8	-40.9	21.7	0.00e+00	0	28	0	449839104	52	6385
2026-01-26 22:59:07.58	97.25	25.45	-39.9	-41.0	21.7	0.00e+00	0	28	0	451936256	52	6410
2026-01-26 22:59:08.60	97.06	25.57	-40.1	-41.2	21.5	0.00e+00	0	28	0	452984832	52	6583
2026-01-26 22:59:09.61	96.86	25.70	-40.2	-41.3	21.3	0.00e+00	0	28	0	455081984	52	6688
2026-01-26 22:59:10.61	96.66	25.82	-40.7	-41.9	20.9	0.00e+00	0	28	0	457179136	52	7160
2026-01-26 22:59:11.62	96.45	25.94	-40.4	-41.5	21.2	0.00e+00	0	28	0	459276288	52	6832
2026-01-26 22:59:12.63	96.25	26.07	-40.5	-41.7	21.2	0.00e+00	0	28	0	461373440	52	6941
2026-01-26 22:59:13.64	96.04	26.19	-40.8	-42.1	20.3	0.00e+00	0	28	0	462422016	52	7297
2026-01-26 22:59:14.65	95.84	26.32	-40.7	-41.9	20.7	0.00e+00	0	28	0	464519168	54	6373
2026-01-26 22:59:15.66	95.63	26.44	-40.9	-42.2	20.5	0.00e+00	0	28	0	466616320	54	6600
2026-01-26 22:59:16.67	95.42	26.57	-41.1	-42.5	20.4	0.00e+00	0	28	0	468713472	54	6794
2026-01-26 22:59:17.68	95.21	26.69	-41.0	-42.4	20.4	0.00e+00	0	28	0	470810624	54	6742
2026-01-26 22:59:18.69	94.99	26.82	-40.8	-42.2	20.6	0.00e+00	0	28	0	471859200	54	6593
2026-01-26 22:59:19.71	94.77	26.95	-40.3	-41.5	21.2	0.00e+00	0	28	0	473956352	54	6069
2026-01-26 22:59:20.71	94.56	27.07	-40.6	-41.9	20.8	0.00e+00	0	28	0	476053504	54	6341
2026-01-26 22:59:21.72	94.34	27.20	-40.4	-41.7	21.2	0.00e+00	0	28	0	478150656	54	6191
2026-01-26 22:59:22.73	94.12	27.32	-39.9	-41.1	21.7	0.00e+00	0	28	0	480247808	54	5804
2026-01-26 22:59:23.74	93.90	27.45	-39.9	-41.1	21.6	0.00e+00	0	28	0	481296384	52	6481
2026-01-26 22:59:24.75	93.67	27.58	-39.7	-40.9	21.7	0.00e+00	0	28	0	483393536	52	6342
2026-01-26 22:59:25.76	93.44	27.70	-39.8	-40.9	21.7	0.00e+00	0	28	0	485490688	52	6373
2026-01-26 22:59:26.77	93.22	27.83	-39.3	-40.4	22.2	0.00e+00	0	28	0	487587840	52	6007
2026-01-26 22:59:27.78	92.99	27.96	-38.8	-39.8	22.5	0.00e+00	0	28	0	489684992	52	5571
2026-01-26 22:59:28.79	92.75	28.08	-39.2	-40.2	22.2	0.00e+00	0	28	0	490733568	52	5891
2026-01-26 22:59:29.80	92.52	28.21	-39.4	-40.5	22.1	0.00e+00	0	28	0	492830720	52	6061
2026-01-26 22:59:30.81	92.29	28.34	-39.9	-41.1	21.6	0.00e+00	0	27	0	494927872	52	6474
2026-01-26 22:59:31.82	92.05	28.46	-40.2	-41.4	21.3	0.00e+00	0	28	0	497025024	52	6712
2026-01-26 22:59:32.83	91.81	28.59	-40.0	-41.2	21.6	0.00e+00	0	28	0	499122176	52	6592
2026-01-26 22:59:33.84	91.57	28.72	-39.6	-40.7	21.8	0.00e+00	0	28	0	500170752	52	6245
2026-01-26 22:59:34.85	91.32	28.84	-39.2	-40.2	22.3	0.00e+00	0	28	0	502267904	52	5872
2026-01-26 22:59:35.86	91.08	28.97	-39.3	-40.3	22.0	0.00e+00	0	28	0	504365056	52	5954
2026-01-26 22:59:36.87	90.83	29.10	-39.4	-40.6	22.0	0.00e+00	0	28	0	506462208	52	6107
2026-01-26 22:59:37.88	90.58	29.22	-39.4	-40.5	22.1	0.00e+00	0	28	0	508559360	52	6062
2026-01-26 22:59:38.89	90.33	29.35	-39.7	-40.8	21.8	0.00e+00	0	28	0	509607936	52	6268
2026-01-26 22:59:39.90	90.08	29.48	-40.0	-41.1	21.5	0.00e+00	0	28	0	511705088	52	6490
2026-01-26 22:59:40.91	89.82	29.60	-40.1	-41.2	21.4	0.00e+00	0	28	0	513802240	52	6565
2026-01-26 22:59:41.92	89.57	29.73	-40.6	-41.8	21.1	0.00e+00	0	28	0	515899392	52	7039
2026-01-26 22:59:42.93	89.31	29.86	-40.7	-41.9	21.0	0.00e+00	0	28	0	517996544	52	7154
2026-01-26 22:59:43.94	89.05	29.98	-40.7	-41.8	21.3	0.00e+00	0	28	0	520093696	54	6316
2026-01-26 22:59:44.95	88.78	30.11	-40.2	-41.3	21.4	0.00e+00	0	28	0	521142272	54	5963
2026-01-26 22:59:45.96	88.52	30.23	-40.1	-41.2	21.4	0.00e+00	0	28	0	523239424	54	5887
2026-01-26 22:59:46.96	88.25	30.36	-40.1	-41.2	21.3	0.00e+00	0	28	0	525336576	54	5878
2026-01-26 22:59:47.97	87.98	30.48	-40.5	-41.7	21.1	0.00e+00	0	28	0	527433728	54	6204
2026-01-26 22:59:48.98	87.71	30.61	-40.4	-41.7	21.1	0.00e+00	0	28	0	529530880	54	6175
2026-01-26 22:59:49.99	87.44	30.73	-40.5	-41.7	21.1	0.00e+00	0	27	0	530579456	54	6209
2026-01-26 22:59:51.00	87.16	30.86	-40.1	-41.2	21.1	0.00e+00	0	28	0	532676608	54	5893
2026-01-26 22:59:52.01	86.88	30.98	-40.1	-41.2	21.3	0.00e+00	0	28	0	534773760	54	5894
2026-01-26 22:59:53.02	86.60	31.11	-40.5	-41.8	21.0	0.00e+00	0	28	0	536870912	54	6246
2026-01-26 22:59:54.03	86.32	31.23	-40.4	-41.6	21.1	0.00e+00	0	28	0	538968064	54	6172
2026-01-26 22:59:55.04	86.04	31.36	-40.4	-41.6	21.3	0.00e+00	0	28	0	540016640	54	6158
2026-01-26 22:59:56.05	85.75	31.48	-40.4	-41.6	21.2	0.00e+00	0	28	0	542113792	54	6120
2026-01-26 22:59:57.06	85.46	31.60	-40.5	-41.7	20.9	0.00e+00	0	28	0	544210944	54	6235
2026-01-26 22:59:58.06	85.17	31.73	-40.9	-42.3	20.5	0.00e+00	0	28	0	546308096	54	6620
2026-01-26 22:59:59.07	84.88	31.85	-41.5	-42.9	20.2	0.00e+00	0	28	0	548405248	54	7169
2026-01-26 23:00:00.08	84.59	31.97	-41.4	-42.8	20.1	0.00e+00	0	28	0	549453824	54	7038
2026-01-26 23:00:01.09	84.29	32.09	-41.2	-42.6	20.2	0.00e+00	0	28	0	551550976	54	6906
2026-01-26 23:00:02.10	83.99	32.22	-41.2	-42.6	20.0	0.00e+00	0	28	0	553648128	54	6867
2026-01-26 23:00:03.11	83.68	32.34	-41.4	-42.8	20.2	0.00e+00	0	28	0	555745280	54	7060
2026-01-26 23:00:04.12	83.38	32.46	-41.4	-42.9	19.9	0.00e+00	0	28	0	557842432	54	7090
2026-01-26 23:00:05.13	83.07	32.58	-41.8	-43.3	19.7	0.00e+00	0	28	0	558891008	56	6644
2026-01-26 23:00:06.14	82.76	32.70	-42.0	-43.5	19.5	0.00e+00	0	28	0	560988160	56	6798
2026-01-26 23:00:07.14	82.46	32.82	-42.2	-43.8	18.9	0.00e+00	0	28	0	563085312	56	7055
2026-01-26 23:00:08.15	82.14	32.94	-42.0	-43.5	19.3	0.00e+00	0	28	0	565182464	56	6831
2026-01-26 23:00:09.16	81.83	33.05	-42.0	-43.5	19.5	0.00e+00	0	28	0	567279616	56	6829
2026-01-26 23:00:10.17	81.51	33.17	-41.8	-43.3	19.5	0.00e+00	0	28	0	568328192	56	6665
2026-01-26 23:00:11.18	81.19	33.29	-42.2	-43.8	19.1	0.00e+00	0	28	0	570425344	56	7084
2026-01-26 23:00:12.19	80.86	33.41	-42.5	-44.2	18.8	0.00e+00	0	28	0	572522496	56	7404
2026-01-26 23:00:13.20	80.54	33.52	-42.9	-44.8	18.1	0.00e+00	0	28	0	574619648	58	7065
2026-01-26 23:00:14.21	80.21	33.64	-43.3	-45.2	17.8	0.00e+00	0	28	0	576716800	58	7418
2026-01-26 23:00:15.22	79.88	33.75	-43.7	-45.9	17.5	0.00e+00	0	28	0	577765376	60	7166
2026-01-26 23:00:16.23	79.55	33.87	-43.9	-46.3	16.9	0.00e+00	0	28	0	579862528	60	7483
2026-01-26 23:00:17.24	79.21	33.98	-43.6	-45.8	17.5	0.00e+00	0	28	0	581959680	60	7059
2026-01-26 23:00:18.25	78.88	34.09	-43.4	-45.4	17.7	0.00e+00	0	28	0	584056832	60	6716
2026-01-26 23:00:19.26	78.54	34.21	-42.0	-43.6	19.4	0.00e+00	0	28	0	586153984	58	6108
2026-01-26 23:00:20.27	78.20	34.32	-41.2	-42.5	20.4	0.00e+00	0	28	0	587202560	56	6056
2026-01-26 23:00:21.28	77.85	34.43	-40.2	-41.4	21.3	0.00e+00	0	28	0	589299712	54	5969
2026-01-26 23:00:22.29	77.50	34.54	-40.8	-42.0	20.8	0.00e+00	0	28	0	591396864	54	6448
2026-01-26 23:00:23.30	77.16	34.65	-41.2	-42.5	20.4	0.00e+00	0	28	0	593494016	54	6836
2026-01-26 23:00:24.31	76.80	34.75	-41.9	-43.5	19.5	0.00e+00	0	28	0	595591168	56	6772
2026-01-26 23:00:25.33	76.45	34.86	-42.0	-43.5	19.6	0.00e+00	0	28	0	597688320	56	6803
2026-01-26 23:00:26.33	76.10	34.97	-42.2	-43.8	19.2	0.00e+00	0	28	0	598736896	56	7045
2026-01-26 23:00:27.34	75.74	35.07	-42.1	-43.7	19.3	0.00e+00	0	28	0	600834048	56	6939
2026-01-26 23:00:28.35	75.38	35.18	-42.3	-44.0	19.2	0.00e+00	0	28	0	602931200	56	7190
2026-01-26 23:00:29.36	75.01	35.28	-42.4	-44.1	19.4	0.00e+00	0	28	0	605028352	58	6491
2026-01-26 23:00:30.37	74.65	35.38	-41.7	-43.2	19.9	0.00e+00	0	28	0	607125504	56	6613
2026-01-26 23:00:31.38	74.28	35.49	-41.6	-43.2	19.7	0.00e+00	0	28	0	608174080	56	6549
2026-01-26 23:00:32.39	73.91	35.59	-41.6	-43.3	20.0	0.00e+00	0	28	0	610271232	56	6628
2026-01-26 23:00:33.40	73.54	35.69	-42.0	-43.7	19.5	0.00e+00	0	28	0	612368384	56	6933
2026-01-26 23:00:34.41	73.17	35.78	-41.4	-42.9	20.1	0.00e+00	0	28	0	614465536	56	6331
2026-01-26 23:00:35.42	72.79	35.88	-41.1	-42.5	20.7	0.00e+00	0	28	0	616562688	56	6057
2026-01-26 23:00:36.43	72.41	35.98	-40.6	-41.8	21.0	0.00e+00	0	28	0	617611264	54	6310
2026-01-26 23:00:37.44	72.03	36.07	-40.1	-41.2	21.4	0.00e+00	0	28	0	619708416	54	5882
2026-01-26 23:00:38.44	71.65	36.17	-40.0	-41.1	21.6	0.00e+00	0	28	0	621805568	52	6521
2026-01-26 23:00:39.45	71.26	36.26	-39.9	-41.1	21.9	0.00e+00	0	28	0	623902720	52	6476
2026-01-26 23:00:40.46	70.88	36.35	-40.0	-41.1	21.6	0.00e+00	0	28	0	625999872	52	6499
2026-01-26 23:00:41.47	70.49	36.44	-39.8	-40.9	21.8	0.00e+00	0	28	0	627048448	52	6329
2026-01-26 23:00:42.48	70.10	36.53	-39.5	-40.6	22.0	0.00e+00	0	28	0	629145600	52	6134
2026-01-26 23:00:43.49	69.70	36.62	-39.6	-40.7	22.0	0.00e+00	0	28	0	631242752	52	6234
2026-01-26 23:00:44.50	69.31	36.70	-39.3	-40.4	21.6	0.00e+00	0	28	0	633339904	52	5981
2026-01-26 23:00:45.51	68.91	36.79	-39.1	-40.2	22.5	0.00e+00	0	28	0	635437056	52	5831
2026-01-26 23:00:46.52	68.51	36.87	-38.9	-40.0	22.4	0.00e+00	0	28	0	636485632	52	5702
2026-01-26 23:00:47.53	68.10	36.95	-38.8	-39.8	22.6	0.00e+00	0	28	0	638582784	50	6311
2026-01-26 23:00:48.53	67.70	37.03	-38.4	-39.4	23.0	0.00e+00	0	28	0	640679936	50	6014
2026-01-26 23:00:49.54	67.30	37.11	-38.1	-39.0	23.4	0.00e+00	0	27	0	642777088	50	5750
2026-01-26 23:00:50.55	66.89	37.19	-37.9	-38.8	23.5	0.00e+00	0	28	0	644874240	50	5629
2026-01-26 23:00:51.56	66.48	37.27	-38.1	-39.1	23.1	0.00e+00	0	28	0	645922816	50	5788
2026-01-26 23:00:52.57	66.07	37.34	-38.4	-39.4	22.9	0.00e+00	0	28	0	648019968	50	6019
2026-01-26 23:00:53.58	65.65	37.42	-38.2	-39.2	23.1	0.00e+00	0	27	0	650117120	50	5847
2026-01-26 23:00:54.59	65.24	37.49	-38.6	-39.6	22.9	0.00e+00	0	28	0	652214272	50	6146
2026-01-26 23:00:55.60	64.82	37.56	-38.5	-39.5	22.6	0.00e+00	0	28	0	654311424	50	6056
2026-01-26 23:00:56.61	64.40	37.63	-39.4	-40.5	22.0	0.00e+00	0	28	0	655360000	50	6848
2026-01-26 23:00:57.62	63.98	37.69	-39.6	-40.8	21.9	0.00e+00	0	27	0	657457152	50	7022
2026-01-26 23:00:58.63	63.56	37.76	-38.7	-39.7	22.8	0.00e+00	0	28	0	659554304	50	6226
2026-01-26 23:00:59.64	63.13	37.82	-38.4	-39.4	23.0	0.00e+00	0	28	0	661651456	50	6000
2026-01-26 23:01:00.65	62.71	37.88	-37.4	-38.3	23.7	0.00e+00	0	28	0	663748608	48	5931
2026-01-26 23:01:01.66	62.28	37.94	-36.6	-37.4	24.4	0.00e+00	0	28	0	665845760	46	5978
2026-01-26 23:01:02.67	61.85	38.00	-35.9	-36.6	25.1	0.00e+00	0	28	0	666894336	46	5489
2026-01-26 23:01:03.68	61.42	38.06	-35.7	-36.4	25.1	0.00e+00	0	28	0	668991488	44	6007
2026-01-26 23:01:04.68	60.99	38.11	-36.3	-37.1	24.5	0.00e+00	0	28	0	671088640	44	6527
2026-01-26 23:01:05.69	60.56	38.17	-36.7	-37.5	24.4	0.00e+00	0	28	0	673185792	44	6843
2026-01-26 23:01:06.70	60.12	38.22	-36.7	-37.5	24.4	0.00e+00	0	28	0	675282944	44	6832
2026-01-26 23:01:07.71	59.68	38.27	-36.6	-37.4	24.4	0.00e+00	0	27	0	676331520	44	6750
2026-01-26 23:01:08.72	59.25	38.32	-37.2	-38.0	23.9	0.00e+00	0	28	0	678428672	46	6445
2026-01-26 23:01:09.73	58.81	38.36	-37.9	-38.9	23.4	0.00e+00	0	28	0	680525824	48	6321
2026-01-26 23:01:10.74	58.37	38.41	-38.4	-39.4	23.0	0.00e+00	0	28	0	682622976	48	6726
2026-01-26 23:01:11.75	57.92	38.45	-38.5	-39.5	22.9	0.00e+00	0	28	0	683671552	48	6781
2026-01-26 23:01:12.76	57.48	38.49	-37.8	-38.7	23.6	0.00e+00	0	28	0	685768704	48	6212
2026-01-26 23:01:13.76	57.04	38.53	-38.0	-39.0	23.2	0.00e+00	0	27	0	687865856	48	6405
2026-01-26 23:01:14.78	56.59	38.56	-37.8	-38.7	23.5	0.00e+00	0	27	0	689963008	48	6198
2026-01-26 23:01:15.78	56.15	38.60	-37.5	-38.4	23.7	0.00e+00	0	28	0	692060160	48	5998
2026-01-26 23:01:16.79	55.71	38.63	-37.3	-38.2	24.0	0.00e+00	0	28	0	694157312	48	5855
2026-01-26 23:01:17.80	55.26	38.66	-37.6	-38.5	23.7	0.00e+00	0	28	0	695205888	48	6044
2026-01-26 23:01:18.81	54.81	38.69	-37.6	-38.4	23.7	0.00e+00	0	28	0	697303040	48	6032
2026-01-26 23:01:19.82	54.36	38.72	-37.4	-38.2	24.0	0.00e+00	0	28	0	699400192	48	5884
2026-01-26 23:01:20.83	53.91	38.74	-37.2	-38.0	24.0	0.00e+00	0	28	0	701497344	48	5758
2026-01-26 23:01:21.84	53.46	38.76	-37.5	-38.4	23.8	0.00e+00	0	28	0	703594496	48	5995
2026-01-26 23:01:22.85	53.01	38.78	-37.3	-38.1	23.8	0.00e+00	0	28	0	704643072	48	5794
2026-01-26 23:01:23.86	52.56	38.80	-37.1	-37.9	24.1	0.00e+00	0	28	0	706740224	48	5672
2026-01-26 23:01:24.87	52.11	38.82	-37.3	-38.1	24.1	0.00e+00	0	28	0	708837376	48	5815
2026-01-26 23:01:25.88	51.65	38.83	-37.5	-38.4	23.8	0.00e+00	0	28	0	710934528	48	5968
2026-01-26 23:01:26.89	51.20	38.85	-38.3	-39.3	23.1	0.00e+00	0	28	0	713031680	48	6631
2026-01-26 23:01:27.90	50.75	38.86	-39.0	-40.0	22.4	0.00e+00	0	28	0	714080256	50	6441
2026-01-26 23:01:28.91	50.30	38.87	-39.1	-40.1	22.5	0.00e+00	0	28	0	716177408	50	6506
2026-01-26 23:01:29.92	49.84	38.87	-39.1	-40.1	22.5	0.00e+00	0	28	0	718274560	50	6532
2026-01-26 23:01:30.93	49.39	38.88	-39.5	-40.7	21.9	0.00e+00	0	28	0	720371712	50	6969
2026-01-26 23:01:31.94	48.93	38.88	-40.1	-41.3	21.6	0.00e+00	0	28	0	722468864	52	6664
2026-01-26 23:01:32.94	48.49	38.88	-39.6	-40.8	21.9	0.00e+00	0	27	0	723517440	52	6252
2026-01-26 23:01:33.96	48.03	38.88	-39.5	-40.6	21.9	0.00e+00	0	28	0	725614592	52	6167
2026-01-26 23:01:34.96	47.58	38.87	-39.4	-40.5	22.2	0.00e+00	0	28	0	727711744	52	6063
2026-01-26 23:01:35.98	47.12	38.87	-39.7	-40.8	22.0	0.00e+00	0	27	0	729808896	52	6264
2026-01-26 23:01:36.99	46.67	38.86	-39.5	-40.6	22.1	0.00e+00	0	28	0	731906048	52	6144
2026-01-26 23:01:38.00	46.21	38.85	-39.5	-40.6	22.1	0.00e+00	0	28	0	732954624	52	6116
2026-01-26 23:01:39.01	45.76	38.84	-39.7	-40.9	21.8	0.00e+00	0	27	0	735051776	52	6327
2026-01-26 23:01:40.02	45.31	38.82	-39.9	-41.0	21.7	0.00e+00	0	27	0	737148928	52	6418
2026-01-26 23:01:41.02	44.86	38.81	-39.8	-40.9	21.5	0.00e+00	0	27	0	739246080	52	6375
2026-01-26 23:01:42.03	44.41	38.79	-40.2	-41.4	21.2	0.00e+00	0	28	0	741343232	52	6725
2026-01-26 23:01:43.04	43.96	38.77	-40.6	-41.9	20.7	0.00e+00	0	27	0	742391808	52	7150
2026-01-26 23:01:44.05	43.51	38.75	-41.4	-42.9	20.1	0.00e+00	0	27	0	744488960	54	7094
2026-01-26 23:01:45.06	43.06	38.72	-41.4	-42.9	20.0	0.00e+00	0	27	0	746586112	54	7117
2026-01-26 23:01:46.07	42.61	38.70	-41.8	-43.3	19.8	0.00e+00	0	28	0	748683264	54	7440
2026-01-26 23:01:47.08	42.16	38.67	-41.9	-43.3	19.8	0.00e+00	0	28	0	750780416	56	6682
2026-01-26 23:01:48.09	41.71	38.64	-41.4	-42.8	20.4	0.00e+00	0	28	0	751828992	56	6250
2026-01-26 23:01:49.10	41.27	38.61	-41.2	-42.5	20.5	0.00e+00	0	28	0	753926144	56	6058
2026-01-26 23:01:50.11	40.82	38.58	-42.1	-43.6	19.4	0.00e+00	0	28	0	756023296	56	6900
2026-01-26 23:01:51.12	40.38	38.54	-42.1	-43.7	19.4	0.00e+00	0	28	0	758120448	56	6951
2026-01-26 23:01:52.13	39.93	38.50	-41.8	-43.2	19.9	0.00e+00	0	27	0	760217600	56	6571
2026-01-26 23:01:53.14	39.49	38.46	-41.7	-43.1	19.9	0.00e+00	0	28	0	762314752	56	6514
2026-01-26 23:01:54.15	39.05	38.42	-41.6	-43.0	20.1	0.00e+00	0	27	0	763363328	56	6449
2026-01-26 23:01:55.16	38.61	38.38	-41.6	-43.0	20.0	0.00e+00	0	28	0	765460480	56	6424
2026-01-26 23:01:56.17	38.17	38.33	-41.7	-43.1	19.8	0.00e+00	0	27	0	767557632	56	6532
2026-01-26 23:01:57.18	37.73	38.29	-41.0	-42.3	20.5	0.00e+00	0	27	0	769654784	56	5940
2026-01-26 23:01:58.19	37.30	38.24	-41.0	-42.3	20.6	0.00e+00	0	27	0	771751936	56	5931
2026-01-26 23:01:59.20	36.86	38.19	-40.6	-41.9	21.0	0.00e+00	0	28	0	772800512	54	6318
2026-01-26 23:02:00.21	36.43	38.13	-41.1	-42.5	20.6	0.00e+00	0	27	0	774897664	54	6778
2026-01-26 23:02:01.22	35.99	38.08	-41.7	-43.3	19.6	0.00e+00	0	27	0	776994816	54	7423
2026-01-26 23:02:02.23	35.56	38.02	-43.5	-45.7	17.6	0.00e+00	0	27	0	779091968	58	7846
2026-01-26 23:02:03.23	35.14	37.97	-44.0	-46.4	16.7	0.00e+00	0	27	0	781189120	60	7576
2026-01-26 23:02:04.25	34.71	37.91	-44.0	-46.5	16.9	0.00e+00	0	27	0	782237696	60	7657
2026-01-26 23:02:05.26	34.28	37.84	-42.5	-44.3	18.8	0.00e+00	0	27	0	784334848	58	6636
2026-01-26 23:02:06.26	33.86	37.78	-40.7	-42.0	21.0	0.00e+00	0	28	0	786432000	56	5702
2026-01-26 23:02:07.27	33.44	37.72	-39.4	-40.5	22.2	0.00e+00	0	27	0	788529152	52	6069
2026-01-26 23:02:08.28	33.02	37.65	-39.2	-40.3	22.3	0.00e+00	0	28	0	790626304	52	5944
2026-01-26 23:02:09.29	32.60	37.58	-39.0	-40.0	22.5	0.00e+00	0	28	0	791674880	52	5758
2026-01-26 23:02:10.30	32.18	37.51	-39.3	-40.4	22.3	0.00e+00	0	27	0	793772032	52	5981
2026-01-26 23:02:11.31	31.76	37.44	-39.8	-40.9	21.7	0.00e+00	0	28	0	795869184	52	6376
2026-01-26 23:02:12.32	31.35	37.37	-40.2	-41.4	21.5	0.00e+00	0	27	0	797966336	52	6729
2026-01-26 23:02:13.33	30.94	37.30	-38.7	-39.6	22.9	0.00e+00	0	28	0	800063488	52	5490
2026-01-26 23:02:14.34	30.53	37.22	-37.5	-38.4	23.8	0.00e+00	0	28	0	801112064	48	5985
2026-01-26 23:02:15.35	30.12	37.14	-37.2	-38.0	24.2	0.00e+00	0	27	0	803209216	48	5721
2026-01-26 23:02:16.36	29.71	37.06	-36.7	-37.5	24.3	0.00e+00	0	27	0	805306368	48	5426
2026-01-26 23:02:17.37	29.31	36.98	-36.9	-37.8	24.2	0.00e+00	0	27	0	807403520	46	6251
2026-01-26 23:02:18.38	28.90	36.90	-37.1	-37.9	24.2	0.00e+00	0	28	0	809500672	46	6366
2026-01-26 23:02:19.39	28.50	36.82	-36.8	-37.7	24.2	0.00e+00	0	28	0	810549248	46	6183
2026-01-26 23:02:20.40	28.11	36.74	-37.2	-38.0	24.0	0.00e+00	0	28	0	812646400	46	6459
2026-01-26 23:02:21.41	27.71	36.65	-37.1	-38.0	24.0	0.00e+00	0	28	0	814743552	46	6435
2026-01-26 23:02:22.42	27.32	36.56	-37.7	-38.6	23.6	0.00e+00	0	27	0	816840704	46	6909
2026-01-26 23:02:23.43	26.92	36.47	-38.0	-38.9	23.4	0.00e+00	0	28	0	818937856	48	6354
2026-01-26 23:02:24.44	26.53	36.39	-37.9	-38.9	23.5	0.00e+00	0	28	0	819986432	48	6328
2026-01-26 23:02:25.45	26.15	36.29	-37.8	-38.7	23.7	0.00e+00	0	28	0	822083584	48	6231
2026-01-26 23:02:26.46	25.76	36.20	-37.8	-38.7	23.6	0.00e+00	0	28	0	824180736	48	6190
2026-01-26 23:02:27.46	25.38	36.11	-38.0	-39.0	23.3	0.00e+00	0	27	0	826277888	48	6418
2026-01-26 23:02:28.47	25.00	36.02	-39.2	-40.4	22.2	0.00e+00	0	28	0	828375040	50	6708
2026-01-26 23:02:29.48	24.62	35.92	-39.7	-40.8	21.9	0.00e+00	0	28	0	830472192	50	7065
2026-01-26 23:02:30.49	24.25	35.82	-39.8	-40.9	21.8	0.00e+00	0	27	0	831520768	52	6363
2026-01-26 23:02:31.50	23.87	35.73	-39.5	-40.6	22.3	0.00e+00	0	28	0	833617920	52	6133
2026-01-26 23:02:32.51	23.50	35.63	-39.3	-40.4	21.9	0.00e+00	0	28	0	835715072	52	5973
2026-01-26 23:02:33.52	23.13	35.53	-39.3	-40.4	22.3	0.00e+00	0	28	0	837812224	52	5973
2026-01-26 23:02:34.53	22.76	35.43	-39.2	-40.3	22.3	0.00e+00	0	28	0	839909376	52	5904
2026-01-26 23:02:35.54	22.40	35.32	-38.3	-39.2	23.2	0.00e+00	0	27	0	840957952	50	5872
2026-01-26 23:02:36.55	22.04	35.22	-38.3	-39.3	23.1	0.00e+00	0	28	0	843055104	50	5900
2026-01-26 23:02:37.56	21.67	35.12	-38.5	-39.4	22.9	0.00e+00	0	27	0	845152256	50	6024
2026-01-26 23:02:38.57	21.32	35.01	-38.8	-39.8	22.7	0.00e+00	0	27	0	847249408	50	6259
2026-01-26 23:02:39.58	20.96	34.91	-38.2	-39.2	23.2	0.00e+00	0	27	0	849346560	50	5832
2026-01-26 23:02:40.59	20.61	34.80	-38.8	-39.8	22.3	0.00e+00	0	27	0	850395136	50	6258
2026-01-26 23:02:41.60	20.26	34.69	-39.6	-40.6	22.1	0.00e+00	0	27	0	852492288	50	6920
2026-01-26 23:02:42.61	19.91	34.58	-39.2	-40.3	22.3	0.00e+00	0	27	0	854589440	50	6632
2026-01-26 23:02:43.62	19.56	34.47	-38.1	-39.0	23.2	0.00e+00	0	27	0	856686592	50	5743
2026-01-26 23:02:44.63	19.22	34.36	-38.0	-38.9	23.4	0.00e+00	0	27	0	858783744	50	5651
2026-01-26 23:02:45.64	18.88	34.25	-38.4	-39.3	23.0	0.00e+00	0	27	0	859832320	50	5942
2026-01-26 23:02:46.64	18.54	34.14	-39.6	-40.7	21.9	0.00e+00	0	27	0	861929472	50	6958
2026-01-26 23:02:47.65	18.20	34.03	-39.7	-40.8	21.9	0.00e+00	0	27	0	864026624	52	6285
2026-01-26 23:02:48.66	17.87	33.92	-39.8	-40.9	21.8	0.00e+00	0	28	0	866123776	52	6366
2026-01-26 23:02:49.67	17.54	33.80	-39.3	-40.3	22.3	0.00e+00	0	27	0	868220928	52	5945
2026-01-26 23:02:50.68	17.21	33.69	-39.5	-40.5	22.1	0.00e+00	0	27	0	869269504	52	6100
2026-01-26 23:02:51.69	16.88	33.58	-39.1	-40.1	22.5	0.00e+00	0	28	0	871366656	52	5806
2026-01-26 23:02:52.70	16.55	33.46	-39.2	-40.2	22.3	0.00e+00	0	27	0	873463808	52	5875
2026-01-26 23:02:53.71	16.23	33.34	-39.4	-40.5	22.2	0.00e+00	0	27	0	875560960	52	6058
2026-01-26 23:02:54.72	15.91	33.23	-39.8	-40.9	21.8	0.00e+00	0	27	0	877658112	52	6366
2026-01-26 23:02:55.73	15.59	33.11	-40.0	-41.1	21.6	0.00e+00	0	27	0	878706688	52	6515
2026-01-26 23:02:56.74	15.27	32.99	-40.4	-41.6	21.2	0.00e+00	0	27	0	880803840	52	6907
2026-01-26 23:02:57.75	14.96	32.87	-40.4	-41.5	21.3	0.00e+00	0	28	0	882900992	52	6816
2026-01-26 23:02:58.76	14.65	32.75	-40.2	-41.4	21.5	0.00e+00	0	27	0	884998144	52	6695
2026-01-26 23:02:59.77	14.34	32.63	-40.5	-41.7	21.3	0.00e+00	0	27	0	887095296	52	6943
2026-01-26 23:03:00.78	14.03	32.51	-41.2	-42.5	20.3	0.00e+00	0	27	0	888143872	54	6816
2026-01-26 23:03:01.79	13.73	32.39	-41.1	-42.5	20.4	0.00e+00	0	27	0	890241024	54	6793
2026-01-26 23:03:02.80	13.43	32.27	-40.7	-42.0	20.9	0.00e+00	0	27	0	892338176	54	6392
2026-01-26 23:03:03.80	13.13	32.15	-40.3	-41.5	21.4	0.00e+00	0	28	0	894435328	54	6052
2026-01-26 23:03:04.81	12.83	32.03	-40.6	-41.8	21.1	0.00e+00	0	28	0	896532480	54	6303
2026-01-26 23:03:05.82	12.54	31.91	-41.0	-42.3	20.6	0.00e+00	0	28	0	898629632	54	6676
2026-01-26 23:03:06.82	12.25	31.79	-41.1	-42.3	20.6	0.00e+00	0	28	0	899678208	54	6674
2026-01-26 23:03:07.83	11.95	31.67	-40.5	-41.7	21.2	0.00e+00	0	28	0	901775360	54	6174
2026-01-26 23:03:08.84	11.67	31.54	-39.8	-40.8	21.8	0.00e+00	0	27	0	903872512	54	5580
2026-01-26 23:03:09.85	11.38	31.42	-39.1	-40.0	22.6	0.00e+00	0	27	0	905969664	52	5739
2026-01-26 23:03:10.86	11.09	31.30	-39.0	-39.9	22.7	0.00e+00	0	28	0	908066816	52	5682
2026-01-26 23:03:11.87	10.81	31.17	-39.0	-39.9	22.6	0.00e+00	0	27	0	909115392	50	6369
2026-01-26 23:03:12.88	10.53	31.05	-38.6	-39.6	22.9	0.00e+00	0	27	0	911212544	50	6108
2026-01-26 23:03:13.89	10.25	30.92	-38.6	-39.5	23.1	0.00e+00	0	27	0	913309696	50	6083
2026-01-26 23:03:14.90	9.98	30.80	-38.3	-39.2	23.1	0.00e+00	0	27	0	915406848	50	5829
2026-01-26 23:03:15.91	9.71	30.68	-38.2	-39.1	23.4	0.00e+00	0	28	0	917504000	50	5767
2026-01-26 23:03:16.92	9.43	30.55	-38.3	-39.2	23.2	0.00e+00	0	27	0	918552576	50	5843
2026-01-26 23:03:17.93	9.16	30.43	-39.1	-40.1	22.5	0.00e+00	0	28	0	920649728	50	6476
2026-01-26 23:03:18.94	8.90	30.30	-39.4	-40.4	22.2	0.00e+00	0	28	0	922746880	50	6715
2026-01-26 23:03:19.94	8.64	30.18	-40.2	-41.3	21.4	0.00e+00	0	27	0	924844032	52	6682
2026-01-26 23:03:20.95	8.37	30.05	-41.2	-42.5	20.4	0.00e+00	0	27	0	926941184	54	6801
2026-01-26 23:03:21.96	8.11	29.93	-42.2	-43.8	19.3	0.00e+00	0	27	0	927989760	56	7033
2026-01-26 23:03:22.97	7.85	29.80	-42.5	-44.1	18.9	0.00e+00	0	27	0	930086912	58	6527
2026-01-26 23:03:23.98	7.60	29.67	-41.9	-43.5	19.7	0.00e+00	0	27	0	932184064	58	6071
2026-01-26 23:03:24.99	7.34	29.55	-41.1	-42.5	20.5	0.00e+00	0	27	0	934281216	56	6064
2026-01-26 23:03:26.00	7.09	29.42	-40.7	-41.9	20.9	0.00e+00	0	27	0	936378368	54	6373
2026-01-26 23:03:27.01	6.84	29.30	-40.5	-41.8	21.1	0.00e+00	0	27	0	937426944	54	6255
2026-01-26 23:03:28.01	6.59	29.17	-40.5	-41.7	21.0	0.00e+00	0	27	0	939524096	54	6222
2026-01-26 23:03:29.02	6.34	29.04	-40.3	-41.5	21.3	0.00e+00	0	27	0	941621248	54	6078
2026-01-26 23:03:30.03	6.10	28.92	-39.9	-41.1	21.6	0.00e+00	0	27	0	943718400	54	5765
2026-01-26 23:03:31.04	5.86	28.79	-40.0	-41.2	21.5	0.00e+00	0	27	0	945815552	54	5835
2026-01-26 23:03:32.04	5.62	28.67	-39.9	-41.0	21.5	0.00e+00	0	27	0	946864128	52	6444
2026-01-26 23:03:33.05	5.38	28.54	-40.0	-41.1	21.7	0.00e+00	0	27	0	948961280	52	6520
2026-01-26 23:03:34.06	5.14	28.41	-39.9	-41.0	21.4	0.00e+00	0	27	0	951058432	52	6419
2026-01-26 23:03:35.07	4.90	28.29	-39.7	-40.8	21.9	0.00e+00	0	28	0	953155584	52	6278
2026-01-26 23:03:36.07	4.67	28.16	-39.2	-40.2	22.4	0.00e+00	0	27	0	955252736	52	5843
2026-01-26 23:03:37.08	4.44	28.04	-39.1	-40.1	22.7	0.00e+00	0	27	0	956301312	52	5768
2026-01-26 23:03:38.09	4.21	27.91	-38.1	-39.0	23.4	0.00e+00	0	27	0	958398464	50	5751
2026-01-26 23:03:39.10	3.98	27.79	-38.0	-38.9	23.4	0.00e+00	0	27	0	960495616	50	5673
2026-01-26 23:03:40.11	3.76	27.66	-38.3	-39.3	23.1	0.00e+00	0	27	0	962592768	50	5909
2026-01-26 23:03:41.11	3.54	27.53	-39.1	-40.1	22.4	0.00e+00	0	27	0	964689920	50	6539
2026-01-26 23:03:42.12	3.31	27.41	-39.2	-40.3	22.3	0.00e+00	0	27	0	965738496	50	6620
2026-01-26 23:03:43.13	3.09	27.28	-39.5	-40.6	22.0	0.00e+00	0	27	0	967835648	50	6855
2026-01-26 23:03:44.14	2.87	27.16	-39.6	-40.6	22.2	0.00e+00	0	27	0	969932800	52	6167
2026-01-26 23:03:45.14	2.66	27.03	-39.8	-40.9	21.7	0.00e+00	0	27	0	972029952	52	6329
2026-01-26 23:03:46.15	2.44	26.91	-39.3	-40.3	22.4	0.00e+00	0	27	0	974127104	52	5962
2026-01-26 23:03:47.16	2.23	26.78	-39.0	-40.0	22.6	0.00e+00	0	27	0	975175680	52	5706
2026-01-26 23:03:48.17	2.02	26.66	-38.9	-39.9	22.7	0.00e+00	0	27	0	977272832	52	5680
2026-01-26 23:03:49.18	1.80	26.53	-38.7	-39.6	22.8	0.00e+00	0	27	0	979369984	52	5500
2026-01-26 23:03:50.19	1.60	26.41	-38.1	-39.0	23.3	0.00e+00	0	27	0	981467136	50	5710
2026-01-26 23:03:51.20	1.39	26.28	-38.1	-39.0	23.3	0.00e+00	0	27	0	983564288	50	5740
2026-01-26 23:03:52.21	1.18	26.16	-38.3	-39.2	23.2	0.00e+00	0	27	0	984612864	50	5891
2026-01-26 23:03:53.22	0.98	26.03	-38.0	-38.9	23.4	0.00e+00	0	27	0	986710016	50	5673
2026-01-26 23:03:54.23	0.78	25.91	-37.8	-38.7	23.4	0.00e+00	0	27	0	988807168	50	5504
2026-01-26 23:03:55.24	0.58	25.79	-38.4	-39.3	23.1	0.00e+00	0	27	0	990904320	50	5925
2026-01-26 23:03:56.25	0.38	25.66	-38.6	-39.5	22.9	0.00e+00	0	27	0	993001472	50	6091
2026-01-26 23:03:57.26	0.18	25.54	-38.1	-39.1	23.1	0.00e+00	0	27	0	995098624	50	5771
2026-01-26 23:03:58.27	359.98	25.42	-38.8	-39.8	22.6	0.00e+00	0	27	0	996147200	50	6267
2026-01-26 23:03:59.28	359.79	25.29	-38.7	-39.7	22.4	0.00e+00	0	27	0	998244352	50	6192
2026-01-26 23:04:00.28	359.60	25.17	-39.1	-40.2	22.1	0.00e+00	0	27	0	1000341504	50	6586
2026-01-26 23:04:01.29	359.41	25.05	-39.4	-40.5	22.0	0.00e+00	0	27	0	1002438656	50	6848
2026-01-26 23:04:02.30	359.22	24.93	-39.8	-40.9	21.8	0.00e+00	0	27	0	1004535808	52	6351
2026-01-26 23:04:03.31	359.03	24.80	-39.9	-41.1	21.3	0.00e+00	0	27	0	1005584384	52	6476
2026-01-26 23:04:04.32	358.84	24.68	-40.0	-41.2	21.5	0.00e+00	0	27	0	1007681536	52	6540
2026-01-26 23:04:05.33	358.66	24.56	-40.2	-41.4	21.3	0.00e+00	0	27	0	1009778688	52	6731
2026-01-26 23:04:06.34	358.47	24.44	-40.6	-41.8	20.9	0.00e+00	0	27	0	1011875840	52	7064
2026-01-26 23:04:07.35	358.29	24.32	-40.6	-41.8	20.9	0.00e+00	0	27	0	1013972992	54	6305
2026-01-26 23:04:08.36	358.11	24.20	-40.2	-41.4	21.3	0.00e+00	0	27	0	1015021568	54	5984
2026-01-26 23:04:09.37	357.93	24.08	-40.2	-41.4	21.3	0.00e+00	0	27	0	1017118720	54	6003
2026-01-26 23:04:10.38	357.75	23.95	-40.1	-41.3	21.4	0.00e+00	0	27	0	1019215872	54	5944
2026-01-26 23:04:11.39	357.57	23.83	-39.9	-41.1	21.6	0.00e+00	0	27	0	1021313024	54	5815
2026-01-26 23:04:12.40	357.40	23.71	-39.5	-40.7	21.9	0.00e+00	0	27	0	1023410176	52	6179
2026-01-26 23:04:13.41	357.22	23.59	-39.6	-40.7	21.8	0.00e+00	0	27	0	1024458752	52	6216
2026-01-26 23:04:14.42	357.05	23.48	-39.2	-40.2	22.4	0.00e+00	0	27	0	1026555904	52	5877
2026-01-26 23:04:15.43	356.88	23.36	-38.8	-39.8	22.6	0.00e+00	0	27	0	1028653056	52	5605
2026-01-26 23:04:16.44	356.71	23.24	-38.3	-39.2	23.1	0.00e+00	0	28	0	1030750208	50	5872
2026-01-26 23:04:17.45	356.54	23.12	-38.2	-39.2	23.0	0.00e+00	0	27	0	1032847360	50	5836
2026-01-26 23:04:18.46	356.37	23.00	-38.1	-39.0	23.3	0.00e+00	0	27	0	1033895936	50	5713
2026-01-26 23:04:19.47	356.21	22.88	-38.5	-39.4	23.0	0.00e+00	0	27	0	1035993088	50	6009
2026-01-26 23:04:20.48	356.04	22.76	-38.8	-39.8	22.6	0.00e+00	0	27	0	1038090240	50	6286
2026-01-26 23:04:21.49	355.88	22.65	-38.7	-39.7	22.5	0.00e+00	0	27	0	1040187392	50	6219
2026-01-26 23:04:22.50	355.71	22.53	-39.1	-40.1	22.4	0.00e+00	0	27	0	1042284544	50	6490
2026-01-26 23:04:23.51	355.55	22.41	-39.1	-40.2	22.4	0.00e+00	0	27	0	1043333120	50	6549
2026-01-26 23:04:24.52	355.39	22.30	-38.9	-39.9	22.7	0.00e+00	0	27	0	1045430272	50	6356
2026-01-26 23:04:25.53	355.23	22.18	-38.5	-39.5	22.9	0.00e+00	0	27	0	1047527424	50	6034
2026-01-26 23:04:26.54	355.08	22.06	-38.4	-39.3	23.1	0.00e+00	0	27	0	1049624576	50	5952
2026-01-26 23:04:27.55	354.92	21.95	-38.0	-38.9	23.2	0.00e+00	0	27	0	1051721728	50	5680
2026-01-26 23:04:28.55	354.77	21.83	-37.9	-38.8	23.4	0.00e+00	0	27	0	1052770304	50	5628
2026-01-26 23:04:29.56	354.61	21.72	-38.4	-39.4	22.9	0.00e+00	0	27	0	1054867456	50	6020
2026-01-26 23:04:30.57	354.46	21.60	-38.8	-39.9	22.5	0.00e+00	0	27	0	1056964608	50	6353
2026-01-26 23:04:31.58	354.31	21.49	-39.3	-40.4	22.1	0.00e+00	0	27	0	1059061760	50	6704
2026-01-26 23:04:32.59	354.16	21.37	-39.8	-41.0	21.6	0.00e+00	0	27	0	1061158912	52	6426
2026-01-26 23:04:33.60	354.01	21.26	-40.5	-41.8	21.0	0.00e+00	0	27	0	1063256064	52	7046
2026-01-26 23:04:34.61	353.86	21.15	-40.4	-41.6	21.1	0.00e+00	0	27	0	1064304640	52	6878
2026-01-26 23:04:35.62	353.71	21.03	-40.7	-41.9	20.8	0.00e+00	0	27	0	1066401792	54	6380
2026-01-26 23:04:36.63	353.57	20.92	-40.4	-41.6	21.1	0.00e+00	0	27	0	1068498944	54	6150
2026-01-26 23:04:37.64	353.42	20.81	-40.2	-41.4	21.3	0.00e+00	0	27	0	1070596096	54	5971
2026-01-26 23:04:38.65	353.28	20.69	-40.1	-41.2	21.4	0.00e+00	0	27	0	1071644672	54	5880
2026-01-26 23:04:39.66	353.14	20.58	-39.7	-40.8	21.9	0.00e+00	0	27	0	1073741824	52	6261
2026-01-26 23:04:40.67	352.99	20.47	-39.5	-40.5	22.0	0.00e+00	0	27	0	1075838976	52	6089
2026-01-26 23:04:41.68	352.85	20.36	-39.4	-40.5	22.0	0.00e+00	0	27	0	1077936128	52	6084
2026-01-26 23:04:42.69	352.71	20.25	-39.3	-40.4	22.2	0.00e+00	0	27	0	1080033280	52	5969
2026-01-26 23:04:43.70	352.57	20.14	-39.0	-40.1	22.4	0.00e+00	0	27	0	1081081856	52	5762
2026-01-26 23:04:44.71	352.44	20.02	-39.0	-40.0	22.4	0.00e+00	0	27	0	1083179008	52	5761
2026-01-26 23:04:45.72	352.30	19.91	-38.9	-39.9	22.4	0.00e+00	0	27	0	1085276160	52	5678
2026-01-26 23:04:46.72	352.17	19.81	-39.3	-40.3	22.3	0.00e+00	0	27	0	1087373312	52	5935
2026-01-26 23:04:47.73	352.03	19.70	-39.4	-40.5	22.1	0.00e+00	0	27	0	1089470464	52	6069
2026-01-26 23:04:48.75	351.90	19.59	-39.7	-40.8	21.8	0.00e+00	0	27	0	1091567616	52	6261
2026-01-26 23:04:49.76	351.76	19.48	-39.8	-40.9	21.8	0.00e+00	0	27	0	1092616192	52	6340
2026-01-26 23:04:50.77	351.63	19.37	-39.6	-40.7	21.8	0.00e+00	0	27	0	1094713344	52	6227
2026-01-26 23:04:51.78	351.50	19.26	-39.5	-40.6	22.0	0.00e+00	0	27	0	1096810496	52	6142
2026-01-26 23:04:52.79	351.37	19.15	-39.2	-40.3	22.1	0.00e+00	0	27	0	1098907648	52	5915
2026-01-26 23:04:53.80	351.24	19.04	-39.2	-40.2	22.4	0.00e+00	0	27	0	1101004800	52	5841
2026-01-26 23:04:54.81	351.12	18.94	-38.3	-39.2	23.0	0.00e+00	0	27	0	1102053376	50	5874
2026-01-26 23:04:55.82	350.99	18.83	-38.4	-39.3	22.9	0.00e+00	0	27	0	1104150528	50	5944
2026-01-26 23:04:56.83	350.86	18.72	-38.2	-39.2	23.1	0.00e+00	0	27	0	1106247680	50	5844
2026-01-26 23:04:57.84	350.74	18.61	-38.2	-39.1	23.1	0.00e+00	0	27	0	1108344832	50	5784
2026-01-26 23:04:58.85	350.61	18.51	-38.3	-39.2	23.1	0.00e+00	0	28	0	1110441984	50	5859
2026-01-26 23:04:59.86	350.49	18.40	-38.5	-39.5	22.7	0.00e+00	0	27	0	1111490560	50	6051
2026-01-26 23:05:00.87	350.37	18.30	-38.5	-39.5	22.7	0.00e+00	0	27	0	1113587712	50	6055
2026-01-26 23:05:01.88	350.25	18.19	-38.8	-39.8	22.4	0.00e+00	0	27	0	1115684864	50	6296
2026-01-26 23:05:02.89	350.12	18.09	-39.2	-40.3	22.2	0.00e+00	0	27	0	1117782016	50	6624
2026-01-26 23:05:03.90	350.00	17.98	-39.5	-40.6	21.9	0.00e+00	0	27	0	1119879168	50	6890
2026-01-26 23:05:04.90	349.89	17.88	-39.5	-40.6	21.9	0.00e+00	0	27	0	1120927744	50	6869
2026-01-26 23:05:05.91	349.77	17.77	-39.8	-40.9	21.7	0.00e+00	0	27	0	1123024896	52	6338
2026-01-26 23:05:06.92	349.65	17.67	-39.7	-40.7	21.7	0.00e+00	0	27	0	1125122048	52	6242
2026-01-26 23:05:07.93	349.53	17.57	-39.5	-40.6	21.8	0.00e+00	0	27	0	1127219200	52	6117
2026-01-26 23:05:08.94	349.42	17.46	-39.5	-40.5	21.8	0.00e+00	0	27	0	1129316352	52	6072
2026-01-26 23:05:09.95	349.30	17.36	-39.4	-40.4	21.9	0.00e+00	0	27	0	1130364928	52	6001
2026-01-26 23:05:10.96	349.19	17.26	-39.3	-40.4	22.0	0.00e+00	0	27	0	1132462080	52	5965
2026-01-26 23:05:11.97	349.08	17.16	-39.4	-40.4	22.0	0.00e+00	0	27	0	1134559232	52	6029
2026-01-26 23:05:12.98	348.96	17.06	-39.4	-40.4	22.0	0.00e+00	0	27	0	1136656384	52	6032
2026-01-26 23:05:13.99	348.85	16.95	-39.3	-40.3	22.1	0.00e+00	0	27	0	1138753536	52	5930
2026-01-26 23:05:14.99	348.74	16.85	-39.5	-40.6	21.8	0.00e+00	0	27	0	1139802112	52	6146
2026-01-26 23:05:16.00	348.63	16.75	-39.6	-40.7	21.7	0.00e+00	0	27	0	1141899264	52	6189
2026-01-26 23:05:17.01	348.52	16.65	-39.7	-40.8	21.8	0.00e+00	0	27	0	1143996416	52	6306
2026-01-26 23:05:18.02	348.41	16.55	-39.7	-40.8	21.6	0.00e+00	0	27	0	1146093568	52	6302
2026-01-26 23:05:19.03	348.31	16.45	-39.7	-40.8	21.7	0.00e+00	0	27	0	1148190720	52	6300
2026-01-26 23:05:20.04	348.20	16.35	-39.8	-40.9	21.7	0.00e+00	0	27	0	1149239296	52	6390
2026-01-26 23:05:21.05	348.09	16.25	-40.2	-41.4	21.2	0.00e+00	0	27	0	1151336448	52	6723
2026-01-26 23:05:22.06	347.99	16.15	-40.1	-41.3	21.3	0.00e+00	0	27	0	1153433600	52	6631
2026-01-26 23:05:23.07	347.88	16.05	-40.2	-41.4	21.2	0.00e+00	0	27	0	1155530752	52	6724
2026-01-26 23:05:24.08	347.78	15.96	-40.4	-41.6	20.9	0.00e+00	0	28	0	1157627904	52	6907
2026-01-26 23:05:25.09	347.67	15.86	-40.5	-41.8	20.7	0.00e+00	0	27	0	1159725056	54	6262
2026-01-26 23:05:26.10	347.57	15.76	-40.7	-42.0	20.6	0.00e+00	0	27	0	1160773632	54	6437
2026-01-26 23:05:27.11	347.47	15.66	-40.9	-42.2	20.5	0.00e+00	0	27	0	1162870784	54	6615
2026-01-26 23:05:28.12	347.37	15.56	-40.8	-42.1	20.5	0.00e+00	0	27	0	1164967936	54	6525
2026-01-26 23:05:29.13	347.27	15.47	-40.8	-42.1	20.5	0.00e+00	0	27	0	1167065088	54	6489
2026-01-26 23:05:30.14	347.17	15.37	-40.4	-41.6	20.9	0.00e+00	0	27	0	1169162240	54	6154
2026-01-26 23:05:31.15	347.07	15.27	-40.4	-41.6	20.9	0.00e+00	0	27	0	1170210816	54	6160
2026-01-26 23:05:32.15	346.97	15.18	-40.0	-41.2	21.3	0.00e+00	0	27	0	1172307968	54	5872
2026-01-26 23:05:33.16	346.87	15.08	-39.5	-40.6	21.7	0.00e+00	0	27	0	1174405120	52	6128
2026-01-26 23:05:34.17	346.77	14.99	-39.3	-40.3	22.0	0.00e+00	0	27	0	1176502272	52	5938
2026-01-26 23:05:35.18	346.68	14.89	-39.2	-40.2	22.1	0.00e+00	0	27	0	1178599424	52	5880
2026-01-26 23:05:36.19	346.58	14.80	-39.1	-40.2	22.2	0.00e+00	0	27	0	1179648000	52	5842
2026-01-26 23:05:37.20	346.48	14.70	-38.8	-39.8	22.6	0.00e+00	0	27	0	1181745152	52	5602
2026-01-26 23:05:38.21	346.39	14.61	-38.4	-39.4	22.6	0.00e+00	0	28	0	1183842304	50	5991
2026-01-26 23:05:39.22	346.29	14.51	-38.4	-39.3	22.7	0.00e+00	0	27	0	1185939456	50	5964
2026-01-26 23:05:40.23	346.20	14.42	-38.5	-39.4	22.8	0.00e+00	0	27	0	1188036608	50	6012
2026-01-26 23:05:41.24	346.11	14.33	-38.4	-39.4	22.8	0.00e+00	0	27	0	1189085184	50	5986
2026-01-26 23:05:42.25	346.02	14.23	-38.4	-39.3	22.7	0.00e+00	0	27	0	1191182336	50	5932
2026-01-26 23:05:43.26	345.92	14.14	-38.5	-39.4	22.7	0.00e+00	0	27	0	1193279488	50	5994
2026-01-26 23:05:44.26	345.83	14.05	-38.6	-39.6	22.6	0.00e+00	0	28	0	1195376640	50	6107
2026-01-26 23:05:45.27	345.74	13.96	-38.7	-39.7	22.5	0.00e+00	0	27	0	1197473792	50	6196
2026-01-26 23:05:46.28	345.65	13.86	-38.8	-39.8	22.5	0.00e+00	0	27	0	1198522368	50	6247
2026-01-26 23:05:47.29	345.56	13.77	-38.8	-39.8	22.4	0.00e+00	0	27	0	1200619520	50	6295
2026-01-26 23:05:48.30	345.47	13.68	-38.8	-39.8	22.5	0.00e+00	0	27	0	1202716672	50	6260
2026-01-26 23:05:49.31	345.38	13.59	-39.0	-40.0	22.3	0.00e+00	0	27	0	1204813824	50	6407
