passes_logs/2026/01/26/R4.6S_Anadyr/R4.6S_Anadyr__20260126_140843_NOAA_21_JPSS-2_rec.log

#Pass ID: 20260126_140843_NOAA 21 (JPSS-2)
#Satellite: NOAA 21 (JPSS-2)
#Configuration: NOAA-21
#almurnet v.1.7.20251203
#Start time: 2026-01-26 14:08:46

#Version: 2.2.20231116
#Station: R4.6S_Anadyr
#Location: 177.4865 lon 64.73178 lat
#TLE: 1 54234U 22150A   26025.93791214  .00000195  00000+0  11336-3 0  9990
#TLE: 2 54234  98.7509 326.7059 0000782 212.3040 147.8088 14.19539484166365

#Time	Az	El	Level	Level2	SNR	BER	BlckErr	Temp	State	Recorded	gain1	gain2
2026-01-26 14:08:46.61	19.55	0.21	-50.8	-62.1	3.2	1.54e+00	0	29	0	0	60	44695
2026-01-26 14:08:47.62	19.57	0.27	-49.7	-62.6	3.5	1.52e+00	0	29	104	0	60	47118
2026-01-26 14:08:48.63	19.59	0.33	-49.7	-62.5	3.5	1.52e+00	0	29	104	0	60	47032
2026-01-26 14:08:49.64	19.62	0.39	-49.7	-62.5	3.5	1.52e+00	0	29	104	0	60	46936
2026-01-26 14:08:50.65	19.64	0.45	-49.6	-62.5	3.5	1.52e+00	0	29	104	0	60	46951
2026-01-26 14:08:51.66	19.66	0.51	-49.6	-62.5	3.5	1.52e+00	0	29	104	0	60	46594
2026-01-26 14:08:52.67	19.68	0.57	-49.7	-62.5	3.5	1.52e+00	0	29	104	0	60	46777
2026-01-26 14:08:53.68	19.70	0.63	-49.5	-62.5	3.5	1.52e+00	0	29	104	0	60	46926
2026-01-26 14:08:54.69	19.73	0.69	-49.6	-62.5	3.5	1.52e+00	0	29	104	0	60	46659
2026-01-26 14:08:55.70	19.75	0.75	-49.6	-62.4	3.5	1.52e+00	0	29	104	0	60	46435
2026-01-26 14:08:56.71	19.77	0.81	-49.6	-62.4	3.5	1.52e+00	0	29	104	0	60	46284
2026-01-26 14:08:57.72	19.79	0.87	-49.5	-62.3	3.5	1.52e+00	0	29	104	0	60	45930
2026-01-26 14:08:58.73	19.82	0.93	-49.4	-62.3	3.5	1.52e+00	0	29	104	0	60	45708
2026-01-26 14:08:59.74	19.84	0.99	-49.4	-62.2	3.5	1.52e+00	0	29	104	0	60	45137
2026-01-26 14:09:00.75	19.86	1.06	-49.3	-62.1	3.5	1.52e+00	0	29	104	0	60	44686
2026-01-26 14:09:01.76	19.88	1.12	-49.2	-62.0	3.5	1.52e+00	0	30	104	0	60	44147
2026-01-26 14:09:02.77	19.91	1.18	-49.0	-61.9	3.5	1.52e+00	0	29	104	0	60	43714
2026-01-26 14:09:03.78	19.93	1.24	-49.0	-61.8	3.5	1.52e+00	0	29	104	0	60	43120
2026-01-26 14:09:04.79	19.95	1.30	-48.8	-61.7	3.5	1.52e+00	0	30	104	0	60	42723
2026-01-26 14:09:05.80	19.98	1.36	-48.7	-61.4	3.5	1.52e+00	0	29	104	0	60	41431
2026-01-26 14:09:06.82	20.00	1.43	-48.5	-61.3	3.5	1.52e+00	0	30	104	0	60	40777
2026-01-26 14:09:07.83	20.02	1.49	-48.2	-60.9	3.5	1.52e+00	0	30	104	0	60	39045
2026-01-26 14:09:08.84	20.05	1.55	-48.2	-61.0	3.5	1.52e+00	0	30	104	0	60	39211
2026-01-26 14:09:09.85	20.07	1.61	-48.2	-61.0	3.5	1.52e+00	0	30	104	0	60	39185
2026-01-26 14:09:10.86	20.09	1.68	-48.2	-60.9	3.5	1.52e+00	0	30	104	0	60	39121
2026-01-26 14:09:11.87	20.12	1.74	-48.2	-61.0	3.5	1.52e+00	0	30	104	0	60	39252
2026-01-26 14:09:12.88	20.14	1.80	-48.2	-61.0	3.5	1.51e+00	0	30	104	0	60	39496
2026-01-26 14:09:13.89	20.16	1.86	-48.2	-61.0	3.5	1.52e+00	0	30	104	0	60	39385
2026-01-26 14:09:14.90	20.19	1.93	-48.2	-61.0	3.5	1.52e+00	0	30	104	0	60	39506
2026-01-26 14:09:15.91	20.21	1.99	-48.2	-61.0	3.5	1.52e+00	0	30	104	0	60	39505
2026-01-26 14:09:16.92	20.23	2.05	-48.2	-61.0	3.5	1.52e+00	0	30	104	0	60	39380
2026-01-26 14:09:17.93	20.26	2.12	-48.2	-60.9	3.5	1.52e+00	0	30	104	0	60	38957
2026-01-26 14:09:18.94	20.28	2.18	-48.2	-60.8	3.5	1.52e+00	0	30	104	0	60	38537
2026-01-26 14:09:19.95	20.31	2.25	-48.1	-60.4	3.5	1.52e+00	0	30	104	0	60	36566
2026-01-26 14:09:20.96	20.33	2.31	-48.1	-59.9	3.5	1.52e+00	0	30	104	0	60	34684
2026-01-26 14:09:21.97	20.35	2.37	-48.0	-59.0	3.7	1.51e+00	0	30	104	0	60	31431
2026-01-26 14:09:22.98	20.38	2.44	-48.0	-59.1	3.7	1.51e+00	0	30	104	0	60	31523
2026-01-26 14:09:23.99	20.40	2.50	-48.0	-59.5	3.6	1.51e+00	0	30	104	0	60	32948
2026-01-26 14:09:25.00	20.43	2.57	-48.1	-59.8	3.5	1.51e+00	0	30	104	0	60	34335
2026-01-26 14:09:26.01	20.45	2.63	-48.0	-59.4	3.5	1.51e+00	0	30	104	0	60	32881
2026-01-26 14:09:27.02	20.48	2.70	-47.9	-58.0	3.6	1.51e+00	0	30	104	0	60	27741
2026-01-26 14:09:28.04	20.50	2.76	-47.4	-54.0	5.4	4.27e-01	120	30	0	0	60	17546
2026-01-26 14:09:29.05	20.53	2.83	-46.5	-52.0	8.5	5.47e-02	123	30	104	1048576	60	13896
2026-01-26 14:09:30.06	20.55	2.89	-45.4	-48.7	11.7	7.49e-03	123	30	0	3145728	60	9594
2026-01-26 14:09:31.07	20.58	2.96	-44.2	-46.8	13.5	2.44e-05	122	30	0	6291456	60	7684
2026-01-26 14:09:32.07	20.60	3.02	-43.2	-45.3	15.1	7.00e-07	123	30	0	9437184	60	6483
2026-01-26 14:09:33.08	20.63	3.09	-42.2	-44.1	16.2	0.00e+00	123	30	0	12582912	58	6297
2026-01-26 14:09:34.09	20.65	3.15	-41.2	-42.8	17.4	0.00e+00	123	30	0	15728640	56	6069
2026-01-26 14:09:35.10	20.68	3.22	-40.6	-42.0	17.8	0.00e+00	123	30	0	18874368	54	6274
2026-01-26 14:09:36.11	20.70	3.29	-39.6	-40.9	19.0	0.00e+00	123	30	0	22020096	52	6155
2026-01-26 14:09:37.12	20.73	3.35	-39.6	-40.9	19.2	0.00e+00	123	30	0	25165824	52	6192
2026-01-26 14:09:38.13	20.76	3.42	-40.2	-41.6	18.5	0.00e+00	123	30	0	28311552	52	6709
2026-01-26 14:09:39.15	20.78	3.49	-40.6	-42.1	18.1	0.00e+00	120	30	0	31457280	52	7054
2026-01-26 14:09:40.16	20.81	3.55	-41.2	-42.8	17.4	0.00e+00	123	30	0	34603008	54	6838
2026-01-26 14:09:41.17	20.83	3.62	-41.6	-43.2	17.0	0.00e+00	123	30	0	37748736	54	7174
2026-01-26 14:09:42.18	20.86	3.69	-39.4	-40.7	19.5	0.00e+00	123	30	0	40894464	52	6003
2026-01-26 14:09:43.18	20.89	3.76	-44.2	-46.7	14.0	5.11e-05	123	30	0	44040192	60	7619
2026-01-26 14:09:44.19	20.91	3.82	-47.5	-55.1	4.0	5.38e-01	0	30	104	47185920	60	20018
2026-01-26 14:09:45.20	20.94	3.89	-43.1	-45.1	16.0	1.44e-05	122	30	0	47185920	60	6320
2026-01-26 14:09:46.21	20.97	3.96	-48.1	-60.7	3.5	1.51e+00	0	30	104	49283072	60	37862
2026-01-26 14:09:47.22	20.99	4.03	-42.6	-44.8	15.6	3.21e-01	121	30	104	49283072	58	6869
2026-01-26 14:09:48.23	21.02	4.09	-41.7	-43.3	17.1	0.00e+00	123	30	0	50331648	56	6472
2026-01-26 14:09:49.24	21.05	4.16	-41.7	-43.3	17.8	0.00e+00	122	30	0	53477376	56	6454
2026-01-26 14:09:50.25	21.07	4.23	-41.3	-42.8	17.9	0.00e+00	121	30	0	56623104	56	6103
2026-01-26 14:09:51.26	21.10	4.30	-41.0	-42.5	17.3	0.00e+00	122	30	0	59768832	56	5889
2026-01-26 14:09:52.27	21.13	4.37	-41.7	-43.3	17.4	0.00e+00	120	30	0	62914560	56	6457
2026-01-26 14:09:53.28	21.15	4.44	-41.0	-42.5	18.1	0.00e+00	122	30	0	66060288	56	5914
2026-01-26 14:09:54.29	21.18	4.51	-41.1	-42.6	17.9	0.00e+00	123	30	0	69206016	54	6687
2026-01-26 14:09:55.30	21.21	4.58	-40.9	-42.3	18.0	0.00e+00	122	30	0	72351744	54	6496
2026-01-26 14:09:56.31	21.24	4.65	-39.6	-40.9	19.5	0.00e+00	123	30	0	75497472	52	6142
2026-01-26 14:09:57.32	21.26	4.72	-40.0	-41.3	19.5	0.00e+00	122	30	0	78643200	52	6471
2026-01-26 14:09:58.33	21.29	4.79	-40.0	-41.3	19.1	0.00e+00	122	30	0	81788928	52	6445
2026-01-26 14:09:59.34	21.32	4.86	-40.2	-41.6	18.8	0.00e+00	122	30	0	84934656	52	6661
2026-01-26 14:10:00.35	21.35	4.93	-39.8	-41.1	19.5	0.00e+00	123	30	0	88080384	52	6323
2026-01-26 14:10:01.36	21.38	5.00	-40.1	-41.4	19.3	0.00e+00	122	30	0	91226112	52	6538
2026-01-26 14:10:02.37	21.40	5.07	-39.8	-41.1	19.4	0.00e+00	123	30	0	94371840	52	6310
2026-01-26 14:10:03.38	21.43	5.14	-40.2	-41.5	19.5	0.00e+00	122	30	0	98566144	52	6625
2026-01-26 14:10:04.39	21.46	5.21	-40.1	-41.5	19.0	0.00e+00	123	30	0	101711872	52	6610
2026-01-26 14:10:05.40	21.49	5.28	-40.3	-41.7	19.0	0.00e+00	122	30	0	103809024	52	6760
2026-01-26 14:10:06.41	21.52	5.35	-39.8	-41.1	19.6	0.00e+00	123	30	0	106954752	52	6308
2026-01-26 14:10:07.42	21.55	5.42	-38.7	-39.9	20.5	0.00e+00	123	30	0	110100480	52	5493
2026-01-26 14:10:08.43	21.58	5.49	-38.0	-39.1	21.2	0.00e+00	123	30	0	113246208	50	5619
2026-01-26 14:10:09.43	21.61	5.57	-38.1	-39.2	21.1	0.00e+00	123	30	0	117440512	50	5725
2026-01-26 14:10:10.44	21.63	5.64	-38.1	-39.2	21.1	0.00e+00	122	30	0	120586240	50	5694
2026-01-26 14:10:11.45	21.66	5.71	-38.2	-39.3	21.1	0.00e+00	123	30	0	123731968	50	5733
2026-01-26 14:10:12.46	21.69	5.78	-38.1	-39.2	21.2	0.00e+00	123	30	0	125829120	50	5686
2026-01-26 14:10:13.47	21.72	5.85	-37.8	-38.9	21.4	0.00e+00	123	30	0	128974848	50	5483
2026-01-26 14:10:14.48	21.75	5.93	-38.1	-39.2	21.1	0.00e+00	120	30	0	133169152	50	5709
2026-01-26 14:10:15.49	21.78	6.00	-37.8	-38.9	21.4	0.00e+00	123	30	0	136314880	50	5512
2026-01-26 14:10:16.51	21.81	6.07	-37.9	-39.0	21.4	0.00e+00	120	30	0	139460608	50	5543
2026-01-26 14:10:17.52	21.84	6.15	-37.8	-38.9	21.4	0.00e+00	123	30	0	142606336	50	5519
2026-01-26 14:10:18.53	21.87	6.22	-37.9	-39.1	21.3	0.00e+00	121	30	0	145752064	48	6278
2026-01-26 14:10:19.54	21.90	6.30	-37.9	-38.9	21.4	0.00e+00	123	30	0	148897792	48	6202
2026-01-26 14:10:20.55	21.93	6.37	-37.9	-39.0	21.3	0.00e+00	120	30	0	152043520	48	6232
2026-01-26 14:10:21.56	21.96	6.44	-37.9	-39.0	21.3	0.00e+00	123	30	0	155189248	48	6261
2026-01-26 14:10:22.57	21.99	6.52	-37.8	-38.8	21.6	0.00e+00	123	30	0	158334976	48	6131
2026-01-26 14:10:23.58	22.03	6.59	-37.6	-38.6	21.7	0.00e+00	123	30	0	161480704	48	5993
2026-01-26 14:10:24.58	22.06	6.67	-37.5	-38.6	21.7	0.00e+00	122	30	0	164626432	48	5949
2026-01-26 14:10:25.59	22.09	6.74	-37.5	-38.6	21.8	0.00e+00	120	30	0	167772160	48	5953
2026-01-26 14:10:26.60	22.12	6.82	-37.7	-38.8	21.7	0.00e+00	123	30	0	170917888	48	6065
2026-01-26 14:10:27.61	22.15	6.89	-37.6	-38.7	21.6	0.00e+00	123	30	0	174063616	48	6040
2026-01-26 14:10:28.62	22.18	6.97	-38.1	-39.2	21.4	0.00e+00	120	30	0	177209344	48	6386
2026-01-26 14:10:29.63	22.21	7.05	-37.6	-38.6	21.6	0.00e+00	122	30	0	180355072	48	5988
2026-01-26 14:10:30.64	22.25	7.12	-37.6	-38.7	21.7	0.00e+00	123	30	0	183500800	48	6027
2026-01-26 14:10:31.65	22.28	7.20	-37.6	-38.7	21.7	0.00e+00	122	30	0	186646528	48	6014
2026-01-26 14:10:32.66	22.31	7.28	-37.6	-38.6	21.8	0.00e+00	124	30	0	189792256	48	5992
2026-01-26 14:10:33.67	22.34	7.35	-37.6	-38.7	21.7	0.00e+00	123	30	0	192937984	48	6035
2026-01-26 14:10:34.68	22.37	7.43	-37.4	-38.5	21.9	0.00e+00	122	30	0	196083712	48	5883
2026-01-26 14:10:35.69	22.41	7.51	-37.2	-38.3	22.1	0.00e+00	123	30	0	199229440	48	5743
2026-01-26 14:10:36.70	22.44	7.58	-37.1	-38.1	22.2	0.00e+00	123	30	0	202375168	48	5647
2026-01-26 14:10:37.71	22.47	7.66	-37.4	-38.4	21.9	0.00e+00	122	30	0	205520896	48	5833
2026-01-26 14:10:38.72	22.50	7.74	-37.5	-38.5	21.9	0.00e+00	120	30	0	208666624	48	5898
2026-01-26 14:10:39.73	22.54	7.82	-37.2	-38.2	22.1	0.00e+00	123	30	0	211812352	48	5720
2026-01-26 14:10:40.73	22.57	7.90	-37.2	-38.2	22.2	0.00e+00	123	30	0	214958080	48	5695
2026-01-26 14:10:41.74	22.60	7.98	-37.3	-38.3	22.1	0.00e+00	120	30	0	218103808	48	5747
2026-01-26 14:10:42.75	22.64	8.05	-37.0	-38.0	22.4	0.00e+00	122	30	0	221249536	48	5563
2026-01-26 14:10:43.76	22.67	8.13	-37.1	-38.1	22.4	0.00e+00	123	30	0	224395264	48	5608
2026-01-26 14:10:44.77	22.71	8.21	-37.0	-38.0	22.3	0.00e+00	123	30	0	227540992	48	5588
2026-01-26 14:10:45.78	22.74	8.29	-37.1	-38.1	22.3	0.00e+00	123	30	0	230686720	48	5639
2026-01-26 14:10:46.79	22.77	8.37	-37.1	-38.2	22.3	0.00e+00	122	30	0	233832448	48	5669
2026-01-26 14:10:47.79	22.81	8.45	-37.1	-38.1	22.3	0.00e+00	122	30	0	236978176	48	5651
2026-01-26 14:10:48.80	22.84	8.53	-37.0	-38.0	22.4	0.00e+00	120	30	0	240123904	48	5576
2026-01-26 14:10:49.81	22.88	8.61	-37.2	-38.3	22.2	0.00e+00	122	30	0	243269632	48	5736
2026-01-26 14:10:50.83	22.91	8.70	-37.3	-38.3	22.2	0.00e+00	121	30	0	246415360	48	5756
2026-01-26 14:10:51.84	22.95	8.78	-37.2	-38.2	22.2	0.00e+00	123	30	0	249561088	48	5686
2026-01-26 14:10:52.85	22.98	8.86	-37.3	-38.4	22.1	0.00e+00	122	30	0	252706816	48	5799
2026-01-26 14:10:53.86	23.02	8.94	-36.9	-37.9	22.6	0.00e+00	122	30	0	255852544	48	5476
2026-01-26 14:10:54.87	23.05	9.02	-36.8	-37.8	22.7	0.00e+00	122	30	0	258998272	48	5432
2026-01-26 14:10:55.88	23.09	9.10	-36.8	-37.8	22.7	0.00e+00	120	30	0	262144000	46	6088
2026-01-26 14:10:56.89	23.13	9.19	-36.8	-37.7	22.8	0.00e+00	122	30	0	265289728	46	6049
2026-01-26 14:10:57.90	23.16	9.27	-36.7	-37.7	22.7	0.00e+00	122	30	0	268435456	46	5995
2026-01-26 14:10:58.90	23.20	9.35	-36.8	-37.8	22.8	0.00e+00	123	30	0	271581184	46	6074
2026-01-26 14:10:59.92	23.23	9.44	-36.8	-37.7	22.7	0.00e+00	123	30	0	274726912	46	6062
2026-01-26 14:11:00.92	23.27	9.52	-36.8	-37.8	22.8	0.00e+00	125	30	0	277872640	46	6099
2026-01-26 14:11:01.93	23.31	9.60	-36.7	-37.6	22.9	0.00e+00	123	30	0	281018368	46	5982
2026-01-26 14:11:02.94	23.35	9.69	-36.5	-37.5	23.0	0.00e+00	123	30	0	284164096	46	5861
2026-01-26 14:11:03.95	23.38	9.77	-36.4	-37.4	23.0	0.00e+00	123	30	0	287309824	46	5835
2026-01-26 14:11:04.96	23.42	9.86	-36.4	-37.4	23.0	0.00e+00	122	30	0	290455552	46	5836
2026-01-26 14:11:05.97	23.46	9.94	-36.5	-37.5	23.0	0.00e+00	123	30	0	293601280	46	5883
2026-01-26 14:11:06.98	23.50	10.03	-36.4	-37.4	23.1	0.00e+00	122	30	0	296747008	46	5820
2026-01-26 14:11:07.99	23.53	10.11	-36.6	-37.5	23.0	0.00e+00	122	30	0	299892736	46	5905
2026-01-26 14:11:09.00	23.57	10.20	-36.5	-37.5	22.9	0.00e+00	122	30	0	303038464	46	5872
2026-01-26 14:11:10.01	23.61	10.28	-36.6	-37.6	22.9	0.00e+00	122	30	0	306184192	46	5957
2026-01-26 14:11:11.02	23.65	10.37	-36.6	-37.6	23.0	0.00e+00	122	30	0	309329920	46	5951
2026-01-26 14:11:12.03	23.69	10.46	-36.3	-37.3	23.1	0.00e+00	122	30	0	312475648	46	5762
2026-01-26 14:11:13.04	23.73	10.54	-36.4	-37.4	23.0	0.00e+00	122	30	0	315621376	46	5816
2026-01-26 14:11:14.05	23.77	10.63	-36.4	-37.4	23.1	0.00e+00	123	30	0	318767104	46	5801
2026-01-26 14:11:15.06	23.80	10.72	-36.5	-37.4	23.0	0.00e+00	122	30	0	321912832	46	5844
2026-01-26 14:11:16.07	23.84	10.81	-36.6	-37.6	22.9	0.00e+00	122	30	0	325058560	46	5929
2026-01-26 14:11:17.08	23.88	10.90	-36.6	-37.6	22.9	0.00e+00	123	30	0	328204288	46	5934
2026-01-26 14:11:18.09	23.92	10.98	-36.2	-37.1	23.3	0.00e+00	122	30	0	331350016	46	5636
2026-01-26 14:11:19.10	23.96	11.07	-36.0	-36.9	23.4	0.00e+00	122	30	0	334495744	46	5505
2026-01-26 14:11:20.11	24.00	11.16	-36.1	-37.0	23.3	0.00e+00	123	30	0	337641472	46	5585
2026-01-26 14:11:21.12	24.05	11.25	-36.2	-37.1	23.2	0.00e+00	122	30	0	340787200	46	5649
2026-01-26 14:11:22.13	24.09	11.34	-36.1	-37.0	23.4	0.00e+00	123	30	0	343932928	46	5575
2026-01-26 14:11:23.14	24.13	11.43	-36.1	-37.0	23.4	0.00e+00	120	30	0	347078656	46	5556
2026-01-26 14:11:24.15	24.17	11.52	-36.0	-36.9	23.4	0.00e+00	122	30	0	350224384	46	5521
2026-01-26 14:11:25.15	24.21	11.61	-36.0	-37.0	23.4	0.00e+00	123	30	0	353370112	46	5544
2026-01-26 14:11:26.16	24.25	11.70	-35.9	-36.8	23.5	0.00e+00	123	30	0	356515840	46	5455
2026-01-26 14:11:27.17	24.29	11.79	-35.9	-36.9	23.5	0.00e+00	120	30	0	359661568	46	5472
2026-01-26 14:11:28.18	24.34	11.89	-35.8	-36.8	23.6	0.00e+00	122	30	0	362807296	46	5417
2026-01-26 14:11:29.19	24.38	11.98	-35.9	-36.8	23.5	0.00e+00	123	30	0	365953024	46	5435
2026-01-26 14:11:30.20	24.42	12.07	-35.8	-36.7	23.6	0.00e+00	123	30	0	369098752	46	5380
2026-01-26 14:11:31.21	24.46	12.16	-35.9	-36.8	23.5	0.00e+00	120	30	0	372244480	46	5426
2026-01-26 14:11:32.22	24.51	12.26	-36.0	-36.9	23.5	0.00e+00	122	30	0	375390208	46	5519
2026-01-26 14:11:33.23	24.55	12.35	-36.1	-37.0	23.3	0.00e+00	123	30	0	378535936	46	5562
2026-01-26 14:11:34.24	24.59	12.44	-35.8	-36.7	23.6	0.00e+00	120	30	0	381681664	46	5369
2026-01-26 14:11:35.25	24.64	12.54	-35.8	-36.7	23.6	0.00e+00	123	30	0	384827392	44	6030
2026-01-26 14:11:36.26	24.68	12.63	-35.8	-36.7	23.7	0.00e+00	123	30	0	387973120	44	6052
2026-01-26 14:11:37.27	24.73	12.73	-35.6	-36.6	23.6	0.00e+00	120	30	0	391118848	44	5944
2026-01-26 14:11:38.28	24.77	12.82	-35.9	-36.8	23.6	0.00e+00	123	30	0	394264576	44	6092
2026-01-26 14:11:39.29	24.82	12.92	-35.6	-36.5	23.8	0.00e+00	120	30	0	397410304	44	5870
2026-01-26 14:11:40.30	24.86	13.01	-35.6	-36.5	23.8	0.00e+00	122	30	0	400556032	44	5884
2026-01-26 14:11:41.31	24.91	13.11	-35.6	-36.5	23.7	0.00e+00	122	30	0	403701760	44	5908
2026-01-26 14:11:42.32	24.95	13.21	-35.7	-36.6	23.7	0.00e+00	123	30	0	406847488	44	5964
2026-01-26 14:11:43.33	25.00	13.31	-35.6	-36.5	23.7	0.00e+00	122	30	0	409993216	44	5892
2026-01-26 14:11:44.34	25.05	13.40	-35.6	-36.6	23.7	0.00e+00	122	30	0	413138944	44	5938
2026-01-26 14:11:45.35	25.09	13.50	-35.7	-36.6	23.7	0.00e+00	122	30	0	416284672	44	5950
2026-01-26 14:11:46.36	25.14	13.60	-35.6	-36.5	23.7	0.00e+00	122	30	0	419430400	44	5923
2026-01-26 14:11:47.37	25.19	13.70	-35.6	-36.5	23.8	0.00e+00	123	30	0	422576128	44	5906
2026-01-26 14:11:48.38	25.23	13.80	-35.6	-36.5	23.8	0.00e+00	119	30	0	425721856	44	5902
2026-01-26 14:11:49.39	25.28	13.90	-35.6	-36.5	23.8	0.00e+00	123	30	0	428867584	44	5903
2026-01-26 14:11:50.40	25.33	14.00	-35.9	-36.8	23.6	0.00e+00	123	30	0	432013312	44	6124
2026-01-26 14:11:51.41	25.38	14.10	-35.5	-36.4	23.9	0.00e+00	122	30	0	435159040	44	5829
2026-01-26 14:11:52.42	25.43	14.20	-35.4	-36.3	23.9	0.00e+00	122	30	0	438304768	44	5771
2026-01-26 14:11:53.43	25.48	14.30	-35.5	-36.4	23.8	0.00e+00	123	30	0	442499072	44	5833
2026-01-26 14:11:54.44	25.53	14.40	-35.5	-36.4	23.8	0.00e+00	120	30	0	444596224	44	5853
2026-01-26 14:11:55.45	25.58	14.50	-35.4	-36.3	23.9	0.00e+00	123	30	0	447741952	44	5782
2026-01-26 14:11:56.46	25.63	14.60	-35.5	-36.4	23.9	0.00e+00	122	30	0	450887680	44	5818
2026-01-26 14:11:57.47	25.68	14.71	-35.4	-36.3	24.0	0.00e+00	123	30	0	454033408	44	5738
2026-01-26 14:11:58.48	25.73	14.81	-35.5	-36.4	24.0	0.00e+00	123	30	0	457179136	44	5838
2026-01-26 14:11:59.49	25.78	14.91	-35.4	-36.3	24.0	0.00e+00	120	30	0	461373440	44	5739
2026-01-26 14:12:00.49	25.83	15.01	-35.5	-36.4	23.9	0.00e+00	122	30	0	464519168	44	5846
2026-01-26 14:12:01.51	25.88	15.12	-35.5	-36.4	23.9	0.00e+00	120	30	0	466616320	44	5846
2026-01-26 14:12:02.52	25.93	15.22	-35.4	-36.3	24.0	0.00e+00	123	30	0	469762048	44	5770
2026-01-26 14:12:03.53	25.98	15.33	-35.5	-36.4	24.0	0.00e+00	122	30	0	472907776	44	5841
2026-01-26 14:12:04.54	26.04	15.44	-35.3	-36.2	24.1	0.00e+00	123	30	0	477102080	44	5673
2026-01-26 14:12:05.55	26.09	15.54	-35.3	-36.2	24.1	0.00e+00	122	30	0	480247808	44	5721
2026-01-26 14:12:06.56	26.14	15.65	-35.4	-36.3	24.0	0.00e+00	123	30	0	483393536	44	5736
2026-01-26 14:12:07.57	26.20	15.75	-35.5	-36.4	23.9	0.00e+00	122	30	0	486539264	44	5808
2026-01-26 14:12:08.58	26.25	15.86	-35.2	-36.1	24.2	0.00e+00	123	30	0	489684992	44	5605
2026-01-26 14:12:09.58	26.30	15.97	-35.3	-36.2	24.1	0.00e+00	123	30	0	492830720	44	5705
2026-01-26 14:12:10.59	26.36	16.08	-35.4	-36.3	24.0	0.00e+00	120	30	0	495976448	44	5769
2026-01-26 14:12:11.60	26.41	16.19	-35.2	-36.1	24.2	0.00e+00	123	30	0	499122176	44	5619
2026-01-26 14:12:12.61	26.47	16.30	-35.3	-36.2	24.1	0.00e+00	120	30	0	502267904	44	5683
2026-01-26 14:12:13.62	26.52	16.41	-35.2	-36.1	24.2	0.00e+00	122	30	0	505413632	44	5657
2026-01-26 14:12:14.63	26.58	16.52	-35.3	-36.2	24.1	0.00e+00	120	30	0	508559360	44	5697
2026-01-26 14:12:15.64	26.64	16.63	-35.3	-36.2	24.1	0.00e+00	122	30	0	511705088	44	5683
2026-01-26 14:12:16.65	26.69	16.74	-35.2	-36.1	24.2	0.00e+00	123	30	0	514850816	44	5648
2026-01-26 14:12:17.66	26.75	16.85	-35.3	-36.2	24.2	0.00e+00	120	30	0	517996544	44	5696
2026-01-26 14:12:18.67	26.81	16.96	-35.3	-36.1	24.2	0.00e+00	123	30	0	521142272	44	5657
2026-01-26 14:12:19.68	26.87	17.07	-35.2	-36.1	24.2	0.00e+00	123	30	0	524288000	44	5608
2026-01-26 14:12:20.69	26.92	17.19	-35.1	-36.0	24.2	0.00e+00	123	30	0	527433728	44	5584
2026-01-26 14:12:21.70	26.98	17.30	-35.2	-36.1	24.3	0.00e+00	123	30	0	530579456	44	5595
2026-01-26 14:12:22.71	27.04	17.41	-35.3	-36.2	24.2	0.00e+00	123	30	0	533725184	44	5708
2026-01-26 14:12:23.72	27.10	17.53	-35.3	-36.2	24.2	0.00e+00	122	30	0	536870912	44	5704
2026-01-26 14:12:24.73	27.16	17.64	-35.4	-36.2	24.1	0.00e+00	120	30	0	540016640	44	5719
2026-01-26 14:12:25.74	27.22	17.76	-35.2	-36.1	24.2	0.00e+00	123	30	0	543162368	44	5646
2026-01-26 14:12:26.75	27.28	17.88	-35.3	-36.3	24.0	0.00e+00	122	30	0	546308096	44	5730
2026-01-26 14:12:27.76	27.34	17.99	-35.5	-36.3	24.2	0.00e+00	122	30	0	549453824	44	5786
2026-01-26 14:12:28.77	27.41	18.11	-35.5	-36.4	24.1	0.00e+00	123	30	0	552599552	44	5822
2026-01-26 14:12:29.78	27.47	18.23	-35.6	-36.5	23.9	0.00e+00	123	30	0	555745280	44	5900
2026-01-26 14:12:30.78	27.53	18.34	-35.4	-36.3	24.0	0.00e+00	123	30	0	558891008	44	5777
2026-01-26 14:12:31.79	27.59	18.46	-35.7	-36.6	23.9	0.00e+00	123	30	0	562036736	44	5952
2026-01-26 14:12:32.81	27.66	18.58	-35.4	-36.3	24.1	0.00e+00	123	30	0	565182464	44	5766
2026-01-26 14:12:33.81	27.72	18.70	-35.5	-36.4	24.0	0.00e+00	123	30	0	568328192	44	5813
2026-01-26 14:12:34.82	27.79	18.82	-35.5	-36.4	24.0	0.00e+00	120	30	0	571473920	44	5816
2026-01-26 14:12:35.83	27.85	18.94	-35.5	-36.4	24.1	0.00e+00	123	30	0	574619648	44	5807
2026-01-26 14:12:36.84	27.92	19.07	-35.6	-36.5	24.0	0.00e+00	122	30	0	577765376	44	5905
2026-01-26 14:12:37.85	27.98	19.19	-35.7	-36.6	23.9	0.00e+00	123	30	0	580911104	44	5976
2026-01-26 14:12:38.86	28.05	19.31	-35.6	-36.5	23.9	0.00e+00	123	30	0	584056832	44	5920
2026-01-26 14:12:39.87	28.11	19.43	-35.6	-36.6	23.9	0.00e+00	123	30	0	587202560	44	5927
2026-01-26 14:12:40.88	28.18	19.56	-35.6	-36.5	23.9	0.00e+00	122	30	0	590348288	44	5921
2026-01-26 14:12:41.89	28.25	19.68	-35.7	-36.6	23.8	0.00e+00	123	30	0	593494016	44	5956
2026-01-26 14:12:42.90	28.32	19.81	-35.5	-36.5	24.0	0.00e+00	123	30	0	596639744	44	5871
2026-01-26 14:12:43.91	28.39	19.93	-35.6	-36.5	23.9	0.00e+00	122	30	0	599785472	44	5913
2026-01-26 14:12:44.92	28.46	20.06	-35.7	-36.6	23.8	0.00e+00	123	30	0	602931200	44	5964
2026-01-26 14:12:45.93	28.53	20.19	-35.5	-36.5	24.0	0.00e+00	123	30	0	606076928	44	5862
2026-01-26 14:12:46.94	28.60	20.31	-35.7	-36.6	23.9	0.00e+00	123	30	0	609222656	44	5987
2026-01-26 14:12:47.95	28.67	20.44	-35.5	-36.4	24.0	0.00e+00	123	30	0	612368384	44	5851
2026-01-26 14:12:48.96	28.74	20.57	-35.6	-36.5	23.9	0.00e+00	121	30	0	615514112	44	5904
2026-01-26 14:12:49.97	28.81	20.70	-35.2	-36.1	24.2	0.00e+00	123	30	0	618659840	44	5652
2026-01-26 14:12:50.98	28.89	20.83	-35.0	-35.9	24.4	0.00e+00	120	30	0	621805568	44	5518
2026-01-26 14:12:51.99	28.96	20.96	-35.1	-36.0	24.3	0.00e+00	122	30	0	624951296	44	5536
2026-01-26 14:12:53.00	29.03	21.09	-34.9	-35.8	24.4	0.00e+00	122	30	0	628097024	44	5410
2026-01-26 14:12:54.01	29.11	21.22	-34.8	-35.7	24.4	0.00e+00	122	30	0	631242752	44	5379
2026-01-26 14:12:55.02	29.18	21.36	-34.7	-35.6	24.6	0.00e+00	122	30	0	634388480	42	5928
2026-01-26 14:12:56.03	29.26	21.49	-34.6	-35.5	24.6	0.00e+00	123	30	0	637534208	42	5913
2026-01-26 14:12:57.04	29.34	21.62	-34.5	-35.4	24.7	0.00e+00	122	30	0	640679936	42	5829
2026-01-26 14:12:58.05	29.41	21.76	-34.3	-35.2	24.8	0.00e+00	121	30	0	643825664	42	5668
2026-01-26 14:12:59.06	29.49	21.89	-34.5	-35.3	24.8	0.00e+00	120	30	0	646971392	42	5788
2026-01-26 14:13:00.07	29.57	22.03	-34.4	-35.3	24.8	0.00e+00	122	30	0	650117120	42	5739
2026-01-26 14:13:01.08	29.65	22.17	-34.2	-35.1	25.0	0.00e+00	121	30	0	653262848	42	5614
2026-01-26 14:13:02.09	29.73	22.30	-34.4	-35.2	24.8	0.00e+00	123	30	0	656408576	42	5711
2026-01-26 14:13:03.10	29.81	22.44	-34.2	-35.1	24.9	0.00e+00	123	30	0	659554304	42	5610
2026-01-26 14:13:04.11	29.89	22.58	-34.1	-35.0	25.0	0.00e+00	121	30	0	662700032	42	5555
2026-01-26 14:13:05.11	29.97	22.72	-34.0	-34.9	25.1	0.00e+00	123	30	0	665845760	42	5486
2026-01-26 14:13:06.12	30.05	22.86	-34.0	-34.9	25.1	0.00e+00	120	30	0	668991488	42	5468
2026-01-26 14:13:07.13	30.14	23.00	-34.0	-34.8	25.1	0.00e+00	122	30	0	672137216	42	5455
2026-01-26 14:13:08.14	30.22	23.14	-33.9	-34.8	25.1	0.00e+00	122	30	0	675282944	42	5435
2026-01-26 14:13:09.15	30.30	23.28	-33.9	-34.8	25.1	0.00e+00	123	30	0	678428672	42	5413
2026-01-26 14:13:10.16	30.39	23.42	-33.8	-34.7	25.3	0.00e+00	123	30	0	681574400	42	5355
2026-01-26 14:13:11.17	30.48	23.57	-33.9	-34.7	25.2	0.00e+00	122	30	0	684720128	42	5380
2026-01-26 14:13:12.18	30.56	23.71	-34.0	-34.9	25.1	0.00e+00	123	30	0	687865856	42	5484
2026-01-26 14:13:13.20	30.65	23.86	-34.0	-34.8	25.2	0.00e+00	122	30	0	691011584	42	5454
2026-01-26 14:13:14.21	30.74	24.01	-34.0	-34.8	25.3	0.00e+00	123	30	0	694157312	42	5440
2026-01-26 14:13:15.21	30.83	24.15	-33.9	-34.7	25.3	0.00e+00	123	30	0	697303040	42	5379
2026-01-26 14:13:16.23	30.92	24.30	-34.0	-34.8	25.2	0.00e+00	123	30	0	700448768	42	5460
2026-01-26 14:13:17.23	31.01	24.45	-34.0	-34.9	25.1	0.00e+00	122	30	0	703594496	42	5493
2026-01-26 14:13:18.24	31.10	24.60	-34.1	-35.0	25.0	0.00e+00	122	30	0	706740224	42	5541
2026-01-26 14:13:19.25	31.19	24.75	-34.1	-34.9	25.1	0.00e+00	123	30	0	709885952	42	5517
2026-01-26 14:13:20.26	31.29	24.90	-34.1	-35.0	25.0	0.00e+00	123	30	0	713031680	42	5551
2026-01-26 14:13:21.27	31.38	25.05	-34.3	-35.1	24.9	0.00e+00	123	30	0	716177408	42	5658
2026-01-26 14:13:22.28	31.47	25.20	-34.3	-35.2	24.8	0.00e+00	123	30	0	719323136	42	5677
2026-01-26 14:13:23.29	31.57	25.35	-34.4	-35.3	24.8	0.00e+00	122	30	0	722468864	42	5731
2026-01-26 14:13:24.30	31.67	25.51	-34.6	-35.5	24.6	0.00e+00	122	30	0	725614592	42	5883
2026-01-26 14:13:25.31	31.76	25.66	-34.4	-35.3	24.7	0.00e+00	123	30	0	728760320	42	5767
2026-01-26 14:13:26.32	31.86	25.82	-34.5	-35.4	24.7	0.00e+00	123	30	0	731906048	42	5796
2026-01-26 14:13:27.33	31.96	25.97	-34.6	-35.5	24.7	0.00e+00	123	30	0	735051776	42	5864
2026-01-26 14:13:28.34	32.06	26.13	-34.6	-35.5	24.7	0.00e+00	120	30	0	738197504	42	5896
2026-01-26 14:13:29.35	32.16	26.29	-34.8	-35.7	24.4	0.00e+00	123	30	0	741343232	42	6012
2026-01-26 14:13:30.36	32.27	26.45	-34.9	-35.8	24.4	0.00e+00	123	30	0	744488960	42	6086
2026-01-26 14:13:31.37	32.37	26.61	-34.9	-35.8	24.4	0.00e+00	123	30	0	747634688	42	6070
2026-01-26 14:13:32.38	32.47	26.77	-35.2	-36.1	24.1	0.00e+00	122	30	0	750780416	42	6336
2026-01-26 14:13:33.39	32.58	26.93	-35.1	-36.0	24.3	0.00e+00	123	30	0	753926144	42	6268
2026-01-26 14:13:34.40	32.69	27.09	-35.2	-36.1	24.2	0.00e+00	123	30	0	757071872	42	6297
2026-01-26 14:13:35.41	32.79	27.25	-35.3	-36.2	24.1	0.00e+00	123	30	0	760217600	42	6364
2026-01-26 14:13:36.42	32.90	27.42	-35.4	-36.4	23.9	0.00e+00	123	30	0	763363328	42	6517
2026-01-26 14:13:37.43	33.01	27.58	-35.6	-36.5	23.8	0.00e+00	123	30	0	766509056	42	6631
2026-01-26 14:13:38.43	33.12	27.74	-35.6	-36.5	23.7	0.00e+00	122	30	0	769654784	42	6643
2026-01-26 14:13:39.44	33.23	27.91	-35.6	-36.6	23.8	0.00e+00	123	30	0	772800512	42	6657
2026-01-26 14:13:40.45	33.34	28.08	-35.9	-36.8	23.8	0.00e+00	120	30	0	775946240	44	6096
2026-01-26 14:13:41.46	33.46	28.25	-35.7	-36.6	23.8	0.00e+00	122	30	0	779091968	44	5982
2026-01-26 14:13:42.47	33.57	28.42	-35.7	-36.6	23.7	0.00e+00	123	30	0	782237696	44	5965
2026-01-26 14:13:43.48	33.69	28.59	-35.7	-36.6	23.7	0.00e+00	120	30	0	785383424	44	5980
2026-01-26 14:13:44.49	33.81	28.76	-35.6	-36.6	23.6	0.00e+00	122	30	0	788529152	44	5954
2026-01-26 14:13:45.50	33.93	28.93	-35.7	-36.6	23.6	0.00e+00	120	30	0	791674880	44	5974
2026-01-26 14:13:46.51	34.05	29.10	-35.7	-36.7	23.4	0.00e+00	122	30	0	794820608	44	6025
2026-01-26 14:13:47.52	34.17	29.28	-35.6	-36.6	23.5	0.00e+00	123	30	0	797966336	44	5931
2026-01-26 14:13:48.53	34.29	29.45	-35.4	-36.4	23.7	0.00e+00	120	30	0	802160640	44	5806
2026-01-26 14:13:49.54	34.41	29.63	-35.4	-36.4	23.6	0.00e+00	122	30	0	805306368	44	5794
2026-01-26 14:13:50.55	34.54	29.81	-35.4	-36.3	23.7	0.00e+00	123	30	0	807403520	44	5766
2026-01-26 14:13:51.56	34.67	29.98	-35.4	-36.4	23.7	0.00e+00	122	30	0	810549248	44	5792
2026-01-26 14:13:52.57	34.79	30.16	-35.2	-36.2	23.7	0.00e+00	123	30	0	813694976	44	5684
2026-01-26 14:13:53.58	34.92	30.34	-35.5	-36.4	23.7	0.00e+00	120	30	0	816840704	44	5833
2026-01-26 14:13:54.59	35.05	30.52	-35.1	-36.0	24.0	0.00e+00	120	30	0	821035008	44	5565
2026-01-26 14:13:55.60	35.18	30.70	-35.1	-36.0	24.1	0.00e+00	123	30	0	824180736	44	5586
2026-01-26 14:13:56.61	35.32	30.89	-35.1	-36.1	24.1	0.00e+00	123	30	0	827326464	44	5598
2026-01-26 14:13:57.61	35.45	31.07	-35.3	-36.2	24.0	0.00e+00	122	30	0	830472192	44	5721
2026-01-26 14:13:58.62	35.59	31.25	-35.2	-36.1	24.2	0.00e+00	121	30	0	832569344	44	5621
2026-01-26 14:13:59.63	35.73	31.44	-35.0	-35.9	24.3	0.00e+00	122	30	0	836763648	44	5497
2026-01-26 14:14:00.64	35.87	31.63	-35.0	-35.9	24.3	0.00e+00	122	30	0	839909376	44	5510
2026-01-26 14:14:01.65	36.01	31.81	-34.8	-35.7	24.4	0.00e+00	122	30	0	843055104	44	5387
2026-01-26 14:14:02.66	36.15	32.00	-34.9	-35.7	24.5	0.00e+00	120	30	0	846200832	44	5404
2026-01-26 14:14:03.67	36.29	32.19	-34.9	-35.8	24.6	0.00e+00	121	30	0	849346560	44	5406
2026-01-26 14:14:04.68	36.44	32.38	-35.0	-35.9	24.5	0.00e+00	122	30	0	852492288	44	5487
2026-01-26 14:14:05.69	36.59	32.57	-35.1	-36.0	24.4	0.00e+00	123	30	0	855638016	44	5592
2026-01-26 14:14:06.70	36.74	32.77	-35.2	-36.1	24.4	0.00e+00	123	30	0	858783744	44	5620
2026-01-26 14:14:07.71	36.89	32.96	-35.2	-36.1	24.4	0.00e+00	123	30	0	861929472	44	5634
2026-01-26 14:14:08.72	37.04	33.16	-35.3	-36.2	24.3	0.00e+00	122	30	0	865075200	44	5682
2026-01-26 14:14:09.73	37.19	33.35	-35.5	-36.4	24.1	0.00e+00	122	30	0	868220928	44	5810
2026-01-26 14:14:10.74	37.35	33.55	-35.5	-36.4	24.1	0.00e+00	122	30	0	871366656	44	5817
2026-01-26 14:14:11.75	37.51	33.75	-35.5	-36.5	24.1	0.00e+00	123	30	0	874512384	44	5860
2026-01-26 14:14:12.76	37.67	33.95	-35.6	-36.5	24.0	0.00e+00	123	30	0	877658112	44	5910
2026-01-26 14:14:13.77	37.83	34.15	-35.7	-36.7	24.0	0.00e+00	121	30	0	880803840	44	6015
2026-01-26 14:14:14.77	37.99	34.35	-35.9	-36.8	23.8	0.00e+00	123	30	0	883949568	44	6108
2026-01-26 14:14:15.78	38.16	34.55	-36.0	-36.9	23.8	0.00e+00	123	30	0	887095296	44	6196
2026-01-26 14:14:16.79	38.33	34.75	-36.2	-37.1	23.6	0.00e+00	123	30	0	890241024	44	6317
2026-01-26 14:14:17.80	38.50	34.96	-36.2	-37.1	23.6	0.00e+00	123	30	0	893386752	44	6350
2026-01-26 14:14:18.81	38.67	35.16	-36.2	-37.2	23.6	0.00e+00	122	30	0	896532480	44	6366
2026-01-26 14:14:19.83	38.84	35.37	-36.2	-37.1	23.6	0.00e+00	122	30	0	899678208	44	6330
2026-01-26 14:14:20.84	39.02	35.58	-36.3	-37.2	23.6	0.00e+00	120	30	0	902823936	44	6388
2026-01-26 14:14:21.85	39.20	35.79	-36.3	-37.3	23.4	0.00e+00	122	30	0	905969664	44	6430
2026-01-26 14:14:22.86	39.38	36.00	-36.3	-37.3	23.5	0.00e+00	122	30	0	909115392	44	6449
2026-01-26 14:14:23.87	39.56	36.21	-36.4	-37.4	23.3	0.00e+00	122	30	0	912261120	44	6535
2026-01-26 14:14:24.88	39.75	36.42	-36.5	-37.4	23.3	0.00e+00	122	30	0	915406848	44	6558
2026-01-26 14:14:25.89	39.94	36.63	-36.7	-37.6	23.3	0.00e+00	123	30	0	918552576	44	6692
2026-01-26 14:14:26.89	40.13	36.85	-36.5	-37.5	23.4	0.00e+00	122	30	0	921698304	44	6596
2026-01-26 14:14:27.90	40.32	37.06	-36.5	-37.4	23.4	0.00e+00	122	29	0	924844032	44	6543
2026-01-26 14:14:28.91	40.51	37.28	-36.4	-37.3	23.4	0.00e+00	123	30	0	927989760	44	6490
2026-01-26 14:14:29.92	40.71	37.49	-36.6	-37.5	23.3	0.00e+00	123	30	0	931135488	44	6608
2026-01-26 14:14:30.94	40.91	37.71	-36.7	-37.6	23.3	0.00e+00	122	30	0	934281216	44	6714
2026-01-26 14:14:31.94	41.11	37.93	-36.7	-37.7	23.3	0.00e+00	123	29	0	937426944	46	5996
2026-01-26 14:14:32.95	41.32	38.15	-36.9	-37.9	23.0	0.00e+00	122	30	0	940572672	46	6150
2026-01-26 14:14:33.96	41.53	38.37	-37.0	-37.9	23.1	0.00e+00	122	30	0	943718400	46	6187
2026-01-26 14:14:34.97	41.74	38.60	-37.2	-38.2	22.9	0.00e+00	123	30	0	946864128	46	6386
2026-01-26 14:14:35.98	41.95	38.82	-37.2	-38.2	22.7	0.00e+00	120	30	0	950009856	46	6388
2026-01-26 14:14:36.99	42.17	39.04	-37.2	-38.2	22.8	0.00e+00	122	29	0	953155584	46	6362
2026-01-26 14:14:38.00	42.39	39.27	-37.3	-38.3	22.7	0.00e+00	123	29	0	956301312	46	6444
2026-01-26 14:14:39.01	42.61	39.50	-37.5	-38.5	22.6	0.00e+00	120	30	0	959447040	46	6583
2026-01-26 14:14:40.02	42.84	39.72	-37.3	-38.3	22.6	0.00e+00	123	30	0	962592768	46	6488
2026-01-26 14:14:41.03	43.07	39.95	-37.5	-38.5	22.6	0.00e+00	120	29	0	965738496	46	6581
2026-01-26 14:14:42.04	43.30	40.18	-37.5	-38.5	22.6	0.00e+00	123	29	0	968884224	46	6606
2026-01-26 14:14:43.05	43.54	40.41	-37.7	-38.8	22.3	0.00e+00	123	29	0	972029952	48	6067
2026-01-26 14:14:44.06	43.78	40.65	-37.8	-38.9	22.2	0.00e+00	122	30	0	975175680	48	6144
2026-01-26 14:14:45.07	44.02	40.88	-37.9	-38.9	22.4	0.00e+00	122	29	0	978321408	48	6155
2026-01-26 14:14:46.08	44.27	41.11	-37.7	-38.7	22.5	0.00e+00	123	29	0	981467136	48	6029
2026-01-26 14:14:47.09	44.51	41.35	-37.3	-38.3	22.7	0.00e+00	122	29	0	984612864	48	5757
2026-01-26 14:14:48.10	44.77	41.58	-37.3	-38.3	22.8	0.00e+00	123	30	0	987758592	48	5741
2026-01-26 14:14:49.11	45.02	41.82	-37.4	-38.4	22.7	0.00e+00	120	30	0	990904320	48	5826
2026-01-26 14:14:50.12	45.28	42.06	-37.7	-38.7	22.4	0.00e+00	122	30	0	994050048	48	6026
2026-01-26 14:14:51.13	45.55	42.29	-37.6	-38.6	22.4	0.00e+00	120	30	0	997195776	48	5988
2026-01-26 14:14:52.14	45.82	42.53	-37.7	-38.7	22.3	0.00e+00	122	29	0	1000341504	48	6061
2026-01-26 14:14:53.15	46.09	42.77	-37.9	-38.9	22.1	0.00e+00	122	29	0	1003487232	48	6188
2026-01-26 14:14:54.16	46.37	43.01	-37.9	-39.0	22.1	0.00e+00	122	29	0	1006632960	48	6214
2026-01-26 14:14:55.17	46.65	43.26	-38.1	-39.1	21.9	0.00e+00	123	29	0	1009778688	48	6328
2026-01-26 14:14:56.18	46.93	43.50	-38.1	-39.2	21.8	0.00e+00	123	29	0	1012924416	48	6353
2026-01-26 14:14:57.19	47.22	43.74	-38.2	-39.3	21.8	0.00e+00	123	29	0	1016070144	48	6436
2026-01-26 14:14:58.20	47.51	43.99	-38.1	-39.2	21.8	0.00e+00	123	29	0	1019215872	48	6380
2026-01-26 14:14:59.21	47.81	44.23	-38.4	-39.5	21.4	0.00e+00	122	29	0	1022361600	48	6590
2026-01-26 14:15:00.22	48.11	44.48	-37.9	-38.9	22.2	0.00e+00	120	29	0	1025507328	48	6175
2026-01-26 14:15:01.23	48.42	44.72	-38.1	-39.1	22.1	0.00e+00	123	29	0	1028653056	48	6333
2026-01-26 14:15:02.24	48.73	44.97	-37.8	-38.8	22.3	0.00e+00	120	29	0	1031798784	48	6104
2026-01-26 14:15:03.25	49.05	45.22	-37.9	-38.9	22.2	0.00e+00	123	29	0	1034944512	48	6154
2026-01-26 14:15:04.26	49.37	45.46	-37.9	-38.9	22.2	0.00e+00	120	29	0	1038090240	48	6201
2026-01-26 14:15:05.27	49.69	45.71	-37.7	-38.7	22.3	0.00e+00	123	29	0	1041235968	48	6061
2026-01-26 14:15:06.28	50.02	45.96	-37.7	-38.7	22.3	0.00e+00	122	29	0	1044381696	48	6035
2026-01-26 14:15:07.29	50.36	46.21	-37.5	-38.5	22.6	0.00e+00	123	30	0	1047527424	48	5911
2026-01-26 14:15:08.30	50.70	46.46	-37.3	-38.3	22.8	0.00e+00	120	29	0	1050673152	48	5752
2026-01-26 14:15:09.31	51.05	46.71	-37.0	-38.0	23.0	0.00e+00	123	29	0	1053818880	48	5568
2026-01-26 14:15:10.32	51.40	46.96	-37.0	-38.0	22.9	0.00e+00	123	29	0	1056964608	48	5551
2026-01-26 14:15:11.33	51.76	47.21	-37.1	-38.0	22.9	0.00e+00	122	29	0	1060110336	48	5587
2026-01-26 14:15:12.34	52.12	47.46	-37.5	-38.5	22.5	0.00e+00	120	29	0	1063256064	48	5905
2026-01-26 14:15:13.35	52.49	47.72	-37.9	-38.9	22.2	0.00e+00	122	29	0	1066401792	48	6182
2026-01-26 14:15:14.36	52.87	47.97	-38.0	-39.1	22.0	0.00e+00	123	29	0	1069547520	48	6285
2026-01-26 14:15:15.37	53.25	48.22	-37.8	-38.9	22.2	0.00e+00	122	29	0	1072693248	48	6157
2026-01-26 14:15:16.39	53.64	48.47	-37.7	-38.7	22.3	0.00e+00	122	29	0	1075838976	48	6038
2026-01-26 14:15:17.39	54.04	48.72	-37.3	-38.3	22.6	0.00e+00	119	29	0	1078984704	48	5760
2026-01-26 14:15:18.40	54.44	48.98	-36.9	-37.8	23.0	0.00e+00	122	29	0	1082130432	48	5465
2026-01-26 14:15:19.41	54.84	49.23	-36.7	-37.7	23.1	0.00e+00	120	29	0	1085276160	48	5373
2026-01-26 14:15:20.42	55.26	49.48	-36.5	-37.5	23.2	0.00e+00	122	29	0	1088421888	46	5878
2026-01-26 14:15:21.43	55.68	49.73	-36.5	-37.4	23.2	0.00e+00	120	29	0	1091567616	46	5840
2026-01-26 14:15:22.44	56.11	49.98	-36.6	-37.6	23.1	0.00e+00	122	29	0	1094713344	46	5961
2026-01-26 14:15:23.45	56.54	50.24	-36.8	-37.8	23.0	0.00e+00	123	29	0	1097859072	46	6065
2026-01-26 14:15:24.46	56.98	50.49	-37.0	-38.0	23.0	0.00e+00	123	29	0	1101004800	46	6226
2026-01-26 14:15:25.47	57.43	50.74	-36.9	-37.8	23.0	0.00e+00	123	29	0	1104150528	46	6132
2026-01-26 14:15:26.48	57.89	50.99	-37.0	-38.0	22.7	0.00e+00	123	29	0	1107296256	46	6240
2026-01-26 14:15:27.49	58.36	51.24	-37.2	-38.2	22.6	0.00e+00	120	29	0	1110441984	46	6364
2026-01-26 14:15:28.50	58.83	51.49	-37.5	-38.5	22.4	0.00e+00	122	29	0	1113587712	46	6643
2026-01-26 14:15:29.51	59.31	51.73	-37.1	-38.1	23.0	0.00e+00	120	29	0	1116733440	46	6313
2026-01-26 14:15:30.52	59.80	51.98	-36.7	-37.6	23.3	0.00e+00	122	29	0	1119879168	46	5966
2026-01-26 14:15:31.53	60.29	52.23	-36.5	-37.4	23.4	0.00e+00	120	29	0	1123024896	46	5829
2026-01-26 14:15:32.54	60.80	52.47	-36.4	-37.4	23.5	0.00e+00	123	29	0	1126170624	46	5808
2026-01-26 14:15:33.55	61.31	52.72	-36.6	-37.5	23.3	0.00e+00	120	29	0	1129316352	46	5900
2026-01-26 14:15:34.56	61.83	52.96	-36.9	-37.8	23.0	0.00e+00	123	29	0	1132462080	46	6129
2026-01-26 14:15:35.57	62.36	53.20	-36.7	-37.7	23.2	0.00e+00	120	29	0	1135607808	46	6041
2026-01-26 14:15:36.58	62.90	53.44	-36.3	-37.3	23.5	0.00e+00	122	29	0	1138753536	46	5730
2026-01-26 14:15:37.59	63.45	53.68	-36.1	-37.0	23.7	0.00e+00	120	29	0	1142947840	46	5555
2026-01-26 14:15:38.60	64.01	53.92	-35.3	-36.2	24.3	0.00e+00	123	29	0	1146093568	44	5679
2026-01-26 14:15:39.61	64.57	54.16	-35.6	-36.5	24.1	0.00e+00	121	29	0	1148190720	44	5879
2026-01-26 14:15:40.62	65.15	54.39	-35.8	-36.8	23.8	0.00e+00	120	29	0	1151336448	44	6085
2026-01-26 14:15:41.63	65.73	54.63	-36.1	-37.0	23.8	0.00e+00	123	29	0	1155530752	44	6245
2026-01-26 14:15:42.64	66.33	54.86	-36.1	-37.0	23.7	0.00e+00	123	29	0	1158676480	44	6241
2026-01-26 14:15:43.65	66.93	55.09	-36.3	-37.2	23.6	0.00e+00	120	29	0	1161822208	44	6407
2026-01-26 14:15:44.66	67.55	55.31	-35.8	-36.8	23.8	0.00e+00	123	29	0	1164967936	44	6085
2026-01-26 14:15:45.67	68.17	55.54	-35.6	-36.5	24.1	0.00e+00	120	29	0	1168113664	44	5890
2026-01-26 14:15:46.68	68.80	55.76	-35.4	-36.3	24.1	0.00e+00	122	29	0	1171259392	44	5791
2026-01-26 14:15:47.69	69.45	55.98	-35.6	-36.5	24.1	0.00e+00	120	29	0	1174405120	44	5915
2026-01-26 14:15:48.70	70.10	56.19	-35.6	-36.5	24.0	0.00e+00	120	29	0	1177550848	44	5896
2026-01-26 14:15:49.71	70.77	56.41	-35.5	-36.4	24.1	0.00e+00	122	29	0	1180696576	44	5844
2026-01-26 14:15:50.72	71.44	56.62	-35.2	-36.1	24.5	0.00e+00	122	29	0	1183842304	44	5597
2026-01-26 14:15:51.73	72.12	56.83	-34.7	-35.5	24.7	0.00e+00	120	29	0	1186988032	42	5903
2026-01-26 14:15:52.74	72.82	57.03	-34.6	-35.5	24.7	0.00e+00	122	29	0	1190133760	42	5876
2026-01-26 14:15:53.75	73.52	57.23	-34.8	-35.7	24.2	0.00e+00	122	29	0	1193279488	42	6037
2026-01-26 14:15:54.76	74.24	57.43	-35.1	-36.0	24.2	0.00e+00	124	29	0	1196425216	42	6219
2026-01-26 14:15:55.77	74.96	57.63	-35.1	-36.0	24.1	0.00e+00	120	29	0	1199570944	42	6256
2026-01-26 14:15:56.78	75.70	57.82	-35.1	-36.0	24.0	0.00e+00	123	29	0	1202716672	42	6267
2026-01-26 14:15:57.79	76.45	58.01	-35.1	-36.0	23.9	0.00e+00	122	29	0	1205862400	42	6271
2026-01-26 14:15:58.80	77.20	58.19	-35.0	-35.9	23.8	0.00e+00	122	29	0	1209008128	42	6164
2026-01-26 14:15:59.80	77.96	58.37	-35.2	-36.1	23.9	0.00e+00	122	29	0	1212153856	42	6318
2026-01-26 14:16:00.81	78.74	58.54	-34.9	-35.8	24.6	0.00e+00	120	29	0	1215299584	42	6099
2026-01-26 14:16:01.82	79.53	58.71	-34.9	-35.8	24.5	0.00e+00	122	29	0	1218445312	42	6105
2026-01-26 14:16:02.83	80.32	58.88	-34.9	-35.7	24.5	0.00e+00	123	29	0	1221591040	42	6049
2026-01-26 14:16:03.85	81.14	59.04	-35.0	-35.9	24.4	0.00e+00	123	29	0	1224736768	42	6193
2026-01-26 14:16:04.85	81.95	59.20	-35.2	-36.1	24.4	0.00e+00	122	29	0	1227882496	42	6278
2026-01-26 14:16:05.87	82.78	59.35	-35.0	-35.9	24.6	0.00e+00	123	29	0	1231028224	42	6200
2026-01-26 14:16:06.87	83.61	59.49	-35.0	-35.9	24.5	0.00e+00	123	29	0	1234173952	42	6136
2026-01-26 14:16:07.89	84.47	59.64	-34.8	-35.7	24.5	0.00e+00	120	29	0	1237319680	42	6010
2026-01-26 14:16:08.90	85.32	59.77	-35.1	-36.0	24.2	0.00e+00	123	29	0	1240465408	42	6256
2026-01-26 14:16:09.90	86.17	59.90	-35.0	-35.9	24.6	0.00e+00	123	29	0	1243611136	42	6143
2026-01-26 14:16:10.91	87.05	60.03	-34.8	-35.7	24.5	0.00e+00	122	29	0	1246756864	42	6038
2026-01-26 14:16:11.93	87.94	60.15	-34.4	-35.3	24.9	0.00e+00	123	29	0	1249902592	42	5765
2026-01-26 14:16:12.94	88.82	60.26	-34.3	-35.1	25.1	0.00e+00	120	29	0	1253048320	42	5659
2026-01-26 14:16:13.94	89.71	60.37	-34.2	-35.0	25.0	0.00e+00	122	29	0	1256194048	42	5582
2026-01-26 14:16:14.95	90.61	60.47	-34.3	-35.2	24.9	0.00e+00	123	29	0	1259339776	42	5698
2026-01-26 14:16:15.95	91.52	60.56	-34.6	-35.5	24.8	0.00e+00	122	29	0	1262485504	42	5894
2026-01-26 14:16:16.96	92.43	60.65	-34.5	-35.4	24.8	0.00e+00	122	29	0	1265631232	42	5842
2026-01-26 14:16:17.97	93.36	60.74	-34.5	-35.3	24.7	0.00e+00	123	29	0	1268776960	42	5772
2026-01-26 14:16:18.98	94.28	60.81	-34.6	-35.5	24.3	0.00e+00	122	29	0	1271922688	42	5891
2026-01-26 14:16:19.99	95.22	60.88	-34.7	-35.6	24.3	0.00e+00	123	29	0	1275068416	42	5987
2026-01-26 14:16:21.00	96.16	60.95	-34.7	-35.6	24.6	0.00e+00	123	29	0	1278214144	42	5958
2026-01-26 14:16:22.01	97.10	61.00	-34.4	-35.3	24.6	0.00e+00	122	29	0	1281359872	42	5772
2026-01-26 14:16:23.02	98.05	61.05	-34.7	-35.6	24.2	0.00e+00	122	29	0	1284505600	42	5958
2026-01-26 14:16:24.03	99.00	61.10	-34.7	-35.6	24.7	0.00e+00	123	29	0	1287651328	42	5930
2026-01-26 14:16:25.04	99.95	61.13	-34.5	-35.3	25.0	0.00e+00	123	29	0	1290797056	42	5775
2026-01-26 14:16:26.04	100.90	61.16	-34.7	-35.6	24.9	0.00e+00	123	29	0	1293942784	42	5944
2026-01-26 14:16:27.06	101.87	61.18	-35.1	-36.0	24.6	0.00e+00	120	29	0	1297088512	42	6218
2026-01-26 14:16:28.07	102.83	61.20	-35.1	-36.0	24.6	0.00e+00	123	29	0	1300234240	42	6252
2026-01-26 14:16:29.08	103.79	61.21	-34.8	-35.6	24.9	0.00e+00	122	29	0	1303379968	42	5994
2026-01-26 14:16:30.09	104.75	61.21	-34.5	-35.4	24.9	0.00e+00	123	29	0	1306525696	42	5799
2026-01-26 14:16:31.10	105.72	61.20	-34.8	-35.7	24.5	0.00e+00	123	29	0	1309671424	42	6004
2026-01-26 14:16:32.11	106.68	61.19	-34.6	-35.4	25.0	0.00e+00	120	29	0	1312817152	42	5858
2026-01-26 14:16:33.12	107.64	61.17	-34.3	-35.1	25.1	0.00e+00	123	29	0	1315962880	42	5658
2026-01-26 14:16:34.13	108.59	61.15	-34.2	-35.1	25.1	0.00e+00	120	29	0	1319108608	42	5628
2026-01-26 14:16:35.14	109.55	61.11	-34.3	-35.2	25.0	0.00e+00	123	29	0	1322254336	42	5677
2026-01-26 14:16:36.15	110.50	61.07	-34.0	-34.8	25.4	0.00e+00	122	29	0	1325400064	42	5462
2026-01-26 14:16:37.16	111.45	61.03	-33.6	-34.4	25.6	0.00e+00	123	29	0	1328545792	40	5856
2026-01-26 14:16:38.17	112.40	60.97	-33.9	-34.7	25.3	0.00e+00	122	29	0	1331691520	40	6051
2026-01-26 14:16:39.17	113.33	60.92	-34.4	-35.3	24.8	0.00e+00	123	29	0	1334837248	40	6481
2026-01-26 14:16:40.19	114.28	60.85	-34.7	-35.6	24.7	0.00e+00	123	29	0	1337982976	40	6684
2026-01-26 14:16:41.19	115.20	60.78	-34.8	-35.7	24.6	0.00e+00	122	29	0	1341128704	42	6030
2026-01-26 14:16:42.20	116.13	60.70	-34.6	-35.5	24.8	0.00e+00	123	29	0	1344274432	42	5891
2026-01-26 14:16:43.21	117.05	60.61	-34.5	-35.3	25.1	0.00e+00	122	29	0	1347420160	42	5759
2026-01-26 14:16:44.22	117.96	60.52	-34.0	-34.8	25.2	0.00e+00	123	29	0	1350565888	42	5445
2026-01-26 14:16:45.23	118.87	60.42	-34.4	-35.2	25.1	0.00e+00	122	29	0	1353711616	42	5713
2026-01-26 14:16:46.24	119.77	60.31	-34.5	-35.4	25.0	0.00e+00	122	29	0	1356857344	42	5840
2026-01-26 14:16:47.25	120.66	60.20	-34.7	-35.6	24.6	0.00e+00	122	29	0	1360003072	42	5953
2026-01-26 14:16:48.26	121.55	60.09	-34.6	-35.5	24.7	0.00e+00	123	29	0	1363148800	42	5912
2026-01-26 14:16:49.27	122.43	59.96	-34.4	-35.3	24.7	0.00e+00	123	29	0	1366294528	42	5774
2026-01-26 14:16:50.28	123.29	59.84	-34.5	-35.4	24.9	0.00e+00	123	29	0	1369440256	42	5817
2026-01-26 14:16:51.29	124.15	59.70	-34.5	-35.4	25.0	0.00e+00	120	29	0	1372585984	42	5806
2026-01-26 14:16:52.30	125.00	59.56	-34.4	-35.3	24.9	0.00e+00	122	29	0	1375731712	42	5769
2026-01-26 14:16:53.31	125.85	59.42	-34.5	-35.4	24.9	0.00e+00	123	29	0	1378877440	42	5804
2026-01-26 14:16:54.32	126.68	59.27	-34.2	-35.2	24.8	0.00e+00	122	29	0	1382023168	42	5663
2026-01-26 14:16:55.33	127.50	59.11	-34.1	-35.0	24.9	0.00e+00	122	29	0	1385168896	42	5539
2026-01-26 14:16:56.35	128.32	58.95	-34.1	-34.9	24.8	0.00e+00	122	29	0	1388314624	42	5528
2026-01-26 14:16:57.35	129.12	58.79	-34.3	-35.1	24.9	0.00e+00	122	29	0	1391460352	42	5655
2026-01-26 14:16:58.36	129.91	58.62	-34.4	-35.3	25.1	0.00e+00	123	29	0	1394606080	42	5751
2026-01-26 14:16:59.37	130.69	58.45	-34.3	-35.2	25.2	0.00e+00	122	29	0	1397751808	42	5664
2026-01-26 14:17:00.38	131.47	58.27	-34.2	-35.0	25.1	0.00e+00	123	29	0	1400897536	42	5581
2026-01-26 14:17:01.39	132.23	58.09	-34.6	-35.4	24.6	0.00e+00	123	29	0	1404043264	42	5846
2026-01-26 14:17:02.40	132.98	57.90	-35.4	-36.3	24.3	0.00e+00	123	29	0	1407188992	42	6487
2026-01-26 14:17:03.41	133.72	57.71	-35.6	-36.5	24.2	0.00e+00	123	29	0	1410334720	42	6624
2026-01-26 14:17:04.42	134.46	57.52	-35.5	-36.4	24.2	0.00e+00	122	29	0	1413480448	42	6541
2026-01-26 14:17:05.43	135.18	57.32	-35.3	-36.2	24.2	0.00e+00	123	29	0	1416626176	42	6400
2026-01-26 14:17:06.44	135.89	57.12	-35.1	-36.0	24.5	0.00e+00	123	29	0	1419771904	42	6261
2026-01-26 14:17:07.45	136.59	56.92	-35.1	-36.0	24.6	0.00e+00	122	29	0	1422917632	42	6222
2026-01-26 14:17:08.45	137.27	56.71	-34.5	-35.4	24.9	0.00e+00	123	29	0	1426063360	42	5793
2026-01-26 14:17:09.46	137.95	56.50	-35.0	-35.9	24.6	0.00e+00	122	29	0	1429209088	42	6189
2026-01-26 14:17:10.47	138.62	56.29	-35.3	-36.2	24.4	0.00e+00	122	29	0	1432354816	42	6422
2026-01-26 14:17:11.48	139.28	56.07	-35.4	-36.3	24.3	0.00e+00	122	29	0	1435500544	42	6445
2026-01-26 14:17:12.49	139.93	55.86	-35.3	-36.2	24.0	0.00e+00	122	29	0	1438646272	42	6408
2026-01-26 14:17:13.50	140.57	55.63	-35.2	-36.1	24.0	0.00e+00	122	29	0	1441792000	42	6328
2026-01-26 14:17:14.51	141.20	55.41	-35.3	-36.2	24.2	0.00e+00	120	29	0	1444937728	42	6373
2026-01-26 14:17:15.52	141.82	55.18	-35.6	-36.5	24.1	0.00e+00	123	29	0	1448083456	42	6645
2026-01-26 14:17:16.53	142.43	54.96	-36.0	-36.9	23.7	0.00e+00	120	29	0	1451229184	44	6199
2026-01-26 14:17:17.54	143.03	54.73	-36.4	-37.4	23.3	0.00e+00	123	29	0	1454374912	44	6536
2026-01-26 14:17:18.55	143.62	54.49	-36.3	-37.2	23.4	0.00e+00	123	29	0	1457520640	44	6422
2026-01-26 14:17:19.56	144.20	54.26	-36.1	-37.0	23.5	0.00e+00	122	29	0	1460666368	44	6265
2026-01-26 14:17:20.57	144.77	54.02	-36.2	-37.2	23.0	0.00e+00	120	29	0	1463812096	44	6387
2026-01-26 14:17:21.57	145.33	53.79	-36.6	-37.6	23.1	0.00e+00	121	29	0	1466957824	44	6667
2026-01-26 14:17:22.58	145.88	53.55	-35.9	-36.8	23.9	0.00e+00	123	29	0	1470103552	44	6105
2026-01-26 14:17:23.60	146.43	53.30	-35.6	-36.5	24.1	0.00e+00	123	29	0	1473249280	44	5881
2026-01-26 14:17:24.61	146.97	53.06	-36.1	-37.1	23.6	0.00e+00	122	29	0	1476395008	44	6317
2026-01-26 14:17:25.61	147.49	52.82	-36.6	-37.6	23.2	0.00e+00	122	29	0	1479540736	44	6712
2026-01-26 14:17:26.62	148.01	52.57	-36.3	-37.2	23.6	0.00e+00	123	29	0	1482686464	44	6394
2026-01-26 14:17:27.63	148.52	52.33	-35.9	-36.8	23.6	0.00e+00	121	29	0	1486880768	44	6131
2026-01-26 14:17:28.64	149.02	52.08	-36.1	-37.0	23.7	0.00e+00	120	29	0	1488977920	44	6236
2026-01-26 14:17:29.65	149.51	51.83	-35.9	-36.8	23.9	0.00e+00	122	29	0	1492123648	44	6118
2026-01-26 14:17:30.66	150.00	51.59	-36.0	-36.9	24.0	0.00e+00	123	29	0	1495269376	44	6151
2026-01-26 14:17:31.67	150.48	51.34	-36.3	-37.2	23.6	0.00e+00	123	29	0	1498415104	44	6409
2026-01-26 14:17:32.68	150.95	51.09	-37.2	-38.2	22.9	0.00e+00	123	29	0	1501560832	46	6406
2026-01-26 14:17:33.69	151.41	50.83	-38.2	-39.2	21.9	0.00e+00	123	29	0	1505755136	48	6415
2026-01-26 14:17:34.70	151.86	50.58	-38.3	-39.4	21.6	0.00e+00	122	29	0	1508900864	48	6571
2026-01-26 14:17:35.71	152.31	50.33	-37.8	-38.8	21.6	0.00e+00	123	29	0	1512046592	48	6128
2026-01-26 14:17:36.72	152.75	50.08	-37.1	-38.1	22.1	0.00e+00	123	29	0	1514143744	48	5655
2026-01-26 14:17:37.72	153.18	49.83	-36.6	-37.6	22.7	0.00e+00	120	29	0	1517289472	46	5937
2026-01-26 14:17:38.73	153.60	49.58	-36.5	-37.4	23.3	0.00e+00	122	29	0	1521483776	46	5839
2026-01-26 14:17:39.74	154.02	49.32	-36.7	-37.6	23.3	0.00e+00	120	29	0	1524629504	46	5976
2026-01-26 14:17:40.75	154.43	49.07	-37.5	-38.5	22.4	0.00e+00	122	29	0	1527775232	46	6598
2026-01-26 14:17:41.76	154.84	48.82	-38.8	-40.0	21.5	0.00e+00	122	29	0	1530920960	48	6996
2026-01-26 14:17:42.77	155.23	48.56	-38.7	-39.8	21.6	0.00e+00	123	29	0	1534066688	50	6102
2026-01-26 14:17:43.78	155.63	48.31	-38.3	-39.4	22.1	0.00e+00	120	29	0	1537212416	50	5810
2026-01-26 14:17:44.79	156.01	48.06	-37.5	-38.5	22.7	0.00e+00	123	29	0	1540358144	48	5882
2026-01-26 14:17:45.80	156.39	47.80	-37.1	-38.1	22.7	0.00e+00	123	29	0	1543503872	48	5645
2026-01-26 14:17:46.81	156.76	47.55	-37.3	-38.4	22.6	0.00e+00	123	29	0	1546649600	48	5796
2026-01-26 14:17:47.82	157.13	47.30	-37.2	-38.1	22.8	0.00e+00	123	29	0	1549795328	48	5650
2026-01-26 14:17:48.83	157.49	47.05	-37.2	-38.2	22.9	0.00e+00	123	29	0	1552941056	48	5703
2026-01-26 14:17:49.84	157.85	46.79	-37.3	-38.3	23.0	0.00e+00	123	29	0	1556086784	48	5754
2026-01-26 14:17:50.85	158.20	46.54	-38.0	-39.0	22.1	0.00e+00	122	29	0	1559232512	48	6265
2026-01-26 14:17:51.86	158.54	46.29	-39.0	-40.2	21.0	0.00e+00	123	29	0	1562378240	50	6351
2026-01-26 14:17:52.87	158.88	46.04	-39.5	-40.7	20.5	0.00e+00	123	29	0	1565523968	50	6804
2026-01-26 14:17:53.88	159.22	45.79	-39.0	-40.2	21.3	0.00e+00	120	29	0	1568669696	50	6394
2026-01-26 14:17:54.89	159.55	45.54	-38.7	-39.8	21.5	0.00e+00	120	29	0	1571815424	50	6104
2026-01-26 14:17:55.90	159.87	45.29	-38.6	-39.7	21.6	0.00e+00	123	29	0	1574961152	50	6033
2026-01-26 14:17:56.91	160.19	45.04	-38.5	-39.6	21.7	0.00e+00	123	29	0	1578106880	50	5979
2026-01-26 14:17:57.92	160.51	44.80	-38.3	-39.4	21.9	0.00e+00	123	29	0	1581252608	50	5805
2026-01-26 14:17:58.93	160.81	44.55	-37.7	-38.7	22.2	0.00e+00	123	29	0	1584398336	50	5389
2026-01-26 14:17:59.94	161.12	44.30	-37.6	-38.6	22.5	0.00e+00	122	29	0	1587544064	48	5988
2026-01-26 14:18:00.95	161.42	44.05	-37.7	-38.7	22.4	0.00e+00	122	29	0	1590689792	48	6043
2026-01-26 14:18:01.95	161.71	43.81	-38.3	-39.4	21.9	0.00e+00	120	29	0	1593835520	48	6502
2026-01-26 14:18:02.96	162.00	43.57	-38.1	-39.2	22.1	0.00e+00	123	29	0	1596981248	48	6358
2026-01-26 14:18:03.98	162.29	43.32	-37.9	-38.9	22.3	0.00e+00	123	29	0	1600126976	48	6203
2026-01-26 14:18:04.98	162.57	43.08	-37.7	-38.7	22.5	0.00e+00	123	29	0	1603272704	48	6053
2026-01-26 14:18:05.99	162.85	42.84	-37.4	-38.4	22.7	0.00e+00	122	29	0	1606418432	48	5795
2026-01-26 14:18:07.00	163.13	42.60	-37.0	-38.0	23.1	0.00e+00	122	29	0	1609564160	48	5542
2026-01-26 14:18:08.01	163.40	42.36	-36.6	-37.5	23.5	0.00e+00	123	29	0	1612709888	46	5863
2026-01-26 14:18:09.02	163.66	42.12	-36.2	-37.1	23.7	0.00e+00	122	29	0	1615855616	46	5608
2026-01-26 14:18:10.03	163.92	41.88	-36.5	-37.4	23.3	0.00e+00	122	29	0	1619001344	46	5838
2026-01-26 14:18:11.04	164.18	41.64	-37.1	-38.0	23.0	0.00e+00	122	29	0	1622147072	46	6268
2026-01-26 14:18:12.05	164.44	41.40	-37.4	-38.4	22.7	0.00e+00	123	29	0	1625292800	46	6543
2026-01-26 14:18:13.06	164.69	41.17	-37.3	-38.3	22.7	0.00e+00	123	29	0	1628438528	46	6468
2026-01-26 14:18:14.07	164.94	40.93	-37.1	-38.1	22.7	0.00e+00	122	29	0	1631584256	46	6320
2026-01-26 14:18:15.09	165.18	40.69	-37.0	-38.0	22.6	0.00e+00	123	29	0	1634729984	46	6248
2026-01-26 14:18:16.10	165.43	40.46	-36.9	-37.9	22.7	0.00e+00	123	29	0	1637875712	46	6146
2026-01-26 14:18:17.10	165.66	40.23	-37.1	-38.1	22.5	0.00e+00	122	29	0	1641021440	46	6339
2026-01-26 14:18:18.12	165.90	40.00	-37.6	-38.6	22.3	0.00e+00	122	29	0	1644167168	46	6690
2026-01-26 14:18:19.12	166.13	39.77	-37.7	-38.7	22.5	0.00e+00	123	29	0	1647312896	48	6032
2026-01-26 14:18:20.13	166.35	39.54	-37.4	-38.4	22.9	0.00e+00	120	29	0	1650458624	48	5798
2026-01-26 14:18:21.14	166.58	39.31	-37.3	-38.3	22.8	0.00e+00	123	29	0	1653604352	48	5768
2026-01-26 14:18:22.15	166.80	39.09	-37.5	-38.5	22.7	0.00e+00	122	29	0	1656750080	48	5862
2026-01-26 14:18:23.16	167.02	38.86	-37.3	-38.3	22.6	0.00e+00	123	29	0	1659895808	48	5752
2026-01-26 14:18:24.17	167.23	38.63	-37.2	-38.2	22.7	0.00e+00	123	29	0	1663041536	48	5667
2026-01-26 14:18:25.18	167.45	38.41	-37.5	-38.5	22.5	0.00e+00	120	29	0	1666187264	48	5872
2026-01-26 14:18:26.19	167.66	38.19	-37.8	-38.8	22.3	0.00e+00	122	29	0	1669332992	48	6109
2026-01-26 14:18:27.20	167.86	37.96	-37.9	-39.0	22.3	0.00e+00	120	29	0	1672478720	48	6221
2026-01-26 14:18:28.21	168.07	37.74	-37.9	-39.0	22.3	0.00e+00	120	29	0	1675624448	48	6241
2026-01-26 14:18:29.22	168.27	37.52	-37.4	-38.4	22.7	0.00e+00	123	29	0	1678770176	48	5837
2026-01-26 14:18:30.23	168.47	37.30	-37.2	-38.2	22.7	0.00e+00	120	29	0	1681915904	48	5723
2026-01-26 14:18:31.24	168.67	37.09	-37.1	-38.1	22.8	0.00e+00	122	29	0	1685061632	48	5596
2026-01-26 14:18:32.25	168.86	36.87	-36.3	-37.3	23.5	0.00e+00	120	29	0	1688207360	46	5732
2026-01-26 14:18:33.26	169.05	36.65	-36.0	-36.9	23.6	0.00e+00	120	29	0	1691353088	46	5528
2026-01-26 14:18:34.27	169.24	36.44	-35.8	-36.7	23.8	0.00e+00	123	29	0	1694498816	46	5392
2026-01-26 14:18:35.28	169.43	36.23	-36.1	-37.0	23.7	0.00e+00	122	29	0	1697644544	46	5561
2026-01-26 14:18:36.29	169.61	36.01	-36.3	-37.2	23.7	0.00e+00	120	29	0	1700790272	46	5687
2026-01-26 14:18:37.29	169.79	35.81	-36.2	-37.1	23.8	0.00e+00	122	29	0	1703936000	46	5621
2026-01-26 14:18:38.31	169.97	35.59	-36.4	-37.3	23.5	0.00e+00	123	29	0	1707081728	46	5778
2026-01-26 14:18:39.31	170.15	35.39	-36.6	-37.6	23.3	0.00e+00	122	29	0	1710227456	46	5975
2026-01-26 14:18:40.32	170.33	35.18	-36.8	-37.8	23.2	0.00e+00	122	29	0	1713373184	46	6079
2026-01-26 14:18:41.33	170.50	34.97	-36.7	-37.7	23.1	0.00e+00	122	29	0	1716518912	46	6033
2026-01-26 14:18:42.34	170.67	34.76	-36.9	-37.9	23.0	0.00e+00	122	29	0	1719664640	46	6150
2026-01-26 14:18:43.35	170.84	34.56	-37.1	-38.1	22.8	0.00e+00	123	29	0	1722810368	46	6291
2026-01-26 14:18:44.36	171.01	34.36	-37.0	-37.9	23.1	0.00e+00	123	29	0	1725956096	46	6205
2026-01-26 14:18:45.37	171.17	34.15	-36.8	-37.7	23.2	0.00e+00	121	29	0	1729101824	46	6061
2026-01-26 14:18:46.38	171.33	33.95	-36.5	-37.4	23.4	0.00e+00	122	29	0	1732247552	46	5838
2026-01-26 14:18:47.39	171.49	33.75	-36.1	-37.0	23.8	0.00e+00	122	29	0	1735393280	46	5555
2026-01-26 14:18:48.40	171.65	33.55	-35.9	-36.8	24.0	0.00e+00	123	29	0	1738539008	46	5430
2026-01-26 14:18:49.41	171.81	33.35	-35.6	-36.5	24.1	0.00e+00	122	29	0	1741684736	44	5923
2026-01-26 14:18:50.42	171.97	33.16	-35.5	-36.4	24.2	0.00e+00	122	29	0	1744830464	44	5827
2026-01-26 14:18:51.43	172.12	32.96	-35.7	-36.6	24.1	0.00e+00	121	29	0	1747976192	44	5945
2026-01-26 14:18:52.44	172.27	32.76	-35.2	-36.1	24.5	0.00e+00	123	29	0	1751121920	44	5630
2026-01-26 14:18:53.45	172.42	32.57	-34.8	-35.6	24.8	0.00e+00	120	29	0	1754267648	44	5320
2026-01-26 14:18:54.45	172.57	32.38	-34.8	-35.7	24.8	0.00e+00	122	29	0	1757413376	42	6030
2026-01-26 14:18:55.46	172.71	32.19	-34.8	-35.7	24.8	0.00e+00	123	28	0	1760559104	42	6003
2026-01-26 14:18:56.47	172.86	31.99	-34.7	-35.6	24.9	0.00e+00	120	29	0	1763704832	42	5930
2026-01-26 14:18:57.48	173.00	31.80	-34.9	-35.8	24.7	0.00e+00	123	29	0	1766850560	42	6075
2026-01-26 14:18:58.49	173.14	31.62	-34.7	-35.6	24.8	0.00e+00	123	29	0	1769996288	42	5933
2026-01-26 14:18:59.50	173.28	31.43	-34.8	-35.7	24.7	0.00e+00	120	29	0	1773142016	42	6043
2026-01-26 14:19:00.51	173.42	31.24	-34.9	-35.7	24.6	0.00e+00	122	28	0	1776287744	42	6063
2026-01-26 14:19:01.52	173.56	31.05	-35.1	-36.0	24.4	0.00e+00	120	29	0	1779433472	42	6221
2026-01-26 14:19:02.53	173.69	30.87	-35.4	-36.3	24.2	0.00e+00	123	29	0	1782579200	42	6433
2026-01-26 14:19:03.54	173.83	30.69	-35.1	-36.1	24.3	0.00e+00	123	29	0	1785724928	42	6292
2026-01-26 14:19:04.55	173.96	30.50	-35.3	-36.2	24.2	0.00e+00	122	29	0	1788870656	42	6370
2026-01-26 14:19:05.56	174.09	30.32	-35.2	-36.2	24.2	0.00e+00	123	29	0	1792016384	42	6359
2026-01-26 14:19:06.57	174.22	30.14	-35.2	-36.2	24.2	0.00e+00	122	29	0	1795162112	42	6356
2026-01-26 14:19:07.58	174.35	29.96	-35.1	-36.0	24.3	0.00e+00	122	29	0	1798307840	42	6255
2026-01-26 14:19:08.59	174.48	29.78	-34.9	-35.8	24.4	0.00e+00	123	29	0	1801453568	42	6072
2026-01-26 14:19:09.60	174.60	29.60	-34.7	-35.6	24.5	0.00e+00	120	29	0	1804599296	42	5948
2026-01-26 14:19:10.61	174.73	29.42	-34.5	-35.4	24.5	0.00e+00	123	29	0	1807745024	42	5799
2026-01-26 14:19:11.62	174.85	29.25	-34.5	-35.4	24.5	0.00e+00	123	29	0	1810890752	42	5802
2026-01-26 14:19:12.63	174.97	29.07	-34.3	-35.1	24.6	0.00e+00	123	29	0	1814036480	42	5645
2026-01-26 14:19:13.64	175.09	28.90	-34.5	-35.4	24.5	0.00e+00	123	29	0	1817182208	42	5796
2026-01-26 14:19:14.65	175.21	28.73	-34.5	-35.3	24.4	0.00e+00	123	29	0	1820327936	42	5780
2026-01-26 14:19:15.66	175.33	28.55	-34.7	-35.6	24.5	0.00e+00	122	29	0	1823473664	42	5928
2026-01-26 14:19:16.66	175.44	28.38	-34.6	-35.5	24.6	0.00e+00	123	29	0	1826619392	42	5879
2026-01-26 14:19:17.67	175.56	28.21	-34.8	-35.7	24.6	0.00e+00	123	29	0	1829765120	42	6035
2026-01-26 14:19:18.68	175.67	28.04	-34.8	-35.7	24.6	0.00e+00	120	29	0	1832910848	42	6004
2026-01-26 14:19:19.69	175.79	27.88	-34.7	-35.6	24.7	0.00e+00	122	29	0	1836056576	42	5950
2026-01-26 14:19:20.70	175.90	27.71	-34.6	-35.5	24.8	0.00e+00	120	29	0	1839202304	42	5869
2026-01-26 14:19:21.71	176.01	27.54	-34.6	-35.5	24.8	0.00e+00	123	29	0	1842348032	42	5890
2026-01-26 14:19:22.72	176.12	27.37	-34.5	-35.3	24.9	0.00e+00	120	28	0	1845493760	42	5783
2026-01-26 14:19:23.73	176.23	27.21	-34.5	-35.4	24.9	0.00e+00	123	28	0	1849688064	42	5792
2026-01-26 14:19:24.74	176.34	27.05	-34.5	-35.4	24.9	0.00e+00	120	29	0	1851785216	42	5802
2026-01-26 14:19:25.75	176.44	26.88	-34.6	-35.5	24.8	0.00e+00	123	29	0	1854930944	42	5893
2026-01-26 14:19:26.76	176.55	26.72	-34.8	-35.7	24.5	0.00e+00	123	28	0	1858076672	42	6039
2026-01-26 14:19:27.77	176.65	26.56	-34.6	-35.5	24.8	0.00e+00	123	29	0	1861222400	42	5906
2026-01-26 14:19:28.78	176.76	26.40	-34.9	-35.8	24.5	0.00e+00	121	29	0	1865416704	42	6103
2026-01-26 14:19:29.79	176.86	26.24	-34.8	-35.7	24.6	0.00e+00	123	29	0	1868562432	42	6029
2026-01-26 14:19:30.80	176.96	26.08	-35.1	-36.0	24.3	0.00e+00	122	29	0	1871708160	42	6239
2026-01-26 14:19:31.81	177.06	25.92	-34.8	-35.7	24.5	0.00e+00	120	29	0	1873805312	42	6051
2026-01-26 14:19:32.82	177.16	25.76	-34.9	-35.8	24.4	0.00e+00	120	29	0	1876951040	42	6108
2026-01-26 14:19:33.83	177.26	25.61	-34.9	-35.8	24.4	0.00e+00	123	28	0	1880096768	42	6118
2026-01-26 14:19:34.84	177.36	25.45	-34.9	-35.8	24.4	0.00e+00	120	29	0	1884291072	42	6087
2026-01-26 14:19:35.85	177.45	25.30	-35.0	-36.0	24.3	0.00e+00	123	29	0	1887436800	42	6211
2026-01-26 14:19:36.85	177.55	25.14	-34.8	-35.7	24.4	0.00e+00	123	28	0	1890582528	42	6061
2026-01-26 14:19:37.87	177.64	24.99	-34.8	-35.7	24.3	0.00e+00	120	28	0	1893728256	42	6053
2026-01-26 14:19:38.87	177.74	24.84	-34.9	-35.9	24.3	0.00e+00	122	29	0	1896873984	42	6136
2026-01-26 14:19:39.88	177.83	24.69	-34.8	-35.7	24.3	0.00e+00	122	29	0	1900019712	42	6033
2026-01-26 14:19:40.90	177.92	24.53	-34.8	-35.7	24.3	0.00e+00	122	29	0	1903165440	42	6024
2026-01-26 14:19:41.90	178.01	24.39	-34.7	-35.6	24.4	0.00e+00	123	28	0	1906311168	42	5948
2026-01-26 14:19:42.91	178.11	24.24	-34.8	-35.7	24.3	0.00e+00	123	29	0	1909456896	42	6022
2026-01-26 14:19:43.92	178.20	24.09	-34.8	-35.7	24.4	0.00e+00	120	28	0	1912602624	42	5998
2026-01-26 14:19:44.93	178.28	23.94	-34.6	-35.4	24.4	0.00e+00	123	28	0	1915748352	42	5849
2026-01-26 14:19:45.94	178.37	23.79	-34.7	-35.6	24.3	0.00e+00	120	29	0	1918894080	42	5929
2026-01-26 14:19:46.95	178.46	23.65	-34.4	-35.3	24.5	0.00e+00	123	28	0	1922039808	42	5748
2026-01-26 14:19:47.96	178.55	23.50	-34.4	-35.2	24.5	0.00e+00	123	28	0	1925185536	42	5706
2026-01-26 14:19:48.97	178.63	23.36	-34.4	-35.2	24.6	0.00e+00	123	28	0	1928331264	42	5720
2026-01-26 14:19:49.98	178.72	23.21	-34.4	-35.3	24.7	0.00e+00	118	28	0	1931476992	42	5770
2026-01-26 14:19:50.99	178.80	23.07	-34.6	-35.5	24.5	0.00e+00	122	28	0	1934622720	42	5899
2026-01-26 14:19:52.00	178.89	22.93	-34.4	-35.3	24.7	0.00e+00	123	28	0	1937768448	42	5752
2026-01-26 14:19:53.00	178.97	22.79	-34.4	-35.3	24.7	0.00e+00	122	29	0	1940914176	42	5727
2026-01-26 14:19:54.01	179.05	22.65	-34.5	-35.3	24.8	0.00e+00	123	28	0	1944059904	42	5788
2026-01-26 14:19:55.02	179.13	22.51	-34.4	-35.3	24.7	0.00e+00	123	28	0	1947205632	42	5743
2026-01-26 14:19:56.03	179.21	22.37	-34.5	-35.4	24.7	0.00e+00	124	28	0	1950351360	42	5797
2026-01-26 14:19:57.04	179.29	22.23	-34.7	-35.6	24.6	0.00e+00	122	28	0	1953497088	42	5946
2026-01-26 14:19:58.05	179.37	22.09	-34.6	-35.5	24.6	0.00e+00	123	29	0	1956642816	42	5890
2026-01-26 14:19:59.06	179.45	21.95	-34.7	-35.6	24.6	0.00e+00	123	29	0	1959788544	42	5927
2026-01-26 14:20:00.07	179.53	21.82	-34.8	-35.7	24.5	0.00e+00	120	28	0	1962934272	42	6043
2026-01-26 14:20:01.08	179.61	21.68	-35.0	-35.8	24.4	0.00e+00	122	28	0	1966080000	42	6132
2026-01-26 14:20:02.09	179.69	21.54	-34.9	-35.8	24.3	0.00e+00	123	28	0	1969225728	42	6119
2026-01-26 14:20:03.10	179.76	21.41	-34.9	-35.8	24.3	0.00e+00	120	29	0	1972371456	42	6126
2026-01-26 14:20:04.11	179.84	21.28	-35.0	-35.9	24.3	0.00e+00	122	29	0	1975517184	42	6161
2026-01-26 14:20:05.12	179.91	21.14	-35.0	-35.9	24.3	0.00e+00	122	29	0	1978662912	42	6190
2026-01-26 14:20:06.13	179.99	21.01	-35.0	-35.9	24.3	0.00e+00	120	29	0	1981808640	42	6158
2026-01-26 14:20:07.14	180.06	20.88	-35.1	-36.0	24.2	0.00e+00	123	29	0	1984954368	42	6225
2026-01-26 14:20:08.15	180.14	20.75	-35.0	-35.9	24.3	0.00e+00	122	28	0	1988100096	42	6163
