passes_logs/2026/01/26/R4.6S_Anadyr/R4.6S_Anadyr__20260126_135512_FENGYUN_3D_rec.log

#Pass ID: 20260126_135512_FENGYUN 3D
#Satellite: FENGYUN 3D
#Configuration: FENGYUN 3D
#almurnet v.1.7.20251203
#Start time: 2026-01-26 13:55:15

#Version: 2.2.20231116
#Station: R4.6S_Anadyr
#Location: 177.4865 lon 64.73178 lat
#TLE: 1 43010U 17072A   26025.99795741 -.00000136  00000+0 -42313-4 0  9999
#TLE: 2 43010  98.9962 357.9855 0002515  89.6991 270.4472 14.19699257424818

#Time	Az	El	Level	Level2	SNR	BER	BlckErr	Temp	State	Recorded	gain1	gain2
2026-01-26 13:55:15.23	20.88	0.12	-49.7	-64.7	3.6	1.51e+00	0	25	0	0	60	61803
2026-01-26 13:55:16.23	20.97	0.16	-50.3	-62.4	3.6	8.44e-01	0	26	104	0	60	47750
2026-01-26 13:55:17.24	21.06	0.20	-50.1	-62.2	3.6	8.46e-01	0	26	104	0	60	46832
2026-01-26 13:55:18.26	21.15	0.25	-50.1	-62.2	3.6	8.45e-01	0	26	104	0	60	46418
2026-01-26 13:55:19.27	21.24	0.29	-50.1	-62.2	3.6	8.47e-01	0	26	104	0	60	46721
2026-01-26 13:55:20.28	21.33	0.33	-49.8	-61.9	3.6	8.44e-01	0	27	104	0	60	44752
2026-01-26 13:55:21.29	21.43	0.38	-49.9	-62.0	3.6	8.45e-01	0	26	104	0	60	45387
2026-01-26 13:55:22.30	21.52	0.42	-49.6	-61.8	3.6	8.46e-01	0	26	104	0	60	44699
2026-01-26 13:55:23.31	21.61	0.46	-49.6	-61.8	3.6	8.45e-01	0	26	104	0	60	44255
2026-01-26 13:55:24.31	21.70	0.50	-49.6	-61.7	3.6	8.45e-01	0	26	104	0	60	43870
2026-01-26 13:55:25.32	21.80	0.55	-49.5	-61.6	3.6	8.45e-01	0	26	104	0	60	43637
2026-01-26 13:55:26.33	21.89	0.59	-49.5	-61.6	3.6	8.46e-01	0	26	104	0	60	43481
2026-01-26 13:55:27.34	21.98	0.63	-49.5	-61.6	3.6	8.45e-01	0	26	104	0	60	43664
2026-01-26 13:55:28.35	22.08	0.68	-49.3	-61.6	3.6	8.45e-01	0	27	104	0	60	43231
2026-01-26 13:55:29.36	22.17	0.72	-49.4	-61.5	3.6	8.46e-01	0	27	104	0	60	42999
2026-01-26 13:55:30.37	22.27	0.76	-49.4	-61.5	3.6	8.46e-01	0	27	104	0	60	43015
2026-01-26 13:55:31.38	22.36	0.81	-49.3	-61.4	3.6	8.46e-01	0	27	104	0	60	42240
2026-01-26 13:55:32.39	22.46	0.85	-49.2	-61.3	3.6	8.45e-01	0	27	104	0	60	42211
2026-01-26 13:55:33.40	22.55	0.89	-49.1	-61.3	3.6	8.44e-01	0	27	104	0	60	42089
2026-01-26 13:55:34.41	22.65	0.93	-49.1	-61.2	3.6	8.45e-01	0	27	104	0	60	41469
2026-01-26 13:55:35.42	22.74	0.98	-49.0	-61.2	3.6	8.45e-01	0	27	104	0	60	41264
2026-01-26 13:55:36.43	22.84	1.02	-48.9	-61.1	3.6	8.45e-01	0	27	104	0	60	40893
2026-01-26 13:55:37.44	22.93	1.06	-48.8	-60.9	3.6	8.45e-01	0	27	104	0	60	40100
2026-01-26 13:55:38.45	23.03	1.11	-48.6	-60.7	3.6	8.44e-01	0	27	104	0	60	39279
2026-01-26 13:55:39.46	23.13	1.15	-48.4	-60.4	3.6	8.45e-01	0	27	104	0	60	37712
2026-01-26 13:55:40.47	23.22	1.19	-48.0	-60.1	3.6	8.45e-01	0	27	104	0	60	36563
2026-01-26 13:55:41.48	23.32	1.24	-48.0	-60.1	3.6	8.43e-01	0	27	104	0	60	36366
2026-01-26 13:55:42.49	23.42	1.28	-48.0	-60.0	3.6	8.46e-01	0	27	104	0	60	36327
2026-01-26 13:55:43.50	23.52	1.32	-48.0	-60.0	3.6	8.45e-01	0	27	104	0	60	36334
2026-01-26 13:55:44.51	23.62	1.37	-47.9	-60.0	3.6	8.45e-01	0	27	104	0	60	36201
2026-01-26 13:55:45.51	23.71	1.41	-47.9	-60.0	3.6	8.45e-01	0	27	104	0	60	36267
2026-01-26 13:55:46.52	23.81	1.45	-47.9	-60.0	3.6	8.45e-01	0	27	104	0	60	36343
2026-01-26 13:55:47.54	23.91	1.49	-47.9	-60.1	3.6	8.47e-01	0	27	104	0	60	36463
2026-01-26 13:55:48.55	24.01	1.54	-47.9	-60.0	3.6	8.44e-01	0	27	104	0	60	36352
2026-01-26 13:55:49.56	24.11	1.58	-47.9	-60.0	3.6	8.46e-01	0	27	104	0	60	36173
2026-01-26 13:55:50.56	24.21	1.62	-47.9	-60.0	3.6	8.46e-01	0	27	104	0	60	36092
2026-01-26 13:55:51.57	24.31	1.67	-47.9	-60.0	3.6	8.45e-01	0	27	104	0	60	36226
2026-01-26 13:55:52.58	24.41	1.71	-47.9	-60.0	3.6	8.45e-01	0	27	104	0	60	36286
2026-01-26 13:55:53.59	24.51	1.75	-47.9	-60.0	3.6	8.45e-01	0	27	104	0	60	36082
2026-01-26 13:55:54.60	24.61	1.80	-47.9	-60.0	3.6	8.45e-01	0	27	104	0	60	36154
2026-01-26 13:55:55.61	24.71	1.84	-47.9	-60.0	3.6	8.45e-01	0	27	104	0	60	35994
2026-01-26 13:55:56.62	24.81	1.88	-47.9	-60.0	3.5	8.45e-01	0	27	104	0	60	36211
2026-01-26 13:55:57.63	24.92	1.93	-47.9	-60.0	3.6	8.45e-01	0	27	104	0	60	36250
2026-01-26 13:55:58.64	25.02	1.97	-47.9	-60.1	3.6	8.45e-01	0	27	104	0	60	36384
2026-01-26 13:55:59.65	25.12	2.01	-47.9	-60.1	3.6	8.44e-01	0	27	104	0	60	36463
2026-01-26 13:56:00.66	25.22	2.05	-47.9	-60.0	3.6	8.44e-01	0	27	104	0	60	36079
2026-01-26 13:56:01.67	25.33	2.10	-47.9	-59.9	3.6	8.44e-01	0	27	104	0	60	35887
2026-01-26 13:56:02.68	25.43	2.14	-47.9	-59.8	3.6	8.45e-01	0	27	104	0	60	35442
2026-01-26 13:56:03.69	25.53	2.18	-47.9	-59.8	3.6	8.45e-01	0	27	104	0	60	35439
2026-01-26 13:56:04.70	25.64	2.23	-47.9	-59.8	3.6	8.45e-01	0	27	104	0	60	35210
2026-01-26 13:56:05.71	25.74	2.27	-47.9	-59.9	3.6	8.46e-01	0	27	104	0	60	35887
2026-01-26 13:56:06.72	25.85	2.31	-47.9	-60.0	3.6	8.45e-01	0	27	104	0	60	36211
2026-01-26 13:56:07.73	25.95	2.36	-47.9	-59.9	3.6	8.45e-01	0	27	104	0	60	35785
2026-01-26 13:56:08.74	26.05	2.40	-48.0	-60.0	3.6	8.44e-01	0	27	104	0	60	36031
2026-01-26 13:56:09.75	26.16	2.44	-48.0	-60.0	3.6	8.46e-01	0	27	104	0	60	35962
2026-01-26 13:56:10.76	26.27	2.48	-47.9	-59.3	3.6	8.45e-01	0	27	104	0	60	33271
2026-01-26 13:56:11.77	26.37	2.53	-47.8	-58.1	3.6	8.45e-01	0	27	104	0	60	28997
2026-01-26 13:56:12.78	26.48	2.57	-47.8	-58.1	3.6	8.44e-01	0	27	104	0	60	29114
2026-01-26 13:56:13.79	26.58	2.61	-47.9	-59.4	3.6	8.45e-01	0	27	104	0	60	33585
2026-01-26 13:56:14.80	26.69	2.66	-47.4	-55.2	4.0	8.44e-01	0	27	104	0	60	20812
2026-01-26 13:56:15.81	26.80	2.70	-45.3	-48.8	10.3	1.39e-02	0	27	104	0	60	9936
2026-01-26 13:56:16.82	26.90	2.74	-42.9	-44.8	14.4	2.20e-06	0	27	0	4194304	60	6282
2026-01-26 13:56:17.83	27.01	2.79	-39.8	-40.9	18.3	0.00e+00	0	27	0	10485760	54	5688
2026-01-26 13:56:18.84	27.12	2.83	-37.5	-38.5	20.6	0.00e+00	0	27	0	15728640	48	6037
2026-01-26 13:56:19.85	27.23	2.87	-37.4	-38.3	20.6	0.00e+00	0	27	0	22020096	48	5931
2026-01-26 13:56:20.87	27.34	2.91	-37.4	-38.3	20.7	0.00e+00	0	27	0	27262976	48	5917
2026-01-26 13:56:21.88	27.45	2.96	-37.7	-38.6	20.2	0.00e+00	0	27	0	33554432	48	6145
2026-01-26 13:56:22.89	27.56	3.00	-39.5	-40.6	18.2	0.00e+00	0	27	0	38797312	50	6878
2026-01-26 13:56:23.89	27.66	3.04	-38.3	-39.3	19.8	0.00e+00	0	27	0	45088768	48	6667
2026-01-26 13:56:24.90	27.77	3.09	-37.7	-38.6	20.4	0.00e+00	0	27	0	50331648	48	6165
2026-01-26 13:56:25.91	27.88	3.13	-47.7	-56.5	3.6	5.63e-04	0	27	104	54525952	60	24106
2026-01-26 13:56:26.92	27.99	3.17	-47.3	-55.6	3.7	8.32e-01	0	27	104	54525952	60	21680
2026-01-26 13:56:27.93	28.10	3.21	-42.7	-44.5	12.1	0.00e+00	0	27	0	54525952	54	8547
2026-01-26 13:56:28.94	28.22	3.26	-39.2	-40.2	19.1	0.00e+00	0	27	0	60817408	52	5887
2026-01-26 13:56:29.95	28.33	3.30	-39.7	-40.8	18.7	0.00e+00	0	27	0	66060288	52	6267
2026-01-26 13:56:30.96	28.44	3.34	-39.2	-40.2	18.8	0.00e+00	0	27	0	72351744	52	5889
2026-01-26 13:56:31.97	28.55	3.38	-40.0	-41.2	18.5	0.00e+00	0	27	0	77594624	52	6561
2026-01-26 13:56:32.98	28.66	3.43	-39.4	-40.4	18.7	0.00e+00	0	27	0	83886080	52	6004
2026-01-26 13:56:33.99	28.77	3.47	-39.3	-40.4	19.2	0.00e+00	0	27	0	89128960	52	6006
2026-01-26 13:56:35.00	28.89	3.51	-38.5	-39.4	19.7	0.00e+00	0	27	0	95420416	50	6023
2026-01-26 13:56:36.01	29.00	3.55	-38.8	-39.8	19.3	0.00e+00	0	27	0	100663296	50	6275
2026-01-26 13:56:37.02	29.11	3.60	-38.4	-39.4	20.1	0.00e+00	0	27	0	105906176	50	5996
2026-01-26 13:56:38.03	29.23	3.64	-38.3	-39.3	19.5	0.00e+00	0	27	0	112197632	50	5905
2026-01-26 13:56:39.04	29.34	3.68	-38.6	-39.6	20.1	0.00e+00	0	27	0	117440512	50	6125
2026-01-26 13:56:40.05	29.46	3.72	-38.0	-38.9	20.2	0.00e+00	0	27	0	123731968	48	6326
2026-01-26 13:56:41.06	29.57	3.77	-38.5	-39.4	19.6	0.00e+00	0	27	0	128974848	48	6750
2026-01-26 13:56:42.07	29.69	3.81	-38.2	-39.2	20.4	0.00e+00	0	27	0	134217728	48	6568
2026-01-26 13:56:43.08	29.80	3.85	-38.0	-38.9	20.5	0.00e+00	0	27	0	140509184	48	6375
2026-01-26 13:56:44.09	29.92	3.89	-37.4	-38.3	21.0	0.00e+00	0	27	0	145752064	48	5926
2026-01-26 13:56:45.10	30.03	3.94	-36.9	-37.8	21.3	0.00e+00	0	27	0	152043520	48	5585
2026-01-26 13:56:46.11	30.15	3.98	-37.0	-37.8	21.6	0.00e+00	0	27	0	157286400	48	5590
2026-01-26 13:56:47.12	30.26	4.02	-37.2	-38.1	21.1	0.00e+00	0	27	0	162529280	48	5763
2026-01-26 13:56:48.13	30.38	4.06	-37.3	-38.1	21.1	0.00e+00	0	27	0	168820736	48	5812
2026-01-26 13:56:49.14	30.50	4.11	-37.8	-38.7	20.6	0.00e+00	0	27	0	174063616	48	6239
2026-01-26 13:56:50.15	30.62	4.15	-37.6	-38.5	20.7	0.00e+00	0	27	0	180355072	48	6081
2026-01-26 13:56:51.16	30.73	4.19	-37.2	-38.0	21.3	0.00e+00	0	27	0	185597952	48	5752
2026-01-26 13:56:52.17	30.85	4.23	-36.7	-37.5	21.8	0.00e+00	0	27	0	191889408	46	6069
2026-01-26 13:56:53.18	30.97	4.27	-36.4	-37.2	22.0	0.00e+00	0	27	0	197132288	46	5863
2026-01-26 13:56:54.19	31.09	4.32	-37.0	-37.8	21.4	0.00e+00	0	27	0	202375168	46	6302
2026-01-26 13:56:55.20	31.21	4.36	-37.1	-38.0	21.3	0.00e+00	0	27	0	208666624	46	6408
2026-01-26 13:56:56.20	31.33	4.40	-37.1	-38.0	21.4	0.00e+00	0	27	0	213909504	46	6391
2026-01-26 13:56:57.21	31.45	4.44	-36.2	-37.0	22.3	0.00e+00	0	27	0	220200960	46	5731
2026-01-26 13:56:58.22	31.57	4.48	-36.2	-37.0	22.3	0.00e+00	0	27	0	225443840	46	5742
2026-01-26 13:56:59.23	31.69	4.53	-36.2	-36.9	22.3	0.00e+00	0	27	0	230686720	46	5692
2026-01-26 13:57:00.24	31.81	4.57	-36.2	-37.0	22.2	0.00e+00	0	27	0	236978176	46	5751
2026-01-26 13:57:01.25	31.93	4.61	-36.3	-37.1	22.2	0.00e+00	0	27	0	242221056	46	5803
2026-01-26 13:57:02.26	32.05	4.65	-36.3	-37.1	22.1	0.00e+00	0	27	0	248512512	46	5777
2026-01-26 13:57:03.27	32.17	4.69	-36.5	-37.3	22.0	0.00e+00	0	27	0	253755392	46	5954
2026-01-26 13:57:04.28	32.29	4.74	-36.5	-37.3	22.0	0.00e+00	0	27	0	258998272	46	5958
2026-01-26 13:57:05.29	32.42	4.78	-36.5	-37.3	22.1	0.00e+00	0	27	0	265289728	46	5944
2026-01-26 13:57:06.30	32.54	4.82	-36.2	-37.1	22.3	0.00e+00	0	27	0	270532608	46	5769
2026-01-26 13:57:07.31	32.66	4.86	-36.1	-36.9	22.4	0.00e+00	0	27	0	276824064	46	5667
2026-01-26 13:57:08.32	32.79	4.90	-36.1	-37.0	22.4	0.00e+00	0	27	0	282066944	46	5702
2026-01-26 13:57:09.33	32.91	4.94	-36.2	-36.9	22.4	0.00e+00	0	27	0	288358400	46	5684
2026-01-26 13:57:10.34	33.03	4.99	-35.9	-36.7	22.7	0.00e+00	0	27	0	293601280	46	5551
2026-01-26 13:57:11.35	33.16	5.03	-35.7	-36.5	22.7	0.00e+00	0	27	0	299892736	46	5420
2026-01-26 13:57:12.36	33.28	5.07	-35.8	-36.6	22.9	0.00e+00	0	27	0	305135616	44	6110
2026-01-26 13:57:13.37	33.41	5.11	-35.7	-36.5	22.9	0.00e+00	0	27	0	310378496	44	6044
2026-01-26 13:57:14.38	33.53	5.15	-35.6	-36.4	22.9	0.00e+00	0	27	0	316669952	44	5974
2026-01-26 13:57:15.39	33.66	5.19	-36.2	-36.9	22.6	0.00e+00	0	27	0	321912832	44	6385
2026-01-26 13:57:16.40	33.79	5.23	-36.1	-36.8	22.5	0.00e+00	0	27	0	328204288	44	6314
2026-01-26 13:57:17.41	33.91	5.27	-35.7	-36.4	22.8	0.00e+00	0	27	0	333447168	44	5999
2026-01-26 13:57:18.42	34.04	5.32	-35.4	-36.1	23.2	0.00e+00	0	27	0	338690048	44	5824
2026-01-26 13:57:19.42	34.17	5.36	-35.6	-36.4	23.0	0.00e+00	0	27	0	344981504	44	5978
2026-01-26 13:57:20.43	34.29	5.40	-35.5	-36.2	23.1	0.00e+00	0	27	0	350224384	44	5859
2026-01-26 13:57:21.44	34.42	5.44	-35.6	-36.3	23.0	0.00e+00	0	27	0	356515840	44	5958
2026-01-26 13:57:22.45	34.55	5.48	-35.4	-36.2	23.1	0.00e+00	0	27	0	361758720	44	5849
2026-01-26 13:57:23.46	34.68	5.52	-35.7	-36.5	22.9	0.00e+00	0	27	0	367001600	44	6042
2026-01-26 13:57:24.47	34.81	5.56	-35.8	-36.5	22.8	0.00e+00	0	27	0	373293056	44	6097
2026-01-26 13:57:25.48	34.94	5.60	-35.9	-36.7	22.7	0.00e+00	0	27	0	378535936	44	6191
2026-01-26 13:57:26.49	35.07	5.64	-36.4	-37.2	22.6	0.00e+00	0	27	0	384827392	44	6548
2026-01-26 13:57:27.50	35.20	5.68	-35.9	-36.7	22.4	0.00e+00	0	27	0	390070272	44	6211
2026-01-26 13:57:28.51	35.33	5.72	-36.1	-36.9	22.7	0.00e+00	0	27	0	396361728	44	6321
2026-01-26 13:57:29.52	35.46	5.76	-36.1	-36.8	22.6	0.00e+00	0	27	0	401604608	44	6313
2026-01-26 13:57:30.53	35.59	5.81	-36.1	-36.8	22.8	0.00e+00	0	27	0	406847488	44	6286
2026-01-26 13:57:31.54	35.72	5.85	-36.1	-36.9	22.6	0.00e+00	0	27	0	413138944	44	6334
2026-01-26 13:57:32.55	35.85	5.89	-35.9	-36.6	22.8	0.00e+00	0	27	0	418381824	44	6153
2026-01-26 13:57:33.56	35.98	5.93	-35.9	-36.6	22.9	0.00e+00	0	27	0	424673280	44	6130
2026-01-26 13:57:34.57	36.12	5.97	-35.6	-36.4	23.2	0.00e+00	0	27	0	429916160	44	5975
2026-01-26 13:57:35.58	36.25	6.01	-35.7	-36.5	23.1	0.00e+00	0	27	0	435159040	44	6039
2026-01-26 13:57:36.59	36.38	6.05	-35.4	-36.1	23.3	0.00e+00	0	27	0	441450496	44	5823
2026-01-26 13:57:37.60	36.52	6.09	-35.9	-36.7	22.8	0.00e+00	0	27	0	446693376	44	6205
2026-01-26 13:57:38.61	36.65	6.13	-35.8	-36.5	22.9	0.00e+00	0	27	0	452984832	44	6098
2026-01-26 13:57:39.62	36.78	6.17	-35.4	-36.1	23.4	0.00e+00	0	27	0	458227712	44	5789
2026-01-26 13:57:40.63	36.92	6.21	-35.6	-36.4	23.1	0.00e+00	0	27	0	463470592	44	5972
2026-01-26 13:57:41.64	37.05	6.25	-35.7	-36.5	23.0	0.00e+00	0	27	0	469762048	44	6067
2026-01-26 13:57:42.65	37.19	6.29	-35.4	-36.2	23.3	0.00e+00	0	27	0	475004928	44	5856
2026-01-26 13:57:43.66	37.32	6.33	-35.4	-36.1	23.4	0.00e+00	0	27	0	481296384	44	5794
2026-01-26 13:57:44.67	37.46	6.37	-35.5	-36.2	23.3	0.00e+00	0	27	0	486539264	44	5845
2026-01-26 13:57:45.68	37.60	6.40	-35.6	-36.3	23.1	0.00e+00	0	27	0	492830720	44	5949
2026-01-26 13:57:46.69	37.73	6.44	-35.2	-36.0	23.5	0.00e+00	0	27	0	498073600	44	5710
2026-01-26 13:57:47.70	37.87	6.48	-35.1	-35.8	23.6	0.00e+00	0	27	0	504365056	44	5620
2026-01-26 13:57:48.71	38.01	6.52	-35.1	-35.9	23.6	0.00e+00	0	27	0	509607936	44	5637
2026-01-26 13:57:49.72	38.15	6.56	-35.4	-36.2	23.3	0.00e+00	0	27	0	514850816	44	5859
2026-01-26 13:57:50.73	38.28	6.60	-35.2	-36.0	23.4	0.00e+00	0	27	0	521142272	44	5725
2026-01-26 13:57:51.74	38.42	6.64	-35.1	-35.8	23.6	0.00e+00	0	27	0	526385152	44	5584
2026-01-26 13:57:52.75	38.56	6.68	-35.3	-36.0	23.5	0.00e+00	0	27	0	532676608	44	5718
2026-01-26 13:57:53.76	38.70	6.72	-35.3	-36.0	23.5	0.00e+00	0	27	0	537919488	44	5721
2026-01-26 13:57:54.76	38.84	6.76	-34.9	-35.6	23.9	0.00e+00	0	27	0	543162368	44	5452
2026-01-26 13:57:55.77	38.98	6.79	-35.0	-35.7	23.8	0.00e+00	0	27	0	549453824	44	5532
2026-01-26 13:57:56.78	39.12	6.83	-34.9	-35.7	23.8	0.00e+00	0	27	0	554696704	44	5506
2026-01-26 13:57:57.79	39.26	6.87	-35.0	-35.7	23.8	0.00e+00	0	27	0	559939584	44	5534
2026-01-26 13:57:58.80	39.40	6.91	-34.8	-35.5	24.0	0.00e+00	0	27	0	566231040	44	5394
2026-01-26 13:57:59.81	39.54	6.95	-34.9	-35.7	24.0	0.00e+00	0	27	0	571473920	42	6182
2026-01-26 13:58:00.82	39.68	6.99	-35.3	-36.0	23.7	0.00e+00	0	27	0	577765376	42	6459
2026-01-26 13:58:01.83	39.83	7.03	-35.1	-35.8	23.7	0.00e+00	0	27	0	583008256	42	6256
2026-01-26 13:58:02.84	39.97	7.06	-35.1	-35.8	23.7	0.00e+00	0	27	0	589299712	42	6298
2026-01-26 13:58:03.85	40.11	7.10	-35.1	-35.8	23.7	0.00e+00	0	27	0	594542592	42	6291
2026-01-26 13:58:04.85	40.25	7.14	-35.0	-35.7	23.8	0.00e+00	0	27	0	600834048	42	6215
2026-01-26 13:58:05.86	40.40	7.18	-35.1	-35.8	23.7	0.00e+00	0	27	0	606076928	42	6302
2026-01-26 13:58:06.87	40.54	7.21	-35.2	-35.9	23.5	0.00e+00	0	27	0	611319808	42	6353
2026-01-26 13:58:07.88	40.68	7.25	-35.0	-35.7	23.7	0.00e+00	0	27	0	617611264	42	6241
2026-01-26 13:58:08.89	40.83	7.29	-35.1	-35.8	23.7	0.00e+00	0	27	0	622854144	42	6266
2026-01-26 13:58:09.90	40.97	7.33	-35.1	-35.8	23.7	0.00e+00	0	27	0	629145600	42	6266
2026-01-26 13:58:10.92	41.12	7.36	-34.8	-35.5	24.0	0.00e+00	0	27	0	634388480	42	6064
2026-01-26 13:58:11.93	41.27	7.40	-34.8	-35.5	23.9	0.00e+00	0	27	0	639631360	42	6087
2026-01-26 13:58:12.94	41.41	7.44	-34.8	-35.5	23.9	0.00e+00	0	27	0	645922816	42	6058
2026-01-26 13:58:13.95	41.56	7.48	-35.1	-35.8	23.7	0.00e+00	0	27	0	651165696	42	6247
2026-01-26 13:58:14.96	41.71	7.51	-35.1	-35.8	23.6	0.00e+00	0	27	0	657457152	42	6277
2026-01-26 13:58:15.97	41.85	7.55	-35.0	-35.7	23.9	0.00e+00	0	27	0	662700032	42	6208
2026-01-26 13:58:16.98	42.00	7.59	-35.0	-35.7	23.8	0.00e+00	0	27	0	667942912	42	6208
2026-01-26 13:58:17.98	42.15	7.62	-35.1	-35.8	23.7	0.00e+00	0	27	0	674234368	42	6262
2026-01-26 13:58:18.99	42.30	7.66	-34.9	-35.7	23.9	0.00e+00	0	27	0	679477248	42	6207
2026-01-26 13:58:20.00	42.44	7.70	-35.0	-35.7	23.8	0.00e+00	0	27	0	685768704	42	6235
2026-01-26 13:58:21.01	42.59	7.73	-34.9	-35.6	23.9	0.00e+00	0	27	0	691011584	42	6148
2026-01-26 13:58:22.02	42.74	7.77	-35.0	-35.7	23.8	0.00e+00	0	27	0	697303040	42	6242
2026-01-26 13:58:23.03	42.89	7.80	-35.1	-35.8	23.8	0.00e+00	0	27	0	702545920	42	6302
2026-01-26 13:58:24.04	43.04	7.84	-35.1	-35.9	23.7	0.00e+00	0	27	0	707788800	42	6319
2026-01-26 13:58:25.05	43.19	7.88	-34.9	-35.7	23.9	0.00e+00	0	27	0	714080256	42	6186
2026-01-26 13:58:26.06	43.34	7.91	-34.9	-35.6	24.0	0.00e+00	0	27	0	719323136	42	6148
2026-01-26 13:58:27.07	43.49	7.95	-34.8	-35.6	24.0	0.00e+00	0	27	0	725614592	42	6112
2026-01-26 13:58:28.08	43.65	7.98	-34.8	-35.5	24.1	0.00e+00	0	27	0	730857472	42	6090
2026-01-26 13:58:29.09	43.80	8.02	-35.0	-35.7	23.9	0.00e+00	0	27	0	736100352	42	6207
2026-01-26 13:58:30.10	43.95	8.05	-35.0	-35.7	23.9	0.00e+00	0	27	0	742391808	42	6218
2026-01-26 13:58:31.11	44.10	8.09	-34.8	-35.6	24.1	0.00e+00	0	27	0	747634688	42	6114
2026-01-26 13:58:32.12	44.25	8.12	-34.9	-35.6	24.0	0.00e+00	0	27	0	753926144	42	6132
2026-01-26 13:58:33.13	44.41	8.16	-34.9	-35.6	24.0	0.00e+00	0	27	0	759169024	42	6134
2026-01-26 13:58:34.13	44.56	8.19	-35.1	-35.8	23.8	0.00e+00	0	27	0	764411904	42	6277
2026-01-26 13:58:35.14	44.71	8.23	-34.9	-35.7	23.9	0.00e+00	0	27	0	770703360	42	6192
2026-01-26 13:58:36.15	44.87	8.26	-34.8	-35.5	24.1	0.00e+00	0	27	0	775946240	42	6100
2026-01-26 13:58:37.16	45.02	8.30	-34.7	-35.4	24.2	0.00e+00	0	27	0	782237696	42	5983
2026-01-26 13:58:38.17	45.18	8.33	-34.8	-35.5	24.2	0.00e+00	0	27	0	787480576	42	6087
2026-01-26 13:58:39.18	45.33	8.36	-34.8	-35.5	24.1	0.00e+00	0	27	0	793772032	42	6069
2026-01-26 13:58:40.19	45.49	8.40	-34.5	-35.2	24.4	0.00e+00	0	27	0	799014912	42	5837
2026-01-26 13:58:41.20	45.64	8.43	-34.7	-35.4	24.1	0.00e+00	0	27	0	805306368	42	5997
2026-01-26 13:58:42.21	45.80	8.47	-34.6	-35.3	24.2	0.00e+00	0	27	0	810549248	42	5948
2026-01-26 13:58:43.22	45.96	8.50	-34.7	-35.4	24.2	0.00e+00	0	27	0	815792128	42	6001
2026-01-26 13:58:44.23	46.11	8.53	-34.7	-35.4	24.3	0.00e+00	0	27	0	822083584	42	5977
2026-01-26 13:58:45.24	46.27	8.57	-34.7	-35.4	24.3	0.00e+00	0	27	0	827326464	42	5992
2026-01-26 13:58:46.25	46.43	8.60	-34.9	-35.6	24.2	0.00e+00	0	27	0	833617920	42	6108
2026-01-26 13:58:47.26	46.59	8.63	-34.5	-35.2	24.5	0.00e+00	0	27	0	838860800	42	5835
2026-01-26 13:58:48.27	46.75	8.67	-34.5	-35.2	24.4	0.00e+00	0	27	0	844103680	42	5869
2026-01-26 13:58:49.28	46.91	8.70	-34.5	-35.2	24.5	0.00e+00	0	27	0	850395136	42	5845
2026-01-26 13:58:50.29	47.06	8.73	-34.7	-35.4	24.4	0.00e+00	0	27	0	855638016	42	5978
2026-01-26 13:58:51.30	47.22	8.76	-34.6	-35.3	24.4	0.00e+00	0	27	0	861929472	42	5956
2026-01-26 13:58:52.31	47.38	8.80	-34.5	-35.2	24.5	0.00e+00	0	27	0	867172352	42	5865
2026-01-26 13:58:53.32	47.54	8.83	-34.4	-35.1	24.5	0.00e+00	0	27	0	872415232	42	5804
2026-01-26 13:58:54.33	47.70	8.86	-34.4	-35.1	24.6	0.00e+00	0	27	0	878706688	42	5784
2026-01-26 13:58:55.34	47.87	8.89	-34.4	-35.1	24.7	0.00e+00	0	27	0	883949568	42	5766
2026-01-26 13:58:56.35	48.03	8.92	-34.3	-35.0	24.6	0.00e+00	0	27	0	890241024	42	5731
2026-01-26 13:58:57.36	48.19	8.95	-34.4	-35.1	24.6	0.00e+00	0	27	0	895483904	42	5771
2026-01-26 13:58:58.37	48.35	8.99	-34.3	-35.0	24.6	0.00e+00	0	27	0	901775360	42	5733
2026-01-26 13:58:59.38	48.51	9.02	-34.6	-35.3	24.3	0.00e+00	0	27	0	907018240	42	5929
2026-01-26 13:59:00.39	48.68	9.05	-34.5	-35.2	24.5	0.00e+00	0	27	0	913309696	42	5858
2026-01-26 13:59:01.41	48.84	9.08	-34.4	-35.1	24.6	0.00e+00	0	27	0	918552576	42	5764
2026-01-26 13:59:02.42	49.00	9.11	-34.5	-35.2	24.4	0.00e+00	0	27	0	923795456	42	5880
2026-01-26 13:59:03.42	49.17	9.14	-34.5	-35.2	24.4	0.00e+00	0	27	0	930086912	42	5880
2026-01-26 13:59:04.43	49.33	9.17	-34.8	-35.5	24.2	0.00e+00	0	27	0	935329792	42	6081
2026-01-26 13:59:05.44	49.49	9.20	-34.6	-35.3	24.3	0.00e+00	0	27	0	941621248	42	5926
2026-01-26 13:59:06.45	49.66	9.23	-34.6	-35.3	24.4	0.00e+00	0	27	0	946864128	42	5900
2026-01-26 13:59:07.46	49.82	9.26	-34.5	-35.2	24.4	0.00e+00	0	27	0	952107008	42	5873
2026-01-26 13:59:08.47	49.99	9.29	-34.4	-35.1	24.4	0.00e+00	0	27	0	958398464	42	5798
2026-01-26 13:59:09.48	50.15	9.32	-34.4	-35.1	24.5	0.00e+00	0	27	0	963641344	42	5787
2026-01-26 13:59:10.49	50.32	9.35	-34.4	-35.1	24.5	0.00e+00	0	27	0	969932800	42	5778
2026-01-26 13:59:11.50	50.49	9.38	-34.4	-35.1	24.6	0.00e+00	0	27	0	975175680	42	5800
2026-01-26 13:59:12.51	50.65	9.41	-34.1	-34.8	24.8	0.00e+00	0	27	0	980418560	42	5591
2026-01-26 13:59:13.52	50.82	9.44	-34.3	-35.0	24.7	0.00e+00	0	27	0	986710016	42	5721
2026-01-26 13:59:14.53	50.99	9.47	-34.3	-35.0	24.5	0.00e+00	0	27	0	991952896	42	5757
2026-01-26 13:59:15.54	51.15	9.49	-34.5	-35.2	24.5	0.00e+00	0	27	0	998244352	42	5872
2026-01-26 13:59:16.55	51.32	9.52	-34.4	-35.1	24.4	0.00e+00	0	27	0	1003487232	42	5807
2026-01-26 13:59:17.56	51.49	9.55	-34.5	-35.3	24.4	0.00e+00	0	27	0	1009778688	42	5906
2026-01-26 13:59:18.57	51.66	9.58	-34.6	-35.3	24.3	0.00e+00	0	27	0	1015021568	42	5922
2026-01-26 13:59:19.58	51.83	9.61	-34.6	-35.3	24.3	0.00e+00	0	27	0	1020264448	42	5943
2026-01-26 13:59:20.59	52.00	9.63	-34.8	-35.5	24.2	0.00e+00	0	27	0	1026555904	42	6087
2026-01-26 13:59:21.60	52.17	9.66	-34.3	-35.0	24.7	0.00e+00	0	27	0	1031798784	42	5702
2026-01-26 13:59:22.61	52.34	9.69	-34.6	-35.3	24.4	0.00e+00	0	27	0	1038090240	42	5923
2026-01-26 13:59:23.62	52.51	9.72	-34.8	-35.5	24.3	0.00e+00	0	27	0	1043333120	42	6064
2026-01-26 13:59:24.63	52.68	9.74	-35.1	-35.8	24.1	0.00e+00	0	27	0	1048576000	42	6283
2026-01-26 13:59:25.64	52.85	9.77	-34.7	-35.4	24.3	0.00e+00	0	27	0	1054867456	42	5982
2026-01-26 13:59:26.65	53.02	9.80	-34.7	-35.4	24.3	0.00e+00	0	27	0	1060110336	42	5987
2026-01-26 13:59:27.66	53.19	9.82	-34.7	-35.3	24.3	0.00e+00	0	27	0	1066401792	42	5962
2026-01-26 13:59:28.67	53.36	9.85	-34.6	-35.3	24.4	0.00e+00	0	27	0	1071644672	42	5926
2026-01-26 13:59:29.68	53.53	9.87	-34.5	-35.2	24.4	0.00e+00	0	27	0	1076887552	42	5887
2026-01-26 13:59:30.68	53.70	9.90	-34.5	-35.2	24.4	0.00e+00	0	27	0	1083179008	42	5874
2026-01-26 13:59:31.69	53.88	9.92	-34.4	-35.2	24.5	0.00e+00	0	27	0	1088421888	42	5849
2026-01-26 13:59:32.70	54.05	9.95	-34.2	-35.0	24.6	0.00e+00	0	27	0	1094713344	42	5704
2026-01-26 13:59:33.71	54.22	9.98	-34.4	-35.1	24.5	0.00e+00	0	27	0	1099956224	42	5815
2026-01-26 13:59:34.72	54.39	10.00	-34.3	-35.0	24.6	0.00e+00	0	27	0	1106247680	42	5744
2026-01-26 13:59:35.73	54.57	10.02	-34.3	-35.0	24.7	0.00e+00	0	27	0	1111490560	42	5735
2026-01-26 13:59:36.74	54.74	10.05	-34.4	-35.1	24.7	0.00e+00	0	27	0	1117782016	42	5790
2026-01-26 13:59:37.75	54.92	10.07	-34.2	-34.9	24.8	0.00e+00	0	27	0	1123024896	42	5680
2026-01-26 13:59:38.76	55.09	10.10	-34.3	-35.0	24.7	0.00e+00	0	27	0	1128267776	42	5754
2026-01-26 13:59:39.77	55.27	10.12	-34.0	-34.7	24.9	0.00e+00	0	27	0	1134559232	42	5549
2026-01-26 13:59:40.78	55.44	10.14	-34.0	-34.6	25.0	0.00e+00	0	27	0	1139802112	42	5498
2026-01-26 13:59:41.79	55.62	10.17	-33.8	-34.5	25.0	0.00e+00	0	27	0	1146093568	42	5409
2026-01-26 13:59:42.80	55.79	10.19	-33.7	-34.4	25.1	0.00e+00	0	27	0	1151336448	42	5360
2026-01-26 13:59:43.81	55.97	10.21	-33.7	-34.4	25.2	0.00e+00	0	27	0	1156579328	40	5989
2026-01-26 13:59:44.82	56.14	10.24	-33.8	-34.5	25.1	0.00e+00	0	27	0	1162870784	40	6048
2026-01-26 13:59:45.83	56.32	10.26	-33.9	-34.6	24.9	0.00e+00	0	27	0	1168113664	40	6116
2026-01-26 13:59:46.84	56.50	10.28	-34.0	-34.6	24.9	0.00e+00	0	27	0	1173356544	40	6159
2026-01-26 13:59:47.85	56.67	10.30	-34.0	-34.7	24.9	0.00e+00	0	27	0	1179648000	40	6191
2026-01-26 13:59:48.86	56.85	10.33	-34.2	-34.9	24.7	0.00e+00	0	27	0	1184890880	40	6380
2026-01-26 13:59:49.87	57.03	10.35	-33.9	-34.5	25.1	0.00e+00	0	27	0	1191182336	40	6089
2026-01-26 13:59:50.88	57.20	10.37	-33.8	-34.5	25.1	0.00e+00	0	27	0	1196425216	40	6066
2026-01-26 13:59:51.89	57.38	10.39	-33.9	-34.6	25.0	0.00e+00	0	27	0	1202716672	40	6104
2026-01-26 13:59:52.90	57.56	10.41	-33.5	-34.2	25.4	0.00e+00	0	27	0	1207959552	40	5834
2026-01-26 13:59:53.91	57.74	10.43	-33.6	-34.3	25.3	0.00e+00	0	27	0	1214251008	40	5906
2026-01-26 13:59:54.92	57.92	10.45	-33.6	-34.3	25.3	0.00e+00	0	27	0	1219493888	40	5917
2026-01-26 13:59:55.93	58.10	10.47	-33.6	-34.3	25.3	0.00e+00	0	27	0	1224736768	40	5903
2026-01-26 13:59:56.94	58.28	10.49	-33.6	-34.2	25.3	0.00e+00	0	27	0	1231028224	40	5880
2026-01-26 13:59:57.94	58.45	10.51	-33.6	-34.2	25.3	0.00e+00	0	27	0	1236271104	40	5887
2026-01-26 13:59:58.95	58.63	10.53	-33.8	-34.4	25.3	0.00e+00	0	28	0	1242562560	40	5990
2026-01-26 13:59:59.96	58.81	10.55	-33.9	-34.5	25.1	0.00e+00	0	27	0	1247805440	40	6090
2026-01-26 14:00:00.97	58.99	10.57	-34.0	-34.7	24.9	0.00e+00	0	28	0	1253048320	40	6198
2026-01-26 14:00:01.98	59.17	10.59	-34.1	-34.8	24.8	0.00e+00	0	27	0	1259339776	40	6284
2026-01-26 14:00:02.99	59.35	10.61	-34.1	-34.8	24.9	0.00e+00	0	27	0	1264582656	40	6276
2026-01-26 14:00:04.00	59.54	10.63	-34.2	-34.9	24.8	0.00e+00	0	27	0	1270874112	40	6321
2026-01-26 14:00:05.01	59.72	10.65	-34.0	-34.8	24.9	0.00e+00	0	28	0	1276116992	40	6250
2026-01-26 14:00:06.02	59.90	10.66	-33.9	-34.6	25.0	0.00e+00	0	28	0	1281359872	40	6156
2026-01-26 14:00:07.03	60.08	10.68	-33.9	-34.6	25.0	0.00e+00	0	28	0	1287651328	40	6116
2026-01-26 14:00:08.04	60.26	10.70	-33.8	-34.5	25.0	0.00e+00	0	28	0	1292894208	40	6072
2026-01-26 14:00:09.05	60.44	10.72	-33.9	-34.5	25.1	0.00e+00	0	28	0	1299185664	40	6102
2026-01-26 14:00:10.06	60.62	10.73	-34.0	-34.6	25.0	0.00e+00	0	28	0	1304428544	40	6154
2026-01-26 14:00:11.07	60.81	10.75	-33.8	-34.5	25.1	0.00e+00	0	28	0	1310720000	40	6051
2026-01-26 14:00:12.08	60.99	10.77	-33.9	-34.6	25.0	0.00e+00	0	28	0	1315962880	40	6172
2026-01-26 14:00:13.08	61.17	10.78	-34.0	-34.7	24.9	0.00e+00	0	28	0	1321205760	40	6220
2026-01-26 14:00:14.10	61.36	10.80	-34.0	-34.6	25.0	0.00e+00	0	28	0	1327497216	40	6173
2026-01-26 14:00:15.10	61.54	10.82	-33.8	-34.5	25.1	0.00e+00	0	28	0	1332740096	40	6050
2026-01-26 14:00:16.12	61.72	10.83	-33.9	-34.6	25.0	0.00e+00	0	28	0	1339031552	40	6120
2026-01-26 14:00:17.13	61.91	10.85	-33.8	-34.6	24.9	0.00e+00	0	28	0	1344274432	40	6108
2026-01-26 14:00:18.14	62.09	10.86	-33.8	-34.5	25.0	0.00e+00	0	28	0	1349517312	40	6078
2026-01-26 14:00:19.14	62.27	10.88	-34.0	-34.6	24.8	0.00e+00	0	28	0	1355808768	40	6164
2026-01-26 14:00:20.15	62.45	10.89	-34.0	-34.6	24.7	0.00e+00	0	28	0	1361051648	40	6170
2026-01-26 14:00:21.16	62.64	10.91	-33.9	-34.6	24.8	0.00e+00	0	28	0	1367343104	40	6116
2026-01-26 14:00:22.17	62.82	10.92	-33.9	-34.6	24.9	0.00e+00	0	28	0	1372585984	40	6133
2026-01-26 14:00:23.18	63.01	10.93	-34.0	-34.7	24.9	0.00e+00	0	28	0	1377828864	40	6188
2026-01-26 14:00:24.19	63.19	10.95	-33.9	-34.5	25.0	0.00e+00	0	28	0	1384120320	40	6089
2026-01-26 14:00:25.20	63.38	10.96	-34.0	-34.6	24.9	0.00e+00	0	28	0	1389363200	40	6170
2026-01-26 14:00:26.21	63.56	10.97	-33.9	-34.6	24.9	0.00e+00	0	28	0	1395654656	40	6170
2026-01-26 14:00:27.21	63.75	10.99	-34.0	-34.6	25.0	0.00e+00	0	28	0	1400897536	40	6169
2026-01-26 14:00:28.22	63.93	11.00	-33.9	-34.6	25.1	0.00e+00	0	28	0	1407188992	40	6105
2026-01-26 14:00:29.23	64.12	11.01	-33.9	-34.6	25.0	0.00e+00	0	28	0	1412431872	40	6158
2026-01-26 14:00:30.25	64.30	11.02	-34.1	-34.8	24.9	0.00e+00	0	28	0	1418723328	40	6284
2026-01-26 14:00:31.26	64.49	11.03	-33.9	-34.6	25.1	0.00e+00	0	28	0	1423966208	40	6163
2026-01-26 14:00:32.27	64.68	11.05	-33.8	-34.5	25.2	0.00e+00	0	28	0	1429209088	40	6055
2026-01-26 14:00:33.28	64.86	11.06	-33.7	-34.4	25.2	0.00e+00	0	28	0	1435500544	40	6001
2026-01-26 14:00:34.29	65.05	11.07	-33.7	-34.3	25.2	0.00e+00	0	28	0	1440743424	40	5940
2026-01-26 14:00:35.29	65.23	11.08	-33.7	-34.4	25.3	0.00e+00	0	28	0	1447034880	40	5997
2026-01-26 14:00:36.30	65.42	11.09	-33.7	-34.4	25.1	0.00e+00	0	28	0	1452277760	40	6023
2026-01-26 14:00:37.31	65.61	11.10	-33.8	-34.5	25.1	0.00e+00	0	28	0	1457520640	40	6083
2026-01-26 14:00:38.32	65.79	11.11	-33.8	-34.5	25.1	0.00e+00	0	28	0	1463812096	40	6059
2026-01-26 14:00:39.33	65.98	11.12	-33.9	-34.6	25.1	0.00e+00	0	28	0	1469054976	40	6153
2026-01-26 14:00:40.34	66.17	11.13	-33.8	-34.5	25.1	0.00e+00	0	28	0	1474297856	40	6064
2026-01-26 14:00:41.35	66.35	11.14	-34.0	-34.7	25.0	0.00e+00	0	28	0	1480589312	40	6203
2026-01-26 14:00:42.36	66.54	11.15	-34.1	-34.8	25.0	0.00e+00	0	28	0	1485832192	40	6255
2026-01-26 14:00:43.37	66.73	11.16	-33.9	-34.6	25.0	0.00e+00	0	28	0	1492123648	40	6163
2026-01-26 14:00:44.38	66.92	11.16	-34.1	-34.8	24.8	0.00e+00	0	28	0	1497366528	40	6296
2026-01-26 14:00:45.39	67.10	11.17	-34.0	-34.7	24.9	0.00e+00	0	28	0	1503657984	40	6195
2026-01-26 14:00:46.40	67.29	11.18	-33.9	-34.6	25.0	0.00e+00	0	28	0	1508900864	40	6143
2026-01-26 14:00:47.41	67.48	11.19	-33.9	-34.5	25.1	0.00e+00	0	28	0	1515192320	40	6061
2026-01-26 14:00:48.41	67.67	11.19	-33.7	-34.4	25.1	0.00e+00	0	28	0	1520435200	40	5980
2026-01-26 14:00:49.42	67.85	11.20	-33.8	-34.5	24.9	0.00e+00	0	28	0	1525678080	40	6071
2026-01-26 14:00:50.43	68.04	11.21	-33.7	-34.4	25.1	0.00e+00	0	28	0	1531969536	40	5966
2026-01-26 14:00:51.44	68.23	11.21	-33.7	-34.3	25.2	0.00e+00	0	28	0	1537212416	40	5961
2026-01-26 14:00:52.45	68.42	11.22	-33.6	-34.3	25.2	0.00e+00	0	28	0	1543503872	40	5939
2026-01-26 14:00:53.46	68.61	11.23	-33.7	-34.4	25.0	0.00e+00	0	28	0	1548746752	40	6020
2026-01-26 14:00:54.47	68.80	11.23	-33.7	-34.5	25.0	0.00e+00	0	28	0	1553989632	40	6039
2026-01-26 14:00:55.48	68.98	11.24	-33.7	-34.4	25.1	0.00e+00	0	28	0	1560281088	40	5988
2026-01-26 14:00:56.49	69.17	11.24	-34.0	-34.7	24.7	0.00e+00	0	28	0	1565523968	40	6180
2026-01-26 14:00:57.50	69.36	11.25	-34.0	-34.7	24.8	0.00e+00	0	28	0	1571815424	40	6190
2026-01-26 14:00:58.51	69.55	11.25	-33.9	-34.6	24.7	0.00e+00	0	28	0	1577058304	40	6137
2026-01-26 14:00:59.52	69.74	11.26	-33.8	-34.5	24.9	0.00e+00	0	28	0	1582301184	40	6041
2026-01-26 14:01:00.53	69.93	11.26	-33.8	-34.4	25.1	0.00e+00	0	28	0	1588592640	40	6015
2026-01-26 14:01:01.54	70.12	11.26	-33.9	-34.6	25.1	0.00e+00	0	28	0	1593835520	40	6107
2026-01-26 14:01:02.55	70.31	11.27	-33.7	-34.4	25.2	0.00e+00	0	28	0	1600126976	40	5996
2026-01-26 14:01:03.56	70.49	11.27	-33.8	-34.5	25.2	0.00e+00	0	28	0	1605369856	40	6076
2026-01-26 14:01:04.57	70.68	11.27	-33.6	-34.3	25.3	0.00e+00	0	28	0	1611661312	40	5920
2026-01-26 14:01:05.58	70.87	11.28	-33.6	-34.2	25.4	0.00e+00	0	28	0	1616904192	40	5878
2026-01-26 14:01:06.58	71.06	11.28	-33.6	-34.4	25.2	0.00e+00	0	28	0	1622147072	40	5974
2026-01-26 14:01:07.60	71.25	11.28	-33.8	-34.5	25.1	0.00e+00	0	28	0	1628438528	40	6072
2026-01-26 14:01:08.60	71.44	11.28	-33.9	-34.6	25.0	0.00e+00	0	28	0	1633681408	40	6117
2026-01-26 14:01:09.61	71.63	11.28	-33.9	-34.6	25.0	0.00e+00	0	28	0	1639972864	40	6170
2026-01-26 14:01:10.62	71.82	11.28	-33.9	-34.6	25.1	0.00e+00	0	28	0	1645215744	40	6120
2026-01-26 14:01:11.63	72.01	11.29	-33.8	-34.5	25.2	0.00e+00	0	28	0	1650458624	40	6039
2026-01-26 14:01:12.64	72.19	11.29	-33.8	-34.5	25.1	0.00e+00	0	28	0	1656750080	40	6089
2026-01-26 14:01:13.65	72.38	11.29	-33.7	-34.4	25.2	0.00e+00	0	28	0	1661992960	40	5966
2026-01-26 14:01:14.66	72.57	11.29	-33.8	-34.5	25.0	0.00e+00	0	28	0	1668284416	40	6082
2026-01-26 14:01:15.66	72.76	11.29	-33.8	-34.4	25.2	0.00e+00	0	28	0	1673527296	40	6006
2026-01-26 14:01:16.68	72.95	11.29	-33.7	-34.4	25.2	0.00e+00	0	28	0	1678770176	40	5967
2026-01-26 14:01:17.68	73.14	11.29	-33.5	-34.2	25.4	0.00e+00	0	28	0	1685061632	40	5838
2026-01-26 14:01:18.70	73.33	11.28	-33.5	-34.2	25.3	0.00e+00	0	28	0	1690304512	40	5875
2026-01-26 14:01:19.71	73.52	11.28	-33.6	-34.3	25.2	0.00e+00	0	28	0	1696595968	40	5938
2026-01-26 14:01:20.72	73.71	11.28	-33.9	-34.6	25.0	0.00e+00	0	28	0	1701838848	40	6166
2026-01-26 14:01:21.73	73.90	11.28	-33.9	-34.5	24.9	0.00e+00	0	28	0	1708130304	40	6094
2026-01-26 14:01:22.74	74.09	11.28	-33.8	-34.5	24.9	0.00e+00	0	28	0	1713373184	40	6058
2026-01-26 14:01:23.74	74.27	11.27	-33.8	-34.5	24.8	0.00e+00	0	28	0	1719664640	40	6089
2026-01-26 14:01:24.75	74.46	11.27	-33.8	-34.5	25.0	0.00e+00	0	28	0	1724907520	40	6068
2026-01-26 14:01:25.76	74.65	11.27	-33.9	-34.5	24.9	0.00e+00	0	28	0	1730150400	40	6091
2026-01-26 14:01:26.77	74.84	11.27	-33.9	-34.6	24.9	0.00e+00	0	28	0	1736441856	40	6146
2026-01-26 14:01:27.78	75.03	11.26	-34.0	-34.7	24.8	0.00e+00	0	28	0	1741684736	40	6221
2026-01-26 14:01:28.79	75.22	11.26	-34.0	-34.7	24.9	0.00e+00	0	28	0	1747976192	40	6231
2026-01-26 14:01:29.80	75.41	11.25	-33.7	-34.3	25.1	0.00e+00	0	28	0	1753219072	40	5956
2026-01-26 14:01:30.81	75.60	11.25	-33.8	-34.5	24.9	0.00e+00	0	28	0	1758461952	40	6089
2026-01-26 14:01:31.82	75.78	11.25	-34.0	-34.7	24.7	0.00e+00	0	28	0	1764753408	40	6185
2026-01-26 14:01:32.83	75.97	11.24	-33.9	-34.6	24.4	0.00e+00	0	28	0	1769996288	40	6159
2026-01-26 14:01:33.84	76.16	11.24	-34.1	-34.8	24.5	0.00e+00	0	28	0	1776287744	40	6287
2026-01-26 14:01:34.85	76.35	11.23	-33.9	-34.6	24.7	0.00e+00	0	28	0	1781530624	40	6145
2026-01-26 14:01:35.86	76.54	11.22	-33.9	-34.7	24.9	0.00e+00	0	28	0	1786773504	40	6199
2026-01-26 14:01:36.87	76.73	11.22	-34.0	-34.7	24.8	0.00e+00	0	28	0	1793064960	40	6243
2026-01-26 14:01:37.88	76.92	11.21	-34.0	-34.8	24.9	0.00e+00	0	28	0	1798307840	40	6254
2026-01-26 14:01:38.89	77.10	11.21	-34.2	-34.9	24.8	0.00e+00	0	28	0	1804599296	40	6332
2026-01-26 14:01:39.90	77.29	11.20	-34.1	-34.7	24.8	0.00e+00	0	28	0	1809842176	40	6244
2026-01-26 14:01:40.91	77.48	11.19	-34.3	-35.0	24.7	0.00e+00	0	28	0	1816133632	40	6456
2026-01-26 14:01:41.93	77.67	11.18	-34.4	-35.1	24.4	0.00e+00	0	28	0	1821376512	40	6535
2026-01-26 14:01:42.94	77.86	11.18	-34.3	-35.0	24.7	0.00e+00	0	28	0	1826619392	40	6400
2026-01-26 14:01:43.94	78.04	11.17	-34.3	-35.1	24.7	0.00e+00	0	28	0	1832910848	40	6475
2026-01-26 14:01:44.95	78.23	11.16	-34.4	-35.1	24.7	0.00e+00	0	28	0	1838153728	40	6532
2026-01-26 14:01:45.96	78.42	11.15	-34.2	-34.9	24.7	0.00e+00	0	28	0	1844445184	40	6369
2026-01-26 14:01:46.97	78.61	11.14	-34.2	-34.9	24.8	0.00e+00	0	28	0	1849688064	40	6374
2026-01-26 14:01:47.98	78.80	11.13	-33.8	-34.4	25.1	0.00e+00	0	28	0	1854930944	40	6022
2026-01-26 14:01:48.99	78.98	11.13	-33.7	-34.3	25.2	0.00e+00	0	28	0	1861222400	40	5962
2026-01-26 14:01:50.00	79.17	11.12	-33.6	-34.2	25.2	0.00e+00	0	28	0	1866465280	40	5879
2026-01-26 14:01:51.01	79.36	11.11	-33.8	-34.5	25.1	0.00e+00	0	28	0	1872756736	40	6050
2026-01-26 14:01:52.02	79.54	11.10	-33.7	-34.4	25.1	0.00e+00	0	28	0	1877999616	40	5993
2026-01-26 14:01:53.03	79.73	11.09	-33.7	-34.4	25.1	0.00e+00	0	28	0	1883242496	40	5971
2026-01-26 14:01:54.04	79.92	11.08	-34.0	-34.7	24.8	0.00e+00	0	28	0	1889533952	40	6182
2026-01-26 14:01:55.05	80.10	11.06	-33.8	-34.5	25.0	0.00e+00	0	28	0	1894776832	40	6048
2026-01-26 14:01:56.06	80.29	11.05	-33.9	-34.7	24.9	0.00e+00	0	28	0	1901068288	40	6185
2026-01-26 14:01:57.07	80.48	11.04	-34.0	-34.7	25.0	0.00e+00	0	28	0	1906311168	40	6187
2026-01-26 14:01:58.08	80.66	11.03	-33.7	-34.4	25.1	0.00e+00	0	28	0	1912602624	40	6004
2026-01-26 14:01:59.08	80.85	11.02	-33.8	-34.4	25.1	0.00e+00	0	28	0	1917845504	40	6020
2026-01-26 14:02:00.09	81.03	11.01	-33.8	-34.5	25.0	0.00e+00	0	28	0	1924136960	40	6078
2026-01-26 14:02:01.10	81.22	10.99	-33.7	-34.3	25.3	0.00e+00	0	28	0	1929379840	40	5928
2026-01-26 14:02:02.11	81.41	10.98	-33.8	-34.5	25.0	0.00e+00	0	28	0	1934622720	40	6058
2026-01-26 14:02:03.12	81.59	10.97	-33.7	-34.3	25.2	0.00e+00	0	28	0	1940914176	40	5910
2026-01-26 14:02:04.13	81.78	10.96	-33.7	-34.4	25.1	0.00e+00	0	28	0	1946157056	40	5974
2026-01-26 14:02:05.14	81.96	10.94	-33.9	-34.6	25.1	0.00e+00	0	28	0	1952448512	40	6111
2026-01-26 14:02:06.15	82.15	10.93	-33.7	-34.4	25.2	0.00e+00	0	28	0	1957691392	40	5967
2026-01-26 14:02:07.16	82.33	10.91	-33.8	-34.4	25.2	0.00e+00	0	28	0	1962934272	40	6004
2026-01-26 14:02:08.17	82.52	10.90	-33.9	-34.6	25.1	0.00e+00	0	28	0	1969225728	40	6111
2026-01-26 14:02:09.18	82.70	10.89	-33.9	-34.6	25.1	0.00e+00	0	28	0	1974468608	40	6123
2026-01-26 14:02:10.19	82.88	10.87	-33.8	-34.5	25.0	0.00e+00	0	28	0	1979711488	40	6098
2026-01-26 14:02:11.19	83.07	10.86	-33.7	-34.3	25.2	0.00e+00	0	28	0	1986002944	40	5939
2026-01-26 14:02:12.20	83.25	10.84	-33.9	-34.6	25.0	0.00e+00	0	28	0	1991245824	40	6154
2026-01-26 14:02:13.22	83.44	10.83	-34.2	-34.9	24.7	0.00e+00	0	28	0	1997537280	40	6321
2026-01-26 14:02:14.22	83.62	10.81	-34.2	-34.9	24.8	0.00e+00	0	28	0	2002780160	40	6331
2026-01-26 14:02:15.23	83.80	10.79	-34.3	-35.0	24.6	0.00e+00	0	28	0	2009071616	40	6457
2026-01-26 14:02:16.25	83.99	10.78	-34.1	-34.8	24.8	0.00e+00	0	28	0	2014314496	40	6254
2026-01-26 14:02:17.26	84.17	10.76	-34.3	-34.9	24.6	0.00e+00	0	28	0	2020605952	44	5071
2026-01-26 14:02:18.27	84.35	10.74	-34.2	-34.9	24.8	0.00e+00	0	28	0	2025848832	42	5682
2026-01-26 14:02:19.28	84.54	10.73	-34.1	-34.8	24.9	0.00e+00	0	28	0	2031091712	42	5600
2026-01-26 14:02:20.29	84.72	10.71	-34.2	-34.9	24.8	0.00e+00	0	28	0	2037383168	42	5651
2026-01-26 14:02:21.30	84.90	10.69	-34.2	-34.8	24.8	0.00e+00	0	28	0	2042626048	42	5604
2026-01-26 14:02:22.31	85.08	10.67	-34.0	-34.7	24.9	0.00e+00	0	28	0	2048917504	42	5565
2026-01-26 14:02:23.32	85.26	10.66	-34.1	-34.8	24.9	0.00e+00	0	28	0	2054160384	42	5603
2026-01-26 14:02:24.33	85.45	10.64	-34.0	-34.7	25.0	0.00e+00	0	28	0	2059403264	42	5553
2026-01-26 14:02:25.34	85.63	10.62	-34.0	-34.8	25.0	0.00e+00	0	28	0	2065694720	42	5585
2026-01-26 14:02:26.35	85.81	10.60	-34.0	-34.6	25.0	0.00e+00	0	28	0	2070937600	42	5492
2026-01-26 14:02:27.36	85.99	10.58	-34.0	-34.7	24.9	0.00e+00	0	28	0	2077229056	42	5520
2026-01-26 14:02:28.37	86.17	10.56	-34.1	-34.8	24.9	0.00e+00	0	28	0	2082471936	42	5597
2026-01-26 14:02:29.38	86.35	10.54	-34.2	-34.8	24.8	0.00e+00	0	28	0	2087714816	42	5622
2026-01-26 14:02:30.39	86.53	10.52	-34.2	-34.8	24.8	0.00e+00	0	29	0	2094006272	42	5630
2026-01-26 14:02:31.40	86.71	10.50	-34.1	-34.9	24.8	0.00e+00	0	28	0	2099249152	42	5635
2026-01-26 14:02:32.40	86.89	10.49	-34.0	-34.7	24.9	0.00e+00	0	28	0	2105540608	42	5546
2026-01-26 14:02:33.41	87.07	10.46	-34.1	-34.8	24.8	0.00e+00	0	28	0	2110783488	42	5592
2026-01-26 14:02:34.43	87.25	10.44	-34.0	-34.6	24.9	0.00e+00	0	28	0	2117074944	42	5500
2026-01-26 14:02:35.43	87.43	10.42	-34.0	-34.7	24.9	0.00e+00	0	28	0	2122317824	42	5506
2026-01-26 14:02:36.44	87.60	10.40	-34.1	-34.9	24.8	0.00e+00	0	28	0	2127560704	42	5635
2026-01-26 14:02:37.44	87.78	10.38	-34.3	-35.0	24.6	0.00e+00	0	28	0	2133852160	42	5744
2026-01-26 14:02:38.45	87.96	10.36	-34.2	-34.9	24.6	0.00e+00	0	29	0	2139095040	42	5680
2026-01-26 14:02:39.46	88.14	10.34	-34.3	-35.0	24.6	0.00e+00	0	28	0	2145386496	42	5730
2026-01-26 14:02:40.47	88.32	10.32	-34.2	-34.9	24.7	0.00e+00	0	29	0	2150629376	42	5682
2026-01-26 14:02:41.48	88.49	10.29	-34.4	-35.2	24.4	0.00e+00	0	28	0	2155872256	42	5870
2026-01-26 14:02:42.49	88.67	10.27	-34.5	-35.1	24.4	0.00e+00	0	28	0	2162163712	42	5804
2026-01-26 14:02:43.50	88.85	10.25	-34.5	-35.2	24.3	0.00e+00	0	28	0	2167406592	42	5866
2026-01-26 14:02:44.51	89.02	10.23	-34.7	-35.4	24.3	0.00e+00	0	29	0	2173698048	42	5965
2026-01-26 14:02:45.52	89.20	10.20	-34.5	-35.2	24.3	0.00e+00	0	28	0	2178940928	42	5833
2026-01-26 14:02:46.53	89.38	10.18	-34.7	-35.4	24.2	0.00e+00	0	29	0	2184183808	42	6029
2026-01-26 14:02:47.53	89.55	10.16	-34.5	-35.1	24.4	0.00e+00	0	29	0	2190475264	42	5828
2026-01-26 14:02:48.54	89.73	10.13	-34.5	-35.3	24.3	0.00e+00	0	29	0	2195718144	42	5939
2026-01-26 14:02:49.55	89.90	10.11	-34.5	-35.2	24.3	0.00e+00	0	28	0	2202009600	42	5864
2026-01-26 14:02:50.56	90.08	10.09	-34.4	-35.2	24.5	0.00e+00	0	29	0	2207252480	42	5842
2026-01-26 14:02:51.57	90.25	10.06	-34.5	-35.3	24.4	0.00e+00	0	29	0	2213543936	42	5937
2026-01-26 14:02:52.58	90.43	10.04	-34.5	-35.3	24.4	0.00e+00	0	29	0	2218786816	42	5920
2026-01-26 14:02:53.59	90.60	10.01	-34.5	-35.3	24.5	0.00e+00	0	28	0	2225078272	42	5900
2026-01-26 14:02:54.60	90.78	9.99	-34.4	-35.1	24.6	0.00e+00	0	28	0	2230321152	42	5800
2026-01-26 14:02:55.61	90.95	9.96	-34.6	-35.3	24.5	0.00e+00	0	29	0	2235564032	42	5950
2026-01-26 14:02:56.62	91.12	9.94	-34.4	-35.1	24.6	0.00e+00	0	29	0	2241855488	42	5822
2026-01-26 14:02:57.63	91.30	9.91	-34.4	-35.2	24.6	0.00e+00	0	29	0	2247098368	42	5831
2026-01-26 14:02:58.64	91.47	9.89	-34.5	-35.2	24.5	0.00e+00	0	28	0	2252341248	42	5859
2026-01-26 14:02:59.64	91.64	9.86	-34.5	-35.2	24.5	0.00e+00	0	28	0	2258632704	42	5880
2026-01-26 14:03:00.65	91.81	9.83	-34.4	-35.0	24.5	0.00e+00	0	29	0	2263875584	42	5756
2026-01-26 14:03:01.66	91.98	9.81	-34.2	-34.9	24.7	0.00e+00	0	28	0	2270167040	42	5692
2026-01-26 14:03:02.67	92.16	9.78	-34.3	-35.0	24.7	0.00e+00	0	28	0	2275409920	42	5716
2026-01-26 14:03:03.68	92.33	9.75	-34.2	-34.9	24.6	0.00e+00	0	28	0	2280652800	42	5676
2026-01-26 14:03:04.69	92.50	9.73	-34.2	-34.9	24.7	0.00e+00	0	28	0	2286944256	42	5657
2026-01-26 14:03:05.70	92.67	9.70	-34.1	-34.9	24.8	0.00e+00	0	28	0	2292187136	42	5633
2026-01-26 14:03:06.71	92.84	9.67	-34.3	-35.0	24.6	0.00e+00	0	29	0	2298478592	42	5701
2026-01-26 14:03:07.72	93.01	9.65	-34.3	-35.0	24.6	0.00e+00	0	29	0	2303721472	42	5730
2026-01-26 14:03:08.73	93.18	9.62	-34.4	-35.1	24.5	0.00e+00	0	28	0	2310012928	42	5804
2026-01-26 14:03:09.73	93.35	9.59	-34.3	-35.0	24.6	0.00e+00	0	28	0	2315255808	42	5757
2026-01-26 14:03:10.74	93.52	9.56	-34.4	-35.1	24.5	0.00e+00	0	29	0	2321547264	42	5811
2026-01-26 14:03:11.75	93.69	9.53	-34.3	-35.0	24.6	0.00e+00	0	29	0	2326790144	42	5756
2026-01-26 14:03:12.76	93.85	9.51	-34.4	-35.0	24.5	0.00e+00	0	28	0	2332033024	42	5760
2026-01-26 14:03:13.77	94.02	9.48	-34.4	-35.1	24.5	0.00e+00	0	29	0	2338324480	42	5813
2026-01-26 14:03:14.78	94.19	9.45	-34.3	-35.0	24.5	0.00e+00	0	29	0	2343567360	42	5757
2026-01-26 14:03:15.79	94.36	9.42	-34.5	-35.2	24.4	0.00e+00	0	29	0	2348810240	42	5874
2026-01-26 14:03:16.80	94.53	9.39	-34.8	-35.6	24.0	0.00e+00	0	29	0	2355101696	42	6115
2026-01-26 14:03:17.80	94.69	9.36	-34.9	-35.6	23.9	0.00e+00	0	29	0	2360344576	42	6120
2026-01-26 14:03:18.81	94.86	9.33	-35.0	-35.7	24.0	0.00e+00	0	29	0	2366636032	42	6218
2026-01-26 14:03:19.82	95.02	9.30	-34.9	-35.6	24.1	0.00e+00	0	29	0	2371878912	42	6127
2026-01-26 14:03:20.83	95.19	9.27	-34.8	-35.5	24.1	0.00e+00	0	28	0	2377121792	42	6072
2026-01-26 14:03:21.84	95.36	9.24	-34.5	-35.3	24.3	0.00e+00	0	29	0	2383413248	42	5916
2026-01-26 14:03:22.85	95.52	9.21	-34.6	-35.3	24.2	0.00e+00	0	29	0	2388656128	42	5959
2026-01-26 14:03:23.86	95.69	9.18	-34.7	-35.4	24.2	0.00e+00	0	29	0	2394947584	42	5992
2026-01-26 14:03:24.87	95.85	9.15	-34.7	-35.5	24.1	0.00e+00	0	29	0	2400190464	42	6057
2026-01-26 14:03:25.88	96.02	9.12	-34.4	-35.0	24.5	0.00e+00	0	29	0	2406481920	42	5751
2026-01-26 14:03:26.89	96.18	9.09	-34.4	-35.0	24.5	0.00e+00	0	29	0	2411724800	42	5731
2026-01-26 14:03:27.90	96.34	9.06	-34.4	-35.2	24.4	0.00e+00	0	29	0	2418016256	42	5840
2026-01-26 14:03:28.91	96.51	9.03	-34.7	-35.4	24.2	0.00e+00	0	29	0	2423259136	42	5998
2026-01-26 14:03:29.92	96.67	9.00	-34.7	-35.4	24.3	0.00e+00	0	29	0	2428502016	42	6019
2026-01-26 14:03:30.93	96.83	8.97	-34.8	-35.5	24.2	0.00e+00	0	29	0	2434793472	42	6071
2026-01-26 14:03:31.93	96.99	8.93	-34.8	-35.5	24.1	0.00e+00	0	29	0	2440036352	42	6081
2026-01-26 14:03:32.94	97.16	8.90	-34.8	-35.5	24.1	0.00e+00	0	29	0	2446327808	42	6100
2026-01-26 14:03:33.95	97.32	8.87	-34.9	-35.7	24.1	0.00e+00	0	29	0	2451570688	42	6196
2026-01-26 14:03:34.96	97.48	8.84	-34.9	-35.6	23.9	0.00e+00	0	29	0	2456813568	42	6170
2026-01-26 14:03:35.97	97.64	8.81	-34.8	-35.5	24.1	0.00e+00	0	29	0	2463105024	42	6048
2026-01-26 14:03:36.98	97.80	8.77	-34.7	-35.4	24.2	0.00e+00	0	29	0	2468347904	42	6002
2026-01-26 14:03:37.99	97.96	8.74	-34.8	-35.6	24.0	0.00e+00	0	29	0	2473590784	42	6108
2026-01-26 14:03:39.00	98.12	8.71	-34.8	-35.5	24.1	0.00e+00	0	29	0	2479882240	42	6077
2026-01-26 14:03:40.01	98.28	8.68	-34.9	-35.6	23.9	0.00e+00	0	29	0	2485125120	42	6151
2026-01-26 14:03:41.02	98.44	8.64	-34.9	-35.7	23.9	0.00e+00	0	29	0	2491416576	42	6209
2026-01-26 14:03:42.03	98.60	8.61	-34.8	-35.5	24.1	0.00e+00	0	29	0	2496659456	42	6103
2026-01-26 14:03:43.04	98.76	8.58	-35.0	-35.8	23.8	0.00e+00	0	29	0	2502950912	42	6287
2026-01-26 14:03:44.05	98.92	8.54	-35.0	-35.7	23.9	0.00e+00	0	29	0	2508193792	42	6183
2026-01-26 14:03:45.05	99.07	8.51	-35.3	-36.1	23.7	0.00e+00	0	29	0	2514485248	42	6472
2026-01-26 14:03:46.06	99.23	8.48	-35.3	-36.0	23.7	0.00e+00	0	29	0	2519728128	42	6431
2026-01-26 14:03:47.07	99.39	8.44	-34.9	-35.6	24.1	0.00e+00	0	29	0	2524971008	42	6136
2026-01-26 14:03:48.08	99.54	8.41	-34.9	-35.5	24.0	0.00e+00	0	29	0	2531262464	42	6067
2026-01-26 14:03:49.09	99.70	8.37	-34.8	-35.5	24.1	0.00e+00	0	29	0	2536505344	42	6075
2026-01-26 14:03:50.10	99.86	8.34	-34.8	-35.5	24.1	0.00e+00	0	29	0	2542796800	42	6075
2026-01-26 14:03:51.11	100.01	8.31	-34.9	-35.6	23.9	0.00e+00	0	29	0	2548039680	42	6163
2026-01-26 14:03:52.12	100.17	8.27	-34.9	-35.7	23.9	0.00e+00	0	29	0	2553282560	42	6220
2026-01-26 14:03:53.13	100.32	8.24	-34.8	-35.5	24.0	0.00e+00	0	29	0	2559574016	42	6095
2026-01-26 14:03:54.14	100.48	8.20	-34.9	-35.7	24.0	0.00e+00	0	29	0	2564816896	42	6186
2026-01-26 14:03:55.15	100.63	8.17	-34.9	-35.6	24.0	0.00e+00	0	29	0	2571108352	42	6127
2026-01-26 14:03:56.16	100.79	8.13	-34.8	-35.6	24.1	0.00e+00	0	29	0	2576351232	42	6120
2026-01-26 14:03:57.17	100.94	8.10	-34.8	-35.6	24.1	0.00e+00	0	29	0	2581594112	42	6117
2026-01-26 14:03:58.18	101.09	8.06	-34.9	-35.6	24.0	0.00e+00	0	29	0	2587885568	42	6129
2026-01-26 14:03:59.19	101.25	8.03	-35.0	-35.7	24.0	0.00e+00	0	29	0	2593128448	42	6226
2026-01-26 14:04:00.20	101.40	7.99	-35.0	-35.7	23.9	0.00e+00	0	29	0	2599419904	42	6213
2026-01-26 14:04:01.21	101.55	7.95	-35.0	-35.6	23.8	0.00e+00	0	29	0	2604662784	42	6150
2026-01-26 14:04:02.22	101.70	7.92	-35.1	-35.8	23.7	0.00e+00	0	29	0	2610954240	42	6293
2026-01-26 14:04:03.23	101.85	7.88	-35.4	-36.2	23.5	0.00e+00	0	29	0	2616197120	42	6557
2026-01-26 14:04:04.23	102.00	7.85	-35.1	-35.8	23.7	0.00e+00	0	29	0	2621440000	42	6282
2026-01-26 14:04:05.24	102.15	7.81	-35.3	-36.0	23.5	0.00e+00	0	29	0	2627731456	42	6432
2026-01-26 14:04:06.25	102.30	7.77	-35.1	-35.9	23.6	0.00e+00	0	29	0	2632974336	42	6388
2026-01-26 14:04:07.26	102.45	7.74	-35.1	-35.9	23.6	0.00e+00	0	29	0	2639265792	42	6336
2026-01-26 14:04:08.27	102.60	7.70	-35.2	-36.0	23.5	0.00e+00	0	29	0	2644508672	42	6464
2026-01-26 14:04:09.28	102.75	7.66	-35.2	-36.0	23.5	0.00e+00	0	29	0	2649751552	42	6408
2026-01-26 14:04:10.28	102.90	7.63	-35.3	-36.1	23.2	0.00e+00	0	29	0	2656043008	42	6499
2026-01-26 14:04:11.29	103.05	7.59	-35.1	-35.8	23.5	0.00e+00	0	29	0	2661285888	42	6304
2026-01-26 14:04:12.30	103.20	7.55	-35.2	-36.0	23.5	0.00e+00	0	29	0	2667577344	42	6409
2026-01-26 14:04:13.31	103.35	7.52	-35.2	-35.9	23.6	0.00e+00	0	29	0	2672820224	42	6378
2026-01-26 14:04:14.32	103.49	7.48	-35.5	-36.3	23.3	0.00e+00	0	29	0	2678063104	42	6633
2026-01-26 14:04:15.33	103.64	7.44	-35.5	-36.3	23.4	0.00e+00	0	29	0	2684354560	42	6629
2026-01-26 14:04:16.34	103.79	7.41	-35.3	-36.1	23.5	0.00e+00	0	29	0	2689597440	42	6468
2026-01-26 14:04:17.35	103.93	7.37	-35.4	-36.1	23.4	0.00e+00	0	29	0	2695888896	42	6531
2026-01-26 14:04:18.36	104.08	7.33	-35.3	-36.0	23.5	0.00e+00	0	29	0	2701131776	42	6437
2026-01-26 14:04:19.36	104.22	7.29	-35.4	-36.2	23.3	0.00e+00	0	29	0	2707423232	42	6576
2026-01-26 14:04:20.37	104.37	7.26	-35.4	-36.2	23.3	0.00e+00	0	29	0	2712666112	42	6560
2026-01-26 14:04:21.38	104.51	7.22	-35.3	-36.2	23.4	0.00e+00	0	29	0	2717908992	42	6541
2026-01-26 14:04:22.39	104.66	7.18	-35.4	-36.3	23.3	0.00e+00	0	29	0	2724200448	42	6637
2026-01-26 14:04:23.40	104.80	7.14	-35.4	-36.1	23.4	0.00e+00	0	29	0	2729443328	42	6515
2026-01-26 14:04:24.41	104.95	7.10	-35.5	-36.2	23.4	0.00e+00	0	29	0	2735734784	42	6551
2026-01-26 14:04:25.42	105.09	7.07	-35.4	-36.2	23.4	0.00e+00	0	29	0	2740977664	42	6603
2026-01-26 14:04:26.44	105.24	7.03	-35.6	-36.4	23.2	0.00e+00	0	29	0	2746220544	42	6714
2026-01-26 14:04:27.44	105.38	6.99	-35.3	-36.0	23.4	0.00e+00	0	29	0	2752512000	42	6415
2026-01-26 14:04:28.45	105.52	6.95	-35.3	-36.1	23.5	0.00e+00	0	29	0	2757754880	42	6473
2026-01-26 14:04:29.46	105.66	6.91	-35.5	-36.3	23.3	0.00e+00	0	29	0	2764046336	42	6668
2026-01-26 14:04:30.48	105.80	6.87	-35.2	-36.0	23.5	0.00e+00	0	29	0	2769289216	42	6421
2026-01-26 14:04:31.49	105.95	6.83	-35.2	-36.0	23.6	0.00e+00	0	29	0	2774532096	42	6407
2026-01-26 14:04:32.50	106.09	6.79	-35.4	-36.3	23.4	0.00e+00	0	29	0	2780823552	42	6644
2026-01-26 14:04:33.51	106.23	6.76	-35.3	-36.1	23.5	0.00e+00	0	29	0	2786066432	42	6472
2026-01-26 14:04:34.52	106.37	6.72	-35.5	-36.2	23.4	0.00e+00	0	29	0	2792357888	42	6543
2026-01-26 14:04:35.53	106.51	6.68	-35.2	-36.0	23.6	0.00e+00	0	29	0	2797600768	42	6420
2026-01-26 14:04:36.53	106.65	6.64	-35.4	-36.2	23.3	0.00e+00	0	29	0	2803892224	42	6582
2026-01-26 14:04:37.55	106.79	6.60	-35.4	-36.3	23.3	0.00e+00	0	29	0	2809135104	42	6623
2026-01-26 14:04:38.56	106.93	6.56	-35.6	-36.4	23.1	0.00e+00	0	29	0	2815426560	42	6734
2026-01-26 14:04:39.56	107.06	6.52	-35.6	-36.5	23.0	0.00e+00	0	29	0	2820669440	42	6833
2026-01-26 14:04:40.57	107.20	6.48	-35.5	-36.4	23.1	0.00e+00	0	29	0	2825912320	44	5974
2026-01-26 14:04:41.58	107.34	6.44	-35.7	-36.6	22.8	0.00e+00	0	29	0	2832203776	44	6165
2026-01-26 14:04:42.59	107.48	6.40	-35.5	-36.4	22.9	0.00e+00	0	29	0	2837446656	44	6016
2026-01-26 14:04:43.60	107.61	6.36	-35.5	-36.3	23.1	0.00e+00	0	29	0	2843738112	44	5947
2026-01-26 14:04:44.61	107.75	6.32	-35.8	-36.7	22.9	0.00e+00	0	29	0	2848980992	44	6184
2026-01-26 14:04:45.62	107.89	6.28	-35.6	-36.5	23.0	0.00e+00	0	29	0	2854223872	44	6039
2026-01-26 14:04:46.63	108.02	6.24	-35.6	-36.4	23.1	0.00e+00	0	29	0	2860515328	44	6025
2026-01-26 14:04:47.64	108.16	6.20	-35.8	-36.6	22.9	0.00e+00	0	29	0	2865758208	44	6158
2026-01-26 14:04:48.65	108.29	6.16	-36.0	-36.8	22.9	0.00e+00	0	29	0	2872049664	44	6261
2026-01-26 14:04:49.66	108.43	6.12	-35.9	-36.6	22.6	0.00e+00	0	29	0	2877292544	44	6147
2026-01-26 14:04:50.67	108.56	6.08	-36.0	-36.8	22.5	0.00e+00	0	29	0	2882535424	44	6290
2026-01-26 14:04:51.68	108.70	6.04	-36.1	-36.9	22.7	0.00e+00	0	29	0	2888826880	44	6365
2026-01-26 14:04:52.68	108.83	6.00	-35.9	-36.8	22.7	0.00e+00	0	29	0	2894069760	44	6266
2026-01-26 14:04:53.69	108.96	5.96	-35.8	-36.5	22.8	0.00e+00	0	29	0	2900361216	44	6066
2026-01-26 14:04:54.70	109.10	5.92	-35.9	-36.6	22.7	0.00e+00	0	29	0	2905604096	44	6142
2026-01-26 14:04:55.71	109.23	5.88	-35.7	-36.4	22.9	0.00e+00	0	29	0	2911895552	44	5991
2026-01-26 14:04:56.72	109.36	5.84	-36.0	-36.8	22.5	0.00e+00	0	29	0	2917138432	44	6309
2026-01-26 14:04:57.73	109.49	5.80	-35.7	-36.5	22.9	0.00e+00	0	29	0	2922381312	44	6056
2026-01-26 14:04:58.74	109.63	5.76	-35.7	-36.6	22.8	0.00e+00	0	29	0	2928672768	44	6134
2026-01-26 14:04:59.75	109.76	5.72	-36.1	-36.9	22.5	0.00e+00	0	29	0	2933915648	44	6342
2026-01-26 14:05:00.75	109.89	5.67	-36.0	-36.8	22.5	0.00e+00	0	29	0	2940207104	44	6307
2026-01-26 14:05:01.76	110.02	5.63	-36.0	-36.8	22.5	0.00e+00	0	29	0	2945449984	44	6314
2026-01-26 14:05:02.77	110.15	5.59	-36.0	-36.7	22.4	0.00e+00	0	29	0	2950692864	44	6244
2026-01-26 14:05:03.78	110.28	5.55	-36.1	-36.9	22.4	0.00e+00	0	29	0	2956984320	44	6359
2026-01-26 14:05:04.79	110.41	5.51	-35.9	-36.7	22.6	0.00e+00	0	29	0	2962227200	44	6233
2026-01-26 14:05:05.80	110.54	5.47	-35.9	-36.7	22.6	0.00e+00	0	29	0	2968518656	44	6242
2026-01-26 14:05:06.81	110.66	5.43	-36.0	-36.8	22.5	0.00e+00	0	29	0	2973761536	44	6286
2026-01-26 14:05:07.82	110.79	5.39	-35.8	-36.6	22.6	0.00e+00	0	29	0	2979004416	44	6110
2026-01-26 14:05:08.83	110.92	5.35	-35.9	-36.7	22.5	0.00e+00	0	29	0	2985295872	44	6197
2026-01-26 14:05:09.84	111.05	5.30	-35.9	-36.7	22.6	0.00e+00	0	29	0	2990538752	44	6210
2026-01-26 14:05:10.85	111.18	5.26	-35.8	-36.7	22.5	0.00e+00	0	29	0	2996830208	44	6211
2026-01-26 14:05:11.86	111.30	5.22	-35.7	-36.6	22.7	0.00e+00	0	29	0	3002073088	44	6142
2026-01-26 14:05:12.87	111.43	5.18	-35.8	-36.6	22.6	0.00e+00	0	29	0	3008364544	44	6169
2026-01-26 14:05:13.88	111.56	5.14	-35.8	-36.5	22.6	0.00e+00	0	29	0	3013607424	44	6091
2026-01-26 14:05:14.89	111.68	5.10	-35.8	-36.6	22.7	0.00e+00	0	29	0	3019898880	44	6144
2026-01-26 14:05:15.90	111.81	5.05	-36.0	-36.7	22.5	0.00e+00	0	29	0	3025141760	44	6244
2026-01-26 14:05:16.91	111.93	5.01	-36.2	-37.0	22.2	0.00e+00	0	29	0	3030384640	44	6399
2026-01-26 14:05:17.92	112.06	4.97	-36.0	-36.8	22.4	0.00e+00	0	29	0	3036676096	44	6280
2026-01-26 14:05:18.92	112.18	4.93	-35.8	-36.6	22.6	0.00e+00	0	29	0	3041918976	44	6128
2026-01-26 14:05:19.93	112.31	4.89	-35.8	-36.6	22.6	0.00e+00	0	29	0	3047161856	44	6114
2026-01-26 14:05:20.94	112.43	4.84	-35.9	-36.8	22.5	0.00e+00	0	29	0	3053453312	44	6316
2026-01-26 14:05:21.95	112.56	4.80	-35.9	-36.7	22.4	0.00e+00	0	29	0	3058696192	44	6214
2026-01-26 14:05:22.96	112.68	4.76	-36.0	-36.9	22.3	0.00e+00	0	29	0	3064987648	44	6338
2026-01-26 14:05:23.97	112.80	4.72	-35.9	-36.8	22.5	0.00e+00	0	29	0	3070230528	44	6256
2026-01-26 14:05:24.98	112.92	4.68	-36.4	-37.1	22.0	0.00e+00	0	29	0	3075473408	44	6529
2026-01-26 14:05:25.99	113.05	4.63	-36.2	-37.0	22.2	0.00e+00	0	29	0	3081764864	44	6450
2026-01-26 14:05:27.00	113.17	4.59	-36.1	-36.9	22.1	0.00e+00	0	29	0	3087007744	44	6375
2026-01-26 14:05:28.01	113.29	4.55	-35.9	-36.7	22.2	0.00e+00	0	29	0	3093299200	44	6218
2026-01-26 14:05:29.02	113.41	4.51	-35.9	-36.8	22.2	0.00e+00	0	29	0	3098542080	44	6288
2026-01-26 14:05:30.02	113.53	4.47	-36.3	-37.2	21.7	0.00e+00	0	29	0	3104833536	44	6608
2026-01-26 14:05:31.03	113.65	4.42	-36.2	-37.1	22.0	0.00e+00	0	29	0	3110076416	44	6500
2026-01-26 14:05:32.04	113.77	4.38	-36.4	-37.2	21.8	0.00e+00	0	29	0	3116367872	44	6568
2026-01-26 14:05:33.06	113.89	4.34	-36.6	-37.4	21.6	0.00e+00	0	29	0	3121610752	44	6769
2026-01-26 14:05:34.07	114.01	4.30	-36.5	-37.5	21.6	0.00e+00	0	29	0	3126853632	44	6777
2026-01-26 14:05:35.08	114.13	4.25	-36.2	-37.1	21.9	0.00e+00	0	29	0	3133145088	44	6536
2026-01-26 14:05:36.09	114.25	4.21	-36.7	-37.6	21.4	0.00e+00	0	29	0	3138387968	44	6878
2026-01-26 14:05:37.10	114.37	4.17	-36.6	-37.5	21.5	0.00e+00	0	29	0	3144679424	46	6062
2026-01-26 14:05:38.11	114.49	4.13	-36.5	-37.4	21.8	0.00e+00	0	29	0	3149922304	46	5987
2026-01-26 14:05:39.12	114.61	4.08	-36.8	-37.6	21.4	0.00e+00	0	29	0	3155165184	46	6148
2026-01-26 14:05:40.13	114.72	4.04	-36.9	-37.7	21.2	0.00e+00	0	29	0	3161456640	46	6244
2026-01-26 14:05:41.14	114.84	4.00	-36.8	-37.7	21.4	0.00e+00	0	29	0	3166699520	46	6237
2026-01-26 14:05:42.14	114.96	3.95	-36.9	-37.9	21.3	0.00e+00	0	29	0	3172990976	46	6340
2026-01-26 14:05:43.15	115.07	3.91	-36.9	-37.9	21.3	0.00e+00	0	29	0	3178233856	46	6331
2026-01-26 14:05:44.16	115.19	3.87	-37.0	-37.9	21.2	0.00e+00	0	29	0	3183476736	46	6338
2026-01-26 14:05:45.18	115.31	3.83	-36.6	-37.3	21.6	0.00e+00	0	29	0	3189768192	46	5950
2026-01-26 14:05:46.18	115.42	3.78	-37.0	-38.0	21.0	0.00e+00	0	29	0	3195011072	46	6444
2026-01-26 14:05:47.19	115.54	3.74	-36.6	-37.5	21.4	0.00e+00	0	29	0	3201302528	46	6064
2026-01-26 14:05:48.20	115.65	3.70	-36.7	-37.6	21.4	0.00e+00	0	29	0	3206545408	46	6137
2026-01-26 14:05:49.21	115.77	3.66	-36.6	-37.6	21.4	0.00e+00	0	29	0	3212836864	46	6167
2026-01-26 14:05:50.22	115.88	3.61	-36.8	-37.9	21.2	0.00e+00	0	29	0	3218079744	46	6321
2026-01-26 14:05:51.23	116.00	3.57	-37.3	-38.3	20.7	0.00e+00	0	29	0	3223322624	46	6674
2026-01-26 14:05:52.24	116.11	3.53	-37.3	-38.1	20.8	0.00e+00	0	29	0	3229614080	46	6530
2026-01-26 14:05:53.25	116.22	3.48	-36.9	-37.8	21.1	0.00e+00	0	29	0	3234856960	46	6283
2026-01-26 14:05:54.26	116.34	3.44	-36.7	-37.6	21.4	0.00e+00	0	29	0	3241148416	46	6169
2026-01-26 14:05:55.27	116.45	3.40	-36.8	-37.6	21.2	0.00e+00	0	29	0	3246391296	46	6169
2026-01-26 14:05:56.28	116.56	3.35	-36.9	-37.8	21.1	0.00e+00	0	29	0	3251634176	46	6292
2026-01-26 14:05:57.29	116.67	3.31	-37.0	-38.0	21.0	0.00e+00	0	29	0	3257925632	46	6417
2026-01-26 14:05:58.30	116.79	3.27	-37.3	-38.3	20.5	0.00e+00	0	29	0	3263168512	46	6640
2026-01-26 14:05:59.31	116.90	3.22	-37.8	-38.8	20.2	0.00e+00	0	29	0	3269459968	46	7008
2026-01-26 14:06:00.32	117.01	3.18	-37.3	-38.4	20.5	0.00e+00	0	29	0	3274702848	48	5993
2026-01-26 14:06:01.32	117.12	3.14	-36.9	-37.9	20.8	0.00e+00	0	29	0	3279945728	48	5651
2026-01-26 14:06:02.34	117.23	3.09	-37.1	-38.0	20.6	0.00e+00	0	29	0	3286237184	48	5760
2026-01-26 14:06:03.34	117.34	3.05	-37.0	-37.9	20.7	0.00e+00	0	29	0	3291480064	48	5691
2026-01-26 14:06:04.35	117.45	3.01	-42.2	-44.5	12.3	0.00e+00	0	29	0	3297771520	48	12146
2026-01-26 14:06:05.36	117.56	2.97	-48.6	-60.7	3.6	8.45e-01	0	29	104	3297771520	60	39261
2026-01-26 14:06:06.37	117.67	2.92	-48.8	-60.9	3.6	8.45e-01	0	29	104	3297771520	60	40247
2026-01-26 14:06:07.38	117.78	2.88	-48.9	-61.2	3.6	8.46e-01	0	29	104	3297771520	60	41343
2026-01-26 14:06:08.39	117.89	2.84	-48.7	-61.3	3.6	8.47e-01	0	29	104	3297771520	60	41982
2026-01-26 14:06:09.40	117.99	2.79	-49.2	-61.4	3.6	8.45e-01	0	29	104	3297771520	60	42411
2026-01-26 14:06:10.41	118.10	2.75	-49.3	-61.4	3.6	8.45e-01	0	29	104	3297771520	60	42633
2026-01-26 14:06:11.43	118.21	2.71	-49.1	-61.5	3.6	8.44e-01	0	29	104	3297771520	60	43101
2026-01-26 14:06:12.44	118.32	2.66	-49.3	-61.5	3.6	8.45e-01	0	29	104	3297771520	60	42809
2026-01-26 14:06:13.44	118.43	2.62	-49.3	-61.5	3.6	8.45e-01	0	29	104	3297771520	60	42760
2026-01-26 14:06:14.45	118.53	2.58	-49.5	-61.6	3.6	8.46e-01	0	29	104	3297771520	60	43570
2026-01-26 14:06:15.46	118.64	2.53	-49.5	-61.6	3.6	8.45e-01	0	29	104	3297771520	60	43433
2026-01-26 14:06:16.47	118.75	2.49	-49.4	-61.6	3.6	8.47e-01	0	29	104	3297771520	60	43463
2026-01-26 14:06:17.48	118.85	2.45	-49.4	-61.6	3.6	8.45e-01	0	29	104	3297771520	60	43586
2026-01-26 14:06:18.50	118.96	2.40	-49.5	-61.6	3.6	8.45e-01	0	29	104	3297771520	60	43598
2026-01-26 14:06:19.50	119.06	2.36	-49.5	-61.6	3.6	8.46e-01	0	29	104	3297771520	60	43456
2026-01-26 14:06:20.51	119.17	2.32	-49.5	-61.6	3.6	8.46e-01	0	29	104	3297771520	60	43558
2026-01-26 14:06:21.52	119.27	2.27	-49.5	-61.6	3.5	8.46e-01	0	29	104	3297771520	60	43692
2026-01-26 14:06:22.53	119.38	2.23	-49.4	-61.6	3.6	8.45e-01	0	29	104	3297771520	60	43572
2026-01-26 14:06:23.54	119.48	2.18	-49.4	-61.6	3.6	8.46e-01	0	29	104	3297771520	60	43660
2026-01-26 14:06:24.55	119.59	2.14	-49.5	-61.7	3.6	8.45e-01	0	29	104	3297771520	60	43828
2026-01-26 14:06:25.56	119.69	2.10	-49.5	-61.6	3.6	8.46e-01	0	29	104	3297771520	60	43663
2026-01-26 14:06:26.57	119.79	2.05	-49.5	-61.7	3.6	8.45e-01	0	29	104	3297771520	60	43897
2026-01-26 14:06:27.59	119.90	2.01	-49.6	-61.7	3.6	8.45e-01	0	29	104	3297771520	60	43885
2026-01-26 14:06:28.60	120.00	1.97	-49.6	-61.7	3.6	8.45e-01	0	29	104	3297771520	60	44005
2026-01-26 14:06:29.61	120.10	1.92	-49.6	-61.7	3.6	8.45e-01	0	29	104	3297771520	60	44124
2026-01-26 14:06:30.62	120.20	1.88	-49.6	-61.7	3.6	8.46e-01	0	29	104	3297771520	60	44076
2026-01-26 14:06:31.63	120.31	1.84	-49.7	-61.8	3.6	8.45e-01	0	29	104	3297771520	60	44488
2026-01-26 14:06:32.64	120.41	1.79	-49.8	-61.9	3.6	8.46e-01	0	29	104	3297771520	60	45157
2026-01-26 14:06:33.65	120.51	1.75	-50.0	-62.2	3.6	8.46e-01	0	29	104	3297771520	60	46324
2026-01-26 14:06:34.66	120.61	1.71	-49.8	-61.9	3.6	8.44e-01	0	29	104	3297771520	60	45196
2026-01-26 14:06:35.67	120.71	1.66	-49.7	-61.9	3.6	8.46e-01	0	29	104	3297771520	60	44765
2026-01-26 14:06:36.67	120.81	1.62	-49.8	-62.0	3.6	8.46e-01	0	29	104	3297771520	60	45554
2026-01-26 14:06:37.69	120.91	1.58	-49.6	-61.8	3.6	8.45e-01	0	29	104	3297771520	60	44454
2026-01-26 14:06:38.69	121.01	1.53	-49.7	-61.9	3.6	8.46e-01	0	29	104	3297771520	60	44755
2026-01-26 14:06:39.70	121.11	1.49	-50.0	-62.1	3.6	8.45e-01	0	29	104	3297771520	60	46131
2026-01-26 14:06:40.71	121.21	1.44	-50.1	-62.3	3.6	8.46e-01	0	29	104	3297771520	60	46884
2026-01-26 14:06:41.72	121.31	1.40	-49.9	-62.0	3.6	8.46e-01	0	29	104	3297771520	60	45564
2026-01-26 14:06:42.73	121.41	1.36	-49.8	-62.0	3.6	8.44e-01	0	29	104	3297771520	60	45607
2026-01-26 14:06:43.74	121.51	1.31	-49.8	-61.9	3.6	8.46e-01	0	29	104	3297771520	60	45092
2026-01-26 14:06:44.75	121.61	1.27	-49.7	-61.8	3.6	8.45e-01	0	29	104	3297771520	60	44376
2026-01-26 14:06:45.76	121.70	1.23	-49.8	-62.0	3.6	8.45e-01	0	29	104	3297771520	60	45370
2026-01-26 14:06:46.77	121.80	1.18	-49.8	-61.9	3.6	8.45e-01	0	30	104	3297771520	60	45096
2026-01-26 14:06:47.78	121.90	1.14	-49.8	-61.9	3.6	8.45e-01	0	29	104	3297771520	60	45243
2026-01-26 14:06:48.79	122.00	1.10	-49.8	-61.9	3.6	8.45e-01	0	30	104	3297771520	60	44897
2026-01-26 14:06:49.80	122.09	1.05	-49.8	-61.9	3.6	8.46e-01	0	29	104	3297771520	60	45239
2026-01-26 14:06:50.81	122.19	1.01	-49.9	-62.0	3.6	8.45e-01	0	30	104	3297771520	60	45657
2026-01-26 14:06:51.82	122.29	0.97	-49.7	-61.8	3.6	8.45e-01	0	29	104	3297771520	60	44657
2026-01-26 14:06:52.83	122.38	0.92	-49.8	-62.0	3.6	8.46e-01	0	29	104	3297771520	60	45586
2026-01-26 14:06:53.84	122.48	0.88	-49.7	-61.9	3.6	8.44e-01	0	29	104	3297771520	60	44770
2026-01-26 14:06:54.85	122.57	0.83	-49.8	-61.9	3.6	8.45e-01	0	30	104	3297771520	60	45098
