passes_logs/2026/01/26/R4.6S_Anadyr/R4.6S_Anadyr__20260126_234321_KOSAR1-5_rec.log

#Pass ID: 20260126_234321_KOSAR1-5
#Satellite: KOSAR1-5
#Configuration: KOSAR1-5
#almurnet v.1.7.20251203
#Start time: 2026-01-26 23:43:23

#Version: 2.2.20231116
#Station: R4.6S_Anadyr
#Location: 177.4865 lon 64.73178 lat
#TLE: 1 67264U 25313S   26026.51088181  .00010179  00000+0  46997-3 0  9992
#TLE: 2 67264  97.4174 103.4904 0016447 142.6904 217.5477 15.20282047  4400

#Time	Az	El	Level	Level2	SNR	BER	BlckErr	Temp	State	Recorded	gain1	gain2
2026-01-26 23:43:23.31	17.54	0.15	-49.3	-64.2	3.5	1.51e+00	0	28	0	0	60	58386
2026-01-26 23:43:24.32	17.54	0.21	-47.9	-62.6	3.6	1.51e+00	0	29	104	0	60	54678
2026-01-26 23:43:25.32	17.54	0.28	-47.9	-62.6	3.6	1.51e+00	0	29	104	0	60	54712
2026-01-26 23:43:26.33	17.55	0.34	-47.9	-62.7	3.6	1.51e+00	0	29	104	0	60	55030
2026-01-26 23:43:27.34	17.55	0.41	-46.8	-61.5	3.5	1.51e+00	0	29	104	0	60	48119
2026-01-26 23:43:28.35	17.55	0.47	-46.4	-61.1	3.6	1.51e+00	0	29	104	0	60	46195
2026-01-26 23:43:29.36	17.55	0.54	-46.2	-60.8	3.6	1.51e+00	0	29	104	0	60	44685
2026-01-26 23:43:30.37	17.55	0.60	-45.9	-60.6	3.6	1.51e+00	0	29	104	0	60	43363
2026-01-26 23:43:31.38	17.55	0.67	-45.9	-60.6	3.6	1.51e+00	0	30	104	0	60	43240
2026-01-26 23:43:32.39	17.55	0.74	-45.9	-60.6	3.6	1.51e+00	0	29	104	0	60	43458
2026-01-26 23:43:33.40	17.55	0.80	-45.9	-60.5	3.6	1.51e+00	0	29	104	0	60	43200
2026-01-26 23:43:34.41	17.55	0.87	-45.9	-60.5	3.6	1.51e+00	0	30	104	0	60	43036
2026-01-26 23:43:35.42	17.55	0.94	-45.7	-60.5	3.6	1.51e+00	0	30	104	0	60	42918
2026-01-26 23:43:36.43	17.55	1.00	-45.8	-60.5	3.6	1.51e+00	0	30	104	0	60	42817
2026-01-26 23:43:37.44	17.55	1.07	-45.7	-60.5	3.6	1.51e+00	0	29	104	0	60	42808
2026-01-26 23:43:38.45	17.55	1.14	-45.7	-60.4	3.6	1.51e+00	0	30	104	0	60	42638
2026-01-26 23:43:39.46	17.55	1.21	-45.5	-60.4	3.6	1.51e+00	0	30	104	0	60	42501
2026-01-26 23:43:40.46	17.55	1.27	-45.5	-60.3	3.6	1.51e+00	0	30	104	0	60	42022
2026-01-26 23:43:41.47	17.55	1.34	-45.4	-60.1	3.6	1.51e+00	0	30	104	0	60	41102
2026-01-26 23:43:42.48	17.55	1.41	-45.2	-60.0	3.6	1.51e+00	0	30	104	0	60	40441
2026-01-26 23:43:43.48	17.55	1.48	-45.2	-59.9	3.6	1.51e+00	0	30	104	0	60	40217
2026-01-26 23:43:44.49	17.55	1.54	-45.1	-59.8	3.6	1.51e+00	0	30	104	0	60	39669
2026-01-26 23:43:45.50	17.55	1.61	-44.9	-59.7	3.6	1.51e+00	0	30	104	0	60	38964
2026-01-26 23:43:46.50	17.55	1.68	-44.7	-59.5	3.6	1.51e+00	0	30	104	0	60	38136
2026-01-26 23:43:47.51	17.55	1.75	-44.7	-59.5	3.6	1.51e+00	0	30	104	0	60	38185
2026-01-26 23:43:48.52	17.55	1.82	-44.7	-59.4	3.6	1.51e+00	0	30	104	0	60	37921
2026-01-26 23:43:49.53	17.55	1.89	-44.7	-59.4	3.6	1.51e+00	0	30	104	0	60	37885
2026-01-26 23:43:50.54	17.55	1.96	-44.7	-59.4	3.6	1.51e+00	0	30	104	0	60	37890
2026-01-26 23:43:51.55	17.55	2.03	-44.7	-59.4	3.6	1.51e+00	0	30	104	0	60	37946
2026-01-26 23:43:52.56	17.55	2.10	-44.7	-59.4	3.6	1.51e+00	0	30	104	0	60	37792
2026-01-26 23:43:53.57	17.55	2.17	-44.7	-59.4	3.6	1.51e+00	0	30	104	0	60	37809
2026-01-26 23:43:54.58	17.55	2.24	-44.7	-59.4	3.6	1.51e+00	0	30	104	0	60	37647
2026-01-26 23:43:55.59	17.55	2.31	-44.7	-59.4	3.6	1.51e+00	0	30	104	0	60	37790
2026-01-26 23:43:56.60	17.55	2.38	-44.7	-59.4	3.6	1.51e+00	0	30	104	0	60	37760
2026-01-26 23:43:57.61	17.55	2.46	-44.7	-59.4	3.6	1.51e+00	0	30	104	0	60	37761
2026-01-26 23:43:58.62	17.55	2.53	-44.7	-59.4	3.6	1.51e+00	0	30	104	0	60	37677
2026-01-26 23:43:59.63	17.54	2.60	-44.7	-59.3	3.6	1.51e+00	0	30	104	0	60	37586
2026-01-26 23:44:00.64	17.54	2.67	-44.7	-59.3	3.6	1.51e+00	0	30	104	0	60	37509
2026-01-26 23:44:01.65	17.54	2.74	-44.7	-59.4	3.6	1.51e+00	0	30	104	0	60	37792
2026-01-26 23:44:02.66	17.54	2.82	-44.7	-59.4	3.6	1.51e+00	0	30	104	0	60	37750
2026-01-26 23:44:03.66	17.54	2.89	-44.7	-59.4	3.6	1.51e+00	0	30	104	0	60	37647
2026-01-26 23:44:04.67	17.54	2.96	-44.7	-59.4	3.6	1.51e+00	0	30	104	0	60	37886
2026-01-26 23:44:05.68	17.54	3.04	-44.7	-59.4	3.6	1.51e+00	0	30	104	0	60	37751
2026-01-26 23:44:06.69	17.54	3.11	-44.7	-59.4	3.6	1.51e+00	0	30	104	0	60	37816
2026-01-26 23:44:07.70	17.54	3.18	-44.7	-59.4	3.6	1.51e+00	0	30	104	0	60	37657
2026-01-26 23:44:08.71	17.54	3.26	-44.7	-59.4	3.6	1.51e+00	0	30	104	0	60	37748
2026-01-26 23:44:09.72	17.54	3.33	-44.7	-59.4	3.6	1.51e+00	0	30	104	0	60	38012
2026-01-26 23:44:10.73	17.54	3.41	-44.7	-59.3	3.6	1.51e+00	0	30	104	0	60	37588
2026-01-26 23:44:11.74	17.54	3.48	-44.7	-59.4	3.6	1.51e+00	0	30	104	0	60	37756
2026-01-26 23:44:12.75	17.54	3.56	-44.7	-59.3	3.6	1.51e+00	0	30	104	0	60	37618
2026-01-26 23:44:13.76	17.53	3.63	-44.7	-59.4	3.6	1.51e+00	0	30	104	0	60	37710
2026-01-26 23:44:14.77	17.53	3.71	-44.7	-59.4	3.6	1.51e+00	0	30	104	0	60	37725
2026-01-26 23:44:15.78	17.53	3.79	-44.7	-59.3	3.6	1.51e+00	0	30	104	0	60	37617
2026-01-26 23:44:16.79	17.53	3.86	-44.7	-59.4	3.6	1.51e+00	0	30	104	0	60	37770
2026-01-26 23:44:17.80	17.53	3.94	-44.7	-59.3	3.6	1.51e+00	0	30	104	0	60	37611
2026-01-26 23:44:18.81	17.53	4.02	-44.7	-59.4	3.6	1.51e+00	0	30	104	0	60	37670
2026-01-26 23:44:19.82	17.53	4.09	-44.7	-59.4	3.6	1.51e+00	0	30	104	0	60	37731
2026-01-26 23:44:20.83	17.53	4.17	-44.7	-59.3	3.6	1.51e+00	0	30	104	0	60	37605
2026-01-26 23:44:21.84	17.53	4.25	-44.8	-59.4	3.6	1.51e+00	0	30	104	0	60	37961
2026-01-26 23:44:22.85	17.52	4.33	-44.8	-59.5	3.6	1.51e+00	0	30	104	0	60	38238
2026-01-26 23:44:23.86	17.52	4.41	-44.7	-59.4	3.6	1.51e+00	0	30	104	0	60	38027
2026-01-26 23:44:24.87	17.52	4.49	-44.7	-59.5	3.6	1.51e+00	0	30	104	0	60	38367
2026-01-26 23:44:25.88	17.52	4.57	-44.8	-59.5	3.6	1.51e+00	0	30	104	0	60	38155
2026-01-26 23:44:26.89	17.52	4.64	-44.8	-59.5	3.6	1.51e+00	0	30	104	0	60	38278
2026-01-26 23:44:27.89	17.52	4.72	-44.7	-59.5	3.6	1.51e+00	0	30	104	0	60	38321
2026-01-26 23:44:28.90	17.52	4.80	-44.9	-59.6	3.6	1.51e+00	0	30	104	0	60	38634
2026-01-26 23:44:29.91	17.51	4.88	-44.8	-59.5	3.6	1.51e+00	0	30	104	0	60	38322
2026-01-26 23:44:30.92	17.51	4.97	-44.9	-59.5	3.6	1.51e+00	0	30	104	0	60	38268
2026-01-26 23:44:31.93	17.51	5.05	-44.8	-59.6	3.6	1.51e+00	0	30	104	0	60	38651
2026-01-26 23:44:32.94	17.51	5.13	-45.0	-59.6	3.6	1.51e+00	0	30	104	0	60	38829
2026-01-26 23:44:33.95	17.51	5.21	-44.8	-59.6	3.6	1.51e+00	0	30	104	0	60	38681
2026-01-26 23:44:34.95	17.51	5.29	-44.9	-59.6	3.6	1.51e+00	0	30	104	0	60	38793
2026-01-26 23:44:35.96	17.50	5.37	-44.9	-59.6	3.6	1.51e+00	0	30	104	0	60	38731
2026-01-26 23:44:36.97	17.50	5.46	-45.0	-59.6	3.6	1.51e+00	0	30	104	0	60	38884
2026-01-26 23:44:37.98	17.50	5.54	-44.9	-59.6	3.6	1.51e+00	0	30	104	0	60	38732
2026-01-26 23:44:38.99	17.50	5.62	-45.0	-59.6	3.6	1.51e+00	0	30	104	0	60	38921
2026-01-26 23:44:40.00	17.50	5.71	-45.0	-59.6	3.6	1.51e+00	0	30	104	0	60	38909
2026-01-26 23:44:41.00	17.50	5.79	-45.1	-59.7	3.6	1.51e+00	0	30	104	0	60	39283
2026-01-26 23:44:42.01	17.49	5.88	-45.0	-59.7	3.6	1.51e+00	0	30	104	0	60	38969
2026-01-26 23:44:43.02	17.49	5.96	-45.0	-59.7	3.6	1.51e+00	0	30	104	0	60	39198
2026-01-26 23:44:44.03	17.49	6.05	-45.0	-59.6	3.6	1.51e+00	0	30	104	0	60	38935
2026-01-26 23:44:45.04	17.49	6.13	-45.0	-59.8	3.6	1.51e+00	0	30	104	0	60	39592
2026-01-26 23:44:46.05	17.48	6.22	-45.0	-59.7	3.6	1.51e+00	0	30	104	0	60	38987
2026-01-26 23:44:47.06	17.48	6.30	-45.0	-59.7	3.6	1.51e+00	0	30	104	0	60	39398
2026-01-26 23:44:48.07	17.48	6.39	-45.0	-59.7	3.6	1.51e+00	0	30	104	0	60	39210
2026-01-26 23:44:49.08	17.48	6.48	-45.0	-59.8	3.6	1.51e+00	0	30	104	0	60	39833
2026-01-26 23:44:50.09	17.48	6.57	-45.0	-59.7	3.6	1.51e+00	0	30	104	0	60	39119
2026-01-26 23:44:51.10	17.47	6.65	-45.0	-59.8	3.6	1.51e+00	0	30	104	0	60	39569
2026-01-26 23:44:52.11	17.47	6.74	-45.0	-59.8	3.6	1.51e+00	0	30	104	0	60	39462
2026-01-26 23:44:53.12	17.47	6.83	-45.1	-59.8	3.6	1.51e+00	0	30	104	0	60	39861
2026-01-26 23:44:54.12	17.46	6.92	-45.0	-59.8	3.6	1.51e+00	0	30	104	0	60	39590
2026-01-26 23:44:55.13	17.46	7.01	-45.0	-59.8	3.6	1.51e+00	0	30	104	0	60	39644
2026-01-26 23:44:56.14	17.46	7.10	-45.1	-59.8	3.6	1.51e+00	0	30	104	0	60	39716
2026-01-26 23:44:57.16	17.46	7.19	-44.9	-59.8	3.6	1.51e+00	0	30	104	0	60	39704
2026-01-26 23:44:58.16	17.45	7.28	-44.9	-59.8	3.6	1.51e+00	0	30	104	0	60	39507
2026-01-26 23:44:59.17	17.45	7.37	-45.2	-59.8	3.6	1.51e+00	0	30	104	0	60	39662
2026-01-26 23:45:00.18	17.45	7.47	-45.1	-59.8	3.6	1.51e+00	0	30	104	0	60	39776
2026-01-26 23:45:01.19	17.44	7.56	-45.2	-59.9	3.6	1.51e+00	0	30	104	0	60	39896
2026-01-26 23:45:02.20	17.44	7.65	-45.0	-59.8	3.6	1.51e+00	0	30	104	0	60	39748
2026-01-26 23:45:03.21	17.44	7.74	-45.1	-59.9	3.6	1.51e+00	0	30	104	0	60	40111
2026-01-26 23:45:04.22	17.44	7.84	-45.2	-59.9	3.6	1.51e+00	0	30	104	0	60	40002
2026-01-26 23:45:05.22	17.43	7.93	-45.2	-59.9	3.6	1.51e+00	0	30	104	0	60	40281
2026-01-26 23:45:06.23	17.43	8.03	-45.1	-59.9	3.6	1.51e+00	0	30	104	0	60	39876
2026-01-26 23:45:07.24	17.43	8.12	-45.2	-59.9	3.6	1.51e+00	0	30	104	0	60	40216
2026-01-26 23:45:08.25	17.42	8.22	-45.1	-59.9	3.6	1.51e+00	0	30	104	0	60	39979
2026-01-26 23:45:09.26	17.42	8.31	-45.1	-59.9	3.6	1.51e+00	0	30	104	0	60	40262
2026-01-26 23:45:10.27	17.41	8.41	-45.1	-59.8	3.6	1.51e+00	0	30	104	0	60	39759
2026-01-26 23:45:11.28	17.41	8.51	-45.2	-59.9	3.6	1.51e+00	0	30	104	0	60	40189
2026-01-26 23:45:12.29	17.41	8.60	-45.2	-59.9	3.6	1.51e+00	0	30	104	0	60	40134
2026-01-26 23:45:13.30	17.40	8.70	-45.2	-60.0	3.6	1.51e+00	0	30	104	0	60	40340
2026-01-26 23:45:14.31	17.40	8.80	-45.2	-59.9	3.6	1.51e+00	0	30	104	0	60	40022
2026-01-26 23:45:15.31	17.40	8.90	-45.2	-59.9	3.6	1.51e+00	0	30	104	0	60	40248
2026-01-26 23:45:16.32	17.39	9.00	-45.2	-59.9	3.6	1.51e+00	0	30	104	0	60	40273
2026-01-26 23:45:17.33	17.39	9.10	-44.9	-60.0	3.6	1.51e+00	0	30	104	0	60	40546
2026-01-26 23:45:18.34	17.38	9.20	-45.2	-59.9	3.6	1.51e+00	0	30	104	0	60	40213
2026-01-26 23:45:19.35	17.38	9.30	-45.2	-60.0	3.6	1.51e+00	0	30	104	0	60	40438
2026-01-26 23:45:20.36	17.37	9.40	-45.2	-59.9	3.6	1.51e+00	0	30	104	0	60	40202
2026-01-26 23:45:21.37	17.37	9.51	-45.3	-60.0	3.6	1.51e+00	0	30	104	0	60	40506
2026-01-26 23:45:22.38	17.37	9.61	-45.2	-60.0	3.6	1.51e+00	0	30	104	0	60	40525
2026-01-26 23:45:23.39	17.36	9.71	-44.9	-60.0	3.6	1.51e+00	0	30	104	0	60	40788
2026-01-26 23:45:24.40	17.36	9.82	-44.9	-60.0	3.6	1.51e+00	0	30	104	0	60	40594
2026-01-26 23:45:25.40	17.35	9.92	-45.3	-60.1	3.6	1.51e+00	0	30	104	0	60	40869
2026-01-26 23:45:26.42	17.35	10.03	-45.3	-60.0	3.6	1.51e+00	0	30	104	0	60	40678
2026-01-26 23:45:27.43	17.34	10.13	-45.0	-60.0	3.6	1.51e+00	0	30	104	0	60	40447
2026-01-26 23:45:28.44	17.34	10.24	-45.3	-60.0	3.6	1.51e+00	0	30	104	0	60	40505
2026-01-26 23:45:29.45	17.33	10.35	-45.1	-60.1	3.6	1.51e+00	0	30	104	0	60	40878
2026-01-26 23:45:30.45	17.33	10.46	-44.9	-60.0	3.6	1.51e+00	0	30	104	0	60	40689
2026-01-26 23:45:31.47	17.32	10.56	-45.1	-60.1	3.6	1.51e+00	0	30	104	0	60	40939
2026-01-26 23:45:32.48	17.32	10.67	-45.2	-60.0	3.6	1.51e+00	0	30	104	0	60	40696
2026-01-26 23:45:33.49	17.31	10.78	-45.4	-60.1	3.6	1.51e+00	0	30	104	0	60	40944
2026-01-26 23:45:34.50	17.31	10.89	-45.4	-60.1	3.6	1.51e+00	0	30	104	0	60	40925
2026-01-26 23:45:35.51	17.30	11.01	-45.0	-60.1	3.6	1.51e+00	0	30	104	0	60	40980
2026-01-26 23:45:36.52	17.30	11.12	-45.3	-60.1	3.6	1.51e+00	0	30	104	0	60	40915
2026-01-26 23:45:37.53	17.29	11.23	-45.2	-60.1	3.6	1.51e+00	0	30	104	0	60	40868
2026-01-26 23:45:38.54	17.28	11.34	-45.1	-60.1	3.6	1.51e+00	0	30	104	0	60	40952
2026-01-26 23:45:39.55	17.28	11.46	-45.3	-60.1	3.6	1.51e+00	0	30	104	0	60	41019
2026-01-26 23:45:40.56	17.27	11.57	-45.4	-60.1	3.6	1.51e+00	0	30	104	0	60	41048
2026-01-26 23:45:41.57	17.27	11.69	-45.3	-60.1	3.6	1.51e+00	0	30	104	0	60	41139
2026-01-26 23:45:42.58	17.26	11.80	-45.4	-60.1	3.6	1.51e+00	0	30	104	0	60	40973
2026-01-26 23:45:43.59	17.25	11.92	-45.4	-60.1	3.6	1.51e+00	0	30	104	0	60	41106
2026-01-26 23:45:44.60	17.25	12.04	-45.4	-60.1	3.6	1.51e+00	0	30	104	0	60	41196
2026-01-26 23:45:45.61	17.24	12.16	-45.4	-60.1	3.6	1.51e+00	0	30	104	0	60	41111
2026-01-26 23:45:46.62	17.23	12.28	-45.4	-60.1	3.6	1.51e+00	0	30	104	0	60	41231
2026-01-26 23:45:47.63	17.23	12.40	-45.4	-60.1	3.6	1.51e+00	0	30	104	0	60	41219
2026-01-26 23:45:48.64	17.22	12.52	-45.4	-60.1	3.6	1.51e+00	0	30	104	0	60	41053
2026-01-26 23:45:49.65	17.21	12.64	-45.5	-60.1	3.6	1.51e+00	0	30	104	0	60	41262
2026-01-26 23:45:50.66	17.21	12.76	-45.4	-60.1	3.6	1.51e+00	0	30	104	0	60	40914
2026-01-26 23:45:51.67	17.20	12.88	-45.5	-60.2	3.6	1.51e+00	0	30	104	0	60	41321
2026-01-26 23:45:52.68	17.19	13.01	-45.2	-60.2	3.6	1.51e+00	0	30	104	0	60	41286
2026-01-26 23:45:53.69	17.18	13.13	-45.1	-60.2	3.6	1.51e+00	0	30	104	0	60	41328
2026-01-26 23:45:54.70	17.18	13.26	-45.4	-60.1	3.6	1.51e+00	0	30	104	0	60	41207
2026-01-26 23:45:55.71	17.17	13.38	-45.2	-60.2	3.6	1.51e+00	0	30	104	0	60	41406
2026-01-26 23:45:56.72	17.16	13.51	-45.3	-60.1	3.6	1.51e+00	0	30	104	0	60	41136
2026-01-26 23:45:57.73	17.15	13.64	-45.3	-60.2	3.6	1.51e+00	0	30	104	0	60	41406
2026-01-26 23:45:58.74	17.15	13.77	-45.2	-60.2	3.6	1.51e+00	0	30	104	0	60	41435
2026-01-26 23:45:59.75	17.14	13.90	-45.4	-60.2	3.6	1.51e+00	0	30	104	0	60	41500
2026-01-26 23:46:00.76	17.13	14.03	-45.5	-60.2	3.6	1.51e+00	0	30	104	0	60	41310
2026-01-26 23:46:01.77	17.12	14.16	-45.5	-60.2	3.6	1.51e+00	0	30	104	0	60	41380
2026-01-26 23:46:02.78	17.11	14.29	-45.4	-60.2	3.6	1.51e+00	0	30	104	0	60	41319
2026-01-26 23:46:03.79	17.10	14.43	-45.5	-60.2	3.6	1.51e+00	0	30	104	0	60	41544
2026-01-26 23:46:04.80	17.10	14.56	-45.5	-60.2	3.6	1.51e+00	0	30	104	0	60	41608
2026-01-26 23:46:05.81	17.09	14.70	-45.4	-60.2	3.6	1.51e+00	0	30	104	0	60	41538
2026-01-26 23:46:06.82	17.08	14.84	-45.5	-60.2	3.6	1.51e+00	0	30	104	0	60	41559
2026-01-26 23:46:07.83	17.07	14.97	-45.5	-60.2	3.6	1.51e+00	0	30	104	0	60	41685
2026-01-26 23:46:08.84	17.06	15.11	-45.5	-60.2	3.6	1.51e+00	0	30	104	0	60	41469
2026-01-26 23:46:09.84	17.05	15.25	-45.4	-60.2	3.6	1.51e+00	0	30	104	0	60	41584
2026-01-26 23:46:10.86	17.04	15.39	-45.5	-60.2	3.6	1.51e+00	0	30	104	0	60	41489
2026-01-26 23:46:11.86	17.03	15.53	-45.5	-60.2	3.6	1.51e+00	0	30	104	0	60	41640
2026-01-26 23:46:12.87	17.02	15.68	-45.4	-60.2	3.6	1.51e+00	0	30	104	0	60	41735
2026-01-26 23:46:13.88	17.01	15.82	-45.5	-60.3	3.6	1.51e+00	0	30	104	0	60	41860
2026-01-26 23:46:14.89	17.00	15.97	-45.5	-60.3	3.6	1.51e+00	0	30	104	0	60	41913
2026-01-26 23:46:15.90	16.99	16.11	-45.4	-60.2	3.6	1.51e+00	0	30	104	0	60	41708
2026-01-26 23:46:16.91	16.98	16.26	-45.5	-60.2	3.6	1.51e+00	0	30	104	0	60	41562
2026-01-26 23:46:17.92	16.97	16.41	-45.4	-60.2	3.6	1.51e+00	0	30	104	0	60	41472
2026-01-26 23:46:18.93	16.96	16.56	-45.5	-60.2	3.6	1.51e+00	0	30	104	0	60	41608
2026-01-26 23:46:19.93	16.95	16.71	-45.5	-60.3	3.6	1.51e+00	0	30	104	0	60	41864
2026-01-26 23:46:20.94	16.93	16.86	-45.6	-60.2	3.6	1.51e+00	0	30	104	0	60	41627
2026-01-26 23:46:21.95	16.92	17.02	-45.5	-60.3	3.6	1.51e+00	0	30	104	0	60	41953
2026-01-26 23:46:22.97	16.91	17.17	-45.6	-60.2	3.6	1.51e+00	0	30	104	0	60	41718
2026-01-26 23:46:23.98	16.90	17.33	-45.6	-60.3	3.6	1.51e+00	0	30	104	0	60	41808
2026-01-26 23:46:24.99	16.89	17.49	-45.4	-60.3	3.6	1.51e+00	0	30	104	0	60	41859
2026-01-26 23:46:26.00	16.87	17.64	-45.5	-60.3	3.6	1.51e+00	0	30	104	0	60	41869
2026-01-26 23:46:27.01	16.86	17.80	-45.6	-60.3	3.6	1.51e+00	0	30	104	0	60	41847
2026-01-26 23:46:28.02	16.85	17.97	-45.5	-60.3	3.6	1.51e+00	0	30	104	0	60	42016
2026-01-26 23:46:29.03	16.84	18.13	-45.5	-60.3	3.6	1.51e+00	0	30	104	0	60	42124
2026-01-26 23:46:30.04	16.82	18.29	-45.2	-60.3	3.6	1.51e+00	0	30	104	0	60	41965
2026-01-26 23:46:31.05	16.81	18.46	-45.6	-60.3	3.6	1.51e+00	0	30	104	0	60	41895
2026-01-26 23:46:32.06	16.80	18.63	-45.4	-60.3	3.6	1.51e+00	0	30	104	0	60	42049
2026-01-26 23:46:33.07	16.78	18.79	-45.6	-60.3	3.6	1.51e+00	0	30	104	0	60	42021
2026-01-26 23:46:34.08	16.77	18.96	-45.6	-60.3	3.6	1.51e+00	0	30	104	0	60	42012
2026-01-26 23:46:35.09	16.75	19.14	-45.6	-60.4	3.6	1.51e+00	0	30	104	0	60	42278
2026-01-26 23:46:36.10	16.74	19.31	-45.5	-60.3	3.6	1.51e+00	0	30	104	0	60	42096
2026-01-26 23:46:37.10	16.72	19.48	-45.6	-60.3	3.6	1.51e+00	0	29	104	0	60	42218
2026-01-26 23:46:38.09	16.71	19.65	-45.6	-60.3	3.6	1.51e+00	0	30	104	0	60	42071
2026-01-26 23:46:39.08	16.69	19.83	-45.5	-60.4	3.5	1.51e+00	0	30	104	0	60	42226
2026-01-26 23:46:40.07	16.68	20.00	-45.6	-60.3	3.6	1.51e+00	0	30	104	0	60	42018
2026-01-26 23:46:41.05	16.66	20.18	-45.7	-60.3	3.6	1.51e+00	0	30	104	0	60	42200
2026-01-26 23:46:42.03	16.65	20.36	-45.6	-60.3	3.6	1.51e+00	0	30	104	0	60	42084
2026-01-26 23:46:43.01	16.63	20.54	-45.6	-60.3	3.6	1.51e+00	0	30	104	0	60	42116
2026-01-26 23:46:44.00	16.62	20.72	-45.6	-60.3	3.6	1.51e+00	0	30	104	0	60	42146
2026-01-26 23:46:44.98	16.60	20.90	-45.6	-60.3	3.6	1.51e+00	0	29	104	0	60	42135
2026-01-26 23:46:45.95	16.58	21.08	-45.6	-60.4	3.6	1.51e+00	0	30	104	0	60	42350
2026-01-26 23:46:46.93	16.57	21.27	-45.6	-60.3	3.6	1.51e+00	0	30	104	0	60	42012
2026-01-26 23:46:47.91	16.55	21.45	-45.6	-60.4	3.6	1.51e+00	0	29	104	0	60	42326
2026-01-26 23:46:48.89	16.53	21.64	-45.5	-60.3	3.6	1.51e+00	0	29	104	0	60	42146
2026-01-26 23:46:49.87	16.51	21.83	-45.6	-60.3	3.6	1.51e+00	0	29	104	0	60	42221
2026-01-26 23:46:50.84	16.50	22.02	-45.6	-60.4	3.6	1.51e+00	0	30	104	0	60	42313
2026-01-26 23:46:51.82	16.48	22.22	-45.6	-60.3	3.6	1.51e+00	0	29	104	0	60	42168
2026-01-26 23:46:52.80	16.46	22.42	-45.7	-60.4	3.6	1.51e+00	0	30	104	0	60	42408
2026-01-26 23:46:53.78	16.44	22.61	-45.7	-60.4	3.6	1.51e+00	0	30	104	0	60	42364
2026-01-26 23:46:54.75	16.42	22.81	-45.6	-60.4	3.6	1.51e+00	0	30	104	0	60	42301
2026-01-26 23:46:55.72	16.40	23.01	-45.7	-60.4	3.6	1.51e+00	0	29	104	0	60	42296
2026-01-26 23:46:56.71	16.38	23.22	-45.7	-60.4	3.6	1.51e+00	0	30	104	0	60	42238
2026-01-26 23:46:57.68	16.36	23.42	-45.7	-60.4	3.6	1.51e+00	0	30	104	0	60	42325
2026-01-26 23:46:58.66	16.34	23.63	-45.7	-60.3	3.6	1.51e+00	0	29	104	0	60	42190
2026-01-26 23:46:59.64	16.32	23.84	-45.7	-60.4	3.6	1.51e+00	0	30	104	0	60	42350
2026-01-26 23:47:00.62	16.30	24.05	-45.7	-60.3	3.6	1.51e+00	0	29	104	0	60	42040
2026-01-26 23:47:01.60	16.28	24.27	-45.7	-60.4	3.6	1.51e+00	0	29	104	0	60	42463
2026-01-26 23:47:02.57	16.25	24.48	-45.7	-60.3	3.6	1.51e+00	0	29	104	0	60	42199
2026-01-26 23:47:03.56	16.23	24.70	-45.7	-60.4	3.6	1.51e+00	0	29	104	0	60	42465
2026-01-26 23:47:04.54	16.21	24.92	-45.6	-60.4	3.6	1.51e+00	0	29	104	0	60	42349
2026-01-26 23:47:05.52	16.18	25.15	-45.7	-60.4	3.6	1.51e+00	0	29	104	0	60	42331
2026-01-26 23:47:06.50	16.16	25.37	-45.7	-60.4	3.6	1.51e+00	0	29	104	0	60	42397
2026-01-26 23:47:07.47	16.13	25.60	-45.7	-60.4	3.6	1.51e+00	0	29	104	0	60	42366
2026-01-26 23:47:08.45	16.11	25.83	-45.7	-60.4	3.6	1.51e+00	0	30	104	0	60	42371
2026-01-26 23:47:09.43	16.08	26.06	-45.7	-60.4	3.6	1.51e+00	0	30	104	0	60	42506
2026-01-26 23:47:10.41	16.06	26.30	-45.7	-60.4	3.6	1.51e+00	0	29	104	0	60	42418
2026-01-26 23:47:11.39	16.03	26.53	-45.7	-60.4	3.6	1.51e+00	0	29	104	0	60	42300
2026-01-26 23:47:12.37	16.01	26.77	-45.7	-60.4	3.6	1.51e+00	0	30	104	0	60	42337
2026-01-26 23:47:13.35	15.98	27.02	-45.6	-60.4	3.6	1.51e+00	0	30	104	0	60	42383
2026-01-26 23:47:14.33	15.95	27.26	-45.6	-60.4	3.5	1.51e+00	0	29	104	0	60	42589
2026-01-26 23:47:15.30	15.92	27.51	-45.7	-60.4	3.6	1.51e+00	0	29	104	0	60	42621
2026-01-26 23:47:16.29	15.89	27.76	-45.7	-60.4	3.5	1.51e+00	0	29	104	0	60	42513
2026-01-26 23:47:17.27	15.86	28.02	-45.7	-60.4	3.6	1.51e+00	0	29	104	0	60	42655
2026-01-26 23:47:18.24	15.83	28.27	-45.6	-60.4	3.6	1.51e+00	0	29	104	0	60	42352
2026-01-26 23:47:19.22	15.80	28.53	-45.7	-60.4	3.6	1.51e+00	0	29	104	0	60	42680
2026-01-26 23:47:20.20	15.77	28.79	-45.7	-60.4	3.6	1.51e+00	0	29	104	0	60	42606
2026-01-26 23:47:21.18	15.74	29.06	-45.7	-60.4	3.6	1.51e+00	0	29	104	0	60	42575
2026-01-26 23:47:22.16	15.71	29.33	-45.8	-60.4	3.6	1.51e+00	0	29	104	0	60	42708
2026-01-26 23:47:23.14	15.67	29.60	-45.7	-60.5	3.5	1.51e+00	0	29	104	0	60	42737
2026-01-26 23:47:24.11	15.64	29.87	-45.6	-60.4	3.6	1.51e+00	0	30	104	0	60	42622
2026-01-26 23:47:25.09	15.60	30.15	-45.8	-60.5	3.6	1.51e+00	0	29	104	0	60	42813
2026-01-26 23:47:26.07	15.57	30.43	-45.7	-60.4	3.6	1.51e+00	0	29	104	0	60	42701
2026-01-26 23:47:27.05	15.53	30.71	-45.7	-60.5	3.6	1.51e+00	0	30	104	0	60	42782
2026-01-26 23:47:28.03	15.49	31.00	-45.7	-60.5	3.6	1.51e+00	0	29	104	0	60	42776
2026-01-26 23:47:29.01	15.46	31.29	-45.6	-60.5	3.6	1.51e+00	0	29	104	0	60	42729
2026-01-26 23:47:29.99	15.42	31.59	-45.7	-60.5	3.6	1.51e+00	0	29	104	0	60	42715
2026-01-26 23:47:30.96	15.38	31.88	-45.7	-60.5	3.6	1.51e+00	0	29	104	0	60	42818
2026-01-26 23:47:31.94	15.34	32.19	-45.6	-60.5	3.6	1.51e+00	0	29	104	0	60	42924
2026-01-26 23:47:32.92	15.30	32.49	-45.7	-60.5	3.6	1.51e+00	0	29	104	0	60	42727
2026-01-26 23:47:33.90	15.25	32.80	-45.5	-60.5	3.6	1.51e+00	0	29	104	0	60	42823
2026-01-26 23:47:34.88	15.21	33.11	-45.3	-60.5	3.6	1.51e+00	0	29	104	0	60	42752
2026-01-26 23:47:35.86	15.17	33.43	-45.8	-60.5	3.6	1.51e+00	0	29	104	0	60	43004
2026-01-26 23:47:36.84	15.12	33.75	-45.8	-60.5	3.6	1.51e+00	0	29	104	0	60	43059
2026-01-26 23:47:37.82	15.08	34.08	-45.8	-60.5	3.6	1.51e+00	0	29	104	0	60	42962
2026-01-26 23:47:38.80	15.03	34.40	-45.8	-60.5	3.5	1.51e+00	0	29	104	0	60	43069
2026-01-26 23:47:39.79	14.98	34.74	-45.8	-60.5	3.6	1.51e+00	0	29	104	0	60	43048
2026-01-26 23:47:40.76	14.93	35.07	-45.8	-60.5	3.6	1.51e+00	0	29	104	0	60	42848
2026-01-26 23:47:41.75	14.88	35.42	-45.8	-60.5	3.6	1.51e+00	0	29	104	0	60	42965
2026-01-26 23:47:42.73	14.83	35.76	-45.8	-60.5	3.6	1.51e+00	0	29	104	0	60	43076
2026-01-26 23:47:43.71	14.77	36.11	-45.8	-60.5	3.6	1.51e+00	0	29	104	0	60	42973
2026-01-26 23:47:44.69	14.72	36.47	-45.8	-60.5	3.6	1.51e+00	0	29	104	0	60	42992
2026-01-26 23:47:45.66	14.66	36.82	-45.8	-60.5	3.6	1.51e+00	0	29	104	0	60	42999
2026-01-26 23:47:46.65	14.60	37.19	-45.8	-60.5	3.6	1.51e+00	0	29	104	0	60	42887
2026-01-26 23:47:47.63	14.55	37.56	-45.8	-60.5	3.6	1.51e+00	0	29	104	0	60	42972
2026-01-26 23:47:48.61	14.48	37.93	-45.9	-60.5	3.6	1.51e+00	0	29	104	0	60	43118
2026-01-26 23:47:49.59	14.42	38.31	-45.9	-60.5	3.6	1.51e+00	0	29	104	0	60	43055
2026-01-26 23:47:50.57	14.36	38.69	-45.8	-60.5	3.6	1.51e+00	0	29	104	0	60	43022
2026-01-26 23:47:51.54	14.29	39.08	-45.8	-60.5	3.6	1.51e+00	0	29	104	0	60	42874
2026-01-26 23:47:52.52	14.23	39.47	-45.8	-60.5	3.6	1.51e+00	0	29	104	0	60	42863
2026-01-26 23:47:53.50	14.16	39.87	-45.8	-60.5	3.6	1.51e+00	0	29	104	0	60	42933
2026-01-26 23:47:54.48	14.09	40.27	-45.7	-60.5	3.6	1.51e+00	0	29	104	0	60	42827
2026-01-26 23:47:55.46	14.01	40.68	-45.8	-60.5	3.6	1.51e+00	0	29	104	0	60	42797
2026-01-26 23:47:56.44	13.94	41.09	-45.8	-60.6	3.6	1.51e+00	0	29	104	0	60	43322
2026-01-26 23:47:57.42	13.86	41.51	-45.8	-60.5	3.6	1.51e+00	0	29	104	0	60	42828
2026-01-26 23:47:58.40	13.78	41.93	-45.8	-60.5	3.6	1.51e+00	0	29	104	0	60	42803
2026-01-26 23:47:59.38	13.70	42.36	-45.8	-60.5	3.6	1.51e+00	0	29	104	0	60	42882
2026-01-26 23:48:00.36	13.62	42.80	-45.8	-60.5	3.6	1.51e+00	0	29	104	0	60	43077
2026-01-26 23:48:01.34	13.53	43.24	-45.8	-60.5	3.6	1.51e+00	0	29	104	0	60	42865
2026-01-26 23:48:02.32	13.44	43.69	-45.8	-60.5	3.6	1.51e+00	0	29	104	0	60	42982
2026-01-26 23:48:03.29	13.35	44.14	-45.8	-60.5	3.6	1.51e+00	0	29	104	0	60	42868
2026-01-26 23:48:04.27	13.25	44.59	-45.8	-60.5	3.6	1.51e+00	0	29	104	0	60	43180
2026-01-26 23:48:05.25	13.16	45.06	-45.9	-60.5	3.6	1.51e+00	0	29	104	0	60	43136
2026-01-26 23:48:06.23	13.06	45.53	-45.8	-60.5	3.6	1.51e+00	0	29	104	0	60	43049
2026-01-26 23:48:07.21	12.95	46.01	-45.8	-60.5	3.6	1.51e+00	0	29	104	0	60	42912
2026-01-26 23:48:08.19	12.84	46.49	-45.8	-60.5	3.6	1.51e+00	0	29	104	0	60	43067
2026-01-26 23:48:09.16	12.73	46.98	-45.8	-60.5	3.6	1.51e+00	0	29	104	0	60	43078
2026-01-26 23:48:10.14	12.62	47.47	-45.8	-60.4	3.6	1.51e+00	0	29	104	0	60	42683
2026-01-26 23:48:11.12	12.50	47.97	-45.8	-60.5	3.5	1.51e+00	0	29	104	0	60	43018
2026-01-26 23:48:12.10	12.37	48.48	-45.8	-60.5	3.6	1.51e+00	0	29	104	0	60	43018
2026-01-26 23:48:13.08	12.25	49.00	-45.8	-60.5	3.6	1.51e+00	0	29	104	0	60	42998
2026-01-26 23:48:14.05	12.12	49.51	-45.8	-60.5	3.5	1.51e+00	0	29	104	0	60	42946
2026-01-26 23:48:15.03	11.98	50.04	-45.8	-60.5	3.6	1.51e+00	0	29	104	0	60	42757
2026-01-26 23:48:16.01	11.84	50.58	-45.8	-60.5	3.6	1.51e+00	0	29	104	0	60	43046
2026-01-26 23:48:16.99	11.69	51.12	-45.8	-60.5	3.6	1.51e+00	0	29	104	0	60	43099
2026-01-26 23:48:17.97	11.53	51.67	-45.8	-60.5	3.6	1.51e+00	0	29	104	0	60	42963
2026-01-26 23:48:18.95	11.37	52.23	-45.8	-60.5	3.6	1.51e+00	0	29	104	0	60	43104
2026-01-26 23:48:19.92	11.21	52.78	-45.8	-60.5	3.6	1.51e+00	0	29	104	0	60	43080
2026-01-26 23:48:20.90	11.04	53.35	-45.8	-60.5	3.6	1.51e+00	0	29	104	0	60	42921
2026-01-26 23:48:21.88	10.85	53.93	-45.8	-60.4	3.6	1.51e+00	0	29	104	0	60	42617
2026-01-26 23:48:22.86	10.67	54.51	-45.8	-60.5	3.6	1.51e+00	0	29	104	0	60	42899
2026-01-26 23:48:23.84	10.47	55.10	-45.8	-60.5	3.6	1.51e+00	0	29	104	0	60	42746
2026-01-26 23:48:24.82	10.27	55.70	-45.8	-60.5	3.6	1.51e+00	0	29	104	0	60	42915
2026-01-26 23:48:25.80	10.05	56.31	-45.9	-60.5	3.6	1.51e+00	0	29	104	0	60	43067
2026-01-26 23:48:26.78	9.83	56.92	-45.8	-60.5	3.5	1.51e+00	0	29	104	0	60	43052
2026-01-26 23:48:27.76	9.59	57.54	-45.8	-60.5	3.6	1.51e+00	0	29	104	0	60	42967
2026-01-26 23:48:28.74	9.34	58.16	-45.8	-60.5	3.6	1.51e+00	0	29	104	0	60	42893
2026-01-26 23:48:29.72	9.09	58.79	-45.7	-60.4	3.6	1.51e+00	0	29	104	0	60	42644
2026-01-26 23:48:30.71	8.81	59.44	-45.8	-60.5	3.6	1.51e+00	0	29	104	0	60	42873
2026-01-26 23:48:31.69	8.52	60.09	-45.8	-60.5	3.6	1.51e+00	0	29	104	0	60	42776
2026-01-26 23:48:32.67	8.22	60.74	-45.8	-60.5	3.6	1.51e+00	0	29	104	0	60	42933
2026-01-26 23:48:33.65	7.90	61.40	-45.8	-60.5	3.6	1.51e+00	0	29	104	0	60	42963
2026-01-26 23:48:34.63	7.57	62.06	-45.8	-60.5	3.6	1.51e+00	0	29	104	0	60	42865
2026-01-26 23:48:35.61	7.21	62.74	-45.7	-60.4	3.6	1.51e+00	0	29	104	0	60	42691
2026-01-26 23:48:36.59	6.84	63.41	-45.8	-60.4	3.6	1.51e+00	0	29	104	0	60	42696
2026-01-26 23:48:37.57	6.44	64.10	-45.7	-60.4	3.6	1.51e+00	0	29	104	0	60	42641
2026-01-26 23:48:38.55	6.01	64.79	-45.7	-60.4	3.6	1.51e+00	0	29	104	0	60	42536
2026-01-26 23:48:39.53	5.56	65.48	-45.8	-60.5	3.6	1.51e+00	0	29	104	0	60	43074
2026-01-26 23:48:40.51	5.08	66.18	-45.9	-60.5	3.6	1.51e+00	0	29	104	0	60	43205
2026-01-26 23:48:41.49	4.57	66.89	-45.7	-60.4	3.6	1.51e+00	0	29	104	0	60	42493
2026-01-26 23:48:42.46	4.02	67.59	-45.7	-60.4	3.6	1.51e+00	0	29	104	0	60	42394
2026-01-26 23:48:43.44	3.43	68.31	-45.7	-60.4	3.6	1.51e+00	0	29	104	0	60	42386
2026-01-26 23:48:44.42	2.80	69.03	-45.7	-60.4	3.6	1.51e+00	0	29	104	0	60	42293
2026-01-26 23:48:45.40	2.12	69.75	-45.7	-60.5	3.6	1.51e+00	0	29	104	0	60	42778
2026-01-26 23:48:46.38	1.38	70.48	-45.7	-60.4	3.6	1.51e+00	0	29	104	0	60	42263
2026-01-26 23:48:47.36	0.58	71.21	-45.7	-60.4	3.6	1.51e+00	0	29	104	0	60	42661
2026-01-26 23:48:48.33	359.72	71.93	-45.7	-60.5	3.5	1.51e+00	0	29	104	0	60	42887
2026-01-26 23:48:49.32	358.76	72.67	-45.7	-60.4	3.6	1.51e+00	0	29	104	0	60	42688
2026-01-26 23:48:50.30	357.72	73.40	-45.7	-60.4	3.6	1.51e+00	0	29	104	0	60	42552
2026-01-26 23:48:51.28	356.58	74.13	-45.7	-60.4	3.6	1.51e+00	0	29	104	0	60	42411
2026-01-26 23:48:52.25	355.34	74.85	-45.7	-60.4	3.6	1.51e+00	0	29	104	0	60	42548
2026-01-26 23:48:53.24	353.94	75.58	-45.8	-60.5	3.6	1.51e+00	0	29	104	0	60	42919
2026-01-26 23:48:54.21	352.42	76.30	-45.7	-60.4	3.5	1.51e+00	0	29	104	0	60	42547
2026-01-26 23:48:55.20	350.68	77.02	-45.8	-60.6	3.6	1.51e+00	0	29	104	0	60	43401
2026-01-26 23:48:56.18	348.76	77.72	-45.9	-60.6	3.6	1.51e+00	0	29	104	0	60	43446
2026-01-26 23:48:57.15	346.62	78.41	-45.9	-60.6	3.6	1.51e+00	0	29	104	0	60	43317
2026-01-26 23:48:58.13	344.18	79.09	-45.8	-60.6	3.6	1.51e+00	0	29	104	0	60	43257
2026-01-26 23:48:59.11	341.42	79.74	-45.9	-60.6	3.6	1.51e+00	0	29	104	0	60	43346
2026-01-26 23:49:00.08	338.31	80.37	-46.0	-60.7	3.6	1.51e+00	0	29	104	0	60	43760
2026-01-26 23:49:01.07	334.69	80.98	-45.9	-60.7	3.6	1.51e+00	0	29	104	0	60	43724
2026-01-26 23:49:02.05	330.60	81.55	-46.0	-60.7	3.6	1.51e+00	0	29	104	0	60	44151
2026-01-26 23:49:03.03	325.94	82.07	-46.0	-60.8	3.6	1.51e+00	0	29	104	0	60	44465
2026-01-26 23:49:04.01	320.66	82.53	-46.1	-60.8	3.6	1.51e+00	0	29	104	0	60	44493
2026-01-26 23:49:04.99	314.73	82.92	-46.0	-60.7	3.6	1.51e+00	0	29	104	0	60	44046
2026-01-26 23:49:05.97	308.19	83.22	-46.1	-60.9	3.6	1.51e+00	0	29	104	0	60	44837
2026-01-26 23:49:06.95	301.12	83.44	-45.9	-60.6	3.6	1.51e+00	0	29	104	0	60	43674
2026-01-26 23:49:07.93	293.69	83.54	-46.0	-60.9	3.6	1.51e+00	0	29	104	0	60	45069
2026-01-26 23:49:08.91	286.14	83.54	-45.7	-60.7	3.6	1.51e+00	0	29	104	0	60	44005
2026-01-26 23:49:09.89	278.73	83.43	-46.3	-61.2	3.6	1.51e+00	0	29	104	0	60	46538
2026-01-26 23:49:10.87	271.68	83.21	-46.0	-60.8	3.6	1.51e+00	0	29	104	0	60	44441
2026-01-26 23:49:11.85	265.17	82.90	-46.2	-61.2	3.6	1.51e+00	0	29	104	0	60	46364
2026-01-26 23:49:12.83	259.27	82.50	-46.3	-61.0	3.6	1.51e+00	0	29	104	0	60	45703
2026-01-26 23:49:13.81	254.02	82.04	-46.7	-61.4	3.6	1.51e+00	0	29	104	0	60	47925
2026-01-26 23:49:14.79	249.39	81.52	-46.4	-61.2	3.6	1.51e+00	0	29	104	0	60	46536
2026-01-26 23:49:15.77	245.32	80.95	-46.3	-61.0	3.6	1.51e+00	0	29	104	0	60	45266
2026-01-26 23:49:16.75	241.76	80.34	-46.1	-60.8	3.6	1.51e+00	0	29	104	0	60	44467
2026-01-26 23:49:17.73	238.63	79.71	-46.5	-61.1	3.6	1.51e+00	0	29	104	0	60	46161
2026-01-26 23:49:18.71	235.88	79.05	-46.2	-60.9	3.6	1.51e+00	0	29	104	0	60	45096
2026-01-26 23:49:19.69	233.46	78.37	-46.3	-61.0	3.6	1.51e+00	0	29	104	0	60	45597
2026-01-26 23:49:20.67	231.31	77.67	-46.1	-60.9	3.6	1.51e+00	0	29	104	0	60	44797
2026-01-26 23:49:21.65	229.40	76.97	-46.4	-61.1	3.6	1.51e+00	0	29	104	0	60	46079
2026-01-26 23:49:22.62	227.71	76.26	-46.3	-61.1	3.6	1.51e+00	0	29	104	0	60	45773
2026-01-26 23:49:23.60	226.18	75.54	-46.6	-61.4	3.6	1.51e+00	0	29	104	0	60	47423
2026-01-26 23:49:24.58	224.80	74.81	-46.3	-61.3	3.6	1.51e+00	0	29	104	0	60	46988
2026-01-26 23:49:25.56	223.55	74.08	-46.1	-61.0	3.6	1.51e+00	0	29	104	0	60	45553
2026-01-26 23:49:26.54	222.41	73.34	-46.4	-61.3	3.6	1.51e+00	0	29	104	0	60	46994
2026-01-26 23:49:27.53	221.37	72.60	-46.0	-60.9	3.6	1.51e+00	0	29	104	0	60	45163
2026-01-26 23:49:28.50	220.44	71.88	-46.2	-60.9	3.6	1.51e+00	0	29	104	0	60	45060
2026-01-26 23:49:29.48	219.57	71.15	-46.2	-61.0	3.6	1.51e+00	0	29	104	0	60	45342
2026-01-26 23:49:30.46	218.77	70.42	-46.2	-60.8	3.6	1.51e+00	0	29	104	0	60	44544
2026-01-26 23:49:31.44	218.04	69.69	-46.1	-60.7	3.6	1.51e+00	0	29	104	0	60	44157
2026-01-26 23:49:32.42	217.35	68.96	-45.7	-60.7	3.6	1.51e+00	0	29	104	0	60	44057
2026-01-26 23:49:33.40	216.72	68.24	-45.7	-60.7	3.6	1.51e+00	0	29	104	0	60	43916
2026-01-26 23:49:34.38	216.13	67.53	-45.6	-60.6	3.6	1.51e+00	0	29	104	0	60	43450
2026-01-26 23:49:35.35	215.59	66.82	-45.7	-60.6	3.6	1.51e+00	0	29	104	0	60	43342
2026-01-26 23:49:36.33	215.08	66.11	-45.8	-60.6	3.6	1.51e+00	0	29	104	0	60	43406
2026-01-26 23:49:37.31	214.60	65.41	-45.8	-60.6	3.6	1.51e+00	0	29	104	0	60	43231
2026-01-26 23:49:38.29	214.15	64.71	-45.8	-60.5	3.6	1.51e+00	0	29	104	0	60	42936
2026-01-26 23:49:39.27	213.73	64.02	-45.8	-60.5	3.6	1.51e+00	0	29	104	0	60	43016
2026-01-26 23:49:40.25	213.33	63.33	-45.7	-60.5	3.6	1.51e+00	0	29	104	0	60	43094
2026-01-26 23:49:41.24	212.95	62.65	-45.7	-60.5	3.6	1.51e+00	0	29	104	0	60	43181
2026-01-26 23:49:42.22	212.60	61.97	-45.7	-60.5	3.6	1.51e+00	0	29	104	0	60	43033
2026-01-26 23:49:43.20	212.26	61.30	-45.6	-60.5	3.6	1.51e+00	0	29	104	0	60	42984
2026-01-26 23:49:44.18	211.94	60.64	-45.6	-60.6	3.6	1.51e+00	0	29	104	0	60	43357
2026-01-26 23:49:45.16	211.64	59.99	-45.7	-60.5	3.6	1.51e+00	0	29	104	0	60	43120
2026-01-26 23:49:46.14	211.36	59.34	-45.6	-60.5	3.6	1.51e+00	0	29	104	0	60	42866
2026-01-26 23:49:47.13	211.08	58.69	-45.7	-60.5	3.5	1.51e+00	0	29	104	0	60	43098
2026-01-26 23:49:48.10	210.83	58.06	-45.6	-60.6	3.6	1.51e+00	0	29	104	0	60	43281
2026-01-26 23:49:49.08	210.58	57.44	-45.7	-60.5	3.6	1.51e+00	0	29	104	0	60	42887
2026-01-26 23:49:50.06	210.35	56.82	-45.8	-60.5	3.6	1.51e+00	0	29	104	0	60	43112
2026-01-26 23:49:51.04	210.12	56.20	-45.8	-60.6	3.6	1.51e+00	0	29	104	0	60	43213
2026-01-26 23:49:52.02	209.91	55.59	-45.7	-60.5	3.6	1.51e+00	0	29	104	0	60	43171
2026-01-26 23:49:52.99	209.71	55.00	-45.8	-60.6	3.6	1.51e+00	0	29	104	0	60	43238
2026-01-26 23:49:53.97	209.51	54.41	-45.8	-60.6	3.6	1.51e+00	0	29	104	0	60	43258
2026-01-26 23:49:54.96	209.32	53.82	-45.8	-60.5	3.6	1.51e+00	0	29	104	0	60	43019
2026-01-26 23:49:55.93	209.14	53.24	-45.8	-60.6	3.6	1.51e+00	0	29	104	0	60	43382
2026-01-26 23:49:56.91	208.97	52.67	-45.8	-60.6	3.6	1.51e+00	0	29	104	0	60	43477
2026-01-26 23:49:57.90	208.80	52.10	-45.8	-60.5	3.6	1.51e+00	0	29	104	0	60	43077
2026-01-26 23:49:58.87	208.64	51.55	-45.7	-60.6	3.6	1.51e+00	0	29	104	0	60	43316
2026-01-26 23:49:59.85	208.49	51.00	-45.7	-60.6	3.6	1.51e+00	0	29	104	0	60	43455
2026-01-26 23:50:00.83	208.34	50.45	-45.6	-60.6	3.6	1.51e+00	0	29	104	0	60	43242
2026-01-26 23:50:01.81	208.20	49.91	-45.7	-60.6	3.6	1.51e+00	0	29	104	0	60	43391
2026-01-26 23:50:02.79	208.06	49.38	-45.7	-60.5	3.6	1.51e+00	0	29	104	0	60	43168
2026-01-26 23:50:03.77	207.93	48.86	-45.7	-60.6	3.6	1.51e+00	0	29	104	0	60	43387
2026-01-26 23:50:04.75	207.80	48.34	-45.7	-60.6	3.6	1.51e+00	0	29	104	0	60	43410
2026-01-26 23:50:05.73	207.68	47.83	-45.7	-60.6	3.6	1.51e+00	0	29	104	0	60	43302
2026-01-26 23:50:06.71	207.56	47.33	-45.7	-60.6	3.6	1.51e+00	0	29	104	0	60	43226
2026-01-26 23:50:07.68	207.44	46.83	-45.7	-60.6	3.6	1.51e+00	0	29	104	0	60	43322
2026-01-26 23:50:08.66	207.33	46.34	-45.8	-60.6	3.6	1.51e+00	0	29	104	0	60	43301
2026-01-26 23:50:09.64	207.22	45.86	-45.7	-60.6	3.6	1.51e+00	0	29	104	0	60	43248
2026-01-26 23:50:10.62	207.12	45.38	-45.7	-60.6	3.6	1.51e+00	0	29	104	0	60	43245
2026-01-26 23:50:11.60	207.02	44.91	-45.7	-60.6	3.6	1.51e+00	0	29	104	0	60	43678
2026-01-26 23:50:12.58	206.92	44.44	-45.8	-60.6	3.6	1.51e+00	0	29	104	0	60	43568
2026-01-26 23:50:13.56	206.83	43.98	-45.8	-60.6	3.6	1.51e+00	0	29	104	0	60	43290
2026-01-26 23:50:14.54	206.73	43.52	-45.7	-60.6	3.6	1.51e+00	0	29	104	0	60	43504
2026-01-26 23:50:15.52	206.64	43.08	-45.8	-60.5	3.6	1.51e+00	0	29	104	0	60	43148
2026-01-26 23:50:16.50	206.56	42.63	-45.8	-60.6	3.6	1.51e+00	0	29	104	0	60	43578
2026-01-26 23:50:17.48	206.47	42.20	-45.9	-60.6	3.6	1.51e+00	0	29	104	0	60	43657
2026-01-26 23:50:18.46	206.39	41.76	-45.8	-60.6	3.6	1.51e+00	0	29	104	0	60	43541
2026-01-26 23:50:19.44	206.31	41.34	-45.8	-60.6	3.6	1.51e+00	0	29	104	0	60	43517
2026-01-26 23:50:20.42	206.23	40.92	-45.9	-60.6	3.6	1.51e+00	0	29	104	0	60	43335
2026-01-26 23:50:21.40	206.16	40.50	-45.9	-60.6	3.6	1.51e+00	0	29	104	0	60	43491
2026-01-26 23:50:22.38	206.09	40.09	-45.8	-60.6	3.6	1.51e+00	0	29	104	0	60	43377
2026-01-26 23:50:23.36	206.02	39.69	-45.8	-60.6	3.6	1.51e+00	0	29	104	0	60	43336
2026-01-26 23:50:24.34	205.95	39.29	-45.9	-60.6	3.6	1.51e+00	0	29	104	0	60	43489
2026-01-26 23:50:25.32	205.88	38.90	-45.9	-60.6	3.6	1.51e+00	0	29	104	0	60	43403
2026-01-26 23:50:26.30	205.81	38.51	-45.9	-60.6	3.6	1.51e+00	0	29	104	0	60	43380
2026-01-26 23:50:27.28	205.75	38.12	-45.8	-60.6	3.6	1.51e+00	0	29	104	0	60	43242
2026-01-26 23:50:28.26	205.69	37.74	-45.9	-60.6	3.6	1.51e+00	0	29	104	0	60	43342
2026-01-26 23:50:29.24	205.63	37.37	-45.8	-60.6	3.6	1.51e+00	0	29	104	0	60	43304
2026-01-26 23:50:30.22	205.57	37.00	-45.9	-60.6	3.6	1.51e+00	0	29	104	0	60	43450
2026-01-26 23:50:31.19	205.51	36.64	-45.9	-60.5	3.6	1.51e+00	0	29	104	0	60	43080
2026-01-26 23:50:32.17	205.45	36.28	-45.9	-60.7	3.6	1.51e+00	0	29	104	0	60	43879
2026-01-26 23:50:33.15	205.40	35.92	-45.9	-60.6	3.6	1.51e+00	0	29	104	0	60	43385
2026-01-26 23:50:34.12	205.35	35.58	-45.9	-60.6	3.6	1.51e+00	0	29	104	0	60	43417
2026-01-26 23:50:35.10	205.29	35.23	-45.9	-60.6	3.6	1.51e+00	0	29	104	0	60	43593
2026-01-26 23:50:36.08	205.24	34.89	-45.9	-60.6	3.6	1.51e+00	0	29	104	0	60	43577
2026-01-26 23:50:37.06	205.19	34.55	-45.9	-60.6	3.6	1.51e+00	0	29	104	0	60	43350
2026-01-26 23:50:38.04	205.15	34.22	-45.9	-60.6	3.6	1.51e+00	0	29	104	0	60	43589
2026-01-26 23:50:39.01	205.10	33.89	-45.9	-60.6	3.6	1.51e+00	0	29	104	0	60	43611
2026-01-26 23:50:39.99	205.05	33.56	-45.9	-60.6	3.6	1.51e+00	0	29	104	0	60	43393
2026-01-26 23:50:40.97	205.01	33.24	-45.9	-60.5	3.6	1.51e+00	0	29	104	0	60	43206
2026-01-26 23:50:41.95	204.96	32.92	-45.9	-60.6	3.6	1.51e+00	0	29	104	0	60	43322
2026-01-26 23:50:42.93	204.92	32.61	-45.9	-60.6	3.6	1.51e+00	0	29	104	0	60	43248
2026-01-26 23:50:43.91	204.88	32.30	-45.9	-60.6	3.6	1.51e+00	0	29	104	0	60	43538
2026-01-26 23:50:44.88	204.83	31.99	-45.9	-60.6	3.6	1.51e+00	0	29	104	0	60	43272
2026-01-26 23:50:45.87	204.79	31.69	-45.8	-60.5	3.6	1.51e+00	0	29	104	0	60	43020
2026-01-26 23:50:46.84	204.75	31.39	-45.9	-60.6	3.6	1.51e+00	0	29	104	0	60	43330
2026-01-26 23:50:47.82	204.72	31.10	-45.9	-60.6	3.6	1.51e+00	0	29	104	0	60	43262
2026-01-26 23:50:48.80	204.68	30.80	-45.9	-60.6	3.6	1.51e+00	0	29	104	0	60	43364
2026-01-26 23:50:49.78	204.64	30.51	-45.8	-60.6	3.6	1.51e+00	0	29	104	0	60	43357
2026-01-26 23:50:50.76	204.60	30.23	-45.8	-60.5	3.6	1.51e+00	0	29	104	0	60	42897
2026-01-26 23:50:51.74	204.57	29.95	-45.8	-60.5	3.6	1.51e+00	0	29	104	0	60	43188
2026-01-26 23:50:52.72	204.53	29.67	-45.9	-60.6	3.6	1.51e+00	0	29	104	0	60	43274
2026-01-26 23:50:53.70	204.50	29.39	-45.9	-60.6	3.6	1.51e+00	0	29	104	0	60	43371
2026-01-26 23:50:54.68	204.46	29.12	-45.9	-60.6	3.6	1.51e+00	0	29	104	0	60	43242
2026-01-26 23:50:55.66	204.43	28.85	-45.9	-60.6	3.6	1.51e+00	0	29	104	0	60	43440
2026-01-26 23:50:56.64	204.40	28.58	-45.8	-60.5	3.6	1.51e+00	0	29	104	0	60	43098
2026-01-26 23:50:57.61	204.37	28.32	-45.8	-60.5	3.6	1.51e+00	0	29	104	0	60	43192
2026-01-26 23:50:58.59	204.34	28.06	-45.8	-60.6	3.6	1.51e+00	0	29	104	0	60	43272
2026-01-26 23:50:59.57	204.31	27.80	-45.8	-60.6	3.6	1.51e+00	0	29	104	0	60	43222
2026-01-26 23:51:00.55	204.28	27.55	-45.8	-60.6	3.6	1.51e+00	0	29	104	0	60	43243
2026-01-26 23:51:01.52	204.25	27.30	-45.8	-60.5	3.5	1.51e+00	0	29	104	0	60	43182
2026-01-26 23:51:02.51	204.22	27.05	-45.8	-60.5	3.6	1.51e+00	0	29	104	0	60	43023
2026-01-26 23:51:03.49	204.19	26.80	-45.8	-60.5	3.6	1.51e+00	0	29	104	0	60	43120
2026-01-26 23:51:04.47	204.16	26.56	-45.8	-60.5	3.6	1.51e+00	0	29	104	0	60	43030
2026-01-26 23:51:05.45	204.13	26.32	-45.8	-60.6	3.6	1.51e+00	0	29	104	0	60	43368
2026-01-26 23:51:06.43	204.11	26.08	-45.9	-60.6	3.6	1.51e+00	0	29	104	0	60	43269
2026-01-26 23:51:07.41	204.08	25.84	-45.9	-60.6	3.6	1.51e+00	0	29	104	0	60	43330
2026-01-26 23:51:08.39	204.06	25.61	-45.8	-60.6	3.6	1.51e+00	0	29	104	0	60	43277
2026-01-26 23:51:09.37	204.03	25.38	-45.9	-60.6	3.6	1.51e+00	0	29	104	0	60	43295
2026-01-26 23:51:10.34	204.01	25.15	-45.9	-60.6	3.6	1.51e+00	0	29	104	0	60	43264
2026-01-26 23:51:11.31	203.98	24.93	-45.8	-60.5	3.6	1.51e+00	0	29	104	0	60	42884
2026-01-26 23:51:12.30	203.96	24.70	-45.8	-60.5	3.5	1.51e+00	0	29	104	0	60	43148
2026-01-26 23:51:13.28	203.93	24.48	-45.7	-60.4	3.6	1.51e+00	0	29	104	0	60	42612
2026-01-26 23:51:14.26	203.91	24.26	-45.9	-60.5	3.6	1.51e+00	0	29	104	0	60	43127
2026-01-26 23:51:15.24	203.89	24.04	-45.8	-60.5	3.6	1.51e+00	0	29	104	0	60	43069
2026-01-26 23:51:16.22	203.87	23.83	-45.7	-60.5	3.6	1.51e+00	0	29	104	0	60	42968
2026-01-26 23:51:17.20	203.85	23.61	-45.8	-60.5	3.6	1.51e+00	0	29	104	0	60	43032
2026-01-26 23:51:18.17	203.82	23.41	-45.7	-60.5	3.6	1.51e+00	0	29	104	0	60	42916
2026-01-26 23:51:19.15	203.80	23.20	-45.8	-60.4	3.6	1.51e+00	0	29	104	0	60	42585
2026-01-26 23:51:20.13	203.78	22.99	-45.8	-60.5	3.6	1.51e+00	0	29	104	0	60	42926
2026-01-26 23:51:21.10	203.76	22.79	-45.8	-60.5	3.6	1.51e+00	0	29	104	0	60	42897
2026-01-26 23:51:22.08	203.74	22.58	-45.8	-60.5	3.6	1.51e+00	0	29	104	0	60	43033
2026-01-26 23:51:23.06	203.72	22.38	-45.8	-60.5	3.6	1.51e+00	0	29	104	0	60	42799
2026-01-26 23:51:24.04	203.70	22.19	-45.8	-60.5	3.6	1.51e+00	0	29	104	0	60	42902
2026-01-26 23:51:25.02	203.68	21.99	-45.8	-60.4	3.6	1.51e+00	0	29	104	0	60	42666
2026-01-26 23:51:26.00	203.66	21.79	-45.8	-60.5	3.6	1.51e+00	0	29	104	0	60	43017
2026-01-26 23:51:26.98	203.65	21.60	-45.8	-60.5	3.6	1.51e+00	0	29	104	0	60	42818
2026-01-26 23:51:27.96	203.63	21.41	-45.8	-60.5	3.6	1.51e+00	0	29	104	0	60	43004
2026-01-26 23:51:28.94	203.61	21.22	-45.7	-60.4	3.6	1.51e+00	0	29	104	0	60	42651
2026-01-26 23:51:29.92	203.59	21.03	-45.8	-60.5	3.6	1.51e+00	0	29	104	0	60	42774
2026-01-26 23:51:30.90	203.58	20.85	-45.7	-60.4	3.6	1.51e+00	0	29	104	0	60	42530
2026-01-26 23:51:31.88	203.56	20.66	-45.8	-60.4	3.6	1.51e+00	0	29	104	0	60	42712
2026-01-26 23:51:32.86	203.54	20.48	-45.8	-60.5	3.6	1.51e+00	0	29	104	0	60	42715
2026-01-26 23:51:33.84	203.53	20.30	-45.8	-60.5	3.6	1.51e+00	0	29	104	0	60	42715
2026-01-26 23:51:34.82	203.51	20.12	-45.8	-60.5	3.6	1.51e+00	0	29	104	0	60	43113
2026-01-26 23:51:35.80	203.49	19.94	-45.8	-60.5	3.6	1.51e+00	0	29	104	0	60	42923
2026-01-26 23:51:36.78	203.48	19.77	-45.8	-60.4	3.5	1.51e+00	0	29	104	0	60	42560
2026-01-26 23:51:37.76	203.46	19.59	-45.8	-60.5	3.6	1.51e+00	0	29	104	0	60	42863
2026-01-26 23:51:38.74	203.45	19.42	-45.8	-60.5	3.6	1.51e+00	0	29	104	0	60	42904
2026-01-26 23:51:39.72	203.43	19.25	-45.8	-60.5	3.6	1.51e+00	0	29	104	0	60	42983
2026-01-26 23:51:40.69	203.42	19.08	-45.8	-60.4	3.6	1.51e+00	0	29	104	0	60	42712
2026-01-26 23:51:41.68	203.40	18.91	-45.7	-60.4	3.6	1.51e+00	0	29	104	0	60	42442
2026-01-26 23:51:42.66	203.39	18.74	-45.7	-60.4	3.6	1.51e+00	0	29	104	0	60	42675
2026-01-26 23:51:43.64	203.37	18.58	-45.8	-60.4	3.6	1.51e+00	0	29	104	0	60	42677
2026-01-26 23:51:44.61	203.36	18.41	-45.7	-60.4	3.6	1.51e+00	0	29	104	0	60	42495
2026-01-26 23:51:45.59	203.35	18.25	-45.7	-60.4	3.6	1.51e+00	0	29	104	0	60	42332
2026-01-26 23:51:46.57	203.33	18.09	-45.7	-60.4	3.6	1.51e+00	0	29	104	0	60	42522
2026-01-26 23:51:47.55	203.32	17.93	-45.7	-60.4	3.6	1.51e+00	0	29	104	0	60	42230
2026-01-26 23:51:48.54	203.31	17.77	-45.6	-60.4	3.6	1.51e+00	0	29	104	0	60	42413
2026-01-26 23:51:49.52	203.29	17.61	-45.7	-60.4	3.6	1.51e+00	0	29	104	0	60	42464
2026-01-26 23:51:50.50	203.28	17.46	-45.7	-60.4	3.6	1.51e+00	0	29	104	0	60	42658
2026-01-26 23:51:51.48	203.27	17.30	-45.7	-60.3	3.6	1.51e+00	0	29	104	0	60	42173
2026-01-26 23:51:52.46	203.26	17.15	-45.7	-60.4	3.6	1.51e+00	0	29	104	0	60	42382
2026-01-26 23:51:53.44	203.25	16.99	-45.6	-60.3	3.6	1.51e+00	0	29	104	0	60	42007
2026-01-26 23:51:54.42	203.23	16.84	-45.7	-60.4	3.6	1.51e+00	0	29	104	0	60	42542
2026-01-26 23:51:55.40	203.22	16.69	-45.6	-60.4	3.6	1.51e+00	0	29	104	0	60	42275
2026-01-26 23:51:56.38	203.21	16.54	-45.7	-60.4	3.6	1.51e+00	0	29	104	0	60	42474
2026-01-26 23:51:57.36	203.20	16.40	-45.6	-60.3	3.6	1.51e+00	0	29	104	0	60	42014
2026-01-26 23:51:58.33	203.19	16.25	-45.7	-60.4	3.6	1.51e+00	0	29	104	0	60	42268
2026-01-26 23:51:59.31	203.18	16.11	-45.6	-60.3	3.6	1.51e+00	0	29	104	0	60	42181
2026-01-26 23:52:00.29	203.17	15.96	-45.5	-60.4	3.6	1.51e+00	0	29	104	0	60	42256
2026-01-26 23:52:01.27	203.16	15.82	-45.6	-60.3	3.6	1.51e+00	0	29	104	0	60	42174
2026-01-26 23:52:02.25	203.15	15.68	-45.7	-60.4	3.6	1.51e+00	0	29	104	0	60	42296
2026-01-26 23:52:03.23	203.13	15.53	-45.6	-60.3	3.6	1.51e+00	0	29	104	0	60	41962
2026-01-26 23:52:04.21	203.12	15.39	-45.6	-60.3	3.6	1.51e+00	0	29	104	0	60	41883
2026-01-26 23:52:05.19	203.11	15.26	-45.6	-60.3	3.6	1.51e+00	0	29	104	0	60	42167
2026-01-26 23:52:06.17	203.10	15.12	-45.6	-60.4	3.6	1.51e+00	0	29	104	0	60	42321
2026-01-26 23:52:07.14	203.09	14.98	-45.7	-60.3	3.6	1.51e+00	0	29	104	0	60	42075
2026-01-26 23:52:08.12	203.09	14.85	-45.6	-60.3	3.6	1.51e+00	0	29	104	0	60	42043
2026-01-26 23:52:09.10	203.08	14.71	-45.6	-60.3	3.6	1.51e+00	0	29	104	0	60	41745
2026-01-26 23:52:10.08	203.07	14.58	-45.6	-60.4	3.6	1.51e+00	0	29	104	0	60	42394
2026-01-26 23:52:11.06	203.06	14.44	-45.6	-60.3	3.6	1.51e+00	0	29	104	0	60	42214
2026-01-26 23:52:12.04	203.05	14.31	-45.6	-60.3	3.6	1.51e+00	0	29	104	0	60	41826
2026-01-26 23:52:13.02	203.04	14.18	-45.6	-60.2	3.6	1.51e+00	0	29	104	0	60	41698
2026-01-26 23:52:14.00	203.03	14.05	-45.6	-60.3	3.6	1.51e+00	0	29	104	0	60	42105
2026-01-26 23:52:14.97	203.02	13.92	-45.6	-60.3	3.6	1.51e+00	0	29	104	0	60	42188
2026-01-26 23:52:15.95	203.01	13.79	-45.6	-60.3	3.6	1.51e+00	0	29	104	0	60	42160
2026-01-26 23:52:16.92	203.00	13.67	-45.6	-60.2	3.6	1.51e+00	0	29	104	0	60	41660
2026-01-26 23:52:17.90	203.00	13.54	-45.7	-60.3	3.6	1.51e+00	0	29	104	0	60	42152
2026-01-26 23:52:18.87	202.99	13.42	-45.7	-60.4	3.6	1.51e+00	0	29	104	0	60	42276
2026-01-26 23:52:19.85	202.98	13.29	-45.6	-60.3	3.6	1.51e+00	0	29	104	0	60	41927
2026-01-26 23:52:20.83	202.97	13.17	-45.4	-60.3	3.6	1.51e+00	0	29	104	0	60	41820
2026-01-26 23:52:21.81	202.96	13.04	-45.6	-60.3	3.6	1.51e+00	0	29	104	0	60	41931
2026-01-26 23:52:22.79	202.96	12.92	-45.6	-60.3	3.6	1.51e+00	0	29	104	0	60	42013
2026-01-26 23:52:23.77	202.95	12.80	-45.6	-60.3	3.6	1.51e+00	0	29	104	0	60	41830
2026-01-26 23:52:24.75	202.94	12.68	-45.5	-60.2	3.6	1.51e+00	0	29	104	0	60	41580
2026-01-26 23:52:25.73	202.93	12.56	-45.5	-60.3	3.6	1.51e+00	0	29	104	0	60	41815
2026-01-26 23:52:26.71	202.93	12.44	-45.6	-60.3	3.6	1.51e+00	0	29	104	0	60	41808
2026-01-26 23:52:27.69	202.92	12.32	-45.6	-60.3	3.6	1.51e+00	0	29	104	0	60	41776
2026-01-26 23:52:28.67	202.91	12.20	-45.5	-60.2	3.6	1.51e+00	0	29	104	0	60	41582
2026-01-26 23:52:29.65	202.90	12.09	-45.5	-60.3	3.6	1.51e+00	0	29	104	0	60	41747
2026-01-26 23:52:30.63	202.90	11.97	-45.6	-60.3	3.6	1.51e+00	0	29	104	0	60	41987
2026-01-26 23:52:31.60	202.89	11.86	-45.5	-60.2	3.6	1.51e+00	0	29	104	0	60	41533
2026-01-26 23:52:32.58	202.88	11.74	-45.5	-60.2	3.6	1.51e+00	0	29	104	0	60	41407
2026-01-26 23:52:33.56	202.88	11.63	-45.5	-60.2	3.6	1.51e+00	0	29	104	0	60	41478
2026-01-26 23:52:34.54	202.87	11.51	-45.6	-60.2	3.6	1.51e+00	0	29	104	0	60	41739
2026-01-26 23:52:35.52	202.86	11.40	-45.5	-60.2	3.6	1.51e+00	0	29	104	0	60	41717
2026-01-26 23:52:36.50	202.86	11.29	-45.5	-60.2	3.6	1.51e+00	0	29	104	0	60	41358
2026-01-26 23:52:37.47	202.85	11.18	-45.5	-60.1	3.6	1.51e+00	0	29	104	0	60	41240
2026-01-26 23:52:38.45	202.85	11.07	-45.5	-60.2	3.6	1.51e+00	0	29	104	0	60	41659
2026-01-26 23:52:39.43	202.84	10.96	-45.5	-60.2	3.6	1.51e+00	0	29	104	0	60	41538
2026-01-26 23:52:40.41	202.83	10.85	-45.5	-60.1	3.6	1.51e+00	0	29	104	0	60	41249
2026-01-26 23:52:41.39	202.83	10.74	-45.4	-60.1	3.6	1.51e+00	0	29	104	0	60	40832
2026-01-26 23:52:42.37	202.82	10.63	-45.5	-60.2	3.6	1.51e+00	0	29	104	0	60	41334
2026-01-26 23:52:43.35	202.82	10.53	-45.4	-60.2	3.5	1.51e+00	0	29	104	0	60	41305
2026-01-26 23:52:44.32	202.81	10.42	-45.4	-60.2	3.6	1.51e+00	0	29	104	0	60	41280
2026-01-26 23:52:45.30	202.80	10.31	-45.4	-60.0	3.6	1.51e+00	0	29	104	0	60	40766
2026-01-26 23:52:46.29	202.80	10.21	-45.5	-60.1	3.6	1.51e+00	0	29	104	0	60	41216
2026-01-26 23:52:47.26	202.79	10.10	-45.4	-60.1	3.6	1.51e+00	0	29	104	0	60	40973
2026-01-26 23:52:48.25	202.79	10.00	-45.4	-60.1	3.6	1.51e+00	0	29	104	0	60	40977
2026-01-26 23:52:49.23	202.78	9.89	-45.4	-60.0	3.6	1.51e+00	0	29	104	0	60	40696
2026-01-26 23:52:50.21	202.78	9.79	-45.5	-60.2	3.6	1.51e+00	0	29	104	0	60	41388
2026-01-26 23:52:51.19	202.77	9.69	-45.5	-60.1	3.6	1.51e+00	0	29	104	0	60	41195
2026-01-26 23:52:52.17	202.77	9.59	-45.3	-60.1	3.6	1.51e+00	0	29	104	0	60	41099
2026-01-26 23:52:53.15	202.76	9.48	-45.4	-60.0	3.6	1.51e+00	0	29	104	0	60	40568
2026-01-26 23:52:54.13	202.76	9.38	-45.4	-60.2	3.6	1.51e+00	0	29	104	0	60	41469
2026-01-26 23:52:55.11	202.75	9.28	-45.3	-60.1	3.6	1.51e+00	0	29	104	0	60	40933
2026-01-26 23:52:56.09	202.75	9.18	-45.4	-60.0	3.6	1.51e+00	0	29	104	0	60	40778
2026-01-26 23:52:57.07	202.74	9.08	-45.3	-60.0	3.6	1.51e+00	0	29	104	0	60	40546
2026-01-26 23:52:58.05	202.74	8.98	-45.4	-60.1	3.6	1.51e+00	0	29	104	0	60	41243
2026-01-26 23:52:59.03	202.73	8.89	-45.4	-60.1	3.6	1.51e+00	0	29	104	0	60	41071
2026-01-26 23:53:00.01	202.73	8.79	-45.4	-60.0	3.6	1.51e+00	0	29	104	0	60	40777
2026-01-26 23:53:00.99	202.72	8.69	-45.3	-60.0	3.6	1.51e+00	0	29	104	0	60	40475
2026-01-26 23:53:01.97	202.72	8.59	-45.4	-60.1	3.6	1.51e+00	0	29	104	0	60	41023
2026-01-26 23:53:02.95	202.72	8.50	-45.4	-60.1	3.6	1.51e+00	0	29	104	0	60	41146
2026-01-26 23:53:03.94	202.71	8.40	-45.3	-60.0	3.6	1.51e+00	0	29	104	0	60	40346
2026-01-26 23:53:04.91	202.71	8.31	-45.3	-60.0	3.6	1.51e+00	0	29	104	0	60	40426
2026-01-26 23:53:05.89	202.70	8.21	-45.3	-60.0	3.6	1.51e+00	0	29	104	0	60	40566
2026-01-26 23:53:06.87	202.70	8.12	-45.3	-60.0	3.6	1.51e+00	0	29	104	0	60	40663
2026-01-26 23:53:07.85	202.69	8.02	-45.3	-60.0	3.6	1.51e+00	0	29	104	0	60	40463
2026-01-26 23:53:08.82	202.69	7.93	-45.2	-59.9	3.6	1.51e+00	0	29	104	0	60	40296
2026-01-26 23:53:09.80	202.69	7.84	-45.3	-59.9	3.6	1.51e+00	0	29	104	0	60	40175
2026-01-26 23:53:10.77	202.68	7.75	-45.2	-60.0	3.6	1.51e+00	0	29	104	0	60	40365
2026-01-26 23:53:11.75	202.68	7.65	-45.3	-59.9	3.6	1.51e+00	0	29	104	0	60	40210
2026-01-26 23:53:12.73	202.68	7.56	-45.2	-59.9	3.6	1.51e+00	0	29	104	0	60	40070
2026-01-26 23:53:13.71	202.67	7.47	-45.2	-59.9	3.6	1.51e+00	0	29	104	0	60	40308
2026-01-26 23:53:14.69	202.67	7.38	-45.3	-60.0	3.6	1.51e+00	0	29	104	0	60	40706
2026-01-26 23:53:15.66	202.66	7.29	-45.2	-60.0	3.6	1.51e+00	0	29	104	0	60	40389
2026-01-26 23:53:16.65	202.66	7.20	-45.2	-59.9	3.6	1.51e+00	0	28	104	0	60	40088
2026-01-26 23:53:17.62	202.66	7.11	-45.1	-59.9	3.6	1.51e+00	0	29	104	0	60	39959
2026-01-26 23:53:18.60	202.65	7.02	-45.3	-60.0	3.6	1.51e+00	0	29	104	0	60	40590
2026-01-26 23:53:19.58	202.65	6.93	-45.2	-59.9	3.6	1.51e+00	0	29	104	0	60	40259
2026-01-26 23:53:20.56	202.65	6.85	-45.2	-59.8	3.6	1.51e+00	0	29	104	0	60	39849
2026-01-26 23:53:21.55	202.64	6.76	-45.1	-59.8	3.6	1.51e+00	0	29	104	0	60	39725
2026-01-26 23:53:22.53	202.64	6.67	-45.2	-59.9	3.6	1.51e+00	0	29	104	0	60	40172
2026-01-26 23:53:23.50	202.64	6.58	-45.2	-59.8	3.6	1.51e+00	0	29	104	0	60	39836
2026-01-26 23:53:24.49	202.63	6.50	-45.2	-59.9	3.6	1.51e+00	0	29	104	0	60	39904
2026-01-26 23:53:25.47	202.63	6.41	-45.1	-59.7	3.6	1.51e+00	0	29	104	0	60	39283
2026-01-26 23:53:26.44	202.63	6.33	-45.2	-59.9	3.6	1.51e+00	0	29	104	0	60	40163
2026-01-26 23:53:27.42	202.62	6.24	-45.1	-59.8	3.6	1.51e+00	0	29	104	0	60	39678
2026-01-26 23:53:28.40	202.62	6.16	-45.1	-59.8	3.6	1.51e+00	0	29	104	0	60	39570
2026-01-26 23:53:29.38	202.62	6.07	-45.0	-59.6	3.6	1.51e+00	0	29	104	0	60	38930
2026-01-26 23:53:30.36	202.62	5.99	-45.2	-59.9	3.6	1.51e+00	0	29	104	0	60	40146
2026-01-26 23:53:31.33	202.61	5.90	-45.1	-59.8	3.6	1.51e+00	0	29	104	0	60	39485
2026-01-26 23:53:32.31	202.61	5.82	-45.0	-59.8	3.6	1.51e+00	0	29	104	0	60	39423
2026-01-26 23:53:33.29	202.61	5.74	-44.9	-59.6	3.6	1.51e+00	0	29	104	0	60	38938
2026-01-26 23:53:34.26	202.61	5.65	-45.2	-59.8	3.6	1.51e+00	0	29	104	0	60	39780
2026-01-26 23:53:35.24	202.60	5.57	-45.1	-59.7	3.6	1.51e+00	0	29	104	0	60	39174
2026-01-26 23:53:36.23	202.60	5.49	-45.0	-59.7	3.6	1.51e+00	0	28	104	0	60	39130
2026-01-26 23:53:37.21	202.60	5.41	-44.9	-59.6	3.6	1.51e+00	0	29	104	0	60	38672
2026-01-26 23:53:38.19	202.59	5.33	-45.1	-59.8	3.6	1.51e+00	0	29	104	0	60	39509
2026-01-26 23:53:39.17	202.59	5.24	-45.0	-59.7	3.6	1.51e+00	0	28	104	0	60	39199
2026-01-26 23:53:40.16	202.59	5.16	-45.0	-59.7	3.6	1.51e+00	0	28	104	0	60	39040
2026-01-26 23:53:41.14	202.59	5.08	-44.8	-59.5	3.6	1.51e+00	0	29	104	0	60	38405
2026-01-26 23:53:42.12	202.58	5.00	-45.0	-59.7	3.6	1.51e+00	0	29	104	0	60	39188
2026-01-26 23:53:43.10	202.58	4.92	-45.0	-59.7	3.6	1.51e+00	0	29	104	0	60	39009
2026-01-26 23:53:44.08	202.58	4.84	-44.9	-59.6	3.6	1.51e+00	0	29	104	0	60	38717
2026-01-26 23:53:45.06	202.58	4.76	-44.8	-59.5	3.6	1.51e+00	0	29	104	0	60	38072
2026-01-26 23:53:46.04	202.58	4.69	-45.0	-59.7	3.6	1.51e+00	0	29	104	0	60	39156
2026-01-26 23:53:47.02	202.57	4.61	-44.9	-59.6	3.6	1.51e+00	0	28	104	0	60	38755
2026-01-26 23:53:48.00	202.57	4.53	-44.9	-59.5	3.6	1.51e+00	0	29	104	0	60	38334
2026-01-26 23:53:48.98	202.57	4.45	-44.7	-59.4	3.6	1.51e+00	0	29	104	0	60	37951
2026-01-26 23:53:49.96	202.57	4.37	-44.9	-59.6	3.6	1.51e+00	0	29	104	0	60	38788
2026-01-26 23:53:50.94	202.56	4.30	-44.8	-59.5	3.6	1.51e+00	0	29	104	0	60	38357
2026-01-26 23:53:51.92	202.56	4.22	-44.8	-59.5	3.6	1.51e+00	0	28	104	0	60	38284
2026-01-26 23:53:52.90	202.56	4.14	-44.7	-59.3	3.6	1.51e+00	0	29	104	0	60	37609
2026-01-26 23:53:53.87	202.56	4.07	-44.8	-59.5	3.6	1.51e+00	0	29	104	0	60	38342
2026-01-26 23:53:54.85	202.56	3.99	-44.8	-59.5	3.6	1.51e+00	0	29	104	0	60	38223
2026-01-26 23:53:55.83	202.56	3.91	-44.7	-59.4	3.6	1.51e+00	0	29	104	0	60	37747
2026-01-26 23:53:56.81	202.55	3.84	-44.7	-59.3	3.6	1.51e+00	0	29	104	0	60	37523
2026-01-26 23:53:57.79	202.55	3.76	-44.7	-59.3	3.6	1.51e+00	0	29	104	0	60	37505
2026-01-26 23:53:58.78	202.55	3.69	-44.8	-59.4	3.6	1.51e+00	0	29	104	0	60	37917
2026-01-26 23:53:59.75	202.55	3.61	-44.7	-59.3	3.6	1.51e+00	0	29	104	0	60	37587
2026-01-26 23:54:00.72	202.55	3.54	-44.6	-59.3	3.6	1.51e+00	0	29	104	0	60	37251
2026-01-26 23:54:01.70	202.54	3.47	-44.6	-59.3	3.6	1.51e+00	0	29	104	0	60	37371
2026-01-26 23:54:02.68	202.54	3.39	-44.7	-59.4	3.6	1.51e+00	0	29	104	0	60	37868
2026-01-26 23:54:03.66	202.54	3.32	-44.6	-59.3	3.6	1.51e+00	0	29	104	0	60	37230
2026-01-26 23:54:04.64	202.54	3.24	-44.4	-59.1	3.6	1.51e+00	0	29	104	0	60	36766
2026-01-26 23:54:05.61	202.54	3.17	-44.4	-59.1	3.6	1.51e+00	0	29	104	0	60	36589
2026-01-26 23:54:06.59	202.54	3.10	-44.7	-59.4	3.6	1.51e+00	0	28	104	0	60	37651
2026-01-26 23:54:07.57	202.54	3.03	-44.5	-59.2	3.6	1.51e+00	0	28	104	0	60	36996
2026-01-26 23:54:08.55	202.53	2.95	-44.9	-59.6	3.6	1.51e+00	0	29	104	0	60	38836
2026-01-26 23:54:09.53	202.53	2.88	-45.2	-59.9	3.6	1.51e+00	0	29	104	0	60	40158
2026-01-26 23:54:10.51	202.53	2.81	-45.4	-60.1	3.6	1.51e+00	0	28	104	0	60	41114
2026-01-26 23:54:11.49	202.53	2.74	-45.6	-60.3	3.6	1.51e+00	0	29	104	0	60	41907
2026-01-26 23:54:12.46	202.53	2.67	-45.7	-60.4	3.6	1.51e+00	0	29	104	0	60	42293
2026-01-26 23:54:13.44	202.53	2.60	-45.6	-60.5	3.6	1.51e+00	0	29	104	0	60	42769
2026-01-26 23:54:14.42	202.53	2.53	-45.8	-60.5	3.6	1.51e+00	0	29	104	0	60	43080
2026-01-26 23:54:15.40	202.52	2.46	-45.8	-60.6	3.6	1.51e+00	0	29	104	0	60	43404
2026-01-26 23:54:16.38	202.52	2.38	-45.9	-60.6	3.6	1.51e+00	0	29	104	0	60	43701
2026-01-26 23:54:17.35	202.52	2.32	-45.9	-60.7	3.6	1.51e+00	0	29	104	0	60	43737
2026-01-26 23:54:18.33	202.52	2.25	-45.9	-60.7	3.6	1.51e+00	0	29	104	0	60	43843
2026-01-26 23:54:19.32	202.52	2.17	-45.9	-60.6	3.6	1.51e+00	0	29	104	0	60	43508
2026-01-26 23:54:20.29	202.52	2.11	-45.9	-60.6	3.6	1.51e+00	0	29	104	0	60	43693
2026-01-26 23:54:21.27	202.52	2.04	-45.9	-60.6	3.6	1.51e+00	0	29	104	0	60	43698
2026-01-26 23:54:22.24	202.52	1.97	-45.8	-60.6	3.6	1.51e+00	0	28	104	0	60	43618
2026-01-26 23:54:23.21	202.51	1.90	-45.9	-60.7	3.6	1.51e+00	0	29	104	0	60	43775
2026-01-26 23:54:24.19	202.51	1.83	-45.8	-60.6	3.6	1.51e+00	0	29	104	0	60	43211
2026-01-26 23:54:25.17	202.51	1.76	-45.8	-60.6	3.6	1.51e+00	0	29	104	0	60	43220
2026-01-26 23:54:26.15	202.51	1.69	-45.8	-60.6	3.6	1.51e+00	0	28	104	0	60	43355
2026-01-26 23:54:27.13	202.51	1.63	-45.9	-60.6	3.6	1.51e+00	0	29	104	0	60	43419
2026-01-26 23:54:28.12	202.51	1.56	-45.8	-60.6	3.6	1.51e+00	0	29	104	0	60	43564
2026-01-26 23:54:29.10	202.51	1.49	-45.8	-60.5	3.6	1.51e+00	0	29	104	0	60	43073
2026-01-26 23:54:30.07	202.51	1.42	-45.8	-60.6	3.6	1.51e+00	0	28	104	0	60	43288
2026-01-26 23:54:31.05	202.51	1.36	-45.5	-60.5	3.6	1.51e+00	0	28	104	0	60	43189
2026-01-26 23:54:32.03	202.51	1.29	-45.8	-60.5	3.6	1.51e+00	0	28	104	0	60	42753
2026-01-26 23:54:33.01	202.51	1.22	-45.8	-60.5	3.6	1.51e+00	0	29	104	0	60	43110
2026-01-26 23:54:33.99	202.50	1.16	-45.8	-60.5	3.6	1.51e+00	0	28	104	0	60	42931
2026-01-26 23:54:34.97	202.50	1.09	-45.7	-60.4	3.6	1.51e+00	0	29	104	0	60	42622
2026-01-26 23:54:35.95	202.50	1.02	-45.8	-60.5	3.6	1.51e+00	0	29	104	0	60	42910
2026-01-26 23:54:36.94	202.50	0.96	-45.8	-60.5	3.6	1.51e+00	0	29	104	0	60	43134
2026-01-26 23:54:37.91	202.50	0.89	-45.9	-60.6	3.6	1.51e+00	0	28	104	0	60	43425
2026-01-26 23:54:38.90	202.50	0.83	-45.8	-60.5	3.6	1.51e+00	0	28	104	0	60	43130
2026-01-26 23:54:39.88	202.50	0.76	-45.9	-60.6	3.6	1.51e+00	0	28	104	0	60	43317
2026-01-26 23:54:40.86	202.50	0.70	-45.9	-60.5	3.6	1.51e+00	0	28	104	0	60	43125
2026-01-26 23:54:41.84	202.50	0.63	-45.9	-60.6	3.6	1.51e+00	0	28	104	0	60	43428
2026-01-26 23:54:42.82	202.50	0.57	-45.8	-60.6	3.6	1.51e+00	0	28	104	0	60	43267
2026-01-26 23:54:43.80	202.50	0.50	-45.8	-60.5	3.6	1.51e+00	0	28	104	0	60	43146
2026-01-26 23:54:44.78	202.50	0.44	-45.7	-60.4	3.6	1.51e+00	0	28	104	0	60	42654
2026-01-26 23:54:45.76	202.50	0.37	-45.8	-60.4	3.6	1.51e+00	0	28	104	0	60	42588
2026-01-26 23:54:46.74	202.50	0.31	-45.8	-60.5	3.6	1.51e+00	0	28	104	0	60	43037
2026-01-26 23:54:47.72	202.50	0.24	-45.9	-60.6	3.6	1.51e+00	0	28	104	0	60	43548
2026-01-26 23:54:48.70	202.49	0.18	-45.9	-60.6	3.6	1.51e+00	0	28	104	0	60	43405
2026-01-26 23:54:49.68	202.49	0.12	-45.8	-60.6	3.6	1.51e+00	0	28	104	0	60	43439
2026-01-26 23:54:50.66	202.49	0.05	-45.9	-60.6	3.6	1.51e+00	0	28	104	0	60	43682
2026-01-26 23:54:51.63	202.49	-0.01	-46.0	-60.7	3.6	1.51e+00	0	28	104	0	60	44032
2026-01-26 23:54:52.61	202.49	-0.07	-46.0	-60.7	3.6	1.51e+00	0	28	104	0	60	43757

#Closed at: 2026-01-26 23:54:53
#Recorded file [0 MB]: D:/lorett/data/35029_260127_114323.dat