passes_logs/2026/01/26/R4.6S_Anadyr/R4.6S_Anadyr__20260126_041547_AQUA_rec.log

#Pass ID: 20260126_041547_AQUA
#Satellite: AQUA
#Configuration: AQUA
#almurnet v.1.7.20251203
#Start time: 2026-01-26 04:15:49

#Version: 2.2.20231116
#Station: R4.6S_Anadyr
#Location: 177.4865 lon 64.73178 lat
#TLE: 1 27424U 02022A   26025.50647354  .00001868  00000+0  38363-3 0  9992
#TLE: 2 27424  98.4099 352.1114 0001896  65.7986  47.0097 14.61858879262422

#Time	Az	El	Level	Level2	SNR	BER	BlckErr	Temp	State	Recorded	gain1	gain2
2026-01-26 04:15:49.25	219.72	0.08	-50.7	-62.3	3.5	8.46e-01	0	26	0	0	60	47099
2026-01-26 04:15:50.25	219.81	0.13	-51.1	-69.1	3.5	3.02e+01	0	27	104	0	60	110041
2026-01-26 04:15:51.26	219.89	0.18	-50.7	-69.1	3.4	3.02e+01	0	28	104	0	60	109597
2026-01-26 04:15:52.27	219.98	0.23	-50.4	-68.4	3.5	3.02e+01	0	28	104	0	60	100757
2026-01-26 04:15:53.28	220.06	0.29	-51.5	-69.5	3.5	3.02e+01	0	28	104	0	60	114911
2026-01-26 04:15:54.29	220.15	0.34	-50.5	-68.5	3.5	3.02e+01	0	28	104	0	60	102384
2026-01-26 04:15:55.30	220.24	0.39	-51.0	-69.0	3.5	3.02e+01	0	28	104	0	60	108706
2026-01-26 04:15:56.31	220.32	0.44	-50.5	-68.8	3.4	3.02e+01	0	28	104	0	60	106098
2026-01-26 04:15:57.32	220.41	0.49	-50.9	-68.9	3.5	3.02e+01	0	28	104	0	60	107609
2026-01-26 04:15:58.33	220.50	0.54	-50.4	-68.6	3.5	3.02e+01	0	27	104	0	60	103071
2026-01-26 04:15:59.34	220.58	0.59	-49.9	-67.9	3.5	3.02e+01	0	28	104	0	60	96014
2026-01-26 04:16:00.35	220.67	0.64	-49.9	-67.9	3.5	3.02e+01	0	28	104	0	60	95989
2026-01-26 04:16:01.36	220.76	0.69	-51.0	-69.0	3.5	3.02e+01	0	28	104	0	60	107900
2026-01-26 04:16:02.37	220.85	0.75	-50.8	-68.8	3.5	3.02e+01	0	28	104	0	60	105802
2026-01-26 04:16:03.38	220.94	0.80	-50.8	-68.7	3.5	3.02e+01	0	28	104	0	60	105059
2026-01-26 04:16:04.39	221.03	0.85	-50.8	-68.8	3.5	3.02e+01	0	28	104	0	60	105681
2026-01-26 04:16:05.40	221.12	0.90	-50.5	-68.5	3.5	3.02e+01	0	28	104	0	60	102719
2026-01-26 04:16:06.41	221.21	0.95	-50.5	-68.6	3.5	3.02e+01	0	28	104	0	60	103431
2026-01-26 04:16:07.42	221.30	1.00	-50.4	-68.3	3.5	3.02e+01	0	28	104	0	60	99569
2026-01-26 04:16:08.43	221.39	1.06	-50.7	-68.7	3.5	3.02e+01	0	28	104	0	60	104901
2026-01-26 04:16:09.44	221.48	1.11	-50.4	-68.3	3.5	3.02e+01	0	28	104	0	60	99778
2026-01-26 04:16:10.45	221.57	1.16	-49.7	-67.5	3.5	3.02e+01	0	28	104	0	60	91735
2026-01-26 04:16:11.46	221.66	1.21	-49.4	-67.3	3.5	3.02e+01	0	28	104	0	60	88674
2026-01-26 04:16:12.47	221.75	1.26	-49.1	-67.0	3.5	3.02e+01	0	28	104	0	60	86164
2026-01-26 04:16:13.48	221.85	1.31	-48.1	-66.6	3.5	3.02e+01	0	28	104	0	60	82494
2026-01-26 04:16:14.49	221.94	1.37	-44.5	-65.9	3.5	3.02e+01	0	28	104	0	60	76287
2026-01-26 04:16:15.50	222.03	1.42	-47.3	-65.2	3.5	3.02e+01	0	28	104	0	60	70178
2026-01-26 04:16:16.51	222.13	1.47	-47.3	-65.3	3.5	3.02e+01	0	28	104	0	60	70549
2026-01-26 04:16:17.52	222.22	1.52	-47.5	-65.4	3.5	3.02e+01	0	28	104	0	60	71535
2026-01-26 04:16:18.52	222.31	1.57	-47.6	-65.3	3.5	3.02e+01	0	28	104	0	60	71204
2026-01-26 04:16:19.53	222.41	1.63	-47.4	-65.4	3.5	3.02e+01	0	28	104	0	60	71430
2026-01-26 04:16:20.55	222.50	1.68	-47.4	-65.3	3.5	3.02e+01	0	28	104	0	60	70671
2026-01-26 04:16:21.56	222.60	1.73	-47.4	-65.2	3.5	3.02e+01	0	28	104	0	60	70334
2026-01-26 04:16:22.56	222.69	1.78	-47.3	-65.3	3.5	3.02e+01	0	28	104	0	60	70898
2026-01-26 04:16:23.57	222.79	1.83	-47.5	-65.4	3.5	3.02e+01	0	28	104	0	60	71992
2026-01-26 04:16:24.58	222.88	1.89	-47.2	-65.4	3.5	3.02e+01	0	28	104	0	60	71313
2026-01-26 04:16:25.59	222.98	1.94	-47.5	-65.5	3.5	3.02e+01	0	28	104	0	60	72540
2026-01-26 04:16:26.60	223.08	1.99	-47.5	-65.3	3.5	3.02e+01	0	28	104	0	60	71192
2026-01-26 04:16:27.61	223.17	2.04	-47.3	-65.2	3.5	3.02e+01	0	28	104	0	60	70204
2026-01-26 04:16:28.62	223.27	2.10	-47.4	-65.2	3.5	3.02e+01	0	28	104	0	60	69841
2026-01-26 04:16:29.63	223.37	2.15	-47.5	-65.2	3.5	3.02e+01	0	28	104	0	60	70304
2026-01-26 04:16:30.64	223.47	2.20	-47.4	-65.1	3.5	3.02e+01	0	28	104	0	60	69326
2026-01-26 04:16:31.65	223.57	2.26	-47.3	-64.9	3.5	3.02e+01	0	28	104	0	60	67994
2026-01-26 04:16:32.66	223.67	2.31	-47.3	-65.1	3.5	3.02e+01	0	28	104	0	60	69612
2026-01-26 04:16:33.67	223.77	2.36	-47.3	-65.2	3.5	3.02e+01	0	28	104	0	60	70086
2026-01-26 04:16:34.68	223.87	2.41	-47.3	-65.1	3.5	3.02e+01	0	28	104	0	60	68939
2026-01-26 04:16:35.69	223.97	2.47	-47.3	-64.8	3.5	3.02e+01	0	28	104	0	60	67236
2026-01-26 04:16:36.70	224.07	2.52	-47.3	-64.5	3.5	3.02e+01	0	28	104	0	60	64287
2026-01-26 04:16:37.71	224.17	2.57	-47.3	-64.0	3.5	3.02e+01	0	28	104	0	60	60777
2026-01-26 04:16:38.72	224.27	2.63	-47.2	-62.2	3.6	3.02e+01	0	28	104	0	60	49451
2026-01-26 04:16:39.73	224.37	2.68	-47.1	-58.8	5.5	3.02e+01	16	29	0	0	60	33562
2026-01-26 04:16:40.74	224.47	2.73	-46.8	-55.9	7.6	3.02e+01	92	28	0	1572864	60	23868
2026-01-26 04:16:41.75	224.57	2.79	-46.3	-52.7	12.2	3.02e+01	92	28	0	3145728	60	16679
2026-01-26 04:16:42.76	224.68	2.84	-44.7	-48.8	14.9	3.02e+01	92	28	0	5242880	60	10595
2026-01-26 04:16:43.76	224.78	2.89	-43.8	-47.2	17.9	3.02e+01	92	28	0	7340032	60	8774
2026-01-26 04:16:44.77	224.88	2.94	-44.1	-47.7	17.4	3.02e+01	92	28	0	8912896	60	9302
2026-01-26 04:16:45.78	224.99	3.00	-43.8	-47.0	18.5	3.02e+01	92	29	0	11010048	60	8572
2026-01-26 04:16:46.79	225.09	3.05	-43.8	-47.0	18.0	3.02e+01	92	28	0	12582912	60	8616
2026-01-26 04:16:47.81	225.20	3.11	-43.0	-46.3	18.1	3.02e+01	92	28	0	14680064	60	7924
2026-01-26 04:16:48.82	225.30	3.16	-44.0	-47.7	17.5	3.02e+01	92	28	0	16777216	60	9361
2026-01-26 04:16:49.83	225.41	3.21	-46.9	-54.9	9.5	3.02e+01	90	29	0	18350080	60	21446
2026-01-26 04:16:50.84	225.51	3.27	-46.9	-59.1	6.2	3.02e+01	80	28	104	18874368	60	34711
2026-01-26 04:16:51.85	225.62	3.32	-43.2	-46.6	18.0	3.02e+01	92	29	0	19922944	60	8219
2026-01-26 04:16:52.85	225.73	3.37	-43.2	-48.0	17.1	3.02e+01	92	28	0	21495808	60	9722
2026-01-26 04:16:53.86	225.83	3.43	-42.9	-47.7	17.1	3.02e+01	89	28	0	23592960	60	9307
2026-01-26 04:16:54.87	225.94	3.48	-42.7	-47.7	16.5	3.02e+01	91	28	0	25690112	60	9344
2026-01-26 04:16:55.88	226.05	3.53	-42.6	-47.3	18.2	3.02e+01	90	28	0	27262976	60	8893
2026-01-26 04:16:56.89	226.16	3.59	-42.4	-47.1	18.2	3.02e+01	89	28	0	29360128	60	8692
2026-01-26 04:16:57.90	226.27	3.64	-42.6	-47.6	17.7	3.02e+01	92	28	0	31457280	60	9268
2026-01-26 04:16:58.91	226.38	3.69	-42.4	-47.0	18.6	3.02e+01	90	28	0	33030144	60	8600
2026-01-26 04:16:59.92	226.49	3.75	-42.9	-47.8	18.1	3.02e+01	92	29	0	35127296	58	10545
2026-01-26 04:17:00.93	226.60	3.80	-43.2	-47.9	17.8	3.02e+01	90	29	0	36700160	60	9569
2026-01-26 04:17:01.94	226.71	3.86	-43.4	-48.0	17.3	3.02e+01	90	28	0	38797312	60	9693
2026-01-26 04:17:02.95	226.82	3.91	-44.4	-49.9	15.7	3.02e+01	91	29	0	40894464	60	12002
2026-01-26 04:17:03.96	226.93	3.96	-44.5	-48.6	17.0	3.02e+01	91	28	0	42467328	60	10372
2026-01-26 04:17:04.97	227.04	4.02	-44.1	-47.9	18.0	3.02e+01	90	28	0	44564480	60	9608
2026-01-26 04:17:05.98	227.15	4.07	-44.6	-49.1	17.4	3.02e+01	91	29	0	46137344	60	10995
2026-01-26 04:17:06.98	227.27	4.13	-44.1	-48.2	17.5	3.02e+01	91	28	0	48234496	60	9942
2026-01-26 04:17:07.99	227.38	4.18	-44.4	-48.8	16.7	3.02e+01	90	28	0	50331648	60	10596
2026-01-26 04:17:09.00	227.49	4.24	-44.3	-48.4	17.0	3.02e+01	92	28	0	51904512	60	10102
2026-01-26 04:17:10.01	227.61	4.29	-43.9	-48.0	17.7	3.02e+01	91	29	0	54001664	60	9630
2026-01-26 04:17:11.02	227.72	4.34	-43.5	-47.8	17.8	3.02e+01	92	28	0	56098816	60	9486
2026-01-26 04:17:12.03	227.84	4.40	-43.4	-48.1	17.4	3.02e+01	92	29	0	57671680	60	9754
2026-01-26 04:17:13.04	227.95	4.45	-43.2	-48.3	17.1	3.02e+01	92	28	0	59768832	60	10053
2026-01-26 04:17:14.05	228.07	4.51	-43.2	-49.1	17.0	3.02e+01	91	29	0	61341696	60	10983
2026-01-26 04:17:15.06	228.18	4.56	-42.7	-48.4	17.3	3.02e+01	91	29	0	63438848	60	10096
2026-01-26 04:17:16.07	228.30	4.62	-43.4	-48.6	17.3	3.02e+01	92	28	0	65536000	60	10415
2026-01-26 04:17:17.08	228.42	4.67	-44.1	-48.8	16.6	3.02e+01	90	29	0	67108864	60	10628
2026-01-26 04:17:18.09	228.54	4.72	-44.2	-48.6	17.1	3.02e+01	92	29	0	69206016	60	10356
2026-01-26 04:17:19.10	228.65	4.78	-44.6	-48.7	17.0	3.02e+01	91	28	0	70778880	60	10446
2026-01-26 04:17:20.11	228.77	4.83	-44.8	-48.6	16.7	3.02e+01	91	29	0	72876032	60	10381
2026-01-26 04:17:21.12	228.89	4.89	-45.1	-48.8	16.8	3.02e+01	92	28	0	74973184	60	10644
2026-01-26 04:17:22.13	229.01	4.94	-45.1	-48.8	16.9	3.02e+01	90	29	0	76546048	60	10572
2026-01-26 04:17:23.13	229.13	5.00	-45.5	-49.6	16.4	3.02e+01	92	29	0	78643200	60	11668
2026-01-26 04:17:24.14	229.25	5.05	-45.4	-49.2	16.7	3.02e+01	90	29	0	80216064	60	11131
2026-01-26 04:17:25.15	229.37	5.11	-45.7	-49.9	15.9	3.02e+01	92	29	0	82313216	60	12050
2026-01-26 04:17:26.16	229.49	5.16	-45.0	-50.5	15.2	3.02e+01	92	29	0	84410368	60	12839
2026-01-26 04:17:27.17	229.62	5.22	-45.1	-49.4	16.2	3.02e+01	92	29	0	85983232	60	11367
2026-01-26 04:17:28.18	229.74	5.27	-45.6	-50.4	15.2	3.02e+01	90	29	0	88080384	60	12771
2026-01-26 04:17:29.19	229.86	5.33	-46.1	-51.4	14.9	3.02e+01	91	29	0	89653248	60	14274
2026-01-26 04:17:30.20	229.98	5.38	-46.1	-50.3	15.9	3.02e+01	92	29	0	91750400	60	12606
2026-01-26 04:17:31.21	230.11	5.44	-45.7	-50.8	15.1	3.02e+01	92	29	0	93847552	60	13376
2026-01-26 04:17:32.22	230.23	5.49	-45.6	-50.9	15.0	3.02e+01	86	29	0	95420416	60	13536
2026-01-26 04:17:33.23	230.36	5.55	-46.0	-51.0	15.5	3.02e+01	92	28	0	97517568	60	13593
2026-01-26 04:17:34.24	230.48	5.60	-46.1	-52.0	14.0	3.02e+01	92	29	0	99614720	60	15393
2026-01-26 04:17:35.25	230.61	5.66	-45.5	-51.5	14.5	3.02e+01	92	29	0	101187584	60	14422
2026-01-26 04:17:36.26	230.74	5.71	-45.6	-51.7	13.8	3.02e+01	92	29	0	103284736	60	14747
2026-01-26 04:17:37.26	230.86	5.77	-46.1	-52.3	14.4	3.02e+01	92	29	0	104857600	60	15818
2026-01-26 04:17:38.27	230.99	5.82	-45.8	-50.7	15.6	3.02e+01	90	29	0	106954752	60	13239
2026-01-26 04:17:39.28	231.12	5.88	-45.6	-50.7	15.6	3.02e+01	92	29	0	109051904	60	13136
2026-01-26 04:17:40.29	231.24	5.93	-46.2	-50.3	15.6	3.02e+01	92	29	0	110624768	60	12626
2026-01-26 04:17:41.30	231.37	5.99	-46.3	-50.6	15.7	3.02e+01	92	29	0	112721920	60	12979
2026-01-26 04:17:42.31	231.50	6.04	-46.3	-50.6	15.6	3.02e+01	92	29	0	114294784	60	13029
2026-01-26 04:17:43.32	231.63	6.10	-46.2	-50.7	15.6	3.02e+01	90	29	0	116391936	60	13132
2026-01-26 04:17:44.33	231.76	6.15	-46.0	-50.5	15.8	3.02e+01	92	29	0	118489088	60	12835
2026-01-26 04:17:45.34	231.89	6.21	-46.1	-50.5	15.9	3.02e+01	92	29	0	120061952	60	12946
2026-01-26 04:17:46.35	232.03	6.26	-45.8	-50.4	15.8	3.02e+01	92	29	0	122159104	60	12748
2026-01-26 04:17:47.36	232.16	6.32	-46.0	-50.8	15.5	3.02e+01	92	29	0	123731968	60	13388
2026-01-26 04:17:48.37	232.29	6.37	-45.9	-50.2	16.1	3.02e+01	92	29	0	125829120	60	12498
2026-01-26 04:17:49.38	232.42	6.43	-45.8	-50.3	15.8	3.02e+01	92	29	0	127926272	60	12586
2026-01-26 04:17:50.39	232.56	6.48	-45.8	-50.2	15.9	3.02e+01	91	29	0	129499136	60	12394
2026-01-26 04:17:51.40	232.69	6.54	-45.9	-50.4	15.9	3.02e+01	91	29	0	131596288	60	12807
2026-01-26 04:17:52.41	232.83	6.59	-45.4	-50.0	16.1	3.02e+01	92	29	0	133169152	60	12132
2026-01-26 04:17:53.42	232.96	6.65	-45.3	-50.4	15.4	3.02e+01	90	29	0	135266304	60	12803
2026-01-26 04:17:54.43	233.10	6.70	-45.0	-50.1	15.9	3.02e+01	92	29	0	137363456	60	12309
2026-01-26 04:17:55.44	233.23	6.76	-45.6	-50.4	15.7	3.02e+01	92	29	0	138936320	60	12729
2026-01-26 04:17:56.45	233.37	6.81	-45.5	-50.0	15.5	3.02e+01	91	29	0	141033472	60	12119
2026-01-26 04:17:57.46	233.51	6.87	-46.0	-50.5	15.9	3.02e+01	92	29	0	143130624	60	12959
2026-01-26 04:17:58.47	233.65	6.92	-46.1	-50.3	15.8	3.02e+01	92	29	0	144703488	60	12536
2026-01-26 04:17:59.47	233.78	6.98	-45.9	-50.2	15.7	3.02e+01	92	29	0	146800640	60	12511
2026-01-26 04:18:00.48	233.92	7.03	-46.0	-50.4	15.6	3.02e+01	92	29	0	148373504	60	12711
2026-01-26 04:18:01.49	234.06	7.09	-45.9	-50.3	15.7	3.02e+01	92	29	0	150470656	60	12632
2026-01-26 04:18:02.50	234.20	7.14	-45.9	-50.1	16.0	3.02e+01	92	29	0	152567808	60	12327
2026-01-26 04:18:03.51	234.34	7.20	-45.7	-49.9	16.4	3.02e+01	92	29	0	154140672	60	12019
2026-01-26 04:18:04.52	234.48	7.25	-45.7	-49.9	16.6	3.02e+01	92	29	0	156237824	60	11975
2026-01-26 04:18:05.53	234.63	7.31	-45.8	-50.0	16.5	3.02e+01	91	29	0	157810688	60	12160
2026-01-26 04:18:06.53	234.77	7.36	-45.7	-50.0	16.3	3.02e+01	91	29	0	159907840	60	12203
2026-01-26 04:18:07.54	234.91	7.42	-45.9	-49.9	16.4	3.02e+01	92	29	0	162004992	60	12012
2026-01-26 04:18:08.55	235.05	7.48	-46.0	-50.1	16.4	3.02e+01	91	29	0	163577856	60	12299
2026-01-26 04:18:09.56	235.20	7.53	-45.2	-49.1	17.2	3.02e+01	90	29	0	165675008	60	11009
2026-01-26 04:18:10.57	235.34	7.59	-45.3	-48.9	17.5	3.02e+01	91	29	0	167772160	60	10662
2026-01-26 04:18:11.58	235.49	7.64	-45.9	-49.7	17.2	3.02e+01	92	29	0	169345024	60	11824
2026-01-26 04:18:12.59	235.63	7.70	-45.2	-48.6	17.9	3.02e+01	90	29	0	171442176	60	10417
2026-01-26 04:18:13.60	235.78	7.75	-45.4	-48.8	18.0	3.02e+01	92	29	0	173015040	60	10611
2026-01-26 04:18:14.61	235.93	7.81	-45.5	-48.9	17.7	3.02e+01	92	29	0	175112192	60	10696
2026-01-26 04:18:15.62	236.07	7.86	-45.9	-49.3	18.0	3.02e+01	92	29	0	177209344	60	11267
2026-01-26 04:18:16.63	236.22	7.92	-45.2	-48.3	18.3	3.02e+01	91	29	0	178782208	60	10015
2026-01-26 04:18:17.64	236.37	7.97	-45.3	-48.5	18.5	3.02e+01	92	29	0	180879360	60	10213
2026-01-26 04:18:18.65	236.52	8.03	-45.3	-48.3	18.7	3.02e+01	90	29	0	182452224	60	9991
2026-01-26 04:18:19.66	236.67	8.08	-44.6	-47.6	19.1	3.02e+01	91	29	0	184549376	60	9259
2026-01-26 04:18:20.67	236.82	8.14	-44.6	-47.5	19.3	3.02e+01	91	29	0	186646528	60	9125
2026-01-26 04:18:21.68	236.97	8.19	-44.4	-47.3	19.3	3.02e+01	91	29	0	188219392	60	8870
2026-01-26 04:18:22.69	237.12	8.25	-44.1	-46.8	19.6	3.02e+01	92	29	0	190316544	60	8461
2026-01-26 04:18:23.69	237.27	8.30	-44.2	-46.9	19.4	3.02e+01	92	29	0	191889408	60	8537
2026-01-26 04:18:24.70	237.43	8.36	-44.5	-47.3	19.3	3.02e+01	92	29	0	193986560	60	8903
2026-01-26 04:18:25.71	237.58	8.41	-44.1	-46.7	19.7	3.02e+01	90	29	0	196083712	60	8346
2026-01-26 04:18:26.72	237.74	8.46	-44.0	-46.5	19.8	3.02e+01	92	29	0	197656576	60	8135
2026-01-26 04:18:27.73	237.89	8.52	-44.6	-47.2	20.0	3.02e+01	92	29	0	199753728	60	8783
2026-01-26 04:18:28.74	238.05	8.57	-44.4	-46.9	20.3	3.02e+01	92	29	0	201326592	60	8511
2026-01-26 04:18:29.75	238.20	8.63	-44.2	-46.7	19.7	3.02e+01	92	29	0	203423744	60	8349
2026-01-26 04:18:30.76	238.36	8.68	-44.2	-46.6	20.6	3.02e+01	92	29	0	205520896	60	8196
2026-01-26 04:18:31.77	238.52	8.74	-43.6	-45.8	21.1	3.02e+01	92	29	0	207093760	60	7542
2026-01-26 04:18:32.78	238.67	8.79	-43.2	-45.5	21.0	3.02e+01	92	29	0	209190912	60	7268
2026-01-26 04:18:33.79	238.83	8.85	-43.2	-45.4	21.3	3.02e+01	92	29	0	210763776	60	7197
2026-01-26 04:18:34.80	238.99	8.90	-43.0	-45.2	21.2	3.02e+01	91	29	0	212860928	60	7023
2026-01-26 04:18:35.81	239.15	8.96	-42.9	-45.2	21.2	3.02e+01	92	29	0	214958080	60	6983
2026-01-26 04:18:36.82	239.31	9.01	-42.7	-44.9	21.6	3.02e+01	92	29	0	216530944	60	6757
2026-01-26 04:18:37.83	239.47	9.06	-43.6	-46.0	21.2	3.02e+01	92	29	0	218628096	60	7658
2026-01-26 04:18:38.84	239.63	9.12	-42.4	-44.5	21.8	3.02e+01	92	29	0	220725248	60	6472
2026-01-26 04:18:39.84	239.79	9.17	-42.3	-44.4	22.3	3.02e+01	92	29	0	222298112	60	6370
2026-01-26 04:18:40.85	239.96	9.23	-42.3	-44.3	22.2	3.02e+01	90	29	0	224395264	60	6284
2026-01-26 04:18:41.87	240.12	9.28	-41.6	-43.5	22.8	3.02e+01	89	29	0	225968128	58	6485
2026-01-26 04:18:42.87	240.28	9.34	-41.2	-43.0	23.0	3.02e+01	89	29	0	228065280	58	6091
2026-01-26 04:18:43.88	240.45	9.39	-41.3	-43.1	23.0	3.02e+01	91	29	0	230162432	58	6170
2026-01-26 04:18:44.89	240.61	9.44	-41.6	-43.4	23.3	3.02e+01	92	29	0	231735296	58	6419
2026-01-26 04:18:45.90	240.78	9.50	-41.3	-43.1	23.3	3.02e+01	89	29	0	233832448	58	6162
2026-01-26 04:18:46.91	240.95	9.55	-40.9	-42.6	23.2	3.02e+01	92	29	0	235929600	58	5815
2026-01-26 04:18:47.92	241.11	9.60	-41.0	-42.7	23.9	3.02e+01	91	29	0	237502464	56	6617
2026-01-26 04:18:48.93	241.28	9.66	-40.6	-42.3	24.0	3.02e+01	92	29	0	239599616	56	6342
2026-01-26 04:18:49.94	241.45	9.71	-40.4	-42.1	24.3	3.02e+01	90	29	0	241172480	56	6142
2026-01-26 04:18:50.94	241.62	9.76	-40.3	-41.9	24.7	3.02e+01	92	29	0	243269632	56	5996
2026-01-26 04:18:51.95	241.79	9.82	-39.9	-41.5	24.6	3.02e+01	91	29	0	244842496	54	6455
2026-01-26 04:18:52.97	241.96	9.87	-39.5	-41.0	25.2	3.02e+01	92	29	0	246939648	54	6115
2026-01-26 04:18:53.98	242.13	9.92	-39.3	-40.8	25.4	3.02e+01	92	29	0	249036800	54	5983
2026-01-26 04:18:54.99	242.30	9.98	-39.5	-41.0	25.5	3.02e+01	90	29	0	250609664	54	6087
2026-01-26 04:18:56.00	242.48	10.03	-39.3	-40.8	25.7	3.02e+01	95	29	0	252706816	54	5927
2026-01-26 04:18:57.01	242.65	10.08	-39.2	-40.7	25.8	3.02e+01	92	29	0	254279680	52	6637
2026-01-26 04:18:58.02	242.82	10.14	-39.2	-40.7	25.6	3.02e+01	90	29	0	256376832	52	6597
2026-01-26 04:18:59.03	243.00	10.19	-38.9	-40.4	26.1	3.02e+01	92	29	0	258473984	52	6365
2026-01-26 04:19:00.03	243.17	10.24	-39.0	-40.4	25.9	3.02e+01	92	29	0	260046848	52	6407
2026-01-26 04:19:01.04	243.35	10.29	-38.9	-40.3	26.4	3.02e+01	90	29	0	262144000	52	6342
2026-01-26 04:19:02.05	243.52	10.35	-38.7	-40.1	26.5	3.02e+01	92	29	0	264241152	52	6201
2026-01-26 04:19:03.06	243.70	10.40	-38.9	-40.3	25.8	3.02e+01	92	29	0	265814016	52	6333
2026-01-26 04:19:04.07	243.88	10.45	-38.6	-40.0	26.6	3.02e+01	90	29	0	267911168	52	6119
2026-01-26 04:19:05.09	244.06	10.50	-38.1	-39.4	27.2	3.02e+01	92	29	0	269484032	52	5709
2026-01-26 04:19:06.09	244.24	10.56	-38.1	-39.5	26.9	3.02e+01	92	29	0	271581184	50	6451
2026-01-26 04:19:07.10	244.42	10.61	-38.6	-40.0	26.7	3.02e+01	92	29	0	273678336	50	6877
2026-01-26 04:19:08.11	244.60	10.66	-38.4	-39.8	27.0	3.02e+01	92	28	0	275251200	50	6705
2026-01-26 04:19:09.12	244.78	10.71	-40.0	-41.4	25.8	3.02e+01	91	29	0	277348352	50	8065
2026-01-26 04:19:10.13	244.96	10.76	-38.5	-39.9	26.9	3.02e+01	90	29	0	278921216	52	6022
2026-01-26 04:19:11.14	245.14	10.81	-38.0	-39.3	27.5	3.02e+01	91	29	0	281018368	50	6308
2026-01-26 04:19:12.15	245.32	10.87	-37.6	-38.9	27.6	3.02e+01	90	29	0	283115520	50	5999
2026-01-26 04:19:13.16	245.51	10.92	-37.3	-38.6	27.6	3.02e+01	90	29	0	284688384	50	5828
2026-01-26 04:19:14.17	245.69	10.97	-37.6	-38.9	27.6	3.02e+01	92	29	0	286785536	50	6037
2026-01-26 04:19:15.18	245.88	11.02	-37.6	-39.0	27.7	3.02e+01	92	29	0	288882688	50	6067
2026-01-26 04:19:16.19	246.06	11.07	-37.0	-38.3	27.9	3.02e+01	92	29	0	290455552	50	5616
2026-01-26 04:19:17.20	246.25	11.12	-37.0	-38.3	28.1	3.02e+01	90	29	0	292552704	48	6312
2026-01-26 04:19:18.21	246.44	11.17	-37.0	-38.2	28.0	3.02e+01	90	29	0	294125568	48	6272
2026-01-26 04:19:19.22	246.62	11.22	-37.0	-38.3	28.0	3.02e+01	92	29	0	296222720	48	6300
2026-01-26 04:19:20.23	246.81	11.27	-37.2	-38.5	27.9	3.02e+01	92	29	0	298319872	48	6476
2026-01-26 04:19:21.24	247.00	11.32	-37.8	-39.1	27.9	3.02e+01	92	29	0	299892736	48	6935
2026-01-26 04:19:22.25	247.19	11.37	-37.8	-39.1	27.7	3.02e+01	92	29	0	301989888	48	6947
2026-01-26 04:19:23.26	247.38	11.42	-37.8	-39.1	27.8	3.02e+01	92	29	0	303562752	50	6172
2026-01-26 04:19:24.26	247.57	11.47	-37.0	-38.2	28.3	3.02e+01	92	28	0	305659904	50	5582
2026-01-26 04:19:25.27	247.76	11.52	-37.0	-38.3	28.4	3.02e+01	92	29	0	307757056	48	6284
2026-01-26 04:19:26.28	247.96	11.57	-37.0	-38.2	28.2	3.02e+01	92	29	0	309329920	48	6277
2026-01-26 04:19:27.29	248.15	11.62	-36.7	-38.0	28.3	3.02e+01	92	29	0	311427072	48	6112
2026-01-26 04:19:28.30	248.34	11.67	-37.3	-38.6	28.0	3.02e+01	92	29	0	312999936	48	6516
2026-01-26 04:19:29.31	248.54	11.72	-36.5	-37.8	28.6	3.02e+01	92	29	0	315097088	48	5939
2026-01-26 04:19:30.31	248.73	11.76	-36.3	-37.6	28.6	3.02e+01	92	29	0	317194240	48	5804
2026-01-26 04:19:31.32	248.93	11.81	-36.3	-37.6	28.7	3.02e+01	92	29	0	318767104	48	5800
2026-01-26 04:19:32.33	249.12	11.86	-36.5	-37.7	28.5	3.02e+01	92	29	0	320864256	48	5903
2026-01-26 04:19:33.34	249.32	11.91	-36.5	-37.8	28.5	3.02e+01	87	29	0	322437120	48	5933
2026-01-26 04:19:34.35	249.52	11.96	-36.5	-37.8	28.3	3.02e+01	92	29	0	324534272	48	5953
2026-01-26 04:19:35.36	249.72	12.00	-37.2	-38.5	28.0	3.02e+01	92	29	0	326631424	48	6476
2026-01-26 04:19:36.36	249.91	12.05	-37.2	-38.5	28.1	3.02e+01	90	29	0	328204288	48	6488
2026-01-26 04:19:37.37	250.11	12.10	-37.2	-38.5	27.6	3.02e+01	92	29	0	330301440	48	6459
2026-01-26 04:19:38.38	250.32	12.15	-36.9	-38.2	28.2	3.02e+01	92	29	0	332398592	48	6216
2026-01-26 04:19:39.39	250.52	12.19	-37.1	-38.4	28.4	3.02e+01	95	29	0	333971456	48	6377
2026-01-26 04:19:40.40	250.72	12.24	-37.2	-38.4	28.4	3.02e+01	92	29	0	336068608	48	6400
2026-01-26 04:19:41.41	250.92	12.29	-36.8	-38.1	28.6	3.02e+01	92	29	0	337641472	48	6164
2026-01-26 04:19:42.42	251.12	12.33	-37.2	-38.4	28.6	3.02e+01	91	29	0	339738624	48	6378
2026-01-26 04:19:43.43	251.33	12.38	-37.6	-38.9	27.9	3.02e+01	92	29	0	341835776	50	6044
2026-01-26 04:19:44.44	251.53	12.42	-36.9	-38.2	28.5	3.02e+01	91	29	0	343408640	48	6239
2026-01-26 04:19:45.45	251.74	12.47	-36.6	-37.8	28.7	3.02e+01	92	29	0	345505792	48	5966
2026-01-26 04:19:46.46	251.94	12.52	-37.2	-38.4	28.3	3.02e+01	91	29	0	347078656	48	6388
2026-01-26 04:19:47.47	252.15	12.56	-36.6	-37.9	28.7	3.02e+01	92	29	0	349175808	48	6000
2026-01-26 04:19:48.48	252.36	12.61	-36.8	-38.1	28.4	3.02e+01	92	29	0	351272960	48	6156
2026-01-26 04:19:49.49	252.57	12.65	-37.3	-38.6	28.0	3.02e+01	92	29	0	352845824	48	6520
2026-01-26 04:19:50.50	252.77	12.69	-37.1	-38.4	28.1	3.02e+01	92	29	0	354942976	48	6366
2026-01-26 04:19:51.50	252.98	12.74	-37.0	-38.3	28.1	3.02e+01	92	29	0	356515840	48	6297
2026-01-26 04:19:52.51	253.19	12.78	-37.0	-38.2	28.5	3.02e+01	92	29	0	358612992	48	6270
2026-01-26 04:19:53.52	253.40	12.83	-36.7	-38.0	28.4	3.02e+01	90	29	0	360710144	48	6096
2026-01-26 04:19:54.53	253.61	12.87	-37.2	-38.5	28.6	3.02e+01	92	29	0	362283008	48	6472
2026-01-26 04:19:55.54	253.82	12.91	-36.8	-38.0	28.4	3.02e+01	88	29	0	364380160	48	6125
2026-01-26 04:19:56.55	254.04	12.96	-36.6	-37.9	28.7	3.02e+01	92	29	0	365953024	48	6007
2026-01-26 04:19:57.56	254.25	13.00	-36.5	-37.7	28.8	3.02e+01	88	29	0	368050176	48	5899
2026-01-26 04:19:58.57	254.46	13.04	-36.7	-38.0	28.6	3.02e+01	91	29	0	370147328	48	6091
2026-01-26 04:19:59.59	254.68	13.08	-36.9	-38.1	28.5	3.02e+01	92	29	0	371720192	48	6192
2026-01-26 04:20:00.60	254.89	13.13	-36.3	-37.6	28.6	3.02e+01	91	29	0	373817344	48	5803
2026-01-26 04:20:01.61	255.11	13.17	-36.2	-37.4	28.8	3.02e+01	91	29	0	375390208	48	5692
2026-01-26 04:20:02.61	255.32	13.21	-36.1	-37.4	28.8	3.02e+01	92	29	0	377487360	48	5661
2026-01-26 04:20:03.62	255.54	13.25	-36.2	-37.4	28.7	3.02e+01	92	29	0	379584512	48	5722
2026-01-26 04:20:04.63	255.76	13.29	-36.0	-37.2	28.9	3.02e+01	92	29	0	381157376	48	5589
2026-01-26 04:20:05.64	255.98	13.33	-36.1	-37.4	28.8	3.02e+01	92	29	0	383254528	48	5671
2026-01-26 04:20:06.65	256.20	13.37	-36.4	-37.6	28.6	3.02e+01	91	29	0	385351680	48	5846
2026-01-26 04:20:07.66	256.42	13.41	-36.6	-37.8	28.7	3.02e+01	91	29	0	386924544	48	5960
2026-01-26 04:20:08.67	256.64	13.45	-36.4	-37.7	28.2	3.02e+01	90	29	0	389021696	48	5879
2026-01-26 04:20:09.68	256.86	13.49	-36.8	-38.1	28.2	3.02e+01	92	29	0	390594560	48	6154
2026-01-26 04:20:10.69	257.08	13.53	-37.2	-38.5	28.4	3.02e+01	92	29	0	392691712	48	6442
2026-01-26 04:20:11.70	257.30	13.57	-36.5	-37.7	28.7	3.02e+01	92	29	0	394788864	48	5910
2026-01-26 04:20:12.71	257.52	13.61	-36.6	-37.9	28.9	3.02e+01	92	29	0	396361728	48	6000
2026-01-26 04:20:13.72	257.74	13.64	-37.0	-38.2	27.9	3.02e+01	91	29	0	398458880	48	6256
2026-01-26 04:20:14.73	257.97	13.68	-37.9	-39.2	28.0	3.02e+01	91	29	0	400556032	48	7038
2026-01-26 04:20:15.74	258.19	13.72	-37.4	-38.6	28.6	3.02e+01	91	29	0	402128896	50	5854
2026-01-26 04:20:16.75	258.42	13.76	-36.8	-38.0	28.4	3.02e+01	91	29	0	404226048	48	6133
2026-01-26 04:20:17.76	258.64	13.79	-36.7	-38.0	28.8	3.02e+01	91	29	0	405798912	48	6074
2026-01-26 04:20:18.77	258.87	13.83	-36.6	-37.9	28.7	3.02e+01	92	29	0	407896064	48	6001
2026-01-26 04:20:19.78	259.09	13.87	-36.4	-37.7	28.8	3.02e+01	92	29	0	409993216	48	5880
2026-01-26 04:20:20.79	259.32	13.90	-36.2	-37.4	29.0	3.02e+01	90	29	0	411566080	48	5674
2026-01-26 04:20:21.80	259.55	13.94	-36.7	-37.9	28.5	3.02e+01	91	29	0	413663232	48	6039
2026-01-26 04:20:22.81	259.78	13.97	-36.5	-37.8	28.7	3.02e+01	92	28	0	415236096	48	5932
2026-01-26 04:20:23.82	260.01	14.01	-36.3	-37.6	28.8	3.02e+01	92	29	0	417333248	48	5803
2026-01-26 04:20:24.82	260.23	14.04	-36.3	-37.5	28.9	3.02e+01	91	29	0	419430400	48	5747
2026-01-26 04:20:25.83	260.46	14.08	-36.0	-37.2	29.1	3.02e+01	90	29	0	421003264	46	6272
2026-01-26 04:20:26.84	260.69	14.11	-36.0	-37.2	28.9	3.02e+01	90	29	0	423100416	46	6262
2026-01-26 04:20:27.85	260.92	14.14	-36.0	-37.2	29.0	3.02e+01	92	29	0	424673280	46	6239
2026-01-26 04:20:28.86	261.16	14.18	-36.1	-37.3	29.1	3.02e+01	90	29	0	426770432	46	6298
2026-01-26 04:20:29.87	261.39	14.21	-36.0	-37.2	29.2	3.02e+01	91	29	0	428867584	46	6238
2026-01-26 04:20:30.88	261.62	14.24	-36.2	-37.4	29.0	3.02e+01	90	29	0	430440448	46	6411
2026-01-26 04:20:31.89	261.85	14.27	-36.2	-37.5	28.9	3.02e+01	91	29	0	432537600	46	6443
2026-01-26 04:20:32.90	262.09	14.31	-35.9	-37.2	29.1	3.02e+01	91	29	0	434110464	46	6214
2026-01-26 04:20:33.91	262.32	14.34	-35.8	-37.0	29.3	3.02e+01	92	29	0	436207616	46	6113
2026-01-26 04:20:34.92	262.56	14.37	-36.0	-37.2	28.9	3.02e+01	92	29	0	438304768	46	6267
2026-01-26 04:20:35.93	262.79	14.40	-35.9	-37.1	29.1	3.02e+01	92	29	0	439877632	46	6185
2026-01-26 04:20:36.94	263.03	14.43	-36.1	-37.3	28.9	3.02e+01	92	29	0	441974784	46	6327
2026-01-26 04:20:37.95	263.26	14.46	-36.0	-37.2	29.1	3.02e+01	90	29	0	443547648	46	6241
2026-01-26 04:20:38.96	263.50	14.49	-36.1	-37.3	29.2	3.02e+01	92	29	0	445644800	46	6284
2026-01-26 04:20:39.96	263.73	14.52	-36.6	-37.8	28.8	3.02e+01	92	29	0	447741952	46	6707
2026-01-26 04:20:40.97	263.97	14.54	-36.3	-37.5	29.0	3.02e+01	92	29	0	449314816	48	5772
2026-01-26 04:20:41.98	264.21	14.57	-36.4	-37.6	28.8	3.02e+01	92	29	0	451411968	48	5834
2026-01-26 04:20:42.99	264.45	14.60	-37.4	-38.6	28.9	3.02e+01	92	29	0	453509120	48	6567
2026-01-26 04:20:44.00	264.69	14.63	-36.7	-37.9	28.6	3.02e+01	92	29	0	455081984	48	6059
2026-01-26 04:20:45.01	264.93	14.65	-37.2	-38.5	28.7	3.02e+01	92	29	0	457179136	48	6446
2026-01-26 04:20:46.02	265.17	14.68	-37.1	-38.3	28.4	3.02e+01	92	29	0	458752000	48	6345
2026-01-26 04:20:47.03	265.41	14.71	-37.0	-38.2	28.5	3.02e+01	92	29	0	460849152	48	6273
2026-01-26 04:20:48.04	265.65	14.73	-36.2	-37.4	28.8	3.02e+01	91	29	0	462946304	48	5716
2026-01-26 04:20:49.05	265.89	14.76	-36.0	-37.2	28.7	3.02e+01	90	29	0	464519168	48	5591
2026-01-26 04:20:50.06	266.13	14.78	-36.0	-37.2	28.9	3.02e+01	91	29	0	466616320	48	5577
2026-01-26 04:20:51.07	266.37	14.81	-36.1	-37.3	28.8	3.02e+01	92	29	0	468713472	46	6317
2026-01-26 04:20:52.08	266.61	14.83	-36.3	-37.5	28.8	3.02e+01	92	29	0	470286336	46	6481
2026-01-26 04:20:53.09	266.86	14.86	-36.0	-37.2	28.9	3.02e+01	90	29	0	472383488	46	6222
2026-01-26 04:20:54.10	267.10	14.88	-36.0	-37.2	29.1	3.02e+01	90	29	0	473956352	46	6246
2026-01-26 04:20:55.11	267.34	14.90	-35.8	-37.0	29.2	3.02e+01	92	29	0	476053504	46	6090
2026-01-26 04:20:56.11	267.58	14.92	-35.7	-36.9	29.3	3.02e+01	89	29	0	478150656	46	6045
2026-01-26 04:20:57.12	267.83	14.94	-35.8	-37.0	29.3	3.02e+01	91	29	0	479723520	46	6075
2026-01-26 04:20:58.13	268.07	14.97	-35.8	-37.1	29.1	3.02e+01	90	29	0	481820672	46	6140
2026-01-26 04:20:59.15	268.32	14.99	-35.9	-37.1	29.0	3.02e+01	92	29	0	483393536	46	6199
2026-01-26 04:21:00.15	268.56	15.01	-35.8	-37.0	29.2	3.02e+01	92	29	0	485490688	46	6100
2026-01-26 04:21:01.16	268.81	15.03	-36.0	-37.2	29.1	3.02e+01	92	29	0	487587840	46	6248
2026-01-26 04:21:02.17	269.05	15.05	-36.0	-37.2	29.0	3.02e+01	90	29	0	489160704	46	6254
2026-01-26 04:21:03.18	269.30	15.07	-35.9	-37.1	29.1	3.02e+01	92	29	0	491257856	46	6168
2026-01-26 04:21:04.19	269.55	15.08	-36.2	-37.4	28.5	3.02e+01	92	29	0	492830720	46	6414
2026-01-26 04:21:05.20	269.79	15.10	-36.5	-37.7	28.9	3.02e+01	90	29	0	494927872	46	6604
2026-01-26 04:21:06.21	270.04	15.12	-36.5	-37.7	28.8	3.02e+01	92	29	0	497025024	48	5896
2026-01-26 04:21:07.22	270.29	15.14	-36.1	-37.3	29.1	3.02e+01	92	29	0	498597888	48	5650
2026-01-26 04:21:08.23	270.54	15.15	-36.8	-38.0	28.7	3.02e+01	90	29	0	500695040	46	6877
2026-01-26 04:21:09.24	270.79	15.17	-36.7	-38.0	28.5	3.02e+01	92	29	0	502267904	46	6831
2026-01-26 04:21:10.25	271.03	15.19	-37.0	-38.3	28.4	3.02e+01	90	29	0	504365056	48	6302
2026-01-26 04:21:11.26	271.28	15.20	-36.6	-37.9	29.1	3.02e+01	90	29	0	506462208	48	5998
2026-01-26 04:21:12.27	271.53	15.22	-36.1	-37.3	29.2	3.02e+01	90	29	0	508035072	48	5637
2026-01-26 04:21:13.28	271.78	15.23	-36.1	-37.3	29.2	3.02e+01	92	29	0	510132224	48	5615
2026-01-26 04:21:14.29	272.03	15.25	-36.1	-37.3	28.9	3.02e+01	92	29	0	511705088	46	6343
2026-01-26 04:21:15.29	272.28	15.26	-36.2	-37.5	28.9	3.02e+01	90	29	0	513802240	46	6438
2026-01-26 04:21:16.30	272.53	15.27	-36.7	-38.0	28.4	3.02e+01	92	29	0	515899392	46	6843
2026-01-26 04:21:17.31	272.78	15.28	-36.2	-37.4	28.6	3.02e+01	92	29	0	517472256	46	6368
2026-01-26 04:21:18.32	273.03	15.30	-36.7	-38.0	28.7	3.02e+01	92	29	0	519569408	46	6820
2026-01-26 04:21:19.33	273.28	15.31	-36.0	-37.2	28.9	3.02e+01	92	29	0	521666560	46	6252
2026-01-26 04:21:20.34	273.53	15.32	-35.9	-37.1	29.1	3.02e+01	92	29	0	523239424	46	6162
2026-01-26 04:21:21.35	273.78	15.33	-35.8	-37.0	29.2	3.02e+01	92	29	0	525336576	46	6078
2026-01-26 04:21:22.36	274.03	15.34	-36.0	-37.2	29.2	3.02e+01	92	29	0	526909440	46	6253
2026-01-26 04:21:23.37	274.28	15.35	-35.9	-37.1	29.3	3.02e+01	92	29	0	529006592	46	6170
2026-01-26 04:21:24.38	274.53	15.36	-36.0	-37.2	29.1	3.02e+01	92	29	0	531103744	46	6265
2026-01-26 04:21:25.39	274.78	15.37	-35.9	-37.1	29.1	3.02e+01	92	29	0	532676608	46	6198
2026-01-26 04:21:26.39	275.03	15.37	-35.9	-37.1	29.1	3.02e+01	91	29	0	534773760	46	6202
2026-01-26 04:21:27.40	275.28	15.38	-35.7	-36.9	29.4	3.02e+01	92	29	0	536346624	46	6009
2026-01-26 04:21:28.41	275.54	15.39	-35.7	-36.9	29.4	3.02e+01	92	29	0	538443776	46	6059
2026-01-26 04:21:29.42	275.79	15.40	-36.0	-37.2	29.1	3.02e+01	92	29	0	540540928	46	6272
2026-01-26 04:21:30.43	276.04	15.40	-35.7	-36.9	29.3	3.02e+01	92	29	0	542113792	46	6063
2026-01-26 04:21:31.44	276.29	15.41	-35.9	-37.1	29.3	3.02e+01	89	29	0	544210944	46	6202
2026-01-26 04:21:32.45	276.54	15.41	-35.9	-37.1	29.2	3.02e+01	91	29	0	545783808	46	6191
2026-01-26 04:21:33.46	276.80	15.42	-35.9	-37.1	29.2	3.02e+01	90	29	0	547880960	46	6168
2026-01-26 04:21:34.47	277.05	15.42	-36.3	-37.5	28.9	3.02e+01	92	29	0	549978112	46	6482
2026-01-26 04:21:35.48	277.30	15.43	-35.7	-37.0	29.2	3.02e+01	92	29	0	551550976	46	6066
2026-01-26 04:21:36.49	277.55	15.43	-36.0	-37.2	29.1	3.02e+01	91	29	0	553648128	46	6224
2026-01-26 04:21:37.50	277.81	15.43	-35.9	-37.2	29.1	3.02e+01	85	29	0	555220992	46	6215
2026-01-26 04:21:38.50	278.06	15.43	-36.2	-37.4	28.8	3.02e+01	92	29	0	557318144	46	6407
2026-01-26 04:21:39.51	278.31	15.44	-36.0	-37.2	29.0	3.02e+01	92	29	0	559415296	46	6268
2026-01-26 04:21:40.52	278.56	15.44	-35.8	-37.0	29.0	3.02e+01	92	29	0	560988160	46	6094
2026-01-26 04:21:41.53	278.82	15.44	-36.1	-37.3	28.9	3.02e+01	92	29	0	563085312	46	6286
2026-01-26 04:21:42.54	279.07	15.44	-35.8	-37.0	29.0	3.02e+01	92	29	0	565182464	46	6104
2026-01-26 04:21:43.55	279.32	15.44	-36.1	-37.4	28.8	3.02e+01	91	29	0	566755328	46	6363
2026-01-26 04:21:44.56	279.57	15.44	-36.1	-37.3	28.8	3.02e+01	92	29	0	568852480	46	6342
2026-01-26 04:21:45.57	279.83	15.44	-36.2	-37.4	29.1	3.02e+01	90	29	0	570425344	46	6388
2026-01-26 04:21:46.58	280.08	15.43	-36.0	-37.2	29.0	3.02e+01	91	29	0	572522496	46	6230
2026-01-26 04:21:47.59	280.33	15.43	-36.4	-37.6	29.0	3.02e+01	92	29	0	574619648	46	6547
2026-01-26 04:21:48.60	280.58	15.43	-36.3	-37.5	29.1	3.02e+01	91	29	0	576192512	46	6453
2026-01-26 04:21:49.61	280.84	15.42	-35.8	-37.0	29.3	3.02e+01	91	29	0	578289664	46	6108
2026-01-26 04:21:50.61	281.09	15.42	-35.6	-36.8	29.4	3.02e+01	92	29	0	579862528	46	5955
2026-01-26 04:21:51.62	281.34	15.42	-35.8	-37.0	29.3	3.02e+01	91	29	0	581959680	46	6083
2026-01-26 04:21:52.63	281.59	15.41	-35.8	-37.0	29.2	3.02e+01	92	29	0	584056832	46	6085
2026-01-26 04:21:53.64	281.84	15.41	-35.9	-37.1	29.1	3.02e+01	91	29	0	585629696	46	6191
2026-01-26 04:21:54.65	282.09	15.40	-36.2	-37.4	28.7	3.02e+01	92	29	0	587726848	46	6390
2026-01-26 04:21:55.66	282.35	15.39	-36.0	-37.2	28.8	3.02e+01	92	29	0	589824000	46	6249
2026-01-26 04:21:56.67	282.60	15.39	-35.7	-36.9	29.1	3.02e+01	87	29	0	591396864	46	6025
2026-01-26 04:21:57.68	282.85	15.38	-35.5	-36.7	29.0	3.02e+01	92	29	0	593494016	46	5908
2026-01-26 04:21:58.69	283.10	15.37	-35.8	-37.0	28.9	3.02e+01	92	29	0	595066880	46	6117
2026-01-26 04:21:59.70	283.35	15.36	-36.1	-37.3	28.9	3.02e+01	90	29	0	597164032	46	6350
2026-01-26 04:22:00.71	283.60	15.36	-35.8	-37.1	29.0	3.02e+01	92	29	0	598736896	46	6138
2026-01-26 04:22:01.72	283.86	15.35	-35.9	-37.1	29.2	3.02e+01	92	29	0	600834048	46	6176
2026-01-26 04:22:02.72	284.10	15.34	-35.7	-36.9	29.3	3.02e+01	90	29	0	602931200	46	6045
2026-01-26 04:22:03.73	284.35	15.33	-35.9	-37.2	29.3	3.02e+01	92	29	0	604504064	46	6214
2026-01-26 04:22:04.74	284.60	15.32	-36.1	-37.3	29.0	3.02e+01	92	29	0	606601216	46	6339
2026-01-26 04:22:05.75	284.86	15.30	-36.2	-37.5	29.2	3.02e+01	92	29	0	608174080	46	6440
2026-01-26 04:22:06.76	285.11	15.29	-36.0	-37.2	29.3	3.02e+01	90	29	0	610271232	46	6223
2026-01-26 04:22:07.77	285.36	15.28	-36.0	-37.2	29.3	3.02e+01	90	29	0	612368384	46	6225
2026-01-26 04:22:08.78	285.60	15.27	-36.2	-37.4	29.2	3.02e+01	92	29	0	613941248	46	6412
2026-01-26 04:22:09.79	285.85	15.26	-36.1	-37.3	29.0	3.02e+01	90	29	0	616038400	46	6348
2026-01-26 04:22:10.80	286.10	15.24	-36.2	-37.4	29.2	3.02e+01	92	29	0	618135552	46	6419
2026-01-26 04:22:11.81	286.35	15.23	-36.2	-37.5	29.3	3.02e+01	92	29	0	619708416	46	6432
2026-01-26 04:22:12.82	286.60	15.21	-36.0	-37.2	29.2	3.02e+01	92	29	0	621805568	46	6260
2026-01-26 04:22:13.83	286.85	15.20	-37.0	-38.2	28.7	3.02e+01	92	29	0	623378432	46	7010
2026-01-26 04:22:14.84	287.10	15.18	-36.2	-37.5	28.9	3.02e+01	91	29	0	625475584	48	5739
2026-01-26 04:22:15.85	287.35	15.17	-36.5	-37.8	28.6	3.02e+01	87	29	0	627572736	48	5935
2026-01-26 04:22:16.86	287.59	15.15	-36.2	-37.5	28.9	3.02e+01	91	29	0	629145600	48	5728
2026-01-26 04:22:17.87	287.84	15.13	-36.3	-37.5	29.0	3.02e+01	89	29	0	631242752	48	5748
2026-01-26 04:22:18.88	288.09	15.12	-36.0	-37.2	29.3	3.02e+01	90	29	0	633339904	46	6226
2026-01-26 04:22:19.89	288.33	15.10	-36.1	-37.3	29.0	3.02e+01	90	29	0	634912768	46	6295
2026-01-26 04:22:20.90	288.58	15.08	-36.6	-37.8	29.0	3.02e+01	92	29	0	637009920	46	6719
2026-01-26 04:22:21.91	288.83	15.06	-36.4	-37.6	28.7	3.02e+01	92	29	0	638582784	46	6562
2026-01-26 04:22:22.92	289.07	15.04	-36.3	-37.6	28.9	3.02e+01	91	29	0	640679936	46	6503
2026-01-26 04:22:23.93	289.32	15.02	-36.4	-37.6	28.9	3.02e+01	91	29	0	642777088	48	5837
2026-01-26 04:22:24.94	289.56	15.00	-36.4	-37.6	29.1	3.02e+01	91	29	0	644349952	48	5840
2026-01-26 04:22:25.95	289.81	14.98	-36.9	-38.1	28.5	3.02e+01	92	29	0	646447104	48	6156
2026-01-26 04:22:26.96	290.05	14.96	-36.9	-38.1	27.8	3.02e+01	92	29	0	648019968	48	6187
2026-01-26 04:22:27.96	290.29	14.94	-37.8	-39.0	27.5	3.02e+01	92	29	0	650117120	48	6881
2026-01-26 04:22:28.97	290.54	14.92	-37.2	-38.4	27.9	3.02e+01	92	29	0	652214272	48	6406
2026-01-26 04:22:29.98	290.78	14.90	-36.6	-37.8	28.3	3.02e+01	92	29	0	653787136	48	5967
2026-01-26 04:22:30.99	291.02	14.87	-37.2	-38.5	28.7	3.02e+01	92	29	0	655884288	50	5745
2026-01-26 04:22:32.00	291.26	14.85	-37.4	-38.7	27.8	3.02e+01	90	29	0	657457152	50	5875
2026-01-26 04:22:33.01	291.51	14.83	-37.9	-39.2	27.7	3.02e+01	91	29	0	659554304	50	6211
2026-01-26 04:22:34.02	291.75	14.80	-36.9	-38.2	28.6	3.02e+01	92	29	0	661651456	48	6230
2026-01-26 04:22:35.03	291.99	14.78	-36.7	-38.0	28.7	3.02e+01	88	29	0	663224320	48	6075
2026-01-26 04:22:36.04	292.23	14.75	-37.1	-38.4	28.8	3.02e+01	92	29	0	665321472	48	6360
2026-01-26 04:22:37.05	292.47	14.73	-37.3	-38.5	28.5	3.02e+01	90	29	0	666894336	48	6493
2026-01-26 04:22:38.06	292.71	14.70	-37.1	-38.3	28.7	3.02e+01	89	29	0	668991488	48	6332
2026-01-26 04:22:39.06	292.95	14.68	-37.5	-38.7	28.1	3.02e+01	89	29	0	671088640	48	6642
2026-01-26 04:22:40.08	293.19	14.65	-37.4	-38.6	28.3	3.02e+01	91	29	0	672661504	50	5856
2026-01-26 04:22:41.09	293.43	14.62	-37.6	-38.9	28.0	3.02e+01	89	29	0	674758656	50	6055
2026-01-26 04:22:42.10	293.67	14.60	-37.3	-38.5	28.0	3.02e+01	92	29	0	676331520	50	5763
2026-01-26 04:22:43.11	293.90	14.57	-37.7	-39.0	28.3	3.02e+01	90	29	0	678428672	50	6089
2026-01-26 04:22:44.12	294.14	14.54	-37.2	-38.5	27.8	3.02e+01	92	29	0	680525824	50	5739
2026-01-26 04:22:45.13	294.38	14.51	-36.8	-38.0	28.5	3.02e+01	92	29	0	682098688	50	5445
2026-01-26 04:22:46.14	294.61	14.48	-37.6	-38.8	28.3	3.02e+01	88	29	0	684195840	50	5979
2026-01-26 04:22:47.15	294.85	14.45	-38.6	-39.9	27.5	3.02e+01	92	29	0	686292992	50	6768
2026-01-26 04:22:48.16	295.08	14.42	-37.8	-39.1	27.8	3.02e+01	92	29	0	687865856	50	6155
2026-01-26 04:22:49.17	295.32	14.39	-39.1	-40.5	26.6	3.02e+01	92	29	0	689963008	50	7228
2026-01-26 04:22:50.18	295.55	14.36	-37.8	-39.1	27.0	3.02e+01	92	29	0	691535872	50	6195
2026-01-26 04:22:51.19	295.79	14.33	-38.8	-40.1	27.2	3.02e+01	92	29	0	693633024	50	6938
2026-01-26 04:22:52.20	296.02	14.30	-36.7	-38.0	27.9	3.02e+01	92	29	0	695730176	48	6078
2026-01-26 04:22:53.21	296.25	14.27	-38.1	-39.4	27.8	3.02e+01	92	29	0	697303040	50	6411
2026-01-26 04:22:54.21	296.48	14.24	-37.3	-38.5	27.9	3.02e+01	92	29	0	699400192	48	6463
2026-01-26 04:22:55.22	296.71	14.21	-38.1	-39.4	27.5	3.02e+01	92	29	0	701497344	48	7164
2026-01-26 04:22:56.23	296.95	14.17	-38.7	-40.1	26.8	3.02e+01	91	29	0	703070208	50	6909
2026-01-26 04:22:57.24	297.18	14.14	-38.4	-39.7	27.7	3.02e+01	91	29	0	705167360	50	6633
2026-01-26 04:22:58.25	297.41	14.11	-38.3	-39.6	27.2	3.02e+01	91	29	0	706740224	50	6532
2026-01-26 04:22:59.26	297.64	14.07	-38.3	-39.6	27.4	3.02e+01	90	29	0	708837376	52	5813
2026-01-26 04:23:00.27	297.86	14.04	-38.7	-40.0	27.8	3.02e+01	92	29	0	710934528	52	6107
2026-01-26 04:23:01.28	298.09	14.00	-38.1	-39.4	27.7	3.02e+01	91	29	0	712507392	52	5704
2026-01-26 04:23:02.29	298.32	13.97	-38.6	-39.9	27.6	3.02e+01	92	29	0	714604544	52	6019
2026-01-26 04:23:03.30	298.55	13.93	-38.6	-39.9	27.7	3.02e+01	92	29	0	716177408	52	6011
2026-01-26 04:23:04.31	298.77	13.90	-39.9	-41.3	26.7	3.02e+01	92	29	0	718274560	54	6297
2026-01-26 04:23:05.32	299.00	13.86	-40.2	-41.6	26.5	3.02e+01	92	29	0	720371712	54	6538
2026-01-26 04:23:06.33	299.23	13.83	-38.7	-40.0	26.4	3.02e+01	92	29	0	721944576	52	6093
2026-01-26 04:23:07.34	299.45	13.79	-39.8	-41.2	26.5	3.02e+01	92	29	0	724041728	52	7011
2026-01-26 04:23:08.35	299.68	13.75	-39.1	-40.4	26.3	3.02e+01	90	29	0	725614592	54	5721
2026-01-26 04:23:09.36	299.90	13.72	-40.0	-41.6	25.9	3.02e+01	92	29	0	727711744	54	6502
2026-01-26 04:23:10.37	300.12	13.68	-40.3	-41.8	25.8	3.02e+01	90	29	0	729808896	54	6687
2026-01-26 04:23:11.38	300.34	13.64	-40.1	-41.7	26.0	3.02e+01	92	29	0	731381760	52	7395
2026-01-26 04:23:12.39	300.57	13.60	-39.0	-40.3	26.5	3.02e+01	91	29	0	733478912	52	6347
2026-01-26 04:23:13.40	300.79	13.57	-39.8	-41.3	25.6	3.02e+01	89	29	0	735051776	54	6300
2026-01-26 04:23:14.41	301.01	13.53	-39.9	-41.3	26.2	3.02e+01	92	29	0	737148928	56	5635
2026-01-26 04:23:15.42	301.23	13.49	-38.9	-40.3	26.8	3.02e+01	89	29	0	739246080	52	6328
2026-01-26 04:23:16.43	301.45	13.45	-39.5	-41.0	26.5	3.02e+01	88	29	0	740818944	52	6809
2026-01-26 04:23:17.44	301.67	13.41	-39.7	-41.2	25.8	3.02e+01	91	29	0	742916096	52	7005
2026-01-26 04:23:18.45	301.89	13.37	-39.8	-41.2	25.9	3.02e+01	91	29	0	744488960	54	6277
2026-01-26 04:23:19.46	302.10	13.33	-40.3	-41.8	25.5	3.02e+01	90	29	0	746586112	54	6708
2026-01-26 04:23:20.47	302.32	13.29	-39.5	-40.9	26.8	3.02e+01	92	29	0	748683264	52	6797
2026-01-26 04:23:21.48	302.54	13.25	-40.0	-41.5	25.8	3.02e+01	92	29	0	750256128	52	7219
2026-01-26 04:23:22.49	302.75	13.21	-39.0	-40.4	27.1	3.02e+01	92	29	0	752353280	52	6355
2026-01-26 04:23:23.50	302.97	13.17	-38.6	-40.0	27.2	3.02e+01	92	29	0	754450432	52	6093
2026-01-26 04:23:24.51	303.18	13.12	-38.9	-40.3	27.0	3.02e+01	92	29	0	756023296	52	6317
2026-01-26 04:23:25.52	303.40	13.08	-38.9	-40.2	26.7	3.02e+01	90	29	0	758120448	52	6255
2026-01-26 04:23:26.53	303.61	13.04	-38.7	-40.1	27.4	3.02e+01	92	29	0	759693312	50	6904
2026-01-26 04:23:27.54	303.82	13.00	-38.3	-39.6	27.0	3.02e+01	90	29	0	761790464	50	6551
2026-01-26 04:23:28.55	304.03	12.96	-38.8	-40.2	26.9	3.02e+01	92	29	0	763887616	50	6963
2026-01-26 04:23:29.56	304.25	12.91	-37.4	-38.7	27.9	3.02e+01	92	29	0	765460480	50	5912
2026-01-26 04:23:30.57	304.46	12.87	-37.2	-38.5	28.1	3.02e+01	92	29	0	767557632	50	5749
2026-01-26 04:23:31.58	304.67	12.83	-37.9	-39.2	27.7	3.02e+01	91	29	0	769654784	50	6222
2026-01-26 04:23:32.59	304.88	12.78	-37.9	-39.2	27.7	3.02e+01	90	29	0	771227648	50	6227
2026-01-26 04:23:33.60	305.08	12.74	-37.8	-39.1	27.2	3.02e+01	90	29	0	773324800	50	6163
2026-01-26 04:23:34.61	305.29	12.70	-38.4	-39.8	27.3	3.02e+01	92	29	0	774897664	50	6652
2026-01-26 04:23:35.62	305.50	12.65	-37.5	-38.8	27.9	3.02e+01	88	29	0	776994816	50	5956
2026-01-26 04:23:36.63	305.71	12.61	-37.5	-38.8	28.0	3.02e+01	92	29	0	779091968	50	5980
2026-01-26 04:23:37.64	305.91	12.56	-37.4	-38.7	28.0	3.02e+01	89	29	0	780664832	50	5916
2026-01-26 04:23:38.64	306.12	12.52	-38.5	-39.8	27.8	3.02e+01	92	29	0	782761984	52	5963
2026-01-26 04:23:39.65	306.32	12.47	-37.4	-38.7	28.2	3.02e+01	92	29	0	784334848	50	5884
2026-01-26 04:23:40.66	306.53	12.43	-37.8	-39.1	28.2	3.02e+01	92	29	0	786432000	50	6140
2026-01-26 04:23:41.67	306.73	12.38	-38.0	-39.3	28.4	3.02e+01	90	29	0	788529152	50	6289
2026-01-26 04:23:42.68	306.93	12.34	-37.1	-38.4	28.2	3.02e+01	92	29	0	790102016	50	5695
2026-01-26 04:23:43.69	307.13	12.29	-37.3	-38.6	28.3	3.02e+01	92	29	0	792199168	50	5849
2026-01-26 04:23:44.70	307.34	12.24	-37.4	-38.7	28.4	3.02e+01	92	29	0	793772032	50	5892
2026-01-26 04:23:45.71	307.54	12.20	-36.9	-38.1	27.8	3.02e+01	92	29	0	795869184	50	5509
2026-01-26 04:23:46.72	307.74	12.15	-37.1	-38.3	28.9	3.02e+01	89	29	0	797966336	50	5656
2026-01-26 04:23:47.73	307.94	12.10	-37.8	-39.0	28.5	3.02e+01	92	29	0	799539200	50	6110
2026-01-26 04:23:48.74	308.13	12.06	-38.0	-39.3	28.1	3.02e+01	90	29	0	801636352	50	6325
2026-01-26 04:23:49.75	308.33	12.01	-38.1	-39.4	27.7	3.02e+01	92	29	0	803209216	50	6399
2026-01-26 04:23:50.75	308.53	11.96	-38.0	-39.2	27.9	3.02e+01	92	29	0	805306368	50	6270
2026-01-26 04:23:51.76	308.73	11.92	-38.7	-40.1	26.6	3.02e+01	92	29	0	807403520	50	6906
2026-01-26 04:23:52.77	308.92	11.87	-38.3	-39.6	27.6	3.02e+01	61	29	0	808976384	52	5797
2026-01-26 04:23:53.78	309.12	11.82	-38.8	-40.1	27.0	3.02e+01	63	29	0	811073536	50	6922
2026-01-26 04:23:54.79	309.31	11.77	-37.4	-38.7	27.9	3.02e+01	59	29	0	812646400	50	5901
2026-01-26 04:23:55.81	309.51	11.72	-38.4	-39.7	27.1	3.02e+01	47	29	0	814743552	52	5895
2026-01-26 04:23:56.81	309.70	11.67	-37.3	-38.5	27.2	3.02e+01	59	29	0	816840704	52	5122
2026-01-26 04:23:57.82	309.89	11.63	-38.4	-39.7	27.9	3.02e+01	60	29	0	818413568	50	6605
2026-01-26 04:23:58.83	310.08	11.58	-37.4	-38.6	28.0	3.02e+01	61	29	0	820510720	48	6571
2026-01-26 04:23:59.84	310.28	11.53	-38.1	-39.3	28.3	3.02e+01	59	29	0	822607872	48	7113
2026-01-26 04:24:00.85	310.47	11.48	-37.4	-38.7	27.9	3.02e+01	49	29	0	824180736	50	5873
2026-01-26 04:24:01.86	310.66	11.43	-37.9	-39.2	28.0	3.02e+01	58	29	0	826277888	50	6228
2026-01-26 04:24:02.86	310.84	11.38	-38.4	-39.7	28.0	3.02e+01	61	29	0	827850752	50	6614
2026-01-26 04:24:03.87	311.03	11.33	-38.3	-39.5	27.1	3.02e+01	46	29	0	829947904	52	5785
2026-01-26 04:24:04.88	311.22	11.28	-40.0	-41.4	27.4	3.02e+01	59	29	0	832045056	54	6383
2026-01-26 04:24:05.89	311.41	11.23	-38.4	-39.8	28.1	3.02e+01	59	29	0	833617920	50	6660
2026-01-26 04:24:06.90	311.60	11.18	-37.8	-39.1	27.3	3.02e+01	58	29	0	835715072	50	6205
2026-01-26 04:24:07.91	311.78	11.13	-38.3	-39.6	28.1	3.02e+01	59	29	0	837287936	50	6537
2026-01-26 04:24:08.92	311.97	11.08	-37.6	-38.9	28.0	3.02e+01	46	29	0	839385088	50	6026
2026-01-26 04:24:09.93	312.15	11.03	-38.5	-39.9	27.1	3.02e+01	59	29	0	841482240	50	6734
2026-01-26 04:24:10.94	312.34	10.98	-38.9	-40.3	27.5	3.02e+01	58	29	0	843055104	48	7920
2026-01-26 04:24:11.95	312.52	10.93	-38.0	-39.3	28.1	3.02e+01	46	29	0	845152256	52	5622
2026-01-26 04:24:12.96	312.70	10.88	-37.1	-38.4	28.2	3.02e+01	59	29	0	846725120	50	5700
2026-01-26 04:24:13.97	312.88	10.83	-38.1	-39.4	28.3	3.02e+01	58	29	0	848822272	50	6351
2026-01-26 04:24:14.98	313.07	10.78	-37.6	-38.9	27.8	3.02e+01	56	29	0	850919424	50	6033
2026-01-26 04:24:15.99	313.25	10.73	-37.5	-38.7	28.3	3.02e+01	58	29	0	852492288	50	5907
2026-01-26 04:24:17.00	313.43	10.67	-37.1	-38.3	28.5	3.02e+01	60	29	0	854589440	50	5641
2026-01-26 04:24:18.01	313.61	10.62	-37.3	-38.5	28.5	3.02e+01	62	29	0	856686592	50	5757
2026-01-26 04:24:19.02	313.78	10.57	-37.6	-38.9	28.1	3.02e+01	59	29	0	858259456	50	6017
2026-01-26 04:24:20.03	313.96	10.52	-37.6	-38.9	27.9	3.02e+01	53	29	0	860356608	50	6007
2026-01-26 04:24:21.04	314.14	10.47	-37.4	-38.6	27.8	3.02e+01	58	29	0	861929472	50	5853
2026-01-26 04:24:22.05	314.32	10.42	-37.6	-38.9	28.5	3.02e+01	59	29	0	864026624	50	6002
2026-01-26 04:24:23.06	314.49	10.36	-38.3	-39.7	27.2	3.02e+01	59	29	0	866123776	50	6574
2026-01-26 04:24:24.07	314.67	10.31	-38.4	-39.7	28.3	3.02e+01	60	29	0	867696640	50	6604
2026-01-26 04:24:25.07	314.84	10.26	-39.2	-40.5	27.2	3.02e+01	50	29	0	869793792	50	7286
2026-01-26 04:24:26.08	315.02	10.21	-37.2	-38.4	28.5	3.02e+01	59	29	0	871366656	50	5724
2026-01-26 04:24:27.09	315.19	10.16	-37.0	-38.2	28.6	3.02e+01	58	29	0	873463808	50	5569
2026-01-26 04:24:28.11	315.36	10.10	-37.5	-38.8	28.2	3.02e+01	45	29	0	875560960	50	5949
2026-01-26 04:24:29.11	315.53	10.05	-38.7	-40.0	27.4	3.02e+01	56	29	0	877133824	52	6110
2026-01-26 04:24:30.12	315.71	10.00	-38.1	-39.3	27.8	3.02e+01	57	29	0	879230976	52	5652
2026-01-26 04:24:31.13	315.88	9.95	-38.4	-39.7	27.7	3.02e+01	58	29	0	880803840	52	5890
2026-01-26 04:24:32.14	316.05	9.89	-39.6	-41.0	26.3	3.02e+01	58	29	0	882900992	52	6834
2026-01-26 04:24:33.15	316.22	9.84	-38.8	-40.2	27.2	3.02e+01	51	29	0	884998144	52	6228
2026-01-26 04:24:34.16	316.39	9.79	-39.9	-41.3	26.2	3.02e+01	57	29	0	886571008	56	5601
2026-01-26 04:24:35.17	316.55	9.74	-39.2	-40.6	26.4	3.02e+01	61	29	0	888668160	52	6515
2026-01-26 04:24:36.18	316.72	9.68	-39.4	-40.8	26.6	3.02e+01	59	29	0	890765312	54	5960
2026-01-26 04:24:37.19	316.89	9.63	-40.3	-41.7	26.5	3.02e+01	62	29	0	892338176	54	6622
2026-01-26 04:24:38.20	317.05	9.58	-39.3	-40.6	26.9	3.02e+01	45	29	0	894435328	54	5849
2026-01-26 04:24:39.21	317.22	9.52	-39.5	-40.9	26.5	3.02e+01	60	29	0	896008192	54	6023
2026-01-26 04:24:40.21	317.38	9.47	-39.5	-40.8	26.5	3.02e+01	57	29	0	898105344	54	5974
2026-01-26 04:24:41.22	317.55	9.42	-40.7	-42.2	25.3	3.02e+01	53	29	0	900202496	56	6207
2026-01-26 04:24:42.23	317.71	9.36	-40.2	-41.6	26.3	3.02e+01	58	29	0	901775360	54	6525
2026-01-26 04:24:43.24	317.88	9.31	-39.2	-40.6	26.5	3.02e+01	61	29	0	903872512	52	6555
2026-01-26 04:24:44.25	318.04	9.26	-38.2	-39.5	27.1	3.02e+01	59	29	0	905445376	52	5790
2026-01-26 04:24:45.26	318.20	9.20	-37.9	-39.2	27.3	3.02e+01	58	29	0	907542528	50	6232
2026-01-26 04:24:46.27	318.36	9.15	-37.7	-39.1	27.7	3.02e+01	44	29	0	909639680	50	6136
2026-01-26 04:24:47.28	318.52	9.09	-38.0	-39.3	27.7	3.02e+01	61	29	0	911212544	50	6279
2026-01-26 04:24:48.29	318.68	9.04	-37.9	-39.2	27.3	3.02e+01	57	29	0	913309696	50	6261
2026-01-26 04:24:49.30	318.84	8.99	-37.6	-38.9	27.4	3.02e+01	45	29	0	914882560	50	6063
2026-01-26 04:24:50.31	319.00	8.93	-38.2	-39.6	27.1	3.02e+01	57	29	0	916979712	50	6518
2026-01-26 04:24:51.32	319.16	8.88	-37.9	-39.2	27.2	3.02e+01	61	29	0	919076864	50	6242
2026-01-26 04:24:52.33	319.32	8.82	-37.5	-38.8	27.5	3.02e+01	61	29	0	920649728	50	5973
2026-01-26 04:24:53.33	319.47	8.77	-38.5	-39.8	27.4	3.02e+01	58	29	0	922746880	50	6652
2026-01-26 04:24:54.34	319.63	8.72	-38.2	-39.4	27.6	3.02e+01	57	29	0	924319744	50	6418
2026-01-26 04:24:55.35	319.78	8.66	-38.4	-39.7	27.7	3.02e+01	54	29	0	926416896	50	6629
2026-01-26 04:24:56.36	319.94	8.61	-38.2	-39.5	27.7	3.02e+01	57	29	0	928514048	50	6457
2026-01-26 04:24:57.37	320.09	8.55	-37.4	-38.6	27.7	3.02e+01	55	29	0	930086912	50	5853
2026-01-26 04:24:58.38	320.25	8.50	-37.8	-39.1	27.7	3.02e+01	58	29	0	932184064	50	6162
2026-01-26 04:24:59.38	320.40	8.45	-37.3	-38.6	28.0	3.02e+01	61	29	0	934281216	50	5833
2026-01-26 04:25:00.39	320.55	8.39	-37.4	-38.7	27.9	3.02e+01	61	29	0	935854080	50	5875
2026-01-26 04:25:01.40	320.71	8.34	-37.8	-39.1	27.6	3.02e+01	59	29	0	937951232	50	6163
2026-01-26 04:25:02.41	320.86	8.28	-37.6	-38.8	27.8	3.02e+01	46	29	0	939524096	50	5992
2026-01-26 04:25:03.42	321.01	8.23	-37.5	-38.8	27.9	3.02e+01	59	29	0	941621248	50	5953
2026-01-26 04:25:04.43	321.16	8.17	-37.3	-38.6	27.6	3.02e+01	61	29	0	943718400	50	5846
2026-01-26 04:25:05.44	321.31	8.12	-37.3	-38.6	27.9	3.02e+01	46	29	0	945291264	50	5836
2026-01-26 04:25:06.45	321.46	8.07	-38.1	-39.4	27.8	3.02e+01	59	29	0	947388416	50	6359
2026-01-26 04:25:07.46	321.61	8.01	-37.6	-38.8	27.8	3.02e+01	53	29	0	948961280	50	5992
2026-01-26 04:25:08.47	321.75	7.96	-37.1	-38.4	28.0	3.02e+01	59	29	0	951058432	50	5694
2026-01-26 04:25:09.48	321.90	7.90	-37.0	-38.3	27.9	3.02e+01	59	29	0	953155584	50	5604
2026-01-26 04:25:10.49	322.05	7.85	-37.0	-38.3	27.8	3.02e+01	58	29	0	954728448	48	6287
2026-01-26 04:25:11.50	322.19	7.79	-36.9	-38.2	27.8	3.02e+01	60	29	0	956825600	48	6237
2026-01-26 04:25:12.51	322.34	7.74	-37.8	-39.1	27.5	3.02e+01	58	29	0	958398464	48	6912
2026-01-26 04:25:13.52	322.49	7.68	-37.7	-39.0	27.1	3.02e+01	55	29	0	960495616	48	6876
2026-01-26 04:25:14.52	322.63	7.63	-37.6	-38.9	27.4	3.02e+01	59	29	0	962592768	48	6743
2026-01-26 04:25:15.53	322.77	7.57	-37.7	-39.0	27.5	3.02e+01	44	29	0	964165632	48	6851
2026-01-26 04:25:16.54	322.92	7.52	-37.6	-38.9	27.5	3.02e+01	60	29	0	966262784	50	6057
2026-01-26 04:25:17.55	323.06	7.47	-37.5	-38.9	27.3	3.02e+01	59	29	0	967835648	50	6001
2026-01-26 04:25:18.56	323.20	7.41	-37.9	-39.2	27.6	3.02e+01	46	29	0	969932800	50	6217
2026-01-26 04:25:19.57	323.34	7.36	-37.9	-39.2	27.5	3.02e+01	60	29	0	972029952	50	6254
2026-01-26 04:25:20.58	323.48	7.30	-38.1	-39.4	27.3	3.02e+01	60	29	0	973602816	50	6378
2026-01-26 04:25:21.59	323.63	7.25	-37.6	-38.9	27.5	3.02e+01	61	29	0	975699968	50	6046
2026-01-26 04:25:22.60	323.77	7.19	-37.6	-39.0	27.4	3.02e+01	61	29	0	977272832	50	6066
2026-01-26 04:25:23.61	323.91	7.14	-37.9	-39.2	27.2	3.02e+01	48	29	0	979369984	50	6244
2026-01-26 04:25:24.62	324.04	7.08	-38.2	-39.6	27.4	3.02e+01	62	29	0	981467136	50	6499
2026-01-26 04:25:25.63	324.18	7.03	-38.4	-39.7	27.5	3.02e+01	59	29	0	983040000	50	6631
2026-01-26 04:25:26.64	324.32	6.97	-38.8	-40.1	27.2	3.02e+01	48	29	0	985137152	52	6200
2026-01-26 04:25:27.65	324.46	6.92	-37.8	-39.1	27.5	3.02e+01	58	29	0	987234304	50	6166
2026-01-26 04:25:28.66	324.59	6.86	-37.3	-38.7	27.3	3.02e+01	60	29	0	988807168	50	5869
2026-01-26 04:25:29.67	324.73	6.81	-37.7	-39.0	27.3	3.02e+01	58	29	0	990904320	50	6089
2026-01-26 04:25:30.67	324.87	6.75	-37.8	-39.1	27.2	3.02e+01	57	29	0	992477184	50	6194
2026-01-26 04:25:31.68	325.00	6.70	-38.0	-39.3	27.3	3.02e+01	50	29	0	994574336	50	6321
2026-01-26 04:25:32.69	325.14	6.65	-37.8	-39.1	27.3	3.02e+01	60	29	0	996671488	50	6163
2026-01-26 04:25:33.70	325.27	6.59	-38.8	-40.2	27.0	3.02e+01	59	29	0	998244352	50	6990
2026-01-26 04:25:34.71	325.40	6.54	-38.2	-39.6	27.0	3.02e+01	44	29	0	1000341504	50	6526
2026-01-26 04:25:35.72	325.54	6.48	-38.3	-39.6	27.5	3.02e+01	59	29	0	1002438656	50	6562
2026-01-26 04:25:36.73	325.67	6.43	-38.8	-40.2	27.2	3.02e+01	52	29	0	1004011520	50	6975
2026-01-26 04:25:37.74	325.80	6.37	-38.2	-39.5	27.2	3.02e+01	58	29	0	1006108672	50	6480
2026-01-26 04:25:38.75	325.93	6.32	-38.1	-39.4	27.0	3.02e+01	58	29	0	1007681536	52	5718
2026-01-26 04:25:39.76	326.06	6.26	-38.5	-39.9	27.3	3.02e+01	46	29	0	1009778688	52	6030
2026-01-26 04:25:40.77	326.19	6.21	-39.1	-40.5	26.6	3.02e+01	60	29	0	1011875840	52	6468
2026-01-26 04:25:41.78	326.32	6.15	-38.3	-39.6	27.1	3.02e+01	61	29	0	1013448704	52	5854
2026-01-26 04:25:42.79	326.45	6.10	-38.4	-39.7	26.9	3.02e+01	48	29	0	1015545856	52	5924
2026-01-26 04:25:43.80	326.58	6.04	-38.1	-39.5	27.1	3.02e+01	62	29	0	1017118720	52	5727
2026-01-26 04:25:44.81	326.71	5.99	-38.3	-39.6	26.9	3.02e+01	60	29	0	1019215872	50	6568
2026-01-26 04:25:45.82	326.84	5.93	-38.0	-39.4	26.8	3.02e+01	58	29	0	1021313024	52	5667
2026-01-26 04:25:46.83	326.97	5.88	-37.7	-39.1	26.9	3.02e+01	62	29	0	1022885888	50	6148
2026-01-26 04:25:47.84	327.09	5.83	-37.6	-39.0	27.0	3.02e+01	56	29	0	1024983040	50	6092
2026-01-26 04:25:48.84	327.22	5.77	-38.2	-39.6	26.5	3.02e+01	58	29	0	1026555904	50	6523
2026-01-26 04:25:49.85	327.34	5.72	-38.0	-39.4	26.6	3.02e+01	60	29	0	1028653056	50	6361
2026-01-26 04:25:50.86	327.47	5.66	-38.2	-39.6	26.9	3.02e+01	59	29	0	1030750208	50	6499
2026-01-26 04:25:51.87	327.60	5.61	-38.2	-39.6	26.1	3.02e+01	59	29	0	1032323072	50	6549
2026-01-26 04:25:52.88	327.72	5.55	-38.6	-40.0	26.1	3.02e+01	50	29	0	1034420224	50	6851
2026-01-26 04:25:53.89	327.84	5.50	-38.0	-39.4	26.5	3.02e+01	62	29	0	1035993088	50	6401
2026-01-26 04:25:54.90	327.97	5.45	-39.0	-40.4	26.2	3.02e+01	58	29	0	1038090240	50	7189
2026-01-26 04:25:55.91	328.09	5.39	-38.8	-40.3	26.1	3.02e+01	46	29	0	1040187392	52	6278
2026-01-26 04:25:56.92	328.21	5.34	-39.1	-40.6	25.6	3.02e+01	62	29	0	1041760256	52	6509
2026-01-26 04:25:57.93	328.34	5.28	-38.3	-39.7	26.3	3.02e+01	56	29	0	1043857408	52	5872
2026-01-26 04:25:58.94	328.46	5.23	-38.0	-39.4	26.7	3.02e+01	58	29	0	1045430272	52	5703
2026-01-26 04:25:59.95	328.58	5.17	-37.9	-39.2	26.9	3.02e+01	60	29	0	1047527424	50	6275
2026-01-26 04:26:00.96	328.70	5.12	-38.4	-39.8	26.5	3.02e+01	44	29	0	1049624576	50	6676
2026-01-26 04:26:01.96	328.82	5.07	-38.4	-39.8	26.4	3.02e+01	61	29	0	1051197440	50	6718
2026-01-26 04:26:02.97	328.94	5.01	-38.9	-40.3	26.5	3.02e+01	60	29	0	1053294592	50	7049
2026-01-26 04:26:03.98	329.06	4.96	-39.8	-41.3	25.7	3.02e+01	52	29	0	1055391744	52	7047
2026-01-26 04:26:04.99	329.18	4.90	-38.6	-40.0	26.0	3.02e+01	61	29	0	1056964608	52	6123
2026-01-26 04:26:06.00	329.29	4.85	-39.3	-40.8	25.8	3.02e+01	57	29	0	1059061760	52	6671
2026-01-26 04:26:07.01	329.41	4.80	-39.4	-40.9	25.6	3.02e+01	59	29	0	1060634624	52	6749
2026-01-26 04:26:08.02	329.53	4.74	-39.5	-41.0	25.6	3.02e+01	56	29	0	1062731776	54	6110
2026-01-26 04:26:09.03	329.65	4.69	-39.3	-40.7	25.9	3.02e+01	60	29	0	1064828928	54	5913
2026-01-26 04:26:10.04	329.76	4.63	-40.2	-41.7	25.5	3.02e+01	56	29	0	1066401792	54	6602
2026-01-26 04:26:11.05	329.88	4.58	-38.8	-40.2	26.5	3.02e+01	61	29	0	1068498944	52	6257
2026-01-26 04:26:12.06	330.00	4.53	-39.0	-40.5	25.9	3.02e+01	46	29	0	1070071808	52	6433
2026-01-26 04:26:13.07	330.11	4.47	-39.4	-40.9	25.2	3.02e+01	59	29	0	1072168960	54	6035
2026-01-26 04:26:14.08	330.23	4.42	-39.1	-40.6	25.4	3.02e+01	60	29	0	1074266112	54	5825
2026-01-26 04:26:15.09	330.34	4.36	-38.6	-40.1	26.1	3.02e+01	62	29	0	1075838976	52	6141
2026-01-26 04:26:16.10	330.45	4.31	-39.1	-40.6	25.5	3.02e+01	59	29	0	1077936128	52	6519
2026-01-26 04:26:17.11	330.57	4.26	-39.2	-40.7	25.3	3.02e+01	50	29	0	1079508992	52	6620
2026-01-26 04:26:18.12	330.68	4.20	-38.9	-40.4	25.6	3.02e+01	51	29	0	1081606144	52	6362
2026-01-26 04:26:19.12	330.79	4.15	-39.3	-40.8	25.3	3.02e+01	61	29	0	1083703296	52	6699
2026-01-26 04:26:20.13	330.90	4.10	-38.4	-39.9	26.0	3.02e+01	54	29	0	1085276160	52	5995
2026-01-26 04:26:21.14	331.02	4.04	-39.4	-41.0	24.9	3.02e+01	59	29	0	1087373312	52	6843
2026-01-26 04:26:22.15	331.13	3.99	-38.7	-40.2	25.4	3.02e+01	55	29	0	1088946176	52	6272
2026-01-26 04:26:23.16	331.24	3.94	-39.7	-41.3	24.7	3.02e+01	59	29	0	1091043328	52	7088
2026-01-26 04:26:24.18	331.35	3.88	-39.9	-41.5	24.1	3.02e+01	58	29	0	1093140480	54	6495
2026-01-26 04:26:25.19	331.46	3.83	-41.2	-43.0	22.9	3.02e+01	54	29	0	1094713344	56	6864
2026-01-26 04:26:26.20	331.57	3.77	-41.5	-43.4	22.1	3.02e+01	60	29	0	1096810496	56	7159
2026-01-26 04:26:27.20	331.68	3.72	-42.5	-44.7	21.1	3.02e+01	58	29	0	1098383360	58	7443
2026-01-26 04:26:28.21	331.79	3.67	-42.8	-45.4	19.5	3.02e+01	60	29	0	1100480512	58	8072
2026-01-26 04:26:29.22	331.89	3.62	-43.3	-46.6	17.5	3.02e+01	63	29	0	1102577664	60	8186
2026-01-26 04:26:30.23	332.00	3.56	-43.6	-47.6	16.0	3.02e+01	47	29	0	1104150528	60	9218
2026-01-26 04:26:31.24	332.11	3.51	-44.2	-49.5	13.5	3.02e+01	55	29	0	1106247680	60	11490
2026-01-26 04:26:32.25	332.22	3.46	-45.1	-51.5	11.4	3.02e+01	57	29	0	1108344832	60	14387
2026-01-26 04:26:33.26	332.32	3.40	-44.9	-52.9	9.2	3.02e+01	45	29	0	1109917696	60	16992
2026-01-26 04:26:34.27	332.43	3.35	-45.2	-55.2	6.7	3.02e+01	92	29	0	1112014848	60	22234
2026-01-26 04:26:35.28	332.54	3.30	-45.1	-55.5	6.3	3.02e+01	92	29	0	1113587712	60	22905
2026-01-26 04:26:36.29	332.64	3.24	-45.6	-58.8	4.8	3.02e+01	0	29	104	1114636288	60	33548
2026-01-26 04:26:37.30	332.75	3.19	-45.5	-60.9	3.8	3.02e+01	0	29	104	1114636288	60	42518
2026-01-26 04:26:38.31	332.85	3.14	-45.5	-61.7	3.6	3.02e+01	0	29	104	1114636288	60	47001
2026-01-26 04:26:39.32	332.96	3.09	-45.4	-62.3	3.5	3.02e+01	0	29	104	1114636288	60	49975
2026-01-26 04:26:40.33	333.06	3.03	-44.9	-62.5	3.5	3.02e+01	0	29	104	1114636288	60	51498
2026-01-26 04:26:41.34	333.16	2.98	-48.7	-66.6	3.5	3.02e+01	0	29	104	1114636288	60	82343
2026-01-26 04:26:42.35	333.27	2.93	-48.9	-66.8	3.5	3.02e+01	0	29	104	1114636288	60	84463
2026-01-26 04:26:43.36	333.37	2.87	-49.7	-67.6	3.5	3.02e+01	0	29	104	1114636288	60	92695
2026-01-26 04:26:44.37	333.47	2.82	-49.9	-67.8	3.5	3.02e+01	0	29	104	1114636288	60	94356
2026-01-26 04:26:45.38	333.57	2.77	-50.2	-68.0	3.5	3.02e+01	0	29	104	1114636288	60	97138
2026-01-26 04:26:46.39	333.68	2.72	-50.0	-68.1	3.5	3.02e+01	0	29	104	1114636288	60	97479
2026-01-26 04:26:47.40	333.78	2.66	-50.6	-68.5	3.5	3.02e+01	0	29	104	1114636288	60	102889
2026-01-26 04:26:48.41	333.88	2.61	-50.1	-68.2	3.5	3.02e+01	0	29	104	1114636288	60	99048
2026-01-26 04:26:49.42	333.98	2.56	-50.4	-68.4	3.5	3.02e+01	0	29	104	1114636288	60	100994
2026-01-26 04:26:50.43	334.08	2.51	-50.1	-68.2	3.5	3.02e+01	0	29	104	1114636288	60	98405
2026-01-26 04:26:51.44	334.18	2.45	-50.3	-68.3	3.5	3.02e+01	0	29	104	1114636288	60	100199
2026-01-26 04:26:52.45	334.28	2.40	-50.2	-68.1	3.5	3.02e+01	0	29	104	1114636288	60	98321
2026-01-26 04:26:53.46	334.38	2.35	-50.0	-68.0	3.5	3.02e+01	0	29	104	1114636288	60	96433
2026-01-26 04:26:54.47	334.48	2.30	-50.1	-68.0	3.5	3.02e+01	0	29	104	1114636288	60	96954
2026-01-26 04:26:55.48	334.57	2.25	-50.8	-68.7	3.5	3.02e+01	0	29	104	1114636288	60	105038
2026-01-26 04:26:56.49	334.67	2.19	-50.2	-68.1	3.5	3.02e+01	0	29	104	1114636288	60	98155
2026-01-26 04:26:57.49	334.77	2.14	-50.1	-68.0	3.5	3.02e+01	0	29	104	1114636288	60	97102
2026-01-26 04:26:58.50	334.87	2.09	-50.4	-68.3	3.5	3.02e+01	0	29	104	1114636288	60	100360
2026-01-26 04:26:59.52	334.96	2.04	-50.7	-68.8	3.5	3.02e+01	0	29	104	1114636288	60	106472
2026-01-26 04:27:00.52	335.06	1.99	-51.2	-69.1	3.5	3.02e+01	0	29	104	1114636288	60	109176
2026-01-26 04:27:01.53	335.16	1.93	-50.7	-68.6	3.5	3.02e+01	0	29	104	1114636288	60	103210
2026-01-26 04:27:02.54	335.25	1.88	-51.2	-69.2	3.5	3.02e+01	0	29	104	1114636288	60	111437
2026-01-26 04:27:03.55	335.35	1.83	-50.9	-68.9	3.5	3.02e+01	0	29	104	1114636288	60	106947
2026-01-26 04:27:04.56	335.44	1.78	-50.6	-68.4	3.5	3.02e+01	0	29	104	1114636288	60	101655
2026-01-26 04:27:05.57	335.54	1.73	-50.6	-68.5	3.5	3.02e+01	0	29	104	1114636288	60	102376
2026-01-26 04:27:06.58	335.63	1.67	-50.1	-67.9	3.5	3.02e+01	0	29	104	1114636288	60	95915
2026-01-26 04:27:07.59	335.73	1.62	-50.3	-68.1	3.5	3.02e+01	0	29	104	1114636288	60	98032
2026-01-26 04:27:08.60	335.82	1.57	-50.8	-68.6	3.5	3.02e+01	0	29	104	1114636288	60	103768
2026-01-26 04:27:09.61	335.91	1.52	-50.8	-68.7	3.5	3.02e+01	0	29	104	1114636288	60	104576
2026-01-26 04:27:10.62	336.01	1.47	-50.7	-68.5	3.5	3.02e+01	0	29	104	1114636288	60	102263
2026-01-26 04:27:11.63	336.10	1.42	-50.7	-68.6	3.5	3.02e+01	0	29	104	1114636288	60	103504
2026-01-26 04:27:12.64	336.19	1.37	-50.5	-68.3	3.5	3.02e+01	0	29	104	1114636288	60	100432
2026-01-26 04:27:13.65	336.28	1.31	-50.7	-68.5	3.5	3.02e+01	0	29	104	1114636288	60	102825
2026-01-26 04:27:14.66	336.37	1.26	-50.3	-68.2	3.5	3.02e+01	0	29	104	1114636288	60	99083
2026-01-26 04:27:15.66	336.47	1.21	-50.8	-68.6	3.5	3.02e+01	0	29	104	1114636288	60	103514
2026-01-26 04:27:16.67	336.56	1.16	-50.6	-68.4	3.5	3.02e+01	0	29	104	1114636288	60	101721
