passes_logs/2026/01/26/R4.6S_Anadyr/R4.6S_Anadyr__20260126_122816_NOAA_21_JPSS-2_rec.log

#Pass ID: 20260126_122816_NOAA 21 (JPSS-2)
#Satellite: NOAA 21 (JPSS-2)
#Configuration: NOAA-21
#almurnet v.1.7.20251203
#Start time: 2026-01-26 12:28:18

#Version: 2.2.20231116
#Station: R4.6S_Anadyr
#Location: 177.4865 lon 64.73178 lat
#TLE: 1 54234U 22150A   26025.93791214  .00000195  00000+0  11336-3 0  9990
#TLE: 2 54234  98.7509 326.7059 0000782 212.3040 147.8088 14.19539484166365

#Time	Az	El	Level	Level2	SNR	BER	BlckErr	Temp	State	Recorded	gain1	gain2
2026-01-26 12:28:18.69	18.99	0.09	-50.8	-65.7	3.5	1.51e+00	0	26	0	0	60	70011
2026-01-26 12:28:19.70	19.06	0.14	-49.4	-62.2	3.5	1.52e+00	0	27	104	0	60	45452
2026-01-26 12:28:20.71	19.13	0.19	-49.3	-62.1	3.5	1.51e+00	0	27	104	0	60	44776
2026-01-26 12:28:21.72	19.20	0.24	-49.2	-62.0	3.5	1.52e+00	0	27	104	0	60	44266
2026-01-26 12:28:22.73	19.28	0.29	-49.2	-62.0	3.5	1.52e+00	0	27	104	0	60	44248
2026-01-26 12:28:23.74	19.35	0.34	-49.1	-61.9	3.5	1.52e+00	0	27	104	0	60	43871
2026-01-26 12:28:24.75	19.42	0.39	-49.1	-62.0	3.5	1.52e+00	0	27	104	0	60	43967
2026-01-26 12:28:25.76	19.49	0.44	-49.0	-62.0	3.5	1.52e+00	0	28	104	0	60	44034
2026-01-26 12:28:26.77	19.57	0.49	-49.0	-62.0	3.5	1.52e+00	0	28	104	0	60	44074
2026-01-26 12:28:27.77	19.64	0.54	-49.2	-62.0	3.5	1.51e+00	0	28	104	0	60	44308
2026-01-26 12:28:28.78	19.71	0.59	-49.2	-62.0	3.5	1.52e+00	0	28	104	0	60	43997
2026-01-26 12:28:29.79	19.79	0.64	-49.1	-62.0	3.5	1.52e+00	0	28	104	0	60	44076
2026-01-26 12:28:30.80	19.86	0.69	-49.1	-61.9	3.5	1.52e+00	0	28	104	0	60	43838
2026-01-26 12:28:31.81	19.94	0.74	-49.1	-61.9	3.5	1.52e+00	0	28	104	0	60	43768
2026-01-26 12:28:32.82	20.01	0.79	-49.0	-61.9	3.5	1.52e+00	0	28	104	0	60	43634
2026-01-26 12:28:33.83	20.09	0.84	-49.0	-61.8	3.5	1.51e+00	0	28	104	0	60	43291
2026-01-26 12:28:34.84	20.16	0.90	-48.9	-61.8	3.5	1.52e+00	0	28	104	0	60	43074
2026-01-26 12:28:35.85	20.24	0.95	-48.8	-61.6	3.5	1.52e+00	0	28	104	0	60	42437
2026-01-26 12:28:36.86	20.31	1.00	-48.7	-61.6	3.5	1.52e+00	0	28	104	0	60	42171
2026-01-26 12:28:37.87	20.39	1.05	-48.7	-61.5	3.5	1.52e+00	0	28	104	0	60	41732
2026-01-26 12:28:38.88	20.46	1.10	-48.6	-61.5	3.5	1.52e+00	0	28	104	0	60	41566
2026-01-26 12:28:39.89	20.54	1.15	-48.5	-61.4	3.5	1.52e+00	0	28	104	0	60	41112
2026-01-26 12:28:40.90	20.62	1.20	-48.3	-61.2	3.5	1.52e+00	0	28	104	0	60	40232
2026-01-26 12:28:41.91	20.69	1.25	-48.0	-60.9	3.5	1.52e+00	0	28	104	0	60	39069
2026-01-26 12:28:42.92	20.77	1.30	-47.8	-60.6	3.5	1.52e+00	0	28	104	0	60	37496
2026-01-26 12:28:43.93	20.85	1.36	-47.5	-60.4	3.5	1.52e+00	0	28	104	0	60	36745
2026-01-26 12:28:44.94	20.93	1.41	-47.5	-60.4	3.5	1.52e+00	0	28	104	0	60	36777
2026-01-26 12:28:45.95	21.00	1.46	-47.5	-60.4	3.5	1.52e+00	0	28	104	0	60	36578
2026-01-26 12:28:46.96	21.08	1.51	-47.5	-60.4	3.5	1.52e+00	0	28	104	0	60	36799
2026-01-26 12:28:47.97	21.16	1.56	-47.5	-60.4	3.5	1.52e+00	0	28	104	0	60	36818
2026-01-26 12:28:48.98	21.24	1.61	-47.5	-60.4	3.5	1.52e+00	0	28	104	0	60	36683
2026-01-26 12:28:49.99	21.32	1.67	-47.5	-60.4	3.5	1.51e+00	0	28	104	0	60	36645
2026-01-26 12:28:51.00	21.40	1.72	-47.5	-60.3	3.5	1.52e+00	0	28	104	0	60	36300
2026-01-26 12:28:52.01	21.48	1.77	-47.5	-60.2	3.5	1.52e+00	0	28	104	0	60	35878
2026-01-26 12:28:53.02	21.56	1.82	-47.5	-60.3	3.5	1.52e+00	0	28	104	0	60	36124
2026-01-26 12:28:54.02	21.64	1.87	-47.5	-60.3	3.5	1.51e+00	0	28	104	0	60	36339
2026-01-26 12:28:55.03	21.72	1.92	-47.5	-60.3	3.5	1.52e+00	0	28	104	0	60	36372
2026-01-26 12:28:56.04	21.80	1.98	-47.5	-60.3	3.5	1.52e+00	0	28	104	0	60	36482
2026-01-26 12:28:57.05	21.88	2.03	-47.5	-60.4	3.5	1.52e+00	0	28	104	0	60	36564
2026-01-26 12:28:58.06	21.96	2.08	-47.5	-60.3	3.5	1.52e+00	0	28	104	0	60	36526
2026-01-26 12:28:59.07	22.04	2.13	-47.5	-60.4	3.5	1.52e+00	0	28	104	0	60	36576
2026-01-26 12:29:00.08	22.12	2.19	-47.5	-60.0	3.5	1.51e+00	0	28	104	0	60	35245
2026-01-26 12:29:01.09	22.20	2.24	-47.5	-59.6	3.5	1.51e+00	0	28	104	0	60	33524
2026-01-26 12:29:02.10	22.28	2.29	-47.4	-59.1	3.5	1.52e+00	0	28	104	0	60	31771
2026-01-26 12:29:03.11	22.37	2.34	-47.4	-59.4	3.5	1.51e+00	0	28	104	0	60	32811
2026-01-26 12:29:04.12	22.45	2.39	-47.5	-59.8	3.5	1.52e+00	0	28	104	0	60	34396
2026-01-26 12:29:05.13	22.53	2.45	-47.3	-58.4	3.6	1.51e+00	0	28	104	0	60	29192
2026-01-26 12:29:06.14	22.62	2.50	-46.5	-53.3	6.6	1.48e+00	0	28	104	0	60	16282
2026-01-26 12:29:07.15	22.70	2.55	-45.5	-49.7	9.4	4.53e-02	0	28	0	1048576	60	10777
2026-01-26 12:29:08.16	22.78	2.60	-43.7	-46.4	13.2	9.27e-04	0	28	0	4194304	60	7363
2026-01-26 12:29:09.17	22.87	2.66	-42.4	-44.5	15.3	0.00e+00	0	28	0	7340032	58	6616
2026-01-26 12:29:10.18	22.95	2.71	-41.6	-43.5	16.5	7.00e-07	0	28	0	10485760	58	5869
2026-01-26 12:29:11.19	23.03	2.76	-41.1	-42.8	17.0	0.00e+00	0	28	0	13631488	54	6860
2026-01-26 12:29:12.20	23.12	2.82	-40.6	-42.2	17.3	0.00e+00	0	28	0	16777216	54	6390
2026-01-26 12:29:13.21	23.20	2.87	-41.5	-43.3	16.3	0.00e+00	0	28	0	19922944	54	7224
2026-01-26 12:29:14.22	23.29	2.92	-42.4	-44.6	15.0	0.00e+00	0	28	0	23068672	56	7461
2026-01-26 12:29:15.23	23.38	2.97	-44.3	-47.3	11.7	7.93e-05	0	29	0	26214400	60	8177
2026-01-26 12:29:16.23	23.46	3.03	-45.3	-49.3	10.1	7.20e-03	0	28	0	29360128	60	10277
2026-01-26 12:29:17.24	23.55	3.08	-43.4	-45.9	12.4	9.90e-06	0	29	0	32505856	60	6922
2026-01-26 12:29:18.25	23.63	3.13	-47.3	-59.0	3.5	1.51e+00	0	28	104	33554432	60	31250
2026-01-26 12:29:19.26	23.72	3.19	-43.8	-46.9	13.8	7.85e-05	0	28	104	33554432	60	7748
2026-01-26 12:29:20.27	23.81	3.24	-41.5	-43.2	16.6	0.00e+00	0	28	0	35651584	56	6406
2026-01-26 12:29:21.27	23.89	3.29	-47.7	-60.1	3.5	1.52e+00	0	28	104	37748736	60	35566
2026-01-26 12:29:22.28	23.98	3.35	-42.7	-45.1	14.8	2.80e-01	0	28	104	37748736	58	7125
2026-01-26 12:29:23.29	24.07	3.40	-41.6	-43.3	16.6	0.00e+00	0	29	0	38797312	56	6459
2026-01-26 12:29:24.30	24.16	3.45	-41.9	-43.8	16.3	0.00e+00	0	29	0	41943040	56	6806
2026-01-26 12:29:25.31	24.25	3.51	-41.4	-43.1	17.2	0.00e+00	0	29	0	45088768	56	6319
2026-01-26 12:29:26.31	24.34	3.56	-40.9	-42.5	17.7	0.00e+00	0	28	0	48234496	56	5859
2026-01-26 12:29:27.32	24.42	3.61	-40.3	-41.8	18.1	0.00e+00	0	29	0	51380224	54	6065
2026-01-26 12:29:28.33	24.51	3.67	-40.8	-42.3	17.9	0.00e+00	0	29	0	54525952	54	6483
2026-01-26 12:29:29.34	24.60	3.72	-40.5	-42.0	17.8	0.00e+00	0	29	0	57671680	54	6227
2026-01-26 12:29:30.35	24.69	3.77	-40.3	-41.8	18.2	0.00e+00	0	29	0	60817408	54	6105
2026-01-26 12:29:31.36	24.78	3.83	-40.7	-42.2	17.6	0.00e+00	0	29	0	65011712	54	6384
2026-01-26 12:29:32.37	24.88	3.88	-40.5	-42.0	18.3	0.00e+00	0	28	0	67108864	54	6243
2026-01-26 12:29:33.38	24.97	3.94	-39.1	-40.4	19.5	0.00e+00	0	29	0	70254592	52	5795
2026-01-26 12:29:34.38	25.06	3.99	-39.2	-40.5	19.4	0.00e+00	0	29	0	73400320	52	5886
2026-01-26 12:29:35.39	25.15	4.04	-38.6	-39.9	19.9	0.00e+00	0	29	0	76546048	50	6145
2026-01-26 12:29:36.40	25.24	4.10	-38.8	-40.0	19.8	0.00e+00	0	29	0	79691776	50	6267
2026-01-26 12:29:37.41	25.33	4.15	-38.8	-40.1	19.8	0.00e+00	0	29	0	83886080	50	6288
2026-01-26 12:29:38.42	25.43	4.21	-38.8	-40.0	19.8	0.00e+00	0	28	0	87031808	50	6258
2026-01-26 12:29:39.43	25.52	4.26	-38.8	-40.0	19.9	0.00e+00	0	29	0	90177536	50	6245
2026-01-26 12:29:40.44	25.61	4.31	-38.7	-39.9	19.9	0.00e+00	0	29	0	92274688	50	6181
2026-01-26 12:29:41.44	25.71	4.37	-38.9	-40.2	19.7	0.00e+00	0	29	0	95420416	50	6366
2026-01-26 12:29:42.45	25.80	4.42	-38.8	-40.0	19.9	0.00e+00	0	29	0	98566144	50	6233
2026-01-26 12:29:43.46	25.89	4.48	-38.9	-40.2	19.8	0.00e+00	0	29	0	102760448	50	6356
2026-01-26 12:29:44.47	25.99	4.53	-38.7	-39.9	19.8	0.00e+00	0	29	0	105906176	50	6149
2026-01-26 12:29:45.48	26.08	4.59	-39.2	-40.5	19.4	0.00e+00	0	29	0	109051904	50	6611
2026-01-26 12:29:46.49	26.18	4.64	-38.6	-39.8	20.1	0.00e+00	0	29	0	112197632	50	6114
2026-01-26 12:29:47.50	26.27	4.70	-38.4	-39.6	20.3	0.00e+00	0	29	0	114294784	50	5981
2026-01-26 12:29:48.51	26.37	4.75	-38.4	-39.6	20.3	0.00e+00	0	29	0	118489088	50	5961
2026-01-26 12:29:49.51	26.47	4.80	-38.5	-39.7	20.1	0.00e+00	0	29	0	121634816	50	6015
2026-01-26 12:29:50.52	26.56	4.86	-38.6	-39.8	20.1	0.00e+00	0	29	0	124780544	50	6109
2026-01-26 12:29:51.53	26.66	4.91	-38.3	-39.4	20.5	0.00e+00	0	29	0	127926272	50	5832
2026-01-26 12:29:52.54	26.76	4.97	-38.1	-39.2	20.6	0.00e+00	0	29	0	131072000	50	5706
2026-01-26 12:29:53.55	26.85	5.02	-38.4	-39.6	20.4	0.00e+00	0	29	0	134217728	50	5927
2026-01-26 12:29:54.56	26.95	5.08	-38.8	-40.1	19.8	0.00e+00	0	29	0	137363456	50	6300
2026-01-26 12:29:55.57	27.05	5.13	-38.5	-39.7	20.2	0.00e+00	0	29	0	140509184	50	6048
2026-01-26 12:29:56.58	27.15	5.19	-38.3	-39.5	20.5	0.00e+00	0	29	0	143654912	50	5882
2026-01-26 12:29:57.59	27.25	5.24	-38.1	-39.3	20.5	0.00e+00	0	29	0	146800640	50	5746
2026-01-26 12:29:58.60	27.35	5.30	-38.5	-39.7	20.4	0.00e+00	0	29	0	149946368	50	6026
2026-01-26 12:29:59.61	27.45	5.35	-37.9	-39.1	20.8	0.00e+00	0	29	0	153092096	50	5619
2026-01-26 12:30:00.62	27.55	5.41	-37.8	-39.0	20.9	0.00e+00	0	29	0	156237824	50	5545
2026-01-26 12:30:01.63	27.65	5.47	-38.5	-39.6	20.3	0.00e+00	0	29	0	159383552	50	5988
2026-01-26 12:30:02.64	27.75	5.52	-38.0	-39.2	20.8	0.00e+00	0	29	0	162529280	50	5675
2026-01-26 12:30:03.64	27.85	5.58	-38.2	-39.4	20.6	0.00e+00	0	29	0	165675008	50	5825
2026-01-26 12:30:04.65	27.95	5.63	-38.1	-39.3	20.6	0.00e+00	0	29	0	168820736	50	5736
2026-01-26 12:30:05.66	28.05	5.69	-38.3	-39.5	20.5	0.00e+00	0	29	0	171966464	50	5907
2026-01-26 12:30:06.67	28.16	5.74	-38.0	-39.1	20.7	0.00e+00	0	29	0	175112192	50	5645
2026-01-26 12:30:07.68	28.26	5.80	-38.3	-39.5	20.5	0.00e+00	0	29	0	178257920	50	5897
2026-01-26 12:30:08.69	28.36	5.85	-38.1	-39.3	20.6	0.00e+00	0	29	0	181403648	50	5735
2026-01-26 12:30:09.70	28.47	5.91	-38.2	-39.3	20.6	0.00e+00	0	29	0	184549376	50	5776
2026-01-26 12:30:10.71	28.57	5.96	-38.2	-39.4	20.6	0.00e+00	0	29	0	187695104	50	5827
2026-01-26 12:30:11.72	28.67	6.02	-37.9	-39.0	21.0	0.00e+00	0	29	0	190840832	50	5581
2026-01-26 12:30:12.73	28.78	6.08	-38.0	-39.1	20.9	0.00e+00	0	29	0	193986560	48	6326
2026-01-26 12:30:13.74	28.88	6.13	-37.6	-38.7	21.2	0.00e+00	0	29	0	197132288	48	6011
2026-01-26 12:30:14.74	28.99	6.19	-37.9	-39.0	20.9	0.00e+00	0	29	0	200278016	48	6258
2026-01-26 12:30:15.75	29.09	6.24	-37.7	-38.8	21.2	0.00e+00	0	29	0	203423744	48	6081
2026-01-26 12:30:16.77	29.20	6.30	-38.1	-39.2	20.8	0.00e+00	0	29	0	206569472	48	6408
2026-01-26 12:30:17.77	29.31	6.35	-38.0	-39.1	21.0	0.00e+00	0	29	0	209715200	48	6308
2026-01-26 12:30:18.78	29.41	6.41	-37.7	-38.8	21.1	0.00e+00	0	29	0	212860928	48	6121
2026-01-26 12:30:19.79	29.52	6.47	-37.9	-39.1	21.0	0.00e+00	0	29	0	216006656	48	6281
2026-01-26 12:30:20.80	29.63	6.52	-38.0	-39.1	21.0	0.00e+00	0	29	0	219152384	48	6320
2026-01-26 12:30:21.81	29.74	6.58	-37.8	-38.9	21.0	0.00e+00	0	29	0	222298112	48	6143
2026-01-26 12:30:22.82	29.85	6.64	-37.6	-38.7	21.4	0.00e+00	0	29	0	225443840	48	6014
2026-01-26 12:30:23.83	29.96	6.69	-37.7	-38.8	21.2	0.00e+00	0	29	0	228589568	48	6128
2026-01-26 12:30:24.84	30.06	6.75	-37.4	-38.5	21.4	0.00e+00	0	29	0	231735296	48	5903
2026-01-26 12:30:25.85	30.17	6.80	-37.5	-38.6	21.4	0.00e+00	0	29	0	234881024	48	5969
2026-01-26 12:30:26.86	30.28	6.86	-37.5	-38.5	21.5	0.00e+00	0	29	0	238026752	48	5918
2026-01-26 12:30:27.87	30.40	6.92	-37.4	-38.5	21.5	0.00e+00	0	29	0	241172480	48	5884
2026-01-26 12:30:28.88	30.51	6.97	-37.4	-38.5	21.5	0.00e+00	0	29	0	244318208	48	5874
2026-01-26 12:30:29.89	30.62	7.03	-37.4	-38.5	21.6	0.00e+00	0	29	0	247463936	48	5918
2026-01-26 12:30:30.90	30.73	7.09	-37.4	-38.4	21.6	0.00e+00	0	29	0	250609664	48	5851
2026-01-26 12:30:31.90	30.84	7.14	-37.2	-38.3	21.8	0.00e+00	0	29	0	253755392	48	5747
2026-01-26 12:30:32.92	30.95	7.20	-37.3	-38.4	21.6	0.00e+00	0	29	0	256901120	48	5826
2026-01-26 12:30:33.92	31.07	7.26	-37.4	-38.5	21.6	0.00e+00	0	29	0	260046848	48	5867
2026-01-26 12:30:34.93	31.18	7.31	-37.0	-38.1	21.9	0.00e+00	0	29	0	263192576	48	5595
2026-01-26 12:30:35.94	31.29	7.37	-36.9	-37.9	22.0	0.00e+00	0	29	0	266338304	48	5527
2026-01-26 12:30:36.95	31.41	7.43	-37.0	-38.0	22.0	0.00e+00	0	29	0	269484032	48	5574
2026-01-26 12:30:37.96	31.52	7.48	-37.2	-38.3	21.8	0.00e+00	0	29	0	272629760	48	5741
2026-01-26 12:30:38.97	31.64	7.54	-37.3	-38.4	21.6	0.00e+00	0	29	0	275775488	48	5826
2026-01-26 12:30:39.98	31.75	7.60	-37.1	-38.2	21.9	0.00e+00	0	29	0	278921216	48	5693
2026-01-26 12:30:40.99	31.87	7.65	-37.2	-38.3	21.8	0.00e+00	0	29	0	282066944	48	5729
2026-01-26 12:30:42.00	31.99	7.71	-37.0	-38.0	22.0	0.00e+00	0	29	0	285212672	48	5586
2026-01-26 12:30:43.01	32.10	7.77	-37.2	-38.2	21.8	0.00e+00	0	29	0	288358400	48	5703
2026-01-26 12:30:44.02	32.22	7.82	-37.1	-38.1	21.9	0.00e+00	0	29	0	291504128	48	5649
2026-01-26 12:30:45.03	32.34	7.88	-37.1	-38.2	21.8	0.00e+00	0	29	0	294649856	48	5665
2026-01-26 12:30:46.04	32.46	7.94	-37.1	-38.1	21.8	0.00e+00	0	29	0	297795584	48	5629
2026-01-26 12:30:47.05	32.58	7.99	-37.0	-38.0	22.0	0.00e+00	0	29	0	300941312	48	5594
2026-01-26 12:30:48.06	32.69	8.05	-37.1	-38.2	21.8	0.00e+00	0	29	0	304087040	48	5683
2026-01-26 12:30:49.07	32.81	8.11	-37.0	-38.1	22.0	0.00e+00	0	29	0	307232768	48	5595
2026-01-26 12:30:50.08	32.93	8.17	-37.2	-38.2	21.8	0.00e+00	0	29	0	310378496	48	5702
2026-01-26 12:30:51.09	33.05	8.22	-37.1	-38.1	21.9	0.00e+00	0	29	0	313524224	48	5644
2026-01-26 12:30:52.09	33.17	8.28	-36.9	-37.9	22.1	0.00e+00	0	29	0	316669952	48	5527
2026-01-26 12:30:53.10	33.30	8.34	-36.9	-37.9	22.2	0.00e+00	0	29	0	319815680	46	6185
2026-01-26 12:30:54.11	33.42	8.39	-36.7	-37.7	22.3	0.00e+00	0	29	0	322961408	46	6063
2026-01-26 12:30:55.12	33.54	8.45	-36.7	-37.8	22.2	0.00e+00	0	29	0	326107136	46	6086
2026-01-26 12:30:56.13	33.66	8.51	-36.7	-37.7	22.4	0.00e+00	0	29	0	329252864	46	6026
2026-01-26 12:30:57.14	33.79	8.57	-36.8	-37.8	22.3	0.00e+00	0	29	0	332398592	46	6090
2026-01-26 12:30:58.15	33.91	8.62	-36.5	-37.5	22.5	0.00e+00	0	29	0	335544320	46	5907
2026-01-26 12:30:59.16	34.03	8.68	-36.9	-37.9	22.2	0.00e+00	0	29	0	338690048	46	6161
2026-01-26 12:31:00.17	34.16	8.74	-36.9	-38.0	22.0	0.00e+00	0	29	0	341835776	46	6215
2026-01-26 12:31:01.18	34.28	8.79	-36.9	-37.9	22.1	0.00e+00	0	29	0	344981504	46	6201
2026-01-26 12:31:02.19	34.41	8.85	-36.9	-37.9	22.2	0.00e+00	0	29	0	348127232	46	6180
2026-01-26 12:31:03.20	34.53	8.91	-36.6	-37.6	22.4	0.00e+00	0	29	0	351272960	46	5979
2026-01-26 12:31:04.20	34.66	8.97	-36.6	-37.7	22.3	0.00e+00	0	29	0	354418688	46	6001
2026-01-26 12:31:05.21	34.79	9.02	-36.7	-37.7	22.3	0.00e+00	0	29	0	357564416	46	6023
2026-01-26 12:31:06.22	34.91	9.08	-36.8	-37.8	22.4	0.00e+00	0	29	0	360710144	46	6085
2026-01-26 12:31:07.23	35.04	9.14	-36.6	-37.6	22.5	0.00e+00	0	29	0	363855872	46	5932
2026-01-26 12:31:08.24	35.17	9.20	-36.5	-37.5	22.6	0.00e+00	0	29	0	367001600	46	5893
2026-01-26 12:31:09.25	35.30	9.25	-36.4	-37.4	22.6	0.00e+00	0	29	0	370147328	46	5857
2026-01-26 12:31:10.26	35.43	9.31	-36.5	-37.5	22.6	0.00e+00	0	29	0	373293056	46	5864
2026-01-26 12:31:11.27	35.56	9.37	-36.5	-37.5	22.5	0.00e+00	0	29	0	376438784	46	5896
2026-01-26 12:31:12.28	35.69	9.42	-36.3	-37.3	22.7	0.00e+00	0	29	0	379584512	46	5765
2026-01-26 12:31:13.29	35.82	9.48	-36.4	-37.4	22.6	0.00e+00	0	29	0	382730240	46	5828
2026-01-26 12:31:14.30	35.95	9.54	-36.3	-37.2	22.8	0.00e+00	0	29	0	385875968	46	5709
2026-01-26 12:31:15.31	36.08	9.60	-36.3	-37.2	22.7	0.00e+00	0	29	0	389021696	46	5707
2026-01-26 12:31:16.31	36.21	9.65	-36.1	-37.1	22.9	0.00e+00	0	29	0	392167424	46	5620
2026-01-26 12:31:17.32	36.35	9.71	-36.3	-37.3	22.7	0.00e+00	0	29	0	395313152	46	5733
2026-01-26 12:31:18.34	36.48	9.77	-36.3	-37.3	22.7	0.00e+00	0	29	0	398458880	46	5762
2026-01-26 12:31:19.34	36.62	9.83	-36.5	-37.5	22.6	0.00e+00	0	29	0	401604608	46	5889
2026-01-26 12:31:20.36	36.75	9.88	-36.6	-37.5	22.6	0.00e+00	0	29	0	404750336	46	5926
2026-01-26 12:31:21.36	36.88	9.94	-36.3	-37.3	22.8	0.00e+00	0	29	0	407896064	46	5754
2026-01-26 12:31:22.37	37.02	10.00	-36.4	-37.4	22.7	0.00e+00	0	29	0	411041792	46	5822
2026-01-26 12:31:23.38	37.16	10.06	-36.2	-37.2	22.9	0.00e+00	0	29	0	414187520	46	5660
2026-01-26 12:31:24.39	37.29	10.11	-36.3	-37.2	22.8	0.00e+00	0	29	0	417333248	46	5715
2026-01-26 12:31:25.40	37.43	10.17	-36.1	-37.0	23.0	0.00e+00	0	29	0	420478976	46	5589
2026-01-26 12:31:26.41	37.57	10.23	-36.2	-37.2	22.9	0.00e+00	0	29	0	423624704	46	5681
2026-01-26 12:31:27.41	37.70	10.29	-36.1	-37.1	22.9	0.00e+00	0	29	0	426770432	46	5618
2026-01-26 12:31:28.42	37.84	10.34	-36.2	-37.2	22.9	0.00e+00	0	29	0	429916160	46	5663
2026-01-26 12:31:29.43	37.98	10.40	-36.2	-37.2	22.9	0.00e+00	0	29	0	433061888	46	5671
2026-01-26 12:31:30.44	38.12	10.46	-36.3	-37.3	22.8	0.00e+00	0	29	0	436207616	46	5768
2026-01-26 12:31:31.45	38.26	10.51	-36.3	-37.3	22.7	0.00e+00	0	29	0	439353344	46	5748
2026-01-26 12:31:32.46	38.40	10.57	-36.2	-37.2	22.9	0.00e+00	0	29	0	442499072	46	5707
2026-01-26 12:31:33.47	38.54	10.63	-36.1	-37.0	23.0	0.00e+00	0	29	0	445644800	46	5572
2026-01-26 12:31:34.48	38.68	10.69	-36.1	-37.0	22.9	0.00e+00	0	29	0	448790528	46	5588
2026-01-26 12:31:35.49	38.83	10.74	-36.1	-37.1	23.0	0.00e+00	0	29	0	451936256	46	5622
2026-01-26 12:31:36.50	38.97	10.80	-36.1	-37.0	22.9	0.00e+00	0	29	0	455081984	46	5589
2026-01-26 12:31:37.51	39.11	10.86	-36.0	-37.0	23.1	0.00e+00	0	29	0	458227712	46	5542
2026-01-26 12:31:38.52	39.26	10.92	-36.1	-37.1	23.0	0.00e+00	0	29	0	461373440	46	5623
2026-01-26 12:31:39.53	39.40	10.97	-36.0	-37.0	23.0	0.00e+00	0	29	0	464519168	46	5576
2026-01-26 12:31:40.53	39.54	11.03	-36.0	-37.0	23.1	0.00e+00	0	29	0	467664896	46	5537
2026-01-26 12:31:41.54	39.69	11.09	-35.8	-36.8	23.2	0.00e+00	0	29	0	470810624	46	5418
2026-01-26 12:31:42.55	39.84	11.14	-35.9	-36.9	23.1	0.00e+00	0	29	0	473956352	46	5506
2026-01-26 12:31:43.56	39.98	11.20	-36.0	-37.0	23.1	0.00e+00	0	29	0	478150656	46	5537
2026-01-26 12:31:44.57	40.13	11.26	-35.8	-36.8	23.2	0.00e+00	0	29	0	480247808	46	5437
2026-01-26 12:31:45.58	40.28	11.32	-35.9	-36.8	23.1	0.00e+00	0	29	0	483393536	46	5457
2026-01-26 12:31:46.59	40.43	11.37	-35.9	-36.9	23.1	0.00e+00	0	29	0	486539264	46	5501
2026-01-26 12:31:47.60	40.57	11.43	-35.9	-36.9	23.2	0.00e+00	0	29	0	489684992	46	5487
2026-01-26 12:31:48.61	40.72	11.49	-35.8	-36.8	23.2	0.00e+00	0	29	0	493879296	44	6085
2026-01-26 12:31:49.62	40.87	11.54	-36.1	-37.0	23.0	0.00e+00	0	29	0	497025024	44	6264
2026-01-26 12:31:50.63	41.02	11.60	-35.7	-36.7	23.2	0.00e+00	0	29	0	500170752	44	6006
2026-01-26 12:31:51.63	41.17	11.66	-35.9	-36.9	23.1	0.00e+00	0	29	0	502267904	44	6139
2026-01-26 12:31:52.64	41.33	11.71	-35.7	-36.7	23.3	0.00e+00	0	29	0	505413632	44	6011
2026-01-26 12:31:53.65	41.48	11.77	-35.7	-36.6	23.3	0.00e+00	0	29	0	508559360	44	5984
2026-01-26 12:31:54.66	41.63	11.83	-35.8	-36.7	23.3	0.00e+00	0	29	0	512753664	44	6053
2026-01-26 12:31:55.67	41.78	11.88	-35.8	-36.8	23.2	0.00e+00	0	29	0	515899392	44	6071
2026-01-26 12:31:56.68	41.94	11.94	-36.0	-37.0	23.1	0.00e+00	0	29	0	519045120	44	6206
2026-01-26 12:31:57.69	42.09	12.00	-35.9	-36.8	23.2	0.00e+00	0	29	0	522190848	44	6127
2026-01-26 12:31:58.70	42.25	12.05	-35.6	-36.5	23.4	0.00e+00	0	29	0	525336576	44	5916
2026-01-26 12:31:59.71	42.40	12.11	-35.8	-36.8	23.1	0.00e+00	0	29	0	528482304	44	6069
2026-01-26 12:32:00.71	42.56	12.16	-35.6	-36.5	23.4	0.00e+00	0	29	0	531628032	44	5917
2026-01-26 12:32:01.72	42.71	12.22	-35.7	-36.7	23.3	0.00e+00	0	29	0	534773760	44	5995
2026-01-26 12:32:02.73	42.87	12.28	-35.8	-36.7	23.3	0.00e+00	0	29	0	537919488	44	6036
2026-01-26 12:32:03.74	43.03	12.33	-35.7	-36.6	23.4	0.00e+00	0	29	0	541065216	44	5965
2026-01-26 12:32:04.75	43.19	12.39	-35.7	-36.6	23.5	0.00e+00	0	29	0	544210944	44	5964
2026-01-26 12:32:05.76	43.35	12.45	-35.8	-36.7	23.3	0.00e+00	0	29	0	547356672	44	6056
2026-01-26 12:32:06.77	43.51	12.50	-35.8	-36.7	23.3	0.00e+00	0	29	0	550502400	44	6057
2026-01-26 12:32:07.78	43.67	12.56	-35.7	-36.6	23.4	0.00e+00	0	29	0	553648128	44	5980
2026-01-26 12:32:08.79	43.83	12.61	-35.6	-36.5	23.5	0.00e+00	0	29	0	556793856	44	5919
2026-01-26 12:32:09.80	43.99	12.67	-35.6	-36.5	23.5	0.00e+00	0	29	0	559939584	44	5910
2026-01-26 12:32:10.81	44.15	12.72	-35.4	-36.3	23.7	0.00e+00	0	29	0	563085312	44	5775
2026-01-26 12:32:11.82	44.31	12.78	-35.5	-36.4	23.6	0.00e+00	0	29	0	566231040	44	5819
2026-01-26 12:32:12.83	44.48	12.84	-35.4	-36.3	23.7	0.00e+00	0	29	0	569376768	44	5765
2026-01-26 12:32:13.84	44.64	12.89	-35.3	-36.2	23.7	0.00e+00	0	29	0	572522496	44	5678
2026-01-26 12:32:14.85	44.81	12.95	-35.4	-36.3	23.6	0.00e+00	0	29	0	575668224	44	5780
2026-01-26 12:32:15.86	44.97	13.00	-35.4	-36.4	23.6	0.00e+00	0	29	0	578813952	44	5811
2026-01-26 12:32:16.87	45.14	13.06	-35.4	-36.3	23.6	0.00e+00	0	29	0	581959680	44	5791
2026-01-26 12:32:17.87	45.30	13.11	-35.3	-36.2	23.7	0.00e+00	0	29	0	585105408	44	5688
2026-01-26 12:32:18.89	45.47	13.17	-35.5	-36.4	23.6	0.00e+00	0	29	0	588251136	44	5824
2026-01-26 12:32:19.89	45.64	13.22	-35.5	-36.5	23.6	0.00e+00	0	29	0	591396864	44	5879
2026-01-26 12:32:20.90	45.80	13.28	-35.5	-36.5	23.6	0.00e+00	0	29	0	594542592	44	5876
2026-01-26 12:32:21.91	45.97	13.33	-35.4	-36.3	23.6	0.00e+00	0	29	0	597688320	44	5785
2026-01-26 12:32:22.92	46.14	13.39	-35.5	-36.4	23.7	0.00e+00	0	29	0	600834048	44	5812
2026-01-26 12:32:23.93	46.31	13.44	-35.4	-36.3	23.7	0.00e+00	0	29	0	603979776	44	5767
2026-01-26 12:32:24.94	46.48	13.49	-35.5	-36.4	23.6	0.00e+00	0	29	0	607125504	44	5853
2026-01-26 12:32:25.95	46.65	13.55	-35.5	-36.5	23.6	0.00e+00	0	29	0	610271232	44	5891
2026-01-26 12:32:26.96	46.83	13.60	-35.6	-36.5	23.6	0.00e+00	0	29	0	613416960	44	5887
2026-01-26 12:32:27.97	47.00	13.66	-35.6	-36.5	23.6	0.00e+00	0	29	0	616562688	44	5884
2026-01-26 12:32:28.98	47.17	13.71	-35.7	-36.7	23.4	0.00e+00	0	29	0	619708416	44	6036
2026-01-26 12:32:29.99	47.34	13.76	-35.6	-36.5	23.5	0.00e+00	0	29	0	622854144	44	5926
2026-01-26 12:32:30.99	47.52	13.82	-35.4	-36.4	23.7	0.00e+00	0	29	0	625999872	44	5811
2026-01-26 12:32:32.00	47.69	13.87	-35.6	-36.5	23.6	0.00e+00	0	29	0	629145600	44	5878
2026-01-26 12:32:33.01	47.87	13.92	-35.6	-36.5	23.6	0.00e+00	0	29	0	632291328	44	5918
2026-01-26 12:32:34.02	48.04	13.98	-35.5	-36.5	23.6	0.00e+00	0	29	0	635437056	44	5868
2026-01-26 12:32:35.03	48.22	14.03	-35.5	-36.4	23.6	0.00e+00	0	29	0	638582784	44	5847
2026-01-26 12:32:36.04	48.40	14.08	-35.4	-36.3	23.6	0.00e+00	0	29	0	641728512	44	5751
2026-01-26 12:32:37.05	48.57	14.14	-35.5	-36.4	23.6	0.00e+00	0	29	0	644874240	44	5833
2026-01-26 12:32:38.06	48.75	14.19	-35.8	-36.7	23.4	0.00e+00	0	29	0	648019968	44	6044
2026-01-26 12:32:39.07	48.93	14.24	-35.8	-36.8	23.4	0.00e+00	0	29	0	651165696	44	6065
2026-01-26 12:32:40.08	49.11	14.30	-36.2	-37.2	23.2	0.00e+00	0	29	0	654311424	44	6401
2026-01-26 12:32:41.09	49.29	14.35	-36.2	-37.2	23.0	0.00e+00	0	29	0	657457152	44	6382
2026-01-26 12:32:42.10	49.47	14.40	-36.0	-36.9	23.1	0.00e+00	0	29	0	660602880	44	6195
2026-01-26 12:32:43.11	49.65	14.45	-36.0	-36.9	23.2	0.00e+00	0	29	0	663748608	44	6197
2026-01-26 12:32:44.12	49.84	14.50	-35.9	-36.9	23.2	0.00e+00	0	29	0	666894336	44	6159
2026-01-26 12:32:45.13	50.02	14.56	-36.0	-37.0	23.2	0.00e+00	0	29	0	670040064	44	6223
2026-01-26 12:32:46.14	50.20	14.61	-35.9	-36.8	23.3	0.00e+00	0	29	0	673185792	44	6104
2026-01-26 12:32:47.14	50.39	14.66	-35.9	-36.8	23.3	0.00e+00	0	29	0	676331520	44	6128
2026-01-26 12:32:48.15	50.57	14.71	-35.6	-36.5	23.5	0.00e+00	0	29	0	679477248	44	5895
2026-01-26 12:32:49.16	50.76	14.76	-35.4	-36.3	23.7	0.00e+00	0	29	0	682622976	44	5754
2026-01-26 12:32:50.17	50.94	14.81	-35.5	-36.4	23.7	0.00e+00	0	29	0	685768704	44	5857
2026-01-26 12:32:51.18	51.13	14.86	-35.3	-36.3	23.8	0.00e+00	0	29	0	688914432	44	5727
2026-01-26 12:32:52.19	51.32	14.91	-35.4	-36.3	23.8	0.00e+00	0	29	0	692060160	44	5789
2026-01-26 12:32:53.20	51.50	14.96	-35.4	-36.4	23.6	0.00e+00	0	29	0	695205888	44	5804
2026-01-26 12:32:54.21	51.69	15.01	-35.4	-36.4	23.6	0.00e+00	0	29	0	698351616	44	5808
2026-01-26 12:32:55.22	51.88	15.06	-35.5	-36.4	23.5	0.00e+00	0	29	0	701497344	44	5830
2026-01-26 12:32:56.23	52.07	15.11	-35.7	-36.7	23.3	0.00e+00	0	29	0	704643072	44	6009
2026-01-26 12:32:57.24	52.26	15.16	-35.9	-36.8	23.3	0.00e+00	0	29	0	707788800	44	6110
2026-01-26 12:32:58.25	52.45	15.21	-35.7	-36.6	23.5	0.00e+00	0	29	0	710934528	44	5975
2026-01-26 12:32:59.26	52.64	15.26	-35.5	-36.5	23.6	0.00e+00	0	29	0	714080256	44	5895
2026-01-26 12:33:00.26	52.83	15.31	-35.7	-36.6	23.5	0.00e+00	0	29	0	717225984	44	5984
2026-01-26 12:33:01.27	53.03	15.36	-35.5	-36.4	23.7	0.00e+00	0	29	0	720371712	44	5819
2026-01-26 12:33:02.29	53.22	15.41	-35.3	-36.3	23.8	0.00e+00	0	29	0	723517440	44	5732
2026-01-26 12:33:03.29	53.41	15.46	-35.3	-36.2	23.8	0.00e+00	0	29	0	726663168	44	5698
2026-01-26 12:33:04.30	53.61	15.51	-35.4	-36.3	23.8	0.00e+00	0	29	0	729808896	44	5745
2026-01-26 12:33:05.31	53.80	15.55	-35.1	-36.0	24.0	0.00e+00	0	29	0	732954624	44	5568
2026-01-26 12:33:06.32	54.00	15.60	-35.2	-36.1	23.9	0.00e+00	0	29	0	736100352	44	5623
2026-01-26 12:33:07.33	54.19	15.65	-35.1	-36.1	23.8	0.00e+00	0	29	0	739246080	44	5603
2026-01-26 12:33:08.34	54.39	15.70	-35.3	-36.2	23.8	0.00e+00	0	29	0	742391808	44	5697
2026-01-26 12:33:09.35	54.59	15.74	-35.3	-36.3	23.6	0.00e+00	0	29	0	745537536	44	5741
2026-01-26 12:33:10.36	54.79	15.79	-35.5	-36.4	23.5	0.00e+00	0	29	0	748683264	44	5840
2026-01-26 12:33:11.37	54.99	15.84	-35.4	-36.3	23.6	0.00e+00	0	29	0	751828992	44	5776
2026-01-26 12:33:12.37	55.18	15.88	-35.4	-36.3	23.6	0.00e+00	0	29	0	754974720	44	5755
2026-01-26 12:33:13.38	55.38	15.93	-35.3	-36.3	23.6	0.00e+00	0	29	0	758120448	44	5744
2026-01-26 12:33:14.39	55.58	15.98	-35.3	-36.3	23.8	0.00e+00	0	29	0	761266176	44	5731
2026-01-26 12:33:15.40	55.79	16.02	-35.2	-36.1	23.9	0.00e+00	0	29	0	764411904	44	5616
2026-01-26 12:33:16.41	55.99	16.07	-35.1	-36.1	23.9	0.00e+00	0	29	0	767557632	44	5599
2026-01-26 12:33:17.42	56.19	16.11	-35.2	-36.1	23.9	0.00e+00	0	29	0	770703360	44	5632
2026-01-26 12:33:18.43	56.39	16.16	-35.1	-36.0	24.0	0.00e+00	0	29	0	773849088	44	5585
2026-01-26 12:33:19.44	56.60	16.20	-35.1	-36.0	24.0	0.00e+00	0	29	0	776994816	44	5578
2026-01-26 12:33:20.44	56.80	16.25	-35.1	-36.1	23.8	0.00e+00	0	29	0	780140544	44	5608
2026-01-26 12:33:21.45	57.00	16.29	-35.2	-36.2	23.9	0.00e+00	0	29	0	783286272	44	5669
2026-01-26 12:33:22.46	57.21	16.33	-35.2	-36.2	23.7	0.00e+00	0	29	0	786432000	44	5670
2026-01-26 12:33:23.47	57.42	16.38	-35.1	-36.1	23.8	0.00e+00	0	29	0	789577728	44	5612
2026-01-26 12:33:24.48	57.62	16.42	-35.1	-36.1	23.9	0.00e+00	0	29	0	792723456	44	5617
2026-01-26 12:33:25.49	57.83	16.46	-35.2	-36.2	23.7	0.00e+00	0	29	0	795869184	44	5689
2026-01-26 12:33:26.50	58.04	16.51	-35.1	-36.1	23.8	0.00e+00	0	29	0	799014912	44	5602
2026-01-26 12:33:27.51	58.25	16.55	-35.0	-35.9	24.0	0.00e+00	0	29	0	802160640	44	5481
2026-01-26 12:33:28.52	58.45	16.59	-34.9	-35.8	24.1	0.00e+00	0	29	0	805306368	44	5439
2026-01-26 12:33:29.53	58.66	16.63	-34.8	-35.7	24.1	0.00e+00	0	29	0	808452096	44	5384
2026-01-26 12:33:30.54	58.87	16.68	-34.7	-35.7	24.3	0.00e+00	0	29	0	811597824	42	6007
2026-01-26 12:33:31.54	59.08	16.72	-34.7	-35.6	24.3	0.00e+00	0	29	0	814743552	42	5939
2026-01-26 12:33:32.55	59.29	16.76	-34.7	-35.6	24.2	0.00e+00	0	29	0	817889280	42	5985
2026-01-26 12:33:33.56	59.51	16.80	-34.8	-35.7	24.1	0.00e+00	0	29	0	821035008	42	6001
2026-01-26 12:33:34.57	59.72	16.84	-34.8	-35.7	24.0	0.00e+00	0	29	0	824180736	42	6057
2026-01-26 12:33:35.58	59.93	16.88	-34.9	-35.8	24.0	0.00e+00	0	29	0	827326464	42	6133
2026-01-26 12:33:36.59	60.14	16.92	-34.9	-35.9	24.1	0.00e+00	0	29	0	830472192	42	6142
2026-01-26 12:33:37.60	60.36	16.96	-34.9	-35.8	24.1	0.00e+00	0	29	0	833617920	42	6120
2026-01-26 12:33:38.61	60.57	17.00	-34.9	-35.9	24.1	0.00e+00	0	29	0	836763648	42	6143
2026-01-26 12:33:39.62	60.79	17.04	-34.8	-35.8	24.1	0.00e+00	0	29	0	839909376	42	6070
2026-01-26 12:33:40.63	61.00	17.08	-34.8	-35.7	24.2	0.00e+00	0	29	0	843055104	42	6055
2026-01-26 12:33:41.64	61.22	17.12	-34.8	-35.7	24.1	0.00e+00	0	29	0	846200832	42	6052
2026-01-26 12:33:42.65	61.44	17.15	-34.7	-35.6	24.3	0.00e+00	0	29	0	849346560	42	5967
2026-01-26 12:33:43.66	61.65	17.19	-34.7	-35.6	24.3	0.00e+00	0	29	0	852492288	42	5938
2026-01-26 12:33:44.67	61.87	17.23	-34.7	-35.6	24.3	0.00e+00	0	29	0	855638016	42	5932
2026-01-26 12:33:45.68	62.09	17.27	-34.6	-35.5	24.3	0.00e+00	0	29	0	858783744	42	5904
2026-01-26 12:33:46.68	62.31	17.30	-34.6	-35.5	24.4	0.00e+00	0	29	0	861929472	42	5866
2026-01-26 12:33:47.69	62.53	17.34	-34.6	-35.5	24.3	0.00e+00	0	29	0	865075200	42	5921
2026-01-26 12:33:48.70	62.75	17.37	-34.6	-35.5	24.4	0.00e+00	0	29	0	868220928	42	5902
2026-01-26 12:33:49.71	62.97	17.41	-34.5	-35.4	24.4	0.00e+00	0	29	0	871366656	42	5805
2026-01-26 12:33:50.72	63.19	17.45	-34.4	-35.3	24.5	0.00e+00	0	29	0	874512384	42	5741
2026-01-26 12:33:51.73	63.41	17.48	-34.4	-35.3	24.4	0.00e+00	0	30	0	877658112	42	5783
2026-01-26 12:33:52.74	63.63	17.51	-34.6	-35.5	24.4	0.00e+00	0	29	0	880803840	42	5887
2026-01-26 12:33:53.75	63.85	17.55	-34.6	-35.5	24.4	0.00e+00	0	29	0	883949568	42	5900
2026-01-26 12:33:54.76	64.08	17.58	-34.6	-35.5	24.4	0.00e+00	0	29	0	888143872	42	5919
2026-01-26 12:33:55.77	64.30	17.62	-34.7	-35.6	24.3	0.00e+00	0	29	0	890241024	42	5948
2026-01-26 12:33:56.78	64.52	17.65	-34.5	-35.4	24.5	0.00e+00	0	29	0	893386752	42	5796
2026-01-26 12:33:57.79	64.75	17.68	-34.6	-35.5	24.4	0.00e+00	0	29	0	896532480	42	5885
2026-01-26 12:33:58.80	64.97	17.71	-34.5	-35.4	24.5	0.00e+00	0	29	0	900726784	42	5802
2026-01-26 12:33:59.81	65.20	17.75	-34.4	-35.3	24.5	0.00e+00	0	29	0	903872512	42	5757
2026-01-26 12:34:00.82	65.42	17.78	-34.4	-35.3	24.5	0.00e+00	0	29	0	907018240	42	5759
2026-01-26 12:34:01.83	65.65	17.81	-34.4	-35.3	24.4	0.00e+00	0	29	0	909115392	42	5775
2026-01-26 12:34:02.84	65.88	17.84	-34.3	-35.2	24.4	0.00e+00	0	30	0	913309696	42	5703
2026-01-26 12:34:03.85	66.10	17.87	-34.5	-35.4	24.3	0.00e+00	0	29	0	915406848	42	5851
2026-01-26 12:34:04.86	66.33	17.90	-34.5	-35.4	24.3	0.00e+00	0	29	0	919601152	42	5824
2026-01-26 12:34:05.87	66.56	17.93	-34.5	-35.4	24.4	0.00e+00	0	29	0	922746880	42	5858
2026-01-26 12:34:06.88	66.79	17.96	-34.5	-35.4	24.4	0.00e+00	0	30	0	925892608	42	5840
2026-01-26 12:34:07.89	67.02	17.99	-34.4	-35.3	24.6	0.00e+00	0	29	0	929038336	42	5760
2026-01-26 12:34:08.90	67.25	18.02	-34.5	-35.4	24.5	0.00e+00	0	30	0	932184064	42	5822
2026-01-26 12:34:09.91	67.48	18.04	-34.3	-35.2	24.6	0.00e+00	0	29	0	935329792	42	5700
2026-01-26 12:34:10.92	67.71	18.07	-34.3	-35.2	24.5	0.00e+00	0	29	0	938475520	42	5723
2026-01-26 12:34:11.93	67.94	18.10	-34.3	-35.2	24.4	0.00e+00	0	29	0	941621248	42	5708
2026-01-26 12:34:12.94	68.17	18.13	-34.4	-35.3	24.5	0.00e+00	0	29	0	944766976	42	5741
2026-01-26 12:34:13.94	68.40	18.15	-34.4	-35.3	24.5	0.00e+00	0	30	0	947912704	42	5782
2026-01-26 12:34:14.95	68.63	18.18	-34.5	-35.4	24.4	0.00e+00	0	29	0	951058432	42	5828
2026-01-26 12:34:15.96	68.86	18.20	-34.5	-35.4	24.5	0.00e+00	0	30	0	954204160	42	5806
2026-01-26 12:34:16.97	69.09	18.23	-34.5	-35.4	24.4	0.00e+00	0	29	0	957349888	42	5832
2026-01-26 12:34:17.98	69.33	18.25	-34.3	-35.2	24.6	0.00e+00	0	29	0	960495616	42	5712
2026-01-26 12:34:18.99	69.56	18.28	-34.3	-35.2	24.6	0.00e+00	0	29	0	963641344	42	5695
2026-01-26 12:34:20.00	69.79	18.30	-34.4	-35.3	24.5	0.00e+00	0	30	0	966787072	42	5769
2026-01-26 12:34:21.01	70.03	18.32	-34.4	-35.3	24.5	0.00e+00	0	30	0	969932800	42	5732
2026-01-26 12:34:22.02	70.26	18.35	-34.6	-35.5	24.3	0.00e+00	0	29	0	973078528	42	5867
2026-01-26 12:34:23.03	70.50	18.37	-34.6	-35.5	24.4	0.00e+00	0	29	0	976224256	42	5890
2026-01-26 12:34:24.04	70.73	18.39	-34.7	-35.6	24.3	0.00e+00	0	29	0	979369984	42	5950
2026-01-26 12:34:25.05	70.97	18.41	-35.0	-35.9	24.2	0.00e+00	0	30	0	982515712	42	6162
2026-01-26 12:34:26.06	71.20	18.43	-34.7	-35.6	24.3	0.00e+00	0	29	0	985661440	42	5979
2026-01-26 12:34:27.07	71.44	18.46	-34.7	-35.6	24.3	0.00e+00	0	29	0	988807168	42	5967
2026-01-26 12:34:28.08	71.68	18.48	-34.8	-35.8	24.3	0.00e+00	0	30	0	991952896	42	6069
2026-01-26 12:34:29.09	71.91	18.50	-34.8	-35.7	24.3	0.00e+00	0	30	0	995098624	42	6006
2026-01-26 12:34:30.10	72.15	18.51	-34.8	-35.7	24.2	0.00e+00	0	29	0	998244352	42	6023
2026-01-26 12:34:31.10	72.38	18.53	-34.9	-35.8	24.1	0.00e+00	0	30	0	1001390080	42	6123
2026-01-26 12:34:32.12	72.62	18.55	-35.0	-36.0	24.1	0.00e+00	0	30	0	1004535808	42	6225
2026-01-26 12:34:33.12	72.86	18.57	-34.9	-35.8	24.2	0.00e+00	0	29	0	1007681536	42	6100
2026-01-26 12:34:34.14	73.10	18.59	-34.9	-35.8	24.2	0.00e+00	0	29	0	1010827264	42	6112
2026-01-26 12:34:35.15	73.34	18.60	-34.8	-35.8	24.3	0.00e+00	0	30	0	1013972992	42	6065
2026-01-26 12:34:36.15	73.57	18.62	-34.6	-35.6	24.5	0.00e+00	0	29	0	1017118720	42	5929
2026-01-26 12:34:37.16	73.81	18.64	-34.5	-35.5	24.5	0.00e+00	0	30	0	1020264448	42	5862
2026-01-26 12:34:38.17	74.05	18.65	-34.6	-35.5	24.5	0.00e+00	0	30	0	1023410176	42	5886
2026-01-26 12:34:39.18	74.29	18.67	-34.7	-35.6	24.4	0.00e+00	0	29	0	1026555904	42	5941
2026-01-26 12:34:40.19	74.53	18.68	-34.6	-35.5	24.5	0.00e+00	0	29	0	1029701632	42	5868
2026-01-26 12:34:41.20	74.77	18.70	-34.6	-35.5	24.4	0.00e+00	0	29	0	1032847360	42	5905
2026-01-26 12:34:42.21	75.01	18.71	-34.7	-35.6	24.3	0.00e+00	0	30	0	1035993088	42	5968
2026-01-26 12:34:43.22	75.25	18.72	-34.6	-35.5	24.4	0.00e+00	0	30	0	1039138816	42	5906
2026-01-26 12:34:44.22	75.49	18.73	-34.7	-35.6	24.3	0.00e+00	0	29	0	1042284544	42	5975
2026-01-26 12:34:45.23	75.73	18.75	-34.7	-35.6	24.4	0.00e+00	0	29	0	1045430272	42	5960
2026-01-26 12:34:46.24	75.97	18.76	-34.8	-35.8	24.3	0.00e+00	0	30	0	1048576000	42	6066
2026-01-26 12:34:47.25	76.21	18.77	-34.9	-35.8	24.3	0.00e+00	0	30	0	1051721728	42	6112
2026-01-26 12:34:48.26	76.45	18.78	-34.8	-35.7	24.3	0.00e+00	0	29	0	1054867456	42	6040
2026-01-26 12:34:49.27	76.70	18.79	-34.9	-35.8	24.3	0.00e+00	0	29	0	1058013184	42	6101
2026-01-26 12:34:50.28	76.94	18.80	-34.9	-35.8	24.2	0.00e+00	0	30	0	1061158912	42	6100
2026-01-26 12:34:51.29	77.18	18.81	-34.7	-35.6	24.4	0.00e+00	0	29	0	1064304640	42	5946
2026-01-26 12:34:52.30	77.42	18.82	-34.7	-35.7	24.3	0.00e+00	0	30	0	1067450368	42	6013
2026-01-26 12:34:53.31	77.66	18.83	-34.8	-35.8	24.2	0.00e+00	0	29	0	1070596096	42	6087
2026-01-26 12:34:54.32	77.90	18.83	-35.0	-35.9	24.2	0.00e+00	0	30	0	1073741824	42	6159
2026-01-26 12:34:55.33	78.15	18.84	-34.8	-35.7	24.2	0.00e+00	0	29	0	1076887552	42	6032
2026-01-26 12:34:56.33	78.39	18.85	-34.7	-35.6	24.4	0.00e+00	0	29	0	1080033280	42	5963
2026-01-26 12:34:57.34	78.63	18.86	-34.7	-35.6	24.4	0.00e+00	0	30	0	1083179008	42	5949
2026-01-26 12:34:58.35	78.87	18.86	-34.6	-35.5	24.5	0.00e+00	0	29	0	1086324736	42	5887
2026-01-26 12:34:59.36	79.11	18.87	-34.6	-35.5	24.4	0.00e+00	0	30	0	1089470464	42	5907
2026-01-26 12:35:00.37	79.36	18.87	-34.7	-35.6	24.4	0.00e+00	0	29	0	1092616192	42	5934
2026-01-26 12:35:01.38	79.60	18.88	-34.5	-35.4	24.5	0.00e+00	0	29	0	1095761920	42	5846
2026-01-26 12:35:02.39	79.84	18.88	-34.6	-35.5	24.4	0.00e+00	0	29	0	1098907648	42	5893
2026-01-26 12:35:03.40	80.09	18.88	-34.6	-35.5	24.5	0.00e+00	0	29	0	1102053376	42	5860
2026-01-26 12:35:04.40	80.33	18.89	-34.5	-35.4	24.6	0.00e+00	0	30	0	1105199104	42	5840
2026-01-26 12:35:05.41	80.57	18.89	-34.5	-35.5	24.5	0.00e+00	0	29	0	1108344832	42	5866
2026-01-26 12:35:06.42	80.81	18.89	-34.6	-35.5	24.4	0.00e+00	0	29	0	1111490560	42	5902
2026-01-26 12:35:07.43	81.06	18.89	-34.5	-35.4	24.5	0.00e+00	0	30	0	1114636288	42	5809
2026-01-26 12:35:08.44	81.30	18.89	-34.5	-35.4	24.4	0.00e+00	0	30	0	1117782016	42	5856
2026-01-26 12:35:09.45	81.54	18.89	-34.7	-35.6	24.3	0.00e+00	0	29	0	1120927744	42	5980
2026-01-26 12:35:10.46	81.78	18.89	-34.7	-35.7	24.3	0.00e+00	0	30	0	1124073472	42	6025
2026-01-26 12:35:11.47	82.03	18.89	-34.8	-35.8	24.2	0.00e+00	0	29	0	1127219200	42	6077
2026-01-26 12:35:12.48	82.27	18.89	-34.8	-35.8	24.3	0.00e+00	0	29	0	1130364928	42	6088
2026-01-26 12:35:13.49	82.51	18.89	-34.8	-35.7	24.2	0.00e+00	0	30	0	1133510656	42	6040
2026-01-26 12:35:14.50	82.76	18.89	-34.7	-35.7	24.3	0.00e+00	0	30	0	1136656384	42	5998
2026-01-26 12:35:15.50	83.00	18.88	-34.7	-35.6	24.3	0.00e+00	0	30	0	1139802112	42	5984
2026-01-26 12:35:16.51	83.24	18.88	-34.8	-35.7	24.2	0.00e+00	0	29	0	1142947840	42	6029
2026-01-26 12:35:17.52	83.48	18.88	-34.8	-35.8	24.2	0.00e+00	0	30	0	1146093568	42	6083
2026-01-26 12:35:18.53	83.73	18.87	-35.0	-35.9	24.1	0.00e+00	0	30	0	1149239296	42	6174
2026-01-26 12:35:19.54	83.97	18.87	-35.0	-35.9	24.2	0.00e+00	0	30	0	1152385024	42	6157
2026-01-26 12:35:20.55	84.21	18.86	-34.7	-35.6	24.3	0.00e+00	0	30	0	1155530752	42	5994
2026-01-26 12:35:21.56	84.46	18.86	-34.8	-35.7	24.3	0.00e+00	0	30	0	1158676480	42	6014
2026-01-26 12:35:22.57	84.70	18.85	-34.7	-35.6	24.3	0.00e+00	0	30	0	1161822208	42	5982
2026-01-26 12:35:23.58	84.94	18.84	-34.6	-35.5	24.4	0.00e+00	0	30	0	1164967936	42	5904
2026-01-26 12:35:24.59	85.18	18.84	-34.7	-35.6	24.3	0.00e+00	0	30	0	1168113664	42	5960
2026-01-26 12:35:25.60	85.43	18.83	-34.7	-35.6	24.3	0.00e+00	0	30	0	1171259392	42	5971
2026-01-26 12:35:26.61	85.67	18.82	-34.8	-35.7	24.2	0.00e+00	0	30	0	1174405120	42	6018
2026-01-26 12:35:27.62	85.91	18.81	-34.7	-35.6	24.3	0.00e+00	0	30	0	1177550848	42	5978
2026-01-26 12:35:28.63	86.15	18.80	-34.7	-35.6	24.3	0.00e+00	0	30	0	1180696576	42	5977
2026-01-26 12:35:29.64	86.39	18.79	-34.5	-35.4	24.4	0.00e+00	0	30	0	1183842304	42	5849
2026-01-26 12:35:30.65	86.64	18.78	-34.5	-35.4	24.5	0.00e+00	0	30	0	1186988032	42	5796
2026-01-26 12:35:31.66	86.88	18.77	-34.5	-35.4	24.4	0.00e+00	0	30	0	1190133760	42	5820
2026-01-26 12:35:32.66	87.12	18.76	-34.6	-35.5	24.3	0.00e+00	0	30	0	1193279488	42	5908
2026-01-26 12:35:33.67	87.36	18.75	-34.8	-35.7	24.2	0.00e+00	0	29	0	1196425216	42	6028
2026-01-26 12:35:34.68	87.60	18.74	-34.9	-35.9	24.2	0.00e+00	0	29	0	1199570944	42	6143
2026-01-26 12:35:35.69	87.84	18.72	-34.8	-35.7	24.3	0.00e+00	0	30	0	1202716672	42	6005
2026-01-26 12:35:36.69	88.08	18.71	-34.8	-35.7	24.3	0.00e+00	0	29	0	1205862400	42	6032
2026-01-26 12:35:37.70	88.32	18.70	-34.6	-35.5	24.3	0.00e+00	0	30	0	1209008128	42	5923
2026-01-26 12:35:38.71	88.56	18.68	-34.5	-35.3	24.5	0.00e+00	0	29	0	1212153856	42	5784
2026-01-26 12:35:39.72	88.80	18.67	-34.4	-35.2	24.5	0.00e+00	0	30	0	1215299584	42	5723
2026-01-26 12:35:40.73	89.04	18.65	-34.4	-35.3	24.5	0.00e+00	0	30	0	1218445312	42	5747
2026-01-26 12:35:41.73	89.27	18.64	-34.6	-35.5	24.3	0.00e+00	0	30	0	1221591040	42	5873
2026-01-26 12:35:42.74	89.51	18.62	-34.5	-35.4	24.4	0.00e+00	0	30	0	1224736768	42	5794
2026-01-26 12:35:43.75	89.75	18.61	-34.3	-35.2	24.6	0.00e+00	0	30	0	1227882496	42	5665
2026-01-26 12:35:44.76	89.99	18.59	-34.2	-35.1	24.7	0.00e+00	0	30	0	1231028224	42	5650
2026-01-26 12:35:45.76	90.23	18.57	-34.3	-35.2	24.6	0.00e+00	0	30	0	1234173952	42	5691
2026-01-26 12:35:46.78	90.47	18.55	-34.3	-35.1	24.6	0.00e+00	0	29	0	1237319680	42	5651
2026-01-26 12:35:47.78	90.70	18.54	-34.2	-35.1	24.6	0.00e+00	0	30	0	1240465408	42	5600
2026-01-26 12:35:48.79	90.94	18.52	-34.3	-35.2	24.5	0.00e+00	0	30	0	1243611136	42	5714
2026-01-26 12:35:49.80	91.18	18.50	-34.4	-35.3	24.4	0.00e+00	0	30	0	1246756864	42	5758
2026-01-26 12:35:50.81	91.42	18.48	-34.3	-35.2	24.5	0.00e+00	0	30	0	1249902592	42	5674
2026-01-26 12:35:51.82	91.65	18.46	-34.5	-35.4	24.5	0.00e+00	0	30	0	1253048320	42	5840
2026-01-26 12:35:52.83	91.89	18.44	-34.8	-35.6	24.4	0.00e+00	0	29	0	1256194048	42	5993
2026-01-26 12:35:53.84	92.13	18.42	-34.2	-35.1	24.6	0.00e+00	0	30	0	1259339776	42	5616
2026-01-26 12:35:54.85	92.36	18.39	-34.4	-35.3	24.5	0.00e+00	0	30	0	1262485504	42	5747
2026-01-26 12:35:55.86	92.60	18.37	-34.4	-35.3	24.5	0.00e+00	0	30	0	1265631232	42	5754
2026-01-26 12:35:56.86	92.83	18.35	-34.6	-35.5	24.4	0.00e+00	0	30	0	1268776960	42	5878
2026-01-26 12:35:57.87	93.07	18.33	-34.3	-35.2	24.5	0.00e+00	0	30	0	1271922688	42	5719
2026-01-26 12:35:58.88	93.30	18.30	-34.5	-35.4	24.4	0.00e+00	0	30	0	1275068416	42	5820
2026-01-26 12:35:59.89	93.53	18.28	-34.4	-35.3	24.4	0.00e+00	0	30	0	1278214144	42	5776
2026-01-26 12:36:00.90	93.77	18.26	-34.2	-35.1	24.6	0.00e+00	0	30	0	1281359872	42	5642
2026-01-26 12:36:01.91	94.00	18.23	-34.4	-35.3	24.5	0.00e+00	0	30	0	1284505600	42	5762
2026-01-26 12:36:02.91	94.23	18.21	-34.5	-35.3	24.4	0.00e+00	0	29	0	1287651328	42	5787
2026-01-26 12:36:03.92	94.47	18.18	-34.5	-35.4	24.4	0.00e+00	0	30	0	1290797056	42	5839
2026-01-26 12:36:04.93	94.70	18.16	-34.6	-35.6	24.4	0.00e+00	0	30	0	1293942784	42	5933
2026-01-26 12:36:05.94	94.93	18.13	-34.6	-35.5	24.4	0.00e+00	0	29	0	1297088512	42	5916
2026-01-26 12:36:06.95	95.16	18.10	-34.6	-35.5	24.5	0.00e+00	0	29	0	1300234240	42	5860
2026-01-26 12:36:07.96	95.39	18.07	-34.5	-35.3	24.6	0.00e+00	0	29	0	1303379968	42	5786
2026-01-26 12:36:08.96	95.62	18.05	-34.6	-35.5	24.4	0.00e+00	0	29	0	1306525696	42	5868
2026-01-26 12:36:09.98	95.85	18.02	-34.5	-35.4	24.5	0.00e+00	0	30	0	1309671424	42	5832
2026-01-26 12:36:10.99	96.08	17.99	-34.4	-35.3	24.6	0.00e+00	0	30	0	1312817152	42	5739
2026-01-26 12:36:12.00	96.31	17.96	-34.5	-35.4	24.5	0.00e+00	0	30	0	1315962880	42	5857
2026-01-26 12:36:13.00	96.54	17.93	-34.4	-35.3	24.6	0.00e+00	0	30	0	1320157184	42	5748
2026-01-26 12:36:14.01	96.77	17.90	-34.2	-35.1	24.6	0.00e+00	0	30	0	1323302912	42	5649
2026-01-26 12:36:15.02	97.00	17.87	-34.2	-35.1	24.7	0.00e+00	0	30	0	1325400064	42	5644
2026-01-26 12:36:16.03	97.23	17.84	-34.2	-35.1	24.7	0.00e+00	0	30	0	1328545792	42	5605
2026-01-26 12:36:17.04	97.45	17.81	-34.2	-35.1	24.7	0.00e+00	0	30	0	1331691520	42	5624
2026-01-26 12:36:18.05	97.68	17.78	-34.3	-35.2	24.6	0.00e+00	0	30	0	1334837248	42	5668
2026-01-26 12:36:19.06	97.91	17.75	-34.4	-35.3	24.5	0.00e+00	0	30	0	1339031552	42	5762
2026-01-26 12:36:20.07	98.13	17.72	-34.4	-35.3	24.6	0.00e+00	0	30	0	1342177280	42	5736
2026-01-26 12:36:21.08	98.36	17.68	-34.5	-35.4	24.5	0.00e+00	0	29	0	1345323008	42	5807
2026-01-26 12:36:22.09	98.58	17.65	-34.5	-35.4	24.4	0.00e+00	0	30	0	1348468736	42	5837
2026-01-26 12:36:23.10	98.81	17.62	-34.7	-35.6	24.3	0.00e+00	0	30	0	1350565888	42	5987
2026-01-26 12:36:24.11	99.03	17.58	-34.4	-35.3	24.5	0.00e+00	0	30	0	1354760192	42	5726
2026-01-26 12:36:25.12	99.26	17.55	-34.5	-35.3	24.5	0.00e+00	0	29	0	1357905920	42	5788
2026-01-26 12:36:26.13	99.48	17.52	-34.4	-35.2	24.6	0.00e+00	0	30	0	1361051648	42	5713
2026-01-26 12:36:27.14	99.70	17.48	-34.4	-35.2	24.6	0.00e+00	0	29	0	1364197376	42	5723
2026-01-26 12:36:28.15	99.92	17.45	-34.5	-35.4	24.4	0.00e+00	0	30	0	1367343104	42	5834
2026-01-26 12:36:29.16	100.15	17.41	-34.4	-35.3	24.6	0.00e+00	0	30	0	1370488832	42	5764
2026-01-26 12:36:30.17	100.37	17.38	-34.6	-35.5	24.4	0.00e+00	0	30	0	1373634560	42	5884
2026-01-26 12:36:31.17	100.59	17.34	-34.7	-35.6	24.3	0.00e+00	0	30	0	1376780288	42	5930
2026-01-26 12:36:32.19	100.81	17.30	-34.6	-35.5	24.3	0.00e+00	0	30	0	1379926016	42	5912
2026-01-26 12:36:33.19	101.03	17.27	-35.0	-36.0	24.1	0.00e+00	0	30	0	1383071744	42	6223
2026-01-26 12:36:34.20	101.24	17.23	-34.7	-35.6	24.3	0.00e+00	0	30	0	1386217472	42	5965
2026-01-26 12:36:35.21	101.46	17.19	-34.7	-35.6	24.3	0.00e+00	0	30	0	1389363200	42	5988
2026-01-26 12:36:36.22	101.68	17.15	-34.5	-35.4	24.5	0.00e+00	0	30	0	1392508928	42	5838
2026-01-26 12:36:37.23	101.90	17.12	-34.6	-35.5	24.4	0.00e+00	0	30	0	1395654656	42	5867
2026-01-26 12:36:38.24	102.12	17.08	-34.5	-35.4	24.5	0.00e+00	0	30	0	1398800384	42	5798
2026-01-26 12:36:39.25	102.33	17.04	-34.5	-35.4	24.5	0.00e+00	0	30	0	1401946112	42	5822
2026-01-26 12:36:40.26	102.55	17.00	-34.6	-35.5	24.4	0.00e+00	0	30	0	1405091840	42	5893
2026-01-26 12:36:41.27	102.76	16.96	-34.5	-35.5	24.5	0.00e+00	0	30	0	1408237568	42	5863
2026-01-26 12:36:42.28	102.98	16.92	-34.6	-35.5	24.4	0.00e+00	0	30	0	1411383296	42	5882
2026-01-26 12:36:43.29	103.19	16.88	-34.7	-35.6	24.3	0.00e+00	0	30	0	1414529024	42	5992
2026-01-26 12:36:44.30	103.41	16.84	-34.6	-35.6	24.3	0.00e+00	0	30	0	1417674752	42	5927
2026-01-26 12:36:45.31	103.62	16.80	-34.7	-35.6	24.1	0.00e+00	0	30	0	1420820480	42	5977
2026-01-26 12:36:46.32	103.83	16.76	-34.8	-35.8	24.1	0.00e+00	0	30	0	1423966208	42	6065
2026-01-26 12:36:47.33	104.04	16.72	-35.0	-36.0	23.9	0.00e+00	0	30	0	1427111936	42	6207
2026-01-26 12:36:48.34	104.26	16.67	-35.1	-36.0	24.0	0.00e+00	0	30	0	1430257664	42	6231
2026-01-26 12:36:49.35	104.47	16.63	-35.0	-35.9	24.1	0.00e+00	0	30	0	1433403392	42	6168
2026-01-26 12:36:50.36	104.68	16.59	-35.0	-36.0	24.1	0.00e+00	0	30	0	1436549120	42	6216
2026-01-26 12:36:51.36	104.89	16.55	-34.9	-35.9	24.1	0.00e+00	0	30	0	1439694848	42	6137
2026-01-26 12:36:52.32	105.08	16.51	-35.1	-36.1	24.1	0.00e+00	0	30	0	1442840576	42	6280
2026-01-26 12:36:53.33	105.29	16.46	-35.2	-36.1	24.0	0.00e+00	0	30	0	1445986304	42	6291
2026-01-26 12:36:54.34	105.50	16.42	-35.0	-36.0	24.1	0.00e+00	0	30	0	1449132032	42	6210
2026-01-26 12:36:55.35	105.71	16.38	-34.9	-35.8	24.2	0.00e+00	0	30	0	1452277760	42	6107
2026-01-26 12:36:56.35	105.91	16.33	-35.1	-36.0	23.8	0.00e+00	0	30	0	1455423488	42	6266
2026-01-26 12:36:57.36	106.12	16.29	-35.3	-36.3	23.7	0.00e+00	0	30	0	1458569216	42	6451
2026-01-26 12:36:58.37	106.33	16.24	-35.3	-36.2	23.7	0.00e+00	0	30	0	1461714944	42	6397
2026-01-26 12:36:59.38	106.53	16.20	-35.3	-36.3	23.8	0.00e+00	0	30	0	1464860672	42	6460
2026-01-26 12:37:00.39	106.74	16.15	-35.5	-36.5	23.6	0.00e+00	0	30	0	1468006400	42	6609
2026-01-26 12:37:01.40	106.94	16.11	-35.7	-36.7	23.4	0.00e+00	0	29	0	1471152128	42	6784
2026-01-26 12:37:02.41	107.14	16.06	-35.3	-36.3	23.8	0.00e+00	0	30	0	1474297856	42	6440
2026-01-26 12:37:03.42	107.35	16.02	-35.1	-36.1	24.0	0.00e+00	0	30	0	1477443584	42	6286
2026-01-26 12:37:04.43	107.55	15.97	-35.0	-36.0	24.0	0.00e+00	0	30	0	1480589312	42	6218
2026-01-26 12:37:05.44	107.75	15.93	-34.9	-35.8	24.0	0.00e+00	0	30	0	1483735040	42	6119
2026-01-26 12:37:06.45	107.95	15.88	-34.9	-35.8	24.1	0.00e+00	0	30	0	1486880768	42	6121
2026-01-26 12:37:07.46	108.15	15.83	-34.9	-35.9	24.1	0.00e+00	0	30	0	1490026496	42	6162
2026-01-26 12:37:08.47	108.35	15.79	-35.1	-36.0	23.9	0.00e+00	0	29	0	1493172224	42	6240
2026-01-26 12:37:09.48	108.55	15.74	-35.3	-36.2	23.8	0.00e+00	0	30	0	1496317952	42	6395
2026-01-26 12:37:10.49	108.75	15.69	-35.0	-36.0	24.0	0.00e+00	0	30	0	1499463680	42	6227
2026-01-26 12:37:11.50	108.95	15.64	-35.3	-36.2	23.8	0.00e+00	0	30	0	1502609408	42	6389
2026-01-26 12:37:12.51	109.14	15.59	-35.2	-36.1	23.8	0.00e+00	0	30	0	1505755136	42	6325
2026-01-26 12:37:13.51	109.34	15.55	-35.3	-36.2	23.8	0.00e+00	0	30	0	1508900864	42	6399
2026-01-26 12:37:14.52	109.53	15.50	-35.5	-36.5	23.7	0.00e+00	0	30	0	1512046592	42	6591
2026-01-26 12:37:15.53	109.73	15.45	-35.4	-36.4	23.6	0.00e+00	0	30	0	1515192320	42	6522
2026-01-26 12:37:16.54	109.92	15.40	-35.4	-36.4	23.7	0.00e+00	0	30	0	1518338048	42	6516
2026-01-26 12:37:17.55	110.12	15.35	-35.2	-36.1	23.8	0.00e+00	0	30	0	1521483776	42	6343
2026-01-26 12:37:18.56	110.31	15.30	-35.1	-36.0	23.9	0.00e+00	0	30	0	1524629504	42	6264
2026-01-26 12:37:19.57	110.51	15.25	-35.4	-36.3	23.7	0.00e+00	0	30	0	1527775232	42	6452
2026-01-26 12:37:20.58	110.70	15.20	-35.1	-36.1	23.9	0.00e+00	0	30	0	1530920960	42	6283
2026-01-26 12:37:21.59	110.89	15.15	-34.9	-35.8	24.1	0.00e+00	0	30	0	1534066688	42	6105
2026-01-26 12:37:22.59	111.08	15.10	-34.9	-35.8	24.2	0.00e+00	0	30	0	1537212416	42	6067
2026-01-26 12:37:23.60	111.27	15.05	-34.9	-35.8	24.2	0.00e+00	0	30	0	1540358144	42	6082
2026-01-26 12:37:24.62	111.46	15.00	-34.9	-35.8	24.1	0.00e+00	0	30	0	1543503872	42	6078
2026-01-26 12:37:25.62	111.65	14.95	-35.2	-36.2	23.8	0.00e+00	0	30	0	1546649600	42	6362
2026-01-26 12:37:26.63	111.84	14.90	-35.1	-36.0	24.0	0.00e+00	0	30	0	1549795328	42	6241
2026-01-26 12:37:27.64	112.03	14.85	-35.2	-36.1	23.9	0.00e+00	0	30	0	1552941056	42	6330
2026-01-26 12:37:28.65	112.21	14.80	-35.3	-36.2	23.8	0.00e+00	0	30	0	1556086784	42	6377
2026-01-26 12:37:29.66	112.40	14.75	-35.4	-36.3	23.8	0.00e+00	0	30	0	1559232512	42	6459
2026-01-26 12:37:30.67	112.59	14.70	-35.6	-36.6	23.4	0.00e+00	0	30	0	1562378240	42	6698
2026-01-26 12:37:31.67	112.77	14.65	-35.4	-36.4	23.6	0.00e+00	0	30	0	1565523968	42	6515
2026-01-26 12:37:32.68	112.95	14.59	-35.4	-36.3	23.7	0.00e+00	0	30	0	1568669696	42	6498
2026-01-26 12:37:33.69	113.14	14.54	-35.3	-36.2	23.7	0.00e+00	0	30	0	1571815424	42	6398
2026-01-26 12:37:34.70	113.32	14.49	-35.2	-36.2	23.7	0.00e+00	0	30	0	1574961152	42	6353
2026-01-26 12:37:35.71	113.51	14.44	-35.3	-36.2	23.6	0.00e+00	0	30	0	1578106880	42	6410
2026-01-26 12:37:36.72	113.69	14.39	-35.0	-35.9	23.9	0.00e+00	0	30	0	1581252608	42	6186
2026-01-26 12:37:37.73	113.87	14.33	-35.1	-36.0	23.8	0.00e+00	0	30	0	1584398336	42	6233
2026-01-26 12:37:38.74	114.05	14.28	-35.1	-36.0	23.8	0.00e+00	0	30	0	1587544064	42	6244
2026-01-26 12:37:39.75	114.23	14.23	-35.2	-36.1	23.9	0.00e+00	0	30	0	1590689792	42	6339
2026-01-26 12:37:40.76	114.41	14.17	-35.6	-36.5	23.5	0.00e+00	0	30	0	1593835520	42	6613
2026-01-26 12:37:41.77	114.59	14.12	-35.3	-36.2	23.7	0.00e+00	0	30	0	1596981248	42	6418
2026-01-26 12:37:42.78	114.77	14.07	-35.3	-36.3	23.7	0.00e+00	0	30	0	1600126976	42	6435
2026-01-26 12:37:43.79	114.95	14.01	-35.2	-36.2	23.8	0.00e+00	0	30	0	1603272704	42	6389
2026-01-26 12:37:44.79	115.12	13.96	-35.2	-36.2	23.9	0.00e+00	0	30	0	1606418432	42	6354
2026-01-26 12:37:45.80	115.30	13.91	-35.3	-36.3	23.7	0.00e+00	0	30	0	1609564160	42	6428
2026-01-26 12:37:46.81	115.48	13.85	-35.3	-36.3	23.7	0.00e+00	0	30	0	1612709888	42	6429
2026-01-26 12:37:47.82	115.65	13.80	-35.4	-36.3	23.7	0.00e+00	0	30	0	1615855616	42	6497
2026-01-26 12:37:48.83	115.83	13.74	-35.3	-36.3	23.8	0.00e+00	0	30	0	1619001344	42	6442
2026-01-26 12:37:49.84	116.00	13.69	-35.2	-36.1	23.8	0.00e+00	0	30	0	1622147072	42	6349
2026-01-26 12:37:50.85	116.18	13.64	-35.3	-36.3	23.7	0.00e+00	0	30	0	1625292800	42	6485
2026-01-26 12:37:51.86	116.35	13.58	-35.1	-36.1	23.7	0.00e+00	0	30	0	1628438528	42	6346
2026-01-26 12:37:52.87	116.52	13.53	-35.3	-36.3	23.7	0.00e+00	0	30	0	1631584256	42	6456
2026-01-26 12:37:53.88	116.69	13.47	-35.3	-36.2	23.7	0.00e+00	0	30	0	1634729984	42	6419
2026-01-26 12:37:54.89	116.87	13.42	-35.2	-36.2	23.8	0.00e+00	0	30	0	1637875712	42	6371
2026-01-26 12:37:55.89	117.03	13.36	-35.2	-36.2	23.9	0.00e+00	0	30	0	1641021440	42	6373
2026-01-26 12:37:56.90	117.20	13.31	-35.0	-36.0	24.0	0.00e+00	0	30	0	1644167168	42	6218
2026-01-26 12:37:57.91	117.37	13.25	-35.1	-36.0	23.9	0.00e+00	0	30	0	1647312896	42	6250
2026-01-26 12:37:58.92	117.54	13.20	-35.3	-36.2	23.8	0.00e+00	0	30	0	1650458624	42	6416
2026-01-26 12:37:59.93	117.71	13.14	-35.5	-36.4	23.6	0.00e+00	0	30	0	1653604352	42	6553
2026-01-26 12:38:00.94	117.88	13.09	-35.6	-36.5	23.5	0.00e+00	0	30	0	1656750080	44	5905
2026-01-26 12:38:01.95	118.05	13.03	-35.5	-36.4	23.5	0.00e+00	0	30	0	1659895808	44	5858
2026-01-26 12:38:02.97	118.21	12.98	-36.0	-36.9	23.2	0.00e+00	0	30	0	1663041536	44	6202
2026-01-26 12:38:03.97	118.38	12.92	-35.5	-36.4	23.6	0.00e+00	0	30	0	1666187264	44	5830
2026-01-26 12:38:04.99	118.54	12.86	-35.3	-36.2	23.7	0.00e+00	0	30	0	1669332992	44	5700
2026-01-26 12:38:05.99	118.71	12.81	-35.3	-36.2	23.7	0.00e+00	0	30	0	1672478720	44	5712
2026-01-26 12:38:07.01	118.87	12.75	-35.4	-36.4	23.5	0.00e+00	0	30	0	1675624448	44	5810
2026-01-26 12:38:08.02	119.04	12.70	-35.3	-36.2	23.6	0.00e+00	0	30	0	1678770176	44	5709
2026-01-26 12:38:09.02	119.20	12.64	-35.2	-36.2	23.8	0.00e+00	0	30	0	1681915904	44	5677
2026-01-26 12:38:10.03	119.36	12.58	-35.3	-36.3	23.6	0.00e+00	0	30	0	1685061632	44	5735
2026-01-26 12:38:11.04	119.52	12.53	-35.2	-36.1	23.7	0.00e+00	0	30	0	1688207360	44	5650
2026-01-26 12:38:12.05	119.68	12.47	-35.1	-36.1	23.8	0.00e+00	0	30	0	1691353088	44	5615
2026-01-26 12:38:13.06	119.84	12.41	-35.2	-36.1	23.8	0.00e+00	0	30	0	1694498816	44	5621
2026-01-26 12:38:14.07	120.00	12.36	-35.1	-36.1	23.9	0.00e+00	0	30	0	1697644544	44	5602
2026-01-26 12:38:15.08	120.16	12.30	-35.0	-36.0	23.9	0.00e+00	0	30	0	1700790272	44	5532
2026-01-26 12:38:16.09	120.32	12.24	-35.0	-36.0	23.9	0.00e+00	0	30	0	1703936000	44	5532
2026-01-26 12:38:17.10	120.48	12.19	-35.0	-36.0	23.9	0.00e+00	0	30	0	1708130304	44	5545
2026-01-26 12:38:18.11	120.64	12.13	-35.2	-36.1	23.8	0.00e+00	0	30	0	1711276032	44	5646
2026-01-26 12:38:19.12	120.79	12.07	-35.2	-36.1	23.9	0.00e+00	0	30	0	1713373184	44	5616
2026-01-26 12:38:20.13	120.95	12.02	-35.1	-36.0	23.9	0.00e+00	0	30	0	1716518912	44	5578
2026-01-26 12:38:21.14	121.11	11.96	-35.3	-36.2	23.8	0.00e+00	0	30	0	1719664640	44	5679
2026-01-26 12:38:22.15	121.26	11.90	-35.2	-36.1	23.8	0.00e+00	0	30	0	1723858944	44	5611
2026-01-26 12:38:23.16	121.42	11.85	-35.1	-36.0	23.9	0.00e+00	0	30	0	1727004672	44	5587
2026-01-26 12:38:24.17	121.57	11.79	-35.2	-36.1	23.9	0.00e+00	0	30	0	1730150400	44	5652
2026-01-26 12:38:25.18	121.72	11.73	-35.2	-36.2	23.7	0.00e+00	0	30	0	1733296128	44	5681
2026-01-26 12:38:26.19	121.88	11.67	-35.4	-36.3	23.6	0.00e+00	0	30	0	1735393280	44	5757
2026-01-26 12:38:27.20	122.03	11.62	-35.4	-36.3	23.7	0.00e+00	0	30	0	1739587584	44	5763
2026-01-26 12:38:28.21	122.18	11.56	-35.4	-36.3	23.5	0.00e+00	0	30	0	1742733312	44	5782
2026-01-26 12:38:29.22	122.33	11.50	-35.4	-36.4	23.6	0.00e+00	0	30	0	1745879040	44	5793
2026-01-26 12:38:30.22	122.48	11.45	-35.6	-36.6	23.4	0.00e+00	0	30	0	1749024768	44	5929
2026-01-26 12:38:31.23	122.63	11.39	-35.7	-36.7	23.4	0.00e+00	0	30	0	1752170496	44	6028
2026-01-26 12:38:32.24	122.78	11.33	-35.7	-36.7	23.3	0.00e+00	0	30	0	1755316224	44	5998
2026-01-26 12:38:33.25	122.93	11.27	-35.7	-36.7	23.3	0.00e+00	0	30	0	1758461952	44	6001
2026-01-26 12:38:34.26	123.08	11.22	-35.6	-36.5	23.4	0.00e+00	0	30	0	1761607680	44	5918
2026-01-26 12:38:35.27	123.22	11.16	-35.6	-36.5	23.4	0.00e+00	0	30	0	1764753408	44	5910
2026-01-26 12:38:36.28	123.37	11.10	-35.7	-36.7	23.3	0.00e+00	0	30	0	1767899136	44	6006
2026-01-26 12:38:37.30	123.52	11.04	-35.9	-36.9	23.1	0.00e+00	0	30	0	1771044864	44	6164
2026-01-26 12:38:38.30	123.66	10.99	-35.9	-36.9	23.1	0.00e+00	0	30	0	1774190592	44	6138
2026-01-26 12:38:39.31	123.81	10.93	-35.9	-36.8	23.0	0.00e+00	0	30	0	1777336320	44	6133
2026-01-26 12:38:40.32	123.96	10.87	-35.9	-36.9	23.0	0.00e+00	0	30	0	1780482048	44	6167
2026-01-26 12:38:41.33	124.10	10.81	-36.1	-37.1	22.9	0.00e+00	0	30	0	1783627776	44	6283
2026-01-26 12:38:42.34	124.24	10.75	-35.9	-36.9	23.1	0.00e+00	0	30	0	1786773504	44	6182
2026-01-26 12:38:43.35	124.39	10.70	-36.1	-37.1	22.8	0.00e+00	0	30	0	1789919232	44	6306
2026-01-26 12:38:44.36	124.53	10.64	-36.0	-37.0	22.8	0.00e+00	0	30	0	1793064960	44	6269
2026-01-26 12:38:45.37	124.67	10.58	-36.1	-37.1	22.8	0.00e+00	0	30	0	1796210688	44	6349
2026-01-26 12:38:46.38	124.81	10.52	-36.3	-37.3	22.7	0.00e+00	0	30	0	1799356416	44	6444
2026-01-26 12:38:47.39	124.95	10.46	-36.1	-37.1	22.9	0.00e+00	0	30	0	1802502144	44	6313
2026-01-26 12:38:48.40	125.10	10.41	-36.2	-37.2	22.8	0.00e+00	0	30	0	1805647872	44	6377
2026-01-26 12:38:49.41	125.24	10.35	-36.3	-37.4	22.7	0.00e+00	0	30	0	1808793600	44	6501
2026-01-26 12:38:50.42	125.38	10.29	-36.4	-37.3	22.7	0.00e+00	0	30	0	1811939328	44	6488
2026-01-26 12:38:51.43	125.51	10.23	-36.3	-37.3	22.8	0.00e+00	0	30	0	1815085056	44	6430
2026-01-26 12:38:52.43	125.65	10.18	-36.0	-36.9	23.1	0.00e+00	0	30	0	1818230784	44	6177
2026-01-26 12:38:53.44	125.79	10.12	-36.0	-37.0	23.0	0.00e+00	0	30	0	1821376512	44	6254
2026-01-26 12:38:54.45	125.93	10.06	-36.0	-37.0	22.9	0.00e+00	0	30	0	1824522240	44	6252
2026-01-26 12:38:55.46	126.06	10.00	-36.0	-37.0	22.9	0.00e+00	0	30	0	1827667968	44	6232
2026-01-26 12:38:56.47	126.20	9.94	-36.2	-37.2	22.7	0.00e+00	0	30	0	1830813696	44	6414
2026-01-26 12:38:57.48	126.34	9.89	-36.3	-37.3	22.6	0.00e+00	0	30	0	1833959424	44	6483
2026-01-26 12:38:58.49	126.47	9.83	-36.3	-37.3	22.7	0.00e+00	0	30	0	1837105152	44	6486
2026-01-26 12:38:59.50	126.61	9.77	-36.1	-37.1	22.8	0.00e+00	0	30	0	1840250880	44	6287
2026-01-26 12:39:00.51	126.74	9.71	-36.1	-37.1	22.8	0.00e+00	0	30	0	1843396608	44	6289
2026-01-26 12:39:01.52	126.87	9.65	-36.1	-37.0	22.9	0.00e+00	0	30	0	1846542336	44	6267
2026-01-26 12:39:02.53	127.01	9.60	-36.3	-37.3	22.7	0.00e+00	0	30	0	1849688064	44	6464
2026-01-26 12:39:03.54	127.14	9.54	-36.4	-37.4	22.6	0.00e+00	0	30	0	1852833792	44	6537
2026-01-26 12:39:04.55	127.27	9.48	-36.4	-37.4	22.5	0.00e+00	0	30	0	1855979520	44	6571
2026-01-26 12:39:05.56	127.40	9.42	-36.6	-37.6	22.4	0.00e+00	0	30	0	1859125248	44	6682
2026-01-26 12:39:06.57	127.54	9.36	-36.2	-37.2	22.8	0.00e+00	0	30	0	1862270976	44	6411
2026-01-26 12:39:07.58	127.67	9.31	-36.3	-37.3	22.7	0.00e+00	0	30	0	1865416704	44	6496
2026-01-26 12:39:08.59	127.80	9.25	-36.4	-37.4	22.6	0.00e+00	0	30	0	1868562432	44	6546
2026-01-26 12:39:09.60	127.93	9.19	-36.4	-37.4	22.6	0.00e+00	0	30	0	1871708160	44	6539
2026-01-26 12:39:10.61	128.06	9.13	-36.3	-37.3	22.7	0.00e+00	0	30	0	1874853888	44	6434
2026-01-26 12:39:11.62	128.18	9.07	-36.3	-37.3	22.7	0.00e+00	0	30	0	1877999616	44	6472
2026-01-26 12:39:12.63	128.31	9.02	-36.2	-37.2	22.7	0.00e+00	0	30	0	1881145344	44	6382
2026-01-26 12:39:13.64	128.44	8.96	-36.3	-37.2	22.7	0.00e+00	0	30	0	1884291072	44	6409
2026-01-26 12:39:14.65	128.57	8.90	-36.4	-37.4	22.6	0.00e+00	0	30	0	1887436800	44	6506
2026-01-26 12:39:15.66	128.70	8.84	-36.2	-37.1	22.6	0.00e+00	0	30	0	1890582528	44	6337
2026-01-26 12:39:16.67	128.82	8.78	-36.3	-37.2	22.5	0.00e+00	0	30	0	1893728256	44	6422
2026-01-26 12:39:17.67	128.95	8.73	-36.4	-37.4	22.5	0.00e+00	0	30	0	1896873984	44	6510
2026-01-26 12:39:18.68	129.07	8.67	-36.3	-37.3	22.5	0.00e+00	0	30	0	1900019712	44	6466
2026-01-26 12:39:19.69	129.20	8.61	-36.5	-37.5	22.4	0.00e+00	0	30	0	1903165440	44	6606
2026-01-26 12:39:20.70	129.32	8.55	-36.6	-37.6	22.3	0.00e+00	0	30	0	1906311168	44	6690
2026-01-26 12:39:21.71	129.45	8.50	-36.7	-37.8	22.2	0.00e+00	0	30	0	1909456896	44	6813
2026-01-26 12:39:22.72	129.57	8.44	-36.7	-37.7	22.2	0.00e+00	0	30	0	1912602624	44	6782
2026-01-26 12:39:23.73	129.69	8.38	-36.7	-37.7	22.3	0.00e+00	0	30	0	1915748352	46	6014
2026-01-26 12:39:24.74	129.81	8.32	-36.6	-37.6	22.3	0.00e+00	0	30	0	1918894080	46	5991
2026-01-26 12:39:25.75	129.94	8.26	-36.7	-37.7	22.3	0.00e+00	0	30	0	1922039808	46	6027
2026-01-26 12:39:26.75	130.06	8.21	-36.5	-37.6	22.4	0.00e+00	0	30	0	1925185536	46	5941
2026-01-26 12:39:27.76	130.18	8.15	-36.7	-37.8	22.1	0.00e+00	0	30	0	1928331264	46	6077
2026-01-26 12:39:28.77	130.30	8.09	-36.7	-37.7	22.3	0.00e+00	0	30	0	1931476992	46	6050
2026-01-26 12:39:29.78	130.42	8.03	-36.7	-37.7	22.2	0.00e+00	0	30	0	1934622720	46	6026
2026-01-26 12:39:30.79	130.54	7.98	-37.0	-38.0	22.1	0.00e+00	0	30	0	1937768448	46	6230
2026-01-26 12:39:31.80	130.66	7.92	-37.0	-38.0	22.1	0.00e+00	0	30	0	1940914176	46	6269
2026-01-26 12:39:32.81	130.78	7.86	-36.7	-37.7	22.3	0.00e+00	0	30	0	1944059904	46	6062
2026-01-26 12:39:33.82	130.90	7.80	-36.9	-37.9	22.0	0.00e+00	0	30	0	1947205632	46	6179
2026-01-26 12:39:34.83	131.01	7.75	-36.9	-38.0	22.0	0.00e+00	0	30	0	1950351360	46	6223
2026-01-26 12:39:35.84	131.13	7.69	-36.8	-37.8	22.1	0.00e+00	0	30	0	1953497088	46	6113
2026-01-26 12:39:36.85	131.25	7.63	-37.0	-38.1	21.8	0.00e+00	0	30	0	1956642816	46	6318
2026-01-26 12:39:37.85	131.36	7.58	-37.0	-38.1	21.9	0.00e+00	0	30	0	1959788544	46	6292
2026-01-26 12:39:38.86	131.48	7.52	-37.0	-38.1	21.9	0.00e+00	0	30	0	1962934272	46	6344
2026-01-26 12:39:39.88	131.60	7.46	-37.0	-38.2	21.8	0.00e+00	0	30	0	1966080000	46	6371
2026-01-26 12:39:40.88	131.71	7.40	-37.0	-38.1	21.9	0.00e+00	0	30	0	1969225728	46	6324
2026-01-26 12:39:41.89	131.83	7.35	-36.9	-38.1	21.8	0.00e+00	0	30	0	1972371456	46	6324
2026-01-26 12:39:42.90	131.94	7.29	-37.2	-38.4	21.7	0.00e+00	0	30	0	1975517184	46	6513
2026-01-26 12:39:43.91	132.05	7.23	-37.3	-38.5	21.6	0.00e+00	0	30	0	1978662912	46	6610
2026-01-26 12:39:44.92	132.17	7.17	-37.3	-38.5	21.5	0.00e+00	0	30	0	1981808640	46	6584
2026-01-26 12:39:45.93	132.28	7.12	-37.1	-38.2	21.8	0.00e+00	0	30	0	1984954368	46	6384
2026-01-26 12:39:46.94	132.39	7.06	-37.4	-38.4	21.6	0.00e+00	0	30	0	1988100096	46	6568
2026-01-26 12:39:47.95	132.51	7.00	-37.4	-38.5	21.6	0.00e+00	0	30	0	1991245824	46	6581
2026-01-26 12:39:48.96	132.62	6.95	-37.3	-38.3	21.7	0.00e+00	0	30	0	1994391552	46	6497
2026-01-26 12:39:49.97	132.73	6.89	-37.1	-38.2	21.9	0.00e+00	0	30	0	1997537280	46	6380
2026-01-26 12:39:50.98	132.84	6.83	-37.3	-38.4	21.7	0.00e+00	0	30	0	2000683008	46	6529
2026-01-26 12:39:51.98	132.95	6.78	-37.4	-38.5	21.5	0.00e+00	0	30	0	2003828736	46	6647
2026-01-26 12:39:52.99	133.06	6.72	-37.0	-38.0	22.0	0.00e+00	0	30	0	2006974464	46	6254
2026-01-26 12:39:54.01	133.17	6.66	-37.0	-38.1	21.8	0.00e+00	0	30	0	2010120192	46	6309
2026-01-26 12:39:55.02	133.28	6.60	-37.1	-38.2	21.8	0.00e+00	0	30	0	2013265920	46	6357
2026-01-26 12:39:56.03	133.39	6.55	-37.0	-38.1	21.8	0.00e+00	0	30	0	2016411648	46	6309
