passes_logs/2026/01/26/R4.6S_Anadyr/R4.6S_Anadyr__20260126_231421_NOAA_20_JPSS-1_rec.log

#Pass ID: 20260126_231421_NOAA 20 (JPSS-1)
#Satellite: NOAA 20 (JPSS-1)
#Configuration: NOAA 20
#almurnet v.1.7.20251203
#Start time: 2026-01-26 23:14:23

#Version: 2.2.20231116
#Station: R4.6S_Anadyr
#Location: 177.4865 lon 64.73178 lat
#TLE: 1 43013U 17073A   26026.46665230  .00000148  00000+0  91302-4 0  9998
#TLE: 2 43013  98.7646 327.2856 0001008  22.9532 337.1688 14.19540616424360

#Time	Az	El	Level	Level2	SNR	BER	BlckErr	Temp	State	Recorded	gain1	gain2
2026-01-26 23:14:23.47	132.13	0.14	-49.2	-64.0	3.5	1.51e+00	0	25	0	0	60	57549
2026-01-26 23:14:24.47	132.11	0.19	-49.3	-64.5	3.6	1.51e+00	0	26	104	0	60	60689
2026-01-26 23:14:25.49	132.08	0.26	-49.3	-64.4	3.6	1.51e+00	0	26	104	0	60	60299
2026-01-26 23:14:26.49	132.06	0.31	-49.2	-64.5	3.6	1.51e+00	0	26	104	0	60	60641
2026-01-26 23:14:27.50	132.04	0.37	-49.3	-64.4	3.6	1.51e+00	0	26	104	0	60	60293
2026-01-26 23:14:28.51	132.01	0.44	-49.2	-64.5	3.6	1.51e+00	0	26	104	0	60	60500
2026-01-26 23:14:29.52	131.99	0.50	-49.3	-64.5	3.6	1.51e+00	0	26	104	0	60	60377
2026-01-26 23:14:30.53	131.96	0.56	-49.3	-64.5	3.6	1.51e+00	0	26	104	0	60	60679
2026-01-26 23:14:31.54	131.94	0.62	-49.3	-64.5	3.6	1.51e+00	0	26	104	0	60	60499
2026-01-26 23:14:32.55	131.91	0.68	-49.3	-64.5	3.6	1.51e+00	0	26	104	0	60	60656
2026-01-26 23:14:33.56	131.89	0.74	-49.3	-64.5	3.6	1.51e+00	0	26	104	0	60	60895
2026-01-26 23:14:34.57	131.86	0.80	-49.3	-64.5	3.6	1.51e+00	0	26	104	0	60	60613
2026-01-26 23:14:35.58	131.84	0.86	-49.3	-64.5	3.6	1.51e+00	0	26	104	0	60	60404
2026-01-26 23:14:36.59	131.81	0.92	-49.2	-64.4	3.6	1.51e+00	0	26	104	0	60	60276
2026-01-26 23:14:37.60	131.79	0.98	-49.1	-64.4	3.6	1.51e+00	0	26	104	0	60	60026
2026-01-26 23:14:38.61	131.76	1.05	-49.0	-64.3	3.6	1.51e+00	0	26	104	0	60	59317
2026-01-26 23:14:39.62	131.74	1.11	-48.9	-64.3	3.6	1.51e+00	0	26	104	0	60	59246
2026-01-26 23:14:40.63	131.71	1.17	-49.0	-64.2	3.6	1.51e+00	0	26	104	0	60	58670
2026-01-26 23:14:41.64	131.69	1.23	-49.0	-64.1	3.6	1.51e+00	0	26	104	0	60	58214
2026-01-26 23:14:42.65	131.66	1.29	-48.9	-64.1	3.6	1.51e+00	0	26	104	0	60	57961
2026-01-26 23:14:43.66	131.63	1.36	-48.6	-64.1	3.6	1.51e+00	0	27	104	0	60	57789
2026-01-26 23:14:44.66	131.61	1.42	-48.4	-63.9	3.6	1.51e+00	0	27	104	0	60	56682
2026-01-26 23:14:45.67	131.58	1.48	-48.2	-63.8	3.5	1.51e+00	0	27	104	0	60	56158
2026-01-26 23:14:46.68	131.56	1.54	-48.4	-63.7	3.6	1.51e+00	0	27	104	0	60	55216
2026-01-26 23:14:47.69	131.53	1.61	-48.1	-63.4	3.6	1.51e+00	0	27	104	0	60	53624
2026-01-26 23:14:48.70	131.50	1.67	-47.4	-63.0	3.6	1.51e+00	0	27	104	0	60	51028
2026-01-26 23:14:49.71	131.48	1.73	-47.3	-63.0	3.6	1.51e+00	0	27	104	0	60	51268
2026-01-26 23:14:50.72	131.45	1.79	-47.4	-63.0	3.6	1.51e+00	0	27	104	0	60	51287
2026-01-26 23:14:51.73	131.42	1.86	-47.4	-63.0	3.6	1.51e+00	0	27	104	0	60	51182
2026-01-26 23:14:52.74	131.40	1.92	-47.4	-63.0	3.6	1.51e+00	0	27	104	0	60	51050
2026-01-26 23:14:53.75	131.37	1.98	-47.3	-62.9	3.6	1.51e+00	0	27	104	0	60	50500
2026-01-26 23:14:54.76	131.34	2.05	-47.3	-62.9	3.6	1.51e+00	0	27	104	0	60	50715
2026-01-26 23:14:55.77	131.31	2.11	-47.4	-62.9	3.6	1.51e+00	0	27	104	0	60	50490
2026-01-26 23:14:56.78	131.29	2.18	-47.3	-62.9	3.6	1.51e+00	0	27	104	0	60	50404
2026-01-26 23:14:57.79	131.26	2.24	-47.4	-63.0	3.6	1.51e+00	0	27	104	0	60	50823
2026-01-26 23:14:58.80	131.23	2.30	-47.3	-62.9	3.6	1.51e+00	0	27	104	0	60	50539
2026-01-26 23:14:59.81	131.20	2.37	-47.4	-63.0	3.6	1.51e+00	0	27	104	0	60	51160
2026-01-26 23:15:00.82	131.18	2.43	-47.3	-63.0	3.6	1.51e+00	0	27	104	0	60	51108
2026-01-26 23:15:01.83	131.15	2.50	-47.4	-63.0	3.6	1.51e+00	0	27	104	0	60	50997
2026-01-26 23:15:02.84	131.12	2.56	-47.3	-63.0	3.6	1.51e+00	0	27	104	0	60	50772
2026-01-26 23:15:03.85	131.09	2.63	-47.3	-62.9	3.6	1.51e+00	0	27	104	0	60	50324
2026-01-26 23:15:04.86	131.06	2.69	-47.3	-62.8	3.6	1.51e+00	0	27	104	0	60	50046
2026-01-26 23:15:05.87	131.03	2.76	-47.4	-62.6	3.6	1.51e+00	0	27	104	0	60	48509
2026-01-26 23:15:06.88	131.00	2.82	-47.3	-62.2	3.6	1.51e+00	0	27	104	0	60	46356
2026-01-26 23:15:07.89	130.98	2.89	-47.3	-61.6	3.6	1.51e+00	0	27	104	0	60	43343
2026-01-26 23:15:08.90	130.95	2.95	-47.3	-61.1	3.6	1.51e+00	0	27	104	0	60	41108
2026-01-26 23:15:09.91	130.92	3.02	-47.3	-60.8	3.6	1.51e+00	0	27	104	0	60	39723
2026-01-26 23:15:10.92	130.89	3.09	-47.3	-61.5	3.6	1.50e+00	0	27	104	0	60	42791
2026-01-26 23:15:11.93	130.86	3.15	-47.3	-62.4	3.6	1.51e+00	0	27	104	0	60	47585
2026-01-26 23:15:12.94	130.83	3.22	-47.4	-62.8	3.6	1.51e+00	0	27	104	0	60	50025
2026-01-26 23:15:13.95	130.80	3.28	-47.2	-60.0	3.7	1.51e+00	0	27	104	0	60	35970
2026-01-26 23:15:14.96	130.77	3.35	-47.0	-56.7	5.7	6.21e-01	0	27	104	0	60	24612
2026-01-26 23:15:15.97	130.74	3.42	-46.4	-52.7	9.0	1.40e-01	0	27	0	1048576	60	15607
2026-01-26 23:15:16.98	130.71	3.48	-45.0	-48.9	13.2	2.12e-03	0	27	0	3145728	60	10049
2026-01-26 23:15:17.98	130.68	3.55	-44.3	-47.4	14.6	3.00e-06	0	27	0	5242880	60	8509
2026-01-26 23:15:18.99	130.65	3.62	-43.3	-45.8	16.3	0.00e+00	0	27	0	7340032	60	7027
2026-01-26 23:15:20.00	130.62	3.69	-42.3	-44.3	17.7	0.00e+00	0	27	0	8388608	58	6677
2026-01-26 23:15:21.01	130.58	3.75	-41.6	-43.4	18.6	0.00e+00	0	27	0	10485760	56	6734
2026-01-26 23:15:22.02	130.55	3.82	-47.9	-63.3	3.6	1.51e+00	0	27	104	11534336	60	52646
2026-01-26 23:15:23.03	130.52	3.89	-47.9	-62.5	3.6	1.50e+00	0	27	104	11534336	60	48439
2026-01-26 23:15:24.04	130.49	3.96	-45.5	-49.9	12.1	5.07e-04	0	27	0	12582912	60	11343
2026-01-26 23:15:25.05	130.46	4.02	-41.0	-42.6	19.7	0.00e+00	0	27	0	14680064	56	6146
2026-01-26 23:15:26.06	130.43	4.09	-47.3	-62.4	3.6	3.39e-01	0	27	104	15728640	60	47712
2026-01-26 23:15:27.07	130.40	4.16	-41.6	-43.4	6.1	1.47e+00	78	27	104	15728640	58	6001
2026-01-26 23:15:28.08	130.36	4.23	-40.5	-41.9	20.1	0.00e+00	0	27	0	15728640	54	6363
2026-01-26 23:15:29.09	130.33	4.30	-40.9	-42.4	19.5	0.00e+00	0	27	0	17825792	54	6742
2026-01-26 23:15:30.10	130.30	4.37	-40.2	-41.5	20.5	0.00e+00	0	27	0	19922944	54	6091
2026-01-26 23:15:31.10	130.27	4.44	-39.7	-40.9	21.0	0.00e+00	0	27	0	20971520	52	6375
2026-01-26 23:15:32.12	130.23	4.51	-40.2	-41.5	20.6	0.00e+00	0	27	0	23068672	52	6786
2026-01-26 23:15:33.13	130.20	4.57	-40.2	-41.4	20.6	0.00e+00	0	27	0	25165824	52	6754
2026-01-26 23:15:34.13	130.17	4.64	-40.1	-41.3	20.7	0.00e+00	0	27	0	27262976	52	6685
2026-01-26 23:15:35.14	130.13	4.71	-40.2	-41.4	20.8	0.00e+00	0	27	0	29360128	52	6746
2026-01-26 23:15:36.15	130.10	4.78	-40.2	-41.5	20.7	0.00e+00	0	27	0	30408704	52	6776
2026-01-26 23:15:37.16	130.07	4.85	-40.0	-41.2	20.8	0.00e+00	0	27	0	32505856	52	6607
2026-01-26 23:15:38.17	130.03	4.92	-40.3	-41.6	20.6	0.00e+00	0	27	0	34603008	52	6925
2026-01-26 23:15:39.18	130.00	4.99	-40.2	-41.5	20.7	0.00e+00	0	27	0	36700160	52	6813
2026-01-26 23:15:40.19	129.96	5.07	-39.9	-41.1	21.1	0.00e+00	0	27	0	38797312	52	6504
2026-01-26 23:15:41.20	129.93	5.14	-39.9	-41.2	21.0	0.00e+00	0	27	0	40894464	52	6586
2026-01-26 23:15:42.21	129.90	5.21	-39.7	-41.0	21.2	0.00e+00	0	27	0	41943040	52	6408
2026-01-26 23:15:43.22	129.86	5.28	-39.8	-41.1	21.1	0.00e+00	0	27	0	44040192	52	6513
2026-01-26 23:15:44.23	129.83	5.35	-40.0	-41.3	20.9	0.00e+00	0	27	0	46137344	52	6633
2026-01-26 23:15:45.24	129.79	5.42	-39.4	-40.6	21.7	0.00e+00	0	27	0	48234496	52	6138
2026-01-26 23:15:46.25	129.76	5.49	-39.7	-41.0	21.1	0.00e+00	0	27	0	50331648	52	6432
2026-01-26 23:15:47.26	129.72	5.56	-39.9	-41.2	21.1	0.00e+00	0	27	0	51380224	52	6567
2026-01-26 23:15:48.27	129.68	5.64	-39.7	-40.9	21.3	0.00e+00	0	27	0	53477376	52	6355
2026-01-26 23:15:49.28	129.65	5.71	-40.0	-41.3	20.9	0.00e+00	0	27	0	55574528	52	6652
2026-01-26 23:15:50.29	129.61	5.78	-40.0	-41.3	21.1	0.00e+00	0	27	0	57671680	52	6654
2026-01-26 23:15:51.30	129.58	5.85	-39.6	-40.8	21.4	0.00e+00	0	27	0	59768832	52	6303
2026-01-26 23:15:52.31	129.54	5.93	-39.8	-41.1	21.1	0.00e+00	0	27	0	60817408	52	6470
2026-01-26 23:15:53.31	129.50	6.00	-39.8	-41.0	21.2	0.00e+00	0	27	0	62914560	52	6446
2026-01-26 23:15:54.32	129.47	6.07	-39.7	-41.0	21.2	0.00e+00	0	27	0	65011712	52	6410
2026-01-26 23:15:55.33	129.43	6.15	-39.9	-41.2	21.1	0.00e+00	0	27	0	67108864	52	6556
2026-01-26 23:15:56.34	129.39	6.22	-39.6	-40.8	21.6	0.00e+00	0	27	0	69206016	52	6246
2026-01-26 23:15:57.35	129.36	6.29	-39.6	-40.8	21.5	0.00e+00	0	27	0	70254592	52	6290
2026-01-26 23:15:58.36	129.32	6.37	-39.6	-40.8	21.5	0.00e+00	0	27	0	72351744	52	6252
2026-01-26 23:15:59.37	129.28	6.44	-39.7	-40.9	21.3	0.00e+00	0	27	0	74448896	52	6321
2026-01-26 23:16:00.38	129.24	6.52	-40.2	-41.5	20.8	0.00e+00	0	27	0	76546048	52	6792
2026-01-26 23:16:01.39	129.20	6.59	-40.6	-41.9	20.4	0.00e+00	0	27	0	78643200	52	7098
2026-01-26 23:16:02.40	129.17	6.67	-40.5	-41.8	20.6	0.00e+00	0	27	0	79691776	54	6281
2026-01-26 23:16:03.41	129.13	6.74	-40.2	-41.4	20.9	0.00e+00	0	27	0	81788928	54	5987
2026-01-26 23:16:04.42	129.09	6.82	-40.0	-41.2	21.1	0.00e+00	0	27	0	83886080	54	5857
2026-01-26 23:16:05.42	129.05	6.89	-39.5	-40.6	21.7	0.00e+00	0	27	0	85983232	52	6129
2026-01-26 23:16:06.44	129.01	6.97	-39.8	-41.0	21.3	0.00e+00	0	27	0	88080384	52	6396
2026-01-26 23:16:07.45	128.97	7.04	-39.8	-41.1	21.3	0.00e+00	0	27	0	89128960	52	6495
2026-01-26 23:16:08.46	128.93	7.12	-40.0	-41.3	21.1	0.00e+00	0	27	0	91226112	52	6657
2026-01-26 23:16:09.47	128.89	7.20	-40.0	-41.2	21.1	0.00e+00	0	27	0	93323264	52	6606
2026-01-26 23:16:10.48	128.85	7.27	-39.7	-41.0	21.4	0.00e+00	0	27	0	95420416	52	6391
2026-01-26 23:16:11.49	128.81	7.35	-39.9	-41.1	21.2	0.00e+00	0	27	0	97517568	52	6516
2026-01-26 23:16:12.50	128.77	7.43	-39.6	-40.8	21.6	0.00e+00	0	27	0	98566144	52	6276
2026-01-26 23:16:13.51	128.73	7.50	-39.8	-40.9	21.5	0.00e+00	0	27	0	100663296	52	6385
2026-01-26 23:16:14.52	128.69	7.58	-39.6	-40.7	21.6	0.00e+00	0	27	0	102760448	52	6229
2026-01-26 23:16:15.53	128.65	7.66	-39.5	-40.6	21.8	0.00e+00	0	27	0	104857600	52	6114
2026-01-26 23:16:16.54	128.60	7.74	-39.6	-40.7	21.7	0.00e+00	0	27	0	106954752	52	6218
2026-01-26 23:16:17.55	128.56	7.81	-39.5	-40.6	21.7	0.00e+00	0	27	0	109051904	52	6164
2026-01-26 23:16:18.56	128.52	7.89	-39.3	-40.3	22.1	0.00e+00	0	27	0	110100480	52	5957
2026-01-26 23:16:19.57	128.48	7.97	-39.3	-40.3	22.1	0.00e+00	0	27	0	112197632	52	5943
2026-01-26 23:16:20.58	128.43	8.05	-39.4	-40.5	22.0	0.00e+00	0	27	0	114294784	52	6053
2026-01-26 23:16:21.59	128.39	8.13	-39.4	-40.5	21.8	0.00e+00	0	27	0	116391936	52	6063
2026-01-26 23:16:22.60	128.35	8.21	-39.3	-40.3	22.1	0.00e+00	0	27	0	118489088	52	5944
2026-01-26 23:16:23.61	128.31	8.29	-39.4	-40.5	22.0	0.00e+00	0	27	0	119537664	52	6058
2026-01-26 23:16:24.62	128.26	8.37	-39.5	-40.6	21.9	0.00e+00	0	27	0	121634816	52	6123
2026-01-26 23:16:25.63	128.22	8.45	-39.4	-40.5	22.0	0.00e+00	0	27	0	123731968	52	6035
2026-01-26 23:16:26.64	128.17	8.53	-39.5	-40.6	21.8	0.00e+00	0	27	0	125829120	52	6162
2026-01-26 23:16:27.65	128.13	8.61	-39.5	-40.6	21.9	0.00e+00	0	27	0	127926272	52	6115
2026-01-26 23:16:28.66	128.09	8.69	-39.5	-40.7	21.9	0.00e+00	0	27	0	128974848	52	6178
2026-01-26 23:16:29.67	128.04	8.77	-39.4	-40.4	22.0	0.00e+00	0	27	0	131072000	52	6032
2026-01-26 23:16:30.68	127.99	8.85	-39.2	-40.2	22.2	0.00e+00	0	27	0	133169152	52	5884
2026-01-26 23:16:31.69	127.95	8.93	-39.2	-40.2	22.3	0.00e+00	0	27	0	135266304	52	5892
2026-01-26 23:16:32.70	127.90	9.01	-39.1	-40.1	22.4	0.00e+00	0	27	0	137363456	52	5796
2026-01-26 23:16:33.71	127.86	9.09	-39.1	-40.2	22.3	0.00e+00	0	27	0	138412032	52	5842
2026-01-26 23:16:34.72	127.81	9.18	-39.1	-40.1	22.3	0.00e+00	0	27	0	140509184	52	5785
2026-01-26 23:16:35.73	127.77	9.26	-39.0	-40.0	22.5	0.00e+00	0	27	0	142606336	52	5732
2026-01-26 23:16:36.74	127.72	9.34	-39.2	-40.3	22.2	0.00e+00	0	27	0	144703488	52	5926
2026-01-26 23:16:37.75	127.67	9.42	-39.1	-40.2	22.3	0.00e+00	0	27	0	146800640	52	5859
2026-01-26 23:16:38.76	127.62	9.51	-39.2	-40.3	22.2	0.00e+00	0	27	0	147849216	52	5902
2026-01-26 23:16:39.77	127.58	9.59	-39.2	-40.3	22.2	0.00e+00	0	27	0	149946368	52	5926
2026-01-26 23:16:40.77	127.53	9.67	-39.3	-40.4	22.2	0.00e+00	0	27	0	152043520	52	5973
2026-01-26 23:16:41.78	127.48	9.76	-39.1	-40.2	22.3	0.00e+00	0	27	0	154140672	52	5830
2026-01-26 23:16:42.79	127.43	9.84	-39.0	-40.0	22.5	0.00e+00	0	27	0	156237824	52	5761
2026-01-26 23:16:43.80	127.38	9.93	-39.2	-40.2	22.4	0.00e+00	0	27	0	157286400	52	5856
2026-01-26 23:16:44.80	127.33	10.01	-38.8	-39.7	22.7	0.00e+00	0	27	0	159383552	50	6229
2026-01-26 23:16:45.81	127.29	10.09	-38.8	-39.7	22.8	0.00e+00	0	27	0	161480704	50	6229
2026-01-26 23:16:46.82	127.24	10.18	-38.8	-39.8	22.7	0.00e+00	0	27	0	163577856	50	6255
2026-01-26 23:16:47.83	127.19	10.27	-38.6	-39.5	23.0	0.00e+00	0	27	0	165675008	50	6073
2026-01-26 23:16:48.84	127.14	10.35	-38.7	-39.7	22.8	0.00e+00	0	27	0	166723584	50	6211
2026-01-26 23:16:49.85	127.08	10.44	-38.9	-39.9	22.7	0.00e+00	0	27	0	168820736	50	6362
2026-01-26 23:16:50.86	127.03	10.52	-38.7	-39.7	22.8	0.00e+00	0	27	0	170917888	50	6195
2026-01-26 23:16:51.87	126.98	10.61	-38.8	-39.9	22.7	0.00e+00	0	27	0	173015040	50	6321
2026-01-26 23:16:52.88	126.93	10.70	-38.8	-39.8	22.6	0.00e+00	0	27	0	175112192	50	6297
2026-01-26 23:16:53.89	126.88	10.78	-38.7	-39.7	22.8	0.00e+00	0	27	0	177209344	50	6197
2026-01-26 23:16:54.90	126.83	10.87	-38.7	-39.7	22.7	0.00e+00	0	27	0	178257920	50	6221
2026-01-26 23:16:55.90	126.77	10.96	-38.5	-39.4	23.0	0.00e+00	0	27	0	180355072	50	6022
2026-01-26 23:16:56.91	126.72	11.05	-38.5	-39.5	23.0	0.00e+00	0	27	0	182452224	50	6045
2026-01-26 23:16:57.92	126.67	11.13	-38.5	-39.4	23.0	0.00e+00	0	27	0	184549376	50	6028
2026-01-26 23:16:58.93	126.61	11.22	-38.5	-39.4	23.2	0.00e+00	0	27	0	186646528	50	6006
2026-01-26 23:16:59.94	126.56	11.31	-38.3	-39.2	23.2	0.00e+00	0	27	0	187695104	50	5885
2026-01-26 23:17:00.95	126.51	11.40	-38.4	-39.3	23.2	0.00e+00	0	27	0	189792256	50	5959
2026-01-26 23:17:01.96	126.45	11.49	-38.5	-39.5	23.1	0.00e+00	0	27	0	191889408	50	6044
2026-01-26 23:17:02.97	126.40	11.58	-38.6	-39.5	23.0	0.00e+00	0	27	0	193986560	50	6071
2026-01-26 23:17:03.98	126.34	11.67	-38.6	-39.5	23.0	0.00e+00	0	27	0	195035136	50	6099
2026-01-26 23:17:04.99	126.29	11.76	-38.6	-39.6	23.0	0.00e+00	0	27	0	197132288	50	6140
2026-01-26 23:17:06.00	126.23	11.85	-38.7	-39.7	22.9	0.00e+00	0	27	0	199229440	50	6190
2026-01-26 23:17:07.01	126.17	11.94	-38.7	-39.6	23.0	0.00e+00	0	27	0	201326592	50	6159
2026-01-26 23:17:08.02	126.12	12.03	-38.5	-39.5	23.0	0.00e+00	0	27	0	203423744	50	6049
2026-01-26 23:17:09.03	126.06	12.13	-38.5	-39.4	23.1	0.00e+00	0	27	0	205520896	50	6016
2026-01-26 23:17:10.04	126.00	12.22	-38.3	-39.3	23.2	0.00e+00	0	27	0	206569472	50	5904
2026-01-26 23:17:11.05	125.94	12.31	-38.2	-39.2	23.4	0.00e+00	0	27	0	208666624	50	5835
2026-01-26 23:17:12.06	125.89	12.40	-38.2	-39.2	23.3	0.00e+00	0	27	0	210763776	50	5835
2026-01-26 23:17:13.07	125.83	12.50	-38.2	-39.1	23.5	0.00e+00	0	27	0	212860928	50	5765
2026-01-26 23:17:14.08	125.77	12.59	-38.2	-39.1	23.4	0.00e+00	0	27	0	214958080	50	5789
2026-01-26 23:17:15.09	125.71	12.68	-38.1	-39.0	23.5	0.00e+00	0	27	0	216006656	50	5746
2026-01-26 23:17:16.10	125.65	12.78	-38.2	-39.2	23.3	0.00e+00	0	27	0	218103808	50	5853
2026-01-26 23:17:17.11	125.59	12.87	-38.4	-39.4	23.1	0.00e+00	0	27	0	220200960	50	6016
2026-01-26 23:17:18.12	125.53	12.96	-38.4	-39.3	23.2	0.00e+00	0	27	0	222298112	50	5964
2026-01-26 23:17:19.13	125.47	13.06	-38.4	-39.4	23.1	0.00e+00	0	27	0	224395264	50	5966
2026-01-26 23:17:20.14	125.40	13.15	-38.5	-39.4	23.2	0.00e+00	0	27	0	225443840	50	6017
2026-01-26 23:17:21.15	125.34	13.25	-38.2	-39.1	23.4	0.00e+00	0	27	0	227540992	50	5799
2026-01-26 23:17:22.16	125.28	13.35	-38.1	-39.0	23.5	0.00e+00	0	27	0	229638144	50	5756
2026-01-26 23:17:23.17	125.22	13.44	-38.0	-38.9	23.6	0.00e+00	0	27	0	231735296	50	5673
2026-01-26 23:17:24.18	125.15	13.54	-38.1	-39.0	23.5	0.00e+00	0	27	0	233832448	50	5726
2026-01-26 23:17:25.19	125.09	13.64	-38.1	-39.0	23.6	0.00e+00	0	27	0	234881024	50	5708
2026-01-26 23:17:26.20	125.03	13.73	-38.2	-39.1	23.4	0.00e+00	0	27	0	236978176	50	5781
2026-01-26 23:17:27.21	124.96	13.83	-38.1	-39.0	23.6	0.00e+00	0	27	0	239075328	50	5716
2026-01-26 23:17:28.22	124.90	13.93	-38.2	-39.1	23.4	0.00e+00	0	27	0	241172480	50	5787
2026-01-26 23:17:29.22	124.83	14.03	-38.2	-39.1	23.4	0.00e+00	0	27	0	243269632	50	5806
2026-01-26 23:17:30.23	124.77	14.13	-38.3	-39.2	23.3	0.00e+00	0	27	0	244318208	50	5857
2026-01-26 23:17:31.24	124.70	14.22	-38.4	-39.3	23.2	0.00e+00	0	27	0	246415360	50	5925
2026-01-26 23:17:32.25	124.63	14.32	-38.3	-39.2	23.3	0.00e+00	0	27	0	248512512	50	5895
2026-01-26 23:17:33.26	124.57	14.42	-38.4	-39.3	23.2	0.00e+00	0	27	0	250609664	50	5964
2026-01-26 23:17:34.27	124.50	14.52	-38.4	-39.3	23.3	0.00e+00	0	27	0	252706816	50	5949
2026-01-26 23:17:35.28	124.43	14.62	-38.4	-39.4	23.2	0.00e+00	0	27	0	253755392	50	6002
2026-01-26 23:17:36.29	124.36	14.72	-38.5	-39.5	23.3	0.00e+00	0	27	0	255852544	50	6046
2026-01-26 23:17:37.30	124.29	14.83	-38.1	-39.0	23.6	0.00e+00	0	27	0	257949696	50	5748
2026-01-26 23:17:38.30	124.22	14.93	-38.2	-39.2	23.4	0.00e+00	0	27	0	260046848	50	5834
2026-01-26 23:17:39.31	124.15	15.03	-38.1	-39.0	23.5	0.00e+00	0	27	0	262144000	50	5733
2026-01-26 23:17:40.32	124.08	15.13	-38.2	-39.1	23.4	0.00e+00	0	27	0	263192576	50	5825
2026-01-26 23:17:41.33	124.01	15.23	-38.1	-39.1	23.5	0.00e+00	0	27	0	265289728	50	5771
2026-01-26 23:17:42.34	123.94	15.34	-38.2	-39.1	23.5	0.00e+00	0	27	0	267386880	50	5818
2026-01-26 23:17:43.35	123.87	15.44	-38.0	-39.0	23.6	0.00e+00	0	27	0	269484032	50	5704
2026-01-26 23:17:44.35	123.79	15.54	-38.0	-38.9	23.7	0.00e+00	0	27	0	271581184	50	5679
2026-01-26 23:17:45.36	123.72	15.65	-38.0	-38.9	23.7	0.00e+00	0	27	0	273678336	50	5668
2026-01-26 23:17:46.37	123.65	15.75	-38.0	-38.9	23.7	0.00e+00	0	27	0	274726912	50	5672
2026-01-26 23:17:47.38	123.57	15.86	-37.9	-38.8	23.8	0.00e+00	0	27	0	276824064	50	5613
2026-01-26 23:17:48.39	123.50	15.96	-38.0	-39.0	23.6	0.00e+00	0	27	0	278921216	50	5702
2026-01-26 23:17:49.40	123.42	16.07	-37.9	-38.8	23.7	0.00e+00	0	27	0	281018368	50	5614
2026-01-26 23:17:50.41	123.35	16.18	-38.0	-38.9	23.7	0.00e+00	0	27	0	283115520	50	5681
2026-01-26 23:17:51.43	123.27	16.28	-38.0	-39.0	23.6	0.00e+00	0	27	0	284164096	50	5697
2026-01-26 23:17:52.43	123.19	16.39	-37.9	-38.9	23.7	0.00e+00	0	27	0	286261248	50	5655
2026-01-26 23:17:53.44	123.12	16.50	-37.9	-38.8	23.8	0.00e+00	0	27	0	288358400	50	5626
2026-01-26 23:17:54.45	123.04	16.61	-37.8	-38.7	23.8	0.00e+00	0	27	0	290455552	50	5541
2026-01-26 23:17:55.46	122.96	16.71	-37.9	-38.8	23.7	0.00e+00	0	27	0	292552704	50	5609
2026-01-26 23:17:56.47	122.88	16.82	-37.9	-38.8	23.8	0.00e+00	0	27	0	293601280	50	5601
2026-01-26 23:17:57.48	122.80	16.93	-37.8	-38.7	23.9	0.00e+00	0	27	0	295698432	48	6184
2026-01-26 23:17:58.49	122.72	17.04	-37.9	-38.8	23.8	0.00e+00	0	27	0	297795584	48	6258
2026-01-26 23:17:59.51	122.64	17.15	-38.0	-38.9	23.7	0.00e+00	0	27	0	299892736	48	6342
2026-01-26 23:18:00.51	122.56	17.26	-37.9	-38.8	23.8	0.00e+00	0	27	0	301989888	48	6255
2026-01-26 23:18:01.52	122.47	17.37	-37.9	-38.8	23.8	0.00e+00	0	27	0	303038464	48	6272
2026-01-26 23:18:02.53	122.39	17.49	-38.0	-38.9	23.6	0.00e+00	0	27	0	305135616	48	6351
2026-01-26 23:18:03.54	122.31	17.60	-38.0	-38.9	23.7	0.00e+00	0	27	0	307232768	48	6337
2026-01-26 23:18:04.55	122.22	17.71	-38.0	-38.9	23.7	0.00e+00	0	27	0	309329920	48	6333
2026-01-26 23:18:05.56	122.14	17.82	-38.2	-39.1	23.4	0.00e+00	0	27	0	311427072	48	6518
2026-01-26 23:18:06.57	122.05	17.94	-38.1	-39.1	23.6	0.00e+00	0	27	0	312475648	48	6466
2026-01-26 23:18:07.58	121.96	18.05	-38.0	-38.9	23.7	0.00e+00	0	27	0	314572800	48	6379
2026-01-26 23:18:08.59	121.88	18.16	-38.0	-38.9	23.8	0.00e+00	0	27	0	316669952	48	6363
2026-01-26 23:18:09.60	121.79	18.28	-38.2	-39.1	23.6	0.00e+00	0	27	0	318767104	48	6474
2026-01-26 23:18:10.61	121.70	18.39	-38.2	-39.1	23.5	0.00e+00	0	27	0	320864256	48	6512
2026-01-26 23:18:11.62	121.61	18.51	-38.2	-39.1	23.5	0.00e+00	0	27	0	321912832	48	6534
2026-01-26 23:18:12.63	121.52	18.63	-38.2	-39.2	23.5	0.00e+00	0	27	0	324009984	48	6552
2026-01-26 23:18:13.64	121.43	18.74	-38.4	-39.3	23.4	0.00e+00	0	27	0	326107136	48	6691
2026-01-26 23:18:14.64	121.34	18.86	-38.3	-39.3	23.4	0.00e+00	0	27	0	328204288	48	6643
2026-01-26 23:18:15.66	121.25	18.98	-38.5	-39.4	23.3	0.00e+00	0	27	0	330301440	48	6755
2026-01-26 23:18:16.67	121.16	19.10	-38.3	-39.3	23.4	0.00e+00	0	27	0	331350016	48	6640
2026-01-26 23:18:17.68	121.06	19.21	-38.4	-39.3	23.4	0.00e+00	0	27	0	333447168	48	6687
2026-01-26 23:18:18.69	120.97	19.33	-38.6	-39.5	23.2	0.00e+00	0	27	0	335544320	48	6837
2026-01-26 23:18:19.70	120.87	19.45	-38.5	-39.4	23.3	0.00e+00	0	27	0	337641472	48	6746
2026-01-26 23:18:20.71	120.78	19.57	-38.5	-39.5	23.1	0.00e+00	0	27	0	339738624	48	6845
2026-01-26 23:18:21.71	120.68	19.69	-38.7	-39.7	23.1	0.00e+00	0	27	0	341835776	48	6949
2026-01-26 23:18:22.72	120.58	19.81	-38.6	-39.6	23.1	0.00e+00	0	27	0	342884352	48	6896
2026-01-26 23:18:23.73	120.49	19.93	-38.7	-39.7	23.1	0.00e+00	0	27	0	344981504	48	6942
2026-01-26 23:18:24.74	120.39	20.06	-38.8	-39.8	22.9	0.00e+00	0	27	0	347078656	50	6284
2026-01-26 23:18:25.75	120.29	20.18	-38.9	-39.9	22.9	0.00e+00	0	27	0	349175808	50	6368
2026-01-26 23:18:26.76	120.19	20.30	-38.9	-39.9	23.0	0.00e+00	0	27	0	351272960	50	6349
2026-01-26 23:18:27.77	120.09	20.42	-39.1	-40.1	22.7	0.00e+00	0	27	0	352321536	50	6483
2026-01-26 23:18:28.77	119.99	20.55	-38.9	-39.9	23.0	0.00e+00	0	27	0	354418688	50	6333
2026-01-26 23:18:29.78	119.88	20.67	-39.0	-40.0	22.8	0.00e+00	0	27	0	356515840	50	6424
2026-01-26 23:18:30.79	119.78	20.80	-39.0	-40.0	22.8	0.00e+00	0	27	0	358612992	50	6436
2026-01-26 23:18:31.80	119.67	20.92	-39.1	-40.1	22.7	0.00e+00	0	27	0	360710144	50	6505
2026-01-26 23:18:32.81	119.57	21.05	-39.2	-40.2	22.6	0.00e+00	0	27	0	361758720	50	6604
2026-01-26 23:18:33.82	119.46	21.17	-39.0	-40.0	22.8	0.00e+00	0	27	0	363855872	50	6428
2026-01-26 23:18:34.83	119.35	21.30	-39.0	-40.0	22.8	0.00e+00	0	27	0	365953024	50	6449
2026-01-26 23:18:35.84	119.25	21.43	-39.0	-39.9	22.9	0.00e+00	0	27	0	368050176	50	6376
2026-01-26 23:18:36.85	119.14	21.56	-39.0	-39.9	22.9	0.00e+00	0	27	0	370147328	50	6369
2026-01-26 23:18:37.86	119.03	21.69	-39.0	-39.9	22.8	0.00e+00	0	27	0	371195904	50	6390
2026-01-26 23:18:38.87	118.91	21.82	-39.1	-40.1	22.7	0.00e+00	0	27	0	373293056	50	6495
2026-01-26 23:18:39.88	118.80	21.95	-39.1	-40.1	22.7	0.00e+00	0	27	0	375390208	50	6499
2026-01-26 23:18:40.89	118.69	22.08	-39.2	-40.2	22.7	0.00e+00	0	27	0	377487360	50	6547
2026-01-26 23:18:41.90	118.58	22.21	-39.3	-40.3	22.6	0.00e+00	0	27	0	379584512	50	6623
2026-01-26 23:18:42.90	118.46	22.34	-39.3	-40.3	22.5	0.00e+00	0	27	0	380633088	50	6665
2026-01-26 23:18:43.91	118.35	22.47	-39.4	-40.4	22.5	0.00e+00	0	27	0	382730240	50	6739
2026-01-26 23:18:44.92	118.23	22.60	-39.2	-40.2	22.7	0.00e+00	0	27	0	384827392	50	6573
2026-01-26 23:18:45.93	118.11	22.73	-39.2	-40.2	22.7	0.00e+00	0	27	0	386924544	50	6564
2026-01-26 23:18:46.94	117.99	22.87	-39.1	-40.1	22.7	0.00e+00	0	27	0	389021696	50	6517
2026-01-26 23:18:47.95	117.87	23.00	-39.2	-40.2	22.4	0.00e+00	0	27	0	390070272	50	6586
2026-01-26 23:18:48.96	117.75	23.14	-39.2	-40.2	22.7	0.00e+00	0	27	0	392167424	50	6584
2026-01-26 23:18:49.97	117.63	23.27	-39.2	-40.2	22.6	0.00e+00	0	27	0	394264576	50	6571
2026-01-26 23:18:50.98	117.50	23.41	-39.2	-40.3	22.6	0.00e+00	0	27	0	396361728	50	6633
2026-01-26 23:18:51.99	117.38	23.54	-39.1	-40.1	22.8	0.00e+00	0	27	0	398458880	50	6512
2026-01-26 23:18:53.00	117.25	23.68	-39.1	-40.2	22.7	0.00e+00	0	27	0	399507456	50	6548
2026-01-26 23:18:54.01	117.13	23.82	-39.1	-40.1	22.8	0.00e+00	0	27	0	401604608	50	6493
2026-01-26 23:18:55.02	117.00	23.96	-39.1	-40.1	22.8	0.00e+00	0	27	0	403701760	50	6491
2026-01-26 23:18:56.03	116.87	24.10	-39.1	-40.1	22.7	0.00e+00	0	27	0	405798912	50	6524
2026-01-26 23:18:57.03	116.74	24.23	-39.2	-40.2	22.6	0.00e+00	0	27	0	407896064	50	6577
2026-01-26 23:18:58.05	116.61	24.37	-39.3	-40.3	22.5	0.00e+00	0	27	0	409993216	50	6676
2026-01-26 23:18:59.06	116.48	24.52	-39.2	-40.2	22.7	0.00e+00	0	27	0	411041792	50	6546
2026-01-26 23:19:00.06	116.34	24.65	-39.3	-40.3	22.6	0.00e+00	0	27	0	413138944	50	6621
2026-01-26 23:19:01.08	116.21	24.80	-39.4	-40.4	22.5	0.00e+00	0	27	0	415236096	50	6736
2026-01-26 23:19:02.08	116.07	24.94	-39.1	-40.1	22.8	0.00e+00	0	27	0	417333248	50	6506
2026-01-26 23:19:03.09	115.94	25.08	-39.0	-39.9	22.9	0.00e+00	0	27	0	419430400	50	6383
2026-01-26 23:19:04.10	115.80	25.22	-38.9	-39.9	22.9	0.00e+00	0	27	0	420478976	50	6330
2026-01-26 23:19:05.11	115.66	25.37	-39.1	-40.0	22.8	0.00e+00	0	27	0	422576128	50	6456
2026-01-26 23:19:06.12	115.52	25.51	-39.0	-40.0	22.9	0.00e+00	0	27	0	424673280	50	6426
2026-01-26 23:19:07.13	115.37	25.66	-39.0	-40.0	22.9	0.00e+00	0	27	0	426770432	50	6421
2026-01-26 23:19:08.14	115.23	25.80	-39.0	-40.0	22.9	0.00e+00	0	27	0	428867584	50	6428
2026-01-26 23:19:09.15	115.08	25.95	-39.0	-40.0	22.8	0.00e+00	0	27	0	429916160	50	6413
2026-01-26 23:19:10.16	114.94	26.10	-39.0	-40.0	23.0	0.00e+00	0	27	0	432013312	50	6425
2026-01-26 23:19:11.17	114.79	26.24	-39.1	-40.1	22.8	0.00e+00	0	27	0	434110464	50	6502
2026-01-26 23:19:12.18	114.64	26.39	-39.3	-40.3	22.7	0.00e+00	0	27	0	436207616	50	6643
2026-01-26 23:19:13.19	114.49	26.54	-39.5	-40.5	22.5	0.00e+00	0	27	0	438304768	50	6807
2026-01-26 23:19:14.19	114.34	26.69	-39.7	-40.8	22.2	0.00e+00	0	27	0	439353344	50	7044
2026-01-26 23:19:15.20	114.18	26.84	-39.3	-40.3	22.7	0.00e+00	0	27	0	441450496	50	6662
2026-01-26 23:19:16.21	114.03	26.99	-39.3	-40.3	22.7	0.00e+00	0	27	0	443547648	50	6645
2026-01-26 23:19:17.22	113.87	27.14	-39.2	-40.2	22.8	0.00e+00	0	27	0	445644800	50	6575
2026-01-26 23:19:18.23	113.71	27.29	-39.1	-40.0	22.9	0.00e+00	0	27	0	447741952	50	6461
2026-01-26 23:19:19.24	113.55	27.44	-38.9	-39.9	23.0	0.00e+00	0	27	0	448790528	50	6362
2026-01-26 23:19:20.25	113.39	27.60	-39.0	-39.9	22.9	0.00e+00	0	27	0	450887680	50	6383
2026-01-26 23:19:21.26	113.23	27.75	-38.9	-39.8	23.0	0.00e+00	0	27	0	452984832	50	6308
2026-01-26 23:19:22.27	113.06	27.90	-38.8	-39.8	23.1	0.00e+00	0	27	0	455081984	50	6261
2026-01-26 23:19:23.28	112.90	28.06	-38.7	-39.6	23.3	0.00e+00	0	27	0	457179136	50	6135
2026-01-26 23:19:24.29	112.73	28.21	-38.8	-39.8	23.1	0.00e+00	0	27	0	458227712	50	6266
2026-01-26 23:19:25.30	112.56	28.37	-39.0	-39.9	23.0	0.00e+00	0	27	0	460324864	50	6387
2026-01-26 23:19:26.31	112.39	28.53	-39.2	-40.1	22.9	0.00e+00	0	27	0	462422016	50	6521
2026-01-26 23:19:27.32	112.22	28.68	-39.1	-40.1	22.8	0.00e+00	0	27	0	464519168	50	6495
2026-01-26 23:19:28.33	112.04	28.84	-39.3	-40.3	22.7	0.00e+00	0	27	0	466616320	50	6667
2026-01-26 23:19:29.34	111.87	29.00	-39.4	-40.4	22.6	0.00e+00	0	27	0	467664896	50	6705
2026-01-26 23:19:30.35	111.69	29.16	-39.2	-40.2	22.7	0.00e+00	0	27	0	469762048	50	6609
2026-01-26 23:19:31.36	111.51	29.32	-39.1	-40.1	22.9	0.00e+00	0	27	0	471859200	50	6503
2026-01-26 23:19:32.37	111.33	29.48	-39.1	-40.1	22.8	0.00e+00	0	27	0	473956352	50	6516
2026-01-26 23:19:33.38	111.14	29.64	-39.2	-40.2	22.7	0.00e+00	0	27	0	476053504	50	6578
2026-01-26 23:19:34.39	110.96	29.80	-39.3	-40.3	22.6	0.00e+00	0	27	0	478150656	50	6657
2026-01-26 23:19:35.40	110.77	29.96	-39.2	-40.2	22.8	0.00e+00	0	27	0	479199232	50	6596
2026-01-26 23:19:36.41	110.58	30.12	-39.5	-40.6	22.5	0.00e+00	0	27	0	481296384	50	6855
2026-01-26 23:19:37.42	110.39	30.29	-39.5	-40.5	22.4	0.00e+00	0	27	0	483393536	50	6822
2026-01-26 23:19:38.43	110.20	30.45	-39.6	-40.6	22.4	0.00e+00	0	27	0	485490688	52	6150
2026-01-26 23:19:39.43	110.00	30.61	-39.8	-40.8	22.3	0.00e+00	0	27	0	487587840	52	6312
2026-01-26 23:19:40.44	109.80	30.77	-39.9	-40.9	22.1	0.00e+00	0	27	0	488636416	52	6367
2026-01-26 23:19:41.45	109.61	30.94	-40.0	-41.0	22.1	0.00e+00	0	27	0	490733568	52	6435
2026-01-26 23:19:42.46	109.40	31.11	-40.0	-41.1	22.0	0.00e+00	0	27	0	492830720	52	6465
2026-01-26 23:19:43.47	109.20	31.27	-40.1	-41.2	21.9	0.00e+00	0	27	0	494927872	52	6546
2026-01-26 23:19:44.48	109.00	31.44	-40.0	-41.1	22.0	0.00e+00	0	27	0	495976448	52	6501
2026-01-26 23:19:45.49	108.79	31.60	-40.2	-41.3	21.8	0.00e+00	0	27	0	498073600	52	6661
2026-01-26 23:19:46.50	108.58	31.77	-40.4	-41.5	21.6	0.00e+00	0	27	0	500170752	52	6814
2026-01-26 23:19:47.51	108.37	31.94	-40.5	-41.8	21.3	0.00e+00	0	27	0	502267904	52	7013
2026-01-26 23:19:48.52	108.15	32.11	-40.7	-42.0	21.2	0.00e+00	0	27	0	504365056	54	6425
2026-01-26 23:19:49.53	107.94	32.28	-40.7	-42.1	21.2	0.00e+00	0	27	0	506462208	54	6490
2026-01-26 23:19:50.54	107.72	32.45	-40.4	-41.7	21.4	0.00e+00	0	27	0	507510784	54	6223
2026-01-26 23:19:51.55	107.50	32.62	-40.5	-41.9	21.2	0.00e+00	0	27	0	509607936	54	6366
2026-01-26 23:19:52.56	107.27	32.79	-40.4	-41.7	21.4	0.00e+00	0	27	0	511705088	54	6187
2026-01-26 23:19:53.57	107.05	32.96	-40.5	-41.8	21.3	0.00e+00	0	27	0	513802240	54	6283
2026-01-26 23:19:54.58	106.82	33.13	-40.3	-41.5	21.6	0.00e+00	0	27	0	515899392	54	6073
2026-01-26 23:19:55.59	106.59	33.30	-40.3	-41.4	21.7	0.00e+00	0	27	0	516947968	54	6015
2026-01-26 23:19:56.59	106.36	33.47	-40.5	-41.6	21.5	0.00e+00	0	27	0	519045120	54	6114
2026-01-26 23:19:57.60	106.12	33.64	-40.6	-41.7	21.4	0.00e+00	0	27	0	521142272	54	6211
2026-01-26 23:19:58.61	105.88	33.82	-40.5	-41.6	21.6	0.00e+00	0	27	0	523239424	54	6133
2026-01-26 23:19:59.62	105.64	33.99	-40.5	-41.6	21.5	0.00e+00	0	27	0	525336576	54	6173
2026-01-26 23:20:00.63	105.40	34.17	-40.6	-41.8	21.3	0.00e+00	0	27	0	526385152	54	6260
2026-01-26 23:20:01.64	105.15	34.34	-40.7	-41.9	21.2	0.00e+00	0	27	0	528482304	54	6347
2026-01-26 23:20:02.65	104.90	34.51	-40.7	-41.9	21.2	0.00e+00	0	27	0	530579456	54	6364
2026-01-26 23:20:03.66	104.65	34.69	-40.8	-42.0	21.2	0.00e+00	0	27	0	532676608	54	6404
2026-01-26 23:20:04.66	104.40	34.86	-40.4	-41.5	21.6	0.00e+00	0	27	0	534773760	54	6089
2026-01-26 23:20:05.67	104.14	35.04	-40.5	-41.6	21.5	0.00e+00	0	27	0	535822336	54	6137
2026-01-26 23:20:06.68	103.88	35.21	-40.4	-41.5	21.6	0.00e+00	0	27	0	537919488	54	6068
2026-01-26 23:20:07.69	103.62	35.39	-40.6	-41.7	21.4	0.00e+00	0	27	0	540016640	54	6240
2026-01-26 23:20:08.70	103.36	35.57	-40.5	-41.7	21.4	0.00e+00	0	27	0	542113792	54	6243
2026-01-26 23:20:09.71	103.09	35.74	-40.3	-41.5	21.6	0.00e+00	0	27	0	544210944	54	6039
2026-01-26 23:20:10.72	102.82	35.92	-40.3	-41.4	21.7	0.00e+00	0	27	0	545259520	54	6031
2026-01-26 23:20:11.73	102.54	36.10	-40.4	-41.5	21.6	0.00e+00	0	27	0	547356672	54	6053
2026-01-26 23:20:12.75	102.26	36.28	-40.4	-41.6	21.5	0.00e+00	0	27	0	549453824	54	6116
2026-01-26 23:20:13.75	101.98	36.45	-40.5	-41.6	21.4	0.00e+00	0	27	0	551550976	54	6168
2026-01-26 23:20:14.76	101.70	36.63	-40.6	-41.8	21.4	0.00e+00	0	27	0	553648128	54	6251
2026-01-26 23:20:15.78	101.41	36.81	-40.3	-41.4	21.8	0.00e+00	0	27	0	554696704	54	5980
2026-01-26 23:20:16.79	101.12	36.99	-40.1	-41.2	21.8	0.00e+00	0	27	0	556793856	54	5856
2026-01-26 23:20:17.80	100.83	37.17	-40.2	-41.3	21.8	0.00e+00	0	27	0	558891008	54	5945
2026-01-26 23:20:18.81	100.53	37.34	-40.1	-41.2	21.7	0.00e+00	0	27	0	560988160	54	5881
2026-01-26 23:20:19.82	100.23	37.52	-40.1	-41.1	21.9	0.00e+00	0	27	0	563085312	54	5825
2026-01-26 23:20:20.82	99.93	37.70	-39.9	-41.0	22.1	0.00e+00	0	27	0	564133888	54	5719
2026-01-26 23:20:21.84	99.62	37.88	-40.2	-41.4	21.7	0.00e+00	0	27	0	566231040	54	5976
2026-01-26 23:20:22.85	99.31	38.06	-40.1	-41.2	22.0	0.00e+00	0	27	0	568328192	54	5846
2026-01-26 23:20:23.86	99.00	38.24	-39.9	-41.0	22.1	0.00e+00	0	27	0	570425344	54	5748
2026-01-26 23:20:24.86	98.69	38.41	-39.6	-40.7	22.4	0.00e+00	0	27	0	572522496	52	6212
2026-01-26 23:20:25.87	98.37	38.59	-39.6	-40.6	22.5	0.00e+00	0	27	0	574619648	52	6141
2026-01-26 23:20:26.88	98.04	38.77	-39.5	-40.5	22.5	0.00e+00	0	27	0	575668224	52	6075
2026-01-26 23:20:27.89	97.72	38.95	-39.7	-40.7	22.4	0.00e+00	0	27	0	577765376	52	6213
2026-01-26 23:20:28.90	97.39	39.12	-39.9	-41.0	22.2	0.00e+00	0	27	0	579862528	52	6411
2026-01-26 23:20:29.91	97.05	39.30	-39.8	-40.8	22.2	0.00e+00	0	27	0	581959680	52	6264
2026-01-26 23:20:30.92	96.71	39.48	-39.9	-41.0	22.1	0.00e+00	0	27	0	584056832	52	6395
2026-01-26 23:20:31.93	96.37	39.66	-40.1	-41.2	21.9	0.00e+00	0	27	0	585105408	52	6598
2026-01-26 23:20:32.94	96.03	39.83	-40.5	-41.6	21.5	0.00e+00	0	27	0	587202560	52	6907
2026-01-26 23:20:33.95	95.68	40.01	-40.5	-41.7	21.5	0.00e+00	0	27	0	589299712	52	6932
2026-01-26 23:20:34.95	95.33	40.18	-40.4	-41.5	21.5	0.00e+00	0	27	0	591396864	52	6829
2026-01-26 23:20:35.96	94.97	40.36	-40.5	-41.7	21.6	0.00e+00	0	27	0	593494016	52	6973
2026-01-26 23:20:36.97	94.61	40.54	-40.3	-41.4	21.9	0.00e+00	0	27	0	594542592	52	6715
2026-01-26 23:20:37.98	94.25	40.71	-40.5	-41.6	21.6	0.00e+00	0	27	0	596639744	52	6875
2026-01-26 23:20:38.99	93.88	40.89	-40.6	-41.8	21.4	0.00e+00	0	27	0	598736896	52	7011
2026-01-26 23:20:40.00	93.50	41.06	-40.7	-41.9	21.2	0.00e+00	0	27	0	600834048	54	6371
2026-01-26 23:20:41.01	93.13	41.23	-40.9	-42.1	21.0	0.00e+00	0	27	0	602931200	54	6514
2026-01-26 23:20:42.02	92.75	41.41	-40.9	-42.1	21.1	0.00e+00	0	27	0	603979776	54	6521
2026-01-26 23:20:43.03	92.36	41.58	-41.0	-42.3	20.9	0.00e+00	0	27	0	606076928	54	6625
2026-01-26 23:20:44.04	91.97	41.75	-40.9	-42.2	21.0	0.00e+00	0	27	0	608174080	54	6567
2026-01-26 23:20:45.05	91.58	41.92	-40.8	-42.0	21.1	0.00e+00	0	27	0	610271232	54	6403
2026-01-26 23:20:46.06	91.18	42.09	-40.6	-41.8	21.4	0.00e+00	0	27	0	612368384	54	6275
2026-01-26 23:20:47.07	90.78	42.26	-40.6	-41.8	21.3	0.00e+00	0	27	0	613416960	54	6273
2026-01-26 23:20:48.08	90.37	42.43	-40.8	-42.0	21.3	0.00e+00	0	27	0	615514112	54	6415
2026-01-26 23:20:49.09	89.96	42.59	-40.8	-42.0	21.3	0.00e+00	0	27	0	617611264	54	6407
2026-01-26 23:20:50.10	89.55	42.76	-40.5	-41.6	21.5	0.00e+00	0	27	0	619708416	54	6170
2026-01-26 23:20:51.11	89.13	42.93	-39.8	-40.8	22.4	0.00e+00	0	27	0	621805568	54	5613
2026-01-26 23:20:52.12	88.71	43.09	-39.4	-40.5	22.6	0.00e+00	0	27	0	622854144	52	6043
2026-01-26 23:20:53.13	88.28	43.25	-39.1	-40.0	23.0	0.00e+00	0	27	0	624951296	52	5754
2026-01-26 23:20:54.13	87.85	43.42	-38.9	-39.8	23.2	0.00e+00	0	27	0	627048448	52	5615
2026-01-26 23:20:55.14	87.41	43.58	-38.6	-39.5	23.5	0.00e+00	0	27	0	629145600	50	6079
2026-01-26 23:20:56.15	86.97	43.74	-38.4	-39.3	23.6	0.00e+00	0	27	0	631242752	50	5909
2026-01-26 23:20:57.16	86.53	43.89	-37.6	-38.5	24.3	0.00e+00	0	27	0	632291328	50	5396
2026-01-26 23:20:58.17	86.08	44.05	-37.5	-38.3	24.5	0.00e+00	0	27	0	634388480	48	5921
2026-01-26 23:20:59.18	85.63	44.21	-37.8	-38.6	24.2	0.00e+00	0	27	0	636485632	48	6130
2026-01-26 23:21:00.19	85.17	44.36	-38.2	-39.1	23.8	0.00e+00	0	27	0	638582784	48	6489
2026-01-26 23:21:01.20	84.70	44.52	-38.2	-39.1	23.8	0.00e+00	0	27	0	640679936	48	6484
2026-01-26 23:21:02.21	84.24	44.67	-38.1	-39.0	24.0	0.00e+00	0	27	0	642777088	48	6433
2026-01-26 23:21:03.22	83.76	44.82	-38.1	-39.0	23.9	0.00e+00	0	27	0	643825664	48	6417
2026-01-26 23:21:04.23	83.29	44.97	-38.4	-39.3	23.7	0.00e+00	0	27	0	645922816	48	6630
2026-01-26 23:21:05.24	82.81	45.11	-38.4	-39.3	23.6	0.00e+00	0	27	0	648019968	48	6684
2026-01-26 23:21:06.25	82.32	45.26	-38.0	-38.8	24.1	0.00e+00	0	27	0	650117120	48	6303
2026-01-26 23:21:07.25	81.84	45.40	-37.9	-38.7	23.7	0.00e+00	0	27	0	652214272	48	6238
2026-01-26 23:21:08.26	81.34	45.54	-37.6	-38.4	24.3	0.00e+00	0	27	0	653262848	48	6021
2026-01-26 23:21:09.27	80.84	45.68	-37.8	-38.7	24.2	0.00e+00	0	27	0	655360000	48	6174
2026-01-26 23:21:10.28	80.34	45.82	-38.3	-39.2	23.7	0.00e+00	0	27	0	657457152	48	6588
2026-01-26 23:21:11.29	79.83	45.95	-39.1	-40.1	23.0	0.00e+00	0	27	0	659554304	50	6476
2026-01-26 23:21:12.30	79.32	46.09	-39.4	-40.4	22.7	0.00e+00	0	27	0	661651456	50	6718
2026-01-26 23:21:13.31	78.81	46.22	-39.9	-40.9	22.3	0.00e+00	0	27	0	662700032	52	6375
2026-01-26 23:21:14.32	78.29	46.35	-40.0	-41.1	22.1	0.00e+00	0	27	0	664797184	52	6470
2026-01-26 23:21:15.33	77.76	46.47	-40.0	-41.1	22.1	0.00e+00	0	27	0	666894336	52	6508
2026-01-26 23:21:16.34	77.23	46.60	-40.0	-41.1	22.1	0.00e+00	0	27	0	668991488	52	6475
2026-01-26 23:21:17.35	76.70	46.72	-40.0	-41.1	22.1	0.00e+00	0	27	0	671088640	52	6492
2026-01-26 23:21:18.36	76.16	46.84	-40.1	-41.2	21.9	0.00e+00	0	27	0	672137216	52	6584
2026-01-26 23:21:19.37	75.62	46.96	-40.0	-41.0	22.1	0.00e+00	0	27	0	674234368	52	6460
2026-01-26 23:21:20.38	75.08	47.07	-40.3	-41.4	21.7	0.00e+00	0	27	0	676331520	52	6757
2026-01-26 23:21:21.39	74.53	47.18	-40.7	-41.8	21.3	0.00e+00	0	27	0	678428672	52	7074
2026-01-26 23:21:22.40	73.97	47.29	-41.0	-42.2	21.1	0.00e+00	0	27	0	680525824	54	6608
2026-01-26 23:21:23.40	73.42	47.40	-41.0	-42.2	21.1	0.00e+00	0	27	0	681574400	54	6595
2026-01-26 23:21:24.42	72.86	47.50	-40.7	-41.9	21.3	0.00e+00	0	27	0	683671552	54	6343
2026-01-26 23:21:25.43	72.29	47.61	-40.9	-42.1	21.2	0.00e+00	0	27	0	685768704	54	6517
2026-01-26 23:21:26.44	71.72	47.70	-41.2	-42.5	20.6	0.00e+00	0	27	0	687865856	54	6803
2026-01-26 23:21:27.45	71.15	47.80	-41.5	-42.9	20.4	0.00e+00	0	27	0	689963008	54	7090
2026-01-26 23:21:28.46	70.58	47.89	-41.5	-42.8	20.4	0.00e+00	0	28	0	691011584	54	7064
2026-01-26 23:21:29.47	70.00	47.98	-42.0	-43.4	19.9	0.00e+00	0	27	0	693108736	56	6717
2026-01-26 23:21:30.47	69.42	48.07	-42.4	-43.9	19.6	0.00e+00	0	27	0	695205888	56	7131
2026-01-26 23:21:31.48	68.84	48.15	-41.9	-43.2	20.2	0.00e+00	0	27	0	697303040	56	6581
2026-01-26 23:21:32.49	68.25	48.23	-41.4	-42.7	20.6	0.00e+00	0	27	0	699400192	56	6220
2026-01-26 23:21:33.50	67.66	48.31	-41.2	-42.4	20.9	0.00e+00	0	27	0	700448768	56	5986
2026-01-26 23:21:34.51	67.06	48.39	-41.0	-42.1	21.2	0.00e+00	0	27	0	702545920	56	5823
2026-01-26 23:21:35.52	66.47	48.46	-40.5	-41.6	21.5	0.00e+00	0	27	0	704643072	54	6162
2026-01-26 23:21:36.53	65.87	48.52	-40.2	-41.3	21.8	0.00e+00	0	27	0	706740224	54	5932
2026-01-26 23:21:37.54	65.26	48.59	-40.6	-41.7	21.4	0.00e+00	0	27	0	708837376	54	6224
2026-01-26 23:21:38.55	64.66	48.65	-40.5	-41.6	21.5	0.00e+00	0	27	0	710934528	54	6153
2026-01-26 23:21:39.56	64.05	48.71	-40.3	-41.4	21.7	0.00e+00	0	27	0	711983104	54	6019
2026-01-26 23:21:40.57	63.44	48.76	-40.4	-41.5	21.7	0.00e+00	0	27	0	714080256	54	6073
2026-01-26 23:21:41.58	62.83	48.81	-40.4	-41.5	21.5	0.00e+00	0	27	0	716177408	54	6097
2026-01-26 23:21:42.58	62.22	48.86	-40.3	-41.4	21.8	0.00e+00	0	27	0	718274560	54	6016
2026-01-26 23:21:43.59	61.61	48.90	-39.9	-40.9	22.2	0.00e+00	0	27	0	720371712	54	5674
2026-01-26 23:21:44.60	60.99	48.95	-39.6	-40.6	22.5	0.00e+00	0	27	0	721420288	52	6163
2026-01-26 23:21:45.61	60.37	48.98	-39.6	-40.6	22.5	0.00e+00	0	27	0	723517440	52	6124
2026-01-26 23:21:46.63	59.75	49.02	-39.5	-40.5	22.6	0.00e+00	0	27	0	725614592	52	6065
2026-01-26 23:21:47.64	59.13	49.05	-39.5	-40.5	22.5	0.00e+00	0	27	0	727711744	52	6092
2026-01-26 23:21:48.65	58.51	49.07	-39.6	-40.6	22.5	0.00e+00	0	27	0	729808896	52	6122
2026-01-26 23:21:49.66	57.88	49.09	-39.7	-40.7	22.3	0.00e+00	0	27	0	730857472	52	6244
2026-01-26 23:21:50.67	57.26	49.11	-40.0	-41.1	22.0	0.00e+00	0	27	0	732954624	52	6486
2026-01-26 23:21:51.68	56.63	49.13	-40.1	-41.2	21.9	0.00e+00	0	27	0	735051776	52	6587
2026-01-26 23:21:52.69	56.01	49.14	-40.0	-41.1	22.0	0.00e+00	0	27	0	737148928	52	6507
2026-01-26 23:21:53.70	55.38	49.15	-39.8	-40.8	22.4	0.00e+00	0	27	0	739246080	52	6266
2026-01-26 23:21:54.71	54.76	49.15	-39.7	-40.7	22.4	0.00e+00	0	27	0	740294656	52	6204
2026-01-26 23:21:55.72	54.13	49.15	-39.7	-40.7	22.4	0.00e+00	0	27	0	742391808	52	6206
2026-01-26 23:21:56.73	53.51	49.15	-39.9	-40.9	22.3	0.00e+00	0	27	0	744488960	52	6387
2026-01-26 23:21:57.74	52.88	49.14	-40.0	-41.0	22.1	0.00e+00	0	27	0	746586112	52	6445
2026-01-26 23:21:58.75	52.26	49.13	-40.0	-41.0	22.1	0.00e+00	0	27	0	748683264	52	6441
2026-01-26 23:21:59.75	51.64	49.12	-39.9	-41.0	22.2	0.00e+00	0	27	0	749731840	52	6425
2026-01-26 23:22:00.76	51.01	49.10	-39.8	-40.8	22.4	0.00e+00	0	27	0	751828992	52	6294
2026-01-26 23:22:01.77	50.39	49.08	-39.7	-40.8	22.4	0.00e+00	0	27	0	753926144	52	6257
2026-01-26 23:22:02.78	49.77	49.05	-39.6	-40.7	22.3	0.00e+00	0	27	0	756023296	52	6174
2026-01-26 23:22:03.79	49.15	49.02	-39.7	-40.7	22.5	0.00e+00	0	27	0	758120448	52	6207
2026-01-26 23:22:04.80	48.53	48.99	-40.0	-41.0	22.1	0.00e+00	0	27	0	759169024	52	6436
2026-01-26 23:22:05.82	47.90	48.96	-40.0	-41.0	22.2	0.00e+00	0	27	0	761266176	52	6456
2026-01-26 23:22:06.83	47.29	48.92	-39.9	-40.9	22.3	0.00e+00	0	27	0	763363328	52	6364
2026-01-26 23:22:07.83	46.68	48.87	-39.7	-40.7	22.4	0.00e+00	0	27	0	765460480	52	6228
2026-01-26 23:22:08.84	46.06	48.83	-39.7	-40.8	22.4	0.00e+00	0	27	0	767557632	52	6250
2026-01-26 23:22:09.85	45.45	48.78	-39.5	-40.5	22.6	0.00e+00	0	27	0	768606208	52	6046
2026-01-26 23:22:10.86	44.84	48.72	-39.6	-40.7	22.5	0.00e+00	0	27	0	770703360	52	6181
2026-01-26 23:22:11.87	44.24	48.67	-39.9	-40.9	22.2	0.00e+00	0	27	0	772800512	52	6362
2026-01-26 23:22:12.88	43.63	48.61	-39.8	-40.8	22.3	0.00e+00	0	27	0	774897664	52	6286
2026-01-26 23:22:13.89	43.03	48.54	-39.7	-40.8	22.2	0.00e+00	0	27	0	776994816	52	6248
2026-01-26 23:22:14.90	42.43	48.48	-39.6	-40.6	22.4	0.00e+00	0	27	0	779091968	52	6169
2026-01-26 23:22:15.90	41.84	48.41	-39.8	-40.8	22.4	0.00e+00	0	27	0	780140544	52	6286
2026-01-26 23:22:16.91	41.24	48.33	-40.0	-41.1	22.0	0.00e+00	0	27	0	782237696	52	6508
2026-01-26 23:22:17.92	40.65	48.26	-40.0	-41.1	22.0	0.00e+00	0	27	0	784334848	52	6472
2026-01-26 23:22:18.93	40.06	48.18	-40.1	-41.1	22.0	0.00e+00	0	27	0	786432000	52	6534
2026-01-26 23:22:19.94	39.48	48.09	-40.1	-41.2	22.0	0.00e+00	0	27	0	788529152	52	6542
2026-01-26 23:22:20.96	38.89	48.01	-40.0	-41.0	22.0	0.00e+00	0	27	0	789577728	52	6447
2026-01-26 23:22:21.97	38.31	47.92	-40.4	-41.5	21.6	0.00e+00	0	27	0	791674880	52	6839
2026-01-26 23:22:22.97	37.74	47.83	-40.8	-41.9	21.4	0.00e+00	0	27	0	793772032	52	7166
2026-01-26 23:22:23.98	37.17	47.73	-40.9	-42.1	21.1	0.00e+00	0	27	0	795869184	54	6508
2026-01-26 23:22:24.99	36.60	47.64	-40.6	-41.8	21.4	0.00e+00	0	27	0	797966336	54	6261
2026-01-26 23:22:26.00	36.04	47.53	-40.3	-41.3	21.9	0.00e+00	0	27	0	799014912	54	5958
2026-01-26 23:22:27.02	35.47	47.43	-39.9	-41.0	22.2	0.00e+00	0	27	0	801112064	54	5716
2026-01-26 23:22:28.03	34.91	47.32	-40.3	-41.4	21.7	0.00e+00	0	27	0	803209216	54	6025
2026-01-26 23:22:29.04	34.36	47.22	-40.5	-41.7	21.5	0.00e+00	0	27	0	805306368	54	6175
2026-01-26 23:22:30.05	33.81	47.10	-40.9	-42.1	21.2	0.00e+00	0	27	0	807403520	54	6500
2026-01-26 23:22:31.06	33.26	46.99	-40.7	-41.9	21.3	0.00e+00	0	27	0	808452096	54	6368
2026-01-26 23:22:32.07	32.72	46.87	-40.5	-41.6	21.6	0.00e+00	0	27	0	810549248	54	6154
2026-01-26 23:22:33.08	32.18	46.76	-40.1	-41.2	22.1	0.00e+00	0	27	0	812646400	54	5846
2026-01-26 23:22:34.08	31.66	46.64	-40.1	-41.2	21.9	0.00e+00	0	27	0	814743552	54	5833
2026-01-26 23:22:35.10	31.12	46.51	-40.2	-41.3	21.8	0.00e+00	0	27	0	816840704	54	5957
2026-01-26 23:22:36.11	30.60	46.38	-39.9	-41.0	22.2	0.00e+00	0	27	0	817889280	54	5721
2026-01-26 23:22:37.11	30.08	46.26	-39.9	-40.9	22.4	0.00e+00	0	27	0	819986432	54	5657
2026-01-26 23:22:38.12	29.57	46.13	-39.4	-40.4	22.7	0.00e+00	0	27	0	822083584	52	6020
2026-01-26 23:22:39.13	29.05	45.99	-39.3	-40.3	22.9	0.00e+00	0	27	0	824180736	52	5950
2026-01-26 23:22:40.14	28.55	45.86	-39.1	-40.1	23.1	0.00e+00	0	27	0	826277888	52	5796
2026-01-26 23:22:41.15	28.04	45.72	-39.0	-40.0	23.1	0.00e+00	0	27	0	827326464	52	5719
2026-01-26 23:22:42.16	27.54	45.59	-39.0	-40.0	23.1	0.00e+00	0	27	0	829423616	52	5703
2026-01-26 23:22:43.17	27.05	45.44	-38.8	-39.7	23.2	0.00e+00	0	28	0	831520768	52	5565
2026-01-26 23:22:44.18	26.56	45.30	-39.2	-40.2	22.9	0.00e+00	0	27	0	833617920	52	5831
2026-01-26 23:22:45.19	26.07	45.16	-39.2	-40.2	23.0	0.00e+00	0	27	0	835715072	52	5833
2026-01-26 23:22:46.20	25.59	45.01	-39.1	-40.0	23.1	0.00e+00	0	27	0	836763648	52	5741
2026-01-26 23:22:47.22	25.11	44.86	-38.6	-39.5	23.5	0.00e+00	0	27	0	838860800	50	6071
2026-01-26 23:22:48.23	24.64	44.71	-38.5	-39.4	23.6	0.00e+00	0	27	0	840957952	50	6000
2026-01-26 23:22:49.24	24.17	44.56	-38.4	-39.3	23.6	0.00e+00	0	27	0	843055104	50	5910
2026-01-26 23:22:50.25	23.71	44.41	-38.4	-39.3	23.7	0.00e+00	0	27	0	845152256	50	5922
2026-01-26 23:22:51.25	23.25	44.26	-38.4	-39.3	23.7	0.00e+00	0	27	0	847249408	50	5943
2026-01-26 23:22:52.26	22.80	44.10	-38.5	-39.3	23.7	0.00e+00	0	27	0	848297984	50	5955
2026-01-26 23:22:53.27	22.35	43.95	-38.5	-39.4	23.5	0.00e+00	0	27	0	850395136	50	5996
2026-01-26 23:22:54.28	21.90	43.79	-38.6	-39.4	23.5	0.00e+00	0	27	0	852492288	50	6027
2026-01-26 23:22:55.29	21.46	43.63	-38.4	-39.3	23.7	0.00e+00	0	27	0	854589440	50	5916
2026-01-26 23:22:56.30	21.03	43.47	-38.2	-39.1	23.9	0.00e+00	0	27	0	856686592	50	5768
2026-01-26 23:22:57.31	20.59	43.31	-38.5	-39.4	23.6	0.00e+00	0	27	0	857735168	50	5969
2026-01-26 23:22:58.32	20.17	43.15	-38.8	-39.7	23.3	0.00e+00	0	27	0	859832320	50	6225
2026-01-26 23:22:59.33	19.74	42.98	-39.1	-40.1	23.0	0.00e+00	0	27	0	861929472	50	6488
2026-01-26 23:23:00.34	19.32	42.82	-39.0	-40.0	23.1	0.00e+00	0	27	0	864026624	50	6417
2026-01-26 23:23:01.35	18.91	42.65	-39.2	-40.2	22.9	0.00e+00	0	27	0	866123776	50	6563
2026-01-26 23:23:02.36	18.50	42.49	-38.9	-39.9	23.1	0.00e+00	0	27	0	867172352	50	6324
2026-01-26 23:23:03.37	18.09	42.32	-38.8	-39.7	23.4	0.00e+00	0	27	0	869269504	50	6205
2026-01-26 23:23:04.38	17.69	42.15	-38.8	-39.7	23.3	0.00e+00	0	27	0	871366656	50	6224
2026-01-26 23:23:05.38	17.30	41.98	-38.4	-39.2	23.8	0.00e+00	0	27	0	873463808	50	5891
2026-01-26 23:23:06.39	16.90	41.81	-38.2	-39.1	23.7	0.00e+00	0	27	0	875560960	50	5798
2026-01-26 23:23:07.40	16.51	41.64	-38.5	-39.4	23.6	0.00e+00	0	27	0	876609536	50	6025
2026-01-26 23:23:08.41	16.13	41.47	-38.4	-39.3	23.5	0.00e+00	0	27	0	878706688	50	5946
2026-01-26 23:23:09.42	15.75	41.30	-38.7	-39.6	23.4	0.00e+00	0	27	0	880803840	50	6107
2026-01-26 23:23:10.43	15.37	41.13	-38.7	-39.6	23.4	0.00e+00	0	27	0	882900992	50	6133
2026-01-26 23:23:11.44	15.00	40.95	-38.7	-39.6	23.4	0.00e+00	0	27	0	884998144	50	6150
2026-01-26 23:23:12.44	14.63	40.78	-38.6	-39.5	23.4	0.00e+00	0	27	0	886046720	50	6082
2026-01-26 23:23:13.45	14.27	40.61	-38.5	-39.4	23.5	0.00e+00	0	27	0	888143872	50	6031
2026-01-26 23:23:14.46	13.91	40.43	-38.7	-39.6	23.4	0.00e+00	0	27	0	890241024	50	6164
2026-01-26 23:23:15.47	13.55	40.26	-38.9	-39.9	23.1	0.00e+00	0	27	0	892338176	50	6342
2026-01-26 23:23:16.48	13.20	40.08	-38.9	-39.9	23.1	0.00e+00	0	27	0	894435328	50	6344
2026-01-26 23:23:17.49	12.85	39.90	-39.2	-40.2	22.8	0.00e+00	0	27	0	895483904	50	6553
2026-01-26 23:23:18.50	12.50	39.73	-39.4	-40.4	22.7	0.00e+00	0	27	0	897581056	50	6725
2026-01-26 23:23:19.51	12.16	39.55	-39.7	-40.8	22.3	0.00e+00	0	27	0	899678208	50	7008
2026-01-26 23:23:20.52	11.82	39.38	-39.9	-41.0	22.2	0.00e+00	0	27	0	901775360	52	6428
2026-01-26 23:23:21.53	11.49	39.20	-40.0	-41.1	22.1	0.00e+00	0	27	0	903872512	52	6500
2026-01-26 23:23:22.54	11.15	39.02	-40.3	-41.4	21.8	0.00e+00	0	27	0	904921088	52	6701
2026-01-26 23:23:23.55	10.83	38.84	-40.5	-41.7	21.6	0.00e+00	0	27	0	907018240	52	6934
2026-01-26 23:23:24.56	10.50	38.67	-40.2	-41.3	21.9	0.00e+00	0	27	0	909115392	52	6665
2026-01-26 23:23:25.57	10.18	38.49	-40.3	-41.4	21.7	0.00e+00	0	27	0	911212544	52	6713
2026-01-26 23:23:26.58	9.87	38.31	-40.2	-41.3	21.9	0.00e+00	0	27	0	913309696	52	6646
2026-01-26 23:23:27.59	9.55	38.13	-40.5	-41.6	21.5	0.00e+00	0	27	0	915406848	52	6866
2026-01-26 23:23:28.60	9.24	37.96	-40.8	-42.0	21.1	0.00e+00	0	27	0	916455424	54	6397
2026-01-26 23:23:29.61	8.94	37.78	-41.0	-42.2	21.0	0.00e+00	0	27	0	918552576	54	6591
2026-01-26 23:23:30.61	8.64	37.60	-41.0	-42.2	21.1	0.00e+00	0	27	0	920649728	54	6565
2026-01-26 23:23:31.62	8.34	37.42	-41.1	-42.3	20.9	0.00e+00	0	27	0	922746880	54	6653
2026-01-26 23:23:32.63	8.04	37.25	-41.0	-42.2	21.0	0.00e+00	0	27	0	923795456	54	6595
2026-01-26 23:23:33.64	7.75	37.07	-41.5	-42.8	20.4	0.00e+00	0	27	0	925892608	54	7053
2026-01-26 23:23:34.65	7.46	36.89	-41.7	-43.0	20.3	0.00e+00	0	27	0	927989760	56	6451
2026-01-26 23:23:35.66	7.17	36.71	-41.6	-42.9	20.5	0.00e+00	0	27	0	930086912	56	6328
2026-01-26 23:23:36.67	6.89	36.54	-41.7	-43.0	20.3	0.00e+00	0	27	0	932184064	56	6447
2026-01-26 23:23:37.68	6.61	36.36	-41.7	-43.1	20.2	0.00e+00	0	27	0	933232640	56	6496
2026-01-26 23:23:38.69	6.33	36.18	-41.7	-43.0	20.4	0.00e+00	0	27	0	935329792	56	6436
2026-01-26 23:23:39.70	6.06	36.01	-41.2	-42.5	20.8	0.00e+00	0	27	0	937426944	56	6039
2026-01-26 23:23:40.71	5.79	35.83	-40.8	-42.0	21.2	0.00e+00	0	27	0	939524096	56	5719
2026-01-26 23:23:41.72	5.52	35.65	-40.6	-41.8	21.5	0.00e+00	0	27	0	941621248	54	6247
2026-01-26 23:23:42.73	5.25	35.48	-40.8	-42.0	21.3	0.00e+00	0	27	0	943718400	54	6402
2026-01-26 23:23:43.74	4.99	35.30	-40.9	-42.0	21.1	0.00e+00	0	27	0	944766976	54	6462
2026-01-26 23:23:44.75	4.73	35.13	-41.0	-42.2	21.0	0.00e+00	0	27	0	946864128	54	6573
2026-01-26 23:23:45.76	4.47	34.95	-41.1	-42.3	20.9	0.00e+00	0	27	0	948961280	54	6661
2026-01-26 23:23:46.77	4.22	34.78	-41.2	-42.5	20.7	0.00e+00	0	27	0	951058432	54	6779
2026-01-26 23:23:47.78	3.97	34.60	-41.2	-42.5	20.8	0.00e+00	0	27	0	953155584	54	6777
2026-01-26 23:23:48.79	3.72	34.43	-41.2	-42.4	20.8	0.00e+00	0	27	0	954204160	54	6725
2026-01-26 23:23:49.80	3.47	34.26	-40.9	-42.1	21.1	0.00e+00	0	27	0	956301312	54	6474
2026-01-26 23:23:50.81	3.23	34.08	-40.7	-41.8	21.2	0.00e+00	0	27	0	958398464	54	6309
2026-01-26 23:23:51.82	2.99	33.91	-40.7	-41.9	21.2	0.00e+00	0	27	0	960495616	54	6365
2026-01-26 23:23:52.83	2.75	33.74	-40.8	-42.0	21.1	0.00e+00	0	27	0	962592768	54	6426
2026-01-26 23:23:53.85	2.51	33.56	-40.7	-41.9	21.2	0.00e+00	0	27	0	963641344	54	6383
2026-01-26 23:23:54.86	2.28	33.39	-40.6	-41.7	21.3	0.00e+00	0	27	0	965738496	54	6210
2026-01-26 23:23:55.87	2.05	33.22	-40.3	-41.4	21.7	0.00e+00	0	27	0	967835648	54	5997
2026-01-26 23:23:56.88	1.82	33.05	-40.3	-41.3	21.7	0.00e+00	0	27	0	969932800	54	5952
2026-01-26 23:23:57.89	1.59	32.88	-40.2	-41.2	22.0	0.00e+00	0	27	0	972029952	54	5894
2026-01-26 23:23:58.90	1.37	32.71	-40.3	-41.3	21.7	0.00e+00	0	28	0	973078528	54	5961
2026-01-26 23:23:59.91	1.15	32.54	-40.4	-41.5	21.6	0.00e+00	0	27	0	975175680	54	6071
2026-01-26 23:24:00.90	0.94	32.37	-40.6	-41.7	21.3	0.00e+00	0	28	0	977272832	54	6208
2026-01-26 23:24:01.86	0.73	32.21	-40.7	-41.8	21.4	0.00e+00	0	28	0	979369984	54	6298
2026-01-26 23:24:02.87	0.52	32.05	-40.9	-42.1	21.0	0.00e+00	0	27	0	981467136	54	6516
2026-01-26 23:24:03.88	0.30	31.88	-40.8	-41.9	21.2	0.00e+00	0	27	0	982515712	54	6385
2026-01-26 23:24:04.89	0.09	31.71	-40.8	-42.0	21.0	0.00e+00	0	27	0	984612864	54	6457
2026-01-26 23:24:05.90	359.89	31.55	-40.8	-42.0	21.2	0.00e+00	0	27	0	986710016	54	6417
2026-01-26 23:24:06.91	359.68	31.38	-40.8	-42.1	21.1	0.00e+00	0	27	0	988807168	54	6477
2026-01-26 23:24:07.92	359.48	31.21	-40.8	-42.0	21.2	0.00e+00	0	28	0	990904320	54	6406
2026-01-26 23:24:08.93	359.28	31.05	-40.8	-42.0	21.1	0.00e+00	0	27	0	991952896	54	6452
2026-01-26 23:24:09.94	359.08	30.88	-40.9	-42.1	21.1	0.00e+00	0	28	0	994050048	54	6526
2026-01-26 23:24:10.95	358.88	30.72	-41.0	-42.2	21.0	0.00e+00	0	27	0	996147200	54	6608
2026-01-26 23:24:11.96	358.68	30.56	-41.0	-42.2	20.9	0.00e+00	0	27	0	998244352	54	6604
2026-01-26 23:24:12.97	358.49	30.39	-40.9	-42.1	21.1	0.00e+00	0	27	0	1000341504	54	6533
2026-01-26 23:24:13.98	358.30	30.23	-40.9	-42.1	21.0	0.00e+00	0	27	0	1001390080	54	6502
2026-01-26 23:24:14.99	358.11	30.07	-40.7	-41.9	21.2	0.00e+00	0	27	0	1003487232	54	6368
2026-01-26 23:24:16.00	357.92	29.91	-40.6	-41.8	21.4	0.00e+00	0	27	0	1005584384	54	6255
2026-01-26 23:24:17.01	357.74	29.75	-40.5	-41.7	21.5	0.00e+00	0	27	0	1007681536	54	6175
2026-01-26 23:24:18.02	357.55	29.59	-40.4	-41.5	21.4	0.00e+00	0	27	0	1009778688	54	6071
2026-01-26 23:24:19.03	357.37	29.43	-40.3	-41.4	21.5	0.00e+00	0	27	0	1010827264	54	6027
2026-01-26 23:24:20.04	357.19	29.27	-40.4	-41.5	21.5	0.00e+00	0	27	0	1012924416	54	6100
2026-01-26 23:24:21.05	357.01	29.11	-40.4	-41.6	21.4	0.00e+00	0	27	0	1015021568	54	6144
2026-01-26 23:24:22.06	356.84	28.95	-40.5	-41.7	21.4	0.00e+00	0	27	0	1017118720	54	6209
2026-01-26 23:24:23.07	356.66	28.80	-40.1	-41.3	21.8	0.00e+00	0	28	0	1019215872	54	5910
2026-01-26 23:24:24.08	356.49	28.64	-40.0	-41.0	22.0	0.00e+00	0	27	0	1020264448	54	5760
2026-01-26 23:24:25.09	356.32	28.48	-40.0	-41.0	22.0	0.00e+00	0	27	0	1022361600	54	5749
2026-01-26 23:24:26.11	356.15	28.33	-39.7	-40.8	22.3	0.00e+00	0	27	0	1024458752	52	6252
2026-01-26 23:24:27.11	355.98	28.17	-39.7	-40.7	22.4	0.00e+00	0	27	0	1026555904	52	6189
2026-01-26 23:24:28.12	355.82	28.02	-39.7	-40.7	22.3	0.00e+00	0	27	0	1028653056	52	6233
2026-01-26 23:24:29.13	355.65	27.87	-39.5	-40.5	22.6	0.00e+00	0	27	0	1029701632	52	6082
2026-01-26 23:24:30.14	355.49	27.71	-39.5	-40.6	22.5	0.00e+00	0	28	0	1031798784	52	6116
2026-01-26 23:24:31.15	355.33	27.56	-39.4	-40.4	22.6	0.00e+00	0	27	0	1033895936	52	5998
2026-01-26 23:24:32.16	355.17	27.41	-39.4	-40.4	22.6	0.00e+00	0	27	0	1035993088	52	5969
2026-01-26 23:24:33.17	355.01	27.26	-39.3	-40.3	22.7	0.00e+00	0	28	0	1038090240	52	5928
2026-01-26 23:24:34.18	354.85	27.11	-39.0	-40.0	23.0	0.00e+00	0	27	0	1040187392	52	5727
2026-01-26 23:24:35.19	354.70	26.96	-39.0	-40.0	22.9	0.00e+00	0	28	0	1041235968	52	5736
2026-01-26 23:24:36.20	354.54	26.81	-39.1	-40.2	22.8	0.00e+00	0	27	0	1043333120	52	5839
2026-01-26 23:24:37.21	354.39	26.66	-39.2	-40.3	22.7	0.00e+00	0	27	0	1045430272	52	5914
2026-01-26 23:24:38.21	354.24	26.51	-39.1	-40.1	22.8	0.00e+00	0	28	0	1047527424	52	5818
2026-01-26 23:24:39.22	354.09	26.36	-39.1	-40.1	22.8	0.00e+00	0	27	0	1049624576	52	5812
2026-01-26 23:24:40.23	353.95	26.22	-39.2	-40.2	22.7	0.00e+00	0	27	0	1050673152	52	5890
2026-01-26 23:24:41.24	353.80	26.07	-39.1	-40.1	22.8	0.00e+00	0	27	0	1052770304	52	5785
2026-01-26 23:24:42.25	353.65	25.92	-39.1	-40.1	22.9	0.00e+00	0	27	0	1054867456	52	5797
2026-01-26 23:24:43.26	353.51	25.78	-39.3	-40.3	22.7	0.00e+00	0	28	0	1056964608	52	5932
2026-01-26 23:24:44.27	353.37	25.63	-39.1	-40.1	22.9	0.00e+00	0	27	0	1059061760	52	5786
2026-01-26 23:24:45.28	353.23	25.49	-39.2	-40.1	22.9	0.00e+00	0	28	0	1060110336	52	5820
2026-01-26 23:24:46.29	353.09	25.35	-38.8	-39.8	23.1	0.00e+00	0	27	0	1062207488	52	5587
2026-01-26 23:24:47.30	352.95	25.20	-38.6	-39.6	23.2	0.00e+00	0	27	0	1064304640	50	6107
2026-01-26 23:24:48.31	352.81	25.06	-38.6	-39.6	23.3	0.00e+00	0	27	0	1066401792	50	6109
2026-01-26 23:24:49.32	352.67	24.92	-38.4	-39.4	23.4	0.00e+00	0	27	0	1068498944	50	5969
2026-01-26 23:24:50.33	352.54	24.78	-38.4	-39.3	23.4	0.00e+00	0	27	0	1069547520	50	5956
2026-01-26 23:24:51.34	352.41	24.64	-38.4	-39.3	23.4	0.00e+00	0	27	0	1071644672	50	5963
2026-01-26 23:24:52.35	352.27	24.50	-38.5	-39.4	23.3	0.00e+00	0	27	0	1073741824	50	6032
2026-01-26 23:24:53.36	352.14	24.36	-38.7	-39.6	23.2	0.00e+00	0	27	0	1075838976	50	6168
2026-01-26 23:24:54.37	352.01	24.22	-38.9	-39.8	23.0	0.00e+00	0	27	0	1077936128	50	6311
2026-01-26 23:24:55.38	351.88	24.08	-39.0	-40.0	22.9	0.00e+00	0	27	0	1078984704	50	6424
2026-01-26 23:24:56.39	351.76	23.94	-39.1	-40.1	22.8	0.00e+00	0	28	0	1081081856	50	6533
2026-01-26 23:24:57.40	351.63	23.81	-39.1	-40.1	22.7	0.00e+00	0	27	0	1083179008	50	6521
2026-01-26 23:24:58.41	351.50	23.67	-39.1	-40.1	22.9	0.00e+00	0	28	0	1085276160	50	6500
2026-01-26 23:24:59.42	351.38	23.53	-39.2	-40.2	22.8	0.00e+00	0	27	0	1087373312	50	6603
2026-01-26 23:25:00.42	351.26	23.40	-39.2	-40.2	22.6	0.00e+00	0	28	0	1088421888	50	6592
2026-01-26 23:25:01.43	351.14	23.26	-39.0	-40.0	22.9	0.00e+00	0	28	0	1090519040	50	6446
2026-01-26 23:25:02.45	351.01	23.13	-38.8	-39.7	23.1	0.00e+00	0	27	0	1092616192	50	6236
2026-01-26 23:25:03.46	350.89	22.99	-38.7	-39.6	23.2	0.00e+00	0	27	0	1094713344	50	6153
2026-01-26 23:25:04.46	350.78	22.86	-38.6	-39.5	23.4	0.00e+00	0	28	0	1096810496	50	6099
2026-01-26 23:25:05.47	350.66	22.73	-38.5	-39.5	23.4	0.00e+00	0	27	0	1097859072	50	6045
2026-01-26 23:25:06.48	350.54	22.60	-38.7	-39.7	23.3	0.00e+00	0	28	0	1099956224	50	6192
2026-01-26 23:25:07.49	350.43	22.46	-38.7	-39.7	23.1	0.00e+00	0	27	0	1102053376	50	6184
2026-01-26 23:25:08.50	350.31	22.33	-38.6	-39.5	23.3	0.00e+00	0	28	0	1104150528	50	6087
2026-01-26 23:25:09.51	350.20	22.20	-38.8	-39.7	23.1	0.00e+00	0	27	0	1106247680	50	6228
2026-01-26 23:25:10.52	350.09	22.07	-38.7	-39.7	23.2	0.00e+00	0	27	0	1108344832	50	6194
2026-01-26 23:25:11.53	349.97	21.94	-38.8	-39.8	23.1	0.00e+00	0	27	0	1109393408	50	6279
2026-01-26 23:25:12.54	349.86	21.81	-38.7	-39.6	23.2	0.00e+00	0	27	0	1111490560	50	6171
2026-01-26 23:25:13.55	349.75	21.69	-38.7	-39.7	23.2	0.00e+00	0	27	0	1113587712	50	6201
2026-01-26 23:25:14.55	349.64	21.56	-38.7	-39.6	23.3	0.00e+00	0	27	0	1115684864	50	6135
2026-01-26 23:25:15.56	349.54	21.43	-38.7	-39.7	23.2	0.00e+00	0	27	0	1117782016	50	6176
2026-01-26 23:25:16.57	349.43	21.31	-38.7	-39.6	23.3	0.00e+00	0	27	0	1118830592	50	6135
2026-01-26 23:25:17.58	349.32	21.18	-38.6	-39.6	23.3	0.00e+00	0	27	0	1120927744	50	6117
2026-01-26 23:25:18.59	349.22	21.05	-38.6	-39.5	23.3	0.00e+00	0	27	0	1123024896	50	6088
2026-01-26 23:25:19.60	349.11	20.93	-38.7	-39.7	23.2	0.00e+00	0	27	0	1125122048	50	6176
2026-01-26 23:25:20.61	349.01	20.80	-38.6	-39.6	23.3	0.00e+00	0	28	0	1127219200	50	6127
2026-01-26 23:25:21.62	348.91	20.68	-38.6	-39.6	23.3	0.00e+00	0	28	0	1128267776	50	6120
2026-01-26 23:25:22.63	348.81	20.56	-38.9	-39.8	23.1	0.00e+00	0	27	0	1130364928	50	6311
2026-01-26 23:25:23.63	348.71	20.43	-38.8	-39.8	23.1	0.00e+00	0	28	0	1132462080	50	6249
2026-01-26 23:25:24.64	348.61	20.31	-38.7	-39.6	23.1	0.00e+00	0	27	0	1134559232	50	6162
2026-01-26 23:25:25.65	348.51	20.19	-38.8	-39.8	23.0	0.00e+00	0	27	0	1136656384	50	6275
2026-01-26 23:25:26.66	348.41	20.07	-38.8	-39.7	23.1	0.00e+00	0	27	0	1137704960	50	6215
2026-01-26 23:25:27.66	348.31	19.95	-38.9	-39.9	22.9	0.00e+00	0	27	0	1139802112	50	6359
2026-01-26 23:25:28.67	348.21	19.83	-39.2	-40.2	22.7	0.00e+00	0	27	0	1141899264	50	6540
2026-01-26 23:25:29.68	348.12	19.71	-39.1	-40.1	22.8	0.00e+00	0	27	0	1143996416	50	6521
2026-01-26 23:25:30.69	348.02	19.59	-39.1	-40.1	22.7	0.00e+00	0	27	0	1146093568	50	6507
2026-01-26 23:25:31.70	347.93	19.47	-39.2	-40.3	22.6	0.00e+00	0	27	0	1147142144	50	6624
2026-01-26 23:25:32.71	347.83	19.35	-39.2	-40.2	22.6	0.00e+00	0	27	0	1149239296	50	6604
2026-01-26 23:25:33.72	347.74	19.23	-39.2	-40.3	22.5	0.00e+00	0	27	0	1151336448	50	6637
2026-01-26 23:25:34.73	347.65	19.11	-39.2	-40.2	22.6	0.00e+00	0	27	0	1153433600	50	6584
2026-01-26 23:25:35.74	347.56	18.99	-39.4	-40.4	22.4	0.00e+00	0	27	0	1155530752	50	6748
2026-01-26 23:25:36.75	347.47	18.88	-39.2	-40.2	22.6	0.00e+00	0	27	0	1156579328	50	6581
2026-01-26 23:25:37.76	347.38	18.76	-39.3	-40.3	22.6	0.00e+00	0	27	0	1158676480	50	6651
2026-01-26 23:25:38.77	347.29	18.65	-39.3	-40.4	22.6	0.00e+00	0	27	0	1160773632	50	6699
2026-01-26 23:25:39.78	347.20	18.53	-39.3	-40.3	22.7	0.00e+00	0	27	0	1162870784	50	6670
2026-01-26 23:25:40.79	347.11	18.42	-39.5	-40.5	22.3	0.00e+00	0	27	0	1164967936	50	6815
2026-01-26 23:25:41.80	347.02	18.30	-39.1	-40.1	22.8	0.00e+00	0	27	0	1166016512	50	6474
2026-01-26 23:25:42.81	346.93	18.19	-39.1	-40.1	22.7	0.00e+00	0	27	0	1168113664	50	6507
2026-01-26 23:25:43.81	346.85	18.07	-38.9	-39.9	22.9	0.00e+00	0	28	0	1170210816	50	6371
2026-01-26 23:25:44.82	346.76	17.96	-39.0	-39.9	22.8	0.00e+00	0	27	0	1172307968	50	6388
2026-01-26 23:25:45.83	346.68	17.85	-38.8	-39.7	23.1	0.00e+00	0	27	0	1174405120	50	6229
2026-01-26 23:25:46.84	346.60	17.74	-38.8	-39.8	23.0	0.00e+00	0	27	0	1176502272	50	6261
2026-01-26 23:25:47.85	346.51	17.62	-38.7	-39.7	23.0	0.00e+00	0	28	0	1177550848	50	6192
2026-01-26 23:25:48.85	346.43	17.51	-38.8	-39.7	23.1	0.00e+00	0	28	0	1179648000	50	6239
2026-01-26 23:25:49.86	346.35	17.40	-38.8	-39.8	22.9	0.00e+00	0	27	0	1181745152	50	6269
2026-01-26 23:25:50.87	346.27	17.29	-38.9	-39.8	22.9	0.00e+00	0	28	0	1183842304	50	6288
2026-01-26 23:25:51.88	346.19	17.18	-39.0	-40.0	22.8	0.00e+00	0	27	0	1185939456	50	6406
2026-01-26 23:25:52.89	346.11	17.07	-39.1	-40.0	22.7	0.00e+00	0	27	0	1186988032	50	6456
2026-01-26 23:25:53.90	346.03	16.96	-39.0	-40.0	22.7	0.00e+00	0	27	0	1189085184	50	6431
2026-01-26 23:25:54.91	345.95	16.86	-39.1	-40.0	22.7	0.00e+00	0	27	0	1191182336	50	6455
2026-01-26 23:25:55.92	345.87	16.75	-39.1	-40.1	22.5	0.00e+00	0	27	0	1193279488	50	6532
2026-01-26 23:25:56.93	345.79	16.64	-39.2	-40.2	22.5	0.00e+00	0	27	0	1194328064	50	6610
2026-01-26 23:25:57.94	345.71	16.53	-39.5	-40.5	22.3	0.00e+00	0	27	0	1196425216	50	6829
2026-01-26 23:25:58.94	345.64	16.43	-39.4	-40.5	22.4	0.00e+00	0	27	0	1198522368	50	6788
2026-01-26 23:25:59.95	345.56	16.32	-39.7	-40.8	22.0	0.00e+00	0	27	0	1200619520	50	7016
