passes_logs/2026/01/26/R4.6S_Anadyr/R4.6S_Anadyr__20260126_113820_NOAA_20_JPSS-1_rec.log

#Pass ID: 20260126_113820_NOAA 20 (JPSS-1)
#Satellite: NOAA 20 (JPSS-1)
#Configuration: NOAA 20
#almurnet v.1.7.20251203
#Start time: 2026-01-26 11:38:21

#Version: 2.2.20231116
#Station: R4.6S_Anadyr
#Location: 177.4865 lon 64.73178 lat
#TLE: 1 43013U 17073A   26025.90277267  .00000170  00000+0  10165-3 0  9997
#TLE: 2 43013  98.7646 326.7276 0001032  23.5492 336.5731 14.19540457424285

#Time	Az	El	Level	Level2	SNR	BER	BlckErr	Temp	State	Recorded	gain1	gain2
2026-01-26 11:38:21.85	20.50	0.04	-41.7	-54.9	3.3	1.54e+00	0	24	0	0	58	25422
2026-01-26 11:38:22.86	20.59	0.08	-50.3	-65.5	3.6	1.51e+00	0	25	104	0	60	67893
2026-01-26 11:38:23.87	20.69	0.12	-50.1	-65.2	3.5	1.51e+00	0	25	104	0	60	66116
2026-01-26 11:38:24.88	20.78	0.16	-50.1	-65.4	3.6	1.51e+00	0	25	104	0	60	67191
2026-01-26 11:38:25.89	20.88	0.20	-50.6	-65.7	3.6	1.51e+00	0	25	104	0	60	69763
2026-01-26 11:38:26.90	20.98	0.24	-50.0	-65.2	3.6	1.51e+00	0	25	104	0	60	65856
2026-01-26 11:38:27.91	21.07	0.28	-49.5	-64.7	3.6	1.51e+00	0	25	104	0	60	61798
2026-01-26 11:38:28.92	21.17	0.33	-49.2	-64.5	3.6	1.51e+00	0	25	104	0	60	60410
2026-01-26 11:38:29.93	21.26	0.37	-49.3	-64.5	3.6	1.51e+00	0	25	104	0	60	60958
2026-01-26 11:38:30.94	21.36	0.41	-49.4	-64.5	3.6	1.51e+00	0	25	104	0	60	60942
2026-01-26 11:38:31.95	21.46	0.45	-49.2	-64.4	3.6	1.51e+00	0	25	104	0	60	59904
2026-01-26 11:38:32.96	21.55	0.49	-49.1	-64.4	3.6	1.51e+00	0	25	104	0	60	60095
2026-01-26 11:38:33.97	21.65	0.53	-49.4	-64.7	3.6	1.51e+00	0	25	104	0	60	61931
2026-01-26 11:38:34.98	21.75	0.57	-49.1	-64.5	3.5	1.51e+00	0	25	104	0	60	60488
2026-01-26 11:38:35.99	21.85	0.61	-49.2	-64.4	3.6	1.51e+00	0	25	104	0	60	60018
2026-01-26 11:38:37.00	21.95	0.65	-49.1	-64.2	3.6	1.51e+00	0	25	104	0	60	58699
2026-01-26 11:38:38.01	22.04	0.69	-48.9	-64.1	3.6	1.51e+00	0	25	104	0	60	58044
2026-01-26 11:38:39.02	22.14	0.73	-48.8	-64.1	3.6	1.51e+00	0	25	104	0	60	57836
2026-01-26 11:38:40.03	22.24	0.77	-48.7	-64.0	3.6	1.51e+00	0	25	104	0	60	57278
2026-01-26 11:38:41.04	22.34	0.81	-48.7	-64.0	3.6	1.51e+00	0	25	104	0	60	57045
2026-01-26 11:38:42.05	22.44	0.86	-48.7	-63.9	3.6	1.51e+00	0	25	104	0	60	56395
2026-01-26 11:38:43.06	22.54	0.90	-48.6	-63.8	3.6	1.51e+00	0	26	104	0	60	55835
2026-01-26 11:38:44.07	22.64	0.94	-48.3	-63.7	3.6	1.51e+00	0	26	104	0	60	55072
2026-01-26 11:38:45.08	22.74	0.98	-48.3	-63.5	3.6	1.51e+00	0	25	104	0	60	53968
2026-01-26 11:38:46.09	22.84	1.02	-48.1	-63.3	3.6	1.51e+00	0	25	104	0	60	52671
2026-01-26 11:38:47.10	22.94	1.06	-47.8	-62.9	3.6	1.51e+00	0	25	104	0	60	50485
2026-01-26 11:38:48.11	23.04	1.10	-47.5	-62.6	3.6	1.51e+00	0	26	104	0	60	48968
2026-01-26 11:38:49.12	23.14	1.14	-47.5	-62.6	3.6	1.51e+00	0	26	104	0	60	48953
2026-01-26 11:38:50.13	23.25	1.18	-47.5	-62.7	3.6	1.51e+00	0	26	104	0	60	49143
2026-01-26 11:38:51.14	23.35	1.22	-47.5	-62.7	3.6	1.51e+00	0	26	104	0	60	49095
2026-01-26 11:38:52.15	23.45	1.26	-47.5	-62.7	3.6	1.51e+00	0	26	104	0	60	49082
2026-01-26 11:38:53.16	23.55	1.30	-47.5	-62.7	3.6	1.51e+00	0	26	104	0	60	49063
2026-01-26 11:38:54.17	23.66	1.34	-47.5	-62.6	3.6	1.51e+00	0	26	104	0	60	48986
2026-01-26 11:38:55.18	23.76	1.38	-47.5	-62.6	3.6	1.51e+00	0	26	104	0	60	48956
2026-01-26 11:38:56.19	23.86	1.42	-47.5	-62.7	3.6	1.51e+00	0	26	104	0	60	49289
2026-01-26 11:38:57.20	23.96	1.46	-47.5	-62.6	3.6	1.51e+00	0	26	104	0	60	48880
2026-01-26 11:38:58.21	24.07	1.51	-47.5	-62.7	3.6	1.51e+00	0	26	104	0	60	49073
2026-01-26 11:38:59.22	24.17	1.55	-47.5	-62.7	3.6	1.51e+00	0	26	104	0	60	49346
2026-01-26 11:39:00.23	24.28	1.59	-47.5	-62.7	3.6	1.51e+00	0	26	104	0	60	49096
2026-01-26 11:39:01.24	24.38	1.63	-47.5	-62.7	3.6	1.51e+00	0	26	104	0	60	49304
2026-01-26 11:39:02.25	24.49	1.67	-47.5	-62.7	3.6	1.51e+00	0	26	104	0	60	49156
2026-01-26 11:39:03.25	24.59	1.71	-47.5	-62.6	3.6	1.51e+00	0	26	104	0	60	48978
2026-01-26 11:39:04.26	24.70	1.75	-47.5	-62.6	3.6	1.51e+00	0	26	104	0	60	48707
2026-01-26 11:39:05.27	24.80	1.79	-47.5	-62.6	3.6	1.51e+00	0	26	104	0	60	48901
2026-01-26 11:39:06.28	24.91	1.83	-47.5	-62.7	3.6	1.51e+00	0	26	104	0	60	49084
2026-01-26 11:39:07.29	25.01	1.87	-47.5	-62.6	3.6	1.51e+00	0	26	104	0	60	48732
2026-01-26 11:39:08.30	25.12	1.91	-47.5	-62.6	3.6	1.51e+00	0	26	104	0	60	48676
2026-01-26 11:39:09.31	25.23	1.95	-47.5	-62.6	3.6	1.51e+00	0	26	104	0	60	48578
2026-01-26 11:39:10.32	25.33	1.99	-47.5	-62.6	3.6	1.51e+00	0	26	104	0	60	48898
2026-01-26 11:39:11.33	25.44	2.03	-47.5	-62.6	3.6	1.51e+00	0	26	104	0	60	48860
2026-01-26 11:39:12.34	25.55	2.07	-47.5	-62.6	3.6	1.51e+00	0	26	104	0	60	48899
2026-01-26 11:39:13.35	25.66	2.11	-47.5	-62.6	3.6	1.51e+00	0	26	104	0	60	48973
2026-01-26 11:39:14.36	25.76	2.15	-47.5	-62.6	3.6	1.51e+00	0	26	104	0	60	48804
2026-01-26 11:39:15.37	25.87	2.19	-47.5	-62.6	3.6	1.51e+00	0	26	104	0	60	48548
2026-01-26 11:39:16.38	25.98	2.23	-47.5	-62.6	3.6	1.51e+00	0	26	104	0	60	48668
2026-01-26 11:39:17.39	26.09	2.27	-47.5	-62.5	3.6	1.51e+00	0	26	104	0	60	48067
2026-01-26 11:39:18.40	26.20	2.31	-47.5	-62.5	3.6	1.51e+00	0	26	104	0	60	48328
2026-01-26 11:39:19.41	26.31	2.35	-47.5	-62.6	3.6	1.51e+00	0	26	104	0	60	48532
2026-01-26 11:39:20.42	26.42	2.39	-47.5	-62.6	3.6	1.51e+00	0	26	104	0	60	48916
2026-01-26 11:39:21.43	26.53	2.43	-47.5	-62.6	3.6	1.51e+00	0	26	104	0	60	48979
2026-01-26 11:39:22.44	26.64	2.47	-47.5	-62.6	3.5	1.51e+00	0	26	104	0	60	48800
2026-01-26 11:39:23.45	26.75	2.51	-47.5	-62.5	3.6	1.51e+00	0	26	104	0	60	48313
2026-01-26 11:39:24.46	26.86	2.55	-47.5	-62.0	3.6	1.51e+00	0	26	104	0	60	45307
2026-01-26 11:39:25.47	26.97	2.59	-47.4	-60.9	3.6	1.51e+00	0	26	104	0	60	40043
2026-01-26 11:39:26.48	27.08	2.63	-47.5	-61.2	3.6	1.51e+00	0	26	104	0	60	41409
2026-01-26 11:39:27.49	27.19	2.67	-47.5	-62.3	3.6	1.51e+00	0	26	104	0	60	47095
2026-01-26 11:39:28.50	27.31	2.71	-47.4	-60.9	3.7	1.51e+00	0	26	104	0	60	40045
2026-01-26 11:39:29.51	27.42	2.75	-47.0	-55.6	6.0	7.57e-01	0	26	0	0	60	21718
2026-01-26 11:39:30.52	27.53	2.79	-45.6	-50.1	11.6	3.60e-02	0	26	0	2097152	60	11521
2026-01-26 11:39:31.53	27.64	2.83	-45.0	-48.7	13.0	9.15e-05	0	26	0	3145728	60	9800
2026-01-26 11:39:32.53	27.76	2.87	-44.1	-47.0	15.0	0.00e+00	0	26	0	5242880	60	8133
2026-01-26 11:39:33.55	27.87	2.91	-43.5	-46.0	15.4	0.00e+00	0	26	0	7340032	60	7172
2026-01-26 11:39:34.56	27.98	2.95	-43.6	-46.1	15.9	0.00e+00	0	26	0	9437184	60	7322
2026-01-26 11:39:35.57	28.10	2.99	-45.0	-48.8	13.0	4.50e-06	0	26	0	11534336	60	9958
2026-01-26 11:39:36.57	28.21	3.03	-44.3	-47.3	11.0	1.05e-03	0	26	0	13631488	56	10525
2026-01-26 11:39:37.58	28.33	3.07	-41.5	-43.1	18.3	1.50e+00	0	26	104	13631488	60	5182
2026-01-26 11:39:38.59	28.44	3.11	-46.2	-51.9	7.7	1.83e-05	0	26	0	14680064	60	14241
2026-01-26 11:39:39.60	28.56	3.15	-47.3	-60.6	3.6	1.51e+00	0	26	104	14680064	60	38642
2026-01-26 11:39:40.61	28.67	3.19	-42.3	-44.2	5.9	1.51e+00	45	26	104	14680064	60	5874
2026-01-26 11:39:41.62	28.79	3.23	-42.8	-44.9	17.2	0.00e+00	0	26	0	14680064	58	7156
2026-01-26 11:39:42.63	28.90	3.27	-41.9	-43.7	18.2	0.00e+00	0	26	0	16777216	58	6182
2026-01-26 11:39:43.64	29.02	3.30	-42.1	-43.9	17.7	0.00e+00	0	26	0	17825792	56	7105
2026-01-26 11:39:44.65	29.14	3.34	-41.5	-43.1	18.8	0.00e+00	0	26	0	19922944	56	6505
2026-01-26 11:39:45.66	29.25	3.38	-42.0	-43.8	18.0	0.00e+00	0	26	0	22020096	56	7043
2026-01-26 11:39:46.67	29.37	3.42	-42.3	-44.1	18.4	0.00e+00	0	26	0	24117248	56	7316
2026-01-26 11:39:47.68	29.49	3.46	-41.6	-43.2	18.6	0.00e+00	0	26	0	26214400	56	6599
2026-01-26 11:39:48.69	29.61	3.50	-41.9	-43.7	18.3	0.00e+00	0	26	0	27262976	56	6947
2026-01-26 11:39:49.70	29.73	3.54	-42.0	-43.7	17.6	0.00e+00	0	26	0	29360128	56	7004
2026-01-26 11:39:50.71	29.84	3.58	-41.8	-43.5	18.3	0.00e+00	0	26	0	31457280	56	6787
2026-01-26 11:39:51.72	29.96	3.62	-41.6	-43.2	18.5	0.00e+00	0	26	0	33554432	56	6596
2026-01-26 11:39:52.73	30.08	3.66	-41.9	-43.6	18.6	0.00e+00	0	26	0	35651584	56	6860
2026-01-26 11:39:53.74	30.20	3.70	-41.1	-42.6	19.3	0.00e+00	0	26	0	36700160	56	6108
2026-01-26 11:39:54.75	30.32	3.74	-41.1	-42.6	19.3	0.00e+00	0	26	0	38797312	56	6110
2026-01-26 11:39:55.76	30.44	3.77	-40.8	-42.2	19.6	0.00e+00	0	26	0	40894464	54	6595
2026-01-26 11:39:56.76	30.56	3.81	-40.6	-42.0	20.0	0.00e+00	0	26	0	42991616	54	6443
2026-01-26 11:39:57.77	30.68	3.85	-40.8	-42.2	19.4	0.00e+00	0	26	0	45088768	54	6607
2026-01-26 11:39:58.78	30.80	3.89	-40.9	-42.4	19.6	0.00e+00	0	26	0	46137344	54	6725
2026-01-26 11:39:59.79	30.92	3.93	-40.7	-42.1	19.7	0.00e+00	0	26	0	48234496	54	6538
2026-01-26 11:40:00.80	31.04	3.97	-40.5	-41.8	20.1	0.00e+00	0	26	0	50331648	54	6310
2026-01-26 11:40:01.81	31.17	4.01	-40.1	-41.4	20.6	0.00e+00	0	26	0	52428800	54	5975
2026-01-26 11:40:02.82	31.29	4.04	-40.3	-41.6	20.2	0.00e+00	0	26	0	54525952	54	6125
2026-01-26 11:40:03.83	31.41	4.08	-39.9	-41.2	20.8	0.00e+00	0	26	0	55574528	54	5844
2026-01-26 11:40:04.84	31.53	4.12	-40.2	-41.5	20.2	0.00e+00	0	26	0	57671680	54	6094
2026-01-26 11:40:05.85	31.66	4.16	-40.1	-41.4	20.4	0.00e+00	0	26	0	59768832	54	5991
2026-01-26 11:40:06.86	31.78	4.20	-40.5	-41.9	19.8	0.00e+00	0	26	0	61865984	54	6365
2026-01-26 11:40:07.87	31.90	4.24	-40.3	-41.7	20.2	0.00e+00	0	26	0	63963136	54	6195
2026-01-26 11:40:08.87	32.03	4.27	-40.3	-41.6	20.3	0.00e+00	0	26	0	65011712	54	6127
2026-01-26 11:40:09.88	32.15	4.31	-39.7	-40.9	21.0	0.00e+00	0	26	0	67108864	52	6337
2026-01-26 11:40:10.89	32.28	4.35	-39.8	-41.0	20.9	0.00e+00	0	26	0	69206016	52	6433
2026-01-26 11:40:11.90	32.40	4.39	-40.2	-41.5	20.5	0.00e+00	0	26	0	71303168	52	6831
2026-01-26 11:40:12.91	32.53	4.43	-40.2	-41.5	20.4	0.00e+00	0	26	0	73400320	52	6794
2026-01-26 11:40:13.92	32.65	4.46	-40.7	-42.1	20.0	0.00e+00	0	26	0	74448896	52	7270
2026-01-26 11:40:14.93	32.78	4.50	-40.7	-42.1	19.8	0.00e+00	0	26	0	76546048	52	7302
2026-01-26 11:40:15.94	32.90	4.54	-40.7	-42.0	20.1	0.00e+00	0	26	0	78643200	54	6457
2026-01-26 11:40:16.95	33.03	4.58	-39.6	-40.8	21.0	0.00e+00	0	26	0	80740352	52	6298
2026-01-26 11:40:17.96	33.16	4.62	-40.3	-41.6	20.4	0.00e+00	0	26	0	82837504	52	6861
2026-01-26 11:40:18.97	33.29	4.65	-40.4	-41.8	20.2	0.00e+00	0	26	0	84934656	52	7014
2026-01-26 11:40:19.98	33.41	4.69	-40.6	-41.9	19.9	0.00e+00	0	26	0	85983232	52	7144
2026-01-26 11:40:20.99	33.54	4.73	-40.8	-42.2	19.9	0.00e+00	0	26	0	88080384	54	6563
2026-01-26 11:40:21.99	33.67	4.77	-40.3	-41.6	20.4	0.00e+00	0	26	0	90177536	54	6166
2026-01-26 11:40:23.00	33.80	4.80	-40.5	-41.9	20.1	0.00e+00	0	26	0	92274688	54	6328
2026-01-26 11:40:24.01	33.92	4.84	-40.4	-41.7	20.3	0.00e+00	0	26	0	93323264	54	6198
2026-01-26 11:40:25.02	34.05	4.88	-40.5	-41.8	20.2	0.00e+00	0	26	0	95420416	54	6268
2026-01-26 11:40:26.03	34.18	4.92	-40.5	-41.9	19.9	0.00e+00	0	26	0	97517568	54	6346
2026-01-26 11:40:27.04	34.31	4.95	-40.7	-42.0	20.1	0.00e+00	0	26	0	99614720	54	6444
2026-01-26 11:40:28.05	34.44	4.99	-40.6	-42.0	19.9	0.00e+00	0	26	0	101711872	54	6412
2026-01-26 11:40:29.06	34.57	5.03	-40.6	-41.9	20.2	0.00e+00	0	26	0	102760448	54	6364
2026-01-26 11:40:30.07	34.70	5.06	-40.7	-42.1	20.0	0.00e+00	0	26	0	104857600	54	6503
2026-01-26 11:40:31.08	34.83	5.10	-40.5	-41.8	20.2	0.00e+00	0	26	0	106954752	54	6275
2026-01-26 11:40:32.09	34.97	5.14	-40.5	-41.8	20.2	0.00e+00	0	26	0	109051904	54	6302
2026-01-26 11:40:33.09	35.10	5.17	-40.8	-42.2	19.7	0.00e+00	0	26	0	111149056	54	6568
2026-01-26 11:40:34.10	35.23	5.21	-40.8	-42.2	20.0	0.00e+00	0	26	0	113246208	54	6574
2026-01-26 11:40:35.11	35.36	5.25	-40.5	-41.8	20.2	0.00e+00	0	26	0	114294784	54	6288
2026-01-26 11:40:36.12	35.49	5.28	-40.6	-41.9	20.0	0.00e+00	0	26	0	116391936	54	6375
2026-01-26 11:40:37.12	35.62	5.32	-40.7	-42.1	19.9	0.00e+00	0	26	0	118489088	54	6510
2026-01-26 11:40:38.13	35.76	5.36	-40.8	-42.2	19.8	0.00e+00	0	26	0	120586240	54	6595
2026-01-26 11:40:39.14	35.89	5.39	-40.4	-41.7	20.3	0.00e+00	0	26	0	122683392	54	6200
2026-01-26 11:40:40.15	36.03	5.43	-40.3	-41.6	20.4	0.00e+00	0	26	0	123731968	54	6137
2026-01-26 11:40:41.16	36.16	5.46	-40.5	-41.8	20.3	0.00e+00	0	26	0	125829120	54	6277
2026-01-26 11:40:42.17	36.29	5.50	-40.3	-41.6	20.5	0.00e+00	0	26	0	127926272	54	6163
2026-01-26 11:40:43.18	36.43	5.54	-40.4	-41.7	20.4	0.00e+00	0	26	0	130023424	54	6208
2026-01-26 11:40:44.19	36.56	5.57	-41.0	-42.4	19.9	0.00e+00	0	26	0	132120576	54	6723
2026-01-26 11:40:45.20	36.70	5.61	-40.0	-41.3	20.7	0.00e+00	0	26	0	133169152	54	5921
2026-01-26 11:40:46.21	36.83	5.64	-40.5	-41.7	20.5	0.00e+00	0	26	0	135266304	54	6240
2026-01-26 11:40:47.22	36.97	5.68	-40.1	-41.3	20.9	0.00e+00	0	26	0	137363456	54	5942
2026-01-26 11:40:48.23	37.11	5.72	-40.3	-41.5	20.6	0.00e+00	0	26	0	139460608	54	6082
2026-01-26 11:40:49.24	37.24	5.75	-40.5	-41.8	20.4	0.00e+00	0	26	0	141557760	54	6272
2026-01-26 11:40:50.25	37.38	5.79	-39.9	-41.1	21.0	0.00e+00	0	26	0	142606336	54	5827
2026-01-26 11:40:51.26	37.52	5.82	-40.2	-41.5	20.7	0.00e+00	0	26	0	144703488	54	6042
2026-01-26 11:40:52.27	37.66	5.86	-40.2	-41.5	20.6	0.00e+00	0	26	0	146800640	54	6051
2026-01-26 11:40:53.28	37.79	5.89	-40.5	-41.8	20.4	0.00e+00	0	26	0	148897792	54	6310
2026-01-26 11:40:54.28	37.93	5.93	-40.3	-41.5	20.6	0.00e+00	0	26	0	150994944	54	6098
2026-01-26 11:40:55.29	38.07	5.96	-40.3	-41.5	20.7	0.00e+00	0	26	0	152043520	54	6080
2026-01-26 11:40:56.30	38.21	6.00	-40.1	-41.4	20.8	0.00e+00	0	26	0	154140672	54	5988
2026-01-26 11:40:57.31	38.35	6.03	-40.2	-41.5	20.8	0.00e+00	0	26	0	156237824	54	6039
2026-01-26 11:40:58.32	38.49	6.07	-40.4	-41.7	20.4	0.00e+00	0	26	0	158334976	54	6211
2026-01-26 11:40:59.33	38.63	6.10	-40.1	-41.4	20.8	0.00e+00	0	26	0	160432128	54	5996
2026-01-26 11:41:00.34	38.77	6.14	-40.0	-41.3	21.0	0.00e+00	0	26	0	161480704	54	5908
2026-01-26 11:41:01.35	38.91	6.17	-40.1	-41.4	20.7	0.00e+00	0	26	0	163577856	54	5988
2026-01-26 11:41:02.36	39.05	6.20	-40.1	-41.3	20.7	0.00e+00	0	26	0	165675008	54	5954
2026-01-26 11:41:03.37	39.19	6.24	-40.2	-41.5	20.8	0.00e+00	0	26	0	167772160	54	6037
2026-01-26 11:41:04.38	39.33	6.27	-40.1	-41.3	20.8	0.00e+00	0	26	0	169869312	54	5952
2026-01-26 11:41:05.39	39.47	6.31	-39.8	-41.0	20.8	0.00e+00	0	26	0	170917888	54	5699
2026-01-26 11:41:06.40	39.62	6.34	-40.0	-41.2	20.6	0.00e+00	0	26	0	173015040	54	5894
2026-01-26 11:41:07.41	39.76	6.37	-40.3	-41.6	20.6	0.00e+00	0	26	0	175112192	54	6113
2026-01-26 11:41:08.42	39.90	6.41	-40.2	-41.5	20.8	0.00e+00	0	26	0	177209344	54	6047
2026-01-26 11:41:09.43	40.04	6.44	-40.1	-41.4	20.8	0.00e+00	0	26	0	179306496	54	5971
2026-01-26 11:41:10.44	40.19	6.47	-39.9	-41.1	21.1	0.00e+00	0	26	0	181403648	54	5813
2026-01-26 11:41:11.44	40.33	6.51	-40.0	-41.2	21.0	0.00e+00	0	26	0	182452224	52	6613
2026-01-26 11:41:12.45	40.47	6.54	-40.3	-41.6	20.7	0.00e+00	0	26	0	184549376	52	6872
2026-01-26 11:41:13.46	40.62	6.57	-40.5	-41.8	20.5	0.00e+00	0	26	0	186646528	52	7074
2026-01-26 11:41:14.47	40.76	6.61	-40.4	-41.7	20.5	0.00e+00	0	26	0	188743680	52	7000
2026-01-26 11:41:15.48	40.91	6.64	-40.1	-41.3	20.9	0.00e+00	0	26	0	190840832	52	6680
2026-01-26 11:41:16.49	41.05	6.67	-40.2	-41.5	20.7	0.00e+00	0	26	0	191889408	52	6800
2026-01-26 11:41:17.50	41.20	6.71	-40.6	-41.9	20.3	0.00e+00	0	26	0	193986560	52	7153
2026-01-26 11:41:18.51	41.35	6.74	-40.6	-41.9	20.6	0.00e+00	0	26	0	196083712	52	7123
2026-01-26 11:41:19.52	41.49	6.77	-40.2	-41.5	20.8	0.00e+00	0	26	0	198180864	52	6789
2026-01-26 11:41:20.53	41.64	6.80	-40.7	-42.1	20.1	0.00e+00	0	26	0	200278016	52	7276
2026-01-26 11:41:21.54	41.78	6.84	-40.5	-41.8	20.5	0.00e+00	0	26	0	201326592	54	6293
2026-01-26 11:41:22.55	41.93	6.87	-40.3	-41.6	20.7	0.00e+00	0	26	0	203423744	54	6142
2026-01-26 11:41:23.56	42.08	6.90	-40.2	-41.5	20.7	0.00e+00	0	26	0	205520896	54	6072
2026-01-26 11:41:24.57	42.23	6.93	-40.4	-41.7	20.5	0.00e+00	0	26	0	207618048	54	6220
2026-01-26 11:41:25.57	42.37	6.96	-40.3	-41.5	20.7	0.00e+00	0	26	0	209715200	54	6072
2026-01-26 11:41:26.58	42.52	7.00	-40.5	-41.8	20.4	0.00e+00	0	26	0	210763776	54	6248
2026-01-26 11:41:27.60	42.67	7.03	-40.4	-41.7	20.5	0.00e+00	0	26	0	212860928	54	6214
2026-01-26 11:41:28.61	42.82	7.06	-40.4	-41.7	20.5	0.00e+00	0	26	0	214958080	54	6213
2026-01-26 11:41:29.62	42.97	7.09	-40.3	-41.6	20.7	0.00e+00	0	26	0	217055232	54	6147
2026-01-26 11:41:30.62	43.12	7.12	-40.5	-41.8	20.6	0.00e+00	0	26	0	219152384	54	6254
2026-01-26 11:41:31.64	43.27	7.15	-40.5	-41.8	20.5	0.00e+00	0	26	0	220200960	54	6305
2026-01-26 11:41:32.64	43.42	7.18	-40.6	-41.9	20.5	0.00e+00	0	26	0	222298112	54	6326
2026-01-26 11:41:33.65	43.57	7.21	-41.0	-42.4	20.1	0.00e+00	0	26	0	224395264	54	6704
2026-01-26 11:41:34.66	43.72	7.24	-40.9	-42.3	20.1	0.00e+00	0	26	0	226492416	54	6670
2026-01-26 11:41:35.67	43.87	7.27	-40.8	-42.2	20.1	0.00e+00	0	26	0	228589568	54	6540
2026-01-26 11:41:36.68	44.02	7.31	-40.8	-42.1	20.3	0.00e+00	0	26	0	229638144	54	6504
2026-01-26 11:41:37.69	44.18	7.34	-40.6	-41.9	20.4	0.00e+00	0	26	0	231735296	54	6366
2026-01-26 11:41:38.70	44.33	7.37	-40.7	-42.0	20.3	0.00e+00	0	26	0	233832448	54	6458
2026-01-26 11:41:39.71	44.48	7.40	-40.8	-42.1	20.1	0.00e+00	0	26	0	235929600	54	6526
2026-01-26 11:41:40.72	44.63	7.43	-40.8	-42.1	20.3	0.00e+00	0	26	0	238026752	54	6514
2026-01-26 11:41:41.73	44.79	7.46	-40.5	-41.8	20.5	0.00e+00	0	26	0	239075328	54	6291
2026-01-26 11:41:42.74	44.94	7.48	-40.6	-42.0	20.4	0.00e+00	0	26	0	241172480	54	6406
2026-01-26 11:41:43.75	45.09	7.51	-40.7	-42.0	20.3	0.00e+00	0	26	0	243269632	54	6430
2026-01-26 11:41:44.76	45.25	7.54	-40.6	-41.9	20.4	0.00e+00	0	26	0	245366784	54	6364
2026-01-26 11:41:45.77	45.40	7.57	-40.7	-42.0	20.4	0.00e+00	0	26	0	247463936	54	6400
2026-01-26 11:41:46.78	45.56	7.60	-40.7	-42.1	20.1	0.00e+00	0	26	0	249561088	54	6477
2026-01-26 11:41:47.79	45.71	7.63	-40.5	-41.8	20.5	0.00e+00	0	26	0	250609664	54	6258
2026-01-26 11:41:48.80	45.87	7.66	-40.5	-41.8	20.6	0.00e+00	0	26	0	252706816	54	6274
2026-01-26 11:41:49.81	46.02	7.69	-40.5	-41.8	20.5	0.00e+00	0	26	0	254803968	54	6298
2026-01-26 11:41:50.82	46.18	7.72	-40.2	-41.5	20.8	0.00e+00	0	26	0	256901120	54	6050
2026-01-26 11:41:51.83	46.33	7.74	-40.2	-41.4	20.9	0.00e+00	0	26	0	258998272	54	6011
2026-01-26 11:41:52.84	46.49	7.77	-40.4	-41.7	20.7	0.00e+00	0	26	0	260046848	54	6182
2026-01-26 11:41:53.85	46.65	7.80	-40.5	-41.7	20.7	0.00e+00	0	26	0	262144000	54	6242
2026-01-26 11:41:54.86	46.80	7.83	-40.7	-42.0	20.4	0.00e+00	0	26	0	264241152	54	6423
2026-01-26 11:41:55.87	46.96	7.86	-40.8	-42.1	20.4	0.00e+00	0	26	0	266338304	54	6478
2026-01-26 11:41:56.88	47.12	7.88	-41.0	-42.3	20.2	0.00e+00	0	26	0	268435456	54	6681
2026-01-26 11:41:57.89	47.28	7.91	-40.7	-42.0	20.5	0.00e+00	0	26	0	269484032	54	6391
2026-01-26 11:41:58.90	47.44	7.94	-40.6	-41.9	20.5	0.00e+00	0	26	0	271581184	54	6372
2026-01-26 11:41:59.90	47.59	7.97	-40.7	-41.9	20.5	0.00e+00	0	26	0	273678336	54	6388
2026-01-26 11:42:00.91	47.75	7.99	-40.6	-41.9	20.4	0.00e+00	0	26	0	275775488	54	6380
2026-01-26 11:42:01.92	47.91	8.02	-40.9	-42.2	20.4	0.00e+00	0	26	0	277872640	54	6586
2026-01-26 11:42:02.93	48.07	8.05	-40.9	-42.2	20.2	0.00e+00	0	26	0	278921216	54	6597
2026-01-26 11:42:03.94	48.23	8.07	-40.8	-42.1	20.5	0.00e+00	0	26	0	281018368	54	6530
2026-01-26 11:42:04.95	48.39	8.10	-40.6	-41.9	20.5	0.00e+00	0	26	0	283115520	54	6320
2026-01-26 11:42:05.97	48.55	8.13	-40.5	-41.7	20.4	0.00e+00	0	26	0	285212672	54	6245
2026-01-26 11:42:06.97	48.71	8.15	-40.5	-41.7	20.6	0.00e+00	0	26	0	287309824	54	6219
2026-01-26 11:42:07.99	48.87	8.18	-40.4	-41.7	20.7	0.00e+00	0	26	0	288358400	54	6184
2026-01-26 11:42:09.00	49.03	8.20	-40.3	-41.6	20.8	0.00e+00	0	26	0	290455552	54	6107
2026-01-26 11:42:10.00	49.19	8.23	-40.3	-41.5	20.8	0.00e+00	0	26	0	292552704	54	6073
2026-01-26 11:42:11.01	49.35	8.25	-40.5	-41.8	20.6	0.00e+00	0	26	0	294649856	54	6276
2026-01-26 11:42:12.02	49.52	8.28	-40.6	-41.9	20.5	0.00e+00	0	26	0	296747008	54	6332
2026-01-26 11:42:13.03	49.68	8.30	-40.6	-41.8	20.7	0.00e+00	0	26	0	297795584	54	6287
2026-01-26 11:42:14.04	49.84	8.33	-40.4	-41.6	20.8	0.00e+00	0	26	0	299892736	54	6130
2026-01-26 11:42:15.05	50.00	8.35	-40.5	-41.8	20.6	0.00e+00	0	26	0	301989888	54	6280
2026-01-26 11:42:16.06	50.16	8.38	-40.5	-41.7	20.8	0.00e+00	0	26	0	304087040	54	6225
2026-01-26 11:42:17.07	50.33	8.40	-40.3	-41.6	20.9	0.00e+00	0	26	0	306184192	54	6123
2026-01-26 11:42:18.08	50.49	8.43	-40.6	-41.9	20.7	0.00e+00	0	26	0	307232768	54	6363
2026-01-26 11:42:19.09	50.65	8.45	-40.4	-41.6	20.8	0.00e+00	0	26	0	309329920	54	6138
2026-01-26 11:42:20.09	50.82	8.47	-40.3	-41.5	21.0	0.00e+00	0	26	0	311427072	54	6070
2026-01-26 11:42:21.10	50.98	8.50	-40.4	-41.6	20.8	0.00e+00	0	26	0	313524224	54	6162
2026-01-26 11:42:22.11	51.15	8.52	-40.4	-41.6	20.8	0.00e+00	0	26	0	315621376	54	6162
2026-01-26 11:42:23.12	51.31	8.54	-40.4	-41.6	20.8	0.00e+00	0	26	0	317718528	54	6136
2026-01-26 11:42:24.13	51.48	8.57	-40.4	-41.6	20.9	0.00e+00	0	26	0	318767104	54	6143
2026-01-26 11:42:25.13	51.64	8.59	-40.3	-41.6	20.8	0.00e+00	0	26	0	320864256	54	6107
2026-01-26 11:42:26.14	51.80	8.61	-40.5	-41.7	20.6	0.00e+00	0	26	0	322961408	54	6216
2026-01-26 11:42:27.15	51.97	8.63	-40.4	-41.6	20.9	0.00e+00	0	26	0	325058560	54	6128
2026-01-26 11:42:28.16	52.14	8.66	-40.3	-41.5	21.0	0.00e+00	0	26	0	326107136	54	6068
2026-01-26 11:42:29.17	52.30	8.68	-40.3	-41.5	20.9	0.00e+00	0	26	0	328204288	54	6099
2026-01-26 11:42:30.18	52.47	8.70	-40.2	-41.5	21.0	0.00e+00	0	26	0	330301440	54	6036
2026-01-26 11:42:31.19	52.64	8.72	-40.3	-41.5	20.9	0.00e+00	0	26	0	332398592	54	6067
2026-01-26 11:42:32.20	52.80	8.74	-40.3	-41.6	20.8	0.00e+00	0	26	0	334495744	54	6116
2026-01-26 11:42:33.21	52.97	8.77	-40.2	-41.4	21.0	0.00e+00	0	26	0	335544320	54	6033
2026-01-26 11:42:34.22	53.14	8.79	-40.4	-41.6	20.9	0.00e+00	0	26	0	337641472	54	6122
2026-01-26 11:42:35.23	53.30	8.81	-40.4	-41.6	20.8	0.00e+00	0	26	0	339738624	54	6128
2026-01-26 11:42:36.24	53.47	8.83	-40.2	-41.4	21.1	0.00e+00	0	26	0	341835776	54	5982
2026-01-26 11:42:37.25	53.64	8.85	-40.2	-41.4	21.0	0.00e+00	0	26	0	343932928	54	5977
2026-01-26 11:42:38.26	53.81	8.87	-40.2	-41.4	21.0	0.00e+00	0	26	0	346030080	54	5986
2026-01-26 11:42:39.27	53.98	8.89	-40.1	-41.3	21.0	0.00e+00	0	26	0	347078656	54	5950
2026-01-26 11:42:40.28	54.15	8.91	-40.2	-41.4	20.7	0.00e+00	0	26	0	349175808	54	6033
2026-01-26 11:42:41.29	54.31	8.93	-40.1	-41.3	21.1	0.00e+00	0	26	0	351272960	54	5949
2026-01-26 11:42:42.29	54.48	8.95	-40.2	-41.4	21.0	0.00e+00	0	26	0	353370112	54	6007
2026-01-26 11:42:43.30	54.65	8.97	-40.1	-41.3	21.1	0.00e+00	0	26	0	355467264	54	5921
2026-01-26 11:42:44.31	54.82	8.99	-40.2	-41.4	21.1	0.00e+00	0	26	0	356515840	54	6000
2026-01-26 11:42:45.32	54.99	9.01	-40.1	-41.3	21.1	0.00e+00	0	26	0	358612992	54	5941
2026-01-26 11:42:46.33	55.16	9.03	-40.2	-41.4	21.0	0.00e+00	0	26	0	360710144	54	5971
2026-01-26 11:42:47.34	55.33	9.04	-40.3	-41.5	20.9	0.00e+00	0	26	0	362807296	54	6101
2026-01-26 11:42:48.35	55.50	9.06	-40.1	-41.3	21.1	0.00e+00	0	26	0	364904448	54	5939
2026-01-26 11:42:49.36	55.67	9.08	-40.4	-41.6	20.8	0.00e+00	0	26	0	365953024	54	6152
2026-01-26 11:42:50.37	55.84	9.10	-40.3	-41.5	20.9	0.00e+00	0	26	0	368050176	54	6089
2026-01-26 11:42:51.38	56.01	9.12	-40.8	-42.1	20.4	0.00e+00	0	26	0	370147328	54	6483
2026-01-26 11:42:52.39	56.19	9.13	-40.6	-41.9	20.6	0.00e+00	0	26	0	372244480	54	6332
2026-01-26 11:42:53.40	56.36	9.15	-40.7	-42.0	20.5	0.00e+00	0	26	0	374341632	54	6402
2026-01-26 11:42:54.41	56.53	9.17	-40.3	-41.6	20.8	0.00e+00	0	26	0	375390208	54	6128
2026-01-26 11:42:55.42	56.70	9.19	-40.5	-41.8	20.8	0.00e+00	0	26	0	377487360	54	6258
2026-01-26 11:42:56.43	56.87	9.20	-40.5	-41.8	20.7	0.00e+00	0	26	0	379584512	54	6253
2026-01-26 11:42:57.43	57.04	9.22	-40.5	-41.8	20.7	0.00e+00	0	26	0	381681664	54	6269
2026-01-26 11:42:58.44	57.22	9.23	-40.6	-41.9	20.5	0.00e+00	0	26	0	383778816	54	6388
2026-01-26 11:42:59.45	57.39	9.25	-40.6	-41.9	20.6	0.00e+00	0	26	0	384827392	54	6380
2026-01-26 11:43:00.46	57.56	9.27	-40.6	-41.9	20.7	0.00e+00	0	26	0	386924544	54	6328
2026-01-26 11:43:01.47	57.74	9.28	-40.7	-42.0	20.4	0.00e+00	0	26	0	389021696	54	6463
2026-01-26 11:43:02.48	57.91	9.30	-40.6	-41.9	20.8	0.00e+00	0	26	0	391118848	54	6326
2026-01-26 11:43:03.49	58.08	9.31	-40.7	-42.0	20.4	0.00e+00	0	26	0	393216000	54	6434
2026-01-26 11:43:04.50	58.26	9.33	-40.4	-41.7	20.9	0.00e+00	0	26	0	394264576	54	6187
2026-01-26 11:43:05.51	58.43	9.34	-40.4	-41.7	20.8	0.00e+00	0	26	0	396361728	54	6192
2026-01-26 11:43:06.52	58.60	9.36	-40.6	-41.8	20.7	0.00e+00	0	26	0	398458880	54	6295
2026-01-26 11:43:07.52	58.78	9.37	-40.7	-42.0	20.4	0.00e+00	0	26	0	400556032	54	6418
2026-01-26 11:43:08.53	58.95	9.39	-40.8	-42.1	20.4	0.00e+00	0	26	0	402653184	54	6469
2026-01-26 11:43:09.54	59.12	9.40	-40.9	-42.3	20.2	0.00e+00	0	26	0	403701760	54	6629
2026-01-26 11:43:10.55	59.30	9.41	-41.0	-42.3	20.1	0.00e+00	0	26	0	405798912	54	6656
2026-01-26 11:43:11.56	59.47	9.43	-41.2	-42.6	19.8	0.00e+00	0	26	0	407896064	54	6876
2026-01-26 11:43:12.57	59.65	9.44	-41.4	-42.8	19.8	0.00e+00	0	26	0	409993216	54	7039
2026-01-26 11:43:13.58	59.82	9.45	-41.2	-42.6	19.9	0.00e+00	0	26	0	412090368	54	6898
2026-01-26 11:43:14.59	60.00	9.47	-41.2	-42.7	19.8	0.00e+00	0	26	0	414187520	54	6948
2026-01-26 11:43:15.59	60.17	9.48	-41.5	-43.0	19.5	0.00e+00	0	26	0	415236096	54	7213
2026-01-26 11:43:16.60	60.35	9.49	-41.7	-43.2	19.3	0.00e+00	0	26	0	417333248	56	6601
2026-01-26 11:43:17.61	60.52	9.50	-41.5	-42.9	19.6	0.00e+00	0	26	0	419430400	56	6388
2026-01-26 11:43:18.62	60.70	9.51	-41.5	-43.0	19.7	0.00e+00	0	26	0	421527552	56	6410
2026-01-26 11:43:19.63	60.88	9.53	-41.4	-42.8	19.8	0.00e+00	0	26	0	423624704	56	6267
2026-01-26 11:43:20.64	61.05	9.54	-41.2	-42.6	20.1	0.00e+00	0	26	0	424673280	56	6130
2026-01-26 11:43:21.65	61.23	9.55	-41.1	-42.5	20.2	0.00e+00	0	26	0	426770432	56	6036
2026-01-26 11:43:22.66	61.40	9.56	-41.1	-42.4	20.2	0.00e+00	0	26	0	428867584	56	6005
2026-01-26 11:43:23.67	61.58	9.57	-41.0	-42.4	20.3	0.00e+00	0	26	0	430964736	56	5971
2026-01-26 11:43:24.68	61.76	9.58	-40.9	-42.2	20.3	0.00e+00	0	26	0	433061888	56	5888
2026-01-26 11:43:25.68	61.93	9.59	-41.1	-42.4	20.0	0.00e+00	0	26	0	434110464	56	6029
2026-01-26 11:43:26.69	62.11	9.60	-40.9	-42.3	20.3	0.00e+00	0	26	0	436207616	56	5899
2026-01-26 11:43:27.70	62.29	9.61	-41.1	-42.5	20.1	0.00e+00	0	26	0	438304768	56	6048
2026-01-26 11:43:28.71	62.46	9.62	-41.3	-42.7	19.9	0.00e+00	0	26	0	440401920	56	6208
2026-01-26 11:43:29.72	62.64	9.63	-41.3	-42.7	19.9	0.00e+00	0	26	0	442499072	56	6238
2026-01-26 11:43:30.73	62.82	9.64	-41.6	-43.1	19.5	0.00e+00	0	26	0	443547648	56	6512
2026-01-26 11:43:31.74	63.00	9.65	-41.5	-42.9	19.7	0.00e+00	0	26	0	445644800	56	6354
2026-01-26 11:43:32.75	63.17	9.66	-41.5	-42.9	19.7	0.00e+00	0	26	0	447741952	56	6365
2026-01-26 11:43:33.76	63.35	9.67	-41.1	-42.4	20.1	0.00e+00	0	26	0	449839104	56	6033
2026-01-26 11:43:34.77	63.53	9.67	-41.0	-42.3	20.2	0.00e+00	0	26	0	451936256	56	5963
2026-01-26 11:43:35.78	63.71	9.68	-41.0	-42.3	20.3	0.00e+00	0	26	0	452984832	56	5950
2026-01-26 11:43:36.79	63.88	9.69	-40.5	-41.8	20.7	0.00e+00	0	26	0	455081984	54	6264
2026-01-26 11:43:37.80	64.06	9.70	-40.8	-42.1	20.4	0.00e+00	0	26	0	457179136	54	6487
2026-01-26 11:43:38.81	64.24	9.70	-40.9	-42.2	20.4	0.00e+00	0	26	0	459276288	54	6582
2026-01-26 11:43:39.82	64.42	9.71	-40.8	-42.2	20.3	0.00e+00	0	26	0	461373440	54	6571
2026-01-26 11:43:40.83	64.60	9.72	-40.8	-42.2	20.4	0.00e+00	0	26	0	462422016	54	6549
2026-01-26 11:43:41.84	64.78	9.72	-40.6	-41.8	20.7	0.00e+00	0	26	0	464519168	54	6309
2026-01-26 11:43:42.84	64.95	9.73	-40.7	-42.0	20.5	0.00e+00	0	26	0	466616320	54	6453
2026-01-26 11:43:43.85	65.13	9.74	-40.6	-41.8	20.6	0.00e+00	0	26	0	468713472	54	6314
2026-01-26 11:43:44.86	65.31	9.74	-40.9	-42.2	20.4	0.00e+00	0	26	0	470810624	54	6545
2026-01-26 11:43:45.87	65.49	9.75	-40.7	-42.0	20.5	0.00e+00	0	26	0	471859200	54	6436
2026-01-26 11:43:46.88	65.67	9.75	-40.5	-41.7	20.7	0.00e+00	0	27	0	473956352	54	6237
2026-01-26 11:43:47.89	65.85	9.76	-40.5	-41.8	20.7	0.00e+00	0	26	0	476053504	54	6265
2026-01-26 11:43:48.90	66.02	9.76	-40.5	-41.7	20.8	0.00e+00	0	26	0	478150656	54	6238
2026-01-26 11:43:49.91	66.20	9.77	-40.4	-41.7	20.8	0.00e+00	0	26	0	480247808	54	6183
2026-01-26 11:43:50.92	66.38	9.77	-40.5	-41.8	20.7	0.00e+00	0	27	0	482344960	54	6264
2026-01-26 11:43:51.93	66.56	9.78	-40.5	-41.7	20.7	0.00e+00	0	26	0	483393536	54	6237
2026-01-26 11:43:52.93	66.74	9.78	-40.4	-41.7	20.7	0.00e+00	0	26	0	485490688	54	6207
2026-01-26 11:43:53.94	66.92	9.78	-40.5	-41.7	20.7	0.00e+00	0	26	0	487587840	54	6217
2026-01-26 11:43:54.95	67.10	9.79	-40.7	-42.0	20.7	0.00e+00	0	26	0	489684992	54	6398
2026-01-26 11:43:55.96	67.28	9.79	-40.3	-41.5	20.9	0.00e+00	0	26	0	490733568	54	6083
2026-01-26 11:43:56.97	67.46	9.79	-40.0	-41.2	21.2	0.00e+00	0	26	0	492830720	54	5882
2026-01-26 11:43:57.98	67.63	9.79	-40.0	-41.2	21.4	0.00e+00	0	26	0	494927872	54	5833
2026-01-26 11:43:58.99	67.81	9.80	-39.9	-41.1	21.4	0.00e+00	0	26	0	497025024	54	5767
2026-01-26 11:44:00.00	67.99	9.80	-39.8	-41.0	21.5	0.00e+00	0	26	0	499122176	52	6403
2026-01-26 11:44:01.01	68.17	9.80	-39.8	-40.9	21.5	0.00e+00	0	26	0	500170752	52	6388
2026-01-26 11:44:02.02	68.35	9.80	-39.6	-40.7	21.8	0.00e+00	0	26	0	502267904	52	6224
2026-01-26 11:44:03.03	68.53	9.80	-39.7	-40.8	21.7	0.00e+00	0	26	0	504365056	52	6315
2026-01-26 11:44:04.04	68.71	9.81	-39.7	-40.9	21.6	0.00e+00	0	26	0	506462208	52	6326
2026-01-26 11:44:05.04	68.89	9.81	-39.8	-41.0	21.6	0.00e+00	0	26	0	508559360	52	6413
2026-01-26 11:44:06.05	69.07	9.81	-40.1	-41.3	21.4	0.00e+00	0	26	0	510656512	52	6636
2026-01-26 11:44:07.06	69.25	9.81	-40.0	-41.2	21.2	0.00e+00	0	26	0	511705088	52	6561
2026-01-26 11:44:08.07	69.43	9.81	-39.9	-41.0	21.5	0.00e+00	0	26	0	513802240	52	6442
2026-01-26 11:44:09.08	69.61	9.81	-39.8	-41.0	21.4	0.00e+00	0	26	0	515899392	52	6428
2026-01-26 11:44:10.09	69.79	9.81	-39.8	-40.9	21.5	0.00e+00	0	26	0	517996544	52	6354
2026-01-26 11:44:11.09	69.96	9.81	-39.7	-40.8	21.5	0.00e+00	0	26	0	520093696	52	6313
2026-01-26 11:44:12.10	70.14	9.81	-39.5	-40.6	21.8	0.00e+00	0	26	0	521142272	52	6115
2026-01-26 11:44:13.11	70.32	9.80	-39.3	-40.4	22.0	0.00e+00	0	26	0	523239424	52	5992
2026-01-26 11:44:14.12	70.50	9.80	-39.4	-40.5	21.9	0.00e+00	0	26	0	525336576	52	6068
2026-01-26 11:44:15.13	70.68	9.80	-39.1	-40.2	22.2	0.00e+00	0	26	0	527433728	52	5834
2026-01-26 11:44:16.14	70.86	9.80	-39.1	-40.2	22.2	0.00e+00	0	26	0	529530880	52	5836
2026-01-26 11:44:17.15	71.04	9.80	-39.2	-40.3	22.1	0.00e+00	0	26	0	530579456	52	5904
2026-01-26 11:44:18.16	71.22	9.80	-39.2	-40.3	22.0	0.00e+00	0	26	0	532676608	52	5925
2026-01-26 11:44:19.17	71.40	9.79	-39.1	-40.2	22.0	0.00e+00	0	26	0	534773760	52	5838
2026-01-26 11:44:20.18	71.58	9.79	-39.2	-40.2	22.0	0.00e+00	0	26	0	536870912	52	5880
2026-01-26 11:44:21.19	71.76	9.79	-39.5	-40.5	21.7	0.00e+00	0	26	0	538968064	52	6101
2026-01-26 11:44:22.20	71.94	9.78	-39.3	-40.3	22.0	0.00e+00	0	26	0	540016640	52	5940
2026-01-26 11:44:23.21	72.12	9.78	-39.3	-40.4	21.9	0.00e+00	0	26	0	542113792	52	5990
2026-01-26 11:44:24.22	72.30	9.78	-39.1	-40.2	22.2	0.00e+00	0	26	0	544210944	52	5847
2026-01-26 11:44:25.23	72.47	9.77	-39.2	-40.3	22.1	0.00e+00	0	27	0	546308096	52	5907
2026-01-26 11:44:26.24	72.65	9.77	-39.2	-40.3	22.1	0.00e+00	0	26	0	548405248	52	5952
2026-01-26 11:44:27.24	72.83	9.76	-39.1	-40.2	22.2	0.00e+00	0	26	0	549453824	52	5851
2026-01-26 11:44:28.25	73.01	9.76	-39.1	-40.2	22.2	0.00e+00	0	26	0	551550976	52	5863
2026-01-26 11:44:29.26	73.19	9.75	-39.3	-40.4	22.0	0.00e+00	0	26	0	553648128	52	5981
2026-01-26 11:44:30.27	73.37	9.75	-39.3	-40.4	21.9	0.00e+00	0	26	0	555745280	52	5974
2026-01-26 11:44:31.28	73.55	9.74	-39.0	-40.0	22.3	0.00e+00	0	26	0	557842432	52	5736
2026-01-26 11:44:32.29	73.73	9.74	-39.1	-40.2	22.2	0.00e+00	0	26	0	558891008	52	5836
2026-01-26 11:44:33.30	73.90	9.73	-39.3	-40.4	22.2	0.00e+00	0	26	0	560988160	52	5985
2026-01-26 11:44:34.31	74.08	9.73	-39.0	-40.2	22.3	0.00e+00	0	26	0	563085312	52	5832
2026-01-26 11:44:35.32	74.26	9.72	-39.2	-40.5	22.1	0.00e+00	0	26	0	565182464	52	6041
2026-01-26 11:44:36.33	74.44	9.71	-39.1	-40.3	21.8	0.00e+00	0	27	0	567279616	52	5962
2026-01-26 11:44:37.34	74.62	9.71	-39.4	-40.6	21.5	0.00e+00	0	26	0	568328192	52	6167
2026-01-26 11:44:38.35	74.80	9.70	-39.8	-41.2	21.4	0.00e+00	0	26	0	570425344	52	6573
2026-01-26 11:44:39.36	74.98	9.69	-39.3	-40.6	21.8	0.00e+00	0	26	0	572522496	52	6107
2026-01-26 11:44:40.37	75.15	9.68	-39.3	-40.6	21.7	0.00e+00	0	26	0	574619648	52	6159
2026-01-26 11:44:41.38	75.33	9.68	-39.2	-40.5	22.0	0.00e+00	0	26	0	576716800	52	6080
2026-01-26 11:44:42.39	75.51	9.67	-39.2	-40.6	21.9	0.00e+00	0	26	0	578813952	52	6141
2026-01-26 11:44:43.40	75.69	9.66	-39.1	-40.4	22.1	0.00e+00	0	26	0	579862528	52	5972
2026-01-26 11:44:44.41	75.86	9.65	-39.1	-40.5	22.0	0.00e+00	0	26	0	581959680	52	6040
2026-01-26 11:44:45.42	76.04	9.64	-38.9	-40.2	22.2	0.00e+00	0	26	0	584056832	52	5855
2026-01-26 11:44:46.43	76.22	9.63	-38.8	-40.1	22.3	0.00e+00	0	26	0	586153984	52	5811
2026-01-26 11:44:47.43	76.40	9.62	-38.8	-40.1	22.2	0.00e+00	0	26	0	588251136	52	5825
2026-01-26 11:44:48.44	76.57	9.61	-38.9	-40.2	22.2	0.00e+00	0	26	0	589299712	52	5835
2026-01-26 11:44:49.45	76.75	9.61	-39.0	-40.2	22.1	0.00e+00	0	26	0	591396864	52	5884
2026-01-26 11:44:50.46	76.93	9.60	-39.1	-40.3	22.1	0.00e+00	0	26	0	593494016	52	5930
2026-01-26 11:44:51.47	77.10	9.58	-39.2	-40.5	22.0	0.00e+00	0	26	0	595591168	52	6043
2026-01-26 11:44:52.48	77.28	9.57	-39.2	-40.5	22.0	0.00e+00	0	26	0	597688320	52	6038
2026-01-26 11:44:53.49	77.46	9.56	-39.2	-40.4	22.0	0.00e+00	0	26	0	598736896	52	6015
2026-01-26 11:44:54.50	77.64	9.55	-39.1	-40.4	22.0	0.00e+00	0	26	0	600834048	52	6029
2026-01-26 11:44:55.51	77.81	9.54	-39.2	-40.5	21.9	0.00e+00	0	26	0	602931200	52	6036
2026-01-26 11:44:56.52	77.99	9.53	-39.3	-40.6	21.8	0.00e+00	0	26	0	605028352	52	6123
2026-01-26 11:44:57.53	78.16	9.52	-39.4	-40.7	21.8	0.00e+00	0	26	0	607125504	52	6189
2026-01-26 11:44:58.53	78.34	9.51	-39.5	-40.9	21.5	0.00e+00	0	26	0	608174080	52	6347
2026-01-26 11:44:59.54	78.51	9.49	-39.5	-40.8	21.7	0.00e+00	0	26	0	610271232	52	6259
2026-01-26 11:45:00.55	78.69	9.48	-39.6	-40.9	21.6	0.00e+00	0	26	0	612368384	52	6320
2026-01-26 11:45:01.56	78.87	9.47	-39.5	-40.8	21.6	0.00e+00	0	26	0	614465536	52	6302
2026-01-26 11:45:02.57	79.04	9.46	-39.5	-40.8	21.7	0.00e+00	0	26	0	616562688	52	6268
2026-01-26 11:45:03.58	79.22	9.44	-39.4	-40.6	21.8	0.00e+00	0	26	0	617611264	52	6135
2026-01-26 11:45:04.59	79.39	9.43	-39.2	-40.4	22.0	0.00e+00	0	26	0	619708416	52	6010
2026-01-26 11:45:05.60	79.57	9.42	-39.1	-40.3	22.1	0.00e+00	0	26	0	621805568	52	5926
2026-01-26 11:45:06.61	79.74	9.40	-39.1	-40.2	22.2	0.00e+00	0	26	0	623902720	52	5860
2026-01-26 11:45:07.62	79.92	9.39	-39.1	-40.2	22.2	0.00e+00	0	26	0	625999872	52	5875
2026-01-26 11:45:08.63	80.09	9.38	-39.2	-40.3	22.1	0.00e+00	0	26	0	627048448	52	5943
2026-01-26 11:45:09.64	80.27	9.36	-39.2	-40.3	22.1	0.00e+00	0	26	0	629145600	52	5937
2026-01-26 11:45:10.65	80.44	9.35	-39.4	-40.5	21.9	0.00e+00	0	26	0	631242752	52	6072
2026-01-26 11:45:11.66	80.62	9.33	-39.4	-40.5	21.9	0.00e+00	0	26	0	633339904	52	6057
2026-01-26 11:45:12.67	80.79	9.32	-39.4	-40.4	22.0	0.00e+00	0	26	0	635437056	52	6025
2026-01-26 11:45:13.68	80.96	9.30	-39.5	-40.6	21.9	0.00e+00	0	26	0	636485632	52	6123
2026-01-26 11:45:14.69	81.14	9.29	-39.4	-40.5	21.9	0.00e+00	0	26	0	638582784	52	6082
2026-01-26 11:45:15.70	81.31	9.27	-39.4	-40.5	22.0	0.00e+00	0	26	0	640679936	52	6087
2026-01-26 11:45:16.71	81.48	9.26	-39.5	-40.6	21.7	0.00e+00	0	26	0	642777088	52	6130
2026-01-26 11:45:17.72	81.66	9.24	-39.5	-40.7	21.7	0.00e+00	0	26	0	644874240	52	6192
2026-01-26 11:45:18.73	81.83	9.22	-39.3	-40.4	21.9	0.00e+00	0	26	0	646971392	52	6020
2026-01-26 11:45:19.74	82.00	9.21	-39.3	-40.4	21.9	0.00e+00	0	26	0	648019968	52	6012
2026-01-26 11:45:20.75	82.18	9.19	-39.3	-40.4	21.9	0.00e+00	0	26	0	650117120	52	6004
2026-01-26 11:45:21.76	82.35	9.17	-39.3	-40.3	22.0	0.00e+00	0	26	0	652214272	52	5963
2026-01-26 11:45:22.76	82.52	9.16	-38.9	-40.0	22.3	0.00e+00	0	26	0	654311424	52	5727
2026-01-26 11:45:23.77	82.69	9.14	-39.2	-40.3	22.1	0.00e+00	0	26	0	656408576	52	5940
2026-01-26 11:45:24.78	82.86	9.12	-38.9	-40.0	22.4	0.00e+00	0	26	0	657457152	52	5705
2026-01-26 11:45:25.79	83.03	9.10	-38.9	-39.9	22.3	0.00e+00	0	26	0	659554304	52	5662
2026-01-26 11:45:26.80	83.21	9.09	-38.8	-39.8	22.4	0.00e+00	0	26	0	661651456	52	5621
2026-01-26 11:45:27.81	83.38	9.07	-38.8	-39.8	22.4	0.00e+00	0	26	0	663748608	52	5618
2026-01-26 11:45:28.82	83.55	9.05	-38.8	-39.8	22.5	0.00e+00	0	26	0	665845760	52	5582
2026-01-26 11:45:29.83	83.72	9.03	-38.8	-39.8	22.5	0.00e+00	0	26	0	666894336	50	6276
2026-01-26 11:45:30.84	83.89	9.01	-38.9	-39.9	22.5	0.00e+00	0	26	0	668991488	50	6345
2026-01-26 11:45:31.85	84.06	8.99	-38.8	-39.8	22.5	0.00e+00	0	26	0	671088640	50	6304
2026-01-26 11:45:32.86	84.23	8.97	-38.8	-39.9	22.4	0.00e+00	0	26	0	673185792	50	6347
2026-01-26 11:45:33.87	84.40	8.95	-38.8	-39.8	22.5	0.00e+00	0	26	0	675282944	50	6316
2026-01-26 11:45:34.88	84.57	8.93	-38.7	-39.7	22.4	0.00e+00	0	26	0	676331520	50	6239
2026-01-26 11:45:35.89	84.74	8.91	-38.9	-40.0	22.3	0.00e+00	0	26	0	678428672	50	6423
2026-01-26 11:45:36.90	84.91	8.89	-38.8	-39.9	22.4	0.00e+00	0	26	0	680525824	50	6344
2026-01-26 11:45:37.91	85.08	8.87	-39.1	-40.2	22.1	0.00e+00	0	26	0	682622976	50	6547
2026-01-26 11:45:38.92	85.25	8.85	-39.0	-40.1	22.2	0.00e+00	0	26	0	684720128	50	6505
2026-01-26 11:45:39.93	85.41	8.83	-39.0	-40.1	22.1	0.00e+00	0	26	0	685768704	50	6489
2026-01-26 11:45:40.94	85.58	8.81	-39.1	-40.1	22.0	0.00e+00	0	26	0	687865856	50	6537
2026-01-26 11:45:41.95	85.75	8.79	-39.1	-40.1	22.1	0.00e+00	0	26	0	689963008	50	6533
2026-01-26 11:45:42.96	85.92	8.77	-39.1	-40.2	22.1	0.00e+00	0	26	0	692060160	50	6575
2026-01-26 11:45:43.96	86.08	8.75	-39.2	-40.3	22.0	0.00e+00	0	26	0	694157312	50	6674
2026-01-26 11:45:44.97	86.25	8.73	-39.1	-40.2	22.2	0.00e+00	0	26	0	695205888	50	6587
2026-01-26 11:45:45.98	86.42	8.70	-39.1	-40.2	22.1	0.00e+00	0	26	0	697303040	50	6589
2026-01-26 11:45:46.99	86.59	8.68	-39.1	-40.2	22.1	0.00e+00	0	26	0	699400192	50	6606
2026-01-26 11:45:48.00	86.75	8.66	-39.1	-40.2	22.2	0.00e+00	0	26	0	701497344	50	6540
2026-01-26 11:45:49.01	86.92	8.64	-38.9	-40.0	22.3	0.00e+00	0	26	0	703594496	50	6391
2026-01-26 11:45:50.02	87.09	8.62	-39.0	-40.0	22.3	0.00e+00	0	26	0	704643072	50	6460
2026-01-26 11:45:51.03	87.25	8.59	-38.9	-40.0	22.3	0.00e+00	0	26	0	706740224	50	6396
2026-01-26 11:45:52.04	87.42	8.57	-38.8	-39.8	22.5	0.00e+00	0	26	0	708837376	50	6270
2026-01-26 11:45:53.05	87.58	8.55	-38.9	-39.9	22.3	0.00e+00	0	26	0	710934528	50	6347
2026-01-26 11:45:54.06	87.75	8.52	-38.9	-39.9	22.5	0.00e+00	0	26	0	713031680	50	6326
2026-01-26 11:45:55.07	87.91	8.50	-38.9	-39.9	22.4	0.00e+00	0	26	0	715128832	50	6352
2026-01-26 11:45:56.08	88.08	8.48	-38.9	-40.0	22.3	0.00e+00	0	26	0	716177408	50	6398
2026-01-26 11:45:57.09	88.24	8.45	-39.2	-40.2	22.2	0.00e+00	0	26	0	718274560	50	6582
2026-01-26 11:45:58.10	88.41	8.43	-39.3	-40.3	22.0	0.00e+00	0	26	0	720371712	50	6686
2026-01-26 11:45:59.11	88.57	8.40	-39.5	-40.6	21.7	0.00e+00	0	26	0	722468864	50	6879
2026-01-26 11:46:00.12	88.73	8.38	-39.4	-40.5	21.8	0.00e+00	0	26	0	724566016	50	6821
2026-01-26 11:46:01.13	88.90	8.36	-39.5	-40.7	21.5	0.00e+00	0	26	0	725614592	50	6984
2026-01-26 11:46:02.14	89.06	8.33	-39.5	-40.7	21.6	0.00e+00	0	26	0	727711744	50	6947
2026-01-26 11:46:03.15	89.22	8.31	-39.7	-40.9	21.6	0.00e+00	0	26	0	729808896	52	6323
2026-01-26 11:46:04.16	89.39	8.28	-39.6	-40.8	21.5	0.00e+00	0	26	0	731906048	52	6268
2026-01-26 11:46:05.17	89.55	8.26	-39.4	-40.5	21.8	0.00e+00	0	26	0	734003200	52	6053
2026-01-26 11:46:06.17	89.71	8.23	-39.5	-40.6	21.8	0.00e+00	0	26	0	735051776	52	6133
2026-01-26 11:46:07.18	89.87	8.20	-39.5	-40.7	21.6	0.00e+00	0	26	0	737148928	52	6180
2026-01-26 11:46:08.19	90.03	8.18	-39.3	-40.5	21.9	0.00e+00	0	26	0	739246080	52	6088
2026-01-26 11:46:09.20	90.19	8.15	-39.1	-40.3	21.7	0.00e+00	0	26	0	741343232	52	5963
2026-01-26 11:46:10.21	90.36	8.13	-39.1	-40.4	21.9	0.00e+00	0	26	0	743440384	52	5991
2026-01-26 11:46:11.22	90.52	8.10	-39.4	-40.6	21.7	0.00e+00	0	26	0	744488960	52	6132
2026-01-26 11:46:12.22	90.67	8.07	-39.6	-40.8	21.5	0.00e+00	0	26	0	746586112	52	6257
2026-01-26 11:46:13.23	90.84	8.05	-39.7	-40.9	21.4	0.00e+00	0	26	0	748683264	52	6318
2026-01-26 11:46:14.24	90.99	8.02	-39.6	-40.8	21.5	0.00e+00	0	26	0	750780416	52	6248
2026-01-26 11:46:15.25	91.15	7.99	-39.8	-40.9	21.4	0.00e+00	0	26	0	752877568	52	6387
2026-01-26 11:46:16.26	91.31	7.97	-39.7	-41.0	21.4	0.00e+00	0	26	0	753926144	52	6423
2026-01-26 11:46:17.27	91.47	7.94	-39.7	-41.0	21.3	0.00e+00	0	27	0	756023296	52	6461
2026-01-26 11:46:18.28	91.63	7.91	-39.8	-41.3	20.9	0.00e+00	0	26	0	758120448	52	6650
2026-01-26 11:46:19.29	91.79	7.89	-39.9	-41.6	20.8	0.00e+00	0	26	0	760217600	52	6903
2026-01-26 11:46:20.30	91.95	7.86	-39.8	-41.7	20.7	0.00e+00	0	26	0	762314752	52	6952
2026-01-26 11:46:21.31	92.11	7.83	-39.9	-41.7	20.6	0.00e+00	0	26	0	763363328	52	6991
2026-01-26 11:46:22.32	92.26	7.80	-40.4	-42.1	20.2	0.00e+00	0	26	0	765460480	52	7312
2026-01-26 11:46:23.33	92.42	7.77	-40.7	-42.4	20.0	0.00e+00	0	26	0	767557632	54	6743
2026-01-26 11:46:24.33	92.58	7.75	-41.0	-42.7	19.6	0.00e+00	0	26	0	769654784	54	6995
2026-01-26 11:46:25.34	92.73	7.72	-41.0	-42.7	19.7	0.00e+00	0	26	0	771751936	54	7000
2026-01-26 11:46:26.36	92.89	7.69	-41.1	-42.9	19.4	0.00e+00	0	26	0	772800512	54	7155
2026-01-26 11:46:27.36	93.05	7.66	-41.0	-42.8	19.5	0.00e+00	0	26	0	774897664	54	7040
2026-01-26 11:46:28.37	93.20	7.63	-40.7	-42.6	19.7	0.00e+00	0	26	0	776994816	54	6899
2026-01-26 11:46:29.38	93.36	7.60	-40.9	-42.6	19.8	0.00e+00	0	27	0	779091968	54	6866
2026-01-26 11:46:30.39	93.51	7.57	-40.8	-42.4	20.1	0.00e+00	0	26	0	781189120	54	6694
2026-01-26 11:46:31.40	93.67	7.54	-40.9	-42.3	20.1	0.00e+00	0	26	0	782237696	54	6660
2026-01-26 11:46:32.41	93.82	7.51	-40.9	-42.3	20.0	0.00e+00	0	26	0	784334848	54	6655
2026-01-26 11:46:33.42	93.98	7.48	-41.0	-42.3	20.0	0.00e+00	0	26	0	786432000	54	6662
2026-01-26 11:46:34.43	94.13	7.45	-41.1	-42.5	20.0	0.00e+00	0	26	0	788529152	54	6821
2026-01-26 11:46:35.44	94.28	7.42	-40.9	-42.4	20.0	0.00e+00	0	26	0	790626304	54	6715
2026-01-26 11:46:36.45	94.44	7.39	-40.9	-42.3	20.0	0.00e+00	0	26	0	791674880	54	6686
2026-01-26 11:46:37.46	94.59	7.36	-40.7	-42.2	20.1	0.00e+00	0	26	0	793772032	54	6596
2026-01-26 11:46:38.47	94.74	7.33	-40.7	-42.2	20.1	0.00e+00	0	26	0	795869184	54	6559
2026-01-26 11:46:39.48	94.90	7.30	-40.8	-42.3	20.0	0.00e+00	0	26	0	797966336	54	6645
2026-01-26 11:46:40.48	95.05	7.27	-41.1	-42.7	19.7	0.00e+00	0	26	0	800063488	54	6930
2026-01-26 11:46:41.49	95.20	7.24	-40.9	-42.6	19.8	0.00e+00	0	26	0	801112064	54	6888
2026-01-26 11:46:42.50	95.35	7.21	-41.0	-42.8	19.5	0.00e+00	0	26	0	803209216	54	7081
2026-01-26 11:46:43.51	95.50	7.18	-41.0	-43.0	19.5	0.00e+00	0	26	0	805306368	54	7175
2026-01-26 11:46:44.52	95.65	7.15	-41.2	-43.4	19.0	0.00e+00	0	26	0	807403520	54	7530
2026-01-26 11:46:45.53	95.80	7.12	-41.0	-43.5	18.9	0.00e+00	0	26	0	809500672	54	7618
2026-01-26 11:46:46.54	95.95	7.09	-40.9	-43.6	18.6	0.00e+00	0	26	0	811597824	54	7755
2026-01-26 11:46:47.55	96.10	7.05	-41.2	-44.1	18.3	0.00e+00	0	26	0	812646400	54	8173
2026-01-26 11:46:48.56	96.25	7.02	-41.4	-44.3	18.1	0.00e+00	0	26	0	814743552	54	8423
2026-01-26 11:46:49.57	96.40	6.99	-42.1	-44.5	17.9	0.00e+00	0	26	0	816840704	56	7676
2026-01-26 11:46:50.58	96.55	6.96	-42.2	-44.6	17.9	0.00e+00	0	26	0	818937856	56	7752
2026-01-26 11:46:51.59	96.70	6.93	-42.2	-44.2	18.2	0.00e+00	0	26	0	821035008	56	7369
2026-01-26 11:46:52.60	96.85	6.90	-42.4	-44.3	18.1	0.00e+00	0	26	0	822083584	56	7502
2026-01-26 11:46:53.61	97.00	6.86	-42.7	-44.6	17.8	0.00e+00	0	26	0	824180736	56	7716
2026-01-26 11:46:54.62	97.15	6.83	-42.7	-44.6	17.7	0.00e+00	0	26	0	826277888	58	6885
2026-01-26 11:46:55.63	97.29	6.80	-42.8	-44.7	17.5	0.00e+00	0	26	0	828375040	58	6999
2026-01-26 11:46:56.64	97.44	6.77	-42.4	-44.2	18.0	0.00e+00	0	26	0	830472192	58	6560
2026-01-26 11:46:57.65	97.59	6.73	-42.3	-44.0	17.9	0.00e+00	0	26	0	831520768	58	6464
2026-01-26 11:46:58.65	97.73	6.70	-42.2	-43.9	18.1	0.00e+00	0	26	0	833617920	58	6385
2026-01-26 11:46:59.66	97.88	6.67	-42.1	-43.9	18.3	0.00e+00	0	26	0	835715072	58	6318
2026-01-26 11:47:00.67	98.02	6.63	-42.1	-43.8	18.3	0.00e+00	0	26	0	837812224	58	6300
2026-01-26 11:47:01.68	98.17	6.60	-42.2	-44.1	18.4	0.00e+00	0	26	0	839909376	58	6512
2026-01-26 11:47:02.69	98.32	6.57	-42.0	-43.9	18.5	0.00e+00	0	26	0	840957952	58	6368
2026-01-26 11:47:03.70	98.46	6.53	-41.7	-43.6	18.7	0.00e+00	0	26	0	843055104	58	6105
2026-01-26 11:47:04.71	98.61	6.50	-42.0	-43.9	18.6	0.00e+00	0	26	0	845152256	56	7117
2026-01-26 11:47:05.72	98.75	6.47	-41.8	-44.1	18.4	0.00e+00	0	26	0	847249408	56	7259
2026-01-26 11:47:06.73	98.89	6.43	-41.7	-44.0	18.3	0.00e+00	0	26	0	849346560	56	7193
2026-01-26 11:47:07.74	99.04	6.40	-41.7	-44.3	18.1	0.00e+00	0	26	0	850395136	56	7485
2026-01-26 11:47:08.75	99.18	6.37	-41.8	-44.4	18.0	0.00e+00	0	26	0	852492288	56	7551
2026-01-26 11:47:09.76	99.32	6.33	-41.7	-44.1	18.2	0.00e+00	0	26	0	854589440	56	7333
2026-01-26 11:47:10.77	99.47	6.30	-41.7	-43.9	18.5	0.00e+00	0	26	0	856686592	56	7125
2026-01-26 11:47:11.77	99.61	6.26	-41.9	-43.9	18.4	0.00e+00	0	26	0	858783744	56	7159
2026-01-26 11:47:12.78	99.75	6.23	-41.8	-43.7	18.7	0.00e+00	0	26	0	859832320	56	6996
2026-01-26 11:47:13.79	99.89	6.19	-41.5	-43.2	19.1	0.00e+00	0	27	0	861929472	56	6563
2026-01-26 11:47:14.80	100.03	6.16	-41.4	-43.0	19.4	0.00e+00	0	26	0	864026624	56	6459
2026-01-26 11:47:15.81	100.17	6.13	-41.7	-43.4	19.0	0.00e+00	0	26	0	866123776	56	6736
2026-01-26 11:47:16.82	100.32	6.09	-41.5	-43.1	19.2	0.00e+00	0	26	0	868220928	56	6530
2026-01-26 11:47:17.83	100.46	6.06	-41.6	-43.2	19.0	0.00e+00	0	26	0	869269504	56	6561
2026-01-26 11:47:18.84	100.60	6.02	-42.0	-43.6	18.8	0.00e+00	0	26	0	871366656	56	6894
2026-01-26 11:47:19.85	100.74	5.99	-41.8	-43.5	18.8	0.00e+00	0	26	0	873463808	56	6840
2026-01-26 11:47:20.86	100.88	5.95	-41.7	-43.6	18.6	0.00e+00	0	26	0	875560960	56	6853
2026-01-26 11:47:21.87	101.01	5.92	-41.9	-44.0	18.2	0.00e+00	0	26	0	877658112	56	7214
2026-01-26 11:47:22.87	101.15	5.88	-41.7	-43.8	18.5	0.00e+00	0	26	0	879755264	56	7060
2026-01-26 11:47:23.88	101.29	5.85	-41.8	-43.7	18.6	0.00e+00	0	27	0	880803840	56	6996
2026-01-26 11:47:24.90	101.43	5.81	-42.1	-43.9	18.3	0.00e+00	0	26	0	882900992	56	7166
2026-01-26 11:47:25.90	101.57	5.77	-41.8	-43.5	18.7	0.00e+00	0	26	0	884998144	56	6787
2026-01-26 11:47:26.91	101.70	5.74	-41.6	-43.3	18.7	0.00e+00	0	26	0	887095296	56	6639
2026-01-26 11:47:27.92	101.84	5.70	-41.4	-43.1	19.0	0.00e+00	0	26	0	889192448	56	6515
2026-01-26 11:47:28.93	101.98	5.67	-41.1	-42.8	19.2	0.00e+00	0	26	0	890241024	56	6272
2026-01-26 11:47:29.94	102.12	5.63	-40.8	-42.5	19.5	0.00e+00	0	26	0	892338176	56	6045
2026-01-26 11:47:30.95	102.25	5.59	-41.1	-42.7	19.4	0.00e+00	0	26	0	894435328	56	6200
2026-01-26 11:47:31.96	102.39	5.56	-41.3	-42.8	19.2	0.00e+00	0	26	0	896532480	56	6305
2026-01-26 11:47:32.97	102.52	5.52	-41.3	-43.1	19.0	0.00e+00	0	26	0	898629632	56	6508
2026-01-26 11:47:33.98	102.66	5.49	-40.6	-42.8	19.2	0.00e+00	0	26	0	899678208	54	7039
2026-01-26 11:47:34.99	102.79	5.45	-40.3	-42.7	19.3	0.00e+00	0	27	0	901775360	54	6999
2026-01-26 11:47:36.00	102.93	5.41	-40.7	-43.1	18.9	0.00e+00	0	26	0	903872512	54	7288
2026-01-26 11:47:37.01	103.06	5.38	-41.0	-43.3	18.8	0.00e+00	0	26	0	905969664	54	7472
2026-01-26 11:47:38.02	103.20	5.34	-40.9	-43.1	19.0	0.00e+00	0	26	0	908066816	54	7266
2026-01-26 11:47:39.03	103.33	5.30	-40.8	-42.7	19.3	0.00e+00	0	26	0	909115392	54	6943
2026-01-26 11:47:40.04	103.46	5.27	-40.8	-42.8	19.3	0.00e+00	0	26	0	911212544	54	7041
2026-01-26 11:47:41.04	103.60	5.23	-40.6	-42.5	19.6	0.00e+00	0	26	0	913309696	54	6792
2026-01-26 11:47:42.06	103.73	5.19	-40.6	-42.3	19.7	0.00e+00	0	26	0	915406848	54	6673
2026-01-26 11:47:43.06	103.86	5.16	-40.9	-42.8	19.5	0.00e+00	0	26	0	917504000	54	7049
2026-01-26 11:47:44.08	103.99	5.12	-41.2	-42.9	19.3	0.00e+00	0	26	0	918552576	54	7131
2026-01-26 11:47:45.08	104.13	5.08	-40.8	-42.6	19.4	0.00e+00	0	26	0	920649728	54	6897
2026-01-26 11:47:46.09	104.26	5.04	-40.3	-42.8	19.2	0.00e+00	0	26	0	922746880	54	7078
2026-01-26 11:47:47.10	104.39	5.01	-39.7	-42.8	19.3	0.00e+00	0	26	0	924844032	54	7033
2026-01-26 11:47:48.11	104.52	4.97	-39.7	-42.9	19.1	0.00e+00	0	26	0	926941184	52	7985
2026-01-26 11:47:49.12	104.65	4.93	-40.2	-43.2	18.9	0.00e+00	0	26	0	927989760	52	8252
2026-01-26 11:47:50.13	104.78	4.90	-40.8	-42.9	18.8	0.00e+00	0	26	0	930086912	54	7158
2026-01-26 11:47:51.14	104.91	4.86	-41.2	-43.0	18.9	0.00e+00	0	26	0	932184064	54	7234
2026-01-26 11:47:52.15	105.04	4.82	-41.1	-43.0	18.9	0.00e+00	0	26	0	934281216	54	7199
2026-01-26 11:47:53.16	105.17	4.78	-41.0	-43.1	18.9	0.00e+00	0	26	0	936378368	54	7254
2026-01-26 11:47:54.17	105.30	4.74	-40.7	-42.9	19.1	0.00e+00	0	26	0	937426944	54	7098
2026-01-26 11:47:55.18	105.43	4.71	-40.1	-42.1	19.8	0.00e+00	0	26	0	939524096	54	6501
2026-01-26 11:47:56.19	105.55	4.67	-40.2	-41.9	20.1	0.00e+00	0	26	0	941621248	54	6376
2026-01-26 11:47:57.20	105.68	4.63	-40.3	-41.9	20.0	0.00e+00	0	26	0	943718400	54	6355
2026-01-26 11:47:58.21	105.81	4.59	-40.3	-41.8	20.0	0.00e+00	0	26	0	945815552	54	6284
2026-01-26 11:47:59.22	105.94	4.55	-40.5	-42.0	19.8	0.00e+00	0	26	0	947912704	54	6430
2026-01-26 11:48:00.23	106.06	4.52	-40.4	-42.0	19.7	0.00e+00	0	26	0	948961280	54	6416
2026-01-26 11:48:01.24	106.19	4.48	-40.2	-41.8	19.9	0.00e+00	0	26	0	951058432	54	6279
2026-01-26 11:48:02.25	106.32	4.44	-40.2	-41.9	19.8	0.00e+00	0	26	0	953155584	54	6324
2026-01-26 11:48:03.26	106.44	4.40	-40.2	-42.0	19.7	0.00e+00	0	26	0	955252736	54	6392
2026-01-26 11:48:04.27	106.57	4.36	-40.3	-41.9	19.7	0.00e+00	0	26	0	957349888	54	6367
2026-01-26 11:48:05.28	106.69	4.32	-40.3	-41.9	19.8	0.00e+00	0	26	0	958398464	54	6341
2026-01-26 11:48:06.29	106.82	4.29	-40.0	-42.0	19.7	0.00e+00	0	26	0	960495616	54	6423
2026-01-26 11:48:07.30	106.94	4.25	-39.3	-41.7	19.8	0.00e+00	0	26	0	962592768	52	6997
2026-01-26 11:48:08.31	107.07	4.21	-39.1	-42.1	19.5	0.00e+00	0	26	0	964689920	52	7269
2026-01-26 11:48:09.31	107.19	4.17	-39.1	-42.2	19.4	0.00e+00	0	26	0	965738496	52	7372
2026-01-26 11:48:10.32	107.32	4.13	-39.3	-42.3	19.5	0.00e+00	0	26	0	967835648	52	7483
2026-01-26 11:48:11.33	107.44	4.09	-39.5	-41.9	19.5	0.00e+00	0	26	0	969932800	52	7163
2026-01-26 11:48:12.34	107.56	4.05	-39.8	-42.5	19.3	0.00e+00	0	27	0	972029952	52	7614
2026-01-26 11:48:13.35	107.69	4.02	-39.9	-42.3	19.2	0.00e+00	0	26	0	974127104	52	7457
2026-01-26 11:48:14.36	107.81	3.98	-40.2	-42.8	18.7	0.00e+00	0	26	0	976224256	52	7922
2026-01-26 11:48:15.38	107.93	3.94	-40.5	-43.0	18.5	0.00e+00	0	26	0	977272832	52	8074
2026-01-26 11:48:16.38	108.05	3.90	-41.0	-43.0	18.5	0.00e+00	0	26	0	979369984	54	7183
2026-01-26 11:48:17.39	108.17	3.86	-41.0	-42.9	18.5	0.00e+00	0	27	0	981467136	54	7129
2026-01-26 11:48:18.40	108.30	3.82	-41.1	-43.3	18.0	0.00e+00	0	26	0	983564288	54	7450
2026-01-26 11:48:19.41	108.42	3.78	-40.9	-43.2	18.2	0.00e+00	0	26	0	985661440	54	7351
2026-01-26 11:48:20.42	108.54	3.74	-41.3	-43.4	17.9	0.00e+00	0	27	0	986710016	54	7575
2026-01-26 11:48:21.43	108.66	3.70	-41.4	-43.2	18.2	0.00e+00	0	27	0	988807168	54	7350
2026-01-26 11:48:22.44	108.78	3.66	-41.2	-43.2	18.1	0.00e+00	0	26	0	990904320	54	7388
2026-01-26 11:48:23.45	108.90	3.62	-40.6	-43.0	18.2	0.00e+00	0	27	0	993001472	54	7176
2026-01-26 11:48:24.46	109.02	3.59	-40.8	-43.3	17.9	0.00e+00	0	26	0	995098624	54	7472
2026-01-26 11:48:25.47	109.14	3.55	-41.0	-43.1	18.3	0.00e+00	0	26	0	996147200	54	7256
2026-01-26 11:48:26.48	109.26	3.51	-40.8	-42.5	18.9	0.00e+00	0	27	0	998244352	54	6810
2026-01-26 11:48:27.49	109.37	3.47	-40.9	-42.6	18.5	0.00e+00	0	27	0	1000341504	54	6902
2026-01-26 11:48:28.50	109.49	3.43	-40.7	-42.6	18.6	0.00e+00	0	26	0	1002438656	54	6910
2026-01-26 11:48:29.50	109.61	3.39	-40.4	-42.7	18.4	0.00e+00	0	26	0	1004535808	54	6987
2026-01-26 11:48:30.51	109.73	3.35	-40.5	-43.0	18.0	0.00e+00	0	26	0	1005584384	54	7217
2026-01-26 11:48:31.52	109.84	3.31	-40.5	-42.8	18.2	0.00e+00	0	26	0	1007681536	54	7024
2026-01-26 11:48:32.53	109.96	3.27	-41.0	-43.1	17.9	0.00e+00	0	27	0	1009778688	54	7315
2026-01-26 11:48:33.54	110.08	3.23	-41.5	-43.5	17.5	0.00e+00	0	27	0	1011875840	54	7643
2026-01-26 11:48:34.55	110.19	3.19	-41.5	-43.9	17.1	0.00e+00	0	26	0	1013972992	54	8001
2026-01-26 11:48:35.56	110.31	3.15	-40.6	-43.5	17.3	0.00e+00	0	26	0	1015021568	54	7644
2026-01-26 11:48:36.57	110.43	3.11	-40.0	-43.6	17.0	0.00e+00	0	27	0	1017118720	54	7689
2026-01-26 11:48:37.58	110.54	3.07	-40.1	-43.6	17.1	0.00e+00	0	26	0	1019215872	54	7753
2026-01-26 11:48:38.59	110.66	3.03	-40.4	-44.1	16.6	0.00e+00	0	27	0	1021313024	54	8191
2026-01-26 11:48:39.60	110.77	2.99	-47.1	-62.2	3.6	0.00e+00	0	26	104	1022361600	60	46597
2026-01-26 11:48:40.61	110.89	2.95	-44.8	-63.4	3.6	1.51e+00	0	27	104	1022361600	60	53445
2026-01-26 11:48:41.62	111.00	2.91	-47.6	-63.7	3.6	1.51e+00	0	27	104	1022361600	60	55371
2026-01-26 11:48:42.63	111.12	2.87	-48.5	-63.9	3.6	1.51e+00	0	26	104	1022361600	60	56328
2026-01-26 11:48:43.64	111.23	2.83	-48.1	-64.0	3.6	1.51e+00	0	26	104	1022361600	60	57289
2026-01-26 11:48:44.65	111.34	2.79	-48.8	-64.0	3.6	1.51e+00	0	27	104	1022361600	60	57608
2026-01-26 11:48:45.66	111.46	2.75	-48.5	-64.1	3.6	1.51e+00	0	27	104	1022361600	60	58104
2026-01-26 11:48:46.67	111.57	2.71	-48.9	-64.2	3.6	1.51e+00	0	27	104	1022361600	60	58922
2026-01-26 11:48:47.68	111.68	2.67	-49.0	-64.1	3.6	1.51e+00	0	27	104	1022361600	60	58217
2026-01-26 11:48:48.69	111.79	2.63	-48.5	-64.2	3.6	1.51e+00	0	27	104	1022361600	60	58316
2026-01-26 11:48:49.70	111.91	2.59	-48.9	-64.2	3.6	1.51e+00	0	27	104	1022361600	60	58458
2026-01-26 11:48:50.71	112.02	2.55	-49.0	-64.1	3.6	1.51e+00	0	27	104	1022361600	60	58268
2026-01-26 11:48:51.72	112.13	2.51	-48.9	-64.2	3.6	1.51e+00	0	27	104	1022361600	60	58744
2026-01-26 11:48:52.73	112.24	2.47	-48.5	-64.2	3.6	1.51e+00	0	27	104	1022361600	60	58604
2026-01-26 11:48:53.74	112.35	2.43	-49.0	-64.2	3.5	1.51e+00	0	27	104	1022361600	60	58702
2026-01-26 11:48:54.75	112.46	2.39	-49.0	-64.2	3.6	1.51e+00	0	27	104	1022361600	60	58787
2026-01-26 11:48:55.76	112.57	2.35	-49.1	-64.2	3.6	1.51e+00	0	27	104	1022361600	60	58896
2026-01-26 11:48:56.77	112.68	2.31	-49.1	-64.2	3.6	1.51e+00	0	27	104	1022361600	60	58810
2026-01-26 11:48:57.78	112.79	2.26	-49.0	-64.3	3.5	1.51e+00	0	27	104	1022361600	60	59030
2026-01-26 11:48:58.79	112.90	2.22	-49.0	-64.3	3.6	1.51e+00	0	27	104	1022361600	60	59180
2026-01-26 11:48:59.80	113.01	2.18	-49.0	-64.3	3.6	1.51e+00	0	27	104	1022361600	60	59090
2026-01-26 11:49:00.81	113.12	2.14	-49.1	-64.4	3.6	1.51e+00	0	27	104	1022361600	60	59670
2026-01-26 11:49:01.82	113.23	2.10	-49.1	-64.3	3.6	1.51e+00	0	27	104	1022361600	60	59159
2026-01-26 11:49:02.83	113.34	2.06	-49.2	-64.4	3.6	1.51e+00	0	27	104	1022361600	60	60266
2026-01-26 11:49:03.84	113.44	2.02	-49.1	-64.3	3.6	1.51e+00	0	26	104	1022361600	60	59524
2026-01-26 11:49:04.85	113.55	1.98	-49.2	-64.3	3.6	1.51e+00	0	27	104	1022361600	60	59559
2026-01-26 11:49:05.86	113.66	1.94	-49.1	-64.3	3.6	1.51e+00	0	27	104	1022361600	60	59557
2026-01-26 11:49:06.87	113.77	1.90	-49.1	-64.3	3.6	1.51e+00	0	27	104	1022361600	60	59540
2026-01-26 11:49:07.88	113.87	1.86	-49.2	-64.4	3.5	1.51e+00	0	26	104	1022361600	60	60245
2026-01-26 11:49:08.89	113.98	1.82	-49.2	-64.4	3.6	1.51e+00	0	27	104	1022361600	60	60277
2026-01-26 11:49:09.90	114.09	1.78	-49.3	-64.5	3.6	1.51e+00	0	27	104	1022361600	60	60689
2026-01-26 11:49:10.91	114.19	1.74	-49.5	-64.6	3.5	1.51e+00	0	27	104	1022361600	60	61691
2026-01-26 11:49:11.92	114.30	1.69	-49.2	-64.4	3.6	1.51e+00	0	27	104	1022361600	60	59774
2026-01-26 11:49:12.93	114.40	1.65	-49.5	-64.7	3.6	1.51e+00	0	27	104	1022361600	60	62232
2026-01-26 11:49:13.94	114.51	1.61	-49.3	-64.5	3.6	1.51e+00	0	27	104	1022361600	60	60649
2026-01-26 11:49:14.96	114.61	1.57	-50.2	-65.3	3.6	1.51e+00	0	27	104	1022361600	60	66820
2026-01-26 11:49:15.96	114.72	1.53	-49.8	-64.9	3.6	1.51e+00	0	27	104	1022361600	60	63855
2026-01-26 11:49:16.97	114.82	1.49	-49.3	-64.5	3.6	1.51e+00	0	27	104	1022361600	60	60666
2026-01-26 11:49:17.99	114.93	1.45	-49.5	-64.7	3.6	1.51e+00	0	27	104	1022361600	60	62142
2026-01-26 11:49:19.00	115.03	1.41	-50.0	-65.1	3.6	1.51e+00	0	27	104	1022361600	60	65026
2026-01-26 11:49:20.01	115.14	1.37	-50.0	-65.2	3.6	1.51e+00	0	27	104	1022361600	60	65967
2026-01-26 11:49:21.02	115.24	1.33	-49.9	-65.1	3.5	1.51e+00	0	27	104	1022361600	60	64942
2026-01-26 11:49:22.03	115.34	1.29	-50.2	-65.4	3.6	1.51e+00	0	27	104	1022361600	60	67444
2026-01-26 11:49:23.04	115.44	1.24	-50.0	-65.1	3.6	1.51e+00	0	27	104	1022361600	60	65384
2026-01-26 11:49:24.05	115.55	1.20	-49.5	-64.7	3.6	1.51e+00	0	27	104	1022361600	60	62252
2026-01-26 11:49:25.06	115.65	1.16	-50.9	-66.0	3.6	1.51e+00	0	27	104	1022361600	60	72351
2026-01-26 11:49:26.07	115.75	1.12	-49.7	-64.9	3.6	1.51e+00	0	27	104	1022361600	60	63310
2026-01-26 11:49:27.08	115.85	1.08	-50.0	-65.1	3.5	1.51e+00	0	27	104	1022361600	60	65382
2026-01-26 11:49:28.09	115.95	1.04	-50.4	-65.6	3.6	1.51e+00	0	27	104	1022361600	60	68819
2026-01-26 11:49:29.10	116.06	1.00	-50.2	-65.3	3.6	1.51e+00	0	27	104	1022361600	60	66708
2026-01-26 11:49:30.11	116.16	0.96	-50.7	-65.8	3.6	1.51e+00	0	27	104	1022361600	60	70813
2026-01-26 11:49:31.12	116.26	0.92	-50.2	-65.4	3.6	1.51e+00	0	27	104	1022361600	60	66923
2026-01-26 11:49:32.13	116.36	0.87	-50.3	-65.5	3.6	1.51e+00	0	27	104	1022361600	60	67996
2026-01-26 11:49:33.14	116.46	0.83	-50.6	-65.9	3.5	1.51e+00	0	27	104	1022361600	60	71148
2026-01-26 11:49:34.15	116.56	0.79	-50.9	-66.0	3.6	1.51e+00	0	27	104	1022361600	60	72504
2026-01-26 11:49:35.16	116.66	0.75	-50.1	-65.3	3.6	1.51e+00	0	27	104	1022361600	60	66329
2026-01-26 11:49:36.17	116.76	0.71	-49.7	-64.9	3.6	1.51e+00	0	27	104	1022361600	60	63273
2026-01-26 11:49:37.18	116.85	0.67	-49.4	-64.6	3.6	1.51e+00	0	27	104	1022361600	60	61598
2026-01-26 11:49:38.19	116.95	0.63	-50.2	-65.4	3.6	1.51e+00	0	27	104	1022361600	60	67098
2026-01-26 11:49:39.20	117.05	0.59	-50.0	-65.2	3.6	1.51e+00	0	27	104	1022361600	60	65864
2026-01-26 11:49:40.21	117.15	0.55	-49.6	-64.8	3.6	1.51e+00	0	27	104	1022361600	60	62687
2026-01-26 11:49:41.22	117.25	0.50	-50.3	-65.4	3.6	1.51e+00	0	27	104	1022361600	60	67658
2026-01-26 11:49:42.23	117.35	0.46	-50.3	-65.5	3.6	1.51e+00	0	27	104	1022361600	60	68108
2026-01-26 11:49:43.24	117.44	0.42	-49.7	-64.9	3.6	1.51e+00	0	27	104	1022361600	60	63562
2026-01-26 11:49:44.25	117.54	0.38	-49.7	-64.9	3.6	1.51e+00	0	27	104	1022361600	60	63507
2026-01-26 11:49:45.26	117.64	0.34	-49.6	-64.8	3.6	1.51e+00	0	27	104	1022361600	60	62942
2026-01-26 11:49:46.27	117.73	0.30	-49.4	-64.6	3.6	1.51e+00	0	27	104	1022361600	60	61456
2026-01-26 11:49:47.28	117.83	0.26	-49.5	-64.7	3.6	1.51e+00	0	27	104	1022361600	60	62069
2026-01-26 11:49:48.29	117.93	0.22	-50.0	-65.2	3.6	1.51e+00	0	27	104	1022361600	60	65799
2026-01-26 11:49:49.30	118.02	0.17	-50.2	-65.4	3.6	1.51e+00	0	27	104	1022361600	60	67121
2026-01-26 11:49:50.31	118.12	0.13	-49.5	-64.7	3.6	1.51e+00	0	27	104	1022361600	60	62343
2026-01-26 11:49:51.32	118.21	0.09	-50.5	-65.7	3.6	1.51e+00	0	27	104	1022361600	60	69528
2026-01-26 11:49:52.33	118.31	0.05	-50.5	-65.6	3.6	1.51e+00	0	27	104	1022361600	60	69232
2026-01-26 11:49:53.34	118.40	0.01	-49.7	-64.8	3.6	1.51e+00	0	27	104	1022361600	60	63020
2026-01-26 11:49:54.35	118.50	-0.03	-50.3	-65.4	3.6	1.51e+00	0	26	104	1022361600	60	67481
2026-01-26 11:49:55.36	118.59	-0.07	-50.5	-65.7	3.6	1.51e+00	0	27	104	1022361600	60	69651

#Closed at: 2026-01-26 11:49:55
#Recorded file [1022 MB]: D:/lorett/data/35029_260126_233821.dat