passes_logs/2026/01/26/R4.6S_Anadyr/R4.6S_Anadyr__20260126_195741_NOAA_20_JPSS-1_rec.log

#Pass ID: 20260126_195741_NOAA 20 (JPSS-1)
#Satellite: NOAA 20 (JPSS-1)
#Configuration: NOAA 20
#almurnet v.1.7.20251203
#Start time: 2026-01-26 19:57:42

#Version: 2.2.20231116
#Station: R4.6S_Anadyr
#Location: 177.4865 lon 64.73178 lat
#TLE: 1 43013U 17073A   26025.90277267  .00000170  00000+0  10165-3 0  9997
#TLE: 2 43013  98.7646 326.7276 0001032  23.5492 336.5731 14.19540457424285

#Time	Az	El	Level	Level2	SNR	BER	BlckErr	Temp	State	Recorded	gain1	gain2
2026-01-26 19:57:42.84	61.46	0.08	-49.2	-64.3	3.5	1.51e+00	0	26	0	0	60	59047
2026-01-26 19:57:43.85	61.38	0.13	-49.7	-64.8	3.6	1.51e+00	0	27	104	0	60	63081
2026-01-26 19:57:44.86	61.31	0.18	-49.3	-64.5	3.6	1.51e+00	0	27	104	0	60	60950
2026-01-26 19:57:45.87	61.23	0.23	-49.7	-65.0	3.6	1.51e+00	0	27	104	0	60	64099
2026-01-26 19:57:46.88	61.15	0.28	-49.2	-64.5	3.5	1.51e+00	0	27	104	0	60	60590
2026-01-26 19:57:47.89	61.08	0.33	-49.3	-64.5	3.6	1.51e+00	0	27	104	0	60	60855
2026-01-26 19:57:48.90	61.00	0.38	-49.2	-64.4	3.6	1.51e+00	0	27	104	0	60	60054
2026-01-26 19:57:49.91	60.92	0.43	-49.2	-64.4	3.6	1.51e+00	0	27	104	0	60	59902
2026-01-26 19:57:50.92	60.85	0.48	-49.2	-64.4	3.6	1.51e+00	0	27	104	0	60	59678
2026-01-26 19:57:51.93	60.77	0.53	-49.1	-64.3	3.6	1.51e+00	0	27	104	0	60	59300
2026-01-26 19:57:52.94	60.69	0.58	-49.2	-64.3	3.5	1.51e+00	0	27	104	0	60	59345
2026-01-26 19:57:53.95	60.61	0.63	-49.1	-64.4	3.6	1.51e+00	0	27	104	0	60	59916
2026-01-26 19:57:54.96	60.53	0.68	-49.0	-64.4	3.6	1.51e+00	0	27	104	0	60	59655
2026-01-26 19:57:55.97	60.45	0.73	-49.1	-64.3	3.6	1.51e+00	0	27	104	0	60	59169
2026-01-26 19:57:56.98	60.38	0.78	-49.1	-64.3	3.6	1.51e+00	0	27	104	0	60	59506
2026-01-26 19:57:57.99	60.30	0.83	-49.1	-64.3	3.6	1.51e+00	0	27	104	0	60	59399
2026-01-26 19:57:59.00	60.22	0.88	-49.0	-64.3	3.6	1.51e+00	0	27	104	0	60	59395
2026-01-26 19:58:00.00	60.14	0.92	-49.0	-64.2	3.6	1.51e+00	0	27	104	0	60	58782
2026-01-26 19:58:01.02	60.06	0.98	-48.7	-64.2	3.6	1.51e+00	0	27	104	0	60	58447
2026-01-26 19:58:02.03	59.98	1.02	-48.9	-64.1	3.6	1.51e+00	0	27	104	0	60	58204
2026-01-26 19:58:03.04	59.90	1.07	-48.9	-64.1	3.6	1.51e+00	0	27	104	0	60	58212
2026-01-26 19:58:04.05	59.81	1.12	-48.8	-64.0	3.6	1.51e+00	0	27	104	0	60	57163
2026-01-26 19:58:05.06	59.73	1.17	-48.7	-63.9	3.6	1.51e+00	0	27	104	0	60	56482
2026-01-26 19:58:06.07	59.65	1.22	-48.5	-63.7	3.6	1.51e+00	0	28	104	0	60	55421
2026-01-26 19:58:07.08	59.57	1.27	-48.2	-63.4	3.6	1.51e+00	0	27	104	0	60	53571
2026-01-26 19:58:08.09	59.49	1.32	-47.7	-62.9	3.6	1.51e+00	0	27	104	0	60	50199
2026-01-26 19:58:09.10	59.41	1.37	-47.6	-62.8	3.6	1.51e+00	0	28	104	0	60	49970
2026-01-26 19:58:10.11	59.32	1.42	-47.6	-62.8	3.6	1.51e+00	0	27	104	0	60	49862
2026-01-26 19:58:11.12	59.24	1.47	-47.6	-62.8	3.6	1.51e+00	0	28	104	0	60	50013
2026-01-26 19:58:12.13	59.16	1.52	-47.6	-62.8	3.6	1.51e+00	0	27	104	0	60	49991
2026-01-26 19:58:13.14	59.07	1.57	-47.6	-62.8	3.6	1.51e+00	0	27	104	0	60	49871
2026-01-26 19:58:14.15	58.99	1.62	-47.6	-62.8	3.6	1.51e+00	0	27	104	0	60	49975
2026-01-26 19:58:15.16	58.90	1.68	-47.6	-62.7	3.6	1.51e+00	0	28	104	0	60	49557
2026-01-26 19:58:16.17	58.82	1.73	-47.6	-62.8	3.6	1.51e+00	0	28	104	0	60	49785
2026-01-26 19:58:17.18	58.74	1.78	-47.6	-62.8	3.6	1.51e+00	0	28	104	0	60	49612
2026-01-26 19:58:18.19	58.65	1.83	-47.6	-62.8	3.6	1.51e+00	0	28	104	0	60	49914
2026-01-26 19:58:19.20	58.56	1.88	-47.6	-62.8	3.6	1.51e+00	0	28	104	0	60	49650
2026-01-26 19:58:20.21	58.48	1.93	-47.6	-62.8	3.6	1.51e+00	0	28	104	0	60	49751
2026-01-26 19:58:21.22	58.39	1.98	-47.6	-62.8	3.6	1.51e+00	0	28	104	0	60	49884
2026-01-26 19:58:22.23	58.31	2.03	-47.6	-62.7	3.6	1.51e+00	0	28	104	0	60	49593
2026-01-26 19:58:23.24	58.22	2.08	-47.6	-62.7	3.6	1.51e+00	0	28	104	0	60	49366
2026-01-26 19:58:24.25	58.13	2.13	-47.6	-62.7	3.6	1.51e+00	0	28	104	0	60	49304
2026-01-26 19:58:25.26	58.05	2.18	-47.6	-62.7	3.6	1.51e+00	0	28	104	0	60	49213
2026-01-26 19:58:26.27	57.96	2.23	-47.6	-62.6	3.6	1.51e+00	0	28	104	0	60	49026
2026-01-26 19:58:27.28	57.87	2.28	-47.6	-62.8	3.6	1.51e+00	0	28	104	0	60	49821
2026-01-26 19:58:28.29	57.78	2.33	-47.6	-62.8	3.6	1.51e+00	0	28	104	0	60	49798
2026-01-26 19:58:29.30	57.69	2.38	-47.6	-62.8	3.6	1.51e+00	0	28	104	0	60	49613
2026-01-26 19:58:30.31	57.61	2.43	-47.6	-62.7	3.6	1.51e+00	0	28	104	0	60	49478
2026-01-26 19:58:31.32	57.52	2.48	-47.6	-62.7	3.5	1.51e+00	0	28	104	0	60	49409
2026-01-26 19:58:32.33	57.43	2.53	-47.6	-62.8	3.6	1.51e+00	0	28	104	0	60	50045
2026-01-26 19:58:33.34	57.34	2.58	-47.6	-62.8	3.6	1.51e+00	0	28	104	0	60	49692
2026-01-26 19:58:34.35	57.25	2.63	-47.6	-62.4	3.6	1.51e+00	0	28	104	0	60	47556
2026-01-26 19:58:35.36	57.16	2.69	-47.6	-62.2	3.6	1.51e+00	0	28	104	0	60	46307
2026-01-26 19:58:36.37	57.07	2.74	-47.6	-62.4	3.6	1.51e+00	0	28	104	0	60	47906
2026-01-26 19:58:37.38	56.98	2.79	-47.6	-62.7	3.6	1.51e+00	0	28	104	0	60	49213
2026-01-26 19:58:38.39	56.88	2.84	-47.5	-60.3	3.7	1.51e+00	0	28	104	0	60	37311
2026-01-26 19:58:39.40	56.79	2.89	-47.1	-55.3	6.1	5.05e-01	91	28	0	0	60	20951
2026-01-26 19:58:40.41	56.70	2.94	-46.3	-51.6	9.7	5.30e-02	0	28	0	2097152	60	13679
2026-01-26 19:58:41.42	56.61	2.99	-45.3	-49.1	12.7	1.11e-03	92	28	0	3145728	60	10303
2026-01-26 19:58:42.43	56.52	3.04	-45.1	-48.8	12.7	6.10e-06	92	28	0	5242880	60	9917
2026-01-26 19:58:43.44	56.42	3.09	-46.7	-52.9	7.9	8.84e-03	0	28	0	7340032	60	15990
2026-01-26 19:58:44.45	56.33	3.14	-46.4	-52.4	5.4	1.51e+00	0	28	104	7340032	60	14982
2026-01-26 19:58:45.46	56.24	3.19	-43.6	-46.1	15.7	6.47e-01	0	28	104	7340032	60	7311
2026-01-26 19:58:46.47	56.14	3.24	-43.1	-45.3	16.4	2.27e-04	92	28	0	8388608	60	6627
2026-01-26 19:58:47.48	56.05	3.30	-47.2	-57.4	4.8	1.51e+00	0	28	104	9437184	60	26722
2026-01-26 19:58:48.49	55.95	3.35	-43.7	-46.3	14.8	9.38e-01	92	28	104	9437184	60	7495
2026-01-26 19:58:49.50	55.86	3.40	-43.8	-46.4	16.0	0.00e+00	90	28	0	10485760	60	7552
2026-01-26 19:58:50.51	55.76	3.45	-44.2	-47.1	14.8	0.00e+00	13	28	0	12582912	60	8146
2026-01-26 19:58:51.52	55.67	3.50	-43.2	-45.4	16.4	0.00e+00	90	28	0	13631488	60	6769
2026-01-26 19:58:52.52	55.57	3.55	-44.0	-46.7	15.2	0.00e+00	1	28	0	15728640	60	7812
2026-01-26 19:58:53.53	55.48	3.60	-44.0	-46.7	15.2	7.00e-07	90	28	0	17825792	60	7810
2026-01-26 19:58:54.54	55.38	3.65	-43.7	-46.2	15.4	0.00e+00	6	28	0	19922944	60	7385
2026-01-26 19:58:55.55	55.28	3.70	-44.2	-47.1	15.1	0.00e+00	90	28	0	22020096	60	8147
2026-01-26 19:58:56.56	55.18	3.76	-43.8	-46.3	15.8	0.00e+00	54	28	0	23068672	60	7455
2026-01-26 19:58:57.57	55.09	3.81	-43.8	-46.3	15.7	0.00e+00	91	28	0	25165824	60	7471
2026-01-26 19:58:58.57	54.99	3.86	-44.0	-46.6	15.3	0.00e+00	91	28	0	27262976	60	7772
2026-01-26 19:58:59.58	54.89	3.91	-43.7	-46.1	15.8	0.00e+00	78	28	0	29360128	60	7319
2026-01-26 19:59:00.59	54.79	3.96	-43.3	-45.5	16.8	0.00e+00	92	28	0	31457280	60	6817
2026-01-26 19:59:01.60	54.69	4.01	-43.2	-45.4	16.5	0.00e+00	0	28	0	33554432	58	7539
2026-01-26 19:59:02.61	54.59	4.06	-42.8	-44.9	17.2	0.00e+00	90	28	0	34603008	58	7103
2026-01-26 19:59:03.62	54.49	4.11	-43.2	-45.4	16.8	0.00e+00	86	28	0	36700160	58	7543
2026-01-26 19:59:04.63	54.39	4.17	-43.2	-45.4	16.6	0.00e+00	92	28	0	38797312	58	7558
2026-01-26 19:59:05.64	54.29	4.22	-42.9	-45.0	16.9	0.00e+00	92	28	0	40894464	58	7226
2026-01-26 19:59:06.65	54.19	4.27	-42.6	-44.5	17.5	0.00e+00	0	28	0	41943040	58	6798
2026-01-26 19:59:07.66	54.09	4.32	-42.6	-44.5	17.7	0.00e+00	92	28	0	44040192	58	6814
2026-01-26 19:59:08.67	53.99	4.37	-42.3	-44.2	18.0	0.00e+00	0	28	0	46137344	58	6546
2026-01-26 19:59:09.68	53.89	4.42	-43.2	-45.3	17.2	0.00e+00	92	28	0	48234496	58	7465
2026-01-26 19:59:10.69	53.78	4.47	-42.7	-44.6	17.3	0.00e+00	11	28	0	50331648	58	6884
2026-01-26 19:59:11.70	53.68	4.53	-42.7	-44.7	17.6	0.00e+00	92	28	0	52428800	58	6958
2026-01-26 19:59:12.71	53.58	4.58	-42.4	-44.2	17.8	0.00e+00	92	28	0	53477376	58	6613
2026-01-26 19:59:13.72	53.47	4.63	-41.7	-43.3	18.8	0.00e+00	92	28	0	55574528	58	5954
2026-01-26 19:59:14.73	53.37	4.68	-41.8	-43.4	18.8	0.00e+00	92	28	0	57671680	56	6705
2026-01-26 19:59:15.74	53.27	4.73	-42.5	-44.4	17.8	0.00e+00	12	28	0	59768832	56	7509
2026-01-26 19:59:16.74	53.16	4.78	-42.3	-44.0	18.2	0.00e+00	90	28	0	61865984	56	7245
2026-01-26 19:59:17.75	53.06	4.83	-41.7	-43.3	18.9	0.00e+00	83	28	0	62914560	56	6642
2026-01-26 19:59:18.76	52.95	4.89	-41.8	-43.4	18.8	0.00e+00	92	28	0	65011712	56	6765
2026-01-26 19:59:19.77	52.85	4.94	-41.9	-43.6	18.7	0.00e+00	36	28	0	67108864	56	6861
2026-01-26 19:59:20.78	52.74	4.99	-41.9	-43.6	18.8	0.00e+00	92	28	0	69206016	56	6860
2026-01-26 19:59:21.79	52.63	5.04	-41.6	-43.1	19.2	0.00e+00	92	28	0	71303168	56	6491
2026-01-26 19:59:22.80	52.53	5.09	-42.1	-43.8	18.5	0.00e+00	84	28	0	72351744	56	7012
2026-01-26 19:59:23.81	52.42	5.14	-41.8	-43.4	19.0	0.00e+00	92	28	0	74448896	56	6711
2026-01-26 19:59:24.82	52.31	5.19	-41.7	-43.2	18.9	0.00e+00	0	28	0	76546048	56	6610
2026-01-26 19:59:25.83	52.20	5.25	-41.7	-43.3	18.9	0.00e+00	92	28	0	78643200	56	6660
2026-01-26 19:59:26.84	52.09	5.30	-41.5	-43.0	19.2	0.00e+00	2	28	0	80740352	56	6447
2026-01-26 19:59:27.84	51.99	5.35	-41.5	-43.1	19.3	0.00e+00	92	28	0	81788928	56	6472
2026-01-26 19:59:28.85	51.88	5.40	-41.5	-43.1	19.2	0.00e+00	92	28	0	83886080	56	6465
2026-01-26 19:59:29.86	51.77	5.45	-41.7	-43.3	18.9	0.00e+00	0	28	0	85983232	56	6622
2026-01-26 19:59:30.87	51.66	5.50	-41.7	-43.2	19.1	0.00e+00	91	28	0	88080384	56	6612
2026-01-26 19:59:31.88	51.55	5.56	-41.8	-43.4	19.0	0.00e+00	0	28	0	90177536	56	6717
2026-01-26 19:59:32.89	51.44	5.61	-41.4	-42.9	19.4	0.00e+00	91	28	0	91226112	56	6363
2026-01-26 19:59:33.90	51.32	5.66	-41.5	-42.9	19.4	0.00e+00	0	28	0	93323264	56	6384
2026-01-26 19:59:34.91	51.21	5.71	-41.2	-42.7	19.6	0.00e+00	90	28	0	95420416	56	6202
2026-01-26 19:59:35.92	51.10	5.76	-41.4	-42.9	19.5	0.00e+00	92	28	0	97517568	56	6371
2026-01-26 19:59:36.93	50.99	5.81	-41.6	-43.1	19.2	0.00e+00	8	28	0	99614720	56	6536
2026-01-26 19:59:37.94	50.87	5.86	-41.6	-43.1	19.3	0.00e+00	90	28	0	100663296	56	6504
2026-01-26 19:59:38.95	50.76	5.92	-41.1	-42.5	19.8	0.00e+00	0	28	0	102760448	56	6064
2026-01-26 19:59:39.96	50.65	5.97	-41.2	-42.6	19.7	0.00e+00	92	28	0	104857600	56	6135
2026-01-26 19:59:40.97	50.53	6.02	-41.0	-42.4	19.9	0.00e+00	10	28	0	106954752	56	5998
2026-01-26 19:59:41.98	50.42	6.07	-40.9	-42.3	20.0	0.00e+00	92	28	0	109051904	56	5935
2026-01-26 19:59:42.99	50.30	6.12	-41.0	-42.4	20.0	0.00e+00	11	28	0	110100480	56	5974
2026-01-26 19:59:44.00	50.19	6.17	-41.2	-42.6	19.8	0.00e+00	74	28	0	112197632	56	6119
2026-01-26 19:59:45.01	50.07	6.23	-41.3	-42.7	19.7	0.00e+00	92	28	0	114294784	56	6195
2026-01-26 19:59:46.02	49.96	6.28	-41.3	-42.8	19.6	0.00e+00	0	28	0	116391936	56	6253
2026-01-26 19:59:47.03	49.84	6.33	-41.3	-42.8	19.7	0.00e+00	91	28	0	118489088	56	6260
2026-01-26 19:59:48.04	49.72	6.38	-41.4	-42.9	19.5	0.00e+00	0	28	0	120586240	56	6349
2026-01-26 19:59:49.05	49.60	6.43	-41.4	-42.9	19.5	0.00e+00	92	28	0	121634816	56	6323
2026-01-26 19:59:50.06	49.49	6.48	-41.6	-43.1	19.3	0.00e+00	0	28	0	123731968	56	6513
2026-01-26 19:59:51.07	49.37	6.53	-41.4	-42.9	19.5	0.00e+00	92	28	0	125829120	56	6327
2026-01-26 19:59:52.08	49.25	6.59	-41.6	-43.1	19.4	0.00e+00	91	28	0	127926272	56	6486
2026-01-26 19:59:53.09	49.13	6.64	-41.4	-42.9	19.6	0.00e+00	0	28	0	130023424	56	6358
2026-01-26 19:59:54.10	49.01	6.69	-41.3	-42.7	19.8	0.00e+00	90	28	0	131072000	56	6220
2026-01-26 19:59:55.11	48.89	6.74	-41.3	-42.8	19.8	0.00e+00	0	28	0	133169152	56	6264
2026-01-26 19:59:56.12	48.77	6.79	-41.4	-42.9	19.6	0.00e+00	90	28	0	135266304	56	6335
2026-01-26 19:59:57.13	48.65	6.84	-41.8	-43.4	19.2	0.00e+00	0	28	0	137363456	56	6719
2026-01-26 19:59:58.14	48.53	6.89	-41.7	-43.2	19.3	0.00e+00	92	28	0	139460608	56	6582
2026-01-26 19:59:59.15	48.40	6.95	-41.5	-43.0	19.5	0.00e+00	92	28	0	140509184	56	6420
2026-01-26 20:00:00.16	48.28	7.00	-41.3	-42.7	19.8	0.00e+00	69	28	0	142606336	56	6180
2026-01-26 20:00:01.17	48.16	7.05	-41.4	-42.8	19.6	0.00e+00	88	28	0	144703488	56	6310
2026-01-26 20:00:02.18	48.04	7.10	-41.3	-42.7	19.9	0.00e+00	0	28	0	146800640	56	6236
2026-01-26 20:00:03.19	47.91	7.15	-41.3	-42.7	19.9	0.00e+00	92	28	0	148897792	56	6209
2026-01-26 20:00:04.19	47.79	7.20	-41.2	-42.6	20.0	0.00e+00	11	28	0	149946368	56	6133
2026-01-26 20:00:05.20	47.66	7.25	-41.3	-42.7	19.9	0.00e+00	90	28	0	152043520	56	6179
2026-01-26 20:00:06.21	47.54	7.30	-41.1	-42.4	20.0	0.00e+00	0	28	0	154140672	56	6031
2026-01-26 20:00:07.22	47.41	7.36	-41.2	-42.5	20.0	0.00e+00	71	28	0	156237824	56	6079
2026-01-26 20:00:08.23	47.29	7.41	-41.2	-42.5	20.0	0.00e+00	92	28	0	158334976	56	6099
2026-01-26 20:00:09.23	47.16	7.46	-41.0	-42.3	20.2	0.00e+00	73	28	0	159383552	56	5950
2026-01-26 20:00:10.24	47.04	7.51	-41.2	-42.6	20.0	0.00e+00	92	28	0	161480704	56	6108
2026-01-26 20:00:11.25	46.91	7.56	-41.2	-42.5	20.0	0.00e+00	0	28	0	163577856	56	6080
2026-01-26 20:00:12.26	46.78	7.61	-41.3	-42.7	19.9	0.00e+00	92	28	0	165675008	56	6205
2026-01-26 20:00:13.27	46.65	7.66	-41.0	-42.4	20.1	0.00e+00	0	28	0	167772160	56	5968
2026-01-26 20:00:14.28	46.52	7.71	-40.9	-42.2	20.3	0.00e+00	50	28	0	168820736	56	5870
2026-01-26 20:00:15.29	46.40	7.76	-41.0	-42.3	20.2	0.00e+00	90	28	0	170917888	56	5919
2026-01-26 20:00:16.30	46.27	7.81	-40.9	-42.2	20.3	0.00e+00	0	28	0	173015040	56	5839
2026-01-26 20:00:17.31	46.14	7.86	-41.2	-42.6	19.8	0.00e+00	91	29	0	175112192	56	6130
2026-01-26 20:00:18.32	46.01	7.91	-40.6	-41.9	20.5	0.00e+00	0	28	0	177209344	54	6373
2026-01-26 20:00:19.33	45.87	7.97	-40.9	-42.2	20.1	0.00e+00	92	29	0	178257920	54	6601
2026-01-26 20:00:20.34	45.74	8.02	-40.7	-42.0	20.5	0.00e+00	0	29	0	180355072	54	6431
2026-01-26 20:00:21.35	45.61	8.07	-40.7	-41.9	20.5	0.00e+00	19	29	0	182452224	54	6386
2026-01-26 20:00:22.36	45.48	8.12	-40.7	-42.0	20.5	0.00e+00	92	28	0	184549376	54	6445
2026-01-26 20:00:23.37	45.35	8.17	-40.8	-42.1	20.4	0.00e+00	8	28	0	186646528	54	6512
2026-01-26 20:00:24.38	45.21	8.22	-40.8	-42.1	20.4	0.00e+00	92	28	0	188743680	54	6493
2026-01-26 20:00:25.38	45.08	8.27	-40.7	-42.0	20.5	0.00e+00	73	28	0	189792256	54	6445
2026-01-26 20:00:26.39	44.95	8.32	-40.6	-41.9	20.6	0.00e+00	92	29	0	191889408	54	6367
2026-01-26 20:00:27.40	44.81	8.37	-40.6	-41.9	20.6	0.00e+00	0	29	0	193986560	54	6345
2026-01-26 20:00:28.41	44.68	8.42	-40.6	-41.8	20.7	0.00e+00	92	29	0	196083712	54	6303
2026-01-26 20:00:29.42	44.54	8.47	-40.6	-41.9	20.7	0.00e+00	58	29	0	198180864	54	6320
2026-01-26 20:00:30.43	44.40	8.52	-40.6	-41.8	20.7	0.00e+00	0	29	0	199229440	54	6308
2026-01-26 20:00:31.44	44.27	8.57	-40.4	-41.7	20.8	0.00e+00	92	29	0	201326592	54	6189
2026-01-26 20:00:32.45	44.13	8.62	-40.7	-42.0	20.5	0.00e+00	0	29	0	203423744	54	6410
2026-01-26 20:00:33.46	43.99	8.67	-40.5	-41.8	20.6	0.00e+00	92	28	0	205520896	54	6268
2026-01-26 20:00:34.47	43.85	8.72	-40.5	-41.7	20.8	0.00e+00	6	29	0	207618048	54	6215
2026-01-26 20:00:35.48	43.72	8.77	-40.5	-41.8	20.8	0.00e+00	92	29	0	208666624	54	6255
2026-01-26 20:00:36.49	43.58	8.82	-40.5	-41.7	20.8	0.00e+00	0	29	0	210763776	54	6209
2026-01-26 20:00:37.50	43.44	8.87	-40.6	-41.8	20.7	0.00e+00	58	29	0	212860928	54	6315
2026-01-26 20:00:38.51	43.30	8.92	-40.6	-41.8	20.7	0.00e+00	92	29	0	214958080	54	6315
2026-01-26 20:00:39.52	43.16	8.97	-40.6	-41.8	20.7	0.00e+00	6	29	0	217055232	54	6281
2026-01-26 20:00:40.53	43.02	9.02	-40.6	-41.9	20.7	0.00e+00	92	29	0	218103808	54	6329
2026-01-26 20:00:41.54	42.87	9.07	-40.6	-41.8	20.6	0.00e+00	0	29	0	220200960	54	6315
2026-01-26 20:00:42.55	42.73	9.12	-40.7	-42.0	20.6	0.00e+00	90	29	0	222298112	54	6407
2026-01-26 20:00:43.56	42.59	9.17	-40.6	-41.8	20.6	0.00e+00	78	28	0	224395264	54	6308
2026-01-26 20:00:44.56	42.45	9.22	-40.5	-41.8	20.8	0.00e+00	92	29	0	226492416	54	6250
2026-01-26 20:00:45.57	42.30	9.26	-40.6	-41.9	20.6	0.00e+00	92	29	0	227540992	54	6343
2026-01-26 20:00:46.59	42.16	9.31	-40.6	-41.9	20.7	0.00e+00	76	29	0	229638144	54	6331
2026-01-26 20:00:47.60	42.01	9.36	-40.5	-41.8	20.7	0.00e+00	92	29	0	231735296	54	6259
2026-01-26 20:00:48.61	41.87	9.41	-40.8	-42.1	20.5	0.00e+00	75	29	0	233832448	54	6484
2026-01-26 20:00:49.62	41.72	9.46	-40.7	-42.0	20.6	0.00e+00	92	29	0	235929600	54	6391
2026-01-26 20:00:50.63	41.58	9.51	-40.6	-41.9	20.7	0.00e+00	77	29	0	236978176	54	6335
2026-01-26 20:00:51.64	41.43	9.56	-40.5	-41.7	21.0	0.00e+00	78	29	0	239075328	54	6193
2026-01-26 20:00:52.64	41.29	9.61	-40.4	-41.6	20.9	0.00e+00	54	29	0	241172480	54	6165
2026-01-26 20:00:53.65	41.14	9.66	-40.2	-41.4	21.3	0.00e+00	0	29	0	243269632	54	5997
2026-01-26 20:00:54.66	40.99	9.70	-40.1	-41.3	21.3	0.00e+00	92	29	0	245366784	54	5904
2026-01-26 20:00:55.67	40.84	9.75	-40.0	-41.2	21.4	0.00e+00	0	29	0	246415360	54	5846
2026-01-26 20:00:56.68	40.69	9.80	-40.1	-41.3	21.3	0.00e+00	92	29	0	248512512	54	5935
2026-01-26 20:00:57.69	40.54	9.85	-40.2	-41.4	21.2	0.00e+00	6	29	0	250609664	54	6005
2026-01-26 20:00:58.70	40.39	9.90	-40.2	-41.3	21.3	0.00e+00	92	29	0	252706816	54	5962
2026-01-26 20:00:59.71	40.24	9.95	-39.9	-41.0	21.6	0.00e+00	0	29	0	254803968	54	5739
2026-01-26 20:01:00.72	40.09	9.99	-39.9	-41.0	21.5	0.00e+00	10	29	0	256901120	54	5753
2026-01-26 20:01:01.72	39.94	10.04	-39.7	-40.8	21.7	0.00e+00	92	29	0	257949696	52	6309
2026-01-26 20:01:02.74	39.79	10.09	-39.9	-41.0	21.6	0.00e+00	10	29	0	260046848	52	6420
2026-01-26 20:01:03.74	39.64	10.14	-39.6	-40.7	21.8	0.00e+00	92	29	0	262144000	52	6201
2026-01-26 20:01:04.75	39.49	10.18	-39.8	-40.9	21.8	0.00e+00	71	29	0	264241152	52	6350
2026-01-26 20:01:05.76	39.33	10.23	-39.6	-40.7	21.9	0.00e+00	92	29	0	266338304	52	6196
2026-01-26 20:01:06.78	39.18	10.28	-39.6	-40.6	22.0	0.00e+00	80	29	0	267386880	52	6155
2026-01-26 20:01:07.79	39.02	10.33	-39.5	-40.5	22.1	0.00e+00	71	29	0	269484032	52	6083
2026-01-26 20:01:08.80	38.87	10.37	-39.3	-40.4	22.2	0.00e+00	92	29	0	271581184	52	5967
2026-01-26 20:01:09.80	38.71	10.42	-39.0	-40.0	22.5	0.00e+00	70	29	0	273678336	52	5755
2026-01-26 20:01:10.81	38.56	10.47	-39.0	-40.0	22.4	0.00e+00	92	29	0	275775488	52	5757
2026-01-26 20:01:11.83	38.40	10.51	-39.2	-40.2	22.4	0.00e+00	0	29	0	276824064	52	5860
2026-01-26 20:01:12.84	38.24	10.56	-39.1	-40.1	22.5	0.00e+00	92	29	0	278921216	52	5778
2026-01-26 20:01:13.84	38.09	10.61	-39.1	-40.1	22.5	0.00e+00	0	29	0	281018368	52	5820
2026-01-26 20:01:14.85	37.93	10.65	-39.1	-40.2	22.4	0.00e+00	0	29	0	283115520	52	5844
2026-01-26 20:01:15.86	37.77	10.70	-39.1	-40.1	22.5	0.00e+00	80	29	0	285212672	52	5788
2026-01-26 20:01:16.87	37.61	10.74	-39.2	-40.2	22.3	0.00e+00	0	29	0	286261248	52	5880
2026-01-26 20:01:17.88	37.45	10.79	-39.4	-40.4	22.1	0.00e+00	92	29	0	288358400	52	6015
2026-01-26 20:01:18.89	37.29	10.84	-39.0	-40.0	22.6	0.00e+00	0	29	0	290455552	52	5729
2026-01-26 20:01:19.90	37.13	10.88	-38.8	-39.8	22.7	0.00e+00	92	29	0	292552704	52	5577
2026-01-26 20:01:20.91	36.97	10.93	-38.7	-39.7	22.7	0.00e+00	9	29	0	294649856	50	6191
2026-01-26 20:01:21.92	36.81	10.97	-38.9	-39.9	22.7	0.00e+00	92	29	0	295698432	50	6321
2026-01-26 20:01:22.93	36.65	11.02	-38.7	-39.6	22.9	0.00e+00	0	29	0	297795584	50	6171
2026-01-26 20:01:23.94	36.48	11.06	-38.8	-39.8	22.8	0.00e+00	11	29	0	299892736	50	6255
2026-01-26 20:01:24.95	36.32	11.11	-38.7	-39.6	22.8	0.00e+00	90	29	0	301989888	50	6166
2026-01-26 20:01:25.96	36.16	11.15	-38.6	-39.5	23.1	0.00e+00	11	29	0	304087040	50	6080
2026-01-26 20:01:26.97	35.99	11.20	-38.5	-39.5	23.0	0.00e+00	90	29	0	305135616	50	6043
2026-01-26 20:01:27.98	35.83	11.24	-38.5	-39.5	23.1	0.00e+00	71	29	0	307232768	50	6040
2026-01-26 20:01:28.99	35.66	11.29	-38.6	-39.5	22.9	0.00e+00	90	29	0	309329920	50	6077
2026-01-26 20:01:29.99	35.50	11.33	-38.5	-39.5	23.0	0.00e+00	9	29	0	311427072	50	6071
2026-01-26 20:01:31.00	35.33	11.37	-38.4	-39.4	23.1	0.00e+00	0	29	0	313524224	50	5980
2026-01-26 20:01:32.01	35.17	11.42	-38.6	-39.5	23.0	0.00e+00	93	29	0	314572800	50	6103
2026-01-26 20:01:33.02	35.00	11.46	-38.6	-39.6	23.0	0.00e+00	0	29	0	316669952	50	6127
2026-01-26 20:01:34.03	34.83	11.51	-38.5	-39.4	23.1	0.00e+00	91	29	0	318767104	50	6001
2026-01-26 20:01:35.04	34.66	11.55	-38.2	-39.2	23.3	0.00e+00	0	29	0	320864256	50	5834
2026-01-26 20:01:36.05	34.50	11.59	-38.1	-39.0	23.4	0.00e+00	92	29	0	322961408	50	5738
2026-01-26 20:01:37.05	34.33	11.63	-38.1	-39.0	22.7	0.00e+00	0	29	0	325058560	50	5747
2026-01-26 20:01:38.06	34.16	11.68	-38.2	-39.1	23.2	0.00e+00	91	29	0	326107136	50	5781
2026-01-26 20:01:39.07	33.99	11.72	-38.3	-39.2	23.3	0.00e+00	90	29	0	328204288	50	5875
2026-01-26 20:01:40.08	33.82	11.76	-38.1	-39.0	23.5	0.00e+00	2	29	0	330301440	50	5701
2026-01-26 20:01:41.09	33.65	11.81	-38.1	-39.0	23.5	0.00e+00	92	29	0	332398592	50	5739
2026-01-26 20:01:42.10	33.47	11.85	-38.1	-39.1	23.3	0.00e+00	0	29	0	334495744	50	5767
2026-01-26 20:01:43.11	33.30	11.89	-38.1	-39.1	23.3	0.00e+00	32	29	0	335544320	50	5771
2026-01-26 20:01:44.12	33.13	11.93	-38.2	-39.1	23.3	0.00e+00	2	29	0	337641472	50	5775
2026-01-26 20:01:45.13	32.96	11.97	-38.3	-39.2	23.3	0.00e+00	12	29	0	339738624	50	5863
2026-01-26 20:01:46.14	32.78	12.02	-38.2	-39.2	23.3	0.00e+00	0	29	0	341835776	50	5834
2026-01-26 20:01:47.15	32.61	12.06	-38.3	-39.2	23.3	0.00e+00	0	29	0	342884352	50	5892
2026-01-26 20:01:48.15	32.44	12.10	-38.4	-39.4	23.2	0.00e+00	90	29	0	344981504	50	5987
2026-01-26 20:01:49.17	32.26	12.14	-38.5	-39.4	23.1	0.00e+00	11	29	0	347078656	50	6002
2026-01-26 20:01:50.18	32.08	12.18	-38.5	-39.4	23.1	0.00e+00	90	29	0	349175808	50	6005
2026-01-26 20:01:51.18	31.91	12.22	-38.5	-39.5	23.1	0.00e+00	11	29	0	351272960	50	6034
2026-01-26 20:01:52.20	31.73	12.26	-38.5	-39.5	22.9	0.00e+00	11	29	0	353370112	50	6048
2026-01-26 20:01:53.21	31.55	12.30	-38.5	-39.4	22.8	0.00e+00	0	29	0	354418688	50	6022
2026-01-26 20:01:54.22	31.38	12.34	-38.5	-39.4	23.0	0.00e+00	0	29	0	356515840	50	6027
2026-01-26 20:01:55.23	31.20	12.38	-38.6	-39.6	23.0	0.00e+00	92	29	0	358612992	50	6118
2026-01-26 20:01:56.24	31.02	12.42	-38.5	-39.5	23.1	0.00e+00	0	29	0	360710144	50	6043
2026-01-26 20:01:57.24	30.84	12.46	-38.6	-39.6	22.9	0.00e+00	90	29	0	362807296	50	6146
2026-01-26 20:01:58.25	30.66	12.50	-38.6	-39.6	23.0	0.00e+00	0	29	0	363855872	50	6140
2026-01-26 20:01:59.26	30.48	12.54	-38.8	-39.7	22.9	0.00e+00	2	29	0	365953024	50	6243
2026-01-26 20:02:00.27	30.30	12.57	-38.9	-39.9	22.8	0.00e+00	0	29	0	368050176	50	6350
2026-01-26 20:02:01.28	30.12	12.61	-38.8	-39.8	22.8	0.00e+00	0	29	0	370147328	50	6300
2026-01-26 20:02:02.29	29.94	12.65	-38.8	-39.8	22.8	0.00e+00	6	29	0	372244480	50	6280
2026-01-26 20:02:03.30	29.76	12.69	-38.6	-39.6	23.0	0.00e+00	0	29	0	373293056	50	6108
2026-01-26 20:02:04.31	29.57	12.73	-38.6	-39.6	23.0	0.00e+00	91	29	0	375390208	50	6121
2026-01-26 20:02:05.32	29.39	12.76	-38.5	-39.4	23.2	0.00e+00	0	29	0	377487360	50	6001
2026-01-26 20:02:06.33	29.21	12.80	-38.5	-39.5	23.0	0.00e+00	73	29	0	379584512	50	6065
2026-01-26 20:02:07.34	29.02	12.84	-38.3	-39.2	23.2	0.00e+00	0	29	0	381681664	50	5892
2026-01-26 20:02:08.35	28.84	12.88	-38.4	-39.3	23.2	0.00e+00	10	29	0	382730240	50	5936
2026-01-26 20:02:09.36	28.66	12.91	-38.8	-39.8	22.7	0.00e+00	2	29	0	384827392	50	6251
2026-01-26 20:02:10.37	28.47	12.95	-38.7	-39.6	23.0	0.00e+00	0	29	0	386924544	50	6171
2026-01-26 20:02:11.38	28.28	12.99	-38.8	-39.8	22.8	0.00e+00	92	29	0	389021696	50	6246
2026-01-26 20:02:12.39	28.10	13.02	-38.9	-39.9	22.8	0.00e+00	10	29	0	391118848	50	6326
2026-01-26 20:02:13.40	27.91	13.06	-39.1	-40.2	22.5	0.00e+00	92	29	0	392167424	50	6550
2026-01-26 20:02:14.40	27.73	13.09	-38.8	-39.8	22.9	0.00e+00	0	29	0	394264576	50	6271
2026-01-26 20:02:15.41	27.54	13.13	-38.5	-39.4	23.2	0.00e+00	0	29	0	396361728	50	5996
2026-01-26 20:02:16.42	27.35	13.16	-38.6	-39.6	23.0	0.00e+00	71	29	0	398458880	50	6131
2026-01-26 20:02:17.43	27.16	13.20	-38.6	-39.6	23.0	0.00e+00	6	29	0	400556032	50	6126
2026-01-26 20:02:18.44	26.97	13.23	-38.3	-39.2	23.4	0.00e+00	90	29	0	401604608	50	5844
2026-01-26 20:02:19.45	26.78	13.26	-38.2	-39.1	23.5	0.00e+00	0	29	0	403701760	50	5763
2026-01-26 20:02:20.46	26.60	13.30	-38.1	-39.1	23.5	0.00e+00	90	29	0	405798912	50	5764
2026-01-26 20:02:21.47	26.41	13.33	-38.2	-39.1	22.8	0.00e+00	0	29	0	407896064	50	5828
2026-01-26 20:02:22.48	26.21	13.37	-38.3	-39.2	22.9	0.00e+00	5	29	0	409993216	50	5884
2026-01-26 20:02:23.49	26.02	13.40	-38.3	-39.3	23.3	0.00e+00	6	29	0	411041792	50	5907
2026-01-26 20:02:24.50	25.83	13.43	-38.5	-39.4	23.2	0.00e+00	11	29	0	413138944	50	6010
2026-01-26 20:02:25.51	25.64	13.46	-38.4	-39.4	23.2	0.00e+00	75	29	0	415236096	50	5975
2026-01-26 20:02:26.52	25.45	13.50	-38.3	-39.2	23.3	0.00e+00	7	29	0	417333248	50	5888
2026-01-26 20:02:27.53	25.26	13.53	-38.1	-39.1	23.5	0.00e+00	90	29	0	419430400	50	5764
2026-01-26 20:02:28.54	25.06	13.56	-38.2	-39.1	23.4	0.00e+00	10	29	0	421527552	50	5792
2026-01-26 20:02:29.55	24.87	13.59	-38.2	-39.2	23.4	0.00e+00	90	29	0	422576128	50	5852
2026-01-26 20:02:30.56	24.67	13.62	-38.3	-39.2	23.3	0.00e+00	9	29	0	424673280	50	5881
2026-01-26 20:02:31.57	24.48	13.65	-38.2	-39.1	23.5	0.00e+00	84	29	0	426770432	50	5814
2026-01-26 20:02:32.58	24.29	13.68	-38.2	-39.1	23.5	0.00e+00	0	29	0	428867584	50	5799
2026-01-26 20:02:33.59	24.09	13.71	-38.0	-38.9	23.7	0.00e+00	0	29	0	430964736	50	5660
2026-01-26 20:02:34.60	23.89	13.74	-38.1	-39.0	23.5	0.00e+00	92	29	0	432013312	50	5726
2026-01-26 20:02:35.61	23.70	13.77	-38.1	-39.0	23.4	0.00e+00	78	29	0	434110464	50	5727
2026-01-26 20:02:36.62	23.50	13.80	-38.3	-39.2	23.3	0.00e+00	92	29	0	436207616	50	5849
2026-01-26 20:02:37.63	23.31	13.83	-38.2	-39.1	23.4	0.00e+00	0	29	0	438304768	50	5811
2026-01-26 20:02:38.64	23.11	13.86	-38.3	-39.2	23.4	0.00e+00	77	29	0	440401920	50	5857
2026-01-26 20:02:39.65	22.91	13.89	-38.0	-38.9	23.6	0.00e+00	0	29	0	441450496	50	5668
2026-01-26 20:02:40.66	22.71	13.92	-38.0	-38.9	23.7	0.00e+00	0	29	0	443547648	50	5670
2026-01-26 20:02:41.67	22.51	13.94	-38.1	-39.0	23.6	0.00e+00	81	29	0	445644800	50	5737
2026-01-26 20:02:42.67	22.32	13.97	-38.2	-39.1	23.5	0.00e+00	0	29	0	447741952	50	5782
2026-01-26 20:02:43.68	22.12	14.00	-38.3	-39.2	23.3	0.00e+00	92	29	0	449839104	50	5884
2026-01-26 20:02:44.69	21.92	14.03	-38.3	-39.3	23.4	0.00e+00	7	29	0	450887680	50	5904
2026-01-26 20:02:45.70	21.72	14.05	-38.1	-39.0	23.6	0.00e+00	10	29	0	452984832	50	5722
2026-01-26 20:02:46.71	21.52	14.08	-38.2	-39.1	23.5	0.00e+00	10	29	0	455081984	50	5778
2026-01-26 20:02:47.72	21.32	14.10	-38.2	-39.2	23.4	0.00e+00	11	29	0	457179136	50	5834
2026-01-26 20:02:48.73	21.12	14.13	-38.4	-39.3	23.3	0.00e+00	0	29	0	459276288	50	5939
2026-01-26 20:02:49.74	20.92	14.15	-38.4	-39.4	23.2	0.00e+00	10	29	0	460324864	50	5967
2026-01-26 20:02:50.75	20.72	14.18	-38.5	-39.4	23.2	0.00e+00	92	29	0	462422016	50	6003
2026-01-26 20:02:51.76	20.51	14.20	-38.5	-39.5	23.2	0.00e+00	70	29	0	464519168	50	6034
2026-01-26 20:02:52.77	20.31	14.23	-38.3	-39.2	23.4	0.00e+00	92	29	0	466616320	50	5895
2026-01-26 20:02:53.78	20.11	14.25	-38.4	-39.3	23.3	0.00e+00	11	29	0	468713472	50	5952
2026-01-26 20:02:54.79	19.91	14.28	-38.5	-39.4	23.2	0.00e+00	10	29	0	469762048	50	5985
2026-01-26 20:02:55.80	19.70	14.30	-38.6	-39.6	23.1	0.00e+00	69	29	0	471859200	50	6120
2026-01-26 20:02:56.81	19.50	14.32	-38.8	-39.8	22.9	0.00e+00	0	29	0	473956352	50	6259
2026-01-26 20:02:57.82	19.30	14.34	-38.9	-39.8	22.8	0.00e+00	92	29	0	476053504	50	6305
2026-01-26 20:02:58.83	19.09	14.37	-38.9	-39.9	22.8	0.00e+00	72	29	0	478150656	50	6329
2026-01-26 20:02:59.84	18.89	14.39	-38.8	-39.8	22.9	0.00e+00	92	29	0	479199232	50	6250
2026-01-26 20:03:00.85	18.68	14.41	-38.8	-39.7	22.9	0.00e+00	0	29	0	481296384	50	6223
2026-01-26 20:03:01.86	18.48	14.43	-38.9	-39.9	22.8	0.00e+00	0	29	0	483393536	50	6332
2026-01-26 20:03:02.87	18.27	14.45	-39.1	-40.1	22.6	0.00e+00	0	29	0	485490688	50	6517
2026-01-26 20:03:03.87	18.07	14.47	-39.1	-40.1	22.6	0.00e+00	2	29	0	487587840	50	6496
2026-01-26 20:03:04.88	17.86	14.49	-39.1	-40.1	22.5	0.00e+00	92	29	0	489684992	50	6522
2026-01-26 20:03:05.89	17.66	14.51	-39.0	-40.0	22.7	0.00e+00	0	29	0	490733568	50	6400
2026-01-26 20:03:06.91	17.45	14.53	-39.2	-40.2	22.5	0.00e+00	92	29	0	492830720	50	6573
2026-01-26 20:03:07.92	17.24	14.55	-39.2	-40.2	22.5	0.00e+00	2	29	0	494927872	50	6569
2026-01-26 20:03:08.93	17.03	14.57	-39.1	-40.1	22.6	0.00e+00	11	29	0	497025024	50	6533
2026-01-26 20:03:09.93	16.83	14.59	-38.9	-39.9	22.8	0.00e+00	0	29	0	499122176	50	6336
2026-01-26 20:03:10.94	16.62	14.61	-38.8	-39.8	22.8	0.00e+00	2	29	0	500170752	50	6286
2026-01-26 20:03:11.95	16.41	14.62	-38.7	-39.7	23.0	0.00e+00	10	29	0	502267904	50	6192
2026-01-26 20:03:12.96	16.20	14.64	-38.7	-39.6	23.0	0.00e+00	70	29	0	504365056	50	6146
2026-01-26 20:03:13.97	16.00	14.66	-38.5	-39.4	23.2	0.00e+00	92	29	0	506462208	50	6010
2026-01-26 20:03:14.98	15.79	14.67	-38.4	-39.3	23.4	0.00e+00	0	29	0	508559360	50	5923
2026-01-26 20:03:15.99	15.58	14.69	-38.3	-39.2	23.4	0.00e+00	92	29	0	509607936	50	5874
2026-01-26 20:03:17.00	15.37	14.71	-38.2	-39.1	23.4	0.00e+00	72	29	0	511705088	50	5818
2026-01-26 20:03:18.01	15.16	14.72	-38.6	-39.5	23.3	0.00e+00	70	29	0	513802240	50	6055
2026-01-26 20:03:19.02	14.95	14.74	-38.7	-39.6	23.1	0.00e+00	81	29	0	515899392	50	6155
2026-01-26 20:03:20.03	14.74	14.75	-38.8	-39.8	23.0	0.00e+00	0	29	0	517996544	50	6256
2026-01-26 20:03:21.04	14.53	14.77	-38.6	-39.5	23.2	0.00e+00	92	29	0	519045120	50	6049
2026-01-26 20:03:22.05	14.32	14.78	-38.5	-39.4	23.2	0.00e+00	72	29	0	521142272	50	6008
2026-01-26 20:03:23.05	14.11	14.79	-38.5	-39.5	23.2	0.00e+00	79	29	0	523239424	50	6049
2026-01-26 20:03:24.06	13.90	14.81	-38.7	-39.7	23.1	0.00e+00	0	29	0	525336576	50	6176
2026-01-26 20:03:25.07	13.69	14.82	-38.8	-39.8	22.7	0.00e+00	0	29	0	527433728	50	6292
2026-01-26 20:03:26.09	13.48	14.83	-39.3	-40.4	22.2	0.00e+00	0	29	0	528482304	50	6704
2026-01-26 20:03:27.10	13.27	14.84	-40.0	-41.1	22.3	0.00e+00	2	29	0	530579456	50	7282
2026-01-26 20:03:28.11	13.06	14.86	-39.2	-40.2	22.6	0.00e+00	92	29	0	532676608	52	5868
2026-01-26 20:03:29.12	12.85	14.87	-38.6	-39.5	23.1	0.00e+00	0	29	0	534773760	50	6093
2026-01-26 20:03:30.13	12.64	14.88	-38.8	-39.8	23.0	0.00e+00	92	29	0	536870912	50	6256
2026-01-26 20:03:31.14	12.42	14.89	-38.5	-39.4	23.3	0.00e+00	2	29	0	537919488	50	6029
2026-01-26 20:03:32.15	12.21	14.90	-38.6	-39.6	23.1	0.00e+00	11	29	0	540016640	50	6124
2026-01-26 20:03:33.15	12.00	14.91	-38.7	-39.6	23.1	0.00e+00	69	29	0	542113792	50	6157
2026-01-26 20:03:34.16	11.79	14.92	-38.8	-39.8	23.1	0.00e+00	71	29	0	544210944	50	6275
2026-01-26 20:03:35.17	11.58	14.93	-38.9	-39.8	23.0	0.00e+00	2	29	0	546308096	50	6316
2026-01-26 20:03:36.18	11.37	14.93	-38.6	-39.5	23.1	0.00e+00	11	29	0	547356672	50	6093
2026-01-26 20:03:37.19	11.15	14.94	-38.6	-39.5	23.1	0.00e+00	92	29	0	549453824	50	6068
2026-01-26 20:03:38.20	10.94	14.95	-38.7	-39.7	23.0	0.00e+00	0	29	0	551550976	50	6187
2026-01-26 20:03:39.21	10.73	14.96	-38.6	-39.5	23.2	0.00e+00	0	29	0	553648128	50	6068
2026-01-26 20:03:40.22	10.52	14.96	-38.7	-39.6	23.1	0.00e+00	0	29	0	555745280	50	6153
2026-01-26 20:03:41.23	10.30	14.97	-38.9	-39.8	22.9	0.00e+00	71	29	0	557842432	50	6300
2026-01-26 20:03:42.24	10.09	14.98	-38.9	-39.9	22.9	0.00e+00	69	29	0	558891008	50	6322
2026-01-26 20:03:43.25	9.88	14.98	-38.7	-39.6	23.1	0.00e+00	72	29	0	560988160	50	6145
2026-01-26 20:03:44.26	9.67	14.99	-38.8	-39.7	23.0	0.00e+00	92	29	0	563085312	50	6243
2026-01-26 20:03:45.27	9.45	14.99	-38.8	-39.7	23.0	0.00e+00	0	29	0	565182464	50	6236
2026-01-26 20:03:46.28	9.24	15.00	-38.5	-39.4	23.2	0.00e+00	92	29	0	567279616	50	6031
2026-01-26 20:03:47.29	9.03	15.00	-38.6	-39.6	23.2	0.00e+00	0	29	0	568328192	50	6132
2026-01-26 20:03:48.30	8.81	15.01	-38.5	-39.4	23.3	0.00e+00	0	29	0	570425344	50	6000
2026-01-26 20:03:49.31	8.60	15.01	-38.5	-39.5	23.2	0.00e+00	0	29	0	572522496	50	6048
2026-01-26 20:03:50.32	8.39	15.01	-38.6	-39.5	23.1	0.00e+00	0	29	0	574619648	50	6083
2026-01-26 20:03:51.32	8.17	15.01	-38.7	-39.6	23.0	0.00e+00	92	29	0	576716800	50	6144
2026-01-26 20:03:52.33	7.96	15.02	-38.7	-39.7	23.0	0.00e+00	10	29	0	577765376	50	6180
2026-01-26 20:03:53.35	7.75	15.02	-38.6	-39.6	23.0	0.00e+00	90	29	0	579862528	50	6129
2026-01-26 20:03:54.35	7.53	15.02	-38.6	-39.5	23.2	0.00e+00	2	29	0	581959680	50	6066
2026-01-26 20:03:55.36	7.32	15.02	-38.7	-39.6	23.1	0.00e+00	0	29	0	584056832	50	6142
2026-01-26 20:03:56.37	7.11	15.02	-38.4	-39.4	23.3	0.00e+00	78	29	0	586153984	50	5968
2026-01-26 20:03:57.38	6.89	15.02	-38.5	-39.4	23.3	0.00e+00	0	29	0	587202560	50	5994
2026-01-26 20:03:58.39	6.68	15.02	-38.6	-39.5	23.2	0.00e+00	2	29	0	589299712	50	6087
2026-01-26 20:03:59.40	6.47	15.02	-38.5	-39.4	23.3	0.00e+00	78	29	0	591396864	50	5989
2026-01-26 20:04:00.41	6.25	15.02	-38.4	-39.3	23.3	0.00e+00	92	29	0	593494016	50	5957
2026-01-26 20:04:01.42	6.04	15.02	-38.4	-39.3	22.8	0.00e+00	78	29	0	595591168	50	5938
2026-01-26 20:04:02.43	5.83	15.02	-38.3	-39.2	23.3	0.00e+00	3	29	0	596639744	50	5875
2026-01-26 20:04:03.44	5.61	15.01	-38.3	-39.2	23.4	0.00e+00	0	29	0	598736896	50	5856
2026-01-26 20:04:04.45	5.40	15.01	-38.3	-39.2	23.3	0.00e+00	71	29	0	600834048	50	5867
2026-01-26 20:04:05.46	5.19	15.01	-38.3	-39.2	23.4	0.00e+00	2	29	0	602931200	50	5846
2026-01-26 20:04:06.47	4.97	15.00	-38.4	-39.4	23.2	0.00e+00	0	29	0	605028352	50	5975
2026-01-26 20:04:07.48	4.76	15.00	-38.5	-39.5	23.2	0.00e+00	90	29	0	606076928	50	6044
2026-01-26 20:04:08.49	4.55	15.00	-38.8	-39.7	23.0	0.00e+00	6	29	0	608174080	50	6214
2026-01-26 20:04:09.50	4.33	14.99	-38.8	-39.8	22.9	0.00e+00	90	29	0	610271232	50	6259
2026-01-26 20:04:10.51	4.12	14.99	-38.9	-39.9	22.8	0.00e+00	6	29	0	612368384	50	6352
2026-01-26 20:04:11.51	3.91	14.98	-38.9	-39.9	22.8	0.00e+00	8	29	0	614465536	50	6336
2026-01-26 20:04:12.53	3.69	14.98	-39.1	-40.1	22.7	0.00e+00	6	29	0	615514112	50	6472
2026-01-26 20:04:13.54	3.48	14.97	-39.0	-39.9	22.7	0.00e+00	6	29	0	617611264	50	6381
2026-01-26 20:04:14.54	3.27	14.96	-38.9	-39.9	22.8	0.00e+00	79	29	0	619708416	50	6371
2026-01-26 20:04:15.56	3.06	14.96	-38.8	-39.8	22.9	0.00e+00	78	29	0	621805568	50	6291
2026-01-26 20:04:16.56	2.85	14.95	-38.9	-39.9	22.8	0.00e+00	90	29	0	623902720	50	6373
2026-01-26 20:04:17.57	2.63	14.94	-38.8	-39.8	22.9	0.00e+00	5	29	0	625999872	50	6276
2026-01-26 20:04:18.58	2.42	14.93	-38.9	-39.9	22.9	0.00e+00	76	29	0	627048448	50	6346
2026-01-26 20:04:19.58	2.21	14.92	-38.9	-39.9	22.9	0.00e+00	77	29	0	629145600	50	6343
2026-01-26 20:04:20.59	2.00	14.91	-38.9	-39.9	22.9	0.00e+00	77	29	0	631242752	50	6336
2026-01-26 20:04:21.60	1.79	14.91	-38.9	-39.9	22.8	0.00e+00	0	29	0	633339904	50	6333
2026-01-26 20:04:22.61	1.58	14.90	-39.2	-40.3	22.5	0.00e+00	0	29	0	635437056	50	6633
2026-01-26 20:04:23.62	1.36	14.89	-39.0	-40.0	22.7	0.00e+00	92	30	0	636485632	50	6455
2026-01-26 20:04:24.63	1.15	14.88	-39.1	-40.1	22.6	0.00e+00	75	29	0	638582784	50	6483
2026-01-26 20:04:25.64	0.94	14.86	-39.1	-40.2	22.6	0.00e+00	92	29	0	640679936	50	6542
2026-01-26 20:04:26.65	0.73	14.85	-39.6	-40.6	22.2	0.00e+00	80	29	0	642777088	50	6897
2026-01-26 20:04:27.66	0.52	14.84	-39.7	-40.8	22.1	0.00e+00	6	29	0	644874240	50	7009
2026-01-26 20:04:28.67	0.31	14.83	-39.7	-40.7	22.0	0.00e+00	0	29	0	645922816	52	6227
2026-01-26 20:04:29.67	0.10	14.82	-40.1	-41.3	21.6	0.00e+00	6	29	0	648019968	52	6623
2026-01-26 20:04:30.68	359.89	14.80	-40.2	-41.3	21.6	0.00e+00	92	29	0	650117120	52	6665
2026-01-26 20:04:31.69	359.68	14.79	-39.4	-40.5	22.3	0.00e+00	0	29	0	652214272	52	6039
2026-01-26 20:04:32.70	359.47	14.78	-38.9	-39.9	22.9	0.00e+00	92	29	0	654311424	52	5643
2026-01-26 20:04:33.71	359.26	14.76	-38.8	-39.8	22.8	0.00e+00	7	29	0	655360000	50	6279
2026-01-26 20:04:34.72	359.05	14.75	-38.7	-39.6	23.0	0.00e+00	6	29	0	657457152	50	6169
2026-01-26 20:04:35.73	358.84	14.73	-38.5	-39.5	23.1	0.00e+00	6	29	0	659554304	50	6064
2026-01-26 20:04:36.74	358.63	14.72	-38.6	-39.6	23.1	0.00e+00	11	29	0	661651456	50	6121
2026-01-26 20:04:37.75	358.42	14.70	-38.6	-39.5	23.1	0.00e+00	0	29	0	663748608	50	6084
2026-01-26 20:04:38.76	358.21	14.69	-38.4	-39.3	23.3	0.00e+00	10	29	0	664797184	50	5955
2026-01-26 20:04:39.77	358.00	14.67	-38.5	-39.4	23.1	0.00e+00	92	29	0	666894336	50	6009
2026-01-26 20:04:40.77	357.80	14.66	-38.5	-39.5	23.2	0.00e+00	11	29	0	668991488	50	6049
2026-01-26 20:04:41.78	357.59	14.64	-38.4	-39.3	23.4	0.00e+00	71	30	0	671088640	50	5916
2026-01-26 20:04:42.80	357.38	14.62	-38.5	-39.4	23.2	0.00e+00	72	29	0	673185792	50	6001
2026-01-26 20:04:43.81	357.17	14.60	-38.4	-39.3	23.4	0.00e+00	0	29	0	674234368	50	5930
2026-01-26 20:04:44.82	356.96	14.59	-38.2	-39.1	23.5	0.00e+00	78	29	0	676331520	50	5800
2026-01-26 20:04:45.83	356.76	14.57	-38.3	-39.2	23.4	0.00e+00	0	30	0	678428672	50	5870
2026-01-26 20:04:46.84	356.55	14.55	-38.2	-39.1	23.4	0.00e+00	92	29	0	680525824	50	5814
2026-01-26 20:04:47.85	356.34	14.53	-38.3	-39.2	23.3	0.00e+00	0	29	0	682622976	50	5871
2026-01-26 20:04:48.86	356.14	14.51	-38.4	-39.3	23.2	0.00e+00	92	29	0	683671552	50	5960
2026-01-26 20:04:49.87	355.93	14.49	-38.3	-39.1	23.3	0.00e+00	0	29	0	685768704	50	5828
2026-01-26 20:04:50.88	355.73	14.47	-38.3	-39.2	23.3	0.00e+00	0	29	0	687865856	50	5844
2026-01-26 20:04:51.89	355.52	14.45	-38.4	-39.3	23.3	0.00e+00	0	29	0	689963008	50	5916
2026-01-26 20:04:52.90	355.31	14.43	-38.3	-39.2	23.4	0.00e+00	0	30	0	692060160	50	5839
2026-01-26 20:04:53.91	355.11	14.41	-38.2	-39.1	23.5	0.00e+00	90	29	0	693108736	50	5800
2026-01-26 20:04:54.91	354.91	14.39	-38.3	-39.2	23.2	0.00e+00	0	29	0	695205888	50	5895
2026-01-26 20:04:55.92	354.70	14.36	-38.5	-39.4	23.2	0.00e+00	90	30	0	697303040	50	5997
2026-01-26 20:04:56.93	354.50	14.34	-38.6	-39.5	23.2	0.00e+00	0	29	0	699400192	50	6067
2026-01-26 20:04:57.94	354.30	14.32	-38.7	-39.6	23.0	0.00e+00	4	30	0	701497344	50	6135
2026-01-26 20:04:58.95	354.09	14.30	-38.7	-39.6	23.1	0.00e+00	3	29	0	703594496	50	6127
2026-01-26 20:04:59.96	353.89	14.27	-38.5	-39.5	23.2	0.00e+00	4	29	0	704643072	50	6037
2026-01-26 20:05:00.97	353.69	14.25	-38.7	-39.6	23.0	0.00e+00	91	29	0	706740224	50	6166
2026-01-26 20:05:01.98	353.48	14.22	-38.6	-39.5	23.2	0.00e+00	4	30	0	708837376	50	6084
2026-01-26 20:05:02.99	353.28	14.20	-38.6	-39.6	23.1	0.00e+00	92	30	0	710934528	50	6128
2026-01-26 20:05:04.00	353.08	14.18	-38.8	-39.7	23.0	0.00e+00	4	30	0	711983104	50	6206
2026-01-26 20:05:05.01	352.88	14.15	-38.7	-39.6	23.1	0.00e+00	91	29	0	714080256	50	6163
2026-01-26 20:05:06.01	352.68	14.13	-38.5	-39.4	23.2	0.00e+00	0	30	0	716177408	50	6026
2026-01-26 20:05:07.03	352.48	14.10	-38.5	-39.4	23.3	0.00e+00	0	29	0	718274560	50	5986
2026-01-26 20:05:08.04	352.28	14.07	-38.6	-39.5	23.2	0.00e+00	81	29	0	720371712	50	6090
2026-01-26 20:05:09.04	352.08	14.05	-38.7	-39.6	23.0	0.00e+00	0	30	0	722468864	50	6157
2026-01-26 20:05:10.05	351.88	14.02	-38.9	-39.8	22.9	0.00e+00	91	30	0	723517440	50	6296
2026-01-26 20:05:11.06	351.68	13.99	-38.7	-39.7	23.1	0.00e+00	0	30	0	725614592	50	6186
2026-01-26 20:05:12.07	351.48	13.97	-38.8	-39.8	23.0	0.00e+00	92	30	0	727711744	50	6249
2026-01-26 20:05:13.08	351.28	13.94	-38.9	-39.8	22.9	0.00e+00	0	30	0	729808896	50	6300
2026-01-26 20:05:14.09	351.08	13.91	-39.2	-40.2	22.7	0.00e+00	0	30	0	731906048	50	6559
2026-01-26 20:05:15.10	350.89	13.88	-38.7	-39.6	23.0	0.00e+00	0	30	0	732954624	50	6151
2026-01-26 20:05:16.11	350.69	13.86	-38.8	-39.7	22.9	0.00e+00	10	29	0	735051776	50	6240
2026-01-26 20:05:17.12	350.49	13.83	-38.8	-39.8	22.9	0.00e+00	91	30	0	737148928	50	6246
2026-01-26 20:05:18.12	350.30	13.80	-38.7	-39.7	22.9	0.00e+00	9	30	0	739246080	50	6212
2026-01-26 20:05:19.14	350.10	13.77	-38.8	-39.8	22.8	0.00e+00	92	29	0	741343232	50	6268
2026-01-26 20:05:20.15	349.90	13.74	-38.7	-39.7	23.0	0.00e+00	0	29	0	742391808	50	6217
2026-01-26 20:05:21.15	349.71	13.71	-38.9	-39.8	22.9	0.00e+00	71	30	0	744488960	50	6304
2026-01-26 20:05:22.16	349.52	13.68	-38.7	-39.6	23.1	0.00e+00	0	30	0	746586112	50	6140
2026-01-26 20:05:23.17	349.32	13.65	-38.6	-39.6	23.1	0.00e+00	0	30	0	748683264	50	6123
2026-01-26 20:05:24.18	349.13	13.62	-38.5	-39.5	23.1	0.00e+00	9	30	0	750780416	50	6052
2026-01-26 20:05:25.19	348.93	13.59	-38.4	-39.3	23.3	0.00e+00	9	30	0	751828992	50	5915
2026-01-26 20:05:26.20	348.74	13.55	-38.4	-39.3	23.3	0.00e+00	90	30	0	753926144	50	5963
2026-01-26 20:05:27.21	348.55	13.52	-38.3	-39.2	23.4	0.00e+00	78	30	0	756023296	50	5844
2026-01-26 20:05:28.22	348.35	13.49	-38.4	-39.4	23.3	0.00e+00	92	30	0	758120448	50	5970
2026-01-26 20:05:29.23	348.16	13.46	-38.4	-39.3	23.1	0.00e+00	0	30	0	760217600	50	5936
2026-01-26 20:05:30.24	347.97	13.43	-38.4	-39.4	23.2	0.00e+00	0	30	0	761266176	50	5990
2026-01-26 20:05:31.25	347.78	13.39	-38.4	-39.3	23.2	0.00e+00	0	30	0	763363328	50	5930
2026-01-26 20:05:32.26	347.59	13.36	-38.5	-39.4	23.0	0.00e+00	0	30	0	765460480	50	6016
2026-01-26 20:05:33.27	347.40	13.33	-38.5	-39.4	23.2	0.00e+00	92	30	0	767557632	50	6004
2026-01-26 20:05:34.28	347.21	13.29	-38.5	-39.4	23.1	0.00e+00	0	30	0	769654784	50	6001
2026-01-26 20:05:35.29	347.02	13.26	-38.3	-39.2	23.3	0.00e+00	92	30	0	770703360	50	5876
2026-01-26 20:05:36.30	346.83	13.23	-38.4	-39.4	23.2	0.00e+00	0	30	0	772800512	50	5965
2026-01-26 20:05:37.31	346.64	13.19	-38.2	-39.2	23.4	0.00e+00	8	30	0	774897664	50	5834
2026-01-26 20:05:38.32	346.45	13.16	-38.4	-39.4	23.3	0.00e+00	0	30	0	776994816	50	5968
2026-01-26 20:05:39.33	346.26	13.12	-38.4	-39.3	23.3	0.00e+00	0	30	0	779091968	50	5963
2026-01-26 20:05:40.34	346.08	13.09	-38.4	-39.4	23.1	0.00e+00	91	29	0	780140544	50	6006
2026-01-26 20:05:41.35	345.89	13.05	-38.6	-39.5	23.0	0.00e+00	8	29	0	782237696	50	6090
2026-01-26 20:05:42.36	345.70	13.02	-38.8	-39.7	22.9	0.00e+00	92	30	0	784334848	50	6245
2026-01-26 20:05:43.37	345.52	12.98	-38.8	-39.8	22.5	0.00e+00	73	30	0	786432000	50	6280
2026-01-26 20:05:44.37	345.33	12.94	-38.5	-39.5	23.1	0.00e+00	8	30	0	788529152	50	6038
2026-01-26 20:05:45.38	345.15	12.91	-38.4	-39.3	23.2	0.00e+00	7	30	0	789577728	50	5959
2026-01-26 20:05:46.39	344.97	12.87	-38.4	-39.3	23.2	0.00e+00	0	30	0	791674880	50	5928
2026-01-26 20:05:47.40	344.78	12.83	-38.4	-39.3	23.2	0.00e+00	0	30	0	793772032	50	5935
2026-01-26 20:05:48.41	344.60	12.80	-38.3	-39.2	23.4	0.00e+00	0	29	0	795869184	50	5853
2026-01-26 20:05:49.42	344.41	12.76	-38.3	-39.3	23.3	0.00e+00	92	30	0	797966336	50	5907
2026-01-26 20:05:50.43	344.23	12.72	-38.4	-39.3	23.3	0.00e+00	0	30	0	800063488	50	5940
2026-01-26 20:05:51.44	344.05	12.68	-38.4	-39.3	23.3	0.00e+00	42	30	0	801112064	50	5926
2026-01-26 20:05:52.45	343.87	12.65	-38.4	-39.3	23.3	0.00e+00	72	30	0	803209216	50	5948
2026-01-26 20:05:53.46	343.69	12.61	-38.5	-39.4	23.2	0.00e+00	0	30	0	805306368	50	6011
2026-01-26 20:05:54.47	343.51	12.57	-38.4	-39.4	23.3	0.00e+00	0	30	0	807403520	50	5971
2026-01-26 20:05:55.48	343.33	12.53	-38.3	-39.2	23.4	0.00e+00	0	30	0	809500672	50	5871
2026-01-26 20:05:56.49	343.15	12.49	-38.3	-39.3	23.3	0.00e+00	92	30	0	810549248	50	5899
2026-01-26 20:05:57.49	342.97	12.45	-38.4	-39.4	23.3	0.00e+00	0	30	0	812646400	50	5966
2026-01-26 20:05:58.50	342.79	12.41	-38.3	-39.3	23.4	0.00e+00	92	30	0	814743552	50	5902
2026-01-26 20:05:59.51	342.61	12.37	-38.4	-39.3	23.3	0.00e+00	0	30	0	816840704	50	5903
2026-01-26 20:06:00.52	342.43	12.33	-38.5	-39.4	23.2	0.00e+00	6	30	0	818937856	50	6011
2026-01-26 20:06:01.53	342.26	12.29	-38.5	-39.5	23.2	0.00e+00	4	30	0	819986432	50	6037
2026-01-26 20:06:02.54	342.08	12.25	-38.6	-39.6	23.1	0.00e+00	2	30	0	822083584	50	6111
2026-01-26 20:06:03.55	341.90	12.21	-38.8	-39.8	22.8	0.00e+00	92	30	0	824180736	50	6271
2026-01-26 20:06:04.56	341.73	12.17	-39.1	-40.1	22.6	0.00e+00	79	30	0	826277888	50	6498
2026-01-26 20:06:05.57	341.55	12.13	-39.1	-40.1	22.5	0.00e+00	90	30	0	828375040	50	6492
2026-01-26 20:06:06.58	341.38	12.09	-39.2	-40.2	22.4	0.00e+00	7	30	0	829423616	50	6565
2026-01-26 20:06:07.59	341.20	12.05	-39.3	-40.3	22.4	0.00e+00	78	30	0	831520768	50	6625
2026-01-26 20:06:08.60	341.03	12.01	-39.4	-40.5	22.2	0.00e+00	78	30	0	833617920	50	6779
2026-01-26 20:06:09.61	340.85	11.97	-39.4	-40.4	22.2	0.00e+00	0	30	0	835715072	50	6763
2026-01-26 20:06:10.62	340.68	11.93	-39.4	-40.5	22.2	0.00e+00	67	30	0	837812224	50	6777
2026-01-26 20:06:11.63	340.51	11.88	-39.4	-40.4	22.2	0.00e+00	0	30	0	838860800	50	6769
2026-01-26 20:06:12.64	340.34	11.84	-39.4	-40.5	22.2	0.00e+00	92	30	0	840957952	50	6803
2026-01-26 20:06:13.65	340.17	11.80	-39.5	-40.6	22.1	0.00e+00	77	30	0	843055104	50	6885
2026-01-26 20:06:14.66	339.99	11.76	-39.6	-40.6	22.1	0.00e+00	92	30	0	845152256	50	6927
2026-01-26 20:06:15.67	339.82	11.72	-39.6	-40.6	22.1	0.00e+00	7	30	0	847249408	50	6909
2026-01-26 20:06:16.68	339.65	11.67	-39.8	-40.8	21.8	0.00e+00	0	30	0	848297984	50	7084
2026-01-26 20:06:17.69	339.49	11.63	-39.7	-40.8	21.9	0.00e+00	0	30	0	850395136	52	6278
2026-01-26 20:06:18.70	339.32	11.59	-39.8	-40.9	21.8	0.00e+00	0	30	0	852492288	52	6379
2026-01-26 20:06:19.71	339.15	11.54	-40.0	-41.2	21.4	0.00e+00	91	30	0	854589440	52	6551
2026-01-26 20:06:20.72	338.98	11.50	-40.2	-41.3	21.4	0.00e+00	7	30	0	856686592	52	6676
2026-01-26 20:06:21.73	338.81	11.46	-40.3	-41.5	21.2	0.00e+00	90	30	0	857735168	52	6828
2026-01-26 20:06:22.74	338.65	11.41	-40.5	-41.7	21.0	0.00e+00	6	30	0	859832320	52	6944
2026-01-26 20:06:23.74	338.48	11.37	-40.5	-41.7	21.0	0.00e+00	7	30	0	861929472	52	6987
2026-01-26 20:06:24.75	338.32	11.32	-40.3	-41.5	21.2	0.00e+00	3	30	0	864026624	52	6804
2026-01-26 20:06:25.77	338.15	11.28	-40.4	-41.6	21.1	0.00e+00	1	30	0	866123776	52	6896
2026-01-26 20:06:26.77	337.98	11.24	-40.6	-41.8	21.0	0.00e+00	92	30	0	868220928	52	7083
2026-01-26 20:06:27.78	337.82	11.19	-40.5	-41.8	21.0	0.00e+00	80	30	0	869269504	52	7012
2026-01-26 20:06:28.79	337.66	11.15	-40.6	-41.8	21.0	0.00e+00	91	30	0	871366656	52	7082
2026-01-26 20:06:29.80	337.49	11.10	-40.6	-41.9	20.8	0.00e+00	73	30	0	873463808	52	7124
2026-01-26 20:06:30.81	337.33	11.06	-40.6	-41.9	20.8	0.00e+00	75	30	0	875560960	54	6344
2026-01-26 20:06:31.82	337.17	11.01	-40.6	-41.8	20.8	0.00e+00	74	30	0	877658112	54	6305
2026-01-26 20:06:32.83	337.01	10.97	-40.6	-41.8	21.0	0.00e+00	0	30	0	878706688	54	6276
2026-01-26 20:06:33.84	336.85	10.92	-40.6	-41.9	20.8	0.00e+00	81	30	0	880803840	54	6353
2026-01-26 20:06:34.85	336.68	10.88	-40.5	-41.7	20.8	0.00e+00	77	30	0	882900992	54	6226
2026-01-26 20:06:35.86	336.52	10.83	-40.7	-41.9	20.8	0.00e+00	92	30	0	884998144	54	6369
2026-01-26 20:06:36.87	336.36	10.78	-41.0	-42.3	20.4	0.00e+00	2	30	0	887095296	54	6619
2026-01-26 20:06:37.87	336.21	10.74	-40.9	-42.3	20.5	0.00e+00	88	30	0	888143872	54	6619
2026-01-26 20:06:38.88	336.05	10.69	-41.1	-42.4	20.3	0.00e+00	2	30	0	890241024	54	6765
2026-01-26 20:06:39.89	335.89	10.65	-41.2	-42.5	20.3	0.00e+00	0	30	0	892338176	54	6830
2026-01-26 20:06:40.90	335.73	10.60	-41.3	-42.7	20.1	0.00e+00	0	30	0	894435328	54	6974
2026-01-26 20:06:41.91	335.57	10.55	-41.3	-42.7	20.1	0.00e+00	1	30	0	896532480	54	6938
2026-01-26 20:06:42.92	335.42	10.51	-41.3	-42.6	20.1	0.00e+00	90	30	0	897581056	54	6917
2026-01-26 20:06:43.93	335.26	10.46	-41.2	-42.5	20.2	0.00e+00	2	30	0	899678208	54	6842
2026-01-26 20:06:44.94	335.11	10.41	-41.2	-42.5	20.3	0.00e+00	92	30	0	901775360	54	6816
2026-01-26 20:06:45.95	334.95	10.37	-41.2	-42.5	20.4	0.00e+00	6	30	0	903872512	54	6796
2026-01-26 20:06:46.96	334.80	10.32	-41.2	-42.6	20.2	0.00e+00	75	30	0	905969664	54	6857
2026-01-26 20:06:47.97	334.64	10.27	-41.3	-42.7	19.9	0.00e+00	6	30	0	907018240	54	6970
2026-01-26 20:06:48.98	334.49	10.23	-41.5	-42.9	19.8	0.00e+00	81	30	0	909115392	54	7146
2026-01-26 20:06:49.99	334.33	10.18	-41.4	-42.8	20.0	0.00e+00	92	30	0	911212544	54	7065
2026-01-26 20:06:51.00	334.18	10.13	-41.3	-42.7	20.0	0.00e+00	0	30	0	913309696	54	6976
2026-01-26 20:06:52.01	334.03	10.08	-41.4	-42.8	20.0	0.00e+00	92	30	0	915406848	54	7031
2026-01-26 20:06:53.02	333.88	10.04	-41.4	-42.8	19.8	0.00e+00	0	30	0	916455424	54	7075
2026-01-26 20:06:54.03	333.73	9.99	-41.6	-43.0	19.8	0.00e+00	0	30	0	918552576	54	7235
2026-01-26 20:06:55.04	333.58	9.94	-41.6	-43.0	19.7	0.00e+00	0	30	0	920649728	54	7241
2026-01-26 20:06:56.05	333.43	9.89	-41.5	-42.9	19.9	0.00e+00	74	30	0	922746880	54	7109
2026-01-26 20:06:57.05	333.28	9.84	-41.5	-42.9	19.9	0.00e+00	87	30	0	924844032	54	7110
2026-01-26 20:06:58.06	333.13	9.80	-41.5	-42.9	19.8	0.00e+00	0	30	0	925892608	54	7104
2026-01-26 20:06:59.07	332.98	9.75	-41.4	-42.8	20.0	0.00e+00	92	30	0	927989760	54	7058
2026-01-26 20:07:00.08	332.83	9.70	-41.7	-43.1	19.8	0.00e+00	0	30	0	930086912	54	7268
2026-01-26 20:07:01.09	332.68	9.65	-41.6	-43.0	19.8	0.00e+00	91	30	0	932184064	54	7203
2026-01-26 20:07:02.10	332.54	9.60	-41.7	-43.1	19.8	0.00e+00	0	30	0	934281216	54	7278
2026-01-26 20:07:03.11	332.39	9.55	-41.8	-43.2	19.7	0.00e+00	6	30	0	936378368	56	6564
2026-01-26 20:07:04.12	332.24	9.50	-41.7	-43.1	19.7	0.00e+00	0	30	0	937426944	56	6499
2026-01-26 20:07:05.13	332.10	9.46	-42.1	-43.6	19.5	0.00e+00	0	30	0	939524096	56	6890
2026-01-26 20:07:06.14	331.95	9.41	-41.7	-43.1	19.8	0.00e+00	91	30	0	941621248	56	6511
2026-01-26 20:07:07.15	331.81	9.36	-41.8	-43.2	19.8	0.00e+00	0	30	0	943718400	56	6561
2026-01-26 20:07:08.15	331.67	9.31	-41.9	-43.3	19.8	0.00e+00	90	30	0	945815552	56	6651
2026-01-26 20:07:09.17	331.52	9.26	-41.6	-43.0	19.9	0.00e+00	4	30	0	946864128	56	6397
2026-01-26 20:07:10.17	331.38	9.21	-41.4	-42.8	20.1	0.00e+00	74	30	0	948961280	56	6274
2026-01-26 20:07:11.18	331.24	9.16	-41.4	-42.7	20.1	0.00e+00	77	30	0	951058432	56	6195
2026-01-26 20:07:12.19	331.09	9.11	-41.2	-42.5	20.3	0.00e+00	74	30	0	953155584	56	6074
2026-01-26 20:07:13.20	330.95	9.06	-41.2	-42.5	20.5	0.00e+00	92	30	0	955252736	56	6048
2026-01-26 20:07:14.21	330.81	9.01	-41.3	-42.7	20.1	0.00e+00	0	30	0	956301312	56	6182
2026-01-26 20:07:15.22	330.67	8.96	-41.2	-42.5	20.3	0.00e+00	92	30	0	958398464	56	6102
2026-01-26 20:07:16.23	330.53	8.91	-41.2	-42.5	20.3	0.00e+00	0	30	0	960495616	56	6043
2026-01-26 20:07:17.24	330.39	8.87	-41.2	-42.5	20.3	0.00e+00	92	30	0	962592768	56	6071
2026-01-26 20:07:18.25	330.25	8.82	-41.3	-42.7	20.2	0.00e+00	76	30	0	964689920	56	6175
2026-01-26 20:07:19.26	330.11	8.77	-41.1	-42.4	20.3	0.00e+00	2	30	0	965738496	56	6014
2026-01-26 20:07:20.27	329.97	8.72	-41.0	-42.3	20.4	0.00e+00	0	30	0	967835648	56	5923
2026-01-26 20:07:21.28	329.84	8.67	-41.0	-42.3	20.4	0.00e+00	0	30	0	969932800	56	5949
2026-01-26 20:07:22.29	329.70	8.62	-41.0	-42.3	20.5	0.00e+00	92	30	0	972029952	56	5953
2026-01-26 20:07:23.30	329.56	8.57	-40.8	-42.1	20.6	0.00e+00	0	30	0	974127104	56	5781
2026-01-26 20:07:24.31	329.43	8.52	-40.9	-42.1	20.6	0.00e+00	83	30	0	975175680	56	5825
2026-01-26 20:07:25.32	329.29	8.47	-40.9	-42.1	20.6	0.00e+00	4	30	0	977272832	56	5816
2026-01-26 20:07:26.32	329.16	8.42	-40.8	-42.1	20.6	0.00e+00	2	30	0	979369984	56	5765
2026-01-26 20:07:27.33	329.02	8.37	-40.8	-42.1	20.7	0.00e+00	2	30	0	981467136	56	5789
2026-01-26 20:07:28.34	328.89	8.32	-41.1	-42.4	20.5	0.00e+00	5	30	0	983564288	56	6009
2026-01-26 20:07:29.35	328.75	8.26	-40.8	-42.1	20.8	0.00e+00	92	30	0	984612864	56	5763
2026-01-26 20:07:30.36	328.62	8.21	-40.5	-41.7	21.0	0.00e+00	2	30	0	986710016	54	6204
2026-01-26 20:07:31.37	328.49	8.16	-40.7	-41.9	20.9	0.00e+00	92	30	0	988807168	54	6353
2026-01-26 20:07:32.38	328.35	8.11	-40.6	-41.8	21.1	0.00e+00	5	30	0	990904320	54	6305
2026-01-26 20:07:33.39	328.22	8.06	-40.9	-42.1	20.8	0.00e+00	75	30	0	993001472	54	6517
2026-01-26 20:07:34.40	328.09	8.01	-40.7	-42.0	20.7	0.00e+00	78	30	0	994050048	54	6399
2026-01-26 20:07:35.41	327.96	7.96	-41.3	-42.6	20.2	0.00e+00	78	30	0	996147200	54	6883
2026-01-26 20:07:36.42	327.83	7.91	-41.2	-42.5	20.3	0.00e+00	0	30	0	998244352	54	6845
2026-01-26 20:07:37.43	327.70	7.86	-41.1	-42.3	20.4	0.00e+00	81	30	0	1000341504	54	6674
2026-01-26 20:07:38.43	327.57	7.81	-40.9	-42.2	20.5	0.00e+00	92	30	0	1002438656	54	6561
2026-01-26 20:07:39.44	327.44	7.76	-41.1	-42.4	20.6	0.00e+00	0	30	0	1003487232	54	6717
2026-01-26 20:07:40.45	327.31	7.71	-40.1	-41.2	21.4	0.00e+00	5	30	0	1005584384	54	5875
2026-01-26 20:07:41.46	327.18	7.66	-40.2	-41.3	21.4	0.00e+00	5	30	0	1007681536	54	5964
2026-01-26 20:07:42.47	327.05	7.61	-40.0	-41.2	21.3	0.00e+00	6	30	0	1009778688	54	5845
2026-01-26 20:07:43.48	326.93	7.56	-40.2	-41.4	21.5	0.00e+00	0	30	0	1011875840	54	6011
2026-01-26 20:07:44.49	326.80	7.50	-40.1	-41.3	21.4	0.00e+00	6	30	0	1012924416	54	5907
2026-01-26 20:07:45.50	326.67	7.45	-40.0	-41.1	21.5	0.00e+00	90	30	0	1015021568	54	5798
2026-01-26 20:07:46.51	326.55	7.40	-39.9	-41.0	21.5	0.00e+00	0	30	0	1017118720	52	6401
2026-01-26 20:07:47.52	326.42	7.35	-39.9	-41.0	21.7	0.00e+00	48	30	0	1019215872	52	6399
2026-01-26 20:07:48.53	326.30	7.30	-39.4	-40.5	22.1	0.00e+00	2	30	0	1021313024	52	6066
2026-01-26 20:07:49.54	326.17	7.25	-39.4	-40.5	22.0	0.00e+00	6	30	0	1022361600	52	6067
2026-01-26 20:07:50.55	326.05	7.20	-39.6	-40.7	21.8	0.00e+00	6	30	0	1024458752	52	6217
2026-01-26 20:07:51.56	325.92	7.15	-39.4	-40.4	22.0	0.00e+00	84	30	0	1026555904	52	6011
2026-01-26 20:07:52.57	325.80	7.10	-39.5	-40.6	21.9	0.00e+00	92	30	0	1028653056	52	6117
2026-01-26 20:07:53.58	325.68	7.04	-39.5	-40.5	21.9	0.00e+00	6	30	0	1030750208	52	6083
2026-01-26 20:07:54.59	325.55	6.99	-39.4	-40.5	22.2	0.00e+00	91	30	0	1032847360	52	6048
2026-01-26 20:07:55.60	325.43	6.94	-39.4	-40.5	22.0	0.00e+00	0	30	0	1033895936	52	6057
2026-01-26 20:07:56.61	325.31	6.89	-39.6	-40.6	21.8	0.00e+00	83	30	0	1035993088	52	6158
2026-01-26 20:07:57.62	325.19	6.84	-39.6	-40.7	21.9	0.00e+00	0	30	0	1038090240	52	6211
2026-01-26 20:07:58.63	325.07	6.79	-39.5	-40.6	21.7	0.00e+00	85	30	0	1040187392	52	6116
2026-01-26 20:07:59.64	324.95	6.74	-39.6	-40.7	21.8	0.00e+00	0	30	0	1042284544	52	6184
2026-01-26 20:08:00.65	324.83	6.69	-39.5	-40.5	21.9	0.00e+00	0	30	0	1043333120	52	6079
2026-01-26 20:08:01.66	324.71	6.63	-39.6	-40.7	21.8	0.00e+00	92	30	0	1045430272	52	6217
2026-01-26 20:08:02.67	324.59	6.58	-39.4	-40.4	22.0	0.00e+00	6	30	0	1047527424	52	6004
2026-01-26 20:08:03.68	324.47	6.53	-39.6	-40.7	22.0	0.00e+00	0	30	0	1049624576	52	6190
2026-01-26 20:08:04.69	324.35	6.48	-39.5	-40.5	22.0	0.00e+00	6	30	0	1051721728	52	6101
2026-01-26 20:08:05.70	324.24	6.43	-39.6	-40.6	21.8	0.00e+00	5	30	0	1052770304	52	6169
2026-01-26 20:08:06.71	324.12	6.38	-39.4	-40.4	22.0	0.00e+00	11	30	0	1054867456	52	6032
2026-01-26 20:08:07.72	324.00	6.33	-39.6	-40.7	21.9	0.00e+00	7	30	0	1056964608	52	6208
2026-01-26 20:08:08.73	323.88	6.27	-39.5	-40.6	21.9	0.00e+00	92	30	0	1059061760	52	6111
2026-01-26 20:08:09.74	323.77	6.22	-39.6	-40.7	21.9	0.00e+00	0	30	0	1061158912	52	6220
2026-01-26 20:08:10.75	323.65	6.17	-39.8	-40.9	21.7	0.00e+00	92	30	0	1062207488	52	6325
2026-01-26 20:08:11.77	323.54	6.12	-39.9	-41.0	21.6	0.00e+00	0	30	0	1064304640	52	6395
2026-01-26 20:08:12.77	323.42	6.07	-40.1	-41.2	21.5	0.00e+00	78	30	0	1066401792	52	6563
2026-01-26 20:08:13.78	323.31	6.02	-39.9	-41.0	21.6	0.00e+00	80	30	0	1068498944	52	6460
2026-01-26 20:08:14.79	323.19	5.97	-39.6	-40.7	21.8	0.00e+00	81	30	0	1070596096	52	6214
2026-01-26 20:08:15.80	323.08	5.91	-40.0	-41.1	21.4	0.00e+00	92	30	0	1072693248	52	6507
2026-01-26 20:08:16.81	322.97	5.86	-39.9	-41.0	21.7	0.00e+00	77	30	0	1073741824	52	6412
2026-01-26 20:08:17.82	322.85	5.81	-40.0	-41.1	21.5	0.00e+00	90	30	0	1075838976	52	6517
2026-01-26 20:08:18.83	322.74	5.76	-39.9	-41.0	21.5	0.00e+00	0	30	0	1077936128	52	6444
2026-01-26 20:08:19.84	322.63	5.71	-39.8	-40.9	21.5	0.00e+00	78	30	0	1080033280	52	6379
2026-01-26 20:08:20.85	322.52	5.66	-39.9	-41.1	21.4	0.00e+00	0	30	0	1082130432	52	6477
2026-01-26 20:08:21.86	322.41	5.60	-39.8	-40.9	21.5	0.00e+00	0	30	0	1083179008	52	6382
2026-01-26 20:08:22.87	322.30	5.55	-40.0	-41.1	21.4	0.00e+00	74	30	0	1085276160	52	6514
2026-01-26 20:08:23.88	322.19	5.50	-40.1	-41.2	21.3	0.00e+00	0	30	0	1087373312	52	6612
2026-01-26 20:08:24.89	322.08	5.45	-40.0	-41.2	21.2	0.00e+00	92	30	0	1089470464	52	6551
2026-01-26 20:08:25.90	321.97	5.40	-40.0	-41.2	21.3	0.00e+00	0	30	0	1090519040	52	6562
2026-01-26 20:08:26.91	321.86	5.35	-39.7	-40.9	21.4	0.00e+00	60	30	0	1092616192	52	6330
2026-01-26 20:08:27.92	321.75	5.30	-39.9	-41.0	21.4	0.00e+00	0	30	0	1094713344	52	6431
2026-01-26 20:08:28.92	321.64	5.24	-39.8	-41.0	21.4	0.00e+00	0	30	0	1096810496	52	6418
2026-01-26 20:08:29.93	321.53	5.19	-40.0	-41.1	21.3	0.00e+00	3	30	0	1098907648	52	6525
2026-01-26 20:08:30.94	321.43	5.14	-39.7	-40.8	21.6	0.00e+00	2	30	0	1101004800	52	6302
2026-01-26 20:08:31.95	321.32	5.09	-39.9	-41.0	21.3	0.00e+00	92	30	0	1102053376	52	6448
2026-01-26 20:08:32.96	321.21	5.04	-40.1	-41.3	21.1	0.00e+00	80	30	0	1104150528	52	6672
2026-01-26 20:08:33.97	321.11	4.99	-40.1	-41.2	21.2	0.00e+00	92	30	0	1106247680	52	6603
2026-01-26 20:08:34.98	321.00	4.93	-40.4	-41.6	20.7	0.00e+00	0	30	0	1108344832	52	6916
2026-01-26 20:08:35.99	320.89	4.88	-40.3	-41.5	20.8	0.00e+00	80	30	0	1110441984	52	6830
2026-01-26 20:08:37.00	320.79	4.83	-40.2	-41.4	21.0	0.00e+00	0	30	0	1111490560	52	6701
2026-01-26 20:08:38.01	320.68	4.78	-40.2	-41.4	21.0	0.00e+00	77	30	0	1113587712	52	6733
2026-01-26 20:08:39.02	320.58	4.73	-40.2	-41.4	20.8	0.00e+00	92	30	0	1115684864	52	6738
2026-01-26 20:08:40.03	320.48	4.68	-40.4	-41.7	20.6	0.00e+00	80	30	0	1117782016	52	6936
2026-01-26 20:08:41.04	320.37	4.63	-40.5	-41.8	20.5	0.00e+00	91	30	0	1119879168	52	7063
2026-01-26 20:08:42.05	320.27	4.57	-40.5	-41.8	20.6	0.00e+00	0	30	0	1120927744	52	7041
2026-01-26 20:08:43.06	320.17	4.52	-40.6	-41.9	20.3	0.00e+00	0	30	0	1123024896	52	7127
2026-01-26 20:08:44.07	320.06	4.47	-40.5	-41.8	20.4	0.00e+00	0	29	0	1125122048	54	6266
2026-01-26 20:08:45.08	319.96	4.42	-40.9	-42.2	20.0	0.00e+00	0	30	0	1127219200	54	6604
2026-01-26 20:08:46.09	319.86	4.37	-40.6	-41.9	20.4	0.00e+00	87	30	0	1129316352	54	6372
2026-01-26 20:08:47.09	319.76	4.32	-40.6	-41.9	20.4	0.00e+00	0	30	0	1130364928	54	6344
2026-01-26 20:08:48.10	319.66	4.27	-40.6	-41.9	20.3	0.00e+00	92	30	0	1132462080	54	6381
2026-01-26 20:08:49.12	319.56	4.22	-40.7	-42.0	20.3	0.00e+00	2	30	0	1134559232	54	6391
2026-01-26 20:08:50.13	319.46	4.16	-40.8	-42.1	20.3	0.00e+00	67	29	0	1136656384	54	6524
2026-01-26 20:08:51.13	319.36	4.11	-40.9	-42.2	20.1	0.00e+00	2	30	0	1138753536	54	6597
2026-01-26 20:08:52.15	319.26	4.06	-40.8	-42.1	20.1	0.00e+00	2	30	0	1139802112	54	6530
2026-01-26 20:08:53.15	319.16	4.01	-40.8	-42.1	20.1	0.00e+00	0	29	0	1141899264	54	6517
2026-01-26 20:08:54.16	319.06	3.96	-41.0	-42.4	19.7	0.00e+00	1	29	0	1143996416	54	6766
2026-01-26 20:08:55.17	318.96	3.91	-41.0	-42.4	19.8	0.00e+00	90	29	0	1146093568	54	6695
2026-01-26 20:08:56.18	318.86	3.86	-41.0	-42.4	19.8	0.00e+00	78	29	0	1148190720	54	6757
2026-01-26 20:08:57.19	318.76	3.81	-41.4	-42.9	19.4	0.00e+00	92	29	0	1149239296	54	7107
2026-01-26 20:08:58.20	318.67	3.75	-41.3	-42.7	19.6	0.00e+00	0	29	0	1151336448	54	6973
2026-01-26 20:08:59.21	318.57	3.70	-41.0	-42.4	19.7	0.00e+00	0	29	0	1153433600	54	6757
2026-01-26 20:09:00.22	318.47	3.65	-40.9	-42.3	20.0	0.00e+00	0	30	0	1155530752	54	6628
2026-01-26 20:09:01.23	318.38	3.60	-41.9	-43.5	18.9	0.00e+00	0	29	0	1157627904	56	6845
2026-01-26 20:09:02.24	318.28	3.55	-41.5	-43.0	19.2	0.00e+00	92	29	0	1158676480	56	6462
2026-01-26 20:09:03.25	318.18	3.50	-41.3	-42.8	19.6	0.00e+00	0	29	0	1160773632	56	6260
2026-01-26 20:09:04.26	318.09	3.45	-42.0	-43.7	18.8	0.00e+00	92	29	0	1162870784	56	6934
2026-01-26 20:09:05.27	317.99	3.40	-41.9	-43.5	19.0	0.00e+00	0	29	0	1164967936	56	6800
2026-01-26 20:09:06.28	317.90	3.35	-42.0	-43.6	18.6	0.00e+00	0	30	0	1167065088	56	6904
2026-01-26 20:09:07.29	317.80	3.29	-41.8	-43.4	19.2	0.00e+00	0	29	0	1169162240	56	6720
2026-01-26 20:09:08.30	317.71	3.24	-42.1	-43.8	18.6	0.00e+00	0	29	0	1170210816	56	7013
2026-01-26 20:09:09.31	317.62	3.19	-42.0	-43.6	18.9	0.00e+00	86	29	0	1172307968	56	6883
2026-01-26 20:09:10.32	317.52	3.14	-41.8	-43.4	19.0	0.00e+00	1	29	0	1174405120	56	6731
2026-01-26 20:09:11.33	317.43	3.09	-42.4	-44.1	18.3	0.00e+00	90	29	0	1176502272	56	7320
2026-01-26 20:09:12.34	317.34	3.04	-42.4	-44.1	18.3	0.00e+00	2	29	0	1178599424	56	7267
2026-01-26 20:09:13.35	317.25	2.99	-42.8	-44.8	16.9	0.00e+00	74	30	0	1179648000	56	7916
2026-01-26 20:09:14.36	317.15	2.94	-48.9	-64.1	3.5	1.51e+00	0	29	104	1180696576	60	57868
2026-01-26 20:09:15.36	317.06	2.89	-49.1	-64.3	3.6	1.51e+00	0	29	104	1180696576	60	59012
2026-01-26 20:09:16.38	316.97	2.84	-49.2	-64.4	3.6	1.51e+00	0	29	104	1180696576	60	59948
2026-01-26 20:09:17.39	316.88	2.79	-49.3	-64.5	3.6	1.51e+00	0	29	104	1180696576	60	60745
2026-01-26 20:09:18.40	316.79	2.73	-49.3	-64.5	3.6	1.51e+00	0	29	104	1180696576	60	60545
2026-01-26 20:09:19.41	316.70	2.68	-49.3	-64.5	3.6	1.51e+00	0	30	104	1180696576	60	60810
2026-01-26 20:09:20.42	316.61	2.63	-49.3	-64.6	3.5	1.51e+00	0	29	104	1180696576	60	61234
