passes_logs/2026/01/26/R4.6S_Anadyr/R4.6S_Anadyr__20260126_181859_NOAA_20_JPSS-1_rec.log

#Pass ID: 20260126_181859_NOAA 20 (JPSS-1)
#Satellite: NOAA 20 (JPSS-1)
#Configuration: NOAA 20
#almurnet v.1.7.20251203
#Start time: 2026-01-26 18:19:02

#Version: 2.2.20231116
#Station: R4.6S_Anadyr
#Location: 177.4865 lon 64.73178 lat
#TLE: 1 43013U 17073A   26025.90277267  .00000170  00000+0  10165-3 0  9997
#TLE: 2 43013  98.7646 326.7276 0001032  23.5492 336.5731 14.19540457424285

#Time	Az	El	Level	Level2	SNR	BER	BlckErr	Temp	State	Recorded	gain1	gain2
2026-01-26 18:19:02.62	39.22	0.17	-50.3	-64.0	3.3	1.54e+00	0	26	0	0	60	57476
2026-01-26 18:19:03.63	39.15	0.22	-49.3	-64.5	3.6	1.51e+00	0	26	104	0	60	60563
2026-01-26 18:19:04.64	39.08	0.27	-49.4	-64.5	3.6	1.51e+00	0	26	104	0	60	60923
2026-01-26 18:19:05.64	39.01	0.32	-49.3	-64.5	3.6	1.51e+00	0	26	104	0	60	60434
2026-01-26 18:19:06.65	38.94	0.37	-49.2	-64.4	3.6	1.51e+00	0	26	104	0	60	60169
2026-01-26 18:19:07.66	38.87	0.42	-49.2	-64.4	3.6	1.51e+00	0	26	104	0	60	59672
2026-01-26 18:19:08.67	38.80	0.47	-49.2	-64.4	3.6	1.51e+00	0	26	104	0	60	59892
2026-01-26 18:19:09.67	38.72	0.52	-49.2	-64.4	3.6	1.51e+00	0	26	104	0	60	59753
2026-01-26 18:19:10.68	38.65	0.57	-49.1	-64.3	3.6	1.51e+00	0	26	104	0	60	59276
2026-01-26 18:19:11.69	38.58	0.63	-49.0	-64.3	3.6	1.51e+00	0	26	104	0	60	58980
2026-01-26 18:19:12.70	38.51	0.68	-49.0	-64.2	3.6	1.51e+00	0	26	104	0	60	58630
2026-01-26 18:19:13.70	38.43	0.73	-49.0	-64.2	3.6	1.51e+00	0	26	104	0	60	58789
2026-01-26 18:19:14.71	38.36	0.78	-48.9	-64.1	3.6	1.51e+00	0	26	104	0	60	58042
2026-01-26 18:19:15.72	38.28	0.83	-49.0	-64.2	3.6	1.51e+00	0	26	104	0	60	58415
2026-01-26 18:19:16.73	38.21	0.88	-48.9	-64.1	3.6	1.51e+00	0	26	104	0	60	58031
2026-01-26 18:19:17.74	38.14	0.93	-48.9	-64.0	3.6	1.51e+00	0	27	104	0	60	57313
2026-01-26 18:19:18.75	38.06	0.98	-48.8	-64.0	3.6	1.51e+00	0	26	104	0	60	57328
2026-01-26 18:19:19.76	37.99	1.04	-48.7	-63.9	3.6	1.51e+00	0	27	104	0	60	56755
2026-01-26 18:19:20.77	37.91	1.09	-48.6	-63.8	3.6	1.51e+00	0	26	104	0	60	55856
2026-01-26 18:19:21.78	37.84	1.14	-48.5	-63.7	3.6	1.51e+00	0	26	104	0	60	55197
2026-01-26 18:19:22.79	37.76	1.19	-48.3	-63.5	3.6	1.51e+00	0	26	104	0	60	54268
2026-01-26 18:19:23.80	37.68	1.24	-48.1	-63.3	3.6	1.51e+00	0	27	104	0	60	52640
2026-01-26 18:19:24.81	37.61	1.29	-47.6	-62.8	3.6	1.51e+00	0	27	104	0	60	49891
2026-01-26 18:19:25.82	37.53	1.35	-47.6	-62.8	3.6	1.51e+00	0	27	104	0	60	49780
2026-01-26 18:19:26.83	37.45	1.40	-47.6	-62.7	3.6	1.51e+00	0	27	104	0	60	49496
2026-01-26 18:19:27.84	37.38	1.45	-47.6	-62.8	3.6	1.51e+00	0	27	104	0	60	49782
2026-01-26 18:19:28.85	37.30	1.50	-47.6	-62.8	3.6	1.51e+00	0	27	104	0	60	49650
2026-01-26 18:19:29.86	37.22	1.55	-47.6	-62.7	3.6	1.51e+00	0	27	104	0	60	49199
2026-01-26 18:19:30.88	37.14	1.61	-47.6	-62.7	3.6	1.51e+00	0	27	104	0	60	49347
2026-01-26 18:19:31.89	37.06	1.66	-47.6	-62.7	3.6	1.51e+00	0	27	104	0	60	49375
2026-01-26 18:19:32.89	36.99	1.71	-47.5	-62.7	3.6	1.51e+00	0	27	104	0	60	49555
2026-01-26 18:19:33.90	36.91	1.76	-47.5	-62.8	3.6	1.51e+00	0	27	104	0	60	49612
2026-01-26 18:19:34.92	36.83	1.81	-47.5	-62.7	3.6	1.51e+00	0	27	104	0	60	49475
2026-01-26 18:19:35.93	36.75	1.87	-47.5	-62.7	3.6	1.51e+00	0	27	104	0	60	49172
2026-01-26 18:19:36.94	36.67	1.92	-47.5	-62.7	3.6	1.51e+00	0	27	104	0	60	49292
2026-01-26 18:19:37.95	36.59	1.97	-47.5	-62.6	3.6	1.51e+00	0	27	104	0	60	48840
2026-01-26 18:19:38.96	36.51	2.02	-47.5	-62.6	3.6	1.51e+00	0	27	104	0	60	48982
2026-01-26 18:19:39.96	36.43	2.07	-47.6	-62.7	3.6	1.51e+00	0	27	104	0	60	49052
2026-01-26 18:19:40.97	36.34	2.13	-47.6	-62.7	3.6	1.51e+00	0	27	104	0	60	49125
2026-01-26 18:19:41.99	36.26	2.18	-47.6	-62.7	3.6	1.51e+00	0	27	104	0	60	49305
2026-01-26 18:19:43.00	36.18	2.23	-47.6	-62.7	3.6	1.51e+00	0	27	104	0	60	49534
2026-01-26 18:19:44.00	36.10	2.28	-47.6	-62.7	3.6	1.51e+00	0	27	104	0	60	49150
2026-01-26 18:19:45.01	36.02	2.34	-47.6	-62.6	3.6	1.51e+00	0	27	104	0	60	48828
2026-01-26 18:19:46.02	35.93	2.39	-47.5	-62.6	3.6	1.51e+00	0	27	104	0	60	48702
2026-01-26 18:19:47.03	35.85	2.44	-47.6	-62.7	3.6	1.51e+00	0	27	104	0	60	49326
2026-01-26 18:19:48.04	35.77	2.49	-47.5	-62.7	3.6	1.51e+00	0	27	104	0	60	49184
2026-01-26 18:19:49.05	35.69	2.55	-47.5	-62.4	3.6	1.51e+00	0	27	104	0	60	47920
2026-01-26 18:19:50.06	35.60	2.60	-47.5	-62.0	3.6	1.51e+00	0	27	104	0	60	45301
2026-01-26 18:19:51.07	35.52	2.65	-47.5	-61.9	3.6	1.51e+00	0	27	104	0	60	45076
2026-01-26 18:19:52.08	35.43	2.71	-47.5	-62.4	3.6	1.51e+00	0	27	104	0	60	47902
2026-01-26 18:19:53.09	35.35	2.76	-47.5	-62.4	3.6	1.51e+00	0	27	104	0	60	47911
2026-01-26 18:19:54.10	35.26	2.81	-47.4	-59.8	3.8	1.51e+00	0	27	104	0	60	35281
2026-01-26 18:19:55.11	35.18	2.86	-46.8	-54.3	7.3	4.89e-01	0	27	0	0	60	18699
2026-01-26 18:19:56.12	35.09	2.92	-46.2	-51.5	10.0	5.57e-02	0	27	0	1048576	60	13604
2026-01-26 18:19:57.13	35.01	2.97	-45.5	-49.8	11.5	1.42e-03	2	27	0	3145728	60	11172
2026-01-26 18:19:58.14	34.92	3.02	-45.1	-48.8	12.7	2.88e-04	92	27	0	5242880	60	9994
2026-01-26 18:19:59.15	34.83	3.08	-47.6	-60.1	3.7	6.13e-02	0	27	104	6291456	60	36547
2026-01-26 18:20:00.16	34.75	3.13	-47.5	-60.8	3.9	1.49e+00	0	27	104	6291456	60	39488
2026-01-26 18:20:01.17	34.66	3.18	-45.5	-49.8	12.6	4.65e-05	51	27	0	6291456	60	11177
2026-01-26 18:20:02.18	34.57	3.24	-43.7	-46.2	16.6	0.00e+00	92	27	0	8388608	58	8302
2026-01-26 18:20:03.18	34.48	3.29	-47.4	-61.6	3.6	1.49e+00	0	27	104	9437184	60	43581
2026-01-26 18:20:04.19	34.40	3.34	-44.1	-47.1	14.5	1.14e+00	51	27	104	9437184	60	8193
2026-01-26 18:20:05.20	34.31	3.40	-44.7	-48.0	13.7	1.50e-06	92	27	0	9437184	60	9056
2026-01-26 18:20:06.21	34.22	3.45	-44.6	-47.8	14.0	4.50e-06	27	27	0	11534336	60	8895
2026-01-26 18:20:07.22	34.13	3.50	-43.8	-46.3	15.6	7.00e-07	92	27	0	13631488	60	7501
2026-01-26 18:20:08.23	34.04	3.56	-42.9	-45.0	17.0	0.00e+00	27	27	0	15728640	60	6401
2026-01-26 18:20:09.24	33.95	3.61	-42.6	-44.6	17.3	0.00e+00	92	27	0	17825792	58	6922
2026-01-26 18:20:10.25	33.86	3.66	-42.6	-44.5	17.3	0.00e+00	0	27	0	18874368	58	6827
2026-01-26 18:20:11.25	33.77	3.72	-42.6	-44.6	17.6	0.00e+00	0	27	0	20971520	58	6885
2026-01-26 18:20:12.26	33.68	3.77	-42.9	-45.0	16.8	0.00e+00	92	27	0	23068672	58	7193
2026-01-26 18:20:13.27	33.59	3.82	-43.0	-45.1	16.7	0.00e+00	29	27	0	25165824	58	7336
2026-01-26 18:20:14.28	33.49	3.88	-43.2	-45.4	16.5	0.00e+00	92	27	0	27262976	58	7591
2026-01-26 18:20:15.29	33.40	3.93	-43.4	-45.7	16.0	0.00e+00	0	27	0	29360128	58	7828
2026-01-26 18:20:16.29	33.31	3.98	-43.3	-45.6	16.0	0.00e+00	8	27	0	30408704	58	7738
2026-01-26 18:20:17.30	33.22	4.04	-43.8	-46.4	16.2	0.00e+00	0	27	0	32505856	58	8426
2026-01-26 18:20:18.31	33.12	4.09	-43.0	-45.1	17.1	0.00e+00	0	27	0	34603008	60	6521
2026-01-26 18:20:19.32	33.03	4.15	-43.1	-45.2	16.7	0.00e+00	0	27	0	36700160	60	6570
2026-01-26 18:20:20.33	32.94	4.20	-43.2	-45.3	16.6	0.00e+00	0	27	0	38797312	60	6671
2026-01-26 18:20:21.34	32.84	4.25	-43.2	-45.3	16.9	0.00e+00	92	27	0	39845888	60	6684
2026-01-26 18:20:22.35	32.75	4.31	-43.0	-45.0	17.0	0.00e+00	0	27	0	41943040	58	7247
2026-01-26 18:20:23.36	32.65	4.36	-43.0	-45.1	16.9	0.00e+00	50	27	0	44040192	58	7289
2026-01-26 18:20:24.37	32.56	4.42	-42.9	-45.0	17.1	0.00e+00	51	27	0	46137344	58	7217
2026-01-26 18:20:25.38	32.46	4.47	-43.0	-45.2	16.9	0.00e+00	0	27	0	47185920	58	7340
2026-01-26 18:20:26.39	32.37	4.52	-42.9	-44.9	17.2	0.00e+00	2	27	0	49283072	58	7168
2026-01-26 18:20:27.40	32.27	4.58	-42.5	-44.4	17.7	0.00e+00	2	27	0	51380224	58	6743
2026-01-26 18:20:28.41	32.17	4.63	-42.4	-44.2	18.0	0.00e+00	91	27	0	53477376	58	6611
2026-01-26 18:20:29.42	32.08	4.69	-42.6	-44.5	17.8	0.00e+00	30	27	0	55574528	58	6772
2026-01-26 18:20:30.43	31.98	4.74	-42.4	-44.3	17.9	0.00e+00	92	27	0	57671680	58	6616
2026-01-26 18:20:31.44	31.88	4.80	-42.4	-44.2	17.9	0.00e+00	5	27	0	58720256	58	6592
2026-01-26 18:20:32.44	31.78	4.85	-42.6	-44.4	17.8	0.00e+00	5	27	0	60817408	58	6767
2026-01-26 18:20:33.45	31.68	4.90	-42.7	-44.6	17.6	0.00e+00	30	27	0	62914560	58	6867
2026-01-26 18:20:34.46	31.58	4.96	-42.6	-44.5	17.7	0.00e+00	0	28	0	65011712	58	6770
2026-01-26 18:20:35.47	31.49	5.01	-42.6	-44.4	17.6	0.00e+00	92	27	0	67108864	58	6762
2026-01-26 18:20:36.48	31.39	5.07	-42.5	-44.4	17.8	0.00e+00	0	28	0	68157440	58	6719
2026-01-26 18:20:37.49	31.29	5.12	-42.5	-44.4	17.8	0.00e+00	92	27	0	70254592	58	6732
2026-01-26 18:20:38.50	31.18	5.18	-42.5	-44.4	17.9	0.00e+00	7	27	0	72351744	58	6705
2026-01-26 18:20:39.51	31.08	5.23	-42.8	-44.7	17.6	0.00e+00	0	28	0	74448896	58	6964
2026-01-26 18:20:40.52	30.98	5.29	-42.9	-44.9	17.4	0.00e+00	5	28	0	76546048	58	7117
2026-01-26 18:20:41.53	30.88	5.34	-42.8	-44.7	17.4	0.00e+00	6	27	0	77594624	58	6970
2026-01-26 18:20:42.54	30.78	5.39	-43.0	-45.0	17.2	0.00e+00	57	27	0	79691776	58	7219
2026-01-26 18:20:43.54	30.68	5.45	-43.2	-45.2	17.2	0.00e+00	50	27	0	81788928	58	7412
2026-01-26 18:20:44.55	30.57	5.50	-42.9	-44.8	17.5	0.00e+00	92	28	0	83886080	58	7079
2026-01-26 18:20:45.56	30.47	5.56	-42.6	-44.5	17.6	0.00e+00	53	28	0	85983232	58	6790
2026-01-26 18:20:46.57	30.37	5.61	-42.4	-44.1	18.1	0.00e+00	92	27	0	87031808	58	6533
2026-01-26 18:20:47.58	30.26	5.67	-42.9	-44.8	17.5	0.00e+00	51	27	0	89128960	58	7079
2026-01-26 18:20:48.59	30.16	5.72	-42.5	-44.3	17.9	0.00e+00	53	27	0	91226112	58	6656
2026-01-26 18:20:49.60	30.05	5.78	-42.8	-44.7	17.6	0.00e+00	0	28	0	93323264	58	7006
2026-01-26 18:20:50.61	29.95	5.83	-42.8	-44.8	17.5	0.00e+00	36	28	0	95420416	58	7046
2026-01-26 18:20:51.62	29.84	5.89	-42.7	-44.6	17.7	0.00e+00	92	28	0	96468992	58	6894
2026-01-26 18:20:52.63	29.74	5.94	-42.6	-44.5	17.9	0.00e+00	34	28	0	98566144	58	6777
2026-01-26 18:20:53.64	29.63	6.00	-42.1	-43.7	18.6	0.00e+00	90	28	0	100663296	58	6242
2026-01-26 18:20:54.65	29.52	6.05	-42.0	-43.7	18.7	0.00e+00	6	28	0	102760448	58	6201
2026-01-26 18:20:55.66	29.41	6.11	-41.9	-43.5	18.8	0.00e+00	36	28	0	104857600	58	6073
2026-01-26 18:20:56.67	29.31	6.16	-41.9	-43.5	18.9	0.00e+00	33	28	0	105906176	58	6061
2026-01-26 18:20:57.68	29.20	6.22	-41.8	-43.3	19.1	0.00e+00	7	28	0	108003328	58	5942
2026-01-26 18:20:58.68	29.09	6.27	-41.6	-43.1	19.2	0.00e+00	92	28	0	110100480	56	6515
2026-01-26 18:20:59.70	28.98	6.33	-41.8	-43.4	18.9	0.00e+00	7	28	0	112197632	56	6739
2026-01-26 18:21:00.71	28.87	6.38	-41.8	-43.4	19.0	0.00e+00	92	28	0	114294784	56	6742
2026-01-26 18:21:01.71	28.76	6.44	-41.6	-43.1	19.3	0.00e+00	6	28	0	115343360	56	6535
2026-01-26 18:21:02.72	28.65	6.49	-41.9	-43.6	18.8	0.00e+00	92	28	0	117440512	56	6853
2026-01-26 18:21:03.73	28.54	6.55	-42.0	-43.6	18.9	0.00e+00	52	28	0	119537664	56	6860
2026-01-26 18:21:04.74	28.43	6.60	-41.9	-43.4	19.1	0.00e+00	0	28	0	121634816	56	6761
2026-01-26 18:21:05.75	28.32	6.66	-41.8	-43.4	19.2	0.00e+00	53	28	0	123731968	56	6701
2026-01-26 18:21:06.76	28.21	6.71	-41.5	-43.0	19.6	0.00e+00	0	28	0	125829120	56	6397
2026-01-26 18:21:07.77	28.09	6.77	-41.5	-43.0	19.4	0.00e+00	92	28	0	126877696	56	6419
2026-01-26 18:21:08.78	27.98	6.82	-41.4	-42.8	19.7	0.00e+00	52	28	0	128974848	56	6289
2026-01-26 18:21:09.79	27.87	6.88	-41.4	-42.8	19.6	0.00e+00	92	28	0	131072000	56	6275
2026-01-26 18:21:10.80	27.75	6.93	-41.4	-42.8	19.6	0.00e+00	52	28	0	133169152	56	6298
2026-01-26 18:21:11.81	27.64	6.99	-41.4	-42.8	19.6	0.00e+00	28	28	0	135266304	56	6261
2026-01-26 18:21:12.82	27.52	7.04	-41.3	-42.7	19.4	0.00e+00	40	28	0	136314880	56	6237
2026-01-26 18:21:13.82	27.41	7.10	-41.0	-42.3	19.5	0.00e+00	52	28	0	138412032	56	5944
2026-01-26 18:21:14.83	27.29	7.15	-41.1	-42.5	20.0	0.00e+00	92	28	0	140509184	56	6058
2026-01-26 18:21:15.84	27.18	7.21	-40.9	-42.3	20.1	0.00e+00	29	28	0	142606336	56	5923
2026-01-26 18:21:16.85	27.06	7.26	-40.9	-42.3	20.2	0.00e+00	92	28	0	144703488	56	5914
2026-01-26 18:21:17.86	26.94	7.32	-41.2	-42.6	19.9	0.00e+00	27	28	0	145752064	56	6106
2026-01-26 18:21:18.87	26.83	7.37	-41.1	-42.5	20.0	0.00e+00	0	28	0	147849216	56	6057
2026-01-26 18:21:19.88	26.71	7.43	-41.1	-42.4	20.0	0.00e+00	0	28	0	149946368	56	6024
2026-01-26 18:21:20.89	26.59	7.48	-41.1	-42.5	20.0	0.00e+00	0	28	0	152043520	56	6083
2026-01-26 18:21:21.90	26.47	7.54	-41.1	-42.4	20.0	0.00e+00	92	28	0	154140672	56	6001
2026-01-26 18:21:22.91	26.35	7.59	-41.3	-42.7	19.8	0.00e+00	0	28	0	155189248	56	6235
2026-01-26 18:21:23.91	26.23	7.65	-41.1	-42.5	20.1	0.00e+00	92	28	0	157286400	56	6081
2026-01-26 18:21:24.93	26.11	7.70	-41.0	-42.4	20.2	0.00e+00	0	28	0	159383552	56	5967
2026-01-26 18:21:25.93	25.99	7.76	-41.0	-42.3	20.2	0.00e+00	54	28	0	161480704	56	5941
2026-01-26 18:21:26.94	25.87	7.81	-41.0	-42.3	20.1	0.00e+00	53	28	0	163577856	56	5947
2026-01-26 18:21:27.95	25.75	7.87	-40.7	-42.0	20.6	0.00e+00	0	28	0	164626432	56	5758
2026-01-26 18:21:28.96	25.63	7.92	-40.6	-41.9	20.5	0.00e+00	52	28	0	166723584	54	6331
2026-01-26 18:21:29.96	25.51	7.98	-40.5	-41.8	20.7	0.00e+00	0	28	0	168820736	54	6251
2026-01-26 18:21:30.97	25.38	8.03	-40.6	-41.8	20.5	0.00e+00	92	28	0	170917888	54	6289
2026-01-26 18:21:31.98	25.26	8.09	-40.6	-41.9	20.6	0.00e+00	52	28	0	173015040	54	6329
2026-01-26 18:21:32.99	25.14	8.14	-40.3	-41.5	21.0	0.00e+00	92	28	0	174063616	54	6072
2026-01-26 18:21:34.00	25.01	8.20	-40.5	-41.7	20.7	0.00e+00	52	28	0	176160768	54	6223
2026-01-26 18:21:35.01	24.89	8.25	-40.5	-41.8	20.6	0.00e+00	28	28	0	178257920	54	6262
2026-01-26 18:21:36.02	24.76	8.31	-40.5	-41.8	20.7	0.00e+00	51	28	0	180355072	54	6271
2026-01-26 18:21:37.03	24.63	8.36	-40.5	-41.8	20.8	0.00e+00	28	28	0	182452224	54	6249
2026-01-26 18:21:38.04	24.51	8.42	-40.6	-41.8	20.6	0.00e+00	90	28	0	183500800	54	6312
2026-01-26 18:21:39.05	24.38	8.47	-40.5	-41.8	20.7	0.00e+00	0	28	0	185597952	54	6275
2026-01-26 18:21:40.06	24.25	8.53	-40.6	-41.9	20.6	0.00e+00	90	28	0	187695104	54	6362
2026-01-26 18:21:41.07	24.13	8.58	-40.7	-41.9	20.6	0.00e+00	0	28	0	189792256	54	6363
2026-01-26 18:21:42.08	24.00	8.64	-40.7	-42.0	20.6	0.00e+00	0	28	0	191889408	54	6399
2026-01-26 18:21:43.08	23.87	8.69	-40.6	-41.9	20.6	0.00e+00	0	28	0	193986560	54	6352
2026-01-26 18:21:44.09	23.74	8.75	-40.7	-41.9	20.6	0.00e+00	0	28	0	195035136	54	6371
2026-01-26 18:21:45.10	23.61	8.80	-40.7	-41.9	20.6	0.00e+00	86	28	0	197132288	54	6388
2026-01-26 18:21:46.11	23.48	8.86	-40.7	-42.0	20.5	0.00e+00	0	28	0	199229440	54	6413
2026-01-26 18:21:47.12	23.35	8.91	-40.6	-41.9	20.6	0.00e+00	92	28	0	201326592	54	6348
2026-01-26 18:21:48.13	23.22	8.97	-40.7	-42.0	20.5	0.00e+00	54	28	0	203423744	54	6406
2026-01-26 18:21:49.14	23.09	9.02	-40.6	-41.8	20.7	0.00e+00	41	28	0	204472320	54	6300
2026-01-26 18:21:50.15	22.95	9.08	-40.5	-41.7	20.9	0.00e+00	55	28	0	206569472	54	6235
2026-01-26 18:21:51.16	22.82	9.13	-40.5	-41.8	20.8	0.00e+00	0	28	0	208666624	54	6247
2026-01-26 18:21:52.17	22.69	9.19	-40.5	-41.7	20.8	0.00e+00	0	28	0	210763776	54	6223
2026-01-26 18:21:53.18	22.55	9.24	-40.5	-41.7	20.8	0.00e+00	54	28	0	212860928	54	6218
2026-01-26 18:21:54.19	22.42	9.30	-40.2	-41.4	21.1	0.00e+00	92	28	0	213909504	54	6000
2026-01-26 18:21:55.20	22.28	9.35	-40.4	-41.6	21.0	0.00e+00	0	28	0	216006656	54	6128
2026-01-26 18:21:56.21	22.15	9.41	-40.3	-41.5	21.0	0.00e+00	88	28	0	218103808	54	6100
2026-01-26 18:21:57.22	22.01	9.46	-40.3	-41.5	21.0	0.00e+00	25	28	0	220200960	54	6054
2026-01-26 18:21:58.23	21.87	9.52	-40.6	-41.9	20.9	0.00e+00	0	28	0	222298112	54	6337
2026-01-26 18:21:59.24	21.74	9.57	-40.3	-41.5	21.0	0.00e+00	0	28	0	223346688	54	6078
2026-01-26 18:22:00.25	21.60	9.63	-40.3	-41.5	21.0	0.00e+00	27	28	0	225443840	54	6037
2026-01-26 18:22:01.26	21.46	9.68	-40.3	-41.5	21.0	0.00e+00	92	28	0	227540992	54	6092
2026-01-26 18:22:02.27	21.32	9.73	-40.3	-41.5	21.1	0.00e+00	0	28	0	229638144	54	6077
2026-01-26 18:22:03.28	21.18	9.79	-40.3	-41.5	21.0	0.00e+00	92	28	0	231735296	54	6091
2026-01-26 18:22:04.29	21.04	9.84	-40.4	-41.6	20.8	0.00e+00	0	28	0	232783872	54	6154
2026-01-26 18:22:05.30	20.90	9.90	-40.5	-41.7	20.9	0.00e+00	0	28	0	234881024	54	6197
2026-01-26 18:22:06.31	20.76	9.95	-40.4	-41.6	20.9	0.00e+00	0	28	0	236978176	54	6151
2026-01-26 18:22:07.32	20.62	10.01	-40.5	-41.7	21.0	0.00e+00	0	28	0	239075328	54	6196
2026-01-26 18:22:08.33	20.48	10.06	-40.4	-41.6	20.9	0.00e+00	0	28	0	241172480	54	6150
2026-01-26 18:22:09.34	20.34	10.11	-40.3	-41.5	21.1	0.00e+00	0	28	0	242221056	54	6062
2026-01-26 18:22:10.35	20.19	10.17	-40.4	-41.6	21.0	0.00e+00	91	28	0	244318208	54	6115
2026-01-26 18:22:11.36	20.05	10.22	-40.2	-41.3	21.3	0.00e+00	0	28	0	246415360	54	5955
2026-01-26 18:22:12.36	19.91	10.28	-40.3	-41.5	21.1	0.00e+00	11	28	0	248512512	54	6054
2026-01-26 18:22:13.37	19.76	10.33	-40.2	-41.4	21.1	0.00e+00	53	28	0	250609664	54	6022
2026-01-26 18:22:14.38	19.62	10.38	-40.4	-41.6	21.0	0.00e+00	53	28	0	251658240	54	6153
2026-01-26 18:22:15.39	19.47	10.44	-40.3	-41.5	21.1	0.00e+00	0	28	0	253755392	54	6075
2026-01-26 18:22:16.40	19.33	10.49	-40.3	-41.5	21.1	0.00e+00	27	28	0	255852544	54	6077
2026-01-26 18:22:17.41	19.18	10.54	-40.4	-41.6	21.0	0.00e+00	92	28	0	257949696	54	6165
2026-01-26 18:22:18.42	19.03	10.60	-40.1	-41.3	21.3	0.00e+00	0	28	0	260046848	54	5910
2026-01-26 18:22:19.43	18.88	10.65	-40.2	-41.4	21.2	0.00e+00	0	28	0	261095424	54	5971
2026-01-26 18:22:20.44	18.73	10.70	-40.2	-41.4	21.2	0.00e+00	7	28	0	263192576	54	5980
2026-01-26 18:22:21.44	18.59	10.76	-40.2	-41.4	21.1	0.00e+00	5	28	0	265289728	54	6005
2026-01-26 18:22:22.46	18.44	10.81	-40.7	-42.0	20.8	0.00e+00	28	28	0	267386880	54	6404
2026-01-26 18:22:23.47	18.29	10.86	-40.1	-41.3	21.0	0.00e+00	27	28	0	269484032	54	5916
2026-01-26 18:22:24.47	18.14	10.92	-40.2	-41.4	21.3	0.00e+00	92	28	0	270532608	54	6017
2026-01-26 18:22:25.48	17.99	10.97	-40.1	-41.3	21.3	0.00e+00	0	28	0	272629760	54	5947
2026-01-26 18:22:26.49	17.83	11.02	-40.2	-41.4	21.2	0.00e+00	31	28	0	274726912	54	6020
2026-01-26 18:22:27.50	17.68	11.08	-40.3	-41.5	21.2	0.00e+00	0	28	0	276824064	54	6041
2026-01-26 18:22:28.51	17.53	11.13	-40.3	-41.5	21.1	0.00e+00	0	28	0	278921216	54	6038
2026-01-26 18:22:29.52	17.38	11.18	-40.3	-41.5	21.1	0.00e+00	0	28	0	279969792	54	6071
2026-01-26 18:22:30.53	17.22	11.23	-40.4	-41.6	21.1	0.00e+00	0	28	0	282066944	54	6138
2026-01-26 18:22:31.54	17.07	11.29	-40.4	-41.6	21.0	0.00e+00	92	28	0	284164096	54	6125
2026-01-26 18:22:32.54	16.91	11.34	-40.3	-41.4	21.2	0.00e+00	0	28	0	286261248	54	6033
2026-01-26 18:22:33.55	16.76	11.39	-40.3	-41.5	21.2	0.00e+00	92	28	0	288358400	54	6089
2026-01-26 18:22:34.56	16.60	11.44	-40.3	-41.4	21.2	0.00e+00	54	28	0	290455552	54	6024
2026-01-26 18:22:35.57	16.44	11.49	-40.2	-41.4	21.1	0.00e+00	50	28	0	291504128	54	5998
2026-01-26 18:22:36.58	16.29	11.55	-40.1	-41.3	21.4	0.00e+00	53	28	0	293601280	54	5912
2026-01-26 18:22:37.59	16.13	11.60	-40.1	-41.3	21.3	0.00e+00	55	28	0	295698432	54	5914
2026-01-26 18:22:38.60	15.97	11.65	-39.9	-41.1	21.5	0.00e+00	31	28	0	297795584	54	5767
2026-01-26 18:22:39.61	15.81	11.70	-39.9	-41.0	21.6	0.00e+00	32	28	0	299892736	54	5744
2026-01-26 18:22:40.62	15.65	11.75	-39.8	-41.0	21.7	0.00e+00	92	28	0	300941312	52	6394
2026-01-26 18:22:41.63	15.49	11.80	-39.8	-40.9	21.8	0.00e+00	4	28	0	303038464	52	6358
2026-01-26 18:22:42.64	15.33	11.86	-39.7	-40.8	21.8	0.00e+00	34	28	0	305135616	52	6254
2026-01-26 18:22:43.65	15.17	11.91	-39.7	-40.8	22.0	0.00e+00	7	29	0	307232768	52	6268
2026-01-26 18:22:44.66	15.01	11.96	-39.7	-40.7	21.9	0.00e+00	32	28	0	309329920	52	6232
2026-01-26 18:22:45.67	14.84	12.01	-39.6	-40.7	22.1	0.00e+00	6	28	0	310378496	52	6194
2026-01-26 18:22:46.68	14.68	12.06	-39.4	-40.5	22.1	0.00e+00	34	29	0	312475648	52	6045
2026-01-26 18:22:47.69	14.52	12.11	-39.5	-40.6	22.0	0.00e+00	90	28	0	314572800	52	6121
2026-01-26 18:22:48.69	14.35	12.16	-39.2	-40.3	22.4	0.00e+00	7	29	0	316669952	52	5911
2026-01-26 18:22:49.70	14.19	12.21	-39.3	-40.3	22.3	0.00e+00	92	28	0	318767104	52	5923
2026-01-26 18:22:50.71	14.02	12.26	-39.3	-40.3	22.3	0.00e+00	6	28	0	319815680	52	5927
2026-01-26 18:22:51.72	13.86	12.31	-39.3	-40.4	22.3	0.00e+00	6	28	0	321912832	52	5977
2026-01-26 18:22:52.73	13.69	12.36	-39.0	-40.0	22.5	0.00e+00	54	29	0	324009984	52	5745
2026-01-26 18:22:53.74	13.52	12.41	-39.0	-40.0	22.7	0.00e+00	55	29	0	326107136	52	5710
2026-01-26 18:22:54.75	13.36	12.46	-38.8	-39.8	22.7	0.00e+00	60	29	0	328204288	52	5597
2026-01-26 18:22:55.76	13.19	12.51	-38.9	-39.8	22.7	0.00e+00	0	28	0	329252864	52	5629
2026-01-26 18:22:56.77	13.02	12.56	-38.7	-39.7	22.9	0.00e+00	92	29	0	331350016	50	6198
2026-01-26 18:22:57.78	12.85	12.61	-38.8	-39.7	22.8	0.00e+00	0	28	0	333447168	50	6227
2026-01-26 18:22:58.79	12.68	12.66	-38.8	-39.8	22.7	0.00e+00	32	29	0	335544320	50	6275
2026-01-26 18:22:59.80	12.51	12.71	-38.9	-39.9	22.7	0.00e+00	48	29	0	337641472	50	6375
2026-01-26 18:23:00.81	12.34	12.76	-38.7	-39.7	22.9	0.00e+00	33	29	0	338690048	50	6228
2026-01-26 18:23:01.82	12.17	12.81	-38.8	-39.8	22.8	0.00e+00	20	28	0	340787200	50	6290
2026-01-26 18:23:02.83	11.99	12.86	-38.8	-39.7	22.9	0.00e+00	32	29	0	342884352	50	6231
2026-01-26 18:23:03.83	11.82	12.90	-38.7	-39.7	22.9	0.00e+00	92	28	0	344981504	50	6185
2026-01-26 18:23:04.84	11.65	12.95	-38.6	-39.6	23.0	0.00e+00	25	28	0	347078656	50	6148
2026-01-26 18:23:05.85	11.48	13.00	-38.6	-39.6	23.0	0.00e+00	17	29	0	348127232	50	6109
2026-01-26 18:23:06.86	11.30	13.05	-38.5	-39.5	23.1	0.00e+00	0	29	0	350224384	50	6041
2026-01-26 18:23:07.87	11.13	13.10	-38.5	-39.5	23.1	0.00e+00	26	29	0	352321536	50	6052
2026-01-26 18:23:08.88	10.95	13.14	-38.5	-39.4	23.1	0.00e+00	26	29	0	354418688	50	6030
2026-01-26 18:23:09.89	10.77	13.19	-38.4	-39.4	23.2	0.00e+00	0	29	0	356515840	50	5973
2026-01-26 18:23:10.90	10.60	13.24	-38.4	-39.3	23.3	0.00e+00	92	28	0	358612992	50	5944
2026-01-26 18:23:11.91	10.42	13.29	-38.4	-39.3	23.1	0.00e+00	0	28	0	359661568	50	5964
2026-01-26 18:23:12.92	10.24	13.33	-38.4	-39.3	23.2	0.00e+00	91	28	0	361758720	50	5957
2026-01-26 18:23:13.93	10.06	13.38	-38.3	-39.2	23.2	0.00e+00	0	28	0	363855872	50	5875
2026-01-26 18:23:14.94	9.88	13.43	-38.3	-39.3	22.5	0.00e+00	3	28	0	365953024	50	5915
2026-01-26 18:23:15.94	9.70	13.47	-38.4	-39.4	23.2	0.00e+00	55	29	0	368050176	50	5977
2026-01-26 18:23:16.95	9.52	13.52	-38.4	-39.4	23.2	0.00e+00	0	28	0	369098752	50	5986
2026-01-26 18:23:17.96	9.34	13.56	-38.0	-38.9	23.6	0.00e+00	55	28	0	371195904	50	5672
2026-01-26 18:23:18.97	9.16	13.61	-37.9	-38.8	23.7	0.00e+00	0	29	0	373293056	50	5589
2026-01-26 18:23:19.98	8.98	13.65	-37.9	-38.8	23.7	0.00e+00	92	28	0	375390208	50	5623
2026-01-26 18:23:20.99	8.80	13.70	-37.7	-38.6	23.9	0.00e+00	54	29	0	377487360	48	6143
2026-01-26 18:23:22.00	8.61	13.75	-37.9	-38.8	23.6	0.00e+00	71	29	0	378535936	48	6310
2026-01-26 18:23:23.01	8.43	13.79	-37.9	-38.8	23.7	0.00e+00	3	29	0	380633088	48	6308
2026-01-26 18:23:24.02	8.25	13.84	-38.1	-39.0	23.6	0.00e+00	54	29	0	382730240	48	6412
2026-01-26 18:23:25.03	8.06	13.88	-38.0	-38.9	23.6	0.00e+00	40	29	0	384827392	48	6381
2026-01-26 18:23:26.04	7.87	13.92	-38.1	-39.1	23.4	0.00e+00	0	29	0	386924544	48	6472
2026-01-26 18:23:27.05	7.69	13.97	-38.1	-39.0	23.5	0.00e+00	91	29	0	387973120	48	6446
2026-01-26 18:23:28.06	7.50	14.01	-38.0	-38.8	23.6	0.00e+00	0	29	0	390070272	48	6316
2026-01-26 18:23:29.07	7.31	14.06	-38.1	-39.1	23.5	0.00e+00	92	28	0	392167424	48	6472
2026-01-26 18:23:30.08	7.13	14.10	-38.1	-39.0	23.2	0.00e+00	2	29	0	394264576	48	6459
2026-01-26 18:23:31.09	6.94	14.14	-38.3	-39.3	23.2	0.00e+00	0	29	0	396361728	48	6643
2026-01-26 18:23:32.09	6.75	14.18	-38.3	-39.2	23.3	0.00e+00	2	29	0	397410304	48	6595
2026-01-26 18:23:33.10	6.56	14.23	-38.3	-39.3	23.3	0.00e+00	0	29	0	399507456	48	6623
2026-01-26 18:23:34.11	6.37	14.27	-38.4	-39.3	23.2	0.00e+00	92	29	0	401604608	48	6678
2026-01-26 18:23:35.12	6.18	14.31	-38.3	-39.3	23.3	0.00e+00	0	29	0	403701760	48	6635
2026-01-26 18:23:36.13	5.99	14.35	-38.3	-39.3	23.2	0.00e+00	91	29	0	405798912	48	6641
2026-01-26 18:23:37.14	5.80	14.40	-38.4	-39.3	23.2	0.00e+00	0	29	0	406847488	48	6643
2026-01-26 18:23:38.15	5.61	14.44	-38.3	-39.3	23.3	0.00e+00	2	29	0	408944640	48	6616
2026-01-26 18:23:39.16	5.41	14.48	-38.3	-39.3	23.3	0.00e+00	0	29	0	411041792	48	6616
2026-01-26 18:23:40.17	5.22	14.52	-38.3	-39.3	23.3	0.00e+00	56	29	0	413138944	48	6620
2026-01-26 18:23:41.18	5.03	14.56	-38.2	-39.1	23.5	0.00e+00	56	29	0	415236096	48	6507
2026-01-26 18:23:42.19	4.83	14.60	-38.2	-39.1	23.4	0.00e+00	56	29	0	416284672	48	6531
2026-01-26 18:23:43.20	4.64	14.64	-38.3	-39.3	23.3	0.00e+00	92	29	0	418381824	48	6617
2026-01-26 18:23:44.21	4.44	14.68	-38.3	-39.3	23.1	0.00e+00	57	29	0	420478976	48	6630
2026-01-26 18:23:45.22	4.25	14.72	-38.4	-39.4	23.2	0.00e+00	79	29	0	422576128	48	6709
2026-01-26 18:23:46.23	4.05	14.76	-38.3	-39.2	23.4	0.00e+00	0	29	0	424673280	48	6593
2026-01-26 18:23:47.24	3.85	14.80	-38.4	-39.3	23.3	0.00e+00	0	29	0	426770432	48	6679
2026-01-26 18:23:48.24	3.66	14.84	-38.6	-39.5	23.2	0.00e+00	0	29	0	427819008	48	6833
2026-01-26 18:23:49.25	3.46	14.87	-38.1	-39.0	23.6	0.00e+00	2	29	0	429916160	48	6420
2026-01-26 18:23:50.26	3.26	14.91	-37.8	-38.7	23.8	0.00e+00	92	29	0	432013312	48	6202
2026-01-26 18:23:51.27	3.06	14.95	-37.8	-38.7	23.8	0.00e+00	28	29	0	434110464	48	6209
2026-01-26 18:23:52.28	2.86	14.99	-38.0	-38.9	23.7	0.00e+00	92	29	0	436207616	48	6321
2026-01-26 18:23:53.29	2.66	15.03	-38.0	-38.9	23.6	0.00e+00	2	29	0	437256192	48	6375
2026-01-26 18:23:54.30	2.46	15.06	-38.0	-38.9	23.8	0.00e+00	0	29	0	439353344	48	6351
2026-01-26 18:23:55.31	2.26	15.10	-37.8	-38.7	23.9	0.00e+00	0	29	0	441450496	48	6181
2026-01-26 18:23:56.32	2.06	15.14	-37.7	-38.5	23.8	0.00e+00	0	29	0	443547648	48	6087
2026-01-26 18:23:57.33	1.86	15.17	-37.7	-38.5	24.0	0.00e+00	79	29	0	444596224	48	6091
2026-01-26 18:23:58.34	1.65	15.21	-37.7	-38.5	23.9	0.00e+00	0	29	0	446693376	48	6078
2026-01-26 18:23:59.35	1.45	15.24	-37.8	-38.6	23.8	0.00e+00	92	29	0	448790528	48	6165
2026-01-26 18:24:00.36	1.25	15.28	-37.8	-38.7	23.8	0.00e+00	0	29	0	450887680	48	6193
2026-01-26 18:24:01.37	1.04	15.31	-37.9	-38.8	23.7	0.00e+00	20	29	0	452984832	48	6260
2026-01-26 18:24:02.38	0.84	15.35	-37.8	-38.7	23.8	0.00e+00	2	29	0	455081984	48	6221
2026-01-26 18:24:03.39	0.63	15.38	-37.7	-38.5	24.0	0.00e+00	0	29	0	456130560	48	6086
2026-01-26 18:24:04.40	0.43	15.42	-37.5	-38.4	24.0	0.00e+00	36	29	0	458227712	48	5999
2026-01-26 18:24:05.41	0.22	15.45	-37.7	-38.5	24.0	0.00e+00	27	29	0	460324864	48	6080
2026-01-26 18:24:06.42	0.02	15.48	-37.8	-38.7	23.9	0.00e+00	91	29	0	462422016	48	6235
2026-01-26 18:24:07.43	359.81	15.52	-37.8	-38.7	23.9	0.00e+00	55	29	0	464519168	48	6196
2026-01-26 18:24:08.44	359.60	15.55	-37.9	-38.8	23.9	0.00e+00	92	29	0	465567744	48	6246
2026-01-26 18:24:09.44	359.40	15.58	-37.7	-38.6	23.9	0.00e+00	7	29	0	467664896	48	6119
2026-01-26 18:24:10.45	359.19	15.61	-37.7	-38.5	23.9	0.00e+00	0	29	0	469762048	48	6096
2026-01-26 18:24:11.46	358.98	15.64	-38.0	-38.9	23.6	0.00e+00	0	29	0	471859200	48	6356
2026-01-26 18:24:12.47	358.77	15.68	-38.3	-39.2	23.7	0.00e+00	28	29	0	473956352	48	6567
2026-01-26 18:24:13.48	358.56	15.71	-37.9	-38.8	23.8	0.00e+00	92	29	0	475004928	48	6303
2026-01-26 18:24:14.49	358.35	15.74	-37.8	-38.7	23.8	0.00e+00	6	29	0	477102080	48	6236
2026-01-26 18:24:15.50	358.14	15.77	-37.9	-38.8	23.8	0.00e+00	92	29	0	479199232	48	6251
2026-01-26 18:24:16.51	357.93	15.80	-37.8	-38.6	23.9	0.00e+00	0	29	0	481296384	48	6171
2026-01-26 18:24:17.52	357.72	15.83	-37.9	-38.8	23.8	0.00e+00	5	29	0	483393536	48	6246
2026-01-26 18:24:18.52	357.51	15.86	-38.0	-38.9	23.6	0.00e+00	6	29	0	484442112	48	6384
2026-01-26 18:24:19.53	357.30	15.88	-37.8	-38.6	23.9	0.00e+00	51	29	0	486539264	48	6164
2026-01-26 18:24:20.54	357.08	15.91	-37.9	-38.8	23.8	0.00e+00	92	29	0	488636416	48	6269
2026-01-26 18:24:21.55	356.87	15.94	-38.0	-38.9	23.7	0.00e+00	0	29	0	490733568	48	6351
2026-01-26 18:24:22.56	356.66	15.97	-37.9	-38.7	23.8	0.00e+00	92	29	0	492830720	48	6233
2026-01-26 18:24:23.57	356.44	16.00	-37.7	-38.6	23.8	0.00e+00	54	29	0	493879296	48	6144
2026-01-26 18:24:24.58	356.23	16.02	-37.8	-38.7	23.8	0.00e+00	33	29	0	495976448	48	6186
2026-01-26 18:24:25.59	356.02	16.05	-37.8	-38.7	23.8	0.00e+00	6	29	0	498073600	48	6201
2026-01-26 18:24:26.60	355.80	16.08	-37.8	-38.7	23.8	0.00e+00	49	29	0	500170752	48	6191
2026-01-26 18:24:27.61	355.58	16.10	-37.7	-38.6	23.9	0.00e+00	34	29	0	502267904	48	6113
2026-01-26 18:24:28.62	355.37	16.13	-38.0	-38.9	23.7	0.00e+00	48	29	0	503316480	48	6333
2026-01-26 18:24:29.63	355.15	16.15	-37.9	-38.8	23.8	0.00e+00	92	29	0	505413632	48	6289
2026-01-26 18:24:30.64	354.94	16.18	-38.1	-39.0	23.6	0.00e+00	7	29	0	507510784	48	6421
2026-01-26 18:24:31.65	354.72	16.20	-38.2	-39.1	23.5	0.00e+00	90	29	0	509607936	48	6495
2026-01-26 18:24:32.66	354.50	16.22	-38.3	-39.2	23.4	0.00e+00	38	29	0	511705088	48	6560
2026-01-26 18:24:33.67	354.29	16.25	-38.4	-39.3	23.2	0.00e+00	0	29	0	512753664	48	6684
2026-01-26 18:24:34.68	354.07	16.27	-38.3	-39.2	23.3	0.00e+00	0	29	0	514850816	48	6595
2026-01-26 18:24:35.69	353.85	16.29	-38.4	-39.3	23.3	0.00e+00	0	29	0	516947968	48	6663
2026-01-26 18:24:36.70	353.63	16.32	-38.7	-39.6	23.0	0.00e+00	92	29	0	519045120	48	6913
2026-01-26 18:24:37.71	353.41	16.34	-38.6	-39.6	23.2	0.00e+00	0	29	0	521142272	50	6112
2026-01-26 18:24:38.72	353.19	16.36	-39.1	-40.1	22.6	0.00e+00	92	29	0	523239424	50	6488
2026-01-26 18:24:39.72	352.98	16.38	-39.0	-40.0	22.7	0.00e+00	7	29	0	524288000	50	6443
2026-01-26 18:24:40.73	352.76	16.40	-39.0	-40.0	22.6	0.00e+00	56	29	0	526385152	50	6463
2026-01-26 18:24:41.74	352.54	16.42	-39.1	-40.1	22.7	0.00e+00	52	29	0	528482304	50	6531
2026-01-26 18:24:42.75	352.32	16.44	-39.2	-40.2	22.6	0.00e+00	0	29	0	530579456	50	6588
2026-01-26 18:24:43.76	352.10	16.46	-39.0	-40.0	22.6	0.00e+00	11	29	0	532676608	50	6422
2026-01-26 18:24:44.76	351.88	16.48	-38.9	-39.9	22.9	0.00e+00	0	29	0	533725184	50	6368
2026-01-26 18:24:45.78	351.65	16.50	-38.7	-39.7	23.0	0.00e+00	90	29	0	535822336	50	6199
2026-01-26 18:24:46.78	351.43	16.51	-38.9	-39.9	22.9	0.00e+00	26	29	0	537919488	50	6363
2026-01-26 18:24:47.79	351.21	16.53	-39.1	-40.0	22.8	0.00e+00	29	29	0	540016640	50	6453
2026-01-26 18:24:48.80	350.99	16.55	-38.1	-39.0	23.6	0.00e+00	26	29	0	542113792	50	5741
2026-01-26 18:24:49.81	350.77	16.57	-38.2	-39.1	23.6	0.00e+00	28	29	0	543162368	50	5791
2026-01-26 18:24:50.82	350.55	16.58	-38.2	-39.1	23.5	0.00e+00	49	29	0	545259520	50	5776
2026-01-26 18:24:51.83	350.32	16.60	-38.2	-39.1	23.5	0.00e+00	54	29	0	547356672	50	5828
2026-01-26 18:24:52.84	350.10	16.61	-38.3	-39.2	23.4	0.00e+00	91	29	0	549453824	50	5864
2026-01-26 18:24:53.85	349.88	16.63	-38.3	-39.2	23.4	0.00e+00	0	29	0	551550976	50	5853
2026-01-26 18:24:54.86	349.65	16.64	-38.4	-39.4	23.2	0.00e+00	92	29	0	552599552	50	5966
2026-01-26 18:24:55.86	349.43	16.66	-38.4	-39.3	23.3	0.00e+00	0	29	0	554696704	50	5952
2026-01-26 18:24:56.87	349.21	16.67	-38.3	-39.3	23.3	0.00e+00	29	29	0	556793856	50	5919
2026-01-26 18:24:57.88	348.98	16.68	-38.5	-39.4	22.9	0.00e+00	0	29	0	558891008	50	6013
2026-01-26 18:24:58.89	348.76	16.70	-38.4	-39.4	23.3	0.00e+00	2	29	0	560988160	50	5968
2026-01-26 18:24:59.90	348.54	16.71	-38.3	-39.3	23.4	0.00e+00	92	29	0	562036736	50	5915
2026-01-26 18:25:00.91	348.31	16.72	-38.4	-39.4	23.3	0.00e+00	0	29	0	564133888	50	5979
2026-01-26 18:25:01.92	348.09	16.73	-38.5	-39.5	23.2	0.00e+00	91	29	0	566231040	50	6037
2026-01-26 18:25:02.93	347.86	16.74	-38.7	-39.6	23.1	0.00e+00	0	29	0	568328192	50	6158
2026-01-26 18:25:03.94	347.64	16.76	-38.7	-39.6	23.1	0.00e+00	0	29	0	570425344	50	6153
2026-01-26 18:25:04.95	347.41	16.77	-38.6	-39.6	23.1	0.00e+00	48	29	0	571473920	50	6104
2026-01-26 18:25:05.96	347.18	16.78	-38.7	-39.7	23.0	0.00e+00	0	29	0	573571072	50	6191
2026-01-26 18:25:06.97	346.96	16.78	-38.5	-39.4	23.2	0.00e+00	2	29	0	575668224	50	6014
2026-01-26 18:25:07.98	346.73	16.79	-38.4	-39.4	23.4	0.00e+00	56	29	0	577765376	50	5988
2026-01-26 18:25:08.99	346.51	16.80	-38.5	-39.4	23.2	0.00e+00	92	29	0	579862528	50	6027
2026-01-26 18:25:10.00	346.28	16.81	-38.6	-39.5	23.2	0.00e+00	56	29	0	580911104	50	6093
2026-01-26 18:25:11.01	346.06	16.82	-38.6	-39.6	23.1	0.00e+00	92	29	0	583008256	50	6156
2026-01-26 18:25:12.01	345.83	16.82	-38.7	-39.7	23.1	0.00e+00	32	29	0	585105408	50	6187
2026-01-26 18:25:13.02	345.61	16.83	-38.6	-39.6	23.1	0.00e+00	32	29	0	587202560	50	6136
2026-01-26 18:25:14.03	345.38	16.84	-38.8	-39.8	22.9	0.00e+00	82	29	0	589299712	50	6285
2026-01-26 18:25:15.04	345.15	16.84	-38.6	-39.5	23.2	0.00e+00	0	29	0	591396864	50	6068
2026-01-26 18:25:16.05	344.93	16.85	-38.5	-39.4	23.2	0.00e+00	92	29	0	592445440	50	6010
2026-01-26 18:25:17.06	344.70	16.85	-38.6	-39.5	23.2	0.00e+00	0	29	0	594542592	50	6079
2026-01-26 18:25:18.07	344.47	16.86	-38.5	-39.4	23.2	0.00e+00	92	29	0	596639744	50	5996
2026-01-26 18:25:19.08	344.25	16.86	-38.6	-39.5	23.2	0.00e+00	2	29	0	598736896	50	6071
2026-01-26 18:25:20.09	344.02	16.86	-38.5	-39.5	23.1	0.00e+00	0	29	0	600834048	50	6048
2026-01-26 18:25:21.10	343.79	16.87	-38.7	-39.6	23.1	0.00e+00	0	29	0	601882624	50	6170
2026-01-26 18:25:22.11	343.56	16.87	-38.6	-39.6	23.1	0.00e+00	2	29	0	603979776	50	6108
2026-01-26 18:25:23.12	343.34	16.87	-38.4	-39.3	23.3	0.00e+00	90	29	0	606076928	50	5947
2026-01-26 18:25:24.12	343.11	16.87	-38.4	-39.3	23.3	0.00e+00	0	29	0	608174080	50	5959
2026-01-26 18:25:25.14	342.88	16.87	-38.3	-39.2	23.4	0.00e+00	92	29	0	610271232	50	5896
2026-01-26 18:25:26.15	342.66	16.88	-38.3	-39.3	23.3	0.00e+00	55	29	0	611319808	50	5910
2026-01-26 18:25:27.16	342.43	16.88	-38.5	-39.5	23.1	0.00e+00	50	29	0	613416960	50	6065
2026-01-26 18:25:28.16	342.20	16.88	-38.7	-39.7	23.0	0.00e+00	0	29	0	615514112	50	6182
2026-01-26 18:25:29.17	341.98	16.87	-38.7	-39.7	23.0	0.00e+00	49	29	0	617611264	50	6197
2026-01-26 18:25:30.18	341.75	16.87	-38.8	-39.8	22.9	0.00e+00	92	29	0	619708416	50	6255
2026-01-26 18:25:31.20	341.52	16.87	-38.9	-40.0	22.6	0.00e+00	0	29	0	620756992	50	6405
2026-01-26 18:25:32.21	341.29	16.87	-38.6	-39.6	23.1	0.00e+00	92	29	0	622854144	50	6148
2026-01-26 18:25:33.21	341.07	16.87	-38.6	-39.6	23.0	0.00e+00	28	29	0	624951296	50	6156
2026-01-26 18:25:34.22	340.84	16.86	-38.3	-39.3	23.2	0.00e+00	92	29	0	627048448	50	5941
2026-01-26 18:25:35.23	340.62	16.86	-38.3	-39.3	23.3	0.00e+00	28	29	0	629145600	50	5919
2026-01-26 18:25:36.24	340.39	16.86	-38.2	-39.2	23.4	0.00e+00	29	29	0	630194176	50	5871
2026-01-26 18:25:37.25	340.16	16.85	-38.3	-39.4	23.3	0.00e+00	41	29	0	632291328	50	5971
2026-01-26 18:25:38.26	339.94	16.85	-38.1	-39.2	23.5	0.00e+00	0	29	0	634388480	50	5840
2026-01-26 18:25:39.27	339.71	16.84	-38.3	-39.3	23.3	0.00e+00	92	29	0	636485632	50	5936
2026-01-26 18:25:40.28	339.48	16.84	-38.4	-39.4	23.3	0.00e+00	28	29	0	638582784	50	6024
2026-01-26 18:25:41.29	339.26	16.83	-38.6	-39.7	23.0	0.00e+00	92	29	0	639631360	50	6177
2026-01-26 18:25:42.30	339.03	16.82	-38.6	-39.7	23.0	0.00e+00	0	29	0	641728512	50	6184
2026-01-26 18:25:43.31	338.80	16.82	-38.7	-39.8	23.0	0.00e+00	0	29	0	643825664	50	6263
2026-01-26 18:25:44.32	338.58	16.81	-38.6	-39.6	23.1	0.00e+00	0	29	0	645922816	50	6140
2026-01-26 18:25:45.33	338.35	16.80	-38.5	-39.5	23.1	0.00e+00	0	29	0	648019968	50	6092
2026-01-26 18:25:46.34	338.13	16.79	-38.5	-39.5	23.1	0.00e+00	92	29	0	649068544	50	6103
2026-01-26 18:25:47.35	337.90	16.78	-38.5	-39.5	23.2	0.00e+00	0	29	0	651165696	50	6081
2026-01-26 18:25:48.36	337.67	16.77	-38.4	-39.4	23.2	0.00e+00	92	29	0	653262848	50	6022
2026-01-26 18:25:49.37	337.45	16.76	-38.5	-39.5	23.2	0.00e+00	55	29	0	655360000	50	6042
2026-01-26 18:25:50.38	337.22	16.75	-38.3	-39.3	23.4	0.00e+00	26	29	0	657457152	50	5907
2026-01-26 18:25:51.39	337.00	16.74	-38.2	-39.2	23.5	0.00e+00	49	29	0	659554304	50	5838
2026-01-26 18:25:52.40	336.77	16.73	-38.3	-39.2	23.5	0.00e+00	33	29	0	660602880	50	5881
2026-01-26 18:25:53.41	336.55	16.72	-38.2	-39.2	23.5	0.00e+00	0	29	0	662700032	50	5835
2026-01-26 18:25:54.42	336.32	16.71	-38.3	-39.2	23.2	0.00e+00	2	29	0	664797184	50	5892
2026-01-26 18:25:55.43	336.10	16.70	-38.3	-39.3	23.3	0.00e+00	92	29	0	666894336	50	5913
2026-01-26 18:25:56.44	335.87	16.68	-38.5	-39.5	23.2	0.00e+00	28	29	0	668991488	50	6061
2026-01-26 18:25:57.45	335.65	16.67	-38.5	-39.5	23.2	0.00e+00	12	29	0	670040064	50	6039
2026-01-26 18:25:58.46	335.43	16.66	-38.6	-39.5	23.1	0.00e+00	29	29	0	672137216	50	6099
2026-01-26 18:25:59.47	335.20	16.64	-38.4	-39.4	23.3	0.00e+00	6	29	0	674234368	50	5986
2026-01-26 18:26:00.48	334.98	16.63	-38.3	-39.3	23.4	0.00e+00	0	29	0	676331520	50	5902
2026-01-26 18:26:01.49	334.76	16.61	-38.0	-38.9	23.8	0.00e+00	0	29	0	678428672	50	5680
2026-01-26 18:26:02.50	334.53	16.60	-38.0	-38.9	23.7	0.00e+00	92	29	0	679477248	50	5641
2026-01-26 18:26:03.51	334.31	16.58	-37.8	-38.7	23.9	0.00e+00	0	29	0	681574400	50	5542
2026-01-26 18:26:04.51	334.09	16.56	-37.8	-38.7	23.9	0.00e+00	92	29	0	683671552	50	5530
2026-01-26 18:26:05.53	333.87	16.55	-37.9	-38.8	23.8	0.00e+00	0	29	0	685768704	50	5571
2026-01-26 18:26:06.53	333.65	16.53	-38.0	-38.9	23.6	0.00e+00	53	29	0	687865856	50	5693
2026-01-26 18:26:07.54	333.42	16.51	-38.1	-39.0	23.6	0.00e+00	20	29	0	688914432	50	5741
2026-01-26 18:26:08.55	333.20	16.49	-38.0	-38.9	23.7	0.00e+00	48	29	0	691011584	50	5658
2026-01-26 18:26:09.56	332.98	16.47	-37.9	-38.8	23.8	0.00e+00	92	29	0	693108736	50	5604
2026-01-26 18:26:10.57	332.76	16.46	-37.9	-38.8	23.7	0.00e+00	0	29	0	695205888	50	5619
2026-01-26 18:26:11.58	332.54	16.44	-37.9	-38.8	23.9	0.00e+00	92	29	0	697303040	50	5605
2026-01-26 18:26:12.59	332.32	16.42	-37.8	-38.6	24.0	0.00e+00	53	29	0	698351616	48	6170
2026-01-26 18:26:13.60	332.10	16.40	-37.8	-38.7	24.0	0.00e+00	54	29	0	700448768	48	6176
2026-01-26 18:26:14.61	331.88	16.38	-37.6	-38.4	24.2	0.00e+00	35	29	0	702545920	48	6023
2026-01-26 18:26:15.62	331.66	16.35	-37.6	-38.5	24.1	0.00e+00	39	29	0	704643072	48	6070
2026-01-26 18:26:16.63	331.44	16.33	-37.7	-38.6	24.0	0.00e+00	26	29	0	706740224	48	6133
2026-01-26 18:26:17.64	331.22	16.31	-37.6	-38.5	23.8	0.00e+00	7	29	0	707788800	48	6064
2026-01-26 18:26:18.65	331.00	16.29	-37.7	-38.6	23.9	0.00e+00	92	29	0	709885952	48	6112
2026-01-26 18:26:19.66	330.79	16.27	-37.8	-38.7	23.9	0.00e+00	5	29	0	711983104	48	6216
2026-01-26 18:26:20.67	330.57	16.24	-37.9	-38.8	23.8	0.00e+00	92	29	0	714080256	48	6248
2026-01-26 18:26:21.68	330.35	16.22	-38.1	-39.0	23.6	0.00e+00	6	29	0	716177408	48	6417
2026-01-26 18:26:22.69	330.13	16.20	-37.9	-38.8	23.8	0.00e+00	6	29	0	717225984	48	6284
2026-01-26 18:26:23.70	329.92	16.17	-38.0	-38.9	23.7	0.00e+00	5	29	0	719323136	48	6372
2026-01-26 18:26:24.71	329.70	16.15	-38.1	-39.1	23.6	0.00e+00	6	29	0	721420288	48	6467
2026-01-26 18:26:25.72	329.48	16.12	-38.2	-39.1	23.5	0.00e+00	92	29	0	723517440	48	6527
2026-01-26 18:26:26.72	329.27	16.10	-38.5	-39.4	23.3	0.00e+00	0	29	0	725614592	48	6748
2026-01-26 18:26:27.73	329.05	16.07	-38.4	-39.4	23.3	0.00e+00	91	29	0	727711744	48	6719
2026-01-26 18:26:28.74	328.84	16.04	-38.5	-39.4	23.2	0.00e+00	53	29	0	728760320	48	6745
2026-01-26 18:26:29.76	328.62	16.02	-38.3	-39.2	23.5	0.00e+00	0	29	0	730857472	48	6608
2026-01-26 18:26:30.76	328.41	15.99	-38.2	-39.1	23.5	0.00e+00	0	29	0	732954624	48	6532
2026-01-26 18:26:31.77	328.20	15.96	-38.3	-39.2	23.3	0.00e+00	0	29	0	735051776	48	6605
2026-01-26 18:26:32.78	327.98	15.94	-38.2	-39.1	23.5	0.00e+00	92	29	0	737148928	48	6523
2026-01-26 18:26:33.79	327.77	15.91	-38.3	-39.2	23.5	0.00e+00	48	29	0	738197504	48	6555
2026-01-26 18:26:34.80	327.56	15.88	-38.5	-39.4	23.3	0.00e+00	90	29	0	740294656	48	6737
2026-01-26 18:26:35.81	327.35	15.85	-38.3	-39.3	23.4	0.00e+00	28	29	0	742391808	48	6624
2026-01-26 18:26:36.82	327.13	15.82	-38.7	-39.6	23.2	0.00e+00	52	29	0	744488960	48	6890
2026-01-26 18:26:37.83	326.92	15.79	-38.6	-39.5	23.2	0.00e+00	53	29	0	745537536	48	6806
2026-01-26 18:26:38.84	326.71	15.76	-38.7	-39.7	23.1	0.00e+00	28	29	0	747634688	50	6183
2026-01-26 18:26:39.85	326.50	15.73	-38.9	-39.9	23.0	0.00e+00	69	29	0	749731840	50	6330
2026-01-26 18:26:40.86	326.29	15.70	-39.0	-40.0	22.9	0.00e+00	33	29	0	751828992	50	6433
2026-01-26 18:26:41.87	326.08	15.67	-39.1	-40.1	22.6	0.00e+00	90	29	0	753926144	50	6508
2026-01-26 18:26:42.88	325.87	15.64	-39.0	-39.9	23.0	0.00e+00	0	29	0	756023296	50	6379
2026-01-26 18:26:43.89	325.66	15.61	-39.0	-40.0	22.7	0.00e+00	49	29	0	757071872	50	6432
2026-01-26 18:26:44.90	325.45	15.57	-39.2	-40.2	22.6	0.00e+00	0	29	0	759169024	50	6614
2026-01-26 18:26:45.91	325.25	15.54	-39.0	-40.0	23.0	0.00e+00	0	29	0	761266176	50	6442
2026-01-26 18:26:46.92	325.04	15.51	-39.0	-40.0	22.9	0.00e+00	0	29	0	763363328	50	6402
2026-01-26 18:26:47.93	324.83	15.48	-39.0	-40.0	22.9	0.00e+00	0	29	0	765460480	50	6414
2026-01-26 18:26:48.94	324.63	15.44	-39.0	-39.9	22.9	0.00e+00	90	29	0	766509056	50	6379
2026-01-26 18:26:49.95	324.42	15.41	-38.9	-39.8	22.8	0.00e+00	52	29	0	768606208	50	6308
2026-01-26 18:26:50.96	324.21	15.38	-38.6	-39.6	23.2	0.00e+00	90	29	0	770703360	50	6115
2026-01-26 18:26:51.97	324.01	15.34	-38.6	-39.6	23.1	0.00e+00	0	29	0	772800512	50	6115
2026-01-26 18:26:52.98	323.80	15.31	-38.5	-39.4	23.3	0.00e+00	52	29	0	774897664	50	6021
2026-01-26 18:26:53.99	323.60	15.27	-38.6	-39.6	23.2	0.00e+00	52	29	0	775946240	50	6123
2026-01-26 18:26:55.00	323.40	15.24	-38.5	-39.5	23.0	0.00e+00	53	29	0	778043392	50	6036
2026-01-26 18:26:56.01	323.19	15.20	-38.3	-39.2	23.5	0.00e+00	92	29	0	780140544	50	5851
2026-01-26 18:26:57.02	322.99	15.16	-38.3	-39.2	23.4	0.00e+00	34	29	0	782237696	50	5891
2026-01-26 18:26:58.03	322.79	15.13	-38.3	-39.2	23.5	0.00e+00	92	29	0	784334848	50	5883
2026-01-26 18:26:59.04	322.59	15.09	-38.4	-39.3	23.3	0.00e+00	3	29	0	785383424	50	5918
2026-01-26 18:27:00.05	322.39	15.06	-38.4	-39.3	23.3	0.00e+00	2	29	0	787480576	50	5924
2026-01-26 18:27:01.05	322.19	15.02	-38.4	-39.3	23.3	0.00e+00	28	29	0	789577728	50	5952
2026-01-26 18:27:02.06	321.99	14.98	-38.3	-39.3	23.4	0.00e+00	0	29	0	791674880	50	5900
2026-01-26 18:27:03.07	321.79	14.94	-38.4	-39.3	23.4	0.00e+00	40	29	0	793772032	50	5927
2026-01-26 18:27:04.08	321.59	14.91	-38.3	-39.2	23.5	0.00e+00	0	29	0	795869184	50	5888
2026-01-26 18:27:05.09	321.39	14.87	-38.4	-39.3	23.4	0.00e+00	92	29	0	796917760	50	5938
2026-01-26 18:27:06.10	321.19	14.83	-38.3	-39.2	23.5	0.00e+00	0	29	0	799014912	50	5852
2026-01-26 18:27:07.11	320.99	14.79	-38.4	-39.4	23.3	0.00e+00	53	29	0	801112064	50	5969
2026-01-26 18:27:08.12	320.80	14.75	-38.5	-39.5	22.8	0.00e+00	0	29	0	803209216	50	6037
2026-01-26 18:27:09.13	320.60	14.71	-38.5	-39.5	23.2	0.00e+00	0	29	0	804257792	50	6039
2026-01-26 18:27:10.14	320.40	14.67	-38.5	-39.4	23.3	0.00e+00	0	29	0	806354944	50	6012
2026-01-26 18:27:11.15	320.21	14.63	-38.4	-39.3	23.5	0.00e+00	0	29	0	808452096	50	5904
2026-01-26 18:27:12.16	320.01	14.59	-38.4	-39.3	23.5	0.00e+00	91	29	0	810549248	50	5921
2026-01-26 18:27:13.17	319.82	14.55	-38.2	-39.0	23.7	0.00e+00	47	29	0	812646400	50	5757
2026-01-26 18:27:14.18	319.63	14.51	-38.3	-39.2	23.5	0.00e+00	90	29	0	813694976	50	5888
2026-01-26 18:27:15.19	319.43	14.47	-38.5	-39.5	23.3	0.00e+00	0	30	0	815792128	50	6035
2026-01-26 18:27:16.20	319.24	14.43	-38.5	-39.4	23.4	0.00e+00	30	29	0	817889280	50	5981
2026-01-26 18:27:17.20	319.05	14.39	-38.7	-39.6	23.3	0.00e+00	28	29	0	819986432	50	6168
2026-01-26 18:27:18.22	318.86	14.34	-38.8	-39.8	23.1	0.00e+00	28	29	0	822083584	50	6256
2026-01-26 18:27:19.22	318.67	14.30	-39.1	-40.1	22.8	0.00e+00	92	29	0	824180736	50	6488
2026-01-26 18:27:20.23	318.48	14.26	-39.1	-40.0	23.0	0.00e+00	0	29	0	825229312	50	6448
2026-01-26 18:27:21.24	318.29	14.22	-38.9	-39.8	22.8	0.00e+00	92	29	0	827326464	50	6315
2026-01-26 18:27:22.25	318.10	14.18	-39.0	-39.9	23.1	0.00e+00	2	29	0	829423616	50	6378
2026-01-26 18:27:23.26	317.91	14.13	-38.8	-39.8	22.9	0.00e+00	0	29	0	831520768	50	6278
2026-01-26 18:27:24.27	317.72	14.09	-38.9	-39.9	22.8	0.00e+00	2	29	0	833617920	50	6324
2026-01-26 18:27:25.28	317.53	14.05	-38.7	-39.6	23.3	0.00e+00	0	29	0	834666496	50	6118
2026-01-26 18:27:26.29	317.34	14.00	-38.8	-39.7	23.1	0.00e+00	29	29	0	836763648	50	6223
2026-01-26 18:27:27.30	317.16	13.96	-38.8	-39.7	23.2	0.00e+00	2	29	0	838860800	50	6233
2026-01-26 18:27:28.31	316.97	13.91	-39.1	-40.1	22.8	0.00e+00	92	29	0	840957952	50	6478
2026-01-26 18:27:29.32	316.78	13.87	-39.1	-40.0	22.8	0.00e+00	2	29	0	843055104	50	6459
2026-01-26 18:27:30.33	316.60	13.82	-39.1	-40.1	22.7	0.00e+00	0	29	0	844103680	50	6498
2026-01-26 18:27:31.34	316.41	13.78	-39.4	-40.4	22.6	0.00e+00	0	29	0	846200832	50	6702
2026-01-26 18:27:32.35	316.23	13.74	-39.4	-40.4	22.4	0.00e+00	52	29	0	848297984	50	6726
2026-01-26 18:27:33.36	316.05	13.69	-39.3	-40.3	22.6	0.00e+00	0	29	0	850395136	50	6670
2026-01-26 18:27:34.37	315.86	13.64	-39.3	-40.3	22.5	0.00e+00	0	29	0	852492288	50	6667
2026-01-26 18:27:35.38	315.68	13.60	-39.3	-40.3	22.6	0.00e+00	92	30	0	853540864	50	6685
2026-01-26 18:27:36.39	315.50	13.55	-39.2	-40.2	22.6	0.00e+00	35	29	0	855638016	50	6596
2026-01-26 18:27:37.40	315.32	13.51	-39.1	-40.1	22.5	0.00e+00	92	29	0	857735168	50	6531
2026-01-26 18:27:38.41	315.14	13.46	-39.2	-40.2	22.6	0.00e+00	0	29	0	859832320	50	6579
2026-01-26 18:27:39.42	314.96	13.41	-39.3	-40.3	22.6	0.00e+00	0	29	0	861929472	50	6691
2026-01-26 18:27:40.43	314.78	13.37	-39.3	-40.3	22.5	0.00e+00	51	29	0	862978048	50	6648
2026-01-26 18:27:41.44	314.60	13.32	-39.5	-40.5	22.4	0.00e+00	30	29	0	865075200	50	6788
2026-01-26 18:27:42.44	314.42	13.27	-39.5	-40.5	22.4	0.00e+00	92	29	0	867172352	50	6782
2026-01-26 18:27:43.45	314.25	13.23	-39.5	-40.6	22.3	0.00e+00	6	29	0	869269504	50	6868
2026-01-26 18:27:44.47	314.07	13.18	-39.6	-40.7	22.2	0.00e+00	91	29	0	871366656	50	6958
2026-01-26 18:27:45.48	313.89	13.13	-39.7	-40.8	22.1	0.00e+00	31	29	0	872415232	50	7033
2026-01-26 18:27:46.49	313.72	13.08	-39.8	-40.9	22.0	0.00e+00	5	29	0	874512384	52	6367
2026-01-26 18:27:47.50	313.54	13.04	-40.0	-41.1	22.0	0.00e+00	0	30	0	876609536	52	6476
2026-01-26 18:27:48.51	313.37	12.99	-40.2	-41.3	21.7	0.00e+00	0	30	0	878706688	52	6659
2026-01-26 18:27:49.52	313.19	12.94	-40.0	-41.1	21.9	0.00e+00	3	30	0	880803840	52	6530
2026-01-26 18:27:50.53	313.02	12.89	-40.2	-41.3	21.7	0.00e+00	0	29	0	881852416	52	6673
2026-01-26 18:27:51.54	312.84	12.84	-40.3	-41.5	21.6	0.00e+00	92	30	0	883949568	52	6776
2026-01-26 18:27:52.55	312.67	12.79	-40.4	-41.5	21.5	0.00e+00	0	30	0	886046720	52	6829
2026-01-26 18:27:53.56	312.50	12.75	-40.3	-41.5	21.4	0.00e+00	92	30	0	888143872	52	6803
2026-01-26 18:27:54.57	312.33	12.70	-40.5	-41.6	21.2	0.00e+00	0	30	0	890241024	52	6925
2026-01-26 18:27:55.58	312.16	12.65	-40.5	-41.6	21.4	0.00e+00	0	30	0	892338176	52	6892
2026-01-26 18:27:56.59	311.99	12.60	-40.3	-41.5	21.5	0.00e+00	39	29	0	893386752	52	6770
2026-01-26 18:27:57.60	311.82	12.55	-40.2	-41.4	21.6	0.00e+00	52	29	0	895483904	52	6697
2026-01-26 18:27:58.60	311.65	12.50	-40.1	-41.2	21.7	0.00e+00	92	29	0	897581056	52	6570
2026-01-26 18:27:59.61	311.48	12.45	-40.2	-41.3	21.6	0.00e+00	37	30	0	899678208	52	6632
2026-01-26 18:28:00.62	311.31	12.40	-40.2	-41.3	21.6	0.00e+00	92	29	0	901775360	52	6649
2026-01-26 18:28:01.63	311.15	12.35	-40.3	-41.5	21.5	0.00e+00	4	29	0	902823936	52	6791
2026-01-26 18:28:02.64	310.98	12.30	-40.5	-41.7	21.2	0.00e+00	7	30	0	904921088	52	6976
2026-01-26 18:28:03.65	310.81	12.25	-40.7	-41.9	21.0	0.00e+00	6	29	0	907018240	52	7145
2026-01-26 18:28:04.66	310.65	12.20	-41.0	-42.2	20.8	0.00e+00	35	30	0	909115392	54	6591
2026-01-26 18:28:05.67	310.48	12.15	-40.9	-42.2	20.8	0.00e+00	92	30	0	911212544	54	6562
2026-01-26 18:28:06.68	310.32	12.10	-40.8	-42.1	20.8	0.00e+00	35	29	0	912261120	54	6476
2026-01-26 18:28:07.69	310.16	12.05	-40.7	-42.0	20.9	0.00e+00	92	30	0	914358272	54	6403
2026-01-26 18:28:08.70	309.99	12.00	-40.8	-42.0	20.9	0.00e+00	6	29	0	916455424	54	6406
2026-01-26 18:28:09.71	309.83	11.94	-40.8	-42.0	20.8	0.00e+00	21	29	0	918552576	54	6444
2026-01-26 18:28:10.72	309.67	11.89	-40.6	-41.8	21.0	0.00e+00	0	29	0	920649728	54	6304
2026-01-26 18:28:11.73	309.51	11.84	-40.7	-42.0	21.0	0.00e+00	8	30	0	921698304	54	6391
2026-01-26 18:28:12.74	309.34	11.79	-40.8	-42.0	20.9	0.00e+00	5	30	0	923795456	54	6435
2026-01-26 18:28:13.75	309.18	11.74	-40.8	-42.0	20.9	0.00e+00	51	30	0	925892608	54	6416
2026-01-26 18:28:14.75	309.03	11.69	-40.7	-41.9	20.9	0.00e+00	92	29	0	927989760	54	6385
2026-01-26 18:28:15.77	308.87	11.64	-40.8	-42.1	20.9	0.00e+00	0	29	0	930086912	54	6477
2026-01-26 18:28:16.78	308.71	11.58	-40.9	-42.1	20.8	0.00e+00	92	29	0	931135488	54	6511
2026-01-26 18:28:17.78	308.55	11.53	-40.9	-42.1	20.8	0.00e+00	30	29	0	933232640	54	6510
2026-01-26 18:28:18.79	308.39	11.48	-40.8	-42.0	21.0	0.00e+00	51	30	0	935329792	54	6460
2026-01-26 18:28:19.80	308.24	11.43	-41.0	-42.2	20.8	0.00e+00	31	29	0	937426944	54	6590
2026-01-26 18:28:20.81	308.08	11.38	-41.1	-42.4	20.6	0.00e+00	29	29	0	939524096	54	6745
2026-01-26 18:28:21.82	307.92	11.32	-41.5	-42.8	20.5	0.00e+00	92	30	0	940572672	54	7056
2026-01-26 18:28:22.84	307.77	11.27	-41.5	-42.8	20.3	0.00e+00	0	30	0	942669824	56	6287
2026-01-26 18:28:23.85	307.61	11.22	-41.3	-42.6	20.5	0.00e+00	92	29	0	944766976	56	6118
2026-01-26 18:28:24.86	307.46	11.17	-41.3	-42.5	20.8	0.00e+00	30	29	0	946864128	56	6068
2026-01-26 18:28:25.87	307.30	11.11	-41.4	-42.6	20.6	0.00e+00	0	30	0	948961280	56	6170
2026-01-26 18:28:26.88	307.15	11.06	-41.7	-43.0	20.5	0.00e+00	2	30	0	950009856	56	6403
2026-01-26 18:28:27.88	307.00	11.01	-41.7	-43.0	20.5	0.00e+00	0	29	0	952107008	56	6421
2026-01-26 18:28:28.89	306.85	10.95	-41.5	-42.7	20.6	0.00e+00	85	30	0	954204160	56	6244
2026-01-26 18:28:29.90	306.70	10.90	-41.5	-42.8	20.7	0.00e+00	0	30	0	956301312	56	6254
2026-01-26 18:28:30.91	306.55	10.85	-41.6	-42.8	20.6	0.00e+00	92	29	0	958398464	56	6305
2026-01-26 18:28:31.92	306.39	10.79	-41.1	-42.4	20.8	0.00e+00	2	29	0	960495616	56	5974
2026-01-26 18:28:32.93	306.25	10.74	-41.1	-42.4	20.7	0.00e+00	26	30	0	961544192	56	5984
2026-01-26 18:28:33.93	306.10	10.69	-41.0	-42.3	21.0	0.00e+00	47	30	0	963641344	56	5901
2026-01-26 18:28:34.94	305.95	10.64	-41.0	-42.2	21.0	0.00e+00	0	30	0	965738496	56	5849
2026-01-26 18:28:35.95	305.80	10.58	-41.0	-42.2	21.1	0.00e+00	2	30	0	967835648	56	5840
2026-01-26 18:28:36.96	305.65	10.53	-40.9	-42.1	21.1	0.00e+00	50	29	0	969932800	54	6525
2026-01-26 18:28:37.97	305.51	10.47	-40.9	-42.0	21.1	0.00e+00	92	29	0	970981376	54	6457
2026-01-26 18:28:38.98	305.36	10.42	-40.8	-42.0	21.1	0.00e+00	0	30	0	973078528	54	6393
2026-01-26 18:28:39.99	305.21	10.37	-40.9	-42.1	21.2	0.00e+00	92	29	0	975175680	54	6488
2026-01-26 18:28:41.00	305.07	10.31	-40.8	-42.0	21.0	0.00e+00	33	30	0	977272832	54	6403
2026-01-26 18:28:42.01	304.92	10.26	-40.5	-41.6	21.4	0.00e+00	49	30	0	979369984	54	6160
2026-01-26 18:28:43.02	304.78	10.21	-40.5	-41.7	21.4	0.00e+00	5	30	0	980418560	54	6200
2026-01-26 18:28:44.03	304.64	10.15	-40.4	-41.6	21.4	0.00e+00	48	30	0	982515712	54	6112
2026-01-26 18:28:45.04	304.49	10.10	-40.3	-41.4	21.5	0.00e+00	92	30	0	984612864	54	6029
2026-01-26 18:28:46.04	304.35	10.04	-40.4	-41.5	21.7	0.00e+00	31	30	0	986710016	54	6045
2026-01-26 18:28:47.05	304.21	9.99	-40.4	-41.5	21.7	0.00e+00	92	30	0	988807168	54	6077
2026-01-26 18:28:48.06	304.07	9.94	-40.4	-41.6	21.5	0.00e+00	30	30	0	989855744	54	6115
2026-01-26 18:28:49.07	303.93	9.88	-40.4	-41.5	21.6	0.00e+00	4	30	0	991952896	54	6059
2026-01-26 18:28:50.08	303.79	9.83	-40.7	-41.9	21.5	0.00e+00	31	30	0	994050048	54	6331
2026-01-26 18:28:51.09	303.65	9.77	-40.4	-41.5	21.5	0.00e+00	0	30	0	996147200	54	6099
2026-01-26 18:28:52.09	303.51	9.72	-40.3	-41.4	21.5	0.00e+00	92	30	0	998244352	54	5991
2026-01-26 18:28:53.10	303.37	9.66	-40.2	-41.3	21.7	0.00e+00	2	30	0	999292928	54	5909
2026-01-26 18:28:54.11	303.23	9.61	-40.2	-41.3	21.7	0.00e+00	92	30	0	1001390080	54	5934
2026-01-26 18:28:55.12	303.09	9.55	-40.2	-41.3	21.8	0.00e+00	0	29	0	1003487232	54	5959
2026-01-26 18:28:56.13	302.96	9.50	-40.0	-41.1	22.1	0.00e+00	42	30	0	1005584384	54	5804
2026-01-26 18:28:57.14	302.82	9.45	-40.0	-41.1	22.0	0.00e+00	44	30	0	1007681536	54	5796
2026-01-26 18:28:58.15	302.68	9.39	-40.2	-41.3	21.9	0.00e+00	0	30	0	1008730112	54	5960
2026-01-26 18:28:59.16	302.55	9.34	-40.4	-41.5	21.5	0.00e+00	0	30	0	1010827264	54	6096
2026-01-26 18:29:00.16	302.41	9.28	-40.2	-41.3	21.8	0.00e+00	0	30	0	1012924416	54	5943
2026-01-26 18:29:01.17	302.28	9.23	-39.9	-41.0	21.9	0.00e+00	92	30	0	1015021568	54	5725
2026-01-26 18:29:02.18	302.14	9.17	-39.7	-40.8	22.1	0.00e+00	0	30	0	1017118720	52	6255
2026-01-26 18:29:03.19	302.01	9.12	-39.7	-40.8	22.1	0.00e+00	90	30	0	1018167296	52	6246
2026-01-26 18:29:04.20	301.88	9.06	-39.6	-40.7	22.4	0.00e+00	50	30	0	1020264448	52	6185
2026-01-26 18:29:05.21	301.74	9.01	-39.7	-40.8	22.3	0.00e+00	50	30	0	1022361600	52	6252
2026-01-26 18:29:06.22	301.61	8.95	-39.5	-40.6	22.2	0.00e+00	2	30	0	1024458752	52	6128
2026-01-26 18:29:07.23	301.48	8.90	-39.5	-40.5	22.3	0.00e+00	0	30	0	1026555904	52	6076
2026-01-26 18:29:08.24	301.35	8.84	-39.2	-40.2	22.5	0.00e+00	92	30	0	1028653056	52	5834
2026-01-26 18:29:09.24	301.22	8.79	-39.3	-40.3	22.4	0.00e+00	33	30	0	1029701632	52	5950
2026-01-26 18:29:10.25	301.09	8.73	-39.1	-40.1	22.6	0.00e+00	92	30	0	1031798784	52	5817
2026-01-26 18:29:11.26	300.96	8.68	-39.2	-40.2	22.3	0.00e+00	0	30	0	1033895936	52	5879
2026-01-26 18:29:12.27	300.83	8.62	-38.9	-39.9	22.7	0.00e+00	0	30	0	1035993088	52	5651
2026-01-26 18:29:13.28	300.70	8.57	-39.0	-40.0	22.6	0.00e+00	0	30	0	1038090240	52	5731
2026-01-26 18:29:14.29	300.57	8.51	-39.1	-40.1	22.4	0.00e+00	0	30	0	1039138816	52	5772
2026-01-26 18:29:15.30	300.45	8.46	-38.9	-39.9	22.6	0.00e+00	43	30	0	1041235968	52	5667
2026-01-26 18:29:16.31	300.32	8.40	-39.0	-40.0	22.0	0.00e+00	0	30	0	1043333120	52	5755
2026-01-26 18:29:17.32	300.19	8.35	-39.0	-40.0	22.7	0.00e+00	91	30	0	1045430272	52	5722
2026-01-26 18:29:18.33	300.07	8.29	-38.9	-39.9	22.8	0.00e+00	0	30	0	1047527424	52	5636
2026-01-26 18:29:19.34	299.94	8.24	-38.9	-39.8	22.7	0.00e+00	38	30	0	1048576000	52	5627
2026-01-26 18:29:20.35	299.82	8.18	-39.0	-40.0	22.6	0.00e+00	0	30	0	1050673152	52	5756
2026-01-26 18:29:21.36	299.69	8.13	-38.9	-39.8	22.6	0.00e+00	0	30	0	1052770304	52	5630
2026-01-26 18:29:22.37	299.57	8.07	-39.4	-40.4	22.2	0.00e+00	0	30	0	1054867456	52	6003
2026-01-26 18:29:23.38	299.44	8.02	-39.3	-40.3	22.3	0.00e+00	0	30	0	1056964608	52	5947
2026-01-26 18:29:24.39	299.32	7.96	-39.3	-40.3	22.4	0.00e+00	92	30	0	1058013184	52	5951
2026-01-26 18:29:25.40	299.20	7.91	-39.4	-40.5	22.5	0.00e+00	38	30	0	1060110336	52	6040
2026-01-26 18:29:26.41	299.07	7.85	-39.7	-40.7	22.4	0.00e+00	92	30	0	1062207488	52	6206
2026-01-26 18:29:27.41	298.95	7.80	-39.4	-40.4	22.4	0.00e+00	40	30	0	1064304640	52	5985
2026-01-26 18:29:28.42	298.83	7.74	-39.6	-40.6	22.5	0.00e+00	42	30	0	1066401792	52	6136
2026-01-26 18:29:29.43	298.71	7.69	-40.2	-41.3	22.2	0.00e+00	41	30	0	1067450368	52	6663
2026-01-26 18:29:30.44	298.59	7.63	-40.0	-41.1	22.2	0.00e+00	0	30	0	1069547520	52	6508
2026-01-26 18:29:31.45	298.47	7.57	-39.5	-40.5	22.4	0.00e+00	92	30	0	1071644672	52	6061
2026-01-26 18:29:32.46	298.35	7.52	-39.5	-40.5	22.3	0.00e+00	40	30	0	1073741824	52	6098
2026-01-26 18:29:33.47	298.23	7.46	-39.4	-40.5	22.4	0.00e+00	92	30	0	1075838976	52	6037
2026-01-26 18:29:34.48	298.11	7.41	-39.8	-40.8	22.3	0.00e+00	5	30	0	1076887552	52	6273
2026-01-26 18:29:35.49	298.00	7.35	-40.3	-41.3	21.8	0.00e+00	0	30	0	1078984704	52	6689
2026-01-26 18:29:36.50	297.88	7.30	-40.0	-41.1	21.9	0.00e+00	6	30	0	1081081856	52	6480
2026-01-26 18:29:37.51	297.76	7.24	-39.5	-40.6	22.2	0.00e+00	0	30	0	1083179008	52	6125
2026-01-26 18:29:38.52	297.64	7.19	-39.7	-40.8	21.9	0.00e+00	2	30	0	1085276160	52	6282
2026-01-26 18:29:39.52	297.53	7.13	-39.8	-40.8	22.0	0.00e+00	5	30	0	1086324736	52	6315
2026-01-26 18:29:40.53	297.41	7.08	-40.2	-41.4	21.8	0.00e+00	92	30	0	1088421888	52	6700
2026-01-26 18:29:41.54	297.30	7.02	-40.4	-41.5	21.4	0.00e+00	0	30	0	1090519040	52	6835
2026-01-26 18:29:42.56	297.18	6.97	-40.3	-41.5	21.4	0.00e+00	51	30	0	1092616192	52	6804
2026-01-26 18:29:43.56	297.07	6.91	-40.6	-41.8	21.1	0.00e+00	47	30	0	1094713344	52	7010
2026-01-26 18:29:44.58	296.95	6.86	-40.1	-41.2	21.4	0.00e+00	47	30	0	1095761920	52	6609
2026-01-26 18:29:45.58	296.84	6.80	-40.2	-41.3	21.6	0.00e+00	6	30	0	1097859072	52	6684
2026-01-26 18:29:46.59	296.73	6.75	-40.1	-41.2	21.8	0.00e+00	39	30	0	1099956224	52	6560
2026-01-26 18:29:47.60	296.61	6.69	-39.8	-40.9	22.1	0.00e+00	92	30	0	1102053376	52	6333
2026-01-26 18:29:48.61	296.50	6.64	-40.0	-41.2	21.8	0.00e+00	47	30	0	1104150528	52	6542
2026-01-26 18:29:49.62	296.39	6.58	-39.5	-40.5	22.0	0.00e+00	92	30	0	1105199104	52	6077
2026-01-26 18:29:50.63	296.28	6.53	-39.7	-40.7	22.0	0.00e+00	41	30	0	1107296256	52	6229
2026-01-26 18:29:51.64	296.17	6.47	-39.9	-41.0	22.0	0.00e+00	41	30	0	1109393408	52	6397
2026-01-26 18:29:52.65	296.06	6.42	-40.3	-41.3	21.9	0.00e+00	38	30	0	1111490560	52	6679
2026-01-26 18:29:53.66	295.95	6.36	-40.0	-41.1	22.1	0.00e+00	0	30	0	1113587712	52	6489
2026-01-26 18:29:54.67	295.84	6.31	-40.2	-41.3	21.9	0.00e+00	36	30	0	1114636288	52	6678
2026-01-26 18:29:55.68	295.73	6.25	-40.0	-41.0	22.1	0.00e+00	47	30	0	1116733440	52	6442
2026-01-26 18:29:56.68	295.62	6.20	-39.9	-41.0	21.9	0.00e+00	92	30	0	1118830592	52	6397
2026-01-26 18:29:57.69	295.51	6.14	-39.6	-40.7	21.8	0.00e+00	6	30	0	1120927744	52	6215
2026-01-26 18:29:58.70	295.40	6.09	-39.8	-40.9	21.6	0.00e+00	40	30	0	1123024896	52	6363
2026-01-26 18:29:59.71	295.30	6.03	-40.0	-41.1	21.4	0.00e+00	7	30	0	1125122048	52	6494
2026-01-26 18:30:00.72	295.19	5.98	-40.1	-41.2	21.4	0.00e+00	0	30	0	1126170624	52	6612
2026-01-26 18:30:01.73	295.08	5.92	-40.6	-41.8	21.1	0.00e+00	2	30	0	1128267776	52	7031
2026-01-26 18:30:02.74	294.97	5.87	-40.5	-41.7	21.2	0.00e+00	0	30	0	1130364928	54	6206
2026-01-26 18:30:03.75	294.87	5.81	-40.6	-41.8	20.6	0.00e+00	92	30	0	1132462080	54	6299
2026-01-26 18:30:04.76	294.76	5.76	-40.6	-41.8	21.1	0.00e+00	46	30	0	1134559232	54	6269
2026-01-26 18:30:05.77	294.66	5.70	-40.6	-41.8	20.8	0.00e+00	90	30	0	1135607808	54	6301
2026-01-26 18:30:06.78	294.55	5.65	-40.6	-41.9	20.8	0.00e+00	0	30	0	1137704960	54	6343
2026-01-26 18:30:07.79	294.45	5.59	-40.8	-42.0	20.8	0.00e+00	35	30	0	1139802112	54	6433
2026-01-26 18:30:08.80	294.35	5.54	-40.7	-41.9	21.1	0.00e+00	43	30	0	1141899264	54	6350
2026-01-26 18:30:09.80	294.24	5.48	-40.9	-42.1	20.8	0.00e+00	35	30	0	1143996416	54	6508
2026-01-26 18:30:10.81	294.14	5.43	-41.0	-42.2	20.9	0.00e+00	92	30	0	1145044992	54	6566
2026-01-26 18:30:11.82	294.04	5.38	-41.4	-42.7	20.7	0.00e+00	47	30	0	1147142144	54	6932
2026-01-26 18:30:12.83	293.93	5.32	-40.7	-41.9	20.9	0.00e+00	92	30	0	1149239296	54	6369
2026-01-26 18:30:13.84	293.83	5.27	-40.9	-42.2	20.3	0.00e+00	0	30	0	1151336448	54	6583
2026-01-26 18:30:14.85	293.73	5.21	-40.8	-42.0	20.5	0.00e+00	0	30	0	1153433600	54	6457
2026-01-26 18:30:15.86	293.63	5.16	-40.8	-42.1	20.5	0.00e+00	35	30	0	1154482176	54	6507
2026-01-26 18:30:16.87	293.53	5.10	-40.9	-42.2	20.4	0.00e+00	35	30	0	1156579328	54	6603
2026-01-26 18:30:17.88	293.43	5.05	-40.9	-42.2	20.3	0.00e+00	92	30	0	1158676480	54	6583
2026-01-26 18:30:18.89	293.33	4.99	-41.0	-42.3	20.3	0.00e+00	0	30	0	1160773632	54	6661
2026-01-26 18:30:19.90	293.23	4.94	-40.9	-42.2	20.2	0.00e+00	91	30	0	1162870784	54	6580
2026-01-26 18:30:20.91	293.13	4.88	-41.2	-42.5	20.3	0.00e+00	0	30	0	1163919360	54	6840
2026-01-26 18:30:21.92	293.03	4.83	-41.4	-42.8	19.9	0.00e+00	32	30	0	1166016512	54	7033
2026-01-26 18:30:22.92	292.93	4.78	-41.3	-42.7	19.9	0.00e+00	0	30	0	1168113664	54	6951
2026-01-26 18:30:23.94	292.83	4.72	-41.5	-42.9	19.7	0.00e+00	0	30	0	1170210816	54	7133
2026-01-26 18:30:24.95	292.74	4.67	-41.3	-42.7	19.8	0.00e+00	0	30	0	1172307968	54	6955
2026-01-26 18:30:25.96	292.64	4.61	-41.5	-43.0	19.6	0.00e+00	40	30	0	1173356544	54	7212
2026-01-26 18:30:26.97	292.54	4.56	-41.3	-42.7	19.7	0.00e+00	92	30	0	1175453696	54	6995
2026-01-26 18:30:27.97	292.45	4.50	-41.3	-42.7	19.7	0.00e+00	0	30	0	1177550848	54	6964
2026-01-26 18:30:28.98	292.35	4.45	-41.3	-42.8	19.5	0.00e+00	92	30	0	1179648000	54	7016
2026-01-26 18:30:29.99	292.25	4.40	-41.4	-42.9	19.4	0.00e+00	41	30	0	1181745152	54	7159
2026-01-26 18:30:31.00	292.16	4.34	-41.4	-42.8	19.4	0.00e+00	39	30	0	1182793728	54	7084
2026-01-26 18:30:32.01	292.06	4.29	-41.3	-42.8	19.4	0.00e+00	53	30	0	1184890880	54	7037
2026-01-26 18:30:33.02	291.97	4.23	-41.5	-43.0	19.2	0.00e+00	40	30	0	1186988032	54	7199
2026-01-26 18:30:34.03	291.87	4.18	-41.6	-43.2	19.0	0.00e+00	91	30	0	1189085184	54	7365
2026-01-26 18:30:35.04	291.78	4.13	-41.5	-43.1	19.0	0.00e+00	0	30	0	1191182336	54	7277
2026-01-26 18:30:36.05	291.69	4.07	-41.3	-42.9	19.2	0.00e+00	92	30	0	1193279488	54	7103
2026-01-26 18:30:37.06	291.59	4.02	-41.6	-43.1	19.0	0.00e+00	37	30	0	1194328064	54	7332
2026-01-26 18:30:38.07	291.50	3.96	-41.3	-42.8	19.2	0.00e+00	0	30	0	1196425216	54	7081
