passes_logs/2026/01/26/R4.6S_Anadyr/R4.6S_Anadyr__20260126_191318_AQUA_rec.log

#Pass ID: 20260126_191318_AQUA
#Satellite: AQUA
#Configuration: AQUA
#almurnet v.1.7.20251203
#Start time: 2026-01-26 19:13:21

#Version: 2.2.20231116
#Station: R4.6S_Anadyr
#Location: 177.4865 lon 64.73178 lat
#TLE: 1 27424U 02022A   26025.91340420  .00001969  00000+0  40368-3 0  9991
#TLE: 2 27424  98.4100 352.5253 0001880  65.2649  27.8322 14.61861165262482

#Time	Az	El	Level	Level2	SNR	BER	BlckErr	Temp	State	Recorded	gain1	gain2
2026-01-26 19:13:21.71	28.44	0.16	-50.1	-66.5	3.2	3.02e+01	0	28	0	0	60	81570
2026-01-26 19:13:22.71	28.36	0.21	-49.8	-67.7	3.5	3.02e+01	0	28	104	0	60	93036
2026-01-26 19:13:23.72	28.29	0.26	-49.6	-67.5	3.5	3.02e+01	0	28	104	0	60	90823
2026-01-26 19:13:24.73	28.21	0.32	-49.6	-67.4	3.5	3.02e+01	0	28	104	0	60	90297
2026-01-26 19:13:25.74	28.14	0.37	-49.5	-67.4	3.5	3.02e+01	0	28	104	0	60	90189
2026-01-26 19:13:26.75	28.06	0.42	-49.6	-67.5	3.5	3.02e+01	0	28	104	0	60	91108
2026-01-26 19:13:27.76	27.98	0.48	-49.7	-67.5	3.5	3.02e+01	0	28	104	0	60	90969
2026-01-26 19:13:28.77	27.91	0.53	-49.6	-67.5	3.5	3.02e+01	0	28	104	0	60	91148
2026-01-26 19:13:29.78	27.83	0.58	-49.5	-67.4	3.5	3.02e+01	0	28	104	0	60	90163
2026-01-26 19:13:30.79	27.75	0.64	-49.4	-67.3	3.5	3.02e+01	0	29	104	0	60	89077
2026-01-26 19:13:31.80	27.67	0.69	-49.2	-67.3	3.5	3.02e+01	0	28	104	0	60	88821
2026-01-26 19:13:32.81	27.59	0.75	-49.3	-67.2	3.5	3.02e+01	0	29	104	0	60	88378
2026-01-26 19:13:33.81	27.52	0.80	-49.4	-67.2	3.5	3.02e+01	0	28	104	0	60	88215
2026-01-26 19:13:34.82	27.44	0.85	-49.2	-67.0	3.5	3.02e+01	0	29	104	0	60	86489
2026-01-26 19:13:35.83	27.36	0.91	-49.1	-67.0	3.5	3.02e+01	0	29	104	0	60	86607
2026-01-26 19:13:36.84	27.28	0.96	-49.0	-66.9	3.5	3.02e+01	0	28	104	0	60	85073
2026-01-26 19:13:37.85	27.20	1.01	-48.9	-66.9	3.5	3.02e+01	0	29	104	0	60	84958
2026-01-26 19:13:38.86	27.12	1.07	-48.9	-66.8	3.5	3.02e+01	0	28	104	0	60	84051
2026-01-26 19:13:39.87	27.04	1.12	-48.8	-66.6	3.5	3.02e+01	0	29	104	0	60	82562
2026-01-26 19:13:40.88	26.96	1.18	-48.7	-66.6	3.5	3.02e+01	0	29	104	0	60	82359
2026-01-26 19:13:41.89	26.87	1.23	-48.3	-66.4	3.5	3.02e+01	0	29	104	0	60	80310
2026-01-26 19:13:42.90	26.79	1.29	-48.2	-66.1	3.5	3.02e+01	0	29	104	0	60	77509
2026-01-26 19:13:43.91	26.71	1.34	-48.0	-65.7	3.5	3.02e+01	0	29	104	0	60	74353
2026-01-26 19:13:44.92	26.63	1.40	-48.0	-65.8	3.5	3.02e+01	0	29	104	0	60	74617
2026-01-26 19:13:45.93	26.55	1.45	-48.0	-65.8	3.5	3.02e+01	0	29	104	0	60	74619
2026-01-26 19:13:46.94	26.46	1.50	-47.9	-65.8	3.5	3.02e+01	0	29	104	0	60	74663
2026-01-26 19:13:47.95	26.38	1.56	-48.0	-65.8	3.5	3.02e+01	0	29	104	0	60	74677
2026-01-26 19:13:48.96	26.30	1.61	-47.9	-65.8	3.5	3.02e+01	0	29	104	0	60	74915
2026-01-26 19:13:49.97	26.21	1.67	-47.9	-65.8	3.5	3.02e+01	0	29	104	0	60	75140
2026-01-26 19:13:50.98	26.13	1.72	-47.9	-65.8	3.5	3.02e+01	0	29	104	0	60	74745
2026-01-26 19:13:51.99	26.04	1.78	-47.9	-65.7	3.5	3.02e+01	0	29	104	0	60	74569
2026-01-26 19:13:53.00	25.96	1.83	-47.9	-65.7	3.5	3.02e+01	0	29	104	0	60	73831
2026-01-26 19:13:54.01	25.87	1.89	-48.0	-65.7	3.5	3.02e+01	0	29	104	0	60	74186
2026-01-26 19:13:55.01	25.79	1.94	-48.0	-65.8	3.5	3.02e+01	0	29	104	0	60	74639
2026-01-26 19:13:56.02	25.70	2.00	-48.0	-65.7	3.5	3.02e+01	0	29	104	0	60	74533
2026-01-26 19:13:57.03	25.61	2.05	-48.0	-65.7	3.5	3.02e+01	0	29	104	0	60	74365
2026-01-26 19:13:58.04	25.52	2.11	-47.9	-65.7	3.5	3.02e+01	0	29	104	0	60	74584
2026-01-26 19:13:59.05	25.44	2.16	-47.9	-65.7	3.5	3.02e+01	0	29	104	0	60	74153
2026-01-26 19:14:00.06	25.35	2.22	-47.9	-65.6	3.5	3.02e+01	0	29	104	0	60	73401
2026-01-26 19:14:01.07	25.26	2.28	-47.9	-65.7	3.5	3.02e+01	0	29	104	0	60	73907
2026-01-26 19:14:02.08	25.17	2.33	-47.9	-65.8	3.5	3.02e+01	0	29	104	0	60	74706
2026-01-26 19:14:03.09	25.08	2.39	-48.0	-65.6	3.5	3.02e+01	0	29	104	0	60	73623
2026-01-26 19:14:04.10	24.99	2.44	-48.0	-65.7	3.5	3.02e+01	0	29	104	0	60	74429
2026-01-26 19:14:05.11	24.90	2.50	-48.0	-65.7	3.5	3.02e+01	0	29	104	0	60	74596
2026-01-26 19:14:06.12	24.81	2.55	-48.0	-65.7	3.5	3.02e+01	0	29	104	0	60	73898
2026-01-26 19:14:07.13	24.72	2.61	-48.0	-65.4	3.5	3.02e+01	0	29	104	0	60	72024
2026-01-26 19:14:08.14	24.63	2.67	-47.9	-65.3	3.5	3.02e+01	0	29	104	0	60	71190
2026-01-26 19:14:09.15	24.54	2.72	-47.8	-64.8	3.5	3.02e+01	0	29	104	0	60	66982
2026-01-26 19:14:10.16	24.45	2.78	-47.9	-65.0	3.5	3.02e+01	0	29	104	0	60	68470
2026-01-26 19:14:11.17	24.36	2.83	-48.0	-65.6	3.5	3.02e+01	0	29	104	0	60	73154
2026-01-26 19:14:12.18	24.26	2.89	-47.8	-64.8	3.5	3.02e+01	0	29	104	0	60	67106
2026-01-26 19:14:13.19	24.17	2.95	-46.6	-60.7	3.5	3.02e+01	0	29	104	0	60	41850
2026-01-26 19:14:14.20	24.08	3.00	-45.2	-57.7	3.5	3.02e+01	0	29	104	0	60	29438
2026-01-26 19:14:15.21	23.98	3.06	-43.4	-55.0	3.5	3.02e+01	0	29	104	0	60	21553
2026-01-26 19:14:16.22	23.89	3.12	-42.7	-53.9	3.5	3.02e+01	0	29	104	0	60	19090
2026-01-26 19:14:17.23	23.80	3.17	-47.6	-63.7	3.5	3.02e+01	0	29	104	0	60	58618
2026-01-26 19:14:18.23	23.70	3.23	-47.6	-64.0	3.5	3.02e+01	0	29	104	0	60	60923
2026-01-26 19:14:19.24	23.61	3.28	-44.1	-55.9	3.5	3.02e+01	0	29	104	0	60	24106
2026-01-26 19:14:20.25	23.51	3.34	-39.9	-50.5	3.5	3.02e+01	0	29	104	0	54	18136
2026-01-26 19:14:21.26	23.41	3.40	-47.6	-65.1	3.5	3.02e+01	0	29	104	0	60	69299
2026-01-26 19:14:22.27	23.32	3.45	-38.8	-49.3	3.5	3.02e+01	0	29	104	0	54	15899
2026-01-26 19:14:23.28	23.22	3.51	-38.5	-48.9	3.6	3.02e+01	0	29	104	0	52	17065
2026-01-26 19:14:24.28	23.12	3.57	-39.0	-49.5	3.5	3.02e+01	0	29	104	0	52	18164
2026-01-26 19:14:25.29	23.03	3.62	-44.0	-55.5	3.5	3.02e+01	0	29	104	0	60	22986
2026-01-26 19:14:26.30	22.93	3.68	-42.3	-53.4	3.6	3.02e+01	0	29	104	0	60	18092
2026-01-26 19:14:27.31	22.83	3.74	-47.6	-63.0	3.5	3.02e+01	0	29	104	0	60	54581
2026-01-26 19:14:28.32	22.73	3.80	-40.4	-51.1	3.6	3.02e+01	0	29	104	0	60	13753
2026-01-26 19:14:29.33	22.63	3.85	-48.0	-65.6	3.5	3.02e+01	0	29	104	0	60	73621
2026-01-26 19:14:30.34	22.53	3.91	-39.6	-50.2	3.5	3.02e+01	0	29	104	0	54	17494
2026-01-26 19:14:31.35	22.43	3.97	-39.2	-49.7	3.5	3.02e+01	0	29	104	0	52	18557
2026-01-26 19:14:32.36	22.33	4.02	-38.9	-49.4	3.6	3.02e+01	0	29	104	0	52	18000
2026-01-26 19:14:33.37	22.23	4.08	-45.6	-58.2	3.5	3.02e+01	0	29	104	0	60	31301
2026-01-26 19:14:34.37	22.13	4.14	-40.2	-50.8	3.6	3.02e+01	0	29	104	0	58	14918
2026-01-26 19:14:35.38	22.02	4.20	-48.1	-65.6	3.5	3.02e+01	0	29	104	0	60	72998
2026-01-26 19:14:36.39	21.92	4.25	-46.3	-59.5	3.5	3.02e+01	0	29	104	0	60	36360
2026-01-26 19:14:37.40	21.82	4.31	-42.4	-53.5	3.5	3.02e+01	0	29	104	0	60	18181
2026-01-26 19:14:38.41	21.71	4.37	-41.1	-51.9	3.5	3.02e+01	0	29	104	0	56	18993
2026-01-26 19:14:39.42	21.61	4.43	-40.8	-51.5	3.5	3.02e+01	0	29	104	0	56	18302
2026-01-26 19:14:40.42	21.51	4.48	-40.7	-51.4	3.5	3.02e+01	0	29	104	0	56	17912
2026-01-26 19:14:41.43	21.40	4.54	-41.6	-52.5	3.5	3.02e+01	0	29	104	0	56	20332
2026-01-26 19:14:42.44	21.29	4.60	-40.0	-50.6	3.5	3.02e+01	0	29	104	0	54	18355
2026-01-26 19:14:43.45	21.19	4.66	-45.4	-57.8	3.6	3.02e+01	0	29	104	0	60	29824
2026-01-26 19:14:44.46	21.08	4.72	-38.9	-49.3	3.6	3.02e+01	0	29	104	0	52	17782
2026-01-26 19:14:45.47	20.97	4.77	-47.9	-64.1	3.5	3.02e+01	0	29	104	0	60	61390
2026-01-26 19:14:46.48	20.87	4.83	-40.3	-50.9	3.5	3.02e+01	0	29	104	0	54	19123
2026-01-26 19:14:47.49	20.76	4.89	-39.8	-50.4	3.6	3.02e+01	0	29	104	0	54	17981
2026-01-26 19:14:48.50	20.65	4.95	-40.0	-50.6	3.6	3.02e+01	0	29	104	0	54	18467
2026-01-26 19:14:49.51	20.54	5.01	-39.4	-50.0	3.5	3.02e+01	0	29	104	0	60	12162
2026-01-26 19:14:50.52	20.43	5.06	-39.4	-50.0	3.6	3.02e+01	0	29	104	0	56	15234
2026-01-26 19:14:51.53	20.32	5.12	-45.1	-57.3	3.5	3.02e+01	0	29	104	0	60	28197
2026-01-26 19:14:52.54	20.21	5.18	-38.6	-49.0	3.5	3.02e+01	0	29	104	0	54	15338
2026-01-26 19:14:53.55	20.10	5.24	-47.9	-63.9	3.6	3.02e+01	0	29	104	0	60	59968
2026-01-26 19:14:54.56	19.99	5.30	-39.4	-49.9	3.5	3.02e+01	0	29	104	0	54	17073
2026-01-26 19:14:55.57	19.88	5.36	-38.7	-49.2	3.5	3.02e+01	0	29	104	0	52	17566
2026-01-26 19:14:56.58	19.76	5.42	-43.4	-54.8	3.7	3.02e+01	0	29	104	0	56	26498
2026-01-26 19:14:57.59	19.65	5.47	-38.6	-49.0	3.7	3.02e+01	0	29	104	0	56	13619
2026-01-26 19:14:58.60	19.54	5.53	-39.1	-49.6	3.4	3.02e+01	0	29	104	0	52	18377
2026-01-26 19:14:59.61	19.42	5.59	-48.5	-65.8	3.5	3.02e+01	0	29	104	0	60	74717
2026-01-26 19:15:00.61	19.31	5.65	-45.0	-57.0	3.5	3.02e+01	0	29	104	0	60	27270
2026-01-26 19:15:01.63	19.19	5.71	-44.7	-56.6	3.5	3.02e+01	0	29	104	0	60	25986
2026-01-26 19:15:02.64	19.08	5.77	-44.5	-56.3	3.5	3.02e+01	0	29	104	0	60	25015
2026-01-26 19:15:03.64	18.96	5.83	-44.3	-56.0	3.5	3.02e+01	0	29	104	0	60	24392
2026-01-26 19:15:04.65	18.85	5.88	-44.2	-55.7	3.5	3.02e+01	0	29	104	0	60	23555
2026-01-26 19:15:05.66	18.73	5.94	-42.2	-53.2	3.5	3.02e+01	0	29	104	0	60	17558
2026-01-26 19:15:06.67	18.61	6.00	-41.8	-52.6	3.5	3.02e+01	0	29	104	0	54	23129
2026-01-26 19:15:07.68	18.49	6.06	-42.9	-54.0	3.5	3.02e+01	0	29	104	0	60	19344
2026-01-26 19:15:08.69	18.37	6.12	-42.8	-53.8	3.5	3.02e+01	0	29	104	0	52	29731
2026-01-26 19:15:09.70	18.26	6.18	-44.2	-55.8	3.6	3.02e+01	0	29	104	0	60	23769
2026-01-26 19:15:10.70	18.14	6.24	-40.0	-50.4	3.5	3.02e+01	0	29	104	0	54	18056
2026-01-26 19:15:11.72	18.01	6.30	-39.0	-49.4	3.5	3.02e+01	0	29	104	0	54	16070
2026-01-26 19:15:12.72	17.90	6.36	-46.1	-58.8	3.5	3.02e+01	0	29	104	0	60	33547
2026-01-26 19:15:13.73	17.77	6.42	-44.0	-55.4	3.6	3.02e+01	0	29	104	0	60	22778
2026-01-26 19:15:14.74	17.65	6.48	-41.7	-52.5	3.5	3.02e+01	0	29	104	0	54	22840
2026-01-26 19:15:15.75	17.53	6.54	-43.1	-54.3	3.5	3.02e+01	0	29	104	0	60	19966
2026-01-26 19:15:16.77	17.40	6.60	-45.0	-56.8	3.5	3.02e+01	0	29	104	0	56	33573
2026-01-26 19:15:17.78	17.28	6.65	-38.8	-49.2	3.6	3.02e+01	0	29	104	0	54	15713
2026-01-26 19:15:18.79	17.16	6.71	-38.4	-48.8	3.5	3.02e+01	0	29	104	0	52	16847
2026-01-26 19:15:19.80	17.03	6.77	-38.5	-48.8	3.5	3.02e+01	0	29	104	0	52	16845
2026-01-26 19:15:20.81	16.91	6.83	-48.3	-64.7	3.5	3.02e+01	0	29	104	0	60	66476
2026-01-26 19:15:21.82	16.78	6.89	-45.3	-57.3	3.5	3.02e+01	0	29	104	0	60	28332
2026-01-26 19:15:22.83	16.65	6.95	-48.4	-64.7	3.5	3.02e+01	0	29	104	0	60	65901
2026-01-26 19:15:23.84	16.53	7.01	-48.4	-64.3	3.5	3.02e+01	0	29	104	0	60	63136
2026-01-26 19:15:24.85	16.40	7.07	-39.0	-49.4	3.5	3.02e+01	0	29	104	0	52	18084
2026-01-26 19:15:25.86	16.27	7.13	-38.7	-49.1	3.6	3.02e+01	0	29	104	0	54	15496
2026-01-26 19:15:26.87	16.14	7.19	-38.6	-49.0	3.5	3.02e+01	0	29	104	0	52	17208
2026-01-26 19:15:27.88	16.01	7.25	-38.2	-48.6	3.5	3.02e+01	0	29	104	0	52	16402
2026-01-26 19:15:28.89	15.88	7.31	-44.7	-56.3	3.5	3.02e+01	0	29	104	0	60	25233
2026-01-26 19:15:29.90	15.75	7.37	-41.3	-51.9	3.5	3.02e+01	0	29	104	0	58	17072
2026-01-26 19:15:30.90	15.62	7.43	-47.5	-61.0	3.5	3.02e+01	0	29	104	0	60	43160
2026-01-26 19:15:31.92	15.49	7.49	-42.7	-53.7	3.5	3.02e+01	0	29	104	0	60	18692
2026-01-26 19:15:32.93	15.35	7.55	-48.5	-65.3	3.5	3.02e+01	0	29	104	0	60	70984
2026-01-26 19:15:33.94	15.22	7.61	-40.4	-51.0	3.5	3.02e+01	0	29	104	0	58	15311
2026-01-26 19:15:34.95	15.09	7.67	-39.1	-49.5	3.5	3.02e+01	0	29	104	0	54	16231
2026-01-26 19:15:35.96	14.95	7.73	-39.4	-49.8	3.5	3.02e+01	0	29	104	0	54	16790
2026-01-26 19:15:36.97	14.82	7.79	-48.4	-63.8	3.5	3.02e+01	0	29	104	0	60	59683
2026-01-26 19:15:37.98	14.68	7.85	-43.4	-54.6	3.5	3.02e+01	0	29	104	0	60	20666
2026-01-26 19:15:38.99	14.55	7.91	-48.4	-64.5	3.5	3.02e+01	0	29	104	0	60	64540
2026-01-26 19:15:40.00	14.41	7.97	-48.6	-63.9	3.7	3.02e+01	0	29	104	0	60	60147
2026-01-26 19:15:41.01	14.27	8.03	-39.5	-49.9	3.5	3.02e+01	0	29	104	0	52	19078
2026-01-26 19:15:42.02	14.13	8.09	-39.3	-49.7	3.5	3.02e+01	0	29	104	0	52	18653
2026-01-26 19:15:43.02	14.00	8.15	-38.3	-48.6	3.5	3.02e+01	0	29	104	0	52	16489
2026-01-26 19:15:44.03	13.86	8.21	-38.3	-48.6	3.5	3.02e+01	0	29	104	0	52	16505
2026-01-26 19:15:45.04	13.72	8.27	-37.1	-47.4	3.5	3.02e+01	0	29	104	0	50	16091
2026-01-26 19:15:46.05	13.58	8.33	-40.6	-51.2	3.6	3.02e+01	0	29	104	0	54	19627
2026-01-26 19:15:47.06	13.43	8.39	-48.6	-64.4	3.5	3.02e+01	0	29	104	0	60	64015
2026-01-26 19:15:48.07	13.29	8.45	-42.6	-53.5	3.5	3.02e+01	0	29	104	0	60	18147
2026-01-26 19:15:49.08	13.15	8.51	-48.6	-65.6	3.5	3.02e+01	0	29	104	0	60	72961
2026-01-26 19:15:50.09	13.01	8.57	-40.1	-50.6	3.5	3.02e+01	0	29	104	0	56	16372
2026-01-26 19:15:51.10	12.86	8.63	-38.5	-48.9	3.5	3.02e+01	0	29	104	0	52	16975
2026-01-26 19:15:52.11	12.72	8.69	-38.5	-48.9	3.5	3.02e+01	0	29	104	0	52	16923
2026-01-26 19:15:53.12	12.57	8.75	-45.5	-57.6	3.5	3.02e+01	0	29	104	0	60	29046
2026-01-26 19:15:54.13	12.43	8.81	-42.5	-53.4	3.6	3.02e+01	0	29	104	0	60	18043
2026-01-26 19:15:55.14	12.28	8.87	-48.3	-64.1	3.5	3.02e+01	0	29	104	0	60	61539
2026-01-26 19:15:56.15	12.13	8.93	-48.8	-65.3	3.5	3.02e+01	0	29	104	0	60	71012
2026-01-26 19:15:57.16	11.98	8.99	-40.4	-50.8	3.6	3.02e+01	0	29	104	0	54	18808
2026-01-26 19:15:58.16	11.84	9.05	-39.1	-49.4	3.5	3.02e+01	0	29	104	0	52	17932
2026-01-26 19:15:59.17	11.69	9.11	-38.7	-49.0	3.5	3.02e+01	0	29	104	0	52	17133
2026-01-26 19:16:00.18	11.54	9.17	-37.8	-48.0	3.5	3.02e+01	0	29	104	0	50	17107
2026-01-26 19:16:01.19	11.39	9.23	-44.6	-55.3	3.5	3.02e+01	0	29	104	0	60	22507
2026-01-26 19:16:02.20	11.24	9.29	-41.0	-51.7	3.5	3.02e+01	0	29	104	0	56	18597
2026-01-26 19:16:03.21	11.08	9.34	-48.6	-65.7	3.5	3.02e+01	0	29	104	0	60	74323
2026-01-26 19:16:04.22	10.93	9.40	-41.9	-52.7	3.5	3.02e+01	0	29	104	0	60	16554
2026-01-26 19:16:05.23	10.78	9.46	-48.7	-64.7	3.5	3.02e+01	0	29	104	0	60	65820
2026-01-26 19:16:06.24	10.62	9.52	-39.3	-49.5	3.5	3.02e+01	0	29	104	0	54	16285
2026-01-26 19:16:07.25	10.47	9.58	-37.7	-47.8	3.5	3.02e+01	0	29	104	0	50	16867
2026-01-26 19:16:08.26	10.31	9.64	-37.4	-47.5	3.5	3.02e+01	0	29	104	0	50	16266
2026-01-26 19:16:09.27	10.16	9.70	-45.3	-57.2	3.5	3.02e+01	0	29	104	0	60	27763
2026-01-26 19:16:10.28	10.00	9.76	-39.0	-49.1	3.5	3.02e+01	0	29	104	0	54	15520
2026-01-26 19:16:11.29	9.84	9.82	-47.5	-61.2	3.5	3.02e+01	0	29	104	0	60	44340
2026-01-26 19:16:12.30	9.68	9.88	-38.9	-49.2	3.5	3.02e+01	0	29	104	0	56	13911
2026-01-26 19:16:13.30	9.53	9.94	-48.0	-61.3	5.1	3.02e+01	0	29	104	0	60	44860
2026-01-26 19:16:14.31	9.37	10.00	-37.8	-47.8	3.5	3.02e+01	0	29	104	0	50	16746
2026-01-26 19:16:15.32	9.21	10.06	-38.3	-48.3	3.5	3.02e+01	0	29	104	0	50	17741
2026-01-26 19:16:16.33	9.05	10.12	-38.4	-48.3	3.5	3.02e+01	0	29	104	0	50	17749
2026-01-26 19:16:17.34	8.88	10.18	-46.7	-59.6	3.5	3.02e+01	0	29	104	0	60	36584
2026-01-26 19:16:18.35	8.72	10.24	-38.9	-49.1	3.5	3.02e+01	0	29	104	0	56	13890
2026-01-26 19:16:19.36	8.56	10.30	-48.5	-60.3	5.4	3.02e+01	0	29	104	0	60	39735
2026-01-26 19:16:20.37	8.39	10.36	-45.3	-57.0	3.5	3.02e+01	0	29	104	0	60	27250
2026-01-26 19:16:21.38	8.23	10.41	-38.9	-45.2	3.9	3.02e+01	0	29	104	0	52	11060
2026-01-26 19:16:22.38	8.07	10.47	-38.9	-44.1	6.7	3.02e+01	92	29	0	0	52	9789
2026-01-26 19:16:23.40	7.90	10.53	-39.0	-43.6	9.0	3.02e+01	92	29	0	2097152	52	9263
2026-01-26 19:16:24.40	7.73	10.59	-39.1	-42.0	9.6	3.02e+01	2	29	0	3670016	52	7657
2026-01-26 19:16:25.41	7.56	10.65	-39.3	-42.5	8.9	3.02e+01	0	29	0	5767168	52	8129
2026-01-26 19:16:26.42	7.40	10.71	-39.5	-43.2	9.3	3.02e+01	0	29	0	7340032	52	8803
2026-01-26 19:16:27.43	7.23	10.77	-39.5	-42.3	10.7	3.02e+01	0	29	0	9437184	52	7974
2026-01-26 19:16:28.44	7.06	10.83	-39.7	-42.4	12.0	3.02e+01	0	29	0	11534336	52	8023
2026-01-26 19:16:29.45	6.89	10.88	-40.0	-43.4	9.2	3.02e+01	0	29	0	13107200	54	8070
2026-01-26 19:16:30.46	6.71	10.94	-39.8	-42.3	11.8	3.02e+01	0	29	0	15204352	54	7125
2026-01-26 19:16:31.47	6.54	11.00	-40.2	-43.3	10.8	3.02e+01	0	29	0	16777216	54	7986
2026-01-26 19:16:32.48	6.37	11.06	-40.1	-42.6	13.9	3.02e+01	0	29	0	18874368	56	6562
2026-01-26 19:16:33.49	6.20	11.12	-39.7	-41.7	15.3	3.02e+01	0	29	0	20971520	54	6575
2026-01-26 19:16:34.49	6.02	11.17	-40.5	-43.2	14.4	3.02e+01	0	29	0	22544384	54	7838
2026-01-26 19:16:35.50	5.85	11.23	-41.0	-43.4	14.1	3.02e+01	0	29	0	24641536	56	7206
2026-01-26 19:16:36.51	5.67	11.29	-40.2	-42.0	17.6	3.02e+01	0	29	0	26214400	56	6134
2026-01-26 19:16:37.53	5.49	11.35	-39.9	-41.7	21.3	3.02e+01	0	29	0	28311552	54	6593
2026-01-26 19:16:38.53	5.32	11.41	-39.8	-41.4	20.2	3.02e+01	0	30	0	30408704	54	6422
2026-01-26 19:16:39.54	5.14	11.46	-39.2	-40.8	22.5	3.02e+01	0	29	0	31981568	52	6701
2026-01-26 19:16:40.55	4.96	11.52	-38.7	-40.2	24.1	3.02e+01	0	29	0	34078720	52	6215
2026-01-26 19:16:41.56	4.78	11.58	-38.7	-40.2	25.2	3.02e+01	0	29	0	35651584	52	6232
2026-01-26 19:16:42.57	4.60	11.64	-36.9	-38.2	26.5	3.02e+01	0	29	0	37748736	50	5560
2026-01-26 19:16:43.58	4.42	11.69	-37.2	-38.5	26.1	3.02e+01	0	29	0	39845888	48	6458
2026-01-26 19:16:44.58	4.24	11.75	-36.5	-37.8	26.6	3.02e+01	0	29	0	41418752	48	5973
2026-01-26 19:16:45.59	4.05	11.81	-36.2	-37.5	27.0	3.02e+01	0	29	0	43515904	48	5741
2026-01-26 19:16:46.60	3.87	11.86	-35.8	-37.0	27.6	3.02e+01	0	29	0	45088768	46	6103
2026-01-26 19:16:47.61	3.69	11.92	-35.9	-37.2	27.6	3.02e+01	0	29	0	47185920	46	6206
2026-01-26 19:16:48.62	3.50	11.98	-35.3	-36.5	28.5	3.02e+01	0	29	0	49283072	46	5748
2026-01-26 19:16:49.63	3.31	12.03	-35.5	-36.7	28.4	3.02e+01	0	29	0	50855936	46	5900
2026-01-26 19:16:50.64	3.13	12.09	-35.3	-36.5	28.4	3.02e+01	2	29	0	52953088	46	5782
2026-01-26 19:16:51.64	2.94	12.14	-35.7	-36.9	28.3	3.02e+01	0	29	0	55050240	46	6047
2026-01-26 19:16:52.65	2.75	12.20	-35.7	-36.9	28.2	3.02e+01	0	29	0	56623104	46	6061
2026-01-26 19:16:53.66	2.56	12.26	-36.4	-37.7	27.7	3.02e+01	0	29	0	58720256	46	6633
2026-01-26 19:16:54.67	2.37	12.31	-36.5	-37.8	27.5	3.02e+01	0	29	0	60293120	46	6700
2026-01-26 19:16:55.68	2.18	12.37	-36.7	-38.0	27.5	3.02e+01	0	29	0	62390272	48	6108
2026-01-26 19:16:56.69	1.99	12.42	-36.9	-38.2	27.3	3.02e+01	0	29	0	64487424	48	6239
2026-01-26 19:16:57.70	1.80	12.48	-39.0	-40.5	25.2	3.02e+01	0	29	0	66060288	52	6485
2026-01-26 19:16:58.71	1.61	12.53	-38.7	-40.1	25.4	3.02e+01	2	29	0	68157440	52	6183
2026-01-26 19:16:59.72	1.41	12.59	-40.2	-41.8	23.6	3.02e+01	0	29	0	69730304	52	7501
2026-01-26 19:17:00.72	1.22	12.64	-42.0	-43.9	23.0	3.02e+01	0	29	0	71827456	56	7625
2026-01-26 19:17:01.73	1.02	12.70	-41.0	-42.7	23.7	3.02e+01	0	29	0	73924608	56	6644
2026-01-26 19:17:02.74	0.83	12.75	-40.5	-42.2	22.9	3.02e+01	0	29	0	75497472	56	6248
2026-01-26 19:17:03.75	0.63	12.80	-41.1	-42.9	23.5	3.02e+01	0	29	0	77594624	54	7582
2026-01-26 19:17:04.76	0.43	12.86	-41.3	-43.1	22.3	3.02e+01	0	29	0	79167488	56	6927
2026-01-26 19:17:05.77	0.23	12.91	-42.2	-44.2	22.1	3.02e+01	0	29	0	81264640	58	7023
2026-01-26 19:17:06.78	0.04	12.97	-41.4	-43.2	22.8	3.02e+01	0	29	0	83361792	56	6984
2026-01-26 19:17:07.79	359.84	13.02	-42.3	-44.3	21.6	3.02e+01	0	29	0	84934656	58	7111
2026-01-26 19:17:08.80	359.63	13.07	-42.4	-44.5	21.5	3.02e+01	0	29	0	87031808	58	7267
2026-01-26 19:17:09.81	359.43	13.13	-43.3	-45.7	20.3	3.02e+01	0	29	0	88604672	60	7416
2026-01-26 19:17:10.82	359.23	13.18	-42.0	-43.9	22.0	3.02e+01	0	29	0	90701824	60	6049
2026-01-26 19:17:11.83	359.03	13.23	-42.2	-44.2	21.6	3.02e+01	0	29	0	92798976	58	7042
2026-01-26 19:17:12.84	358.82	13.28	-40.3	-42.0	23.8	3.02e+01	0	29	0	94371840	56	6105
2026-01-26 19:17:13.84	358.62	13.34	-42.0	-43.9	21.5	3.02e+01	0	29	0	96468992	58	6795
2026-01-26 19:17:14.85	358.41	13.39	-43.2	-45.5	19.4	3.02e+01	0	29	0	98566144	60	7244
2026-01-26 19:17:15.86	358.21	13.44	-44.9	-47.9	17.7	3.02e+01	0	29	0	100139008	60	9538
2026-01-26 19:17:16.87	358.00	13.49	-46.3	-50.5	18.5	3.02e+01	0	29	0	102236160	60	12881
2026-01-26 19:17:17.88	357.79	13.54	-45.2	-48.3	17.0	3.02e+01	0	29	0	103809024	60	10016
2026-01-26 19:17:18.89	357.58	13.59	-45.7	-49.2	17.5	3.02e+01	0	29	0	105906176	60	11090
2026-01-26 19:17:19.90	357.37	13.64	-46.6	-51.1	15.0	3.02e+01	0	29	0	108003328	60	13814
2026-01-26 19:17:20.91	357.16	13.69	-46.4	-50.6	16.2	3.02e+01	0	29	0	109576192	60	13092
2026-01-26 19:17:21.92	356.95	13.74	-47.4	-53.1	13.2	3.02e+01	0	29	0	111673344	60	17466
2026-01-26 19:17:22.93	356.74	13.79	-46.4	-50.6	15.2	3.02e+01	0	29	0	113246208	60	13038
2026-01-26 19:17:23.94	356.53	13.84	-47.4	-53.3	12.9	3.02e+01	0	29	0	115343360	60	17695
2026-01-26 19:17:24.95	356.31	13.89	-48.3	-56.8	9.0	3.02e+01	1	29	0	116916224	60	26607
2026-01-26 19:17:25.96	356.10	13.94	-48.1	-55.5	10.1	3.02e+01	0	30	0	119013376	60	22959
2026-01-26 19:17:26.97	355.88	13.99	-48.9	-62.5	4.8	3.02e+01	0	29	104	119537664	60	51116
2026-01-26 19:17:27.97	355.67	14.04	-48.8	-60.6	3.7	3.02e+01	0	29	104	120061952	60	41463
2026-01-26 19:17:28.98	355.45	14.09	-48.7	-60.1	4.2	3.02e+01	0	30	104	120061952	60	39030
2026-01-26 19:17:29.99	355.24	14.14	-48.9	-63.0	4.7	3.02e+01	0	29	104	120061952	60	54074
2026-01-26 19:17:31.00	355.02	14.18	-48.6	-61.9	3.7	3.02e+01	0	30	104	120061952	60	47929
2026-01-26 19:17:32.01	354.80	14.23	-48.9	-63.0	4.1	3.02e+01	0	30	104	120061952	60	54470
2026-01-26 19:17:33.02	354.58	14.28	-48.7	-59.9	6.0	3.02e+01	92	30	0	120586240	60	38137
2026-01-26 19:17:34.03	354.36	14.33	-48.7	-59.1	6.3	3.02e+01	0	30	0	122159104	60	34796
2026-01-26 19:17:35.04	354.14	14.37	-48.7	-58.6	6.9	3.02e+01	92	30	0	123731968	60	32901
2026-01-26 19:17:36.05	353.92	14.42	-48.7	-60.0	4.1	3.02e+01	0	30	104	125304832	60	38277
2026-01-26 19:17:37.06	353.69	14.46	-48.7	-59.5	6.4	3.02e+01	90	29	0	125304832	60	36217
2026-01-26 19:17:38.07	353.47	14.51	-48.5	-58.1	7.5	3.02e+01	86	30	0	127401984	60	30832
2026-01-26 19:17:39.08	353.25	14.56	-48.6	-57.9	7.5	3.02e+01	90	30	0	128974848	60	30231
2026-01-26 19:17:40.09	353.02	14.60	-48.7	-58.4	6.9	3.02e+01	92	30	0	131072000	60	31918
2026-01-26 19:17:41.10	352.80	14.65	-48.7	-58.7	6.7	3.02e+01	90	30	0	132644864	60	33046
2026-01-26 19:17:42.11	352.57	14.69	-48.7	-58.6	6.7	3.02e+01	92	30	0	134742016	60	32711
2026-01-26 19:17:43.11	352.34	14.73	-49.0	-62.2	5.5	3.02e+01	8	30	104	135266304	60	49669
2026-01-26 19:17:44.12	352.12	14.78	-48.9	-61.3	5.2	3.02e+01	0	30	104	135266304	60	44925
2026-01-26 19:17:45.13	351.89	14.82	-48.9	-61.0	5.6	3.02e+01	0	30	104	135266304	60	43307
2026-01-26 19:17:46.14	351.66	14.86	-48.9	-61.5	4.9	3.02e+01	18	30	104	135266304	60	45920
2026-01-26 19:17:47.14	351.43	14.91	-48.9	-61.0	5.6	3.02e+01	42	30	104	135266304	60	43314
2026-01-26 19:17:48.15	351.20	14.95	-48.9	-61.5	5.3	3.02e+01	0	30	104	135266304	60	45943
2026-01-26 19:17:49.16	350.97	14.99	-48.9	-61.8	4.9	3.02e+01	0	30	104	135266304	60	47497
2026-01-26 19:17:50.17	350.74	15.03	-49.0	-62.7	5.1	3.02e+01	0	30	104	135266304	60	52405
2026-01-26 19:17:51.18	350.50	15.07	-49.0	-62.9	4.7	3.02e+01	0	30	104	135266304	60	53493
2026-01-26 19:17:52.19	350.27	15.11	-48.9	-61.5	5.0	3.02e+01	0	30	104	135266304	60	45802
2026-01-26 19:17:53.20	350.04	15.15	-48.9	-61.6	5.0	3.02e+01	28	30	104	135266304	60	46312
2026-01-26 19:17:54.21	349.80	15.19	-48.9	-62.0	5.0	3.02e+01	0	30	104	135266304	60	48407
2026-01-26 19:17:55.21	349.57	15.23	-49.0	-63.1	4.4	3.02e+01	0	30	104	135266304	60	54827
2026-01-26 19:17:56.22	349.33	15.27	-48.9	-61.7	4.5	3.02e+01	0	30	104	135266304	60	46807
2026-01-26 19:17:57.23	349.10	15.31	-49.0	-62.6	4.2	3.02e+01	0	30	104	135266304	60	52197
2026-01-26 19:17:58.24	348.86	15.35	-49.0	-63.8	3.6	3.02e+01	0	30	104	135266304	60	59737
2026-01-26 19:17:59.25	348.62	15.39	-49.0	-64.6	3.8	3.02e+01	0	30	104	135266304	60	65115
2026-01-26 19:18:00.26	348.38	15.43	-48.9	-62.7	4.3	3.02e+01	0	30	104	135266304	60	52307
2026-01-26 19:18:01.27	348.14	15.46	-49.1	-63.9	3.6	3.02e+01	0	30	104	135266304	60	60400
2026-01-26 19:18:02.28	347.90	15.50	-39.3	-49.7	3.5	3.02e+01	0	30	104	135266304	52	18686
2026-01-26 19:18:03.29	347.66	15.54	-42.0	-52.7	3.6	3.02e+01	0	30	104	135266304	60	16678
2026-01-26 19:18:04.30	347.42	15.57	-43.7	-54.9	3.5	3.02e+01	0	30	104	135266304	60	21380
2026-01-26 19:18:05.31	347.18	15.61	-36.8	-47.1	3.5	3.02e+01	0	30	104	135266304	48	17305
2026-01-26 19:18:06.32	346.93	15.64	-37.3	-47.6	3.5	3.02e+01	0	30	104	135266304	48	18522
2026-01-26 19:18:07.33	346.69	15.68	-36.8	-47.0	3.5	3.02e+01	0	30	104	135266304	48	17234
2026-01-26 19:18:08.34	346.45	15.71	-39.5	-49.9	3.5	3.02e+01	0	30	104	135266304	54	16990
2026-01-26 19:18:09.35	346.20	15.75	-37.6	-47.9	3.5	3.02e+01	0	30	104	135266304	52	15073
2026-01-26 19:18:10.36	345.96	15.78	-49.2	-64.9	3.6	3.02e+01	0	30	104	135266304	60	67711
2026-01-26 19:18:11.37	345.71	15.81	-41.3	-51.9	3.6	3.02e+01	0	30	104	135266304	60	15184
2026-01-26 19:18:12.38	345.47	15.84	-45.3	-48.8	5.2	3.02e+01	0	30	104	135266304	60	10620
2026-01-26 19:18:13.39	345.22	15.88	-39.7	-41.5	24.3	3.02e+01	58	30	104	135266304	54	6478
2026-01-26 19:18:14.40	344.97	15.91	-38.0	-39.3	26.8	3.02e+01	53	30	0	136839168	52	5630
2026-01-26 19:18:15.41	344.72	15.94	-36.9	-38.2	27.9	3.02e+01	60	30	0	138936320	48	6259
2026-01-26 19:18:16.42	344.48	15.97	-37.1	-38.4	27.7	3.02e+01	57	30	0	140509184	48	6370
2026-01-26 19:18:17.42	344.23	16.00	-36.4	-37.7	28.2	3.02e+01	44	29	0	142606336	48	5893
2026-01-26 19:18:18.43	343.98	16.03	-36.8	-38.0	27.9	3.02e+01	58	29	0	144179200	48	6116
2026-01-26 19:18:19.44	343.73	16.06	-37.4	-38.7	27.2	3.02e+01	62	30	0	146276352	48	6618
2026-01-26 19:18:20.45	343.48	16.09	-37.0	-38.3	27.7	3.02e+01	60	30	0	148373504	48	6284
2026-01-26 19:18:21.46	343.23	16.11	-36.6	-37.9	28.1	3.02e+01	58	30	0	149946368	48	6000
2026-01-26 19:18:22.47	342.98	16.14	-36.1	-37.3	28.4	3.02e+01	51	29	0	152043520	48	5647
2026-01-26 19:18:23.48	342.72	16.17	-36.1	-37.4	28.4	3.02e+01	63	30	0	154140672	46	6355
2026-01-26 19:18:24.49	342.47	16.19	-35.8	-37.0	28.9	3.02e+01	57	30	0	155713536	46	6113
2026-01-26 19:18:25.50	342.22	16.22	-35.8	-37.0	28.9	3.02e+01	51	30	0	157810688	46	6125
2026-01-26 19:18:26.51	341.97	16.25	-36.6	-37.9	28.1	3.02e+01	61	30	0	159383552	46	6747
2026-01-26 19:18:27.52	341.71	16.27	-36.0	-37.3	28.8	3.02e+01	45	30	0	161480704	46	6291
2026-01-26 19:18:28.53	341.46	16.30	-36.0	-37.2	28.9	3.02e+01	59	30	0	163577856	46	6258
2026-01-26 19:18:29.54	341.20	16.32	-36.1	-37.4	28.7	3.02e+01	60	30	0	165150720	46	6364
2026-01-26 19:18:30.54	340.95	16.34	-36.0	-37.2	28.8	3.02e+01	50	29	0	167247872	46	6236
2026-01-26 19:18:31.56	340.69	16.37	-35.7	-37.0	29.1	3.02e+01	59	30	0	168820736	46	6076
2026-01-26 19:18:32.56	340.44	16.39	-35.8	-37.0	29.1	3.02e+01	61	29	0	170917888	46	6085
2026-01-26 19:18:33.57	340.18	16.41	-35.8	-37.1	28.9	3.02e+01	60	30	0	173015040	46	6147
2026-01-26 19:18:34.58	339.92	16.43	-36.0	-37.3	28.7	3.02e+01	54	29	0	174587904	46	6279
2026-01-26 19:18:35.59	339.67	16.45	-36.0	-37.2	28.6	3.02e+01	47	29	0	176685056	46	6256
2026-01-26 19:18:36.60	339.41	16.47	-36.2	-37.5	28.2	3.02e+01	61	30	0	178257920	46	6444
2026-01-26 19:18:37.61	339.15	16.49	-36.1	-37.4	28.1	3.02e+01	52	29	0	180355072	46	6363
2026-01-26 19:18:38.62	338.89	16.51	-36.0	-37.2	28.6	3.02e+01	45	30	0	182452224	46	6265
2026-01-26 19:18:39.63	338.63	16.53	-36.0	-37.2	28.6	3.02e+01	59	30	0	184025088	46	6270
2026-01-26 19:18:40.64	338.37	16.55	-36.0	-37.2	28.7	3.02e+01	62	30	0	186122240	46	6260
2026-01-26 19:18:41.65	338.11	16.57	-36.3	-37.5	28.3	3.02e+01	62	30	0	187695104	46	6464
2026-01-26 19:18:42.66	337.85	16.58	-36.2	-37.5	28.5	3.02e+01	60	30	0	189792256	46	6428
2026-01-26 19:18:43.66	337.60	16.60	-36.9	-38.2	27.7	3.02e+01	56	29	0	191889408	46	7017
2026-01-26 19:18:44.67	337.34	16.62	-36.4	-37.6	28.1	3.02e+01	58	30	0	193462272	46	6572
2026-01-26 19:18:45.68	337.08	16.63	-36.4	-37.6	28.1	3.02e+01	60	30	0	195559424	46	6539
2026-01-26 19:18:46.69	336.81	16.65	-36.3	-37.5	28.2	3.02e+01	53	30	0	197656576	46	6466
2026-01-26 19:18:47.70	336.55	16.66	-36.3	-37.5	28.3	3.02e+01	60	30	0	199229440	46	6466
2026-01-26 19:18:48.71	336.29	16.67	-36.3	-37.6	28.4	3.02e+01	61	30	0	201326592	46	6516
2026-01-26 19:18:49.72	336.03	16.69	-36.1	-37.3	28.6	3.02e+01	54	30	0	202899456	46	6342
2026-01-26 19:18:50.73	335.77	16.70	-36.4	-37.7	28.5	3.02e+01	60	30	0	204996608	46	6576
2026-01-26 19:18:51.74	335.51	16.71	-36.2	-37.4	28.6	3.02e+01	45	30	0	207093760	46	6418
2026-01-26 19:18:52.75	335.24	16.72	-36.1	-37.4	28.6	3.02e+01	60	30	0	208666624	46	6359
2026-01-26 19:18:53.76	334.98	16.73	-36.1	-37.4	28.6	3.02e+01	59	30	0	210763776	46	6355
2026-01-26 19:18:54.77	334.72	16.74	-36.1	-37.3	28.9	3.02e+01	50	29	0	212336640	46	6318
2026-01-26 19:18:55.78	334.45	16.75	-36.3	-37.6	28.2	3.02e+01	61	30	0	214433792	46	6512
2026-01-26 19:18:56.79	334.19	16.76	-36.3	-37.6	28.5	3.02e+01	53	30	0	216530944	46	6536
2026-01-26 19:18:57.80	333.93	16.77	-36.3	-37.6	28.2	3.02e+01	60	30	0	218103808	46	6534
2026-01-26 19:18:58.80	333.67	16.78	-36.2	-37.5	28.4	3.02e+01	60	30	0	220200960	46	6449
2026-01-26 19:18:59.81	333.40	16.79	-36.1	-37.4	28.5	3.02e+01	57	30	0	221773824	46	6366
2026-01-26 19:19:00.82	333.14	16.79	-36.2	-37.5	28.2	3.02e+01	59	30	0	223870976	46	6456
2026-01-26 19:19:01.83	332.87	16.80	-36.5	-37.8	28.2	3.02e+01	59	30	0	225968128	46	6677
2026-01-26 19:19:02.84	332.61	16.80	-36.0	-37.2	28.6	3.02e+01	56	30	0	227540992	46	6257
2026-01-26 19:19:03.85	332.35	16.81	-36.2	-37.4	28.6	3.02e+01	58	30	0	229638144	46	6387
2026-01-26 19:19:04.86	332.08	16.81	-36.0	-37.3	28.7	3.02e+01	55	30	0	231211008	46	6280
2026-01-26 19:19:05.87	331.82	16.82	-36.1	-37.3	28.3	3.02e+01	62	29	0	233308160	46	6343
2026-01-26 19:19:06.88	331.55	16.82	-36.2	-37.4	28.3	3.02e+01	60	30	0	235405312	46	6415
2026-01-26 19:19:07.89	331.29	16.82	-36.3	-37.5	28.3	3.02e+01	46	29	0	236978176	46	6475
2026-01-26 19:19:08.90	331.02	16.82	-36.0	-37.2	28.6	3.02e+01	57	30	0	239075328	46	6243
2026-01-26 19:19:09.91	330.76	16.83	-35.9	-37.1	28.7	3.02e+01	59	30	0	240648192	46	6178
2026-01-26 19:19:10.92	330.50	16.83	-35.9	-37.2	28.8	3.02e+01	58	29	0	242745344	46	6216
2026-01-26 19:19:11.93	330.23	16.83	-36.2	-37.5	28.6	3.02e+01	60	30	0	244842496	46	6424
2026-01-26 19:19:12.94	329.97	16.83	-36.4	-37.6	28.4	3.02e+01	48	30	0	246415360	46	6556
2026-01-26 19:19:13.94	329.70	16.83	-36.3	-37.6	28.4	3.02e+01	57	30	0	248512512	46	6503
2026-01-26 19:19:14.95	329.44	16.82	-36.1	-37.3	28.7	3.02e+01	59	29	0	250609664	46	6303
2026-01-26 19:19:15.96	329.17	16.82	-35.9	-37.1	28.9	3.02e+01	44	30	0	252182528	46	6175
2026-01-26 19:19:16.97	328.91	16.82	-35.8	-37.0	28.9	3.02e+01	59	30	0	254279680	46	6077
2026-01-26 19:19:17.98	328.65	16.82	-36.2	-37.4	28.7	3.02e+01	57	30	0	255852544	46	6381
2026-01-26 19:19:18.99	328.38	16.81	-36.4	-37.7	28.5	3.02e+01	60	30	0	257949696	46	6586
2026-01-26 19:19:20.00	328.12	16.81	-36.3	-37.5	28.4	3.02e+01	60	30	0	260046848	46	6477
2026-01-26 19:19:21.01	327.85	16.80	-36.3	-37.5	28.5	3.02e+01	48	30	0	261619712	46	6461
2026-01-26 19:19:22.01	327.59	16.80	-36.0	-37.3	28.7	3.02e+01	56	30	0	263716864	46	6286
2026-01-26 19:19:23.02	327.33	16.79	-36.0	-37.2	28.7	3.02e+01	59	30	0	265814016	46	6223
2026-01-26 19:19:24.03	327.06	16.78	-36.0	-37.2	28.6	3.02e+01	47	29	0	267386880	46	6251
2026-01-26 19:19:25.04	326.80	16.77	-36.1	-37.3	28.6	3.02e+01	58	30	0	269484032	46	6312
2026-01-26 19:19:26.05	326.54	16.77	-36.2	-37.5	28.3	3.02e+01	57	30	0	271056896	46	6450
2026-01-26 19:19:27.06	326.27	16.76	-36.5	-37.7	28.2	3.02e+01	61	30	0	273154048	46	6637
2026-01-26 19:19:28.07	326.01	16.75	-36.2	-37.4	28.3	3.02e+01	60	30	0	274726912	46	6383
2026-01-26 19:19:29.08	325.75	16.74	-36.0	-37.3	28.4	3.02e+01	56	30	0	276824064	46	6294
2026-01-26 19:19:30.09	325.48	16.73	-36.1	-37.3	28.6	3.02e+01	57	30	0	278921216	46	6337
2026-01-26 19:19:31.10	325.22	16.72	-36.1	-37.3	28.5	3.02e+01	61	30	0	280494080	46	6317
2026-01-26 19:19:32.10	324.96	16.71	-36.0	-37.3	28.6	3.02e+01	44	30	0	282591232	46	6292
2026-01-26 19:19:33.12	324.70	16.69	-36.2	-37.4	28.5	3.02e+01	60	30	0	284164096	46	6411
2026-01-26 19:19:34.12	324.44	16.68	-36.1	-37.3	28.6	3.02e+01	56	30	0	286261248	46	6311
2026-01-26 19:19:35.13	324.17	16.67	-36.4	-37.6	28.5	3.02e+01	51	30	0	288358400	46	6531
2026-01-26 19:19:36.14	323.91	16.65	-36.1	-37.3	28.7	3.02e+01	60	30	0	289931264	46	6337
2026-01-26 19:19:37.15	323.65	16.64	-35.9	-37.1	28.9	3.02e+01	57	30	0	292028416	46	6157
2026-01-26 19:19:38.16	323.39	16.62	-36.0	-37.2	28.9	3.02e+01	56	30	0	294125568	46	6238
2026-01-26 19:19:39.17	323.13	16.61	-36.0	-37.2	28.8	3.02e+01	60	30	0	295698432	46	6268
2026-01-26 19:19:40.18	322.87	16.59	-36.2	-37.4	28.7	3.02e+01	44	29	0	297795584	46	6411
2026-01-26 19:19:41.19	322.61	16.58	-36.3	-37.5	28.7	3.02e+01	59	30	0	299368448	46	6492
2026-01-26 19:19:42.20	322.35	16.56	-36.6	-37.8	28.5	3.02e+01	49	30	0	301465600	46	6697
2026-01-26 19:19:43.20	322.09	16.54	-36.5	-37.8	28.5	3.02e+01	59	30	0	303562752	46	6655
2026-01-26 19:19:44.21	321.83	16.52	-36.6	-37.9	28.4	3.02e+01	60	30	0	305135616	46	6763
2026-01-26 19:19:45.22	321.57	16.50	-36.3	-37.5	28.5	3.02e+01	47	30	0	307232768	46	6462
2026-01-26 19:19:46.23	321.32	16.48	-36.5	-37.7	28.5	3.02e+01	59	29	0	308805632	46	6634
2026-01-26 19:19:47.24	321.06	16.46	-36.4	-37.7	28.4	3.02e+01	60	30	0	310902784	46	6591
2026-01-26 19:19:48.25	320.80	16.44	-36.1	-37.3	29.0	3.02e+01	60	30	0	312999936	46	6322
2026-01-26 19:19:49.26	320.54	16.42	-36.3	-37.5	28.7	3.02e+01	64	30	0	314572800	46	6466
2026-01-26 19:19:50.27	320.29	16.40	-36.2	-37.4	28.7	3.02e+01	54	30	0	316669952	46	6393
2026-01-26 19:19:51.28	320.03	16.38	-36.0	-37.3	28.8	3.02e+01	58	30	0	318767104	46	6284
2026-01-26 19:19:52.29	319.77	16.36	-36.4	-37.6	28.7	3.02e+01	58	30	0	320339968	46	6536
2026-01-26 19:19:53.30	319.52	16.33	-36.0	-37.3	28.9	3.02e+01	48	30	0	322437120	46	6288
2026-01-26 19:19:54.31	319.26	16.31	-36.2	-37.4	28.9	3.02e+01	57	30	0	324009984	46	6409
2026-01-26 19:19:55.32	319.01	16.28	-36.2	-37.4	28.9	3.02e+01	59	30	0	326107136	46	6370
2026-01-26 19:19:56.33	318.75	16.26	-36.3	-37.5	28.7	3.02e+01	55	30	0	328204288	46	6479
2026-01-26 19:19:57.34	318.50	16.23	-36.2	-37.4	28.8	3.02e+01	58	30	0	329777152	46	6423
2026-01-26 19:19:58.35	318.24	16.21	-36.5	-37.7	28.8	3.02e+01	54	30	0	331874304	46	6613
2026-01-26 19:19:59.36	317.99	16.18	-36.2	-37.4	28.9	3.02e+01	56	30	0	333447168	46	6365
2026-01-26 19:20:00.36	317.74	16.16	-36.3	-37.6	28.7	3.02e+01	58	30	0	335544320	46	6527
2026-01-26 19:20:01.38	317.49	16.13	-36.3	-37.6	28.6	3.02e+01	47	30	0	337641472	46	6511
2026-01-26 19:20:02.38	317.24	16.10	-36.5	-37.7	28.7	3.02e+01	57	30	0	339214336	46	6632
2026-01-26 19:20:03.39	316.99	16.07	-36.7	-38.0	28.3	3.02e+01	60	30	0	341311488	46	6812
2026-01-26 19:20:04.40	316.74	16.04	-36.2	-37.5	28.7	3.02e+01	61	30	0	342884352	46	6424
2026-01-26 19:20:05.41	316.49	16.01	-36.3	-37.5	28.7	3.02e+01	60	30	0	344981504	46	6442
2026-01-26 19:20:06.42	316.24	15.98	-36.3	-37.6	28.7	3.02e+01	50	30	0	347078656	46	6500
2026-01-26 19:20:07.43	315.99	15.95	-36.3	-37.6	28.7	3.02e+01	60	30	0	348651520	46	6503
2026-01-26 19:20:08.44	315.74	15.92	-36.3	-37.5	28.7	3.02e+01	61	30	0	350748672	46	6483
2026-01-26 19:20:09.45	315.49	15.89	-36.6	-37.8	28.6	3.02e+01	47	30	0	352321536	46	6703
2026-01-26 19:20:10.46	315.24	15.86	-36.8	-38.1	28.1	3.02e+01	61	30	0	354418688	46	6889
2026-01-26 19:20:11.47	315.00	15.83	-37.2	-38.5	27.4	3.02e+01	63	30	0	356515840	48	6430
2026-01-26 19:20:12.48	314.75	15.79	-36.3	-37.5	28.7	3.02e+01	58	30	0	358088704	48	5765
2026-01-26 19:20:13.49	314.50	15.76	-37.0	-38.3	28.0	3.02e+01	59	30	0	360185856	48	6335
2026-01-26 19:20:14.49	314.26	15.73	-35.9	-37.1	29.0	3.02e+01	52	30	0	362283008	46	6148
2026-01-26 19:20:15.50	314.02	15.69	-36.4	-37.6	28.7	3.02e+01	57	30	0	363855872	46	6532
2026-01-26 19:20:16.52	313.77	15.66	-36.4	-37.7	28.5	3.02e+01	62	30	0	365953024	46	6579
2026-01-26 19:20:17.53	313.53	15.62	-36.1	-37.3	28.9	3.02e+01	51	30	0	367525888	46	6346
2026-01-26 19:20:18.54	313.28	15.59	-36.3	-37.5	28.6	3.02e+01	61	30	0	369623040	46	6469
2026-01-26 19:20:19.55	313.04	15.55	-36.5	-37.8	28.4	3.02e+01	53	30	0	371720192	46	6664
2026-01-26 19:20:20.56	312.80	15.52	-36.0	-37.2	28.9	3.02e+01	60	30	0	373293056	46	6277
2026-01-26 19:20:21.56	312.56	15.48	-35.7	-36.9	29.2	3.02e+01	60	30	0	375390208	46	6010
2026-01-26 19:20:22.58	312.32	15.44	-36.8	-38.1	28.1	3.02e+01	47	30	0	376963072	46	6901
2026-01-26 19:20:23.59	312.08	15.41	-35.7	-36.8	29.1	3.02e+01	58	30	0	379060224	46	5993
2026-01-26 19:20:24.60	311.84	15.37	-36.7	-38.0	28.4	3.02e+01	58	30	0	381157376	46	6867
2026-01-26 19:20:25.60	311.61	15.33	-36.4	-37.7	28.7	3.02e+01	63	30	0	382730240	46	6582
2026-01-26 19:20:26.62	311.37	15.29	-37.3	-38.6	27.6	3.02e+01	60	30	0	384827392	48	6556
2026-01-26 19:20:27.62	311.13	15.25	-36.5	-37.7	28.4	3.02e+01	55	30	0	386924544	48	5883
2026-01-26 19:20:28.63	310.89	15.21	-37.7	-39.1	26.9	3.02e+01	57	30	0	388497408	50	6197
2026-01-26 19:20:29.64	310.66	15.17	-35.6	-36.8	28.9	3.02e+01	57	30	0	390594560	46	5960
2026-01-26 19:20:30.65	310.42	15.13	-36.2	-37.4	28.1	3.02e+01	44	30	0	392167424	48	5703
2026-01-26 19:20:31.66	310.19	15.09	-36.1	-37.4	28.7	3.02e+01	60	30	0	394264576	46	6369
2026-01-26 19:20:32.67	309.96	15.05	-36.1	-37.3	28.9	3.02e+01	60	30	0	395837440	46	6305
2026-01-26 19:20:33.68	309.72	15.01	-36.2	-37.4	29.0	3.02e+01	58	30	0	397934592	46	6406
2026-01-26 19:20:34.69	309.49	14.97	-36.7	-38.0	28.2	3.02e+01	58	30	0	400031744	46	6824
2026-01-26 19:20:35.70	309.26	14.93	-36.2	-37.4	28.6	3.02e+01	55	30	0	401604608	46	6408
2026-01-26 19:20:36.71	309.03	14.88	-37.0	-38.3	27.8	3.02e+01	59	30	0	403701760	48	6298
2026-01-26 19:20:37.72	308.80	14.84	-36.2	-37.4	28.6	3.02e+01	59	30	0	405274624	46	6403
2026-01-26 19:20:38.73	308.57	14.80	-36.3	-37.5	28.9	3.02e+01	44	30	0	407371776	48	5752
2026-01-26 19:20:39.73	308.34	14.75	-36.3	-37.5	28.8	3.02e+01	62	30	0	409468928	46	6487
2026-01-26 19:20:40.74	308.12	14.71	-36.8	-38.0	28.5	3.02e+01	58	30	0	411041792	46	6870
2026-01-26 19:20:41.75	307.89	14.67	-36.0	-37.2	29.1	3.02e+01	59	30	0	413138944	46	6236
2026-01-26 19:20:42.76	307.66	14.62	-36.8	-38.1	28.0	3.02e+01	58	30	0	415236096	46	6955
2026-01-26 19:20:43.77	307.44	14.58	-36.0	-37.2	28.8	3.02e+01	57	30	0	416808960	46	6222
2026-01-26 19:20:44.78	307.21	14.53	-36.9	-38.3	27.9	3.02e+01	58	30	0	418906112	48	6278
2026-01-26 19:20:45.79	306.99	14.49	-36.1	-37.4	28.9	3.02e+01	63	30	0	420478976	48	5673
2026-01-26 19:20:46.80	306.76	14.44	-36.4	-37.6	28.7	3.02e+01	44	30	0	422576128	48	5837
2026-01-26 19:20:47.81	306.54	14.39	-36.2	-37.5	28.8	3.02e+01	61	30	0	424673280	48	5741
2026-01-26 19:20:48.82	306.32	14.35	-36.0	-37.3	28.8	3.02e+01	53	30	0	426246144	48	5602
2026-01-26 19:20:49.83	306.10	14.30	-36.1	-37.4	28.8	3.02e+01	59	30	0	428343296	48	5667
2026-01-26 19:20:50.84	305.88	14.25	-36.4	-37.7	28.6	3.02e+01	59	30	0	430440448	46	6609
2026-01-26 19:20:51.85	305.66	14.21	-36.7	-37.9	28.6	3.02e+01	52	30	0	432013312	48	6050
2026-01-26 19:20:52.85	305.44	14.16	-36.6	-37.9	28.6	3.02e+01	61	30	0	434110464	48	5997
2026-01-26 19:20:53.86	305.22	14.11	-36.5	-37.8	28.5	3.02e+01	59	30	0	435683328	48	5964
2026-01-26 19:20:54.87	305.01	14.06	-36.1	-37.4	29.1	3.02e+01	59	30	0	437780480	48	5665
2026-01-26 19:20:55.88	304.79	14.01	-36.5	-37.7	28.6	3.02e+01	62	30	0	439877632	48	5914
2026-01-26 19:20:56.89	304.57	13.96	-36.3	-37.5	28.9	3.02e+01	45	30	0	441450496	48	5764
2026-01-26 19:20:57.90	304.36	13.91	-36.8	-38.1	28.5	3.02e+01	54	30	0	443547648	48	6155
2026-01-26 19:20:58.91	304.14	13.87	-36.4	-37.6	28.9	3.02e+01	59	30	0	445120512	48	5833
2026-01-26 19:20:59.92	303.93	13.82	-36.3	-37.6	28.8	3.02e+01	44	30	0	447217664	48	5810
2026-01-26 19:21:00.93	303.72	13.77	-36.6	-37.9	28.4	3.02e+01	57	30	0	449314816	48	6020
2026-01-26 19:21:01.94	303.50	13.72	-36.1	-37.4	28.9	3.02e+01	59	30	0	450887680	48	5662
2026-01-26 19:21:02.95	303.29	13.67	-36.7	-37.9	28.4	3.02e+01	59	30	0	452984832	48	6064
2026-01-26 19:21:03.96	303.08	13.61	-36.2	-37.4	26.0	3.02e+01	59	30	0	454557696	48	5682
2026-01-26 19:21:04.96	302.88	13.56	-36.5	-37.7	28.6	3.02e+01	47	30	0	456654848	46	6619
2026-01-26 19:21:05.97	302.67	13.51	-36.3	-37.6	28.8	3.02e+01	59	30	0	458752000	46	6505
2026-01-26 19:21:06.98	302.46	13.46	-36.3	-37.6	28.7	3.02e+01	60	30	0	460324864	46	6518
2026-01-26 19:21:07.99	302.25	13.41	-36.5	-37.7	28.6	3.02e+01	45	30	0	462422016	46	6629
2026-01-26 19:21:08.99	302.05	13.36	-36.1	-37.4	28.6	3.02e+01	60	30	0	463994880	46	6376
2026-01-26 19:21:10.00	301.84	13.31	-36.6	-37.9	28.3	3.02e+01	59	30	0	466092032	46	6759
2026-01-26 19:21:11.02	301.63	13.25	-36.2	-37.4	28.7	3.02e+01	59	30	0	468189184	46	6383
2026-01-26 19:21:12.02	301.43	13.20	-36.5	-37.8	28.3	3.02e+01	57	30	0	469762048	46	6670
2026-01-26 19:21:13.03	301.23	13.15	-36.0	-37.2	28.9	3.02e+01	55	30	0	471859200	46	6231
2026-01-26 19:21:14.04	301.02	13.10	-36.4	-37.7	28.4	3.02e+01	64	30	0	473432064	46	6579
2026-01-26 19:21:15.05	300.82	13.04	-36.1	-37.3	28.8	3.02e+01	58	30	0	475529216	46	6292
2026-01-26 19:21:16.05	300.62	12.99	-36.6	-37.9	28.2	3.02e+01	49	30	0	477626368	46	6763
2026-01-26 19:21:17.06	300.42	12.94	-36.2	-37.4	28.6	3.02e+01	57	30	0	479199232	46	6400
2026-01-26 19:21:18.07	300.22	12.88	-36.5	-37.8	28.0	3.02e+01	59	30	0	481296384	46	6698
2026-01-26 19:21:19.08	300.02	12.83	-36.6	-37.9	27.8	3.02e+01	60	30	0	483393536	48	6043
2026-01-26 19:21:20.09	299.83	12.77	-36.0	-37.2	28.5	3.02e+01	54	30	0	484966400	48	5549
2026-01-26 19:21:21.10	299.63	12.72	-37.0	-38.4	27.6	3.02e+01	45	30	0	487063552	48	6368
2026-01-26 19:21:22.11	299.43	12.67	-36.1	-37.3	28.6	3.02e+01	60	30	0	488636416	48	5614
2026-01-26 19:21:23.12	299.24	12.61	-37.8	-39.1	27.3	3.02e+01	60	30	0	490733568	48	6949
2026-01-26 19:21:24.13	299.04	12.56	-37.3	-38.6	27.7	3.02e+01	46	30	0	492830720	50	5819
2026-01-26 19:21:25.14	298.85	12.50	-37.7	-39.0	27.3	3.02e+01	61	30	0	494403584	50	6110
2026-01-26 19:21:26.15	298.66	12.45	-38.0	-39.4	26.8	3.02e+01	60	30	0	496500736	50	6360
2026-01-26 19:21:27.16	298.46	12.39	-37.2	-38.5	27.7	3.02e+01	58	30	0	498073600	50	5752
2026-01-26 19:21:28.17	298.27	12.33	-37.7	-39.1	27.2	3.02e+01	60	30	0	500170752	50	6174
2026-01-26 19:21:29.18	298.08	12.28	-37.2	-38.5	27.7	3.02e+01	59	30	0	502267904	50	5754
2026-01-26 19:21:30.19	297.89	12.22	-38.0	-39.3	27.1	3.02e+01	57	30	0	503840768	50	6322
2026-01-26 19:21:31.20	297.70	12.17	-37.6	-38.9	27.3	3.02e+01	59	30	0	505937920	50	6034
2026-01-26 19:21:32.21	297.51	12.11	-37.0	-38.2	27.9	3.02e+01	45	30	0	507510784	48	6243
2026-01-26 19:21:33.22	297.32	12.05	-37.7	-39.1	27.4	3.02e+01	57	30	0	509607936	48	6908
2026-01-26 19:21:34.23	297.14	12.00	-36.9	-38.1	28.2	3.02e+01	49	30	0	511705088	48	6172
2026-01-26 19:21:35.23	296.95	11.94	-37.6	-39.0	27.3	3.02e+01	59	30	0	513277952	48	6838
2026-01-26 19:21:36.24	296.77	11.89	-37.5	-38.9	27.2	3.02e+01	61	30	0	515375104	48	6741
2026-01-26 19:21:37.25	296.58	11.83	-36.6	-37.8	28.3	3.02e+01	50	30	0	516947968	48	5970
2026-01-26 19:21:38.26	296.40	11.77	-37.6	-39.0	27.3	3.02e+01	61	30	0	519045120	48	6810
2026-01-26 19:21:39.27	296.22	11.71	-37.4	-38.7	27.3	3.02e+01	52	30	0	521142272	48	6638
2026-01-26 19:21:40.28	296.03	11.66	-37.2	-38.5	27.7	3.02e+01	58	30	0	522715136	48	6460
2026-01-26 19:21:41.29	295.85	11.60	-37.3	-38.6	27.6	3.02e+01	59	30	0	524812288	48	6558
2026-01-26 19:21:42.30	295.67	11.54	-36.6	-37.9	28.1	3.02e+01	54	30	0	526909440	48	6032
2026-01-26 19:21:43.31	295.49	11.49	-36.5	-37.7	28.3	3.02e+01	59	30	0	528482304	48	5913
2026-01-26 19:21:44.32	295.31	11.43	-36.5	-37.8	28.1	3.02e+01	58	30	0	530579456	48	5957
2026-01-26 19:21:45.33	295.13	11.37	-36.3	-37.6	28.4	3.02e+01	45	30	0	532152320	48	5800
2026-01-26 19:21:46.34	294.96	11.31	-36.6	-37.9	28.2	3.02e+01	60	30	0	534249472	48	6037
2026-01-26 19:21:47.35	294.78	11.25	-37.1	-38.5	27.6	3.02e+01	58	30	0	536346624	48	6434
2026-01-26 19:21:48.36	294.60	11.20	-36.8	-38.1	27.9	3.02e+01	59	30	0	537919488	48	6144
2026-01-26 19:21:49.37	294.43	11.14	-36.6	-37.8	28.2	3.02e+01	61	30	0	540016640	48	5990
2026-01-26 19:21:50.38	294.25	11.08	-36.7	-38.0	27.9	3.02e+01	54	30	0	541589504	48	6105
2026-01-26 19:21:51.39	294.08	11.02	-37.4	-38.7	27.5	3.02e+01	60	30	0	543686656	48	6643
2026-01-26 19:21:52.40	293.91	10.96	-37.5	-38.9	27.6	3.02e+01	60	30	0	545783808	48	6738
2026-01-26 19:21:53.41	293.73	10.90	-36.8	-38.1	27.9	3.02e+01	47	30	0	547356672	48	6179
2026-01-26 19:21:54.42	293.56	10.85	-36.8	-38.0	28.1	3.02e+01	58	30	0	549453824	48	6104
2026-01-26 19:21:55.43	293.39	10.79	-36.8	-38.1	28.1	3.02e+01	61	30	0	551550976	48	6149
2026-01-26 19:21:56.44	293.22	10.73	-36.9	-38.2	27.9	3.02e+01	57	30	0	553123840	48	6253
2026-01-26 19:21:57.45	293.05	10.67	-36.7	-37.9	28.1	3.02e+01	59	30	0	555220992	48	6050
2026-01-26 19:21:58.46	292.88	10.61	-36.5	-37.7	28.3	3.02e+01	52	30	0	556793856	48	5920
2026-01-26 19:21:59.47	292.71	10.55	-36.7	-38.0	28.0	3.02e+01	65	30	0	558891008	48	6121
2026-01-26 19:22:00.48	292.55	10.49	-36.9	-38.2	27.9	3.02e+01	56	30	0	560988160	48	6235
2026-01-26 19:22:01.49	292.38	10.43	-36.7	-37.9	28.0	3.02e+01	45	30	0	562561024	48	6057
2026-01-26 19:22:02.50	292.22	10.37	-36.7	-38.0	28.0	3.02e+01	61	30	0	564658176	48	6076
2026-01-26 19:22:03.51	292.05	10.32	-36.7	-37.9	28.0	3.02e+01	61	30	0	566231040	48	6052
2026-01-26 19:22:04.52	291.89	10.26	-36.8	-38.1	27.9	3.02e+01	60	30	0	568328192	48	6141
2026-01-26 19:22:05.53	291.72	10.20	-37.0	-38.3	27.7	3.02e+01	58	30	0	570425344	48	6308
2026-01-26 19:22:06.54	291.56	10.14	-36.7	-38.0	28.0	3.02e+01	51	30	0	571998208	48	6109
2026-01-26 19:22:07.54	291.40	10.08	-36.9	-38.2	27.7	3.02e+01	59	30	0	574095360	48	6212
2026-01-26 19:22:08.55	291.24	10.02	-36.5	-37.8	28.2	3.02e+01	61	30	0	575668224	48	5954
2026-01-26 19:22:09.56	291.08	9.96	-36.6	-37.9	28.2	3.02e+01	49	30	0	577765376	48	6018
2026-01-26 19:22:10.57	290.92	9.90	-37.0	-38.3	27.7	3.02e+01	58	30	0	579862528	48	6292
2026-01-26 19:22:11.58	290.76	9.84	-37.1	-38.4	27.6	3.02e+01	47	30	0	581435392	48	6394
2026-01-26 19:22:12.58	290.60	9.78	-37.2	-38.5	27.6	3.02e+01	60	30	0	583532544	48	6492
2026-01-26 19:22:13.59	290.44	9.72	-36.9	-38.2	27.7	3.02e+01	60	30	0	585105408	48	6259
2026-01-26 19:22:14.60	290.29	9.66	-36.7	-38.0	27.9	3.02e+01	48	30	0	587202560	48	6097
2026-01-26 19:22:15.61	290.13	9.60	-36.7	-38.0	27.9	3.02e+01	57	30	0	589299712	48	6069
2026-01-26 19:22:16.62	289.97	9.54	-37.0	-38.3	27.6	3.02e+01	62	30	0	590872576	48	6330
2026-01-26 19:22:17.63	289.82	9.48	-37.1	-38.4	27.6	3.02e+01	51	30	0	592969728	48	6374
2026-01-26 19:22:18.64	289.66	9.42	-36.9	-38.2	27.6	3.02e+01	57	30	0	594542592	48	6218
2026-01-26 19:22:19.65	289.51	9.36	-36.8	-38.1	27.9	3.02e+01	49	30	0	596639744	48	6152
2026-01-26 19:22:20.66	289.36	9.30	-37.2	-38.5	27.5	3.02e+01	55	30	0	598736896	48	6462
2026-01-26 19:22:21.67	289.21	9.24	-37.3	-38.6	27.2	3.02e+01	58	30	0	600309760	48	6567
2026-01-26 19:22:22.68	289.05	9.18	-36.9	-38.2	27.6	3.02e+01	44	30	0	602406912	48	6247
2026-01-26 19:22:23.69	288.90	9.12	-36.9	-38.1	27.7	3.02e+01	58	30	0	604504064	48	6192
2026-01-26 19:22:24.70	288.75	9.06	-37.4	-38.7	27.4	3.02e+01	56	30	0	606076928	48	6597
2026-01-26 19:22:25.71	288.60	9.00	-37.5	-38.8	27.2	3.02e+01	59	30	0	608174080	48	6693
2026-01-26 19:22:26.72	288.46	8.94	-37.4	-38.7	27.2	3.02e+01	59	30	0	609746944	48	6635
2026-01-26 19:22:27.73	288.31	8.88	-37.0	-38.3	27.5	3.02e+01	45	30	0	611844096	48	6332
2026-01-26 19:22:28.73	288.16	8.82	-36.9	-38.2	27.8	3.02e+01	59	30	0	613941248	48	6207
2026-01-26 19:22:29.74	288.01	8.76	-37.2	-38.5	27.4	3.02e+01	61	30	0	615514112	48	6468
2026-01-26 19:22:30.75	287.87	8.70	-37.3	-38.7	27.2	3.02e+01	45	30	0	617611264	48	6574
2026-01-26 19:22:31.76	287.72	8.64	-37.5	-38.8	27.2	3.02e+01	57	30	0	619184128	48	6717
2026-01-26 19:22:32.77	287.58	8.58	-37.3	-38.6	27.4	3.02e+01	62	30	0	621281280	48	6529
2026-01-26 19:22:33.78	287.43	8.52	-37.2	-38.5	27.5	3.02e+01	59	30	0	623378432	48	6470
2026-01-26 19:22:34.79	287.29	8.46	-37.2	-38.5	27.4	3.02e+01	61	30	0	624951296	48	6458
2026-01-26 19:22:35.80	287.15	8.40	-37.1	-38.4	27.5	3.02e+01	45	30	0	627048448	48	6374
2026-01-26 19:22:36.81	287.00	8.34	-37.3	-38.6	27.3	3.02e+01	61	30	0	628621312	48	6540
2026-01-26 19:22:37.82	286.86	8.28	-37.6	-38.9	26.9	3.02e+01	61	30	0	630718464	48	6798
2026-01-26 19:22:38.83	286.72	8.22	-37.2	-38.5	27.3	3.02e+01	48	30	0	632815616	48	6493
2026-01-26 19:22:39.83	286.58	8.16	-37.0	-38.3	27.5	3.02e+01	58	30	0	634388480	48	6301
2026-01-26 19:22:40.84	286.44	8.10	-37.0	-38.3	27.5	3.02e+01	62	30	0	636485632	48	6334
2026-01-26 19:22:41.85	286.30	8.04	-37.2	-38.5	27.3	3.02e+01	61	30	0	638058496	48	6493
2026-01-26 19:22:42.86	286.17	7.98	-37.6	-39.0	27.0	3.02e+01	59	30	0	640155648	48	6811
2026-01-26 19:22:43.87	286.03	7.92	-37.4	-38.8	27.1	3.02e+01	58	30	0	642252800	48	6689
2026-01-26 19:22:44.88	285.89	7.86	-37.4	-38.7	27.1	3.02e+01	61	30	0	643825664	48	6635
2026-01-26 19:22:45.89	285.76	7.80	-37.2	-38.5	27.3	3.02e+01	55	30	0	645922816	48	6447
2026-01-26 19:22:46.90	285.62	7.74	-37.1	-38.4	27.5	3.02e+01	58	30	0	648019968	48	6371
2026-01-26 19:22:47.91	285.48	7.68	-37.1	-38.4	27.4	3.02e+01	62	30	0	649592832	48	6401
2026-01-26 19:22:48.92	285.35	7.62	-37.4	-38.8	27.1	3.02e+01	46	30	0	651689984	48	6661
2026-01-26 19:22:49.92	285.22	7.56	-37.6	-39.0	26.8	3.02e+01	57	30	0	653262848	48	6865
2026-01-26 19:22:50.93	285.08	7.50	-38.0	-39.4	26.5	3.02e+01	59	30	0	655360000	50	6411
2026-01-26 19:22:51.94	284.95	7.44	-37.8	-39.2	26.6	3.02e+01	46	30	0	657457152	50	6249
2026-01-26 19:22:52.95	284.82	7.38	-37.4	-38.8	27.0	3.02e+01	58	30	0	659030016	50	5947
2026-01-26 19:22:53.96	284.69	7.32	-37.3	-38.6	27.1	3.02e+01	59	30	0	661127168	50	5836
2026-01-26 19:22:54.97	284.56	7.26	-37.3	-38.6	27.3	3.02e+01	58	30	0	662700032	50	5810
2026-01-26 19:22:55.98	284.42	7.20	-37.4	-38.7	27.2	3.02e+01	57	30	0	664797184	50	5896
2026-01-26 19:22:56.98	284.30	7.15	-37.5	-38.9	27.0	3.02e+01	59	30	0	666894336	50	6015
2026-01-26 19:22:57.99	284.17	7.09	-37.8	-39.2	26.7	3.02e+01	59	30	0	668467200	50	6238
2026-01-26 19:22:59.00	284.04	7.03	-37.9	-39.3	26.6	3.02e+01	54	30	0	670564352	50	6282
2026-01-26 19:23:00.01	283.91	6.97	-38.0	-39.5	26.4	3.02e+01	47	30	0	672137216	50	6426
2026-01-26 19:23:01.02	283.78	6.91	-38.1	-39.5	26.3	3.02e+01	61	30	0	674234368	50	6464
2026-01-26 19:23:02.03	283.66	6.85	-37.7	-39.0	26.8	3.02e+01	59	30	0	676331520	50	6099
2026-01-26 19:23:03.04	283.53	6.79	-37.5	-38.8	27.0	3.02e+01	60	30	0	677904384	50	5954
2026-01-26 19:23:04.05	283.40	6.73	-37.5	-38.9	27.0	3.02e+01	56	30	0	680001536	50	6005
2026-01-26 19:23:05.06	283.28	6.67	-37.8	-39.2	26.6	3.02e+01	55	30	0	681574400	50	6242
2026-01-26 19:23:06.07	283.15	6.61	-38.1	-39.5	26.5	3.02e+01	56	30	0	683671552	50	6436
2026-01-26 19:23:07.08	283.03	6.55	-38.2	-39.6	26.3	3.02e+01	56	30	0	685768704	50	6570
2026-01-26 19:23:08.08	282.91	6.49	-38.0	-39.4	26.5	3.02e+01	47	30	0	687341568	50	6409
2026-01-26 19:23:09.09	282.78	6.43	-37.9	-39.3	26.4	3.02e+01	62	30	0	689438720	50	6348
2026-01-26 19:23:10.10	282.66	6.37	-38.1	-39.5	26.2	3.02e+01	59	30	0	691011584	50	6490
2026-01-26 19:23:11.11	282.54	6.31	-38.1	-39.5	26.3	3.02e+01	60	30	0	693108736	50	6485
2026-01-26 19:23:12.12	282.42	6.25	-37.7	-39.1	26.6	3.02e+01	61	30	0	695205888	50	6173
2026-01-26 19:23:13.13	282.30	6.19	-37.6	-38.9	26.8	3.02e+01	45	30	0	696778752	50	6048
2026-01-26 19:23:14.14	282.18	6.13	-37.8	-39.1	26.7	3.02e+01	60	30	0	698875904	50	6202
2026-01-26 19:23:15.15	282.06	6.07	-37.9	-39.3	26.6	3.02e+01	60	30	0	700973056	50	6290
2026-01-26 19:23:16.16	281.94	6.02	-37.7	-39.1	26.6	3.02e+01	46	30	0	702545920	50	6149
2026-01-26 19:23:17.17	281.82	5.96	-38.1	-39.6	26.3	3.02e+01	57	30	0	704643072	50	6499
2026-01-26 19:23:18.18	281.70	5.90	-37.9	-39.3	26.4	3.02e+01	42	30	0	706215936	50	6310
2026-01-26 19:23:19.18	281.59	5.84	-38.3	-39.7	26.1	3.02e+01	58	30	0	708313088	50	6597
2026-01-26 19:23:20.20	281.47	5.78	-38.3	-39.7	26.2	3.02e+01	60	30	0	710410240	50	6618
2026-01-26 19:23:21.21	281.35	5.72	-38.0	-39.4	26.5	3.02e+01	54	29	0	711983104	50	6379
2026-01-26 19:23:22.22	281.24	5.66	-38.1	-39.5	26.2	3.02e+01	56	30	0	714080256	50	6484
2026-01-26 19:23:23.22	281.12	5.60	-38.1	-39.5	26.2	3.02e+01	59	29	0	716177408	50	6481
2026-01-26 19:23:24.23	281.01	5.54	-38.0	-39.4	26.3	3.02e+01	58	29	0	717750272	50	6422
2026-01-26 19:23:25.24	280.89	5.49	-38.2	-39.6	26.1	3.02e+01	58	30	0	719847424	50	6548
2026-01-26 19:23:26.25	280.78	5.43	-38.0	-39.4	26.2	3.02e+01	46	29	0	721420288	50	6373
2026-01-26 19:23:27.26	280.67	5.37	-38.0	-39.4	26.2	3.02e+01	55	30	0	723517440	50	6405
2026-01-26 19:23:28.27	280.55	5.31	-38.1	-39.6	26.1	3.02e+01	55	29	0	725614592	50	6511
2026-01-26 19:23:29.28	280.44	5.25	-38.2	-39.6	26.1	3.02e+01	44	30	0	727187456	50	6528
2026-01-26 19:23:30.29	280.33	5.19	-38.2	-39.7	26.0	3.02e+01	59	30	0	729284608	50	6585
2026-01-26 19:23:31.30	280.22	5.13	-38.3	-39.8	26.0	3.02e+01	61	29	0	730857472	50	6672
2026-01-26 19:23:32.31	280.11	5.08	-38.2	-39.6	26.0	3.02e+01	60	29	0	732954624	50	6566
2026-01-26 19:23:33.32	280.00	5.02	-38.3	-39.8	25.9	3.02e+01	60	30	0	735051776	50	6661
2026-01-26 19:23:34.33	279.89	4.96	-38.2	-39.6	26.0	3.02e+01	51	29	0	736624640	50	6560
2026-01-26 19:23:35.34	279.78	4.90	-38.2	-39.7	26.0	3.02e+01	56	30	0	738721792	50	6586
2026-01-26 19:23:36.35	279.67	4.84	-38.4	-39.8	25.8	3.02e+01	60	29	0	740294656	50	6720
2026-01-26 19:23:37.35	279.56	4.78	-38.2	-39.6	26.0	3.02e+01	44	29	0	742391808	50	6548
2026-01-26 19:23:38.36	279.45	4.73	-38.1	-39.5	26.0	3.02e+01	59	29	0	744488960	50	6486
2026-01-26 19:23:39.37	279.35	4.67	-38.3	-39.7	25.8	3.02e+01	60	29	0	746061824	50	6630
2026-01-26 19:23:40.38	279.24	4.61	-38.4	-39.9	25.6	3.02e+01	55	29	0	748158976	50	6749
2026-01-26 19:23:41.39	279.13	4.55	-38.3	-39.8	25.8	3.02e+01	57	30	0	749731840	50	6665
2026-01-26 19:23:42.40	279.03	4.49	-38.9	-40.4	25.1	3.02e+01	56	29	0	751828992	50	7194
2026-01-26 19:23:43.41	278.92	4.44	-39.2	-40.8	25.0	3.02e+01	57	29	0	753926144	52	6681
2026-01-26 19:23:44.42	278.82	4.38	-38.8	-40.3	25.2	3.02e+01	61	29	0	755499008	52	6289
2026-01-26 19:23:45.43	278.71	4.32	-38.7	-40.2	25.4	3.02e+01	46	29	0	757596160	52	6228
2026-01-26 19:23:46.44	278.61	4.26	-38.0	-39.4	26.0	3.02e+01	58	29	0	759169024	50	6414
2026-01-26 19:23:47.45	278.50	4.21	-38.8	-40.3	25.5	3.02e+01	64	29	0	761266176	50	7073
2026-01-26 19:23:48.45	278.40	4.15	-38.3	-39.8	25.7	3.02e+01	59	29	0	763363328	50	6698
2026-01-26 19:23:49.46	278.30	4.09	-38.9	-40.4	25.4	3.02e+01	59	29	0	764936192	50	7170
2026-01-26 19:23:50.47	278.20	4.03	-38.4	-39.8	25.8	3.02e+01	53	29	0	767033344	50	6712
2026-01-26 19:23:51.48	278.09	3.98	-38.2	-39.6	25.8	3.02e+01	57	29	0	769130496	50	6556
2026-01-26 19:23:52.49	277.99	3.92	-38.7	-40.2	25.4	3.02e+01	60	29	0	770703360	50	6995
2026-01-26 19:23:53.50	277.89	3.86	-38.2	-39.6	25.9	3.02e+01	47	29	0	772800512	50	6539
2026-01-26 19:23:54.51	277.79	3.80	-38.8	-40.3	25.3	3.02e+01	59	29	0	774373376	50	7082
2026-01-26 19:23:55.52	277.69	3.75	-38.7	-40.3	25.2	3.02e+01	58	29	0	776470528	50	7068
2026-01-26 19:23:56.53	277.59	3.69	-38.5	-40.0	25.4	3.02e+01	61	29	0	778567680	50	6874
2026-01-26 19:23:57.54	277.49	3.63	-38.9	-40.4	25.0	3.02e+01	60	29	0	780140544	52	6395
2026-01-26 19:23:58.55	277.39	3.58	-38.7	-40.2	25.2	3.02e+01	54	29	0	782237696	52	6250
2026-01-26 19:23:59.56	277.30	3.52	-39.1	-40.7	24.9	3.02e+01	56	29	0	783810560	52	6612
2026-01-26 19:24:00.57	277.20	3.46	-38.9	-40.4	25.1	3.02e+01	59	29	0	785907712	52	6408
2026-01-26 19:24:01.58	277.10	3.40	-38.9	-40.5	25.1	3.02e+01	57	29	0	788004864	52	6434
2026-01-26 19:24:02.59	277.00	3.35	-39.0	-40.6	25.0	3.02e+01	63	29	0	789577728	52	6539
2026-01-26 19:24:03.60	276.91	3.29	-38.6	-40.1	25.3	3.02e+01	47	29	0	791674880	52	6194
2026-01-26 19:24:04.61	276.81	3.23	-38.7	-40.2	25.0	3.02e+01	59	29	0	793247744	52	6272
2026-01-26 19:24:05.61	276.71	3.18	-39.1	-40.7	24.7	3.02e+01	61	29	0	795344896	52	6631
2026-01-26 19:24:06.62	276.62	3.12	-39.2	-40.8	24.6	3.02e+01	44	29	0	797442048	52	6679
2026-01-26 19:24:07.63	276.52	3.07	-38.5	-40.0	25.3	3.02e+01	61	29	0	799014912	52	6086
2026-01-26 19:24:08.64	276.43	3.01	-48.4	-65.9	3.5	3.02e+01	0	29	104	800587776	60	76326
2026-01-26 19:24:09.65	276.34	2.95	-48.9	-66.7	3.5	3.02e+01	0	29	104	800587776	60	83361
2026-01-26 19:24:10.66	276.24	2.90	-49.1	-67.0	3.5	3.02e+01	0	29	104	800587776	60	85806
2026-01-26 19:24:11.67	276.15	2.84	-49.2	-67.1	3.5	3.02e+01	0	29	104	800587776	60	87265
2026-01-26 19:24:12.69	276.05	2.78	-49.4	-67.1	3.5	3.02e+01	0	29	104	800587776	60	87529
2026-01-26 19:24:13.70	275.96	2.73	-49.4	-67.3	3.5	3.02e+01	0	29	104	800587776	60	88776
2026-01-26 19:24:14.70	275.87	2.67	-49.4	-67.3	3.5	3.02e+01	0	29	104	800587776	60	88798
2026-01-26 19:24:15.71	275.78	2.61	-49.5	-67.3	3.5	3.02e+01	0	29	104	800587776	60	89199
2026-01-26 19:24:16.72	275.69	2.56	-49.5	-67.4	3.5	3.02e+01	0	29	104	800587776	60	89980
2026-01-26 19:24:17.73	275.60	2.50	-49.5	-67.4	3.5	3.02e+01	0	29	104	800587776	60	89781
2026-01-26 19:24:18.75	275.51	2.45	-49.5	-67.4	3.5	3.02e+01	0	29	104	800587776	60	89989
2026-01-26 19:24:19.76	275.42	2.39	-49.5	-67.4	3.5	3.02e+01	0	29	104	800587776	60	90101
2026-01-26 19:24:20.76	275.33	2.34	-49.5	-67.4	3.5	3.02e+01	0	29	104	800587776	60	90046
2026-01-26 19:24:21.77	275.24	2.28	-49.5	-67.4	3.5	3.02e+01	0	29	104	800587776	60	90095
2026-01-26 19:24:22.79	275.15	2.22	-49.5	-67.4	3.5	3.02e+01	0	29	104	800587776	60	90575
2026-01-26 19:24:23.80	275.06	2.17	-49.4	-67.4	3.5	3.02e+01	0	29	104	800587776	60	90029
2026-01-26 19:24:24.81	274.97	2.11	-49.2	-67.3	3.5	3.02e+01	0	29	104	800587776	60	89604
2026-01-26 19:24:25.82	274.88	2.06	-49.4	-67.4	3.5	3.02e+01	0	29	104	800587776	60	89832
2026-01-26 19:24:26.83	274.80	2.00	-49.4	-67.3	3.5	3.02e+01	0	29	104	800587776	60	89173
2026-01-26 19:24:27.84	274.71	1.95	-49.5	-67.4	3.5	3.02e+01	0	29	104	800587776	60	89906
2026-01-26 19:24:28.85	274.62	1.89	-49.5	-67.4	3.5	3.02e+01	0	29	104	800587776	60	90239
2026-01-26 19:24:29.86	274.53	1.84	-49.3	-67.3	3.5	3.02e+01	0	29	104	800587776	60	89550
2026-01-26 19:24:30.86	274.45	1.78	-49.4	-67.3	3.5	3.02e+01	0	29	104	800587776	60	89333
2026-01-26 19:24:31.87	274.36	1.73	-49.5	-67.4	3.5	3.02e+01	0	29	104	800587776	60	89816
2026-01-26 19:24:32.89	274.28	1.67	-49.0	-67.4	3.5	3.02e+01	0	29	104	800587776	60	89712
2026-01-26 19:24:33.90	274.19	1.62	-49.6	-67.4	3.5	3.02e+01	0	29	104	800587776	60	90702
2026-01-26 19:24:34.90	274.11	1.56	-49.7	-67.5	3.5	3.02e+01	0	29	104	800587776	60	91731
2026-01-26 19:24:35.92	274.02	1.51	-49.6	-67.4	3.5	3.02e+01	0	29	104	800587776	60	90482
2026-01-26 19:24:36.93	273.94	1.45	-49.6	-67.5	3.5	3.02e+01	0	29	104	800587776	60	91056
2026-01-26 19:24:37.94	273.86	1.40	-49.5	-67.3	3.5	3.02e+01	0	29	104	800587776	60	89677
2026-01-26 19:24:38.95	273.77	1.34	-49.8	-67.7	3.5	3.02e+01	0	29	104	800587776	60	92890
2026-01-26 19:24:39.96	273.69	1.29	-49.6	-67.4	3.5	3.02e+01	0	29	104	800587776	60	90540
2026-01-26 19:24:40.97	273.61	1.23	-49.6	-67.5	3.5	3.02e+01	0	29	104	800587776	60	90964
2026-01-26 19:24:41.98	273.53	1.18	-49.6	-67.5	3.5	3.02e+01	0	29	104	800587776	60	91407
2026-01-26 19:24:42.99	273.44	1.12	-49.8	-67.7	3.5	3.02e+01	0	29	104	800587776	60	93300
2026-01-26 19:24:43.99	273.36	1.07	-49.6	-67.5	3.5	3.02e+01	0	29	104	800587776	60	90910
2026-01-26 19:24:45.00	273.28	1.02	-49.5	-67.4	3.5	3.02e+01	0	29	104	800587776	60	89755
2026-01-26 19:24:46.01	273.20	0.96	-49.5	-67.4	3.5	3.02e+01	0	29	104	800587776	60	89940
2026-01-26 19:24:47.02	273.12	0.91	-49.5	-67.4	3.5	3.02e+01	0	29	104	800587776	60	89872
2026-01-26 19:24:48.03	273.04	0.85	-50.1	-68.0	3.5	3.02e+01	0	29	104	800587776	60	96191
2026-01-26 19:24:49.04	272.96	0.80	-49.9	-67.7	3.5	3.02e+01	0	29	104	800587776	60	93250
2026-01-26 19:24:50.05	272.88	0.75	-49.8	-67.7	3.5	3.02e+01	0	29	104	800587776	60	93012
2026-01-26 19:24:51.06	272.80	0.69	-49.6	-67.5	3.5	3.02e+01	0	29	104	800587776	60	91420
2026-01-26 19:24:52.07	272.72	0.64	-49.7	-67.5	3.5	3.02e+01	0	29	104	800587776	60	91590
2026-01-26 19:24:53.08	272.64	0.58	-49.8	-67.6	3.5	3.02e+01	0	29	104	800587776	60	91870
2026-01-26 19:24:54.09	272.57	0.53	-49.8	-67.6	3.5	3.02e+01	0	29	104	800587776	60	92350
2026-01-26 19:24:55.10	272.49	0.48	-49.7	-67.6	3.5	3.02e+01	0	29	104	800587776	60	92096
2026-01-26 19:24:56.11	272.41	0.42	-49.6	-67.5	3.5	3.02e+01	0	29	104	800587776	60	90943
2026-01-26 19:24:57.12	272.33	0.37	-49.7	-67.5	3.5	3.02e+01	0	29	104	800587776	60	91264
2026-01-26 19:24:58.13	272.26	0.32	-49.7	-67.6	3.5	3.02e+01	0	29	104	800587776	60	92271
2026-01-26 19:24:59.14	272.18	0.26	-49.8	-67.6	3.5	3.02e+01	0	29	104	800587776	60	92481
2026-01-26 19:25:00.15	272.10	0.21	-49.7	-67.5	3.5	3.02e+01	0	29	104	800587776	60	91325
2026-01-26 19:25:01.16	272.03	0.16	-49.9	-67.8	3.5	3.02e+01	0	29	104	800587776	60	93986
2026-01-26 19:25:02.17	271.95	0.10	-49.7	-67.6	3.5	3.02e+01	0	29	104	800587776	60	91884
2026-01-26 19:25:03.18	271.88	0.05	-49.7	-67.5	3.5	3.02e+01	0	29	104	800587776	60	91076
2026-01-26 19:25:04.19	271.80	-0.00	-49.6	-67.4	3.5	3.02e+01	0	29	104	800587776	60	90546

#Closed at: 2026-01-26 19:25:04
#Recorded file [800 MB]: D:/lorett/data/35029_260127_071321.dat