passes_logs/2026/01/26/R4.6S_Anadyr/R4.6S_Anadyr__20260126_023622_AQUA_rec.log

#Pass ID: 20260126_023622_AQUA
#Satellite: AQUA
#Configuration: AQUA
#almurnet v.1.7.20251203
#Start time: 2026-01-26 02:36:25

#Version: 2.2.20231116
#Station: R4.6S_Anadyr
#Location: 177.4865 lon 64.73178 lat
#TLE: 1 27424U 02022A   26025.50647354  .00001868  00000+0  38363-3 0  9992
#TLE: 2 27424  98.4099 352.1114 0001896  65.7986  47.0097 14.61858879262422

#Time	Az	El	Level	Level2	SNR	BER	BlckErr	Temp	State	Recorded	gain1	gain2
2026-01-26 02:36:25.71	173.19	0.21	-51.4	-68.1	3.2	3.02e+01	0	29	0	0	60	97688
2026-01-26 02:36:26.72	173.21	0.27	-52.1	-70.0	3.5	3.02e+01	0	29	104	0	60	122246
2026-01-26 02:36:27.73	173.24	0.34	-51.4	-69.4	3.5	3.02e+01	0	29	104	0	60	114108
2026-01-26 02:36:28.74	173.27	0.40	-51.9	-70.0	3.5	3.02e+01	0	29	104	0	60	121346
2026-01-26 02:36:29.75	173.29	0.46	-51.6	-69.8	3.5	3.02e+01	0	29	104	0	60	118404
2026-01-26 02:36:30.76	173.32	0.52	-52.2	-70.1	3.5	3.02e+01	0	29	104	0	60	123460
2026-01-26 02:36:31.77	173.34	0.59	-51.7	-69.7	3.5	3.02e+01	0	29	104	0	60	117143
2026-01-26 02:36:32.78	173.37	0.65	-51.5	-69.4	3.5	3.02e+01	0	29	104	0	60	113510
2026-01-26 02:36:33.79	173.40	0.71	-51.8	-69.7	3.5	3.02e+01	0	29	104	0	60	117730
2026-01-26 02:36:34.80	173.42	0.77	-51.8	-69.8	3.5	3.02e+01	0	29	104	0	60	118736
2026-01-26 02:36:35.80	173.45	0.84	-51.4	-69.5	3.5	3.02e+01	0	29	104	0	60	114523
2026-01-26 02:36:36.82	173.48	0.90	-51.0	-69.2	3.5	3.02e+01	0	29	104	0	60	110601
2026-01-26 02:36:37.83	173.50	0.96	-51.5	-69.7	3.5	3.02e+01	0	29	104	0	60	117986
2026-01-26 02:36:38.84	173.53	1.03	-51.5	-69.4	3.5	3.02e+01	0	29	104	0	60	114161
2026-01-26 02:36:39.84	173.56	1.09	-51.6	-69.5	3.5	3.02e+01	0	29	104	0	60	114880
2026-01-26 02:36:40.85	173.58	1.16	-51.8	-69.6	3.5	3.02e+01	0	29	104	0	60	116687
2026-01-26 02:36:41.86	173.61	1.22	-51.9	-69.7	3.5	3.02e+01	0	29	104	0	60	117927
2026-01-26 02:36:42.87	173.64	1.28	-51.9	-69.7	3.5	3.02e+01	0	29	104	0	60	118029
2026-01-26 02:36:43.88	173.66	1.35	-51.5	-69.4	3.5	3.02e+01	0	29	104	0	60	113624
2026-01-26 02:36:44.89	173.69	1.41	-51.0	-69.0	3.5	3.02e+01	0	29	104	0	60	108182
2026-01-26 02:36:45.90	173.72	1.48	-51.0	-68.9	3.5	3.02e+01	0	29	104	0	60	106803
2026-01-26 02:36:46.91	173.75	1.54	-50.3	-68.2	3.5	3.02e+01	0	29	104	0	60	99001
2026-01-26 02:36:47.92	173.77	1.61	-49.9	-67.9	3.5	3.02e+01	0	29	104	0	60	95916
2026-01-26 02:36:48.93	173.80	1.67	-49.0	-66.6	3.5	3.02e+01	0	29	104	0	60	82601
2026-01-26 02:36:49.94	173.83	1.74	-48.7	-66.0	3.5	3.02e+01	0	29	104	0	60	76814
2026-01-26 02:36:50.94	173.86	1.80	-48.6	-66.0	3.5	3.02e+01	0	29	104	0	60	76852
2026-01-26 02:36:51.95	173.89	1.87	-48.5	-65.7	3.5	3.02e+01	0	29	104	0	60	74313
2026-01-26 02:36:52.96	173.91	1.94	-48.4	-65.7	3.5	3.02e+01	0	29	104	0	60	74288
2026-01-26 02:36:53.96	173.94	2.00	-48.4	-66.0	3.5	3.02e+01	0	29	104	0	60	76879
2026-01-26 02:36:54.97	173.97	2.07	-48.4	-66.2	3.5	3.02e+01	0	29	104	0	60	78435
2026-01-26 02:36:55.98	174.00	2.13	-48.5	-66.4	3.5	3.02e+01	0	29	104	0	60	80143
2026-01-26 02:36:56.99	174.03	2.20	-48.6	-66.4	3.5	3.02e+01	0	29	104	0	60	80475
2026-01-26 02:36:58.00	174.06	2.27	-49.0	-66.7	3.5	3.02e+01	0	29	104	0	60	83338
2026-01-26 02:36:59.01	174.09	2.33	-48.7	-66.5	3.5	3.02e+01	0	29	104	0	60	81118
2026-01-26 02:37:00.02	174.12	2.40	-48.7	-66.2	3.5	3.02e+01	0	29	104	0	60	78711
2026-01-26 02:37:01.03	174.15	2.47	-48.8	-66.4	3.5	3.02e+01	0	29	104	0	60	80303
2026-01-26 02:37:02.04	174.18	2.54	-48.6	-66.0	3.5	3.02e+01	0	29	104	0	60	77037
2026-01-26 02:37:03.05	174.21	2.60	-48.7	-65.8	3.5	3.02e+01	0	30	104	0	60	75039
2026-01-26 02:37:04.06	174.24	2.67	-48.5	-64.6	3.5	3.02e+01	0	29	104	0	60	65347
2026-01-26 02:37:05.07	174.27	2.74	-48.7	-63.4	4.1	3.02e+01	0	29	104	0	60	57220
2026-01-26 02:37:06.08	174.30	2.81	-48.7	-64.4	3.5	3.02e+01	0	29	104	0	60	63763
2026-01-26 02:37:07.09	174.33	2.88	-48.8	-65.7	3.5	3.02e+01	0	30	104	0	60	74020
2026-01-26 02:37:08.09	174.36	2.94	-48.7	-63.9	3.6	3.02e+01	0	30	104	0	60	60041
2026-01-26 02:37:09.10	174.39	3.01	-48.6	-60.3	6.3	3.02e+01	90	29	104	0	60	39998
2026-01-26 02:37:10.11	174.42	3.08	-47.9	-54.7	11.3	3.02e+01	92	30	0	1048576	60	20816
2026-01-26 02:37:11.13	174.45	3.15	-46.5	-51.1	14.9	3.02e+01	90	30	0	3145728	60	13745
2026-01-26 02:37:12.14	174.48	3.22	-43.8	-46.3	20.5	3.02e+01	90	30	0	4718592	60	7953
2026-01-26 02:37:13.15	174.51	3.29	-42.4	-44.5	21.8	3.02e+01	92	29	0	6815744	60	6459
2026-01-26 02:37:14.16	174.54	3.36	-41.9	-43.9	22.2	3.02e+01	92	29	0	8912896	58	6784
2026-01-26 02:37:15.17	174.57	3.43	-39.5	-41.1	24.5	3.02e+01	92	30	0	10485760	54	6165
2026-01-26 02:37:16.18	174.60	3.50	-38.7	-40.2	26.4	3.02e+01	92	29	0	12582912	54	5535
2026-01-26 02:37:17.19	174.64	3.57	-38.5	-40.0	25.7	3.02e+01	92	29	0	14155776	50	6833
2026-01-26 02:37:18.19	174.67	3.64	-38.9	-40.4	25.5	3.02e+01	90	30	0	16252928	52	6401
2026-01-26 02:37:19.20	174.70	3.71	-38.5	-40.0	26.0	3.02e+01	92	29	0	18350080	52	6080
2026-01-26 02:37:20.21	174.73	3.78	-40.2	-41.9	24.1	3.02e+01	92	29	0	19922944	54	6754
2026-01-26 02:37:21.22	174.76	3.85	-38.3	-39.7	26.1	3.02e+01	92	29	0	22020096	50	6618
2026-01-26 02:37:22.23	174.80	3.92	-43.3	-45.5	21.6	3.02e+01	92	29	0	24117248	60	7272
2026-01-26 02:37:23.24	174.83	3.99	-49.3	-66.6	3.6	3.02e+01	0	29	104	25165824	60	81860
2026-01-26 02:37:24.25	174.86	4.07	-47.3	-51.7	18.2	3.02e+01	92	30	0	25165824	60	14860
2026-01-26 02:37:25.26	174.89	4.14	-46.7	-50.5	19.0	3.02e+01	92	29	0	27262976	60	12820
2026-01-26 02:37:26.27	174.93	4.21	-39.4	-40.8	25.9	3.02e+01	89	29	0	29360128	54	5961
2026-01-26 02:37:27.28	174.96	4.28	-40.1	-41.6	25.0	3.02e+01	91	29	0	30932992	54	6571
2026-01-26 02:37:28.29	174.99	4.36	-38.9	-40.3	26.2	3.02e+01	92	29	0	33030144	54	5628
2026-01-26 02:37:29.30	175.03	4.43	-38.8	-40.3	25.9	3.02e+01	92	29	0	34603008	52	6299
2026-01-26 02:37:30.31	175.06	4.50	-39.2	-40.7	25.7	3.02e+01	92	30	0	36700160	52	6588
2026-01-26 02:37:31.32	175.09	4.57	-38.5	-39.9	26.6	3.02e+01	90	30	0	38797312	52	6009
2026-01-26 02:37:32.33	175.13	4.65	-38.5	-39.9	26.6	3.02e+01	92	30	0	40370176	52	6029
2026-01-26 02:37:33.34	175.16	4.72	-39.1	-40.6	25.9	3.02e+01	90	30	0	42467328	52	6503
2026-01-26 02:37:34.35	175.20	4.79	-38.3	-39.7	26.5	3.02e+01	92	30	0	44040192	52	5893
2026-01-26 02:37:35.36	175.23	4.87	-38.0	-39.4	26.7	3.02e+01	92	30	0	46137344	52	5691
2026-01-26 02:37:36.37	175.27	4.94	-38.2	-39.6	26.7	3.02e+01	92	30	0	48234496	50	6539
2026-01-26 02:37:37.38	175.30	5.02	-38.3	-39.7	26.4	3.02e+01	90	29	0	49807360	50	6617
2026-01-26 02:37:38.39	175.34	5.09	-38.1	-39.5	26.6	3.02e+01	92	29	0	51904512	50	6480
2026-01-26 02:37:39.39	175.37	5.17	-37.9	-39.3	26.7	3.02e+01	91	29	0	54001664	50	6298
2026-01-26 02:37:40.41	175.41	5.24	-38.5	-39.9	26.5	3.02e+01	92	30	0	55574528	50	6762
2026-01-26 02:37:41.41	175.44	5.32	-38.6	-40.0	26.3	3.02e+01	92	30	0	57671680	50	6848
2026-01-26 02:37:42.42	175.48	5.39	-38.2	-39.6	26.7	3.02e+01	92	30	0	59244544	50	6520
2026-01-26 02:37:43.43	175.51	5.47	-38.9	-40.4	26.3	3.02e+01	92	30	0	61341696	50	7140
2026-01-26 02:37:44.44	175.55	5.54	-38.3	-39.7	26.8	3.02e+01	92	29	0	63438848	50	6597
2026-01-26 02:37:45.45	175.59	5.62	-38.8	-40.2	26.4	3.02e+01	92	30	0	65011712	50	7019
2026-01-26 02:37:46.46	175.62	5.70	-39.0	-40.4	26.2	3.02e+01	89	30	0	67108864	52	6379
2026-01-26 02:37:47.47	175.66	5.77	-38.7	-40.1	26.5	3.02e+01	92	30	0	68681728	52	6139
2026-01-26 02:37:48.48	175.70	5.85	-39.0	-40.4	26.0	3.02e+01	90	30	0	70778880	52	6388
2026-01-26 02:37:49.49	175.73	5.93	-38.0	-39.4	26.9	3.02e+01	92	30	0	72876032	52	5675
2026-01-26 02:37:50.50	175.77	6.00	-38.4	-39.8	26.8	3.02e+01	90	30	0	74448896	50	6663
2026-01-26 02:37:51.51	175.81	6.08	-37.9	-39.3	27.3	3.02e+01	91	30	0	76546048	50	6283
2026-01-26 02:37:52.52	175.85	6.16	-37.8	-39.1	27.2	3.02e+01	90	29	0	78643200	50	6184
2026-01-26 02:37:53.53	175.88	6.24	-38.1	-39.4	27.1	3.02e+01	92	30	0	80216064	50	6389
2026-01-26 02:37:54.54	175.92	6.32	-38.1	-39.5	26.9	3.02e+01	90	30	0	82313216	50	6462
2026-01-26 02:37:55.55	175.96	6.40	-38.1	-39.4	26.9	3.02e+01	92	30	0	83886080	50	6420
2026-01-26 02:37:56.56	176.00	6.48	-37.8	-39.2	27.3	3.02e+01	92	30	0	85983232	50	6228
2026-01-26 02:37:57.57	176.04	6.55	-37.9	-39.3	27.4	3.02e+01	92	30	0	88080384	50	6294
2026-01-26 02:37:58.58	176.08	6.63	-37.8	-39.1	27.5	3.02e+01	89	30	0	89653248	50	6178
2026-01-26 02:37:59.59	176.12	6.71	-37.9	-39.2	27.4	3.02e+01	92	30	0	91750400	50	6264
2026-01-26 02:38:00.60	176.15	6.79	-38.2	-39.5	27.3	3.02e+01	88	30	0	93323264	50	6451
2026-01-26 02:38:01.61	176.19	6.87	-38.0	-39.3	27.3	3.02e+01	92	30	0	95420416	50	6324
2026-01-26 02:38:02.62	176.23	6.96	-37.9	-39.2	27.6	3.02e+01	90	30	0	97517568	50	6234
2026-01-26 02:38:03.63	176.27	7.04	-37.4	-38.7	27.5	3.02e+01	92	30	0	99090432	50	5922
2026-01-26 02:38:04.64	176.31	7.12	-37.8	-39.1	27.2	3.02e+01	90	30	0	101187584	50	6189
2026-01-26 02:38:05.65	176.35	7.20	-37.5	-38.9	27.4	3.02e+01	90	30	0	102760448	50	6008
2026-01-26 02:38:06.66	176.40	7.28	-37.7	-39.0	27.3	3.02e+01	92	30	0	104857600	50	6108
2026-01-26 02:38:07.67	176.44	7.36	-37.4	-38.7	27.7	3.02e+01	89	30	0	106954752	50	5911
2026-01-26 02:38:08.68	176.48	7.44	-37.3	-38.6	27.7	3.02e+01	92	29	0	108527616	50	5848
2026-01-26 02:38:09.69	176.52	7.53	-37.3	-38.6	27.7	3.02e+01	92	30	0	110624768	50	5817
2026-01-26 02:38:10.70	176.56	7.61	-37.4	-38.7	27.6	3.02e+01	90	29	0	112197632	50	5880
2026-01-26 02:38:11.71	176.60	7.69	-37.2	-38.5	27.8	3.02e+01	92	30	0	114294784	50	5742
2026-01-26 02:38:12.72	176.64	7.78	-37.0	-38.3	28.0	3.02e+01	92	30	0	116391936	48	6315
2026-01-26 02:38:13.73	176.69	7.86	-37.4	-38.7	27.7	3.02e+01	92	30	0	117964800	48	6638
2026-01-26 02:38:14.74	176.73	7.94	-37.0	-38.3	27.9	3.02e+01	92	30	0	120061952	48	6307
2026-01-26 02:38:15.75	176.77	8.03	-37.4	-38.7	27.8	3.02e+01	92	30	0	122159104	48	6592
2026-01-26 02:38:16.76	176.81	8.11	-37.3	-38.6	27.8	3.02e+01	92	30	0	123731968	48	6526
2026-01-26 02:38:17.77	176.86	8.20	-37.2	-38.5	28.2	3.02e+01	92	30	0	125829120	48	6461
2026-01-26 02:38:18.78	176.90	8.28	-37.4	-38.7	27.7	3.02e+01	91	30	0	127401984	48	6643
2026-01-26 02:38:19.79	176.95	8.37	-37.8	-39.1	27.7	3.02e+01	92	30	0	129499136	50	6203
2026-01-26 02:38:20.80	176.99	8.46	-37.6	-38.9	27.9	3.02e+01	90	30	0	131596288	50	6046
2026-01-26 02:38:21.81	177.03	8.54	-37.4	-38.6	27.8	3.02e+01	92	30	0	133169152	50	5852
2026-01-26 02:38:22.82	177.08	8.63	-37.3	-38.6	27.9	3.02e+01	92	30	0	135266304	50	5801
2026-01-26 02:38:23.82	177.12	8.71	-37.4	-38.7	27.8	3.02e+01	92	30	0	136839168	50	5867
2026-01-26 02:38:24.83	177.17	8.80	-36.9	-38.2	28.1	3.02e+01	90	30	0	138936320	48	6219
2026-01-26 02:38:25.84	177.21	8.89	-37.0	-38.2	28.0	3.02e+01	92	30	0	141033472	48	6250
2026-01-26 02:38:26.85	177.26	8.98	-37.1	-38.3	28.1	3.02e+01	92	30	0	142606336	48	6339
2026-01-26 02:38:27.86	177.30	9.07	-36.8	-38.1	28.2	3.02e+01	91	30	0	144703488	48	6177
2026-01-26 02:38:28.87	177.35	9.15	-36.8	-38.0	28.2	3.02e+01	92	30	0	146800640	48	6132
2026-01-26 02:38:29.88	177.40	9.24	-37.1	-38.4	28.0	3.02e+01	92	30	0	148373504	48	6393
2026-01-26 02:38:30.89	177.44	9.33	-37.2	-38.5	27.9	3.02e+01	90	30	0	150470656	48	6473
2026-01-26 02:38:31.90	177.49	9.42	-37.1	-38.3	28.3	3.02e+01	90	30	0	152043520	48	6331
2026-01-26 02:38:32.91	177.54	9.51	-37.3	-38.6	28.1	3.02e+01	91	30	0	154140672	48	6556
2026-01-26 02:38:33.92	177.59	9.60	-37.2	-38.4	28.2	3.02e+01	90	30	0	156237824	48	6415
2026-01-26 02:38:34.93	177.63	9.69	-37.0	-38.3	28.1	3.02e+01	92	30	0	157810688	48	6298
2026-01-26 02:38:35.94	177.68	9.78	-36.8	-38.1	28.0	3.02e+01	92	30	0	159907840	48	6161
2026-01-26 02:38:36.95	177.73	9.87	-36.5	-37.8	28.3	3.02e+01	91	30	0	161480704	48	5963
2026-01-26 02:38:37.96	177.78	9.97	-36.5	-37.8	28.3	3.02e+01	92	30	0	163577856	48	5961
2026-01-26 02:38:38.97	177.83	10.06	-36.7	-38.0	28.2	3.02e+01	89	30	0	165675008	48	6073
2026-01-26 02:38:39.98	177.88	10.15	-36.6	-37.9	28.4	3.02e+01	92	30	0	167247872	48	6021
2026-01-26 02:38:40.99	177.93	10.24	-36.6	-37.9	28.4	3.02e+01	91	30	0	169345024	48	6035
2026-01-26 02:38:42.00	177.98	10.34	-36.7	-38.0	28.4	3.02e+01	89	30	0	170917888	48	6106
2026-01-26 02:38:43.01	178.03	10.43	-36.7	-38.0	28.4	3.02e+01	92	30	0	173015040	48	6091
2026-01-26 02:38:44.02	178.08	10.52	-36.9	-38.2	28.1	3.02e+01	92	30	0	175112192	48	6251
2026-01-26 02:38:45.02	178.13	10.62	-37.1	-38.4	28.2	3.02e+01	92	30	0	176685056	48	6376
2026-01-26 02:38:46.03	178.18	10.71	-37.2	-38.4	28.2	3.02e+01	92	30	0	178782208	48	6412
2026-01-26 02:38:47.04	178.23	10.81	-36.6	-37.9	28.6	3.02e+01	92	30	0	180355072	48	6028
2026-01-26 02:38:48.05	178.29	10.90	-37.3	-38.5	28.4	3.02e+01	92	30	0	182452224	48	6495
2026-01-26 02:38:49.06	178.34	11.00	-37.0	-38.3	28.4	3.02e+01	86	30	0	184549376	48	6294
2026-01-26 02:38:50.07	178.39	11.09	-37.1	-38.4	28.5	3.02e+01	91	30	0	186122240	48	6385
2026-01-26 02:38:51.08	178.44	11.19	-36.8	-38.1	28.7	3.02e+01	91	30	0	188219392	48	6149
2026-01-26 02:38:52.09	178.50	11.29	-36.7	-38.0	28.6	3.02e+01	91	30	0	190316544	48	6097
2026-01-26 02:38:53.10	178.55	11.39	-36.5	-37.8	28.5	3.02e+01	92	30	0	191889408	48	5939
2026-01-26 02:38:54.11	178.60	11.48	-36.5	-37.8	28.5	3.02e+01	92	30	0	193986560	48	5958
2026-01-26 02:38:55.12	178.66	11.58	-36.9	-38.1	28.5	3.02e+01	91	30	0	195559424	48	6180
2026-01-26 02:38:56.13	178.71	11.68	-36.8	-38.1	28.5	3.02e+01	90	30	0	197656576	48	6147
2026-01-26 02:38:57.14	178.77	11.78	-36.7	-37.9	28.6	3.02e+01	90	30	0	199753728	48	6057
2026-01-26 02:38:58.15	178.83	11.88	-36.4	-37.7	28.6	3.02e+01	92	30	0	201326592	48	5881
2026-01-26 02:38:59.16	178.88	11.98	-36.5	-37.7	28.5	3.02e+01	92	30	0	203423744	48	5919
2026-01-26 02:39:00.17	178.94	12.08	-36.6	-37.8	28.6	3.02e+01	92	30	0	204996608	48	5964
2026-01-26 02:39:01.18	178.99	12.18	-36.4	-37.7	28.6	3.02e+01	90	30	0	207093760	48	5861
2026-01-26 02:39:02.19	179.05	12.28	-36.4	-37.7	28.6	3.02e+01	92	30	0	209190912	48	5891
2026-01-26 02:39:03.20	179.11	12.38	-36.2	-37.5	28.7	3.02e+01	92	30	0	210763776	48	5745
2026-01-26 02:39:04.21	179.17	12.49	-36.2	-37.4	28.8	3.02e+01	92	30	0	212860928	48	5693
2026-01-26 02:39:05.22	179.23	12.59	-36.2	-37.4	28.9	3.02e+01	92	30	0	214958080	48	5708
2026-01-26 02:39:06.22	179.28	12.69	-36.3	-37.5	28.8	3.02e+01	92	30	0	216530944	48	5770
2026-01-26 02:39:07.23	179.34	12.79	-36.3	-37.5	28.9	3.02e+01	92	30	0	218628096	48	5788
2026-01-26 02:39:08.24	179.40	12.90	-36.5	-37.7	28.8	3.02e+01	86	30	0	220200960	48	5896
2026-01-26 02:39:09.25	179.46	13.00	-36.2	-37.4	29.2	3.02e+01	90	30	0	222298112	48	5703
2026-01-26 02:39:10.26	179.52	13.11	-36.4	-37.7	28.9	3.02e+01	92	30	0	223870976	48	5874
2026-01-26 02:39:11.27	179.58	13.21	-36.6	-37.9	28.9	3.02e+01	90	30	0	225968128	48	6016
2026-01-26 02:39:12.28	179.65	13.32	-36.4	-37.6	29.1	3.02e+01	92	30	0	228065280	48	5813
2026-01-26 02:39:13.29	179.71	13.43	-36.6	-37.9	29.0	3.02e+01	92	30	0	229638144	48	6024
2026-01-26 02:39:14.30	179.77	13.53	-36.5	-37.8	28.9	3.02e+01	92	30	0	231735296	48	5940
2026-01-26 02:39:15.31	179.83	13.64	-36.2	-37.4	29.0	3.02e+01	92	30	0	233308160	48	5710
2026-01-26 02:39:16.32	179.90	13.75	-36.2	-37.4	29.0	3.02e+01	92	30	0	235405312	48	5720
2026-01-26 02:39:17.33	179.96	13.86	-36.3	-37.5	29.0	3.02e+01	92	30	0	237502464	48	5765
2026-01-26 02:39:18.34	180.02	13.97	-36.5	-37.7	29.1	3.02e+01	92	30	0	239075328	48	5896
2026-01-26 02:39:19.35	180.09	14.08	-36.2	-37.5	29.0	3.02e+01	92	30	0	241172480	48	5728
2026-01-26 02:39:20.36	180.15	14.19	-36.4	-37.6	29.2	3.02e+01	92	30	0	243269632	48	5837
2026-01-26 02:39:21.37	180.22	14.30	-36.3	-37.5	29.2	3.02e+01	92	30	0	244842496	48	5771
2026-01-26 02:39:22.38	180.29	14.41	-36.3	-37.5	29.2	3.02e+01	90	30	0	246939648	48	5785
2026-01-26 02:39:23.39	180.35	14.52	-36.0	-37.2	29.2	3.02e+01	92	30	0	248512512	48	5571
2026-01-26 02:39:24.40	180.42	14.63	-36.1	-37.3	29.2	3.02e+01	92	30	0	250609664	48	5648
2026-01-26 02:39:25.41	180.49	14.74	-36.2	-37.4	29.1	3.02e+01	92	30	0	252706816	48	5673
2026-01-26 02:39:26.42	180.55	14.86	-36.2	-37.4	29.3	3.02e+01	91	30	0	254279680	48	5723
2026-01-26 02:39:27.43	180.62	14.97	-36.2	-37.4	28.9	3.02e+01	87	30	0	256376832	48	5690
2026-01-26 02:39:28.44	180.69	15.09	-36.0	-37.3	29.1	3.02e+01	91	30	0	257949696	48	5611
2026-01-26 02:39:29.45	180.76	15.20	-35.9	-37.2	29.3	3.02e+01	91	30	0	260046848	46	6209
2026-01-26 02:39:30.45	180.83	15.31	-36.0	-37.2	29.1	3.02e+01	87	30	0	262144000	46	6243
2026-01-26 02:39:31.46	180.90	15.43	-35.9	-37.1	29.3	3.02e+01	91	30	0	263716864	46	6169
2026-01-26 02:39:32.47	180.97	15.55	-36.0	-37.2	29.0	3.02e+01	92	30	0	265814016	46	6272
2026-01-26 02:39:33.48	181.05	15.66	-35.6	-36.8	29.3	3.02e+01	91	30	0	267911168	46	5983
2026-01-26 02:39:34.49	181.12	15.78	-35.7	-36.9	29.3	3.02e+01	92	30	0	269484032	46	6019
2026-01-26 02:39:35.50	181.19	15.90	-35.8	-37.0	29.3	3.02e+01	92	30	0	271581184	46	6091
2026-01-26 02:39:36.51	181.27	16.02	-36.1	-37.4	29.3	3.02e+01	90	30	0	273154048	46	6366
2026-01-26 02:39:37.52	181.34	16.14	-36.0	-37.2	29.3	3.02e+01	92	30	0	275251200	46	6266
2026-01-26 02:39:38.53	181.41	16.26	-36.0	-37.3	29.3	3.02e+01	92	30	0	277348352	46	6278
2026-01-26 02:39:39.54	181.49	16.38	-36.0	-37.2	29.4	3.02e+01	92	30	0	278921216	46	6272
2026-01-26 02:39:40.55	181.57	16.50	-36.1	-37.4	29.3	3.02e+01	90	30	0	281018368	46	6354
2026-01-26 02:39:41.56	181.64	16.62	-35.8	-37.0	29.3	3.02e+01	90	30	0	282591232	46	6125
2026-01-26 02:39:42.57	181.72	16.75	-35.9	-37.1	29.3	3.02e+01	92	30	0	284688384	46	6203
2026-01-26 02:39:43.58	181.80	16.87	-35.7	-36.9	29.5	3.02e+01	91	30	0	286785536	46	6045
2026-01-26 02:39:44.59	181.88	16.99	-35.9	-37.2	29.3	3.02e+01	92	30	0	288358400	46	6214
2026-01-26 02:39:45.60	181.96	17.12	-36.3	-37.5	29.1	3.02e+01	92	30	0	290455552	46	6454
2026-01-26 02:39:46.61	182.04	17.24	-36.0	-37.2	29.2	3.02e+01	90	30	0	292028416	46	6273
2026-01-26 02:39:47.61	182.12	17.37	-35.9	-37.1	29.4	3.02e+01	92	30	0	294125568	46	6152
2026-01-26 02:39:48.62	182.20	17.49	-35.9	-37.1	29.4	3.02e+01	92	30	0	296222720	46	6182
2026-01-26 02:39:49.63	182.28	17.62	-35.7	-36.9	29.5	3.02e+01	90	30	0	297795584	46	5997
2026-01-26 02:39:50.64	182.36	17.75	-35.9	-37.2	29.3	3.02e+01	92	30	0	299892736	46	6211
2026-01-26 02:39:51.65	182.45	17.88	-35.8	-37.0	29.5	3.02e+01	92	30	0	301465600	46	6072
2026-01-26 02:39:52.66	182.53	18.01	-35.5	-36.7	29.6	3.02e+01	92	30	0	303562752	46	5919
2026-01-26 02:39:53.67	182.61	18.14	-35.5	-36.7	29.7	3.02e+01	92	30	0	305659904	46	5890
2026-01-26 02:39:54.68	182.70	18.27	-35.6	-36.8	29.6	3.02e+01	92	30	0	307232768	46	5957
2026-01-26 02:39:55.69	182.79	18.40	-35.7	-36.9	29.6	3.02e+01	92	30	0	309329920	46	6062
2026-01-26 02:39:56.70	182.87	18.53	-35.8	-37.1	29.5	3.02e+01	92	30	0	311427072	46	6140
2026-01-26 02:39:57.71	182.96	18.67	-35.7	-36.9	29.4	3.02e+01	90	30	0	312999936	46	6052
2026-01-26 02:39:58.72	183.05	18.80	-35.6	-36.9	29.4	3.02e+01	92	30	0	315097088	46	5995
2026-01-26 02:39:59.72	183.14	18.93	-35.6	-36.8	29.5	3.02e+01	90	30	0	316669952	46	5985
2026-01-26 02:40:00.73	183.23	19.07	-35.7	-36.9	29.4	3.02e+01	92	30	0	318767104	46	6057
2026-01-26 02:40:01.74	183.32	19.20	-35.7	-36.9	29.4	3.02e+01	92	30	0	320864256	46	6016
2026-01-26 02:40:02.75	183.41	19.34	-35.7	-36.9	29.4	3.02e+01	92	30	0	322437120	46	6023
2026-01-26 02:40:03.77	183.51	19.48	-35.6	-36.8	29.6	3.02e+01	92	30	0	324534272	46	5985
2026-01-26 02:40:04.77	183.60	19.61	-35.6	-36.8	29.5	3.02e+01	92	30	0	326107136	46	5939
2026-01-26 02:40:05.78	183.69	19.75	-35.5	-36.7	29.6	3.02e+01	92	30	0	328204288	46	5887
2026-01-26 02:40:06.79	183.79	19.89	-35.4	-36.6	29.6	3.02e+01	92	30	0	330301440	46	5801
2026-01-26 02:40:07.80	183.88	20.03	-35.4	-36.6	29.6	3.02e+01	92	30	0	331874304	46	5822
2026-01-26 02:40:08.81	183.98	20.18	-35.5	-36.7	29.4	3.02e+01	90	30	0	333971456	46	5864
2026-01-26 02:40:09.82	184.08	20.32	-35.5	-36.7	29.4	3.02e+01	92	30	0	336068608	46	5905
2026-01-26 02:40:10.83	184.18	20.46	-35.6	-36.8	29.4	3.02e+01	92	30	0	337641472	46	5981
2026-01-26 02:40:11.84	184.28	20.60	-35.7	-36.9	29.4	3.02e+01	92	30	0	339738624	46	6054
2026-01-26 02:40:12.85	184.38	20.75	-35.7	-36.9	29.4	3.02e+01	90	30	0	341311488	46	6031
2026-01-26 02:40:13.86	184.48	20.89	-35.7	-36.9	29.5	3.02e+01	92	30	0	343408640	46	6023
2026-01-26 02:40:14.87	184.58	21.04	-35.7	-36.9	29.4	3.02e+01	92	30	0	345505792	46	6039
2026-01-26 02:40:15.88	184.69	21.19	-35.9	-37.1	29.3	3.02e+01	92	30	0	347078656	46	6170
2026-01-26 02:40:16.89	184.79	21.33	-35.8	-37.0	29.5	3.02e+01	92	30	0	349175808	46	6082
2026-01-26 02:40:17.90	184.90	21.48	-35.9	-37.1	29.4	3.02e+01	90	30	0	350748672	46	6149
2026-01-26 02:40:18.91	185.00	21.63	-35.9	-37.1	29.5	3.02e+01	92	30	0	352845824	46	6145
2026-01-26 02:40:19.92	185.11	21.78	-36.0	-37.2	29.4	3.02e+01	88	30	0	354942976	46	6211
2026-01-26 02:40:20.93	185.22	21.94	-36.0	-37.2	29.5	3.02e+01	91	30	0	356515840	46	6253
2026-01-26 02:40:21.94	185.33	22.09	-36.0	-37.2	29.4	3.02e+01	89	30	0	358612992	46	6257
2026-01-26 02:40:22.95	185.44	22.24	-36.0	-37.2	29.4	3.02e+01	91	30	0	360185856	46	6276
2026-01-26 02:40:23.96	185.55	22.39	-36.1	-37.3	29.3	3.02e+01	92	30	0	362283008	46	6336
2026-01-26 02:40:24.97	185.67	22.55	-36.1	-37.3	29.5	3.02e+01	92	30	0	364380160	46	6322
2026-01-26 02:40:25.98	185.78	22.71	-36.1	-37.3	29.3	3.02e+01	90	30	0	365953024	46	6282
2026-01-26 02:40:26.99	185.90	22.86	-36.1	-37.4	29.3	3.02e+01	92	30	0	368050176	46	6361
2026-01-26 02:40:28.00	186.01	23.02	-36.4	-37.6	29.1	3.02e+01	91	30	0	369623040	46	6555
2026-01-26 02:40:29.01	186.13	23.18	-36.7	-37.9	29.0	3.02e+01	92	30	0	371720192	48	6036
2026-01-26 02:40:30.02	186.25	23.34	-36.5	-37.8	29.0	3.02e+01	90	30	0	373817344	48	5930
2026-01-26 02:40:31.03	186.37	23.50	-36.5	-37.7	29.1	3.02e+01	92	30	0	375390208	48	5888
2026-01-26 02:40:32.04	186.49	23.66	-36.3	-37.5	29.3	3.02e+01	92	30	0	377487360	48	5766
2026-01-26 02:40:33.05	186.62	23.82	-36.2	-37.4	29.4	3.02e+01	92	30	0	379584512	48	5700
2026-01-26 02:40:34.06	186.74	23.99	-36.2	-37.4	29.4	3.02e+01	92	30	0	381157376	48	5681
2026-01-26 02:40:35.07	186.87	24.15	-36.0	-37.2	29.4	3.02e+01	92	30	0	383254528	48	5593
2026-01-26 02:40:36.08	186.99	24.32	-36.1	-37.4	29.3	3.02e+01	92	30	0	384827392	46	6373
2026-01-26 02:40:37.09	187.12	24.48	-36.1	-37.4	29.2	3.02e+01	92	30	0	386924544	46	6367
2026-01-26 02:40:38.10	187.25	24.65	-36.2	-37.5	29.2	3.02e+01	92	30	0	389021696	46	6445
2026-01-26 02:40:39.11	187.38	24.82	-35.9	-37.1	29.3	3.02e+01	89	30	0	390594560	46	6205
2026-01-26 02:40:40.12	187.51	24.99	-36.0	-37.2	29.2	3.02e+01	92	30	0	392691712	46	6271
2026-01-26 02:40:41.13	187.65	25.16	-36.1	-37.3	29.2	3.02e+01	92	30	0	394788864	46	6320
2026-01-26 02:40:42.14	187.78	25.33	-36.2	-37.5	29.1	3.02e+01	91	30	0	396361728	46	6441
2026-01-26 02:40:43.15	187.92	25.50	-36.2	-37.4	29.1	3.02e+01	92	30	0	398458880	46	6382
2026-01-26 02:40:44.16	188.06	25.68	-36.2	-37.5	29.1	3.02e+01	92	30	0	400031744	46	6451
2026-01-26 02:40:45.17	188.20	25.85	-36.6	-37.8	29.0	3.02e+01	92	30	0	402128896	46	6715
2026-01-26 02:40:46.18	188.34	26.03	-36.7	-38.0	29.1	3.02e+01	91	30	0	404226048	48	6073
2026-01-26 02:40:47.19	188.48	26.21	-36.2	-37.4	29.2	3.02e+01	90	30	0	405798912	48	5705
2026-01-26 02:40:48.20	188.63	26.38	-36.5	-37.8	29.1	3.02e+01	92	30	0	407896064	48	5940
2026-01-26 02:40:49.21	188.77	26.56	-36.2	-37.4	29.6	3.02e+01	92	30	0	409468928	48	5679
2026-01-26 02:40:50.22	188.92	26.74	-36.0	-37.2	29.6	3.02e+01	92	30	0	411566080	48	5560
2026-01-26 02:40:51.23	189.07	26.92	-36.2	-37.4	29.5	3.02e+01	92	30	0	413663232	48	5688
2026-01-26 02:40:52.23	189.22	27.11	-36.0	-37.2	29.5	3.02e+01	90	30	0	415236096	46	6234
2026-01-26 02:40:53.24	189.38	27.29	-35.9	-37.1	29.4	3.02e+01	92	30	0	417333248	46	6189
2026-01-26 02:40:54.25	189.53	27.47	-35.8	-37.0	29.5	3.02e+01	92	30	0	418906112	46	6133
2026-01-26 02:40:55.26	189.69	27.66	-35.7	-36.9	29.7	3.02e+01	92	30	0	421003264	46	6040
2026-01-26 02:40:56.27	189.85	27.85	-35.7	-36.9	29.6	3.02e+01	92	30	0	423100416	46	6060
2026-01-26 02:40:57.28	190.01	28.04	-36.1	-37.3	29.4	3.02e+01	92	30	0	424673280	46	6340
2026-01-26 02:40:58.29	190.17	28.22	-36.1	-37.4	29.5	3.02e+01	92	30	0	426770432	46	6373
2026-01-26 02:40:59.30	190.33	28.41	-36.0	-37.3	29.5	3.02e+01	92	30	0	428343296	46	6308
2026-01-26 02:41:00.31	190.50	28.61	-35.7	-37.0	29.7	3.02e+01	92	30	0	430440448	46	6070
2026-01-26 02:41:01.32	190.67	28.80	-35.8	-37.0	29.8	3.02e+01	90	30	0	432537600	46	6101
2026-01-26 02:41:02.33	190.84	28.99	-35.9	-37.1	29.5	3.02e+01	92	30	0	434110464	46	6177
2026-01-26 02:41:03.34	191.01	29.19	-36.0	-37.2	29.7	3.02e+01	92	30	0	436207616	46	6223
2026-01-26 02:41:04.34	191.19	29.38	-36.0	-37.2	29.6	3.02e+01	92	30	0	437780480	46	6265
2026-01-26 02:41:05.35	191.36	29.58	-35.9	-37.1	29.7	3.02e+01	92	30	0	439877632	46	6201
2026-01-26 02:41:06.36	191.54	29.78	-35.8	-37.0	29.8	3.02e+01	91	30	0	441974784	46	6078
2026-01-26 02:41:07.37	191.72	29.98	-35.9	-37.2	29.7	3.02e+01	90	30	0	443547648	46	6223
2026-01-26 02:41:08.38	191.91	30.18	-36.0	-37.3	29.8	3.02e+01	92	30	0	445644800	46	6297
2026-01-26 02:41:09.39	192.09	30.38	-35.8	-37.0	29.8	3.02e+01	92	30	0	447741952	46	6119
2026-01-26 02:41:10.40	192.28	30.59	-36.1	-37.3	29.6	3.02e+01	91	30	0	449314816	46	6309
2026-01-26 02:41:11.41	192.47	30.79	-36.0	-37.2	29.5	3.02e+01	92	30	0	451411968	46	6275
2026-01-26 02:41:12.42	192.66	31.00	-36.3	-37.6	29.4	3.02e+01	90	30	0	452984832	46	6513
2026-01-26 02:41:13.43	192.86	31.20	-36.6	-37.8	29.4	3.02e+01	92	30	0	455081984	46	6694
2026-01-26 02:41:14.44	193.06	31.41	-36.5	-37.7	29.4	3.02e+01	91	30	0	457179136	46	6635
2026-01-26 02:41:15.44	193.26	31.62	-36.8	-38.0	29.2	3.02e+01	91	30	0	458752000	46	6861
2026-01-26 02:41:16.45	193.46	31.83	-36.9	-38.1	29.2	3.02e+01	92	30	0	460849152	46	6942
2026-01-26 02:41:17.47	193.67	32.05	-36.3	-37.5	29.5	3.02e+01	92	30	0	462422016	46	6489
2026-01-26 02:41:18.47	193.88	32.26	-36.3	-37.5	29.4	3.02e+01	90	30	0	464519168	46	6441
2026-01-26 02:41:19.49	194.09	32.47	-36.4	-37.7	29.1	3.02e+01	90	30	0	466616320	46	6583
2026-01-26 02:41:20.49	194.30	32.69	-36.1	-37.3	29.4	3.02e+01	92	30	0	468189184	46	6330
2026-01-26 02:41:21.50	194.52	32.90	-36.6	-37.9	29.3	3.02e+01	90	30	0	470286336	46	6743
2026-01-26 02:41:22.51	194.74	33.12	-36.6	-37.9	29.3	3.02e+01	92	30	0	471859200	46	6732
2026-01-26 02:41:23.52	194.96	33.34	-36.3	-37.6	29.3	3.02e+01	90	30	0	473956352	46	6514
2026-01-26 02:41:24.53	195.19	33.56	-36.3	-37.6	29.2	3.02e+01	91	30	0	476053504	46	6501
2026-01-26 02:41:25.54	195.42	33.79	-36.5	-37.7	29.3	3.02e+01	91	30	0	477626368	46	6628
2026-01-26 02:41:26.55	195.65	34.01	-36.9	-38.1	29.1	3.02e+01	91	30	0	479723520	46	6921
2026-01-26 02:41:27.56	195.89	34.23	-37.1	-38.4	28.9	3.02e+01	91	30	0	481296384	48	6357
2026-01-26 02:41:28.57	196.13	34.46	-37.0	-38.3	28.8	3.02e+01	91	30	0	483393536	48	6313
2026-01-26 02:41:29.57	196.37	34.68	-37.1	-38.3	28.9	3.02e+01	90	30	0	485490688	48	6321
2026-01-26 02:41:30.59	196.62	34.91	-37.4	-38.7	28.5	3.02e+01	90	30	0	487063552	48	6598
2026-01-26 02:41:31.59	196.86	35.14	-37.5	-38.8	28.3	3.02e+01	90	30	0	489160704	48	6713
2026-01-26 02:41:32.60	197.12	35.37	-37.1	-38.4	28.8	3.02e+01	92	30	0	491257856	48	6362
2026-01-26 02:41:33.61	197.37	35.60	-37.8	-39.1	28.5	3.02e+01	91	30	0	492830720	48	6925
2026-01-26 02:41:34.62	197.63	35.84	-37.7	-39.0	28.3	3.02e+01	91	30	0	494927872	50	6068
2026-01-26 02:41:35.63	197.90	36.07	-37.7	-39.0	28.3	3.02e+01	91	30	0	496500736	50	6072
2026-01-26 02:41:36.64	198.16	36.30	-37.5	-38.8	28.3	3.02e+01	91	30	0	498597888	50	5943
2026-01-26 02:41:37.65	198.44	36.54	-37.7	-39.0	28.1	3.02e+01	90	30	0	500695040	50	6088
2026-01-26 02:41:38.66	198.71	36.78	-37.7	-38.9	28.2	3.02e+01	92	30	0	502267904	50	6061
2026-01-26 02:41:39.67	198.99	37.02	-37.2	-38.5	28.5	3.02e+01	92	30	0	504365056	50	5730
2026-01-26 02:41:40.68	199.28	37.26	-37.4	-38.7	28.2	3.02e+01	92	30	0	505937920	50	5916
2026-01-26 02:41:41.69	199.57	37.50	-37.8	-39.1	28.0	3.02e+01	92	30	0	508035072	50	6202
2026-01-26 02:41:42.70	199.86	37.74	-37.6	-38.9	28.3	3.02e+01	92	30	0	510132224	50	6030
2026-01-26 02:41:43.71	200.15	37.98	-37.4	-38.7	28.3	3.02e+01	92	30	0	511705088	50	5901
2026-01-26 02:41:44.72	200.46	38.23	-37.6	-38.9	28.0	3.02e+01	92	30	0	513802240	50	6048
2026-01-26 02:41:45.73	200.76	38.47	-37.9	-39.2	28.2	3.02e+01	92	30	0	515899392	50	6218
2026-01-26 02:41:46.74	201.07	38.72	-37.5	-38.7	28.3	3.02e+01	92	30	0	517472256	50	5915
2026-01-26 02:41:47.75	201.39	38.96	-37.6	-38.8	28.2	3.02e+01	92	30	0	519569408	50	5991
2026-01-26 02:41:48.76	201.71	39.21	-37.7	-39.1	28.1	3.02e+01	92	30	0	521142272	50	6135
2026-01-26 02:41:49.77	202.03	39.46	-37.4	-38.6	28.4	3.02e+01	92	30	0	523239424	50	5858
2026-01-26 02:41:50.78	202.36	39.71	-37.0	-38.2	28.7	3.02e+01	90	30	0	525336576	48	6256
2026-01-26 02:41:51.79	202.70	39.96	-37.2	-38.5	28.5	3.02e+01	92	30	0	526909440	48	6470
2026-01-26 02:41:52.80	203.04	40.21	-36.7	-37.9	29.0	3.02e+01	90	30	0	529006592	48	6054
2026-01-26 02:41:53.81	203.39	40.46	-36.7	-38.0	29.1	3.02e+01	90	30	0	530579456	48	6065
2026-01-26 02:41:54.82	203.74	40.71	-36.8	-38.1	29.1	3.02e+01	91	30	0	532676608	48	6136
2026-01-26 02:41:55.83	204.10	40.97	-36.8	-38.0	29.0	3.02e+01	92	30	0	534773760	48	6123
2026-01-26 02:41:56.84	204.46	41.22	-36.3	-37.6	29.3	3.02e+01	92	30	0	536346624	48	5807
2026-01-26 02:41:57.85	204.83	41.47	-36.4	-37.6	29.3	3.02e+01	92	30	0	538443776	48	5808
2026-01-26 02:41:58.86	205.20	41.73	-36.3	-37.5	29.2	3.02e+01	92	30	0	540016640	48	5786
2026-01-26 02:41:59.87	205.58	41.98	-36.6	-37.8	29.1	3.02e+01	90	30	0	542113792	48	5956
2026-01-26 02:42:00.88	205.97	42.24	-36.7	-37.9	28.9	3.02e+01	93	30	0	544210944	48	6049
2026-01-26 02:42:01.89	206.36	42.50	-36.0	-37.2	29.5	3.02e+01	92	30	0	545783808	48	5585
2026-01-26 02:42:02.90	206.76	42.75	-35.8	-37.0	29.7	3.02e+01	92	30	0	547880960	46	6121
2026-01-26 02:42:03.91	207.17	43.01	-35.7	-36.9	29.8	3.02e+01	92	30	0	549453824	46	6043
2026-01-26 02:42:04.92	207.58	43.27	-35.5	-36.7	30.0	3.02e+01	89	30	0	551550976	46	5887
2026-01-26 02:42:05.93	208.00	43.53	-35.7	-36.9	29.8	3.02e+01	92	30	0	553648128	46	6021
2026-01-26 02:42:06.94	208.42	43.78	-35.8	-37.0	29.7	3.02e+01	92	30	0	555220992	46	6098
2026-01-26 02:42:07.95	208.85	44.04	-35.3	-36.5	30.0	3.02e+01	91	30	0	557318144	46	5732
2026-01-26 02:42:08.96	209.29	44.30	-35.4	-36.6	30.1	3.02e+01	92	30	0	559415296	46	5792
2026-01-26 02:42:09.97	209.74	44.56	-35.2	-36.4	30.3	3.02e+01	92	30	0	560988160	46	5711
2026-01-26 02:42:10.98	210.19	44.82	-35.0	-36.2	30.3	3.02e+01	92	30	0	563085312	46	5563
2026-01-26 02:42:11.99	210.66	45.07	-35.1	-36.3	30.3	3.02e+01	91	30	0	564658176	46	5596
2026-01-26 02:42:13.00	211.13	45.33	-35.3	-36.5	30.2	3.02e+01	92	30	0	566755328	46	5730
2026-01-26 02:42:14.01	211.60	45.59	-35.2	-36.4	30.5	3.02e+01	90	30	0	568852480	46	5662
2026-01-26 02:42:15.02	212.09	45.84	-35.5	-36.6	30.2	3.02e+01	92	30	0	570425344	46	5836
2026-01-26 02:42:16.03	212.58	46.10	-35.6	-36.8	30.0	3.02e+01	92	30	0	572522496	46	5933
2026-01-26 02:42:17.04	213.08	46.35	-35.4	-36.6	30.1	3.02e+01	92	30	0	574095360	46	5828
2026-01-26 02:42:18.05	213.59	46.61	-35.1	-36.3	30.4	3.02e+01	92	30	0	576192512	46	5642
2026-01-26 02:42:19.06	214.11	46.86	-35.0	-36.1	30.3	3.02e+01	92	30	0	578289664	46	5510
2026-01-26 02:42:20.07	214.63	47.12	-35.3	-36.5	29.9	3.02e+01	92	30	0	579862528	44	6450
2026-01-26 02:42:21.08	215.17	47.37	-35.0	-36.1	30.2	3.02e+01	92	30	0	581959680	44	6190
2026-01-26 02:42:22.09	215.71	47.62	-35.1	-36.3	30.0	3.02e+01	91	30	0	584056832	44	6303
2026-01-26 02:42:23.10	216.26	47.87	-34.9	-36.0	30.2	3.02e+01	90	30	0	585629696	44	6125
2026-01-26 02:42:24.11	216.82	48.12	-34.8	-36.0	30.2	3.02e+01	90	30	0	587726848	44	6069
2026-01-26 02:42:25.11	217.38	48.36	-34.9	-36.1	30.0	3.02e+01	92	30	0	589299712	44	6202
2026-01-26 02:42:26.12	217.96	48.61	-35.1	-36.3	29.8	3.02e+01	90	30	0	591396864	44	6322
2026-01-26 02:42:27.13	218.55	48.85	-35.3	-36.5	30.1	3.02e+01	92	30	0	593494016	44	6431
2026-01-26 02:42:28.14	219.15	49.09	-35.1	-36.2	30.1	3.02e+01	89	30	0	595066880	44	6276
2026-01-26 02:42:29.15	219.76	49.33	-34.9	-36.1	30.1	3.02e+01	88	30	0	597164032	44	6170
2026-01-26 02:42:30.16	220.37	49.57	-35.1	-36.3	30.2	3.02e+01	92	30	0	598736896	44	6326
2026-01-26 02:42:31.17	221.00	49.80	-35.4	-36.6	29.9	3.02e+01	92	30	0	600834048	44	6519
2026-01-26 02:42:32.18	221.63	50.04	-35.3	-36.5	30.1	3.02e+01	92	30	0	602931200	44	6466
2026-01-26 02:42:33.19	222.28	50.27	-35.9	-37.1	29.6	3.02e+01	92	30	0	604504064	44	6942
2026-01-26 02:42:34.20	222.93	50.50	-35.7	-36.9	29.8	3.02e+01	92	30	0	606601216	46	6053
2026-01-26 02:42:35.21	223.60	50.72	-35.9	-37.1	29.5	3.02e+01	92	30	0	608174080	46	6185
2026-01-26 02:42:36.22	224.27	50.94	-36.3	-37.5	29.5	3.02e+01	92	30	0	610271232	46	6437
2026-01-26 02:42:37.23	224.96	51.16	-35.8	-36.9	29.9	3.02e+01	92	30	0	612368384	46	6050
2026-01-26 02:42:38.24	225.66	51.38	-36.4	-37.6	29.6	3.02e+01	92	30	0	613941248	46	6519
2026-01-26 02:42:39.25	226.36	51.59	-36.2	-37.4	29.9	3.02e+01	91	30	0	616038400	46	6352
2026-01-26 02:42:40.26	227.08	51.80	-36.3	-37.5	29.5	3.02e+01	92	30	0	617611264	46	6453
2026-01-26 02:42:41.27	227.80	52.01	-35.9	-37.1	30.0	3.02e+01	92	30	0	619708416	46	6178
2026-01-26 02:42:42.28	228.54	52.21	-35.7	-36.8	29.9	3.02e+01	90	30	0	621805568	46	5960
2026-01-26 02:42:43.29	229.28	52.41	-35.8	-37.0	29.8	3.02e+01	92	30	0	623378432	46	6097
2026-01-26 02:42:44.30	230.04	52.60	-35.8	-37.0	30.0	3.02e+01	92	30	0	625475584	46	6075
2026-01-26 02:42:45.31	230.80	52.79	-36.1	-37.2	30.0	3.02e+01	92	30	0	627572736	46	6270
2026-01-26 02:42:46.32	231.58	52.97	-36.2	-37.4	29.4	3.02e+01	92	30	0	629145600	46	6421
2026-01-26 02:42:47.33	232.36	53.15	-36.1	-37.3	29.8	3.02e+01	92	30	0	631242752	46	6291
2026-01-26 02:42:48.34	233.16	53.33	-36.0	-37.1	30.0	3.02e+01	84	30	0	632815616	46	6199
2026-01-26 02:42:49.34	233.95	53.50	-36.0	-37.2	29.8	3.02e+01	92	30	0	634912768	46	6258
2026-01-26 02:42:50.35	234.77	53.66	-36.5	-37.7	29.6	3.02e+01	90	30	0	637009920	46	6614
2026-01-26 02:42:51.36	235.59	53.83	-36.0	-37.2	30.0	3.02e+01	92	30	0	638582784	46	6220
2026-01-26 02:42:52.37	236.42	53.98	-35.8	-37.0	29.8	3.02e+01	92	30	0	640679936	46	6110
2026-01-26 02:42:53.38	237.26	54.13	-36.1	-37.3	29.5	3.02e+01	92	30	0	642252800	46	6317
2026-01-26 02:42:54.39	238.11	54.27	-36.2	-37.4	29.4	3.02e+01	92	30	0	644349952	46	6396
2026-01-26 02:42:55.40	238.97	54.41	-36.1	-37.3	29.5	3.02e+01	92	30	0	646447104	46	6286
2026-01-26 02:42:56.41	239.83	54.54	-36.2	-37.4	29.3	3.02e+01	91	30	0	648019968	46	6391
2026-01-26 02:42:57.42	240.71	54.67	-36.4	-37.6	29.1	3.02e+01	91	30	0	650117120	46	6537
2026-01-26 02:42:58.43	241.59	54.79	-36.4	-37.6	29.3	3.02e+01	91	30	0	652214272	46	6548
2026-01-26 02:42:59.44	242.48	54.90	-36.2	-37.4	29.3	3.02e+01	91	30	0	653787136	46	6407
2026-01-26 02:43:00.45	243.37	55.01	-36.1	-37.3	29.3	3.02e+01	92	30	0	655884288	46	6329
2026-01-26 02:43:01.46	244.27	55.11	-36.3	-37.6	29.1	3.02e+01	91	30	0	657457152	46	6500
2026-01-26 02:43:02.47	245.18	55.20	-36.0	-37.2	29.2	3.02e+01	90	30	0	659554304	46	6266
2026-01-26 02:43:03.48	246.09	55.29	-36.3	-37.6	29.1	3.02e+01	91	30	0	661651456	46	6508
2026-01-26 02:43:04.49	247.01	55.37	-36.3	-37.5	29.2	3.02e+01	90	30	0	663224320	46	6442
2026-01-26 02:43:05.50	247.93	55.44	-36.2	-37.5	29.2	3.02e+01	91	30	0	665321472	46	6424
2026-01-26 02:43:06.51	248.86	55.50	-36.5	-37.7	28.9	3.02e+01	90	30	0	666894336	46	6644
2026-01-26 02:43:07.52	249.80	55.56	-36.1	-37.3	29.1	3.02e+01	92	30	0	668991488	46	6322
2026-01-26 02:43:08.53	250.73	55.61	-36.4	-37.6	29.0	3.02e+01	92	30	0	671088640	46	6556
2026-01-26 02:43:09.54	251.67	55.66	-36.6	-37.8	29.0	3.02e+01	92	30	0	672661504	46	6698
2026-01-26 02:43:10.55	252.61	55.69	-36.8	-38.0	28.9	3.02e+01	90	30	0	674758656	48	6091
2026-01-26 02:43:11.55	253.55	55.72	-37.0	-38.2	28.6	3.02e+01	92	30	0	676331520	48	6273
2026-01-26 02:43:12.56	254.49	55.74	-37.5	-38.7	28.6	3.02e+01	92	30	0	678428672	48	6614
2026-01-26 02:43:13.57	255.44	55.76	-37.6	-38.8	28.6	3.02e+01	90	30	0	680525824	50	5984
2026-01-26 02:43:14.58	256.38	55.76	-37.3	-38.5	28.6	3.02e+01	92	30	0	682098688	50	5773
2026-01-26 02:43:15.59	257.33	55.76	-38.4	-39.6	28.7	3.02e+01	90	30	0	684195840	54	5192
2026-01-26 02:43:16.60	258.28	55.75	-39.3	-40.7	27.9	3.02e+01	92	30	0	685768704	52	6590
2026-01-26 02:43:17.61	259.22	55.74	-38.1	-39.4	28.5	3.02e+01	89	30	0	687865856	50	6361
2026-01-26 02:43:18.62	260.17	55.71	-37.2	-38.4	29.1	3.02e+01	91	30	0	689963008	50	5691
2026-01-26 02:43:19.63	261.11	55.68	-37.4	-38.7	28.9	3.02e+01	92	30	0	691535872	48	6587
2026-01-26 02:43:20.64	262.05	55.64	-37.2	-38.5	28.8	3.02e+01	92	30	0	693633024	48	6433
2026-01-26 02:43:21.65	262.99	55.60	-36.4	-37.6	29.1	3.02e+01	92	30	0	695205888	48	5842
2026-01-26 02:43:22.66	263.92	55.54	-36.6	-37.8	29.1	3.02e+01	91	30	0	697303040	48	5985
2026-01-26 02:43:23.67	264.85	55.48	-38.2	-39.4	28.6	3.02e+01	92	30	0	699400192	50	6396
2026-01-26 02:43:24.68	265.78	55.41	-37.2	-38.5	28.8	3.02e+01	92	30	0	700973056	50	5737
2026-01-26 02:43:25.69	266.70	55.34	-38.0	-39.3	28.8	3.02e+01	92	30	0	703070208	50	6289
2026-01-26 02:43:26.70	267.62	55.26	-37.5	-38.7	28.8	3.02e+01	86	30	0	705167360	48	6620
2026-01-26 02:43:27.71	268.53	55.17	-37.7	-39.0	29.0	3.02e+01	92	30	0	706740224	50	6065
2026-01-26 02:43:28.71	269.42	55.08	-37.5	-38.8	29.0	3.02e+01	92	30	0	708837376	50	5959
2026-01-26 02:43:29.72	270.32	54.97	-36.9	-38.1	29.4	3.02e+01	88	30	0	710410240	48	6191
2026-01-26 02:43:30.73	271.21	54.86	-36.9	-38.1	29.3	3.02e+01	90	30	0	712507392	48	6188
2026-01-26 02:43:31.74	272.10	54.75	-36.8	-38.0	29.3	3.02e+01	92	30	0	714604544	48	6119
2026-01-26 02:43:32.75	272.98	54.63	-36.4	-37.6	29.4	3.02e+01	92	30	0	716177408	48	5840
2026-01-26 02:43:33.76	273.85	54.50	-36.8	-38.0	29.4	3.02e+01	92	30	0	718274560	48	6117
2026-01-26 02:43:34.77	274.71	54.37	-36.9	-38.1	29.6	3.02e+01	92	30	0	720371712	48	6182
2026-01-26 02:43:35.78	275.56	54.23	-36.6	-37.8	29.5	3.02e+01	92	30	0	721944576	48	5985
2026-01-26 02:43:36.79	276.41	54.08	-37.4	-38.6	29.4	3.02e+01	92	30	0	724041728	48	6536
2026-01-26 02:43:37.80	277.24	53.93	-37.2	-38.4	29.7	3.02e+01	92	30	0	725614592	48	6387
2026-01-26 02:43:38.82	278.08	53.77	-36.8	-38.0	29.4	3.02e+01	92	30	0	727711744	48	6131
2026-01-26 02:43:39.83	278.90	53.61	-37.6	-38.9	29.4	3.02e+01	92	30	0	729808896	48	6736
2026-01-26 02:43:40.84	279.70	53.44	-37.8	-39.0	29.1	3.02e+01	92	30	0	731381760	48	6860
2026-01-26 02:43:41.84	280.50	53.27	-36.7	-37.9	29.4	3.02e+01	91	30	0	733478912	48	6054
2026-01-26 02:43:42.85	281.29	53.10	-36.9	-38.1	29.4	3.02e+01	92	30	0	735051776	48	6159
2026-01-26 02:43:43.86	282.07	52.91	-37.4	-38.6	29.2	3.02e+01	92	30	0	737148928	48	6552
2026-01-26 02:43:44.87	282.84	52.73	-37.0	-38.2	29.3	3.02e+01	92	30	0	739246080	48	6223
2026-01-26 02:43:45.88	283.60	52.54	-36.4	-37.6	29.6	3.02e+01	92	30	0	740818944	48	5817
2026-01-26 02:43:46.89	284.35	52.34	-36.7	-37.9	29.4	3.02e+01	90	30	0	742916096	48	6048
2026-01-26 02:43:47.90	285.09	52.14	-36.9	-38.1	29.6	3.02e+01	92	30	0	744488960	48	6154
2026-01-26 02:43:48.91	285.82	51.94	-37.0	-38.3	29.5	3.02e+01	92	30	0	746586112	48	6293
2026-01-26 02:43:49.92	286.54	51.74	-37.4	-38.7	29.1	3.02e+01	92	30	0	748683264	48	6596
2026-01-26 02:43:50.93	287.25	51.53	-37.5	-38.7	29.5	3.02e+01	92	30	0	750256128	48	6596
2026-01-26 02:43:51.94	287.95	51.31	-37.9	-39.2	29.1	3.02e+01	91	30	0	752353280	50	6214
2026-01-26 02:43:52.95	288.64	51.10	-37.9	-39.1	29.4	3.02e+01	90	30	0	753926144	50	6162
2026-01-26 02:43:53.96	289.32	50.88	-37.8	-39.1	29.1	3.02e+01	89	30	0	756023296	50	6135
2026-01-26 02:43:54.97	289.99	50.65	-37.3	-38.5	29.2	3.02e+01	92	30	0	758120448	50	5763
2026-01-26 02:43:55.98	290.65	50.43	-37.5	-38.8	29.0	3.02e+01	92	30	0	759693312	50	5955
2026-01-26 02:43:56.98	291.30	50.20	-37.1	-38.3	29.2	3.02e+01	91	30	0	761790464	50	5637
2026-01-26 02:43:58.00	291.95	49.97	-38.3	-39.6	28.9	3.02e+01	92	30	0	763363328	50	6550
2026-01-26 02:43:59.01	292.58	49.74	-37.4	-38.7	28.8	3.02e+01	91	30	0	765460480	50	5863
2026-01-26 02:44:00.02	293.20	49.50	-37.9	-39.2	29.0	3.02e+01	92	30	0	767557632	50	6252
2026-01-26 02:44:01.03	293.81	49.26	-37.9	-39.2	28.8	3.02e+01	91	30	0	769130496	50	6218
2026-01-26 02:44:02.04	294.41	49.02	-37.4	-38.7	29.2	3.02e+01	92	30	0	771227648	50	5872
2026-01-26 02:44:03.05	295.01	48.78	-37.6	-38.8	29.0	3.02e+01	92	30	0	773324800	50	5958
2026-01-26 02:44:04.06	295.59	48.54	-37.7	-39.0	28.5	3.02e+01	92	30	0	774897664	50	6113
2026-01-26 02:44:05.07	296.16	48.29	-37.7	-39.0	29.0	3.02e+01	92	30	0	776994816	50	6069
2026-01-26 02:44:06.08	296.73	48.05	-37.6	-38.9	29.1	3.02e+01	92	30	0	778567680	50	6015
2026-01-26 02:44:07.09	297.29	47.80	-37.0	-38.2	29.2	3.02e+01	92	30	0	780664832	50	5594
2026-01-26 02:44:08.09	297.83	47.55	-38.2	-39.4	29.2	3.02e+01	85	30	0	782761984	50	6403
2026-01-26 02:44:09.10	298.37	47.30	-37.6	-38.9	28.7	3.02e+01	91	30	0	784334848	50	6052
2026-01-26 02:44:10.11	298.90	47.05	-37.4	-38.6	28.9	3.02e+01	91	30	0	786432000	50	5853
2026-01-26 02:44:11.12	299.42	46.80	-37.3	-38.5	29.0	3.02e+01	91	30	0	788529152	50	5786
2026-01-26 02:44:12.13	299.93	46.55	-37.4	-38.6	29.0	3.02e+01	91	30	0	790102016	50	5854
2026-01-26 02:44:13.14	300.44	46.29	-37.7	-38.9	29.0	3.02e+01	92	30	0	792199168	50	6029
2026-01-26 02:44:14.15	300.93	46.04	-37.3	-38.5	29.2	3.02e+01	91	30	0	793772032	48	6461
2026-01-26 02:44:15.16	301.42	45.78	-36.9	-38.2	29.1	3.02e+01	92	30	0	795869184	48	6221
2026-01-26 02:44:16.17	301.90	45.53	-37.6	-38.8	29.0	3.02e+01	92	30	0	797966336	48	6688
2026-01-26 02:44:17.18	302.38	45.27	-37.7	-38.9	29.1	3.02e+01	92	30	0	799539200	48	6786
2026-01-26 02:44:18.19	302.84	45.02	-38.0	-39.3	27.9	3.02e+01	92	30	0	801636352	48	7086
2026-01-26 02:44:19.20	303.30	44.76	-37.9	-39.2	29.4	3.02e+01	92	30	0	803209216	48	6972
2026-01-26 02:44:20.21	303.75	44.50	-37.7	-38.9	29.2	3.02e+01	92	30	0	805306368	50	6019
2026-01-26 02:44:21.22	304.19	44.25	-37.4	-38.6	29.2	3.02e+01	92	30	0	807403520	50	5854
2026-01-26 02:44:22.23	304.63	43.99	-37.5	-38.7	29.2	3.02e+01	92	30	0	808976384	50	5894
2026-01-26 02:44:23.24	305.06	43.73	-38.2	-39.4	29.1	3.02e+01	92	30	0	811073536	50	6370
2026-01-26 02:44:24.25	305.48	43.48	-37.8	-39.1	29.0	3.02e+01	92	30	0	812646400	50	6157
2026-01-26 02:44:25.26	305.90	43.22	-37.6	-38.9	28.9	3.02e+01	92	30	0	814743552	50	6015
2026-01-26 02:44:26.27	306.31	42.96	-37.7	-38.9	29.0	3.02e+01	92	30	0	816840704	50	6018
2026-01-26 02:44:27.28	306.71	42.71	-37.9	-39.1	28.9	3.02e+01	88	30	0	818413568	50	6182
2026-01-26 02:44:28.29	307.11	42.45	-37.5	-38.8	29.0	3.02e+01	90	30	0	820510720	50	5934
2026-01-26 02:44:29.29	307.49	42.20	-37.8	-39.0	29.0	3.02e+01	92	30	0	822083584	50	6130
2026-01-26 02:44:30.30	307.88	41.94	-38.0	-39.2	29.2	3.02e+01	92	30	0	824180736	50	6258
2026-01-26 02:44:31.31	308.25	41.69	-38.3	-39.6	28.5	3.02e+01	92	30	0	826277888	50	6544
2026-01-26 02:44:32.32	308.62	41.44	-38.5	-39.8	28.4	3.02e+01	92	30	0	827850752	52	5973
2026-01-26 02:44:33.33	308.99	41.18	-38.8	-40.1	28.3	3.02e+01	92	30	0	829947904	50	6886
2026-01-26 02:44:34.34	309.35	40.93	-38.1	-39.3	28.7	3.02e+01	90	30	0	831520768	50	6289
2026-01-26 02:44:35.35	309.71	40.68	-38.1	-39.3	29.1	3.02e+01	91	30	0	833617920	50	6334
2026-01-26 02:44:36.36	310.05	40.43	-38.5	-39.8	28.9	3.02e+01	91	30	0	835715072	50	6666
2026-01-26 02:44:37.37	310.40	40.18	-37.6	-38.9	28.7	3.02e+01	92	30	0	837287936	50	6001
2026-01-26 02:44:38.38	310.74	39.93	-38.7	-39.9	28.5	3.02e+01	90	30	0	839385088	52	6063
2026-01-26 02:44:39.39	311.07	39.68	-37.7	-39.0	28.9	3.02e+01	92	30	0	841482240	52	5412
2026-01-26 02:44:40.39	311.40	39.43	-38.0	-39.2	28.7	3.02e+01	92	30	0	843055104	50	6248
2026-01-26 02:44:41.41	311.72	39.18	-37.7	-38.9	28.6	3.02e+01	90	30	0	845152256	50	6051
2026-01-26 02:44:42.42	312.04	38.94	-37.2	-38.4	28.6	3.02e+01	92	30	0	846725120	50	5708
2026-01-26 02:44:43.42	312.35	38.69	-37.4	-38.7	28.7	3.02e+01	90	30	0	848822272	50	5866
2026-01-26 02:44:44.44	312.66	38.45	-37.2	-38.4	28.7	3.02e+01	92	30	0	850919424	50	5696
2026-01-26 02:44:45.45	312.97	38.21	-37.4	-38.7	28.9	3.02e+01	92	30	0	852492288	50	5859
2026-01-26 02:44:46.45	313.26	37.97	-36.9	-38.1	29.0	3.02e+01	90	30	0	854589440	50	5510
2026-01-26 02:44:47.47	313.56	37.72	-37.1	-38.3	29.0	3.02e+01	91	30	0	856686592	48	6320
2026-01-26 02:44:48.48	313.85	37.48	-37.4	-38.7	29.1	3.02e+01	92	30	0	858259456	48	6587
2026-01-26 02:44:49.48	314.14	37.24	-37.1	-38.3	29.3	3.02e+01	90	30	0	860356608	48	6310
2026-01-26 02:44:50.49	314.42	37.01	-36.5	-37.7	29.4	3.02e+01	89	30	0	861929472	48	5884
2026-01-26 02:44:51.50	314.70	36.77	-37.1	-38.3	29.6	3.02e+01	92	30	0	864026624	48	6291
2026-01-26 02:44:52.51	314.97	36.53	-36.8	-38.0	29.4	3.02e+01	90	30	0	865599488	48	6131
2026-01-26 02:44:53.52	315.24	36.30	-37.2	-38.4	29.5	3.02e+01	92	30	0	867696640	48	6421
2026-01-26 02:44:54.53	315.51	36.07	-36.5	-37.7	29.6	3.02e+01	90	30	0	869793792	48	5874
2026-01-26 02:44:55.54	315.77	35.83	-36.4	-37.6	29.5	3.02e+01	90	30	0	871366656	46	6503
2026-01-26 02:44:56.55	316.03	35.60	-36.6	-37.8	29.7	3.02e+01	92	30	0	873463808	48	5934
2026-01-26 02:44:57.56	316.28	35.37	-36.8	-38.0	29.7	3.02e+01	92	30	0	875036672	48	6091
2026-01-26 02:44:58.57	316.54	35.14	-37.2	-38.4	29.9	3.02e+01	90	30	0	877133824	48	6384
2026-01-26 02:44:59.58	316.78	34.91	-36.3	-37.4	30.0	3.02e+01	92	30	0	879230976	48	5719
2026-01-26 02:45:00.59	317.03	34.69	-35.9	-37.1	30.4	3.02e+01	92	30	0	880803840	48	5472
2026-01-26 02:45:01.60	317.27	34.46	-36.8	-38.0	30.2	3.02e+01	89	30	0	882900992	48	6122
2026-01-26 02:45:02.60	317.51	34.24	-36.7	-37.8	30.2	3.02e+01	90	30	0	884998144	48	5986
2026-01-26 02:45:03.61	317.74	34.02	-36.4	-37.5	30.3	3.02e+01	92	30	0	886571008	46	6490
2026-01-26 02:45:04.62	317.97	33.80	-35.9	-37.0	30.6	3.02e+01	91	30	0	888668160	46	6117
2026-01-26 02:45:05.63	318.20	33.57	-36.7	-37.9	30.5	3.02e+01	90	30	0	890241024	46	6781
2026-01-26 02:45:06.64	318.43	33.36	-36.2	-37.3	30.4	3.02e+01	92	30	0	892338176	46	6334
2026-01-26 02:45:07.65	318.65	33.14	-36.5	-37.6	30.4	3.02e+01	90	30	0	894435328	46	6539
2026-01-26 02:45:08.66	318.87	32.92	-36.4	-37.6	30.6	3.02e+01	90	30	0	896008192	46	6516
2026-01-26 02:45:09.67	319.08	32.70	-36.3	-37.5	30.5	3.02e+01	92	30	0	898105344	46	6448
2026-01-26 02:45:10.68	319.30	32.49	-36.2	-37.3	30.5	3.02e+01	91	30	0	899678208	46	6340
2026-01-26 02:45:11.69	319.51	32.28	-36.2	-37.3	30.6	3.02e+01	92	30	0	901775360	46	6328
2026-01-26 02:45:12.70	319.72	32.06	-35.7	-36.9	30.6	3.02e+01	92	30	0	903872512	46	6011
2026-01-26 02:45:13.71	319.92	31.85	-35.3	-36.5	30.8	3.02e+01	91	30	0	905445376	46	5750
2026-01-26 02:45:14.72	320.12	31.64	-35.5	-36.7	30.6	3.02e+01	91	30	0	907542528	46	5870
2026-01-26 02:45:15.73	320.32	31.44	-36.5	-37.6	30.4	3.02e+01	91	30	0	909639680	46	6551
2026-01-26 02:45:16.74	320.52	31.23	-36.3	-37.4	30.6	3.02e+01	90	30	0	911212544	46	6413
2026-01-26 02:45:17.75	320.72	31.02	-35.7	-36.9	30.3	3.02e+01	58	30	0	913309696	46	5998
2026-01-26 02:45:18.76	320.91	30.82	-36.5	-37.6	30.4	3.02e+01	52	30	0	914882560	46	6569
2026-01-26 02:45:19.77	321.10	30.61	-35.9	-37.1	30.5	3.02e+01	61	30	0	916979712	46	6138
2026-01-26 02:45:20.78	321.29	30.41	-35.8	-37.0	30.2	3.02e+01	60	30	0	919076864	46	6096
2026-01-26 02:45:21.79	321.47	30.21	-36.2	-37.3	30.6	3.02e+01	59	30	0	920649728	48	5631
2026-01-26 02:45:22.80	321.65	30.01	-36.6	-37.7	29.6	3.02e+01	57	30	0	922746880	48	5913
2026-01-26 02:45:23.81	321.83	29.81	-36.7	-37.8	30.0	3.02e+01	46	30	0	924319744	46	6712
2026-01-26 02:45:24.82	322.01	29.62	-37.0	-38.2	30.0	3.02e+01	60	30	0	926416896	46	7027
2026-01-26 02:45:25.83	322.19	29.42	-35.8	-36.9	30.4	3.02e+01	56	30	0	928514048	46	6064
2026-01-26 02:45:26.84	322.36	29.22	-36.5	-37.6	30.2	3.02e+01	56	30	0	930086912	48	5852
2026-01-26 02:45:27.85	322.53	29.03	-36.0	-37.2	30.1	3.02e+01	57	30	0	932184064	46	6224
2026-01-26 02:45:28.86	322.70	28.84	-35.8	-37.0	29.8	3.02e+01	61	30	0	933756928	46	6091
2026-01-26 02:45:29.87	322.87	28.65	-35.8	-37.0	30.1	3.02e+01	60	30	0	935854080	46	6073
2026-01-26 02:45:30.88	323.04	28.46	-35.9	-37.0	30.0	3.02e+01	62	30	0	937951232	46	6121
2026-01-26 02:45:31.89	323.20	28.27	-35.5	-36.7	30.1	3.02e+01	51	30	0	939524096	46	5894
2026-01-26 02:45:32.90	323.36	28.08	-36.3	-37.5	30.0	3.02e+01	60	30	0	941621248	46	6439
2026-01-26 02:45:33.91	323.52	27.89	-35.9	-37.1	29.9	3.02e+01	59	30	0	943194112	46	6159
2026-01-26 02:45:34.92	323.68	27.71	-36.7	-37.9	29.7	3.02e+01	64	30	0	945291264	46	6767
2026-01-26 02:45:35.93	323.84	27.52	-36.1	-37.3	29.3	3.02e+01	59	30	0	947388416	46	6281
2026-01-26 02:45:36.94	323.99	27.34	-36.4	-37.6	29.6	3.02e+01	51	30	0	948961280	46	6502
2026-01-26 02:45:37.95	324.15	27.15	-35.6	-36.8	29.9	3.02e+01	58	30	0	951058432	46	5933
2026-01-26 02:45:38.96	324.30	26.97	-35.8	-37.0	29.9	3.02e+01	60	30	0	953155584	46	6133
2026-01-26 02:45:39.97	324.45	26.79	-36.5	-37.7	29.7	3.02e+01	51	30	0	954728448	46	6574
2026-01-26 02:45:40.98	324.59	26.61	-36.5	-37.7	29.7	3.02e+01	58	30	0	956825600	46	6637
2026-01-26 02:45:41.99	324.74	26.44	-36.6	-37.8	29.7	3.02e+01	56	30	0	958398464	46	6650
2026-01-26 02:45:43.00	324.88	26.26	-36.3	-37.5	29.7	3.02e+01	57	30	0	960495616	46	6466
2026-01-26 02:45:44.00	325.03	26.08	-36.3	-37.5	29.5	3.02e+01	55	30	0	962592768	46	6476
2026-01-26 02:45:45.01	325.17	25.91	-36.2	-37.4	29.6	3.02e+01	53	30	0	964165632	46	6415
2026-01-26 02:45:46.02	325.31	25.74	-36.6	-37.8	29.5	3.02e+01	59	30	0	966262784	46	6659
2026-01-26 02:45:47.03	325.44	25.56	-36.3	-37.5	29.7	3.02e+01	59	30	0	967835648	48	5769
2026-01-26 02:45:48.04	325.58	25.39	-36.6	-37.7	29.6	3.02e+01	46	30	0	969932800	48	5916
2026-01-26 02:45:49.05	325.72	25.22	-36.8	-38.0	29.7	3.02e+01	63	30	0	972029952	48	6086
2026-01-26 02:45:50.06	325.85	25.05	-36.1	-37.3	29.3	3.02e+01	60	30	0	973602816	48	5612
2026-01-26 02:45:51.07	325.98	24.88	-36.5	-37.7	29.8	3.02e+01	59	30	0	975699968	48	5871
2026-01-26 02:45:52.08	326.11	24.72	-36.7	-37.9	29.7	3.02e+01	61	30	0	977797120	48	6038
2026-01-26 02:45:53.09	326.24	24.55	-36.4	-37.6	29.4	3.02e+01	55	30	0	979369984	48	5825
2026-01-26 02:45:54.10	326.37	24.38	-35.5	-36.6	29.6	3.02e+01	57	30	0	981467136	46	5851
2026-01-26 02:45:55.11	326.50	24.22	-36.1	-37.3	29.6	3.02e+01	59	30	0	983040000	46	6318
2026-01-26 02:45:56.12	326.62	24.06	-36.3	-37.4	29.7	3.02e+01	44	30	0	985137152	46	6422
2026-01-26 02:45:57.13	326.75	23.89	-36.4	-37.5	29.6	3.02e+01	59	30	0	987234304	46	6493
2026-01-26 02:45:58.14	326.87	23.73	-36.9	-38.1	29.5	3.02e+01	60	30	0	988807168	48	6151
2026-01-26 02:45:59.15	326.99	23.57	-36.4	-37.5	29.4	3.02e+01	57	30	0	990904320	48	5785
2026-01-26 02:46:00.16	327.11	23.41	-36.9	-38.1	29.5	3.02e+01	59	30	0	992477184	48	6155
2026-01-26 02:46:01.17	327.23	23.25	-36.6	-37.8	29.6	3.02e+01	53	30	0	994574336	48	5988
2026-01-26 02:46:02.18	327.35	23.09	-36.8	-37.9	29.7	3.02e+01	58	30	0	996671488	48	6058
2026-01-26 02:46:03.19	327.46	22.94	-36.5	-37.7	29.6	3.02e+01	57	30	0	998244352	48	5859
2026-01-26 02:46:04.20	327.58	22.78	-37.1	-38.3	29.5	3.02e+01	47	30	0	1000341504	48	6316
2026-01-26 02:46:05.21	327.69	22.63	-36.8	-38.0	29.6	3.02e+01	60	30	0	1001914368	48	6109
2026-01-26 02:46:06.22	327.81	22.47	-36.8	-38.0	29.3	3.02e+01	47	30	0	1004011520	48	6076
2026-01-26 02:46:07.23	327.92	22.32	-37.0	-38.2	29.3	3.02e+01	61	30	0	1006108672	48	6260
2026-01-26 02:46:08.24	328.03	22.17	-37.1	-38.3	29.4	3.02e+01	59	30	0	1007681536	48	6313
2026-01-26 02:46:09.25	328.14	22.02	-36.3	-37.5	29.5	3.02e+01	45	30	0	1009778688	48	5751
2026-01-26 02:46:10.25	328.25	21.87	-36.5	-37.7	29.6	3.02e+01	63	30	0	1011351552	48	5886
2026-01-26 02:46:11.27	328.36	21.72	-37.0	-38.1	29.5	3.02e+01	60	30	0	1013448704	48	6200
2026-01-26 02:46:12.27	328.46	21.57	-36.8	-37.9	29.6	3.02e+01	58	30	0	1015545856	48	6061
2026-01-26 02:46:13.28	328.57	21.42	-37.1	-38.3	29.5	3.02e+01	59	30	0	1017118720	48	6297
2026-01-26 02:46:14.29	328.67	21.27	-36.7	-37.9	29.5	3.02e+01	54	30	0	1019215872	48	5995
2026-01-26 02:46:15.30	328.78	21.13	-36.3	-37.5	29.8	3.02e+01	58	30	0	1021313024	48	5738
2026-01-26 02:46:16.31	328.88	20.98	-37.3	-38.5	29.4	3.02e+01	60	30	0	1022885888	48	6447
2026-01-26 02:46:17.32	328.98	20.84	-36.7	-37.9	29.6	3.02e+01	52	30	0	1024983040	48	6031
2026-01-26 02:46:18.33	329.08	20.69	-37.0	-38.2	29.7	3.02e+01	62	30	0	1026555904	48	6211
2026-01-26 02:46:19.34	329.18	20.55	-36.5	-37.6	29.7	3.02e+01	59	30	0	1028653056	48	5841
2026-01-26 02:46:20.35	329.28	20.41	-36.6	-37.7	29.6	3.02e+01	57	30	0	1030750208	48	5920
2026-01-26 02:46:21.36	329.38	20.27	-36.8	-38.0	29.6	3.02e+01	59	30	0	1032323072	48	6096
2026-01-26 02:46:22.37	329.48	20.13	-36.1	-37.3	29.4	3.02e+01	59	30	0	1034420224	48	5631
2026-01-26 02:46:23.38	329.57	19.99	-36.4	-37.6	29.7	3.02e+01	61	30	0	1035993088	46	6522
2026-01-26 02:46:24.39	329.67	19.85	-36.7	-37.8	29.3	3.02e+01	58	30	0	1038090240	48	5981
2026-01-26 02:46:25.40	329.76	19.71	-36.3	-37.5	29.7	3.02e+01	51	30	0	1040187392	48	5753
2026-01-26 02:46:26.40	329.85	19.57	-36.6	-37.7	29.9	3.02e+01	59	30	0	1041760256	48	5913
2026-01-26 02:46:27.41	329.95	19.44	-36.9	-38.1	29.4	3.02e+01	58	30	0	1043857408	48	6159
2026-01-26 02:46:28.42	330.04	19.30	-36.3	-37.5	29.6	3.02e+01	50	30	0	1045954560	48	5728
2026-01-26 02:46:29.43	330.13	19.17	-36.1	-37.3	29.9	3.02e+01	58	30	0	1047527424	48	5618
2026-01-26 02:46:30.44	330.22	19.03	-36.4	-37.6	29.7	3.02e+01	52	30	0	1049624576	48	5808
2026-01-26 02:46:31.45	330.31	18.90	-36.4	-37.6	29.6	3.02e+01	60	30	0	1051197440	48	5831
2026-01-26 02:46:32.46	330.40	18.77	-36.7	-37.9	29.5	3.02e+01	62	30	0	1053294592	48	6006
2026-01-26 02:46:33.47	330.49	18.63	-36.8	-38.0	29.3	3.02e+01	53	30	0	1055391744	48	6096
2026-01-26 02:46:34.48	330.57	18.50	-36.6	-37.8	28.8	3.02e+01	60	30	0	1056964608	48	5989
2026-01-26 02:46:35.49	330.66	18.37	-35.8	-37.0	29.3	3.02e+01	57	30	0	1059061760	46	6116
2026-01-26 02:46:36.50	330.75	18.24	-36.2	-37.4	29.2	3.02e+01	57	30	0	1060634624	46	6396
2026-01-26 02:46:37.51	330.83	18.11	-36.3	-37.6	29.0	3.02e+01	58	30	0	1062731776	46	6500
2026-01-26 02:46:38.52	330.92	17.98	-35.6	-36.9	29.3	3.02e+01	54	30	0	1064828928	46	5999
2026-01-26 02:46:39.53	331.00	17.86	-36.3	-37.5	29.3	3.02e+01	59	30	0	1066401792	46	6434
2026-01-26 02:46:40.54	331.08	17.73	-36.7	-37.9	29.2	3.02e+01	58	30	0	1068498944	48	6016
2026-01-26 02:46:41.55	331.16	17.60	-36.0	-37.2	29.4	3.02e+01	50	30	0	1070071808	48	5581
2026-01-26 02:46:42.56	331.25	17.48	-36.5	-37.7	29.3	3.02e+01	59	30	0	1072168960	48	5914
2026-01-26 02:46:43.57	331.33	17.35	-36.7	-37.9	29.4	3.02e+01	44	30	0	1074266112	48	6038
2026-01-26 02:46:44.58	331.41	17.23	-36.4	-37.7	29.5	3.02e+01	61	30	0	1075838976	48	5861
2026-01-26 02:46:45.59	331.49	17.10	-36.0	-37.2	29.6	3.02e+01	58	30	0	1077936128	48	5548
2026-01-26 02:46:46.59	331.56	16.98	-35.7	-36.9	29.6	3.02e+01	51	30	0	1079508992	46	6040
2026-01-26 02:46:47.60	331.64	16.86	-36.8	-38.0	29.5	3.02e+01	55	30	0	1081606144	46	6831
2026-01-26 02:46:48.61	331.72	16.74	-36.4	-37.5	29.6	3.02e+01	60	30	0	1083703296	46	6490
2026-01-26 02:46:49.62	331.80	16.61	-36.2	-37.4	29.5	3.02e+01	59	30	0	1085276160	46	6399
2026-01-26 02:46:50.63	331.87	16.49	-36.2	-37.4	29.5	3.02e+01	59	30	0	1087373312	46	6419
2026-01-26 02:46:51.64	331.95	16.37	-35.8	-37.0	29.3	3.02e+01	45	30	0	1089470464	46	6105
2026-01-26 02:46:52.65	332.02	16.25	-35.7	-36.9	29.4	3.02e+01	59	30	0	1091043328	46	6022
2026-01-26 02:46:53.66	332.10	16.13	-35.5	-36.7	29.6	3.02e+01	58	30	0	1093140480	46	5870
2026-01-26 02:46:54.67	332.17	16.02	-35.5	-36.7	29.6	3.02e+01	44	30	0	1094713344	46	5900
2026-01-26 02:46:55.68	332.25	15.90	-35.1	-36.3	29.8	3.02e+01	60	30	0	1096810496	46	5608
2026-01-26 02:46:56.69	332.32	15.78	-36.1	-37.3	29.7	3.02e+01	58	30	0	1098907648	46	6301
2026-01-26 02:46:57.70	332.39	15.66	-35.1	-36.3	29.9	3.02e+01	58	30	0	1100480512	46	5634
2026-01-26 02:46:58.71	332.46	15.55	-35.4	-36.6	29.8	3.02e+01	61	30	0	1102577664	46	5837
2026-01-26 02:46:59.72	332.53	15.43	-36.2	-37.4	29.5	3.02e+01	45	30	0	1104150528	46	6354
2026-01-26 02:47:00.73	332.60	15.32	-36.2	-37.4	29.7	3.02e+01	58	30	0	1106247680	46	6398
2026-01-26 02:47:01.74	332.67	15.20	-36.8	-38.0	29.5	3.02e+01	59	30	0	1108344832	46	6816
2026-01-26 02:47:02.75	332.74	15.09	-36.5	-37.7	29.4	3.02e+01	44	30	0	1109917696	46	6610
2026-01-26 02:47:03.76	332.81	14.98	-36.2	-37.4	29.5	3.02e+01	59	30	0	1112014848	46	6392
2026-01-26 02:47:04.77	332.88	14.86	-36.0	-37.2	29.3	3.02e+01	60	30	0	1114112000	46	6231
2026-01-26 02:47:05.78	332.95	14.75	-35.9	-37.1	29.5	3.02e+01	61	30	0	1115684864	46	6150
2026-01-26 02:47:06.79	333.02	14.64	-35.9	-37.1	29.3	3.02e+01	57	30	0	1117782016	46	6149
2026-01-26 02:47:07.80	333.08	14.53	-35.9	-37.1	29.3	3.02e+01	45	30	0	1119354880	46	6147
2026-01-26 02:47:08.81	333.15	14.42	-36.0	-37.1	29.1	3.02e+01	58	30	0	1121452032	46	6204
2026-01-26 02:47:09.82	333.22	14.31	-35.9	-37.1	29.2	3.02e+01	58	30	0	1123549184	46	6146
2026-01-26 02:47:10.83	333.28	14.20	-36.3	-37.5	29.1	3.02e+01	59	30	0	1125122048	46	6444
2026-01-26 02:47:11.84	333.35	14.09	-36.6	-37.8	29.2	3.02e+01	59	30	0	1127219200	48	5991
2026-01-26 02:47:12.85	333.41	13.98	-36.2	-37.4	29.1	3.02e+01	62	30	0	1128792064	46	6373
2026-01-26 02:47:13.86	333.48	13.87	-37.0	-38.2	28.4	3.02e+01	61	30	0	1130889216	46	7043
2026-01-26 02:47:14.87	333.54	13.77	-36.8	-38.0	28.8	3.02e+01	63	30	0	1132986368	48	6120
2026-01-26 02:47:15.87	333.60	13.66	-37.4	-38.7	28.6	3.02e+01	44	30	0	1134559232	48	6576
2026-01-26 02:47:16.88	333.66	13.55	-37.0	-38.2	29.0	3.02e+01	61	30	0	1136656384	48	6217
2026-01-26 02:47:17.89	333.73	13.45	-36.5	-37.7	29.1	3.02e+01	59	30	0	1138229248	48	5898
2026-01-26 02:47:18.90	333.79	13.34	-36.7	-38.0	28.8	3.02e+01	56	30	0	1140326400	48	6070
2026-01-26 02:47:19.91	333.85	13.24	-36.3	-37.5	28.6	3.02e+01	57	30	0	1142423552	48	5778
2026-01-26 02:47:20.92	333.91	13.13	-37.3	-38.5	28.4	3.02e+01	45	30	0	1143996416	48	6487
2026-01-26 02:47:21.93	333.97	13.03	-36.1	-37.4	29.3	3.02e+01	59	30	0	1146093568	48	5663
2026-01-26 02:47:22.94	334.03	12.93	-36.2	-37.4	28.9	3.02e+01	58	30	0	1147666432	46	6420
2026-01-26 02:47:23.95	334.09	12.82	-36.5	-37.7	28.7	3.02e+01	44	30	0	1149763584	48	5924
2026-01-26 02:47:24.96	334.15	12.72	-36.5	-37.7	28.8	3.02e+01	59	30	0	1151860736	46	6648
2026-01-26 02:47:25.97	334.21	12.62	-35.9	-37.1	29.2	3.02e+01	57	30	0	1153433600	46	6159
2026-01-26 02:47:26.98	334.27	12.52	-35.9	-37.1	29.0	3.02e+01	61	30	0	1155530752	46	6141
2026-01-26 02:47:27.99	334.33	12.41	-36.1	-37.4	28.9	3.02e+01	62	30	0	1157103616	46	6356
2026-01-26 02:47:29.00	334.38	12.31	-36.1	-37.3	28.6	3.02e+01	57	30	0	1159200768	46	6289
2026-01-26 02:47:30.01	334.44	12.21	-36.1	-37.3	28.8	3.02e+01	60	30	0	1161297920	46	6349
2026-01-26 02:47:31.02	334.50	12.11	-36.1	-37.4	28.6	3.02e+01	55	30	0	1162870784	46	6354
2026-01-26 02:47:32.03	334.55	12.01	-36.5	-37.7	28.7	3.02e+01	50	30	0	1164967936	46	6584
2026-01-26 02:47:33.03	334.61	11.92	-36.6	-37.8	28.6	3.02e+01	59	30	0	1167065088	46	6670
2026-01-26 02:47:34.04	334.67	11.82	-36.3	-37.5	28.7	3.02e+01	58	30	0	1168637952	46	6489
2026-01-26 02:47:35.05	334.72	11.72	-36.2	-37.4	28.5	3.02e+01	63	30	0	1170735104	48	5698
2026-01-26 02:47:36.06	334.78	11.62	-35.9	-37.1	28.8	3.02e+01	60	30	0	1172307968	48	5505
2026-01-26 02:47:37.07	334.83	11.52	-36.4	-37.6	28.8	3.02e+01	49	30	0	1174405120	46	6572
2026-01-26 02:47:38.08	334.88	11.43	-37.2	-47.4	3.6	3.02e+01	0	30	104	1174929408	48	17971
2026-01-26 02:47:39.09	334.94	11.33	-36.9	-47.0	3.5	3.02e+01	0	30	104	1174929408	48	17273
2026-01-26 02:47:40.10	334.99	11.23	-39.9	-50.2	3.4	3.02e+01	0	30	104	1174929408	54	17690
2026-01-26 02:47:41.11	335.05	11.14	-39.2	-49.6	3.6	3.02e+01	0	30	104	1174929408	52	18410
2026-01-26 02:47:42.12	335.10	11.04	-49.2	-65.4	3.5	3.02e+01	0	30	104	1174929408	60	71669
2026-01-26 02:47:43.13	335.15	10.95	-49.0	-65.7	3.5	3.02e+01	0	30	104	1174929408	60	73828
2026-01-26 02:47:44.14	335.20	10.85	-43.5	-54.5	3.6	3.02e+01	0	30	104	1174929408	60	20444
2026-01-26 02:47:45.15	335.26	10.76	-38.2	-48.4	3.6	3.02e+01	0	30	104	1174929408	50	17954
2026-01-26 02:47:46.16	335.31	10.66	-38.7	-49.0	3.4	3.02e+01	0	30	104	1174929408	50	19311
2026-01-26 02:47:47.17	335.36	10.57	-38.2	-48.3	3.6	3.02e+01	0	30	104	1174929408	52	15842
2026-01-26 02:47:48.18	335.41	10.48	-38.1	-48.2	3.6	3.02e+01	0	30	104	1174929408	50	17639
2026-01-26 02:47:49.19	335.46	10.38	-40.5	-50.8	3.5	3.02e+01	0	30	104	1174929408	54	18944
2026-01-26 02:47:50.20	335.51	10.29	-49.1	-65.4	3.5	3.02e+01	0	30	104	1174929408	60	71985
2026-01-26 02:47:51.21	335.56	10.20	-49.5	-66.2	3.5	3.02e+01	0	30	104	1174929408	60	78128
