passes_logs/2026/01/26/R4.6S_Anadyr/R4.6S_Anadyr__20260126_011329_NOAA_20_JPSS-1_rec.log

#Pass ID: 20260126_011329_NOAA 20 (JPSS-1)
#Satellite: NOAA 20 (JPSS-1)
#Configuration: NOAA 20
#almurnet v.1.7.20251203
#Start time: 2026-01-26 01:13:32

#Version: 2.2.20231116
#Station: R4.6S_Anadyr
#Location: 177.4865 lon 64.73178 lat
#TLE: 1 43013U 17073A   26025.47986292  .00000161  00000+0  97249-4 0  9993
#TLE: 2 43013  98.7646 326.3091 0001052  24.2709 335.8516 14.19540188424225

#Time	Az	El	Level	Level2	SNR	BER	BlckErr	Temp	State	Recorded	gain1	gain2
2026-01-26 01:13:32.06	181.73	0.16	-50.6	-65.6	3.5	1.51e+00	0	29	0	0	60	68562
2026-01-26 01:13:33.06	181.77	0.22	-51.6	-66.8	3.6	1.51e+00	0	30	104	0	60	79405
2026-01-26 01:13:34.07	181.80	0.27	-50.5	-65.8	3.6	1.51e+00	0	30	104	0	60	70447
2026-01-26 01:13:35.07	181.83	0.33	-51.0	-66.3	3.6	1.51e+00	0	30	104	0	60	74556
2026-01-26 01:13:36.08	181.87	0.39	-51.8	-67.2	3.6	1.51e+00	0	30	104	0	60	82577
2026-01-26 01:13:37.09	181.90	0.45	-51.0	-66.3	3.6	1.51e+00	0	30	104	0	60	74996
2026-01-26 01:13:38.10	181.94	0.51	-51.2	-66.4	3.5	1.51e+00	0	30	104	0	60	75724
2026-01-26 01:13:39.11	181.97	0.57	-51.6	-66.9	3.6	1.51e+00	0	30	104	0	60	79959
2026-01-26 01:13:40.12	182.01	0.63	-50.9	-66.2	3.6	1.51e+00	0	30	104	0	60	73482
2026-01-26 01:13:41.13	182.04	0.69	-50.6	-65.9	3.6	1.51e+00	0	30	104	0	60	70894
2026-01-26 01:13:42.14	182.08	0.75	-50.1	-65.5	3.6	1.51e+00	0	30	104	0	60	68001
2026-01-26 01:13:43.15	182.11	0.81	-49.8	-65.3	3.6	1.51e+00	0	30	104	0	60	66351
2026-01-26 01:13:44.16	182.15	0.87	-50.0	-65.2	3.6	1.51e+00	0	31	104	0	60	66037
2026-01-26 01:13:45.17	182.18	0.93	-49.8	-65.0	3.6	1.51e+00	0	30	104	0	60	64396
2026-01-26 01:13:46.18	182.22	0.99	-49.7	-64.8	3.6	1.51e+00	0	30	104	0	60	63014
2026-01-26 01:13:47.19	182.25	1.05	-49.5	-64.7	3.6	1.51e+00	0	31	104	0	60	62407
2026-01-26 01:13:48.20	182.29	1.11	-49.6	-64.8	3.6	1.51e+00	0	30	104	0	60	62941
2026-01-26 01:13:49.21	182.33	1.17	-49.6	-64.8	3.6	1.51e+00	0	31	104	0	60	62682
2026-01-26 01:13:50.22	182.36	1.23	-49.4	-64.7	3.6	1.51e+00	0	30	104	0	60	62085
2026-01-26 01:13:51.23	182.40	1.30	-49.3	-64.5	3.6	1.51e+00	0	31	104	0	60	60884
2026-01-26 01:13:52.24	182.43	1.36	-49.3	-64.5	3.6	1.51e+00	0	31	104	0	60	60589
2026-01-26 01:13:53.25	182.47	1.42	-49.1	-64.3	3.6	1.51e+00	0	31	104	0	60	59156
2026-01-26 01:13:54.25	182.51	1.48	-48.4	-63.8	3.6	1.51e+00	0	31	104	0	60	55791
2026-01-26 01:13:55.27	182.54	1.54	-48.6	-63.8	3.6	1.51e+00	0	31	104	0	60	56116
2026-01-26 01:13:56.27	182.58	1.60	-48.4	-63.6	3.6	1.51e+00	0	30	104	0	60	54584
2026-01-26 01:13:57.29	182.62	1.66	-48.4	-63.6	3.6	1.51e+00	0	31	104	0	60	54413
2026-01-26 01:13:58.30	182.66	1.73	-48.3	-63.5	3.6	1.51e+00	0	31	104	0	60	53998
2026-01-26 01:13:59.30	182.69	1.79	-48.3	-63.5	3.6	1.51e+00	0	31	104	0	60	53916
2026-01-26 01:14:00.31	182.73	1.85	-48.3	-63.5	3.6	1.51e+00	0	31	104	0	60	53947
2026-01-26 01:14:01.32	182.77	1.91	-48.3	-63.4	3.6	1.51e+00	0	31	104	0	60	53242
2026-01-26 01:14:02.33	182.81	1.97	-48.3	-63.4	3.5	1.51e+00	0	31	104	0	60	53314
2026-01-26 01:14:03.34	182.84	2.04	-48.3	-63.4	3.6	1.51e+00	0	31	104	0	60	53319
2026-01-26 01:14:04.35	182.88	2.10	-48.4	-63.5	3.6	1.51e+00	0	31	104	0	60	53950
2026-01-26 01:14:05.36	182.92	2.16	-48.4	-63.4	3.6	1.51e+00	0	31	104	0	60	53648
2026-01-26 01:14:06.37	182.96	2.22	-48.3	-63.5	3.6	1.51e+00	0	31	104	0	60	53813
2026-01-26 01:14:07.38	183.00	2.29	-48.4	-63.5	3.6	1.51e+00	0	31	104	0	60	53874
2026-01-26 01:14:08.39	183.04	2.35	-48.4	-63.4	3.6	1.51e+00	0	31	104	0	60	53573
2026-01-26 01:14:09.40	183.07	2.41	-48.4	-63.5	3.6	1.51e+00	0	31	104	0	60	54117
2026-01-26 01:14:10.41	183.11	2.48	-48.4	-63.5	3.6	1.51e+00	0	31	104	0	60	54150
2026-01-26 01:14:11.42	183.15	2.54	-48.4	-63.5	3.6	1.51e+00	0	31	104	0	60	54107
2026-01-26 01:14:12.43	183.19	2.60	-48.4	-63.4	3.6	1.51e+00	0	31	104	0	60	53182
2026-01-26 01:14:13.44	183.23	2.67	-48.4	-63.1	3.6	1.51e+00	0	31	104	0	60	51718
2026-01-26 01:14:14.45	183.27	2.73	-48.4	-62.6	3.6	1.51e+00	0	31	104	0	60	48509
2026-01-26 01:14:15.46	183.31	2.80	-48.3	-62.3	3.6	1.51e+00	0	31	104	0	60	46943
2026-01-26 01:14:16.47	183.35	2.86	-48.3	-62.2	3.6	1.51e+00	0	31	104	0	60	46583
2026-01-26 01:14:17.48	183.39	2.93	-48.3	-62.6	3.6	1.51e+00	0	31	104	0	60	48971
2026-01-26 01:14:18.49	183.43	2.99	-48.3	-63.0	3.6	1.51e+00	0	31	104	0	60	51272
2026-01-26 01:14:19.50	183.47	3.05	-48.3	-62.3	3.6	1.51e+00	0	31	104	0	60	47161
2026-01-26 01:14:20.51	183.51	3.12	-48.1	-58.4	4.8	1.49e+00	56	31	104	0	60	30227
2026-01-26 01:14:21.52	183.55	3.18	-47.8	-55.1	6.1	4.39e-01	90	31	0	1048576	60	20552
2026-01-26 01:14:22.53	183.59	3.25	-47.4	-53.4	8.5	1.45e-01	0	31	0	3145728	60	16890
2026-01-26 01:14:23.54	183.63	3.31	-46.7	-51.5	12.3	1.43e-03	90	31	0	4194304	60	13612
2026-01-26 01:14:24.55	183.68	3.38	-45.2	-48.2	14.8	3.00e-06	92	31	0	6291456	60	9293
2026-01-26 01:14:25.56	183.72	3.45	-45.0	-47.8	15.0	0.00e+00	92	31	0	8388608	60	8890
2026-01-26 01:14:26.57	183.76	3.51	-44.2	-46.6	15.9	0.00e+00	92	31	0	10485760	60	7739
2026-01-26 01:14:27.58	183.80	3.58	-43.3	-45.3	17.5	0.00e+00	6	31	0	12582912	60	6662
2026-01-26 01:14:28.59	183.84	3.64	-43.4	-45.5	17.4	0.00e+00	92	31	0	13631488	60	6787
2026-01-26 01:14:29.60	183.88	3.71	-43.3	-45.4	17.1	0.00e+00	20	31	0	15728640	58	7510
2026-01-26 01:14:30.61	183.93	3.78	-43.7	-45.8	16.8	0.00e+00	91	31	0	17825792	60	7045
2026-01-26 01:14:31.62	183.97	3.84	-47.5	-53.9	8.2	2.08e-01	7	31	0	19922944	60	17813
2026-01-26 01:14:32.62	184.01	3.91	-47.7	-54.5	5.5	1.51e+00	0	31	104	19922944	60	19183
2026-01-26 01:14:33.64	184.05	3.97	-44.6	-47.0	15.7	9.00e-01	92	31	104	19922944	60	8088
2026-01-26 01:14:34.64	184.10	4.04	-44.5	-46.8	16.8	3.98e-02	85	31	0	20971520	60	7865
2026-01-26 01:14:35.65	184.14	4.11	-47.0	-51.8	11.0	3.35e-02	92	31	0	23068672	60	14055
2026-01-26 01:14:36.66	184.18	4.18	-45.2	-48.0	15.0	1.50e-06	68	31	0	24117248	60	9126
2026-01-26 01:14:37.67	184.23	4.24	-44.4	-46.8	16.0	0.00e+00	92	31	0	26214400	60	7876
2026-01-26 01:14:38.68	184.27	4.31	-43.6	-45.6	17.6	0.00e+00	64	31	0	28311552	60	6910
2026-01-26 01:14:39.69	184.31	4.38	-43.8	-45.8	17.8	0.00e+00	92	31	0	30408704	60	7061
2026-01-26 01:14:40.70	184.36	4.45	-43.8	-45.9	17.2	0.00e+00	92	31	0	32505856	60	7093
2026-01-26 01:14:41.71	184.40	4.51	-43.4	-45.3	17.4	0.00e+00	92	31	0	33554432	60	6653
2026-01-26 01:14:42.72	184.45	4.58	-43.6	-45.5	17.3	0.00e+00	92	31	0	35651584	60	6848
2026-01-26 01:14:43.73	184.49	4.65	-43.5	-45.5	17.6	0.00e+00	4	31	0	37748736	60	6820
2026-01-26 01:14:44.74	184.54	4.72	-43.5	-45.5	17.3	0.00e+00	90	31	0	39845888	60	6820
2026-01-26 01:14:45.75	184.58	4.79	-43.7	-45.7	17.1	0.00e+00	0	31	0	41943040	60	6994
2026-01-26 01:14:46.76	184.63	4.86	-43.7	-45.8	17.1	0.00e+00	91	31	0	42991616	60	7034
2026-01-26 01:14:47.77	184.67	4.92	-43.7	-45.8	17.4	0.00e+00	91	31	0	45088768	60	7047
2026-01-26 01:14:48.77	184.72	4.99	-43.0	-44.8	17.9	0.00e+00	91	31	0	47185920	60	6314
2026-01-26 01:14:49.78	184.76	5.06	-43.2	-45.1	18.0	0.00e+00	92	31	0	49283072	58	7260
2026-01-26 01:14:50.79	184.81	5.13	-43.4	-45.4	17.7	0.00e+00	27	31	0	51380224	58	7529
2026-01-26 01:14:51.80	184.85	5.20	-43.6	-45.5	17.5	0.00e+00	92	31	0	52428800	60	6845
2026-01-26 01:14:52.81	184.90	5.27	-43.3	-45.1	18.1	0.00e+00	26	31	0	54525952	60	6525
2026-01-26 01:14:53.82	184.95	5.34	-43.7	-45.7	17.4	0.00e+00	92	31	0	56623104	60	6931
2026-01-26 01:14:54.83	184.99	5.41	-44.1	-46.3	16.2	0.00e+00	0	31	0	58720256	60	7437
2026-01-26 01:14:55.84	185.04	5.48	-43.6	-45.5	17.9	0.00e+00	91	31	0	60817408	60	6778
2026-01-26 01:14:56.85	185.09	5.55	-43.5	-45.4	17.6	0.00e+00	92	31	0	62914560	60	6735
2026-01-26 01:14:57.86	185.14	5.62	-43.2	-45.0	18.4	0.00e+00	92	31	0	63963136	60	6414
2026-01-26 01:14:58.87	185.18	5.69	-42.3	-43.9	19.3	0.00e+00	92	31	0	66060288	58	6344
2026-01-26 01:14:59.88	185.23	5.76	-42.4	-44.0	19.2	0.00e+00	8	31	0	68157440	58	6406
2026-01-26 01:15:00.89	185.28	5.83	-41.7	-43.1	19.7	0.00e+00	92	31	0	70254592	58	5796
2026-01-26 01:15:01.89	185.33	5.91	-42.1	-43.6	19.6	0.00e+00	71	31	0	72351744	56	6860
2026-01-26 01:15:02.90	185.38	5.98	-42.1	-43.6	19.6	0.00e+00	92	31	0	73400320	56	6865
2026-01-26 01:15:03.91	185.43	6.05	-41.7	-43.1	19.8	0.00e+00	92	31	0	75497472	56	6487
2026-01-26 01:15:04.92	185.47	6.12	-41.5	-42.8	20.5	0.00e+00	92	31	0	77594624	56	6283
2026-01-26 01:15:05.93	185.52	6.19	-41.4	-42.7	20.4	0.00e+00	92	31	0	79691776	56	6217
2026-01-26 01:15:06.94	185.57	6.26	-41.4	-42.7	20.4	0.00e+00	6	31	0	81788928	56	6208
2026-01-26 01:15:07.95	185.62	6.34	-41.4	-42.7	20.5	0.00e+00	92	31	0	82837504	56	6234
2026-01-26 01:15:08.96	185.67	6.41	-41.5	-42.8	20.3	0.00e+00	8	31	0	84934656	56	6273
2026-01-26 01:15:09.97	185.72	6.48	-41.1	-42.3	20.7	0.00e+00	92	31	0	87031808	56	5925
2026-01-26 01:15:10.98	185.77	6.56	-41.1	-42.4	20.8	0.00e+00	90	31	0	89128960	56	5985
2026-01-26 01:15:11.99	185.82	6.63	-41.1	-42.4	20.5	0.00e+00	92	31	0	91226112	56	5982
2026-01-26 01:15:13.00	185.87	6.70	-41.4	-42.7	20.4	0.00e+00	90	31	0	92274688	56	6206
2026-01-26 01:15:14.01	185.93	6.78	-41.5	-42.8	20.3	0.00e+00	66	31	0	94371840	56	6270
2026-01-26 01:15:15.02	185.98	6.85	-41.1	-42.3	20.7	0.00e+00	92	31	0	96468992	56	5948
2026-01-26 01:15:16.03	186.03	6.92	-41.2	-42.5	20.4	0.00e+00	55	31	0	98566144	56	6086
2026-01-26 01:15:17.03	186.08	7.00	-41.2	-42.4	20.8	0.00e+00	92	31	0	100663296	56	6008
2026-01-26 01:15:18.04	186.13	7.07	-41.1	-42.4	20.7	0.00e+00	16	31	0	101711872	56	5998
2026-01-26 01:15:19.06	186.18	7.15	-40.9	-42.1	21.0	0.00e+00	91	31	0	103809024	56	5791
2026-01-26 01:15:20.07	186.24	7.22	-40.6	-41.7	21.2	0.00e+00	92	31	0	105906176	54	6222
2026-01-26 01:15:21.08	186.29	7.30	-41.1	-42.4	20.6	0.00e+00	90	31	0	108003328	54	6729
2026-01-26 01:15:22.09	186.34	7.37	-41.2	-42.5	20.6	0.00e+00	91	31	0	110100480	54	6785
2026-01-26 01:15:23.10	186.40	7.45	-41.0	-42.2	20.9	0.00e+00	53	31	0	111149056	54	6570
2026-01-26 01:15:24.11	186.45	7.52	-41.0	-42.2	20.7	0.00e+00	92	31	0	113246208	54	6576
2026-01-26 01:15:25.12	186.50	7.60	-41.0	-42.3	20.7	0.00e+00	60	31	0	115343360	54	6631
2026-01-26 01:15:26.13	186.56	7.67	-41.2	-42.5	20.6	0.00e+00	92	31	0	117440512	54	6779
2026-01-26 01:15:27.14	186.61	7.75	-41.0	-42.2	20.9	0.00e+00	92	31	0	119537664	54	6603
2026-01-26 01:15:28.15	186.67	7.83	-41.3	-42.6	20.7	0.00e+00	92	31	0	120586240	54	6855
2026-01-26 01:15:29.15	186.72	7.90	-41.1	-42.3	20.9	0.00e+00	92	31	0	122683392	54	6653
2026-01-26 01:15:30.16	186.78	7.98	-41.2	-42.5	20.6	0.00e+00	92	31	0	124780544	54	6800
2026-01-26 01:15:31.17	186.83	8.06	-41.0	-42.2	20.6	0.00e+00	92	31	0	126877696	54	6603
2026-01-26 01:15:32.18	186.89	8.13	-41.0	-42.3	20.7	0.00e+00	1	31	0	128974848	54	6651
2026-01-26 01:15:33.19	186.94	8.21	-40.7	-41.9	21.1	0.00e+00	92	31	0	131072000	54	6343
2026-01-26 01:15:34.20	187.00	8.29	-40.9	-42.1	20.7	0.00e+00	67	31	0	132120576	54	6524
2026-01-26 01:15:35.21	187.06	8.37	-40.8	-42.0	20.8	0.00e+00	92	31	0	134217728	54	6457
2026-01-26 01:15:36.22	187.11	8.44	-40.7	-41.9	21.1	0.00e+00	92	31	0	136314880	54	6379
2026-01-26 01:15:37.23	187.17	8.52	-41.0	-42.2	20.9	0.00e+00	90	31	0	138412032	54	6607
2026-01-26 01:15:38.24	187.23	8.60	-40.9	-42.1	21.2	0.00e+00	92	31	0	140509184	54	6518
2026-01-26 01:15:39.25	187.28	8.68	-40.7	-41.9	21.2	0.00e+00	10	31	0	141557760	54	6371
2026-01-26 01:15:40.26	187.34	8.76	-40.7	-41.9	21.2	0.00e+00	92	31	0	143654912	54	6347
2026-01-26 01:15:41.27	187.40	8.84	-40.6	-41.7	21.5	0.00e+00	81	31	0	145752064	54	6216
2026-01-26 01:15:42.28	187.46	8.92	-40.9	-42.1	21.3	0.00e+00	92	31	0	147849216	54	6511
2026-01-26 01:15:43.29	187.52	9.00	-40.7	-41.8	21.4	0.00e+00	90	31	0	149946368	54	6304
2026-01-26 01:15:44.30	187.58	9.08	-40.8	-41.9	21.4	0.00e+00	92	31	0	150994944	54	6364
2026-01-26 01:15:45.31	187.64	9.16	-41.0	-42.2	21.2	0.00e+00	90	31	0	153092096	54	6572
2026-01-26 01:15:46.32	187.70	9.24	-40.9	-42.1	21.4	0.00e+00	8	31	0	155189248	54	6469
2026-01-26 01:15:47.32	187.76	9.32	-40.6	-41.7	21.7	0.00e+00	90	31	0	157286400	54	6184
2026-01-26 01:15:48.34	187.82	9.40	-40.4	-41.5	21.7	0.00e+00	0	31	0	159383552	54	6096
2026-01-26 01:15:49.35	187.88	9.48	-40.2	-41.3	21.7	0.00e+00	90	31	0	160432128	54	5951
2026-01-26 01:15:50.36	187.94	9.56	-40.4	-41.5	21.7	0.00e+00	92	31	0	162529280	54	6092
2026-01-26 01:15:51.36	188.00	9.64	-40.4	-41.5	21.9	0.00e+00	92	31	0	164626432	54	6081
2026-01-26 01:15:52.37	188.06	9.72	-40.5	-41.6	21.6	0.00e+00	92	31	0	166723584	54	6112
2026-01-26 01:15:53.38	188.12	9.81	-40.5	-41.6	21.7	0.00e+00	79	31	0	168820736	54	6104
2026-01-26 01:15:54.39	188.19	9.89	-40.3	-41.4	22.0	0.00e+00	92	31	0	169869312	54	5991
2026-01-26 01:15:55.40	188.25	9.97	-40.2	-41.2	22.1	0.00e+00	0	31	0	171966464	54	5877
2026-01-26 01:15:56.41	188.31	10.05	-40.2	-41.3	21.9	0.00e+00	92	31	0	174063616	54	5932
2026-01-26 01:15:57.42	188.37	10.14	-40.5	-41.6	21.7	0.00e+00	90	31	0	176160768	54	6131
2026-01-26 01:15:58.43	188.44	10.22	-40.4	-41.5	21.9	0.00e+00	92	31	0	178257920	54	6055
2026-01-26 01:15:59.44	188.50	10.30	-40.2	-41.3	21.9	0.00e+00	92	31	0	179306496	54	5923
2026-01-26 01:16:00.45	188.57	10.39	-40.3	-41.4	22.0	0.00e+00	91	31	0	181403648	54	5977
2026-01-26 01:16:01.45	188.63	10.47	-40.0	-41.1	22.2	0.00e+00	90	31	0	183500800	54	5772
2026-01-26 01:16:02.47	188.70	10.56	-40.1	-41.1	22.1	0.00e+00	8	31	0	185597952	54	5820
2026-01-26 01:16:03.47	188.76	10.64	-39.7	-40.7	22.5	0.00e+00	90	31	0	187695104	52	6189
2026-01-26 01:16:04.49	188.83	10.73	-39.8	-40.8	22.3	0.00e+00	74	31	0	188743680	52	6279
2026-01-26 01:16:05.50	188.89	10.81	-39.8	-40.8	22.3	0.00e+00	91	31	0	190840832	52	6310
2026-01-26 01:16:06.51	188.96	10.90	-39.9	-40.9	22.3	0.00e+00	92	31	0	192937984	52	6373
2026-01-26 01:16:07.52	189.03	10.98	-39.6	-40.6	22.4	0.00e+00	92	31	0	195035136	52	6160
2026-01-26 01:16:08.53	189.09	11.07	-39.5	-40.4	22.6	0.00e+00	91	31	0	197132288	52	6033
2026-01-26 01:16:09.54	189.16	11.15	-39.4	-40.4	22.6	0.00e+00	0	31	0	199229440	52	6018
2026-01-26 01:16:10.55	189.23	11.24	-39.1	-40.1	23.0	0.00e+00	90	31	0	200278016	52	5782
2026-01-26 01:16:11.56	189.30	11.33	-39.4	-40.3	22.9	0.00e+00	8	31	0	202375168	52	5949
2026-01-26 01:16:12.57	189.37	11.41	-39.4	-40.4	22.8	0.00e+00	90	31	0	204472320	52	6017
2026-01-26 01:16:13.58	189.44	11.50	-39.0	-39.9	23.1	0.00e+00	92	31	0	206569472	52	5695
2026-01-26 01:16:14.58	189.51	11.59	-39.0	-39.9	23.1	0.00e+00	90	31	0	208666624	52	5679
2026-01-26 01:16:15.59	189.58	11.67	-39.0	-39.9	23.2	0.00e+00	92	31	0	209715200	52	5686
2026-01-26 01:16:16.60	189.65	11.76	-39.1	-40.1	23.0	0.00e+00	92	31	0	211812352	52	5784
2026-01-26 01:16:17.61	189.72	11.85	-39.2	-40.1	23.2	0.00e+00	92	31	0	213909504	52	5822
2026-01-26 01:16:18.62	189.79	11.94	-39.1	-40.0	23.2	0.00e+00	0	31	0	216006656	52	5753
2026-01-26 01:16:19.63	189.86	12.03	-39.0	-39.9	23.3	0.00e+00	92	31	0	218103808	52	5667
2026-01-26 01:16:20.64	189.93	12.12	-38.8	-39.7	23.3	0.00e+00	92	31	0	219152384	52	5550
2026-01-26 01:16:21.65	190.00	12.21	-39.1	-40.0	23.1	0.00e+00	92	31	0	221249536	52	5737
2026-01-26 01:16:22.66	190.08	12.30	-39.1	-40.1	23.1	0.00e+00	90	31	0	223346688	52	5775
2026-01-26 01:16:23.67	190.15	12.39	-39.0	-39.9	23.2	0.00e+00	92	31	0	225443840	52	5667
2026-01-26 01:16:24.67	190.22	12.48	-39.1	-40.0	23.1	0.00e+00	92	31	0	227540992	52	5750
2026-01-26 01:16:25.69	190.30	12.57	-39.0	-40.0	23.3	0.00e+00	55	31	0	228589568	52	5718
2026-01-26 01:16:26.69	190.37	12.66	-39.3	-40.2	23.1	0.00e+00	92	31	0	230686720	52	5882
2026-01-26 01:16:27.70	190.45	12.75	-39.3	-40.2	23.0	0.00e+00	0	31	0	232783872	52	5888
2026-01-26 01:16:28.71	190.52	12.84	-39.1	-40.1	23.0	0.00e+00	90	31	0	234881024	52	5776
2026-01-26 01:16:29.72	190.60	12.93	-38.9	-39.8	23.3	0.00e+00	92	31	0	236978176	52	5599
2026-01-26 01:16:30.73	190.67	13.03	-38.8	-39.7	23.3	0.00e+00	90	31	0	238026752	52	5520
2026-01-26 01:16:31.74	190.75	13.12	-38.9	-39.8	23.3	0.00e+00	92	31	0	240123904	52	5595
2026-01-26 01:16:32.75	190.83	13.21	-38.8	-39.8	23.4	0.00e+00	90	31	0	242221056	52	5579
2026-01-26 01:16:33.76	190.90	13.30	-38.9	-39.8	23.3	0.00e+00	91	31	0	244318208	52	5623
2026-01-26 01:16:34.77	190.98	13.40	-39.0	-40.0	23.2	0.00e+00	0	31	0	246415360	52	5721
2026-01-26 01:16:35.78	191.06	13.49	-38.8	-39.7	23.4	0.00e+00	91	31	0	247463936	50	6238
2026-01-26 01:16:36.79	191.14	13.58	-38.7	-39.6	23.5	0.00e+00	90	31	0	249561088	50	6152
2026-01-26 01:16:37.80	191.22	13.68	-38.6	-39.5	23.6	0.00e+00	92	31	0	251658240	50	6088
2026-01-26 01:16:38.81	191.30	13.77	-38.8	-39.7	23.5	0.00e+00	91	31	0	253755392	50	6233
2026-01-26 01:16:39.82	191.38	13.87	-38.7	-39.6	23.6	0.00e+00	92	31	0	255852544	50	6147
2026-01-26 01:16:40.83	191.46	13.96	-38.8	-39.7	23.6	0.00e+00	90	31	0	256901120	50	6197
2026-01-26 01:16:41.84	191.54	14.06	-38.6	-39.5	23.6	0.00e+00	11	31	0	258998272	50	6087
2026-01-26 01:16:42.85	191.62	14.16	-38.8	-39.7	23.6	0.00e+00	92	31	0	261095424	50	6202
2026-01-26 01:16:43.86	191.71	14.25	-38.7	-39.6	23.6	0.00e+00	9	31	0	263192576	50	6108
2026-01-26 01:16:44.87	191.79	14.35	-38.5	-39.4	23.8	0.00e+00	92	31	0	265289728	50	5989
2026-01-26 01:16:45.88	191.87	14.45	-38.7	-39.6	23.6	0.00e+00	92	31	0	267386880	50	6166
2026-01-26 01:16:46.89	191.96	14.54	-38.5	-39.4	23.7	0.00e+00	90	31	0	268435456	50	5968
2026-01-26 01:16:47.90	192.04	14.64	-38.5	-39.4	23.8	0.00e+00	92	31	0	270532608	50	5991
2026-01-26 01:16:48.91	192.13	14.74	-38.5	-39.4	23.8	0.00e+00	68	31	0	272629760	50	6015
2026-01-26 01:16:49.92	192.21	14.84	-38.6	-39.5	23.8	0.00e+00	92	31	0	274726912	50	6043
2026-01-26 01:16:50.93	192.30	14.94	-38.6	-39.5	23.8	0.00e+00	2	31	0	276824064	50	6038
2026-01-26 01:16:51.94	192.39	15.03	-38.7	-39.6	23.7	0.00e+00	92	31	0	277872640	50	6134
2026-01-26 01:16:52.95	192.47	15.13	-38.7	-39.6	23.6	0.00e+00	92	31	0	279969792	50	6141
2026-01-26 01:16:53.96	192.56	15.23	-38.5	-39.3	23.8	0.00e+00	92	31	0	282066944	50	5952
2026-01-26 01:16:54.97	192.65	15.33	-38.5	-39.4	23.6	0.00e+00	92	31	0	284164096	50	5981
2026-01-26 01:16:55.98	192.74	15.43	-38.2	-39.0	24.0	0.00e+00	0	31	0	286261248	50	5755
2026-01-26 01:16:56.99	192.83	15.53	-38.3	-39.2	23.9	0.00e+00	92	31	0	287309824	50	5873
2026-01-26 01:16:58.00	192.92	15.64	-38.2	-39.1	24.0	0.00e+00	0	31	0	289406976	50	5795
2026-01-26 01:16:59.01	193.01	15.74	-38.1	-39.0	24.1	0.00e+00	92	31	0	291504128	50	5730
2026-01-26 01:17:00.02	193.10	15.84	-38.2	-39.0	24.1	0.00e+00	92	31	0	293601280	50	5744
2026-01-26 01:17:01.02	193.19	15.94	-38.2	-39.0	24.1	0.00e+00	92	31	0	295698432	50	5759
2026-01-26 01:17:02.03	193.28	16.04	-38.1	-39.0	24.1	0.00e+00	91	31	0	296747008	50	5715
2026-01-26 01:17:03.04	193.38	16.15	-38.2	-39.1	24.0	0.00e+00	50	31	0	298844160	50	5763
2026-01-26 01:17:04.05	193.47	16.25	-38.3	-39.1	23.9	0.00e+00	91	31	0	300941312	50	5801
2026-01-26 01:17:05.06	193.56	16.35	-38.1	-39.0	24.1	0.00e+00	57	31	0	303038464	50	5696
2026-01-26 01:17:06.07	193.66	16.46	-38.1	-39.0	24.1	0.00e+00	91	31	0	305135616	50	5712
2026-01-26 01:17:07.07	193.75	16.56	-38.0	-38.9	24.2	0.00e+00	23	31	0	306184192	50	5661
2026-01-26 01:17:08.08	193.85	16.66	-38.3	-39.2	24.0	0.00e+00	91	31	0	308281344	50	5835
2026-01-26 01:17:09.09	193.95	16.77	-38.2	-39.1	23.9	0.00e+00	92	31	0	310378496	50	5766
2026-01-26 01:17:10.10	194.04	16.88	-38.3	-39.2	23.9	0.00e+00	92	31	0	312475648	50	5837
2026-01-26 01:17:11.11	194.14	16.98	-38.4	-39.3	23.8	0.00e+00	92	31	0	314572800	50	5939
2026-01-26 01:17:12.12	194.24	17.09	-38.3	-39.1	24.0	0.00e+00	0	31	0	315621376	50	5828
2026-01-26 01:17:13.13	194.34	17.19	-38.5	-39.4	23.7	0.00e+00	92	31	0	317718528	50	5999
2026-01-26 01:17:14.14	194.44	17.30	-38.5	-39.4	23.8	0.00e+00	7	31	0	319815680	50	5992
2026-01-26 01:17:15.15	194.54	17.41	-38.4	-39.3	23.8	0.00e+00	92	31	0	321912832	50	5938
2026-01-26 01:17:16.16	194.64	17.52	-38.5	-39.4	23.7	0.00e+00	92	31	0	324009984	50	5984
2026-01-26 01:17:17.17	194.75	17.62	-38.4	-39.3	23.7	0.00e+00	92	31	0	325058560	50	5911
2026-01-26 01:17:18.18	194.85	17.73	-38.3	-39.2	23.9	0.00e+00	92	31	0	327155712	50	5872
2026-01-26 01:17:19.19	194.95	17.84	-38.5	-39.4	23.7	0.00e+00	0	31	0	329252864	50	6007
2026-01-26 01:17:20.20	195.06	17.95	-38.4	-39.3	23.8	0.00e+00	92	31	0	331350016	50	5916
2026-01-26 01:17:21.21	195.16	18.06	-38.6	-39.5	23.6	0.00e+00	0	31	0	333447168	50	6098
2026-01-26 01:17:22.22	195.27	18.17	-38.4	-39.3	23.7	0.00e+00	92	31	0	334495744	50	5954
2026-01-26 01:17:23.23	195.37	18.28	-38.5	-39.4	23.6	0.00e+00	92	31	0	336592896	50	6014
2026-01-26 01:17:24.23	195.48	18.39	-38.5	-39.4	23.6	0.00e+00	91	31	0	338690048	50	6017
2026-01-26 01:17:25.24	195.59	18.50	-38.6	-39.5	23.6	0.00e+00	92	31	0	340787200	50	6068
2026-01-26 01:17:26.25	195.70	18.61	-38.6	-39.5	23.6	0.00e+00	47	31	0	342884352	50	6069
2026-01-26 01:17:27.26	195.81	18.73	-38.6	-39.5	23.5	0.00e+00	92	31	0	343932928	50	6059
2026-01-26 01:17:28.27	195.92	18.84	-38.7	-39.6	23.6	0.00e+00	0	31	0	346030080	50	6111
2026-01-26 01:17:29.28	196.03	18.95	-38.8	-39.7	23.5	0.00e+00	92	31	0	348127232	50	6245
2026-01-26 01:17:30.29	196.14	19.07	-38.7	-39.6	23.5	0.00e+00	92	31	0	350224384	50	6166
2026-01-26 01:17:31.30	196.25	19.18	-38.8	-39.7	23.4	0.00e+00	92	31	0	352321536	50	6210
2026-01-26 01:17:32.31	196.37	19.29	-38.7	-39.6	23.5	0.00e+00	92	31	0	353370112	50	6115
2026-01-26 01:17:33.32	196.48	19.41	-38.8	-39.7	23.5	0.00e+00	92	31	0	355467264	50	6186
2026-01-26 01:17:34.34	196.60	19.53	-38.6	-39.5	23.6	0.00e+00	90	31	0	357564416	50	6091
2026-01-26 01:17:35.34	196.71	19.64	-38.7	-39.6	23.4	0.00e+00	0	31	0	359661568	50	6168
2026-01-26 01:17:36.35	196.83	19.76	-38.7	-39.6	23.5	0.00e+00	92	31	0	361758720	50	6170
2026-01-26 01:17:37.36	196.95	19.87	-38.8	-39.7	23.3	0.00e+00	7	31	0	363855872	50	6208
2026-01-26 01:17:38.37	197.07	19.99	-38.8	-39.7	23.5	0.00e+00	92	31	0	364904448	50	6239
2026-01-26 01:17:39.38	197.19	20.11	-38.9	-39.8	23.3	0.00e+00	92	31	0	367001600	50	6317
2026-01-26 01:17:40.39	197.31	20.22	-38.9	-39.8	23.2	0.00e+00	91	31	0	369098752	50	6304
2026-01-26 01:17:41.40	197.43	20.34	-39.0	-39.9	23.3	0.00e+00	92	31	0	371195904	50	6385
2026-01-26 01:17:42.41	197.55	20.46	-39.0	-40.0	23.4	0.00e+00	32	31	0	373293056	50	6391
2026-01-26 01:17:43.42	197.67	20.58	-39.0	-40.0	23.5	0.00e+00	90	31	0	374341632	50	6404
2026-01-26 01:17:44.43	197.80	20.70	-39.1	-40.0	23.4	0.00e+00	64	31	0	376438784	50	6443
2026-01-26 01:17:45.44	197.92	20.82	-39.2	-40.1	23.2	0.00e+00	91	31	0	378535936	50	6536
2026-01-26 01:17:46.45	198.05	20.94	-39.1	-40.0	23.3	0.00e+00	86	31	0	380633088	50	6444
2026-01-26 01:17:47.46	198.17	21.06	-38.8	-39.7	23.6	0.00e+00	92	31	0	382730240	50	6229
2026-01-26 01:17:48.47	198.30	21.18	-38.8	-39.7	23.6	0.00e+00	90	31	0	383778816	50	6176
2026-01-26 01:17:49.48	198.43	21.30	-38.9	-39.8	23.5	0.00e+00	92	31	0	385875968	50	6261
2026-01-26 01:17:50.49	198.56	21.43	-38.8	-39.7	23.7	0.00e+00	92	31	0	387973120	50	6200
2026-01-26 01:17:51.50	198.69	21.55	-38.8	-39.7	23.6	0.00e+00	8	31	0	390070272	50	6225
2026-01-26 01:17:52.51	198.82	21.67	-38.9	-39.9	23.2	0.00e+00	90	31	0	392167424	50	6342
2026-01-26 01:17:53.52	198.96	21.79	-38.8	-39.7	23.6	0.00e+00	85	31	0	393216000	50	6180
2026-01-26 01:17:54.52	199.09	21.92	-39.0	-40.0	23.4	0.00e+00	92	31	0	395313152	50	6404
2026-01-26 01:17:55.53	199.22	22.04	-38.9	-39.8	23.5	0.00e+00	92	31	0	397410304	50	6273
2026-01-26 01:17:56.54	199.36	22.17	-39.2	-40.1	23.3	0.00e+00	0	31	0	399507456	50	6516
2026-01-26 01:17:57.55	199.50	22.29	-38.8	-39.7	23.6	0.00e+00	92	31	0	401604608	50	6227
2026-01-26 01:17:58.56	199.63	22.42	-38.7	-39.6	23.7	0.00e+00	7	31	0	402653184	50	6163
2026-01-26 01:17:59.57	199.77	22.54	-38.7	-39.6	23.7	0.00e+00	92	31	0	404750336	50	6109
2026-01-26 01:18:00.58	199.91	22.67	-38.6	-39.5	23.7	0.00e+00	0	31	0	406847488	50	6044
2026-01-26 01:18:01.59	200.05	22.80	-38.6	-39.5	23.8	0.00e+00	92	31	0	408944640	50	6087
2026-01-26 01:18:02.60	200.20	22.92	-38.7	-39.6	23.7	0.00e+00	92	31	0	411041792	50	6129
2026-01-26 01:18:03.61	200.34	23.05	-38.7	-39.6	23.3	0.00e+00	90	31	0	412090368	50	6133
2026-01-26 01:18:04.62	200.49	23.18	-38.8	-39.7	23.5	0.00e+00	92	31	0	414187520	50	6245
2026-01-26 01:18:05.63	200.63	23.31	-38.8	-39.7	23.5	0.00e+00	92	31	0	416284672	50	6187
2026-01-26 01:18:06.64	200.78	23.44	-38.8	-39.7	23.6	0.00e+00	91	31	0	418381824	50	6208
2026-01-26 01:18:07.65	200.93	23.57	-38.9	-39.8	23.5	0.00e+00	50	31	0	420478976	50	6298
2026-01-26 01:18:08.65	201.07	23.70	-38.8	-39.7	23.6	0.00e+00	92	31	0	421527552	50	6197
2026-01-26 01:18:09.66	201.23	23.83	-39.0	-39.9	23.5	0.00e+00	46	31	0	423624704	50	6356
2026-01-26 01:18:10.67	201.38	23.96	-38.7	-39.6	23.6	0.00e+00	92	31	0	425721856	50	6157
2026-01-26 01:18:11.68	201.53	24.09	-38.7	-39.6	23.7	0.00e+00	92	31	0	427819008	50	6121
2026-01-26 01:18:12.69	201.68	24.22	-38.7	-39.6	23.8	0.00e+00	92	31	0	429916160	50	6160
2026-01-26 01:18:13.71	201.84	24.36	-38.6	-39.5	23.7	0.00e+00	92	31	0	432013312	50	6047
2026-01-26 01:18:14.72	202.00	24.49	-38.7	-39.6	23.8	0.00e+00	58	31	0	433061888	50	6121
2026-01-26 01:18:15.73	202.16	24.62	-38.6	-39.5	23.8	0.00e+00	92	31	0	435159040	50	6043
2026-01-26 01:18:16.73	202.31	24.76	-38.7	-39.6	23.7	0.00e+00	0	31	0	437256192	50	6138
2026-01-26 01:18:17.74	202.48	24.89	-38.4	-39.3	23.9	0.00e+00	92	31	0	439353344	50	5944
2026-01-26 01:18:18.75	202.64	25.03	-38.5	-39.4	23.8	0.00e+00	92	31	0	441450496	50	6003
2026-01-26 01:18:19.76	202.80	25.16	-38.5	-39.4	23.8	0.00e+00	8	31	0	442499072	50	6015
2026-01-26 01:18:20.77	202.97	25.30	-38.7	-39.6	23.7	0.00e+00	92	31	0	444596224	50	6106
2026-01-26 01:18:21.78	203.13	25.43	-38.9	-39.8	23.6	0.00e+00	26	31	0	446693376	50	6270
2026-01-26 01:18:22.79	203.30	25.57	-38.9	-39.8	23.6	0.00e+00	92	31	0	448790528	50	6263
2026-01-26 01:18:23.80	203.47	25.71	-39.1	-40.0	23.2	0.00e+00	0	31	0	450887680	50	6447
2026-01-26 01:18:24.81	203.64	25.84	-39.1	-40.0	23.6	0.00e+00	92	31	0	451936256	50	6410
2026-01-26 01:18:25.82	203.81	25.98	-39.2	-40.1	23.6	0.00e+00	92	31	0	454033408	50	6481
2026-01-26 01:18:26.83	203.99	26.12	-39.0	-39.9	23.6	0.00e+00	54	31	0	456130560	50	6347
2026-01-26 01:18:27.84	204.16	26.26	-38.9	-39.8	23.6	0.00e+00	92	31	0	458227712	50	6282
2026-01-26 01:18:28.86	204.34	26.40	-39.1	-40.0	23.6	0.00e+00	25	31	0	460324864	50	6417
2026-01-26 01:18:29.86	204.51	26.54	-39.2	-40.1	23.6	0.00e+00	92	31	0	461373440	50	6514
2026-01-26 01:18:30.87	204.69	26.68	-39.2	-40.1	23.5	0.00e+00	0	31	0	463470592	50	6500
2026-01-26 01:18:31.88	204.87	26.82	-39.5	-40.4	23.3	0.00e+00	92	31	0	465567744	50	6731
2026-01-26 01:18:32.89	205.06	26.96	-39.4	-40.4	23.2	0.00e+00	92	31	0	467664896	50	6719
2026-01-26 01:18:33.90	205.24	27.10	-39.5	-40.4	23.1	0.00e+00	92	31	0	469762048	50	6743
2026-01-26 01:18:34.91	205.43	27.24	-39.7	-40.7	22.8	0.00e+00	92	31	0	470810624	50	6940
2026-01-26 01:18:35.92	205.61	27.39	-39.9	-40.9	22.7	0.00e+00	7	31	0	472907776	52	6348
2026-01-26 01:18:36.93	205.80	27.53	-40.0	-41.0	22.5	0.00e+00	92	31	0	475004928	52	6462
2026-01-26 01:18:37.94	205.99	27.67	-40.4	-41.4	22.3	0.00e+00	0	31	0	477102080	52	6720
2026-01-26 01:18:38.95	206.19	27.82	-40.2	-41.2	22.5	0.00e+00	92	31	0	479199232	52	6566
2026-01-26 01:18:39.96	206.38	27.96	-40.3	-41.3	22.4	0.00e+00	2	31	0	480247808	52	6641
2026-01-26 01:18:40.97	206.58	28.10	-40.3	-41.3	22.2	0.00e+00	92	31	0	482344960	52	6673
2026-01-26 01:18:41.98	206.77	28.25	-40.3	-41.3	22.5	0.00e+00	92	31	0	484442112	52	6673
2026-01-26 01:18:42.98	206.97	28.39	-40.7	-41.7	22.1	0.00e+00	31	31	0	486539264	54	6233
2026-01-26 01:18:43.99	207.17	28.54	-40.6	-41.6	22.1	0.00e+00	91	31	0	488636416	54	6154
2026-01-26 01:18:45.00	207.37	28.68	-40.9	-42.0	21.8	0.00e+00	31	31	0	489684992	54	6399
2026-01-26 01:18:46.01	207.58	28.83	-41.0	-42.1	21.5	0.00e+00	92	31	0	491782144	54	6536
2026-01-26 01:18:47.02	207.79	28.98	-40.7	-41.7	21.9	0.00e+00	0	31	0	493879296	54	6232
2026-01-26 01:18:48.03	207.99	29.13	-40.7	-41.8	21.8	0.00e+00	92	31	0	495976448	54	6268
2026-01-26 01:18:49.04	208.20	29.27	-40.7	-41.8	21.7	0.00e+00	90	31	0	498073600	54	6291
2026-01-26 01:18:50.05	208.42	29.42	-41.0	-42.2	21.5	0.00e+00	92	31	0	500170752	54	6565
2026-01-26 01:18:51.06	208.63	29.57	-41.1	-42.2	21.5	0.00e+00	92	31	0	501219328	54	6596
2026-01-26 01:18:52.07	208.85	29.72	-41.3	-42.4	21.4	0.00e+00	62	31	0	503316480	54	6765
2026-01-26 01:18:53.08	209.06	29.87	-41.1	-42.3	21.5	0.00e+00	92	31	0	505413632	54	6625
2026-01-26 01:18:54.09	209.28	30.02	-41.3	-42.5	21.5	0.00e+00	4	31	0	507510784	54	6784
2026-01-26 01:18:55.10	209.50	30.16	-41.2	-42.4	21.5	0.00e+00	90	31	0	509607936	54	6727
2026-01-26 01:18:56.11	209.73	30.31	-41.1	-42.3	21.5	0.00e+00	90	31	0	510656512	54	6620
2026-01-26 01:18:57.12	209.95	30.47	-41.0	-42.1	21.9	0.00e+00	92	31	0	512753664	54	6479
2026-01-26 01:18:58.13	210.18	30.62	-40.7	-41.8	21.9	0.00e+00	91	31	0	514850816	54	6310
2026-01-26 01:18:59.14	210.41	30.77	-40.3	-41.3	22.3	0.00e+00	7	31	0	516947968	54	5925
2026-01-26 01:19:00.14	210.64	30.92	-40.0	-41.0	22.6	0.00e+00	93	31	0	519045120	54	5751
2026-01-26 01:19:01.15	210.88	31.07	-39.9	-40.9	22.7	0.00e+00	0	31	0	520093696	54	5661
2026-01-26 01:19:02.16	211.11	31.22	-40.2	-41.2	22.4	0.00e+00	92	31	0	522190848	54	5861
2026-01-26 01:19:03.17	211.35	31.37	-40.3	-41.4	22.3	0.00e+00	2	31	0	524288000	54	5978
2026-01-26 01:19:04.18	211.59	31.52	-40.3	-41.3	22.3	0.00e+00	92	31	0	526385152	54	5958
2026-01-26 01:19:05.19	211.83	31.68	-40.3	-41.4	22.1	0.00e+00	92	31	0	528482304	54	6000
2026-01-26 01:19:06.20	212.08	31.83	-40.4	-41.5	22.2	0.00e+00	92	31	0	529530880	54	6052
2026-01-26 01:19:07.21	212.33	31.98	-40.2	-41.3	22.3	0.00e+00	90	31	0	531628032	54	5903
2026-01-26 01:19:08.22	212.58	32.13	-40.5	-41.5	22.2	0.00e+00	25	31	0	533725184	54	6088
2026-01-26 01:19:09.23	212.83	32.29	-40.3	-41.3	22.4	0.00e+00	92	31	0	535822336	54	5925
2026-01-26 01:19:10.24	213.08	32.44	-40.3	-41.3	22.5	0.00e+00	7	31	0	537919488	54	5941
2026-01-26 01:19:11.25	213.34	32.59	-40.2	-41.2	22.5	0.00e+00	92	31	0	538968064	54	5861
2026-01-26 01:19:12.26	213.60	32.75	-40.4	-41.4	22.4	0.00e+00	91	31	0	541065216	54	5992
2026-01-26 01:19:13.27	213.86	32.90	-39.9	-40.9	22.7	0.00e+00	92	31	0	543162368	54	5662
2026-01-26 01:19:14.27	214.12	33.05	-40.1	-41.1	22.5	0.00e+00	92	31	0	545259520	52	6492
2026-01-26 01:19:15.29	214.39	33.21	-40.2	-41.2	22.5	0.00e+00	0	31	0	547356672	52	6584
2026-01-26 01:19:16.30	214.66	33.36	-40.2	-41.2	22.6	0.00e+00	91	31	0	548405248	52	6590
2026-01-26 01:19:17.31	214.93	33.52	-40.5	-41.5	22.3	0.00e+00	53	31	0	550502400	52	6842
2026-01-26 01:19:18.31	215.20	33.67	-40.2	-41.2	22.5	0.00e+00	92	31	0	552599552	52	6572
2026-01-26 01:19:19.32	215.48	33.83	-40.1	-41.0	22.5	0.00e+00	91	31	0	554696704	52	6455
2026-01-26 01:19:20.33	215.76	33.98	-40.1	-41.1	22.5	0.00e+00	91	31	0	556793856	52	6506
2026-01-26 01:19:21.34	216.04	34.13	-40.3	-41.3	22.2	0.00e+00	92	31	0	557842432	52	6675
2026-01-26 01:19:22.35	216.32	34.29	-40.3	-41.4	22.4	0.00e+00	92	31	0	559939584	52	6697
2026-01-26 01:19:23.36	216.61	34.44	-40.8	-41.9	22.2	0.00e+00	92	31	0	562036736	52	7090
2026-01-26 01:19:24.37	216.90	34.60	-40.4	-41.4	22.4	0.00e+00	0	31	0	564133888	54	6015
2026-01-26 01:19:25.38	217.19	34.75	-40.7	-41.7	22.1	0.00e+00	91	31	0	566231040	54	6237
2026-01-26 01:19:26.39	217.49	34.91	-40.6	-41.6	22.0	0.00e+00	28	31	0	568328192	54	6170
2026-01-26 01:19:27.40	217.79	35.06	-40.5	-41.5	22.2	0.00e+00	91	31	0	569376768	54	6081
2026-01-26 01:19:28.41	218.09	35.22	-40.6	-41.7	22.4	0.00e+00	91	31	0	571473920	54	6187
2026-01-26 01:19:29.42	218.39	35.37	-40.5	-41.5	22.4	0.00e+00	92	31	0	573571072	54	6056
2026-01-26 01:19:30.43	218.70	35.52	-40.1	-41.1	22.9	0.00e+00	91	31	0	575668224	54	5777
2026-01-26 01:19:31.44	219.01	35.68	-40.1	-41.1	22.5	0.00e+00	7	31	0	577765376	52	6503
2026-01-26 01:19:32.45	219.32	35.83	-39.4	-40.3	23.6	0.00e+00	92	31	0	578813952	52	5938
2026-01-26 01:19:33.46	219.63	35.98	-39.0	-39.9	23.7	0.00e+00	19	31	0	580911104	52	5668
2026-01-26 01:19:34.47	219.95	36.14	-38.6	-39.5	23.9	0.00e+00	91	31	0	583008256	50	6083
2026-01-26 01:19:35.48	220.27	36.29	-38.7	-39.6	23.8	0.00e+00	92	31	0	585105408	50	6143
2026-01-26 01:19:36.49	220.59	36.44	-38.9	-39.8	23.7	0.00e+00	92	31	0	587202560	50	6296
2026-01-26 01:19:37.50	220.92	36.60	-39.4	-40.3	23.5	0.00e+00	91	31	0	588251136	50	6663
2026-01-26 01:19:38.51	221.25	36.75	-39.9	-40.8	22.9	0.00e+00	75	31	0	590348288	52	6316
2026-01-26 01:19:39.52	221.58	36.90	-39.9	-40.9	23.0	0.00e+00	92	31	0	592445440	52	6325
2026-01-26 01:19:40.53	221.92	37.05	-39.5	-40.5	23.2	0.00e+00	0	31	0	594542592	52	6048
2026-01-26 01:19:41.54	222.26	37.20	-39.5	-40.5	23.3	0.00e+00	92	31	0	596639744	52	6055
2026-01-26 01:19:42.55	222.60	37.35	-39.3	-40.3	23.4	0.00e+00	92	31	0	597688320	52	5913
2026-01-26 01:19:43.56	222.95	37.50	-39.4	-40.4	23.4	0.00e+00	90	31	0	599785472	52	5984
2026-01-26 01:19:44.57	223.29	37.65	-39.3	-40.3	23.4	0.00e+00	92	31	0	601882624	52	5908
2026-01-26 01:19:45.58	223.64	37.80	-39.3	-40.3	23.5	0.00e+00	92	31	0	603979776	52	5909
2026-01-26 01:19:46.59	224.00	37.95	-39.7	-40.7	23.1	0.00e+00	92	31	0	606076928	52	6200
2026-01-26 01:19:47.60	224.36	38.10	-39.8	-40.7	23.1	0.00e+00	0	31	0	607125504	52	6240
2026-01-26 01:19:48.61	224.72	38.24	-40.5	-41.5	22.5	0.00e+00	92	31	0	609222656	52	6821
2026-01-26 01:19:49.61	225.08	38.39	-40.8	-41.9	21.9	0.00e+00	4	31	0	611319808	54	6326
2026-01-26 01:19:50.63	225.45	38.54	-40.8	-41.9	21.9	0.00e+00	92	31	0	613416960	54	6375
2026-01-26 01:19:51.64	225.82	38.68	-40.5	-41.6	22.2	0.00e+00	92	31	0	615514112	54	6131
2026-01-26 01:19:52.65	226.19	38.83	-40.3	-41.4	22.2	0.00e+00	92	31	0	616562688	54	5990
2026-01-26 01:19:53.66	226.57	38.97	-40.4	-41.5	22.3	0.00e+00	92	31	0	618659840	54	6043
2026-01-26 01:19:54.67	226.95	39.11	-40.3	-41.4	22.2	0.00e+00	3	31	0	620756992	54	5982
2026-01-26 01:19:55.68	227.34	39.26	-40.6	-41.7	21.8	0.00e+00	92	31	0	622854144	54	6189
2026-01-26 01:19:56.69	227.72	39.40	-41.0	-42.2	21.5	0.00e+00	61	31	0	624951296	54	6579
2026-01-26 01:19:57.69	228.11	39.54	-41.4	-42.6	21.1	0.00e+00	90	31	0	625999872	54	6907
2026-01-26 01:19:58.71	228.51	39.68	-41.3	-42.5	21.3	0.00e+00	92	31	0	628097024	54	6824
2026-01-26 01:19:59.71	228.90	39.82	-41.6	-42.8	21.3	0.00e+00	92	31	0	630194176	54	7055
2026-01-26 01:20:00.72	229.30	39.95	-40.9	-42.1	21.8	0.00e+00	92	31	0	632291328	54	6490
2026-01-26 01:20:01.73	229.70	40.09	-40.4	-41.5	22.3	0.00e+00	0	31	0	634388480	54	6040
2026-01-26 01:20:02.74	230.11	40.23	-40.4	-41.5	22.4	0.00e+00	92	31	0	636485632	54	6087
2026-01-26 01:20:03.75	230.52	40.36	-40.1	-41.2	22.6	0.00e+00	10	31	0	637534208	54	5859
2026-01-26 01:20:04.76	230.93	40.50	-40.1	-41.1	22.5	0.00e+00	92	31	0	639631360	54	5808
2026-01-26 01:20:05.76	231.35	40.63	-40.3	-41.4	22.2	0.00e+00	92	31	0	641728512	54	5981
2026-01-26 01:20:06.77	231.77	40.76	-40.6	-41.8	21.8	0.00e+00	92	31	0	643825664	54	6259
2026-01-26 01:20:07.78	232.19	40.89	-40.7	-41.9	21.8	0.00e+00	90	31	0	645922816	54	6321
2026-01-26 01:20:08.79	232.62	41.02	-40.4	-41.5	22.1	0.00e+00	92	31	0	646971392	54	6060
2026-01-26 01:20:09.80	233.05	41.14	-40.2	-41.2	22.4	0.00e+00	90	31	0	649068544	54	5888
2026-01-26 01:20:10.81	233.48	41.27	-40.1	-41.1	22.5	0.00e+00	0	31	0	651165696	54	5815
2026-01-26 01:20:11.82	233.92	41.39	-40.0	-41.1	22.5	0.00e+00	92	31	0	653262848	54	5763
2026-01-26 01:20:12.83	234.36	41.52	-40.3	-41.4	22.1	0.00e+00	0	31	0	655360000	54	6020
2026-01-26 01:20:13.84	234.80	41.64	-41.1	-42.3	21.4	0.00e+00	92	31	0	656408576	54	6666
2026-01-26 01:20:14.85	235.25	41.76	-41.7	-43.0	20.9	0.00e+00	90	31	0	658505728	54	7173
2026-01-26 01:20:15.86	235.70	41.88	-41.8	-43.1	20.7	0.00e+00	92	31	0	660602880	56	6512
2026-01-26 01:20:16.87	236.16	42.00	-41.5	-42.8	21.0	0.00e+00	92	31	0	662700032	56	6281
2026-01-26 01:20:17.88	236.61	42.11	-41.6	-42.9	20.7	0.00e+00	0	31	0	664797184	56	6379
2026-01-26 01:20:18.89	237.07	42.23	-41.4	-42.7	21.0	0.00e+00	92	31	0	665845760	56	6234
2026-01-26 01:20:19.90	237.54	42.34	-42.3	-43.7	20.3	0.00e+00	52	31	0	667942912	56	6930
2026-01-26 01:20:20.91	238.00	42.45	-42.4	-43.8	20.6	0.00e+00	92	31	0	670040064	60	5569
2026-01-26 01:20:21.92	238.47	42.56	-44.1	-45.8	18.9	0.00e+00	92	31	0	672137216	60	7011
2026-01-26 01:20:22.93	238.94	42.66	-44.2	-45.9	19.2	0.00e+00	92	31	0	674234368	60	7138
2026-01-26 01:20:23.94	239.42	42.77	-44.0	-45.6	19.3	0.00e+00	92	31	0	675282944	60	6869
2026-01-26 01:20:24.95	239.90	42.87	-42.4	-43.8	20.5	0.00e+00	0	31	0	677380096	58	6260
2026-01-26 01:20:25.96	240.38	42.97	-42.5	-43.8	20.8	0.00e+00	90	31	0	679477248	58	6263
2026-01-26 01:20:26.97	240.87	43.07	-42.2	-43.5	20.8	0.00e+00	0	31	0	681574400	58	6057
2026-01-26 01:20:27.97	241.35	43.17	-42.1	-43.3	21.2	0.00e+00	90	31	0	683671552	58	5914
2026-01-26 01:20:28.99	241.84	43.26	-42.4	-43.7	21.1	0.00e+00	87	31	0	684720128	58	6205
2026-01-26 01:20:29.99	242.33	43.36	-42.7	-43.9	20.9	0.00e+00	90	31	0	686817280	58	6380
2026-01-26 01:20:31.00	242.83	43.45	-42.0	-43.2	21.1	0.00e+00	92	31	0	688914432	58	5850
2026-01-26 01:20:32.01	243.33	43.54	-42.2	-43.5	21.0	0.00e+00	29	31	0	691011584	58	6045
2026-01-26 01:20:33.02	243.83	43.62	-41.7	-42.8	21.5	0.00e+00	92	31	0	693108736	56	6286
2026-01-26 01:20:34.03	244.33	43.71	-40.9	-42.0	22.1	0.00e+00	61	31	0	694157312	56	5718
2026-01-26 01:20:35.04	244.84	43.79	-40.5	-41.6	22.1	0.00e+00	92	31	0	696254464	54	6133
2026-01-26 01:20:36.05	245.35	43.87	-40.8	-41.9	21.8	0.00e+00	25	31	0	698351616	54	6385
2026-01-26 01:20:37.06	245.86	43.95	-41.2	-42.4	21.4	0.00e+00	90	31	0	700448768	54	6711
2026-01-26 01:20:38.07	246.38	44.02	-41.0	-42.1	22.0	0.00e+00	92	31	0	702545920	54	6468
2026-01-26 01:20:39.08	246.89	44.10	-40.7	-41.7	22.2	0.00e+00	91	31	0	704643072	54	6222
2026-01-26 01:20:40.09	247.41	44.17	-40.6	-41.7	22.5	0.00e+00	90	31	0	705691648	54	6185
2026-01-26 01:20:41.10	247.93	44.24	-40.5	-41.5	22.7	0.00e+00	59	31	0	707788800	54	6047
2026-01-26 01:20:42.11	248.46	44.30	-40.5	-41.5	22.5	0.00e+00	92	31	0	709885952	54	6057
2026-01-26 01:20:43.12	248.98	44.36	-40.5	-41.6	22.4	0.00e+00	0	31	0	711983104	54	6126
2026-01-26 01:20:44.13	249.51	44.43	-40.6	-41.6	22.1	0.00e+00	90	31	0	714080256	54	6164
2026-01-26 01:20:45.14	250.04	44.48	-41.6	-42.7	21.4	0.00e+00	92	31	0	715128832	54	6942
2026-01-26 01:20:46.15	250.57	44.54	-41.9	-43.1	21.3	0.00e+00	91	31	0	717225984	56	6485
2026-01-26 01:20:47.15	251.10	44.59	-42.1	-43.2	21.7	0.00e+00	92	31	0	719323136	56	6578
2026-01-26 01:20:48.16	251.63	44.64	-42.1	-43.3	21.5	0.00e+00	0	31	0	721420288	56	6634
2026-01-26 01:20:49.17	252.17	44.69	-41.8	-43.0	21.4	0.00e+00	92	31	0	723517440	56	6444
2026-01-26 01:20:50.18	252.71	44.73	-41.2	-42.3	21.8	0.00e+00	0	31	0	724566016	56	5946
2026-01-26 01:20:51.19	253.25	44.78	-41.4	-42.4	22.0	0.00e+00	92	31	0	726663168	56	6004
2026-01-26 01:20:52.20	253.79	44.82	-41.1	-42.2	21.8	0.00e+00	80	31	0	728760320	56	5879
2026-01-26 01:20:53.21	254.33	44.85	-41.6	-42.8	21.3	0.00e+00	92	31	0	730857472	56	6256
2026-01-26 01:20:54.22	254.87	44.89	-42.2	-43.4	21.4	0.00e+00	92	31	0	732954624	56	6750
2026-01-26 01:20:55.23	255.42	44.92	-41.2	-42.3	21.9	0.00e+00	49	31	0	734003200	56	5900
2026-01-26 01:20:56.24	255.96	44.95	-40.9	-41.9	22.3	0.00e+00	92	31	0	736100352	56	5680
2026-01-26 01:20:57.24	256.50	44.97	-40.5	-41.5	22.6	0.00e+00	34	31	0	738197504	54	6081
2026-01-26 01:20:58.25	257.05	44.99	-40.6	-41.6	22.5	0.00e+00	90	31	0	740294656	54	6137
2026-01-26 01:20:59.26	257.60	45.01	-40.6	-41.5	22.7	0.00e+00	0	31	0	742391808	54	6096
2026-01-26 01:21:00.27	258.15	45.03	-40.5	-41.5	22.6	0.00e+00	92	31	0	743440384	54	6042
2026-01-26 01:21:01.28	258.69	45.05	-40.9	-42.0	22.1	0.00e+00	90	31	0	745537536	54	6431
2026-01-26 01:21:02.29	259.24	45.06	-40.4	-41.4	22.4	0.00e+00	92	31	0	747634688	54	6014
2026-01-26 01:21:03.30	259.79	45.07	-40.9	-41.9	22.6	0.00e+00	90	31	0	749731840	54	6385
2026-01-26 01:21:04.31	260.34	45.07	-41.0	-42.1	22.6	0.00e+00	6	31	0	751828992	54	6474
2026-01-26 01:21:05.31	260.89	45.08	-40.8	-41.8	22.4	0.00e+00	92	31	0	752877568	54	6261
2026-01-26 01:21:06.32	261.44	45.08	-40.5	-41.5	22.8	0.00e+00	0	31	0	754974720	54	6091
2026-01-26 01:21:07.33	261.99	45.07	-40.0	-41.0	22.7	0.00e+00	92	31	0	757071872	54	5701
2026-01-26 01:21:08.34	262.54	45.07	-40.1	-41.1	23.1	0.00e+00	92	31	0	759169024	54	5796
2026-01-26 01:21:09.35	263.09	45.06	-39.9	-40.8	23.1	0.00e+00	92	31	0	761266176	52	6284
2026-01-26 01:21:10.36	263.64	45.05	-40.0	-41.0	23.1	0.00e+00	92	31	0	762314752	52	6416
2026-01-26 01:21:11.37	264.18	45.03	-39.8	-40.8	23.3	0.00e+00	28	31	0	764411904	52	6259
2026-01-26 01:21:12.38	264.73	45.02	-40.2	-41.2	23.0	0.00e+00	92	31	0	766509056	52	6543
2026-01-26 01:21:13.39	265.28	45.00	-40.5	-41.5	22.7	0.00e+00	0	31	0	768606208	52	6793
2026-01-26 01:21:14.40	265.83	44.98	-40.6	-41.6	22.9	0.00e+00	92	31	0	770703360	52	6883
2026-01-26 01:21:15.40	266.37	44.95	-39.9	-40.9	23.0	0.00e+00	0	31	0	771751936	54	5647
2026-01-26 01:21:16.41	266.91	44.92	-40.1	-41.0	23.0	0.00e+00	92	31	0	773849088	52	6462
2026-01-26 01:21:17.42	267.46	44.89	-39.7	-40.6	23.6	0.00e+00	90	31	0	775946240	52	6127
2026-01-26 01:21:18.43	268.00	44.86	-39.8	-40.7	23.2	0.00e+00	52	31	0	778043392	52	6240
2026-01-26 01:21:19.44	268.54	44.82	-40.4	-41.4	22.4	0.00e+00	92	31	0	780140544	52	6754
2026-01-26 01:21:20.45	269.08	44.78	-40.5	-41.5	22.4	0.00e+00	34	31	0	781189120	54	6083
2026-01-26 01:21:21.46	269.62	44.74	-40.0	-41.0	23.0	0.00e+00	92	31	0	783286272	54	5717
2026-01-26 01:21:22.47	270.16	44.70	-39.9	-40.9	22.7	0.00e+00	0	31	0	785383424	52	6336
2026-01-26 01:21:23.48	270.70	44.65	-40.2	-41.2	22.5	0.00e+00	90	31	0	787480576	52	6604
2026-01-26 01:21:24.49	271.23	44.60	-40.1	-41.0	22.7	0.00e+00	92	31	0	789577728	52	6462
2026-01-26 01:21:25.50	271.76	44.55	-39.9	-40.9	22.6	0.00e+00	86	31	0	790626304	52	6373
2026-01-26 01:21:26.51	272.29	44.49	-39.8	-40.8	22.7	0.00e+00	92	31	0	792723456	52	6288
2026-01-26 01:21:27.52	272.82	44.43	-40.3	-41.3	22.2	0.00e+00	0	31	0	794820608	52	6636
2026-01-26 01:21:28.53	273.35	44.37	-40.8	-41.9	21.7	0.00e+00	92	31	0	796917760	54	6333
2026-01-26 01:21:29.54	273.88	44.31	-42.0	-43.3	20.6	0.00e+00	0	31	0	799014912	56	6668
2026-01-26 01:21:30.55	274.40	44.25	-42.0	-43.3	20.5	0.00e+00	92	31	0	801112064	56	6678
2026-01-26 01:21:31.56	274.92	44.18	-41.3	-42.5	21.2	0.00e+00	56	31	0	802160640	56	6083
2026-01-26 01:21:32.57	275.44	44.11	-41.2	-42.4	21.5	0.00e+00	58	31	0	804257792	56	5996
2026-01-26 01:21:33.58	275.95	44.04	-41.6	-42.8	21.2	0.00e+00	92	31	0	806354944	56	6294
2026-01-26 01:21:34.59	276.47	43.96	-41.6	-42.9	21.1	0.00e+00	0	31	0	808452096	56	6323
2026-01-26 01:21:35.60	276.98	43.88	-41.5	-42.7	21.2	0.00e+00	92	31	0	810549248	56	6229
2026-01-26 01:21:36.60	277.48	43.80	-40.8	-41.9	22.0	0.00e+00	27	31	0	811597824	56	5658
2026-01-26 01:21:37.61	277.99	43.72	-40.1	-41.1	22.7	0.00e+00	91	31	0	813694976	54	5795
2026-01-26 01:21:38.62	278.49	43.64	-39.8	-40.7	23.1	0.00e+00	24	31	0	815792128	54	5527
2026-01-26 01:21:39.63	278.99	43.55	-39.4	-40.4	23.3	0.00e+00	78	31	0	817889280	52	5968
2026-01-26 01:21:40.64	279.49	43.46	-40.1	-41.1	22.4	0.00e+00	92	31	0	819986432	52	6536
2026-01-26 01:21:41.65	279.99	43.37	-40.7	-41.7	22.1	0.00e+00	60	31	0	821035008	52	6975
2026-01-26 01:21:42.66	280.48	43.28	-40.3	-41.3	22.5	0.00e+00	92	31	0	823132160	52	6664
2026-01-26 01:21:43.67	280.97	43.19	-40.2	-41.2	22.4	0.00e+00	12	31	0	825229312	52	6549
2026-01-26 01:21:44.68	281.46	43.09	-40.3	-41.3	22.6	0.00e+00	92	31	0	827326464	52	6674
2026-01-26 01:21:45.69	281.94	42.99	-40.3	-41.3	22.4	0.00e+00	67	31	0	829423616	52	6683
2026-01-26 01:21:46.70	282.43	42.89	-40.8	-41.9	22.3	0.00e+00	92	31	0	830472192	54	6323
2026-01-26 01:21:47.71	282.90	42.79	-40.8	-41.9	22.2	0.00e+00	92	31	0	832569344	54	6327
2026-01-26 01:21:48.72	283.38	42.68	-40.0	-40.9	23.1	0.00e+00	0	31	0	834666496	54	5680
2026-01-26 01:21:49.73	283.85	42.58	-39.2	-40.1	23.5	0.00e+00	91	31	0	836763648	52	5822
2026-01-26 01:21:50.74	284.32	42.47	-39.2	-40.0	23.8	0.00e+00	2	31	0	838860800	52	5753
2026-01-26 01:21:51.75	284.79	42.36	-39.7	-40.6	23.4	0.00e+00	92	31	0	839909376	52	6134
2026-01-26 01:21:52.76	285.25	42.25	-40.0	-40.9	23.2	0.00e+00	5	31	0	842006528	52	6388
2026-01-26 01:21:53.77	285.71	42.13	-39.1	-40.0	23.9	0.00e+00	92	31	0	844103680	52	5735
2026-01-26 01:21:54.78	286.16	42.02	-38.0	-38.8	24.8	0.00e+00	92	31	0	846200832	50	5618
2026-01-26 01:21:55.79	286.62	41.90	-37.8	-38.6	25.0	0.00e+00	0	31	0	848297984	48	6131
2026-01-26 01:21:56.79	287.06	41.79	-37.7	-38.5	24.9	0.00e+00	92	31	0	849346560	48	6078
2026-01-26 01:21:57.80	287.51	41.67	-38.5	-39.3	24.2	0.00e+00	32	31	0	851443712	48	6652
2026-01-26 01:21:58.81	287.95	41.54	-39.3	-40.3	23.5	0.00e+00	90	31	0	853540864	50	6624
2026-01-26 01:21:59.82	288.39	41.42	-38.6	-39.5	24.5	0.00e+00	31	31	0	855638016	50	6057
2026-01-26 01:22:00.83	288.83	41.30	-37.7	-38.5	24.9	0.00e+00	92	31	0	857735168	48	6063
2026-01-26 01:22:01.84	289.26	41.17	-37.3	-38.1	25.3	0.00e+00	92	31	0	858783744	48	5794
2026-01-26 01:22:02.85	289.69	41.05	-37.7	-38.5	24.4	0.00e+00	32	31	0	860880896	48	6074
2026-01-26 01:22:03.86	290.12	40.92	-38.7	-39.6	24.3	0.00e+00	91	31	0	862978048	48	6867
2026-01-26 01:22:04.87	290.54	40.79	-38.5	-39.4	24.2	0.00e+00	7	31	0	865075200	50	5967
2026-01-26 01:22:05.88	290.96	40.66	-38.0	-38.8	25.0	0.00e+00	92	31	0	867172352	50	5576
2026-01-26 01:22:06.89	291.38	40.53	-37.5	-38.3	25.5	0.00e+00	61	31	0	869269504	48	5901
2026-01-26 01:22:07.90	291.79	40.39	-37.7	-38.5	25.4	0.00e+00	92	31	0	870318080	48	6044
2026-01-26 01:22:08.91	292.20	40.26	-38.3	-39.1	25.0	0.00e+00	0	31	0	872415232	48	6473
2026-01-26 01:22:09.92	292.61	40.12	-38.9	-39.7	24.2	0.00e+00	92	31	0	874512384	50	6210
2026-01-26 01:22:10.93	293.01	39.99	-39.0	-39.9	24.5	0.00e+00	92	31	0	876609536	50	6326
2026-01-26 01:22:11.94	293.41	39.85	-39.0	-39.8	24.6	0.00e+00	0	31	0	878706688	50	6297
2026-01-26 01:22:12.95	293.81	39.71	-38.8	-39.6	24.7	0.00e+00	92	31	0	879755264	50	6145
2026-01-26 01:22:13.96	294.20	39.57	-39.6	-40.4	24.8	0.00e+00	12	31	0	881852416	50	6753
2026-01-26 01:22:14.97	294.59	39.43	-39.4	-40.2	23.9	0.00e+00	92	31	0	883949568	52	5882
2026-01-26 01:22:15.98	294.98	39.29	-40.2	-41.1	23.7	0.00e+00	0	31	0	886046720	52	6536
2026-01-26 01:22:16.99	295.36	39.15	-40.6	-41.5	23.4	0.00e+00	92	31	0	888143872	52	6787
2026-01-26 01:22:17.99	295.74	39.01	-40.1	-41.0	23.9	0.00e+00	92	31	0	889192448	52	6421
2026-01-26 01:22:19.00	296.11	38.87	-39.3	-40.2	24.3	0.00e+00	0	31	0	891289600	52	5832
2026-01-26 01:22:20.01	296.49	38.72	-39.8	-40.7	24.0	0.00e+00	92	31	0	893386752	52	6240
2026-01-26 01:22:21.02	296.86	38.58	-39.8	-40.7	23.5	0.00e+00	61	31	0	895483904	52	6217
2026-01-26 01:22:22.03	297.22	38.43	-40.2	-41.1	24.0	0.00e+00	92	31	0	897581056	54	5768
2026-01-26 01:22:23.03	297.58	38.29	-39.6	-40.4	23.9	0.00e+00	62	31	0	898629632	54	5371
2026-01-26 01:22:24.05	297.95	38.14	-40.2	-41.1	23.7	0.00e+00	92	31	0	900726784	52	6480
2026-01-26 01:22:25.05	298.30	38.00	-40.6	-41.5	23.9	0.00e+00	15	31	0	902823936	52	6820
2026-01-26 01:22:26.07	298.66	37.85	-40.4	-41.3	23.5	0.00e+00	92	31	0	904921088	52	6616
2026-01-26 01:22:27.08	299.01	37.70	-40.1	-41.0	23.5	0.00e+00	90	31	0	907018240	52	6452
2026-01-26 01:22:28.09	299.36	37.55	-39.7	-40.5	23.5	0.00e+00	8	31	0	908066816	52	6103
2026-01-26 01:22:29.09	299.70	37.40	-40.1	-41.0	23.4	0.00e+00	90	31	0	910163968	52	6396
2026-01-26 01:22:30.11	300.04	37.25	-40.9	-41.8	23.1	0.00e+00	2	31	0	912261120	52	7084
2026-01-26 01:22:31.12	300.38	37.10	-40.7	-41.7	23.4	0.00e+00	92	31	0	914358272	54	6213
2026-01-26 01:22:32.13	300.72	36.95	-40.4	-41.2	23.9	0.00e+00	0	31	0	916455424	54	5888
2026-01-26 01:22:33.13	301.05	36.80	-40.1	-40.9	24.3	0.00e+00	92	31	0	917504000	52	6389
2026-01-26 01:22:34.14	301.38	36.65	-39.8	-40.6	24.5	0.00e+00	92	31	0	919601152	52	6129
2026-01-26 01:22:35.15	301.70	36.50	-39.1	-39.9	24.8	0.00e+00	0	31	0	921698304	52	5678
2026-01-26 01:22:36.16	302.03	36.35	-39.8	-40.7	24.5	0.00e+00	92	31	0	923795456	52	6177
2026-01-26 01:22:37.17	302.35	36.19	-40.6	-41.5	23.6	0.00e+00	0	31	0	925892608	52	6809
2026-01-26 01:22:38.18	302.66	36.04	-40.7	-41.6	23.3	0.00e+00	91	31	0	926941184	54	6137
2026-01-26 01:22:39.19	302.98	35.89	-41.6	-42.6	23.1	0.00e+00	0	31	0	929038336	56	6145
2026-01-26 01:22:40.20	303.29	35.74	-41.0	-41.9	23.3	0.00e+00	90	31	0	931135488	54	6344
2026-01-26 01:22:41.20	303.60	35.59	-39.4	-40.2	24.6	0.00e+00	13	31	0	933232640	52	5843
2026-01-26 01:22:42.21	303.90	35.43	-39.0	-39.7	24.7	0.00e+00	92	31	0	935329792	50	6230
2026-01-26 01:22:43.22	304.20	35.28	-40.0	-40.9	24.1	0.00e+00	92	31	0	937426944	52	6319
2026-01-26 01:22:44.23	304.50	35.13	-40.5	-41.5	23.3	0.00e+00	53	31	0	938475520	54	6040
2026-01-26 01:22:45.24	304.80	34.97	-41.9	-43.0	22.5	0.00e+00	90	31	0	940572672	56	6429
2026-01-26 01:22:46.25	305.10	34.82	-42.2	-43.3	22.2	0.00e+00	62	31	0	942669824	56	6640
2026-01-26 01:22:47.26	305.39	34.67	-41.2	-42.1	23.0	0.00e+00	92	31	0	944766976	56	5806
2026-01-26 01:22:48.27	305.68	34.51	-39.9	-40.7	23.9	0.00e+00	17	31	0	946864128	52	6223
2026-01-26 01:22:49.28	305.97	34.36	-39.8	-40.7	24.1	0.00e+00	92	31	0	947912704	52	6190
2026-01-26 01:22:50.29	306.25	34.20	-39.9	-40.8	23.6	0.00e+00	92	31	0	950009856	52	6279
2026-01-26 01:22:51.30	306.53	34.05	-40.1	-41.0	23.4	0.00e+00	0	31	0	952107008	52	6448
2026-01-26 01:22:52.31	306.81	33.90	-41.1	-42.1	22.3	0.00e+00	92	31	0	954204160	54	6533
2026-01-26 01:22:53.32	307.09	33.74	-41.7	-42.8	21.7	0.00e+00	0	31	0	956301312	56	6270
2026-01-26 01:22:54.33	307.36	33.59	-41.1	-42.2	22.2	0.00e+00	91	31	0	957349888	56	5868
2026-01-26 01:22:55.34	307.63	33.44	-39.7	-40.6	23.4	0.00e+00	0	31	0	959447040	54	5464
2026-01-26 01:22:56.35	307.90	33.28	-38.5	-39.3	24.4	0.00e+00	92	31	0	961544192	50	5914
2026-01-26 01:22:57.36	308.17	33.13	-38.0	-38.8	24.9	0.00e+00	92	31	0	963641344	50	5606
2026-01-26 01:22:58.36	308.43	32.98	-39.4	-40.2	24.4	0.00e+00	7	31	0	965738496	50	6611
2026-01-26 01:22:59.37	308.69	32.83	-40.5	-41.4	23.1	0.00e+00	91	31	0	966787072	52	6745
2026-01-26 01:23:00.38	308.95	32.67	-41.5	-42.7	21.5	0.00e+00	0	31	0	968884224	54	6957
2026-01-26 01:23:01.39	309.20	32.52	-43.1	-44.4	20.7	0.00e+00	92	31	0	970981376	56	7581
2026-01-26 01:23:02.40	309.46	32.37	-41.8	-42.8	22.1	0.00e+00	30	31	0	973078528	58	5617
2026-01-26 01:23:03.41	309.71	32.21	-40.3	-41.2	23.3	0.00e+00	90	31	0	975175680	54	5861
2026-01-26 01:23:04.42	309.96	32.06	-39.3	-40.1	24.1	0.00e+00	76	31	0	976224256	52	5810
2026-01-26 01:23:05.43	310.21	31.91	-39.5	-40.3	24.2	0.00e+00	48	31	0	978321408	52	5906
2026-01-26 01:23:06.44	310.45	31.76	-40.2	-41.0	24.2	0.00e+00	92	31	0	980418560	52	6421
2026-01-26 01:23:07.45	310.69	31.61	-40.8	-41.7	23.2	0.00e+00	2	31	0	982515712	54	6209
2026-01-26 01:23:08.46	310.94	31.46	-42.0	-43.1	22.0	0.00e+00	92	31	0	984612864	54	7271
2026-01-26 01:23:09.47	311.17	31.31	-42.3	-43.5	21.2	0.00e+00	2	31	0	985661440	56	6829
2026-01-26 01:23:10.48	311.41	31.15	-42.7	-43.9	21.1	0.00e+00	90	31	0	987758592	58	6357
2026-01-26 01:23:11.49	311.64	31.00	-42.2	-43.3	22.3	0.00e+00	20	31	0	989855744	56	6617
2026-01-26 01:23:12.50	311.88	30.85	-40.1	-41.0	23.3	0.00e+00	18	31	0	991952896	54	5728
2026-01-26 01:23:13.51	312.11	30.70	-39.2	-40.1	24.1	0.00e+00	92	31	0	994050048	52	5764
2026-01-26 01:23:14.52	312.33	30.55	-38.3	-39.1	24.2	0.00e+00	0	31	0	995098624	50	5808
2026-01-26 01:23:15.53	312.56	30.40	-39.0	-39.8	24.4	0.00e+00	90	31	0	997195776	50	6256
2026-01-26 01:23:16.54	312.78	30.26	-40.0	-40.9	23.5	0.00e+00	0	31	0	999292928	52	6380
2026-01-26 01:23:17.54	313.00	30.11	-41.4	-42.4	22.5	0.00e+00	90	31	0	1001390080	54	6739
2026-01-26 01:23:18.56	313.22	29.96	-42.1	-43.3	21.5	0.00e+00	0	31	0	1003487232	56	6616
2026-01-26 01:23:19.56	313.44	29.81	-42.2	-43.3	21.9	0.00e+00	92	31	0	1004535808	56	6658
2026-01-26 01:23:20.58	313.66	29.66	-41.6	-42.6	22.8	0.00e+00	92	31	0	1006632960	56	6151
2026-01-26 01:23:21.58	313.87	29.52	-40.0	-40.8	24.1	0.00e+00	0	31	0	1008730112	54	5616
2026-01-26 01:23:22.59	314.08	29.37	-39.0	-39.8	24.3	0.00e+00	90	31	0	1010827264	52	5583
2026-01-26 01:23:23.60	314.29	29.22	-38.7	-39.4	25.0	0.00e+00	0	31	0	1012924416	50	6018
2026-01-26 01:23:24.61	314.50	29.08	-38.8	-39.6	24.9	0.00e+00	90	31	0	1013972992	50	6144
2026-01-26 01:23:25.63	314.71	28.93	-39.0	-39.8	24.5	0.00e+00	51	31	0	1016070144	50	6279
2026-01-26 01:23:26.63	314.91	28.78	-40.3	-41.2	23.5	0.00e+00	92	31	0	1018167296	52	6588
2026-01-26 01:23:27.64	315.11	28.64	-41.0	-42.0	22.7	0.00e+00	42	31	0	1020264448	54	6419
2026-01-26 01:23:28.65	315.31	28.49	-41.9	-43.0	22.3	0.00e+00	28	31	0	1022361600	56	6447
2026-01-26 01:23:29.66	315.51	28.35	-41.9	-43.0	22.2	0.00e+00	92	31	0	1023410176	56	6425
2026-01-26 01:23:30.67	315.71	28.21	-40.8	-41.8	23.2	0.00e+00	0	31	0	1025507328	56	5582
2026-01-26 01:23:31.68	315.91	28.06	-40.1	-41.0	23.4	0.00e+00	90	31	0	1027604480	54	5739
2026-01-26 01:23:32.69	316.10	27.92	-39.2	-40.0	24.0	0.00e+00	53	31	0	1029701632	52	5742
2026-01-26 01:23:33.70	316.29	27.78	-39.0	-39.8	24.5	0.00e+00	92	31	0	1031798784	50	6255
2026-01-26 01:23:34.71	316.48	27.63	-39.3	-40.1	24.5	0.00e+00	0	31	0	1033895936	50	6521
2026-01-26 01:23:35.72	316.67	27.49	-39.3	-40.2	24.2	0.00e+00	0	31	0	1034944512	50	6547
2026-01-26 01:23:36.73	316.86	27.35	-39.9	-40.7	23.7	0.00e+00	90	31	0	1037041664	52	6238
2026-01-26 01:23:37.74	317.05	27.21	-39.8	-40.7	23.1	0.00e+00	0	31	0	1039138816	52	6229
2026-01-26 01:23:38.75	317.23	27.07	-40.2	-41.2	22.7	0.00e+00	92	31	0	1041235968	52	6542
2026-01-26 01:23:39.76	317.41	26.93	-40.6	-41.6	22.6	0.00e+00	5	31	0	1043333120	52	6879
2026-01-26 01:23:40.77	317.59	26.79	-40.3	-41.3	22.7	0.00e+00	92	31	0	1044381696	54	5947
2026-01-26 01:23:41.78	317.77	26.65	-40.0	-41.0	23.2	0.00e+00	0	31	0	1046478848	54	5707
2026-01-26 01:23:42.79	317.95	26.51	-39.2	-40.0	24.0	0.00e+00	38	31	0	1048576000	52	5751
2026-01-26 01:23:43.80	318.13	26.37	-38.5	-39.3	24.3	0.00e+00	91	31	0	1050673152	50	5958
2026-01-26 01:23:44.81	318.30	26.23	-38.8	-39.6	24.7	0.00e+00	29	31	0	1052770304	50	6122
2026-01-26 01:23:45.82	318.48	26.10	-38.7	-39.5	24.8	0.00e+00	92	31	0	1053818880	50	6061
2026-01-26 01:23:46.83	318.65	25.96	-38.7	-39.5	24.7	0.00e+00	57	31	0	1055916032	50	6056
2026-01-26 01:23:47.84	318.82	25.82	-38.9	-39.7	24.4	0.00e+00	92	31	0	1058013184	50	6199
2026-01-26 01:23:48.85	318.99	25.68	-38.5	-39.3	24.5	0.00e+00	59	31	0	1060110336	50	5934
2026-01-26 01:23:49.86	319.16	25.55	-39.2	-40.0	24.0	0.00e+00	92	31	0	1062207488	50	6448
2026-01-26 01:23:50.87	319.32	25.41	-40.2	-41.1	23.6	0.00e+00	92	31	0	1063256064	52	6488
2026-01-26 01:23:51.88	319.49	25.28	-40.4	-41.4	23.4	0.00e+00	7	31	0	1065353216	52	6715
2026-01-26 01:23:52.89	319.65	25.14	-40.8	-41.7	23.1	0.00e+00	92	31	0	1067450368	54	6227
2026-01-26 01:23:53.90	319.81	25.01	-40.6	-41.5	23.2	0.00e+00	0	31	0	1069547520	54	6091
2026-01-26 01:23:54.91	319.97	24.88	-40.4	-41.3	23.1	0.00e+00	92	31	0	1071644672	54	5948
2026-01-26 01:23:55.92	320.13	24.74	-40.4	-41.3	23.4	0.00e+00	5	31	0	1073741824	54	5925
2026-01-26 01:23:56.93	320.29	24.61	-40.1	-41.0	23.7	0.00e+00	92	31	0	1074790400	54	5711
2026-01-26 01:23:57.94	320.45	24.48	-39.1	-40.0	24.0	0.00e+00	0	31	0	1076887552	52	5716
2026-01-26 01:23:58.95	320.61	24.35	-39.9	-40.8	23.9	0.00e+00	0	31	0	1078984704	52	6255
2026-01-26 01:23:59.96	320.76	24.21	-39.1	-39.9	23.8	0.00e+00	92	31	0	1081081856	52	5687
2026-01-26 01:24:00.97	320.91	24.08	-39.1	-40.0	24.2	0.00e+00	0	31	0	1083179008	52	5722
2026-01-26 01:24:01.97	321.06	23.95	-39.1	-39.9	24.1	0.00e+00	92	31	0	1084227584	50	6390
2026-01-26 01:24:02.98	321.21	23.82	-39.2	-40.0	24.0	0.00e+00	0	31	0	1086324736	50	6444
2026-01-26 01:24:03.99	321.36	23.69	-39.3	-40.2	24.1	0.00e+00	82	31	0	1088421888	50	6558
2026-01-26 01:24:05.00	321.51	23.57	-39.5	-40.3	24.1	0.00e+00	0	31	0	1090519040	52	5950
2026-01-26 01:24:06.01	321.66	23.44	-39.1	-39.9	24.0	0.00e+00	30	31	0	1091567616	52	5683
2026-01-26 01:24:07.02	321.81	23.31	-40.0	-40.9	23.4	0.00e+00	91	31	0	1093664768	52	6352
2026-01-26 01:24:08.03	321.95	23.18	-40.3	-41.2	23.7	0.00e+00	51	31	0	1095761920	52	6598
2026-01-26 01:24:09.05	322.10	23.05	-39.7	-40.6	23.5	0.00e+00	92	31	0	1097859072	52	6161
2026-01-26 01:24:10.05	322.24	22.93	-39.8	-40.7	23.8	0.00e+00	29	31	0	1099956224	52	6221
2026-01-26 01:24:11.06	322.38	22.80	-39.1	-40.0	23.7	0.00e+00	91	31	0	1102053376	52	5740
2026-01-26 01:24:12.07	322.52	22.67	-39.3	-40.2	23.6	0.00e+00	54	31	0	1103101952	52	5852
2026-01-26 01:24:13.08	322.66	22.55	-39.1	-40.0	23.5	0.00e+00	90	31	0	1105199104	52	5740
2026-01-26 01:24:14.09	322.80	22.42	-39.4	-40.3	23.8	0.00e+00	75	31	0	1107296256	52	5929
2026-01-26 01:24:15.10	322.93	22.30	-39.5	-40.4	23.8	0.00e+00	54	31	0	1109393408	52	6012
2026-01-26 01:24:16.11	323.07	22.17	-39.2	-40.1	23.8	0.00e+00	92	31	0	1111490560	52	5810
2026-01-26 01:24:17.12	323.21	22.05	-39.1	-40.0	23.8	0.00e+00	2	31	0	1112539136	52	5719
2026-01-26 01:24:18.13	323.34	21.93	-39.2	-40.1	23.7	0.00e+00	91	31	0	1114636288	52	5809
2026-01-26 01:24:19.14	323.47	21.80	-39.3	-40.2	23.6	0.00e+00	2	31	0	1116733440	52	5884
2026-01-26 01:24:20.14	323.60	21.68	-39.1	-40.0	23.5	0.00e+00	38	31	0	1118830592	52	5751
2026-01-26 01:24:21.15	323.74	21.56	-39.9	-40.8	23.2	0.00e+00	0	31	0	1120927744	52	6308
2026-01-26 01:24:22.16	323.87	21.44	-40.1	-41.0	23.0	0.00e+00	0	31	0	1121976320	52	6464
2026-01-26 01:24:23.18	324.00	21.32	-40.3	-41.2	22.9	0.00e+00	92	31	0	1124073472	54	5884
2026-01-26 01:24:24.19	324.12	21.20	-40.4	-41.4	22.6	0.00e+00	28	31	0	1126170624	54	5990
2026-01-26 01:24:25.20	324.25	21.08	-40.3	-41.3	22.8	0.00e+00	92	31	0	1128267776	54	5928
2026-01-26 01:24:26.21	324.38	20.96	-40.4	-41.4	22.6	0.00e+00	0	31	0	1130364928	54	5966
2026-01-26 01:24:27.22	324.50	20.84	-41.0	-42.0	22.5	0.00e+00	90	31	0	1131413504	54	6437
2026-01-26 01:24:28.23	324.63	20.72	-40.8	-41.8	22.6	0.00e+00	0	31	0	1133510656	54	6286
2026-01-26 01:24:29.23	324.75	20.60	-41.7	-42.7	22.2	0.00e+00	90	31	0	1135607808	54	6976
2026-01-26 01:24:30.24	324.87	20.48	-40.9	-41.9	22.4	0.00e+00	90	31	0	1137704960	54	6378
2026-01-26 01:24:31.25	324.99	20.37	-40.4	-41.4	23.0	0.00e+00	28	31	0	1139802112	54	5988
2026-01-26 01:24:32.26	325.11	20.25	-40.3	-41.2	22.9	0.00e+00	90	31	0	1140850688	54	5860
2026-01-26 01:24:33.27	325.23	20.13	-40.2	-41.1	23.1	0.00e+00	54	31	0	1142947840	54	5815
2026-01-26 01:24:34.28	325.35	20.02	-40.8	-41.8	22.8	0.00e+00	92	31	0	1145044992	54	6262
2026-01-26 01:24:35.29	325.47	19.90	-40.1	-41.0	23.2	0.00e+00	2	31	0	1147142144	54	5722
2026-01-26 01:24:36.30	325.59	19.78	-40.4	-41.4	23.2	0.00e+00	88	31	0	1149239296	54	5965
2026-01-26 01:24:37.31	325.70	19.67	-40.5	-41.5	23.2	0.00e+00	77	31	0	1150287872	54	6045
2026-01-26 01:24:38.32	325.82	19.56	-40.0	-41.0	23.2	0.00e+00	0	31	0	1152385024	54	5704
2026-01-26 01:24:39.33	325.93	19.44	-39.7	-40.7	23.3	0.00e+00	92	31	0	1154482176	52	6178
2026-01-26 01:24:40.34	326.05	19.33	-40.1	-41.1	23.3	0.00e+00	0	31	0	1156579328	52	6474
2026-01-26 01:24:41.35	326.16	19.21	-40.4	-41.3	23.2	0.00e+00	91	31	0	1158676480	52	6642
2026-01-26 01:24:42.36	326.27	19.10	-40.4	-41.3	22.9	0.00e+00	2	31	0	1159725056	54	5956
2026-01-26 01:24:43.37	326.39	18.99	-40.7	-41.7	22.9	0.00e+00	18	31	0	1161822208	54	6202
2026-01-26 01:24:44.37	326.50	18.88	-40.0	-41.0	22.9	0.00e+00	0	31	0	1163919360	54	5734
2026-01-26 01:24:45.38	326.61	18.77	-40.0	-40.9	23.0	0.00e+00	0	31	0	1166016512	54	5668
2026-01-26 01:24:46.39	326.71	18.65	-39.8	-40.7	23.1	0.00e+00	92	31	0	1168113664	54	5535
2026-01-26 01:24:47.40	326.82	18.54	-39.7	-40.7	23.2	0.00e+00	0	31	0	1170210816	52	6180
2026-01-26 01:24:48.40	326.93	18.43	-39.7	-40.6	23.3	0.00e+00	90	31	0	1171259392	52	6141
2026-01-26 01:24:49.41	327.04	18.32	-39.3	-40.2	23.5	0.00e+00	0	31	0	1173356544	52	5879
2026-01-26 01:24:50.42	327.14	18.21	-39.4	-40.3	23.4	0.00e+00	92	31	0	1175453696	52	5930
2026-01-26 01:24:51.43	327.25	18.11	-39.5	-40.4	23.5	0.00e+00	0	31	0	1177550848	52	5995
2026-01-26 01:24:52.44	327.35	18.00	-39.3	-40.2	23.7	0.00e+00	26	31	0	1179648000	52	5853
2026-01-26 01:24:53.45	327.46	17.89	-38.9	-39.8	23.6	0.00e+00	92	31	0	1180696576	52	5593
2026-01-26 01:24:54.46	327.56	17.78	-39.0	-39.9	23.5	0.00e+00	28	31	0	1182793728	52	5674
2026-01-26 01:24:55.47	327.66	17.67	-39.4	-40.3	23.4	0.00e+00	92	31	0	1184890880	52	5911
2026-01-26 01:24:56.48	327.77	17.56	-39.7	-40.6	23.2	0.00e+00	0	31	0	1186988032	52	6131
2026-01-26 01:24:57.49	327.87	17.46	-39.9	-40.9	23.0	0.00e+00	90	31	0	1189085184	52	6336
2026-01-26 01:24:58.50	327.97	17.35	-39.9	-40.9	23.0	0.00e+00	0	31	0	1190133760	52	6338
2026-01-26 01:24:59.51	328.07	17.25	-40.1	-41.1	22.7	0.00e+00	0	31	0	1192230912	52	6475
2026-01-26 01:25:00.52	328.17	17.14	-40.5	-41.5	22.5	0.00e+00	2	31	0	1194328064	52	6790
