passes_logs/2026/01/26/R4.6S_Anadyr/R4.6S_Anadyr__20260126_171553_FENGYUN_3D_rec.log

#Pass ID: 20260126_171553_FENGYUN 3D
#Satellite: FENGYUN 3D
#Configuration: FENGYUN 3D
#almurnet v.1.7.20251203
#Start time: 2026-01-26 17:15:56

#Version: 2.2.20231116
#Station: R4.6S_Anadyr
#Location: 177.4865 lon 64.73178 lat
#TLE: 1 43010U 17072A   26025.99795741 -.00000136  00000+0 -42313-4 0  9999
#TLE: 2 43010  98.9962 357.9855 0002515  89.6991 270.4472 14.19699257424818

#Time	Az	El	Level	Level2	SNR	BER	BlckErr	Temp	State	Recorded	gain1	gain2
2026-01-26 17:15:56.50	22.06	0.15	-49.4	-64.3	3.5	1.51e+00	0	26	0	0	60	59428
2026-01-26 17:15:57.51	22.06	0.21	-49.4	-61.4	3.6	8.45e-01	0	27	104	0	60	42530
2026-01-26 17:15:58.52	22.05	0.27	-49.3	-61.4	3.6	8.46e-01	0	27	104	0	60	42265
2026-01-26 17:15:59.53	22.04	0.33	-49.3	-61.4	3.6	8.46e-01	0	27	104	0	60	42238
2026-01-26 17:16:00.54	22.03	0.39	-49.2	-61.3	3.6	8.47e-01	0	27	104	0	60	42101
2026-01-26 17:16:01.55	22.03	0.46	-49.2	-61.3	3.6	8.46e-01	0	27	104	0	60	42176
2026-01-26 17:16:02.56	22.02	0.52	-49.2	-61.3	3.6	8.45e-01	0	27	104	0	60	42195
2026-01-26 17:16:03.57	22.01	0.58	-49.2	-61.3	3.6	8.46e-01	0	27	104	0	60	42204
2026-01-26 17:16:04.58	22.00	0.64	-49.2	-61.4	3.6	8.45e-01	0	27	104	0	60	42446
2026-01-26 17:16:05.59	22.00	0.70	-49.2	-61.4	3.6	8.46e-01	0	27	104	0	60	42399
2026-01-26 17:16:06.60	21.99	0.76	-49.2	-61.4	3.6	8.46e-01	0	27	104	0	60	42415
2026-01-26 17:16:07.61	21.98	0.82	-49.1	-61.3	3.6	8.46e-01	0	27	104	0	60	42089
2026-01-26 17:16:08.62	21.97	0.89	-49.2	-61.3	3.6	8.44e-01	0	27	104	0	60	42185
2026-01-26 17:16:09.63	21.96	0.95	-49.2	-61.3	3.6	8.46e-01	0	27	104	0	60	42134
2026-01-26 17:16:10.64	21.96	1.01	-49.1	-61.3	3.6	8.46e-01	0	27	104	0	60	41838
2026-01-26 17:16:11.65	21.95	1.07	-49.1	-61.2	3.6	8.45e-01	0	27	104	0	60	41632
2026-01-26 17:16:12.66	21.94	1.13	-49.1	-61.2	3.6	8.45e-01	0	27	104	0	60	41376
2026-01-26 17:16:13.67	21.93	1.20	-49.0	-61.1	3.6	8.44e-01	0	27	104	0	60	40991
2026-01-26 17:16:14.68	21.92	1.26	-48.9	-61.0	3.6	8.46e-01	0	27	104	0	60	40558
2026-01-26 17:16:15.69	21.92	1.32	-48.8	-60.9	3.6	8.45e-01	0	27	104	0	60	39926
2026-01-26 17:16:16.70	21.91	1.39	-48.7	-60.8	3.6	8.45e-01	0	27	104	0	60	39588
2026-01-26 17:16:17.71	21.90	1.45	-48.6	-60.6	3.6	8.45e-01	0	27	104	0	60	38895
2026-01-26 17:16:18.72	21.89	1.51	-48.4	-60.6	3.6	8.45e-01	0	27	104	0	60	38580
2026-01-26 17:16:19.73	21.88	1.57	-48.2	-60.3	3.6	8.45e-01	0	27	104	0	60	37409
2026-01-26 17:16:20.74	21.87	1.64	-48.0	-60.1	3.6	8.44e-01	0	27	104	0	60	36629
2026-01-26 17:16:21.75	21.86	1.70	-47.9	-59.5	3.6	8.45e-01	0	27	104	0	60	34269
2026-01-26 17:16:22.75	21.86	1.76	-47.9	-59.4	3.6	8.45e-01	0	27	104	0	60	33823
2026-01-26 17:16:23.76	21.85	1.83	-47.9	-59.5	3.6	8.46e-01	0	27	104	0	60	34196
2026-01-26 17:16:24.77	21.84	1.89	-47.9	-59.6	3.6	8.46e-01	0	27	104	0	60	34566
2026-01-26 17:16:25.78	21.83	1.96	-47.9	-59.8	3.6	8.44e-01	0	27	104	0	60	35147
2026-01-26 17:16:26.79	21.82	2.02	-47.9	-59.8	3.6	8.46e-01	0	28	104	0	60	35517
2026-01-26 17:16:27.80	21.81	2.09	-47.9	-59.9	3.6	8.45e-01	0	27	104	0	60	35632
2026-01-26 17:16:28.81	21.80	2.15	-47.9	-60.0	3.6	8.46e-01	0	28	104	0	60	36111
2026-01-26 17:16:29.82	21.79	2.21	-47.9	-60.0	3.6	8.45e-01	0	28	104	0	60	36064
2026-01-26 17:16:30.83	21.78	2.28	-47.9	-60.0	3.6	8.44e-01	0	28	104	0	60	36096
2026-01-26 17:16:31.84	21.77	2.34	-47.9	-59.9	3.6	8.46e-01	0	28	104	0	60	35603
2026-01-26 17:16:32.85	21.76	2.41	-47.9	-59.5	3.6	8.46e-01	0	28	104	0	60	34092
2026-01-26 17:16:33.86	21.76	2.48	-47.8	-59.1	3.6	8.45e-01	0	28	104	0	60	32444
2026-01-26 17:16:34.87	21.75	2.54	-47.8	-58.1	3.6	8.44e-01	0	28	104	0	60	29192
2026-01-26 17:16:35.88	21.74	2.61	-47.6	-57.0	3.7	8.44e-01	0	28	104	0	60	25661
2026-01-26 17:16:36.89	21.73	2.67	-47.6	-55.9	3.7	8.40e-01	0	28	0	0	60	22531
2026-01-26 17:16:37.89	21.72	2.74	-47.6	-56.7	4.0	8.37e-01	0	28	104	0	60	24620
2026-01-26 17:16:38.90	21.71	2.80	-47.6	-56.7	3.9	8.42e-01	0	28	104	0	60	24579
2026-01-26 17:16:39.91	21.70	2.87	-47.7	-57.5	3.6	8.39e-01	0	28	104	0	60	27154
2026-01-26 17:16:40.92	21.69	2.94	-47.8	-58.2	3.6	8.44e-01	0	28	104	0	60	29389
2026-01-26 17:16:41.93	21.68	3.00	-47.6	-57.0	3.9	8.45e-01	0	28	104	0	60	25594
2026-01-26 17:16:42.94	21.67	3.07	-47.4	-54.0	4.4	8.29e-01	0	28	0	0	60	18147
2026-01-26 17:16:43.95	21.66	3.14	-46.5	-50.9	7.1	4.09e-01	0	28	0	2097152	60	12641
2026-01-26 17:16:44.96	21.65	3.20	-45.6	-49.0	9.7	3.27e-02	0	28	0	8388608	60	10179
2026-01-26 17:16:45.97	21.64	3.27	-44.4	-46.9	12.2	1.23e-03	0	28	0	13631488	60	8044
2026-01-26 17:16:46.97	21.63	3.34	-42.9	-44.7	14.4	9.10e-06	0	28	0	19922944	60	6239
2026-01-26 17:16:47.98	21.62	3.40	-41.4	-42.9	16.3	0.00e+00	0	28	0	25165824	56	6326
2026-01-26 17:16:48.99	21.61	3.47	-41.4	-42.8	16.3	0.00e+00	0	28	0	30408704	56	6288
2026-01-26 17:16:50.01	21.60	3.54	-40.0	-41.2	17.7	0.00e+00	0	28	0	36700160	52	6597
2026-01-26 17:16:51.02	21.59	3.61	-39.7	-40.8	18.3	0.00e+00	0	28	0	41943040	52	6292
2026-01-26 17:16:52.03	21.58	3.68	-39.5	-40.6	18.4	0.00e+00	0	28	0	48234496	52	6155
2026-01-26 17:16:53.04	21.56	3.75	-39.5	-40.6	18.5	0.00e+00	0	28	0	53477376	52	6155
2026-01-26 17:16:54.05	21.55	3.81	-40.9	-42.3	16.4	0.00e+00	0	28	0	59768832	52	7443
2026-01-26 17:16:55.06	21.54	3.88	-44.4	-47.0	10.7	0.00e+00	0	28	0	65011712	60	8071
2026-01-26 17:16:56.07	21.53	3.95	-44.3	-46.7	11.6	1.92e-04	0	28	0	70254592	60	7801
2026-01-26 17:16:57.08	21.52	4.02	-47.4	-55.2	3.6	0.00e+00	0	28	0	76546048	60	20773
2026-01-26 17:16:58.09	21.51	4.09	-38.9	-39.9	6.1	8.20e-01	0	28	104	76546048	54	5063
2026-01-26 17:16:59.10	21.50	4.16	-47.9	-59.7	3.6	6.17e-05	0	28	104	76546048	60	34762
2026-01-26 17:17:00.11	21.49	4.23	-38.0	-38.9	6.1	8.18e-01	0	28	104	76546048	50	5691
2026-01-26 17:17:01.11	21.48	4.30	-36.8	-37.7	21.5	0.00e+00	0	28	0	76546048	48	5515
2026-01-26 17:17:02.12	21.47	4.37	-37.1	-37.9	21.2	0.00e+00	0	28	0	82837504	48	5691
2026-01-26 17:17:03.13	21.45	4.44	-36.5	-37.3	21.6	0.00e+00	0	28	0	88080384	46	5960
2026-01-26 17:17:04.14	21.44	4.51	-36.5	-37.3	21.9	0.00e+00	0	28	0	94371840	46	5954
2026-01-26 17:17:05.15	21.43	4.58	-36.3	-37.2	21.6	0.00e+00	0	28	0	99614720	46	5831
2026-01-26 17:17:06.16	21.42	4.65	-36.7	-37.5	21.5	0.00e+00	0	28	0	104857600	46	6068
2026-01-26 17:17:07.17	21.41	4.72	-36.4	-37.2	21.8	0.00e+00	0	28	0	111149056	46	5894
2026-01-26 17:17:08.18	21.40	4.79	-36.3	-37.1	22.1	0.00e+00	0	28	0	116391936	46	5785
2026-01-26 17:17:09.19	21.38	4.86	-35.7	-36.5	22.6	0.00e+00	0	28	0	122683392	44	6083
2026-01-26 17:17:10.20	21.37	4.93	-35.6	-36.4	22.6	0.00e+00	0	28	0	127926272	44	5999
2026-01-26 17:17:11.21	21.36	5.01	-35.8	-36.6	22.6	0.00e+00	0	28	0	133169152	44	6128
2026-01-26 17:17:12.21	21.35	5.08	-35.4	-36.1	23.0	0.00e+00	0	28	0	139460608	44	5817
2026-01-26 17:17:13.22	21.34	5.15	-35.4	-36.2	22.9	0.00e+00	0	28	0	144703488	44	5848
2026-01-26 17:17:14.23	21.32	5.22	-35.4	-36.1	23.0	0.00e+00	0	28	0	150994944	44	5791
2026-01-26 17:17:15.24	21.31	5.29	-35.4	-36.1	23.0	0.00e+00	0	28	0	156237824	44	5817
2026-01-26 17:17:16.25	21.30	5.37	-35.2	-35.9	23.1	0.00e+00	0	28	0	161480704	44	5693
2026-01-26 17:17:17.26	21.29	5.44	-35.7	-36.5	22.7	0.00e+00	0	28	0	167772160	44	6072
2026-01-26 17:17:18.27	21.27	5.51	-35.3	-36.0	23.1	0.00e+00	0	28	0	173015040	44	5757
2026-01-26 17:17:19.28	21.26	5.58	-35.3	-36.0	23.1	0.00e+00	0	28	0	179306496	44	5746
2026-01-26 17:17:20.29	21.25	5.66	-35.4	-36.1	23.0	0.00e+00	0	28	0	184549376	44	5799
2026-01-26 17:17:21.30	21.24	5.73	-35.5	-36.2	22.9	0.00e+00	0	28	0	190840832	44	5854
2026-01-26 17:17:22.31	21.22	5.81	-35.2	-35.9	23.2	0.00e+00	0	28	0	196083712	44	5684
2026-01-26 17:17:23.31	21.21	5.88	-35.1	-35.8	23.3	0.00e+00	0	28	0	201326592	44	5613
2026-01-26 17:17:24.32	21.20	5.95	-35.2	-35.9	23.3	0.00e+00	0	28	0	207618048	44	5659
2026-01-26 17:17:25.33	21.18	6.03	-35.1	-35.8	23.2	0.00e+00	0	28	0	212860928	44	5614
2026-01-26 17:17:26.34	21.17	6.10	-35.1	-35.9	23.4	0.00e+00	0	28	0	219152384	44	5647
2026-01-26 17:17:27.35	21.16	6.18	-35.2	-35.9	23.4	0.00e+00	0	28	0	224395264	44	5664
2026-01-26 17:17:28.35	21.14	6.25	-35.0	-35.7	23.5	0.00e+00	0	28	0	229638144	44	5504
2026-01-26 17:17:29.36	21.13	6.33	-34.9	-35.6	23.5	0.00e+00	0	28	0	235929600	44	5500
2026-01-26 17:17:30.37	21.12	6.40	-34.9	-35.6	23.6	0.00e+00	0	28	0	241172480	42	6138
2026-01-26 17:17:31.38	21.10	6.48	-35.1	-35.8	23.4	0.00e+00	0	28	0	247463936	42	6298
2026-01-26 17:17:32.39	21.09	6.55	-35.3	-36.1	23.2	0.00e+00	0	28	0	252706816	42	6498
2026-01-26 17:17:33.40	21.08	6.63	-34.9	-35.7	23.6	0.00e+00	0	28	0	257949696	42	6186
2026-01-26 17:17:34.41	21.06	6.71	-35.2	-36.0	23.3	0.00e+00	0	28	0	264241152	42	6413
2026-01-26 17:17:35.42	21.05	6.78	-35.2	-36.0	23.3	0.00e+00	0	28	0	269484032	42	6409
2026-01-26 17:17:36.43	21.03	6.86	-35.2	-36.0	23.4	0.00e+00	0	28	0	275775488	42	6412
2026-01-26 17:17:37.44	21.02	6.94	-35.3	-36.0	23.4	0.00e+00	0	28	0	281018368	42	6431
2026-01-26 17:17:38.45	21.01	7.01	-35.1	-35.8	23.5	0.00e+00	0	28	0	287309824	42	6270
2026-01-26 17:17:39.45	20.99	7.09	-35.0	-35.7	23.6	0.00e+00	0	28	0	292552704	42	6190
2026-01-26 17:17:40.46	20.98	7.17	-34.9	-35.6	23.7	0.00e+00	0	28	0	297795584	42	6164
2026-01-26 17:17:41.47	20.96	7.25	-34.6	-35.3	24.0	0.00e+00	0	28	0	304087040	42	5940
2026-01-26 17:17:42.48	20.95	7.32	-34.8	-35.5	23.8	0.00e+00	0	28	0	309329920	42	6099
2026-01-26 17:17:43.49	20.93	7.40	-34.8	-35.5	23.7	0.00e+00	0	28	0	315621376	42	6062
2026-01-26 17:17:44.50	20.92	7.48	-34.7	-35.4	24.0	0.00e+00	0	28	0	320864256	42	6013
2026-01-26 17:17:45.51	20.90	7.56	-35.1	-35.8	23.5	0.00e+00	0	28	0	326107136	42	6283
2026-01-26 17:17:46.52	20.89	7.64	-34.6	-35.3	24.0	0.00e+00	0	28	0	332398592	42	5950
2026-01-26 17:17:47.53	20.87	7.72	-34.7	-35.4	23.9	0.00e+00	0	28	0	337641472	42	5990
2026-01-26 17:17:48.54	20.86	7.80	-34.7	-35.4	24.0	0.00e+00	0	28	0	343932928	42	5972
2026-01-26 17:17:49.55	20.84	7.88	-34.5	-35.2	24.1	0.00e+00	0	28	0	349175808	42	5853
2026-01-26 17:17:50.56	20.82	7.96	-34.5	-35.2	24.0	0.00e+00	0	28	0	354418688	42	5880
2026-01-26 17:17:51.57	20.81	8.04	-34.5	-35.2	24.1	0.00e+00	0	28	0	360710144	42	5863
2026-01-26 17:17:52.58	20.79	8.12	-34.7	-35.5	24.0	0.00e+00	0	28	0	365953024	42	6045
2026-01-26 17:17:53.59	20.78	8.20	-34.7	-35.4	24.1	0.00e+00	0	28	0	372244480	42	6006
2026-01-26 17:17:54.60	20.76	8.28	-34.3	-35.0	24.3	0.00e+00	0	28	0	377487360	42	5702
2026-01-26 17:17:55.61	20.74	8.36	-34.3	-34.9	24.4	0.00e+00	0	28	0	383778816	42	5694
2026-01-26 17:17:56.62	20.73	8.44	-34.3	-35.0	24.3	0.00e+00	0	28	0	389021696	42	5712
2026-01-26 17:17:57.62	20.71	8.53	-34.1	-34.8	24.5	0.00e+00	0	28	0	395313152	42	5595
2026-01-26 17:17:58.63	20.70	8.61	-34.5	-35.2	24.1	0.00e+00	0	28	0	400556032	42	5887
2026-01-26 17:17:59.64	20.68	8.69	-34.4	-35.1	24.3	0.00e+00	0	28	0	405798912	42	5792
2026-01-26 17:18:00.65	20.66	8.77	-34.3	-35.0	24.3	0.00e+00	0	28	0	412090368	42	5743
2026-01-26 17:18:01.66	20.64	8.86	-34.3	-34.9	24.3	0.00e+00	0	28	0	417333248	42	5686
2026-01-26 17:18:02.67	20.63	8.94	-34.2	-34.9	24.5	0.00e+00	0	28	0	423624704	42	5666
2026-01-26 17:18:03.68	20.61	9.02	-34.2	-34.9	24.4	0.00e+00	0	28	0	428867584	42	5640
2026-01-26 17:18:04.69	20.59	9.11	-34.4	-35.1	24.3	0.00e+00	0	28	0	434110464	42	5775
2026-01-26 17:18:05.70	20.58	9.19	-34.4	-35.1	24.2	0.00e+00	0	28	0	440401920	42	5765
2026-01-26 17:18:06.71	20.56	9.27	-34.3	-35.0	24.4	0.00e+00	0	28	0	445644800	42	5725
2026-01-26 17:18:07.72	20.54	9.36	-34.1	-34.8	24.5	0.00e+00	0	28	0	451936256	42	5616
2026-01-26 17:18:08.73	20.52	9.44	-34.0	-34.8	24.6	0.00e+00	0	28	0	457179136	42	5573
2026-01-26 17:18:09.74	20.51	9.53	-34.3	-35.0	24.4	0.00e+00	0	28	0	462422016	42	5722
2026-01-26 17:18:10.75	20.49	9.62	-34.2	-34.9	24.5	0.00e+00	0	28	0	468713472	42	5656
2026-01-26 17:18:11.75	20.47	9.70	-34.1	-34.8	24.6	0.00e+00	0	28	0	473956352	42	5571
2026-01-26 17:18:12.76	20.45	9.79	-33.7	-34.3	25.0	0.00e+00	0	28	0	480247808	40	5961
2026-01-26 17:18:13.77	20.43	9.87	-34.0	-34.7	24.7	0.00e+00	0	28	0	485490688	40	6227
2026-01-26 17:18:14.79	20.41	9.96	-33.8	-34.5	24.9	0.00e+00	0	28	0	491782144	40	6040
2026-01-26 17:18:15.79	20.39	10.05	-33.7	-34.3	25.0	0.00e+00	0	28	0	497025024	40	5949
2026-01-26 17:18:16.80	20.38	10.13	-33.9	-34.6	24.7	0.00e+00	0	28	0	502267904	40	6130
2026-01-26 17:18:17.81	20.36	10.22	-34.0	-34.6	24.8	0.00e+00	0	28	0	508559360	40	6152
2026-01-26 17:18:18.82	20.34	10.31	-33.9	-34.6	24.8	0.00e+00	0	28	0	513802240	40	6108
2026-01-26 17:18:19.83	20.32	10.40	-34.0	-34.7	24.8	0.00e+00	0	28	0	520093696	40	6228
2026-01-26 17:18:20.84	20.30	10.49	-33.7	-34.4	24.9	0.00e+00	0	28	0	525336576	40	5995
2026-01-26 17:18:21.85	20.28	10.58	-34.0	-34.6	24.6	0.00e+00	0	28	0	530579456	40	6159
2026-01-26 17:18:22.86	20.26	10.66	-33.9	-34.5	24.7	0.00e+00	0	28	0	536870912	40	6090
2026-01-26 17:18:23.87	20.24	10.75	-33.8	-34.5	24.9	0.00e+00	0	28	0	542113792	40	6047
2026-01-26 17:18:24.88	20.22	10.84	-33.6	-34.3	25.0	0.00e+00	0	28	0	548405248	40	5928
2026-01-26 17:18:25.89	20.20	10.93	-34.0	-34.7	24.7	0.00e+00	0	28	0	553648128	40	6175
2026-01-26 17:18:26.90	20.18	11.02	-34.1	-34.7	24.6	0.00e+00	0	28	0	558891008	40	6243
2026-01-26 17:18:27.91	20.16	11.12	-33.9	-34.6	24.7	0.00e+00	0	28	0	565182464	40	6171
2026-01-26 17:18:28.91	20.14	11.21	-33.7	-34.4	24.9	0.00e+00	0	28	0	570425344	40	6002
2026-01-26 17:18:29.92	20.12	11.30	-33.5	-34.2	25.2	0.00e+00	0	28	0	576716800	40	5877
2026-01-26 17:18:30.93	20.10	11.39	-33.5	-34.1	25.3	0.00e+00	0	28	0	581959680	40	5817
2026-01-26 17:18:31.94	20.08	11.48	-33.5	-34.2	25.1	0.00e+00	0	28	0	588251136	40	5859
2026-01-26 17:18:32.95	20.05	11.57	-33.6	-34.2	25.1	0.00e+00	0	28	0	593494016	40	5892
2026-01-26 17:18:33.96	20.03	11.67	-33.5	-34.1	25.1	0.00e+00	0	28	0	598736896	40	5827
2026-01-26 17:18:34.96	20.01	11.76	-33.5	-34.2	25.2	0.00e+00	0	28	0	605028352	40	5871
2026-01-26 17:18:35.97	19.99	11.85	-33.5	-34.1	25.2	0.00e+00	0	28	0	610271232	40	5824
2026-01-26 17:18:36.98	19.97	11.95	-33.6	-34.3	25.1	0.00e+00	0	28	0	616562688	40	5928
2026-01-26 17:18:37.99	19.95	12.04	-33.6	-34.3	25.1	0.00e+00	0	28	0	621805568	40	5900
2026-01-26 17:18:39.00	19.92	12.14	-33.6	-34.3	25.0	0.00e+00	0	28	0	627048448	40	5928
2026-01-26 17:18:40.01	19.90	12.23	-33.5	-34.2	25.1	0.00e+00	0	28	0	633339904	40	5871
2026-01-26 17:18:41.01	19.88	12.32	-33.5	-34.2	25.2	0.00e+00	0	28	0	638582784	40	5888
2026-01-26 17:18:42.02	19.86	12.42	-33.6	-34.3	25.1	0.00e+00	0	28	0	644874240	40	5947
2026-01-26 17:18:43.03	19.83	12.52	-33.7	-34.4	25.1	0.00e+00	0	28	0	650117120	40	6001
2026-01-26 17:18:44.04	19.81	12.61	-33.6	-34.3	25.2	0.00e+00	0	28	0	655360000	40	5926
2026-01-26 17:18:45.05	19.79	12.71	-33.7	-34.4	25.0	0.00e+00	0	28	0	661651456	40	6002
2026-01-26 17:18:46.06	19.76	12.81	-33.6	-34.3	25.0	0.00e+00	0	28	0	666894336	40	5910
2026-01-26 17:18:47.07	19.74	12.90	-33.5	-34.2	25.2	0.00e+00	0	28	0	673185792	40	5873
2026-01-26 17:18:48.08	19.72	13.00	-33.5	-34.2	25.2	0.00e+00	0	28	0	678428672	40	5879
2026-01-26 17:18:49.09	19.69	13.10	-33.5	-34.1	25.3	0.00e+00	0	28	0	684720128	40	5819
2026-01-26 17:18:50.10	19.67	13.20	-33.5	-34.1	25.2	0.00e+00	0	28	0	689963008	40	5821
2026-01-26 17:18:51.11	19.64	13.30	-33.5	-34.2	25.1	0.00e+00	0	28	0	695205888	40	5883
2026-01-26 17:18:52.12	19.62	13.40	-33.5	-34.2	25.2	0.00e+00	0	28	0	701497344	40	5876
2026-01-26 17:18:53.13	19.59	13.50	-33.6	-34.2	25.2	0.00e+00	0	28	0	706740224	40	5884
2026-01-26 17:18:54.14	19.57	13.60	-33.6	-34.2	25.1	0.00e+00	0	28	0	713031680	40	5889
2026-01-26 17:18:55.14	19.54	13.70	-33.5	-34.1	25.3	0.00e+00	0	28	0	718274560	40	5809
2026-01-26 17:18:56.15	19.52	13.80	-33.4	-34.1	25.4	0.00e+00	0	28	0	723517440	40	5815
2026-01-26 17:18:57.16	19.49	13.90	-33.5	-34.1	25.3	0.00e+00	0	28	0	729808896	40	5815
2026-01-26 17:18:58.17	19.47	14.00	-33.5	-34.1	25.3	0.00e+00	0	28	0	735051776	40	5820
2026-01-26 17:18:59.18	19.44	14.11	-33.5	-34.2	25.2	0.00e+00	0	28	0	741343232	40	5842
2026-01-26 17:19:00.19	19.42	14.21	-33.4	-34.1	25.4	0.00e+00	0	28	0	746586112	40	5769
2026-01-26 17:19:01.19	19.39	14.31	-33.4	-34.1	25.4	0.00e+00	0	28	0	751828992	40	5792
2026-01-26 17:19:02.21	19.36	14.42	-33.4	-34.1	25.4	0.00e+00	0	28	0	758120448	40	5809
2026-01-26 17:19:03.22	19.34	14.52	-33.3	-33.9	25.5	0.00e+00	0	28	0	763363328	40	5683
2026-01-26 17:19:04.22	19.31	14.62	-33.1	-33.8	25.5	0.00e+00	0	28	0	769654784	40	5604
2026-01-26 17:19:05.23	19.28	14.73	-33.2	-33.9	25.6	0.00e+00	0	28	0	774897664	40	5646
2026-01-26 17:19:06.24	19.25	14.83	-33.2	-33.9	25.7	0.00e+00	0	28	0	781189120	40	5634
2026-01-26 17:19:07.25	19.23	14.94	-33.1	-33.8	25.6	0.00e+00	0	28	0	786432000	40	5583
2026-01-26 17:19:08.26	19.20	15.05	-33.1	-33.7	25.7	0.00e+00	0	28	0	791674880	40	5560
2026-01-26 17:19:09.27	19.17	15.15	-33.0	-33.7	25.7	0.00e+00	0	28	0	797966336	40	5545
2026-01-26 17:19:10.28	19.14	15.26	-33.0	-33.7	25.7	0.00e+00	0	28	0	803209216	40	5536
2026-01-26 17:19:11.29	19.11	15.37	-32.8	-33.5	25.9	0.00e+00	0	28	0	809500672	40	5400
2026-01-26 17:19:12.30	19.08	15.48	-32.8	-33.5	25.9	0.00e+00	0	28	0	814743552	38	6044
2026-01-26 17:19:13.31	19.06	15.59	-32.8	-33.4	25.9	0.00e+00	0	28	0	819986432	38	6023
2026-01-26 17:19:14.32	19.03	15.70	-32.5	-33.2	26.1	0.00e+00	0	28	0	826277888	38	5872
2026-01-26 17:19:15.33	19.00	15.81	-32.7	-33.4	26.1	0.00e+00	0	28	0	831520768	38	5974
2026-01-26 17:19:16.34	18.97	15.92	-32.5	-33.1	26.3	0.00e+00	0	28	0	837812224	38	5818
2026-01-26 17:19:17.35	18.94	16.03	-32.5	-33.2	26.1	0.00e+00	0	28	0	843055104	38	5837
2026-01-26 17:19:18.36	18.91	16.14	-32.6	-33.2	26.3	0.00e+00	0	28	0	848297984	38	5882
2026-01-26 17:19:19.37	18.88	16.25	-32.4	-33.0	26.4	0.00e+00	0	28	0	854589440	38	5731
2026-01-26 17:19:20.38	18.84	16.36	-32.4	-33.1	26.3	0.00e+00	0	28	0	859832320	38	5772
2026-01-26 17:19:21.39	18.81	16.47	-32.4	-33.1	26.2	0.00e+00	0	28	0	866123776	38	5765
2026-01-26 17:19:22.40	18.78	16.59	-32.7	-33.4	26.0	0.00e+00	0	28	0	871366656	38	5979
2026-01-26 17:19:23.41	18.75	16.70	-32.6	-33.3	26.2	0.00e+00	0	28	0	877658112	38	5917
2026-01-26 17:19:24.41	18.72	16.82	-32.2	-32.8	26.4	0.00e+00	0	28	0	882900992	38	5609
2026-01-26 17:19:25.42	18.69	16.93	-32.1	-32.8	26.6	0.00e+00	0	28	0	889192448	38	5579
2026-01-26 17:19:26.43	18.65	17.05	-32.2	-32.9	26.5	0.00e+00	0	28	0	894435328	38	5639
2026-01-26 17:19:27.44	18.62	17.16	-32.0	-32.6	26.7	0.00e+00	0	28	0	899678208	38	5486
2026-01-26 17:19:28.45	18.59	17.28	-32.0	-32.6	26.6	0.00e+00	0	28	0	905969664	38	5489
2026-01-26 17:19:29.46	18.55	17.39	-31.9	-32.5	26.8	0.00e+00	0	28	0	911212544	38	5420
2026-01-26 17:19:30.47	18.52	17.51	-31.9	-32.5	26.8	0.00e+00	0	28	0	917504000	38	5424
2026-01-26 17:19:31.48	18.49	17.63	-31.8	-32.4	26.8	0.00e+00	0	28	0	922746880	38	5369
2026-01-26 17:19:32.49	18.45	17.75	-31.7	-32.4	26.9	0.00e+00	0	28	0	927989760	38	5345
2026-01-26 17:19:33.50	18.42	17.87	-31.7	-32.3	27.0	0.00e+00	0	28	0	934281216	36	5948
2026-01-26 17:19:34.50	18.38	17.99	-31.6	-32.2	27.1	0.00e+00	0	28	0	939524096	36	5865
2026-01-26 17:19:35.51	18.35	18.11	-31.6	-32.2	27.1	0.00e+00	0	28	0	944766976	36	5870
2026-01-26 17:19:36.52	18.31	18.23	-31.5	-32.1	27.1	0.00e+00	0	28	0	951058432	36	5776
2026-01-26 17:19:37.53	18.28	18.35	-31.5	-32.1	27.2	0.00e+00	0	28	0	956301312	36	5806
2026-01-26 17:19:38.53	18.24	18.47	-31.3	-32.0	27.3	0.00e+00	0	28	0	962592768	36	5697
2026-01-26 17:19:39.54	18.21	18.59	-31.3	-31.9	27.3	0.00e+00	0	28	0	967835648	36	5676
2026-01-26 17:19:40.55	18.17	18.72	-31.2	-31.8	27.3	0.00e+00	0	28	0	974127104	36	5614
2026-01-26 17:19:41.56	18.13	18.84	-31.3	-31.9	27.4	0.00e+00	0	28	0	979369984	36	5667
2026-01-26 17:19:42.57	18.09	18.97	-31.2	-31.8	27.3	0.00e+00	0	28	0	985661440	36	5584
2026-01-26 17:19:43.58	18.06	19.09	-31.2	-31.8	27.4	0.00e+00	0	28	0	990904320	36	5579
2026-01-26 17:19:44.59	18.02	19.22	-31.3	-31.9	27.3	0.00e+00	0	28	0	996147200	36	5657
2026-01-26 17:19:45.60	17.98	19.34	-31.3	-31.9	27.3	0.00e+00	0	28	0	1002438656	36	5635
2026-01-26 17:19:46.61	17.94	19.47	-31.3	-31.9	27.3	0.00e+00	0	28	0	1007681536	36	5665
2026-01-26 17:19:47.62	17.90	19.60	-31.4	-32.0	27.2	0.00e+00	0	28	0	1013972992	36	5737
2026-01-26 17:19:48.63	17.86	19.73	-31.4	-32.0	27.3	0.00e+00	0	28	0	1019215872	36	5723
2026-01-26 17:19:49.64	17.82	19.85	-31.4	-32.0	27.1	0.00e+00	0	28	0	1024458752	36	5757
2026-01-26 17:19:50.65	17.78	19.98	-31.5	-32.1	27.2	0.00e+00	0	28	0	1030750208	36	5790
2026-01-26 17:19:51.66	17.74	20.11	-31.5	-32.1	27.2	0.00e+00	0	28	0	1035993088	36	5798
2026-01-26 17:19:52.67	17.70	20.25	-31.6	-32.3	27.1	0.00e+00	0	28	0	1042284544	36	5923
2026-01-26 17:19:53.68	17.66	20.38	-31.5	-32.2	27.1	0.00e+00	0	28	0	1047527424	36	5857
2026-01-26 17:19:54.69	17.62	20.51	-31.6	-32.3	27.0	0.00e+00	0	28	0	1052770304	36	5910
2026-01-26 17:19:55.69	17.57	20.64	-31.7	-32.3	27.0	0.00e+00	0	28	0	1059061760	36	5955
2026-01-26 17:19:56.70	17.53	20.78	-31.7	-32.3	27.0	0.00e+00	0	28	0	1064304640	36	5940
2026-01-26 17:19:57.71	17.49	20.91	-31.8	-32.4	27.0	0.00e+00	0	28	0	1070596096	36	5996
2026-01-26 17:19:58.72	17.45	21.04	-31.5	-32.1	27.1	0.00e+00	0	28	0	1075838976	36	5815
2026-01-26 17:19:59.73	17.40	21.18	-31.6	-32.3	27.0	0.00e+00	0	28	0	1082130432	36	5919
2026-01-26 17:20:00.74	17.36	21.32	-31.5	-32.1	27.2	0.00e+00	0	28	0	1087373312	36	5808
2026-01-26 17:20:01.75	17.31	21.45	-31.5	-32.1	27.1	0.00e+00	0	28	0	1092616192	36	5791
2026-01-26 17:20:02.76	17.27	21.59	-31.4	-32.1	27.2	0.00e+00	0	28	0	1098907648	36	5783
2026-01-26 17:20:03.77	17.22	21.73	-31.3	-31.9	27.3	0.00e+00	0	28	0	1104150528	36	5672
2026-01-26 17:20:04.78	17.18	21.87	-31.2	-31.9	27.4	0.00e+00	0	28	0	1110441984	36	5637
2026-01-26 17:20:05.79	17.13	22.01	-31.1	-31.7	27.5	0.00e+00	0	28	0	1115684864	36	5524
2026-01-26 17:20:06.80	17.08	22.15	-31.1	-31.7	27.4	0.00e+00	0	28	0	1120927744	36	5518
2026-01-26 17:20:07.81	17.04	22.29	-30.9	-31.5	27.7	0.00e+00	0	28	0	1127219200	36	5381
2026-01-26 17:20:08.82	16.99	22.44	-30.9	-31.5	27.7	0.00e+00	0	28	0	1132462080	36	5435
2026-01-26 17:20:09.83	16.94	22.58	-30.9	-31.5	27.6	0.00e+00	0	28	0	1138753536	36	5407
2026-01-26 17:20:10.83	16.89	22.72	-30.7	-31.3	27.8	0.00e+00	0	28	0	1143996416	34	5938
2026-01-26 17:20:11.84	16.84	22.87	-30.8	-31.5	27.7	0.00e+00	0	28	0	1149239296	34	6045
2026-01-26 17:20:12.85	16.79	23.01	-30.6	-31.2	27.9	0.00e+00	0	28	0	1155530752	34	5857
2026-01-26 17:20:13.86	16.74	23.16	-30.4	-31.0	28.0	0.00e+00	0	28	0	1160773632	34	5718
2026-01-26 17:20:14.87	16.69	23.31	-30.4	-31.0	28.1	0.00e+00	0	28	0	1167065088	34	5745
2026-01-26 17:20:15.88	16.64	23.45	-30.5	-31.0	28.0	0.00e+00	0	28	0	1172307968	34	5755
2026-01-26 17:20:16.89	16.59	23.60	-30.5	-31.1	28.0	0.00e+00	0	28	0	1178599424	34	5780
2026-01-26 17:20:17.90	16.53	23.75	-30.6	-31.2	28.0	0.00e+00	0	29	0	1183842304	34	5853
2026-01-26 17:20:18.91	16.48	23.90	-30.5	-31.1	27.9	0.00e+00	0	28	0	1189085184	34	5783
2026-01-26 17:20:19.92	16.43	24.05	-30.5	-31.1	28.0	0.00e+00	0	28	0	1195376640	34	5823
2026-01-26 17:20:20.93	16.37	24.21	-30.6	-31.2	27.8	0.00e+00	0	28	0	1200619520	34	5859
2026-01-26 17:20:21.93	16.32	24.36	-30.6	-31.2	27.9	0.00e+00	0	28	0	1206910976	34	5879
2026-01-26 17:20:22.94	16.26	24.51	-30.7	-31.3	27.8	0.00e+00	0	29	0	1212153856	34	5958
2026-01-26 17:20:23.96	16.21	24.67	-30.7	-31.2	27.8	0.00e+00	0	28	0	1217396736	34	5891
2026-01-26 17:20:24.96	16.15	24.82	-30.8	-31.4	27.8	0.00e+00	0	29	0	1223688192	34	5968
2026-01-26 17:20:25.97	16.10	24.98	-30.6	-31.3	28.0	0.00e+00	0	28	0	1228931072	34	5898
2026-01-26 17:20:26.98	16.04	25.14	-30.7	-31.3	27.9	0.00e+00	0	29	0	1235222528	34	5946
2026-01-26 17:20:27.99	15.98	25.30	-30.6	-31.2	27.8	0.00e+00	0	29	0	1240465408	34	5881
2026-01-26 17:20:29.00	15.92	25.46	-30.5	-31.1	28.0	0.00e+00	0	28	0	1245708288	34	5821
2026-01-26 17:20:30.00	15.86	25.61	-30.5	-31.1	28.0	0.00e+00	0	28	0	1251999744	34	5825
2026-01-26 17:20:31.01	15.80	25.78	-30.4	-31.0	28.1	0.00e+00	0	28	0	1257242624	34	5759
2026-01-26 17:20:32.02	15.74	25.94	-30.6	-31.2	27.9	0.00e+00	0	28	0	1263534080	34	5877
2026-01-26 17:20:33.03	15.68	26.10	-30.4	-31.0	28.1	0.00e+00	0	28	0	1268776960	34	5705
2026-01-26 17:20:34.04	15.62	26.27	-30.4	-31.0	28.2	0.00e+00	0	28	0	1275068416	34	5718
2026-01-26 17:20:35.05	15.55	26.43	-30.2	-30.8	28.2	0.00e+00	0	28	0	1280311296	34	5597
2026-01-26 17:20:36.06	15.49	26.60	-30.2	-30.7	28.3	0.00e+00	0	28	0	1285554176	34	5546
2026-01-26 17:20:37.07	15.43	26.76	-30.2	-30.8	28.2	0.00e+00	0	28	0	1291845632	34	5626
2026-01-26 17:20:38.08	15.36	26.93	-30.1	-30.7	28.3	0.00e+00	0	28	0	1297088512	34	5564
2026-01-26 17:20:39.09	15.30	27.10	-30.2	-30.8	28.1	0.00e+00	0	28	0	1303379968	34	5622
2026-01-26 17:20:40.10	15.23	27.27	-30.2	-30.8	28.2	0.00e+00	0	28	0	1308622848	34	5588
2026-01-26 17:20:41.11	15.16	27.44	-30.3	-30.9	28.1	0.00e+00	0	28	0	1313865728	34	5672
2026-01-26 17:20:42.11	15.10	27.61	-30.4	-30.9	28.1	0.00e+00	0	28	0	1320157184	34	5688
2026-01-26 17:20:43.12	15.03	27.79	-30.4	-31.0	28.1	0.00e+00	0	28	0	1325400064	34	5753
2026-01-26 17:20:44.13	14.96	27.96	-30.4	-31.0	28.1	0.00e+00	0	28	0	1331691520	34	5756
2026-01-26 17:20:45.14	14.89	28.13	-30.5	-31.1	28.1	0.00e+00	0	28	0	1336934400	34	5783
2026-01-26 17:20:46.15	14.82	28.31	-30.4	-31.1	28.1	0.00e+00	0	28	0	1342177280	34	5763
2026-01-26 17:20:47.16	14.74	28.49	-30.4	-31.0	28.0	0.00e+00	0	28	0	1348468736	34	5751
2026-01-26 17:20:48.17	14.67	28.67	-30.6	-31.2	27.9	0.00e+00	0	28	0	1353711616	34	5855
2026-01-26 17:20:49.18	14.60	28.85	-30.4	-31.0	28.1	0.00e+00	0	28	0	1360003072	34	5761
2026-01-26 17:20:50.19	14.52	29.03	-30.5	-31.1	28.0	0.00e+00	0	28	0	1365245952	34	5787
2026-01-26 17:20:51.20	14.45	29.21	-30.3	-31.0	28.1	0.00e+00	0	28	0	1371537408	34	5710
2026-01-26 17:20:52.21	14.37	29.39	-30.5	-31.1	28.1	0.00e+00	0	28	0	1376780288	34	5775
2026-01-26 17:20:53.22	14.29	29.58	-30.4	-31.0	28.1	0.00e+00	0	28	0	1383071744	34	5737
2026-01-26 17:20:54.23	14.22	29.76	-30.4	-31.0	28.1	0.00e+00	0	28	0	1388314624	34	5735
2026-01-26 17:20:55.24	14.14	29.95	-30.5	-31.1	28.1	0.00e+00	0	28	0	1393557504	34	5797
2026-01-26 17:20:56.25	14.06	30.14	-30.5	-31.1	28.0	0.00e+00	0	28	0	1399848960	34	5793
2026-01-26 17:20:57.26	13.97	30.32	-30.4	-31.1	28.1	0.00e+00	0	28	0	1405091840	34	5762
2026-01-26 17:20:58.27	13.89	30.51	-30.4	-31.0	28.1	0.00e+00	0	28	0	1411383296	34	5721
2026-01-26 17:20:59.28	13.81	30.70	-30.4	-31.0	28.1	0.00e+00	0	28	0	1416626176	34	5752
2026-01-26 17:21:00.28	13.73	30.90	-30.2	-30.8	28.3	0.00e+00	0	28	0	1421869056	34	5598
2026-01-26 17:21:01.29	13.64	31.09	-30.4	-31.0	28.2	0.00e+00	0	28	0	1428160512	34	5719
2026-01-26 17:21:02.30	13.55	31.28	-30.0	-30.6	28.4	0.00e+00	0	28	0	1433403392	34	5496
2026-01-26 17:21:03.31	13.47	31.48	-30.1	-30.7	28.4	0.00e+00	0	28	0	1438646272	34	5521
2026-01-26 17:21:04.32	13.38	31.68	-30.0	-30.6	28.4	0.00e+00	0	28	0	1444937728	34	5456
2026-01-26 17:21:05.32	13.29	31.87	-30.0	-30.6	28.4	0.00e+00	0	28	0	1450180608	34	5450
2026-01-26 17:21:06.33	13.20	32.07	-30.1	-30.7	28.3	0.00e+00	0	28	0	1456472064	34	5543
2026-01-26 17:21:07.34	13.11	32.27	-30.0	-30.7	28.4	0.00e+00	0	28	0	1461714944	34	5524
2026-01-26 17:21:08.35	13.01	32.48	-29.9	-30.5	28.5	0.00e+00	0	28	0	1468006400	34	5405
2026-01-26 17:21:09.36	12.92	32.68	-29.8	-30.4	28.5	0.00e+00	0	28	0	1473249280	34	5330
2026-01-26 17:21:10.37	12.82	32.88	-29.7	-30.3	28.7	0.00e+00	0	28	0	1479540736	32	5906
2026-01-26 17:21:11.38	12.73	33.09	-29.6	-30.2	28.8	0.00e+00	0	28	0	1484783616	32	5832
2026-01-26 17:21:12.38	12.63	33.30	-29.6	-30.2	28.8	0.00e+00	0	28	0	1490026496	32	5862
2026-01-26 17:21:13.39	12.53	33.50	-29.4	-30.0	28.9	0.00e+00	0	28	0	1496317952	32	5719
2026-01-26 17:21:14.41	12.43	33.72	-29.5	-30.0	28.8	0.00e+00	0	28	0	1501560832	32	5760
2026-01-26 17:21:15.41	12.33	33.93	-29.6	-30.2	28.8	0.00e+00	0	28	0	1506803712	32	5845
2026-01-26 17:21:16.43	12.22	34.14	-29.7	-30.3	28.7	0.00e+00	0	28	0	1513095168	32	5905
2026-01-26 17:21:17.43	12.12	34.35	-29.8	-30.4	28.5	0.00e+00	0	28	0	1518338048	32	5998
2026-01-26 17:21:18.44	12.01	34.57	-29.8	-30.4	28.6	0.00e+00	0	28	0	1524629504	32	6024
2026-01-26 17:21:19.45	11.91	34.78	-29.6	-30.2	28.7	0.00e+00	0	28	0	1529872384	32	5858
2026-01-26 17:21:20.46	11.80	35.00	-29.4	-30.1	28.9	0.00e+00	0	28	0	1535115264	32	5771
2026-01-26 17:21:21.47	11.69	35.22	-29.4	-30.0	28.9	0.00e+00	0	28	0	1541406720	32	5728
2026-01-26 17:21:22.48	11.57	35.44	-29.2	-29.8	28.9	0.00e+00	0	28	0	1546649600	32	5620
2026-01-26 17:21:23.49	11.46	35.67	-29.4	-30.0	29.0	0.00e+00	0	29	0	1552941056	32	5698
2026-01-26 17:21:24.49	11.34	35.89	-29.2	-29.7	29.1	0.00e+00	0	28	0	1558183936	32	5566
2026-01-26 17:21:25.50	11.23	36.11	-29.3	-29.9	28.9	0.00e+00	0	28	0	1564475392	32	5676
2026-01-26 17:21:26.51	11.11	36.34	-29.3	-29.9	28.9	0.00e+00	0	28	0	1569718272	32	5652
2026-01-26 17:21:27.52	10.99	36.57	-29.4	-30.0	28.9	0.00e+00	0	29	0	1576009728	32	5739
2026-01-26 17:21:28.53	10.86	36.80	-29.6	-30.2	28.7	0.00e+00	0	28	0	1581252608	32	5864
2026-01-26 17:21:29.54	10.74	37.03	-29.6	-30.2	28.7	0.00e+00	0	28	0	1586495488	32	5834
2026-01-26 17:21:30.55	10.61	37.26	-29.7	-30.4	28.7	0.00e+00	0	28	0	1592786944	32	5972
2026-01-26 17:21:31.56	10.49	37.50	-29.8	-30.5	28.5	0.00e+00	0	28	0	1598029824	32	6034
2026-01-26 17:21:32.57	10.36	37.73	-29.7	-30.3	28.6	0.00e+00	0	28	0	1604321280	32	5936
2026-01-26 17:21:33.58	10.22	37.97	-29.6	-30.2	28.7	0.00e+00	0	28	0	1609564160	32	5841
2026-01-26 17:21:34.59	10.09	38.21	-29.7	-30.3	28.7	0.00e+00	0	28	0	1614807040	32	5936
2026-01-26 17:21:35.60	9.96	38.45	-29.7	-30.2	28.7	0.00e+00	0	28	0	1621098496	32	5895
2026-01-26 17:21:36.61	9.82	38.69	-29.8	-30.4	28.5	0.00e+00	0	28	0	1626341376	32	6013
2026-01-26 17:21:37.61	9.68	38.93	-29.8	-30.4	28.6	0.00e+00	0	29	0	1631584256	32	6020
2026-01-26 17:21:38.62	9.54	39.17	-30.0	-30.6	28.4	0.00e+00	0	28	0	1637875712	32	6108
2026-01-26 17:21:39.63	9.39	39.42	-30.0	-30.6	28.5	0.00e+00	0	28	0	1643118592	32	6136
2026-01-26 17:21:40.64	9.25	39.67	-30.1	-30.7	28.5	0.00e+00	0	28	0	1649410048	32	6196
2026-01-26 17:21:41.65	9.10	39.92	-30.2	-30.8	28.4	0.00e+00	0	29	0	1654652928	32	6310
2026-01-26 17:21:42.66	8.94	40.17	-30.2	-30.8	28.3	0.00e+00	0	28	0	1660944384	32	6307
2026-01-26 17:21:43.67	8.79	40.42	-30.3	-30.9	28.3	0.00e+00	0	28	0	1666187264	32	6383
2026-01-26 17:21:44.68	8.63	40.67	-30.1	-30.7	28.4	0.00e+00	0	28	0	1672478720	32	6202
2026-01-26 17:21:45.69	8.48	40.93	-30.3	-30.9	28.3	0.00e+00	0	28	0	1677721600	32	6348
2026-01-26 17:21:46.70	8.31	41.19	-30.3	-30.9	28.2	0.00e+00	0	28	0	1682964480	32	6323
2026-01-26 17:21:47.71	8.15	41.45	-30.5	-31.0	28.1	0.00e+00	0	28	0	1689255936	32	6458
2026-01-26 17:21:48.72	7.98	41.71	-30.4	-31.0	28.1	0.00e+00	0	28	0	1694498816	32	6453
2026-01-26 17:21:49.72	7.82	41.97	-30.2	-30.8	28.3	0.00e+00	0	28	0	1700790272	32	6310
2026-01-26 17:21:50.74	7.64	42.23	-30.2	-30.7	28.3	0.00e+00	0	28	0	1706033152	32	6241
2026-01-26 17:21:51.75	7.47	42.50	-29.8	-30.4	28.5	0.00e+00	0	28	0	1711276032	32	6013
2026-01-26 17:21:52.76	7.29	42.76	-29.8	-30.3	28.6	0.00e+00	0	28	0	1717567488	32	5935
2026-01-26 17:21:53.76	7.11	43.03	-29.9	-30.5	28.5	0.00e+00	0	28	0	1722810368	32	6059
2026-01-26 17:21:54.77	6.92	43.30	-29.9	-30.5	28.6	0.00e+00	0	29	0	1729101824	32	6044
2026-01-26 17:21:55.79	6.73	43.57	-30.0	-30.6	28.5	0.00e+00	0	29	0	1734344704	32	6121
2026-01-26 17:21:56.80	6.54	43.85	-29.8	-30.4	28.6	0.00e+00	0	29	0	1739587584	32	6006
2026-01-26 17:21:57.80	6.35	44.12	-29.9	-30.5	28.5	0.00e+00	0	28	0	1745879040	32	6043
2026-01-26 17:21:58.81	6.15	44.39	-30.1	-30.7	28.3	0.00e+00	0	29	0	1751121920	32	6242
2026-01-26 17:21:59.82	5.95	44.67	-30.5	-31.1	28.2	0.00e+00	0	28	0	1757413376	32	6484
2026-01-26 17:22:00.83	5.75	44.95	-30.4	-31.0	28.1	0.00e+00	0	29	0	1762656256	32	6462
2026-01-26 17:22:01.83	5.54	45.23	-30.4	-31.0	28.1	0.00e+00	0	28	0	1768947712	32	6460
2026-01-26 17:22:02.84	5.33	45.51	-30.5	-31.1	28.2	0.00e+00	0	28	0	1774190592	34	5775
2026-01-26 17:22:03.85	5.11	45.80	-30.1	-30.7	28.4	0.00e+00	0	28	0	1779433472	34	5540
2026-01-26 17:22:04.86	4.89	46.08	-30.1	-30.7	28.4	0.00e+00	0	28	0	1785724928	34	5547
2026-01-26 17:22:05.87	4.67	46.37	-30.0	-30.6	28.4	0.00e+00	0	28	0	1790967808	34	5489
2026-01-26 17:22:06.88	4.44	46.66	-30.1	-30.7	28.4	0.00e+00	0	28	0	1797259264	34	5549
2026-01-26 17:22:07.89	4.20	46.95	-30.2	-30.8	28.3	0.00e+00	0	29	0	1802502144	34	5583
2026-01-26 17:22:08.90	3.97	47.24	-30.1	-30.7	28.3	0.00e+00	0	28	0	1807745024	34	5566
2026-01-26 17:22:09.91	3.73	47.53	-30.3	-30.9	28.2	0.00e+00	0	29	0	1814036480	34	5671
2026-01-26 17:22:10.92	3.48	47.82	-30.5	-31.1	28.0	0.00e+00	0	28	0	1819279360	34	5799
2026-01-26 17:22:11.93	3.23	48.12	-30.6	-31.2	28.0	0.00e+00	0	28	0	1825570816	34	5881
2026-01-26 17:22:12.93	2.97	48.41	-30.6	-31.2	28.0	0.00e+00	0	29	0	1830813696	34	5837
2026-01-26 17:22:13.94	2.71	48.71	-30.6	-31.2	27.9	0.00e+00	0	28	0	1836056576	34	5882
2026-01-26 17:22:14.95	2.45	49.01	-30.6	-31.2	27.9	0.00e+00	0	28	0	1842348032	34	5878
2026-01-26 17:22:15.96	2.17	49.31	-30.8	-31.4	27.9	0.00e+00	0	28	0	1847590912	34	5992
2026-01-26 17:22:16.97	1.90	49.62	-30.8	-31.5	27.8	0.00e+00	0	28	0	1853882368	34	6044
2026-01-26 17:22:17.98	1.61	49.92	-31.0	-31.6	27.7	0.00e+00	0	29	0	1859125248	34	6130
2026-01-26 17:22:18.99	1.32	50.23	-30.9	-31.5	27.8	0.00e+00	0	29	0	1865416704	34	6075
2026-01-26 17:22:20.00	1.03	50.53	-31.0	-31.6	27.6	0.00e+00	0	29	0	1870659584	34	6147
2026-01-26 17:22:21.01	0.73	50.84	-31.0	-31.6	27.6	0.00e+00	0	29	0	1875902464	34	6148
2026-01-26 17:22:22.02	0.42	51.15	-31.4	-32.0	27.2	0.00e+00	0	28	0	1882193920	34	6424
2026-01-26 17:22:23.03	0.11	51.46	-32.4	-33.1	26.5	0.00e+00	0	28	0	1887436800	36	6523
2026-01-26 17:22:24.04	359.79	51.77	-32.0	-32.6	27.1	0.00e+00	0	28	0	1893728256	36	6157
2026-01-26 17:22:25.05	359.46	52.08	-31.2	-31.8	27.6	0.00e+00	0	28	0	1898971136	36	5624
2026-01-26 17:22:26.06	359.12	52.40	-31.2	-31.8	27.6	0.00e+00	0	29	0	1904214016	36	5592
2026-01-26 17:22:27.07	358.78	52.71	-31.1	-31.7	27.8	0.00e+00	0	28	0	1910505472	36	5509
2026-01-26 17:22:28.08	358.43	53.02	-31.2	-31.8	27.7	0.00e+00	0	29	0	1915748352	36	5572
2026-01-26 17:22:29.09	358.08	53.34	-31.4	-32.0	27.4	0.00e+00	0	28	0	1922039808	36	5754
2026-01-26 17:22:30.09	357.72	53.65	-31.5	-32.1	27.3	0.00e+00	0	28	0	1927282688	36	5784
2026-01-26 17:22:31.10	357.34	53.97	-31.3	-31.9	27.5	0.00e+00	0	28	0	1932525568	36	5688
2026-01-26 17:22:32.11	356.96	54.29	-31.1	-31.7	27.6	0.00e+00	0	29	0	1938817024	36	5511
2026-01-26 17:22:33.12	356.57	54.61	-31.3	-31.9	27.5	0.00e+00	0	28	0	1944059904	36	5655
2026-01-26 17:22:34.13	356.17	54.93	-31.6	-32.3	27.1	0.00e+00	0	28	0	1950351360	36	5907
2026-01-26 17:22:35.14	355.76	55.25	-31.3	-31.9	27.5	0.00e+00	0	28	0	1955594240	36	5669
2026-01-26 17:22:36.15	355.35	55.57	-30.9	-31.5	27.8	0.00e+00	0	28	0	1961885696	36	5409
2026-01-26 17:22:37.16	354.92	55.89	-30.7	-31.3	27.8	0.00e+00	0	28	0	1967128576	34	5947
2026-01-26 17:22:38.17	354.48	56.21	-30.7	-31.3	27.9	0.00e+00	0	29	0	1972371456	34	5933
2026-01-26 17:22:39.17	354.04	56.53	-30.7	-31.3	27.9	0.00e+00	0	29	0	1978662912	34	5945
2026-01-26 17:22:40.18	353.58	56.85	-30.7	-31.2	27.9	0.00e+00	0	29	0	1983905792	34	5887
2026-01-26 17:22:41.19	353.11	57.17	-30.6	-31.2	28.0	0.00e+00	0	29	0	1990197248	34	5842
2026-01-26 17:22:42.20	352.63	57.49	-30.5	-31.1	28.0	0.00e+00	0	29	0	1995440128	34	5795
2026-01-26 17:22:43.21	352.14	57.81	-30.5	-31.1	28.1	0.00e+00	0	29	0	2000683008	34	5815
2026-01-26 17:22:44.22	351.64	58.14	-30.6	-31.1	27.9	0.00e+00	0	29	0	2006974464	34	5805
2026-01-26 17:22:45.23	351.12	58.46	-30.7	-31.3	27.8	0.00e+00	0	28	0	2012217344	34	5915
2026-01-26 17:22:46.23	350.60	58.77	-30.8	-31.4	27.8	0.00e+00	0	29	0	2018508800	34	6030
2026-01-26 17:22:47.25	350.05	59.10	-30.7	-31.2	28.0	0.00e+00	0	28	0	2023751680	34	5885
2026-01-26 17:22:48.25	349.50	59.41	-30.8	-31.4	27.8	0.00e+00	0	29	0	2028994560	34	5975
2026-01-26 17:22:49.26	348.93	59.73	-30.8	-31.4	27.8	0.00e+00	0	28	0	2035286016	34	6002
2026-01-26 17:22:50.27	348.35	60.05	-30.5	-31.1	28.0	0.00e+00	0	29	0	2040528896	34	5804
2026-01-26 17:22:51.28	347.75	60.36	-30.3	-30.9	28.2	0.00e+00	0	29	0	2046820352	34	5648
2026-01-26 17:22:52.29	347.14	60.68	-30.5	-31.2	28.0	0.00e+00	0	29	0	2052063232	34	5864
2026-01-26 17:22:53.30	346.51	60.99	-30.4	-31.0	28.1	0.00e+00	0	29	0	2058354688	34	5750
2026-01-26 17:22:54.31	345.87	61.30	-30.4	-31.0	28.2	0.00e+00	0	29	0	2063597568	34	5742
2026-01-26 17:22:55.32	345.21	61.61	-30.4	-31.0	28.1	0.00e+00	0	29	0	2069889024	34	5721
2026-01-26 17:22:56.33	344.53	61.92	-30.3	-30.9	28.2	0.00e+00	0	29	0	2075131904	34	5663
2026-01-26 17:22:57.33	343.84	62.22	-30.4	-30.9	28.2	0.00e+00	0	29	0	2080374784	34	5683
2026-01-26 17:22:58.35	343.12	62.52	-30.6	-31.2	28.0	0.00e+00	0	29	0	2086666240	34	5840
2026-01-26 17:22:59.35	342.40	62.82	-30.7	-31.3	27.9	0.00e+00	0	29	0	2091909120	34	5935
2026-01-26 17:23:00.36	341.65	63.12	-30.2	-30.8	28.3	0.00e+00	0	29	0	2097152000	34	5589
2026-01-26 17:23:01.37	340.88	63.41	-30.1	-30.7	28.5	0.00e+00	0	28	0	2103443456	34	5512
2026-01-26 17:23:02.38	340.10	63.71	-30.3	-30.9	28.2	0.00e+00	0	29	0	2108686336	34	5644
2026-01-26 17:23:03.39	339.29	63.99	-30.0	-30.6	28.5	0.00e+00	0	29	0	2114977792	34	5488
2026-01-26 17:23:04.40	338.46	64.28	-30.0	-30.7	28.6	0.00e+00	0	29	0	2120220672	34	5519
2026-01-26 17:23:05.41	337.62	64.56	-29.8	-30.4	28.6	0.00e+00	0	28	0	2125463552	34	5364
2026-01-26 17:23:06.42	336.75	64.84	-29.5	-30.0	28.9	0.00e+00	0	28	0	2131755008	32	5760
2026-01-26 17:23:07.43	335.86	65.11	-29.9	-30.5	28.6	0.00e+00	0	29	0	2136997888	32	6062
2026-01-26 17:23:08.44	334.94	65.38	-29.6	-30.1	28.7	0.00e+00	0	28	0	2143289344	32	5825
2026-01-26 17:23:09.45	334.01	65.64	-29.5	-30.1	28.8	0.00e+00	0	29	0	2148532224	32	5787
2026-01-26 17:23:10.46	333.05	65.90	-29.3	-30.0	29.0	0.00e+00	0	28	0	2154823680	32	5702
2026-01-26 17:23:11.47	332.07	66.15	-29.0	-29.6	29.3	0.00e+00	0	28	0	2160066560	32	5462
2026-01-26 17:23:12.47	331.08	66.39	-28.5	-29.1	29.5	0.00e+00	0	28	0	2166358016	30	5807
2026-01-26 17:23:13.48	330.06	66.63	-29.1	-29.7	29.2	0.00e+00	0	28	0	2171600896	30	6212
2026-01-26 17:23:14.49	329.01	66.87	-29.4	-30.1	29.1	0.00e+00	0	28	0	2176843776	30	6480
2026-01-26 17:23:15.50	327.94	67.10	-29.0	-29.5	29.3	0.00e+00	0	29	0	2183135232	30	6086
2026-01-26 17:23:16.51	326.84	67.32	-29.0	-29.6	29.3	0.00e+00	0	28	0	2188378112	30	6124
2026-01-26 17:23:17.52	325.72	67.53	-29.0	-29.7	29.3	0.00e+00	0	28	0	2194669568	30	6187
2026-01-26 17:23:18.53	324.58	67.74	-28.8	-29.4	29.3	0.00e+00	0	28	0	2199912448	30	6011
2026-01-26 17:23:19.54	323.42	67.93	-29.0	-29.6	29.0	0.00e+00	0	28	0	2205155328	30	6155
2026-01-26 17:23:20.55	322.23	68.12	-29.5	-30.1	29.0	0.00e+00	0	28	0	2211446784	30	6506
2026-01-26 17:23:21.56	321.02	68.30	-29.0	-29.6	29.1	0.00e+00	0	28	0	2216689664	30	6122
2026-01-26 17:23:22.57	319.79	68.48	-29.3	-29.9	28.9	0.00e+00	0	28	0	2221932544	30	6367
2026-01-26 17:23:23.58	318.54	68.64	-29.7	-30.3	28.8	0.00e+00	0	28	0	2228224000	30	6647
2026-01-26 17:23:24.59	317.27	68.80	-29.6	-30.2	28.8	0.00e+00	0	28	0	2233466880	32	5856
2026-01-26 17:23:25.60	315.98	68.94	-30.0	-30.5	28.7	0.00e+00	0	28	0	2239758336	32	6097
2026-01-26 17:23:26.61	314.67	69.07	-29.4	-30.0	29.0	0.00e+00	0	28	0	2245001216	32	5744
2026-01-26 17:23:27.61	313.35	69.20	-29.3	-29.9	29.1	0.00e+00	0	28	0	2251292672	32	5648
2026-01-26 17:23:28.62	312.01	69.31	-29.9	-30.5	28.9	0.00e+00	0	28	0	2256535552	32	6082
2026-01-26 17:23:29.63	310.65	69.42	-30.0	-30.6	28.6	0.00e+00	0	28	0	2262827008	32	6157
2026-01-26 17:23:30.64	309.27	69.51	-30.3	-30.9	28.6	0.00e+00	0	28	0	2268069888	32	6331
2026-01-26 17:23:31.64	307.90	69.59	-29.7	-30.3	28.8	0.00e+00	0	28	0	2273312768	34	5294
2026-01-26 17:23:32.65	306.50	69.66	-29.9	-30.6	28.5	0.00e+00	0	28	0	2279604224	32	6104
2026-01-26 17:23:33.66	305.10	69.72	-30.1	-30.7	28.7	0.00e+00	0	28	0	2284847104	32	6228
2026-01-26 17:23:34.67	303.68	69.77	-30.1	-30.7	28.6	0.00e+00	0	28	0	2291138560	32	6212
2026-01-26 17:23:35.68	302.26	69.80	-29.6	-30.1	28.8	0.00e+00	0	28	0	2296381440	32	5820
2026-01-26 17:23:36.69	300.83	69.83	-29.7	-30.2	28.8	0.00e+00	0	29	0	2301624320	32	5869
2026-01-26 17:23:37.70	299.40	69.84	-29.5	-30.1	28.9	0.00e+00	0	28	0	2307915776	32	5826
2026-01-26 17:23:38.71	297.97	69.84	-29.7	-30.3	29.0	0.00e+00	0	28	0	2313158656	32	5934
2026-01-26 17:23:39.72	296.54	69.83	-30.2	-30.8	28.7	0.00e+00	0	29	0	2319450112	32	6247
2026-01-26 17:23:40.73	295.12	69.81	-30.3	-30.9	28.6	0.00e+00	0	28	0	2324692992	32	6343
2026-01-26 17:23:41.74	293.70	69.77	-30.0	-30.6	28.6	0.00e+00	0	28	0	2329935872	32	6138
2026-01-26 17:23:42.75	292.28	69.73	-29.9	-30.5	28.7	0.00e+00	0	28	0	2336227328	32	6103
2026-01-26 17:23:43.75	290.88	69.67	-29.5	-30.0	28.7	0.00e+00	0	29	0	2341470208	32	5758
2026-01-26 17:23:44.76	289.48	69.60	-30.0	-30.5	27.4	0.00e+00	0	29	0	2347761664	32	6100
2026-01-26 17:23:45.77	288.10	69.52	-30.5	-31.1	28.2	0.00e+00	0	28	0	2353004544	34	5823
2026-01-26 17:23:46.78	286.72	69.43	-30.6	-31.3	28.3	0.00e+00	0	29	0	2359296000	34	5916
2026-01-26 17:23:47.79	285.36	69.33	-30.3	-30.9	28.5	0.00e+00	0	28	0	2364538880	34	5636
2026-01-26 17:23:48.80	284.01	69.22	-30.6	-31.2	28.1	0.00e+00	0	28	0	2369781760	34	5879
2026-01-26 17:23:49.81	282.68	69.10	-31.4	-32.0	28.0	0.00e+00	0	28	0	2376073216	36	5751
2026-01-26 17:23:50.82	281.36	68.96	-31.1	-31.7	28.2	0.00e+00	0	28	0	2381316096	36	5521
2026-01-26 17:23:51.83	280.07	68.82	-30.8	-31.4	27.8	0.00e+00	0	29	0	2387607552	34	6014
2026-01-26 17:23:52.84	278.79	68.67	-31.5	-32.1	28.1	0.00e+00	0	28	0	2392850432	34	6538
2026-01-26 17:23:53.85	277.54	68.50	-30.5	-31.1	28.6	0.00e+00	0	29	0	2398093312	34	5779
2026-01-26 17:23:54.86	276.30	68.33	-30.9	-31.5	28.2	0.00e+00	0	28	0	2404384768	34	6100
2026-01-26 17:23:55.87	275.09	68.15	-30.9	-31.6	28.6	0.00e+00	0	28	0	2409627648	34	6112
2026-01-26 17:23:56.88	273.90	67.96	-31.1	-31.7	28.7	0.00e+00	0	28	0	2415919104	34	6230
2026-01-26 17:23:57.89	272.73	67.77	-30.0	-30.6	28.9	0.00e+00	0	28	0	2421161984	34	5453
2026-01-26 17:23:58.90	271.58	67.56	-29.7	-30.3	29.0	0.00e+00	0	28	0	2426404864	32	5904
2026-01-26 17:23:59.91	270.46	67.35	-29.5	-30.1	29.1	0.00e+00	0	28	0	2432696320	32	5766
2026-01-26 17:24:00.91	269.37	67.13	-29.5	-30.2	29.0	0.00e+00	0	29	0	2437939200	32	5837
2026-01-26 17:24:01.92	268.29	66.91	-29.4	-30.0	29.0	0.00e+00	0	29	0	2444230656	32	5744
2026-01-26 17:24:02.93	267.24	66.67	-29.6	-30.2	29.1	0.00e+00	0	29	0	2449473536	32	5871
2026-01-26 17:24:03.94	266.21	66.43	-29.5	-30.2	28.9	0.00e+00	0	29	0	2455764992	32	5852
2026-01-26 17:24:04.95	265.20	66.19	-29.4	-30.0	29.0	0.00e+00	0	28	0	2461007872	32	5709
2026-01-26 17:24:05.96	264.22	65.93	-29.6	-30.2	28.8	0.00e+00	0	28	0	2466250752	32	5879
2026-01-26 17:24:06.97	263.26	65.68	-29.7	-30.2	28.6	0.00e+00	0	29	0	2472542208	32	5896
2026-01-26 17:24:07.98	262.32	65.41	-29.8	-30.3	28.6	0.00e+00	0	28	0	2477785088	32	5962
2026-01-26 17:24:08.99	261.40	65.15	-29.5	-30.2	28.7	0.00e+00	0	28	0	2484076544	32	5868
2026-01-26 17:24:10.00	260.51	64.88	-29.2	-29.7	28.9	0.00e+00	0	29	0	2489319424	32	5519
2026-01-26 17:24:11.01	259.63	64.60	-29.5	-30.2	28.8	0.00e+00	0	29	0	2494562304	32	5862
2026-01-26 17:24:12.02	258.78	64.32	-29.6	-30.3	28.5	0.00e+00	0	28	0	2500853760	32	5914
2026-01-26 17:24:13.03	257.95	64.03	-29.5	-30.0	28.8	0.00e+00	0	28	0	2506096640	32	5728
2026-01-26 17:24:14.04	257.14	63.75	-29.3	-30.0	28.9	0.00e+00	0	29	0	2512388096	32	5719
2026-01-26 17:24:15.04	256.36	63.46	-29.5	-30.0	28.7	0.00e+00	0	28	0	2517630976	32	5704
2026-01-26 17:24:16.05	255.59	63.16	-29.8	-30.5	28.5	0.00e+00	0	28	0	2522873856	32	6068
2026-01-26 17:24:17.06	254.83	62.86	-30.1	-30.7	28.4	0.00e+00	0	28	0	2529165312	32	6176
2026-01-26 17:24:18.07	254.10	62.56	-30.6	-31.2	28.3	0.00e+00	0	28	0	2534408192	32	6573
2026-01-26 17:24:19.08	253.38	62.26	-30.5	-31.1	28.2	0.00e+00	0	28	0	2540699648	32	6511
2026-01-26 17:24:20.09	252.69	61.95	-30.5	-31.1	28.2	0.00e+00	0	28	0	2545942528	32	6473
2026-01-26 17:24:21.10	252.01	61.65	-30.9	-31.5	28.2	0.00e+00	0	28	0	2552233984	32	6790
2026-01-26 17:24:22.11	251.34	61.34	-30.8	-31.5	28.1	0.00e+00	0	28	0	2557476864	34	6044
2026-01-26 17:24:23.12	250.69	61.03	-30.9	-31.6	28.1	0.00e+00	0	29	0	2563768320	34	6115
2026-01-26 17:24:24.13	250.06	60.71	-30.4	-31.0	28.2	0.00e+00	0	28	0	2569011200	34	5740
2026-01-26 17:24:25.14	249.45	60.40	-30.7	-31.3	28.2	0.00e+00	0	29	0	2574254080	34	5943
2026-01-26 17:24:26.14	248.85	60.08	-30.7	-31.3	28.0	0.00e+00	0	29	0	2580545536	34	5961
2026-01-26 17:24:27.15	248.27	59.77	-30.5	-31.2	28.2	0.00e+00	0	29	0	2585788416	34	5846
2026-01-26 17:24:28.16	247.69	59.45	-30.4	-30.9	28.3	0.00e+00	0	29	0	2591031296	34	5671
2026-01-26 17:24:29.17	247.14	59.13	-30.3	-30.9	28.3	0.00e+00	0	29	0	2597322752	34	5660
2026-01-26 17:24:30.18	246.59	58.81	-30.5	-31.1	28.3	0.00e+00	0	29	0	2602565632	34	5791
2026-01-26 17:24:31.19	246.06	58.49	-30.2	-30.9	28.3	0.00e+00	0	29	0	2608857088	34	5658
2026-01-26 17:24:32.20	245.54	58.17	-30.1	-30.7	28.4	0.00e+00	0	28	0	2614099968	34	5530
2026-01-26 17:24:33.20	245.04	57.85	-30.1	-30.8	28.5	0.00e+00	0	28	0	2619342848	34	5593
2026-01-26 17:24:34.21	244.55	57.53	-30.7	-31.2	28.2	0.00e+00	0	28	0	2625634304	34	5865
2026-01-26 17:24:35.22	244.06	57.21	-31.2	-31.8	27.8	0.00e+00	0	29	0	2630877184	34	6277
2026-01-26 17:24:36.23	243.59	56.88	-31.0	-31.6	28.1	0.00e+00	0	29	0	2637168640	36	5495
2026-01-26 17:24:37.24	243.13	56.56	-31.3	-31.8	28.1	0.00e+00	0	29	0	2642411520	36	5603
2026-01-26 17:24:38.25	242.68	56.24	-30.8	-31.4	28.0	0.00e+00	0	29	0	2648702976	36	5321
2026-01-26 17:24:39.26	242.24	55.92	-31.0	-31.7	27.8	0.00e+00	0	29	0	2653945856	36	5516
2026-01-26 17:24:40.27	241.81	55.60	-31.0	-31.7	27.7	0.00e+00	0	29	0	2660237312	36	5503
2026-01-26 17:24:41.28	241.39	55.27	-30.6	-31.2	28.0	0.00e+00	0	29	0	2665480192	34	5856
2026-01-26 17:24:42.29	240.98	54.95	-30.8	-31.3	27.9	0.00e+00	0	29	0	2670723072	34	5922
2026-01-26 17:24:43.30	240.58	54.63	-31.1	-31.6	27.8	0.00e+00	0	29	0	2677014528	34	6144
2026-01-26 17:24:44.31	240.19	54.31	-30.9	-31.6	27.8	0.00e+00	0	28	0	2682257408	34	6121
2026-01-26 17:24:45.32	239.81	53.99	-31.1	-31.6	27.6	0.00e+00	0	29	0	2687500288	34	6154
2026-01-26 17:24:46.32	239.44	53.68	-30.9	-31.6	27.7	0.00e+00	0	29	0	2693791744	34	6137
2026-01-26 17:24:47.33	239.07	53.36	-30.8	-31.3	28.0	0.00e+00	0	29	0	2699034624	34	5943
2026-01-26 17:24:48.34	238.71	53.04	-30.2	-30.8	28.3	0.00e+00	0	29	0	2705326080	34	5570
2026-01-26 17:24:49.35	238.36	52.73	-30.3	-30.9	28.2	0.00e+00	0	28	0	2710568960	34	5689
2026-01-26 17:24:50.36	238.02	52.41	-30.7	-31.2	28.0	0.00e+00	0	28	0	2715811840	34	5867
2026-01-26 17:24:51.37	237.68	52.10	-30.5	-31.2	28.0	0.00e+00	0	29	0	2722103296	34	5841
2026-01-26 17:24:52.38	237.35	51.78	-30.5	-31.2	27.8	0.00e+00	0	28	0	2727346176	34	5882
2026-01-26 17:24:53.39	237.03	51.47	-30.7	-31.3	27.7	0.00e+00	0	28	0	2733637632	34	5915
2026-01-26 17:24:54.40	236.72	51.16	-30.8	-31.4	27.7	0.00e+00	0	29	0	2738880512	34	6033
2026-01-26 17:24:55.41	236.41	50.85	-30.7	-31.4	27.7	0.00e+00	0	29	0	2745171968	34	5995
2026-01-26 17:24:56.41	236.11	50.55	-30.4	-31.0	27.9	0.00e+00	0	29	0	2750414848	34	5734
2026-01-26 17:24:57.42	235.81	50.24	-30.5	-31.2	27.6	0.00e+00	0	28	0	2756706304	34	5871
2026-01-26 17:24:58.43	235.52	49.93	-30.7	-31.2	27.7	0.00e+00	0	29	0	2761949184	34	5879
2026-01-26 17:24:59.44	235.24	49.63	-30.5	-31.1	27.9	0.00e+00	0	29	0	2767192064	34	5820
2026-01-26 17:25:00.45	234.96	49.32	-30.3	-30.9	28.2	0.00e+00	0	29	0	2773483520	34	5655
2026-01-26 17:25:01.46	234.68	49.02	-30.2	-30.9	28.1	0.00e+00	0	29	0	2778726400	34	5663
2026-01-26 17:25:02.47	234.42	48.72	-29.6	-30.1	28.6	0.00e+00	0	29	0	2785017856	32	5815
2026-01-26 17:25:03.48	234.15	48.42	-29.7	-30.2	28.6	0.00e+00	0	28	0	2790260736	32	5866
2026-01-26 17:25:04.49	233.90	48.12	-29.7	-30.4	28.5	0.00e+00	0	29	0	2795503616	32	5986
2026-01-26 17:25:05.50	233.64	47.83	-29.9	-30.6	28.5	0.00e+00	0	28	0	2801795072	32	6120
2026-01-26 17:25:06.51	233.40	47.53	-29.9	-30.4	28.6	0.00e+00	0	28	0	2807037952	32	5992
2026-01-26 17:25:07.52	233.15	47.24	-29.9	-30.4	28.4	0.00e+00	0	28	0	2813329408	32	6031
2026-01-26 17:25:08.53	232.91	46.94	-29.9	-30.6	28.4	0.00e+00	0	28	0	2818572288	32	6141
2026-01-26 17:25:09.54	232.68	46.65	-30.2	-30.7	28.3	0.00e+00	0	28	0	2823815168	32	6240
2026-01-26 17:25:10.55	232.45	46.36	-30.3	-30.8	28.2	0.00e+00	0	28	0	2830106624	32	6274
2026-01-26 17:25:11.55	232.23	46.08	-30.3	-31.0	28.2	0.00e+00	0	29	0	2835349504	32	6408
2026-01-26 17:25:12.56	232.01	45.79	-30.2	-30.8	28.3	0.00e+00	0	28	0	2841640960	32	6252
2026-01-26 17:25:13.57	231.79	45.51	-30.0	-30.6	28.3	0.00e+00	0	29	0	2846883840	32	6165
2026-01-26 17:25:14.58	231.57	45.22	-30.0	-30.7	28.4	0.00e+00	0	29	0	2853175296	32	6215
2026-01-26 17:25:15.59	231.37	44.94	-29.9	-30.4	28.4	0.00e+00	0	28	0	2858418176	32	6017
2026-01-26 17:25:16.60	231.16	44.66	-29.8	-30.3	28.5	0.00e+00	0	29	0	2863661056	32	5956
2026-01-26 17:25:17.61	230.96	44.38	-29.7	-30.3	28.6	0.00e+00	0	29	0	2869952512	32	5923
2026-01-26 17:25:18.62	230.76	44.11	-29.7	-30.2	28.7	0.00e+00	0	28	0	2875195392	32	5866
2026-01-26 17:25:19.63	230.56	43.83	-29.6	-30.1	28.7	0.00e+00	0	29	0	2881486848	32	5803
2026-01-26 17:25:20.64	230.37	43.56	-29.7	-30.2	28.6	0.00e+00	0	28	0	2886729728	32	5845
2026-01-26 17:25:21.64	230.18	43.29	-29.5	-30.0	28.8	0.00e+00	0	29	0	2891972608	32	5756
2026-01-26 17:25:22.65	230.00	43.02	-29.5	-30.0	28.7	0.00e+00	0	28	0	2898264064	32	5711
2026-01-26 17:25:23.66	229.82	42.75	-29.4	-30.0	28.8	0.00e+00	0	29	0	2903506944	32	5749
2026-01-26 17:25:24.67	229.64	42.48	-29.4	-30.1	28.8	0.00e+00	0	29	0	2909798400	32	5791
2026-01-26 17:25:25.68	229.46	42.21	-29.6	-30.2	28.8	0.00e+00	0	28	0	2915041280	32	5883
2026-01-26 17:25:26.69	229.29	41.95	-29.7	-30.4	28.7	0.00e+00	0	28	0	2920284160	32	5986
2026-01-26 17:25:27.69	229.12	41.69	-29.8	-30.3	28.5	0.00e+00	0	28	0	2926575616	32	5936
2026-01-26 17:25:28.70	228.95	41.43	-29.9	-30.4	28.4	0.00e+00	0	28	0	2931818496	32	5986
2026-01-26 17:25:29.71	228.79	41.17	-30.1	-30.6	28.3	0.00e+00	0	28	0	2938109952	32	6162
2026-01-26 17:25:30.72	228.62	40.91	-29.9	-30.4	28.4	0.00e+00	0	28	0	2943352832	32	6010
2026-01-26 17:25:31.73	228.47	40.65	-30.0	-30.5	28.4	0.00e+00	0	28	0	2949644288	32	6072
2026-01-26 17:25:32.74	228.31	40.40	-29.5	-30.0	28.6	0.00e+00	0	29	0	2954887168	32	5752
2026-01-26 17:25:33.75	228.15	40.14	-29.4	-29.9	28.7	0.00e+00	0	28	0	2960130048	32	5639
2026-01-26 17:25:34.76	228.00	39.89	-29.3	-29.9	28.9	0.00e+00	0	29	0	2966421504	32	5633
2026-01-26 17:25:35.77	227.85	39.64	-29.5	-30.2	28.8	0.00e+00	0	28	0	2971664384	32	5845
2026-01-26 17:25:36.78	227.70	39.39	-29.3	-29.9	28.8	0.00e+00	0	29	0	2977955840	32	5691
2026-01-26 17:25:37.79	227.56	39.15	-29.1	-29.8	28.9	0.00e+00	0	28	0	2983198720	32	5600
2026-01-26 17:25:38.80	227.42	38.90	-29.2	-29.7	28.8	0.00e+00	0	28	0	2988441600	32	5534
2026-01-26 17:25:39.81	227.28	38.66	-29.3	-29.8	28.9	0.00e+00	0	28	0	2994733056	32	5582
2026-01-26 17:25:40.82	227.14	38.41	-29.4	-29.9	28.8	0.00e+00	0	28	0	2999975936	32	5687
2026-01-26 17:25:41.82	227.00	38.17	-29.6	-30.1	28.8	0.00e+00	0	28	0	3006267392	32	5797
2026-01-26 17:25:42.83	226.87	37.93	-29.3	-29.9	28.9	0.00e+00	0	28	0	3011510272	32	5691
2026-01-26 17:25:43.84	226.73	37.70	-29.3	-29.9	28.8	0.00e+00	0	28	0	3016753152	32	5695
2026-01-26 17:25:44.85	226.60	37.46	-29.3	-30.0	28.9	0.00e+00	0	28	0	3023044608	32	5709
2026-01-26 17:25:45.86	226.48	37.23	-29.5	-30.1	28.7	0.00e+00	0	29	0	3028287488	32	5826
2026-01-26 17:25:46.87	226.35	36.99	-29.6	-30.1	28.6	0.00e+00	0	28	0	3034578944	32	5803
2026-01-26 17:25:47.88	226.22	36.76	-29.7	-30.2	28.6	0.00e+00	0	28	0	3039821824	32	5846
2026-01-26 17:25:48.89	226.10	36.53	-29.8	-30.3	28.5	0.00e+00	0	28	0	3046113280	32	5911
2026-01-26 17:25:49.90	225.98	36.30	-29.8	-30.3	28.5	0.00e+00	0	28	0	3051356160	32	5943
2026-01-26 17:25:50.91	225.86	36.07	-29.8	-30.5	28.4	0.00e+00	0	28	0	3056599040	32	6061
2026-01-26 17:25:51.91	225.74	35.85	-30.0	-30.7	28.4	0.00e+00	0	29	0	3062890496	32	6217
2026-01-26 17:25:52.92	225.63	35.62	-29.9	-30.6	28.4	0.00e+00	0	28	0	3068133376	32	6144
2026-01-26 17:25:53.93	225.51	35.40	-29.9	-30.5	28.4	0.00e+00	0	28	0	3074424832	32	6087
2026-01-26 17:25:54.94	225.40	35.18	-29.8	-30.5	28.5	0.00e+00	0	28	0	3079667712	32	6070
2026-01-26 17:25:55.95	225.29	34.96	-29.9	-30.6	28.4	0.00e+00	0	28	0	3084910592	32	6140
2026-01-26 17:25:56.96	225.18	34.74	-30.0	-30.5	28.5	0.00e+00	0	28	0	3091202048	32	6097
2026-01-26 17:25:57.96	225.07	34.52	-30.2	-30.8	28.3	0.00e+00	0	28	0	3096444928	32	6252
2026-01-26 17:25:58.97	224.96	34.31	-30.0	-30.6	28.4	0.00e+00	0	28	0	3102736384	32	6109
2026-01-26 17:25:59.99	224.86	34.09	-29.9	-30.6	28.4	0.00e+00	0	28	0	3107979264	32	6123
2026-01-26 17:26:00.99	224.75	33.88	-30.0	-30.5	28.3	0.00e+00	0	29	0	3113222144	32	6097
2026-01-26 17:26:02.00	224.65	33.67	-30.0	-30.6	28.4	0.00e+00	0	29	0	3119513600	32	6172
2026-01-26 17:26:03.01	224.55	33.46	-29.7	-30.2	28.6	0.00e+00	0	28	0	3124756480	32	5855
2026-01-26 17:26:04.02	224.45	33.25	-29.8	-30.3	28.4	0.00e+00	0	28	0	3131047936	32	5938
2026-01-26 17:26:05.03	224.35	33.04	-29.6	-30.3	28.5	0.00e+00	0	29	0	3136290816	32	5951
2026-01-26 17:26:06.04	224.25	32.83	-29.7	-30.4	28.5	0.00e+00	0	28	0	3142582272	32	5993
2026-01-26 17:26:07.05	224.16	32.63	-29.6	-30.2	28.5	0.00e+00	0	28	0	3147825152	32	5845
2026-01-26 17:26:08.06	224.06	32.42	-29.7	-30.3	28.6	0.00e+00	0	28	0	3153068032	32	5959
2026-01-26 17:26:09.06	223.97	32.22	-29.7	-30.4	28.5	0.00e+00	0	28	0	3159359488	32	5978
2026-01-26 17:26:10.07	223.88	32.02	-29.6	-30.2	28.6	0.00e+00	0	28	0	3164602368	32	5838
2026-01-26 17:26:11.08	223.78	31.82	-29.8	-30.4	28.5	0.00e+00	0	28	0	3170893824	32	5984
2026-01-26 17:26:12.09	223.69	31.62	-29.7	-30.3	28.6	0.00e+00	0	28	0	3176136704	32	5904
2026-01-26 17:26:13.10	223.61	31.42	-29.8	-30.4	28.5	0.00e+00	0	28	0	3181379584	32	5972
2026-01-26 17:26:14.11	223.52	31.22	-29.8	-30.4	28.5	0.00e+00	0	28	0	3187671040	32	5969
2026-01-26 17:26:15.12	223.43	31.03	-29.7	-30.2	28.6	0.00e+00	0	28	0	3192913920	32	5877
2026-01-26 17:26:16.13	223.35	30.83	-29.7	-30.3	28.6	0.00e+00	0	28	0	3199205376	32	5903
2026-01-26 17:26:17.14	223.26	30.64	-29.7	-30.2	28.6	0.00e+00	0	28	0	3204448256	32	5896
2026-01-26 17:26:18.15	223.18	30.45	-29.8	-30.3	28.5	0.00e+00	0	28	0	3209691136	32	5959
2026-01-26 17:26:19.16	223.09	30.26	-29.8	-30.4	28.6	0.00e+00	0	28	0	3215982592	32	5975
2026-01-26 17:26:20.17	223.01	30.07	-29.9	-30.4	28.4	0.00e+00	0	28	0	3221225472	32	5999
2026-01-26 17:26:21.18	222.93	29.88	-29.9	-30.4	28.4	0.00e+00	0	28	0	3227516928	32	6007
2026-01-26 17:26:22.19	222.85	29.69	-30.0	-30.5	28.4	0.00e+00	0	29	0	3232759808	32	6066
2026-01-26 17:26:23.20	222.77	29.51	-29.9	-30.6	28.4	0.00e+00	0	28	0	3239051264	32	6145
2026-01-26 17:26:24.20	222.70	29.33	-30.3	-31.0	28.2	0.00e+00	0	28	0	3244294144	32	6399
2026-01-26 17:26:25.21	222.62	29.14	-30.3	-31.0	28.1	0.00e+00	0	28	0	3249537024	32	6399
2026-01-26 17:26:26.22	222.54	28.96	-30.2	-30.9	28.2	0.00e+00	0	28	0	3255828480	32	6324
2026-01-26 17:26:27.22	222.47	28.78	-30.2	-30.9	28.1	0.00e+00	0	28	0	3261071360	32	6378
2026-01-26 17:26:28.23	222.39	28.60	-30.2	-30.7	28.1	0.00e+00	0	28	0	3267362816	32	6218
2026-01-26 17:26:29.24	222.32	28.42	-30.0	-30.7	28.4	0.00e+00	0	28	0	3272605696	32	6193
2026-01-26 17:26:30.25	222.25	28.24	-29.8	-30.3	28.5	0.00e+00	0	28	0	3277848576	32	5963
2026-01-26 17:26:31.26	222.18	28.07	-29.8	-30.3	28.5	0.00e+00	0	28	0	3284140032	32	5939
2026-01-26 17:26:32.27	222.11	27.89	-29.8	-30.5	28.5	0.00e+00	0	28	0	3289382912	32	6039
2026-01-26 17:26:33.28	222.04	27.71	-29.9	-30.6	28.4	0.00e+00	0	29	0	3295674368	32	6139
2026-01-26 17:26:34.29	221.97	27.54	-29.9	-30.5	28.5	0.00e+00	0	29	0	3300917248	32	6080
2026-01-26 17:26:35.30	221.90	27.37	-30.0	-30.6	28.3	0.00e+00	0	29	0	3306160128	32	6161
2026-01-26 17:26:36.31	221.83	27.20	-30.0	-30.6	28.4	0.00e+00	0	29	0	3312451584	32	6162
2026-01-26 17:26:37.32	221.76	27.03	-29.9	-30.6	28.3	0.00e+00	0	28	0	3317694464	32	6152
2026-01-26 17:26:38.33	221.70	26.86	-30.1	-30.8	28.2	0.00e+00	0	28	0	3323985920	32	6271
2026-01-26 17:26:39.34	221.63	26.69	-30.1	-30.8	28.2	0.00e+00	0	28	0	3329228800	32	6292
2026-01-26 17:26:40.35	221.57	26.52	-30.2	-30.9	28.2	0.00e+00	0	28	0	3335520256	32	6324
2026-01-26 17:26:41.36	221.50	26.35	-30.2	-30.7	28.2	0.00e+00	0	28	0	3340763136	32	6223
2026-01-26 17:26:42.37	221.44	26.19	-30.2	-30.8	28.0	0.00e+00	0	28	0	3347054592	32	6264
2026-01-26 17:26:43.38	221.38	26.02	-30.2	-30.8	28.2	0.00e+00	0	28	0	3352297472	32	6249
2026-01-26 17:26:44.39	221.32	25.86	-30.2	-30.7	28.1	0.00e+00	0	28	0	3357540352	32	6226
2026-01-26 17:26:45.40	221.25	25.70	-30.2	-30.8	28.1	0.00e+00	0	28	0	3363831808	32	6254
2026-01-26 17:26:46.41	221.19	25.53	-30.2	-30.9	28.1	0.00e+00	0	28	0	3369074688	32	6359
2026-01-26 17:26:47.42	221.13	25.37	-30.2	-30.8	28.2	0.00e+00	0	28	0	3375366144	32	6248
2026-01-26 17:26:48.43	221.07	25.21	-30.3	-30.8	28.1	0.00e+00	0	28	0	3380609024	32	6311
2026-01-26 17:26:49.44	221.01	25.05	-30.2	-30.8	28.1	0.00e+00	0	28	0	3385851904	32	6307
2026-01-26 17:26:50.45	220.96	24.90	-30.4	-31.0	28.0	0.00e+00	0	28	0	3392143360	32	6454
2026-01-26 17:26:51.45	220.90	24.74	-30.4	-31.1	28.1	0.00e+00	0	29	0	3397386240	32	6492
2026-01-26 17:26:52.46	220.84	24.58	-30.2	-30.9	28.1	0.00e+00	0	28	0	3402629120	32	6359
2026-01-26 17:26:53.47	220.79	24.43	-30.3	-31.0	28.1	0.00e+00	0	28	0	3408920576	32	6417
2026-01-26 17:26:54.48	220.73	24.27	-30.4	-31.1	28.0	0.00e+00	0	28	0	3414163456	32	6506
2026-01-26 17:26:55.49	220.68	24.12	-30.6	-31.2	27.9	0.00e+00	0	28	0	3420454912	32	6597
2026-01-26 17:26:56.50	220.62	23.97	-30.6	-31.3	27.8	0.00e+00	0	28	0	3425697792	32	6625
2026-01-26 17:26:57.50	220.57	23.82	-30.6	-31.3	27.8	0.00e+00	0	28	0	3431989248	32	6672
2026-01-26 17:26:58.51	220.51	23.67	-30.8	-31.5	27.6	0.00e+00	0	28	0	3437232128	34	6060
2026-01-26 17:26:59.53	220.46	23.52	-30.9	-31.6	27.6	0.00e+00	0	29	0	3443523584	34	6147
2026-01-26 17:27:00.53	220.41	23.37	-30.8	-31.5	27.6	0.00e+00	0	28	0	3448766464	34	6066
2026-01-26 17:27:01.54	220.36	23.22	-30.9	-31.6	27.7	0.00e+00	0	28	0	3454009344	34	6127
2026-01-26 17:27:02.55	220.30	23.07	-30.9	-31.7	27.5	0.00e+00	0	28	0	3460300800	34	6177
2026-01-26 17:27:03.56	220.25	22.92	-30.9	-31.7	27.6	0.00e+00	0	28	0	3465543680	34	6180
2026-01-26 17:27:04.57	220.20	22.78	-30.9	-31.6	27.6	0.00e+00	0	28	0	3471835136	34	6143
2026-01-26 17:27:05.58	220.15	22.63	-30.9	-31.6	27.6	0.00e+00	0	28	0	3477078016	34	6108
2026-01-26 17:27:06.59	220.10	22.49	-30.9	-31.6	27.6	0.00e+00	0	28	0	3482320896	34	6107
2026-01-26 17:27:07.60	220.06	22.34	-30.8	-31.5	27.7	0.00e+00	0	28	0	3488612352	34	6092
2026-01-26 17:27:08.61	220.01	22.20	-30.8	-31.4	27.6	0.00e+00	0	28	0	3493855232	34	5968
2026-01-26 17:27:09.62	219.96	22.06	-30.7	-31.4	27.7	0.00e+00	0	28	0	3500146688	34	6005
2026-01-26 17:27:10.63	219.91	21.92	-30.8	-31.3	27.7	0.00e+00	0	28	0	3505389568	34	5928
2026-01-26 17:27:11.64	219.86	21.78	-30.8	-31.4	27.8	0.00e+00	0	28	0	3510632448	34	6023
2026-01-26 17:27:12.65	219.82	21.64	-30.8	-31.4	27.7	0.00e+00	0	28	0	3516923904	34	6015
2026-01-26 17:27:13.66	219.77	21.50	-30.7	-31.2	27.7	0.00e+00	0	28	0	3522166784	34	5870
2026-01-26 17:27:14.67	219.73	21.36	-30.8	-31.3	27.7	0.00e+00	0	28	0	3528458240	34	5962
2026-01-26 17:27:15.67	219.68	21.22	-30.7	-31.2	27.8	0.00e+00	0	28	0	3533701120	34	5890
2026-01-26 17:27:16.68	219.64	21.09	-30.8	-31.3	27.7	0.00e+00	0	29	0	3539992576	34	5952
2026-01-26 17:27:17.69	219.59	20.95	-30.9	-31.4	27.6	0.00e+00	0	28	0	3545235456	34	5990
2026-01-26 17:27:18.70	219.55	20.81	-30.9	-31.4	27.6	0.00e+00	0	29	0	3550478336	34	6030
2026-01-26 17:27:19.71	219.50	20.68	-31.0	-31.5	27.5	0.00e+00	0	28	0	3556769792	34	6069
2026-01-26 17:27:20.72	219.46	20.55	-31.0	-31.6	27.6	0.00e+00	0	28	0	3562012672	34	6124
2026-01-26 17:27:21.73	219.42	20.41	-31.1	-31.6	27.4	0.00e+00	0	28	0	3568304128	34	6171
2026-01-26 17:27:22.74	219.38	20.28	-31.2	-31.7	27.4	0.00e+00	0	28	0	3573547008	34	6205
2026-01-26 17:27:23.75	219.33	20.15	-31.1	-31.7	27.4	0.00e+00	0	28	0	3578789888	34	6197
2026-01-26 17:27:24.76	219.29	20.02	-31.2	-31.8	27.4	0.00e+00	0	28	0	3585081344	34	6270
2026-01-26 17:27:25.76	219.25	19.89	-31.3	-31.8	27.3	0.00e+00	0	28	0	3590324224	34	6280
2026-01-26 17:27:26.77	219.21	19.76	-31.5	-32.0	27.2	0.00e+00	0	28	0	3596615680	34	6457
2026-01-26 17:27:27.78	219.17	19.63	-31.4	-32.0	27.2	0.00e+00	0	28	0	3601858560	34	6396
2026-01-26 17:27:28.79	219.13	19.50	-31.4	-31.9	27.2	0.00e+00	0	28	0	3607101440	34	6376
2026-01-26 17:27:29.80	219.09	19.37	-31.4	-32.0	27.1	0.00e+00	0	28	0	3613392896	34	6430
2026-01-26 17:27:30.81	219.05	19.24	-31.5	-32.1	27.2	0.00e+00	0	28	0	3618635776	34	6469
