passes_logs/2026/01/26/R4.6S_Anadyr/R4.6S_Anadyr__20260126_025624_NOAA_20_JPSS-1_rec.log

#Pass ID: 20260126_025624_NOAA 20 (JPSS-1)
#Satellite: NOAA 20 (JPSS-1)
#Configuration: NOAA 20
#almurnet v.1.7.20251203
#Start time: 2026-01-26 02:56:27

#Version: 2.2.20231116
#Station: R4.6S_Anadyr
#Location: 177.4865 lon 64.73178 lat
#TLE: 1 43013U 17073A   26025.47986292  .00000161  00000+0  97249-4 0  9993
#TLE: 2 43013  98.7646 326.3091 0001052  24.2709 335.8516 14.19540188424225

#Time	Az	El	Level	Level2	SNR	BER	BlckErr	Temp	State	Recorded	gain1	gain2
2026-01-26 02:56:27.18	228.72	0.11	-51.9	-69.6	3.5	3.02e+01	0	27	0	0	60	116857
2026-01-26 02:56:28.18	228.80	0.15	-51.3	-66.5	3.6	1.51e+00	0	28	104	0	60	76270
2026-01-26 02:56:29.19	228.89	0.20	-51.5	-66.7	3.6	1.51e+00	0	28	104	0	60	78361
2026-01-26 02:56:30.20	228.97	0.25	-51.4	-66.6	3.6	1.51e+00	0	28	104	0	60	77722
2026-01-26 02:56:31.21	229.06	0.29	-50.9	-66.1	3.6	1.51e+00	0	28	104	0	60	73116
2026-01-26 02:56:32.22	229.14	0.34	-51.5	-66.6	3.6	1.51e+00	0	28	104	0	60	77575
2026-01-26 02:56:33.23	229.23	0.39	-50.3	-65.4	3.6	1.51e+00	0	28	104	0	60	67518
2026-01-26 02:56:34.24	229.31	0.43	-51.1	-66.2	3.6	1.51e+00	0	28	104	0	60	74081
2026-01-26 02:56:35.25	229.40	0.48	-50.8	-66.0	3.6	1.51e+00	0	28	104	0	60	71711
2026-01-26 02:56:36.26	229.48	0.53	-50.6	-65.8	3.6	1.51e+00	0	28	104	0	60	70642
2026-01-26 02:56:37.27	229.57	0.57	-49.8	-65.2	3.6	1.51e+00	0	28	104	0	60	65783
2026-01-26 02:56:38.28	229.66	0.62	-50.4	-65.8	3.6	1.51e+00	0	28	104	0	60	70224
2026-01-26 02:56:39.29	229.75	0.67	-50.3	-65.7	3.6	1.51e+00	0	28	104	0	60	69490
2026-01-26 02:56:40.30	229.83	0.71	-50.5	-65.7	3.6	1.51e+00	0	28	104	0	60	69445
2026-01-26 02:56:41.31	229.92	0.76	-51.6	-66.8	3.6	1.51e+00	0	28	104	0	60	79465
2026-01-26 02:56:42.32	230.01	0.81	-51.5	-66.7	3.6	1.51e+00	0	28	104	0	60	78179
2026-01-26 02:56:43.33	230.10	0.85	-50.6	-65.8	3.6	1.51e+00	0	28	104	0	60	70853
2026-01-26 02:56:44.34	230.18	0.90	-50.2	-65.4	3.6	1.51e+00	0	28	104	0	60	67674
2026-01-26 02:56:45.35	230.27	0.95	-50.3	-65.5	3.6	1.51e+00	0	28	104	0	60	68105
2026-01-26 02:56:46.36	230.36	0.99	-49.6	-64.8	3.6	1.51e+00	0	28	104	0	60	62908
2026-01-26 02:56:47.37	230.45	1.04	-49.9	-65.1	3.6	1.51e+00	0	28	104	0	60	64995
2026-01-26 02:56:48.38	230.54	1.09	-49.4	-64.6	3.6	1.51e+00	0	28	104	0	60	61502
2026-01-26 02:56:49.39	230.63	1.14	-49.2	-64.4	3.6	1.51e+00	0	28	104	0	60	60081
2026-01-26 02:56:50.40	230.72	1.18	-49.7	-65.0	3.6	1.51e+00	0	29	104	0	60	64630
2026-01-26 02:56:51.41	230.81	1.23	-48.6	-63.8	3.6	1.51e+00	0	29	104	0	60	56009
2026-01-26 02:56:52.42	230.90	1.28	-48.1	-63.3	3.6	1.51e+00	0	28	104	0	60	52801
2026-01-26 02:56:53.43	230.99	1.32	-47.9	-63.0	3.6	1.51e+00	0	29	104	0	60	51217
2026-01-26 02:56:54.44	231.08	1.37	-47.4	-62.6	3.6	1.51e+00	0	28	104	0	60	48487
2026-01-26 02:56:55.45	231.17	1.42	-47.3	-62.5	3.5	1.51e+00	0	28	104	0	60	48217
2026-01-26 02:56:56.46	231.27	1.46	-47.4	-62.5	3.6	1.51e+00	0	29	104	0	60	48328
2026-01-26 02:56:57.47	231.36	1.51	-47.4	-62.6	3.6	1.51e+00	0	29	104	0	60	48735
2026-01-26 02:56:58.48	231.45	1.56	-47.2	-62.3	3.6	1.51e+00	0	29	104	0	60	47334
2026-01-26 02:56:59.49	231.54	1.61	-47.1	-62.2	3.6	1.51e+00	0	28	104	0	60	46691
2026-01-26 02:57:00.50	231.63	1.65	-47.1	-62.2	3.6	1.51e+00	0	29	104	0	60	46834
2026-01-26 02:57:01.51	231.73	1.70	-47.0	-62.2	3.6	1.51e+00	0	28	104	0	60	46559
2026-01-26 02:57:02.52	231.82	1.75	-47.1	-62.3	3.6	1.51e+00	0	29	104	0	60	47006
2026-01-26 02:57:03.53	231.91	1.79	-47.1	-62.2	3.6	1.51e+00	0	29	104	0	60	46683
2026-01-26 02:57:04.54	232.01	1.84	-47.0	-62.2	3.6	1.51e+00	0	29	104	0	60	46391
2026-01-26 02:57:05.55	232.10	1.89	-47.0	-62.1	3.6	1.51e+00	0	29	104	0	60	46206
2026-01-26 02:57:06.56	232.20	1.94	-47.2	-62.3	3.6	1.51e+00	0	29	104	0	60	47180
2026-01-26 02:57:07.57	232.29	1.98	-47.6	-62.7	3.5	1.51e+00	0	29	104	0	60	49556
2026-01-26 02:57:08.58	232.39	2.03	-47.3	-62.5	3.6	1.51e+00	0	29	104	0	60	48352
2026-01-26 02:57:09.59	232.48	2.08	-47.3	-62.4	3.6	1.51e+00	0	29	104	0	60	47874
2026-01-26 02:57:10.60	232.58	2.13	-47.4	-62.5	3.6	1.51e+00	0	29	104	0	60	48374
2026-01-26 02:57:11.61	232.67	2.17	-47.2	-62.4	3.6	1.51e+00	0	29	104	0	60	47609
2026-01-26 02:57:12.62	232.77	2.22	-47.1	-62.3	3.6	1.51e+00	0	29	104	0	60	47000
2026-01-26 02:57:13.63	232.87	2.27	-47.0	-62.2	3.6	1.51e+00	0	29	104	0	60	46647
2026-01-26 02:57:14.64	232.96	2.32	-47.5	-62.6	3.6	1.51e+00	0	29	104	0	60	48868
2026-01-26 02:57:15.64	233.06	2.36	-47.3	-62.5	3.6	1.51e+00	0	29	104	0	60	48033
2026-01-26 02:57:16.65	233.16	2.41	-47.5	-62.6	3.6	1.51e+00	0	29	104	0	60	49018
2026-01-26 02:57:17.67	233.25	2.46	-48.2	-63.4	3.5	1.51e+00	0	29	104	0	60	53703
2026-01-26 02:57:18.68	233.35	2.50	-47.8	-63.1	3.6	1.51e+00	0	29	104	0	60	51537
2026-01-26 02:57:19.69	233.45	2.55	-47.9	-63.0	3.6	1.51e+00	0	29	104	0	60	51282
2026-01-26 02:57:20.69	233.55	2.60	-47.9	-63.0	3.6	1.51e+00	0	29	104	0	60	51182
2026-01-26 02:57:21.70	233.65	2.65	-47.7	-62.8	3.6	1.51e+00	0	29	104	0	60	50173
2026-01-26 02:57:22.71	233.75	2.69	-47.4	-62.6	3.6	1.51e+00	0	29	104	0	60	48547
2026-01-26 02:57:23.73	233.85	2.74	-47.3	-62.5	3.6	1.51e+00	0	29	104	0	60	48096
2026-01-26 02:57:24.74	233.95	2.79	-47.3	-62.5	3.6	1.51e+00	0	29	104	0	60	48110
2026-01-26 02:57:25.75	234.05	2.84	-47.4	-62.5	3.6	1.51e+00	0	29	104	0	60	48380
2026-01-26 02:57:26.76	234.15	2.88	-47.3	-62.4	3.6	1.51e+00	0	29	104	0	60	47705
2026-01-26 02:57:27.77	234.25	2.93	-47.5	-62.6	3.6	1.51e+00	0	29	104	0	60	48984
2026-01-26 02:57:28.78	234.35	2.98	-47.8	-62.8	3.6	1.51e+00	0	29	104	0	60	49749
2026-01-26 02:57:29.78	234.45	3.03	-47.6	-62.6	3.6	1.51e+00	0	29	104	0	60	49015
2026-01-26 02:57:30.79	234.55	3.07	-48.3	-63.3	3.6	1.51e+00	0	29	104	0	60	53123
2026-01-26 02:57:31.80	234.65	3.12	-47.6	-62.9	3.6	1.51e+00	0	29	104	0	60	50568
2026-01-26 02:57:32.81	234.75	3.17	-47.4	-62.5	3.6	1.51e+00	0	29	104	0	60	48220
2026-01-26 02:57:33.82	234.86	3.22	-47.4	-62.5	3.6	1.51e+00	0	29	104	0	60	48158
2026-01-26 02:57:34.83	234.96	3.26	-47.5	-62.8	3.6	1.51e+00	0	29	104	0	60	49665
2026-01-26 02:57:35.84	235.06	3.31	-47.3	-62.5	3.6	1.51e+00	0	29	104	0	60	48160
2026-01-26 02:57:36.85	235.17	3.36	-47.5	-62.7	3.6	1.51e+00	0	29	104	0	60	49213
2026-01-26 02:57:37.86	235.27	3.41	-47.9	-63.0	3.6	1.51e+00	0	29	104	0	60	51267
2026-01-26 02:57:38.87	235.38	3.46	-47.8	-62.9	3.6	1.51e+00	0	29	104	0	60	50368
2026-01-26 02:57:39.88	235.48	3.50	-47.8	-63.0	3.6	1.51e+00	0	29	104	0	60	50894
2026-01-26 02:57:40.89	235.58	3.55	-47.6	-62.8	3.6	1.51e+00	0	29	104	0	60	49719
2026-01-26 02:57:41.91	235.69	3.60	-47.5	-62.6	3.6	1.51e+00	0	29	104	0	60	48600
2026-01-26 02:57:42.92	235.80	3.65	-48.0	-62.8	3.6	1.51e+00	0	29	104	0	60	49788
2026-01-26 02:57:43.93	235.90	3.69	-47.8	-62.9	3.6	1.51e+00	0	29	104	0	60	50419
2026-01-26 02:57:44.94	236.01	3.74	-47.9	-62.9	3.6	1.51e+00	0	29	104	0	60	50664
2026-01-26 02:57:45.95	236.11	3.79	-47.8	-62.8	3.6	1.51e+00	0	29	104	0	60	50040
2026-01-26 02:57:46.96	236.22	3.84	-48.2	-63.2	3.6	1.51e+00	0	29	104	0	60	52441
2026-01-26 02:57:47.97	236.33	3.89	-48.0	-63.1	3.6	1.51e+00	0	29	104	0	60	51381
2026-01-26 02:57:48.98	236.44	3.93	-47.7	-62.9	3.6	1.51e+00	0	29	104	0	60	50311
2026-01-26 02:57:49.98	236.54	3.98	-47.7	-62.8	3.6	1.51e+00	0	29	104	0	60	49943
2026-01-26 02:57:50.99	236.65	4.03	-48.2	-63.0	3.6	1.51e+00	0	29	104	0	60	51148
2026-01-26 02:57:52.00	236.76	4.08	-47.9	-62.6	3.6	1.51e+00	0	29	104	0	60	48660
2026-01-26 02:57:53.01	236.87	4.12	-47.9	-62.6	3.6	1.51e+00	0	29	104	0	60	48857
2026-01-26 02:57:54.02	236.98	4.17	-47.8	-62.3	3.6	1.51e+00	0	29	104	0	60	47301
2026-01-26 02:57:55.03	237.09	4.22	-47.5	-62.3	3.6	1.51e+00	0	29	104	0	60	47251
2026-01-26 02:57:56.04	237.20	4.27	-47.7	-62.7	3.6	1.51e+00	0	29	104	0	60	49239
2026-01-26 02:57:57.05	237.31	4.31	-47.8	-62.3	3.6	1.51e+00	0	29	104	0	60	46903
2026-01-26 02:57:58.06	237.42	4.36	-47.6	-62.5	3.6	1.51e+00	0	29	104	0	60	47976
2026-01-26 02:57:59.07	237.53	4.41	-48.2	-60.9	3.6	1.51e+00	0	29	104	0	60	40149
2026-01-26 02:58:00.08	237.64	4.46	-48.4	-60.6	3.9	1.43e+00	0	29	104	0	60	38805
2026-01-26 02:58:01.08	237.75	4.50	-48.5	-60.5	4.0	1.46e+00	0	29	104	0	60	38231
2026-01-26 02:58:02.09	237.86	4.55	-48.3	-58.7	3.9	1.38e+00	0	29	0	0	60	31260
2026-01-26 02:58:03.10	237.97	4.60	-48.2	-60.3	3.7	1.39e+00	0	29	104	0	60	37589
2026-01-26 02:58:04.11	238.09	4.65	-48.2	-59.6	4.0	1.36e+00	92	29	0	0	60	34577
2026-01-26 02:58:05.12	238.20	4.69	-48.3	-58.3	4.0	1.38e+00	9	29	0	0	60	29805
2026-01-26 02:58:06.13	238.31	4.74	-48.2	-58.1	4.1	1.26e+00	92	29	0	2097152	60	28892
2026-01-26 02:58:07.14	238.43	4.79	-48.4	-58.5	4.2	1.30e+00	91	29	0	3145728	60	30473
2026-01-26 02:58:08.15	238.54	4.84	-48.2	-57.9	4.3	9.64e-01	90	29	0	5242880	60	28385
2026-01-26 02:58:09.16	238.66	4.89	-48.2	-57.2	4.5	7.33e-01	92	29	0	7340032	60	26236
2026-01-26 02:58:10.17	238.77	4.93	-48.1	-57.1	4.7	8.64e-01	93	29	0	9437184	60	25746
2026-01-26 02:58:11.18	238.89	4.98	-47.9	-56.7	4.8	5.79e-01	92	29	0	10485760	60	24840
2026-01-26 02:58:12.19	239.00	5.03	-47.9	-57.6	4.2	8.26e-01	69	29	0	12582912	60	27345
2026-01-26 02:58:13.20	239.12	5.08	-47.8	-56.9	4.6	9.37e-01	92	29	0	14680064	60	25190
2026-01-26 02:58:14.21	239.23	5.12	-48.0	-56.7	4.9	7.20e-01	92	29	0	16777216	60	24751
2026-01-26 02:58:15.22	239.35	5.17	-47.9	-56.2	5.1	6.50e-01	90	29	0	18874368	60	23278
2026-01-26 02:58:16.22	239.46	5.22	-47.9	-56.2	5.5	3.21e-01	92	29	0	19922944	60	23275
2026-01-26 02:58:17.23	239.58	5.27	-47.4	-54.4	7.0	2.29e-01	92	29	0	22020096	60	18915
2026-01-26 02:58:18.24	239.70	5.31	-47.4	-54.9	6.5	1.60e-01	92	29	0	24117248	60	19980
2026-01-26 02:58:19.25	239.82	5.36	-47.3	-54.3	7.1	1.74e-01	6	29	0	26214400	60	18649
2026-01-26 02:58:20.26	239.94	5.41	-47.5	-54.4	7.3	1.10e-01	92	29	0	28311552	60	18934
2026-01-26 02:58:21.27	240.05	5.46	-47.5	-54.8	6.7	1.23e-01	3	29	0	29360128	60	19768
2026-01-26 02:58:22.28	240.17	5.50	-47.5	-53.4	9.0	1.08e-01	92	29	0	31457280	60	16856
2026-01-26 02:58:23.29	240.29	5.55	-47.1	-52.7	9.1	2.85e-02	90	29	0	33554432	60	15617
2026-01-26 02:58:24.30	240.41	5.60	-47.0	-52.2	9.8	1.92e-02	92	29	0	35651584	60	14748
2026-01-26 02:58:25.31	240.53	5.65	-47.0	-52.3	10.2	1.26e-02	92	29	0	37748736	60	14817
2026-01-26 02:58:26.32	240.65	5.69	-46.6	-51.3	10.6	5.56e-03	0	29	0	38797312	60	13301
2026-01-26 02:58:27.33	240.78	5.74	-46.7	-51.7	10.4	5.46e-03	92	29	0	40894464	60	13953
2026-01-26 02:58:28.34	240.90	5.79	-46.7	-51.8	10.0	4.96e-03	9	29	0	42991616	60	14056
2026-01-26 02:58:29.34	241.02	5.84	-46.0	-50.3	11.8	1.40e-03	93	29	0	45088768	60	11804
2026-01-26 02:58:30.35	241.14	5.88	-45.8	-49.7	12.3	2.63e-04	92	29	0	47185920	60	11064
2026-01-26 02:58:31.36	241.26	5.93	-45.5	-49.1	13.0	9.38e-05	92	29	0	48234496	60	10362
2026-01-26 02:58:32.37	241.38	5.98	-45.6	-49.2	12.9	4.42e-05	92	29	0	50331648	60	10429
2026-01-26 02:58:33.38	241.51	6.02	-45.5	-49.0	13.3	1.60e-05	92	29	0	52428800	60	10175
2026-01-26 02:58:34.39	241.63	6.07	-45.6	-49.1	13.3	2.13e-05	92	29	0	54525952	60	10255
2026-01-26 02:58:35.40	241.76	6.12	-45.6	-48.9	13.9	2.28e-05	0	29	0	56623104	60	10023
2026-01-26 02:58:36.41	241.88	6.17	-45.3	-48.3	14.4	1.50e-06	92	29	0	58720256	60	9374
2026-01-26 02:58:37.42	242.01	6.21	-45.4	-48.5	14.4	7.00e-07	77	29	0	59768832	60	9607
2026-01-26 02:58:38.43	242.13	6.26	-45.2	-48.3	14.3	1.50e-06	92	29	0	61865984	60	9376
2026-01-26 02:58:39.44	242.26	6.31	-45.0	-47.9	14.9	7.00e-07	92	29	0	63963136	60	8946
2026-01-26 02:58:40.45	242.38	6.35	-44.6	-47.3	15.3	0.00e+00	90	29	0	66060288	60	8378
2026-01-26 02:58:41.46	242.51	6.40	-44.8	-47.5	15.0	0.00e+00	90	29	0	68157440	60	8559
2026-01-26 02:58:42.47	242.63	6.45	-44.5	-47.0	15.8	7.00e-07	4	29	0	69206016	60	8103
2026-01-26 02:58:43.48	242.76	6.50	-44.5	-47.1	15.5	0.00e+00	91	29	0	71303168	60	8179
2026-01-26 02:58:44.49	242.89	6.54	-44.3	-46.7	15.8	0.00e+00	74	29	0	73400320	60	7838
2026-01-26 02:58:45.50	243.02	6.59	-44.4	-47.0	15.9	0.00e+00	91	29	0	75497472	60	8069
2026-01-26 02:58:46.51	243.15	6.64	-44.3	-46.8	16.0	0.00e+00	92	29	0	77594624	60	7905
2026-01-26 02:58:47.52	243.27	6.68	-44.2	-46.5	16.2	0.00e+00	92	29	0	78643200	60	7681
2026-01-26 02:58:48.53	243.40	6.73	-44.3	-46.7	16.1	0.00e+00	92	29	0	80740352	60	7813
2026-01-26 02:58:49.54	243.53	6.78	-43.8	-45.9	16.9	0.00e+00	92	29	0	82837504	60	7107
2026-01-26 02:58:50.54	243.66	6.82	-44.1	-46.3	16.6	0.00e+00	90	29	0	84934656	60	7500
2026-01-26 02:58:51.55	243.79	6.87	-43.4	-45.4	17.2	0.00e+00	0	29	0	87031808	60	6703
2026-01-26 02:58:52.56	243.92	6.92	-43.4	-45.2	17.8	0.00e+00	90	29	0	88080384	60	6614
2026-01-26 02:58:53.57	244.05	6.96	-44.1	-46.3	17.0	0.00e+00	92	29	0	90177536	60	7456
2026-01-26 02:58:54.58	244.19	7.01	-43.2	-45.0	18.2	0.00e+00	92	29	0	92274688	60	6430
2026-01-26 02:58:55.59	244.32	7.06	-42.7	-44.4	18.6	0.00e+00	92	29	0	94371840	60	5966
2026-01-26 02:58:56.60	244.45	7.10	-42.4	-43.9	18.9	0.00e+00	92	29	0	96468992	58	6387
2026-01-26 02:58:57.61	244.58	7.15	-43.0	-44.7	18.4	0.00e+00	92	29	0	97517568	58	6990
2026-01-26 02:58:58.62	244.72	7.20	-43.0	-44.7	18.5	0.00e+00	86	29	0	99614720	58	6952
2026-01-26 02:58:59.63	244.85	7.24	-42.6	-44.2	18.8	0.00e+00	92	29	0	101711872	58	6586
2026-01-26 02:59:00.64	244.98	7.29	-42.6	-44.2	18.4	0.00e+00	92	29	0	103809024	58	6562
2026-01-26 02:59:01.65	245.12	7.33	-41.9	-43.3	19.6	0.00e+00	92	29	0	105906176	58	5932
2026-01-26 02:59:02.66	245.25	7.38	-42.6	-44.1	19.0	0.00e+00	92	29	0	106954752	58	6520
2026-01-26 02:59:03.67	245.39	7.43	-42.5	-44.1	18.9	0.00e+00	90	29	0	109051904	58	6468
2026-01-26 02:59:04.68	245.52	7.47	-41.7	-43.0	20.1	0.00e+00	92	29	0	111149056	56	6464
2026-01-26 02:59:05.69	245.66	7.52	-42.1	-43.5	19.6	0.00e+00	3	29	0	113246208	56	6820
2026-01-26 02:59:06.70	245.80	7.56	-41.8	-43.0	20.3	0.00e+00	92	29	0	115343360	56	6454
2026-01-26 02:59:07.71	245.93	7.61	-41.5	-42.7	21.0	0.00e+00	92	29	0	116391936	56	6207
2026-01-26 02:59:08.72	246.07	7.66	-41.7	-43.0	20.5	0.00e+00	92	29	0	118489088	56	6422
2026-01-26 02:59:09.73	246.21	7.70	-41.5	-42.8	20.6	0.00e+00	92	29	0	120586240	56	6257
2026-01-26 02:59:10.74	246.35	7.75	-41.3	-42.5	20.7	0.00e+00	92	29	0	122683392	56	6075
2026-01-26 02:59:11.75	246.48	7.79	-40.9	-42.0	21.1	0.00e+00	92	29	0	124780544	56	5747
2026-01-26 02:59:12.76	246.62	7.84	-41.8	-43.1	20.5	0.00e+00	17	29	0	126877696	56	6524
2026-01-26 02:59:13.77	246.76	7.89	-41.3	-42.5	20.8	0.00e+00	92	29	0	127926272	56	6084
2026-01-26 02:59:14.78	246.90	7.93	-41.2	-42.3	21.1	0.00e+00	8	29	0	130023424	56	5954
2026-01-26 02:59:15.79	247.04	7.98	-40.9	-42.0	21.3	0.00e+00	92	29	0	132120576	56	5717
2026-01-26 02:59:16.80	247.18	8.02	-41.3	-42.4	20.8	0.00e+00	92	29	0	134217728	56	6022
2026-01-26 02:59:17.80	247.32	8.07	-41.5	-42.7	21.3	0.00e+00	90	29	0	136314880	56	6215
2026-01-26 02:59:18.81	247.46	8.11	-41.5	-42.6	21.7	0.00e+00	92	29	0	137363456	56	6172
2026-01-26 02:59:19.82	247.61	8.16	-40.6	-41.7	22.0	0.00e+00	92	29	0	139460608	54	6228
2026-01-26 02:59:20.83	247.75	8.20	-40.6	-41.7	21.8	0.00e+00	92	29	0	141557760	54	6226
2026-01-26 02:59:21.84	247.89	8.25	-40.5	-41.6	21.8	0.00e+00	76	29	0	143654912	54	6153
2026-01-26 02:59:22.85	248.04	8.29	-40.6	-41.7	21.5	0.00e+00	92	29	0	145752064	54	6238
2026-01-26 02:59:23.86	248.18	8.34	-40.2	-41.2	22.1	0.00e+00	92	29	0	146800640	54	5884
2026-01-26 02:59:24.87	248.32	8.38	-40.5	-41.6	21.5	0.00e+00	92	29	0	148897792	54	6164
2026-01-26 02:59:25.88	248.47	8.43	-40.3	-41.4	22.0	0.00e+00	90	29	0	150994944	54	5989
2026-01-26 02:59:26.89	248.61	8.47	-40.4	-41.5	22.2	0.00e+00	92	29	0	153092096	54	6050
2026-01-26 02:59:27.90	248.76	8.52	-40.8	-42.0	21.4	0.00e+00	90	29	0	155189248	54	6397
2026-01-26 02:59:28.90	248.90	8.56	-40.7	-41.8	21.6	0.00e+00	7	29	0	156237824	54	6306
2026-01-26 02:59:29.91	249.05	8.60	-40.7	-41.8	21.6	0.00e+00	92	29	0	158334976	54	6282
2026-01-26 02:59:30.92	249.19	8.65	-40.8	-41.9	21.6	0.00e+00	3	29	0	160432128	54	6343
2026-01-26 02:59:31.93	249.34	8.69	-40.5	-41.5	21.8	0.00e+00	92	29	0	162529280	54	6095
2026-01-26 02:59:32.94	249.49	8.74	-39.9	-40.9	22.7	0.00e+00	92	29	0	164626432	54	5678
2026-01-26 02:59:33.95	249.64	8.78	-41.0	-42.1	21.7	0.00e+00	92	29	0	165675008	54	6465
2026-01-26 02:59:34.96	249.78	8.83	-40.3	-41.3	21.9	0.00e+00	92	29	0	167772160	54	5923
2026-01-26 02:59:35.97	249.93	8.87	-39.9	-40.9	22.3	0.00e+00	11	29	0	169869312	54	5659
2026-01-26 02:59:36.98	250.08	8.91	-40.0	-41.0	22.3	0.00e+00	92	29	0	171966464	54	5757
2026-01-26 02:59:37.99	250.23	8.96	-39.7	-40.7	22.4	0.00e+00	0	29	0	174063616	52	6230
2026-01-26 02:59:39.00	250.38	9.00	-39.7	-40.7	22.5	0.00e+00	92	29	0	175112192	52	6189
2026-01-26 02:59:40.01	250.53	9.04	-39.8	-40.8	22.4	0.00e+00	90	29	0	177209344	52	6293
2026-01-26 02:59:41.02	250.68	9.09	-39.8	-40.8	22.3	0.00e+00	92	29	0	179306496	52	6288
2026-01-26 02:59:42.03	250.84	9.13	-40.0	-41.0	22.3	0.00e+00	92	29	0	181403648	52	6442
2026-01-26 02:59:43.04	250.99	9.17	-39.9	-40.9	22.0	0.00e+00	92	29	0	183500800	52	6363
2026-01-26 02:59:44.05	251.14	9.22	-39.6	-40.6	22.4	0.00e+00	92	29	0	184549376	52	6137
2026-01-26 02:59:45.06	251.29	9.26	-39.7	-40.7	22.3	0.00e+00	64	29	0	186646528	52	6208
2026-01-26 02:59:46.07	251.44	9.30	-39.3	-40.3	22.6	0.00e+00	92	29	0	188743680	52	5935
2026-01-26 02:59:47.07	251.60	9.35	-39.3	-40.3	22.5	0.00e+00	92	29	0	190840832	52	5920
2026-01-26 02:59:48.08	251.75	9.39	-39.3	-40.3	22.5	0.00e+00	92	29	0	192937984	52	5925
2026-01-26 02:59:49.09	251.91	9.43	-39.2	-40.2	22.6	0.00e+00	92	29	0	195035136	52	5870
2026-01-26 02:59:50.10	252.06	9.47	-39.6	-40.7	22.4	0.00e+00	92	29	0	196083712	52	6185
2026-01-26 02:59:51.11	252.22	9.52	-39.5	-40.5	22.5	0.00e+00	92	29	0	198180864	52	6084
2026-01-26 02:59:52.12	252.37	9.56	-39.8	-40.8	22.5	0.00e+00	0	29	0	200278016	52	6265
2026-01-26 02:59:53.13	252.53	9.60	-39.7	-40.7	22.4	0.00e+00	92	29	0	202375168	52	6199
2026-01-26 02:59:54.14	252.68	9.64	-39.5	-40.5	22.3	0.00e+00	86	29	0	204472320	52	6068
2026-01-26 02:59:55.15	252.84	9.69	-39.7	-40.8	22.2	0.00e+00	92	29	0	205520896	52	6246
2026-01-26 02:59:56.16	253.00	9.73	-40.0	-41.1	22.1	0.00e+00	92	29	0	207618048	52	6499
2026-01-26 02:59:57.17	253.16	9.77	-40.6	-41.6	21.8	0.00e+00	92	29	0	209715200	52	6891
2026-01-26 02:59:58.18	253.31	9.81	-40.2	-41.2	22.1	0.00e+00	92	29	0	211812352	54	5873
2026-01-26 02:59:59.19	253.47	9.85	-40.6	-41.7	22.0	0.00e+00	74	29	0	213909504	54	6193
2026-01-26 03:00:00.19	253.63	9.89	-40.4	-41.5	21.9	0.00e+00	90	29	0	214958080	54	6049
2026-01-26 03:00:01.20	253.79	9.94	-40.1	-41.1	22.4	0.00e+00	0	29	0	217055232	54	5806
2026-01-26 03:00:02.21	253.95	9.98	-40.5	-41.6	22.1	0.00e+00	92	29	0	219152384	54	6106
2026-01-26 03:00:03.22	254.11	10.02	-40.6	-41.7	21.9	0.00e+00	92	29	0	221249536	54	6198
2026-01-26 03:00:04.23	254.27	10.06	-40.8	-41.9	22.0	0.00e+00	90	29	0	223346688	54	6347
2026-01-26 03:00:05.24	254.43	10.10	-40.7	-41.7	22.0	0.00e+00	92	29	0	224395264	54	6234
2026-01-26 03:00:06.25	254.59	10.14	-41.0	-42.1	21.8	0.00e+00	9	29	0	226492416	54	6506
2026-01-26 03:00:07.26	254.76	10.18	-41.7	-42.8	21.5	0.00e+00	92	29	0	228589568	54	7077
2026-01-26 03:00:08.27	254.92	10.22	-40.9	-42.0	21.8	0.00e+00	74	29	0	230686720	54	6427
2026-01-26 03:00:09.28	255.08	10.26	-40.9	-42.1	21.4	0.00e+00	92	29	0	232783872	54	6479
2026-01-26 03:00:10.29	255.25	10.30	-40.9	-42.1	21.5	0.00e+00	92	29	0	233832448	54	6474
2026-01-26 03:00:11.30	255.41	10.34	-40.8	-41.9	21.7	0.00e+00	92	29	0	235929600	54	6325
2026-01-26 03:00:12.31	255.57	10.38	-40.6	-41.7	21.9	0.00e+00	90	29	0	238026752	54	6213
2026-01-26 03:00:13.32	255.74	10.42	-40.7	-41.8	21.8	0.00e+00	92	29	0	240123904	54	6304
2026-01-26 03:00:14.33	255.90	10.46	-40.4	-41.5	21.5	0.00e+00	92	29	0	242221056	54	6088
2026-01-26 03:00:15.34	256.07	10.50	-40.3	-41.3	21.9	0.00e+00	16	29	0	243269632	54	5956
2026-01-26 03:00:16.35	256.24	10.54	-41.4	-42.6	21.0	0.00e+00	92	29	0	245366784	56	6149
2026-01-26 03:00:17.36	256.40	10.58	-41.3	-42.6	20.8	0.00e+00	11	29	0	247463936	56	6115
2026-01-26 03:00:18.37	256.57	10.62	-41.0	-42.2	21.1	0.00e+00	92	29	0	249561088	56	5869
2026-01-26 03:00:19.38	256.74	10.66	-41.8	-43.1	21.2	0.00e+00	90	29	0	251658240	56	6496
2026-01-26 03:00:20.39	256.90	10.69	-42.9	-44.3	19.6	0.00e+00	90	29	0	252706816	56	7466
2026-01-26 03:00:21.40	257.07	10.73	-41.6	-42.8	20.8	0.00e+00	90	29	0	254803968	56	6301
2026-01-26 03:00:22.41	257.24	10.77	-41.3	-42.5	21.1	0.00e+00	66	29	0	256901120	56	6083
2026-01-26 03:00:23.42	257.41	10.81	-42.3	-43.6	20.5	0.00e+00	92	29	0	258998272	56	6902
2026-01-26 03:00:24.42	257.58	10.85	-42.7	-44.0	20.3	0.00e+00	73	29	0	261095424	56	7213
2026-01-26 03:00:25.43	257.75	10.88	-42.6	-44.0	20.0	0.00e+00	92	29	0	262144000	58	6430
2026-01-26 03:00:26.44	257.92	10.92	-41.6	-42.8	20.2	0.00e+00	90	29	0	264241152	56	6286
2026-01-26 03:00:27.45	258.09	10.96	-42.2	-43.5	20.8	0.00e+00	95	29	0	266338304	56	6782
2026-01-26 03:00:28.46	258.26	11.00	-42.1	-43.4	20.6	0.00e+00	90	29	0	268435456	56	6697
2026-01-26 03:00:29.47	258.43	11.03	-42.0	-43.2	20.9	0.00e+00	92	29	0	270532608	56	6586
2026-01-26 03:00:30.48	258.60	11.07	-42.3	-43.6	20.5	0.00e+00	92	29	0	271581184	56	6903
2026-01-26 03:00:31.49	258.78	11.11	-41.5	-42.7	21.2	0.00e+00	11	29	0	273678336	56	6200
2026-01-26 03:00:32.50	258.95	11.14	-41.2	-42.3	21.4	0.00e+00	90	29	0	275775488	56	5950
2026-01-26 03:00:33.51	259.12	11.18	-41.4	-42.5	21.6	0.00e+00	92	29	0	277872640	56	6074
2026-01-26 03:00:34.52	259.30	11.22	-41.7	-42.9	21.4	0.00e+00	92	29	0	279969792	56	6323
2026-01-26 03:00:35.53	259.47	11.25	-41.6	-42.8	21.1	0.00e+00	92	29	0	281018368	56	6276
2026-01-26 03:00:36.54	259.64	11.29	-41.9	-43.0	21.4	0.00e+00	10	29	0	283115520	56	6454
2026-01-26 03:00:37.55	259.82	11.32	-42.3	-43.5	21.2	0.00e+00	92	29	0	285212672	58	6041
2026-01-26 03:00:38.56	259.99	11.36	-41.9	-43.0	21.7	0.00e+00	11	29	0	287309824	56	6430
2026-01-26 03:00:39.56	260.17	11.40	-41.9	-43.1	20.8	0.00e+00	90	29	0	289406976	56	6484
2026-01-26 03:00:40.57	260.34	11.43	-41.9	-43.1	21.5	0.00e+00	6	29	0	291504128	56	6487
2026-01-26 03:00:41.58	260.52	11.47	-41.8	-42.9	21.4	0.00e+00	90	29	0	292552704	56	6387
2026-01-26 03:00:42.59	260.70	11.50	-41.4	-42.5	21.6	0.00e+00	92	29	0	294649856	56	6079
2026-01-26 03:00:43.60	260.87	11.53	-41.6	-42.7	21.7	0.00e+00	82	29	0	296747008	56	6206
2026-01-26 03:00:44.61	261.05	11.57	-41.1	-42.2	22.0	0.00e+00	92	29	0	298844160	56	5844
2026-01-26 03:00:45.62	261.23	11.60	-41.1	-42.1	21.8	0.00e+00	71	29	0	300941312	56	5827
2026-01-26 03:00:46.63	261.41	11.64	-40.9	-42.0	21.8	0.00e+00	92	29	0	301989888	56	5737
2026-01-26 03:00:47.64	261.59	11.67	-41.1	-42.3	21.5	0.00e+00	84	29	0	304087040	56	5900
2026-01-26 03:00:48.65	261.77	11.70	-41.5	-42.7	21.3	0.00e+00	90	29	0	306184192	56	6195
2026-01-26 03:00:49.66	261.95	11.74	-41.6	-42.8	21.6	0.00e+00	92	29	0	308281344	56	6280
2026-01-26 03:00:50.67	262.13	11.77	-41.6	-42.8	21.2	0.00e+00	90	29	0	310378496	56	6281
2026-01-26 03:00:51.67	262.31	11.80	-42.5	-43.8	20.6	0.00e+00	92	29	0	311427072	58	6299
2026-01-26 03:00:52.68	262.49	11.84	-42.6	-44.0	20.6	0.00e+00	2	29	0	313524224	56	7227
2026-01-26 03:00:53.69	262.67	11.87	-41.7	-42.9	21.1	0.00e+00	92	29	0	315621376	56	6332
2026-01-26 03:00:54.70	262.85	11.90	-42.1	-43.5	20.2	0.00e+00	2	29	0	317718528	56	6776
2026-01-26 03:00:55.71	263.03	11.93	-41.4	-42.6	21.2	0.00e+00	92	29	0	319815680	56	6122
2026-01-26 03:00:56.72	263.21	11.97	-41.6	-42.8	21.0	0.00e+00	86	29	0	320864256	56	6298
2026-01-26 03:00:57.73	263.40	12.00	-41.4	-42.5	21.4	0.00e+00	90	29	0	322961408	56	6094
2026-01-26 03:00:58.74	263.58	12.03	-41.6	-42.7	21.5	0.00e+00	91	29	0	325058560	56	6215
2026-01-26 03:00:59.75	263.76	12.06	-41.9	-43.1	21.4	0.00e+00	6	29	0	327155712	56	6479
2026-01-26 03:01:00.76	263.95	12.09	-41.1	-42.2	21.7	0.00e+00	92	29	0	329252864	56	5881
2026-01-26 03:01:01.77	264.13	12.12	-41.5	-42.7	21.6	0.00e+00	13	29	0	330301440	56	6190
2026-01-26 03:01:02.77	264.31	12.15	-41.5	-42.7	21.4	0.00e+00	92	29	0	332398592	56	6196
2026-01-26 03:01:03.78	264.50	12.18	-42.0	-43.1	21.4	0.00e+00	0	29	0	334495744	58	5797
2026-01-26 03:01:04.79	264.69	12.21	-42.0	-43.2	20.8	0.00e+00	91	29	0	336592896	58	5856
2026-01-26 03:01:05.80	264.87	12.24	-41.8	-43.0	21.1	0.00e+00	92	29	0	338690048	58	5720
2026-01-26 03:01:06.81	265.06	12.27	-41.6	-42.8	21.4	0.00e+00	73	29	0	339738624	56	6265
2026-01-26 03:01:07.82	265.24	12.30	-41.7	-42.9	21.0	0.00e+00	92	29	0	341835776	56	6320
2026-01-26 03:01:08.83	265.43	12.33	-42.6	-43.7	20.7	0.00e+00	76	29	0	343932928	58	6243
2026-01-26 03:01:09.84	265.62	12.36	-42.6	-43.9	20.7	0.00e+00	92	29	0	346030080	58	6356
2026-01-26 03:01:10.85	265.81	12.39	-41.7	-43.0	20.9	0.00e+00	0	29	0	348127232	56	6392
2026-01-26 03:01:11.85	265.99	12.42	-41.8	-43.0	20.8	0.00e+00	92	29	0	349175808	56	6435
2026-01-26 03:01:12.86	266.18	12.44	-41.5	-42.7	21.4	0.00e+00	92	29	0	351272960	56	6198
2026-01-26 03:01:13.87	266.37	12.47	-42.3	-43.5	21.3	0.00e+00	92	29	0	353370112	56	6806
2026-01-26 03:01:14.88	266.56	12.50	-41.5	-42.7	21.4	0.00e+00	92	29	0	355467264	56	6187
2026-01-26 03:01:15.89	266.75	12.53	-41.3	-42.5	21.3	0.00e+00	7	29	0	357564416	56	6048
2026-01-26 03:01:16.90	266.94	12.55	-41.2	-42.3	21.4	0.00e+00	91	29	0	359661568	56	5953
2026-01-26 03:01:17.91	267.13	12.58	-41.6	-42.7	21.5	0.00e+00	0	29	0	360710144	56	6214
2026-01-26 03:01:18.92	267.32	12.61	-42.0	-43.1	21.6	0.00e+00	92	29	0	362807296	56	6522
2026-01-26 03:01:19.93	267.51	12.63	-41.6	-42.6	21.9	0.00e+00	75	29	0	364904448	56	6168
2026-01-26 03:01:20.94	267.70	12.66	-41.7	-42.8	22.0	0.00e+00	91	29	0	367001600	56	6248
2026-01-26 03:01:21.95	267.89	12.69	-40.9	-42.0	22.1	0.00e+00	92	29	0	369098752	56	5723
2026-01-26 03:01:22.96	268.08	12.71	-41.1	-42.1	22.3	0.00e+00	0	29	0	370147328	54	6535
2026-01-26 03:01:23.97	268.27	12.74	-40.9	-41.9	22.4	0.00e+00	90	29	0	372244480	54	6357
2026-01-26 03:01:24.98	268.46	12.76	-40.4	-41.4	22.3	0.00e+00	2	29	0	374341632	54	6012
2026-01-26 03:01:25.99	268.66	12.79	-40.2	-41.3	22.3	0.00e+00	90	29	0	376438784	54	5903
2026-01-26 03:01:27.00	268.85	12.81	-40.9	-42.0	21.3	0.00e+00	0	29	0	378535936	54	6410
2026-01-26 03:01:28.01	269.04	12.84	-40.6	-41.6	22.0	0.00e+00	90	29	0	379584512	54	6147
2026-01-26 03:01:29.02	269.24	12.86	-40.8	-41.8	22.0	0.00e+00	92	29	0	381681664	54	6310
2026-01-26 03:01:30.02	269.43	12.88	-41.0	-42.1	21.8	0.00e+00	92	29	0	383778816	54	6526
2026-01-26 03:01:31.03	269.62	12.91	-40.6	-41.6	22.2	0.00e+00	90	29	0	385875968	54	6164
2026-01-26 03:01:32.04	269.82	12.93	-40.5	-41.6	22.2	0.00e+00	64	29	0	387973120	54	6107
2026-01-26 03:01:33.05	270.01	12.95	-41.0	-42.1	22.3	0.00e+00	92	29	0	389021696	54	6484
2026-01-26 03:01:34.06	270.21	12.98	-40.6	-41.6	22.5	0.00e+00	0	29	0	391118848	54	6164
2026-01-26 03:01:35.07	270.40	13.00	-40.5	-41.6	22.4	0.00e+00	90	29	0	393216000	54	6132
2026-01-26 03:01:36.08	270.60	13.02	-41.4	-42.5	22.0	0.00e+00	90	29	0	395313152	54	6825
2026-01-26 03:01:37.09	270.79	13.04	-40.9	-41.9	22.3	0.00e+00	92	29	0	397410304	56	5683
2026-01-26 03:01:38.10	270.99	13.06	-41.2	-42.3	21.9	0.00e+00	92	29	0	398458880	54	6682
2026-01-26 03:01:39.11	271.18	13.08	-42.6	-43.8	21.4	0.00e+00	0	29	0	400556032	56	7075
2026-01-26 03:01:40.12	271.38	13.11	-41.4	-42.4	21.7	0.00e+00	92	29	0	402653184	56	6020
2026-01-26 03:01:41.13	271.58	13.13	-41.9	-43.1	21.2	0.00e+00	2	29	0	404750336	56	6489
2026-01-26 03:01:42.14	271.78	13.15	-41.1	-42.1	21.7	0.00e+00	92	29	0	406847488	54	6509
2026-01-26 03:01:43.15	271.97	13.17	-41.6	-42.7	21.1	0.00e+00	75	29	0	407896064	54	6990
2026-01-26 03:01:44.15	272.17	13.19	-41.5	-42.7	21.3	0.00e+00	91	29	0	409993216	56	6210
2026-01-26 03:01:45.16	272.37	13.21	-40.9	-42.0	21.5	0.00e+00	91	29	0	412090368	56	5719
2026-01-26 03:01:46.17	272.56	13.22	-41.5	-42.6	21.8	0.00e+00	92	29	0	414187520	56	6118
2026-01-26 03:01:47.18	272.76	13.24	-41.6	-42.7	21.6	0.00e+00	92	29	0	416284672	56	6209
2026-01-26 03:01:48.19	272.96	13.26	-42.7	-44.0	21.1	0.00e+00	12	29	0	417333248	56	7182
2026-01-26 03:01:49.19	273.16	13.28	-41.8	-43.0	21.2	0.00e+00	92	29	0	419430400	56	6399
2026-01-26 03:01:50.20	273.36	13.30	-41.9	-43.1	21.3	0.00e+00	0	29	0	421527552	56	6466
2026-01-26 03:01:51.21	273.56	13.32	-41.1	-42.2	21.5	0.00e+00	92	29	0	423624704	56	5865
2026-01-26 03:01:52.22	273.76	13.33	-42.0	-43.2	20.8	0.00e+00	92	29	0	425721856	56	6601
2026-01-26 03:01:53.23	273.96	13.35	-41.4	-42.6	21.6	0.00e+00	92	29	0	426770432	56	6127
2026-01-26 03:01:54.25	274.16	13.37	-41.4	-42.5	21.8	0.00e+00	92	29	0	428867584	56	6051
2026-01-26 03:01:55.25	274.36	13.38	-41.5	-42.7	21.5	0.00e+00	0	29	0	430964736	56	6187
2026-01-26 03:01:56.26	274.56	13.40	-41.4	-42.6	21.6	0.00e+00	92	29	0	433061888	56	6117
2026-01-26 03:01:57.27	274.76	13.42	-41.4	-42.5	21.6	0.00e+00	0	29	0	435159040	56	6093
2026-01-26 03:01:58.28	274.96	13.43	-41.1	-42.2	21.6	0.00e+00	92	29	0	436207616	56	5895
2026-01-26 03:01:59.29	275.16	13.45	-41.8	-43.0	21.4	0.00e+00	90	29	0	438304768	56	6402
2026-01-26 03:02:00.30	275.36	13.46	-41.6	-42.7	21.4	0.00e+00	90	29	0	440401920	56	6240
2026-01-26 03:02:01.31	275.56	13.48	-41.6	-42.8	21.4	0.00e+00	92	29	0	442499072	56	6289
2026-01-26 03:02:02.32	275.76	13.49	-41.7	-42.9	21.4	0.00e+00	0	29	0	444596224	56	6346
2026-01-26 03:02:03.33	275.96	13.50	-41.7	-42.8	21.2	0.00e+00	92	29	0	445644800	56	6303
2026-01-26 03:02:04.34	276.17	13.52	-41.3	-42.4	21.4	0.00e+00	7	29	0	447741952	56	6024
2026-01-26 03:02:05.35	276.37	13.53	-41.6	-42.8	21.5	0.00e+00	92	29	0	449839104	56	6252
2026-01-26 03:02:06.36	276.57	13.54	-41.4	-42.5	21.7	0.00e+00	0	29	0	451936256	56	6096
2026-01-26 03:02:07.37	276.77	13.56	-41.2	-42.3	21.7	0.00e+00	90	29	0	454033408	56	5945
2026-01-26 03:02:08.37	276.97	13.57	-41.3	-42.5	21.4	0.00e+00	92	29	0	456130560	56	6039
2026-01-26 03:02:09.38	277.18	13.58	-41.1	-42.1	21.7	0.00e+00	92	29	0	457179136	56	5820
2026-01-26 03:02:10.39	277.38	13.59	-40.9	-42.0	21.8	0.00e+00	92	29	0	459276288	56	5751
2026-01-26 03:02:11.40	277.58	13.60	-41.1	-42.2	21.7	0.00e+00	0	29	0	461373440	56	5852
2026-01-26 03:02:12.41	277.79	13.62	-40.8	-41.9	21.7	0.00e+00	92	29	0	463470592	54	6359
2026-01-26 03:02:13.42	277.99	13.63	-40.5	-41.6	21.8	0.00e+00	12	29	0	465567744	54	6116
2026-01-26 03:02:14.43	278.19	13.64	-40.6	-41.8	21.5	0.00e+00	92	29	0	466616320	54	6250
2026-01-26 03:02:15.44	278.40	13.65	-41.4	-42.6	21.0	0.00e+00	92	29	0	468713472	54	6868
2026-01-26 03:02:16.45	278.60	13.66	-41.8	-43.0	21.1	0.00e+00	92	29	0	470810624	56	6447
2026-01-26 03:02:17.46	278.80	13.67	-42.0	-43.2	21.2	0.00e+00	92	29	0	472907776	56	6555
2026-01-26 03:02:18.47	279.01	13.68	-42.0	-43.3	21.1	0.00e+00	0	29	0	475004928	56	6616
2026-01-26 03:02:19.48	279.21	13.68	-41.9	-43.1	21.1	0.00e+00	90	29	0	476053504	58	5824
2026-01-26 03:02:20.49	279.42	13.69	-42.5	-43.8	21.4	0.00e+00	0	29	0	478150656	56	7022
2026-01-26 03:02:21.50	279.62	13.70	-42.0	-43.2	21.5	0.00e+00	92	29	0	480247808	56	6544
2026-01-26 03:02:22.50	279.82	13.71	-41.7	-42.9	21.4	0.00e+00	82	29	0	482344960	56	6319
2026-01-26 03:02:23.51	280.03	13.72	-41.7	-42.8	21.8	0.00e+00	92	29	0	484442112	56	6270
2026-01-26 03:02:24.52	280.23	13.72	-41.3	-42.4	21.8	0.00e+00	92	29	0	485490688	56	6011
2026-01-26 03:02:25.53	280.44	13.73	-40.8	-41.9	21.9	0.00e+00	59	29	0	487587840	54	6343
2026-01-26 03:02:26.54	280.64	13.74	-40.8	-41.9	21.8	0.00e+00	92	29	0	489684992	54	6351
2026-01-26 03:02:27.55	280.85	13.74	-41.0	-42.1	21.8	0.00e+00	15	29	0	491782144	54	6476
2026-01-26 03:02:28.56	281.05	13.75	-41.2	-42.4	21.6	0.00e+00	92	29	0	493879296	54	6700
2026-01-26 03:02:29.57	281.26	13.75	-41.7	-42.9	21.2	0.00e+00	25	29	0	494927872	54	7110
2026-01-26 03:02:30.57	281.46	13.76	-41.4	-42.6	21.6	0.00e+00	92	29	0	497025024	54	6870
2026-01-26 03:02:31.58	281.66	13.76	-41.0	-42.1	22.0	0.00e+00	92	29	0	499122176	54	6518
2026-01-26 03:02:32.59	281.87	13.77	-41.0	-42.1	21.3	0.00e+00	90	29	0	501219328	54	6515
2026-01-26 03:02:33.60	282.07	13.77	-40.6	-41.7	21.7	0.00e+00	92	29	0	503316480	54	6179
2026-01-26 03:02:34.61	282.28	13.78	-40.7	-41.8	21.7	0.00e+00	69	29	0	504365056	54	6298
2026-01-26 03:02:35.62	282.48	13.78	-41.2	-42.4	21.1	0.00e+00	92	29	0	506462208	54	6706
2026-01-26 03:02:36.63	282.69	13.78	-41.5	-42.8	21.0	0.00e+00	0	29	0	508559360	54	7011
2026-01-26 03:02:37.64	282.90	13.78	-41.8	-43.1	21.2	0.00e+00	90	29	0	510656512	56	6468
2026-01-26 03:02:38.65	283.10	13.79	-41.6	-42.8	21.4	0.00e+00	90	29	0	512753664	56	6276
2026-01-26 03:02:39.66	283.31	13.79	-42.0	-43.3	21.7	0.00e+00	92	29	0	513802240	56	6632
2026-01-26 03:02:40.67	283.51	13.79	-41.5	-42.6	21.7	0.00e+00	90	29	0	515899392	56	6122
2026-01-26 03:02:41.68	283.72	13.79	-41.0	-42.1	21.8	0.00e+00	1	29	0	517996544	56	5801
2026-01-26 03:02:42.69	283.92	13.79	-40.5	-41.6	22.0	0.00e+00	92	29	0	520093696	54	6151
2026-01-26 03:02:43.69	284.13	13.79	-40.2	-41.2	22.3	0.00e+00	0	29	0	522190848	54	5871
2026-01-26 03:02:44.70	284.33	13.79	-40.4	-41.4	22.3	0.00e+00	92	29	0	524288000	54	5998
2026-01-26 03:02:45.71	284.54	13.79	-40.5	-41.5	22.2	0.00e+00	89	29	0	525336576	54	6080
2026-01-26 03:02:46.72	284.74	13.79	-40.2	-41.2	22.5	0.00e+00	92	29	0	527433728	54	5873
2026-01-26 03:02:47.73	284.95	13.79	-40.3	-41.4	22.0	0.00e+00	92	29	0	529530880	54	5983
2026-01-26 03:02:48.74	285.15	13.79	-40.4	-41.4	22.6	0.00e+00	92	29	0	531628032	54	5966
2026-01-26 03:02:49.75	285.36	13.79	-40.9	-41.9	22.6	0.00e+00	92	29	0	533725184	54	6373
2026-01-26 03:02:50.76	285.57	13.79	-40.5	-41.5	22.6	0.00e+00	13	29	0	534773760	54	6078
2026-01-26 03:02:51.77	285.77	13.79	-40.2	-41.2	22.7	0.00e+00	92	29	0	536870912	54	5871
2026-01-26 03:02:52.78	285.98	13.79	-40.0	-40.9	22.7	0.00e+00	14	29	0	538968064	52	6387
2026-01-26 03:02:53.79	286.18	13.78	-39.7	-40.6	22.9	0.00e+00	92	29	0	541065216	52	6155
2026-01-26 03:02:54.80	286.39	13.78	-39.6	-40.6	23.0	0.00e+00	92	29	0	543162368	52	6115
2026-01-26 03:02:55.81	286.59	13.78	-39.5	-40.5	23.0	0.00e+00	92	29	0	544210944	52	6051
2026-01-26 03:02:56.82	286.80	13.77	-39.5	-40.5	23.3	0.00e+00	90	29	0	546308096	52	6038
2026-01-26 03:02:57.83	287.00	13.77	-39.7	-40.6	23.2	0.00e+00	12	29	0	548405248	52	6126
2026-01-26 03:02:58.83	287.21	13.77	-39.3	-40.2	23.3	0.00e+00	92	29	0	550502400	52	5886
2026-01-26 03:02:59.84	287.41	13.76	-39.4	-40.3	23.2	0.00e+00	77	29	0	552599552	52	5922
2026-01-26 03:03:00.85	287.62	13.76	-39.5	-40.5	22.8	0.00e+00	92	29	0	553648128	52	6065
2026-01-26 03:03:01.86	287.82	13.75	-39.9	-40.8	22.9	0.00e+00	90	29	0	555745280	52	6308
2026-01-26 03:03:02.87	288.03	13.74	-39.9	-40.9	22.9	0.00e+00	92	29	0	557842432	52	6338
2026-01-26 03:03:03.88	288.23	13.74	-39.9	-40.8	23.1	0.00e+00	92	29	0	559939584	52	6301
2026-01-26 03:03:04.89	288.43	13.73	-40.0	-41.0	22.7	0.00e+00	78	29	0	562036736	52	6446
2026-01-26 03:03:05.90	288.64	13.73	-39.9	-40.8	23.0	0.00e+00	92	29	0	563085312	52	6313
2026-01-26 03:03:06.91	288.84	13.72	-39.7	-40.7	23.0	0.00e+00	3	29	0	565182464	52	6191
2026-01-26 03:03:07.92	289.05	13.71	-39.7	-40.7	23.0	0.00e+00	91	29	0	567279616	52	6207
2026-01-26 03:03:08.93	289.25	13.70	-39.3	-40.3	23.3	0.00e+00	78	29	0	569376768	52	5900
2026-01-26 03:03:09.94	289.46	13.70	-39.4	-40.3	23.3	0.00e+00	92	29	0	571473920	52	5944
2026-01-26 03:03:10.95	289.66	13.69	-40.5	-41.6	22.4	0.00e+00	92	29	0	572522496	54	6104
2026-01-26 03:03:11.95	289.86	13.68	-40.1	-41.0	23.0	0.00e+00	55	29	0	574619648	52	6456
2026-01-26 03:03:12.96	290.07	13.67	-39.9	-40.9	23.0	0.00e+00	92	29	0	576716800	52	6323
2026-01-26 03:03:13.97	290.27	13.66	-40.4	-41.4	23.1	0.00e+00	6	29	0	578813952	54	5968
2026-01-26 03:03:14.98	290.47	13.65	-40.6	-41.6	22.9	0.00e+00	92	29	0	580911104	52	6869
2026-01-26 03:03:15.99	290.68	13.64	-40.0	-40.9	23.2	0.00e+00	0	29	0	581959680	52	6384
2026-01-26 03:03:17.00	290.88	13.63	-39.8	-40.8	23.0	0.00e+00	92	29	0	584056832	52	6253
2026-01-26 03:03:18.01	291.08	13.62	-40.1	-41.0	23.3	0.00e+00	90	29	0	586153984	52	6413
2026-01-26 03:03:19.02	291.29	13.61	-40.3	-41.2	23.2	0.00e+00	92	29	0	588251136	52	6593
2026-01-26 03:03:20.03	291.49	13.60	-40.4	-41.4	22.8	0.00e+00	92	29	0	590348288	54	5988
2026-01-26 03:03:21.04	291.69	13.59	-40.2	-41.2	22.7	0.00e+00	77	29	0	592445440	54	5857
2026-01-26 03:03:22.05	291.89	13.57	-41.1	-42.2	22.1	0.00e+00	92	29	0	593494016	54	6554
2026-01-26 03:03:23.06	292.10	13.56	-40.1	-41.0	23.0	0.00e+00	0	29	0	595591168	54	5744
2026-01-26 03:03:24.07	292.30	13.55	-40.6	-41.6	22.6	0.00e+00	92	29	0	597688320	54	6131
2026-01-26 03:03:25.08	292.50	13.54	-40.1	-41.0	22.9	0.00e+00	92	29	0	599785472	54	5741
2026-01-26 03:03:26.09	292.70	13.52	-40.4	-41.4	22.9	0.00e+00	92	29	0	601882624	52	6736
2026-01-26 03:03:27.10	292.90	13.51	-40.6	-41.6	22.7	0.00e+00	92	29	0	602931200	52	6850
2026-01-26 03:03:28.11	293.11	13.50	-40.8	-41.8	22.8	0.00e+00	7	29	0	605028352	54	6251
2026-01-26 03:03:29.12	293.31	13.48	-40.5	-41.5	22.8	0.00e+00	92	29	0	607125504	54	6060
2026-01-26 03:03:30.13	293.51	13.47	-40.5	-41.5	22.7	0.00e+00	0	29	0	609222656	54	6045
2026-01-26 03:03:31.14	293.71	13.45	-41.1	-42.1	23.0	0.00e+00	92	29	0	611319808	54	6504
2026-01-26 03:03:32.15	293.91	13.44	-41.1	-42.1	22.8	0.00e+00	92	29	0	612368384	54	6466
2026-01-26 03:03:33.16	294.11	13.42	-41.0	-42.0	22.6	0.00e+00	92	29	0	614465536	54	6454
2026-01-26 03:03:34.17	294.31	13.41	-40.8	-41.8	22.8	0.00e+00	92	29	0	616562688	54	6291
2026-01-26 03:03:35.18	294.51	13.39	-40.7	-41.7	22.8	0.00e+00	0	29	0	618659840	54	6225
2026-01-26 03:03:36.19	294.71	13.38	-39.8	-40.8	23.0	0.00e+00	92	29	0	620756992	54	5584
2026-01-26 03:03:37.20	294.91	13.36	-40.0	-40.9	23.5	0.00e+00	65	29	0	621805568	54	5652
2026-01-26 03:03:38.21	295.11	13.34	-39.5	-40.4	23.4	0.00e+00	92	29	0	623902720	52	6000
2026-01-26 03:03:39.22	295.31	13.32	-39.8	-40.7	23.4	0.00e+00	0	29	0	625999872	52	6224
2026-01-26 03:03:40.23	295.51	13.31	-39.5	-40.4	23.5	0.00e+00	92	29	0	628097024	52	6032
2026-01-26 03:03:41.24	295.71	13.29	-40.4	-41.3	23.2	0.00e+00	92	29	0	630194176	52	6663
2026-01-26 03:03:42.25	295.90	13.27	-40.0	-40.9	23.0	0.00e+00	1	29	0	631242752	52	6386
2026-01-26 03:03:43.26	296.10	13.25	-40.4	-41.3	23.0	0.00e+00	92	29	0	633339904	52	6668
2026-01-26 03:03:44.27	296.30	13.23	-40.0	-41.0	22.9	0.00e+00	65	29	0	635437056	52	6419
2026-01-26 03:03:45.28	296.50	13.22	-39.9	-40.9	23.1	0.00e+00	92	29	0	637534208	52	6340
2026-01-26 03:03:46.29	296.70	13.20	-40.3	-41.3	22.6	0.00e+00	9	29	0	639631360	54	5926
2026-01-26 03:03:47.30	296.89	13.18	-40.4	-41.4	22.7	0.00e+00	92	29	0	640679936	54	5985
2026-01-26 03:03:48.31	297.09	13.16	-40.0	-40.9	22.8	0.00e+00	92	29	0	642777088	54	5683
2026-01-26 03:03:49.32	297.29	13.14	-40.4	-41.3	23.3	0.00e+00	92	29	0	644874240	54	5962
2026-01-26 03:03:50.33	297.48	13.12	-39.9	-40.9	23.1	0.00e+00	90	29	0	646971392	52	6327
2026-01-26 03:03:51.34	297.68	13.10	-40.4	-41.3	22.9	0.00e+00	10	29	0	649068544	52	6674
2026-01-26 03:03:52.35	297.88	13.07	-40.5	-41.5	23.0	0.00e+00	92	29	0	650117120	54	6051
2026-01-26 03:03:53.36	298.07	13.05	-40.5	-41.4	23.1	0.00e+00	8	29	0	652214272	54	5987
2026-01-26 03:03:54.36	298.26	13.03	-40.1	-41.1	23.2	0.00e+00	92	29	0	654311424	54	5781
2026-01-26 03:03:55.38	298.46	13.01	-40.8	-41.8	22.5	0.00e+00	9	29	0	656408576	54	6301
2026-01-26 03:03:56.38	298.65	12.99	-40.7	-41.8	22.6	0.00e+00	84	29	0	658505728	54	6250
2026-01-26 03:03:57.39	298.85	12.97	-41.0	-42.0	22.5	0.00e+00	90	29	0	660602880	54	6400
2026-01-26 03:03:58.40	299.04	12.94	-40.8	-41.8	22.5	0.00e+00	79	29	0	661651456	54	6287
2026-01-26 03:03:59.41	299.24	12.92	-41.0	-42.0	22.3	0.00e+00	90	29	0	663748608	54	6423
2026-01-26 03:04:00.42	299.43	12.90	-40.9	-41.8	22.7	0.00e+00	71	29	0	665845760	54	6314
2026-01-26 03:04:01.43	299.62	12.87	-40.9	-41.8	22.9	0.00e+00	92	29	0	667942912	54	6307
2026-01-26 03:04:02.44	299.82	12.85	-40.2	-41.1	22.9	0.00e+00	3	29	0	670040064	54	5820
2026-01-26 03:04:03.44	300.01	12.83	-40.9	-41.9	22.9	0.00e+00	0	29	0	671088640	54	6322
2026-01-26 03:04:04.45	300.20	12.80	-39.9	-40.8	23.4	0.00e+00	92	29	0	673185792	54	5600
2026-01-26 03:04:05.46	300.39	12.78	-40.1	-41.0	23.0	0.00e+00	71	29	0	675282944	52	6462
2026-01-26 03:04:06.47	300.58	12.75	-39.1	-40.0	23.1	0.00e+00	92	29	0	677380096	52	5757
2026-01-26 03:04:07.48	300.78	12.73	-40.8	-41.9	22.7	0.00e+00	66	29	0	678428672	54	6343
2026-01-26 03:04:08.49	300.97	12.70	-40.0	-40.9	22.8	0.00e+00	92	29	0	680525824	52	6384
2026-01-26 03:04:09.50	301.16	12.68	-40.7	-41.6	22.7	0.00e+00	6	29	0	682622976	54	6162
2026-01-26 03:04:10.51	301.35	12.65	-40.8	-41.8	22.9	0.00e+00	92	29	0	684720128	54	6284
2026-01-26 03:04:11.52	301.54	12.62	-40.6	-41.5	22.7	0.00e+00	90	29	0	686817280	54	6091
2026-01-26 03:04:12.53	301.73	12.60	-40.6	-41.6	23.1	0.00e+00	7	29	0	688914432	54	6119
2026-01-26 03:04:13.54	301.92	12.57	-40.5	-41.5	23.3	0.00e+00	92	29	0	689963008	54	6035
2026-01-26 03:04:14.55	302.11	12.54	-39.2	-40.1	23.8	0.00e+00	5	29	0	692060160	52	5823
2026-01-26 03:04:15.56	302.29	12.52	-39.3	-40.1	24.1	0.00e+00	90	29	0	694157312	52	5801
2026-01-26 03:04:16.57	302.48	12.49	-39.7	-40.6	23.9	0.00e+00	8	29	0	696254464	52	6149
2026-01-26 03:04:17.58	302.67	12.46	-40.0	-40.9	23.9	0.00e+00	92	29	0	698351616	52	6379
2026-01-26 03:04:18.58	302.86	12.43	-39.5	-40.4	23.8	0.00e+00	42	29	0	699400192	52	6008
2026-01-26 03:04:19.59	303.04	12.41	-40.6	-41.5	23.7	0.00e+00	16	29	0	701497344	52	6792
2026-01-26 03:04:20.60	303.23	12.38	-40.1	-41.1	23.0	0.00e+00	92	29	0	703594496	52	6487
2026-01-26 03:04:21.61	303.42	12.35	-40.7	-41.6	23.2	0.00e+00	76	29	0	705691648	54	6124
2026-01-26 03:04:22.62	303.60	12.32	-39.9	-40.8	23.2	0.00e+00	92	29	0	707788800	54	5587
2026-01-26 03:04:23.63	303.79	12.29	-40.3	-41.2	23.3	0.00e+00	84	29	0	708837376	54	5895
2026-01-26 03:04:24.64	303.98	12.26	-40.4	-41.4	23.4	0.00e+00	91	29	0	710934528	54	5970
2026-01-26 03:04:25.65	304.16	12.23	-40.9	-41.9	23.2	0.00e+00	8	29	0	713031680	54	6333
2026-01-26 03:04:26.66	304.35	12.20	-40.1	-41.1	23.2	0.00e+00	36	29	0	715128832	54	5785
2026-01-26 03:04:27.67	304.53	12.17	-40.5	-41.5	23.0	0.00e+00	91	29	0	717225984	54	6052
2026-01-26 03:04:28.68	304.72	12.14	-40.7	-41.6	23.2	0.00e+00	82	29	0	718274560	54	6143
2026-01-26 03:04:29.69	304.90	12.11	-40.7	-41.6	23.4	0.00e+00	91	29	0	720371712	54	6160
2026-01-26 03:04:30.70	305.08	12.08	-39.9	-40.9	23.2	0.00e+00	13	29	0	722468864	54	5648
2026-01-26 03:04:31.71	305.27	12.05	-39.7	-40.6	23.6	0.00e+00	92	29	0	724566016	54	5489
2026-01-26 03:04:32.72	305.45	12.02	-40.6	-41.5	23.1	0.00e+00	5	29	0	726663168	52	6833
2026-01-26 03:04:33.72	305.63	11.99	-40.2	-41.2	23.3	0.00e+00	92	29	0	727711744	54	5838
2026-01-26 03:04:34.73	305.81	11.96	-40.4	-41.4	22.9	0.00e+00	74	29	0	729808896	54	5985
2026-01-26 03:04:35.74	305.99	11.92	-40.6	-41.6	22.9	0.00e+00	13	29	0	731906048	54	6104
2026-01-26 03:04:36.75	306.17	11.89	-41.1	-42.1	22.5	0.00e+00	90	29	0	734003200	54	6512
2026-01-26 03:04:37.76	306.35	11.86	-40.8	-41.8	22.5	0.00e+00	10	29	0	736100352	54	6297
2026-01-26 03:04:38.77	306.53	11.83	-40.6	-41.5	22.9	0.00e+00	92	29	0	737148928	54	6097
2026-01-26 03:04:39.78	306.71	11.79	-40.6	-41.6	22.5	0.00e+00	5	29	0	739246080	54	6136
2026-01-26 03:04:40.79	306.89	11.76	-40.3	-41.2	23.3	0.00e+00	92	29	0	741343232	54	5882
2026-01-26 03:04:41.80	307.07	11.73	-40.4	-41.3	23.3	0.00e+00	23	29	0	743440384	54	5939
2026-01-26 03:04:42.81	307.25	11.70	-40.7	-41.6	23.1	0.00e+00	15	29	0	745537536	54	6124
2026-01-26 03:04:43.82	307.43	11.66	-40.4	-41.3	23.3	0.00e+00	91	29	0	746586112	54	5929
2026-01-26 03:04:44.82	307.61	11.63	-40.5	-41.5	23.0	0.00e+00	15	29	0	748683264	54	6059
2026-01-26 03:04:45.83	307.78	11.59	-39.7	-40.7	23.1	0.00e+00	91	29	0	750780416	52	6214
2026-01-26 03:04:46.85	307.96	11.56	-40.4	-41.4	22.9	0.00e+00	0	29	0	752877568	52	6735
2026-01-26 03:04:47.86	308.14	11.53	-40.2	-41.2	22.8	0.00e+00	92	29	0	754974720	52	6540
2026-01-26 03:04:48.87	308.32	11.49	-40.7	-41.6	22.9	0.00e+00	81	29	0	757071872	54	6147
2026-01-26 03:04:49.88	308.49	11.46	-40.8	-41.8	22.7	0.00e+00	92	29	0	758120448	54	6287
2026-01-26 03:04:50.89	308.67	11.42	-40.8	-41.8	22.5	0.00e+00	92	29	0	760217600	54	6308
2026-01-26 03:04:51.90	308.84	11.39	-41.4	-42.4	22.6	0.00e+00	2	29	0	762314752	56	6006
2026-01-26 03:04:52.91	309.02	11.35	-40.9	-41.9	22.7	0.00e+00	92	29	0	764411904	56	5685
2026-01-26 03:04:53.92	309.19	11.32	-41.5	-42.5	22.5	0.00e+00	0	29	0	766509056	54	6806
2026-01-26 03:04:54.93	309.37	11.28	-42.1	-43.1	22.3	0.00e+00	92	29	0	767557632	56	6530
2026-01-26 03:04:55.94	309.54	11.25	-42.1	-43.1	22.0	0.00e+00	0	29	0	769654784	56	6532
2026-01-26 03:04:56.95	309.71	11.21	-41.5	-42.6	21.8	0.00e+00	90	29	0	771751936	56	6155
2026-01-26 03:04:57.96	309.89	11.17	-42.4	-43.5	21.5	0.00e+00	91	29	0	773849088	56	6800
2026-01-26 03:04:58.97	310.06	11.14	-42.5	-43.8	21.1	0.00e+00	2	29	0	775946240	56	7018
2026-01-26 03:04:59.98	310.23	11.10	-41.9	-43.1	20.9	0.00e+00	92	29	0	776994816	56	6498
2026-01-26 03:05:00.99	310.40	11.06	-42.6	-43.8	21.2	0.00e+00	16	29	0	779091968	56	7033
2026-01-26 03:05:01.99	310.57	11.03	-42.0	-43.2	21.3	0.00e+00	92	29	0	781189120	56	6556
2026-01-26 03:05:03.01	310.74	10.99	-42.0	-43.1	21.5	0.00e+00	67	29	0	783286272	56	6539
2026-01-26 03:05:04.02	310.91	10.95	-41.4	-42.5	21.8	0.00e+00	92	29	0	785383424	56	6074
2026-01-26 03:05:05.02	311.08	10.92	-41.4	-42.5	21.8	0.00e+00	15	29	0	786432000	56	6068
2026-01-26 03:05:06.03	311.25	10.88	-41.9	-43.0	21.9	0.00e+00	14	29	0	788529152	56	6396
2026-01-26 03:05:07.04	311.42	10.84	-41.8	-42.9	21.8	0.00e+00	92	29	0	790626304	56	6389
2026-01-26 03:05:08.05	311.59	10.80	-41.7	-42.8	21.2	0.00e+00	0	29	0	792723456	56	6306
2026-01-26 03:05:09.06	311.76	10.77	-42.0	-43.1	21.3	0.00e+00	92	29	0	794820608	56	6524
2026-01-26 03:05:10.07	311.92	10.73	-41.9	-43.1	21.2	0.00e+00	0	29	0	795869184	56	6518
2026-01-26 03:05:11.08	312.09	10.69	-41.8	-43.0	20.9	0.00e+00	91	29	0	797966336	56	6423
2026-01-26 03:05:12.08	312.26	10.65	-42.5	-43.7	21.0	0.00e+00	77	29	0	800063488	56	6966
2026-01-26 03:05:13.09	312.42	10.61	-43.4	-44.7	20.8	0.00e+00	2	29	0	802160640	58	6934
2026-01-26 03:05:14.11	312.59	10.57	-42.5	-43.8	20.7	0.00e+00	92	29	0	804257792	58	6265
2026-01-26 03:05:15.11	312.75	10.53	-42.5	-43.7	20.6	0.00e+00	0	29	0	805306368	58	6219
2026-01-26 03:05:16.12	312.92	10.50	-43.0	-44.3	20.4	0.00e+00	92	29	0	807403520	58	6634
2026-01-26 03:05:17.13	313.08	10.46	-43.2	-44.5	20.4	0.00e+00	0	29	0	809500672	58	6820
2026-01-26 03:05:18.14	313.25	10.42	-43.8	-45.2	19.7	0.00e+00	89	29	0	811597824	60	6576
2026-01-26 03:05:19.15	313.41	10.38	-42.8	-44.2	19.6	0.00e+00	0	29	0	813694976	60	5894
2026-01-26 03:05:20.16	313.58	10.34	-44.1	-45.6	19.6	0.00e+00	55	29	0	814743552	60	6878
2026-01-26 03:05:21.17	313.74	10.30	-44.7	-46.4	19.0	0.00e+00	92	29	0	816840704	60	7525
2026-01-26 03:05:22.18	313.90	10.26	-43.8	-45.4	19.3	0.00e+00	0	29	0	818937856	60	6705
2026-01-26 03:05:23.19	314.06	10.22	-43.8	-45.3	19.3	0.00e+00	92	29	0	821035008	60	6672
2026-01-26 03:05:24.20	314.22	10.18	-44.3	-45.8	19.6	0.00e+00	67	29	0	823132160	60	7042
2026-01-26 03:05:25.21	314.39	10.14	-42.9	-44.3	19.9	0.00e+00	90	29	0	825229312	60	5958
2026-01-26 03:05:26.22	314.55	10.10	-42.9	-44.3	20.1	0.00e+00	16	29	0	826277888	58	6662
2026-01-26 03:05:27.23	314.71	10.06	-42.9	-44.2	20.2	0.00e+00	91	29	0	828375040	58	6614
2026-01-26 03:05:28.23	314.87	10.02	-42.3	-43.7	20.3	0.00e+00	0	29	0	830472192	58	6181
2026-01-26 03:05:29.25	315.03	9.98	-43.0	-44.3	20.3	0.00e+00	67	29	0	832569344	60	5962
2026-01-26 03:05:30.26	315.19	9.94	-42.7	-44.0	20.4	0.00e+00	92	29	0	834666496	58	6434
2026-01-26 03:05:31.27	315.34	9.89	-43.0	-44.3	20.4	0.00e+00	0	29	0	835715072	58	6669
2026-01-26 03:05:32.28	315.50	9.85	-43.2	-44.5	20.3	0.00e+00	92	29	0	837812224	60	6077
2026-01-26 03:05:33.29	315.66	9.81	-43.0	-44.3	20.3	0.00e+00	67	29	0	839909376	60	5943
2026-01-26 03:05:34.29	315.82	9.77	-42.5	-43.8	20.3	0.00e+00	90	29	0	842006528	58	6256
2026-01-26 03:05:35.30	315.97	9.73	-42.1	-43.4	20.5	0.00e+00	0	29	0	844103680	58	6017
2026-01-26 03:05:36.31	316.13	9.69	-42.7	-44.1	20.0	0.00e+00	0	29	0	845152256	58	6516
2026-01-26 03:05:37.32	316.29	9.65	-42.8	-44.3	19.7	0.00e+00	92	29	0	847249408	58	6618
2026-01-26 03:05:38.33	316.44	9.60	-42.7	-44.2	19.3	0.00e+00	0	29	0	849346560	58	6579
2026-01-26 03:05:39.34	316.60	9.56	-43.2	-44.8	19.1	0.00e+00	92	29	0	851443712	58	7015
2026-01-26 03:05:40.35	316.75	9.52	-43.4	-45.0	19.1	0.00e+00	2	29	0	853540864	58	7188
2026-01-26 03:05:41.36	316.91	9.48	-43.3	-44.8	19.5	0.00e+00	92	29	0	854589440	58	7031
2026-01-26 03:05:42.37	317.06	9.44	-43.0	-44.6	19.1	0.00e+00	0	29	0	856686592	58	6876
2026-01-26 03:05:43.38	317.21	9.39	-42.8	-44.2	19.6	0.00e+00	92	29	0	858783744	58	6612
2026-01-26 03:05:44.39	317.37	9.35	-43.0	-44.4	19.6	0.00e+00	92	29	0	860880896	58	6733
2026-01-26 03:05:45.40	317.52	9.31	-42.3	-43.7	20.1	0.00e+00	11	29	0	862978048	58	6186
2026-01-26 03:05:46.40	317.67	9.27	-42.4	-43.8	20.3	0.00e+00	92	29	0	864026624	58	6252
2026-01-26 03:05:47.41	317.82	9.22	-42.0	-43.3	20.3	0.00e+00	0	29	0	866123776	58	5933
2026-01-26 03:05:48.42	317.97	9.18	-42.0	-43.3	20.4	0.00e+00	91	29	0	868220928	58	5915
2026-01-26 03:05:49.44	318.12	9.14	-42.3	-43.6	20.4	0.00e+00	68	29	0	870318080	58	6115
2026-01-26 03:05:50.44	318.27	9.10	-41.9	-43.2	20.4	0.00e+00	92	29	0	872415232	58	5879
2026-01-26 03:05:51.45	318.42	9.05	-42.5	-43.9	20.1	0.00e+00	0	29	0	873463808	58	6340
2026-01-26 03:05:52.46	318.57	9.01	-43.0	-44.3	20.3	0.00e+00	69	29	0	875560960	58	6670
2026-01-26 03:05:53.47	318.72	8.97	-43.0	-44.3	20.0	0.00e+00	92	29	0	877658112	58	6681
2026-01-26 03:05:54.48	318.87	8.92	-43.1	-44.5	19.9	0.00e+00	0	29	0	879755264	58	6817
2026-01-26 03:05:55.49	319.02	8.88	-43.0	-44.4	20.2	0.00e+00	92	29	0	881852416	58	6706
2026-01-26 03:05:56.50	319.17	8.83	-42.9	-44.3	20.3	0.00e+00	0	29	0	882900992	58	6636
2026-01-26 03:05:57.51	319.32	8.79	-42.9	-44.2	20.6	0.00e+00	92	29	0	884998144	58	6577
2026-01-26 03:05:58.52	319.46	8.75	-42.4	-43.7	20.5	0.00e+00	0	29	0	887095296	58	6225
2026-01-26 03:05:59.53	319.61	8.70	-42.7	-43.9	20.8	0.00e+00	6	29	0	889192448	58	6346
2026-01-26 03:06:00.54	319.75	8.66	-42.8	-44.1	20.7	0.00e+00	92	29	0	891289600	58	6499
2026-01-26 03:06:01.54	319.90	8.62	-42.8	-44.1	20.4	0.00e+00	0	29	0	893386752	58	6484
2026-01-26 03:06:02.55	320.04	8.57	-42.6	-43.8	20.6	0.00e+00	90	29	0	894435328	58	6304
2026-01-26 03:06:03.56	320.19	8.53	-42.8	-44.2	20.3	0.00e+00	10	29	0	896532480	58	6544
2026-01-26 03:06:04.57	320.33	8.48	-43.2	-44.6	20.5	0.00e+00	90	29	0	898629632	60	6105
2026-01-26 03:06:05.59	320.48	8.44	-43.3	-44.6	20.6	0.00e+00	0	29	0	900726784	58	6866
2026-01-26 03:06:06.60	320.62	8.39	-42.5	-43.8	20.7	0.00e+00	79	29	0	902823936	58	6310
2026-01-26 03:06:07.61	320.77	8.35	-42.9	-44.2	20.1	0.00e+00	92	29	0	903872512	58	6574
2026-01-26 03:06:08.62	320.91	8.31	-42.8	-44.2	20.6	0.00e+00	75	29	0	905969664	58	6549
2026-01-26 03:06:09.63	321.05	8.26	-42.3	-43.6	20.3	0.00e+00	92	28	0	908066816	58	6144
2026-01-26 03:06:10.64	321.19	8.22	-41.9	-43.1	20.4	0.00e+00	0	29	0	910163968	58	5826
2026-01-26 03:06:11.65	321.34	8.17	-41.3	-42.5	20.8	0.00e+00	92	28	0	912261120	56	6067
2026-01-26 03:06:12.66	321.48	8.13	-42.8	-44.2	20.3	0.00e+00	73	29	0	913309696	56	7378
2026-01-26 03:06:13.67	321.62	8.08	-43.3	-44.6	20.4	0.00e+00	92	29	0	915406848	58	6869
2026-01-26 03:06:14.68	321.76	8.04	-43.5	-44.9	19.9	0.00e+00	0	29	0	917504000	58	7096
2026-01-26 03:06:15.69	321.90	7.99	-42.9	-44.2	20.4	0.00e+00	6	29	0	919601152	58	6596
2026-01-26 03:06:16.70	322.04	7.95	-43.4	-44.7	20.1	0.00e+00	92	29	0	921698304	58	6987
2026-01-26 03:06:17.71	322.18	7.90	-43.5	-44.9	20.2	0.00e+00	0	29	0	922746880	60	6369
2026-01-26 03:06:18.72	322.31	7.86	-42.9	-44.2	20.4	0.00e+00	92	29	0	924844032	60	5841
2026-01-26 03:06:19.73	322.45	7.81	-42.8	-44.2	20.4	0.00e+00	7	29	0	926941184	58	6544
2026-01-26 03:06:20.74	322.59	7.77	-42.0	-43.3	20.5	0.00e+00	92	29	0	929038336	58	5904
2026-01-26 03:06:21.75	322.73	7.72	-42.8	-44.1	21.0	0.00e+00	5	29	0	931135488	58	6523
2026-01-26 03:06:22.76	322.86	7.68	-42.9	-44.1	20.6	0.00e+00	12	29	0	932184064	58	6535
2026-01-26 03:06:23.77	323.00	7.63	-42.4	-43.6	21.2	0.00e+00	90	29	0	934281216	58	6120
2026-01-26 03:06:24.78	323.14	7.58	-41.7	-42.8	21.8	0.00e+00	13	29	0	936378368	56	6267
2026-01-26 03:06:25.79	323.27	7.54	-42.6	-43.8	21.5	0.00e+00	90	29	0	938475520	56	7034
2026-01-26 03:06:26.80	323.41	7.49	-41.5	-42.6	21.7	0.00e+00	12	29	0	940572672	56	6137
2026-01-26 03:06:27.81	323.54	7.45	-42.0	-43.2	21.1	7.00e-07	91	29	0	941621248	58	5868
2026-01-26 03:06:28.82	323.68	7.40	-43.1	-44.5	20.9	0.00e+00	10	28	0	943718400	58	6796
2026-01-26 03:06:29.83	323.81	7.36	-42.7	-43.9	20.8	0.00e+00	91	29	0	945815552	58	6384
2026-01-26 03:06:30.84	323.95	7.31	-42.2	-43.5	21.0	0.00e+00	91	29	0	947912704	58	6052
2026-01-26 03:06:31.85	324.08	7.26	-42.5	-43.8	20.6	0.00e+00	0	29	0	950009856	58	6306
2026-01-26 03:06:32.86	324.21	7.22	-42.6	-43.9	20.2	0.00e+00	92	29	0	951058432	58	6359
2026-01-26 03:06:33.87	324.34	7.17	-41.7	-42.9	20.5	0.00e+00	0	29	0	953155584	56	6376
2026-01-26 03:06:34.88	324.48	7.13	-41.9	-43.2	20.1	0.00e+00	90	29	0	955252736	56	6613
2026-01-26 03:06:35.89	324.61	7.08	-42.0	-43.3	20.2	0.00e+00	0	29	0	957349888	56	6680
2026-01-26 03:06:36.90	324.74	7.03	-41.8	-43.0	21.0	0.00e+00	92	28	0	959447040	56	6426
2026-01-26 03:06:37.91	324.87	6.99	-41.7	-42.9	20.7	0.00e+00	92	29	0	961544192	56	6336
2026-01-26 03:06:38.92	325.00	6.94	-41.1	-42.3	21.3	0.00e+00	0	29	0	962592768	56	5902
2026-01-26 03:06:39.92	325.13	6.90	-41.1	-42.3	21.2	7.00e-07	92	29	0	964689920	56	5911
2026-01-26 03:06:40.93	325.26	6.85	-40.8	-42.0	21.3	0.00e+00	0	29	0	966787072	56	5730
2026-01-26 03:06:41.94	325.39	6.80	-41.5	-42.9	20.4	0.00e+00	12	29	0	968884224	56	6319
2026-01-26 03:06:42.95	325.52	6.76	-41.4	-42.7	20.6	0.00e+00	0	29	0	970981376	56	6186
2026-01-26 03:06:43.96	325.65	6.71	-41.2	-42.4	20.6	0.00e+00	13	28	0	972029952	56	6012
2026-01-26 03:06:44.97	325.77	6.66	-41.7	-43.0	20.8	0.00e+00	0	29	0	974127104	56	6393
2026-01-26 03:06:45.98	325.90	6.62	-41.9	-43.2	20.4	0.00e+00	0	29	0	976224256	56	6560
2026-01-26 03:06:46.99	326.03	6.57	-41.6	-42.9	20.8	0.00e+00	92	29	0	978321408	56	6329
2026-01-26 03:06:48.00	326.16	6.53	-41.5	-42.7	20.7	0.00e+00	69	29	0	980418560	56	6219
2026-01-26 03:06:49.01	326.28	6.48	-41.6	-42.8	20.8	0.00e+00	92	29	0	981467136	56	6291
2026-01-26 03:06:50.02	326.41	6.43	-41.6	-42.8	20.9	0.00e+00	69	28	0	983564288	56	6312
2026-01-26 03:06:51.03	326.53	6.39	-42.0	-43.2	21.0	0.00e+00	3	29	0	985661440	56	6562
2026-01-26 03:06:52.04	326.66	6.34	-42.0	-43.2	20.9	0.00e+00	70	29	0	987758592	56	6599
2026-01-26 03:06:53.05	326.78	6.29	-41.7	-42.8	21.1	0.00e+00	0	28	0	989855744	56	6291
2026-01-26 03:06:54.06	326.91	6.25	-42.3	-43.6	20.7	0.00e+00	91	28	0	990904320	56	6877
2026-01-26 03:06:55.07	327.03	6.20	-43.2	-44.5	20.7	0.00e+00	0	29	0	993001472	56	7680
2026-01-26 03:06:56.08	327.16	6.15	-42.2	-43.5	20.2	0.00e+00	91	29	0	995098624	56	6823
2026-01-26 03:06:57.09	327.28	6.11	-42.7	-44.1	20.8	0.00e+00	0	28	0	997195776	58	6538
2026-01-26 03:06:58.10	327.40	6.06	-42.2	-43.6	20.2	0.00e+00	0	28	0	999292928	58	6114
2026-01-26 03:06:59.11	327.53	6.01	-41.3	-42.5	20.6	0.00e+00	0	28	0	1000341504	56	6071
2026-01-26 03:07:00.12	327.65	5.96	-41.5	-42.8	20.6	0.00e+00	0	29	0	1002438656	56	6253
2026-01-26 03:07:01.13	327.77	5.92	-41.9	-43.2	20.2	0.00e+00	74	29	0	1004535808	56	6558
2026-01-26 03:07:02.13	327.89	5.87	-41.8	-43.2	20.2	0.00e+00	0	29	0	1006632960	56	6545
2026-01-26 03:07:03.15	328.01	5.82	-41.6	-43.0	20.3	0.00e+00	92	28	0	1008730112	56	6400
2026-01-26 03:07:04.16	328.13	5.78	-41.0	-42.3	20.7	0.00e+00	12	29	0	1009778688	56	5912
2026-01-26 03:07:05.16	328.25	5.73	-41.0	-42.2	21.1	0.00e+00	12	28	0	1011875840	56	5855
2026-01-26 03:07:06.17	328.37	5.68	-40.4	-41.5	21.1	0.00e+00	0	29	0	1013972992	54	6089
2026-01-26 03:07:07.18	328.49	5.64	-40.9	-42.1	21.1	0.00e+00	2	29	0	1016070144	54	6476
2026-01-26 03:07:08.19	328.61	5.59	-41.3	-42.5	21.2	0.00e+00	0	29	0	1018167296	54	6811
2026-01-26 03:07:09.20	328.73	5.54	-41.3	-42.6	21.0	0.00e+00	70	29	0	1019215872	54	6868
2026-01-26 03:07:10.21	328.85	5.50	-41.4	-42.6	20.9	0.00e+00	92	29	0	1021313024	56	6106
2026-01-26 03:07:11.22	328.97	5.45	-41.6	-42.9	20.8	0.00e+00	11	28	0	1023410176	56	6332
2026-01-26 03:07:12.23	329.09	5.40	-41.5	-42.6	20.7	0.00e+00	92	28	0	1025507328	56	6170
2026-01-26 03:07:13.24	329.20	5.35	-42.2	-43.4	20.6	0.00e+00	70	28	0	1027604480	56	6743
2026-01-26 03:07:14.25	329.32	5.31	-42.1	-43.4	20.2	0.00e+00	0	29	0	1029701632	56	6707
2026-01-26 03:07:15.26	329.44	5.26	-42.2	-43.6	20.0	0.00e+00	0	28	0	1030750208	56	6868
2026-01-26 03:07:16.27	329.56	5.21	-41.1	-42.3	20.5	0.00e+00	70	29	0	1032847360	56	5955
2026-01-26 03:07:17.28	329.67	5.17	-42.4	-43.8	19.9	0.00e+00	92	29	0	1034944512	56	7075
2026-01-26 03:07:18.29	329.79	5.12	-41.4	-42.7	20.3	0.00e+00	0	29	0	1037041664	58	5521
2026-01-26 03:07:19.30	329.90	5.07	-42.2	-43.5	20.2	0.00e+00	92	29	0	1039138816	58	6070
2026-01-26 03:07:20.31	330.02	5.03	-42.4	-43.8	19.9	0.00e+00	0	29	0	1040187392	58	6282
2026-01-26 03:07:21.31	330.13	4.98	-41.8	-43.1	19.7	0.00e+00	0	29	0	1042284544	58	5810
2026-01-26 03:07:22.32	330.25	4.93	-42.6	-44.1	19.2	0.00e+00	0	29	0	1044381696	58	6509
2026-01-26 03:07:23.33	330.36	4.88	-41.4	-42.7	19.9	0.00e+00	0	29	0	1046478848	58	5560
2026-01-26 03:07:24.34	330.47	4.84	-41.8	-43.3	19.5	0.00e+00	79	29	0	1048576000	56	6625
2026-01-26 03:07:25.35	330.59	4.79	-41.5	-42.8	19.8	0.00e+00	10	29	0	1049624576	56	6317
2026-01-26 03:07:26.36	330.70	4.74	-41.7	-43.1	19.7	0.00e+00	92	29	0	1051721728	56	6506
2026-01-26 03:07:27.38	330.81	4.70	-40.5	-41.7	20.7	0.00e+00	9	28	0	1053818880	56	5544
2026-01-26 03:07:28.39	330.93	4.65	-41.7	-43.1	19.1	0.00e+00	71	29	0	1055916032	54	7316
2026-01-26 03:07:29.39	331.04	4.60	-41.4	-42.8	20.1	0.00e+00	73	29	0	1058013184	56	6274
2026-01-26 03:07:30.41	331.15	4.55	-41.6	-43.0	19.9	0.00e+00	0	29	0	1059061760	56	6420
2026-01-26 03:07:31.42	331.26	4.51	-42.0	-43.6	18.7	0.00e+00	0	29	0	1061158912	56	6893
2026-01-26 03:07:32.43	331.37	4.46	-42.4	-44.0	18.9	0.00e+00	71	28	0	1063256064	58	6461
2026-01-26 03:07:33.43	331.48	4.41	-42.6	-44.2	18.7	0.00e+00	92	29	0	1065353216	58	6541
2026-01-26 03:07:34.44	331.59	4.37	-42.5	-44.2	18.5	0.00e+00	0	29	0	1067450368	58	6550
2026-01-26 03:07:35.45	331.70	4.32	-42.6	-44.6	17.3	0.00e+00	92	29	0	1068498944	58	6852
2026-01-26 03:07:36.46	331.81	4.27	-43.5	-46.0	16.1	0.00e+00	73	29	0	1070596096	58	8097
2026-01-26 03:07:37.47	331.92	4.22	-43.7	-46.4	15.2	0.00e+00	73	29	0	1072693248	58	8522
2026-01-26 03:07:38.48	332.03	4.18	-43.3	-45.9	15.3	0.00e+00	0	29	0	1074790400	60	7161
2026-01-26 03:07:39.49	332.14	4.13	-44.0	-47.1	14.0	1.50e-06	5	29	0	1076887552	60	8151
2026-01-26 03:07:40.49	332.24	4.08	-45.0	-49.9	10.4	3.89e-05	92	29	0	1077936128	60	11323
2026-01-26 03:07:41.50	332.35	4.04	-45.3	-52.1	7.7	7.57e-02	0	29	0	1080033280	60	14562
2026-01-26 03:07:42.51	332.46	3.99	-45.5	-51.4	8.6	6.71e-02	92	29	0	1082130432	60	13446
2026-01-26 03:07:43.51	332.57	3.94	-45.5	-53.0	6.2	8.33e-02	5	29	0	1084227584	60	16181
2026-01-26 03:07:44.52	332.67	3.89	-45.5	-54.0	5.1	4.14e-01	47	29	0	1086324736	60	18030
2026-01-26 03:07:45.53	332.78	3.85	-46.3	-56.4	4.0	8.27e-01	67	29	0	1087373312	60	23813
2026-01-26 03:07:46.54	332.88	3.80	-45.6	-57.7	4.0	1.35e+00	0	29	104	1088421888	60	27613
2026-01-26 03:07:47.55	332.99	3.75	-45.4	-58.6	3.7	1.50e+00	0	29	104	1088421888	60	30771
2026-01-26 03:07:48.56	333.10	3.71	-45.5	-60.0	3.6	1.51e+00	0	29	104	1088421888	60	36221
2026-01-26 03:07:49.57	333.20	3.66	-45.6	-60.2	3.6	1.51e+00	0	29	104	1088421888	60	36943
2026-01-26 03:07:50.58	333.31	3.61	-45.5	-60.4	3.6	1.51e+00	0	29	104	1088421888	60	37668
2026-01-26 03:07:51.59	333.41	3.56	-45.4	-60.2	3.6	1.51e+00	0	29	104	1088421888	60	36903
2026-01-26 03:07:52.60	333.52	3.52	-46.0	-61.0	3.6	1.51e+00	0	29	104	1088421888	60	40532
2026-01-26 03:07:53.61	333.62	3.47	-45.4	-60.6	3.6	1.51e+00	0	29	104	1088421888	60	38574
2026-01-26 03:07:54.62	333.72	3.42	-45.4	-60.5	3.6	1.51e+00	0	29	104	1088421888	60	38302
2026-01-26 03:07:55.63	333.83	3.38	-44.8	-60.0	3.6	1.51e+00	0	29	104	1088421888	60	36046
2026-01-26 03:07:56.64	333.93	3.33	-44.5	-59.7	3.6	1.51e+00	0	29	104	1088421888	60	34924
2026-01-26 03:07:57.65	334.03	3.28	-45.0	-60.2	3.6	1.51e+00	0	29	104	1088421888	60	36820
2026-01-26 03:07:58.66	334.13	3.23	-45.8	-60.9	3.6	1.51e+00	0	29	104	1088421888	60	40201
2026-01-26 03:07:59.67	334.24	3.19	-45.9	-61.0	3.6	1.51e+00	0	29	104	1088421888	60	40411
2026-01-26 03:08:00.68	334.34	3.14	-45.3	-60.4	3.6	1.51e+00	0	29	104	1088421888	60	37927
2026-01-26 03:08:01.69	334.44	3.09	-45.1	-60.2	3.6	1.51e+00	0	29	104	1088421888	60	37162
