passes_logs/2026/01/26/R4.6S_Anadyr/R4.6S_Anadyr__20260126_185604_FENGYUN_3D_rec.log

#Pass ID: 20260126_185604_FENGYUN 3D
#Satellite: FENGYUN 3D
#Configuration: FENGYUN 3D
#almurnet v.1.7.20251203
#Start time: 2026-01-26 18:56:07

#Version: 2.2.20231116
#Station: R4.6S_Anadyr
#Location: 177.4865 lon 64.73178 lat
#TLE: 1 43010U 17072A   26025.99795741 -.00000136  00000+0 -42313-4 0  9999
#TLE: 2 43010  98.9962 357.9855 0002515  89.6991 270.4472 14.19699257424818

#Time	Az	El	Level	Level2	SNR	BER	BlckErr	Temp	State	Recorded	gain1	gain2
2026-01-26 18:56:07.32	28.61	0.19	-49.9	-60.6	3.3	8.40e-01	0	28	0	0	60	38622
2026-01-26 18:56:08.32	28.57	0.24	-51.0	-63.1	3.6	8.45e-01	0	28	104	0	60	51454
2026-01-26 18:56:09.34	28.52	0.30	-51.2	-63.4	3.6	8.45e-01	0	29	104	0	60	53228
2026-01-26 18:56:10.34	28.47	0.36	-49.4	-61.6	3.6	8.44e-01	0	28	104	0	60	43271
2026-01-26 18:56:11.35	28.42	0.41	-49.2	-61.4	3.6	8.45e-01	0	28	104	0	60	42302
2026-01-26 18:56:12.36	28.37	0.47	-49.1	-61.2	3.6	8.45e-01	0	29	104	0	60	41739
2026-01-26 18:56:13.38	28.32	0.53	-49.3	-61.4	3.6	8.45e-01	0	29	104	0	60	42575
2026-01-26 18:56:14.39	28.27	0.58	-49.2	-61.3	3.6	8.45e-01	0	29	104	0	60	42172
2026-01-26 18:56:15.39	28.22	0.64	-49.2	-61.3	3.6	8.45e-01	0	29	104	0	60	41947
2026-01-26 18:56:16.40	28.17	0.70	-49.3	-61.4	3.6	8.46e-01	0	29	104	0	60	42475
2026-01-26 18:56:17.41	28.12	0.75	-49.1	-61.3	3.6	8.46e-01	0	29	104	0	60	41908
2026-01-26 18:56:18.42	28.07	0.81	-49.1	-61.2	3.6	8.46e-01	0	29	104	0	60	41498
2026-01-26 18:56:19.43	28.02	0.87	-49.0	-61.2	3.6	8.45e-01	0	29	104	0	60	41344
2026-01-26 18:56:20.44	27.97	0.93	-48.9	-61.1	3.6	8.45e-01	0	29	104	0	60	40959
2026-01-26 18:56:21.45	27.92	0.98	-48.9	-61.0	3.6	8.47e-01	0	29	104	0	60	40381
2026-01-26 18:56:22.46	27.87	1.04	-48.8	-60.9	3.6	8.45e-01	0	29	104	0	60	40218
2026-01-26 18:56:23.47	27.82	1.10	-48.6	-60.9	3.6	8.47e-01	0	29	104	0	60	39998
2026-01-26 18:56:24.48	27.77	1.16	-48.6	-60.7	3.6	8.44e-01	0	29	104	0	60	39322
2026-01-26 18:56:25.49	27.72	1.21	-48.5	-60.7	3.6	8.45e-01	0	29	104	0	60	39140
2026-01-26 18:56:26.50	27.67	1.27	-48.4	-60.5	3.5	8.44e-01	0	29	104	0	60	38249
2026-01-26 18:56:27.51	27.61	1.33	-48.2	-60.3	3.6	8.45e-01	0	29	104	0	60	37374
2026-01-26 18:56:28.52	27.56	1.39	-48.0	-60.0	3.6	8.44e-01	0	29	104	0	60	36242
2026-01-26 18:56:29.53	27.51	1.45	-47.7	-59.7	3.6	8.46e-01	0	29	104	0	60	34975
2026-01-26 18:56:30.53	27.46	1.50	-47.7	-59.7	3.6	8.46e-01	0	29	104	0	60	35094
2026-01-26 18:56:31.54	27.40	1.56	-47.7	-59.8	3.6	8.47e-01	0	29	104	0	60	35228
2026-01-26 18:56:32.55	27.35	1.62	-47.7	-59.8	3.6	8.45e-01	0	29	104	0	60	35299
2026-01-26 18:56:33.56	27.30	1.68	-47.7	-59.8	3.6	8.45e-01	0	29	104	0	60	35221
2026-01-26 18:56:34.57	27.24	1.74	-47.7	-59.8	3.6	8.45e-01	0	29	104	0	60	35123
2026-01-26 18:56:35.58	27.19	1.80	-47.7	-59.8	3.6	8.46e-01	0	29	104	0	60	35154
2026-01-26 18:56:36.59	27.14	1.86	-47.6	-59.7	3.6	8.45e-01	0	29	104	0	60	34939
2026-01-26 18:56:37.60	27.08	1.92	-47.6	-59.6	3.6	8.46e-01	0	29	104	0	60	34637
2026-01-26 18:56:38.61	27.03	1.97	-47.6	-59.6	3.6	8.45e-01	0	29	104	0	60	34430
2026-01-26 18:56:39.62	26.97	2.03	-47.6	-59.5	3.6	8.45e-01	0	29	104	0	60	34138
2026-01-26 18:56:40.63	26.92	2.09	-47.6	-59.5	3.6	8.45e-01	0	29	104	0	60	34291
2026-01-26 18:56:41.64	26.86	2.15	-47.6	-59.6	3.6	8.45e-01	0	29	104	0	60	34554
2026-01-26 18:56:42.65	26.81	2.21	-47.6	-59.7	3.6	8.46e-01	0	29	104	0	60	34921
2026-01-26 18:56:43.66	26.75	2.27	-47.6	-59.7	3.6	8.44e-01	0	29	104	0	60	34859
2026-01-26 18:56:44.67	26.70	2.33	-47.6	-59.6	3.6	8.45e-01	0	29	104	0	60	34556
2026-01-26 18:56:45.68	26.64	2.39	-47.6	-59.6	3.6	8.45e-01	0	29	104	0	60	34669
2026-01-26 18:56:46.69	26.58	2.45	-47.6	-59.7	3.6	8.45e-01	0	29	104	0	60	34866
2026-01-26 18:56:47.70	26.53	2.51	-47.6	-59.7	3.6	8.46e-01	0	29	104	0	60	34770
2026-01-26 18:56:48.71	26.47	2.57	-47.6	-59.5	3.6	8.46e-01	0	29	104	0	60	34088
2026-01-26 18:56:49.72	26.41	2.63	-47.6	-58.9	3.6	8.46e-01	0	29	104	0	60	31729
2026-01-26 18:56:50.73	26.35	2.69	-47.5	-58.2	3.6	8.46e-01	0	29	104	0	60	29342
2026-01-26 18:56:51.74	26.30	2.75	-47.4	-57.7	3.6	8.43e-01	0	29	104	0	60	27678
2026-01-26 18:56:52.75	26.24	2.81	-47.5	-58.4	3.6	8.44e-01	0	29	104	0	60	30227
2026-01-26 18:56:53.76	26.18	2.87	-47.6	-59.5	3.6	8.45e-01	0	29	104	0	60	34002
2026-01-26 18:56:54.77	26.12	2.93	-47.6	-59.3	3.6	8.46e-01	0	29	104	0	60	33464
2026-01-26 18:56:55.78	26.06	2.99	-46.8	-53.6	4.0	8.41e-01	0	29	104	0	60	17384
2026-01-26 18:56:56.79	26.00	3.06	-45.2	-48.9	9.2	8.11e-02	0	29	104	0	60	10099
2026-01-26 18:56:57.80	25.95	3.12	-43.6	-45.8	12.7	3.11e-04	0	29	0	4194304	60	7076
2026-01-26 18:56:58.81	25.89	3.18	-42.1	-43.8	14.4	1.14e-05	0	29	0	10485760	58	6302
2026-01-26 18:56:59.82	25.83	3.24	-41.6	-43.1	16.0	0.00e+00	0	29	0	15728640	56	6502
2026-01-26 18:57:00.83	25.77	3.30	-40.3	-41.6	17.3	0.00e+00	0	29	0	22020096	54	6150
2026-01-26 18:57:01.84	25.71	3.36	-38.7	-39.7	18.9	0.00e+00	0	29	0	27262976	52	5534
2026-01-26 18:57:02.85	25.65	3.42	-41.7	-43.3	15.5	0.00e+00	0	29	0	32505856	52	8383
2026-01-26 18:57:03.86	25.58	3.48	-45.7	-49.5	8.6	2.02e-04	0	29	0	38797312	60	10745
2026-01-26 18:57:04.87	25.52	3.55	-40.0	-41.2	15.0	0.00e+00	0	29	0	44040192	50	7382
2026-01-26 18:57:05.88	25.46	3.61	-37.3	-38.2	20.6	0.00e+00	0	29	0	50331648	46	6547
2026-01-26 18:57:06.89	25.40	3.67	-47.5	-58.4	3.6	2.36e-01	0	29	104	54525952	60	29955
2026-01-26 18:57:07.90	25.34	3.73	-37.9	-38.8	6.1	8.27e-01	0	29	104	54525952	52	4995
2026-01-26 18:57:08.90	25.28	3.79	-37.2	-38.1	20.6	0.00e+00	0	29	0	54525952	46	6483
2026-01-26 18:57:09.91	25.21	3.86	-37.7	-38.6	20.2	0.00e+00	0	29	0	60817408	46	6916
2026-01-26 18:57:10.92	25.15	3.92	-37.7	-38.6	20.2	0.00e+00	0	29	0	66060288	48	6107
2026-01-26 18:57:11.93	25.09	3.98	-37.0	-37.9	20.7	0.00e+00	0	29	0	72351744	48	5633
2026-01-26 18:57:12.94	25.03	4.04	-37.7	-38.7	20.6	0.00e+00	0	29	0	77594624	48	6183
2026-01-26 18:57:13.95	24.96	4.11	-37.0	-37.8	21.0	0.00e+00	0	29	0	83886080	46	6296
2026-01-26 18:57:14.96	24.90	4.17	-37.4	-38.3	20.6	0.00e+00	0	29	0	89128960	46	6689
2026-01-26 18:57:15.97	24.83	4.23	-36.5	-37.4	21.6	0.00e+00	0	29	0	94371840	46	5971
2026-01-26 18:57:16.98	24.77	4.29	-36.8	-37.7	21.3	0.00e+00	0	29	0	100663296	46	6200
2026-01-26 18:57:17.98	24.71	4.36	-36.5	-37.4	21.2	0.00e+00	0	29	0	105906176	46	5965
2026-01-26 18:57:19.00	24.64	4.42	-36.5	-37.3	21.6	0.00e+00	0	29	0	112197632	46	5945
2026-01-26 18:57:20.00	24.57	4.48	-35.9	-36.7	22.2	0.00e+00	0	29	0	117440512	46	5540
2026-01-26 18:57:21.02	24.51	4.55	-35.6	-36.4	22.7	0.00e+00	0	29	0	122683392	44	5992
2026-01-26 18:57:22.03	24.44	4.61	-35.7	-36.5	22.5	0.00e+00	0	29	0	128974848	44	6057
2026-01-26 18:57:23.03	24.38	4.67	-35.8	-36.6	22.3	0.00e+00	0	29	0	134217728	44	6166
2026-01-26 18:57:24.05	24.31	4.74	-35.7	-36.4	22.5	0.00e+00	0	29	0	140509184	44	6029
2026-01-26 18:57:25.06	24.24	4.80	-35.8	-36.6	22.5	0.00e+00	0	29	0	145752064	44	6129
2026-01-26 18:57:26.06	24.18	4.87	-35.6	-36.4	22.6	0.00e+00	0	29	0	150994944	44	5989
2026-01-26 18:57:27.07	24.11	4.93	-35.7	-36.5	22.4	0.00e+00	0	29	0	157286400	44	6097
2026-01-26 18:57:28.08	24.04	5.00	-35.8	-36.6	22.4	0.00e+00	0	29	0	162529280	44	6111
2026-01-26 18:57:29.09	23.97	5.06	-35.6	-36.4	22.7	0.00e+00	0	29	0	168820736	44	5974
2026-01-26 18:57:30.10	23.90	5.12	-35.5	-36.3	22.6	0.00e+00	0	29	0	174063616	44	5935
2026-01-26 18:57:31.11	23.84	5.19	-35.5	-36.3	22.8	0.00e+00	0	29	0	180355072	44	5941
2026-01-26 18:57:32.12	23.77	5.25	-35.3	-36.0	22.9	0.00e+00	0	29	0	185597952	44	5752
2026-01-26 18:57:33.13	23.70	5.32	-35.4	-36.1	23.0	0.00e+00	0	29	0	190840832	44	5788
2026-01-26 18:57:34.14	23.63	5.38	-35.4	-36.2	22.9	0.00e+00	0	29	0	197132288	44	5840
2026-01-26 18:57:35.15	23.56	5.45	-35.4	-36.1	23.0	0.00e+00	0	29	0	202375168	44	5825
2026-01-26 18:57:36.16	23.49	5.51	-35.7	-36.5	23.0	0.00e+00	0	29	0	208666624	44	6039
2026-01-26 18:57:37.17	23.42	5.58	-34.8	-35.5	23.4	0.00e+00	0	29	0	213909504	42	6092
2026-01-26 18:57:38.18	23.34	5.64	-35.6	-36.4	22.9	0.00e+00	0	29	0	219152384	44	5967
2026-01-26 18:57:39.19	23.27	5.71	-35.9	-36.7	22.4	0.00e+00	0	29	0	225443840	44	6219
2026-01-26 18:57:40.20	23.20	5.78	-35.4	-36.2	22.9	0.00e+00	0	29	0	230686720	44	5850
2026-01-26 18:57:41.21	23.13	5.84	-35.0	-35.8	23.3	0.00e+00	0	29	0	236978176	44	5572
2026-01-26 18:57:42.22	23.06	5.91	-35.1	-35.9	23.1	0.00e+00	0	29	0	242221056	44	5651
2026-01-26 18:57:43.23	22.98	5.97	-35.1	-35.8	23.3	0.00e+00	0	29	0	247463936	42	6300
2026-01-26 18:57:44.24	22.91	6.04	-35.1	-35.8	23.3	0.00e+00	0	29	0	253755392	42	6287
2026-01-26 18:57:45.25	22.84	6.11	-35.3	-36.0	23.1	0.00e+00	0	29	0	258998272	42	6448
2026-01-26 18:57:46.25	22.76	6.17	-35.0	-35.7	23.3	0.00e+00	0	29	0	265289728	42	6215
2026-01-26 18:57:47.27	22.69	6.24	-34.9	-35.6	23.5	0.00e+00	0	29	0	270532608	42	6173
2026-01-26 18:57:48.28	22.61	6.31	-35.3	-36.1	23.0	0.00e+00	0	29	0	276824064	42	6478
2026-01-26 18:57:49.28	22.54	6.37	-34.9	-35.7	23.5	0.00e+00	0	29	0	282066944	42	6183
2026-01-26 18:57:50.29	22.46	6.44	-35.1	-35.8	23.5	0.00e+00	0	29	0	288358400	42	6267
2026-01-26 18:57:51.30	22.39	6.51	-34.9	-35.7	23.3	0.00e+00	0	29	0	293601280	42	6201
2026-01-26 18:57:52.31	22.31	6.57	-34.8	-35.5	23.5	0.00e+00	0	29	0	298844160	42	6047
2026-01-26 18:57:53.32	22.24	6.64	-35.1	-35.8	23.3	0.00e+00	0	29	0	305135616	42	6304
2026-01-26 18:57:54.33	22.16	6.71	-35.0	-35.8	23.4	0.00e+00	0	29	0	310378496	42	6258
2026-01-26 18:57:55.34	22.08	6.78	-35.3	-36.0	23.2	0.00e+00	0	29	0	316669952	42	6449
2026-01-26 18:57:56.35	22.01	6.84	-35.3	-36.1	23.1	0.00e+00	0	29	0	321912832	42	6467
2026-01-26 18:57:57.36	21.93	6.91	-34.9	-35.7	23.5	0.00e+00	0	29	0	327155712	42	6189
2026-01-26 18:57:58.37	21.85	6.98	-35.0	-35.7	23.6	0.00e+00	0	29	0	333447168	42	6201
2026-01-26 18:57:59.38	21.77	7.05	-34.9	-35.6	23.6	0.00e+00	0	29	0	338690048	42	6137
2026-01-26 18:58:00.39	21.69	7.12	-34.7	-35.5	23.7	0.00e+00	0	29	0	344981504	42	6034
2026-01-26 18:58:01.40	21.61	7.18	-34.8	-35.5	23.6	0.00e+00	0	29	0	350224384	42	6092
2026-01-26 18:58:02.41	21.53	7.25	-34.8	-35.5	23.6	0.00e+00	0	29	0	355467264	42	6098
2026-01-26 18:58:03.42	21.45	7.32	-34.7	-35.4	23.8	0.00e+00	0	29	0	361758720	42	6015
2026-01-26 18:58:04.43	21.37	7.39	-34.8	-35.5	23.7	0.00e+00	0	29	0	367001600	42	6083
2026-01-26 18:58:05.44	21.29	7.46	-34.9	-35.6	23.4	0.00e+00	0	29	0	373293056	42	6170
2026-01-26 18:58:06.45	21.21	7.53	-35.0	-35.7	23.3	0.00e+00	0	29	0	378535936	42	6238
2026-01-26 18:58:07.45	21.13	7.60	-34.9	-35.6	23.7	0.00e+00	0	29	0	384827392	42	6137
2026-01-26 18:58:08.46	21.05	7.67	-34.7	-35.5	23.7	0.00e+00	0	29	0	390070272	42	6045
2026-01-26 18:58:09.47	20.96	7.73	-34.8	-35.5	23.7	0.00e+00	0	29	0	395313152	42	6067
2026-01-26 18:58:10.48	20.88	7.80	-34.5	-35.2	24.0	0.00e+00	0	29	0	401604608	42	5876
2026-01-26 18:58:11.49	20.80	7.87	-34.7	-35.5	23.8	0.00e+00	0	29	0	406847488	42	6048
2026-01-26 18:58:12.50	20.71	7.94	-34.9	-35.7	23.6	0.00e+00	0	29	0	413138944	42	6198
2026-01-26 18:58:13.51	20.63	8.01	-34.9	-35.7	23.5	0.00e+00	0	29	0	418381824	42	6189
2026-01-26 18:58:14.52	20.54	8.08	-34.7	-35.5	23.8	0.00e+00	0	29	0	423624704	42	6042
2026-01-26 18:58:15.53	20.46	8.15	-34.8	-35.6	23.8	0.00e+00	0	29	0	429916160	42	6104
2026-01-26 18:58:16.54	20.37	8.22	-35.0	-35.7	23.4	0.00e+00	0	29	0	435159040	42	6244
2026-01-26 18:58:17.55	20.29	8.29	-34.8	-35.6	23.8	0.00e+00	0	29	0	441450496	42	6111
2026-01-26 18:58:18.56	20.20	8.37	-34.7	-35.4	23.9	0.00e+00	0	29	0	446693376	42	5997
2026-01-26 18:58:19.57	20.11	8.44	-34.8	-35.5	23.8	0.00e+00	0	29	0	451936256	42	6076
2026-01-26 18:58:20.58	20.03	8.51	-35.0	-35.7	23.6	0.00e+00	0	29	0	458227712	42	6229
2026-01-26 18:58:21.59	19.94	8.58	-35.0	-35.8	23.6	0.00e+00	0	29	0	463470592	42	6266
2026-01-26 18:58:22.59	19.85	8.65	-34.9	-35.7	23.6	0.00e+00	0	29	0	469762048	42	6185
2026-01-26 18:58:23.60	19.76	8.72	-35.1	-35.9	23.4	0.00e+00	0	29	0	475004928	42	6324
2026-01-26 18:58:24.61	19.67	8.79	-34.7	-35.4	23.8	0.00e+00	0	29	0	481296384	42	5999
2026-01-26 18:58:25.62	19.58	8.86	-35.0	-35.7	23.7	0.00e+00	0	29	0	486539264	42	6192
2026-01-26 18:58:26.63	19.49	8.93	-35.2	-36.0	23.8	0.00e+00	0	29	0	492830720	42	6408
2026-01-26 18:58:27.64	19.40	9.01	-34.8	-35.5	23.9	0.00e+00	0	29	0	498073600	42	6062
2026-01-26 18:58:28.65	19.31	9.08	-34.7	-35.4	23.8	0.00e+00	0	29	0	503316480	42	5986
2026-01-26 18:58:29.66	19.22	9.15	-34.6	-35.4	23.6	0.00e+00	0	29	0	509607936	42	5967
2026-01-26 18:58:30.67	19.13	9.22	-34.5	-35.2	24.0	0.00e+00	0	29	0	514850816	42	5891
2026-01-26 18:58:31.68	19.03	9.29	-34.7	-35.4	23.9	0.00e+00	0	29	0	520093696	42	5985
2026-01-26 18:58:32.69	18.94	9.37	-34.2	-34.9	24.5	0.00e+00	0	29	0	526385152	42	5639
2026-01-26 18:58:33.70	18.85	9.44	-34.2	-34.9	24.5	0.00e+00	0	29	0	531628032	42	5685
2026-01-26 18:58:34.71	18.75	9.51	-34.8	-35.5	23.9	0.00e+00	0	29	0	537919488	42	6069
2026-01-26 18:58:35.72	18.66	9.58	-34.4	-35.1	24.2	0.00e+00	0	29	0	543162368	42	5794
2026-01-26 18:58:36.73	18.57	9.66	-34.3	-35.1	24.3	0.00e+00	0	29	0	548405248	42	5768
2026-01-26 18:58:37.74	18.47	9.73	-34.7	-35.4	24.2	0.00e+00	0	29	0	554696704	42	6001
2026-01-26 18:58:38.74	18.38	9.80	-34.7	-35.4	24.2	0.00e+00	0	29	0	559939584	42	5967
2026-01-26 18:58:39.75	18.28	9.88	-34.2	-34.8	24.4	0.00e+00	0	29	0	566231040	42	5628
2026-01-26 18:58:40.76	18.18	9.95	-34.0	-34.7	24.6	0.00e+00	0	29	0	571473920	42	5522
2026-01-26 18:58:41.77	18.08	10.02	-34.3	-35.0	24.4	0.00e+00	0	29	0	577765376	42	5752
2026-01-26 18:58:42.78	17.99	10.10	-34.0	-34.7	24.7	0.00e+00	0	29	0	583008256	42	5558
2026-01-26 18:58:43.79	17.89	10.17	-34.1	-34.8	24.6	0.00e+00	0	29	0	589299712	42	5590
2026-01-26 18:58:44.80	17.79	10.25	-33.9	-34.6	24.8	0.00e+00	0	29	0	594542592	42	5487
2026-01-26 18:58:45.81	17.69	10.32	-34.0	-34.7	24.7	0.00e+00	0	29	0	599785472	42	5531
2026-01-26 18:58:46.82	17.59	10.39	-34.0	-34.7	24.6	0.00e+00	0	29	0	606076928	42	5532
2026-01-26 18:58:47.82	17.49	10.47	-33.8	-34.5	24.8	0.00e+00	0	29	0	611319808	42	5406
2026-01-26 18:58:48.83	17.39	10.54	-33.9	-34.6	24.7	0.00e+00	0	29	0	617611264	42	5443
2026-01-26 18:58:49.84	17.29	10.62	-33.9	-34.6	24.8	0.00e+00	0	29	0	622854144	42	5476
2026-01-26 18:58:50.85	17.19	10.69	-33.8	-34.5	24.8	0.00e+00	0	29	0	628097024	42	5396
2026-01-26 18:58:51.87	17.08	10.77	-33.9	-34.5	24.8	0.00e+00	0	29	0	634388480	42	5437
2026-01-26 18:58:52.87	16.98	10.84	-33.7	-34.4	24.8	0.00e+00	0	29	0	639631360	40	6005
2026-01-26 18:58:53.88	16.88	10.92	-33.6	-34.3	25.0	0.00e+00	0	29	0	645922816	40	5948
2026-01-26 18:58:54.89	16.77	10.99	-33.7	-34.4	24.9	0.00e+00	0	29	0	651165696	40	5972
2026-01-26 18:58:55.90	16.67	11.07	-33.6	-34.3	24.9	0.00e+00	0	29	0	656408576	40	5932
2026-01-26 18:58:56.91	16.56	11.15	-33.7	-34.3	24.9	0.00e+00	0	29	0	662700032	40	5955
2026-01-26 18:58:57.92	16.46	11.22	-33.5	-34.2	25.0	0.00e+00	0	28	0	667942912	40	5862
2026-01-26 18:58:58.93	16.35	11.30	-33.5	-34.2	25.1	0.00e+00	0	29	0	674234368	40	5884
2026-01-26 18:58:59.94	16.24	11.37	-33.5	-34.1	25.2	0.00e+00	0	28	0	679477248	40	5813
2026-01-26 18:59:00.95	16.13	11.45	-33.4	-34.1	25.2	0.00e+00	0	29	0	685768704	40	5806
2026-01-26 18:59:01.96	16.03	11.53	-33.4	-34.1	25.3	0.00e+00	0	29	0	691011584	40	5786
2026-01-26 18:59:02.97	15.92	11.60	-33.3	-34.0	25.3	0.00e+00	0	28	0	696254464	40	5728
2026-01-26 18:59:03.98	15.81	11.68	-33.5	-34.1	25.2	0.00e+00	0	29	0	702545920	40	5816
2026-01-26 18:59:04.99	15.70	11.76	-33.4	-34.1	25.2	0.00e+00	0	29	0	707788800	40	5773
2026-01-26 18:59:06.00	15.59	11.83	-33.3	-34.0	25.2	0.00e+00	0	29	0	714080256	40	5703
2026-01-26 18:59:07.01	15.48	11.91	-33.3	-34.0	25.3	0.00e+00	0	29	0	719323136	40	5727
2026-01-26 18:59:08.02	15.36	11.99	-33.4	-34.1	25.2	0.00e+00	0	29	0	724566016	40	5780
2026-01-26 18:59:09.03	15.25	12.06	-33.4	-34.1	25.1	0.00e+00	0	29	0	730857472	40	5792
2026-01-26 18:59:10.04	15.14	12.14	-33.4	-34.1	25.2	0.00e+00	0	29	0	736100352	40	5791
2026-01-26 18:59:11.05	15.03	12.22	-33.3	-34.0	25.2	0.00e+00	0	29	0	742391808	40	5732
2026-01-26 18:59:12.06	14.91	12.30	-33.4	-34.1	25.2	0.00e+00	0	28	0	747634688	40	5793
2026-01-26 18:59:13.07	14.80	12.38	-33.5	-34.2	25.1	0.00e+00	0	29	0	752877568	40	5829
2026-01-26 18:59:14.08	14.68	12.45	-33.5	-34.2	25.1	0.00e+00	0	28	0	759169024	40	5831
2026-01-26 18:59:15.09	14.56	12.53	-33.6	-34.3	25.1	0.00e+00	0	29	0	764411904	40	5921
2026-01-26 18:59:16.10	14.45	12.61	-33.6	-34.3	25.1	0.00e+00	0	28	0	770703360	40	5958
2026-01-26 18:59:17.11	14.33	12.69	-33.5	-34.2	25.0	0.00e+00	0	28	0	775946240	40	5877
2026-01-26 18:59:18.12	14.21	12.77	-33.4	-34.1	25.2	0.00e+00	0	28	0	782237696	40	5788
2026-01-26 18:59:19.13	14.09	12.85	-33.4	-34.1	25.3	0.00e+00	0	28	0	787480576	40	5791
2026-01-26 18:59:20.14	13.97	12.92	-33.2	-33.9	25.4	0.00e+00	0	28	0	793772032	40	5652
2026-01-26 18:59:21.14	13.86	13.00	-33.3	-34.0	25.4	0.00e+00	0	29	0	799014912	40	5703
2026-01-26 18:59:22.16	13.73	13.08	-33.3	-34.0	25.4	0.00e+00	0	28	0	804257792	40	5747
2026-01-26 18:59:23.16	13.61	13.16	-33.4	-34.1	25.2	0.00e+00	0	29	0	810549248	40	5767
2026-01-26 18:59:24.17	13.49	13.24	-33.4	-34.1	25.4	0.00e+00	0	28	0	815792128	40	5793
2026-01-26 18:59:25.18	13.37	13.32	-33.3	-33.9	25.4	0.00e+00	0	28	0	822083584	40	5693
2026-01-26 18:59:26.19	13.25	13.40	-33.1	-33.7	25.6	0.00e+00	0	28	0	827326464	40	5546
2026-01-26 18:59:27.20	13.12	13.48	-33.1	-33.7	25.6	0.00e+00	0	29	0	832569344	40	5557
2026-01-26 18:59:28.21	13.00	13.56	-33.1	-33.7	25.5	0.00e+00	0	28	0	838860800	40	5562
2026-01-26 18:59:29.22	12.87	13.64	-32.9	-33.6	25.7	0.00e+00	0	29	0	844103680	40	5462
2026-01-26 18:59:30.23	12.74	13.72	-33.2	-33.8	25.4	0.00e+00	0	28	0	850395136	40	5629
2026-01-26 18:59:31.24	12.62	13.80	-32.9	-33.6	25.8	0.00e+00	0	28	0	855638016	40	5443
2026-01-26 18:59:32.25	12.49	13.88	-33.1	-33.7	25.6	0.00e+00	0	28	0	860880896	40	5559
2026-01-26 18:59:33.26	12.36	13.96	-33.0	-33.7	25.7	0.00e+00	0	28	0	867172352	40	5512
2026-01-26 18:59:34.27	12.23	14.04	-32.9	-33.6	25.7	0.00e+00	0	28	0	872415232	40	5480
2026-01-26 18:59:35.28	12.10	14.12	-33.7	-34.4	25.1	0.00e+00	0	28	0	878706688	40	6000
2026-01-26 18:59:36.28	11.97	14.20	-33.1	-33.8	25.5	0.00e+00	0	28	0	883949568	40	5568
2026-01-26 18:59:37.29	11.84	14.28	-32.9	-33.5	25.7	0.00e+00	0	28	0	890241024	40	5425
2026-01-26 18:59:38.30	11.71	14.36	-33.0	-33.7	25.8	0.00e+00	0	28	0	895483904	40	5532
2026-01-26 18:59:39.31	11.58	14.44	-32.9	-33.5	25.7	0.00e+00	0	28	0	900726784	40	5435
2026-01-26 18:59:40.32	11.44	14.53	-32.8	-33.5	25.8	0.00e+00	0	28	0	907018240	40	5424
2026-01-26 18:59:41.33	11.31	14.61	-32.7	-33.3	25.9	0.00e+00	0	28	0	912261120	40	5311
2026-01-26 18:59:42.34	11.18	14.69	-32.8	-33.5	25.8	0.00e+00	0	28	0	918552576	38	6088
2026-01-26 18:59:43.35	11.04	14.77	-32.6	-33.3	25.9	0.00e+00	0	28	0	923795456	38	5924
2026-01-26 18:59:44.36	10.90	14.85	-32.7	-33.3	26.0	0.00e+00	0	28	0	929038336	38	5950
2026-01-26 18:59:45.37	10.77	14.93	-32.5	-33.2	26.1	0.00e+00	0	28	0	935329792	38	5865
2026-01-26 18:59:46.38	10.63	15.02	-32.5	-33.2	26.2	0.00e+00	0	28	0	940572672	38	5844
2026-01-26 18:59:47.39	10.49	15.10	-32.6	-33.3	26.1	0.00e+00	0	28	0	946864128	38	5901
2026-01-26 18:59:48.40	10.35	15.18	-32.6	-33.2	26.2	0.00e+00	0	28	0	952107008	38	5878
2026-01-26 18:59:49.41	10.21	15.26	-32.6	-33.3	26.1	0.00e+00	0	28	0	957349888	38	5921
2026-01-26 18:59:50.42	10.07	15.34	-32.5	-33.1	26.2	0.00e+00	0	28	0	963641344	38	5793
2026-01-26 18:59:51.43	9.93	15.43	-32.4	-33.1	26.3	0.00e+00	0	28	0	968884224	38	5776
2026-01-26 18:59:52.44	9.78	15.51	-32.4	-33.0	26.3	0.00e+00	0	28	0	975175680	38	5741
2026-01-26 18:59:53.45	9.64	15.59	-32.3	-32.9	26.3	0.00e+00	0	28	0	980418560	38	5667
2026-01-26 18:59:54.46	9.50	15.68	-32.3	-32.9	26.3	0.00e+00	0	28	0	986710016	38	5688
2026-01-26 18:59:55.47	9.35	15.76	-32.2	-32.9	26.5	0.00e+00	0	28	0	991952896	38	5660
2026-01-26 18:59:56.48	9.20	15.84	-32.5	-33.2	26.2	0.00e+00	0	28	0	997195776	38	5855
2026-01-26 18:59:57.49	9.06	15.92	-32.4	-33.1	26.2	0.00e+00	0	28	0	1003487232	38	5780
2026-01-26 18:59:58.50	8.91	16.01	-32.7	-33.4	25.9	0.00e+00	0	28	0	1008730112	38	5992
2026-01-26 18:59:59.51	8.76	16.09	-32.4	-33.1	26.3	0.00e+00	0	28	0	1015021568	38	5797
2026-01-26 19:00:00.52	8.61	16.17	-32.2	-32.8	26.4	0.00e+00	0	28	0	1020264448	38	5629
2026-01-26 19:00:01.53	8.46	16.26	-32.2	-32.9	26.4	0.00e+00	0	28	0	1025507328	38	5656
2026-01-26 19:00:02.54	8.31	16.34	-32.2	-32.8	26.4	0.00e+00	0	28	0	1031798784	38	5620
2026-01-26 19:00:03.55	8.16	16.42	-32.2	-32.9	26.5	0.00e+00	0	28	0	1037041664	38	5638
2026-01-26 19:00:04.56	8.01	16.51	-32.1	-32.7	26.5	0.00e+00	0	28	0	1043333120	38	5555
2026-01-26 19:00:05.57	7.85	16.59	-32.0	-32.6	26.6	0.00e+00	0	28	0	1048576000	38	5481
2026-01-26 19:00:06.58	7.70	16.67	-32.1	-32.7	26.5	0.00e+00	0	28	0	1053818880	38	5559
2026-01-26 19:00:07.59	7.54	16.76	-32.2	-32.8	26.5	0.00e+00	0	28	0	1060110336	38	5625
2026-01-26 19:00:08.60	7.39	16.84	-32.0	-32.6	26.6	0.00e+00	0	28	0	1065353216	38	5491
2026-01-26 19:00:09.61	7.23	16.93	-32.0	-32.7	26.6	0.00e+00	0	28	0	1071644672	38	5528
2026-01-26 19:00:10.62	7.07	17.01	-32.1	-32.7	26.6	0.00e+00	0	28	0	1076887552	38	5556
2026-01-26 19:00:11.63	6.91	17.09	-32.1	-32.8	26.5	0.00e+00	0	28	0	1083179008	38	5569
2026-01-26 19:00:12.64	6.75	17.18	-32.1	-32.8	26.4	0.00e+00	0	28	0	1088421888	38	5596
2026-01-26 19:00:13.65	6.59	17.26	-32.1	-32.8	26.5	0.00e+00	0	28	0	1094713344	38	5579
2026-01-26 19:00:14.66	6.43	17.35	-32.1	-32.7	26.6	0.00e+00	0	28	0	1099956224	38	5515
2026-01-26 19:00:15.66	6.27	17.43	-31.9	-32.5	26.7	0.00e+00	0	28	0	1105199104	38	5436
2026-01-26 19:00:16.67	6.10	17.52	-32.0	-32.6	26.6	0.00e+00	0	28	0	1111490560	38	5480
2026-01-26 19:00:17.68	5.94	17.60	-31.9	-32.5	26.7	0.00e+00	0	28	0	1116733440	38	5436
2026-01-26 19:00:18.69	5.77	17.68	-31.9	-32.6	26.7	0.00e+00	0	28	0	1123024896	38	5460
2026-01-26 19:00:19.70	5.61	17.77	-32.0	-32.7	26.6	0.00e+00	0	28	0	1128267776	38	5515
2026-01-26 19:00:20.71	5.44	17.85	-31.8	-32.4	26.8	0.00e+00	0	28	0	1133510656	38	5339
2026-01-26 19:00:21.72	5.27	17.94	-32.1	-32.8	26.7	0.00e+00	0	28	0	1139802112	36	6285
2026-01-26 19:00:22.73	5.10	18.02	-31.8	-32.4	26.8	0.00e+00	0	28	0	1145044992	36	6004
2026-01-26 19:00:23.73	4.93	18.11	-31.5	-32.2	27.0	0.00e+00	0	28	0	1151336448	36	5841
2026-01-26 19:00:24.74	4.76	18.19	-31.6	-32.1	27.0	0.00e+00	0	28	0	1156579328	36	5828
2026-01-26 19:00:25.75	4.59	18.28	-31.9	-32.5	26.9	0.00e+00	0	28	0	1161822208	36	6065
2026-01-26 19:00:26.76	4.42	18.36	-31.8	-32.5	26.8	0.00e+00	0	28	0	1168113664	36	6038
2026-01-26 19:00:27.77	4.24	18.44	-31.9	-32.6	26.8	0.00e+00	0	28	0	1173356544	36	6135
2026-01-26 19:00:28.78	4.07	18.53	-31.8	-32.4	26.8	0.00e+00	0	28	0	1179648000	36	6010
2026-01-26 19:00:29.79	3.89	18.61	-32.0	-32.7	26.8	0.00e+00	0	28	0	1184890880	36	6209
2026-01-26 19:00:30.80	3.71	18.70	-31.9	-32.6	26.8	0.00e+00	0	28	0	1191182336	36	6110
2026-01-26 19:00:31.81	3.54	18.78	-31.5	-32.2	27.0	0.00e+00	0	28	0	1196425216	36	5833
2026-01-26 19:00:32.82	3.36	18.87	-31.5	-32.1	27.1	0.00e+00	0	28	0	1201668096	36	5774
2026-01-26 19:00:33.83	3.18	18.95	-31.5	-32.1	27.1	0.00e+00	0	28	0	1207959552	36	5795
2026-01-26 19:00:34.84	3.00	19.04	-31.3	-31.9	27.1	0.00e+00	0	28	0	1213202432	36	5695
2026-01-26 19:00:35.85	2.81	19.12	-31.3	-31.9	27.3	0.00e+00	0	28	0	1219493888	36	5651
2026-01-26 19:00:36.86	2.63	19.21	-31.5	-32.2	27.0	0.00e+00	0	28	0	1224736768	36	5851
2026-01-26 19:00:37.87	2.45	19.29	-31.6	-32.2	27.0	0.00e+00	0	28	0	1229979648	36	5870
2026-01-26 19:00:38.87	2.26	19.38	-31.4	-32.1	27.1	0.00e+00	0	28	0	1236271104	36	5770
2026-01-26 19:00:39.88	2.08	19.46	-31.5	-32.1	27.1	0.00e+00	0	28	0	1241513984	36	5803
2026-01-26 19:00:40.89	1.89	19.54	-31.6	-32.2	27.0	0.00e+00	0	28	0	1247805440	36	5885
2026-01-26 19:00:41.90	1.70	19.63	-31.9	-32.5	26.8	0.00e+00	0	28	0	1253048320	36	6067
2026-01-26 19:00:42.91	1.51	19.71	-31.9	-32.6	26.8	0.00e+00	0	28	0	1258291200	36	6131
2026-01-26 19:00:43.92	1.32	19.80	-32.0	-32.7	26.7	0.00e+00	0	28	0	1264582656	36	6189
2026-01-26 19:00:44.93	1.13	19.88	-31.6	-32.3	27.0	0.00e+00	0	28	0	1269825536	36	5931
2026-01-26 19:00:45.94	0.93	19.97	-31.7	-32.3	26.9	0.00e+00	0	28	0	1276116992	36	5946
2026-01-26 19:00:46.94	0.74	20.05	-31.6	-32.3	27.0	0.00e+00	0	28	0	1281359872	36	5901
2026-01-26 19:00:47.95	0.55	20.13	-31.6	-32.3	27.0	0.00e+00	0	28	0	1287651328	36	5922
2026-01-26 19:00:48.96	0.35	20.22	-31.6	-32.3	27.1	0.00e+00	0	28	0	1292894208	36	5915
2026-01-26 19:00:49.97	0.15	20.30	-31.6	-32.2	27.0	0.00e+00	0	28	0	1298137088	36	5871
2026-01-26 19:00:50.98	359.96	20.39	-32.1	-32.8	26.6	0.00e+00	0	28	0	1304428544	36	6246
2026-01-26 19:00:51.99	359.76	20.47	-31.6	-32.2	27.1	0.00e+00	0	28	0	1309671424	36	5863
2026-01-26 19:00:53.00	359.56	20.55	-31.4	-32.1	27.2	0.00e+00	0	28	0	1315962880	36	5764
2026-01-26 19:00:54.01	359.35	20.64	-31.3	-32.0	27.3	0.00e+00	0	28	0	1321205760	36	5697
2026-01-26 19:00:55.02	359.15	20.72	-31.4	-32.0	27.3	0.00e+00	0	28	0	1326448640	36	5732
2026-01-26 19:00:56.03	358.95	20.81	-31.3	-31.9	27.2	0.00e+00	0	28	0	1332740096	36	5683
2026-01-26 19:00:57.04	358.74	20.89	-31.4	-32.1	27.2	0.00e+00	0	28	0	1337982976	36	5781
2026-01-26 19:00:58.05	358.54	20.97	-31.5	-32.2	27.1	0.00e+00	0	28	0	1344274432	36	5838
2026-01-26 19:00:59.06	358.33	21.06	-31.3	-32.0	27.2	0.00e+00	0	28	0	1349517312	36	5712
2026-01-26 19:01:00.07	358.12	21.14	-31.3	-31.9	27.3	0.00e+00	0	28	0	1354760192	36	5692
2026-01-26 19:01:01.08	357.91	21.22	-31.1	-31.7	27.4	0.00e+00	0	28	0	1361051648	36	5538
2026-01-26 19:01:02.09	357.70	21.30	-31.0	-31.7	27.4	0.00e+00	0	28	0	1366294528	36	5519
2026-01-26 19:01:03.10	357.49	21.39	-30.9	-31.5	27.5	0.00e+00	0	28	0	1372585984	36	5435
2026-01-26 19:01:04.11	357.28	21.47	-30.8	-31.4	27.6	0.00e+00	0	28	0	1377828864	36	5359
2026-01-26 19:01:05.12	357.06	21.55	-31.0	-31.7	27.5	0.00e+00	0	28	0	1384120320	36	5535
2026-01-26 19:01:06.13	356.85	21.63	-31.1	-31.7	27.4	0.00e+00	0	28	0	1389363200	36	5541
2026-01-26 19:01:07.14	356.63	21.72	-31.0	-31.6	27.5	0.00e+00	0	28	0	1395654656	36	5477
2026-01-26 19:01:08.15	356.41	21.80	-30.9	-31.5	27.6	0.00e+00	0	28	0	1400897536	36	5419
2026-01-26 19:01:09.16	356.19	21.88	-31.0	-31.7	27.6	0.00e+00	0	28	0	1406140416	36	5531
2026-01-26 19:01:10.17	355.98	21.96	-31.1	-31.8	27.4	0.00e+00	0	28	0	1412431872	36	5575
2026-01-26 19:01:11.18	355.75	22.04	-30.9	-31.5	27.5	0.00e+00	0	28	0	1417674752	36	5405
2026-01-26 19:01:12.19	355.53	22.12	-31.3	-32.0	27.2	0.00e+00	0	28	0	1423966208	36	5706
2026-01-26 19:01:13.20	355.31	22.20	-31.3	-32.0	27.3	0.00e+00	0	28	0	1429209088	36	5697
2026-01-26 19:01:14.20	355.09	22.28	-31.0	-31.6	27.5	0.00e+00	0	28	0	1434451968	36	5474
2026-01-26 19:01:15.21	354.86	22.36	-30.8	-31.5	27.7	0.00e+00	0	28	0	1440743424	36	5387
2026-01-26 19:01:16.22	354.63	22.44	-30.9	-31.5	27.6	0.00e+00	0	28	0	1445986304	36	5399
2026-01-26 19:01:17.23	354.41	22.52	-31.0	-31.6	27.5	0.00e+00	0	28	0	1452277760	36	5475
2026-01-26 19:01:18.24	354.18	22.60	-31.2	-31.8	27.3	0.00e+00	0	28	0	1457520640	36	5589
2026-01-26 19:01:19.25	353.95	22.68	-31.2	-31.8	27.3	0.00e+00	0	28	0	1462763520	36	5621
2026-01-26 19:01:20.26	353.71	22.76	-31.3	-32.0	27.3	0.00e+00	0	28	0	1469054976	36	5711
2026-01-26 19:01:21.27	353.48	22.84	-31.2	-31.9	27.4	0.00e+00	0	28	0	1474297856	36	5634
2026-01-26 19:01:22.28	353.25	22.92	-31.2	-31.9	27.5	0.00e+00	0	28	0	1480589312	36	5661
2026-01-26 19:01:23.29	353.01	23.00	-31.0	-31.6	27.5	0.00e+00	0	28	0	1485832192	36	5484
2026-01-26 19:01:24.30	352.77	23.08	-31.1	-31.7	27.5	0.00e+00	0	28	0	1492123648	36	5558
2026-01-26 19:01:25.31	352.54	23.15	-31.1	-31.7	27.5	0.00e+00	0	28	0	1497366528	36	5555
2026-01-26 19:01:26.32	352.30	23.23	-30.8	-31.4	27.7	0.00e+00	0	28	0	1502609408	36	5375
2026-01-26 19:01:27.33	352.06	23.31	-30.9	-31.6	27.6	0.00e+00	0	28	0	1508900864	34	6105
2026-01-26 19:01:28.34	351.82	23.39	-30.7	-31.3	27.7	0.00e+00	0	28	0	1514143744	34	5939
2026-01-26 19:01:29.34	351.58	23.46	-30.8	-31.5	27.5	0.00e+00	0	28	0	1520435200	34	6040
2026-01-26 19:01:30.35	351.33	23.54	-30.9	-31.6	27.6	0.00e+00	0	28	0	1525678080	34	6124
2026-01-26 19:01:31.36	351.09	23.61	-31.1	-31.8	27.5	0.00e+00	0	28	0	1530920960	34	6252
2026-01-26 19:01:32.37	350.84	23.69	-31.3	-31.9	27.3	0.00e+00	0	28	0	1537212416	34	6351
2026-01-26 19:01:33.38	350.59	23.76	-31.2	-31.8	27.3	0.00e+00	0	28	0	1542455296	34	6300
2026-01-26 19:01:34.39	350.35	23.84	-31.0	-31.6	27.5	0.00e+00	0	28	0	1548746752	34	6151
2026-01-26 19:01:35.40	350.10	23.91	-31.0	-31.6	27.5	0.00e+00	0	28	0	1553989632	34	6171
2026-01-26 19:01:36.41	349.85	23.99	-31.1	-31.8	27.4	0.00e+00	0	28	0	1559232512	34	6247
2026-01-26 19:01:37.42	349.59	24.06	-31.1	-31.7	27.5	0.00e+00	0	28	0	1565523968	34	6226
2026-01-26 19:01:38.43	349.34	24.13	-30.8	-31.5	27.7	0.00e+00	0	28	0	1570766848	34	6059
2026-01-26 19:01:39.44	349.09	24.21	-30.7	-31.3	27.7	0.00e+00	0	28	0	1577058304	34	5946
2026-01-26 19:01:40.45	348.83	24.28	-30.7	-31.3	27.8	0.00e+00	0	28	0	1582301184	34	5929
2026-01-26 19:01:41.46	348.57	24.35	-30.7	-31.3	27.7	0.00e+00	0	28	0	1588592640	34	5933
2026-01-26 19:01:42.47	348.31	24.42	-30.7	-31.3	27.7	0.00e+00	0	28	0	1593835520	34	5921
2026-01-26 19:01:43.48	348.06	24.49	-30.7	-31.3	27.8	0.00e+00	0	28	0	1599078400	34	5903
2026-01-26 19:01:44.49	347.79	24.56	-30.6	-31.2	27.9	0.00e+00	0	28	0	1605369856	34	5832
2026-01-26 19:01:45.50	347.53	24.63	-30.5	-31.1	28.0	0.00e+00	0	28	0	1610612736	34	5766
2026-01-26 19:01:46.50	347.27	24.70	-30.6	-31.3	27.8	0.00e+00	0	28	0	1616904192	34	5897
2026-01-26 19:01:47.52	347.01	24.77	-30.7	-31.3	27.8	0.00e+00	0	28	0	1622147072	34	5931
2026-01-26 19:01:48.52	346.74	24.84	-30.8	-31.4	27.7	0.00e+00	0	28	0	1627389952	34	6026
2026-01-26 19:01:49.53	346.48	24.91	-30.9	-31.5	27.6	0.00e+00	0	28	0	1633681408	34	6095
2026-01-26 19:01:50.54	346.21	24.98	-31.1	-31.7	27.5	0.00e+00	0	28	0	1638924288	34	6195
2026-01-26 19:01:51.55	345.94	25.05	-31.0	-31.7	27.5	0.00e+00	0	28	0	1645215744	34	6191
2026-01-26 19:01:52.56	345.67	25.11	-30.8	-31.4	27.6	0.00e+00	0	28	0	1650458624	34	6019
2026-01-26 19:01:53.57	345.40	25.18	-30.7	-31.3	27.8	0.00e+00	0	28	0	1655701504	34	5951
2026-01-26 19:01:54.58	345.13	25.24	-30.5	-31.1	28.0	0.00e+00	0	28	0	1661992960	34	5779
2026-01-26 19:01:55.59	344.86	25.31	-30.4	-31.0	28.1	0.00e+00	0	28	0	1667235840	34	5739
2026-01-26 19:01:56.60	344.58	25.37	-30.4	-31.0	27.9	0.00e+00	0	28	0	1673527296	34	5737
2026-01-26 19:01:57.61	344.31	25.44	-30.3	-30.9	28.0	0.00e+00	0	28	0	1678770176	34	5695
2026-01-26 19:01:58.62	344.03	25.50	-30.4	-31.0	28.1	0.00e+00	0	28	0	1685061632	34	5713
2026-01-26 19:01:59.63	343.75	25.56	-30.3	-30.9	28.1	0.00e+00	0	28	0	1690304512	34	5643
2026-01-26 19:02:00.64	343.47	25.63	-30.4	-31.0	28.1	0.00e+00	0	28	0	1696595968	34	5734
2026-01-26 19:02:01.65	343.19	25.69	-30.4	-31.0	27.9	0.00e+00	0	28	0	1701838848	34	5761
2026-01-26 19:02:02.66	342.91	25.75	-30.5	-31.1	27.9	0.00e+00	0	28	0	1707081728	34	5820
2026-01-26 19:02:03.67	342.63	25.81	-30.7	-31.4	27.9	0.00e+00	0	28	0	1713373184	34	5968
2026-01-26 19:02:04.68	342.35	25.87	-30.6	-31.2	27.9	0.00e+00	0	28	0	1718616064	34	5863
2026-01-26 19:02:05.69	342.06	25.93	-30.5	-31.2	28.0	0.00e+00	0	28	0	1724907520	34	5848
2026-01-26 19:02:06.70	341.78	25.99	-30.6	-31.2	27.8	0.00e+00	0	28	0	1730150400	34	5880
2026-01-26 19:02:07.71	341.49	26.04	-30.7	-31.3	27.7	0.00e+00	0	28	0	1735393280	34	5947
2026-01-26 19:02:08.72	341.20	26.10	-30.8	-31.4	27.8	0.00e+00	0	28	0	1741684736	34	5997
2026-01-26 19:02:09.73	340.91	26.16	-30.5	-31.2	28.0	0.00e+00	0	28	0	1746927616	34	5842
2026-01-26 19:02:10.74	340.62	26.21	-30.4	-31.0	28.0	0.00e+00	0	28	0	1753219072	34	5726
2026-01-26 19:02:11.75	340.33	26.27	-30.4	-31.0	28.0	0.00e+00	0	28	0	1758461952	34	5719
2026-01-26 19:02:12.76	340.04	26.32	-30.4	-31.1	28.0	0.00e+00	0	28	0	1763704832	34	5770
2026-01-26 19:02:13.77	339.75	26.38	-30.4	-31.1	28.0	0.00e+00	0	28	0	1769996288	34	5795
2026-01-26 19:02:14.78	339.45	26.43	-30.6	-31.2	27.9	0.00e+00	0	28	0	1775239168	34	5860
2026-01-26 19:02:15.79	339.16	26.48	-30.2	-30.9	28.1	0.00e+00	0	28	0	1781530624	34	5662
2026-01-26 19:02:16.80	338.86	26.53	-30.1	-30.7	28.2	0.00e+00	0	28	0	1786773504	34	5538
2026-01-26 19:02:17.81	338.57	26.58	-30.3	-30.8	28.2	0.00e+00	0	28	0	1793064960	34	5617
2026-01-26 19:02:18.82	338.27	26.63	-30.4	-31.0	28.0	0.00e+00	0	28	0	1798307840	34	5752
2026-01-26 19:02:19.83	337.97	26.68	-30.6	-31.2	27.9	0.00e+00	0	28	0	1803550720	34	5896
2026-01-26 19:02:20.84	337.67	26.73	-30.5	-31.2	27.9	0.00e+00	0	28	0	1809842176	34	5847
2026-01-26 19:02:21.85	337.37	26.78	-30.4	-31.1	27.9	0.00e+00	0	28	0	1815085056	34	5769
2026-01-26 19:02:22.86	337.07	26.83	-30.5	-31.1	27.9	0.00e+00	0	28	0	1821376512	34	5814
2026-01-26 19:02:23.87	336.77	26.87	-30.4	-31.0	28.1	0.00e+00	0	28	0	1826619392	34	5743
2026-01-26 19:02:24.88	336.47	26.92	-30.4	-31.0	28.0	0.00e+00	0	28	0	1831862272	34	5726
2026-01-26 19:02:25.89	336.16	26.96	-30.3	-31.0	28.0	0.00e+00	0	28	0	1838153728	34	5699
2026-01-26 19:02:26.90	335.86	27.01	-30.4	-31.0	28.0	0.00e+00	0	28	0	1843396608	34	5751
2026-01-26 19:02:27.91	335.55	27.05	-30.5	-31.1	28.0	0.00e+00	0	28	0	1849688064	34	5821
2026-01-26 19:02:28.92	335.25	27.09	-30.6	-31.2	28.0	0.00e+00	0	28	0	1854930944	34	5884
2026-01-26 19:02:29.93	334.94	27.13	-30.6	-31.2	28.0	0.00e+00	0	28	0	1860173824	34	5886
2026-01-26 19:02:30.94	334.63	27.17	-30.6	-31.2	27.9	0.00e+00	0	28	0	1866465280	34	5881
2026-01-26 19:02:31.95	334.32	27.21	-30.5	-31.1	28.1	0.00e+00	0	28	0	1871708160	34	5784
2026-01-26 19:02:32.96	334.01	27.25	-30.6	-31.2	28.0	0.00e+00	0	28	0	1877999616	34	5867
2026-01-26 19:02:33.97	333.70	27.29	-30.4	-31.0	28.3	0.00e+00	0	28	0	1883242496	34	5751
2026-01-26 19:02:34.98	333.39	27.32	-31.0	-31.6	27.8	0.00e+00	0	28	0	1889533952	34	6154
2026-01-26 19:02:35.99	333.08	27.36	-30.5	-31.2	28.0	0.00e+00	0	28	0	1894776832	34	5837
2026-01-26 19:02:37.00	332.77	27.40	-30.3	-30.9	28.2	0.00e+00	0	28	0	1901068288	34	5669
2026-01-26 19:02:38.01	332.45	27.43	-30.6	-31.3	28.0	0.00e+00	0	28	0	1906311168	34	5909
2026-01-26 19:02:39.02	332.14	27.46	-30.9	-31.5	27.9	0.00e+00	0	28	0	1911554048	34	6055
2026-01-26 19:02:40.03	331.82	27.49	-30.5	-31.2	28.0	0.00e+00	0	28	0	1917845504	34	5831
2026-01-26 19:02:41.04	331.51	27.53	-31.3	-32.0	27.7	0.00e+00	0	28	0	1923088384	34	6414
2026-01-26 19:02:42.05	331.19	27.56	-30.5	-31.2	27.8	0.00e+00	0	28	0	1929379840	34	5872
2026-01-26 19:02:43.05	330.88	27.59	-31.1	-31.8	27.3	0.00e+00	0	28	0	1934622720	34	6278
2026-01-26 19:02:44.07	330.56	27.61	-30.8	-31.4	27.9	0.00e+00	0	28	0	1939865600	34	5985
2026-01-26 19:02:45.08	330.24	27.64	-31.0	-31.6	27.5	0.00e+00	0	28	0	1946157056	34	6159
2026-01-26 19:02:46.09	329.93	27.67	-30.6	-31.3	27.9	0.00e+00	0	28	0	1951399936	34	5897
2026-01-26 19:02:47.09	329.61	27.69	-30.7	-31.4	27.8	0.00e+00	0	28	0	1957691392	34	5969
2026-01-26 19:02:48.10	329.29	27.72	-30.8	-31.4	27.8	0.00e+00	0	28	0	1962934272	34	6024
2026-01-26 19:02:49.11	328.97	27.74	-30.6	-31.2	28.0	0.00e+00	0	28	0	1968177152	34	5875
2026-01-26 19:02:50.12	328.65	27.77	-30.3	-30.9	28.1	0.00e+00	0	28	0	1974468608	34	5691
2026-01-26 19:02:51.13	328.33	27.79	-30.4	-31.0	28.1	0.00e+00	0	28	0	1979711488	34	5756
2026-01-26 19:02:52.14	328.01	27.81	-30.3	-31.0	28.2	0.00e+00	0	28	0	1986002944	34	5697
2026-01-26 19:02:53.15	327.69	27.83	-30.2	-30.9	28.3	0.00e+00	0	28	0	1991245824	34	5651
2026-01-26 19:02:54.16	327.37	27.85	-30.2	-30.8	28.4	0.00e+00	0	28	0	1997537280	34	5594
2026-01-26 19:02:55.17	327.05	27.86	-30.2	-30.7	28.3	0.00e+00	0	28	0	2002780160	34	5564
2026-01-26 19:02:56.18	326.72	27.88	-30.1	-30.7	28.3	0.00e+00	0	28	0	2008023040	34	5561
2026-01-26 19:02:57.19	326.40	27.90	-30.2	-30.8	28.2	0.00e+00	0	28	0	2014314496	34	5598
2026-01-26 19:02:58.20	326.08	27.91	-29.8	-30.5	28.4	0.00e+00	0	28	0	2019557376	34	5396
2026-01-26 19:02:59.21	325.75	27.93	-29.9	-30.5	28.5	0.00e+00	0	28	0	2025848832	34	5423
2026-01-26 19:03:00.22	325.43	27.94	-29.8	-30.5	28.5	0.00e+00	0	28	0	2031091712	34	5406
2026-01-26 19:03:01.23	325.11	27.95	-29.7	-30.3	28.5	0.00e+00	0	28	0	2036334592	32	5955
2026-01-26 19:03:02.24	324.78	27.96	-29.9	-30.5	28.5	0.00e+00	0	28	0	2042626048	32	6067
2026-01-26 19:03:03.25	324.46	27.97	-30.0	-30.6	28.4	0.00e+00	0	28	0	2047868928	32	6116
2026-01-26 19:03:04.26	324.13	27.98	-30.0	-30.6	28.3	0.00e+00	0	28	0	2054160384	32	6162
2026-01-26 19:03:05.26	323.81	27.99	-30.1	-30.7	28.3	0.00e+00	0	28	0	2059403264	32	6235
2026-01-26 19:03:06.27	323.49	27.99	-30.3	-30.9	28.4	0.00e+00	0	28	0	2064646144	32	6371
2026-01-26 19:03:07.28	323.16	28.00	-30.1	-30.7	28.4	0.00e+00	0	28	0	2070937600	32	6219
2026-01-26 19:03:08.29	322.84	28.01	-30.0	-30.6	28.5	0.00e+00	0	27	0	2076180480	32	6159
2026-01-26 19:03:09.30	322.51	28.01	-30.0	-30.6	28.4	0.00e+00	0	28	0	2082471936	32	6161
2026-01-26 19:03:10.31	322.19	28.01	-30.4	-31.0	28.3	0.00e+00	0	28	0	2087714816	32	6462
2026-01-26 19:03:11.32	321.86	28.01	-30.3	-30.9	28.1	0.00e+00	0	28	0	2094006272	32	6343
2026-01-26 19:03:12.33	321.54	28.01	-30.4	-31.0	28.2	0.00e+00	0	28	0	2099249152	32	6452
2026-01-26 19:03:13.34	321.21	28.01	-30.4	-31.0	28.3	0.00e+00	0	28	0	2105540608	32	6435
2026-01-26 19:03:14.35	320.88	28.01	-30.6	-31.2	28.1	0.00e+00	0	28	0	2110783488	32	6604
2026-01-26 19:03:15.36	320.56	28.01	-30.6	-31.3	27.9	0.00e+00	0	28	0	2116026368	34	5913
2026-01-26 19:03:16.37	320.23	28.01	-30.6	-31.2	28.1	0.00e+00	0	28	0	2122317824	34	5859
2026-01-26 19:03:17.38	319.91	28.00	-30.5	-31.1	28.2	0.00e+00	0	28	0	2127560704	34	5816
2026-01-26 19:03:18.39	319.58	28.00	-30.2	-30.9	28.2	0.00e+00	0	28	0	2133852160	34	5646
2026-01-26 19:03:19.40	319.26	27.99	-30.2	-30.9	28.3	0.00e+00	0	28	0	2139095040	34	5636
2026-01-26 19:03:20.41	318.93	27.98	-30.1	-30.7	28.1	0.00e+00	0	28	0	2144337920	34	5566
2026-01-26 19:03:21.42	318.61	27.97	-30.2	-30.8	28.3	0.00e+00	0	28	0	2150629376	34	5588
2026-01-26 19:03:22.43	318.28	27.96	-30.1	-30.7	28.2	0.00e+00	0	28	0	2155872256	34	5558
2026-01-26 19:03:23.44	317.96	27.95	-30.2	-30.8	28.0	0.00e+00	0	28	0	2162163712	34	5585
2026-01-26 19:03:24.45	317.64	27.94	-30.4	-31.0	28.0	0.00e+00	0	28	0	2167406592	34	5736
2026-01-26 19:03:25.46	317.31	27.93	-30.0	-30.6	28.3	0.00e+00	0	28	0	2172649472	34	5465
2026-01-26 19:03:26.47	316.99	27.91	-30.3	-30.8	28.2	0.00e+00	0	28	0	2178940928	34	5599
2026-01-26 19:03:27.48	316.67	27.90	-30.0	-30.6	28.4	0.00e+00	0	27	0	2184183808	34	5480
2026-01-26 19:03:28.49	316.34	27.88	-30.1	-30.7	28.4	0.00e+00	0	28	0	2190475264	34	5533
2026-01-26 19:03:29.50	316.02	27.87	-30.3	-30.9	28.4	0.00e+00	0	28	0	2195718144	34	5643
2026-01-26 19:03:30.51	315.70	27.85	-30.1	-30.7	28.4	0.00e+00	0	28	0	2202009600	34	5555
2026-01-26 19:03:31.52	315.38	27.83	-30.3	-30.9	28.3	0.00e+00	0	28	0	2207252480	34	5656
2026-01-26 19:03:32.53	315.05	27.81	-30.2	-30.8	28.2	0.00e+00	0	28	0	2212495360	34	5624
2026-01-26 19:03:33.54	314.73	27.79	-30.5	-31.1	28.3	0.00e+00	0	28	0	2218786816	34	5797
2026-01-26 19:03:34.55	314.41	27.77	-30.3	-31.0	28.3	0.00e+00	0	28	0	2224029696	34	5723
2026-01-26 19:03:35.56	314.09	27.75	-30.4	-31.0	28.2	0.00e+00	0	28	0	2230321152	34	5739
2026-01-26 19:03:36.56	313.78	27.72	-30.2	-30.8	28.3	0.00e+00	0	28	0	2235564032	34	5607
2026-01-26 19:03:37.57	313.46	27.70	-30.2	-30.9	28.2	0.00e+00	0	28	0	2240806912	34	5642
2026-01-26 19:03:38.58	313.14	27.67	-30.3	-30.9	28.2	0.00e+00	0	28	0	2247098368	34	5652
2026-01-26 19:03:39.59	312.82	27.65	-30.2	-30.9	28.2	0.00e+00	0	28	0	2252341248	34	5659
2026-01-26 19:03:40.60	312.50	27.62	-30.5	-31.1	28.3	0.00e+00	0	28	0	2258632704	34	5802
2026-01-26 19:03:41.61	312.18	27.59	-30.6	-31.2	28.3	0.00e+00	0	28	0	2263875584	34	5885
2026-01-26 19:03:42.62	311.87	27.56	-30.3	-30.9	28.3	0.00e+00	0	28	0	2269118464	34	5671
2026-01-26 19:03:43.63	311.55	27.53	-30.4	-31.0	28.3	0.00e+00	0	28	0	2275409920	34	5730
2026-01-26 19:03:44.64	311.24	27.50	-30.7	-31.3	28.2	0.00e+00	0	28	0	2280652800	34	5932
2026-01-26 19:03:45.65	310.92	27.47	-30.5	-31.1	28.2	0.00e+00	0	28	0	2286944256	34	5811
2026-01-26 19:03:46.66	310.61	27.43	-30.9	-31.6	28.1	0.00e+00	0	28	0	2292187136	34	6128
2026-01-26 19:03:47.67	310.29	27.40	-30.5	-31.1	28.2	0.00e+00	0	28	0	2298478592	34	5820
2026-01-26 19:03:48.68	309.98	27.37	-30.7	-31.4	28.2	0.00e+00	0	27	0	2303721472	34	6022
2026-01-26 19:03:49.69	309.67	27.33	-30.6	-31.2	28.2	0.00e+00	0	28	0	2310012928	34	5859
2026-01-26 19:03:50.70	309.36	27.29	-30.7	-31.3	28.4	0.00e+00	0	28	0	2315255808	34	5936
2026-01-26 19:03:51.71	309.05	27.26	-30.2	-30.8	28.4	0.00e+00	0	28	0	2320498688	34	5613
2026-01-26 19:03:52.72	308.74	27.22	-30.6	-31.2	28.4	0.00e+00	0	28	0	2326790144	34	5893
2026-01-26 19:03:53.73	308.43	27.18	-30.6	-31.2	28.0	0.00e+00	0	28	0	2332033024	34	5895
2026-01-26 19:03:54.74	308.12	27.14	-30.5	-31.1	28.1	0.00e+00	0	28	0	2338324480	34	5816
2026-01-26 19:03:55.75	307.81	27.10	-31.0	-31.6	28.1	0.00e+00	0	28	0	2343567360	34	6116
2026-01-26 19:03:56.76	307.50	27.05	-31.1	-31.7	28.1	0.00e+00	0	28	0	2348810240	34	6240
2026-01-26 19:03:57.77	307.20	27.01	-30.6	-31.3	28.2	0.00e+00	0	27	0	2355101696	34	5903
2026-01-26 19:03:58.78	306.89	26.97	-30.6	-31.2	28.1	0.00e+00	0	27	0	2360344576	34	5848
2026-01-26 19:03:59.79	306.59	26.92	-31.0	-31.6	28.1	0.00e+00	0	28	0	2366636032	34	6164
2026-01-26 19:04:00.80	306.28	26.88	-30.7	-31.2	28.0	0.00e+00	0	28	0	2371878912	34	5892
2026-01-26 19:04:01.81	305.98	26.83	-31.1	-31.7	27.8	0.00e+00	0	27	0	2377121792	34	6234
2026-01-26 19:04:02.82	305.68	26.79	-31.2	-31.8	28.0	0.00e+00	0	27	0	2383413248	34	6247
2026-01-26 19:04:03.83	305.38	26.74	-30.5	-31.0	28.2	0.00e+00	0	28	0	2388656128	34	5758
2026-01-26 19:04:04.84	305.08	26.69	-30.8	-31.4	28.1	0.00e+00	0	27	0	2394947584	34	6017
2026-01-26 19:04:05.85	304.78	26.64	-31.2	-31.9	27.9	0.00e+00	0	28	0	2400190464	34	6383
2026-01-26 19:04:06.86	304.48	26.59	-31.8	-32.5	27.5	0.00e+00	0	28	0	2406481920	36	6098
2026-01-26 19:04:07.87	304.18	26.54	-31.0	-31.5	28.1	0.00e+00	0	27	0	2411724800	36	5412
2026-01-26 19:04:08.88	303.89	26.49	-31.0	-31.5	28.0	0.00e+00	0	27	0	2416967680	36	5407
2026-01-26 19:04:09.89	303.59	26.44	-30.8	-31.4	28.0	0.00e+00	0	28	0	2423259136	34	5982
2026-01-26 19:04:10.90	303.30	26.38	-31.3	-32.0	27.6	0.00e+00	0	28	0	2428502016	34	6395
2026-01-26 19:04:11.91	303.01	26.33	-31.4	-32.0	27.6	0.00e+00	0	28	0	2434793472	34	6403
2026-01-26 19:04:12.92	302.71	26.28	-30.9	-31.6	27.7	0.00e+00	0	27	0	2440036352	34	6126
2026-01-26 19:04:13.93	302.42	26.22	-31.0	-31.6	27.8	0.00e+00	0	27	0	2446327808	34	6133
2026-01-26 19:04:14.94	302.13	26.16	-30.4	-31.1	28.3	0.00e+00	0	27	0	2451570688	34	5771
2026-01-26 19:04:15.95	301.84	26.11	-30.5	-31.1	28.2	0.00e+00	0	27	0	2456813568	34	5828
2026-01-26 19:04:16.96	301.55	26.05	-30.6	-31.2	28.0	0.00e+00	0	27	0	2463105024	34	5865
2026-01-26 19:04:17.97	301.27	25.99	-30.4	-31.0	28.0	0.00e+00	0	27	0	2468347904	34	5703
2026-01-26 19:04:18.98	300.98	25.94	-30.4	-31.0	28.0	0.00e+00	0	27	0	2474639360	34	5761
2026-01-26 19:04:19.99	300.70	25.88	-30.3	-30.9	28.1	0.00e+00	0	27	0	2479882240	34	5645
2026-01-26 19:04:21.00	300.41	25.82	-29.9	-30.5	28.3	0.00e+00	0	27	0	2485125120	34	5401
2026-01-26 19:04:22.01	300.13	25.76	-30.0	-30.6	28.4	0.00e+00	0	27	0	2491416576	34	5472
2026-01-26 19:04:23.02	299.85	25.69	-30.0	-30.6	28.3	0.00e+00	0	28	0	2496659456	34	5487
2026-01-26 19:04:24.03	299.57	25.63	-30.3	-31.0	28.1	0.00e+00	0	28	0	2502950912	34	5715
2026-01-26 19:04:25.04	299.29	25.57	-30.2	-30.8	28.2	0.00e+00	0	27	0	2508193792	34	5579
2026-01-26 19:04:26.05	299.01	25.51	-30.3	-30.8	28.1	0.00e+00	0	27	0	2514485248	34	5608
2026-01-26 19:04:27.06	298.73	25.44	-30.4	-31.1	28.1	0.00e+00	0	27	0	2519728128	34	5814
2026-01-26 19:04:28.06	298.46	25.38	-30.3	-30.8	28.2	0.00e+00	0	27	0	2524971008	34	5630
2026-01-26 19:04:29.07	298.18	25.32	-30.4	-31.0	28.1	0.00e+00	0	27	0	2531262464	34	5696
2026-01-26 19:04:30.08	297.91	25.25	-30.1	-30.8	28.3	0.00e+00	0	28	0	2536505344	34	5569
2026-01-26 19:04:31.09	297.64	25.19	-30.1	-30.6	28.2	0.00e+00	0	27	0	2542796800	34	5487
2026-01-26 19:04:32.10	297.36	25.12	-30.2	-30.8	28.1	0.00e+00	0	27	0	2548039680	34	5595
2026-01-26 19:04:33.11	297.09	25.05	-30.1	-30.8	28.2	0.00e+00	0	27	0	2553282560	34	5611
2026-01-26 19:04:34.12	296.82	24.99	-30.3	-30.9	28.1	0.00e+00	0	27	0	2559574016	34	5657
2026-01-26 19:04:35.13	296.56	24.92	-30.3	-30.9	28.1	0.00e+00	0	27	0	2564816896	34	5689
2026-01-26 19:04:36.14	296.29	24.85	-30.3	-30.9	28.1	0.00e+00	0	27	0	2571108352	34	5633
2026-01-26 19:04:37.15	296.02	24.78	-30.3	-31.0	28.1	0.00e+00	0	28	0	2576351232	34	5732
2026-01-26 19:04:38.16	295.76	24.71	-30.7	-31.3	27.9	0.00e+00	0	27	0	2581594112	34	5960
2026-01-26 19:04:39.17	295.49	24.64	-30.6	-31.3	28.0	0.00e+00	0	27	0	2587885568	34	5908
2026-01-26 19:04:40.17	295.23	24.57	-30.8	-31.5	27.6	0.00e+00	0	27	0	2593128448	34	6038
2026-01-26 19:04:41.18	294.97	24.50	-30.8	-31.4	27.8	0.00e+00	0	27	0	2599419904	34	5965
2026-01-26 19:04:42.19	294.71	24.43	-30.6	-31.3	27.8	0.00e+00	0	27	0	2604662784	34	5937
2026-01-26 19:04:43.20	294.45	24.36	-30.5	-31.1	27.9	0.00e+00	0	27	0	2610954240	34	5792
2026-01-26 19:04:44.22	294.19	24.29	-30.4	-31.1	28.0	0.00e+00	0	27	0	2616197120	34	5817
2026-01-26 19:04:45.22	293.94	24.21	-30.4	-30.9	28.0	0.00e+00	0	27	0	2621440000	34	5690
2026-01-26 19:04:46.24	293.68	24.14	-30.4	-31.1	27.9	0.00e+00	0	27	0	2627731456	34	5810
2026-01-26 19:04:47.25	293.43	24.07	-30.4	-31.1	27.9	0.00e+00	0	27	0	2632974336	34	5803
2026-01-26 19:04:48.26	293.18	23.99	-30.4	-31.0	28.0	0.00e+00	0	27	0	2639265792	34	5760
2026-01-26 19:04:49.26	292.93	23.92	-30.3	-30.8	28.0	0.00e+00	0	27	0	2644508672	34	5612
2026-01-26 19:04:50.27	292.68	23.84	-30.2	-30.9	28.0	0.00e+00	0	27	0	2649751552	34	5671
2026-01-26 19:04:51.28	292.43	23.77	-30.2	-30.8	28.1	0.00e+00	0	27	0	2656043008	34	5584
2026-01-26 19:04:52.29	292.18	23.69	-30.3	-31.0	28.1	0.00e+00	0	27	0	2661285888	34	5720
2026-01-26 19:04:53.30	291.93	23.62	-30.2	-30.7	28.2	0.00e+00	0	27	0	2667577344	34	5564
2026-01-26 19:04:54.31	291.69	23.54	-30.2	-30.8	28.2	0.00e+00	0	27	0	2672820224	34	5622
2026-01-26 19:04:55.32	291.44	23.47	-30.1	-30.8	28.2	0.00e+00	0	27	0	2678063104	34	5608
2026-01-26 19:04:56.33	291.20	23.39	-30.2	-30.8	28.2	0.00e+00	0	27	0	2684354560	34	5598
2026-01-26 19:04:57.34	290.96	23.31	-30.3	-31.0	28.0	0.00e+00	0	27	0	2689597440	34	5738
2026-01-26 19:04:58.34	290.72	23.24	-30.5	-31.1	28.1	0.00e+00	0	27	0	2695888896	34	5764
2026-01-26 19:04:59.35	290.48	23.16	-30.5	-31.2	27.9	0.00e+00	0	27	0	2701131776	34	5871
2026-01-26 19:05:00.36	290.24	23.08	-30.6	-31.1	27.7	0.00e+00	0	27	0	2707423232	34	5821
2026-01-26 19:05:01.38	290.00	23.00	-30.6	-31.2	27.6	0.00e+00	0	27	0	2712666112	34	5860
2026-01-26 19:05:02.39	289.76	22.92	-30.6	-31.3	27.7	0.00e+00	0	27	0	2718957568	34	5899
2026-01-26 19:05:03.40	289.53	22.84	-30.7	-31.4	27.6	0.00e+00	0	27	0	2724200448	34	6000
2026-01-26 19:05:04.41	289.29	22.77	-31.0	-31.7	27.3	0.00e+00	0	27	0	2729443328	34	6216
2026-01-26 19:05:05.41	289.06	22.69	-30.7	-31.3	27.6	0.00e+00	0	27	0	2735734784	34	5929
2026-01-26 19:05:06.42	288.83	22.61	-30.9	-31.5	27.6	0.00e+00	0	27	0	2740977664	34	6048
2026-01-26 19:05:07.43	288.60	22.53	-30.5	-31.1	27.8	0.00e+00	0	27	0	2747269120	34	5816
2026-01-26 19:05:08.44	288.37	22.45	-30.5	-31.2	27.7	0.00e+00	0	27	0	2752512000	34	5873
2026-01-26 19:05:09.45	288.15	22.37	-30.7	-31.4	27.7	0.00e+00	0	27	0	2757754880	34	5999
2026-01-26 19:05:10.46	287.92	22.29	-30.8	-31.3	27.5	0.00e+00	0	27	0	2764046336	34	5943
2026-01-26 19:05:11.47	287.69	22.21	-30.9	-31.5	27.5	0.00e+00	0	27	0	2769289216	34	6040
2026-01-26 19:05:12.48	287.47	22.12	-30.9	-31.6	27.6	0.00e+00	0	27	0	2774532096	34	6124
2026-01-26 19:05:13.49	287.25	22.04	-31.2	-31.9	27.4	0.00e+00	0	27	0	2780823552	34	6343
2026-01-26 19:05:14.50	287.02	21.96	-31.1	-31.8	27.3	0.00e+00	0	27	0	2786066432	34	6247
2026-01-26 19:05:15.51	286.80	21.88	-31.3	-32.0	27.3	0.00e+00	0	27	0	2792357888	34	6442
2026-01-26 19:05:16.52	286.58	21.80	-31.2	-31.8	27.4	0.00e+00	0	27	0	2797600768	34	6250
2026-01-26 19:05:17.52	286.37	21.72	-31.3	-31.8	27.2	0.00e+00	0	27	0	2802843648	34	6293
2026-01-26 19:05:18.53	286.15	21.64	-31.1	-31.8	27.4	0.00e+00	0	27	0	2809135104	34	6268
2026-01-26 19:05:19.54	285.93	21.55	-31.0	-31.5	27.3	0.00e+00	0	27	0	2815426560	34	6076
2026-01-26 19:05:20.55	285.72	21.47	-31.3	-31.8	27.2	0.00e+00	0	27	0	2820669440	34	6282
2026-01-26 19:05:21.56	285.51	21.39	-31.5	-32.2	27.0	0.00e+00	0	27	0	2825912320	34	6575
2026-01-26 19:05:22.57	285.29	21.30	-31.5	-32.1	27.0	0.00e+00	0	27	0	2832203776	34	6475
2026-01-26 19:05:23.58	285.08	21.22	-31.5	-32.2	26.9	0.00e+00	0	27	0	2837446656	34	6566
2026-01-26 19:05:24.59	284.87	21.14	-31.4	-32.0	26.8	0.00e+00	0	27	0	2843738112	34	6420
2026-01-26 19:05:25.60	284.66	21.06	-31.3	-31.8	26.9	0.00e+00	0	27	0	2848980992	34	6310
2026-01-26 19:05:26.60	284.46	20.97	-31.3	-32.0	27.2	0.00e+00	0	28	0	2854223872	34	6396
2026-01-26 19:05:27.61	284.25	20.89	-31.3	-32.0	26.9	0.00e+00	0	27	0	2860515328	34	6401
2026-01-26 19:05:28.62	284.04	20.81	-31.4	-31.9	26.9	0.00e+00	0	27	0	2865758208	34	6368
2026-01-26 19:05:29.63	283.84	20.72	-31.7	-32.2	26.9	0.00e+00	0	27	0	2872049664	34	6602
2026-01-26 19:05:30.64	283.64	20.64	-31.9	-32.5	26.8	0.00e+00	0	28	0	2877292544	36	6100
2026-01-26 19:05:31.65	283.43	20.55	-31.6	-32.2	26.9	0.00e+00	0	28	0	2882535424	36	5866
2026-01-26 19:05:32.66	283.23	20.47	-31.8	-32.3	26.8	0.00e+00	0	28	0	2888826880	36	5951
2026-01-26 19:05:33.67	283.03	20.39	-31.6	-32.1	27.0	0.00e+00	0	27	0	2894069760	36	5810
2026-01-26 19:05:34.68	282.83	20.30	-31.5	-32.1	27.0	0.00e+00	0	27	0	2899312640	36	5778
2026-01-26 19:05:35.68	282.64	20.22	-31.5	-32.0	27.1	0.00e+00	0	28	0	2905604096	36	5757
2026-01-26 19:05:36.69	282.44	20.13	-31.4	-32.1	27.0	0.00e+00	0	28	0	2911895552	36	5773
2026-01-26 19:05:37.70	282.24	20.05	-31.4	-32.0	27.1	0.00e+00	0	28	0	2917138432	36	5726
2026-01-26 19:05:38.71	282.05	19.97	-31.3	-32.1	27.2	0.00e+00	0	28	0	2922381312	36	5765
2026-01-26 19:05:39.72	281.86	19.88	-31.2	-31.8	27.3	0.00e+00	0	28	0	2928672768	36	5578
2026-01-26 19:05:40.73	281.66	19.80	-31.4	-31.9	27.1	0.00e+00	0	28	0	2933915648	36	5687
2026-01-26 19:05:41.74	281.47	19.71	-31.3	-32.0	27.2	0.00e+00	0	28	0	2940207104	36	5721
2026-01-26 19:05:42.75	281.28	19.63	-31.4	-32.1	27.1	0.00e+00	0	28	0	2945449984	36	5812
2026-01-26 19:05:43.76	281.09	19.54	-31.5	-32.0	27.1	0.00e+00	0	28	0	2950692864	36	5740
2026-01-26 19:05:44.77	280.90	19.46	-31.5	-32.1	26.9	0.00e+00	0	28	0	2956984320	36	5793
2026-01-26 19:05:45.78	280.72	19.37	-31.6	-32.3	27.0	0.00e+00	0	27	0	2962227200	36	5943
2026-01-26 19:05:46.79	280.53	19.29	-31.6	-32.2	26.9	0.00e+00	0	27	0	2968518656	36	5840
2026-01-26 19:05:47.80	280.34	19.20	-31.6	-32.4	26.9	0.00e+00	0	27	0	2973761536	36	5975
2026-01-26 19:05:48.81	280.16	19.12	-31.7	-32.4	26.9	0.00e+00	0	28	0	2979004416	36	6012
2026-01-26 19:05:49.82	279.98	19.03	-32.4	-33.2	26.2	0.00e+00	0	27	0	2985295872	36	6580
2026-01-26 19:05:50.82	279.80	18.95	-32.2	-32.9	26.7	0.00e+00	0	28	0	2990538752	36	6386
2026-01-26 19:05:51.83	279.62	18.86	-31.8	-32.5	26.7	0.00e+00	0	28	0	2996830208	36	6067
2026-01-26 19:05:52.84	279.44	18.78	-31.8	-32.3	27.1	0.00e+00	0	28	0	3002073088	36	5948
2026-01-26 19:05:53.85	279.26	18.69	-31.4	-32.0	27.1	0.00e+00	0	28	0	3008364544	36	5703
2026-01-26 19:05:54.86	279.08	18.61	-31.6	-32.2	26.9	0.00e+00	0	28	0	3013607424	36	5871
2026-01-26 19:05:55.87	278.90	18.52	-31.2	-31.8	27.2	0.00e+00	0	28	0	3018850304	36	5594
2026-01-26 19:05:56.88	278.73	18.44	-31.3	-32.0	27.1	0.00e+00	0	28	0	3025141760	36	5758
2026-01-26 19:05:57.89	278.55	18.35	-31.7	-32.4	27.0	0.00e+00	0	28	0	3030384640	36	5979
2026-01-26 19:05:58.90	278.38	18.27	-31.8	-32.4	26.9	0.00e+00	0	28	0	3036676096	36	6014
2026-01-26 19:05:59.91	278.20	18.18	-31.9	-32.4	27.0	0.00e+00	0	28	0	3041918976	36	6014
2026-01-26 19:06:00.92	278.03	18.10	-31.8	-32.5	26.9	0.00e+00	0	28	0	3047161856	36	6052
2026-01-26 19:06:01.93	277.86	18.01	-31.9	-32.4	26.7	0.00e+00	0	28	0	3053453312	36	6012
2026-01-26 19:06:02.94	277.69	17.93	-31.8	-32.5	26.8	0.00e+00	0	28	0	3058696192	36	6088
2026-01-26 19:06:03.95	277.52	17.84	-31.9	-32.5	26.8	0.00e+00	0	28	0	3064987648	36	6079
2026-01-26 19:06:04.96	277.35	17.76	-32.0	-32.5	26.7	0.00e+00	0	28	0	3070230528	36	6086
2026-01-26 19:06:05.96	277.19	17.68	-31.9	-32.5	26.6	0.00e+00	0	28	0	3075473408	36	6034
2026-01-26 19:06:06.97	277.02	17.59	-32.0	-32.7	26.8	0.00e+00	0	28	0	3081764864	36	6222
2026-01-26 19:06:07.98	276.86	17.51	-32.1	-32.7	26.6	0.00e+00	0	28	0	3087007744	36	6184
2026-01-26 19:06:08.99	276.69	17.42	-32.0	-32.6	26.6	0.00e+00	0	28	0	3093299200	36	6148
2026-01-26 19:06:10.00	276.53	17.34	-32.0	-32.7	26.6	0.00e+00	0	28	0	3098542080	36	6197
2026-01-26 19:06:11.01	276.37	17.25	-32.1	-32.8	26.5	0.00e+00	0	28	0	3104833536	36	6267
2026-01-26 19:06:12.02	276.20	17.17	-32.3	-32.9	26.5	0.00e+00	0	28	0	3110076416	36	6341
2026-01-26 19:06:13.03	276.04	17.08	-32.3	-32.8	26.4	0.00e+00	0	28	0	3116367872	36	6310
2026-01-26 19:06:14.04	275.88	17.00	-32.3	-33.0	26.4	0.00e+00	0	28	0	3121610752	36	6459
2026-01-26 19:06:15.05	275.72	16.92	-32.6	-33.3	26.2	0.00e+00	0	28	0	3126853632	36	6630
2026-01-26 19:06:16.06	275.57	16.83	-32.5	-33.1	26.0	0.00e+00	0	28	0	3133145088	36	6511
2026-01-26 19:06:17.07	275.41	16.75	-32.6	-33.2	26.2	0.00e+00	0	28	0	3138387968	38	5835
2026-01-26 19:06:18.08	275.25	16.66	-32.4	-33.2	26.3	0.00e+00	0	28	0	3144679424	38	5832
2026-01-26 19:06:19.09	275.10	16.58	-32.3	-33.0	26.4	0.00e+00	0	28	0	3149922304	38	5711
2026-01-26 19:06:20.10	274.94	16.50	-32.3	-32.9	26.3	0.00e+00	0	28	0	3155165184	38	5675
2026-01-26 19:06:21.11	274.79	16.41	-32.2	-32.9	26.4	0.00e+00	0	28	0	3161456640	38	5654
2026-01-26 19:06:22.12	274.64	16.33	-32.4	-33.1	26.2	0.00e+00	0	28	0	3166699520	38	5780
2026-01-26 19:06:23.13	274.49	16.24	-32.2	-32.9	26.4	0.00e+00	0	28	0	3172990976	38	5660
2026-01-26 19:06:24.14	274.33	16.16	-32.5	-33.0	26.2	0.00e+00	0	28	0	3178233856	38	5756
2026-01-26 19:06:25.15	274.18	16.08	-32.5	-33.2	26.3	0.00e+00	0	28	0	3183476736	38	5842
2026-01-26 19:06:26.16	274.04	15.99	-32.4	-33.0	26.2	0.00e+00	0	28	0	3189768192	38	5739
2026-01-26 19:06:27.17	273.89	15.91	-32.3	-33.0	26.4	0.00e+00	0	28	0	3195011072	38	5729
2026-01-26 19:06:28.18	273.74	15.83	-32.4	-33.1	26.1	0.00e+00	0	28	0	3201302528	38	5823
2026-01-26 19:06:29.19	273.59	15.74	-33.0	-33.5	26.0	0.00e+00	0	28	0	3206545408	38	6095
2026-01-26 19:06:30.20	273.45	15.66	-32.9	-33.5	25.9	0.00e+00	0	28	0	3212836864	38	6052
2026-01-26 19:06:31.21	273.30	15.58	-32.9	-33.5	25.8	0.00e+00	0	28	0	3218079744	38	6059
2026-01-26 19:06:32.22	273.16	15.49	-32.6	-33.3	26.1	0.00e+00	0	28	0	3223322624	38	5955
2026-01-26 19:06:33.23	273.01	15.41	-32.8	-33.6	25.8	0.00e+00	0	28	0	3229614080	38	6116
2026-01-26 19:06:34.24	272.87	15.33	-32.8	-33.5	26.0	0.00e+00	0	28	0	3234856960	38	6057
2026-01-26 19:06:35.25	272.73	15.25	-32.8	-33.4	25.9	0.00e+00	0	28	0	3241148416	38	6023
2026-01-26 19:06:36.26	272.59	15.16	-32.9	-33.5	25.9	0.00e+00	0	28	0	3246391296	38	6060
2026-01-26 19:06:37.26	272.45	15.08	-32.7	-33.3	25.9	0.00e+00	0	28	0	3251634176	38	5936
2026-01-26 19:06:38.28	272.31	15.00	-33.0	-33.6	25.9	0.00e+00	0	28	0	3257925632	38	6118
2026-01-26 19:06:39.29	272.17	14.92	-32.7	-33.3	26.0	0.00e+00	0	28	0	3263168512	38	5927
2026-01-26 19:06:40.29	272.03	14.84	-32.7	-33.3	26.0	0.00e+00	0	28	0	3269459968	38	5936
2026-01-26 19:06:41.30	271.90	14.75	-32.8	-33.6	25.9	0.00e+00	0	28	0	3274702848	38	6106
2026-01-26 19:06:42.31	271.76	14.67	-33.1	-33.7	25.7	0.00e+00	0	28	0	3279945728	38	6180
2026-01-26 19:06:43.32	271.62	14.59	-32.8	-33.4	25.9	0.00e+00	0	28	0	3286237184	38	6010
2026-01-26 19:06:44.33	271.49	14.51	-32.7	-33.3	25.9	0.00e+00	0	28	0	3291480064	38	5923
2026-01-26 19:06:45.34	271.35	14.43	-32.8	-33.6	25.9	0.00e+00	0	28	0	3297771520	38	6104
2026-01-26 19:06:46.35	271.22	14.35	-32.9	-33.5	25.8	0.00e+00	0	28	0	3303014400	38	6057
2026-01-26 19:06:47.36	271.09	14.26	-33.1	-33.7	25.7	0.00e+00	0	28	0	3309305856	38	6198
2026-01-26 19:06:48.37	270.96	14.18	-33.1	-33.7	25.6	0.00e+00	0	28	0	3314548736	38	6216
2026-01-26 19:06:49.38	270.82	14.10	-33.0	-33.6	25.6	0.00e+00	0	28	0	3320840192	38	6138
2026-01-26 19:06:50.39	270.69	14.02	-33.0	-33.6	25.6	0.00e+00	0	28	0	3326083072	38	6160
2026-01-26 19:06:51.40	270.56	13.94	-33.2	-33.8	25.4	0.00e+00	0	28	0	3331325952	38	6297
2026-01-26 19:06:52.41	270.44	13.86	-33.2	-33.8	25.5	0.00e+00	0	28	0	3337617408	38	6304
2026-01-26 19:06:53.42	270.31	13.78	-33.2	-34.0	25.4	0.00e+00	0	28	0	3342860288	38	6419
2026-01-26 19:06:54.43	270.18	13.70	-33.1	-33.8	25.6	0.00e+00	0	28	0	3349151744	38	6305
2026-01-26 19:06:55.44	270.05	13.62	-33.1	-33.7	25.6	0.00e+00	0	28	0	3354394624	38	6229
2026-01-26 19:06:56.45	269.93	13.54	-33.1	-33.8	25.6	0.00e+00	0	28	0	3359637504	38	6292
2026-01-26 19:06:57.46	269.80	13.46	-33.1	-33.7	25.6	0.00e+00	0	28	0	3365928960	38	6215
2026-01-26 19:06:58.46	269.68	13.38	-33.2	-33.9	25.4	0.00e+00	0	28	0	3371171840	38	6388
2026-01-26 19:06:59.48	269.55	13.30	-33.0	-33.8	25.6	0.00e+00	0	28	0	3376414720	38	6261
2026-01-26 19:07:00.48	269.43	13.22	-33.1	-33.8	25.5	0.00e+00	0	28	0	3382706176	38	6312
2026-01-26 19:07:01.49	269.31	13.14	-33.1	-33.8	25.7	0.00e+00	0	28	0	3387949056	38	6292
2026-01-26 19:07:02.50	269.18	13.06	-33.3	-33.9	25.4	0.00e+00	0	28	0	3394240512	38	6355
2026-01-26 19:07:03.51	269.06	12.98	-33.2	-33.8	25.5	0.00e+00	0	28	0	3399483392	38	6301
2026-01-26 19:07:04.52	268.94	12.90	-33.3	-34.0	25.5	0.00e+00	0	28	0	3405774848	38	6435
2026-01-26 19:07:05.53	268.82	12.82	-33.4	-34.0	25.3	0.00e+00	0	28	0	3411017728	38	6409
2026-01-26 19:07:06.54	268.70	12.74	-33.8	-34.4	25.1	0.00e+00	0	28	0	3417309184	40	5995
2026-01-26 19:07:07.55	268.58	12.67	-34.7	-35.3	25.1	0.00e+00	0	28	0	3422552064	40	6679
2026-01-26 19:07:08.56	268.47	12.59	-33.6	-34.2	25.1	0.00e+00	0	28	0	3427794944	40	5869
2026-01-26 19:07:09.57	268.35	12.51	-34.3	-34.9	25.0	0.00e+00	0	28	0	3434086400	40	6357
2026-01-26 19:07:10.58	268.23	12.43	-33.6	-34.4	25.2	0.00e+00	0	28	0	3439329280	40	5984
2026-01-26 19:07:11.59	268.12	12.35	-33.6	-34.3	25.3	0.00e+00	0	28	0	3445620736	40	5926
2026-01-26 19:07:12.60	268.00	12.27	-34.1	-34.8	24.9	0.00e+00	0	28	0	3450863616	40	6288
2026-01-26 19:07:13.61	267.88	12.20	-34.5	-35.2	24.4	0.00e+00	0	28	0	3456106496	40	6591
2026-01-26 19:07:14.62	267.77	12.12	-34.3	-34.9	24.6	0.00e+00	0	28	0	3462397952	40	6336
2026-01-26 19:07:15.62	267.66	12.04	-34.3	-35.0	24.5	0.00e+00	0	28	0	3467640832	40	6438
2026-01-26 19:07:16.63	267.54	11.96	-34.9	-35.8	23.5	0.00e+00	0	28	0	3473932288	42	6259
2026-01-26 19:07:17.64	267.43	11.89	-34.6	-35.3	24.4	0.00e+00	0	28	0	3479175168	42	5902
2026-01-26 19:07:18.65	267.32	11.81	-34.4	-35.0	24.5	0.00e+00	0	28	0	3484418048	42	5747
2026-01-26 19:07:19.66	267.21	11.73	-34.6	-35.4	24.4	0.00e+00	0	28	0	3490709504	42	5974
2026-01-26 19:07:20.67	267.10	11.65	-34.2	-35.0	24.5	0.00e+00	0	28	0	3495952384	42	5704
2026-01-26 19:07:21.68	266.99	11.58	-34.1	-34.8	24.7	0.00e+00	0	28	0	3502243840	42	5594
2026-01-26 19:07:22.69	266.88	11.50	-34.1	-34.9	24.7	0.00e+00	0	28	0	3507486720	42	5666
2026-01-26 19:07:23.70	266.77	11.42	-33.9	-34.6	24.9	0.00e+00	0	28	0	3513778176	42	5474
2026-01-26 19:07:24.71	266.66	11.35	-33.8	-34.5	24.9	0.00e+00	0	28	0	3519021056	42	5385
2026-01-26 19:07:25.72	266.55	11.27	-34.0	-34.7	24.9	0.00e+00	0	28	0	3524263936	42	5561
2026-01-26 19:07:26.73	266.45	11.20	-34.0	-34.6	24.7	0.00e+00	0	28	0	3530555392	42	5462
2026-01-26 19:07:27.74	266.34	11.12	-34.1	-34.9	24.4	0.00e+00	0	28	0	3535798272	42	5639
2026-01-26 19:07:28.75	266.23	11.04	-33.9	-34.5	24.8	0.00e+00	0	28	0	3542089728	42	5428
2026-01-26 19:07:29.76	266.13	10.97	-34.0	-34.7	24.8	0.00e+00	0	28	0	3547332608	42	5540
2026-01-26 19:07:30.77	266.02	10.89	-34.1	-34.7	24.6	0.00e+00	0	28	0	3552575488	42	5534
2026-01-26 19:07:31.78	265.92	10.82	-34.1	-34.7	24.8	0.00e+00	0	28	0	3558866944	42	5562
2026-01-26 19:07:32.79	265.81	10.74	-34.0	-34.6	24.7	0.00e+00	0	28	0	3564109824	42	5496
2026-01-26 19:07:33.80	265.71	10.67	-34.1	-34.7	24.6	0.00e+00	0	28	0	3570401280	42	5546
2026-01-26 19:07:34.81	265.61	10.59	-34.2	-34.9	24.5	0.00e+00	0	28	0	3575644160	42	5671
2026-01-26 19:07:35.82	265.51	10.52	-34.1	-34.7	24.6	0.00e+00	0	28	0	3580887040	42	5545
2026-01-26 19:07:36.83	265.40	10.44	-33.9	-34.5	24.7	0.00e+00	0	28	0	3587178496	42	5408
2026-01-26 19:07:37.84	265.30	10.37	-34.1	-34.7	24.7	0.00e+00	0	28	0	3592421376	42	5544
2026-01-26 19:07:38.85	265.20	10.29	-34.0	-34.7	24.6	0.00e+00	0	28	0	3598712832	42	5520
2026-01-26 19:07:39.85	265.10	10.22	-34.1	-34.7	24.6	0.00e+00	0	28	0	3603955712	42	5564
2026-01-26 19:07:40.86	265.00	10.14	-34.3	-35.0	24.5	0.00e+00	0	28	0	3610247168	42	5704
