passes_logs/2026/01/26/R4.6S_Anadyr/R4.6S_Anadyr__20260126_161850_SUOMI_NPP_rec.log

#Pass ID: 20260126_161850_SUOMI NPP
#Satellite: SUOMI NPP
#Configuration: NPP
#almurnet v.1.7.20251203
#Start time: 2026-01-26 16:18:52

#Version: 2.2.20231116
#Station: R4.6S_Anadyr
#Location: 177.4865 lon 64.73178 lat
#TLE: 1 37849U 11061A   26025.95877665  .00000192  00000+0  11229-3 0  9997
#TLE: 2 37849  98.7822 327.9136 0002155  44.9234 315.2116 14.19530109738267

#Time	Az	El	Level	Level2	SNR	BER	BlckErr	Temp	State	Recorded	gain1	gain2
2026-01-26 16:18:52.02	25.19	0.11	-50.1	-67.8	3.5	3.02e+01	0	26	0	0	60	94696
2026-01-26 16:18:53.03	25.15	0.16	-49.8	-65.0	3.6	1.51e+00	0	27	104	0	60	64048
2026-01-26 16:18:54.04	25.12	0.22	-49.6	-64.8	3.6	1.51e+00	0	27	104	0	60	63143
2026-01-26 16:18:55.05	25.08	0.28	-49.7	-64.9	3.6	1.51e+00	0	27	104	0	60	63457
2026-01-26 16:18:56.06	25.05	0.34	-49.7	-64.8	3.6	1.51e+00	0	27	104	0	60	62886
2026-01-26 16:18:57.07	25.01	0.40	-49.6	-64.8	3.6	1.51e+00	0	27	104	0	60	63074
2026-01-26 16:18:58.08	24.98	0.46	-49.7	-64.8	3.6	1.51e+00	0	27	104	0	60	63121
2026-01-26 16:18:59.09	24.94	0.52	-49.6	-64.8	3.6	1.51e+00	0	27	104	0	60	63144
2026-01-26 16:19:00.10	24.90	0.58	-49.7	-64.9	3.6	1.51e+00	0	27	104	0	60	63567
2026-01-26 16:19:01.11	24.87	0.63	-49.7	-64.9	3.6	1.51e+00	0	27	104	0	60	63415
2026-01-26 16:19:02.12	24.83	0.69	-49.7	-64.9	3.6	1.51e+00	0	27	104	0	60	63208
2026-01-26 16:19:03.13	24.79	0.75	-49.6	-64.8	3.6	1.51e+00	0	27	104	0	60	62848
2026-01-26 16:19:04.14	24.76	0.81	-49.6	-64.8	3.6	1.51e+00	0	27	104	0	60	62663
2026-01-26 16:19:05.15	24.72	0.87	-49.6	-64.8	3.6	1.51e+00	0	27	104	0	60	62514
2026-01-26 16:19:06.16	24.68	0.93	-49.5	-64.8	3.6	1.51e+00	0	27	104	0	60	62587
2026-01-26 16:19:07.16	24.64	0.99	-49.5	-64.7	3.6	1.51e+00	0	27	104	0	60	61973
2026-01-26 16:19:08.17	24.61	1.05	-49.4	-64.6	3.6	1.51e+00	0	27	104	0	60	61544
2026-01-26 16:19:09.18	24.57	1.11	-49.3	-64.4	3.6	1.51e+00	0	27	104	0	60	60303
2026-01-26 16:19:10.19	24.53	1.17	-49.2	-64.4	3.6	1.51e+00	0	27	104	0	60	60035
2026-01-26 16:19:11.20	24.49	1.23	-49.1	-64.3	3.6	1.51e+00	0	28	104	0	60	59387
2026-01-26 16:19:12.21	24.45	1.29	-49.0	-64.2	3.6	1.51e+00	0	27	104	0	60	58838
2026-01-26 16:19:13.22	24.41	1.35	-48.9	-64.1	3.6	1.51e+00	0	28	104	0	60	57952
2026-01-26 16:19:14.23	24.38	1.41	-48.8	-63.9	3.6	1.51e+00	0	27	104	0	60	56419
2026-01-26 16:19:15.24	24.34	1.47	-48.5	-63.7	3.6	1.51e+00	0	28	104	0	60	55027
2026-01-26 16:19:16.25	24.30	1.53	-48.3	-63.5	3.6	1.51e+00	0	27	104	0	60	54128
2026-01-26 16:19:17.26	24.26	1.59	-48.3	-63.5	3.6	1.51e+00	0	27	104	0	60	53812
2026-01-26 16:19:18.27	24.22	1.65	-48.3	-63.5	3.6	1.51e+00	0	27	104	0	60	53941
2026-01-26 16:19:19.28	24.18	1.71	-48.3	-63.4	3.6	1.51e+00	0	28	104	0	60	53636
2026-01-26 16:19:20.29	24.14	1.78	-48.3	-63.5	3.6	1.51e+00	0	28	104	0	60	53948
2026-01-26 16:19:21.30	24.10	1.84	-48.3	-63.5	3.6	1.51e+00	0	28	104	0	60	53927
2026-01-26 16:19:22.31	24.06	1.90	-48.3	-63.4	3.6	1.51e+00	0	28	104	0	60	53259
2026-01-26 16:19:23.32	24.02	1.96	-48.3	-63.4	3.6	1.51e+00	0	28	104	0	60	53202
2026-01-26 16:19:24.33	23.98	2.02	-48.3	-63.3	3.6	1.51e+00	0	28	104	0	60	53062
2026-01-26 16:19:25.34	23.94	2.08	-48.3	-63.3	3.6	1.51e+00	0	28	104	0	60	52967
2026-01-26 16:19:26.34	23.90	2.14	-48.3	-63.3	3.6	1.51e+00	0	28	104	0	60	53111
2026-01-26 16:19:27.35	23.85	2.21	-48.3	-63.4	3.6	1.51e+00	0	27	104	0	60	53181
2026-01-26 16:19:28.36	23.81	2.27	-48.3	-63.4	3.6	1.51e+00	0	28	104	0	60	53591
2026-01-26 16:19:29.37	23.77	2.33	-48.3	-63.4	3.6	1.51e+00	0	28	104	0	60	53743
2026-01-26 16:19:30.38	23.73	2.39	-48.3	-63.4	3.6	1.51e+00	0	28	104	0	60	53330
2026-01-26 16:19:31.39	23.69	2.45	-48.3	-63.4	3.6	1.51e+00	0	28	104	0	60	53239
2026-01-26 16:19:32.40	23.65	2.52	-48.3	-63.4	3.6	1.51e+00	0	28	104	0	60	53186
2026-01-26 16:19:33.41	23.60	2.58	-48.3	-63.4	3.6	1.51e+00	0	28	104	0	60	53387
2026-01-26 16:19:34.42	23.56	2.64	-48.3	-63.4	3.6	1.51e+00	0	28	104	0	60	53335
2026-01-26 16:19:35.43	23.52	2.71	-48.3	-63.1	3.6	1.51e+00	0	28	104	0	60	51891
2026-01-26 16:19:36.44	23.48	2.77	-48.3	-62.9	3.6	1.51e+00	0	28	104	0	60	50449
2026-01-26 16:19:37.45	23.43	2.83	-48.2	-62.5	3.6	1.51e+00	0	28	104	0	60	48143
2026-01-26 16:19:38.46	23.39	2.89	-48.2	-62.3	3.6	1.51e+00	0	28	104	0	60	47316
2026-01-26 16:19:39.47	23.35	2.96	-48.2	-62.4	3.6	1.51e+00	0	28	104	0	60	47862
2026-01-26 16:19:40.49	23.30	3.02	-48.3	-62.9	3.5	1.51e+00	0	28	104	0	60	50607
2026-01-26 16:19:41.50	23.26	3.09	-48.3	-63.4	3.6	1.51e+00	0	28	104	0	60	53754
2026-01-26 16:19:42.51	23.21	3.15	-48.2	-62.5	3.6	1.51e+00	0	28	104	0	60	48350
2026-01-26 16:19:43.52	23.17	3.21	-48.1	-59.9	3.8	1.50e+00	0	28	104	0	60	35888
2026-01-26 16:19:44.53	23.12	3.28	-47.7	-55.8	6.4	4.69e-01	0	28	0	0	60	22217
2026-01-26 16:19:45.54	23.08	3.34	-46.9	-52.2	9.6	1.05e-01	17	28	0	2097152	60	14768
2026-01-26 16:19:46.55	23.03	3.41	-46.3	-50.7	11.4	6.02e-03	0	28	0	3145728	60	12364
2026-01-26 16:19:47.56	22.99	3.47	-46.0	-49.9	12.3	4.20e-04	92	28	0	5242880	60	11254
2026-01-26 16:19:48.57	22.94	3.54	-45.1	-48.2	14.1	5.72e-05	0	28	0	6291456	60	9323
2026-01-26 16:19:49.58	22.90	3.60	-45.2	-48.3	13.7	6.10e-06	91	28	0	8388608	60	9432
2026-01-26 16:19:50.59	22.85	3.66	-46.9	-52.4	8.9	4.80e-05	0	28	0	10485760	60	15062
2026-01-26 16:19:51.60	22.81	3.73	-48.0	-57.0	4.5	5.46e-01	0	28	0	12582912	60	25676
2026-01-26 16:19:52.61	22.76	3.79	-45.5	-48.8	12.4	1.13e+00	0	28	0	13631488	60	9947
2026-01-26 16:19:53.62	22.71	3.86	-42.4	-44.0	18.5	7.79e-02	0	28	0	15728640	60	5744
2026-01-26 16:19:54.63	22.67	3.93	-47.5	-55.0	4.8	0.00e+00	18	28	0	17825792	60	20270
2026-01-26 16:19:55.64	22.62	3.99	-45.8	-49.7	6.0	1.51e+00	0	28	104	17825792	60	11097
2026-01-26 16:19:56.65	22.57	4.06	-42.4	-44.2	18.1	0.00e+00	90	28	0	17825792	58	6551
2026-01-26 16:19:57.66	22.53	4.12	-42.6	-44.4	17.8	0.00e+00	0	28	0	18874368	58	6753
2026-01-26 16:19:58.67	22.48	4.19	-42.5	-44.3	17.8	0.00e+00	0	28	0	20971520	58	6664
2026-01-26 16:19:59.68	22.43	4.25	-42.5	-44.2	18.1	0.00e+00	0	28	0	23068672	58	6581
2026-01-26 16:20:00.69	22.38	4.32	-42.2	-43.9	18.5	0.00e+00	0	28	0	25165824	58	6342
2026-01-26 16:20:01.70	22.33	4.39	-42.2	-43.9	18.4	0.00e+00	24	28	0	27262976	58	6378
2026-01-26 16:20:02.71	22.28	4.45	-41.7	-43.3	19.0	0.00e+00	0	28	0	28311552	58	5928
2026-01-26 16:20:03.72	22.24	4.52	-41.5	-43.0	19.4	0.00e+00	43	28	0	30408704	56	6433
2026-01-26 16:20:04.73	22.19	4.59	-41.8	-43.4	19.1	0.00e+00	0	28	0	32505856	56	6701
2026-01-26 16:20:05.74	22.14	4.65	-41.7	-43.2	19.2	0.00e+00	0	28	0	34603008	56	6586
2026-01-26 16:20:06.75	22.09	4.72	-41.7	-43.2	19.3	0.00e+00	0	28	0	36700160	56	6548
2026-01-26 16:20:07.76	22.04	4.79	-41.6	-43.2	19.3	0.00e+00	0	28	0	37748736	56	6540
2026-01-26 16:20:08.76	21.99	4.86	-41.6	-43.0	19.4	0.00e+00	25	28	0	39845888	56	6455
2026-01-26 16:20:09.77	21.94	4.92	-41.6	-43.1	19.3	0.00e+00	0	28	0	41943040	56	6538
2026-01-26 16:20:10.78	21.89	4.99	-41.6	-43.0	19.4	0.00e+00	92	28	0	44040192	56	6452
2026-01-26 16:20:11.79	21.84	5.06	-40.9	-42.2	20.0	0.00e+00	0	28	0	46137344	56	5886
2026-01-26 16:20:12.80	21.78	5.13	-42.1	-43.7	18.7	0.00e+00	18	28	0	48234496	56	6935
2026-01-26 16:20:13.81	21.73	5.19	-41.6	-43.1	19.3	0.00e+00	0	28	0	49283072	56	6524
2026-01-26 16:20:14.82	21.68	5.26	-41.7	-43.2	19.4	0.00e+00	0	28	0	51380224	56	6548
2026-01-26 16:20:15.83	21.63	5.33	-41.6	-43.1	19.2	0.00e+00	28	28	0	53477376	56	6525
2026-01-26 16:20:16.84	21.58	5.40	-41.7	-43.2	19.4	0.00e+00	0	28	0	55574528	56	6606
2026-01-26 16:20:17.85	21.53	5.47	-41.9	-43.5	19.1	0.00e+00	39	28	0	57671680	56	6809
2026-01-26 16:20:18.86	21.47	5.54	-41.5	-43.0	19.5	0.00e+00	0	28	0	58720256	56	6410
2026-01-26 16:20:19.87	21.42	5.61	-41.5	-42.9	19.7	0.00e+00	46	28	0	60817408	56	6343
2026-01-26 16:20:20.88	21.37	5.68	-41.5	-42.9	19.8	0.00e+00	0	28	0	62914560	56	6318
2026-01-26 16:20:21.89	21.31	5.74	-41.4	-42.8	19.7	0.00e+00	0	28	0	65011712	56	6305
2026-01-26 16:20:22.90	21.26	5.81	-41.4	-42.8	19.8	0.00e+00	0	28	0	67108864	56	6300
2026-01-26 16:20:23.90	21.21	5.88	-41.3	-42.6	19.9	0.00e+00	0	28	0	68157440	56	6163
2026-01-26 16:20:24.92	21.15	5.95	-41.2	-42.6	20.0	0.00e+00	87	28	0	70254592	56	6105
2026-01-26 16:20:25.93	21.10	6.02	-41.4	-42.8	19.8	0.00e+00	0	28	0	72351744	56	6272
2026-01-26 16:20:26.93	21.04	6.09	-41.2	-42.5	20.1	0.00e+00	90	28	0	74448896	56	6076
2026-01-26 16:20:27.94	20.99	6.16	-41.2	-42.5	20.2	0.00e+00	0	28	0	76546048	56	6094
2026-01-26 16:20:28.95	20.93	6.23	-40.8	-42.1	20.4	0.00e+00	0	28	0	77594624	56	5764
2026-01-26 16:20:29.96	20.88	6.30	-41.2	-42.5	20.1	0.00e+00	0	28	0	79691776	56	6089
2026-01-26 16:20:30.97	20.82	6.38	-41.1	-42.5	20.1	0.00e+00	0	28	0	81788928	56	6063
2026-01-26 16:20:31.98	20.76	6.45	-41.5	-42.9	19.7	0.00e+00	28	28	0	83886080	56	6322
2026-01-26 16:20:32.99	20.71	6.52	-41.2	-42.6	20.0	0.00e+00	0	28	0	85983232	56	6148
2026-01-26 16:20:34.00	20.65	6.59	-41.2	-42.5	20.1	0.00e+00	92	28	0	87031808	56	6074
2026-01-26 16:20:35.01	20.59	6.66	-41.3	-42.6	19.9	0.00e+00	0	28	0	89128960	56	6171
2026-01-26 16:20:36.02	20.53	6.73	-41.1	-42.5	20.1	0.00e+00	0	28	0	91226112	56	6040
2026-01-26 16:20:37.03	20.48	6.80	-41.2	-42.5	20.0	0.00e+00	0	28	0	93323264	56	6100
2026-01-26 16:20:38.04	20.42	6.88	-41.2	-42.6	20.1	0.00e+00	0	28	0	95420416	56	6123
2026-01-26 16:20:39.05	20.36	6.95	-41.0	-42.3	20.4	0.00e+00	0	28	0	96468992	56	5943
2026-01-26 16:20:40.06	20.30	7.02	-41.1	-42.4	20.2	0.00e+00	0	28	0	98566144	56	6021
2026-01-26 16:20:41.07	20.24	7.09	-41.3	-42.6	20.0	0.00e+00	46	28	0	100663296	56	6146
2026-01-26 16:20:42.08	20.18	7.17	-41.1	-42.5	20.2	0.00e+00	0	28	0	102760448	56	6054
2026-01-26 16:20:43.09	20.12	7.24	-41.1	-42.5	20.1	0.00e+00	26	28	0	104857600	56	6043
2026-01-26 16:20:44.10	20.06	7.31	-41.1	-42.4	20.2	0.00e+00	0	28	0	105906176	56	6001
2026-01-26 16:20:45.11	20.00	7.38	-41.6	-43.0	19.7	0.00e+00	0	28	0	108003328	56	6459
2026-01-26 16:20:46.11	19.94	7.46	-41.3	-42.6	20.1	0.00e+00	24	28	0	110100480	56	6168
2026-01-26 16:20:47.13	19.88	7.53	-40.9	-42.2	20.5	0.00e+00	0	28	0	112197632	56	5837
2026-01-26 16:20:48.13	19.82	7.60	-41.1	-42.4	20.4	0.00e+00	92	28	0	114294784	56	5990
2026-01-26 16:20:49.14	19.76	7.68	-40.8	-42.1	20.4	0.00e+00	8	28	0	116391936	56	5815
2026-01-26 16:20:50.15	19.70	7.75	-40.9	-42.1	20.7	0.00e+00	0	28	0	117440512	56	5820
2026-01-26 16:20:51.16	19.63	7.83	-41.2	-42.6	20.1	0.00e+00	0	28	0	119537664	56	6132
2026-01-26 16:20:52.17	19.57	7.90	-41.1	-42.4	20.3	0.00e+00	0	28	0	121634816	56	5981
2026-01-26 16:20:53.18	19.51	7.98	-40.9	-42.2	20.5	0.00e+00	0	28	0	123731968	54	6605
2026-01-26 16:20:54.19	19.45	8.05	-40.7	-42.0	20.6	0.00e+00	0	28	0	125829120	54	6404
2026-01-26 16:20:55.20	19.38	8.13	-40.7	-41.9	20.7	0.00e+00	67	28	0	126877696	54	6387
2026-01-26 16:20:56.21	19.32	8.20	-40.7	-42.0	20.6	0.00e+00	0	28	0	128974848	54	6417
2026-01-26 16:20:57.22	19.25	8.28	-40.8	-42.0	20.6	0.00e+00	84	28	0	131072000	54	6458
2026-01-26 16:20:58.23	19.19	8.35	-40.6	-41.9	20.6	0.00e+00	0	28	0	133169152	54	6323
2026-01-26 16:20:59.24	19.12	8.43	-40.7	-41.9	20.7	0.00e+00	0	28	0	135266304	54	6386
2026-01-26 16:21:00.25	19.06	8.50	-40.7	-42.0	20.7	0.00e+00	0	28	0	136314880	54	6395
2026-01-26 16:21:01.26	18.99	8.58	-40.9	-42.2	20.6	0.00e+00	0	28	0	138412032	54	6544
2026-01-26 16:21:02.27	18.93	8.66	-40.7	-41.9	20.7	0.00e+00	24	28	0	140509184	54	6383
2026-01-26 16:21:03.27	18.86	8.73	-40.2	-41.4	21.2	0.00e+00	0	28	0	142606336	54	5985
2026-01-26 16:21:04.29	18.79	8.81	-40.6	-41.8	20.8	0.00e+00	90	28	0	144703488	54	6276
2026-01-26 16:21:05.30	18.73	8.89	-40.4	-41.6	21.1	0.00e+00	0	28	0	145752064	54	6155
2026-01-26 16:21:06.30	18.66	8.96	-40.2	-41.4	21.2	0.00e+00	0	28	0	147849216	54	5988
2026-01-26 16:21:07.31	18.59	9.04	-40.4	-41.6	21.1	0.00e+00	0	28	0	149946368	54	6109
2026-01-26 16:21:08.32	18.52	9.12	-40.4	-41.5	21.2	0.00e+00	0	28	0	152043520	54	6102
2026-01-26 16:21:09.33	18.45	9.20	-40.5	-41.7	21.0	0.00e+00	22	28	0	154140672	54	6212
2026-01-26 16:21:10.34	18.38	9.27	-40.5	-41.7	20.9	0.00e+00	0	28	0	155189248	54	6237
2026-01-26 16:21:11.35	18.31	9.35	-40.2	-41.4	21.3	0.00e+00	92	28	0	157286400	54	6002
2026-01-26 16:21:12.36	18.24	9.43	-40.1	-41.3	21.3	0.00e+00	0	28	0	159383552	54	5908
2026-01-26 16:21:13.36	18.17	9.51	-39.9	-41.0	21.6	0.00e+00	0	28	0	161480704	54	5729
2026-01-26 16:21:14.37	18.10	9.59	-40.1	-41.2	21.3	0.00e+00	0	28	0	163577856	54	5851
2026-01-26 16:21:15.38	18.03	9.67	-40.0	-41.2	21.5	0.00e+00	0	28	0	164626432	54	5845
2026-01-26 16:21:16.39	17.96	9.74	-39.9	-41.0	21.5	0.00e+00	23	28	0	166723584	54	5750
2026-01-26 16:21:17.40	17.89	9.82	-39.8	-40.9	21.7	0.00e+00	0	28	0	168820736	54	5655
2026-01-26 16:21:18.41	17.82	9.90	-39.9	-41.0	21.5	0.00e+00	92	28	0	170917888	54	5729
2026-01-26 16:21:19.42	17.74	9.98	-39.7	-40.8	21.8	0.00e+00	0	28	0	173015040	54	5602
2026-01-26 16:21:20.43	17.67	10.06	-40.0	-41.1	21.5	0.00e+00	44	28	0	174063616	52	6503
2026-01-26 16:21:21.44	17.60	10.14	-39.9	-41.1	21.6	0.00e+00	0	28	0	176160768	52	6478
2026-01-26 16:21:22.45	17.52	10.22	-39.9	-41.0	21.7	0.00e+00	0	28	0	178257920	52	6404
2026-01-26 16:21:23.46	17.45	10.31	-40.1	-41.2	21.5	0.00e+00	21	28	0	180355072	52	6573
2026-01-26 16:21:24.47	17.37	10.39	-40.0	-41.1	21.7	0.00e+00	0	28	0	182452224	52	6486
2026-01-26 16:21:25.48	17.30	10.47	-40.0	-41.2	21.5	0.00e+00	12	28	0	183500800	52	6553
2026-01-26 16:21:26.49	17.22	10.55	-39.9	-41.0	21.7	0.00e+00	0	28	0	185597952	52	6407
2026-01-26 16:21:27.50	17.15	10.63	-40.0	-41.2	21.6	0.00e+00	65	28	0	187695104	52	6555
2026-01-26 16:21:28.51	17.07	10.71	-40.1	-41.2	21.7	0.00e+00	0	28	0	189792256	52	6592
2026-01-26 16:21:29.51	16.99	10.79	-40.3	-41.4	21.4	0.00e+00	0	28	0	191889408	52	6747
2026-01-26 16:21:30.52	16.91	10.87	-40.2	-41.3	21.4	0.00e+00	0	28	0	192937984	52	6661
2026-01-26 16:21:31.53	16.84	10.96	-40.1	-41.2	21.5	0.00e+00	0	28	0	195035136	52	6611
2026-01-26 16:21:32.54	16.76	11.04	-40.2	-41.3	21.4	0.00e+00	91	28	0	197132288	52	6663
2026-01-26 16:21:33.55	16.68	11.12	-40.1	-41.2	21.4	0.00e+00	0	28	0	199229440	52	6607
2026-01-26 16:21:34.56	16.60	11.21	-40.1	-41.3	21.5	0.00e+00	71	28	0	201326592	52	6616
2026-01-26 16:21:35.57	16.52	11.29	-39.8	-40.9	21.8	0.00e+00	0	28	0	202375168	52	6341
2026-01-26 16:21:36.58	16.44	11.37	-40.2	-41.4	21.4	0.00e+00	0	28	0	204472320	52	6707
2026-01-26 16:21:37.59	16.36	11.46	-40.2	-41.4	21.4	0.00e+00	26	28	0	206569472	52	6729
2026-01-26 16:21:38.60	16.28	11.54	-40.2	-41.3	21.4	0.00e+00	0	28	0	208666624	52	6678
2026-01-26 16:21:39.61	16.19	11.62	-40.3	-41.5	21.4	0.00e+00	50	28	0	210763776	52	6779
2026-01-26 16:21:40.62	16.11	11.71	-40.1	-41.3	21.5	0.00e+00	0	28	0	212860928	52	6627
2026-01-26 16:21:41.63	16.03	11.79	-40.0	-41.2	21.6	0.00e+00	92	28	0	213909504	52	6558
2026-01-26 16:21:42.64	15.95	11.88	-40.0	-41.2	21.6	0.00e+00	0	28	0	216006656	52	6552
2026-01-26 16:21:43.64	15.86	11.96	-39.9	-41.0	21.8	0.00e+00	0	28	0	218103808	52	6443
2026-01-26 16:21:44.65	15.78	12.05	-40.3	-41.5	21.5	0.00e+00	0	28	0	220200960	52	6808
2026-01-26 16:21:45.66	15.69	12.13	-40.3	-41.5	21.3	0.00e+00	0	28	0	222298112	52	6780
2026-01-26 16:21:46.67	15.61	12.22	-40.0	-41.1	21.7	0.00e+00	52	28	0	223346688	52	6473
2026-01-26 16:21:47.68	15.52	12.31	-39.9	-41.0	21.7	0.00e+00	0	28	0	225443840	52	6429
2026-01-26 16:21:48.68	15.44	12.39	-39.7	-40.8	22.0	0.00e+00	77	28	0	227540992	52	6251
2026-01-26 16:21:49.70	15.35	12.48	-40.0	-41.1	21.7	0.00e+00	0	28	0	229638144	52	6476
2026-01-26 16:21:50.71	15.26	12.56	-39.6	-40.6	22.1	0.00e+00	0	28	0	231735296	52	6168
2026-01-26 16:21:51.72	15.17	12.65	-39.3	-40.3	22.4	0.00e+00	0	28	0	232783872	52	5935
2026-01-26 16:21:52.73	15.08	12.74	-39.7	-40.8	22.0	0.00e+00	0	28	0	234881024	52	6249
2026-01-26 16:21:53.73	15.00	12.83	-39.7	-40.7	22.1	0.00e+00	26	28	0	236978176	52	6226
2026-01-26 16:21:54.74	14.91	12.91	-39.4	-40.4	22.2	0.00e+00	0	28	0	239075328	52	6014
2026-01-26 16:21:55.75	14.82	13.00	-39.3	-40.4	22.3	0.00e+00	92	28	0	241172480	52	5969
2026-01-26 16:21:56.76	14.72	13.09	-39.3	-40.3	22.4	0.00e+00	0	28	0	242221056	52	5949
2026-01-26 16:21:57.77	14.63	13.18	-39.4	-40.5	22.2	0.00e+00	0	28	0	244318208	52	6051
2026-01-26 16:21:58.78	14.54	13.27	-39.7	-40.8	22.0	0.00e+00	0	28	0	246415360	52	6276
2026-01-26 16:21:59.79	14.45	13.36	-39.5	-40.5	22.1	0.00e+00	0	28	0	248512512	52	6081
2026-01-26 16:22:00.80	14.35	13.44	-39.7	-40.8	22.0	0.00e+00	0	28	0	250609664	52	6261
2026-01-26 16:22:01.81	14.26	13.53	-39.3	-40.4	22.4	0.00e+00	0	28	0	251658240	52	5973
2026-01-26 16:22:02.82	14.17	13.62	-39.4	-40.5	22.2	0.00e+00	59	28	0	253755392	52	6042
2026-01-26 16:22:03.83	14.07	13.71	-39.3	-40.3	22.5	0.00e+00	31	28	0	255852544	52	5931
2026-01-26 16:22:04.84	13.98	13.80	-39.3	-40.3	22.5	0.00e+00	90	28	0	257949696	52	5950
2026-01-26 16:22:05.85	13.88	13.89	-39.6	-40.6	22.2	0.00e+00	0	28	0	260046848	52	6168
2026-01-26 16:22:06.85	13.78	13.98	-39.1	-40.1	22.7	0.00e+00	0	28	0	261095424	52	5776
2026-01-26 16:22:07.86	13.69	14.08	-38.7	-39.6	22.9	0.00e+00	0	28	0	263192576	50	6165
2026-01-26 16:22:08.87	13.59	14.17	-39.0	-40.0	22.8	0.00e+00	0	28	0	265289728	50	6405
2026-01-26 16:22:09.88	13.49	14.26	-38.8	-39.8	22.8	0.00e+00	92	28	0	267386880	50	6266
2026-01-26 16:22:10.88	13.39	14.35	-38.8	-39.8	22.8	0.00e+00	0	28	0	269484032	50	6276
2026-01-26 16:22:11.89	13.29	14.44	-38.8	-39.7	22.9	0.00e+00	92	28	0	270532608	50	6222
2026-01-26 16:22:12.90	13.19	14.53	-38.5	-39.5	23.1	0.00e+00	0	28	0	272629760	50	6035
2026-01-26 16:22:13.91	13.09	14.63	-39.0	-40.0	22.7	0.00e+00	0	28	0	274726912	50	6404
2026-01-26 16:22:14.92	12.99	14.72	-39.0	-40.0	22.6	0.00e+00	1	28	0	276824064	50	6404
2026-01-26 16:22:15.93	12.89	14.81	-39.0	-40.0	22.7	0.00e+00	0	28	0	278921216	50	6396
2026-01-26 16:22:16.94	12.78	14.90	-39.1	-40.1	22.6	0.00e+00	29	28	0	281018368	50	6508
2026-01-26 16:22:17.95	12.68	15.00	-39.1	-40.1	22.6	0.00e+00	0	28	0	282066944	50	6522
2026-01-26 16:22:18.96	12.57	15.09	-39.1	-40.1	22.5	0.00e+00	55	28	0	284164096	50	6493
2026-01-26 16:22:19.97	12.47	15.19	-39.3	-40.3	22.5	0.00e+00	0	28	0	286261248	50	6655
2026-01-26 16:22:20.98	12.36	15.28	-39.2	-40.2	22.5	0.00e+00	0	28	0	288358400	50	6554
2026-01-26 16:22:21.99	12.26	15.37	-39.7	-40.7	22.1	0.00e+00	0	28	0	290455552	50	6999
2026-01-26 16:22:23.00	12.15	15.47	-39.5	-40.6	22.0	0.00e+00	0	28	0	291504128	50	6863
2026-01-26 16:22:24.01	12.04	15.56	-39.6	-40.6	22.0	0.00e+00	0	28	0	293601280	52	6133
2026-01-26 16:22:25.01	11.93	15.66	-39.7	-40.7	22.0	0.00e+00	0	28	0	295698432	52	6218
2026-01-26 16:22:26.02	11.82	15.76	-39.5	-40.5	22.3	0.00e+00	90	28	0	297795584	52	6101
2026-01-26 16:22:27.03	11.71	15.85	-39.6	-40.7	22.0	0.00e+00	0	28	0	298844160	52	6211
2026-01-26 16:22:28.04	11.60	15.95	-39.7	-40.7	22.0	0.00e+00	0	28	0	300941312	52	6227
2026-01-26 16:22:29.05	11.49	16.04	-39.7	-40.7	22.2	0.00e+00	0	28	0	303038464	52	6238
2026-01-26 16:22:30.06	11.38	16.14	-39.8	-40.9	21.9	0.00e+00	0	28	0	305135616	52	6380
2026-01-26 16:22:31.06	11.27	16.24	-39.9	-41.0	21.9	0.00e+00	8	28	0	307232768	52	6400
2026-01-26 16:22:32.07	11.15	16.33	-39.7	-40.8	22.0	0.00e+00	0	28	0	309329920	52	6284
2026-01-26 16:22:33.08	11.04	16.43	-39.6	-40.6	22.2	0.00e+00	92	28	0	310378496	52	6150
2026-01-26 16:22:34.09	10.92	16.53	-39.4	-40.5	22.5	0.00e+00	0	28	0	312475648	52	6043
2026-01-26 16:22:35.10	10.81	16.63	-39.5	-40.6	22.3	0.00e+00	92	28	0	314572800	52	6112
2026-01-26 16:22:36.11	10.69	16.73	-39.3	-40.3	22.4	0.00e+00	0	28	0	316669952	52	5913
2026-01-26 16:22:37.12	10.57	16.82	-39.4	-40.4	22.4	0.00e+00	0	28	0	318767104	52	6007
2026-01-26 16:22:38.13	10.45	16.92	-39.4	-40.4	22.4	0.00e+00	28	28	0	319815680	52	5982
2026-01-26 16:22:39.14	10.33	17.02	-39.4	-40.4	22.5	0.00e+00	0	28	0	321912832	52	6033
2026-01-26 16:22:40.15	10.21	17.12	-39.1	-40.0	22.6	0.00e+00	92	28	0	324009984	52	5748
2026-01-26 16:22:41.16	10.09	17.22	-38.8	-39.7	23.0	0.00e+00	0	28	0	326107136	52	5530
2026-01-26 16:22:42.17	9.97	17.32	-38.9	-39.8	22.9	0.00e+00	92	28	0	328204288	52	5610
2026-01-26 16:22:43.18	9.85	17.42	-39.1	-40.1	22.7	0.00e+00	28	28	0	329252864	52	5788
2026-01-26 16:22:44.19	9.73	17.52	-38.9	-39.8	22.9	0.00e+00	0	28	0	331350016	52	5600
2026-01-26 16:22:45.20	9.60	17.62	-39.1	-40.1	22.7	0.00e+00	0	28	0	333447168	52	5784
2026-01-26 16:22:46.21	9.48	17.72	-39.0	-40.0	22.8	0.00e+00	0	28	0	335544320	52	5707
2026-01-26 16:22:47.22	9.35	17.83	-38.6	-39.5	23.2	0.00e+00	48	28	0	337641472	50	6053
2026-01-26 16:22:48.23	9.22	17.93	-38.5	-39.4	23.2	0.00e+00	0	28	0	338690048	50	6006
2026-01-26 16:22:49.24	9.10	18.03	-38.5	-39.4	23.3	0.00e+00	55	28	0	340787200	50	6000
2026-01-26 16:22:50.24	8.97	18.13	-38.6	-39.5	23.2	0.00e+00	0	28	0	342884352	50	6040
2026-01-26 16:22:51.25	8.84	18.23	-38.6	-39.5	23.0	0.00e+00	0	28	0	344981504	50	6074
2026-01-26 16:22:52.26	8.71	18.33	-38.8	-39.7	22.9	0.00e+00	0	28	0	347078656	50	6227
2026-01-26 16:22:53.27	8.58	18.44	-38.9	-39.9	22.8	0.00e+00	0	28	0	348127232	50	6341
2026-01-26 16:22:54.28	8.44	18.54	-38.9	-39.9	22.8	0.00e+00	59	28	0	350224384	50	6348
2026-01-26 16:22:55.29	8.31	18.64	-39.1	-40.1	22.7	0.00e+00	0	28	0	352321536	50	6473
2026-01-26 16:22:56.30	8.18	18.75	-39.4	-40.4	22.4	0.00e+00	90	28	0	354418688	50	6718
2026-01-26 16:22:57.31	8.04	18.85	-39.3	-40.3	22.6	0.00e+00	0	29	0	356515840	50	6633
2026-01-26 16:22:58.32	7.91	18.96	-39.4	-40.4	22.3	0.00e+00	0	28	0	357564416	50	6723
2026-01-26 16:22:59.33	7.77	19.06	-39.0	-40.0	22.8	0.00e+00	0	28	0	359661568	50	6412
2026-01-26 16:23:00.34	7.63	19.17	-39.0	-39.9	22.8	0.00e+00	0	28	0	361758720	50	6361
2026-01-26 16:23:01.35	7.49	19.27	-39.0	-39.9	22.9	0.00e+00	42	28	0	363855872	50	6384
2026-01-26 16:23:02.36	7.35	19.38	-38.6	-39.5	23.1	0.00e+00	0	28	0	365953024	50	6102
2026-01-26 16:23:03.37	7.21	19.48	-38.7	-39.6	22.9	0.00e+00	61	28	0	367001600	50	6113
2026-01-26 16:23:04.38	7.07	19.59	-39.1	-40.0	22.8	0.00e+00	0	28	0	369098752	50	6452
2026-01-26 16:23:05.39	6.93	19.69	-39.0	-39.9	22.9	0.00e+00	0	28	0	371195904	50	6390
2026-01-26 16:23:06.40	6.78	19.80	-39.5	-40.5	22.4	0.00e+00	0	28	0	373293056	50	6823
2026-01-26 16:23:07.41	6.64	19.91	-39.3	-40.3	22.4	0.00e+00	0	28	0	375390208	50	6688
2026-01-26 16:23:08.42	6.49	20.01	-39.4	-40.4	22.4	0.00e+00	24	29	0	377487360	50	6751
2026-01-26 16:23:09.43	6.34	20.12	-39.6	-40.6	22.3	0.00e+00	0	28	0	378535936	52	6142
2026-01-26 16:23:10.44	6.20	20.23	-39.8	-40.9	22.1	0.00e+00	45	28	0	380633088	52	6345
2026-01-26 16:23:11.45	6.05	20.34	-39.6	-40.7	22.4	0.00e+00	0	28	0	382730240	52	6183
2026-01-26 16:23:12.46	5.90	20.44	-39.5	-40.5	22.4	0.00e+00	74	28	0	384827392	52	6050
2026-01-26 16:23:13.47	5.74	20.55	-39.2	-40.2	22.4	0.00e+00	0	28	0	386924544	52	5876
2026-01-26 16:23:14.48	5.59	20.66	-39.8	-40.9	21.8	0.00e+00	0	28	0	387973120	52	6337
2026-01-26 16:23:15.49	5.44	20.77	-39.5	-40.5	22.4	0.00e+00	0	28	0	390070272	52	6096
2026-01-26 16:23:16.50	5.28	20.88	-39.4	-40.4	22.3	0.00e+00	0	28	0	392167424	52	6026
2026-01-26 16:23:17.51	5.13	20.99	-39.4	-40.5	22.3	0.00e+00	90	28	0	394264576	52	6040
2026-01-26 16:23:18.52	4.97	21.10	-39.8	-40.9	22.1	0.00e+00	0	28	0	396361728	52	6352
2026-01-26 16:23:19.53	4.81	21.21	-40.2	-41.3	21.5	0.00e+00	86	28	0	397410304	52	6660
2026-01-26 16:23:20.54	4.65	21.32	-40.0	-41.1	21.9	0.00e+00	0	28	0	399507456	52	6472
2026-01-26 16:23:21.55	4.49	21.43	-40.2	-41.4	21.7	0.00e+00	0	28	0	401604608	52	6707
2026-01-26 16:23:22.56	4.33	21.54	-40.3	-41.5	21.7	0.00e+00	0	29	0	403701760	52	6786
2026-01-26 16:23:23.57	4.17	21.65	-40.1	-41.2	21.9	0.00e+00	0	28	0	405798912	52	6545
2026-01-26 16:23:24.58	4.01	21.76	-40.0	-41.1	21.9	0.00e+00	85	28	0	406847488	52	6502
2026-01-26 16:23:25.59	3.84	21.87	-40.0	-41.0	22.0	0.00e+00	0	28	0	408944640	52	6446
2026-01-26 16:23:26.60	3.67	21.98	-39.8	-40.8	22.2	0.00e+00	81	28	0	411041792	52	6305
2026-01-26 16:23:27.60	3.51	22.09	-39.9	-40.9	22.1	0.00e+00	0	28	0	413138944	52	6380
2026-01-26 16:23:28.62	3.34	22.21	-39.4	-40.3	22.6	0.00e+00	0	28	0	415236096	52	5964
2026-01-26 16:23:29.63	3.17	22.32	-39.2	-40.2	22.7	0.00e+00	0	28	0	416284672	52	5854
2026-01-26 16:23:30.63	3.00	22.43	-39.5	-40.5	22.6	0.00e+00	0	28	0	418381824	52	6035
2026-01-26 16:23:31.64	2.83	22.54	-39.4	-40.4	22.5	0.00e+00	53	28	0	420478976	52	5983
2026-01-26 16:23:32.65	2.65	22.65	-39.1	-40.1	22.7	0.00e+00	0	28	0	422576128	52	5795
2026-01-26 16:23:33.66	2.48	22.77	-39.2	-40.1	22.7	0.00e+00	92	28	0	424673280	52	5822
2026-01-26 16:23:34.67	2.30	22.88	-39.2	-40.2	22.9	0.00e+00	0	28	0	425721856	52	5841
2026-01-26 16:23:35.68	2.12	22.99	-39.1	-40.1	22.8	0.00e+00	0	28	0	427819008	52	5780
2026-01-26 16:23:36.69	1.94	23.11	-38.9	-39.8	22.9	0.00e+00	0	28	0	429916160	52	5624
2026-01-26 16:23:37.70	1.76	23.22	-38.7	-39.6	23.1	0.00e+00	0	28	0	432013312	52	5478
2026-01-26 16:23:38.71	1.58	23.33	-38.5	-39.5	23.2	0.00e+00	24	28	0	434110464	50	6035
2026-01-26 16:23:39.72	1.40	23.45	-38.7	-39.7	23.1	0.00e+00	0	28	0	435159040	50	6188
2026-01-26 16:23:40.73	1.21	23.56	-38.9	-39.8	22.9	0.00e+00	92	29	0	437256192	50	6316
2026-01-26 16:23:41.73	1.03	23.68	-38.8	-39.8	23.0	0.00e+00	0	28	0	439353344	50	6274
2026-01-26 16:23:42.74	0.84	23.79	-38.9	-39.8	23.0	0.00e+00	4	29	0	441450496	50	6305
2026-01-26 16:23:43.75	0.65	23.90	-38.6	-39.6	23.2	0.00e+00	0	28	0	443547648	50	6104
2026-01-26 16:23:44.76	0.46	24.02	-38.7	-39.6	23.1	0.00e+00	0	28	0	445644800	50	6153
2026-01-26 16:23:45.77	0.27	24.13	-38.6	-39.5	23.0	0.00e+00	0	28	0	446693376	50	6050
2026-01-26 16:23:46.78	0.08	24.25	-38.6	-39.5	23.2	0.00e+00	0	29	0	448790528	50	6049
2026-01-26 16:23:47.79	359.89	24.36	-38.7	-39.6	23.0	0.00e+00	82	28	0	450887680	50	6135
2026-01-26 16:23:48.80	359.69	24.48	-39.1	-40.1	22.8	0.00e+00	0	28	0	452984832	50	6522
2026-01-26 16:23:49.81	359.49	24.60	-39.6	-40.6	21.9	0.00e+00	70	28	0	455081984	50	6890
2026-01-26 16:23:50.82	359.29	24.71	-40.0	-41.1	21.5	0.00e+00	0	28	0	456130560	52	6491
2026-01-26 16:23:51.83	359.09	24.83	-40.6	-41.7	21.3	0.00e+00	0	29	0	458227712	52	6987
2026-01-26 16:23:52.84	358.89	24.94	-40.6	-41.8	21.4	0.00e+00	17	29	0	460324864	52	7028
2026-01-26 16:23:53.85	358.69	25.06	-40.4	-41.5	21.6	0.00e+00	0	28	0	462422016	52	6828
2026-01-26 16:23:54.86	358.48	25.18	-40.5	-41.7	21.3	0.00e+00	31	28	0	464519168	52	6934
2026-01-26 16:23:55.87	358.28	25.29	-40.4	-41.5	21.6	0.00e+00	0	28	0	465567744	52	6783
2026-01-26 16:23:56.88	358.07	25.41	-40.4	-41.6	21.4	0.00e+00	92	29	0	467664896	52	6850
2026-01-26 16:23:57.89	357.86	25.53	-40.4	-41.5	21.6	0.00e+00	0	29	0	469762048	52	6830
2026-01-26 16:23:58.90	357.65	25.64	-40.7	-41.9	21.2	0.00e+00	0	29	0	471859200	52	7147
2026-01-26 16:23:59.91	357.44	25.76	-41.0	-42.2	20.9	0.00e+00	0	28	0	473956352	54	6608
2026-01-26 16:24:00.92	357.22	25.88	-41.2	-42.5	20.6	0.00e+00	0	29	0	475004928	54	6774
2026-01-26 16:24:01.92	357.01	25.99	-41.1	-42.3	20.8	0.00e+00	33	29	0	477102080	54	6668
2026-01-26 16:24:02.93	356.79	26.11	-41.1	-42.4	20.9	0.00e+00	0	28	0	479199232	54	6714
2026-01-26 16:24:03.94	356.57	26.23	-41.1	-42.4	20.9	0.00e+00	57	28	0	481296384	54	6718
2026-01-26 16:24:04.95	356.35	26.34	-40.8	-42.0	21.4	0.00e+00	0	28	0	483393536	54	6403
2026-01-26 16:24:05.96	356.13	26.46	-40.6	-41.7	21.3	0.00e+00	0	28	0	484442112	54	6239
2026-01-26 16:24:06.97	355.91	26.58	-40.8	-42.0	21.1	0.00e+00	0	28	0	486539264	54	6415
2026-01-26 16:24:07.98	355.68	26.69	-40.8	-42.1	21.1	0.00e+00	33	28	0	488636416	54	6471
2026-01-26 16:24:08.99	355.45	26.81	-40.5	-41.7	21.4	0.00e+00	1	28	0	490733568	54	6227
2026-01-26 16:24:10.00	355.22	26.93	-40.6	-41.8	21.4	0.00e+00	0	28	0	492830720	54	6254
2026-01-26 16:24:11.00	355.00	27.04	-40.2	-41.3	21.6	0.00e+00	92	28	0	493879296	54	5934
2026-01-26 16:24:12.01	354.76	27.16	-40.1	-41.2	21.8	0.00e+00	0	28	0	495976448	54	5839
2026-01-26 16:24:13.02	354.53	27.28	-39.5	-40.5	22.5	0.00e+00	9	28	0	498073600	54	5419
2026-01-26 16:24:14.03	354.29	27.39	-39.4	-40.4	22.5	0.00e+00	0	28	0	500170752	52	5988
2026-01-26 16:24:15.04	354.06	27.51	-39.5	-40.5	22.4	0.00e+00	0	28	0	502267904	52	6055
2026-01-26 16:24:16.05	353.82	27.63	-39.6	-40.6	22.4	0.00e+00	62	29	0	503316480	52	6142
2026-01-26 16:24:17.06	353.58	27.75	-39.8	-40.9	22.0	0.00e+00	0	29	0	505413632	52	6361
2026-01-26 16:24:18.07	353.33	27.86	-40.0	-41.1	21.8	0.00e+00	9	28	0	507510784	52	6476
2026-01-26 16:24:19.08	353.09	27.98	-40.3	-41.5	21.6	0.00e+00	0	29	0	509607936	52	6794
2026-01-26 16:24:20.09	352.84	28.10	-40.3	-41.4	21.8	0.00e+00	33	28	0	511705088	52	6730
2026-01-26 16:24:21.10	352.59	28.21	-40.0	-41.1	21.9	0.00e+00	0	28	0	513802240	52	6469
2026-01-26 16:24:22.11	352.34	28.33	-40.0	-41.1	22.0	0.00e+00	0	28	0	514850816	52	6470
2026-01-26 16:24:23.12	352.09	28.44	-39.9	-40.9	22.1	0.00e+00	29	28	0	516947968	52	6368
2026-01-26 16:24:24.13	351.84	28.56	-40.0	-41.0	22.1	0.00e+00	0	28	0	519045120	52	6442
2026-01-26 16:24:25.13	351.58	28.67	-39.8	-40.8	22.2	0.00e+00	92	28	0	521142272	52	6284
2026-01-26 16:24:26.14	351.33	28.79	-40.1	-41.2	21.8	0.00e+00	0	28	0	523239424	52	6585
2026-01-26 16:24:27.15	351.07	28.91	-40.6	-41.7	21.4	0.00e+00	92	29	0	524288000	54	6231
2026-01-26 16:24:28.16	350.80	29.02	-41.0	-42.3	20.8	0.00e+00	0	28	0	526385152	54	6626
2026-01-26 16:24:29.17	350.54	29.14	-41.5	-42.9	20.2	0.00e+00	0	28	0	528482304	54	7116
2026-01-26 16:24:30.18	350.28	29.25	-40.8	-42.0	21.0	0.00e+00	30	28	0	530579456	54	6431
2026-01-26 16:24:31.19	350.01	29.37	-40.5	-41.7	21.4	0.00e+00	0	28	0	532676608	54	6208
2026-01-26 16:24:32.20	349.74	29.48	-40.3	-41.4	21.7	0.00e+00	30	29	0	533725184	54	6025
2026-01-26 16:24:33.21	349.47	29.60	-40.4	-41.5	21.6	0.00e+00	0	28	0	535822336	54	6100
2026-01-26 16:24:34.22	349.20	29.71	-40.9	-42.2	21.0	0.00e+00	90	29	0	537919488	54	6557
2026-01-26 16:24:35.22	348.92	29.82	-41.2	-42.5	20.8	0.00e+00	0	29	0	540016640	54	6813
2026-01-26 16:24:36.23	348.65	29.94	-41.4	-42.7	20.6	0.00e+00	0	28	0	542113792	54	6967
2026-01-26 16:24:37.24	348.37	30.05	-40.6	-41.7	21.3	0.00e+00	0	29	0	543162368	54	6236
2026-01-26 16:24:38.25	348.09	30.16	-40.4	-41.5	21.6	0.00e+00	0	29	0	545259520	54	6097
2026-01-26 16:24:39.26	347.80	30.27	-40.2	-41.4	21.8	0.00e+00	35	29	0	547356672	54	5968
2026-01-26 16:24:40.27	347.52	30.39	-40.3	-41.5	21.4	0.00e+00	0	29	0	549453824	54	6068
2026-01-26 16:24:41.28	347.23	30.50	-40.5	-41.7	21.4	0.00e+00	76	29	0	551550976	54	6221
2026-01-26 16:24:42.29	346.94	30.61	-40.7	-41.9	21.3	0.00e+00	0	29	0	552599552	54	6328
2026-01-26 16:24:43.30	346.65	30.72	-41.1	-42.4	20.8	0.00e+00	0	29	0	554696704	54	6708
2026-01-26 16:24:44.31	346.36	30.83	-41.3	-42.6	20.6	0.00e+00	0	29	0	556793856	54	6915
2026-01-26 16:24:45.32	346.06	30.94	-41.6	-43.0	20.2	0.00e+00	0	29	0	558891008	54	7221
2026-01-26 16:24:46.32	345.77	31.05	-41.6	-42.9	20.4	0.00e+00	0	28	0	560988160	56	6352
2026-01-26 16:24:47.33	345.47	31.16	-41.9	-43.2	20.2	0.00e+00	0	29	0	562036736	56	6603
2026-01-26 16:24:48.34	345.17	31.27	-42.0	-43.4	20.1	0.00e+00	90	29	0	564133888	56	6706
2026-01-26 16:24:49.35	344.87	31.37	-42.3	-43.8	19.7	0.00e+00	0	29	0	566231040	56	7010
2026-01-26 16:24:50.36	344.56	31.48	-42.9	-44.6	18.9	0.00e+00	76	29	0	568328192	58	6889
2026-01-26 16:24:51.38	344.25	31.59	-43.2	-45.0	18.4	0.00e+00	0	29	0	570425344	58	7185
2026-01-26 16:24:52.39	343.94	31.70	-43.0	-44.7	18.9	0.00e+00	0	29	0	571473920	58	6935
2026-01-26 16:24:53.39	343.64	31.80	-42.3	-43.8	19.7	0.00e+00	0	28	0	573571072	58	6264
2026-01-26 16:24:54.40	343.32	31.91	-41.8	-43.1	20.2	0.00e+00	0	29	0	575668224	58	5814
2026-01-26 16:24:55.41	343.01	32.01	-41.2	-42.5	20.9	0.00e+00	92	29	0	577765376	56	6055
2026-01-26 16:24:56.42	342.69	32.12	-41.4	-42.7	20.5	0.00e+00	0	28	0	579862528	56	6224
2026-01-26 16:24:57.43	342.37	32.22	-42.1	-43.5	19.9	0.00e+00	85	29	0	580911104	56	6811
2026-01-26 16:24:58.44	342.05	32.32	-42.6	-44.2	19.0	0.00e+00	0	29	0	583008256	58	6557
2026-01-26 16:24:59.45	341.72	32.42	-43.8	-45.8	17.6	0.00e+00	0	28	0	585105408	60	7085
2026-01-26 16:25:00.46	341.40	32.53	-43.9	-46.0	17.4	0.00e+00	0	28	0	587202560	60	7223
2026-01-26 16:25:01.47	341.07	32.63	-44.1	-46.2	17.5	0.00e+00	0	29	0	589299712	60	7412
2026-01-26 16:25:02.48	340.74	32.73	-43.2	-45.0	18.6	0.00e+00	90	29	0	590348288	60	6421
2026-01-26 16:25:03.49	340.41	32.83	-43.5	-45.3	18.3	0.00e+00	0	29	0	592445440	60	6692
2026-01-26 16:25:04.50	340.08	32.92	-42.5	-44.0	19.5	0.00e+00	92	29	0	594542592	58	6440
2026-01-26 16:25:05.50	339.74	33.02	-42.2	-43.6	19.8	0.00e+00	0	29	0	596639744	58	6142
2026-01-26 16:25:06.51	339.41	33.12	-42.1	-43.5	20.1	0.00e+00	0	29	0	598736896	58	6064
2026-01-26 16:25:07.52	339.07	33.21	-42.0	-43.4	20.1	0.00e+00	0	29	0	599785472	58	6026
2026-01-26 16:25:08.53	338.72	33.31	-42.4	-43.9	19.4	0.00e+00	0	29	0	601882624	58	6390
2026-01-26 16:25:09.54	338.38	33.40	-42.3	-43.9	19.5	0.00e+00	92	29	0	603979776	56	7096
2026-01-26 16:25:10.55	338.03	33.50	-42.5	-44.0	19.4	0.00e+00	0	29	0	606076928	56	7251
2026-01-26 16:25:11.56	337.69	33.59	-42.8	-44.5	19.2	0.00e+00	65	29	0	608174080	56	7630
2026-01-26 16:25:12.57	337.34	33.68	-43.2	-45.1	18.3	0.00e+00	0	28	0	610271232	58	7279
2026-01-26 16:25:13.58	336.98	33.77	-43.0	-44.9	18.6	0.00e+00	0	29	0	611319808	58	7136
2026-01-26 16:25:14.59	336.63	33.86	-43.2	-45.1	18.5	0.00e+00	0	29	0	613416960	58	7279
2026-01-26 16:25:15.60	336.27	33.95	-42.4	-44.1	19.5	0.00e+00	4	29	0	615514112	58	6465
2026-01-26 16:25:16.61	335.92	34.04	-42.0	-43.5	19.6	0.00e+00	44	29	0	617611264	58	6087
2026-01-26 16:25:17.62	335.56	34.12	-42.0	-43.6	19.9	0.00e+00	0	29	0	619708416	58	6138
2026-01-26 16:25:18.63	335.19	34.21	-42.2	-43.8	19.4	0.00e+00	92	29	0	620756992	58	6282
2026-01-26 16:25:19.64	334.83	34.29	-42.7	-44.5	18.9	0.00e+00	0	28	0	622854144	58	6797
2026-01-26 16:25:20.64	334.47	34.38	-42.7	-44.5	19.0	0.00e+00	0	29	0	624951296	58	6818
2026-01-26 16:25:21.65	334.10	34.46	-42.7	-44.4	19.0	0.00e+00	0	29	0	627048448	58	6764
2026-01-26 16:25:22.66	333.73	34.54	-41.6	-43.0	20.2	0.00e+00	0	29	0	629145600	56	6408
2026-01-26 16:25:23.67	333.36	34.62	-40.5	-41.7	21.5	0.00e+00	30	29	0	630194176	54	6215
2026-01-26 16:25:24.68	332.99	34.70	-40.2	-41.3	21.4	0.00e+00	0	28	0	632291328	54	5959
2026-01-26 16:25:25.69	332.61	34.78	-40.7	-41.9	21.2	0.00e+00	91	29	0	634388480	54	6343
2026-01-26 16:25:26.70	332.24	34.85	-40.7	-41.9	21.1	0.00e+00	0	29	0	636485632	54	6390
2026-01-26 16:25:27.71	331.86	34.93	-41.6	-43.0	20.2	0.00e+00	0	29	0	638582784	54	7192
2026-01-26 16:25:28.72	331.48	35.00	-41.4	-42.8	20.5	0.00e+00	0	29	0	639631360	56	6264
2026-01-26 16:25:29.73	331.10	35.08	-41.1	-42.3	21.0	0.00e+00	0	29	0	641728512	56	5938
2026-01-26 16:25:30.73	330.72	35.15	-40.3	-41.4	21.7	0.00e+00	31	29	0	643825664	54	6017
2026-01-26 16:25:31.74	330.33	35.22	-40.2	-41.4	21.7	0.00e+00	0	28	0	645922816	54	5965
2026-01-26 16:25:32.75	329.94	35.28	-40.3	-41.4	21.7	0.00e+00	27	29	0	648019968	54	6017
2026-01-26 16:25:33.76	329.56	35.35	-40.6	-41.9	21.4	0.00e+00	0	29	0	649068544	54	6352
2026-01-26 16:25:34.77	329.17	35.42	-41.0	-42.4	20.9	0.00e+00	92	29	0	651165696	54	6711
2026-01-26 16:25:35.78	328.77	35.48	-40.9	-42.3	21.1	0.00e+00	0	29	0	653262848	54	6648
2026-01-26 16:25:36.79	328.38	35.55	-39.6	-40.7	22.4	0.00e+00	0	29	0	655360000	54	5514
2026-01-26 16:25:37.80	327.99	35.61	-38.8	-39.7	23.1	0.00e+00	32	29	0	657457152	52	5561
2026-01-26 16:25:38.80	327.59	35.67	-38.1	-39.0	23.7	0.00e+00	0	29	0	658505728	50	5700
2026-01-26 16:25:39.81	327.20	35.73	-37.6	-38.4	24.1	0.00e+00	29	29	0	660602880	50	5358
2026-01-26 16:25:40.82	326.80	35.78	-37.9	-38.8	23.4	0.00e+00	0	29	0	662700032	48	6256
2026-01-26 16:25:41.83	326.40	35.84	-38.5	-39.4	23.5	0.00e+00	71	28	0	664797184	48	6700
2026-01-26 16:25:42.84	326.00	35.89	-38.5	-39.4	23.3	0.00e+00	0	29	0	666894336	48	6730
2026-01-26 16:25:43.85	325.59	35.95	-38.0	-38.9	23.7	0.00e+00	0	29	0	667942912	48	6330
2026-01-26 16:25:44.85	325.19	36.00	-37.7	-38.5	23.9	0.00e+00	0	29	0	670040064	48	6082
2026-01-26 16:25:45.86	324.79	36.05	-37.7	-38.6	24.0	0.00e+00	0	28	0	672137216	48	6109
2026-01-26 16:25:46.87	324.38	36.10	-37.8	-38.7	23.8	0.00e+00	32	29	0	674234368	48	6191
2026-01-26 16:25:47.88	323.97	36.14	-37.8	-38.6	23.9	0.00e+00	0	29	0	676331520	48	6147
2026-01-26 16:25:48.89	323.56	36.19	-37.9	-38.8	23.7	0.00e+00	92	28	0	678428672	48	6290
2026-01-26 16:25:49.90	323.15	36.23	-37.6	-38.4	24.1	0.00e+00	0	29	0	679477248	48	6019
2026-01-26 16:25:50.91	322.74	36.27	-37.3	-38.2	24.2	0.00e+00	0	29	0	681574400	48	5840
2026-01-26 16:25:51.92	322.33	36.31	-37.2	-38.1	24.3	0.00e+00	0	28	0	683671552	48	5787
2026-01-26 16:25:52.93	321.91	36.35	-37.2	-38.1	24.2	0.00e+00	0	28	0	685768704	48	5771
2026-01-26 16:25:53.93	321.50	36.39	-37.6	-38.5	24.1	0.00e+00	33	29	0	686817280	48	6042
2026-01-26 16:25:54.94	321.09	36.42	-38.2	-39.1	23.2	0.00e+00	0	29	0	688914432	48	6532
2026-01-26 16:25:55.96	320.67	36.46	-39.2	-40.2	22.6	0.00e+00	92	28	0	691011584	50	6556
2026-01-26 16:25:56.96	320.25	36.49	-39.6	-40.7	22.4	0.00e+00	0	29	0	693108736	50	6967
2026-01-26 16:25:57.97	319.83	36.52	-39.6	-40.6	22.4	0.00e+00	92	29	0	695205888	52	6158
2026-01-26 16:25:58.98	319.42	36.55	-38.7	-39.6	23.3	0.00e+00	0	29	0	696254464	52	5468
2026-01-26 16:25:59.99	319.00	36.57	-37.8	-38.7	23.5	0.00e+00	0	29	0	698351616	50	5516
2026-01-26 16:26:01.00	318.58	36.60	-37.2	-38.0	24.4	0.00e+00	0	29	0	700448768	48	5716
2026-01-26 16:26:02.01	318.16	36.62	-37.0	-37.8	24.6	0.00e+00	0	29	0	702545920	48	5594
2026-01-26 16:26:03.02	317.73	36.64	-37.3	-38.1	24.4	0.00e+00	36	29	0	704643072	48	5787
2026-01-26 16:26:04.03	317.31	36.66	-37.5	-38.3	24.1	0.00e+00	0	29	0	706740224	48	5922
2026-01-26 16:26:05.03	316.89	36.68	-37.6	-38.5	24.1	0.00e+00	66	29	0	707788800	48	6041
2026-01-26 16:26:06.04	316.47	36.70	-38.0	-38.9	23.6	0.00e+00	0	29	0	709885952	48	6340
2026-01-26 16:26:07.05	316.05	36.71	-38.2	-39.1	23.6	0.00e+00	0	29	0	711983104	48	6483
2026-01-26 16:26:08.06	315.62	36.72	-38.3	-39.2	23.5	0.00e+00	0	29	0	714080256	48	6570
2026-01-26 16:26:09.07	315.20	36.74	-38.6	-39.5	23.3	0.00e+00	0	29	0	716177408	48	6834
2026-01-26 16:26:10.08	314.78	36.74	-38.7	-39.7	23.2	0.00e+00	7	29	0	717225984	50	6186
2026-01-26 16:26:11.09	314.35	36.75	-39.3	-40.2	22.7	0.00e+00	33	29	0	719323136	50	6612
2026-01-26 16:26:12.10	313.93	36.76	-39.6	-40.7	22.3	0.00e+00	92	29	0	721420288	50	6966
2026-01-26 16:26:13.11	313.50	36.76	-39.9	-41.0	22.1	0.00e+00	0	29	0	723517440	52	6413
2026-01-26 16:26:14.12	313.08	36.76	-39.7	-40.7	22.4	0.00e+00	33	29	0	725614592	52	6227
2026-01-26 16:26:15.13	312.65	36.76	-39.7	-40.7	22.3	0.00e+00	0	29	0	726663168	52	6238
2026-01-26 16:26:16.14	312.23	36.76	-39.6	-40.6	22.5	0.00e+00	0	29	0	728760320	52	6167
2026-01-26 16:26:17.15	311.80	36.76	-39.5	-40.5	22.5	0.00e+00	24	29	0	730857472	52	6092
2026-01-26 16:26:18.16	311.38	36.75	-39.5	-40.5	22.7	0.00e+00	0	29	0	732954624	52	6075
2026-01-26 16:26:19.17	310.95	36.75	-39.3	-40.3	22.9	0.00e+00	91	29	0	735051776	52	5937
2026-01-26 16:26:20.18	310.53	36.74	-39.5	-40.5	22.6	0.00e+00	30	29	0	736100352	52	6065
2026-01-26 16:26:21.19	310.10	36.73	-39.9	-41.0	22.1	0.00e+00	0	29	0	738197504	52	6443
2026-01-26 16:26:22.20	309.68	36.71	-40.0	-41.1	22.1	0.00e+00	0	29	0	740294656	52	6510
2026-01-26 16:26:23.22	309.25	36.70	-39.5	-40.5	22.4	0.00e+00	0	29	0	742391808	52	6091
2026-01-26 16:26:24.23	308.83	36.68	-39.1	-40.1	22.9	0.00e+00	59	29	0	744488960	52	5767
2026-01-26 16:26:25.23	308.41	36.67	-39.0	-40.0	22.8	0.00e+00	0	29	0	745537536	52	5712
2026-01-26 16:26:26.24	307.99	36.65	-39.7	-40.7	22.4	0.00e+00	76	29	0	747634688	52	6225
2026-01-26 16:26:27.25	307.57	36.62	-40.3	-41.5	21.6	0.00e+00	0	29	0	749731840	52	6799
2026-01-26 16:26:28.26	307.15	36.60	-40.3	-41.5	21.8	0.00e+00	0	29	0	751828992	52	6773
2026-01-26 16:26:29.27	306.72	36.58	-39.9	-41.0	22.1	0.00e+00	0	29	0	753926144	52	6423
2026-01-26 16:26:30.28	306.31	36.55	-40.0	-41.1	22.1	0.00e+00	0	29	0	754974720	52	6488
2026-01-26 16:26:31.28	305.89	36.52	-40.3	-41.4	21.8	0.00e+00	15	29	0	757071872	52	6745
2026-01-26 16:26:32.29	305.47	36.49	-40.9	-42.1	21.1	0.00e+00	0	29	0	759169024	54	6535
2026-01-26 16:26:33.30	305.05	36.46	-41.8	-43.2	20.1	0.00e+00	73	29	0	761266176	54	7391
2026-01-26 16:26:34.31	304.64	36.43	-42.4	-44.0	19.8	0.00e+00	0	29	0	763363328	56	7172
2026-01-26 16:26:35.32	304.22	36.39	-41.6	-42.9	20.7	0.00e+00	0	29	0	764411904	56	6383
2026-01-26 16:26:36.33	303.81	36.36	-40.7	-41.8	21.5	0.00e+00	0	29	0	766509056	54	6296
2026-01-26 16:26:37.34	303.39	36.32	-40.3	-41.4	21.7	0.00e+00	0	29	0	768606208	54	5970
2026-01-26 16:26:38.35	302.98	36.28	-40.2	-41.3	21.7	0.00e+00	8	29	0	770703360	54	5908
2026-01-26 16:26:39.35	302.57	36.24	-40.0	-41.1	21.9	0.00e+00	0	28	0	772800512	54	5778
2026-01-26 16:26:40.36	302.16	36.19	-39.9	-41.0	22.1	0.00e+00	90	29	0	774897664	52	6412
2026-01-26 16:26:41.37	301.75	36.15	-39.9	-40.9	22.2	0.00e+00	0	29	0	775946240	52	6363
2026-01-26 16:26:42.38	301.34	36.10	-40.4	-41.5	21.9	0.00e+00	56	29	0	778043392	52	6780
2026-01-26 16:26:43.39	300.93	36.05	-40.7	-41.9	21.3	0.00e+00	0	29	0	780140544	52	7151
2026-01-26 16:26:44.40	300.53	36.00	-40.6	-41.7	21.5	0.00e+00	0	29	0	782237696	54	6239
2026-01-26 16:26:45.41	300.12	35.95	-40.9	-42.1	21.0	0.00e+00	9	29	0	784334848	54	6494
2026-01-26 16:26:46.42	299.72	35.90	-40.5	-41.7	21.4	0.00e+00	0	29	0	785383424	54	6189
2026-01-26 16:26:47.43	299.32	35.84	-40.6	-41.8	21.5	0.00e+00	26	29	0	787480576	54	6254
2026-01-26 16:26:48.44	298.92	35.79	-40.6	-41.8	21.5	0.00e+00	0	29	0	789577728	54	6257
2026-01-26 16:26:49.45	298.52	35.73	-40.4	-41.5	21.7	0.00e+00	92	29	0	791674880	54	6096
2026-01-26 16:26:50.45	298.12	35.67	-39.8	-40.8	22.1	0.00e+00	0	29	0	793772032	52	6317
2026-01-26 16:26:51.46	297.73	35.61	-39.6	-40.7	22.3	0.00e+00	0	29	0	794820608	52	6179
2026-01-26 16:26:52.47	297.33	35.55	-40.1	-41.2	21.9	0.00e+00	0	29	0	796917760	52	6612
2026-01-26 16:26:53.48	296.94	35.49	-40.9	-42.2	21.0	0.00e+00	0	29	0	799014912	54	6543
2026-01-26 16:26:54.49	296.54	35.42	-41.2	-42.5	20.8	0.00e+00	54	29	0	801112064	54	6775
2026-01-26 16:26:55.50	296.15	35.36	-41.0	-42.2	21.1	0.00e+00	0	29	0	803209216	54	6561
2026-01-26 16:26:56.51	295.76	35.29	-41.0	-42.3	21.1	0.00e+00	46	29	0	804257792	54	6647
2026-01-26 16:26:57.52	295.38	35.22	-40.8	-42.0	21.4	0.00e+00	0	29	0	806354944	54	6455
2026-01-26 16:26:58.53	294.99	35.15	-39.9	-40.9	22.3	0.00e+00	0	29	0	808452096	54	5670
2026-01-26 16:26:59.54	294.61	35.08	-39.8	-40.8	22.4	0.00e+00	0	29	0	810549248	52	6264
2026-01-26 16:27:00.55	294.22	35.01	-39.5	-40.5	22.5	0.00e+00	0	29	0	812646400	52	6057
2026-01-26 16:27:01.56	293.84	34.93	-40.5	-41.6	21.6	0.00e+00	28	29	0	813694976	52	6923
2026-01-26 16:27:02.57	293.46	34.86	-40.7	-41.9	21.4	0.00e+00	0	29	0	815792128	52	7126
2026-01-26 16:27:03.58	293.09	34.78	-40.8	-42.0	21.2	0.00e+00	62	29	0	817889280	54	6416
2026-01-26 16:27:04.58	292.72	34.70	-40.4	-41.6	21.6	0.00e+00	0	29	0	819986432	54	6129
2026-01-26 16:27:05.59	292.34	34.63	-40.2	-41.3	21.9	0.00e+00	38	29	0	822083584	54	5953
2026-01-26 16:27:06.60	291.97	34.55	-39.7	-40.8	22.4	0.00e+00	0	29	0	823132160	52	6255
2026-01-26 16:27:07.61	291.60	34.46	-39.2	-40.1	22.8	0.00e+00	0	29	0	825229312	52	5814
2026-01-26 16:27:08.62	291.23	34.38	-38.9	-39.9	23.0	0.00e+00	34	29	0	827326464	52	5633
2026-01-26 16:27:09.63	290.87	34.30	-39.5	-40.5	22.5	0.00e+00	0	29	0	829423616	52	6072
2026-01-26 16:27:10.64	290.50	34.21	-40.1	-41.2	22.0	0.00e+00	46	29	0	831520768	52	6567
2026-01-26 16:27:11.64	290.14	34.13	-40.2	-41.3	21.7	0.00e+00	0	29	0	832569344	52	6637
2026-01-26 16:27:12.65	289.78	34.04	-40.8	-42.0	21.2	0.00e+00	54	29	0	834666496	52	7212
2026-01-26 16:27:13.66	289.42	33.95	-41.4	-42.7	20.6	0.00e+00	0	29	0	836763648	54	6996
2026-01-26 16:27:14.67	289.07	33.87	-41.5	-42.9	20.4	0.00e+00	0	29	0	838860800	56	6371
2026-01-26 16:27:15.68	288.71	33.78	-41.3	-42.6	20.8	0.00e+00	0	29	0	840957952	56	6159
2026-01-26 16:27:16.68	288.36	33.69	-40.7	-41.9	21.4	0.00e+00	0	28	0	842006528	56	5679
2026-01-26 16:27:17.69	288.01	33.59	-40.6	-41.8	21.4	0.00e+00	92	29	0	844103680	54	6267
2026-01-26 16:27:18.70	287.66	33.50	-40.8	-42.0	21.2	0.00e+00	0	28	0	846200832	54	6447
2026-01-26 16:27:19.71	287.32	33.41	-41.3	-42.6	20.5	0.00e+00	92	29	0	848297984	54	6905
2026-01-26 16:27:20.72	286.97	33.31	-40.9	-42.2	21.0	0.00e+00	0	29	0	850395136	54	6580
2026-01-26 16:27:21.73	286.63	33.22	-41.5	-42.9	20.3	0.00e+00	0	29	0	851443712	54	7164
2026-01-26 16:27:22.74	286.29	33.12	-42.3	-43.9	19.6	0.00e+00	0	29	0	853540864	56	7127
2026-01-26 16:27:23.75	285.95	33.03	-42.4	-44.0	19.5	0.00e+00	0	29	0	855638016	56	7247
2026-01-26 16:27:24.76	285.61	32.93	-41.6	-42.9	20.4	0.00e+00	67	29	0	857735168	56	6349
2026-01-26 16:27:25.77	285.28	32.83	-40.7	-41.8	21.2	0.00e+00	0	29	0	859832320	54	6299
2026-01-26 16:27:26.78	284.95	32.73	-40.3	-41.4	21.7	0.00e+00	92	29	0	860880896	54	6017
2026-01-26 16:27:27.79	284.61	32.63	-40.3	-41.4	21.6	0.00e+00	0	29	0	862978048	54	6025
2026-01-26 16:27:28.80	284.29	32.53	-39.9	-41.0	22.1	0.00e+00	0	29	0	865075200	54	5699
2026-01-26 16:27:29.80	283.96	32.43	-39.2	-40.2	22.9	0.00e+00	0	29	0	867172352	52	5854
2026-01-26 16:27:30.81	283.64	32.33	-39.1	-40.1	22.8	0.00e+00	0	29	0	869269504	52	5775
2026-01-26 16:27:31.82	283.32	32.22	-39.1	-40.1	22.8	0.00e+00	33	29	0	871366656	52	5804
2026-01-26 16:27:32.83	283.00	32.12	-40.1	-41.2	21.8	0.00e+00	0	29	0	872415232	52	6584
2026-01-26 16:27:33.84	282.68	32.01	-41.0	-42.2	21.1	0.00e+00	83	29	0	874512384	54	6567
2026-01-26 16:27:34.85	282.36	31.91	-41.6	-42.8	20.5	0.00e+00	0	29	0	876609536	54	7082
2026-01-26 16:27:35.86	282.05	31.80	-41.4	-42.6	21.0	0.00e+00	0	29	0	878706688	56	6168
2026-01-26 16:27:36.87	281.74	31.70	-40.4	-41.5	21.7	0.00e+00	0	29	0	880803840	54	6038
2026-01-26 16:27:37.88	281.42	31.59	-39.9	-40.9	22.2	0.00e+00	0	29	0	881852416	54	5645
2026-01-26 16:27:38.88	281.12	31.48	-39.3	-40.2	22.9	0.00e+00	31	29	0	883949568	52	5867
2026-01-26 16:27:39.89	280.81	31.38	-38.9	-39.8	23.1	0.00e+00	0	29	0	886046720	52	5607
2026-01-26 16:27:40.90	280.51	31.27	-39.6	-40.6	22.6	0.00e+00	92	29	0	888143872	52	6108
2026-01-26 16:27:41.91	280.21	31.16	-40.5	-41.7	21.6	0.00e+00	33	29	0	890241024	52	6959
2026-01-26 16:27:42.92	279.91	31.05	-41.4	-42.7	20.6	0.00e+00	92	29	0	891289600	54	6976
2026-01-26 16:27:43.93	279.61	30.94	-41.2	-42.5	20.8	0.00e+00	0	29	0	893386752	54	6809
2026-01-26 16:27:44.94	279.31	30.83	-41.0	-42.2	21.2	0.00e+00	0	28	0	895483904	54	6588
2026-01-26 16:27:45.95	279.02	30.72	-40.5	-41.6	21.6	0.00e+00	0	29	0	897581056	54	6163
2026-01-26 16:27:46.96	278.73	30.61	-40.6	-41.7	21.7	0.00e+00	0	29	0	899678208	54	6219
2026-01-26 16:27:47.97	278.44	30.50	-40.3	-41.4	21.7	0.00e+00	92	29	0	900726784	54	6024
2026-01-26 16:27:48.98	278.15	30.38	-40.7	-41.9	21.4	0.00e+00	0	29	0	902823936	54	6354
2026-01-26 16:27:49.99	277.87	30.27	-40.8	-42.0	21.3	0.00e+00	92	29	0	904921088	54	6408
2026-01-26 16:27:51.00	277.58	30.16	-41.0	-42.2	21.2	0.00e+00	0	29	0	907018240	54	6592
2026-01-26 16:27:52.00	277.30	30.05	-40.8	-42.0	21.0	0.00e+00	0	29	0	909115392	54	6427
2026-01-26 16:27:53.01	277.02	29.93	-42.0	-43.4	19.9	0.00e+00	12	29	0	910163968	56	6744
2026-01-26 16:27:54.02	276.75	29.82	-42.3	-43.8	19.6	0.00e+00	0	29	0	912261120	56	7008
2026-01-26 16:27:55.03	276.47	29.71	-42.0	-43.4	20.1	0.00e+00	13	29	0	914358272	56	6700
2026-01-26 16:27:56.04	276.20	29.59	-41.4	-42.7	20.7	0.00e+00	0	29	0	916455424	56	6203
2026-01-26 16:27:57.05	275.92	29.48	-41.1	-42.2	21.1	0.00e+00	90	29	0	918552576	56	5884
2026-01-26 16:27:58.06	275.65	29.36	-41.0	-42.2	21.0	0.00e+00	0	29	0	919601152	56	5881
2026-01-26 16:27:59.07	275.39	29.25	-40.8	-41.9	21.3	0.00e+00	0	29	0	921698304	56	5690
2026-01-26 16:28:00.08	275.12	29.13	-40.9	-42.1	21.2	0.00e+00	0	29	0	923795456	56	5770
2026-01-26 16:28:01.08	274.86	29.02	-40.9	-42.1	21.2	0.00e+00	0	29	0	925892608	54	6502
2026-01-26 16:28:02.09	274.60	28.90	-40.7	-41.8	21.4	0.00e+00	32	29	0	927989760	54	6295
2026-01-26 16:28:03.10	274.34	28.79	-40.7	-41.9	21.4	0.00e+00	0	29	0	929038336	54	6331
2026-01-26 16:28:04.11	274.08	28.67	-40.6	-41.7	21.5	0.00e+00	92	29	0	931135488	54	6213
2026-01-26 16:28:05.12	273.82	28.55	-40.4	-41.5	21.7	0.00e+00	0	29	0	933232640	54	6067
2026-01-26 16:28:06.13	273.57	28.44	-40.0	-41.1	21.9	0.00e+00	31	29	0	935329792	54	5787
2026-01-26 16:28:07.14	273.31	28.32	-39.3	-40.3	22.6	0.00e+00	0	29	0	937426944	52	5934
2026-01-26 16:28:08.14	273.06	28.21	-38.6	-39.5	23.4	0.00e+00	0	29	0	939524096	50	6081
2026-01-26 16:28:09.15	272.81	28.09	-38.4	-39.3	23.4	0.00e+00	30	29	0	940572672	50	5899
2026-01-26 16:28:10.16	272.57	27.97	-38.5	-39.4	23.3	0.00e+00	0	29	0	942669824	50	6000
2026-01-26 16:28:11.17	272.32	27.86	-38.5	-39.5	23.2	0.00e+00	70	29	0	944766976	50	6043
2026-01-26 16:28:12.18	272.08	27.74	-38.8	-39.8	23.0	0.00e+00	0	29	0	946864128	50	6263
2026-01-26 16:28:13.19	271.84	27.62	-38.9	-39.8	22.9	0.00e+00	43	29	0	948961280	50	6275
2026-01-26 16:28:14.20	271.60	27.50	-39.1	-40.0	22.9	0.00e+00	0	29	0	950009856	50	6457
2026-01-26 16:28:15.21	271.36	27.39	-39.1	-40.0	22.9	0.00e+00	0	29	0	952107008	50	6438
2026-01-26 16:28:16.22	271.12	27.27	-39.1	-40.0	22.8	0.00e+00	0	29	0	954204160	50	6459
2026-01-26 16:28:17.23	270.89	27.15	-38.5	-39.4	23.4	0.00e+00	1	29	0	956301312	50	5994
2026-01-26 16:28:18.24	270.65	27.04	-38.2	-39.1	23.6	0.00e+00	29	29	0	958398464	50	5771
2026-01-26 16:28:19.25	270.42	26.92	-37.9	-38.8	23.7	0.00e+00	0	29	0	959447040	50	5582
2026-01-26 16:28:20.26	270.19	26.80	-37.9	-38.8	23.7	0.00e+00	72	29	0	961544192	50	5601
2026-01-26 16:28:21.27	269.96	26.68	-38.3	-39.2	23.4	0.00e+00	0	29	0	963641344	50	5890
2026-01-26 16:28:22.28	269.74	26.57	-38.6	-39.5	23.2	0.00e+00	0	29	0	965738496	50	6098
2026-01-26 16:28:23.28	269.51	26.45	-39.3	-40.3	22.7	0.00e+00	0	29	0	967835648	50	6666
2026-01-26 16:28:24.29	269.29	26.33	-39.2	-40.2	22.8	0.00e+00	0	29	0	968884224	50	6550
2026-01-26 16:28:25.31	269.07	26.21	-39.2	-40.2	22.6	0.00e+00	29	29	0	970981376	50	6612
2026-01-26 16:28:26.32	268.85	26.10	-38.3	-39.2	23.5	0.00e+00	0	29	0	973078528	50	5883
2026-01-26 16:28:27.32	268.63	25.98	-38.2	-39.0	23.6	0.00e+00	92	29	0	975175680	50	5752
2026-01-26 16:28:28.33	268.41	25.86	-38.1	-39.0	23.7	0.00e+00	0	29	0	977272832	50	5708
2026-01-26 16:28:29.34	268.20	25.75	-38.1	-39.0	23.8	0.00e+00	0	29	0	978321408	50	5704
2026-01-26 16:28:30.36	267.98	25.63	-37.5	-38.4	24.2	0.00e+00	0	29	0	980418560	48	5984
2026-01-26 16:28:31.36	267.77	25.51	-37.7	-38.6	23.9	0.00e+00	0	29	0	982515712	48	6104
2026-01-26 16:28:32.37	267.56	25.39	-37.9	-38.7	23.7	0.00e+00	29	29	0	984612864	48	6224
2026-01-26 16:28:33.38	267.36	25.28	-37.8	-38.7	23.8	0.00e+00	0	29	0	986710016	48	6195
2026-01-26 16:28:34.39	267.15	25.16	-37.9	-38.8	23.7	0.00e+00	70	29	0	987758592	48	6280
2026-01-26 16:28:35.40	266.94	25.04	-38.0	-38.9	23.7	0.00e+00	0	29	0	989855744	48	6320
2026-01-26 16:28:36.41	266.74	24.93	-38.0	-38.9	23.7	0.00e+00	0	29	0	991952896	48	6335
2026-01-26 16:28:37.42	266.54	24.81	-37.9	-38.8	23.8	0.00e+00	0	29	0	994050048	48	6252
2026-01-26 16:28:38.43	266.34	24.70	-37.8	-38.7	23.8	0.00e+00	0	29	0	996147200	48	6214
2026-01-26 16:28:39.44	266.14	24.58	-37.7	-38.6	23.9	0.00e+00	23	29	0	997195776	48	6130
2026-01-26 16:28:40.45	265.94	24.46	-37.6	-38.4	24.1	0.00e+00	0	29	0	999292928	48	5994
2026-01-26 16:28:41.46	265.74	24.35	-37.6	-38.4	24.1	0.00e+00	92	29	0	1001390080	48	5989
2026-01-26 16:28:42.47	265.55	24.23	-37.7	-38.5	24.0	0.00e+00	0	29	0	1003487232	48	6089
2026-01-26 16:28:43.48	265.35	24.12	-37.6	-38.4	24.1	0.00e+00	24	29	0	1005584384	48	6023
2026-01-26 16:28:44.49	265.16	24.00	-37.7	-38.6	24.0	0.00e+00	0	29	0	1006632960	48	6118
2026-01-26 16:28:45.50	264.97	23.89	-37.9	-38.8	23.7	0.00e+00	0	29	0	1008730112	48	6268
2026-01-26 16:28:46.50	264.78	23.77	-38.3	-39.2	23.4	0.00e+00	0	29	0	1010827264	48	6572
2026-01-26 16:28:47.51	264.59	23.66	-38.3	-39.2	23.1	0.00e+00	0	29	0	1012924416	48	6574
2026-01-26 16:28:48.52	264.41	23.54	-38.3	-39.1	23.5	0.00e+00	92	29	0	1015021568	48	6537
2026-01-26 16:28:49.53	264.22	23.43	-38.1	-39.0	23.6	0.00e+00	0	29	0	1016070144	48	6398
2026-01-26 16:28:50.54	264.04	23.31	-38.0	-38.9	23.5	0.00e+00	45	29	0	1018167296	48	6328
2026-01-26 16:28:51.55	263.86	23.20	-38.1	-39.0	22.8	0.00e+00	0	29	0	1020264448	48	6437
2026-01-26 16:28:52.56	263.68	23.09	-38.4	-39.3	23.1	0.00e+00	0	29	0	1022361600	48	6636
2026-01-26 16:28:53.57	263.50	22.97	-38.9	-39.9	23.0	0.00e+00	0	29	0	1024458752	50	6358
2026-01-26 16:28:54.58	263.32	22.86	-39.0	-40.0	22.8	0.00e+00	0	29	0	1025507328	50	6394
2026-01-26 16:28:55.59	263.14	22.74	-39.4	-40.5	22.5	0.00e+00	77	29	0	1027604480	50	6771
2026-01-26 16:28:56.60	262.96	22.63	-39.4	-40.5	22.5	0.00e+00	0	29	0	1029701632	50	6771
2026-01-26 16:28:57.61	262.79	22.52	-39.5	-40.6	22.5	0.00e+00	92	29	0	1031798784	50	6880
2026-01-26 16:28:58.62	262.62	22.41	-39.2	-40.1	22.7	0.00e+00	0	29	0	1033895936	50	6538
2026-01-26 16:28:59.63	262.44	22.29	-39.5	-40.5	22.4	0.00e+00	0	29	0	1035993088	50	6844
2026-01-26 16:29:00.64	262.27	22.18	-39.5	-40.5	22.5	0.00e+00	0	29	0	1037041664	50	6785
2026-01-26 16:29:01.65	262.10	22.07	-39.2	-40.1	22.7	0.00e+00	0	29	0	1039138816	50	6528
2026-01-26 16:29:02.66	261.94	21.96	-39.4	-40.4	22.3	0.00e+00	91	29	0	1041235968	50	6756
2026-01-26 16:29:03.67	261.77	21.84	-39.9	-41.0	22.0	0.00e+00	0	29	0	1043333120	52	6408
2026-01-26 16:29:04.68	261.60	21.73	-40.0	-41.1	21.9	0.00e+00	92	29	0	1045430272	52	6524
2026-01-26 16:29:05.69	261.44	21.62	-40.0	-41.1	22.0	0.00e+00	0	29	0	1046478848	52	6522
2026-01-26 16:29:06.70	261.27	21.51	-40.2	-41.3	21.6	0.00e+00	0	29	0	1048576000	52	6680
2026-01-26 16:29:07.71	261.11	21.40	-40.1	-41.2	21.6	0.00e+00	0	29	0	1050673152	52	6607
2026-01-26 16:29:08.72	260.95	21.29	-40.3	-41.4	21.6	0.00e+00	0	29	0	1052770304	52	6714
2026-01-26 16:29:09.73	260.79	21.18	-40.2	-41.3	21.8	0.00e+00	37	29	0	1054867456	52	6669
2026-01-26 16:29:10.74	260.63	21.07	-40.3	-41.4	21.6	0.00e+00	0	29	0	1055916032	52	6756
2026-01-26 16:29:11.75	260.48	20.96	-40.3	-41.4	21.7	0.00e+00	69	29	0	1058013184	52	6752
2026-01-26 16:29:12.76	260.32	20.85	-40.5	-41.7	21.5	0.00e+00	0	29	0	1060110336	52	6936
2026-01-26 16:29:13.77	260.16	20.74	-40.4	-41.5	21.6	0.00e+00	0	29	0	1062207488	52	6843
2026-01-26 16:29:14.78	260.01	20.63	-40.1	-41.1	21.9	0.00e+00	0	29	0	1064304640	52	6532
2026-01-26 16:29:15.79	259.86	20.52	-39.6	-40.6	22.3	0.00e+00	0	29	0	1065353216	52	6160
2026-01-26 16:29:16.80	259.70	20.41	-39.2	-40.2	22.7	0.00e+00	27	29	0	1067450368	52	5857
2026-01-26 16:29:17.81	259.55	20.31	-38.9	-39.9	23.0	0.00e+00	0	29	0	1069547520	52	5655
2026-01-26 16:29:18.82	259.40	20.20	-38.6	-39.5	23.2	0.00e+00	74	29	0	1071644672	50	6092
2026-01-26 16:29:19.82	259.26	20.09	-38.8	-39.7	23.0	0.00e+00	0	29	0	1073741824	50	6198
2026-01-26 16:29:20.83	259.11	19.98	-38.7	-39.6	23.1	0.00e+00	54	29	0	1074790400	50	6130
2026-01-26 16:29:21.84	258.96	19.88	-38.6	-39.6	23.1	0.00e+00	0	29	0	1076887552	50	6106
2026-01-26 16:29:22.85	258.82	19.77	-39.0	-39.9	23.0	0.00e+00	0	29	0	1078984704	50	6388
2026-01-26 16:29:23.86	258.67	19.66	-38.8	-39.7	23.0	0.00e+00	27	29	0	1081081856	50	6226
2026-01-26 16:29:24.87	258.53	19.56	-38.7	-39.7	23.1	0.00e+00	0	29	0	1083179008	50	6177
2026-01-26 16:29:25.88	258.38	19.45	-38.8	-39.7	23.0	0.00e+00	25	29	0	1084227584	50	6182
2026-01-26 16:29:26.88	258.24	19.35	-38.7	-39.6	23.1	0.00e+00	0	29	0	1086324736	50	6127
2026-01-26 16:29:27.89	258.10	19.24	-38.3	-39.2	23.4	0.00e+00	0	29	0	1088421888	50	5853
2026-01-26 16:29:28.90	257.96	19.13	-38.2	-39.0	23.6	0.00e+00	0	29	0	1090519040	50	5753
2026-01-26 16:29:29.91	257.83	19.03	-38.1	-38.9	23.7	0.00e+00	0	29	0	1092616192	50	5666
2026-01-26 16:29:30.92	257.69	18.92	-37.7	-38.5	23.8	0.00e+00	26	29	0	1093664768	48	6062
2026-01-26 16:29:31.93	257.55	18.82	-37.8	-38.6	23.9	0.00e+00	0	29	0	1095761920	48	6141
2026-01-26 16:29:32.94	257.41	18.72	-37.9	-38.8	23.7	0.00e+00	23	29	0	1097859072	48	6281
2026-01-26 16:29:33.95	257.28	18.61	-38.5	-39.4	23.3	0.00e+00	0	29	0	1099956224	48	6715
2026-01-26 16:29:34.96	257.15	18.51	-38.3	-39.1	23.4	0.00e+00	73	29	0	1102053376	48	6537
2026-01-26 16:29:35.97	257.01	18.40	-38.5	-39.4	23.2	0.00e+00	0	29	0	1104150528	48	6745
2026-01-26 16:29:36.98	256.88	18.30	-38.7	-39.6	23.0	0.00e+00	0	29	0	1105199104	48	6892
2026-01-26 16:29:37.99	256.75	18.20	-39.2	-40.2	22.6	0.00e+00	0	29	0	1107296256	50	6548
2026-01-26 16:29:39.00	256.62	18.09	-39.6	-40.6	22.2	0.00e+00	0	29	0	1109393408	50	6864
2026-01-26 16:29:40.01	256.49	17.99	-40.2	-41.3	21.7	0.00e+00	40	29	0	1111490560	52	6690
2026-01-26 16:29:41.02	256.36	17.89	-40.9	-42.1	20.9	0.00e+00	0	29	0	1113587712	54	6539
2026-01-26 16:29:42.03	256.23	17.79	-41.5	-42.8	20.3	0.00e+00	47	29	0	1114636288	54	7025
2026-01-26 16:29:43.04	256.11	17.69	-41.8	-43.2	20.2	0.00e+00	0	29	0	1116733440	56	6578
2026-01-26 16:29:44.05	255.98	17.59	-41.6	-43.0	20.3	0.00e+00	0	29	0	1118830592	56	6412
2026-01-26 16:29:45.06	255.86	17.48	-41.8	-43.1	20.2	0.00e+00	0	29	0	1120927744	56	6529
2026-01-26 16:29:46.07	255.73	17.38	-41.4	-42.7	20.6	0.00e+00	0	29	0	1123024896	56	6175
2026-01-26 16:29:47.08	255.61	17.28	-40.9	-42.1	21.1	0.00e+00	6	29	0	1124073472	56	5790
2026-01-26 16:29:48.09	255.49	17.18	-39.9	-41.0	22.0	0.00e+00	0	29	0	1126170624	54	5704
2026-01-26 16:29:49.10	255.36	17.08	-39.5	-40.5	22.2	0.00e+00	54	29	0	1128267776	52	6051
2026-01-26 16:29:50.11	255.24	16.98	-39.4	-40.4	22.5	0.00e+00	0	29	0	1130364928	52	5983
2026-01-26 16:29:51.12	255.12	16.88	-38.9	-39.9	22.8	0.00e+00	1	29	0	1132462080	52	5643
2026-01-26 16:29:52.12	255.01	16.79	-39.1	-40.0	22.7	0.00e+00	0	29	0	1133510656	52	5750
2026-01-26 16:29:53.13	254.89	16.69	-39.0	-40.0	22.8	0.00e+00	0	29	0	1135607808	52	5720
2026-01-26 16:29:54.14	254.77	16.59	-39.1	-40.1	22.5	0.00e+00	23	29	0	1137704960	52	5825
2026-01-26 16:29:55.15	254.65	16.49	-39.5	-40.6	22.2	0.00e+00	8	29	0	1139802112	52	6118
2026-01-26 16:29:56.16	254.54	16.39	-40.0	-41.1	21.8	0.00e+00	71	29	0	1141899264	52	6487
2026-01-26 16:29:57.17	254.42	16.29	-40.3	-41.4	21.5	0.00e+00	0	29	0	1142947840	52	6724
2026-01-26 16:29:58.18	254.31	16.20	-40.7	-41.9	21.1	0.00e+00	63	29	0	1145044992	52	7123
2026-01-26 16:29:59.19	254.19	16.10	-40.6	-41.8	21.1	0.00e+00	0	29	0	1147142144	54	6308
2026-01-26 16:30:00.20	254.08	16.00	-40.5	-41.6	21.3	0.00e+00	0	29	0	1149239296	54	6164
2026-01-26 16:30:01.21	253.97	15.91	-40.1	-41.2	21.7	0.00e+00	9	29	0	1151336448	54	5837
2026-01-26 16:30:02.22	253.86	15.81	-40.1	-41.2	21.8	0.00e+00	0	29	0	1152385024	54	5867
2026-01-26 16:30:03.23	253.75	15.71	-39.8	-40.8	21.5	0.00e+00	71	29	0	1154482176	54	5628
2026-01-26 16:30:04.23	253.64	15.62	-39.7	-40.7	22.2	0.00e+00	0	29	0	1156579328	52	6206
2026-01-26 16:30:05.24	253.53	15.52	-39.5	-40.5	22.3	0.00e+00	51	29	0	1158676480	52	6098
2026-01-26 16:30:06.25	253.42	15.43	-39.6	-40.6	22.3	0.00e+00	0	29	0	1160773632	52	6152
2026-01-26 16:30:07.26	253.31	15.33	-39.6	-40.6	22.2	0.00e+00	0	29	0	1161822208	52	6130
2026-01-26 16:30:08.27	253.20	15.24	-39.9	-41.0	21.9	0.00e+00	0	29	0	1163919360	52	6442
2026-01-26 16:30:09.28	253.10	15.14	-39.8	-40.9	22.0	0.00e+00	0	29	0	1166016512	52	6333
2026-01-26 16:30:10.29	252.99	15.05	-39.7	-40.7	22.0	0.00e+00	92	29	0	1168113664	52	6222
2026-01-26 16:30:11.30	252.89	14.95	-39.9	-40.9	22.0	0.00e+00	0	29	0	1170210816	52	6388
2026-01-26 16:30:12.31	252.78	14.86	-40.0	-41.1	21.7	0.00e+00	92	29	0	1172307968	52	6500
2026-01-26 16:30:13.32	252.68	14.77	-40.2	-41.3	21.7	0.00e+00	0	29	0	1173356544	52	6661
2026-01-26 16:30:14.33	252.57	14.67	-40.2	-41.3	21.6	0.00e+00	0	29	0	1175453696	52	6653
2026-01-26 16:30:15.34	252.47	14.58	-40.3	-41.4	21.6	0.00e+00	0	29	0	1177550848	52	6702
2026-01-26 16:30:16.35	252.37	14.49	-40.4	-41.5	21.6	0.00e+00	0	29	0	1179648000	52	6823
2026-01-26 16:30:17.35	252.27	14.40	-40.4	-41.5	21.4	0.00e+00	25	29	0	1181745152	52	6806
2026-01-26 16:30:18.36	252.17	14.30	-40.5	-41.7	21.3	0.00e+00	0	29	0	1182793728	52	6931
2026-01-26 16:30:19.37	252.07	14.21	-40.6	-41.7	21.2	0.00e+00	90	29	0	1184890880	52	6968
2026-01-26 16:30:20.38	251.97	14.12	-40.6	-41.7	21.2	0.00e+00	0	29	0	1186988032	52	6981
2026-01-26 16:30:21.39	251.87	14.03	-40.6	-41.8	21.1	0.00e+00	0	29	0	1189085184	54	6271
2026-01-26 16:30:22.40	251.77	13.94	-40.6	-41.7	21.3	0.00e+00	0	29	0	1191182336	54	6234
2026-01-26 16:30:23.41	251.68	13.85	-40.7	-41.9	21.0	0.00e+00	0	29	0	1192230912	54	6333
2026-01-26 16:30:24.42	251.58	13.76	-40.6	-41.8	21.2	0.00e+00	18	29	0	1194328064	54	6279
2026-01-26 16:30:25.43	251.48	13.67	-40.4	-41.6	21.3	0.00e+00	0	29	0	1196425216	54	6134
2026-01-26 16:30:26.44	251.39	13.58	-40.0	-41.1	21.8	0.00e+00	91	29	0	1198522368	54	5766
2026-01-26 16:30:27.45	251.29	13.49	-39.9	-41.0	21.8	0.00e+00	0	29	0	1200619520	54	5719
2026-01-26 16:30:28.46	251.20	13.40	-39.7	-40.8	22.0	0.00e+00	5	29	0	1201668096	52	6254
