passes_logs/2026/01/26/R4.6S_Anadyr/R4.6S_Anadyr__20260126_214529_TY-42_rec.log

#Pass ID: 20260126_214529_TY-42
#Satellite: TY-42
#Configuration: TY-42_900M
#almurnet v.1.7.20251203
#Start time: 2026-01-26 21:46:01

#Version: 2.2.20231116
#Station: R4.6S_Anadyr
#Location: 177.4865 lon 64.73178 lat
#TLE: 1 64048U 25103A   26026.63109954  .00008012  00000-0  38191-3 0 09992
#TLE: 2 64048 097.4117 101.8302 0001725 091.3579 298.9652 15.19176186 38587

#Time	Az	El	Level	Level2	SNR	BER	BlckErr	Temp	State	Recorded	gain1	gain2
2026-01-26 21:46:01.97	25.69	1.72	-49.2	-64.1	3.5	1.51e+00	0	26	0	0	60	58245
2026-01-26 21:46:02.98	25.79	1.77	-47.7	-50.2	6.1	0.00e+00	0	27	104	0	60	39824
2026-01-26 21:46:03.99	25.90	1.83	-47.7	-50.2	6.1	0.00e+00	0	27	104	0	60	39456
2026-01-26 21:46:05.00	26.00	1.89	-47.7	-50.2	6.1	0.00e+00	0	27	104	0	60	39699
2026-01-26 21:46:06.01	26.11	1.95	-47.7	-50.2	6.1	0.00e+00	0	27	104	0	60	39707
2026-01-26 21:46:07.02	26.21	2.00	-47.7	-50.2	6.1	0.00e+00	0	27	104	0	60	39720
2026-01-26 21:46:08.03	26.32	2.06	-47.7	-50.2	6.1	0.00e+00	0	27	104	0	60	39484
2026-01-26 21:46:09.04	26.42	2.12	-47.7	-50.2	6.1	0.00e+00	0	27	104	0	60	39531
2026-01-26 21:46:10.05	26.53	2.18	-47.7	-50.2	6.1	0.00e+00	0	28	104	0	60	39723
2026-01-26 21:46:11.06	26.64	2.23	-47.7	-50.2	6.1	0.00e+00	0	28	104	0	60	39790
2026-01-26 21:46:12.07	26.75	2.29	-47.7	-50.2	6.1	0.00e+00	0	28	104	0	60	39595
2026-01-26 21:46:13.08	26.85	2.35	-47.7	-50.2	6.1	0.00e+00	0	28	104	0	60	39684
2026-01-26 21:46:14.09	26.96	2.41	-47.7	-50.2	6.1	0.00e+00	0	28	104	0	60	39647
2026-01-26 21:46:15.10	27.07	2.46	-47.7	-50.2	6.1	0.00e+00	0	28	104	0	60	39708
2026-01-26 21:46:16.11	27.18	2.52	-47.7	-50.2	6.1	0.00e+00	0	28	104	0	60	39590
2026-01-26 21:46:17.12	27.29	2.58	-47.7	-50.2	6.1	0.00e+00	0	28	104	0	60	39491
2026-01-26 21:46:18.13	27.40	2.64	-47.7	-50.2	6.1	0.00e+00	0	28	104	0	60	39611
2026-01-26 21:46:19.14	27.51	2.70	-47.7	-50.2	6.1	0.00e+00	0	28	104	0	60	39569
2026-01-26 21:46:20.15	27.63	2.76	-47.7	-50.2	6.1	0.00e+00	0	28	104	0	60	39620
2026-01-26 21:46:21.16	27.74	2.81	-47.7	-50.2	6.1	0.00e+00	0	28	104	0	60	39607
2026-01-26 21:46:22.17	27.85	2.87	-47.7	-50.2	6.1	0.00e+00	0	28	104	0	60	39818
2026-01-26 21:46:23.18	27.97	2.93	-47.7	-50.2	6.1	0.00e+00	0	28	104	0	60	39512
2026-01-26 21:46:24.19	28.08	2.99	-47.7	-50.2	6.1	0.00e+00	0	28	104	0	60	39657
2026-01-26 21:46:25.20	28.19	3.05	-47.7	-50.2	6.1	0.00e+00	0	28	104	0	60	39546
2026-01-26 21:46:26.21	28.31	3.11	-47.7	-50.2	6.1	0.00e+00	0	28	104	0	60	39510
2026-01-26 21:46:27.22	28.43	3.17	-47.7	-50.2	6.1	0.00e+00	0	28	104	0	60	39650
2026-01-26 21:46:28.24	28.54	3.23	-47.7	-50.2	6.1	0.00e+00	0	28	104	0	60	39466
2026-01-26 21:46:29.25	28.66	3.29	-47.7	-50.2	6.1	0.00e+00	0	28	104	0	60	39741
2026-01-26 21:46:30.26	28.78	3.35	-47.7	-50.3	6.1	0.00e+00	0	28	104	0	60	39904
2026-01-26 21:46:31.26	28.90	3.40	-47.5	-50.0	6.0	0.00e+00	0	28	104	0	60	38804
2026-01-26 21:46:32.27	29.01	3.46	-47.6	-50.1	6.1	0.00e+00	0	28	104	0	60	39321
2026-01-26 21:46:33.28	29.13	3.52	-47.7	-50.1	6.1	0.00e+00	0	28	104	0	60	39364
2026-01-26 21:46:34.28	29.25	3.58	-47.9	-50.5	6.1	0.00e+00	0	28	104	0	60	40803
2026-01-26 21:46:35.29	29.37	3.64	-47.9	-50.3	6.1	0.00e+00	0	28	104	0	60	40317
2026-01-26 21:46:36.30	29.49	3.70	-47.6	-50.1	6.1	0.00e+00	0	28	104	0	60	39094
2026-01-26 21:46:37.31	29.62	3.76	-47.8	-50.2	6.1	0.00e+00	0	28	104	0	60	39809
2026-01-26 21:46:38.32	29.74	3.82	-47.9	-50.4	6.1	0.00e+00	0	28	104	0	60	40409
2026-01-26 21:46:39.33	29.86	3.88	-48.0	-50.5	6.1	0.00e+00	0	28	104	0	60	40886
2026-01-26 21:46:40.34	29.98	3.94	-47.9	-50.4	6.1	0.00e+00	0	28	104	0	60	40552
2026-01-26 21:46:41.35	30.11	4.00	-47.9	-50.3	6.0	0.00e+00	0	28	104	0	60	40236
2026-01-26 21:46:42.36	30.23	4.06	-47.9	-50.4	6.1	0.00e+00	0	28	104	0	60	40785
2026-01-26 21:46:43.37	30.36	4.12	-48.0	-50.5	6.1	0.00e+00	0	28	104	0	60	40843
2026-01-26 21:46:44.38	30.49	4.18	-47.9	-50.4	6.1	0.00e+00	0	28	104	0	60	40364
2026-01-26 21:46:45.39	30.61	4.24	-47.8	-50.3	6.1	0.00e+00	0	28	104	0	60	40231
2026-01-26 21:46:46.39	30.74	4.30	-47.9	-50.5	6.1	0.00e+00	0	28	104	0	60	40873
2026-01-26 21:46:47.40	30.87	4.37	-47.8	-50.3	6.0	0.00e+00	0	28	104	0	60	40122
2026-01-26 21:46:48.41	31.00	4.43	-47.9	-50.4	6.1	0.00e+00	0	28	104	0	60	40594
2026-01-26 21:46:49.42	31.12	4.49	-47.8	-50.2	6.1	0.00e+00	0	28	104	0	60	39790
2026-01-26 21:46:50.43	31.25	4.55	-48.1	-50.5	6.1	0.00e+00	0	28	104	0	60	41138
2026-01-26 21:46:51.44	31.39	4.61	-48.0	-50.5	6.1	0.00e+00	0	28	104	0	60	41154
2026-01-26 21:46:52.45	31.52	4.67	-47.7	-50.2	6.1	0.00e+00	0	28	104	0	60	39582
2026-01-26 21:46:53.46	31.65	4.73	-48.1	-50.5	6.1	0.00e+00	0	28	104	0	60	41198
2026-01-26 21:46:54.47	31.78	4.79	-48.2	-50.7	6.1	0.00e+00	0	28	104	0	60	41821
2026-01-26 21:46:55.48	31.91	4.85	-47.9	-50.5	6.1	0.00e+00	0	28	104	0	60	40803
2026-01-26 21:46:56.49	32.05	4.92	-48.1	-50.6	6.1	0.00e+00	0	28	104	0	60	41379
2026-01-26 21:46:57.49	32.18	4.98	-48.1	-50.7	6.1	0.00e+00	0	29	104	0	60	41756
2026-01-26 21:46:58.50	32.32	5.04	-48.2	-50.7	6.1	0.00e+00	0	29	104	0	60	42139
2026-01-26 21:46:59.51	32.45	5.10	-48.3	-50.7	6.1	0.00e+00	0	29	104	0	60	42102
2026-01-26 21:47:00.52	32.59	5.16	-48.1	-50.6	6.1	0.00e+00	0	29	104	0	60	41540
2026-01-26 21:47:01.53	32.73	5.22	-48.2	-50.7	6.1	0.00e+00	0	29	104	0	60	41795
2026-01-26 21:47:02.54	32.87	5.29	-48.3	-50.8	6.1	0.00e+00	0	29	104	0	60	42370
2026-01-26 21:47:03.54	33.00	5.35	-48.3	-50.8	6.1	0.00e+00	0	29	104	0	60	42505
2026-01-26 21:47:04.55	33.14	5.41	-48.0	-50.5	6.1	0.00e+00	0	29	104	0	60	41221
2026-01-26 21:47:05.55	33.28	5.47	-48.3	-50.8	6.1	0.00e+00	0	28	104	0	60	42651
2026-01-26 21:47:06.56	33.42	5.53	-48.2	-50.7	6.1	0.00e+00	0	28	104	0	60	41871
2026-01-26 21:47:07.57	33.56	5.60	-48.3	-50.8	6.1	0.00e+00	0	29	104	0	60	42423
2026-01-26 21:47:08.57	33.71	5.66	-43.5	-44.4	7.5	0.00e+00	0	29	104	0	60	20354
2026-01-26 21:47:09.59	33.85	5.72	-31.1	-31.5	14.1	0.00e+00	0	29	0	16777216	36	18393
2026-01-26 21:47:10.60	33.99	5.78	-34.7	-34.9	11.1	0.00e+00	30	29	104	41943040	50	12137
2026-01-26 21:47:11.61	34.14	5.85	-30.4	-30.7	15.2	0.00e+00	1014	29	0	41943040	36	16648
2026-01-26 21:47:12.62	34.29	5.91	-30.5	-31.0	14.9	1.29e-02	0	29	0	150994944	36	17240
2026-01-26 21:47:13.63	34.43	5.97	-30.8	-31.3	15.0	1.29e-02	0	29	0	268435456	36	17867
2026-01-26 21:47:14.64	34.58	6.03	-29.2	-29.7	15.9	5.50e-03	0	29	0	385875968	34	16705
2026-01-26 21:47:15.65	34.73	6.10	-30.8	-31.3	15.2	5.50e-03	0	29	0	494927872	34	20121
2026-01-26 21:47:16.66	34.87	6.16	-28.7	-29.2	15.9	5.50e-03	0	29	0	612368384	32	17618
2026-01-26 21:47:17.67	35.02	6.22	-28.6	-29.1	16.0	1.53e-03	0	29	0	721420288	32	17513
2026-01-26 21:47:18.67	35.17	6.29	-28.8	-29.3	16.0	1.53e-03	0	29	0	830472192	32	17871
2026-01-26 21:47:19.68	35.32	6.35	-28.3	-28.7	16.2	7.74e-04	0	29	0	947912704	32	16762
2026-01-26 21:47:20.69	35.48	6.41	-28.0	-28.5	16.3	7.74e-04	0	29	0	1065353216	32	16247
2026-01-26 21:47:21.70	35.63	6.48	-28.1	-28.6	16.2	3.43e-04	0	29	0	1174405120	32	16503
2026-01-26 21:47:22.71	35.78	6.54	-27.9	-28.4	16.3	3.43e-04	0	29	0	1291845632	32	16124
2026-01-26 21:47:23.72	35.94	6.60	-27.5	-28.0	16.5	3.11e-04	0	29	0	1400897536	30	17252
2026-01-26 21:47:24.73	36.09	6.67	-27.3	-27.8	16.5	3.11e-04	0	29	0	1518338048	30	16810
2026-01-26 21:47:25.74	36.25	6.73	-27.3	-27.8	16.5	3.11e-04	0	29	0	1635778560	30	16868
2026-01-26 21:47:26.75	36.40	6.79	-27.3	-27.8	16.5	1.47e-04	0	29	0	1744830464	30	16857
2026-01-26 21:47:27.76	36.56	6.86	-27.9	-28.4	16.3	1.47e-04	0	29	0	1853882368	30	18076
2026-01-26 21:47:28.77	36.72	6.92	-27.4	-27.9	16.4	1.47e-04	0	29	0	1971322880	30	17035
2026-01-26 21:47:29.78	36.88	6.98	-27.4	-27.9	16.4	1.47e-04	0	29	0	2080374784	30	17116
2026-01-26 21:47:30.79	37.04	7.05	-27.4	-27.8	16.5	1.69e-04	0	29	0	2197815296	30	17001
2026-01-26 21:47:31.80	37.20	7.11	-27.0	-27.5	16.6	1.69e-04	0	29	0	2315255808	30	16330
2026-01-26 21:47:32.81	37.36	7.18	-27.1	-27.5	16.6	1.14e-04	0	29	0	2424307712	30	16368
2026-01-26 21:47:33.82	37.52	7.24	-26.7	-27.2	16.7	1.14e-04	0	29	0	2541748224	28	17705
2026-01-26 21:47:34.83	37.69	7.30	-26.8	-27.3	16.6	1.14e-04	0	29	0	2650800128	28	17888
2026-01-26 21:47:35.84	37.85	7.37	-26.6	-27.0	16.7	4.35e-05	0	29	0	2768240640	28	17378
2026-01-26 21:47:36.85	38.02	7.43	-26.6	-27.1	16.7	4.35e-05	0	29	0	2885681152	28	17444
2026-01-26 21:47:37.86	38.18	7.50	-26.5	-27.0	16.7	5.99e-05	0	29	0	2994733056	28	17341
2026-01-26 21:47:38.87	38.35	7.56	-26.6	-27.1	16.7	5.99e-05	0	29	0	3103784960	28	17405
2026-01-26 21:47:39.88	38.52	7.62	-26.7	-27.2	16.7	5.99e-05	0	29	0	3221225472	28	17703
2026-01-26 21:47:40.88	38.68	7.69	-26.7	-27.2	16.5	3.26e-05	0	29	0	3330277376	28	17798
2026-01-26 21:47:41.89	38.85	7.75	-26.5	-27.0	16.5	3.26e-05	0	29	0	3447717888	28	17392
2026-01-26 21:47:42.90	39.02	7.82	-26.4	-26.9	16.5	7.62e-05	0	29	0	3565158400	28	17149
2026-01-26 21:47:43.91	39.20	7.88	-26.7	-27.2	16.3	7.62e-05	0	29	0	3674210304	28	17623
2026-01-26 21:47:44.92	39.37	7.95	-26.2	-26.7	16.5	7.62e-05	0	29	0	3783262208	28	16630
2026-01-26 21:47:45.93	39.54	8.01	-26.1	-26.5	16.6	8.17e-05	0	29	0	3900702720	28	16419
2026-01-26 21:47:46.94	39.72	8.07	-26.0	-26.5	16.7	8.17e-05	0	29	0	4018143232	28	16241
2026-01-26 21:47:47.95	39.89	8.14	-25.9	-26.4	16.7	5.44e-05	0	29	0	4127195136	28	16144
2026-01-26 21:47:48.96	40.07	8.20	-26.0	-26.5	16.8	5.44e-05	0	29	0	4244635648	28	16282
2026-01-26 21:47:49.97	40.24	8.27	-26.2	-26.7	16.8	2.17e-05	0	29	0	4353687552	28	16679
2026-01-26 21:47:50.97	40.42	8.33	-26.2	-26.6	16.8	2.17e-05	0	29	0	4471128064	28	16592
2026-01-26 21:47:51.98	40.60	8.40	-25.8	-26.3	16.9	2.17e-05	0	30	0	4580179968	26	17818
2026-01-26 21:47:52.99	40.78	8.46	-25.8	-26.2	17.0	2.17e-05	0	30	0	4697620480	26	17797
2026-01-26 21:47:54.00	40.96	8.53	-25.8	-26.3	16.9	2.17e-05	0	29	0	4815060992	26	17930
2026-01-26 21:47:55.01	41.14	8.59	-26.0	-26.5	16.9	2.17e-05	0	29	0	4924112896	26	18301
2026-01-26 21:47:56.01	41.32	8.65	-25.9	-26.4	16.8	5.40e-06	0	30	0	5033164800	26	18091
2026-01-26 21:47:57.02	41.51	8.72	-26.0	-26.5	16.7	5.40e-06	0	30	0	5150605312	26	18323
2026-01-26 21:47:58.03	41.69	8.78	-25.7	-26.2	16.9	1.08e-05	0	30	0	5259657216	26	17622
2026-01-26 21:47:59.04	41.88	8.85	-25.6	-26.1	17.0	1.08e-05	0	30	0	5377097728	26	17464
2026-01-26 21:48:00.05	42.06	8.91	-25.8	-26.3	17.0	1.08e-05	0	30	0	5494538240	26	17820
2026-01-26 21:48:01.06	42.25	8.98	-25.6	-26.1	17.0	5.40e-06	0	29	0	5603590144	26	17598
2026-01-26 21:48:02.07	42.44	9.04	-25.6	-26.1	17.0	5.40e-06	0	29	0	5712642048	26	17423
2026-01-26 21:48:03.08	42.63	9.11	-25.6	-26.1	17.0	0.00e+00	0	30	0	5830082560	26	17451
2026-01-26 21:48:04.09	42.82	9.17	-25.4	-25.9	17.0	0.00e+00	0	30	0	5947523072	26	17184
2026-01-26 21:48:05.10	43.01	9.23	-25.4	-25.9	17.0	0.00e+00	0	30	0	6056574976	26	17145
2026-01-26 21:48:06.10	43.20	9.30	-25.6	-26.1	17.0	1.08e-05	0	29	0	6174015488	26	17456
2026-01-26 21:48:07.11	43.40	9.36	-25.5	-26.0	16.9	1.08e-05	0	30	0	6283067392	26	17276
2026-01-26 21:48:08.12	43.59	9.43	-25.4	-25.9	16.9	1.63e-05	0	30	0	6400507904	26	17160
2026-01-26 21:48:09.13	43.79	9.49	-25.2	-25.8	17.0	1.63e-05	0	30	0	6509559808	26	16831
2026-01-26 21:48:10.14	43.98	9.56	-25.4	-25.9	16.9	1.08e-05	0	30	0	6627000320	26	17134
2026-01-26 21:48:11.15	44.18	9.62	-25.4	-25.9	16.9	1.08e-05	0	29	0	6744440832	26	17117
2026-01-26 21:48:12.16	44.38	9.69	-25.7	-26.2	16.9	5.40e-06	0	29	0	6853492736	26	17800
2026-01-26 21:48:13.17	44.58	9.75	-25.5	-26.0	17.0	5.40e-06	0	30	0	6962544640	26	17301
2026-01-26 21:48:14.18	44.78	9.81	-25.6	-26.1	17.0	0.00e+00	0	30	0	7079985152	26	17448
2026-01-26 21:48:15.19	44.98	9.88	-25.4	-25.9	17.1	0.00e+00	0	29	0	7197425664	26	17147
2026-01-26 21:48:16.20	45.19	9.94	-25.5	-26.0	17.0	0.00e+00	0	30	0	7306477568	26	17340
2026-01-26 21:48:17.20	45.39	10.01	-25.2	-25.7	17.0	0.00e+00	0	30	0	7423918080	26	16630
2026-01-26 21:48:18.21	45.59	10.07	-25.4	-25.9	16.9	0.00e+00	0	30	0	7532969984	26	17067
2026-01-26 21:48:19.22	45.80	10.13	-25.3	-25.8	16.9	0.00e+00	0	30	0	7642021888	26	16855
2026-01-26 21:48:20.23	46.01	10.20	-25.2	-25.7	16.9	0.00e+00	0	30	0	7759462400	26	16755
2026-01-26 21:48:21.24	46.22	10.26	-25.2	-25.7	16.9	0.00e+00	0	30	0	7876902912	26	16748
2026-01-26 21:48:22.25	46.43	10.32	-25.1	-25.6	16.9	0.00e+00	0	29	0	7985954816	26	16563
2026-01-26 21:48:23.26	46.64	10.39	-25.3	-25.8	16.9	1.63e-05	0	30	0	8103395328	26	16945
2026-01-26 21:48:24.27	46.85	10.45	-25.0	-25.5	16.9	1.63e-05	0	30	0	8212447232	26	16393
2026-01-26 21:48:25.28	47.06	10.52	-25.1	-25.6	16.8	1.63e-05	0	30	0	8329887744	26	16506
2026-01-26 21:48:26.29	47.28	10.58	-25.1	-25.6	16.8	5.40e-06	0	29	0	8447328256	26	16533
2026-01-26 21:48:27.30	47.49	10.64	-25.2	-25.7	16.8	5.40e-06	0	30	0	8556380160	26	16782
2026-01-26 21:48:28.31	47.71	10.71	-25.2	-25.7	16.9	1.63e-05	0	30	0	8673820672	26	16641
2026-01-26 21:48:29.32	47.93	10.77	-24.9	-25.4	17.0	1.63e-05	0	30	0	8782872576	26	16137
2026-01-26 21:48:30.33	48.14	10.83	-25.0	-25.5	17.0	1.63e-05	0	30	0	8891924480	26	16364
2026-01-26 21:48:31.34	48.36	10.89	-25.0	-25.6	17.0	0.00e+00	0	30	0	9009364992	26	16443
2026-01-26 21:48:32.34	48.58	10.96	-25.1	-25.6	17.0	0.00e+00	0	30	0	9126805504	26	16526
2026-01-26 21:48:33.35	48.80	11.02	-24.9	-25.4	17.1	0.00e+00	0	30	0	9235857408	26	16127
2026-01-26 21:48:34.36	49.03	11.08	-25.0	-25.6	17.0	5.40e-06	0	30	0	9353297920	26	16462
2026-01-26 21:48:35.37	49.25	11.14	-25.0	-25.5	17.0	5.40e-06	0	30	0	9462349824	26	16315
2026-01-26 21:48:36.37	49.47	11.21	-24.9	-25.4	17.1	0.00e+00	0	30	0	9571401728	26	16098
2026-01-26 21:48:37.38	49.70	11.27	-25.0	-25.5	17.0	0.00e+00	0	30	0	9688842240	26	16358
2026-01-26 21:48:38.39	49.93	11.33	-25.1	-25.6	16.9	0.00e+00	0	30	0	9806282752	26	16442
2026-01-26 21:48:39.40	50.16	11.39	-25.1	-25.6	16.8	0.00e+00	0	30	0	9915334656	26	16483
2026-01-26 21:48:40.41	50.39	11.45	-25.0	-25.5	16.7	5.40e-06	0	30	0	10032775168	26	16342
2026-01-26 21:48:41.42	50.62	11.52	-24.8	-25.3	16.9	5.40e-06	0	30	0	10141827072	24	17870
2026-01-26 21:48:42.43	50.85	11.58	-24.9	-25.4	16.9	5.40e-06	0	30	0	10259267584	24	18032
2026-01-26 21:48:43.44	51.08	11.64	-24.7	-25.2	16.9	5.40e-06	0	30	0	10376708096	24	17768
2026-01-26 21:48:44.45	51.32	11.70	-24.5	-25.0	16.8	0.00e+00	0	30	0	10485760000	24	17240
2026-01-26 21:48:45.46	51.55	11.76	-47.9	-50.5	6.1	0.00e+00	0	30	104	10561257472	60	41060
2026-01-26 21:48:46.47	51.79	11.82	-48.7	-51.2	6.0	0.00e+00	0	30	104	10561257472	60	44467
2026-01-26 21:48:47.48	52.03	11.88	-48.8	-51.3	6.1	0.00e+00	0	29	104	10561257472	60	44922
2026-01-26 21:48:48.48	52.26	11.94	-48.5	-51.0	6.1	0.00e+00	0	29	104	10561257472	60	43651
2026-01-26 21:48:49.49	52.50	12.00	-48.6	-51.1	6.1	0.00e+00	0	30	104	10561257472	60	43986
2026-01-26 21:48:50.50	52.75	12.06	-48.7	-51.2	6.1	0.00e+00	0	29	104	10561257472	60	44286
2026-01-26 21:48:51.51	52.99	12.12	-48.6	-51.1	6.1	0.00e+00	0	29	104	10561257472	60	44079
2026-01-26 21:48:52.52	53.23	12.18	-48.8	-51.3	6.1	0.00e+00	0	29	104	10561257472	60	44972
2026-01-26 21:48:53.53	53.48	12.24	-47.8	-50.5	6.1	0.00e+00	0	30	104	10561257472	60	41136
2026-01-26 21:48:54.54	53.72	12.30	-48.2	-50.8	6.1	0.00e+00	0	30	104	10561257472	60	42353
2026-01-26 21:48:55.55	53.97	12.36	-48.9	-51.4	6.1	0.00e+00	0	29	104	10561257472	60	45248
2026-01-26 21:48:56.56	54.22	12.42	-48.7	-51.2	6.1	0.00e+00	0	29	104	10561257472	60	44706
2026-01-26 21:48:57.57	54.47	12.48	-48.8	-51.3	6.1	0.00e+00	0	29	104	10561257472	60	44958
2026-01-26 21:48:58.58	54.72	12.53	-48.8	-51.3	6.1	0.00e+00	0	30	104	10561257472	60	44971
2026-01-26 21:48:59.59	54.97	12.59	-47.7	-50.3	6.1	0.00e+00	0	29	104	10561257472	60	40297
2026-01-26 21:49:00.60	55.22	12.65	-48.6	-51.2	6.1	0.00e+00	0	29	104	10561257472	60	44275
2026-01-26 21:49:01.60	55.48	12.71	-48.8	-51.3	6.1	0.00e+00	0	29	104	10561257472	60	44914
2026-01-26 21:49:02.62	55.73	12.76	-48.4	-50.9	6.1	0.00e+00	0	30	104	10561257472	60	43191
2026-01-26 21:49:03.62	55.99	12.82	-48.4	-51.0	6.1	0.00e+00	0	29	104	10561257472	60	43283
2026-01-26 21:49:04.63	56.25	12.88	-47.0	-49.7	6.1	0.00e+00	0	29	104	10561257472	60	37343
2026-01-26 21:49:05.64	56.50	12.93	-47.7	-50.4	6.1	0.00e+00	0	29	104	10561257472	60	40476
2026-01-26 21:49:06.65	56.76	12.99	-48.9	-51.4	6.1	0.00e+00	0	29	104	10561257472	60	45703
2026-01-26 21:49:07.66	57.03	13.04	-48.9	-51.4	6.1	0.00e+00	0	30	104	10561257472	60	45267
2026-01-26 21:49:08.67	57.29	13.10	-48.6	-51.2	6.1	0.00e+00	0	29	104	10561257472	60	44352
2026-01-26 21:49:09.68	57.55	13.16	-48.5	-51.1	6.1	0.00e+00	0	29	104	10561257472	60	43915
2026-01-26 21:49:10.69	57.82	13.21	-48.3	-50.9	6.1	0.00e+00	0	29	104	10561257472	60	42938
2026-01-26 21:49:11.70	58.08	13.26	-48.8	-51.3	6.1	0.00e+00	0	30	104	10561257472	60	45127
2026-01-26 21:49:12.71	58.35	13.32	-48.8	-51.3	6.1	0.00e+00	0	30	104	10561257472	60	45156
2026-01-26 21:49:13.72	58.62	13.37	-48.7	-51.2	6.1	0.00e+00	0	29	104	10561257472	60	44515
2026-01-26 21:49:14.73	58.89	13.43	-48.9	-51.4	6.1	0.00e+00	0	29	104	10561257472	60	45326
2026-01-26 21:49:15.74	59.16	13.48	-48.7	-51.2	6.1	0.00e+00	0	29	104	10561257472	60	44285
2026-01-26 21:49:16.75	59.43	13.53	-48.9	-51.3	6.1	0.00e+00	0	29	104	10561257472	60	45123
2026-01-26 21:49:17.76	59.70	13.58	-48.4	-50.9	6.1	0.00e+00	0	29	104	10561257472	60	43159
2026-01-26 21:49:18.76	59.97	13.63	-48.2	-50.8	6.1	0.00e+00	0	29	104	10561257472	60	42567
2026-01-26 21:49:19.78	60.25	13.69	-47.8	-50.5	6.1	0.00e+00	0	29	104	10561257472	60	40835
2026-01-26 21:49:20.78	60.52	13.74	-48.7	-51.2	6.1	0.00e+00	0	29	104	10561257472	60	44462
2026-01-26 21:49:21.79	60.80	13.79	-46.4	-49.2	6.2	0.00e+00	0	29	104	10561257472	60	35132
2026-01-26 21:49:22.80	61.08	13.84	-48.4	-51.0	6.1	0.00e+00	0	29	104	10561257472	60	43216
2026-01-26 21:49:23.81	61.36	13.89	-46.3	-49.1	6.2	0.00e+00	0	29	104	10561257472	60	34931
2026-01-26 21:49:24.82	61.64	13.94	-46.4	-49.1	6.2	0.00e+00	0	29	104	10561257472	60	35069
2026-01-26 21:49:25.83	61.92	13.99	-47.8	-50.5	6.1	0.00e+00	0	29	104	10561257472	60	41061
2026-01-26 21:49:26.84	62.20	14.03	-47.9	-50.6	6.1	0.00e+00	0	29	104	10561257472	60	41636
2026-01-26 21:49:27.85	62.49	14.08	-45.5	-48.3	6.4	0.00e+00	0	29	104	10561257472	60	32013
2026-01-26 21:49:28.86	62.77	14.13	-45.0	-47.9	6.4	0.00e+00	0	29	104	10561257472	60	30250
2026-01-26 21:49:29.86	63.06	14.18	-48.5	-51.1	6.1	0.00e+00	0	29	104	10561257472	60	44001
2026-01-26 21:49:30.88	63.34	14.22	-48.2	-50.8	6.1	0.00e+00	0	29	104	10561257472	60	42253
2026-01-26 21:49:31.89	63.63	14.27	-48.9	-51.4	6.0	0.00e+00	0	29	104	10561257472	60	45518
2026-01-26 21:49:32.90	63.92	14.32	-48.3	-50.9	6.1	0.00e+00	0	29	104	10561257472	60	42976
2026-01-26 21:49:33.91	64.21	14.36	-48.6	-51.1	6.1	0.00e+00	0	29	104	10561257472	60	43894
2026-01-26 21:49:34.91	64.50	14.41	-48.9	-51.4	6.1	0.00e+00	0	29	104	10561257472	60	45369
2026-01-26 21:49:35.92	64.79	14.45	-48.9	-51.4	6.1	0.00e+00	0	29	104	10561257472	60	45329
2026-01-26 21:49:36.93	65.09	14.49	-48.4	-51.0	6.1	0.00e+00	0	29	104	10561257472	60	43265
2026-01-26 21:49:37.94	65.38	14.54	-48.8	-51.3	6.1	0.00e+00	0	29	104	10561257472	60	44995
2026-01-26 21:49:38.95	65.68	14.58	-48.9	-51.4	6.1	0.00e+00	0	29	104	10561257472	60	45463
2026-01-26 21:49:39.96	65.97	14.62	-48.7	-51.3	6.1	0.00e+00	0	29	104	10561257472	60	44731
2026-01-26 21:49:40.97	66.27	14.66	-48.2	-50.8	6.1	0.00e+00	0	29	104	10561257472	60	42408
2026-01-26 21:49:41.98	66.57	14.70	-48.6	-51.2	6.1	0.00e+00	0	29	104	10561257472	60	44325
2026-01-26 21:49:42.99	66.87	14.74	-48.0	-50.7	6.1	0.00e+00	0	29	104	10561257472	60	41757
2026-01-26 21:49:44.00	67.17	14.78	-47.4	-50.1	6.1	0.00e+00	0	29	104	10561257472	60	39127
2026-01-26 21:49:45.01	67.47	14.82	-46.5	-49.3	6.2	0.00e+00	0	29	104	10561257472	60	35664
2026-01-26 21:49:46.02	67.77	14.86	-47.0	-49.8	6.1	0.00e+00	0	29	104	10561257472	60	37890
2026-01-26 21:49:47.02	68.07	14.90	-48.4	-51.0	6.1	0.00e+00	0	29	104	10561257472	60	43485
2026-01-26 21:49:48.03	68.37	14.94	-48.7	-51.2	6.1	0.00e+00	0	29	104	10561257472	60	44559
2026-01-26 21:49:49.04	68.68	14.98	-48.9	-51.4	6.1	0.00e+00	0	29	104	10561257472	60	45648
2026-01-26 21:49:50.05	68.98	15.01	-47.9	-50.5	6.1	0.00e+00	0	29	104	10561257472	60	41194
2026-01-26 21:49:51.06	69.29	15.05	-48.7	-51.2	6.1	0.00e+00	0	29	104	10561257472	60	44696
2026-01-26 21:49:52.07	69.60	15.08	-47.6	-50.3	6.1	0.00e+00	0	29	104	10561257472	60	40222
2026-01-26 21:49:53.08	69.90	15.12	-48.2	-50.9	6.1	0.00e+00	0	29	104	10561257472	60	42940
2026-01-26 21:49:54.08	70.21	15.15	-48.8	-51.3	6.1	0.00e+00	0	29	104	10561257472	60	44828
2026-01-26 21:49:55.09	70.52	15.18	-48.7	-51.2	6.1	0.00e+00	0	29	104	10561257472	60	44643
2026-01-26 21:49:56.10	70.83	15.22	-48.1	-50.8	6.1	0.00e+00	0	29	104	10561257472	60	42318
2026-01-26 21:49:57.11	71.14	15.25	-48.1	-50.7	6.1	0.00e+00	0	29	104	10561257472	60	41847
2026-01-26 21:49:58.12	71.45	15.28	-48.3	-51.0	6.1	0.00e+00	0	29	104	10561257472	60	43371
2026-01-26 21:49:59.13	71.77	15.31	-48.8	-51.3	6.1	0.00e+00	0	29	104	10561257472	60	45216
2026-01-26 21:50:00.14	72.08	15.34	-48.7	-51.3	6.1	0.00e+00	0	29	104	10561257472	60	44869
2026-01-26 21:50:01.15	72.40	15.37	-48.7	-51.3	6.1	0.00e+00	0	29	104	10561257472	60	44901
2026-01-26 21:50:02.16	72.71	15.40	-48.7	-51.2	6.1	0.00e+00	0	29	104	10561257472	60	44643
2026-01-26 21:50:03.17	73.03	15.43	-48.9	-51.4	6.0	0.00e+00	0	29	104	10561257472	60	45364
2026-01-26 21:50:04.18	73.34	15.46	-48.8	-51.3	6.1	0.00e+00	0	29	104	10561257472	60	44888
2026-01-26 21:50:05.19	73.66	15.48	-48.9	-51.4	6.1	0.00e+00	0	29	104	10561257472	60	45374
2026-01-26 21:50:06.20	73.98	15.51	-48.9	-51.4	6.1	0.00e+00	0	29	104	10561257472	60	45267
2026-01-26 21:50:07.21	74.30	15.53	-48.8	-51.3	6.1	0.00e+00	0	29	104	10561257472	60	44859
2026-01-26 21:50:08.22	74.61	15.56	-48.7	-51.3	6.1	0.00e+00	0	29	104	10561257472	60	45055
2026-01-26 21:50:09.23	74.93	15.58	-48.9	-51.4	6.1	0.00e+00	0	29	104	10561257472	60	45654
2026-01-26 21:50:10.24	75.25	15.61	-48.9	-51.4	6.1	0.00e+00	0	29	104	10561257472	60	45579
2026-01-26 21:50:11.25	75.58	15.63	-48.7	-51.3	6.1	0.00e+00	0	29	104	10561257472	60	44749
2026-01-26 21:50:12.26	75.90	15.65	-49.0	-51.5	6.1	0.00e+00	0	29	104	10561257472	60	45874
2026-01-26 21:50:13.27	76.22	15.67	-48.6	-51.1	6.1	0.00e+00	0	29	104	10561257472	60	44117
2026-01-26 21:50:14.28	76.54	15.69	-48.8	-51.3	6.1	0.00e+00	0	29	104	10561257472	60	45085
2026-01-26 21:50:15.28	76.86	15.71	-47.3	-50.1	6.1	0.00e+00	0	29	104	10561257472	60	39042
2026-01-26 21:50:16.29	77.18	15.73	-48.1	-50.7	6.1	0.00e+00	0	29	104	10561257472	60	42109
2026-01-26 21:50:17.31	77.51	15.75	-47.8	-50.5	6.1	0.00e+00	0	29	104	10561257472	60	41047
2026-01-26 21:50:18.32	77.84	15.76	-47.6	-50.3	6.1	0.00e+00	0	29	104	10561257472	60	40115
2026-01-26 21:50:19.32	78.16	15.78	-48.3	-50.9	6.1	0.00e+00	0	29	104	10561257472	60	42824
2026-01-26 21:50:20.34	78.49	15.80	-48.7	-51.2	6.1	0.00e+00	0	29	104	10561257472	60	44517
2026-01-26 21:50:21.34	78.81	15.81	-48.9	-51.3	6.1	0.00e+00	0	29	104	10561257472	60	45207
2026-01-26 21:50:22.35	79.14	15.83	-48.8	-51.3	6.1	0.00e+00	0	29	104	10561257472	60	45066
2026-01-26 21:50:23.36	79.46	15.84	-49.0	-51.5	6.1	0.00e+00	0	29	104	10561257472	60	45988
2026-01-26 21:50:24.37	79.79	15.85	-48.9	-51.4	6.1	0.00e+00	0	29	104	10561257472	60	45754
2026-01-26 21:50:25.38	80.12	15.86	-48.0	-50.6	6.1	0.00e+00	0	29	104	10561257472	60	41588
2026-01-26 21:50:26.39	80.44	15.88	-47.6	-50.3	6.1	0.00e+00	0	29	104	10561257472	60	39906
2026-01-26 21:50:27.40	80.77	15.89	-47.9	-50.5	6.1	0.00e+00	0	29	104	10561257472	60	41235
2026-01-26 21:50:28.40	81.09	15.90	-47.3	-50.0	6.1	0.00e+00	0	29	104	10561257472	60	38811
2026-01-26 21:50:29.42	81.43	15.90	-47.9	-50.6	6.1	0.00e+00	0	29	104	10561257472	60	41287
2026-01-26 21:50:30.42	81.75	15.91	-48.5	-51.0	6.1	0.00e+00	0	29	104	10561257472	60	43578
2026-01-26 21:50:31.43	82.08	15.92	-48.9	-51.4	6.1	0.00e+00	0	29	104	10561257472	60	45449
2026-01-26 21:50:32.44	82.41	15.93	-48.9	-51.4	6.1	0.00e+00	0	29	104	10561257472	60	45366
2026-01-26 21:50:33.45	82.74	15.93	-48.8	-51.3	6.1	0.00e+00	0	29	104	10561257472	60	44841
2026-01-26 21:50:34.46	83.07	15.94	-48.8	-51.3	6.0	0.00e+00	0	29	104	10561257472	60	44846
2026-01-26 21:50:35.48	83.40	15.94	-48.7	-51.2	6.0	0.00e+00	0	29	104	10561257472	60	44496
2026-01-26 21:50:36.48	83.73	15.94	-48.8	-51.3	6.1	0.00e+00	0	29	104	10561257472	60	45161
2026-01-26 21:50:37.49	84.05	15.95	-48.6	-51.2	6.1	0.00e+00	0	29	104	10561257472	60	44373
2026-01-26 21:50:38.50	84.38	15.95	-48.8	-51.3	6.1	0.00e+00	0	29	104	10561257472	60	45109
2026-01-26 21:50:39.51	84.71	15.95	-49.0	-51.5	6.1	0.00e+00	0	29	104	10561257472	60	45959
2026-01-26 21:50:40.52	85.04	15.95	-49.0	-51.5	6.1	0.00e+00	0	29	104	10561257472	60	45924
2026-01-26 21:50:41.52	85.37	15.95	-48.8	-51.3	6.1	0.00e+00	0	29	104	10561257472	60	45168
2026-01-26 21:50:42.53	85.70	15.95	-48.7	-51.2	6.1	0.00e+00	0	29	104	10561257472	60	44712
2026-01-26 21:50:43.54	86.03	15.94	-48.9	-51.4	6.1	0.00e+00	0	29	104	10561257472	60	45608
2026-01-26 21:50:44.55	86.36	15.94	-48.6	-51.1	6.1	0.00e+00	0	29	104	10561257472	60	44044
2026-01-26 21:50:45.56	86.69	15.94	-48.9	-51.4	6.1	0.00e+00	0	29	104	10561257472	60	45370
2026-01-26 21:50:46.57	87.02	15.93	-48.9	-51.4	6.1	0.00e+00	0	29	104	10561257472	60	45454
2026-01-26 21:50:47.58	87.35	15.93	-48.8	-51.4	6.1	0.00e+00	0	29	104	10561257472	60	45276
2026-01-26 21:50:48.59	87.67	15.92	-48.9	-51.4	6.1	0.00e+00	0	29	104	10561257472	60	45541
2026-01-26 21:50:49.60	88.00	15.91	-48.8	-51.3	6.1	0.00e+00	0	29	104	10561257472	60	45112
2026-01-26 21:50:50.61	88.33	15.91	-48.9	-51.3	6.1	0.00e+00	0	29	104	10561257472	60	45178
2026-01-26 21:50:51.62	88.66	15.90	-48.8	-51.3	6.1	0.00e+00	0	29	104	10561257472	60	45132
2026-01-26 21:50:52.62	88.99	15.89	-48.7	-51.2	6.1	0.00e+00	0	29	104	10561257472	60	44633
2026-01-26 21:50:53.63	89.31	15.88	-48.7	-51.2	6.1	0.00e+00	0	29	104	10561257472	60	44566
2026-01-26 21:50:54.64	89.64	15.87	-49.0	-51.5	6.1	0.00e+00	0	30	104	10561257472	60	45769
2026-01-26 21:50:55.65	89.97	15.85	-48.9	-51.4	6.1	0.00e+00	0	29	104	10561257472	60	45304
2026-01-26 21:50:56.66	90.30	15.84	-48.8	-51.4	6.1	0.00e+00	0	29	104	10561257472	60	45255
2026-01-26 21:50:57.67	90.62	15.83	-48.9	-51.3	6.1	0.00e+00	0	29	104	10561257472	60	45167
2026-01-26 21:50:58.68	90.95	15.81	-48.8	-51.3	6.1	0.00e+00	0	29	104	10561257472	60	45169
2026-01-26 21:50:59.69	91.28	15.80	-48.8	-51.3	6.1	0.00e+00	0	29	104	10561257472	60	45157
2026-01-26 21:51:00.70	91.60	15.78	-48.6	-51.2	6.1	0.00e+00	0	29	104	10561257472	60	44315
2026-01-26 21:51:01.71	91.93	15.77	-48.4	-51.0	6.1	0.00e+00	0	29	104	10561257472	60	43327
2026-01-26 21:51:02.72	92.25	15.75	-48.8	-51.3	6.1	0.00e+00	0	30	104	10561257472	60	45181
2026-01-26 21:51:03.73	92.58	15.73	-48.8	-51.3	6.1	0.00e+00	0	30	104	10561257472	60	44874
2026-01-26 21:51:04.74	92.90	15.71	-48.8	-51.3	6.1	0.00e+00	0	30	104	10561257472	60	44943
2026-01-26 21:51:05.75	93.22	15.69	-48.4	-51.0	6.1	0.00e+00	0	30	104	10561257472	60	43534
2026-01-26 21:51:06.76	93.55	15.67	-48.7	-51.2	6.1	0.00e+00	0	30	104	10561257472	60	44436
2026-01-26 21:51:07.77	93.87	15.65	-48.7	-51.2	6.1	0.00e+00	0	30	104	10561257472	60	44715
2026-01-26 21:51:08.78	94.19	15.63	-48.8	-51.3	6.1	0.00e+00	0	30	104	10561257472	60	45032
2026-01-26 21:51:09.79	94.51	15.61	-48.2	-50.8	6.1	0.00e+00	0	30	104	10561257472	60	42433
2026-01-26 21:51:10.80	94.83	15.58	-48.5	-51.1	6.1	0.00e+00	0	30	104	10561257472	60	43936
2026-01-26 21:51:11.81	95.15	15.56	-48.7	-51.3	6.1	0.00e+00	0	30	104	10561257472	60	44837
2026-01-26 21:51:12.81	95.47	15.54	-48.7	-51.3	6.1	0.00e+00	0	30	104	10561257472	60	44925
2026-01-26 21:51:13.82	95.79	15.51	-48.9	-51.4	6.1	0.00e+00	0	30	104	10561257472	60	45333
2026-01-26 21:51:14.83	96.11	15.49	-48.8	-51.3	6.0	0.00e+00	0	30	104	10561257472	60	44934
2026-01-26 21:51:15.84	96.43	15.46	-48.5	-51.1	6.1	0.00e+00	0	29	104	10561257472	60	43885
2026-01-26 21:51:16.85	96.74	15.43	-48.8	-51.3	6.1	0.00e+00	0	30	104	10561257472	60	45242
2026-01-26 21:51:17.86	97.06	15.40	-48.7	-51.2	6.0	0.00e+00	0	30	104	10561257472	60	44722
2026-01-26 21:51:18.86	97.37	15.37	-48.9	-51.4	6.1	0.00e+00	0	29	104	10561257472	60	45396
2026-01-26 21:51:19.87	97.69	15.35	-48.8	-51.3	6.1	0.00e+00	0	30	104	10561257472	60	45100
2026-01-26 21:51:20.88	98.00	15.31	-48.9	-51.3	6.1	0.00e+00	0	30	104	10561257472	60	45009
2026-01-26 21:51:21.89	98.32	15.28	-48.9	-51.4	6.1	0.00e+00	0	29	104	10561257472	60	45683
2026-01-26 21:51:22.90	98.63	15.25	-48.8	-51.3	6.1	0.00e+00	0	29	104	10561257472	60	45000
2026-01-26 21:51:23.91	98.94	15.22	-48.5	-51.0	6.1	0.00e+00	0	30	104	10561257472	60	43613
2026-01-26 21:51:24.92	99.25	15.19	-48.7	-51.2	6.1	0.00e+00	0	30	104	10561257472	60	44650
2026-01-26 21:51:25.93	99.57	15.15	-48.6	-51.1	6.1	0.00e+00	0	30	104	10561257472	60	44007
2026-01-26 21:51:26.94	99.88	15.12	-48.7	-51.2	6.1	0.00e+00	0	30	104	10561257472	60	44583
2026-01-26 21:51:27.95	100.18	15.09	-48.9	-51.4	6.1	0.00e+00	0	30	104	10561257472	60	45409
2026-01-26 21:51:28.96	100.49	15.05	-48.8	-51.3	6.1	0.00e+00	0	30	104	10561257472	60	45111
2026-01-26 21:51:29.97	100.80	15.01	-48.9	-51.4	6.1	0.00e+00	0	30	104	10561257472	60	45348
2026-01-26 21:51:30.98	101.11	14.98	-48.9	-51.4	6.1	0.00e+00	0	30	104	10561257472	60	45323
2026-01-26 21:51:31.99	101.41	14.94	-48.8	-51.3	6.1	0.00e+00	0	30	104	10561257472	60	45180
2026-01-26 21:51:33.00	101.72	14.90	-48.7	-51.3	6.1	0.00e+00	0	30	104	10561257472	60	44741
2026-01-26 21:51:34.00	102.02	14.86	-48.8	-51.3	6.1	0.00e+00	0	30	104	10561257472	60	45058
2026-01-26 21:51:35.01	102.32	14.83	-48.7	-51.3	6.1	0.00e+00	0	30	104	10561257472	60	44743
2026-01-26 21:51:36.02	102.62	14.79	-48.8	-51.3	6.1	0.00e+00	0	30	104	10561257472	60	45009
2026-01-26 21:51:37.03	102.93	14.75	-48.7	-51.2	6.1	0.00e+00	0	30	104	10561257472	60	44387
2026-01-26 21:51:38.04	103.23	14.71	-48.6	-51.2	6.1	0.00e+00	0	30	104	10561257472	60	44294
2026-01-26 21:51:39.05	103.53	14.66	-48.5	-51.1	6.1	0.00e+00	0	30	104	10561257472	60	43828
2026-01-26 21:51:40.06	103.82	14.62	-48.8	-51.3	6.1	0.00e+00	0	30	104	10561257472	60	44987
2026-01-26 21:51:41.07	104.12	14.58	-48.7	-51.2	6.1	0.00e+00	0	30	104	10561257472	60	44643
2026-01-26 21:51:42.08	104.42	14.54	-48.8	-51.4	6.1	0.00e+00	0	30	104	10561257472	60	45526
2026-01-26 21:51:43.09	104.71	14.49	-48.8	-51.3	6.1	0.00e+00	0	30	104	10561257472	60	45154
2026-01-26 21:51:44.10	105.01	14.45	-48.9	-51.4	6.1	0.00e+00	0	30	104	10561257472	60	45412
2026-01-26 21:51:45.11	105.30	14.41	-48.8	-51.3	6.1	0.00e+00	0	30	104	10561257472	60	45041
2026-01-26 21:51:46.12	105.59	14.36	-48.8	-51.3	6.1	0.00e+00	0	30	104	10561257472	60	45041
2026-01-26 21:51:47.13	105.89	14.31	-48.8	-51.3	6.0	0.00e+00	0	30	104	10561257472	60	45018
2026-01-26 21:51:48.14	106.18	14.27	-48.7	-51.3	6.1	0.00e+00	0	30	104	10561257472	60	44760
2026-01-26 21:51:49.15	106.47	14.22	-48.8	-51.3	6.1	0.00e+00	0	30	104	10561257472	60	45008
2026-01-26 21:51:50.16	106.75	14.18	-48.8	-51.3	6.1	0.00e+00	0	30	104	10561257472	60	45079
2026-01-26 21:51:51.17	107.04	14.13	-48.7	-51.2	6.1	0.00e+00	0	30	104	10561257472	60	44384
2026-01-26 21:51:52.17	107.32	14.08	-48.8	-51.3	6.1	0.00e+00	0	30	104	10561257472	60	44754
2026-01-26 21:51:53.18	107.61	14.03	-48.6	-51.1	6.1	0.00e+00	0	30	104	10561257472	60	44087
2026-01-26 21:51:54.20	107.90	13.98	-48.9	-51.4	6.1	0.00e+00	0	30	104	10561257472	60	45342
2026-01-26 21:51:55.20	108.18	13.93	-48.7	-51.2	6.1	0.00e+00	0	30	104	10561257472	60	44711
2026-01-26 21:51:56.21	108.46	13.88	-48.7	-51.3	6.1	0.00e+00	0	30	104	10561257472	60	44840
2026-01-26 21:51:57.22	108.74	13.83	-48.7	-51.2	6.1	0.00e+00	0	30	104	10561257472	60	44545
2026-01-26 21:51:58.23	109.02	13.78	-48.5	-51.0	6.1	0.00e+00	0	30	104	10561257472	60	43464
2026-01-26 21:51:59.24	109.30	13.73	-48.8	-51.3	6.1	0.00e+00	0	30	104	10561257472	60	44746
2026-01-26 21:52:00.25	109.58	13.68	-48.7	-51.2	6.1	0.00e+00	0	30	104	10561257472	60	44434
2026-01-26 21:52:01.26	109.85	13.63	-48.8	-51.3	6.1	0.00e+00	0	30	104	10561257472	60	44934
2026-01-26 21:52:02.27	110.13	13.58	-48.7	-51.2	6.1	0.00e+00	0	30	104	10561257472	60	44613
2026-01-26 21:52:03.28	110.40	13.53	-48.7	-51.2	6.1	0.00e+00	0	30	104	10561257472	60	44485
2026-01-26 21:52:04.29	110.67	13.47	-48.6	-51.1	6.1	0.00e+00	0	30	104	10561257472	60	43974
2026-01-26 21:52:05.30	110.95	13.42	-48.7	-51.2	6.1	0.00e+00	0	30	104	10561257472	60	44450
2026-01-26 21:52:06.31	111.22	13.37	-48.8	-51.3	6.1	0.00e+00	0	30	104	10561257472	60	44960
2026-01-26 21:52:07.32	111.49	13.31	-48.6	-51.2	6.1	0.00e+00	0	30	104	10561257472	60	44297
2026-01-26 21:52:08.33	111.75	13.26	-48.8	-51.3	6.1	0.00e+00	0	30	104	10561257472	60	45027
2026-01-26 21:52:09.33	112.02	13.20	-48.7	-51.2	6.1	0.00e+00	0	30	104	10561257472	60	44725
2026-01-26 21:52:10.34	112.29	13.15	-48.6	-51.1	6.1	0.00e+00	0	30	104	10561257472	60	44202
2026-01-26 21:52:11.35	112.55	13.09	-48.8	-51.3	6.1	0.00e+00	0	30	104	10561257472	60	45033
2026-01-26 21:52:12.36	112.81	13.04	-48.7	-51.2	6.1	0.00e+00	0	30	104	10561257472	60	44695
2026-01-26 21:52:13.37	113.08	12.98	-48.8	-51.2	6.1	0.00e+00	0	30	104	10561257472	60	44711
2026-01-26 21:52:14.38	113.34	12.92	-48.8	-51.3	6.1	0.00e+00	0	30	104	10561257472	60	44837
2026-01-26 21:52:15.39	113.60	12.87	-48.8	-51.3	6.1	0.00e+00	0	30	104	10561257472	60	45046
2026-01-26 21:52:16.40	113.86	12.81	-48.8	-51.3	6.1	0.00e+00	0	30	104	10561257472	60	44966
2026-01-26 21:52:17.41	114.12	12.75	-48.8	-51.3	6.1	0.00e+00	0	30	104	10561257472	60	45135
2026-01-26 21:52:18.42	114.37	12.70	-48.8	-51.2	6.1	0.00e+00	0	30	104	10561257472	60	44694
2026-01-26 21:52:19.43	114.63	12.64	-48.8	-51.2	6.1	0.00e+00	0	30	104	10561257472	60	44589
2026-01-26 21:52:20.44	114.88	12.58	-48.8	-51.3	6.1	0.00e+00	0	30	104	10561257472	60	45226
2026-01-26 21:52:21.45	115.14	12.52	-48.7	-51.2	6.1	0.00e+00	0	30	104	10561257472	60	44314
2026-01-26 21:52:22.46	115.39	12.46	-48.7	-51.3	6.1	0.00e+00	0	30	104	10561257472	60	44750
2026-01-26 21:52:23.46	115.64	12.41	-48.7	-51.2	6.1	0.00e+00	0	30	104	10561257472	60	44531
2026-01-26 21:52:24.47	115.89	12.35	-48.8	-51.3	6.1	0.00e+00	0	30	104	10561257472	60	44763
2026-01-26 21:52:25.48	116.14	12.29	-48.7	-51.2	6.1	0.00e+00	0	30	104	10561257472	60	44682
2026-01-26 21:52:26.49	116.38	12.23	-48.8	-51.3	6.1	0.00e+00	0	30	104	10561257472	60	44771
2026-01-26 21:52:27.50	116.63	12.17	-48.7	-51.2	6.1	0.00e+00	0	30	104	10561257472	60	44709
2026-01-26 21:52:28.51	116.87	12.11	-48.7	-51.3	6.1	0.00e+00	0	30	104	10561257472	60	44850
2026-01-26 21:52:29.52	117.12	12.05	-48.8	-51.3	6.1	0.00e+00	0	30	104	10561257472	60	44748
2026-01-26 21:52:30.53	117.36	11.99	-48.7	-51.3	6.1	0.00e+00	0	30	104	10561257472	60	45010
2026-01-26 21:52:31.54	117.60	11.93	-48.7	-51.3	6.1	0.00e+00	0	30	104	10561257472	60	44934
2026-01-26 21:52:32.55	117.84	11.87	-48.8	-51.2	6.1	0.00e+00	0	30	104	10561257472	60	44716
2026-01-26 21:52:33.56	118.08	11.80	-48.8	-51.3	6.1	0.00e+00	0	30	104	10561257472	60	45138
2026-01-26 21:52:34.57	118.32	11.74	-48.7	-51.2	6.1	0.00e+00	0	30	104	10561257472	60	44646
2026-01-26 21:52:35.58	118.56	11.68	-48.8	-51.2	6.1	0.00e+00	0	30	104	10561257472	60	44638
2026-01-26 21:52:36.59	118.79	11.62	-48.7	-51.2	6.1	0.00e+00	0	30	104	10561257472	60	44653
2026-01-26 21:52:37.60	119.03	11.56	-48.7	-51.2	6.1	0.00e+00	0	30	104	10561257472	60	44256
2026-01-26 21:52:38.60	119.26	11.50	-48.8	-51.3	6.1	0.00e+00	0	30	104	10561257472	60	44730
2026-01-26 21:52:39.61	119.49	11.44	-48.8	-51.3	6.1	0.00e+00	0	30	104	10561257472	60	45054
2026-01-26 21:52:40.62	119.72	11.37	-48.8	-51.2	6.1	0.00e+00	0	30	104	10561257472	60	44587
2026-01-26 21:52:41.63	119.95	11.31	-48.8	-51.3	6.1	0.00e+00	0	30	104	10561257472	60	44747
2026-01-26 21:52:42.64	120.18	11.25	-48.8	-51.3	6.1	0.00e+00	0	30	104	10561257472	60	44861
2026-01-26 21:52:43.65	120.41	11.19	-48.7	-51.2	6.1	0.00e+00	0	30	104	10561257472	60	44498
2026-01-26 21:52:44.66	120.64	11.12	-48.8	-51.2	6.1	0.00e+00	0	30	104	10561257472	60	44536
2026-01-26 21:52:45.67	120.86	11.06	-48.6	-51.1	6.1	0.00e+00	0	30	104	10561257472	60	43979
2026-01-26 21:52:46.68	121.09	11.00	-48.7	-51.3	6.1	0.00e+00	0	30	104	10561257472	60	44955
2026-01-26 21:52:47.69	121.31	10.93	-48.7	-51.3	6.1	0.00e+00	0	30	104	10561257472	60	44762
2026-01-26 21:52:48.70	121.53	10.87	-48.8	-51.3	6.1	0.00e+00	0	30	104	10561257472	60	44755
2026-01-26 21:52:49.71	121.75	10.81	-48.8	-51.3	6.1	0.00e+00	0	30	104	10561257472	60	44851
2026-01-26 21:52:50.72	121.97	10.74	-48.8	-51.3	6.1	0.00e+00	0	30	104	10561257472	60	44790
2026-01-26 21:52:51.73	122.19	10.68	-48.8	-51.3	6.1	0.00e+00	0	30	104	10561257472	60	44864
2026-01-26 21:52:52.74	122.41	10.62	-48.7	-51.1	6.1	0.00e+00	0	30	104	10561257472	60	44190
2026-01-26 21:52:53.75	122.62	10.55	-48.8	-51.2	6.1	0.00e+00	0	30	104	10561257472	60	44651
2026-01-26 21:52:54.76	122.84	10.49	-48.7	-51.1	6.1	0.00e+00	0	30	104	10561257472	60	44088
2026-01-26 21:52:55.77	123.05	10.42	-48.8	-51.3	6.1	0.00e+00	0	30	104	10561257472	60	44809
2026-01-26 21:52:56.78	123.27	10.36	-48.8	-51.3	6.1	0.00e+00	0	30	104	10561257472	60	44783
2026-01-26 21:52:57.79	123.48	10.29	-48.7	-51.2	6.1	0.00e+00	0	30	104	10561257472	60	44478
2026-01-26 21:52:58.80	123.69	10.23	-48.5	-51.1	6.1	0.00e+00	0	30	104	10561257472	60	43709
2026-01-26 21:52:59.81	123.90	10.17	-48.7	-51.1	6.1	0.00e+00	0	30	104	10561257472	60	44193
2026-01-26 21:53:00.79	124.10	10.10	-48.7	-51.2	6.1	0.00e+00	0	30	104	10561257472	60	44648
2026-01-26 21:53:01.79	124.31	10.04	-48.7	-51.2	6.1	0.00e+00	0	30	104	10561257472	60	44445
2026-01-26 21:53:02.80	124.51	9.98	-48.7	-51.1	6.1	0.00e+00	0	30	104	10561257472	60	44077
2026-01-26 21:53:03.81	124.72	9.91	-48.6	-51.1	6.1	0.00e+00	0	30	104	10561257472	60	43982
2026-01-26 21:53:04.81	124.92	9.85	-48.6	-51.1	6.1	0.00e+00	0	30	104	10561257472	60	43823
2026-01-26 21:53:05.82	125.12	9.78	-48.7	-51.1	6.1	0.00e+00	0	30	104	10561257472	60	44085
2026-01-26 21:53:06.83	125.33	9.72	-48.4	-50.9	6.1	0.00e+00	0	30	104	10561257472	60	43012
2026-01-26 21:53:07.84	125.53	9.65	-48.6	-51.1	6.1	0.00e+00	0	30	104	10561257472	60	44047
2026-01-26 21:53:08.85	125.73	9.59	-48.6	-51.1	6.1	0.00e+00	0	30	104	10561257472	60	43893
2026-01-26 21:53:09.86	125.93	9.52	-48.4	-50.9	6.1	0.00e+00	0	30	104	10561257472	60	43075
2026-01-26 21:53:10.87	126.13	9.46	-48.6	-51.1	6.1	0.00e+00	0	30	104	10561257472	60	44047
2026-01-26 21:53:11.88	126.32	9.39	-48.7	-51.2	6.1	0.00e+00	0	30	104	10561257472	60	44301
2026-01-26 21:53:12.89	126.52	9.33	-48.0	-50.7	6.1	0.00e+00	0	30	104	10561257472	60	41743
2026-01-26 21:53:13.90	126.71	9.26	-48.4	-51.0	6.1	0.00e+00	0	30	104	10561257472	60	43264
2026-01-26 21:53:14.91	126.91	9.20	-48.6	-51.1	6.1	0.00e+00	0	31	104	10561257472	60	44038
2026-01-26 21:53:15.92	127.10	9.13	-48.5	-51.0	6.1	0.00e+00	0	30	104	10561257472	60	43638
2026-01-26 21:53:16.93	127.29	9.07	-48.5	-51.0	6.1	0.00e+00	0	30	104	10561257472	60	43433
2026-01-26 21:53:17.93	127.48	9.00	-48.1	-50.7	6.1	0.00e+00	0	30	104	10561257472	60	41957
2026-01-26 21:53:18.94	127.67	8.94	-48.6	-51.1	6.1	0.00e+00	0	30	104	10561257472	60	44060
2026-01-26 21:53:19.96	127.86	8.87	-48.4	-50.9	6.1	0.00e+00	0	30	104	10561257472	60	43115
2026-01-26 21:53:20.96	128.05	8.81	-48.6	-51.1	6.1	0.00e+00	0	30	104	10561257472	60	44131
2026-01-26 21:53:21.98	128.24	8.74	-48.5	-51.0	6.1	0.00e+00	0	30	104	10561257472	60	43322
2026-01-26 21:53:22.98	128.42	8.68	-48.5	-51.0	6.1	0.00e+00	0	30	104	10561257472	60	43429
2026-01-26 21:53:23.99	128.60	8.61	-48.5	-51.0	6.1	0.00e+00	0	30	104	10561257472	60	43425
2026-01-26 21:53:25.00	128.79	8.55	-48.6	-51.1	6.1	0.00e+00	0	30	104	10561257472	60	43795
2026-01-26 21:53:26.01	128.97	8.48	-48.7	-51.1	6.1	0.00e+00	0	31	104	10561257472	60	44205
2026-01-26 21:53:27.02	129.15	8.42	-48.5	-51.0	6.1	0.00e+00	0	31	104	10561257472	60	43386
2026-01-26 21:53:28.03	129.33	8.35	-48.6	-51.1	6.1	0.00e+00	0	31	104	10561257472	60	43768
2026-01-26 21:53:29.04	129.51	8.29	-48.5	-51.0	6.1	0.00e+00	0	31	104	10561257472	60	43645
2026-01-26 21:53:30.05	129.69	8.22	-48.6	-51.1	6.1	0.00e+00	0	31	104	10561257472	60	43737
2026-01-26 21:53:31.06	129.87	8.16	-48.5	-50.9	6.1	0.00e+00	0	30	104	10561257472	60	43132
2026-01-26 21:53:32.07	130.05	8.09	-48.7	-51.2	6.1	0.00e+00	0	31	104	10561257472	60	44411
2026-01-26 21:53:33.08	130.22	8.03	-48.5	-51.0	6.1	0.00e+00	0	31	104	10561257472	60	43605
2026-01-26 21:53:34.09	130.40	7.96	-48.5	-51.1	6.1	0.00e+00	0	30	104	10561257472	60	43771
2026-01-26 21:53:35.10	130.57	7.90	-48.5	-51.0	6.1	0.00e+00	0	30	104	10561257472	60	43403
2026-01-26 21:53:36.11	130.75	7.83	-48.5	-51.0	6.1	0.00e+00	0	30	104	10561257472	60	43569
2026-01-26 21:53:37.12	130.92	7.77	-48.4	-50.9	6.1	0.00e+00	0	30	104	10561257472	60	43019
2026-01-26 21:53:38.13	131.09	7.70	-48.5	-51.0	6.1	0.00e+00	0	31	104	10561257472	60	43690
2026-01-26 21:53:39.14	131.26	7.64	-48.5	-50.9	6.1	0.00e+00	0	30	104	10561257472	60	43199
2026-01-26 21:53:40.14	131.43	7.57	-48.5	-51.0	6.1	0.00e+00	0	30	104	10561257472	60	43609
2026-01-26 21:53:41.15	131.60	7.51	-48.5	-51.0	6.1	0.00e+00	0	30	104	10561257472	60	43404
2026-01-26 21:53:42.16	131.76	7.44	-48.4	-51.0	6.1	0.00e+00	0	30	104	10561257472	60	43307
2026-01-26 21:53:43.17	131.93	7.38	-48.5	-50.9	6.1	0.00e+00	0	30	104	10561257472	60	43183
2026-01-26 21:53:44.18	132.10	7.31	-48.4	-50.9	6.1	0.00e+00	0	31	104	10561257472	60	43081
2026-01-26 21:53:45.19	132.26	7.25	-48.4	-50.8	6.0	0.00e+00	0	30	104	10561257472	60	42549
2026-01-26 21:53:46.20	132.43	7.18	-48.5	-51.0	6.1	0.00e+00	0	31	104	10561257472	60	43243
2026-01-26 21:53:47.21	132.59	7.12	-48.4	-50.9	6.1	0.00e+00	0	30	104	10561257472	60	42928
2026-01-26 21:53:48.22	132.75	7.05	-48.4	-50.9	6.1	0.00e+00	0	31	104	10561257472	60	43131
2026-01-26 21:53:49.23	132.91	6.99	-48.4	-50.9	6.1	0.00e+00	0	31	104	10561257472	60	42975
2026-01-26 21:53:50.24	133.07	6.93	-48.3	-50.8	6.1	0.00e+00	0	30	104	10561257472	60	42492
2026-01-26 21:53:51.25	133.23	6.86	-48.4	-50.8	6.1	0.00e+00	0	30	104	10561257472	60	42528
2026-01-26 21:53:52.26	133.39	6.80	-48.4	-50.9	6.1	0.00e+00	0	30	104	10561257472	60	42825
2026-01-26 21:53:53.27	133.55	6.73	-48.4	-50.9	6.1	0.00e+00	0	31	104	10561257472	60	42736
2026-01-26 21:53:54.27	133.71	6.67	-48.4	-50.9	6.1	0.00e+00	0	30	104	10561257472	60	43059
2026-01-26 21:53:55.28	133.86	6.61	-48.4	-50.9	6.1	0.00e+00	0	31	104	10561257472	60	42821
2026-01-26 21:53:56.29	134.02	6.54	-48.5	-50.9	6.1	0.00e+00	0	31	104	10561257472	60	43171
2026-01-26 21:53:57.30	134.17	6.48	-48.3	-50.9	6.1	0.00e+00	0	31	104	10561257472	60	42779
2026-01-26 21:53:58.31	134.33	6.41	-48.3	-50.9	6.1	0.00e+00	0	31	104	10561257472	60	42740
2026-01-26 21:53:59.32	134.48	6.35	-48.4	-50.9	6.1	0.00e+00	0	31	104	10561257472	60	42826
2026-01-26 21:54:00.33	134.63	6.29	-48.4	-50.9	6.1	0.00e+00	0	30	104	10561257472	60	43117
2026-01-26 21:54:01.33	134.78	6.22	-48.4	-50.8	6.1	0.00e+00	0	30	104	10561257472	60	42704
2026-01-26 21:54:02.34	134.93	6.16	-48.4	-50.8	6.1	0.00e+00	0	31	104	10561257472	60	42668
2026-01-26 21:54:03.35	135.08	6.10	-48.4	-50.8	6.1	0.00e+00	0	31	104	10561257472	60	42585
2026-01-26 21:54:04.36	135.23	6.03	-48.4	-50.9	6.1	0.00e+00	0	31	104	10561257472	60	42903
2026-01-26 21:54:05.37	135.38	5.97	-48.3	-50.8	6.1	0.00e+00	0	30	104	10561257472	60	42662
2026-01-26 21:54:06.38	135.53	5.90	-48.3	-50.8	6.1	0.00e+00	0	31	104	10561257472	60	42553
2026-01-26 21:54:07.39	135.68	5.84	-48.3	-50.8	6.1	0.00e+00	0	31	104	10561257472	60	42558
2026-01-26 21:54:08.40	135.82	5.78	-48.3	-50.9	6.1	0.00e+00	0	31	104	10561257472	60	42783
2026-01-26 21:54:09.41	135.97	5.72	-48.4	-50.8	6.1	0.00e+00	0	31	104	10561257472	60	42706
2026-01-26 21:54:10.41	136.11	5.65	-48.3	-50.8	6.1	0.00e+00	0	31	104	10561257472	60	42261
2026-01-26 21:54:11.42	136.26	5.59	-48.3	-50.8	6.1	0.00e+00	0	31	104	10561257472	60	42361
2026-01-26 21:54:12.43	136.40	5.53	-48.3	-50.8	6.1	0.00e+00	0	31	104	10561257472	60	42305
2026-01-26 21:54:13.44	136.54	5.46	-48.3	-50.8	6.1	0.00e+00	0	31	104	10561257472	60	42290
2026-01-26 21:54:14.45	136.68	5.40	-48.3	-50.7	6.1	0.00e+00	0	31	104	10561257472	60	42150
2026-01-26 21:54:15.46	136.82	5.34	-48.3	-50.8	6.1	0.00e+00	0	31	104	10561257472	60	42694
2026-01-26 21:54:16.46	136.96	5.28	-48.3	-50.8	6.1	0.00e+00	0	31	104	10561257472	60	42659
2026-01-26 21:54:17.47	137.10	5.21	-48.2	-50.7	6.1	0.00e+00	0	31	104	10561257472	60	42209
2026-01-26 21:54:18.48	137.24	5.15	-48.2	-50.7	6.1	0.00e+00	0	31	104	10561257472	60	41858
2026-01-26 21:54:19.49	137.38	5.09	-48.2	-50.7	6.1	0.00e+00	0	31	104	10561257472	60	42203
2026-01-26 21:54:20.50	137.52	5.03	-48.1	-50.7	6.1	0.00e+00	0	31	104	10561257472	60	41847
2026-01-26 21:54:21.51	137.65	4.96	-48.2	-50.6	6.1	0.00e+00	0	31	104	10561257472	60	41710
2026-01-26 21:54:22.52	137.79	4.90	-48.1	-50.5	6.0	0.00e+00	0	31	104	10561257472	60	41039
2026-01-26 21:54:23.53	137.92	4.84	-48.1	-50.6	6.1	0.00e+00	0	31	104	10561257472	60	41637
2026-01-26 21:54:24.53	138.06	4.78	-47.9	-50.4	6.1	0.00e+00	0	31	104	10561257472	60	40693
2026-01-26 21:54:25.54	138.19	4.72	-48.1	-50.7	6.1	0.00e+00	0	31	104	10561257472	60	41859
2026-01-26 21:54:26.55	138.32	4.65	-48.1	-50.6	6.1	0.00e+00	0	31	104	10561257472	60	41489
2026-01-26 21:54:27.56	138.46	4.59	-48.1	-50.5	6.1	0.00e+00	0	31	104	10561257472	60	41202
2026-01-26 21:54:28.57	138.59	4.53	-47.8	-50.2	6.1	0.00e+00	0	31	104	10561257472	60	39808
2026-01-26 21:54:29.58	138.72	4.47	-47.9	-50.5	6.1	0.00e+00	0	31	104	10561257472	60	40811
2026-01-26 21:54:30.59	138.85	4.41	-47.7	-50.2	6.1	0.00e+00	0	31	104	10561257472	60	39722
2026-01-26 21:54:31.60	138.98	4.35	-47.4	-49.8	6.1	0.00e+00	0	31	104	10561257472	60	37875
2026-01-26 21:54:32.61	139.11	4.28	-46.9	-49.4	6.1	0.00e+00	0	31	104	10561257472	60	36354
2026-01-26 21:54:33.61	139.23	4.22	-46.8	-49.3	6.1	0.00e+00	0	31	104	10561257472	60	35835
2026-01-26 21:54:34.62	139.36	4.16	-46.6	-49.1	6.1	0.00e+00	0	31	104	10561257472	60	35052
2026-01-26 21:54:35.63	139.49	4.10	-46.3	-48.8	6.1	0.00e+00	0	31	104	10561257472	60	33851
2026-01-26 21:54:36.64	139.62	4.04	-46.3	-48.9	6.1	0.00e+00	0	31	104	10561257472	60	34113
2026-01-26 21:54:37.65	139.74	3.98	-47.0	-49.5	6.1	0.00e+00	0	31	104	10561257472	60	36603
2026-01-26 21:54:38.66	139.87	3.92	-46.4	-48.9	6.1	0.00e+00	0	31	104	10561257472	60	34151
2026-01-26 21:54:39.67	139.99	3.86	-46.8	-49.3	6.1	0.00e+00	0	31	104	10561257472	60	35610
2026-01-26 21:54:40.68	140.11	3.80	-46.3	-48.8	6.1	0.00e+00	0	31	104	10561257472	60	33675
2026-01-26 21:54:41.69	140.24	3.74	-46.2	-48.7	6.1	0.00e+00	0	31	104	10561257472	60	33185
2026-01-26 21:54:42.70	140.36	3.68	-46.1	-48.6	6.1	0.00e+00	0	31	104	10561257472	60	33043
2026-01-26 21:54:43.71	140.48	3.62	-45.9	-48.5	6.1	0.00e+00	0	31	104	10561257472	60	32484
2026-01-26 21:54:44.72	140.60	3.56	-45.7	-48.6	6.1	0.00e+00	0	31	104	10561257472	60	32817
2026-01-26 21:54:45.73	140.72	3.49	-45.3	-48.3	6.1	0.00e+00	0	31	104	10561257472	60	31880
2026-01-26 21:54:46.74	140.84	3.43	-45.9	-48.4	6.1	0.00e+00	0	31	104	10561257472	60	32085
2026-01-26 21:54:47.75	140.96	3.37	-45.1	-47.2	6.1	0.00e+00	0	31	104	10561257472	60	27952
2026-01-26 21:54:48.76	141.08	3.31	-46.0	-48.5	6.1	0.00e+00	0	31	104	10561257472	60	32451
2026-01-26 21:54:49.76	141.20	3.26	-46.1	-48.6	6.1	0.00e+00	0	31	104	10561257472	60	32945
2026-01-26 21:54:50.77	141.32	3.20	-46.2	-48.7	6.1	0.00e+00	0	31	104	10561257472	60	33312
2026-01-26 21:54:51.78	141.44	3.14	-46.2	-48.7	6.1	0.00e+00	0	31	104	10561257472	60	33395
2026-01-26 21:54:52.79	141.55	3.08	-46.1	-48.6	6.1	0.00e+00	0	31	104	10561257472	60	33048
2026-01-26 21:54:53.80	141.67	3.02	-46.1	-48.6	6.1	0.00e+00	0	31	104	10561257472	60	32980
2026-01-26 21:54:54.81	141.78	2.96	-46.8	-49.3	6.1	0.00e+00	0	31	104	10561257472	60	35674
2026-01-26 21:54:55.82	141.90	2.90	-48.3	-50.8	6.1	0.00e+00	0	31	104	10561257472	60	42698
2026-01-26 21:54:56.83	142.01	2.84	-48.7	-51.1	6.1	0.00e+00	0	31	104	10561257472	60	44128
2026-01-26 21:54:57.84	142.13	2.78	-48.8	-51.3	6.1	0.00e+00	0	31	104	10561257472	60	45076
2026-01-26 21:54:58.85	142.24	2.72	-48.9	-51.4	6.1	0.00e+00	0	31	104	10561257472	60	45589
2026-01-26 21:54:59.86	142.35	2.66	-49.0	-51.4	6.1	0.00e+00	0	31	104	10561257472	60	45691
2026-01-26 21:55:00.87	142.46	2.60	-49.1	-51.6	6.1	0.00e+00	0	31	104	10561257472	60	46307
2026-01-26 21:55:01.88	142.58	2.54	-49.1	-51.6	6.1	0.00e+00	0	31	104	10561257472	60	46611
2026-01-26 21:55:02.89	142.69	2.48	-49.2	-51.7	6.1	0.00e+00	0	31	104	10561257472	60	47210
2026-01-26 21:55:03.90	142.80	2.43	-49.3	-51.7	6.1	0.00e+00	0	31	104	10561257472	60	47354
2026-01-26 21:55:04.91	142.91	2.37	-49.3	-51.8	6.1	0.00e+00	0	31	104	10561257472	60	47656
2026-01-26 21:55:05.92	143.02	2.31	-49.2	-51.7	6.1	0.00e+00	0	31	104	10561257472	60	47219
2026-01-26 21:55:06.93	143.13	2.25	-49.3	-51.8	6.1	0.00e+00	0	31	104	10561257472	60	47385
2026-01-26 21:55:07.94	143.23	2.19	-49.3	-51.8	6.1	0.00e+00	0	31	104	10561257472	60	47537
2026-01-26 21:55:08.95	143.34	2.13	-49.3	-51.8	6.1	0.00e+00	0	31	104	10561257472	60	47589
2026-01-26 21:55:09.96	143.45	2.08	-49.3	-51.7	6.1	0.00e+00	0	31	104	10561257472	60	47279
2026-01-26 21:55:10.97	143.56	2.02	-49.3	-51.7	6.1	0.00e+00	0	31	104	10561257472	60	47335
2026-01-26 21:55:11.98	143.66	1.96	-49.3	-51.7	6.1	0.00e+00	0	31	104	10561257472	60	47323
2026-01-26 21:55:12.99	143.77	1.90	-49.3	-51.8	6.1	0.00e+00	0	31	104	10561257472	60	47558
2026-01-26 21:55:14.00	143.87	1.84	-49.3	-51.8	6.1	0.00e+00	0	31	104	10561257472	60	47769
2026-01-26 21:55:15.01	143.98	1.79	-49.4	-51.9	6.1	0.00e+00	0	31	104	10561257472	60	48088
2026-01-26 21:55:16.02	144.08	1.73	-49.3	-51.8	6.1	0.00e+00	0	31	104	10561257472	60	47708
2026-01-26 21:55:17.03	144.19	1.67	-49.4	-51.8	6.1	0.00e+00	0	31	104	10561257472	60	47654
2026-01-26 21:55:18.04	144.29	1.61	-49.4	-51.8	6.1	0.00e+00	0	31	104	10561257472	60	47902
2026-01-26 21:55:19.05	144.39	1.56	-49.4	-51.9	6.1	0.00e+00	0	31	104	10561257472	60	48114
2026-01-26 21:55:20.06	144.50	1.50	-49.4	-51.9	6.1	0.00e+00	0	31	104	10561257472	60	48204
2026-01-26 21:55:21.06	144.60	1.44	-49.5	-52.0	6.1	0.00e+00	0	31	104	10561257472	60	48719
2026-01-26 21:55:22.07	144.70	1.39	-49.4	-51.9	6.0	0.00e+00	0	31	104	10561257472	60	47987
2026-01-26 21:55:23.08	144.80	1.33	-49.4	-51.9	6.1	0.00e+00	0	31	104	10561257472	60	48107
2026-01-26 21:55:24.09	144.90	1.27	-49.6	-52.1	6.1	0.00e+00	0	31	104	10561257472	60	49221
2026-01-26 21:55:25.10	145.00	1.21	-49.5	-51.9	6.1	0.00e+00	0	31	104	10561257472	60	48425
2026-01-26 21:55:26.12	145.10	1.16	-49.5	-52.0	6.1	0.00e+00	0	31	104	10561257472	60	48929
2026-01-26 21:55:27.13	145.20	1.10	-49.7	-52.1	6.1	0.00e+00	0	31	104	10561257472	60	49340
2026-01-26 21:55:28.14	145.30	1.04	-49.7	-52.2	6.1	0.00e+00	0	31	104	10561257472	60	49835
2026-01-26 21:55:29.14	145.39	0.99	-50.1	-52.6	6.1	0.00e+00	0	31	104	10561257472	60	52160
2026-01-26 21:55:30.15	145.49	0.93	-49.9	-52.3	6.1	0.00e+00	0	31	104	10561257472	60	50601
2026-01-26 21:55:31.17	145.59	0.87	-50.0	-52.4	6.1	0.00e+00	0	31	104	10561257472	60	51246
2026-01-26 21:55:32.18	145.69	0.82	-49.4	-51.9	6.1	0.00e+00	0	31	104	10561257472	60	48184
2026-01-26 21:55:33.19	145.78	0.76	-49.8	-52.3	6.1	0.00e+00	0	31	104	10561257472	60	50487
2026-01-26 21:55:34.20	145.88	0.71	-49.7	-52.1	6.1	0.00e+00	0	31	104	10561257472	60	49285
2026-01-26 21:55:35.20	145.97	0.65	-50.1	-52.5	6.1	0.00e+00	0	31	104	10561257472	60	51924
2026-01-26 21:55:36.21	146.07	0.59	-49.6	-52.0	6.1	0.00e+00	0	31	104	10561257472	60	48978
2026-01-26 21:55:37.22	146.16	0.54	-49.5	-51.9	6.1	0.00e+00	0	31	104	10561257472	60	48327
2026-01-26 21:55:38.23	146.26	0.48	-49.6	-52.1	6.1	0.00e+00	0	31	104	10561257472	60	49540
2026-01-26 21:55:39.24	146.35	0.43	-50.1	-52.5	6.1	0.00e+00	0	31	104	10561257472	60	51517
2026-01-26 21:55:40.25	146.44	0.37	-49.9	-52.3	6.1	0.00e+00	0	31	104	10561257472	60	50712
2026-01-26 21:55:41.26	146.54	0.32	-50.2	-52.7	6.1	0.00e+00	0	31	104	10561257472	60	52646
2026-01-26 21:55:42.27	146.63	0.26	-49.8	-52.3	6.1	0.00e+00	0	31	104	10561257472	60	50352
2026-01-26 21:55:43.28	146.72	0.21	-49.9	-52.3	6.1	0.00e+00	0	31	104	10561257472	60	50711
2026-01-26 21:55:44.29	146.81	0.15	-49.8	-52.3	6.1	0.00e+00	0	31	104	10561257472	60	50342
2026-01-26 21:55:45.30	146.90	0.10	-50.0	-52.5	6.1	0.00e+00	0	31	104	10561257472	60	51703
2026-01-26 21:55:46.31	146.99	0.04	-50.2	-52.7	6.1	0.00e+00	0	31	104	10561257472	60	52907
2026-01-26 21:55:47.32	147.08	-0.01	-50.1	-52.5	6.1	0.00e+00	0	31	104	10561257472	60	51701

#Closed at: 2026-01-26 21:55:47
#Recorded file [10561 MB]: D:/lorett/data/35029_260127_094601.dat