passes_logs/2026/01/26/R4.6S_Anadyr/R4.6S_Anadyr__20260126_002249_NOAA_21_JPSS-2_rec.log

#Pass ID: 20260126_002249_NOAA 21 (JPSS-2)
#Satellite: NOAA 21 (JPSS-2)
#Configuration: NOAA-21
#almurnet v.1.7.20251203
#Start time: 2026-01-26 00:22:50

#Version: 2.2.20231116
#Station: R4.6S_Anadyr
#Location: 177.4865 lon 64.73178 lat
#TLE: 1 54234U 22150A   26025.44451686  .00000186  00000+0  10896-3 0  9992
#TLE: 2 54234  98.7509 326.2184 0000763 215.1852 144.9274 14.19539183166293

#Time	Az	El	Level	Level2	SNR	BER	BlckErr	Temp	State	Recorded	gain1	gain2
2026-01-26 00:22:50.45	160.30	0.05	-50.5	-65.4	3.4	1.51e+00	0	31	0	0	60	66955
2026-01-26 00:22:51.45	160.31	0.11	-51.4	-64.2	3.5	1.52e+00	0	32	104	0	60	57028
2026-01-26 00:22:52.46	160.32	0.17	-51.1	-63.9	3.5	1.52e+00	0	33	104	0	60	55169
2026-01-26 00:22:53.47	160.32	0.23	-52.0	-64.9	3.5	1.52e+00	0	33	104	0	60	61594
2026-01-26 00:22:54.49	160.33	0.29	-51.3	-64.2	3.5	1.52e+00	0	33	104	0	60	56870
2026-01-26 00:22:55.50	160.34	0.35	-51.6	-64.5	3.5	1.52e+00	0	33	104	0	60	58970
2026-01-26 00:22:56.50	160.35	0.41	-52.0	-64.8	3.5	1.52e+00	0	33	104	0	60	61266
2026-01-26 00:22:57.51	160.36	0.47	-42.3	-64.2	3.7	1.52e+00	0	33	104	0	50	100920
2026-01-26 00:22:58.52	160.37	0.53	-32.6	-63.2	3.9	1.52e+00	0	33	104	0	42	142994
2026-01-26 00:22:59.53	160.38	0.60	-39.4	-62.6	3.7	1.52e+00	0	33	104	0	54	66928
2026-01-26 00:23:00.54	160.38	0.66	-39.8	-62.3	3.8	1.52e+00	0	33	104	0	54	64743
2026-01-26 00:23:01.55	160.39	0.72	-33.3	-61.9	4.2	1.52e+00	0	33	104	0	44	109097
2026-01-26 00:23:02.56	160.40	0.78	-39.0	-62.7	4.0	1.52e+00	0	33	104	0	48	95387
2026-01-26 00:23:03.57	160.41	0.84	-35.3	-61.8	3.8	1.52e+00	0	33	104	0	48	85923
2026-01-26 00:23:04.58	160.42	0.91	-33.7	-61.2	4.3	1.52e+00	0	33	104	0	46	90556
2026-01-26 00:23:05.59	160.43	0.97	-33.3	-61.5	4.0	1.52e+00	0	33	104	0	46	93756
2026-01-26 00:23:06.60	160.44	1.03	-38.5	-62.0	3.8	1.52e+00	0	33	104	0	50	78618
2026-01-26 00:23:07.61	160.44	1.09	-38.3	-62.2	3.8	1.52e+00	0	33	104	0	48	90328
2026-01-26 00:23:08.62	160.45	1.16	-38.3	-62.1	3.7	1.52e+00	0	33	104	0	42	126218
2026-01-26 00:23:09.63	160.46	1.22	-36.4	-61.0	4.3	1.52e+00	0	33	104	0	50	70073
2026-01-26 00:23:10.64	160.47	1.28	-38.8	-60.3	3.9	1.52e+00	0	33	104	0	50	64372
2026-01-26 00:23:11.65	160.48	1.35	-40.7	-61.1	3.8	1.52e+00	0	33	104	0	50	70457
2026-01-26 00:23:12.66	160.49	1.41	-39.8	-61.2	3.6	1.52e+00	0	33	104	0	52	63785
2026-01-26 00:23:13.67	160.50	1.47	-48.8	-61.5	3.5	1.52e+00	0	33	104	0	60	41717
2026-01-26 00:23:14.68	160.51	1.54	-48.7	-61.4	3.5	1.52e+00	0	33	104	0	60	41020
2026-01-26 00:23:15.69	160.51	1.60	-48.8	-61.4	3.5	1.52e+00	0	33	104	0	60	41059
2026-01-26 00:23:16.70	160.52	1.66	-48.9	-61.5	3.5	1.52e+00	0	33	104	0	60	41490
2026-01-26 00:23:17.71	160.53	1.73	-49.4	-61.9	3.5	1.52e+00	0	33	104	0	60	43839
2026-01-26 00:23:18.72	160.54	1.79	-49.0	-61.5	3.5	1.52e+00	0	33	104	0	60	41636
2026-01-26 00:23:19.73	160.55	1.86	-48.8	-61.5	3.5	1.51e+00	0	33	104	0	60	41925
2026-01-26 00:23:20.74	160.56	1.92	-48.6	-61.3	3.5	1.52e+00	0	33	104	0	60	40811
2026-01-26 00:23:21.75	160.57	1.99	-48.9	-61.7	3.5	1.52e+00	0	34	104	0	60	42920
2026-01-26 00:23:22.76	160.58	2.05	-48.7	-61.5	3.5	1.52e+00	0	33	104	0	60	41632
2026-01-26 00:23:23.77	160.59	2.12	-48.9	-61.7	3.5	1.52e+00	0	33	104	0	60	42879
2026-01-26 00:23:24.78	160.60	2.18	-48.6	-61.4	3.5	1.52e+00	0	33	104	0	60	41246
2026-01-26 00:23:25.79	160.60	2.25	-48.9	-61.6	3.5	1.52e+00	0	34	104	0	60	42421
2026-01-26 00:23:26.80	160.61	2.31	-48.8	-61.4	3.5	1.52e+00	0	33	104	0	60	41186
2026-01-26 00:23:27.81	160.62	2.38	-49.0	-61.3	3.5	1.52e+00	0	33	104	0	60	40569
2026-01-26 00:23:28.82	160.63	2.44	-48.6	-60.3	3.5	1.52e+00	0	34	104	0	60	36261
2026-01-26 00:23:29.83	160.64	2.51	-48.5	-60.2	3.5	1.51e+00	0	34	104	0	60	35959
2026-01-26 00:23:30.84	160.65	2.57	-48.3	-59.1	3.5	1.51e+00	0	34	104	0	60	31814
2026-01-26 00:23:31.85	160.66	2.64	-48.8	-59.9	3.5	1.51e+00	0	34	104	0	60	34615
2026-01-26 00:23:32.86	160.67	2.71	-48.9	-60.2	3.6	1.51e+00	0	33	104	0	60	35732
2026-01-26 00:23:33.87	160.68	2.77	-48.9	-60.3	3.5	1.51e+00	0	33	104	0	60	36392
2026-01-26 00:23:34.88	160.69	2.84	-48.7	-60.1	3.5	1.51e+00	0	34	104	0	60	35475
2026-01-26 00:23:35.89	160.70	2.91	-48.4	-58.3	3.7	1.47e+00	0	34	104	0	60	28715
2026-01-26 00:23:36.90	160.71	2.97	-48.0	-55.8	4.0	9.31e-01	0	34	104	0	60	21679
2026-01-26 00:23:37.91	160.72	3.04	-46.7	-51.2	9.0	3.54e-02	122	34	0	0	60	12792
2026-01-26 00:23:38.92	160.73	3.11	-45.9	-49.4	11.1	4.20e-03	122	33	0	3145728	60	10327
2026-01-26 00:23:39.93	160.74	3.18	-44.3	-46.8	13.7	6.10e-06	123	34	0	6291456	60	7663
2026-01-26 00:23:40.94	160.75	3.24	-42.4	-44.3	16.5	7.00e-07	120	34	0	9437184	58	6460
2026-01-26 00:23:41.95	160.76	3.31	-43.1	-45.1	15.7	0.00e+00	123	34	0	12582912	58	7100
2026-01-26 00:23:42.96	160.76	3.38	-41.5	-43.1	17.7	0.00e+00	121	34	0	15728640	56	6316
2026-01-26 00:23:43.97	160.77	3.45	-40.0	-41.4	18.9	0.00e+00	123	34	0	18874368	54	5804
2026-01-26 00:23:44.98	160.78	3.52	-39.3	-40.6	19.7	0.00e+00	123	34	0	22020096	52	5937
2026-01-26 00:23:45.99	160.79	3.58	-39.3	-40.6	19.8	0.00e+00	122	34	0	25165824	52	5946
2026-01-26 00:23:47.00	160.80	3.65	-39.6	-40.9	19.6	0.00e+00	120	34	0	28311552	52	6155
2026-01-26 00:23:48.01	160.81	3.72	-40.1	-41.5	18.9	0.00e+00	123	34	0	31457280	52	6604
2026-01-26 00:23:49.02	160.82	3.79	-48.8	-60.9	3.5	9.86e-01	0	34	104	33554432	60	38733
2026-01-26 00:23:50.02	160.83	3.86	-43.4	-45.8	15.7	1.38e+00	122	34	104	33554432	58	7671
2026-01-26 00:23:51.03	160.84	3.93	-45.5	-50.3	9.9	2.23e-04	123	34	0	34603008	60	11508
2026-01-26 00:23:52.04	160.85	4.00	-46.4	-53.6	7.1	1.99e-01	122	34	0	37748736	60	16842
2026-01-26 00:23:53.05	160.86	4.07	-48.3	-60.9	3.7	1.40e+00	0	34	104	39845888	60	38754
2026-01-26 00:23:54.06	160.87	4.14	-44.1	-47.8	11.7	1.15e+00	122	34	104	39845888	60	8642
2026-01-26 00:23:55.07	160.88	4.21	-43.7	-46.6	13.2	3.46e-02	123	34	0	40894464	60	7546
2026-01-26 00:23:56.08	160.89	4.28	-44.0	-47.3	13.6	3.40e-02	122	34	0	44040192	60	8148
2026-01-26 00:23:57.09	160.90	4.35	-44.6	-48.3	12.3	3.46e-02	120	34	0	47185920	60	9083
2026-01-26 00:23:58.10	160.91	4.42	-44.2	-47.6	11.4	2.18e-02	123	34	0	50331648	60	8406
2026-01-26 00:23:59.11	160.92	4.49	-44.4	-48.1	12.4	3.18e-02	123	34	0	53477376	60	8869
2026-01-26 00:24:00.12	160.93	4.56	-44.4	-47.5	12.8	3.51e-02	123	34	0	56623104	60	8340
2026-01-26 00:24:01.13	160.94	4.63	-44.0	-46.6	13.9	1.35e-02	123	34	0	59768832	60	7545
2026-01-26 00:24:02.14	160.95	4.70	-45.4	-48.8	11.8	6.47e-03	122	34	0	62914560	60	9615
2026-01-26 00:24:03.15	160.96	4.77	-45.3	-48.0	13.3	6.01e-04	120	34	0	66060288	60	8802
2026-01-26 00:24:04.15	160.97	4.85	-44.2	-46.5	13.9	5.30e-06	120	34	0	69206016	60	7410
2026-01-26 00:24:05.16	160.98	4.92	-44.2	-46.3	14.3	4.50e-06	122	34	0	72351744	60	7272
2026-01-26 00:24:06.17	161.00	4.99	-44.6	-46.8	15.0	7.00e-07	122	34	0	75497472	60	7688
2026-01-26 00:24:07.18	161.01	5.06	-44.6	-46.9	14.7	7.00e-07	123	34	0	78643200	60	7752
2026-01-26 00:24:08.19	161.02	5.13	-44.5	-46.7	14.7	0.00e+00	123	34	0	81788928	60	7582
2026-01-26 00:24:09.20	161.03	5.21	-44.4	-46.7	14.5	0.00e+00	123	34	0	84934656	60	7583
2026-01-26 00:24:10.21	161.04	5.28	-44.8	-47.2	13.6	0.00e+00	122	34	0	88080384	60	8070
2026-01-26 00:24:11.22	161.05	5.35	-43.6	-45.5	15.7	0.00e+00	120	34	0	91226112	60	6639
2026-01-26 00:24:12.23	161.06	5.43	-42.0	-43.5	17.7	0.00e+00	123	34	0	94371840	58	5892
2026-01-26 00:24:13.24	161.07	5.50	-41.9	-43.4	17.7	0.00e+00	123	34	0	97517568	58	5841
2026-01-26 00:24:14.25	161.08	5.57	-42.1	-43.6	18.0	0.00e+00	123	34	0	100663296	58	5972
2026-01-26 00:24:15.27	161.09	5.65	-42.4	-44.0	17.5	0.00e+00	123	34	0	103809024	58	6234
2026-01-26 00:24:16.28	161.10	5.72	-42.2	-43.7	18.5	0.00e+00	122	34	0	106954752	56	6731
2026-01-26 00:24:17.29	161.11	5.80	-42.4	-43.9	18.6	0.00e+00	123	34	0	110100480	58	6178
2026-01-26 00:24:18.30	161.12	5.87	-43.2	-44.7	18.2	0.00e+00	122	34	0	113246208	58	6776
2026-01-26 00:24:19.31	161.13	5.95	-42.4	-43.9	17.6	0.00e+00	122	34	0	116391936	58	6204
2026-01-26 00:24:20.32	161.14	6.02	-42.4	-44.0	17.6	0.00e+00	123	34	0	119537664	58	6253
2026-01-26 00:24:21.33	161.16	6.10	-42.6	-44.1	17.9	0.00e+00	120	34	0	122683392	58	6332
2026-01-26 00:24:22.34	161.17	6.17	-41.9	-43.3	18.4	0.00e+00	123	34	0	125829120	56	6470
2026-01-26 00:24:23.34	161.18	6.25	-42.0	-43.5	18.0	0.00e+00	123	34	0	128974848	56	6584
2026-01-26 00:24:24.35	161.19	6.32	-42.0	-43.4	18.5	0.00e+00	123	34	0	132120576	56	6552
2026-01-26 00:24:25.36	161.20	6.40	-42.3	-43.8	18.3	0.00e+00	123	34	0	135266304	56	6818
2026-01-26 00:24:26.37	161.21	6.47	-41.5	-42.9	18.6	0.00e+00	120	34	0	138412032	58	5509
2026-01-26 00:24:27.38	161.22	6.55	-39.9	-41.1	20.1	0.00e+00	122	34	0	141557760	52	6301
2026-01-26 00:24:28.39	161.23	6.63	-40.1	-41.3	20.0	0.00e+00	123	34	0	144703488	52	6475
2026-01-26 00:24:29.40	161.24	6.70	-40.7	-42.0	19.7	0.00e+00	122	34	0	147849216	52	6978
2026-01-26 00:24:30.41	161.26	6.78	-40.9	-42.2	19.7	0.00e+00	122	34	0	150994944	52	7191
2026-01-26 00:24:31.42	161.27	6.86	-40.6	-41.9	20.1	0.00e+00	120	34	0	154140672	54	6172
2026-01-26 00:24:32.43	161.28	6.94	-40.2	-41.5	19.7	0.00e+00	122	34	0	157286400	54	5874
2026-01-26 00:24:33.44	161.29	7.02	-40.0	-41.2	20.4	0.00e+00	120	34	0	160432128	54	5680
2026-01-26 00:24:34.45	161.30	7.09	-40.0	-41.2	20.3	0.00e+00	123	34	0	163577856	52	6364
2026-01-26 00:24:35.46	161.31	7.17	-39.5	-40.6	20.7	0.00e+00	123	34	0	166723584	52	5987
2026-01-26 00:24:36.47	161.33	7.25	-39.2	-40.3	21.1	0.00e+00	121	34	0	169869312	52	5777
2026-01-26 00:24:37.48	161.34	7.33	-39.4	-40.6	21.1	0.00e+00	123	34	0	173015040	52	5938
2026-01-26 00:24:38.49	161.35	7.41	-38.8	-39.9	21.3	0.00e+00	123	34	0	176160768	52	5470
2026-01-26 00:24:39.51	161.36	7.49	-38.6	-39.7	21.4	0.00e+00	123	34	0	179306496	50	6044
2026-01-26 00:24:40.52	161.37	7.57	-38.1	-39.2	21.7	0.00e+00	120	34	0	182452224	50	5674
2026-01-26 00:24:41.52	161.38	7.65	-38.2	-39.3	21.9	0.00e+00	121	34	0	185597952	50	5745
2026-01-26 00:24:42.54	161.40	7.73	-38.8	-39.8	21.8	0.00e+00	120	34	0	188743680	50	6129
2026-01-26 00:24:43.55	161.41	7.81	-38.6	-39.6	22.0	0.00e+00	123	34	0	191889408	50	5980
2026-01-26 00:24:44.55	161.42	7.89	-38.5	-39.6	21.8	0.00e+00	122	34	0	195035136	50	5970
2026-01-26 00:24:45.57	161.43	7.97	-38.2	-39.2	22.0	0.00e+00	123	34	0	198180864	50	5700
2026-01-26 00:24:46.58	161.44	8.05	-38.2	-39.2	21.8	0.00e+00	123	34	0	201326592	50	5716
2026-01-26 00:24:47.58	161.46	8.13	-38.0	-39.1	21.9	0.00e+00	123	34	0	204472320	50	5597
2026-01-26 00:24:48.60	161.47	8.21	-37.7	-38.7	22.3	0.00e+00	123	34	0	207618048	48	6041
2026-01-26 00:24:49.60	161.48	8.30	-38.0	-39.1	22.0	0.00e+00	122	34	0	210763776	48	6300
2026-01-26 00:24:50.62	161.49	8.38	-37.6	-38.6	22.2	0.00e+00	122	34	0	213909504	48	5955
2026-01-26 00:24:51.63	161.50	8.46	-37.7	-38.7	22.3	0.00e+00	123	34	0	217055232	48	6028
2026-01-26 00:24:52.64	161.52	8.54	-38.0	-39.1	22.0	0.00e+00	122	34	0	220200960	48	6281
2026-01-26 00:24:53.65	161.53	8.63	-38.2	-39.2	21.8	0.00e+00	123	34	0	223346688	48	6416
2026-01-26 00:24:54.66	161.54	8.71	-37.7	-38.7	22.3	0.00e+00	120	34	0	226492416	48	6018
2026-01-26 00:24:55.67	161.55	8.79	-37.6	-38.6	22.4	0.00e+00	122	34	0	229638144	48	5956
2026-01-26 00:24:56.68	161.57	8.88	-37.0	-38.0	22.6	0.00e+00	122	34	0	232783872	48	5574
2026-01-26 00:24:57.69	161.58	8.96	-37.1	-38.1	22.7	0.00e+00	123	34	0	235929600	48	5612
2026-01-26 00:24:58.70	161.59	9.05	-37.4	-38.4	22.6	0.00e+00	123	34	0	239075328	48	5801
2026-01-26 00:24:59.71	161.61	9.13	-37.2	-38.2	22.7	0.00e+00	121	34	0	242221056	48	5679
2026-01-26 00:25:00.72	161.62	9.22	-37.4	-38.4	22.7	0.00e+00	122	34	0	245366784	48	5838
2026-01-26 00:25:01.73	161.63	9.30	-37.3	-38.3	22.7	0.00e+00	120	34	0	248512512	48	5779
2026-01-26 00:25:02.74	161.64	9.39	-37.6	-38.5	22.7	0.00e+00	122	34	0	251658240	48	5922
2026-01-26 00:25:03.75	161.66	9.47	-38.0	-38.9	22.8	0.00e+00	122	34	0	254803968	48	6191
2026-01-26 00:25:04.76	161.67	9.56	-37.5	-38.5	22.8	0.00e+00	123	34	0	257949696	48	5907
2026-01-26 00:25:05.77	161.68	9.64	-38.3	-39.3	22.6	0.00e+00	123	34	0	261095424	48	6429
2026-01-26 00:25:06.78	161.70	9.73	-37.8	-38.8	22.8	0.00e+00	122	34	0	264241152	48	6066
2026-01-26 00:25:07.79	161.71	9.82	-37.6	-38.6	22.7	0.00e+00	122	34	0	267386880	48	5932
2026-01-26 00:25:08.79	161.72	9.91	-37.4	-38.4	23.0	0.00e+00	123	34	0	270532608	48	5803
2026-01-26 00:25:09.80	161.74	9.99	-38.1	-39.0	23.0	0.00e+00	123	34	0	273678336	48	6235
2026-01-26 00:25:10.81	161.75	10.08	-38.1	-39.0	22.9	0.00e+00	120	34	0	276824064	48	6274
2026-01-26 00:25:11.82	161.76	10.17	-37.6	-38.6	22.8	0.00e+00	123	34	0	279969792	48	5936
2026-01-26 00:25:12.83	161.78	10.26	-37.4	-38.3	22.9	0.00e+00	122	34	0	283115520	48	5788
2026-01-26 00:25:13.84	161.79	10.35	-36.9	-37.9	23.1	0.00e+00	120	34	0	286261248	48	5503
2026-01-26 00:25:14.85	161.80	10.44	-37.7	-38.6	22.9	0.00e+00	123	34	0	289406976	48	5987
2026-01-26 00:25:15.86	161.82	10.53	-36.9	-37.8	23.2	0.00e+00	123	34	0	292552704	48	5434
2026-01-26 00:25:16.87	161.83	10.62	-36.7	-37.7	23.3	0.00e+00	120	34	0	295698432	48	5365
2026-01-26 00:25:17.88	161.84	10.71	-37.1	-38.0	23.3	0.00e+00	123	34	0	298844160	46	6261
2026-01-26 00:25:18.89	161.86	10.80	-37.3	-38.3	23.3	0.00e+00	123	34	0	301989888	46	6447
2026-01-26 00:25:19.90	161.87	10.89	-37.2	-38.1	23.3	0.00e+00	122	34	0	305135616	46	6343
2026-01-26 00:25:20.92	161.89	10.98	-36.9	-37.9	23.3	0.00e+00	120	34	0	308281344	46	6159
2026-01-26 00:25:21.93	161.90	11.07	-36.9	-37.9	23.4	0.00e+00	123	34	0	311427072	46	6144
2026-01-26 00:25:22.94	161.91	11.16	-36.8	-37.8	23.3	0.00e+00	120	34	0	314572800	46	6081
2026-01-26 00:25:23.95	161.93	11.26	-37.1	-38.0	23.3	0.00e+00	123	34	0	317718528	46	6250
2026-01-26 00:25:24.96	161.94	11.35	-37.9	-38.9	23.0	0.00e+00	123	34	0	320864256	46	6897
2026-01-26 00:25:25.97	161.96	11.44	-37.1	-38.0	23.2	0.00e+00	120	34	0	325058560	48	5585
2026-01-26 00:25:26.98	161.97	11.53	-36.8	-37.7	23.4	0.00e+00	123	34	0	328204288	46	6046
2026-01-26 00:25:27.99	161.99	11.63	-36.4	-37.4	23.5	0.00e+00	120	34	0	330301440	46	5813
2026-01-26 00:25:29.00	162.00	11.72	-36.3	-37.2	23.5	0.00e+00	123	34	0	333447168	46	5694
2026-01-26 00:25:30.01	162.02	11.82	-36.1	-37.0	23.6	0.00e+00	122	34	0	336592896	46	5555
2026-01-26 00:25:31.02	162.03	11.91	-36.1	-37.1	23.6	0.00e+00	123	34	0	340787200	46	5610
2026-01-26 00:25:32.03	162.05	12.01	-36.3	-37.2	23.5	0.00e+00	120	34	0	343932928	46	5713
2026-01-26 00:25:33.04	162.06	12.10	-36.7	-37.6	23.5	0.00e+00	122	34	0	347078656	46	5973
2026-01-26 00:25:34.05	162.08	12.20	-37.1	-38.1	23.4	0.00e+00	122	34	0	350224384	46	6347
2026-01-26 00:25:35.06	162.09	12.29	-36.8	-37.7	23.4	0.00e+00	123	34	0	353370112	46	6060
2026-01-26 00:25:36.07	162.11	12.39	-37.3	-38.3	23.2	0.00e+00	123	34	0	356515840	46	6469
2026-01-26 00:25:37.08	162.12	12.49	-37.3	-38.3	23.5	0.00e+00	122	34	0	359661568	48	5726
2026-01-26 00:25:38.09	162.14	12.58	-37.2	-38.2	23.6	0.00e+00	122	34	0	362807296	48	5684
2026-01-26 00:25:39.10	162.15	12.68	-37.9	-38.8	23.4	0.00e+00	122	34	0	365953024	48	6111
2026-01-26 00:25:40.11	162.17	12.78	-37.2	-38.1	23.6	0.00e+00	123	34	0	369098752	46	6335
2026-01-26 00:25:41.12	162.18	12.88	-36.7	-37.7	23.7	0.00e+00	122	34	0	372244480	46	5995
2026-01-26 00:25:42.13	162.20	12.98	-37.2	-38.2	23.6	0.00e+00	123	34	0	375390208	46	6391
2026-01-26 00:25:43.14	162.21	13.08	-36.8	-37.7	23.7	0.00e+00	123	34	0	378535936	46	6050
2026-01-26 00:25:44.15	162.23	13.18	-37.1	-38.0	23.7	0.00e+00	123	34	0	381681664	46	6220
2026-01-26 00:25:45.16	162.24	13.28	-37.3	-38.2	23.7	0.00e+00	122	34	0	384827392	46	6368
2026-01-26 00:25:46.17	162.26	13.38	-37.2	-38.1	23.7	0.00e+00	122	34	0	387973120	46	6315
2026-01-26 00:25:47.18	162.28	13.48	-37.1	-38.1	23.5	0.00e+00	123	34	0	391118848	46	6299
2026-01-26 00:25:48.19	162.29	13.58	-36.9	-37.9	23.5	0.00e+00	123	34	0	394264576	46	6154
2026-01-26 00:25:49.20	162.31	13.68	-36.5	-37.4	23.7	0.00e+00	122	34	0	397410304	46	5850
2026-01-26 00:25:50.21	162.33	13.78	-36.4	-37.3	23.7	0.00e+00	123	34	0	400556032	46	5746
2026-01-26 00:25:51.22	162.34	13.89	-36.4	-37.3	23.8	0.00e+00	122	34	0	403701760	46	5782
2026-01-26 00:25:52.23	162.36	13.99	-36.2	-37.1	23.7	0.00e+00	120	34	0	406847488	46	5632
2026-01-26 00:25:53.24	162.37	14.09	-36.3	-37.2	23.8	0.00e+00	120	34	0	409993216	46	5685
2026-01-26 00:25:54.25	162.39	14.20	-36.1	-37.0	23.8	0.00e+00	123	34	0	413138944	46	5594
2026-01-26 00:25:55.26	162.41	14.30	-36.2	-37.1	23.8	0.00e+00	120	34	0	416284672	46	5642
2026-01-26 00:25:56.27	162.42	14.41	-36.3	-37.2	23.6	0.00e+00	122	34	0	419430400	46	5710
2026-01-26 00:25:57.28	162.44	14.51	-36.7	-37.7	23.6	0.00e+00	120	34	0	422576128	46	6000
2026-01-26 00:25:58.29	162.46	14.62	-37.1	-38.0	23.4	0.00e+00	122	34	0	425721856	46	6266
2026-01-26 00:25:59.30	162.48	14.73	-36.9	-37.8	23.7	0.00e+00	122	34	0	428867584	46	6134
2026-01-26 00:26:00.31	162.49	14.83	-37.0	-38.0	23.7	0.00e+00	123	34	0	432013312	46	6208
2026-01-26 00:26:01.32	162.51	14.94	-37.0	-37.9	23.6	0.00e+00	122	34	0	435159040	46	6186
2026-01-26 00:26:02.33	162.53	15.05	-36.8	-37.8	23.5	0.00e+00	123	34	0	438304768	46	6065
2026-01-26 00:26:03.34	162.55	15.16	-36.3	-37.2	23.8	0.00e+00	120	34	0	441450496	46	5688
2026-01-26 00:26:04.35	162.56	15.26	-36.1	-37.1	23.8	0.00e+00	120	34	0	444596224	46	5596
2026-01-26 00:26:05.36	162.58	15.37	-36.4	-37.3	23.8	0.00e+00	122	34	0	447741952	46	5786
2026-01-26 00:26:06.37	162.60	15.48	-36.3	-37.2	23.8	0.00e+00	123	34	0	450887680	46	5717
2026-01-26 00:26:07.38	162.62	15.59	-36.3	-37.2	23.8	0.00e+00	123	34	0	454033408	46	5697
2026-01-26 00:26:08.39	162.63	15.70	-36.2	-37.2	23.9	0.00e+00	120	34	0	457179136	46	5677
2026-01-26 00:26:09.40	162.65	15.82	-36.3	-37.3	23.7	0.00e+00	122	34	0	460324864	46	5730
2026-01-26 00:26:10.41	162.67	15.93	-36.3	-37.3	23.9	0.00e+00	122	34	0	463470592	46	5734
2026-01-26 00:26:11.42	162.69	16.04	-36.2	-37.2	23.8	0.00e+00	122	34	0	466616320	46	5667
2026-01-26 00:26:12.42	162.71	16.15	-36.5	-37.5	23.5	0.00e+00	120	34	0	469762048	46	5889
2026-01-26 00:26:13.44	162.73	16.26	-36.9	-37.9	23.5	0.00e+00	122	34	0	472907776	46	6153
2026-01-26 00:26:14.45	162.74	16.38	-36.6	-37.5	23.4	0.00e+00	123	34	0	476053504	46	5903
2026-01-26 00:26:15.46	162.76	16.49	-36.5	-37.5	23.4	0.00e+00	123	34	0	479199232	46	5884
2026-01-26 00:26:16.47	162.78	16.61	-36.2	-37.1	23.6	0.00e+00	122	34	0	482344960	46	5631
2026-01-26 00:26:17.48	162.80	16.72	-36.3	-37.2	23.6	0.00e+00	123	34	0	485490688	46	5684
2026-01-26 00:26:18.49	162.82	16.84	-36.3	-37.3	23.6	0.00e+00	123	34	0	488636416	46	5752
2026-01-26 00:26:19.49	162.84	16.95	-36.9	-37.8	23.5	0.00e+00	122	34	0	491782144	46	6124
2026-01-26 00:26:20.51	162.86	17.07	-36.8	-37.8	23.7	0.00e+00	122	34	0	494927872	46	6089
2026-01-26 00:26:21.52	162.88	17.19	-36.8	-37.7	23.5	0.00e+00	123	34	0	498073600	46	6058
2026-01-26 00:26:22.53	162.90	17.31	-36.8	-37.7	23.7	0.00e+00	123	34	0	501219328	46	6059
2026-01-26 00:26:23.54	162.92	17.43	-36.6	-37.5	23.6	0.00e+00	120	34	0	504365056	46	5902
2026-01-26 00:26:24.55	162.94	17.55	-37.1	-38.1	23.6	0.00e+00	123	34	0	507510784	46	6295
2026-01-26 00:26:25.56	162.96	17.67	-36.2	-37.2	23.7	0.00e+00	122	34	0	510656512	46	5682
2026-01-26 00:26:26.57	162.98	17.79	-36.3	-37.2	23.7	0.00e+00	123	34	0	513802240	46	5690
2026-01-26 00:26:27.58	163.00	17.91	-36.3	-37.2	23.8	0.00e+00	122	34	0	516947968	46	5715
2026-01-26 00:26:28.59	163.02	18.03	-36.0	-36.9	23.8	0.00e+00	122	34	0	520093696	46	5486
2026-01-26 00:26:29.60	163.04	18.15	-36.0	-37.0	23.9	0.00e+00	120	34	0	523239424	46	5537
2026-01-26 00:26:30.61	163.06	18.27	-36.1	-37.0	23.9	0.00e+00	123	34	0	526385152	46	5564
2026-01-26 00:26:31.62	163.08	18.40	-36.2	-37.2	23.9	0.00e+00	122	34	0	529530880	46	5662
2026-01-26 00:26:32.63	163.10	18.52	-36.3	-37.3	24.0	0.00e+00	123	34	0	532676608	46	5731
2026-01-26 00:26:33.64	163.12	18.65	-36.5	-37.5	23.8	0.00e+00	123	34	0	535822336	46	5868
2026-01-26 00:26:34.65	163.14	18.77	-36.2	-37.1	23.8	0.00e+00	123	34	0	538968064	46	5650
2026-01-26 00:26:35.66	163.17	18.90	-36.2	-37.1	23.9	0.00e+00	123	34	0	542113792	46	5626
2026-01-26 00:26:36.67	163.19	19.02	-36.0	-36.9	24.0	0.00e+00	122	34	0	545259520	46	5528
2026-01-26 00:26:37.68	163.21	19.15	-35.6	-36.5	24.1	0.00e+00	122	34	0	548405248	44	5917
2026-01-26 00:26:38.69	163.23	19.28	-35.7	-36.6	24.2	0.00e+00	120	34	0	551550976	44	5963
2026-01-26 00:26:39.70	163.25	19.41	-35.5	-36.4	24.1	0.00e+00	123	34	0	554696704	44	5853
2026-01-26 00:26:40.71	163.28	19.54	-35.6	-36.5	24.1	0.00e+00	123	34	0	557842432	44	5914
2026-01-26 00:26:41.72	163.30	19.67	-35.5	-36.4	24.2	0.00e+00	122	34	0	560988160	44	5839
2026-01-26 00:26:42.73	163.32	19.80	-35.5	-36.4	24.3	0.00e+00	120	34	0	564133888	44	5814
2026-01-26 00:26:43.74	163.34	19.93	-35.4	-36.3	24.3	0.00e+00	123	34	0	567279616	44	5733
2026-01-26 00:26:44.75	163.37	20.06	-35.3	-36.2	24.4	0.00e+00	120	34	0	570425344	44	5700
2026-01-26 00:26:45.76	163.39	20.19	-35.5	-36.4	24.2	0.00e+00	122	34	0	573571072	44	5817
2026-01-26 00:26:46.77	163.41	20.33	-35.6	-36.5	24.5	0.00e+00	121	34	0	576716800	44	5915
2026-01-26 00:26:47.78	163.43	20.46	-35.5	-36.4	24.6	0.00e+00	123	34	0	579862528	44	5838
2026-01-26 00:26:48.79	163.46	20.60	-35.1	-36.0	24.6	0.00e+00	120	34	0	583008256	44	5581
2026-01-26 00:26:49.79	163.48	20.73	-35.2	-36.1	24.5	0.00e+00	123	34	0	586153984	44	5607
2026-01-26 00:26:50.80	163.51	20.87	-35.0	-35.9	24.6	0.00e+00	122	34	0	589299712	44	5507
2026-01-26 00:26:51.81	163.53	21.00	-34.8	-35.7	24.8	0.00e+00	122	34	0	592445440	44	5385
2026-01-26 00:26:52.82	163.55	21.14	-34.9	-35.8	24.7	0.00e+00	123	34	0	595591168	44	5433
2026-01-26 00:26:53.83	163.58	21.28	-34.8	-35.7	24.8	0.00e+00	122	34	0	598736896	42	6000
2026-01-26 00:26:54.84	163.60	21.42	-34.7	-35.6	24.8	0.00e+00	123	34	0	601882624	42	5947
2026-01-26 00:26:55.85	163.63	21.56	-34.4	-35.3	24.9	0.00e+00	123	34	0	605028352	42	5727
2026-01-26 00:26:56.86	163.65	21.70	-34.5	-35.3	25.0	0.00e+00	122	34	0	608174080	42	5762
2026-01-26 00:26:57.87	163.68	21.84	-34.5	-35.4	24.9	0.00e+00	120	34	0	611319808	42	5833
2026-01-26 00:26:58.88	163.70	21.98	-34.5	-35.3	24.9	0.00e+00	123	34	0	614465536	42	5770
2026-01-26 00:26:59.89	163.73	22.13	-34.3	-35.2	25.1	0.00e+00	123	34	0	617611264	42	5689
2026-01-26 00:27:00.90	163.75	22.27	-34.4	-35.3	25.1	0.00e+00	124	34	0	620756992	42	5738
2026-01-26 00:27:01.91	163.78	22.42	-34.5	-35.4	25.0	0.00e+00	122	34	0	623902720	42	5827
2026-01-26 00:27:02.92	163.81	22.56	-34.8	-35.7	24.8	0.00e+00	123	34	0	627048448	42	6028
2026-01-26 00:27:03.93	163.83	22.71	-34.5	-35.4	25.1	0.00e+00	122	34	0	630194176	42	5812
2026-01-26 00:27:04.94	163.86	22.85	-35.1	-35.9	25.2	0.00e+00	122	34	0	633339904	42	6205
2026-01-26 00:27:05.95	163.89	23.00	-34.6	-35.4	25.3	0.00e+00	122	34	0	636485632	42	5845
2026-01-26 00:27:06.96	163.91	23.15	-34.3	-35.1	25.2	0.00e+00	123	34	0	640679936	42	5653
2026-01-26 00:27:07.97	163.94	23.30	-34.2	-35.0	25.4	0.00e+00	122	34	0	643825664	42	5581
2026-01-26 00:27:08.98	163.97	23.45	-34.4	-35.2	25.2	0.00e+00	120	34	0	646971392	42	5721
2026-01-26 00:27:09.99	164.00	23.60	-34.4	-35.3	25.4	0.00e+00	120	34	0	649068544	42	5732
2026-01-26 00:27:11.00	164.02	23.76	-34.3	-35.1	25.2	0.00e+00	122	34	0	652214272	42	5644
2026-01-26 00:27:12.01	164.05	23.91	-34.1	-35.0	25.4	0.00e+00	120	34	0	656408576	42	5560
2026-01-26 00:27:13.02	164.08	24.06	-34.1	-34.9	25.4	0.00e+00	122	34	0	659554304	42	5525
2026-01-26 00:27:14.03	164.11	24.22	-34.2	-35.0	25.4	0.00e+00	123	34	0	662700032	42	5577
2026-01-26 00:27:15.04	164.14	24.37	-34.2	-35.1	25.4	0.00e+00	123	34	0	665845760	42	5597
2026-01-26 00:27:16.05	164.17	24.53	-34.7	-35.5	25.5	0.00e+00	122	34	0	668991488	42	5923
2026-01-26 00:27:17.06	164.20	24.69	-34.8	-35.7	25.3	0.00e+00	120	34	0	672137216	42	6012
2026-01-26 00:27:18.07	164.23	24.85	-34.7	-35.6	25.3	0.00e+00	123	34	0	675282944	42	5962
2026-01-26 00:27:19.08	164.26	25.01	-34.6	-35.4	25.3	0.00e+00	120	34	0	678428672	42	5855
2026-01-26 00:27:20.09	164.29	25.17	-35.2	-36.0	25.2	0.00e+00	122	34	0	681574400	42	6255
2026-01-26 00:27:21.10	164.32	25.33	-35.4	-36.2	25.1	0.00e+00	120	34	0	684720128	42	6421
2026-01-26 00:27:22.11	164.35	25.49	-35.6	-36.4	25.2	0.00e+00	122	34	0	687865856	42	6559
2026-01-26 00:27:23.12	164.38	25.66	-35.3	-36.1	25.0	0.00e+00	122	34	0	691011584	42	6338
2026-01-26 00:27:24.13	164.41	25.82	-35.4	-36.2	25.1	0.00e+00	123	34	0	694157312	42	6403
2026-01-26 00:27:25.13	164.44	25.99	-35.5	-36.4	24.8	0.00e+00	122	34	0	697303040	42	6513
2026-01-26 00:27:26.14	164.47	26.15	-35.7	-36.6	24.8	0.00e+00	120	34	0	700448768	44	5935
2026-01-26 00:27:27.15	164.51	26.32	-35.6	-36.5	24.7	0.00e+00	122	34	0	703594496	44	5878
2026-01-26 00:27:28.17	164.54	26.49	-36.0	-36.9	24.6	0.00e+00	123	34	0	706740224	44	6198
2026-01-26 00:27:29.17	164.57	26.66	-36.1	-37.0	24.5	0.00e+00	123	34	0	709885952	44	6208
2026-01-26 00:27:30.18	164.61	26.83	-36.1	-37.0	24.4	0.00e+00	121	34	0	713031680	44	6213
2026-01-26 00:27:31.19	164.64	27.00	-35.7	-36.6	24.3	0.00e+00	123	34	0	716177408	44	5943
2026-01-26 00:27:32.21	164.67	27.18	-35.8	-36.8	24.2	0.00e+00	122	34	0	719323136	44	6078
2026-01-26 00:27:33.21	164.71	27.35	-36.6	-37.5	24.0	0.00e+00	122	34	0	722468864	44	6608
2026-01-26 00:27:34.22	164.74	27.52	-36.9	-37.8	24.0	0.00e+00	122	34	0	725614592	46	6102
2026-01-26 00:27:35.24	164.78	27.70	-37.0	-37.9	23.7	0.00e+00	121	34	0	728760320	46	6182
2026-01-26 00:27:36.25	164.81	27.88	-37.2	-38.1	23.7	0.00e+00	123	34	0	731906048	46	6329
2026-01-26 00:27:37.26	164.85	28.06	-37.2	-38.2	23.7	0.00e+00	122	34	0	735051776	46	6385
2026-01-26 00:27:38.27	164.88	28.24	-37.7	-38.7	23.7	0.00e+00	122	34	0	738197504	48	6019
2026-01-26 00:27:39.28	164.92	28.42	-37.7	-38.7	23.7	0.00e+00	123	34	0	741343232	48	5998
2026-01-26 00:27:40.29	164.96	28.60	-37.1	-38.1	23.7	0.00e+00	122	34	0	744488960	48	5606
2026-01-26 00:27:41.30	164.99	28.79	-37.6	-38.6	23.6	0.00e+00	122	34	0	747634688	48	5955
2026-01-26 00:27:42.31	165.03	28.97	-37.4	-38.3	23.7	0.00e+00	123	34	0	750780416	48	5743
2026-01-26 00:27:43.31	165.07	29.15	-37.1	-38.1	24.0	0.00e+00	123	34	0	753926144	48	5601
2026-01-26 00:27:44.33	165.11	29.34	-37.1	-38.1	24.0	0.00e+00	123	34	0	757071872	46	6319
2026-01-26 00:27:45.34	165.15	29.53	-37.2	-38.1	23.9	0.00e+00	122	34	0	760217600	46	6306
2026-01-26 00:27:46.35	165.18	29.72	-36.9	-37.8	24.1	0.00e+00	120	34	0	763363328	46	6128
2026-01-26 00:27:47.36	165.22	29.91	-36.7	-37.6	24.2	0.00e+00	123	34	0	766509056	46	5952
2026-01-26 00:27:48.36	165.26	30.10	-37.2	-38.1	24.3	0.00e+00	123	34	0	769654784	46	6310
2026-01-26 00:27:49.38	165.30	30.30	-37.6	-38.5	24.3	0.00e+00	123	34	0	772800512	46	6645
2026-01-26 00:27:50.39	165.35	30.49	-36.1	-37.0	24.5	0.00e+00	122	34	0	775946240	46	5533
2026-01-26 00:27:51.39	165.39	30.69	-36.4	-37.3	24.4	0.00e+00	120	34	0	779091968	46	5768
2026-01-26 00:27:52.40	165.43	30.88	-36.3	-37.2	24.7	0.00e+00	122	34	0	782237696	46	5670
2026-01-26 00:27:53.41	165.47	31.08	-36.4	-37.3	24.4	0.00e+00	123	34	0	785383424	46	5745
2026-01-26 00:27:54.42	165.51	31.28	-35.9	-36.8	24.8	0.00e+00	122	34	0	788529152	46	5447
2026-01-26 00:27:55.43	165.56	31.48	-36.3	-37.3	24.9	0.00e+00	123	34	0	791674880	46	5727
2026-01-26 00:27:56.44	165.60	31.69	-36.3	-37.1	24.8	0.00e+00	123	34	0	794820608	46	5637
2026-01-26 00:27:57.45	165.64	31.89	-36.3	-37.2	24.7	0.00e+00	120	34	0	797966336	46	5683
2026-01-26 00:27:58.46	165.69	32.09	-36.0	-36.9	24.8	0.00e+00	122	34	0	801112064	46	5471
2026-01-26 00:27:59.47	165.73	32.30	-36.5	-37.4	24.8	0.00e+00	123	34	0	804257792	46	5831
2026-01-26 00:28:00.47	165.78	32.51	-36.1	-37.0	24.7	0.00e+00	122	34	0	807403520	46	5576
2026-01-26 00:28:01.48	165.82	32.72	-36.2	-37.0	24.7	0.00e+00	122	34	0	810549248	46	5594
2026-01-26 00:28:02.49	165.87	32.93	-35.9	-36.7	24.5	0.00e+00	121	34	0	813694976	46	5391
2026-01-26 00:28:03.50	165.92	33.14	-36.3	-37.2	24.7	0.00e+00	122	34	0	816840704	44	6363
2026-01-26 00:28:04.51	165.97	33.35	-36.3	-37.2	24.3	0.00e+00	120	34	0	819986432	44	6383
2026-01-26 00:28:05.52	166.01	33.57	-37.1	-38.0	24.4	0.00e+00	120	34	0	823132160	46	6226
2026-01-26 00:28:06.53	166.06	33.79	-36.6	-37.5	24.3	0.00e+00	122	34	0	826277888	46	5901
2026-01-26 00:28:07.53	166.11	34.00	-36.9	-37.8	24.1	0.00e+00	123	34	0	829423616	46	6115
2026-01-26 00:28:08.55	166.16	34.23	-37.3	-38.2	24.1	0.00e+00	122	34	0	832569344	48	5695
2026-01-26 00:28:09.56	166.21	34.45	-37.0	-37.9	24.1	0.00e+00	122	34	0	835715072	48	5495
2026-01-26 00:28:10.56	166.27	34.67	-36.9	-37.8	23.8	0.00e+00	123	34	0	838860800	46	6099
2026-01-26 00:28:11.57	166.32	34.89	-36.7	-37.6	24.1	0.00e+00	123	34	0	842006528	46	5937
2026-01-26 00:28:12.59	166.37	35.12	-37.4	-38.3	23.9	0.00e+00	123	34	0	845152256	46	6457
2026-01-26 00:28:13.60	166.42	35.35	-37.2	-38.1	23.8	0.00e+00	123	34	0	848297984	46	6342
2026-01-26 00:28:14.61	166.48	35.58	-37.2	-38.1	23.7	0.00e+00	120	34	0	851443712	48	5655
2026-01-26 00:28:15.62	166.53	35.81	-37.2	-38.1	23.6	0.00e+00	123	34	0	854589440	48	5611
2026-01-26 00:28:16.62	166.59	36.04	-37.4	-38.3	23.5	0.00e+00	123	34	0	857735168	48	5764
2026-01-26 00:28:17.64	166.65	36.28	-37.2	-38.1	23.4	0.00e+00	122	34	0	860880896	48	5659
2026-01-26 00:28:18.65	166.70	36.52	-37.6	-38.6	23.3	0.00e+00	122	34	0	864026624	48	5962
2026-01-26 00:28:19.66	166.76	36.75	-37.6	-38.5	23.3	0.00e+00	123	34	0	867172352	48	5888
2026-01-26 00:28:20.67	166.82	36.99	-37.8	-38.8	23.1	0.00e+00	123	34	0	870318080	48	6098
2026-01-26 00:28:21.67	166.88	37.23	-37.7	-38.6	23.2	0.00e+00	122	34	0	873463808	48	5991
2026-01-26 00:28:22.68	166.94	37.47	-37.9	-38.9	23.0	0.00e+00	122	34	0	876609536	48	6172
2026-01-26 00:28:23.69	167.00	37.72	-37.9	-38.9	23.0	0.00e+00	122	34	0	879755264	48	6157
2026-01-26 00:28:24.70	167.06	37.97	-37.8	-38.7	23.1	0.00e+00	123	34	0	882900992	48	6056
2026-01-26 00:28:25.71	167.13	38.21	-37.5	-38.5	23.2	0.00e+00	123	34	0	886046720	48	5887
2026-01-26 00:28:26.72	167.19	38.47	-37.2	-38.1	23.1	0.00e+00	122	34	0	889192448	48	5645
2026-01-26 00:28:27.74	167.26	38.72	-36.7	-37.6	23.5	0.00e+00	123	34	0	892338176	46	5980
2026-01-26 00:28:28.74	167.32	38.97	-36.7	-37.7	23.3	0.00e+00	123	34	0	895483904	46	6018
2026-01-26 00:28:29.75	167.39	39.23	-36.8	-37.8	23.5	0.00e+00	123	34	0	898629632	46	6083
2026-01-26 00:28:30.76	167.46	39.48	-36.8	-37.7	23.3	0.00e+00	123	34	0	901775360	46	6055
2026-01-26 00:28:31.78	167.53	39.75	-36.8	-37.7	23.4	0.00e+00	122	34	0	904921088	46	6061
2026-01-26 00:28:32.78	167.59	40.01	-36.7	-37.7	23.5	0.00e+00	123	34	0	908066816	46	6015
2026-01-26 00:28:33.79	167.67	40.27	-36.9	-37.9	23.4	0.00e+00	121	34	0	911212544	46	6138
2026-01-26 00:28:34.80	167.74	40.53	-37.4	-38.4	23.2	0.00e+00	122	34	0	914358272	46	6499
2026-01-26 00:28:35.81	167.81	40.80	-37.7	-38.6	23.1	0.00e+00	122	34	0	917504000	48	5963
2026-01-26 00:28:36.82	167.89	41.07	-37.8	-38.7	22.8	0.00e+00	123	34	0	920649728	48	6042
2026-01-26 00:28:37.83	167.96	41.34	-37.9	-38.9	22.5	0.00e+00	122	34	0	923795456	48	6204
2026-01-26 00:28:38.84	168.04	41.61	-38.2	-39.3	22.2	0.00e+00	122	34	0	926941184	48	6432
2026-01-26 00:28:39.85	168.12	41.89	-38.0	-39.1	22.1	0.00e+00	123	34	0	930086912	48	6282
2026-01-26 00:28:40.86	168.19	42.17	-38.1	-39.1	22.1	0.00e+00	123	34	0	933232640	48	6314
2026-01-26 00:28:41.87	168.28	42.45	-38.7	-39.8	21.6	0.00e+00	122	34	0	936378368	48	6861
2026-01-26 00:28:42.88	168.36	42.73	-39.6	-40.7	21.1	0.00e+00	120	34	0	939524096	50	6804
2026-01-26 00:28:43.89	168.44	43.01	-39.9	-41.0	21.0	0.00e+00	123	34	0	942669824	50	6986
2026-01-26 00:28:44.90	168.53	43.30	-39.5	-40.6	21.2	0.00e+00	122	34	0	945815552	52	5971
2026-01-26 00:28:45.91	168.61	43.58	-40.5	-41.6	20.9	0.00e+00	123	34	0	948961280	52	6724
2026-01-26 00:28:46.92	168.70	43.87	-40.8	-42.0	20.5	0.00e+00	120	34	0	952107008	54	6233
2026-01-26 00:28:47.93	168.79	44.16	-40.6	-41.7	20.8	0.00e+00	123	34	0	955252736	54	6048
2026-01-26 00:28:48.94	168.88	44.46	-40.6	-41.7	21.0	0.00e+00	123	34	0	958398464	54	6037
2026-01-26 00:28:49.95	168.97	44.75	-40.9	-42.1	20.7	0.00e+00	121	34	0	961544192	54	6328
2026-01-26 00:28:50.96	169.07	45.05	-40.5	-41.7	21.4	0.00e+00	123	34	0	964689920	54	5997
2026-01-26 00:28:51.97	169.16	45.35	-40.1	-41.2	21.4	0.00e+00	122	34	0	967835648	54	5708
2026-01-26 00:28:52.98	169.26	45.65	-40.3	-41.5	21.0	0.00e+00	121	34	0	970981376	54	5868
2026-01-26 00:28:53.99	169.36	45.96	-40.1	-41.2	21.0	0.00e+00	122	34	0	974127104	54	5719
2026-01-26 00:28:55.00	169.46	46.26	-40.4	-41.6	20.9	0.00e+00	123	34	0	977272832	54	5939
2026-01-26 00:28:56.01	169.56	46.57	-40.9	-42.0	21.0	0.00e+00	123	34	0	980418560	54	6260
2026-01-26 00:28:57.01	169.67	46.88	-40.1	-41.2	21.3	0.00e+00	123	34	0	984612864	54	5718
2026-01-26 00:28:58.02	169.78	47.19	-39.6	-40.7	21.5	0.00e+00	122	34	0	987758592	54	5367
2026-01-26 00:28:59.03	169.88	47.51	-40.1	-41.1	21.7	0.00e+00	123	34	0	989855744	52	6350
2026-01-26 00:29:00.04	170.00	47.83	-39.6	-40.7	22.1	0.00e+00	122	34	0	993001472	52	6002
2026-01-26 00:29:01.05	170.11	48.15	-39.9	-40.9	22.1	0.00e+00	122	34	0	996147200	52	6186
2026-01-26 00:29:02.06	170.23	48.47	-39.6	-40.7	22.4	0.00e+00	122	34	0	1000341504	52	6035
2026-01-26 00:29:03.07	170.34	48.79	-38.7	-39.7	22.6	0.00e+00	122	34	0	1003487232	52	5391
2026-01-26 00:29:04.08	170.47	49.12	-39.2	-40.2	23.0	0.00e+00	122	34	0	1006632960	50	6367
2026-01-26 00:29:05.09	170.59	49.45	-39.0	-39.9	23.1	0.00e+00	123	34	0	1009778688	50	6187
2026-01-26 00:29:06.10	170.71	49.78	-38.4	-39.3	23.4	0.00e+00	123	34	0	1011875840	50	5765
2026-01-26 00:29:07.11	170.84	50.12	-38.4	-39.3	23.5	0.00e+00	120	34	0	1016070144	50	5764
2026-01-26 00:29:08.12	170.97	50.45	-37.8	-38.8	23.4	0.00e+00	122	34	0	1019215872	48	6076
2026-01-26 00:29:09.13	171.11	50.79	-38.5	-39.5	23.3	0.00e+00	123	34	0	1022361600	48	6587
2026-01-26 00:29:10.14	171.25	51.13	-38.2	-39.1	23.4	0.00e+00	122	34	0	1025507328	50	5650
2026-01-26 00:29:11.15	171.39	51.47	-38.5	-39.5	23.3	0.00e+00	123	34	0	1028653056	50	5871
2026-01-26 00:29:12.16	171.53	51.82	-38.5	-39.4	23.3	0.00e+00	120	34	0	1031798784	50	5838
2026-01-26 00:29:13.17	171.68	52.17	-38.0	-38.9	23.3	0.00e+00	123	34	0	1034944512	50	5530
2026-01-26 00:29:14.18	171.83	52.52	-38.5	-39.5	23.3	0.00e+00	123	34	0	1038090240	50	5885
2026-01-26 00:29:15.19	171.98	52.87	-38.3	-39.2	23.6	0.00e+00	123	34	0	1041235968	50	5700
2026-01-26 00:29:16.20	172.14	53.22	-37.8	-38.7	23.7	0.00e+00	123	34	0	1044381696	48	6026
2026-01-26 00:29:17.21	172.30	53.58	-37.5	-38.4	23.9	0.00e+00	122	34	0	1047527424	48	5846
2026-01-26 00:29:18.22	172.47	53.94	-37.5	-38.4	24.0	0.00e+00	123	34	0	1050673152	48	5803
2026-01-26 00:29:19.23	172.63	54.30	-36.9	-37.8	24.2	0.00e+00	123	34	0	1053818880	46	6073
2026-01-26 00:29:20.23	172.81	54.66	-37.1	-38.0	24.2	0.00e+00	122	34	0	1056964608	46	6260
2026-01-26 00:29:21.24	172.98	55.03	-37.4	-38.3	24.2	0.00e+00	123	34	0	1060110336	46	6439
2026-01-26 00:29:22.25	173.17	55.39	-36.5	-37.4	24.2	0.00e+00	123	34	0	1063256064	46	5809
2026-01-26 00:29:23.26	173.35	55.76	-36.2	-37.1	24.0	0.00e+00	122	34	0	1066401792	46	5641
2026-01-26 00:29:24.27	173.55	56.14	-36.3	-37.2	24.1	0.00e+00	120	34	0	1069547520	46	5723
2026-01-26 00:29:25.28	173.74	56.51	-37.0	-38.0	23.5	0.00e+00	123	34	0	1072693248	46	6216
2026-01-26 00:29:26.29	173.95	56.89	-37.4	-38.3	23.5	0.00e+00	122	34	0	1075838976	46	6498
2026-01-26 00:29:27.30	174.15	57.27	-37.2	-38.2	23.6	0.00e+00	122	34	0	1078984704	46	6365
2026-01-26 00:29:28.31	174.37	57.65	-36.0	-36.9	24.3	0.00e+00	123	34	0	1082130432	46	5502
2026-01-26 00:29:29.32	174.59	58.03	-36.0	-36.9	24.6	0.00e+00	123	34	0	1085276160	44	6164
2026-01-26 00:29:30.33	174.81	58.42	-35.4	-36.3	24.8	0.00e+00	120	34	0	1088421888	44	5773
2026-01-26 00:29:31.34	175.05	58.81	-35.4	-36.3	24.7	0.00e+00	123	34	0	1091567616	44	5731
2026-01-26 00:29:32.35	175.28	59.20	-35.0	-35.9	24.3	0.00e+00	123	34	0	1094713344	44	5514
2026-01-26 00:29:33.37	175.53	59.59	-35.0	-35.9	24.6	0.00e+00	122	34	0	1097859072	44	5522
2026-01-26 00:29:34.37	175.79	59.98	-34.9	-35.8	25.0	0.00e+00	123	34	0	1101004800	42	6083
2026-01-26 00:29:35.38	176.05	60.38	-35.2	-36.1	25.1	0.00e+00	120	34	0	1104150528	42	6293
2026-01-26 00:29:36.39	176.32	60.78	-35.4	-36.2	25.2	0.00e+00	123	34	0	1107296256	42	6419
2026-01-26 00:29:37.40	176.60	61.18	-35.3	-36.1	25.3	0.00e+00	120	34	0	1110441984	42	6312
2026-01-26 00:29:38.41	176.88	61.58	-35.1	-35.9	25.2	0.00e+00	122	34	0	1113587712	44	5522
2026-01-26 00:29:39.43	177.18	61.99	-35.8	-36.7	25.2	0.00e+00	123	34	0	1116733440	44	6004
2026-01-26 00:29:40.44	177.49	62.39	-35.6	-36.4	25.1	0.00e+00	123	34	0	1119879168	44	5849
2026-01-26 00:29:41.45	177.81	62.80	-34.8	-35.6	25.6	0.00e+00	120	34	0	1123024896	44	5329
2026-01-26 00:29:42.45	178.13	63.20	-35.0	-35.8	25.5	0.00e+00	121	34	0	1126170624	42	6089
2026-01-26 00:29:43.46	178.47	63.61	-34.8	-35.7	25.5	0.00e+00	123	34	0	1129316352	42	6004
2026-01-26 00:29:44.48	178.82	64.03	-35.0	-35.8	25.5	0.00e+00	120	34	0	1132462080	42	6113
2026-01-26 00:29:45.49	179.19	64.44	-35.0	-35.8	25.5	0.00e+00	123	34	0	1135607808	42	6118
2026-01-26 00:29:46.50	179.56	64.86	-34.7	-35.6	25.5	0.00e+00	123	34	0	1138753536	44	5286
2026-01-26 00:29:47.51	179.96	65.27	-34.9	-35.8	25.2	0.00e+00	123	34	0	1141899264	42	6070
2026-01-26 00:29:48.52	180.36	65.69	-36.1	-36.9	25.0	0.00e+00	120	34	0	1145044992	44	6185
2026-01-26 00:29:49.53	180.78	66.11	-36.1	-37.0	24.9	0.00e+00	122	34	0	1148190720	44	6239
2026-01-26 00:29:50.54	181.22	66.52	-35.7	-36.6	24.9	0.00e+00	120	34	0	1151336448	46	5309
2026-01-26 00:29:51.55	181.67	66.94	-35.4	-36.3	25.0	0.00e+00	123	34	0	1154482176	44	5736
2026-01-26 00:29:52.56	182.15	67.36	-36.2	-37.1	24.8	0.00e+00	120	34	0	1157627904	44	6322
2026-01-26 00:29:53.57	182.64	67.79	-34.8	-35.6	25.0	0.00e+00	122	34	0	1160773632	44	5321
2026-01-26 00:29:54.58	183.15	68.21	-35.7	-36.6	24.8	0.00e+00	123	34	0	1163919360	44	5930
2026-01-26 00:29:55.59	183.69	68.63	-35.6	-36.4	24.4	0.00e+00	123	34	0	1167065088	44	5848
2026-01-26 00:29:56.60	184.25	69.05	-36.0	-36.9	24.1	0.00e+00	122	34	0	1170210816	44	6205
2026-01-26 00:29:57.61	184.83	69.47	-35.5	-36.4	24.9	0.00e+00	120	34	0	1173356544	44	5798
2026-01-26 00:29:58.62	185.44	69.90	-34.8	-35.7	25.1	0.00e+00	122	34	0	1176502272	42	6023
2026-01-26 00:29:59.63	186.07	70.32	-36.2	-37.0	25.4	0.00e+00	120	34	0	1179648000	44	6272
2026-01-26 00:30:00.64	186.74	70.74	-35.6	-36.4	25.2	0.00e+00	123	34	0	1182793728	44	5851
2026-01-26 00:30:01.65	187.44	71.16	-36.7	-37.5	24.9	0.00e+00	123	34	0	1185939456	44	6649
2026-01-26 00:30:02.66	188.17	71.58	-36.3	-37.2	24.3	0.00e+00	122	34	0	1189085184	44	6407
2026-01-26 00:30:03.67	188.94	72.00	-37.2	-38.2	24.1	0.00e+00	124	34	0	1192230912	46	6402
2026-01-26 00:30:04.68	189.74	72.41	-35.7	-36.8	21.9	7.52e-03	120	34	0	1195376640	46	5430
2026-01-26 00:30:05.69	190.59	72.83	-36.0	-37.1	22.1	8.65e-03	123	34	0	1198522368	44	6282
2026-01-26 00:30:06.70	191.48	73.24	-35.2	-36.2	22.3	8.01e-03	122	34	0	1201668096	44	5684
2026-01-26 00:30:07.71	192.42	73.65	-35.2	-36.2	22.2	8.42e-03	123	34	0	1204813824	44	5719
2026-01-26 00:30:08.72	193.40	74.06	-34.7	-35.7	22.3	8.53e-03	122	34	0	1207959552	44	5391
2026-01-26 00:30:09.73	194.44	74.46	-35.9	-37.0	22.0	7.34e-03	123	34	0	1211105280	46	5547
2026-01-26 00:30:10.73	195.53	74.86	-35.0	-36.0	23.2	1.66e-03	120	34	0	1214251008	44	5560
2026-01-26 00:30:11.74	196.69	75.25	-34.0	-35.0	23.6	1.07e-04	122	34	0	1217396736	42	5541
2026-01-26 00:30:12.76	197.93	75.64	-34.2	-35.1	22.6	2.67e-03	120	34	0	1220542464	42	5657
2026-01-26 00:30:13.76	199.21	76.03	-34.7	-35.6	22.3	8.15e-03	123	34	0	1223688192	42	5986
2026-01-26 00:30:14.77	200.58	76.40	-35.0	-35.8	25.7	0.00e+00	121	34	0	1226833920	42	6123
2026-01-26 00:30:15.78	202.02	76.78	-34.9	-35.7	25.7	0.00e+00	122	34	0	1229979648	42	6050
2026-01-26 00:30:16.79	203.56	77.14	-34.7	-35.5	25.7	0.00e+00	120	34	0	1233125376	42	5899
2026-01-26 00:30:17.80	205.18	77.49	-34.2	-35.1	25.6	0.00e+00	123	34	0	1236271104	42	5621
2026-01-26 00:30:18.81	206.90	77.84	-34.6	-35.4	25.8	0.00e+00	123	34	0	1239416832	42	5800
2026-01-26 00:30:19.82	208.73	78.18	-34.8	-35.6	25.7	0.00e+00	123	34	0	1242562560	42	5964
2026-01-26 00:30:20.83	210.65	78.50	-35.8	-36.7	25.0	0.00e+00	122	34	0	1245708288	42	6757
2026-01-26 00:30:21.84	212.69	78.81	-34.8	-35.6	25.9	0.00e+00	123	34	0	1248854016	42	5994
2026-01-26 00:30:22.85	214.85	79.11	-35.0	-35.8	25.6	0.00e+00	122	34	0	1251999744	42	6133
2026-01-26 00:30:23.86	217.13	79.39	-33.9	-34.7	25.8	0.00e+00	123	34	0	1255145472	42	5357
2026-01-26 00:30:24.87	219.52	79.65	-34.0	-34.8	25.2	0.00e+00	120	34	0	1258291200	40	6103
2026-01-26 00:30:25.88	222.05	79.90	-34.4	-35.3	25.3	0.00e+00	122	34	0	1261436928	42	5727
2026-01-26 00:30:26.89	224.69	80.12	-35.0	-35.9	25.2	0.00e+00	123	34	0	1264582656	42	6163
2026-01-26 00:30:27.90	227.45	80.33	-35.0	-35.9	24.9	0.00e+00	120	34	0	1267728384	42	6172
2026-01-26 00:30:28.91	230.33	80.51	-35.6	-36.5	25.1	0.00e+00	123	34	0	1270874112	44	5886
2026-01-26 00:30:29.92	233.31	80.67	-34.5	-35.3	25.1	0.00e+00	123	34	0	1274019840	42	5779
2026-01-26 00:30:30.93	236.39	80.80	-35.1	-36.0	25.3	0.00e+00	123	34	0	1277165568	42	6248
2026-01-26 00:30:31.94	239.55	80.90	-35.1	-36.0	25.2	0.00e+00	120	34	0	1280311296	42	6212
2026-01-26 00:30:32.95	242.77	80.98	-35.7	-36.6	25.0	0.00e+00	122	34	0	1283457024	42	6662
2026-01-26 00:30:33.96	246.04	81.03	-35.1	-35.9	25.2	0.00e+00	120	34	0	1286602752	44	5512
2026-01-26 00:30:34.97	249.34	81.05	-35.2	-36.1	25.2	0.00e+00	122	34	0	1289748480	44	5641
2026-01-26 00:30:35.98	252.64	81.04	-34.9	-35.8	25.3	0.00e+00	120	34	0	1292894208	44	5416
2026-01-26 00:30:36.99	255.92	81.00	-34.9	-35.7	25.3	0.00e+00	123	34	0	1296039936	42	6047
2026-01-26 00:30:38.00	259.16	80.94	-35.1	-36.0	25.2	0.00e+00	121	34	0	1299185664	42	6211
2026-01-26 00:30:39.01	262.35	80.84	-34.9	-35.7	25.5	0.00e+00	123	34	0	1302331392	42	6035
2026-01-26 00:30:40.02	265.46	80.72	-34.8	-35.6	25.8	0.00e+00	123	34	0	1305477120	42	5974
2026-01-26 00:30:41.03	268.48	80.57	-33.8	-34.6	25.9	0.00e+00	120	34	0	1308622848	40	5991
2026-01-26 00:30:42.04	271.39	80.40	-34.5	-35.3	25.4	0.00e+00	122	34	0	1311768576	40	6474
2026-01-26 00:30:43.05	274.20	80.20	-34.9	-35.7	25.3	0.00e+00	120	34	0	1314914304	42	6036
2026-01-26 00:30:44.06	276.88	79.98	-35.6	-36.5	25.5	0.00e+00	122	34	0	1318060032	42	6623
2026-01-26 00:30:45.07	279.45	79.74	-35.0	-35.8	25.5	0.00e+00	120	34	0	1322254336	42	6120
2026-01-26 00:30:46.08	281.89	79.49	-35.3	-36.2	25.0	0.00e+00	123	34	0	1325400064	42	6369
2026-01-26 00:30:47.09	284.21	79.21	-35.7	-36.5	25.2	0.00e+00	123	34	0	1328545792	42	6615
2026-01-26 00:30:48.10	286.41	78.92	-34.4	-35.2	25.9	0.00e+00	123	34	0	1330642944	42	5695
2026-01-26 00:30:49.11	288.49	78.62	-33.8	-34.6	26.0	0.00e+00	123	34	0	1333788672	42	5302
2026-01-26 00:30:50.12	290.46	78.30	-34.5	-35.3	25.7	0.00e+00	123	34	0	1337982976	42	5765
2026-01-26 00:30:51.13	292.32	77.97	-34.6	-35.4	25.9	0.00e+00	122	34	0	1341128704	42	5846
2026-01-26 00:30:52.14	294.07	77.62	-34.7	-35.5	25.8	0.00e+00	123	34	0	1344274432	42	5909
2026-01-26 00:30:53.15	295.73	77.27	-34.1	-34.9	25.3	0.00e+00	123	34	0	1347420160	42	5495
2026-01-26 00:30:54.15	297.28	76.92	-34.8	-35.7	25.1	0.00e+00	120	34	0	1350565888	42	6002
2026-01-26 00:30:55.16	298.76	76.55	-35.1	-36.0	25.5	0.00e+00	122	34	0	1353711616	42	6215
2026-01-26 00:30:56.18	300.17	76.17	-34.8	-35.7	25.7	0.00e+00	122	34	0	1356857344	42	6015
2026-01-26 00:30:57.18	301.48	75.79	-35.6	-36.5	25.2	0.00e+00	122	34	0	1360003072	44	5884
2026-01-26 00:30:58.19	302.73	75.40	-35.2	-36.0	25.3	0.00e+00	120	34	0	1363148800	44	5587
2026-01-26 00:30:59.21	303.92	75.01	-34.2	-35.0	25.5	0.00e+00	122	34	0	1366294528	44	4965
2026-01-26 00:31:00.22	305.04	74.61	-34.8	-35.7	25.2	0.00e+00	122	34	0	1369440256	42	6000
2026-01-26 00:31:01.23	306.10	74.21	-34.8	-35.7	25.3	0.00e+00	123	34	0	1372585984	42	6023
2026-01-26 00:31:02.24	307.11	73.80	-34.3	-35.2	25.3	0.00e+00	122	34	0	1375731712	42	5699
2026-01-26 00:31:03.25	308.06	73.39	-35.3	-36.2	25.4	0.00e+00	123	34	0	1378877440	42	6382
2026-01-26 00:31:04.26	308.97	72.98	-35.2	-36.0	25.4	0.00e+00	122	34	0	1382023168	44	5592
2026-01-26 00:31:05.27	309.83	72.57	-35.6	-36.4	25.3	0.00e+00	122	34	0	1385168896	44	5810
2026-01-26 00:31:06.27	310.64	72.16	-34.6	-35.4	25.8	0.00e+00	120	34	0	1388314624	42	5811
2026-01-26 00:31:07.28	311.42	71.74	-34.6	-35.4	25.9	0.00e+00	123	34	0	1391460352	42	5825
2026-01-26 00:31:08.29	312.16	71.32	-34.6	-35.4	25.9	0.00e+00	122	34	0	1394606080	42	5854
2026-01-26 00:31:09.30	312.87	70.90	-34.9	-35.7	25.8	0.00e+00	123	34	0	1397751808	42	6029
2026-01-26 00:31:10.31	313.55	70.48	-35.0	-35.9	25.0	0.00e+00	122	34	0	1400897536	42	6137
2026-01-26 00:31:11.32	314.20	70.06	-34.8	-35.7	24.7	0.00e+00	123	34	0	1404043264	42	6006
2026-01-26 00:31:12.33	314.82	69.64	-34.8	-35.7	24.6	0.00e+00	123	34	0	1407188992	42	6030
2026-01-26 00:31:13.34	315.41	69.22	-34.0	-34.9	25.3	0.00e+00	120	34	0	1410334720	42	5468
2026-01-26 00:31:14.35	315.97	68.80	-33.8	-34.6	25.7	0.00e+00	122	34	0	1413480448	42	5327
2026-01-26 00:31:15.36	316.52	68.38	-34.8	-35.6	25.6	0.00e+00	122	34	0	1416626176	42	5985
2026-01-26 00:31:16.37	317.04	67.96	-34.8	-35.6	25.3	0.00e+00	123	34	0	1419771904	42	5994
2026-01-26 00:31:17.38	317.54	67.54	-35.7	-36.6	24.8	0.00e+00	120	34	0	1422917632	44	5965
2026-01-26 00:31:18.39	318.02	67.12	-35.3	-36.2	24.3	0.00e+00	120	34	0	1426063360	44	5673
2026-01-26 00:31:19.40	318.48	66.70	-35.0	-35.9	24.3	0.00e+00	122	34	0	1429209088	44	5496
2026-01-26 00:31:20.41	318.92	66.28	-34.5	-35.4	25.0	0.00e+00	120	34	0	1432354816	42	5826
2026-01-26 00:31:21.42	319.35	65.86	-34.3	-35.2	25.1	0.00e+00	123	34	0	1435500544	42	5673
2026-01-26 00:31:22.43	319.76	65.45	-34.1	-34.9	25.6	0.00e+00	122	34	0	1438646272	42	5514
2026-01-26 00:31:23.44	320.16	65.03	-33.6	-34.4	25.8	0.00e+00	123	34	0	1441792000	40	5847
2026-01-26 00:31:24.45	320.54	64.62	-35.9	-36.8	24.6	0.00e+00	123	34	0	1444937728	42	6857
2026-01-26 00:31:25.46	320.91	64.20	-37.3	-38.3	23.7	0.00e+00	123	34	0	1448083456	46	6466
2026-01-26 00:31:26.47	321.26	63.79	-37.2	-38.2	24.0	0.00e+00	123	34	0	1451229184	46	6355
2026-01-26 00:31:27.48	321.61	63.38	-36.2	-37.2	24.8	0.00e+00	123	34	0	1454374912	46	5680
2026-01-26 00:31:28.49	321.94	62.98	-34.1	-35.0	25.5	0.00e+00	122	34	0	1457520640	42	5547
2026-01-26 00:31:29.50	322.26	62.57	-34.1	-34.9	25.9	0.00e+00	123	34	0	1460666368	42	5510
2026-01-26 00:31:30.51	322.57	62.16	-34.1	-34.9	25.9	0.00e+00	123	34	0	1463812096	40	6179
2026-01-26 00:31:31.52	322.87	61.76	-35.2	-36.0	25.0	0.00e+00	122	34	0	1466957824	40	7042
2026-01-26 00:31:32.53	323.16	61.36	-35.8	-36.8	24.3	0.00e+00	123	34	0	1470103552	44	6071
2026-01-26 00:31:33.54	323.44	60.96	-37.0	-38.0	23.4	0.00e+00	123	34	0	1473249280	46	6253
2026-01-26 00:31:34.55	323.72	60.56	-37.5	-38.6	22.9	0.00e+00	122	34	0	1476395008	46	6684
2026-01-26 00:31:35.56	323.98	60.17	-35.9	-36.9	23.6	0.00e+00	120	34	0	1479540736	46	5505
2026-01-26 00:31:36.57	324.24	59.77	-34.7	-35.6	24.2	0.00e+00	123	34	0	1482686464	42	5974
2026-01-26 00:31:37.58	324.49	59.38	-34.9	-35.7	24.9	0.00e+00	124	34	0	1485832192	42	6055
2026-01-26 00:31:38.59	324.73	58.99	-34.8	-35.7	25.5	0.00e+00	122	34	0	1488977920	42	6008
2026-01-26 00:31:39.60	324.97	58.61	-35.1	-36.0	25.5	0.00e+00	120	34	0	1492123648	42	6219
2026-01-26 00:31:40.61	325.19	58.22	-35.3	-36.2	24.9	0.00e+00	122	34	0	1495269376	42	6414
2026-01-26 00:31:41.62	325.42	57.84	-36.2	-37.2	24.2	0.00e+00	122	34	0	1498415104	44	6352
2026-01-26 00:31:42.63	325.63	57.46	-37.6	-38.7	23.2	0.00e+00	120	34	0	1501560832	46	6727
2026-01-26 00:31:43.64	325.84	57.08	-38.6	-39.8	22.1	0.00e+00	122	34	0	1504706560	48	6823
2026-01-26 00:31:44.65	326.05	56.70	-38.8	-40.1	21.4	0.00e+00	120	34	0	1507852288	50	6299
2026-01-26 00:31:45.66	326.25	56.32	-38.5	-39.8	21.3	0.00e+00	123	34	0	1510998016	50	6090
2026-01-26 00:31:46.67	326.44	55.95	-37.3	-38.3	22.9	0.00e+00	123	34	0	1514143744	48	5784
2026-01-26 00:31:47.68	326.63	55.58	-35.3	-36.2	24.4	0.00e+00	123	34	0	1517289472	44	5702
2026-01-26 00:31:48.69	326.81	55.21	-34.8	-35.7	25.1	0.00e+00	122	34	0	1520435200	44	5373
2026-01-26 00:31:49.70	326.99	54.85	-35.0	-35.9	25.0	0.00e+00	123	34	0	1523580928	42	6182
2026-01-26 00:31:50.71	327.17	54.48	-35.6	-36.5	24.3	0.00e+00	122	34	0	1526726656	42	6646
2026-01-26 00:31:51.73	327.34	54.12	-35.8	-36.8	24.0	0.00e+00	123	34	0	1529872384	44	6085
2026-01-26 00:31:52.74	327.51	53.76	-37.0	-38.0	23.6	0.00e+00	120	34	0	1533018112	46	6222
2026-01-26 00:31:53.74	327.67	53.41	-38.0	-39.1	22.9	0.00e+00	122	34	0	1536163840	46	7089
2026-01-26 00:31:54.75	327.83	53.05	-37.9	-39.0	22.7	0.00e+00	120	34	0	1539309568	48	6265
2026-01-26 00:31:55.76	327.98	52.70	-38.3	-39.4	22.5	0.00e+00	120	34	0	1542455296	50	5856
2026-01-26 00:31:56.76	328.13	52.36	-38.3	-39.4	22.4	0.00e+00	123	34	0	1545601024	50	5839
2026-01-26 00:31:57.77	328.28	52.01	-37.6	-38.6	22.7	0.00e+00	123	34	0	1548746752	48	5990
2026-01-26 00:31:58.78	328.43	51.66	-36.9	-37.9	23.3	0.00e+00	120	34	0	1551892480	48	5514
2026-01-26 00:31:59.79	328.57	51.32	-37.4	-38.3	23.7	0.00e+00	123	34	0	1555038208	46	6474
2026-01-26 00:32:00.80	328.71	50.98	-36.4	-37.4	23.9	0.00e+00	122	34	0	1558183936	46	5825
2026-01-26 00:32:01.82	328.84	50.64	-37.7	-38.7	23.5	0.00e+00	123	34	0	1561329664	46	6775
2026-01-26 00:32:02.83	328.98	50.30	-37.3	-38.3	23.1	0.00e+00	123	34	0	1564475392	48	5777
2026-01-26 00:32:03.84	329.11	49.97	-38.8	-39.8	22.3	0.00e+00	123	34	0	1567621120	48	6858
2026-01-26 00:32:04.85	329.23	49.64	-38.9	-40.0	22.2	0.00e+00	123	34	0	1570766848	50	6231
2026-01-26 00:32:05.86	329.36	49.31	-39.1	-40.2	21.4	0.00e+00	123	34	0	1573912576	50	6397
2026-01-26 00:32:06.87	329.48	48.98	-38.9	-39.9	21.9	0.00e+00	123	34	0	1577058304	50	6196
2026-01-26 00:32:07.88	329.60	48.66	-39.2	-40.3	22.2	0.00e+00	122	34	0	1580204032	50	6437
2026-01-26 00:32:08.89	329.72	48.34	-38.7	-39.8	22.6	0.00e+00	123	34	0	1583349760	50	6092
2026-01-26 00:32:09.90	329.83	48.02	-38.6	-39.7	22.5	0.00e+00	122	34	0	1586495488	50	6007
2026-01-26 00:32:10.91	329.94	47.70	-37.9	-38.9	22.6	0.00e+00	123	34	0	1589641216	48	6176
2026-01-26 00:32:11.92	330.06	47.38	-37.9	-38.9	22.7	0.00e+00	122	34	0	1592786944	48	6156
2026-01-26 00:32:12.93	330.16	47.07	-38.0	-39.0	22.4	0.00e+00	120	34	0	1595932672	48	6244
2026-01-26 00:32:13.94	330.27	46.76	-37.6	-38.5	23.2	0.00e+00	123	34	0	1599078400	48	5884
2026-01-26 00:32:14.95	330.37	46.45	-37.7	-38.6	22.9	0.00e+00	122	34	0	1602224128	48	5975
2026-01-26 00:32:15.96	330.48	46.14	-37.9	-39.0	22.7	0.00e+00	123	34	0	1605369856	48	6212
2026-01-26 00:32:16.97	330.58	45.84	-38.6	-39.7	22.0	0.00e+00	122	34	0	1608515584	48	6747
2026-01-26 00:32:17.98	330.67	45.54	-39.3	-40.4	21.7	0.00e+00	122	34	0	1611661312	50	6540
2026-01-26 00:32:18.99	330.77	45.24	-40.3	-41.5	21.0	0.00e+00	120	34	0	1614807040	52	6617
2026-01-26 00:32:20.00	330.87	44.94	-39.7	-41.0	20.4	0.00e+00	123	34	0	1617952768	52	6229
2026-01-26 00:32:21.01	330.96	44.64	-39.5	-40.7	20.5	0.00e+00	120	34	0	1621098496	52	6043
2026-01-26 00:32:22.02	331.05	44.35	-39.6	-40.8	21.0	0.00e+00	123	34	0	1624244224	52	6103
2026-01-26 00:32:23.03	331.14	44.06	-39.1	-40.2	21.8	0.00e+00	123	34	0	1627389952	52	5665
2026-01-26 00:32:24.04	331.23	43.77	-38.1	-39.1	22.4	0.00e+00	120	34	0	1630535680	50	5619
2026-01-26 00:32:25.05	331.32	43.48	-38.1	-39.1	22.6	0.00e+00	123	34	0	1633681408	50	5639
2026-01-26 00:32:26.06	331.40	43.20	-38.0	-39.0	22.7	0.00e+00	122	34	0	1636827136	50	5538
2026-01-26 00:32:27.07	331.49	42.91	-38.3	-39.3	22.4	0.00e+00	123	34	0	1641021440	50	5772
2026-01-26 00:32:28.08	331.57	42.63	-37.8	-38.8	22.8	0.00e+00	122	34	0	1644167168	50	5426
2026-01-26 00:32:29.09	331.65	42.35	-37.6	-38.6	22.7	0.00e+00	122	34	0	1646264320	48	5963
2026-01-26 00:32:30.10	331.73	42.08	-37.4	-38.4	22.6	0.00e+00	123	34	0	1649410048	48	5819
2026-01-26 00:32:31.11	331.81	41.80	-37.7	-38.7	22.6	0.00e+00	123	34	0	1652555776	48	6006
2026-01-26 00:32:32.12	331.89	41.53	-37.2	-38.1	22.7	0.00e+00	123	34	0	1656750080	48	5647
2026-01-26 00:32:33.13	331.96	41.26	-37.6	-38.6	22.5	0.00e+00	121	34	0	1659895808	48	5959
2026-01-26 00:32:34.14	332.04	40.99	-37.9	-38.9	22.5	0.00e+00	123	34	0	1663041536	48	6185
2026-01-26 00:32:35.15	332.11	40.72	-38.3	-39.3	22.3	0.00e+00	122	34	0	1666187264	48	6450
2026-01-26 00:32:36.16	332.19	40.46	-39.4	-40.4	21.7	0.00e+00	120	34	0	1668284416	50	6563
2026-01-26 00:32:37.17	332.26	40.19	-39.5	-40.5	21.9	0.00e+00	120	34	0	1672478720	50	6644
2026-01-26 00:32:38.18	332.33	39.93	-39.3	-40.4	21.8	0.00e+00	120	34	0	1675624448	50	6507
2026-01-26 00:32:39.19	332.40	39.67	-39.3	-40.4	21.5	0.00e+00	122	34	0	1678770176	50	6516
2026-01-26 00:32:40.20	332.47	39.42	-39.1	-40.2	21.6	0.00e+00	120	34	0	1681915904	50	6383
2026-01-26 00:32:41.21	332.53	39.16	-39.0	-40.0	21.9	0.00e+00	122	34	0	1685061632	50	6274
2026-01-26 00:32:42.22	332.60	38.91	-38.6	-39.6	22.1	0.00e+00	120	34	0	1688207360	50	5962
2026-01-26 00:32:43.23	332.67	38.65	-37.6	-38.6	22.5	0.00e+00	122	34	0	1691353088	48	5988
2026-01-26 00:32:44.24	332.73	38.40	-37.8	-38.8	22.9	0.00e+00	122	34	0	1694498816	48	6080
2026-01-26 00:32:45.25	332.79	38.16	-37.2	-38.1	23.3	0.00e+00	120	34	0	1697644544	48	5637
2026-01-26 00:32:46.26	332.86	37.91	-36.9	-37.8	23.5	0.00e+00	122	35	0	1700790272	48	5441
2026-01-26 00:32:47.27	332.92	37.66	-36.9	-37.8	23.7	0.00e+00	122	34	0	1703936000	46	6097
2026-01-26 00:32:48.28	332.98	37.42	-37.0	-37.9	23.3	0.00e+00	123	34	0	1707081728	46	6194
2026-01-26 00:32:49.29	333.04	37.18	-37.3	-38.3	23.1	0.00e+00	121	34	0	1710227456	46	6434
2026-01-26 00:32:50.30	333.10	36.94	-37.1	-38.1	23.2	0.00e+00	123	34	0	1713373184	48	5600
2026-01-26 00:32:51.31	333.16	36.70	-37.1	-38.1	23.4	0.00e+00	123	34	0	1716518912	48	5607
2026-01-26 00:32:52.32	333.22	36.47	-37.0	-37.9	23.2	0.00e+00	123	34	0	1719664640	48	5520
2026-01-26 00:32:53.33	333.27	36.23	-36.6	-37.6	23.6	0.00e+00	122	34	0	1722810368	46	5957
2026-01-26 00:32:54.34	333.33	36.00	-36.4	-37.3	23.6	0.00e+00	123	34	0	1725956096	46	5771
2026-01-26 00:32:55.35	333.38	35.77	-36.6	-37.5	23.5	0.00e+00	122	34	0	1729101824	46	5913
2026-01-26 00:32:56.36	333.44	35.54	-36.4	-37.4	23.2	0.00e+00	123	34	0	1732247552	46	5811
2026-01-26 00:32:57.37	333.49	35.31	-36.8	-37.8	23.2	0.00e+00	122	34	0	1735393280	46	6119
2026-01-26 00:32:58.38	333.55	35.08	-37.1	-38.1	23.1	0.00e+00	123	34	0	1738539008	46	6302
2026-01-26 00:32:59.39	333.60	34.86	-36.8	-37.8	23.0	0.00e+00	123	34	0	1741684736	46	6069
2026-01-26 00:33:00.41	333.65	34.63	-36.7	-37.7	23.2	0.00e+00	122	34	0	1744830464	46	6033
2026-01-26 00:33:01.41	333.70	34.41	-36.9	-37.9	23.0	0.00e+00	122	34	0	1747976192	46	6177
2026-01-26 00:33:02.42	333.75	34.19	-37.4	-38.4	22.9	0.00e+00	122	34	0	1751121920	46	6520
2026-01-26 00:33:03.43	333.80	33.98	-37.4	-38.4	22.9	0.00e+00	123	34	0	1754267648	46	6517
2026-01-26 00:33:04.44	333.85	33.76	-37.4	-38.4	22.8	0.00e+00	123	34	0	1757413376	46	6545
2026-01-26 00:33:05.45	333.90	33.54	-36.7	-37.7	23.2	0.00e+00	122	34	0	1760559104	46	5996
2026-01-26 00:33:06.46	333.95	33.33	-36.7	-37.6	23.1	0.00e+00	123	34	0	1763704832	46	5965
2026-01-26 00:33:07.47	334.00	33.12	-36.4	-37.4	23.4	0.00e+00	122	34	0	1766850560	46	5792
2026-01-26 00:33:08.48	334.05	32.91	-36.4	-37.4	23.4	0.00e+00	123	34	0	1769996288	46	5795
2026-01-26 00:33:09.49	334.09	32.70	-35.7	-36.6	23.7	0.00e+00	123	34	0	1773142016	46	5320
2026-01-26 00:33:10.50	334.14	32.49	-35.8	-36.7	23.9	0.00e+00	122	34	0	1776287744	44	6016
2026-01-26 00:33:11.51	334.18	32.28	-35.9	-36.8	24.0	0.00e+00	120	34	0	1779433472	44	6094
2026-01-26 00:33:12.52	334.23	32.08	-35.6	-36.5	24.2	0.00e+00	123	34	0	1782579200	44	5871
2026-01-26 00:33:13.53	334.27	31.87	-35.7	-36.6	24.0	0.00e+00	122	34	0	1785724928	44	5956
2026-01-26 00:33:14.54	334.32	31.67	-35.0	-35.9	24.6	0.00e+00	122	34	0	1788870656	44	5468
2026-01-26 00:33:15.55	334.36	31.47	-34.8	-35.7	24.6	0.00e+00	122	34	0	1792016384	42	5998
2026-01-26 00:33:16.56	334.40	31.27	-34.8	-35.7	24.6	0.00e+00	123	34	0	1795162112	42	6004
2026-01-26 00:33:17.57	334.45	31.07	-34.5	-35.4	24.8	0.00e+00	120	34	0	1798307840	42	5799
2026-01-26 00:33:18.58	334.49	30.87	-34.6	-35.5	24.7	0.00e+00	123	34	0	1801453568	42	5869
2026-01-26 00:33:19.59	334.53	30.68	-34.6	-35.4	24.7	0.00e+00	123	34	0	1804599296	42	5845
2026-01-26 00:33:20.60	334.57	30.48	-34.8	-35.7	24.6	0.00e+00	122	34	0	1807745024	42	6036
2026-01-26 00:33:21.61	334.61	30.29	-34.8	-35.7	24.6	0.00e+00	123	34	0	1810890752	42	6034
2026-01-26 00:33:22.62	334.65	30.10	-34.8	-35.7	24.7	0.00e+00	123	34	0	1814036480	42	6019
2026-01-26 00:33:23.63	334.69	29.91	-35.1	-36.0	24.5	0.00e+00	122	34	0	1817182208	42	6241
2026-01-26 00:33:24.64	334.73	29.72	-35.2	-36.2	24.4	0.00e+00	122	34	0	1820327936	42	6352
2026-01-26 00:33:25.65	334.77	29.53	-35.2	-36.1	24.4	0.00e+00	123	34	0	1823473664	42	6330
2026-01-26 00:33:26.66	334.81	29.34	-35.5	-36.4	24.3	0.00e+00	122	34	0	1826619392	42	6520
2026-01-26 00:33:27.67	334.85	29.16	-35.9	-36.9	24.1	0.00e+00	122	34	0	1829765120	44	6135
2026-01-26 00:33:28.68	334.89	28.97	-35.9	-36.9	24.1	0.00e+00	123	34	0	1832910848	44	6141
2026-01-26 00:33:29.69	334.93	28.79	-36.2	-37.1	24.1	0.00e+00	123	34	0	1836056576	44	6312
2026-01-26 00:33:30.70	334.96	28.61	-36.1	-37.1	23.9	0.00e+00	123	34	0	1839202304	44	6285
2026-01-26 00:33:31.71	335.00	28.43	-36.2	-37.2	23.9	0.00e+00	122	34	0	1842348032	44	6388
2026-01-26 00:33:32.72	335.04	28.25	-36.2	-37.2	24.0	0.00e+00	122	34	0	1845493760	44	6367
2026-01-26 00:33:33.73	335.07	28.07	-36.1	-37.0	24.1	0.00e+00	123	34	0	1848639488	44	6234
2026-01-26 00:33:34.74	335.11	27.89	-36.4	-37.4	23.9	0.00e+00	123	34	0	1851785216	44	6503
2026-01-26 00:33:35.76	335.14	27.71	-36.2	-37.1	24.2	0.00e+00	123	34	0	1854930944	44	6342
2026-01-26 00:33:36.76	335.18	27.54	-36.1	-37.0	24.3	0.00e+00	122	34	0	1858076672	44	6258
2026-01-26 00:33:37.77	335.21	27.37	-35.9	-36.8	24.3	0.00e+00	123	34	0	1861222400	44	6120
2026-01-26 00:33:38.78	335.25	27.19	-35.7	-36.6	24.2	0.00e+00	123	34	0	1864368128	44	5968
2026-01-26 00:33:39.80	335.28	27.02	-35.7	-36.6	24.2	0.00e+00	123	34	0	1867513856	44	5979
2026-01-26 00:33:40.81	335.32	26.85	-35.9	-36.8	24.1	0.00e+00	123	34	0	1870659584	44	6089
2026-01-26 00:33:41.82	335.35	26.68	-36.1	-37.0	23.9	0.00e+00	123	34	0	1873805312	44	6258
2026-01-26 00:33:42.82	335.38	26.51	-35.9	-36.9	24.0	0.00e+00	122	34	0	1876951040	44	6152
2026-01-26 00:33:43.83	335.41	26.34	-35.8	-36.7	24.0	0.00e+00	123	34	0	1880096768	44	6044
2026-01-26 00:33:44.84	335.45	26.18	-35.4	-36.3	24.2	0.00e+00	122	34	0	1883242496	44	5762
2026-01-26 00:33:45.85	335.48	26.01	-35.6	-36.5	24.2	0.00e+00	123	34	0	1886388224	44	5890
2026-01-26 00:33:46.86	335.51	25.85	-35.6	-36.5	24.3	0.00e+00	122	34	0	1889533952	44	5904
2026-01-26 00:33:47.88	335.54	25.68	-35.4	-36.4	24.2	0.00e+00	120	34	0	1892679680	44	5794
2026-01-26 00:33:48.89	335.57	25.52	-35.5	-36.4	24.3	0.00e+00	123	34	0	1895825408	44	5814
2026-01-26 00:33:49.90	335.61	25.36	-35.4	-36.3	24.2	0.00e+00	122	34	0	1898971136	44	5746
2026-01-26 00:33:50.91	335.64	25.20	-35.4	-36.3	24.3	0.00e+00	122	34	0	1902116864	44	5748
2026-01-26 00:33:51.92	335.67	25.04	-35.2	-36.1	24.3	0.00e+00	122	34	0	1905262592	44	5630
2026-01-26 00:33:52.93	335.70	24.88	-35.6	-36.5	24.0	0.00e+00	123	34	0	1908408320	44	5920
2026-01-26 00:33:53.94	335.73	24.72	-35.7	-36.6	24.2	0.00e+00	123	34	0	1911554048	44	5969
2026-01-26 00:33:54.95	335.76	24.56	-35.4	-36.3	24.3	0.00e+00	122	34	0	1914699776	44	5751
2026-01-26 00:33:55.96	335.79	24.41	-35.2	-36.0	24.6	0.00e+00	122	34	0	1917845504	44	5592
2026-01-26 00:33:56.97	335.82	24.25	-35.1	-36.0	24.4	0.00e+00	122	34	0	1920991232	44	5548
2026-01-26 00:33:57.98	335.84	24.10	-35.3	-36.2	24.4	0.00e+00	120	34	0	1924136960	44	5668
2026-01-26 00:33:58.99	335.87	23.94	-35.0	-35.9	24.6	0.00e+00	122	34	0	1927282688	44	5482
2026-01-26 00:34:00.00	335.90	23.79	-34.9	-35.8	24.5	0.00e+00	120	34	0	1930428416	44	5459
2026-01-26 00:34:01.01	335.93	23.64	-34.9	-35.8	24.6	0.00e+00	122	34	0	1933574144	42	6096
2026-01-26 00:34:02.02	335.96	23.49	-34.8	-35.7	24.5	0.00e+00	123	34	0	1936719872	42	6037
2026-01-26 00:34:03.03	335.99	23.34	-34.9	-35.8	24.5	0.00e+00	123	34	0	1939865600	42	6098
2026-01-26 00:34:04.04	336.01	23.19	-35.1	-36.0	24.4	0.00e+00	122	34	0	1943011328	42	6258
2026-01-26 00:34:05.05	336.04	23.04	-35.0	-35.9	24.4	0.00e+00	120	34	0	1946157056	42	6198
2026-01-26 00:34:06.06	336.07	22.90	-35.0	-35.8	24.6	0.00e+00	123	34	0	1949302784	42	6133
2026-01-26 00:34:07.07	336.10	22.75	-34.9	-35.8	24.7	0.00e+00	123	34	0	1953497088	42	6127
