passes_logs/2026/01/26/R4.6S_Anadyr/R4.6S_Anadyr__20260126_051352_FENGYUN_3D_rec.log

#Pass ID: 20260126_051352_FENGYUN 3D
#Satellite: FENGYUN 3D
#Configuration: FENGYUN 3D
#almurnet v.1.7.20251203
#Start time: 2026-01-26 05:13:54

#Version: 2.2.20231116
#Station: R4.6S_Anadyr
#Location: 177.4865 lon 64.73178 lat
#TLE: 1 43010U 17072A   26025.50461972  .00000046  00000+0  43592-4 0  9990
#TLE: 2 43010  98.9962 357.4844 0002523  89.7890 270.3575 14.19699798424744

#Time	Az	El	Level	Level2	SNR	BER	BlckErr	Temp	State	Recorded	gain1	gain2
2026-01-26 05:13:54.41	235.53	0.08	-50.9	-68.6	3.4	3.02e+01	0	26	0	0	60	103500
2026-01-26 05:13:55.41	235.62	0.13	-50.4	-62.5	3.6	8.45e-01	0	27	104	0	60	48184
2026-01-26 05:13:56.42	235.71	0.17	-51.2	-63.4	3.6	8.44e-01	0	27	104	0	60	53367
2026-01-26 05:13:57.43	235.80	0.21	-49.8	-62.2	3.6	8.45e-01	0	28	104	0	60	46777
2026-01-26 05:13:58.45	235.89	0.26	-51.4	-63.5	3.6	8.45e-01	0	28	104	0	60	53966
2026-01-26 05:13:59.46	235.98	0.30	-50.8	-63.0	3.6	8.45e-01	0	28	104	0	60	50880
2026-01-26 05:14:00.46	236.08	0.35	-50.1	-62.2	3.6	8.45e-01	0	28	104	0	60	46634
2026-01-26 05:14:01.47	236.17	0.39	-50.6	-62.9	3.6	8.44e-01	0	28	104	0	60	50453
2026-01-26 05:14:02.48	236.26	0.43	-50.1	-62.4	3.6	8.45e-01	0	28	104	0	60	47577
2026-01-26 05:14:03.49	236.35	0.48	-50.1	-62.3	3.6	8.46e-01	0	28	104	0	60	47157
2026-01-26 05:14:04.50	236.45	0.52	-49.8	-62.0	3.6	8.45e-01	0	28	104	0	60	45740
2026-01-26 05:14:05.51	236.54	0.56	-49.7	-61.9	3.6	8.46e-01	0	28	104	0	60	44747
2026-01-26 05:14:06.52	236.63	0.61	-49.3	-61.4	3.6	8.45e-01	0	28	104	0	60	42611
2026-01-26 05:14:07.53	236.73	0.65	-49.4	-61.6	3.6	8.45e-01	0	28	104	0	60	43443
2026-01-26 05:14:08.54	236.82	0.69	-49.3	-61.5	3.6	8.46e-01	0	28	104	0	60	42918
2026-01-26 05:14:09.55	236.92	0.74	-49.2	-61.4	3.6	8.45e-01	0	28	104	0	60	42553
2026-01-26 05:14:10.56	237.01	0.78	-49.1	-61.3	3.6	8.46e-01	0	28	104	0	60	41888
2026-01-26 05:14:11.57	237.11	0.83	-49.4	-61.5	3.6	8.46e-01	0	28	104	0	60	42946
2026-01-26 05:14:12.57	237.20	0.87	-49.1	-61.2	3.6	8.46e-01	0	28	104	0	60	41510
2026-01-26 05:14:13.58	237.30	0.91	-49.0	-61.2	3.6	8.45e-01	0	28	104	0	60	41302
2026-01-26 05:14:14.59	237.39	0.96	-49.0	-61.1	3.6	8.45e-01	0	28	104	0	60	40910
2026-01-26 05:14:15.60	237.49	1.00	-48.9	-61.0	3.6	8.45e-01	0	28	104	0	60	40395
2026-01-26 05:14:16.61	237.58	1.04	-48.8	-60.8	3.6	8.45e-01	0	28	104	0	60	39717
2026-01-26 05:14:17.62	237.68	1.09	-48.4	-60.5	3.6	8.45e-01	0	28	104	0	60	38255
2026-01-26 05:14:18.63	237.78	1.13	-48.0	-60.1	3.6	8.45e-01	0	28	104	0	60	36534
2026-01-26 05:14:19.64	237.88	1.17	-47.4	-59.5	3.6	8.44e-01	0	28	104	0	60	34014
2026-01-26 05:14:20.65	237.97	1.22	-46.8	-58.9	3.6	8.46e-01	0	28	104	0	60	31684
2026-01-26 05:14:21.66	238.07	1.26	-46.8	-58.8	3.6	8.45e-01	0	28	104	0	60	31612
2026-01-26 05:14:22.66	238.17	1.31	-46.8	-58.8	3.6	8.46e-01	0	28	104	0	60	31553
2026-01-26 05:14:23.68	238.27	1.35	-46.8	-58.8	3.6	8.44e-01	0	28	104	0	60	31329
2026-01-26 05:14:24.68	238.36	1.39	-46.8	-58.8	3.5	8.46e-01	0	28	104	0	60	31554
2026-01-26 05:14:25.69	238.46	1.44	-46.8	-58.8	3.6	8.45e-01	0	28	104	0	60	31453
2026-01-26 05:14:26.70	238.56	1.48	-46.8	-58.8	3.6	8.45e-01	0	28	104	0	60	31563
2026-01-26 05:14:27.72	238.66	1.52	-46.8	-58.8	3.6	8.45e-01	0	28	104	0	60	31599
2026-01-26 05:14:28.72	238.76	1.57	-46.8	-58.9	3.6	8.46e-01	0	28	104	0	60	31694
2026-01-26 05:14:29.73	238.86	1.61	-46.9	-58.9	3.6	8.45e-01	0	28	104	0	60	31698
2026-01-26 05:14:30.74	238.96	1.65	-46.9	-58.9	3.6	8.44e-01	0	28	104	0	60	31763
2026-01-26 05:14:31.75	239.06	1.70	-46.9	-58.9	3.6	8.45e-01	0	28	104	0	60	31879
2026-01-26 05:14:32.76	239.16	1.74	-46.9	-58.9	3.6	8.44e-01	0	28	104	0	60	31732
2026-01-26 05:14:33.77	239.26	1.79	-46.9	-58.7	3.6	8.44e-01	0	28	104	0	60	31015
2026-01-26 05:14:34.78	239.37	1.83	-47.0	-59.0	3.6	8.45e-01	0	28	104	0	60	32137
2026-01-26 05:14:35.79	239.47	1.87	-46.9	-58.8	3.6	8.45e-01	0	28	104	0	60	31490
2026-01-26 05:14:36.80	239.57	1.92	-46.9	-58.8	3.6	8.45e-01	0	28	104	0	60	31373
2026-01-26 05:14:37.81	239.67	1.96	-47.0	-58.8	3.6	8.45e-01	0	28	104	0	60	31646
2026-01-26 05:14:38.82	239.77	2.00	-47.0	-58.7	3.6	8.45e-01	0	28	104	0	60	31123
2026-01-26 05:14:39.83	239.88	2.05	-46.9	-58.7	3.6	8.45e-01	0	28	104	0	60	30977
2026-01-26 05:14:40.84	239.98	2.09	-47.0	-58.7	3.6	8.46e-01	0	28	104	0	60	31181
2026-01-26 05:14:41.85	240.08	2.14	-46.9	-58.6	3.6	8.46e-01	0	28	104	0	60	30816
2026-01-26 05:14:42.86	240.19	2.18	-46.9	-58.6	3.6	8.44e-01	0	28	104	0	60	30832
2026-01-26 05:14:43.87	240.29	2.22	-46.8	-58.4	3.6	8.44e-01	0	28	104	0	60	30129
2026-01-26 05:14:44.88	240.39	2.27	-46.9	-58.2	3.6	8.46e-01	0	28	104	0	60	29324
2026-01-26 05:14:45.89	240.50	2.31	-46.8	-57.6	3.6	8.45e-01	0	28	104	0	60	27349
2026-01-26 05:14:46.89	240.60	2.35	-46.9	-57.9	3.6	8.45e-01	0	28	104	0	60	28367
2026-01-26 05:14:47.91	240.71	2.40	-46.7	-57.0	3.6	8.46e-01	0	28	104	0	60	25604
2026-01-26 05:14:48.91	240.81	2.44	-46.7	-56.6	3.6	8.44e-01	0	28	104	0	60	24481
2026-01-26 05:14:49.92	240.92	2.48	-46.6	-55.6	4.0	8.43e-01	0	28	104	0	60	21800
2026-01-26 05:14:50.93	241.03	2.53	-46.6	-55.2	4.2	8.40e-01	0	28	104	0	60	20838
2026-01-26 05:14:51.94	241.13	2.57	-46.4	-52.9	4.4	7.87e-01	0	28	0	0	60	16039
2026-01-26 05:14:52.95	241.24	2.61	-46.5	-52.9	4.5	7.96e-01	0	28	0	0	60	15928
2026-01-26 05:14:53.96	241.35	2.66	-46.2	-51.8	5.3	5.93e-01	0	28	0	1048576	60	13997
2026-01-26 05:14:54.97	241.45	2.70	-46.1	-51.7	5.2	7.45e-01	0	28	0	3145728	60	13947
2026-01-26 05:14:55.98	241.56	2.74	-45.8	-50.8	6.3	4.59e-01	0	28	0	6291456	60	12582
2026-01-26 05:14:56.99	241.67	2.79	-45.0	-48.9	8.5	1.19e-01	0	28	0	11534336	60	10122
2026-01-26 05:14:58.00	241.78	2.83	-45.1	-49.2	8.2	3.54e-02	0	28	0	17825792	60	10369
2026-01-26 05:14:59.01	241.88	2.88	-44.8	-48.5	8.9	5.86e-02	0	28	0	23068672	60	9578
2026-01-26 05:15:00.02	241.99	2.92	-44.2	-47.3	10.2	1.26e-02	0	28	0	29360128	60	8414
2026-01-26 05:15:01.03	242.10	2.96	-44.9	-48.8	8.8	5.34e-02	0	28	0	34603008	60	9903
2026-01-26 05:15:02.04	242.21	3.01	-44.5	-47.9	10.0	2.78e-02	0	28	0	39845888	60	8987
2026-01-26 05:15:03.05	242.32	3.05	-47.3	-59.3	3.6	7.49e-01	0	28	104	42991616	60	33480
2026-01-26 05:15:04.06	242.43	3.09	-46.6	-57.8	3.6	8.99e-01	0	28	104	42991616	60	27922
2026-01-26 05:15:05.07	242.54	3.14	-46.3	-52.9	5.4	5.15e-01	0	28	104	42991616	60	15934
2026-01-26 05:15:06.07	242.65	3.18	-44.8	-48.2	9.3	1.45e-02	0	29	0	46137344	60	9286
2026-01-26 05:15:07.08	242.76	3.22	-45.5	-50.0	7.6	4.17e-02	0	28	0	51380224	60	11481
2026-01-26 05:15:08.09	242.87	3.27	-44.7	-48.1	9.2	1.81e-02	0	28	0	57671680	60	9210
2026-01-26 05:15:09.10	242.99	3.31	-44.7	-48.2	9.6	1.79e-02	0	28	0	62914560	60	9256
2026-01-26 05:15:10.11	243.10	3.35	-44.6	-47.8	9.4	1.77e-02	0	28	0	68157440	60	8841
2026-01-26 05:15:11.12	243.21	3.40	-44.0	-46.8	11.4	5.68e-03	0	28	0	74448896	60	7923
2026-01-26 05:15:12.13	243.32	3.44	-43.6	-46.2	11.9	4.74e-04	0	28	0	79691776	60	7383
2026-01-26 05:15:13.14	243.43	3.48	-43.2	-45.6	12.7	3.44e-04	0	28	0	85983232	60	6865
2026-01-26 05:15:14.15	243.55	3.52	-43.1	-45.3	12.9	1.54e-04	0	29	0	91226112	60	6652
2026-01-26 05:15:15.16	243.66	3.57	-43.2	-45.6	12.6	2.00e-04	0	29	0	96468992	58	7705
2026-01-26 05:15:16.17	243.77	3.61	-42.5	-44.4	14.0	6.98e-05	0	29	0	102760448	58	6750
2026-01-26 05:15:17.18	243.89	3.65	-41.7	-43.4	14.7	0.00e+00	0	28	0	108003328	58	5992
2026-01-26 05:15:18.19	244.00	3.70	-41.6	-43.2	15.2	0.00e+00	0	28	0	114294784	56	6599
2026-01-26 05:15:19.20	244.12	3.74	-41.2	-42.7	16.0	0.00e+00	0	28	0	119537664	56	6238
2026-01-26 05:15:20.21	244.23	3.78	-41.7	-43.4	15.2	0.00e+00	0	28	0	125829120	56	6711
2026-01-26 05:15:21.22	244.35	3.83	-41.5	-43.1	15.4	1.10e-06	0	28	0	131072000	56	6498
2026-01-26 05:15:22.23	244.46	3.87	-41.0	-42.4	15.9	1.10e-06	0	28	0	137363456	56	6011
2026-01-26 05:15:23.24	244.58	3.91	-41.1	-42.5	16.0	0.00e+00	0	29	0	142606336	56	6092
2026-01-26 05:15:24.24	244.70	3.96	-39.9	-41.2	17.2	0.00e+00	0	28	0	147849216	54	5834
2026-01-26 05:15:25.25	244.81	4.00	-40.1	-41.4	17.2	0.00e+00	0	29	0	154140672	54	5998
2026-01-26 05:15:26.26	244.93	4.04	-40.1	-41.4	17.4	0.00e+00	0	29	0	159383552	54	5994
2026-01-26 05:15:27.27	245.05	4.08	-39.9	-41.1	17.5	0.00e+00	0	29	0	164626432	54	5776
2026-01-26 05:15:28.28	245.16	4.13	-40.1	-41.4	17.5	0.00e+00	0	29	0	170917888	52	6701
2026-01-26 05:15:29.29	245.28	4.17	-40.3	-41.6	17.2	0.00e+00	0	28	0	176160768	52	6874
2026-01-26 05:15:30.30	245.40	4.21	-39.3	-40.5	18.3	0.00e+00	0	29	0	182452224	52	6035
2026-01-26 05:15:31.30	245.52	4.25	-39.1	-40.2	18.6	0.00e+00	0	29	0	187695104	52	5837
2026-01-26 05:15:32.31	245.64	4.30	-39.2	-40.3	18.6	0.00e+00	0	29	0	192937984	52	5957
2026-01-26 05:15:33.32	245.76	4.34	-38.6	-39.6	19.3	0.00e+00	0	29	0	199229440	52	5448
2026-01-26 05:15:34.33	245.88	4.38	-39.3	-40.4	18.5	0.00e+00	0	29	0	204472320	50	6751
2026-01-26 05:15:35.34	246.00	4.43	-39.8	-41.0	18.0	0.00e+00	0	28	0	210763776	50	7204
2026-01-26 05:15:36.35	246.12	4.47	-39.1	-40.1	18.8	0.00e+00	0	28	0	216006656	52	5817
2026-01-26 05:15:37.36	246.24	4.51	-38.4	-39.4	19.4	0.00e+00	0	28	0	222298112	50	6019
2026-01-26 05:15:38.37	246.36	4.55	-38.7	-39.7	19.0	0.00e+00	0	29	0	227540992	50	6219
2026-01-26 05:15:39.38	246.48	4.60	-38.4	-39.4	19.6	0.00e+00	0	29	0	233832448	50	6012
2026-01-26 05:15:40.38	246.60	4.64	-38.1	-39.0	20.0	0.00e+00	0	29	0	239075328	50	5744
2026-01-26 05:15:41.39	246.72	4.68	-38.4	-39.4	19.3	0.00e+00	0	29	0	244318208	50	6016
2026-01-26 05:15:42.40	246.84	4.72	-38.4	-39.4	19.6	0.00e+00	0	29	0	250609664	50	5974
2026-01-26 05:15:43.41	246.97	4.76	-38.6	-39.6	19.9	0.00e+00	0	29	0	255852544	50	6132
2026-01-26 05:15:44.42	247.09	4.81	-37.6	-38.5	20.8	0.00e+00	0	28	0	262144000	48	6068
2026-01-26 05:15:45.43	247.21	4.85	-37.1	-37.9	21.1	0.00e+00	0	28	0	267386880	48	5670
2026-01-26 05:15:46.44	247.34	4.89	-36.8	-37.6	21.4	0.00e+00	0	29	0	272629760	46	6165
2026-01-26 05:15:47.45	247.46	4.93	-36.5	-37.3	21.8	0.00e+00	0	29	0	278921216	46	5931
2026-01-26 05:15:48.46	247.59	4.98	-36.6	-37.5	21.7	0.00e+00	0	29	0	284164096	46	6045
2026-01-26 05:15:49.47	247.71	5.02	-36.3	-37.1	21.9	0.00e+00	0	29	0	289406976	46	5808
2026-01-26 05:15:50.48	247.84	5.06	-36.4	-37.2	22.0	0.00e+00	0	29	0	295698432	46	5870
2026-01-26 05:15:51.49	247.96	5.10	-35.9	-36.7	22.5	0.00e+00	0	29	0	300941312	46	5561
2026-01-26 05:15:52.50	248.09	5.14	-36.1	-36.8	22.3	0.00e+00	0	29	0	307232768	44	6302
2026-01-26 05:15:53.51	248.21	5.19	-36.3	-37.1	22.0	0.00e+00	0	29	0	312475648	44	6523
2026-01-26 05:15:54.52	248.34	5.23	-35.5	-36.2	22.7	0.00e+00	0	29	0	318767104	44	5883
2026-01-26 05:15:55.53	248.47	5.27	-35.8	-36.6	22.4	0.00e+00	0	29	0	324009984	44	6133
2026-01-26 05:15:56.54	248.59	5.31	-36.6	-37.4	22.2	0.00e+00	0	29	0	330301440	44	6720
2026-01-26 05:15:57.54	248.72	5.35	-35.7	-36.4	22.5	0.00e+00	0	29	0	335544320	44	6030
2026-01-26 05:15:58.55	248.85	5.39	-36.3	-37.0	22.5	0.00e+00	0	29	0	340787200	44	6446
2026-01-26 05:15:59.56	248.98	5.44	-36.2	-37.0	22.3	0.00e+00	0	29	0	347078656	44	6413
2026-01-26 05:16:00.57	249.11	5.48	-36.4	-37.2	22.0	0.00e+00	0	29	0	352321536	44	6583
2026-01-26 05:16:01.58	249.23	5.52	-36.7	-37.6	22.1	0.00e+00	0	29	0	358612992	44	6853
2026-01-26 05:16:02.59	249.36	5.56	-36.0	-36.8	22.4	0.00e+00	0	29	0	363855872	44	6295
2026-01-26 05:16:03.60	249.49	5.60	-36.1	-36.9	22.5	0.00e+00	0	29	0	369098752	44	6339
2026-01-26 05:16:04.61	249.62	5.64	-35.6	-36.4	22.8	0.00e+00	0	29	0	375390208	44	5988
2026-01-26 05:16:05.62	249.75	5.68	-35.6	-36.4	22.9	0.00e+00	0	29	0	380633088	44	6000
2026-01-26 05:16:06.62	249.88	5.72	-35.7	-36.5	22.8	0.00e+00	0	29	0	386924544	44	6036
2026-01-26 05:16:07.63	250.01	5.77	-35.6	-36.4	22.8	0.00e+00	0	29	0	392167424	44	5999
2026-01-26 05:16:08.64	250.15	5.81	-36.1	-36.9	22.3	0.00e+00	0	29	0	397410304	44	6376
2026-01-26 05:16:09.65	250.28	5.85	-35.8	-36.6	22.6	0.00e+00	0	29	0	403701760	44	6141
2026-01-26 05:16:10.66	250.41	5.89	-35.7	-36.4	22.7	0.00e+00	0	29	0	408944640	44	6032
2026-01-26 05:16:11.67	250.54	5.93	-35.6	-36.4	22.7	0.00e+00	0	29	0	415236096	44	5973
2026-01-26 05:16:12.68	250.67	5.97	-35.7	-36.5	22.9	0.00e+00	0	29	0	420478976	44	6078
2026-01-26 05:16:13.69	250.81	6.01	-35.4	-36.1	23.1	0.00e+00	0	29	0	426770432	44	5826
2026-01-26 05:16:14.70	250.94	6.05	-35.8	-36.6	22.7	0.00e+00	0	29	0	432013312	44	6132
2026-01-26 05:16:15.70	251.07	6.09	-35.5	-36.3	23.0	0.00e+00	0	29	0	437256192	44	5943
2026-01-26 05:16:16.71	251.21	6.13	-35.5	-36.3	23.1	0.00e+00	0	29	0	443547648	44	5904
2026-01-26 05:16:17.72	251.34	6.17	-34.8	-35.5	23.7	0.00e+00	0	29	0	448790528	44	5400
2026-01-26 05:16:18.73	251.48	6.21	-35.0	-35.7	23.4	0.00e+00	0	29	0	455081984	44	5566
2026-01-26 05:16:19.74	251.61	6.25	-35.0	-35.7	23.6	0.00e+00	0	29	0	460324864	44	5545
2026-01-26 05:16:20.75	251.75	6.29	-35.5	-36.2	23.1	0.00e+00	0	29	0	465567744	44	5894
2026-01-26 05:16:21.76	251.89	6.33	-35.0	-35.7	23.4	0.00e+00	0	29	0	471859200	44	5556
2026-01-26 05:16:22.76	252.02	6.37	-35.2	-36.0	23.2	0.00e+00	0	29	0	477102080	44	5711
2026-01-26 05:16:23.77	252.16	6.41	-35.6	-36.4	23.1	0.00e+00	0	29	0	483393536	44	5976
2026-01-26 05:16:24.78	252.29	6.45	-35.6	-36.4	22.9	0.00e+00	0	29	0	488636416	44	5997
2026-01-26 05:16:25.79	252.43	6.49	-35.3	-36.0	23.2	0.00e+00	0	29	0	493879296	44	5752
2026-01-26 05:16:26.80	252.57	6.53	-35.1	-35.9	23.5	0.00e+00	0	29	0	500170752	44	5664
2026-01-26 05:16:27.81	252.71	6.57	-35.5	-36.3	23.0	0.00e+00	0	29	0	505413632	44	5914
2026-01-26 05:16:28.82	252.85	6.61	-35.5	-36.2	23.2	0.00e+00	0	29	0	511705088	44	5865
2026-01-26 05:16:29.83	252.99	6.65	-35.9	-36.7	22.5	0.00e+00	0	29	0	516947968	44	6183
2026-01-26 05:16:30.84	253.13	6.69	-35.4	-36.2	23.0	0.00e+00	0	29	0	523239424	44	5841
2026-01-26 05:16:31.85	253.26	6.73	-36.2	-37.0	22.7	0.00e+00	0	29	0	528482304	44	6422
2026-01-26 05:16:32.85	253.40	6.77	-35.6	-36.4	23.2	0.00e+00	0	29	0	533725184	44	5972
2026-01-26 05:16:33.86	253.54	6.81	-36.3	-37.0	22.5	0.00e+00	0	29	0	540016640	46	5750
2026-01-26 05:16:34.87	253.68	6.85	-36.3	-37.1	22.6	0.00e+00	0	29	0	545259520	44	6501
2026-01-26 05:16:35.88	253.83	6.89	-35.4	-36.2	23.2	0.00e+00	0	29	0	551550976	44	5852
2026-01-26 05:16:36.89	253.97	6.93	-35.3	-36.0	23.3	0.00e+00	0	29	0	556793856	44	5755
2026-01-26 05:16:37.90	254.11	6.97	-35.6	-36.4	23.3	0.00e+00	0	29	0	562036736	44	5985
2026-01-26 05:16:38.91	254.25	7.01	-35.7	-36.4	23.3	0.00e+00	0	29	0	568328192	44	5984
2026-01-26 05:16:39.92	254.39	7.04	-35.4	-36.2	23.5	0.00e+00	0	29	0	573571072	44	5842
2026-01-26 05:16:40.93	254.54	7.08	-35.5	-36.2	23.2	0.00e+00	0	29	0	579862528	44	5860
2026-01-26 05:16:41.93	254.68	7.12	-35.6	-36.3	23.4	0.00e+00	0	29	0	585105408	44	5947
2026-01-26 05:16:42.95	254.82	7.16	-35.8	-36.6	22.6	0.00e+00	0	29	0	590348288	44	6137
2026-01-26 05:16:43.96	254.97	7.20	-35.4	-36.1	23.7	0.00e+00	0	29	0	596639744	44	5807
2026-01-26 05:16:44.97	255.11	7.24	-35.2	-35.9	23.6	0.00e+00	0	29	0	601882624	44	5632
2026-01-26 05:16:45.98	255.26	7.27	-35.0	-35.7	23.8	0.00e+00	0	29	0	608174080	44	5557
2026-01-26 05:16:46.98	255.40	7.31	-35.6	-36.4	23.2	0.00e+00	0	29	0	613416960	44	5975
2026-01-26 05:16:47.99	255.55	7.35	-36.2	-37.0	23.2	0.00e+00	0	29	0	619708416	44	6402
2026-01-26 05:16:49.00	255.69	7.39	-36.0	-36.8	22.8	0.00e+00	0	29	0	624951296	44	6271
2026-01-26 05:16:50.01	255.84	7.43	-35.7	-36.4	23.4	0.00e+00	0	29	0	630194176	44	5981
2026-01-26 05:16:51.02	255.99	7.46	-35.6	-36.3	23.5	0.00e+00	0	29	0	636485632	44	5947
2026-01-26 05:16:52.03	256.13	7.50	-34.9	-35.6	23.6	0.00e+00	0	29	0	641728512	44	5495
2026-01-26 05:16:53.04	256.28	7.54	-35.3	-36.0	23.6	0.00e+00	0	29	0	648019968	44	5753
2026-01-26 05:16:54.05	256.43	7.58	-35.0	-35.7	23.4	0.00e+00	0	29	0	653262848	44	5513
2026-01-26 05:16:55.06	256.58	7.61	-35.3	-36.0	23.8	0.00e+00	0	29	0	658505728	44	5742
2026-01-26 05:16:56.07	256.72	7.65	-35.0	-35.7	24.1	0.00e+00	0	29	0	664797184	42	6226
2026-01-26 05:16:57.07	256.87	7.69	-35.1	-35.8	23.9	0.00e+00	0	29	0	670040064	42	6296
2026-01-26 05:16:58.08	257.02	7.72	-34.8	-35.4	24.0	0.00e+00	0	29	0	676331520	42	6031
2026-01-26 05:16:59.09	257.17	7.76	-34.7	-35.4	23.8	0.00e+00	0	29	0	681574400	42	6024
2026-01-26 05:17:00.10	257.32	7.80	-34.8	-35.5	23.9	0.00e+00	0	29	0	686817280	42	6082
2026-01-26 05:17:01.11	257.47	7.83	-34.9	-35.6	23.9	0.00e+00	0	29	0	693108736	42	6127
2026-01-26 05:17:02.12	257.62	7.87	-34.7	-35.4	24.0	0.00e+00	0	29	0	698351616	42	5985
2026-01-26 05:17:03.13	257.77	7.91	-34.9	-35.6	23.9	0.00e+00	0	29	0	704643072	42	6165
2026-01-26 05:17:04.14	257.92	7.94	-34.8	-35.5	24.0	0.00e+00	0	29	0	709885952	42	6074
2026-01-26 05:17:05.15	258.08	7.98	-34.6	-35.3	24.2	0.00e+00	0	29	0	716177408	42	5951
2026-01-26 05:17:06.16	258.23	8.02	-35.1	-35.8	23.8	0.00e+00	0	29	0	721420288	42	6284
2026-01-26 05:17:07.17	258.38	8.05	-34.7	-35.3	24.0	0.00e+00	0	29	0	726663168	42	5963
2026-01-26 05:17:08.17	258.53	8.09	-34.5	-35.3	24.1	0.00e+00	0	29	0	732954624	42	5898
2026-01-26 05:17:09.18	258.68	8.12	-34.5	-35.2	24.2	0.00e+00	0	29	0	738197504	42	5836
2026-01-26 05:17:10.19	258.84	8.16	-34.7	-35.4	24.1	0.00e+00	0	29	0	744488960	42	5985
2026-01-26 05:17:11.20	258.99	8.19	-34.6	-35.3	24.2	0.00e+00	0	29	0	749731840	42	5919
2026-01-26 05:17:12.21	259.15	8.23	-34.6	-35.3	24.1	0.00e+00	0	29	0	754974720	42	5926
2026-01-26 05:17:13.22	259.30	8.26	-34.5	-35.2	23.8	0.00e+00	0	29	0	761266176	42	5893
2026-01-26 05:17:14.23	259.46	8.30	-34.8	-35.6	23.7	0.00e+00	0	29	0	766509056	42	6107
2026-01-26 05:17:15.24	259.61	8.33	-34.7	-35.4	23.8	0.00e+00	0	29	0	772800512	42	5999
2026-01-26 05:17:16.25	259.77	8.37	-34.6	-35.4	24.2	0.00e+00	0	29	0	778043392	42	5965
2026-01-26 05:17:17.26	259.92	8.40	-35.9	-36.7	23.1	0.00e+00	0	29	0	783286272	44	6221
2026-01-26 05:17:18.27	260.08	8.44	-35.7	-36.5	23.1	0.00e+00	0	29	0	789577728	44	6071
2026-01-26 05:17:19.28	260.24	8.47	-35.4	-36.2	23.6	0.00e+00	0	29	0	794820608	44	5859
2026-01-26 05:17:20.29	260.39	8.51	-35.3	-36.0	23.6	0.00e+00	0	29	0	801112064	44	5714
2026-01-26 05:17:21.30	260.55	8.54	-34.7	-35.5	23.5	0.00e+00	0	29	0	806354944	44	5387
2026-01-26 05:17:22.30	260.71	8.57	-35.0	-35.8	23.6	0.00e+00	0	29	0	812646400	42	6269
2026-01-26 05:17:23.32	260.87	8.61	-35.4	-36.2	23.6	0.00e+00	0	29	0	817889280	42	6548
2026-01-26 05:17:24.32	261.02	8.64	-35.7	-36.5	23.5	0.00e+00	0	29	0	824180736	44	6066
2026-01-26 05:17:25.33	261.18	8.67	-35.0	-35.7	24.1	0.00e+00	0	29	0	829423616	44	5524
2026-01-26 05:17:26.34	261.34	8.71	-34.8	-35.5	24.1	0.00e+00	0	29	0	834666496	44	5413
2026-01-26 05:17:27.35	261.50	8.74	-34.7	-35.4	24.2	0.00e+00	0	29	0	840957952	42	6028
2026-01-26 05:17:28.36	261.66	8.77	-34.8	-35.5	24.1	0.00e+00	0	29	0	846200832	42	6055
2026-01-26 05:17:29.37	261.82	8.81	-34.7	-35.5	24.2	0.00e+00	0	29	0	851443712	42	6042
2026-01-26 05:17:30.37	261.98	8.84	-34.6	-35.3	24.3	0.00e+00	0	29	0	857735168	42	5923
2026-01-26 05:17:31.38	262.14	8.87	-34.3	-35.0	24.3	0.00e+00	0	29	0	862978048	42	5725
2026-01-26 05:17:32.40	262.30	8.91	-35.1	-35.8	23.9	0.00e+00	0	29	0	869269504	42	6297
2026-01-26 05:17:33.41	262.47	8.94	-35.0	-35.8	24.2	0.00e+00	0	29	0	874512384	42	6247
2026-01-26 05:17:34.41	262.63	8.97	-34.8	-35.6	24.0	0.00e+00	0	29	0	879755264	42	6108
2026-01-26 05:17:35.42	262.79	9.00	-34.8	-35.5	24.3	0.00e+00	0	29	0	886046720	42	6076
2026-01-26 05:17:36.43	262.95	9.03	-34.8	-35.5	24.2	0.00e+00	0	28	0	891289600	42	6084
2026-01-26 05:17:37.44	263.11	9.07	-34.4	-35.1	24.5	0.00e+00	0	29	0	897581056	42	5794
2026-01-26 05:17:38.44	263.28	9.10	-34.7	-35.4	24.6	0.00e+00	0	29	0	902823936	42	6015
2026-01-26 05:17:39.45	263.44	9.13	-34.3	-35.0	24.7	0.00e+00	0	29	0	909115392	42	5743
2026-01-26 05:17:40.46	263.60	9.16	-34.1	-34.8	24.6	0.00e+00	0	29	0	914358272	42	5617
2026-01-26 05:17:41.47	263.77	9.19	-34.1	-34.8	24.8	0.00e+00	0	29	0	920649728	42	5610
2026-01-26 05:17:42.48	263.93	9.22	-34.2	-34.9	24.6	0.00e+00	0	29	0	925892608	42	5656
2026-01-26 05:17:43.49	264.10	9.25	-34.3	-34.9	24.7	0.00e+00	0	29	0	931135488	42	5694
2026-01-26 05:17:44.50	264.26	9.28	-34.5	-35.2	24.6	0.00e+00	0	29	0	937426944	42	5864
2026-01-26 05:17:45.50	264.43	9.31	-34.6	-35.3	24.5	0.00e+00	0	29	0	942669824	42	5926
2026-01-26 05:17:46.51	264.59	9.34	-34.3	-35.1	24.6	0.00e+00	0	29	0	947912704	42	5764
2026-01-26 05:17:47.52	264.76	9.37	-34.4	-35.1	24.3	0.00e+00	0	29	0	954204160	42	5818
2026-01-26 05:17:48.53	264.93	9.40	-34.8	-35.5	24.5	0.00e+00	0	29	0	959447040	42	6062
2026-01-26 05:17:49.54	265.09	9.43	-34.7	-35.4	24.4	0.00e+00	0	29	0	965738496	42	6006
2026-01-26 05:17:50.55	265.26	9.46	-34.7	-35.5	24.3	0.00e+00	0	29	0	970981376	42	6035
2026-01-26 05:17:51.56	265.43	9.49	-34.3	-35.0	24.6	0.00e+00	0	29	0	976224256	42	5755
2026-01-26 05:17:52.57	265.60	9.52	-34.9	-35.7	24.2	0.00e+00	0	29	0	982515712	42	6195
2026-01-26 05:17:53.57	265.76	9.55	-34.5	-35.2	24.5	0.00e+00	0	29	0	987758592	42	5837
2026-01-26 05:17:54.58	265.93	9.58	-34.3	-35.0	24.7	0.00e+00	0	29	0	994050048	42	5751
2026-01-26 05:17:55.59	266.10	9.61	-34.0	-34.7	24.7	0.00e+00	0	29	0	999292928	42	5528
2026-01-26 05:17:56.60	266.27	9.63	-34.4	-35.1	24.5	0.00e+00	0	29	0	1005584384	42	5821
2026-01-26 05:17:57.61	266.44	9.66	-34.4	-35.1	24.7	0.00e+00	0	29	0	1010827264	42	5778
2026-01-26 05:17:58.62	266.61	9.69	-34.4	-35.1	24.5	0.00e+00	0	29	0	1017118720	42	5804
2026-01-26 05:17:59.63	266.78	9.72	-34.1	-34.8	24.6	0.00e+00	0	29	0	1022361600	42	5603
2026-01-26 05:18:00.64	266.95	9.75	-34.7	-35.4	24.7	0.00e+00	0	29	0	1027604480	42	5996
2026-01-26 05:18:01.65	267.12	9.77	-34.7	-35.4	24.6	0.00e+00	0	29	0	1033895936	42	5992
2026-01-26 05:18:02.66	267.29	9.80	-34.5	-35.2	24.5	0.00e+00	0	29	0	1039138816	42	5838
2026-01-26 05:18:03.67	267.46	9.83	-34.6	-35.3	24.5	0.00e+00	0	29	0	1044381696	42	5921
2026-01-26 05:18:04.68	267.64	9.85	-34.7	-35.4	24.4	0.00e+00	0	29	0	1050673152	42	6004
2026-01-26 05:18:05.69	267.81	9.88	-34.3	-35.0	24.6	0.00e+00	0	29	0	1055916032	42	5728
2026-01-26 05:18:06.70	267.98	9.91	-34.4	-35.1	24.4	0.00e+00	0	29	0	1062207488	42	5826
2026-01-26 05:18:07.71	268.15	9.93	-34.3	-35.0	24.7	0.00e+00	0	29	0	1067450368	42	5721
2026-01-26 05:18:08.72	268.33	9.96	-34.1	-34.9	24.8	0.00e+00	0	29	0	1072693248	42	5631
2026-01-26 05:18:09.72	268.50	9.99	-34.1	-34.9	24.6	0.00e+00	0	29	0	1078984704	42	5632
2026-01-26 05:18:10.73	268.67	10.01	-34.7	-35.5	24.8	0.00e+00	0	29	0	1084227584	42	6036
2026-01-26 05:18:11.74	268.84	10.04	-34.3	-35.0	24.5	0.00e+00	0	29	0	1090519040	42	5756
2026-01-26 05:18:12.75	269.02	10.06	-35.1	-35.8	24.5	0.00e+00	0	29	0	1095761920	42	6287
2026-01-26 05:18:13.76	269.19	10.09	-34.7	-35.4	24.3	0.00e+00	0	29	0	1102053376	42	6004
2026-01-26 05:18:14.77	269.37	10.11	-34.5	-35.3	24.5	0.00e+00	0	29	0	1107296256	42	5912
2026-01-26 05:18:15.79	269.54	10.14	-34.7	-35.4	24.5	0.00e+00	0	29	0	1113587712	42	6009
2026-01-26 05:18:16.80	269.72	10.16	-35.2	-36.0	24.5	0.00e+00	0	29	0	1118830592	42	6426
2026-01-26 05:18:17.80	269.89	10.19	-34.5	-35.2	24.7	0.00e+00	0	29	0	1124073472	42	5842
2026-01-26 05:18:18.81	270.07	10.21	-34.0	-34.6	24.7	0.00e+00	0	29	0	1130364928	42	5499
2026-01-26 05:18:19.82	270.25	10.23	-34.0	-34.7	24.9	0.00e+00	0	29	0	1135607808	42	5551
2026-01-26 05:18:20.83	270.42	10.26	-34.0	-34.7	24.7	0.00e+00	0	29	0	1141899264	42	5503
2026-01-26 05:18:21.84	270.60	10.28	-34.3	-35.0	24.4	0.00e+00	0	29	0	1147142144	42	5708
2026-01-26 05:18:22.85	270.78	10.30	-34.5	-35.2	24.6	0.00e+00	0	29	0	1152385024	42	5832
2026-01-26 05:18:23.85	270.95	10.33	-34.4	-35.2	24.4	0.00e+00	0	29	0	1158676480	42	5849
2026-01-26 05:18:24.86	271.13	10.35	-34.4	-35.2	24.4	0.00e+00	0	29	0	1163919360	42	5836
2026-01-26 05:18:25.87	271.31	10.37	-34.6	-35.3	24.4	0.00e+00	0	29	0	1170210816	42	5922
2026-01-26 05:18:26.88	271.48	10.39	-34.5	-35.3	24.4	0.00e+00	0	29	0	1175453696	42	5910
2026-01-26 05:18:27.89	271.66	10.42	-34.5	-35.3	24.5	0.00e+00	0	28	0	1180696576	42	5922
2026-01-26 05:18:28.90	271.84	10.44	-34.8	-35.5	24.5	0.00e+00	0	29	0	1186988032	42	6047
2026-01-26 05:18:29.90	272.02	10.46	-34.6	-35.3	24.3	0.00e+00	0	29	0	1192230912	42	5947
2026-01-26 05:18:30.91	272.20	10.48	-34.4	-35.1	24.5	0.00e+00	0	29	0	1198522368	42	5795
2026-01-26 05:18:31.92	272.38	10.50	-34.2	-34.9	24.5	0.00e+00	0	29	0	1203765248	42	5674
2026-01-26 05:18:32.93	272.56	10.52	-34.0	-34.7	24.7	0.00e+00	0	29	0	1210056704	42	5538
2026-01-26 05:18:33.94	272.74	10.54	-33.9	-34.6	24.9	0.00e+00	0	29	0	1215299584	40	6158
2026-01-26 05:18:34.95	272.92	10.56	-34.1	-34.8	24.6	0.00e+00	0	29	0	1220542464	40	6284
2026-01-26 05:18:35.95	273.09	10.58	-33.9	-34.6	24.9	0.00e+00	0	29	0	1226833920	40	6122
2026-01-26 05:18:36.96	273.27	10.60	-34.3	-35.0	25.0	0.00e+00	0	29	0	1232076800	40	6424
2026-01-26 05:18:37.97	273.45	10.62	-33.9	-34.6	24.8	0.00e+00	0	29	0	1238368256	40	6166
2026-01-26 05:18:38.98	273.64	10.64	-34.1	-34.8	24.8	0.00e+00	0	29	0	1243611136	40	6266
2026-01-26 05:18:39.99	273.82	10.66	-33.7	-34.4	25.1	0.00e+00	0	29	0	1248854016	40	6007
2026-01-26 05:18:41.00	274.00	10.68	-34.5	-35.2	24.9	0.00e+00	0	29	0	1255145472	40	6544
2026-01-26 05:18:42.01	274.18	10.70	-34.1	-34.8	24.8	0.00e+00	0	29	0	1260388352	40	6300
2026-01-26 05:18:43.01	274.36	10.72	-34.1	-34.8	24.8	0.00e+00	0	29	0	1265631232	40	6276
2026-01-26 05:18:44.03	274.54	10.74	-33.7	-34.4	24.8	0.00e+00	0	29	0	1271922688	40	6009
2026-01-26 05:18:45.04	274.73	10.75	-34.2	-34.9	24.8	0.00e+00	0	28	0	1277165568	40	6339
2026-01-26 05:18:46.04	274.91	10.77	-34.0	-34.6	24.7	0.00e+00	0	29	0	1283457024	40	6153
2026-01-26 05:18:47.05	275.09	10.79	-34.0	-34.7	24.7	0.00e+00	0	29	0	1288699904	40	6197
2026-01-26 05:18:48.06	275.27	10.81	-33.9	-34.7	24.8	0.00e+00	0	29	0	1294991360	40	6204
2026-01-26 05:18:49.07	275.46	10.82	-33.8	-34.4	25.0	0.00e+00	0	29	0	1300234240	40	6018
2026-01-26 05:18:50.08	275.64	10.84	-33.8	-34.5	24.8	0.00e+00	0	29	0	1306525696	40	6044
2026-01-26 05:18:51.09	275.82	10.86	-33.6	-34.3	25.1	0.00e+00	0	29	0	1311768576	40	5928
2026-01-26 05:18:52.10	276.01	10.87	-33.3	-34.0	25.3	0.00e+00	0	29	0	1317011456	40	5743
2026-01-26 05:18:53.11	276.19	10.89	-33.5	-34.2	25.2	0.00e+00	0	29	0	1323302912	40	5848
2026-01-26 05:18:54.12	276.37	10.91	-33.4	-34.0	25.3	0.00e+00	0	29	0	1328545792	40	5760
2026-01-26 05:18:55.13	276.56	10.92	-33.8	-34.5	25.0	0.00e+00	0	28	0	1334837248	40	6052
2026-01-26 05:18:56.14	276.74	10.94	-33.6	-34.3	25.1	0.00e+00	0	29	0	1340080128	40	5916
2026-01-26 05:18:57.14	276.93	10.95	-33.9	-34.6	24.8	0.00e+00	0	29	0	1345323008	40	6139
2026-01-26 05:18:58.16	277.11	10.97	-33.7	-34.4	25.0	0.00e+00	0	29	0	1351614464	40	5988
2026-01-26 05:18:59.16	277.30	10.98	-33.9	-34.7	24.9	0.00e+00	0	29	0	1356857344	40	6185
2026-01-26 05:19:00.17	277.48	11.00	-33.8	-34.5	25.1	0.00e+00	0	29	0	1363148800	40	6055
2026-01-26 05:19:01.18	277.67	11.01	-33.9	-34.5	25.2	0.00e+00	0	29	0	1368391680	40	6100
2026-01-26 05:19:02.19	277.85	11.02	-33.7	-34.4	25.0	0.00e+00	0	29	0	1373634560	40	5992
2026-01-26 05:19:03.21	278.04	11.04	-33.8	-34.5	25.2	0.00e+00	0	29	0	1379926016	40	6060
2026-01-26 05:19:04.21	278.22	11.05	-33.8	-34.5	25.0	0.00e+00	0	29	0	1385168896	40	6039
2026-01-26 05:19:05.22	278.41	11.06	-33.8	-34.5	25.0	0.00e+00	0	29	0	1391460352	40	6057
2026-01-26 05:19:06.24	278.60	11.08	-33.7	-34.4	24.9	0.00e+00	0	29	0	1396703232	40	5985
2026-01-26 05:19:07.24	278.78	11.09	-33.8	-34.5	25.1	0.00e+00	0	29	0	1402994688	40	6072
2026-01-26 05:19:08.25	278.97	11.10	-33.8	-34.4	25.0	0.00e+00	0	29	0	1408237568	40	6010
2026-01-26 05:19:09.26	279.15	11.11	-33.7	-34.4	25.0	0.00e+00	0	29	0	1413480448	40	5995
2026-01-26 05:19:10.27	279.34	11.13	-33.9	-34.6	25.2	0.00e+00	0	29	0	1419771904	40	6150
2026-01-26 05:19:11.28	279.53	11.14	-34.0	-34.7	25.0	0.00e+00	0	29	0	1425014784	40	6179
2026-01-26 05:19:12.29	279.72	11.15	-33.7	-34.4	25.0	0.00e+00	0	29	0	1431306240	40	5983
2026-01-26 05:19:13.30	279.90	11.16	-33.9	-34.6	25.0	0.00e+00	0	29	0	1436549120	40	6112
2026-01-26 05:19:14.31	280.09	11.17	-34.0	-34.7	24.8	0.00e+00	0	29	0	1441792000	40	6177
2026-01-26 05:19:15.32	280.28	11.18	-34.0	-34.7	24.7	0.00e+00	0	29	0	1448083456	40	6218
2026-01-26 05:19:16.33	280.46	11.19	-34.0	-34.7	24.8	0.00e+00	0	29	0	1453326336	40	6213
2026-01-26 05:19:17.33	280.65	11.20	-34.1	-34.8	24.8	0.00e+00	0	29	0	1459617792	40	6298
2026-01-26 05:19:18.34	280.84	11.21	-34.3	-35.1	24.7	0.00e+00	0	29	0	1464860672	40	6498
2026-01-26 05:19:19.35	281.03	11.22	-34.2	-34.9	24.4	0.00e+00	0	29	0	1470103552	42	5668
2026-01-26 05:19:20.36	281.21	11.23	-34.2	-34.8	24.8	0.00e+00	0	28	0	1476395008	42	5612
2026-01-26 05:19:21.36	281.40	11.24	-34.4	-35.1	24.7	0.00e+00	0	29	0	1481637888	42	5772
2026-01-26 05:19:22.37	281.59	11.24	-34.7	-35.4	24.1	0.00e+00	0	29	0	1487929344	42	6006
2026-01-26 05:19:23.38	281.78	11.25	-34.5	-35.2	24.4	0.00e+00	0	29	0	1493172224	42	5854
2026-01-26 05:19:24.39	281.97	11.26	-34.4	-35.1	24.6	0.00e+00	0	29	0	1499463680	42	5794
2026-01-26 05:19:25.40	282.15	11.27	-34.3	-35.0	24.4	0.00e+00	0	29	0	1504706560	42	5708
2026-01-26 05:19:26.41	282.34	11.28	-34.3	-35.0	24.5	0.00e+00	0	29	0	1509949440	42	5732
2026-01-26 05:19:27.41	282.53	11.28	-34.5	-35.2	24.2	0.00e+00	0	29	0	1516240896	42	5846
2026-01-26 05:19:28.43	282.72	11.29	-34.5	-35.2	24.7	0.00e+00	0	29	0	1521483776	42	5865
2026-01-26 05:19:29.44	282.91	11.30	-35.2	-35.9	24.1	0.00e+00	0	29	0	1527775232	42	6385
2026-01-26 05:19:30.45	283.10	11.30	-35.0	-35.7	24.0	0.00e+00	0	29	0	1533018112	42	6233
2026-01-26 05:19:31.46	283.29	11.31	-35.1	-35.8	24.2	0.00e+00	0	29	0	1538260992	42	6286
2026-01-26 05:19:32.46	283.47	11.32	-34.0	-34.7	25.0	0.00e+00	0	29	0	1544552448	42	5515
2026-01-26 05:19:33.47	283.66	11.32	-34.1	-34.8	24.7	0.00e+00	0	29	0	1549795328	42	5593
2026-01-26 05:19:34.48	283.85	11.33	-34.4	-35.1	25.2	0.00e+00	0	29	0	1556086784	42	5822
2026-01-26 05:19:35.49	284.04	11.33	-34.2	-34.9	24.8	0.00e+00	0	29	0	1561329664	42	5661
2026-01-26 05:19:36.50	284.23	11.34	-35.0	-35.7	23.4	0.00e+00	0	28	0	1566572544	42	6215
2026-01-26 05:19:37.51	284.42	11.34	-34.8	-35.5	24.1	0.00e+00	0	28	0	1572864000	44	5382
2026-01-26 05:19:38.52	284.61	11.34	-35.5	-36.2	24.1	0.00e+00	0	29	0	1578106880	42	6559
2026-01-26 05:19:39.53	284.80	11.35	-34.9	-35.6	24.6	0.00e+00	0	29	0	1584398336	42	6122
2026-01-26 05:19:40.54	284.99	11.35	-34.3	-35.0	24.6	0.00e+00	0	29	0	1589641216	42	5715
2026-01-26 05:19:41.55	285.18	11.35	-34.2	-34.8	25.0	0.00e+00	0	29	0	1595932672	42	5627
2026-01-26 05:19:42.56	285.37	11.36	-34.3	-35.1	24.9	0.00e+00	0	29	0	1601175552	42	5775
2026-01-26 05:19:43.57	285.56	11.36	-34.3	-35.0	24.8	0.00e+00	0	29	0	1606418432	42	5742
2026-01-26 05:19:44.58	285.75	11.36	-34.2	-34.9	25.1	0.00e+00	0	29	0	1612709888	42	5682
2026-01-26 05:19:45.59	285.94	11.37	-34.0	-34.7	25.1	0.00e+00	0	29	0	1617952768	42	5545
2026-01-26 05:19:46.59	286.12	11.37	-33.9	-34.6	24.9	0.00e+00	0	29	0	1624244224	40	6144
2026-01-26 05:19:47.60	286.31	11.37	-34.5	-35.1	24.9	0.00e+00	0	29	0	1629487104	40	6513
2026-01-26 05:19:48.61	286.50	11.37	-34.2	-34.9	24.9	0.00e+00	0	29	0	1634729984	40	6387
2026-01-26 05:19:49.62	286.69	11.37	-34.5	-35.2	24.9	0.00e+00	0	29	0	1641021440	40	6567
2026-01-26 05:19:50.63	286.88	11.37	-34.0	-34.7	24.9	0.00e+00	0	29	0	1646264320	40	6206
2026-01-26 05:19:51.64	287.07	11.37	-34.0	-34.7	24.8	0.00e+00	0	29	0	1652555776	40	6192
2026-01-26 05:19:52.65	287.26	11.37	-34.7	-35.4	24.6	0.00e+00	0	29	0	1657798656	40	6724
2026-01-26 05:19:53.66	287.45	11.37	-34.8	-35.5	24.6	0.00e+00	0	29	0	1663041536	42	6049
2026-01-26 05:19:54.67	287.64	11.37	-34.3	-34.9	24.9	0.00e+00	0	29	0	1669332992	40	6383
2026-01-26 05:19:55.68	287.83	11.37	-34.2	-34.8	24.8	0.00e+00	0	29	0	1674575872	42	5623
2026-01-26 05:19:56.69	288.02	11.37	-34.8	-35.5	24.3	0.00e+00	0	29	0	1680867328	42	6094
2026-01-26 05:19:57.70	288.21	11.37	-34.6	-35.3	24.5	0.00e+00	0	29	0	1686110208	42	5920
2026-01-26 05:19:58.71	288.40	11.37	-34.7	-35.5	24.4	0.00e+00	0	29	0	1692401664	42	6037
2026-01-26 05:19:59.72	288.59	11.37	-34.4	-35.1	24.7	0.00e+00	0	29	0	1697644544	42	5764
2026-01-26 05:20:00.73	288.78	11.36	-34.2	-34.9	24.9	0.00e+00	0	29	0	1703936000	42	5636
2026-01-26 05:20:01.73	288.97	11.36	-35.2	-35.9	24.3	0.00e+00	0	29	0	1709178880	42	6353
2026-01-26 05:20:02.75	289.16	11.36	-34.3	-35.1	24.9	0.00e+00	0	29	0	1714421760	42	5769
2026-01-26 05:20:03.76	289.35	11.36	-34.2	-34.9	25.0	0.00e+00	0	29	0	1720713216	42	5652
2026-01-26 05:20:04.76	289.54	11.35	-34.6	-35.3	24.9	0.00e+00	0	29	0	1725956096	42	5920
2026-01-26 05:20:05.77	289.73	11.35	-34.5	-35.2	24.7	0.00e+00	0	29	0	1732247552	42	5880
2026-01-26 05:20:06.78	289.92	11.35	-34.5	-35.2	24.8	0.00e+00	0	29	0	1737490432	42	5862
2026-01-26 05:20:07.79	290.11	11.34	-34.6	-35.3	24.4	0.00e+00	0	28	0	1742733312	42	5960
2026-01-26 05:20:08.80	290.30	11.34	-34.6	-35.2	24.8	0.00e+00	0	28	0	1749024768	42	5858
2026-01-26 05:20:09.81	290.48	11.33	-34.8	-35.5	23.8	0.00e+00	0	29	0	1754267648	42	6085
2026-01-26 05:20:10.82	290.67	11.33	-34.3	-34.9	24.8	0.00e+00	0	29	0	1759510528	42	5680
2026-01-26 05:20:11.82	290.86	11.32	-34.4	-35.1	24.6	0.00e+00	0	29	0	1765801984	42	5781
2026-01-26 05:20:12.84	291.05	11.32	-34.2	-34.9	24.9	0.00e+00	0	29	0	1771044864	42	5662
2026-01-26 05:20:13.85	291.24	11.31	-34.4	-35.1	24.8	0.00e+00	0	29	0	1777336320	42	5788
2026-01-26 05:20:14.86	291.43	11.31	-34.4	-35.1	24.8	0.00e+00	0	29	0	1782579200	42	5781
2026-01-26 05:20:15.87	291.62	11.30	-34.2	-34.9	24.9	0.00e+00	0	29	0	1788870656	42	5667
2026-01-26 05:20:16.87	291.81	11.29	-34.1	-34.8	25.0	0.00e+00	0	29	0	1794113536	42	5619
2026-01-26 05:20:17.88	291.99	11.29	-34.2	-34.9	24.8	0.00e+00	0	29	0	1800404992	42	5666
2026-01-26 05:20:18.89	292.18	11.28	-34.1	-34.8	24.9	0.00e+00	0	29	0	1805647872	42	5571
2026-01-26 05:20:19.90	292.37	11.27	-34.1	-34.8	25.0	0.00e+00	0	29	0	1810890752	42	5602
2026-01-26 05:20:20.91	292.56	11.27	-34.3	-35.0	24.9	0.00e+00	0	28	0	1817182208	42	5752
2026-01-26 05:20:21.92	292.75	11.26	-34.2	-34.9	25.0	0.00e+00	0	29	0	1822425088	42	5637
2026-01-26 05:20:22.93	292.94	11.25	-34.7	-35.3	25.0	0.00e+00	0	29	0	1828716544	42	5959
2026-01-26 05:20:23.94	293.12	11.24	-34.7	-35.3	24.7	0.00e+00	0	29	0	1833959424	42	5957
2026-01-26 05:20:24.95	293.31	11.23	-34.8	-35.4	24.7	0.00e+00	0	29	0	1839202304	42	6020
2026-01-26 05:20:25.96	293.50	11.22	-34.2	-34.8	24.8	0.00e+00	0	29	0	1845493760	42	5614
2026-01-26 05:20:26.96	293.69	11.22	-34.3	-35.0	24.6	0.00e+00	0	28	0	1850736640	42	5720
2026-01-26 05:20:27.97	293.87	11.21	-34.6	-35.3	24.4	0.00e+00	0	29	0	1857028096	42	5960
2026-01-26 05:20:28.98	294.06	11.20	-35.1	-35.8	24.0	0.00e+00	0	29	0	1862270976	42	6296
2026-01-26 05:20:29.99	294.25	11.19	-34.8	-35.5	24.4	0.00e+00	0	29	0	1867513856	42	6084
2026-01-26 05:20:31.00	294.44	11.18	-34.9	-35.7	23.9	0.00e+00	0	28	0	1873805312	42	6203
2026-01-26 05:20:32.01	294.62	11.17	-35.1	-35.8	24.5	0.00e+00	0	29	0	1879048192	42	6261
2026-01-26 05:20:33.01	294.81	11.15	-34.7	-35.5	24.3	0.00e+00	0	29	0	1885339648	42	6035
2026-01-26 05:20:34.02	294.99	11.14	-34.4	-35.1	24.7	0.00e+00	0	29	0	1890582528	42	5790
2026-01-26 05:20:35.04	295.18	11.13	-34.4	-35.0	24.8	0.00e+00	0	29	0	1896873984	42	5761
2026-01-26 05:20:36.05	295.37	11.12	-34.4	-35.1	24.9	0.00e+00	0	29	0	1902116864	42	5828
2026-01-26 05:20:37.05	295.55	11.11	-34.8	-35.5	24.7	0.00e+00	0	29	0	1907359744	42	6101
2026-01-26 05:20:38.06	295.74	11.10	-34.3	-35.0	24.8	0.00e+00	0	29	0	1913651200	42	5750
2026-01-26 05:20:39.07	295.93	11.08	-34.5	-35.2	24.8	0.00e+00	0	28	0	1918894080	42	5831
2026-01-26 05:20:40.08	296.11	11.07	-34.4	-35.1	24.8	0.00e+00	0	29	0	1925185536	42	5803
2026-01-26 05:20:41.09	296.30	11.06	-34.0	-34.7	24.9	0.00e+00	0	28	0	1930428416	42	5523
2026-01-26 05:20:42.10	296.48	11.05	-34.2	-34.8	25.1	0.00e+00	0	29	0	1935671296	42	5598
2026-01-26 05:20:43.11	296.67	11.03	-34.1	-34.7	25.0	0.00e+00	0	29	0	1941962752	42	5553
2026-01-26 05:20:44.12	296.85	11.02	-33.8	-34.4	25.1	0.00e+00	0	29	0	1947205632	42	5359
2026-01-26 05:20:45.13	297.04	11.01	-33.7	-34.4	25.0	0.00e+00	0	29	0	1953497088	40	6009
2026-01-26 05:20:46.13	297.22	10.99	-33.8	-34.6	25.0	0.00e+00	0	28	0	1958739968	40	6120
2026-01-26 05:20:47.14	297.41	10.98	-33.6	-34.3	25.1	0.00e+00	0	29	0	1963982848	40	5900
2026-01-26 05:20:48.16	297.59	10.96	-33.8	-34.4	24.9	0.00e+00	0	28	0	1970274304	40	6014
2026-01-26 05:20:49.17	297.78	10.95	-33.9	-34.6	24.9	0.00e+00	0	28	0	1975517184	40	6128
2026-01-26 05:20:50.17	297.96	10.93	-34.6	-35.3	24.3	0.00e+00	0	29	0	1981808640	40	6664
2026-01-26 05:20:51.18	298.15	10.92	-34.5	-35.2	24.6	0.00e+00	0	29	0	1987051520	42	5841
2026-01-26 05:20:52.19	298.33	10.90	-35.4	-36.2	24.0	0.00e+00	0	28	0	1993342976	42	6541
2026-01-26 05:20:53.20	298.51	10.89	-34.9	-35.7	24.6	0.00e+00	0	28	0	1998585856	42	6192
2026-01-26 05:20:54.21	298.70	10.87	-34.4	-35.1	24.6	0.00e+00	0	29	0	2003828736	42	5770
2026-01-26 05:20:55.22	298.88	10.85	-34.8	-35.5	24.6	0.00e+00	0	29	0	2010120192	44	5423
2026-01-26 05:20:56.23	299.06	10.84	-34.9	-35.6	24.5	0.00e+00	0	28	0	2015363072	42	6109
2026-01-26 05:20:57.23	299.24	10.82	-35.1	-35.7	24.0	0.00e+00	0	28	0	2021654528	42	6243
2026-01-26 05:20:58.24	299.43	10.80	-34.5	-35.1	24.6	0.00e+00	0	29	0	2026897408	42	5789
2026-01-26 05:20:59.25	299.61	10.78	-34.9	-35.6	24.3	0.00e+00	0	28	0	2032140288	42	6131
2026-01-26 05:21:00.26	299.79	10.77	-35.0	-35.7	24.6	0.00e+00	0	29	0	2038431744	44	5538
2026-01-26 05:21:01.27	299.97	10.75	-34.8	-35.5	24.4	0.00e+00	0	28	0	2043674624	42	6088
2026-01-26 05:21:02.28	300.15	10.73	-35.2	-35.9	24.3	0.00e+00	0	28	0	2049966080	44	5685
2026-01-26 05:21:03.29	300.34	10.71	-34.5	-35.2	24.9	0.00e+00	0	29	0	2055208960	42	5858
2026-01-26 05:21:04.30	300.52	10.69	-34.8	-35.5	24.3	0.00e+00	0	28	0	2060451840	42	6052
2026-01-26 05:21:05.31	300.70	10.68	-35.0	-35.6	24.3	0.00e+00	0	29	0	2066743296	44	5478
2026-01-26 05:21:06.32	300.88	10.66	-35.1	-35.8	24.4	0.00e+00	0	28	0	2071986176	44	5609
2026-01-26 05:21:07.33	301.06	10.64	-35.9	-36.7	23.9	0.00e+00	0	29	0	2078277632	44	6192
2026-01-26 05:21:08.34	301.24	10.62	-34.9	-35.7	24.6	0.00e+00	0	29	0	2083520512	44	5508
2026-01-26 05:21:09.35	301.42	10.60	-34.7	-35.4	24.5	0.00e+00	0	28	0	2089811968	42	5980
2026-01-26 05:21:10.36	301.60	10.58	-35.0	-35.7	24.6	0.00e+00	0	28	0	2095054848	42	6194
2026-01-26 05:21:11.37	301.78	10.56	-34.4	-35.1	24.5	0.00e+00	0	29	0	2100297728	42	5783
2026-01-26 05:21:12.38	301.96	10.54	-34.5	-35.1	24.7	0.00e+00	0	29	0	2106589184	42	5827
2026-01-26 05:21:13.39	302.14	10.52	-34.6	-35.3	24.5	0.00e+00	0	29	0	2111832064	42	5926
2026-01-26 05:21:14.39	302.32	10.50	-35.4	-36.1	24.3	0.00e+00	0	28	0	2118123520	42	6508
2026-01-26 05:21:15.41	302.50	10.47	-35.8	-36.5	23.9	0.00e+00	0	29	0	2123366400	44	6091
2026-01-26 05:21:16.42	302.67	10.45	-35.8	-36.6	24.0	0.00e+00	0	29	0	2128609280	44	6111
2026-01-26 05:21:17.42	302.85	10.43	-35.7	-36.4	23.9	0.00e+00	0	28	0	2134900736	44	5995
2026-01-26 05:21:18.43	303.03	10.41	-35.5	-36.3	24.2	0.00e+00	0	29	0	2140143616	44	5900
2026-01-26 05:21:19.44	303.21	10.39	-34.8	-35.5	24.6	0.00e+00	0	29	0	2146435072	44	5381
2026-01-26 05:21:20.45	303.38	10.37	-35.8	-36.5	24.2	0.00e+00	0	29	0	2151677952	44	6103
2026-01-26 05:21:21.46	303.56	10.34	-35.8	-36.4	24.2	0.00e+00	0	29	0	2156920832	44	6011
2026-01-26 05:21:22.47	303.74	10.32	-35.3	-36.0	24.8	0.00e+00	0	29	0	2163212288	42	6423
2026-01-26 05:21:23.48	303.91	10.30	-35.3	-35.9	24.7	0.00e+00	0	29	0	2168455168	42	6340
2026-01-26 05:21:24.49	304.09	10.27	-34.9	-35.6	24.6	0.00e+00	0	29	0	2174746624	42	6169
2026-01-26 05:21:25.50	304.27	10.25	-35.2	-35.8	24.5	0.00e+00	0	29	0	2179989504	42	6309
2026-01-26 05:21:26.51	304.44	10.23	-35.1	-35.7	24.5	0.00e+00	0	29	0	2186280960	42	6204
2026-01-26 05:21:27.52	304.62	10.20	-35.3	-36.1	24.4	0.00e+00	0	29	0	2191523840	42	6521
2026-01-26 05:21:28.53	304.79	10.18	-36.0	-36.8	24.0	0.00e+00	0	29	0	2196766720	42	7074
2026-01-26 05:21:29.54	304.97	10.16	-35.5	-36.1	24.0	0.00e+00	0	28	0	2203058176	44	5822
2026-01-26 05:21:30.55	305.14	10.13	-35.2	-35.9	24.4	0.00e+00	0	29	0	2208301056	44	5684
2026-01-26 05:21:31.56	305.32	10.11	-35.3	-36.0	24.5	0.00e+00	0	29	0	2214592512	44	5724
2026-01-26 05:21:32.57	305.49	10.08	-35.6	-36.4	24.3	0.00e+00	0	29	0	2219835392	44	6003
2026-01-26 05:21:33.57	305.66	10.06	-35.5	-36.1	24.2	0.00e+00	0	29	0	2225078272	44	5807
2026-01-26 05:21:34.58	305.84	10.03	-35.7	-36.3	24.3	0.00e+00	0	29	0	2231369728	44	5963
2026-01-26 05:21:35.59	306.01	10.01	-35.5	-36.3	24.2	0.00e+00	0	29	0	2236612608	44	5906
2026-01-26 05:21:36.60	306.18	9.98	-35.9	-36.5	24.2	0.00e+00	0	29	0	2242904064	44	6103
2026-01-26 05:21:37.60	306.35	9.96	-35.6	-36.3	24.3	0.00e+00	0	29	0	2248146944	44	5956
2026-01-26 05:21:38.61	306.53	9.93	-36.2	-36.9	23.8	0.00e+00	0	29	0	2253389824	44	6372
2026-01-26 05:21:39.62	306.70	9.90	-35.8	-36.5	24.3	0.00e+00	0	28	0	2259681280	44	6087
2026-01-26 05:21:40.63	306.87	9.88	-35.7	-36.4	23.5	0.00e+00	0	29	0	2264924160	44	5979
2026-01-26 05:21:41.64	307.04	9.85	-36.0	-36.7	24.0	0.00e+00	0	29	0	2271215616	44	6225
2026-01-26 05:21:42.65	307.21	9.82	-35.1	-35.8	23.9	0.00e+00	0	29	0	2276458496	44	5588
2026-01-26 05:21:43.65	307.38	9.80	-35.2	-35.9	24.1	0.00e+00	0	29	0	2282749952	44	5652
2026-01-26 05:21:44.66	307.55	9.77	-35.2	-35.9	24.2	0.00e+00	0	29	0	2287992832	44	5687
2026-01-26 05:21:45.67	307.72	9.74	-35.5	-36.3	24.1	0.00e+00	0	29	0	2293235712	44	5905
2026-01-26 05:21:46.68	307.89	9.71	-36.0	-36.7	23.9	0.00e+00	0	29	0	2299527168	44	6240
2026-01-26 05:21:47.69	308.06	9.69	-36.2	-36.9	24.3	0.00e+00	0	28	0	2304770048	44	6338
2026-01-26 05:21:48.70	308.23	9.66	-35.3	-36.0	24.1	0.00e+00	0	28	0	2311061504	44	5737
2026-01-26 05:21:49.71	308.40	9.63	-35.1	-35.8	24.4	0.00e+00	0	28	0	2316304384	44	5603
2026-01-26 05:21:50.72	308.57	9.60	-35.4	-36.1	24.5	0.00e+00	0	28	0	2321547264	44	5777
2026-01-26 05:21:51.73	308.74	9.57	-35.1	-35.9	24.4	0.00e+00	0	29	0	2327838720	44	5640
2026-01-26 05:21:52.73	308.90	9.55	-35.5	-36.3	24.3	0.00e+00	0	29	0	2333081600	44	5960
2026-01-26 05:21:53.74	309.07	9.52	-36.4	-37.1	24.1	0.00e+00	0	29	0	2339373056	46	5821
2026-01-26 05:21:54.75	309.24	9.49	-35.7	-36.5	24.3	0.00e+00	0	29	0	2344615936	44	6060
2026-01-26 05:21:55.76	309.41	9.46	-35.5	-36.2	24.4	0.00e+00	0	29	0	2349858816	44	5851
2026-01-26 05:21:56.77	309.57	9.43	-35.0	-35.8	24.3	0.00e+00	0	29	0	2356150272	44	5590
2026-01-26 05:21:57.78	309.74	9.40	-35.9	-36.5	24.4	0.00e+00	0	29	0	2361393152	44	6035
2026-01-26 05:21:58.79	309.90	9.37	-35.8	-36.6	24.5	0.00e+00	0	29	0	2367684608	44	6122
2026-01-26 05:21:59.80	310.07	9.34	-36.4	-37.1	24.5	0.00e+00	0	29	0	2372927488	44	6508
2026-01-26 05:22:00.81	310.24	9.31	-36.3	-37.1	24.4	0.00e+00	0	29	0	2379218944	44	6539
2026-01-26 05:22:01.82	310.40	9.28	-35.2	-35.9	24.6	0.00e+00	0	29	0	2384461824	44	5659
2026-01-26 05:22:02.83	310.56	9.25	-35.8	-36.6	24.5	0.00e+00	0	28	0	2389704704	44	6141
2026-01-26 05:22:03.84	310.73	9.22	-35.9	-36.6	24.1	0.00e+00	0	28	0	2395996160	44	6160
2026-01-26 05:22:04.85	310.89	9.19	-35.7	-36.4	24.2	0.00e+00	0	29	0	2401239040	44	6028
2026-01-26 05:22:05.86	311.06	9.16	-35.9	-36.6	24.3	0.00e+00	0	28	0	2407530496	44	6133
2026-01-26 05:22:06.87	311.22	9.13	-35.4	-36.1	24.5	0.00e+00	0	29	0	2412773376	44	5800
2026-01-26 05:22:07.88	311.38	9.10	-35.6	-36.3	24.2	0.00e+00	0	29	0	2419064832	44	5908
2026-01-26 05:22:08.89	311.55	9.06	-35.5	-36.2	24.2	0.00e+00	0	29	0	2424307712	44	5877
2026-01-26 05:22:09.90	311.71	9.03	-35.1	-35.9	24.3	0.00e+00	0	29	0	2429550592	44	5652
2026-01-26 05:22:10.90	311.87	9.00	-35.6	-36.2	24.2	0.00e+00	0	29	0	2435842048	44	5895
2026-01-26 05:22:11.91	312.03	8.97	-35.1	-35.8	24.3	0.00e+00	0	29	0	2441084928	44	5617
2026-01-26 05:22:12.92	312.19	8.94	-36.0	-36.7	24.1	0.00e+00	0	29	0	2447376384	44	6244
2026-01-26 05:22:13.93	312.35	8.91	-35.6	-36.3	24.2	0.00e+00	0	29	0	2452619264	44	5947
2026-01-26 05:22:14.94	312.51	8.87	-35.7	-36.5	23.8	0.00e+00	0	29	0	2457862144	44	6048
2026-01-26 05:22:15.95	312.67	8.84	-35.8	-36.5	24.1	0.00e+00	0	28	0	2464153600	44	6069
2026-01-26 05:22:16.96	312.83	8.81	-36.4	-37.2	24.0	0.00e+00	0	29	0	2469396480	44	6555
2026-01-26 05:22:17.97	312.99	8.78	-36.4	-37.2	23.8	0.00e+00	0	29	0	2475687936	46	5866
2026-01-26 05:22:18.98	313.15	8.74	-36.1	-36.7	24.0	0.00e+00	0	28	0	2480930816	46	5564
2026-01-26 05:22:19.99	313.31	8.71	-35.6	-36.4	23.8	0.00e+00	0	29	0	2486173696	44	5968
2026-01-26 05:22:21.00	313.47	8.68	-35.6	-36.4	24.1	0.00e+00	0	29	0	2492465152	44	5976
2026-01-26 05:22:22.01	313.63	8.64	-36.3	-37.0	23.6	0.00e+00	0	29	0	2497708032	46	5756
2026-01-26 05:22:23.02	313.79	8.61	-35.9	-36.6	24.0	0.00e+00	0	29	0	2503999488	46	5485
2026-01-26 05:22:24.03	313.94	8.58	-35.6	-36.3	24.2	0.00e+00	0	28	0	2509242368	44	5925
2026-01-26 05:22:25.04	314.10	8.54	-35.7	-36.5	24.2	0.00e+00	0	28	0	2515533824	44	6046
2026-01-26 05:22:26.05	314.26	8.51	-35.8	-36.5	24.1	0.00e+00	0	29	0	2520776704	44	6085
2026-01-26 05:22:27.06	314.41	8.47	-35.4	-36.0	24.1	0.00e+00	0	28	0	2526019584	44	5717
2026-01-26 05:22:28.06	314.57	8.44	-36.3	-37.0	24.0	0.00e+00	0	28	0	2532311040	44	6450
2026-01-26 05:22:29.07	314.72	8.41	-36.3	-37.1	23.7	0.00e+00	0	29	0	2537553920	46	5792
2026-01-26 05:22:30.08	314.88	8.37	-36.8	-37.5	23.6	0.00e+00	0	28	0	2543845376	46	6084
2026-01-26 05:22:31.09	315.03	8.34	-37.0	-37.7	23.9	0.00e+00	0	29	0	2549088256	46	6194
2026-01-26 05:22:32.10	315.19	8.30	-36.8	-37.6	24.0	0.00e+00	0	29	0	2554331136	44	6865
2026-01-26 05:22:33.11	315.34	8.27	-35.9	-36.8	23.8	0.00e+00	0	28	0	2560622592	46	5573
2026-01-26 05:22:34.12	315.50	8.23	-36.7	-37.4	23.1	0.00e+00	0	29	0	2565865472	46	5984
2026-01-26 05:22:35.13	315.65	8.20	-36.5	-37.2	23.8	0.00e+00	0	29	0	2572156928	46	5878
2026-01-26 05:22:36.14	315.80	8.16	-35.9	-36.7	23.6	0.00e+00	0	29	0	2577399808	46	5508
2026-01-26 05:22:37.15	315.96	8.13	-35.8	-36.6	23.9	0.00e+00	0	28	0	2582642688	44	6142
2026-01-26 05:22:38.16	316.11	8.09	-35.6	-36.3	24.1	0.00e+00	0	28	0	2588934144	44	5903
2026-01-26 05:22:39.17	316.26	8.06	-36.3	-36.9	24.0	0.00e+00	0	29	0	2594177024	44	6385
2026-01-26 05:22:40.18	316.41	8.02	-36.0	-36.7	24.0	0.00e+00	0	29	0	2600468480	46	5561
2026-01-26 05:22:41.19	316.56	7.98	-35.8	-36.5	23.9	0.00e+00	0	29	0	2605711360	46	5408
2026-01-26 05:22:42.20	316.71	7.95	-36.0	-36.7	23.5	0.00e+00	0	28	0	2612002816	46	5559
2026-01-26 05:22:43.21	316.87	7.91	-36.3	-37.1	22.3	0.00e+00	0	28	0	2617245696	44	6538
2026-01-26 05:22:44.22	317.02	7.88	-36.0	-36.6	23.7	0.00e+00	0	29	0	2623537152	46	5499
2026-01-26 05:22:45.23	317.17	7.84	-36.6	-37.3	23.4	0.00e+00	0	28	0	2628780032	46	5941
2026-01-26 05:22:46.24	317.32	7.80	-36.9	-37.6	23.5	0.00e+00	0	28	0	2634022912	46	6163
2026-01-26 05:22:47.25	317.46	7.77	-36.2	-36.9	23.5	0.00e+00	0	29	0	2640314368	46	5667
2026-01-26 05:22:48.25	317.61	7.73	-35.9	-36.7	23.2	0.00e+00	0	29	0	2645557248	46	5508
2026-01-26 05:22:49.26	317.76	7.70	-36.0	-36.7	23.0	0.00e+00	0	29	0	2650800128	44	6215
2026-01-26 05:22:50.27	317.91	7.66	-35.8	-36.6	23.2	0.00e+00	0	28	0	2657091584	44	6138
2026-01-26 05:22:51.28	318.06	7.62	-36.0	-36.8	23.0	0.00e+00	0	29	0	2662334464	44	6268
2026-01-26 05:22:52.29	318.20	7.58	-35.6	-36.3	23.5	0.00e+00	0	29	0	2668625920	44	5932
2026-01-26 05:22:53.30	318.35	7.55	-35.8	-36.6	23.6	0.00e+00	0	29	0	2673868800	44	6140
2026-01-26 05:22:54.31	318.50	7.51	-36.0	-36.7	23.4	0.00e+00	0	28	0	2679111680	44	6210
2026-01-26 05:22:55.32	318.64	7.47	-36.3	-37.1	23.3	0.00e+00	0	29	0	2685403136	46	5776
2026-01-26 05:22:56.33	318.79	7.44	-35.6	-36.4	23.3	0.00e+00	0	29	0	2690646016	46	5329
2026-01-26 05:22:57.33	318.93	7.40	-35.3	-35.9	23.5	0.00e+00	0	28	0	2696937472	44	5695
2026-01-26 05:22:58.34	319.08	7.36	-35.8	-36.4	23.6	0.00e+00	0	28	0	2702180352	44	6013
2026-01-26 05:22:59.35	319.22	7.32	-36.1	-36.8	22.9	0.00e+00	0	29	0	2708471808	44	6257
2026-01-26 05:23:00.36	319.37	7.29	-36.5	-37.2	23.0	0.00e+00	0	28	0	2713714688	44	6554
2026-01-26 05:23:01.37	319.51	7.25	-36.2	-36.9	23.1	0.00e+00	0	29	0	2718957568	46	5643
2026-01-26 05:23:02.37	319.66	7.21	-35.9	-36.6	23.3	0.00e+00	0	28	0	2725249024	44	6163
2026-01-26 05:23:03.38	319.80	7.17	-36.2	-37.0	23.0	0.00e+00	0	29	0	2730491904	44	6428
2026-01-26 05:23:04.39	319.94	7.13	-36.4	-37.2	22.8	0.00e+00	0	29	0	2736783360	44	6566
2026-01-26 05:23:05.40	320.08	7.10	-36.0	-36.8	23.1	0.00e+00	0	28	0	2742026240	44	6255
2026-01-26 05:23:06.41	320.23	7.06	-36.7	-37.5	22.8	0.00e+00	0	29	0	2747269120	46	6058
2026-01-26 05:23:07.42	320.37	7.02	-36.6	-37.3	22.7	0.00e+00	0	28	0	2753560576	46	5957
2026-01-26 05:23:08.43	320.51	6.98	-37.3	-38.1	22.8	0.00e+00	0	28	0	2758803456	48	5766
2026-01-26 05:23:09.44	320.65	6.94	-37.3	-38.1	22.9	0.00e+00	0	29	0	2765094912	46	6481
2026-01-26 05:23:10.45	320.79	6.90	-36.5	-37.2	23.4	0.00e+00	0	29	0	2770337792	48	5202
2026-01-26 05:23:11.46	320.93	6.86	-35.9	-36.7	23.1	0.00e+00	0	29	0	2775580672	46	5518
2026-01-26 05:23:12.47	321.07	6.82	-36.0	-36.8	23.0	0.00e+00	0	28	0	2781872128	46	5605
2026-01-26 05:23:13.47	321.21	6.79	-36.9	-37.6	22.9	0.00e+00	0	29	0	2787115008	46	6144
2026-01-26 05:23:14.48	321.35	6.75	-37.6	-38.4	23.2	0.00e+00	0	29	0	2793406464	46	6746
2026-01-26 05:23:15.49	321.49	6.71	-36.7	-37.5	22.8	0.00e+00	0	29	0	2798649344	46	6040
2026-01-26 05:23:16.50	321.63	6.67	-36.6	-37.3	23.1	0.00e+00	0	29	0	2804940800	46	5963
2026-01-26 05:23:17.51	321.77	6.63	-36.4	-37.1	22.9	0.00e+00	0	29	0	2810183680	46	5770
2026-01-26 05:23:18.52	321.91	6.59	-36.3	-37.1	23.0	0.00e+00	0	28	0	2816475136	46	5782
2026-01-26 05:23:19.53	322.04	6.55	-36.8	-37.6	23.0	0.00e+00	0	28	0	2821718016	46	6113
2026-01-26 05:23:20.54	322.18	6.51	-36.5	-37.2	23.0	0.00e+00	0	29	0	2826960896	46	5862
2026-01-26 05:23:21.55	322.32	6.47	-36.6	-37.5	22.5	0.00e+00	0	29	0	2833252352	46	6038
2026-01-26 05:23:22.56	322.45	6.43	-36.2	-36.9	23.2	0.00e+00	0	28	0	2838495232	46	5663
2026-01-26 05:23:23.57	322.59	6.39	-36.7	-37.5	23.1	0.00e+00	0	29	0	2843738112	46	6046
2026-01-26 05:23:24.57	322.72	6.35	-37.1	-37.9	23.1	0.00e+00	0	28	0	2850029568	46	6382
2026-01-26 05:23:25.59	322.86	6.31	-36.8	-37.7	22.8	0.00e+00	0	29	0	2855272448	48	5506
2026-01-26 05:23:26.60	323.00	6.27	-37.3	-38.2	22.9	0.00e+00	0	28	0	2861563904	48	5856
2026-01-26 05:23:27.60	323.13	6.23	-36.8	-37.6	23.2	0.00e+00	0	28	0	2866806784	46	6124
2026-01-26 05:23:28.61	323.26	6.19	-36.4	-37.1	23.1	0.00e+00	0	28	0	2872049664	46	5795
2026-01-26 05:23:29.62	323.40	6.15	-35.7	-36.4	23.2	0.00e+00	0	28	0	2878341120	44	5971
2026-01-26 05:23:30.63	323.53	6.11	-36.9	-37.8	23.0	0.00e+00	0	29	0	2883584000	46	6254
2026-01-26 05:23:31.64	323.67	6.07	-36.9	-37.6	23.0	0.00e+00	0	28	0	2889875456	46	6139
2026-01-26 05:23:32.65	323.80	6.03	-36.0	-36.7	23.3	0.00e+00	0	29	0	2895118336	46	5523
2026-01-26 05:23:33.66	323.93	5.99	-36.3	-37.0	23.1	0.00e+00	0	28	0	2901409792	46	5709
2026-01-26 05:23:34.67	324.06	5.95	-36.1	-36.9	23.0	0.00e+00	0	29	0	2906652672	46	5647
2026-01-26 05:23:35.68	324.20	5.91	-35.7	-36.3	22.8	0.00e+00	0	28	0	2912944128	44	5957
2026-01-26 05:23:36.69	324.33	5.87	-36.2	-36.8	23.1	0.00e+00	0	29	0	2918187008	44	6302
2026-01-26 05:23:37.70	324.46	5.83	-35.8	-36.5	23.0	0.00e+00	0	29	0	2923429888	44	6054
2026-01-26 05:23:38.71	324.59	5.79	-36.3	-37.0	23.1	0.00e+00	0	29	0	2929721344	44	6396
2026-01-26 05:23:39.72	324.72	5.75	-36.4	-37.1	22.9	0.00e+00	0	29	0	2934964224	44	6500
2026-01-26 05:23:40.72	324.85	5.71	-36.0	-36.7	23.0	0.00e+00	0	29	0	2941255680	44	6220
2026-01-26 05:23:41.74	324.98	5.67	-36.0	-36.8	22.8	0.00e+00	0	28	0	2946498560	44	6278
2026-01-26 05:23:42.74	325.11	5.63	-36.8	-37.5	22.7	0.00e+00	0	28	0	2951741440	46	6082
2026-01-26 05:23:43.75	325.24	5.58	-36.2	-36.9	22.6	0.00e+00	0	28	0	2958032896	46	5693
2026-01-26 05:23:44.76	325.37	5.54	-36.0	-36.8	22.7	0.00e+00	0	28	0	2963275776	46	5587
2026-01-26 05:23:45.77	325.49	5.50	-36.5	-37.3	22.5	0.00e+00	0	29	0	2969567232	46	5937
2026-01-26 05:23:46.78	325.62	5.46	-36.3	-37.0	22.5	0.00e+00	0	28	0	2974810112	46	5735
2026-01-26 05:23:47.79	325.75	5.42	-36.7	-37.5	22.2	0.00e+00	0	28	0	2980052992	46	6101
2026-01-26 05:23:48.79	325.88	5.38	-36.5	-37.2	22.3	0.00e+00	0	29	0	2986344448	46	5890
2026-01-26 05:23:49.80	326.00	5.34	-36.7	-37.5	22.2	0.00e+00	0	29	0	2991587328	46	6079
2026-01-26 05:23:50.81	326.13	5.30	-37.4	-38.2	22.1	0.00e+00	0	29	0	2997878784	46	6548
2026-01-26 05:23:51.82	326.26	5.26	-36.5	-37.3	22.4	0.00e+00	0	29	0	3003121664	46	5915
2026-01-26 05:23:52.82	326.38	5.21	-36.6	-37.3	21.9	0.00e+00	0	28	0	3009413120	46	5940
2026-01-26 05:23:53.83	326.51	5.17	-36.5	-37.2	22.4	0.00e+00	0	29	0	3014656000	46	5895
2026-01-26 05:23:54.84	326.63	5.13	-36.9	-37.6	22.2	0.00e+00	0	29	0	3019898880	46	6107
2026-01-26 05:23:55.85	326.76	5.09	-36.6	-37.4	22.4	0.00e+00	0	29	0	3026190336	46	5979
2026-01-26 05:23:56.86	326.88	5.05	-36.8	-37.5	22.1	0.00e+00	0	28	0	3031433216	46	6040
2026-01-26 05:23:57.87	327.01	5.01	-36.9	-37.7	21.9	0.00e+00	0	29	0	3037724672	46	6205
2026-01-26 05:23:58.88	327.13	4.96	-35.9	-36.7	22.4	0.00e+00	0	29	0	3042967552	46	5550
2026-01-26 05:23:59.89	327.25	4.92	-36.5	-37.3	21.9	0.00e+00	0	28	0	3048210432	46	5940
2026-01-26 05:24:00.90	327.38	4.88	-38.1	-38.8	22.0	0.00e+00	0	29	0	3054501888	48	6287
2026-01-26 05:24:01.90	327.50	4.84	-37.5	-38.3	21.9	0.00e+00	0	29	0	3059744768	48	5902
2026-01-26 05:24:02.91	327.62	4.80	-37.6	-38.5	21.9	0.00e+00	0	28	0	3064987648	48	6101
2026-01-26 05:24:03.92	327.74	4.76	-37.4	-38.2	22.0	0.00e+00	0	29	0	3071279104	48	5851
2026-01-26 05:24:04.93	327.87	4.71	-37.1	-37.9	21.9	0.00e+00	0	29	0	3076521984	48	5664
2026-01-26 05:24:05.93	327.99	4.67	-37.2	-38.0	21.7	0.00e+00	0	28	0	3082813440	48	5713
2026-01-26 05:24:06.94	328.11	4.63	-38.1	-38.9	21.8	0.00e+00	0	29	0	3088056320	48	6362
2026-01-26 05:24:07.95	328.23	4.59	-37.7	-38.6	22.2	0.00e+00	0	29	0	3094347776	48	6107
2026-01-26 05:24:08.96	328.35	4.55	-37.7	-38.6	21.8	0.00e+00	0	29	0	3099590656	48	6144
2026-01-26 05:24:09.96	328.47	4.50	-37.5	-38.4	22.0	0.00e+00	0	29	0	3104833536	48	5965
2026-01-26 05:24:10.97	328.59	4.46	-37.7	-38.4	22.1	0.00e+00	0	29	0	3111124992	48	6012
2026-01-26 05:24:11.98	328.71	4.42	-37.2	-38.1	22.0	0.00e+00	0	29	0	3116367872	48	5793
2026-01-26 05:24:13.00	328.83	4.38	-37.3	-38.0	21.8	0.00e+00	0	29	0	3122659328	46	6443
2026-01-26 05:24:14.01	328.95	4.34	-36.7	-37.6	21.8	0.00e+00	0	29	0	3127902208	46	6122
2026-01-26 05:24:15.01	329.07	4.29	-37.1	-38.0	21.6	0.00e+00	0	29	0	3133145088	46	6425
2026-01-26 05:24:16.03	329.18	4.25	-37.1	-37.9	21.9	0.00e+00	0	29	0	3139436544	46	6351
2026-01-26 05:24:17.04	329.30	4.21	-36.4	-37.2	22.6	0.00e+00	0	29	0	3144679424	46	5866
2026-01-26 05:24:18.04	329.42	4.17	-36.2	-37.1	22.3	0.00e+00	0	29	0	3150970880	44	6466
2026-01-26 05:24:19.05	329.54	4.12	-36.2	-37.0	22.0	0.00e+00	0	29	0	3156213760	44	6442
2026-01-26 05:24:20.06	329.65	4.08	-36.2	-37.0	21.8	0.00e+00	0	29	0	3161456640	44	6463
2026-01-26 05:24:21.07	329.77	4.04	-36.5	-37.4	22.1	0.00e+00	0	29	0	3167748096	44	6728
2026-01-26 05:24:22.08	329.89	4.00	-36.4	-37.1	21.9	0.00e+00	0	29	0	3172990976	44	6495
2026-01-26 05:24:23.09	330.00	3.95	-37.3	-38.2	21.1	0.00e+00	0	29	0	3179282432	46	6550
2026-01-26 05:24:24.10	330.12	3.91	-36.7	-37.6	21.6	0.00e+00	0	29	0	3184525312	46	6135
2026-01-26 05:24:25.11	330.23	3.87	-36.9	-37.8	21.0	0.00e+00	0	29	0	3190816768	46	6279
2026-01-26 05:24:26.12	330.35	3.83	-36.6	-37.4	21.8	0.00e+00	0	29	0	3196059648	46	5992
2026-01-26 05:24:27.13	330.46	3.78	-36.7	-37.6	21.5	0.00e+00	0	29	0	3202351104	46	6143
2026-01-26 05:24:28.14	330.58	3.74	-37.0	-37.8	21.1	0.00e+00	0	29	0	3207593984	46	6269
2026-01-26 05:24:29.15	330.69	3.70	-37.4	-38.2	20.9	0.00e+00	0	29	0	3212836864	46	6588
2026-01-26 05:24:30.16	330.81	3.66	-37.8	-38.7	20.4	0.00e+00	0	29	0	3219128320	48	6219
2026-01-26 05:24:31.17	330.92	3.61	-37.7	-38.7	19.7	0.00e+00	0	29	0	3224371200	48	6199
2026-01-26 05:24:32.17	331.03	3.57	-38.5	-39.5	19.3	0.00e+00	0	29	0	3230662656	48	6820
2026-01-26 05:24:33.18	331.14	3.53	-39.2	-40.3	18.0	0.00e+00	0	29	0	3235905536	50	6630
2026-01-26 05:24:34.20	331.26	3.48	-39.5	-40.8	17.4	0.00e+00	0	29	0	3241148416	52	6265
2026-01-26 05:24:35.20	331.37	3.44	-40.1	-41.5	16.1	0.00e+00	0	29	0	3247439872	52	6843
2026-01-26 05:24:36.21	331.48	3.40	-41.3	-43.1	14.5	0.00e+00	0	28	0	3252682752	54	7279
2026-01-26 05:24:37.22	331.59	3.36	-41.0	-42.9	14.3	3.40e-06	0	29	0	3258974208	54	7095
2026-01-26 05:24:38.23	331.70	3.31	-41.9	-44.4	12.1	1.09e-04	0	29	0	3264217088	56	7530
2026-01-26 05:24:39.24	331.82	3.27	-43.0	-46.5	9.3	3.20e-03	0	29	0	3269459968	58	8567
2026-01-26 05:24:40.25	331.93	3.23	-43.5	-47.5	8.0	6.17e-02	0	29	0	3275751424	58	9623
2026-01-26 05:24:41.26	332.04	3.18	-43.3	-47.5	7.7	5.94e-02	0	29	0	3280994304	58	9601
2026-01-26 05:24:42.27	332.15	3.14	-43.8	-48.8	6.3	2.51e-01	0	29	0	3287285760	60	9921
2026-01-26 05:24:43.28	332.26	3.10	-44.6	-50.7	4.5	7.34e-01	0	29	0	3289382912	60	12373
2026-01-26 05:24:44.28	332.36	3.06	-45.2	-52.8	3.8	8.31e-01	0	29	0	3289382912	60	15710
2026-01-26 05:24:45.29	332.47	3.01	-44.9	-54.2	3.9	8.42e-01	0	29	104	3289382912	60	18492
2026-01-26 05:24:46.31	332.58	2.97	-49.2	-61.3	3.6	8.46e-01	0	29	104	3289382912	60	42173
2026-01-26 05:24:47.31	332.69	2.93	-49.2	-61.3	3.6	8.45e-01	0	29	104	3289382912	60	41854
2026-01-26 05:24:48.32	332.80	2.88	-49.5	-61.6	3.5	8.46e-01	0	29	104	3289382912	60	43310
2026-01-26 05:24:49.33	332.91	2.84	-49.9	-62.0	3.6	8.44e-01	0	29	104	3289382912	60	45710
2026-01-26 05:24:50.34	333.02	2.80	-49.8	-61.9	3.6	8.45e-01	0	29	104	3289382912	60	45002
2026-01-26 05:24:51.35	333.12	2.76	-50.0	-62.1	3.6	8.46e-01	0	29	104	3289382912	60	46136
2026-01-26 05:24:52.36	333.23	2.71	-50.5	-62.6	3.6	8.46e-01	0	29	104	3289382912	60	48669
2026-01-26 05:24:53.37	333.34	2.67	-49.5	-61.6	3.6	8.44e-01	0	29	104	3289382912	60	43398
2026-01-26 05:24:54.38	333.44	2.63	-50.3	-62.5	3.6	8.45e-01	0	29	104	3289382912	60	47963
2026-01-26 05:24:55.39	333.55	2.58	-49.9	-62.0	3.6	8.45e-01	0	29	104	3289382912	60	45314
2026-01-26 05:24:56.40	333.65	2.54	-49.7	-61.8	3.6	8.46e-01	0	29	104	3289382912	60	44361
2026-01-26 05:24:57.41	333.76	2.50	-49.7	-61.7	3.6	8.46e-01	0	29	104	3289382912	60	44141
2026-01-26 05:24:58.42	333.87	2.45	-50.5	-62.7	3.6	8.46e-01	0	29	104	3289382912	60	49101
2026-01-26 05:24:59.43	333.97	2.41	-49.8	-62.0	3.6	8.46e-01	0	29	104	3289382912	60	45350
2026-01-26 05:25:00.44	334.08	2.37	-50.2	-62.6	3.6	8.45e-01	0	29	104	3289382912	60	48562
2026-01-26 05:25:01.45	334.18	2.32	-51.0	-63.5	3.6	8.45e-01	0	29	104	3289382912	60	54012
2026-01-26 05:25:02.46	334.28	2.28	-50.0	-62.2	3.6	8.45e-01	0	29	104	3289382912	60	46518
2026-01-26 05:25:03.47	334.39	2.24	-50.2	-62.5	3.6	8.45e-01	0	29	104	3289382912	60	47955
2026-01-26 05:25:04.48	334.49	2.19	-49.9	-62.0	3.6	8.46e-01	0	29	104	3289382912	60	45603
2026-01-26 05:25:05.49	334.59	2.15	-50.4	-62.5	3.6	8.45e-01	0	29	104	3289382912	60	48479
2026-01-26 05:25:06.50	334.70	2.11	-50.2	-62.4	3.6	8.46e-01	0	29	104	3289382912	60	47424
2026-01-26 05:25:07.51	334.80	2.07	-50.1	-62.3	3.6	8.44e-01	0	29	104	3289382912	60	46845
2026-01-26 05:25:08.52	334.90	2.02	-50.5	-62.5	3.6	8.45e-01	0	29	104	3289382912	60	48310
2026-01-26 05:25:09.53	335.00	1.98	-49.5	-61.6	3.6	8.46e-01	0	29	104	3289382912	60	43534
2026-01-26 05:25:10.54	335.11	1.94	-50.4	-62.5	3.6	8.46e-01	0	29	104	3289382912	60	48105
2026-01-26 05:25:11.55	335.21	1.89	-49.9	-62.1	3.6	8.46e-01	0	29	104	3289382912	60	45823
2026-01-26 05:25:12.56	335.31	1.85	-49.9	-62.0	3.6	8.46e-01	0	29	104	3289382912	60	45618
2026-01-26 05:25:13.57	335.41	1.81	-51.0	-63.2	3.6	8.44e-01	0	29	104	3289382912	60	52247
2026-01-26 05:25:14.58	335.51	1.76	-51.1	-63.2	3.6	8.46e-01	0	29	104	3289382912	60	52403
2026-01-26 05:25:15.59	335.61	1.72	-50.6	-62.8	3.6	8.45e-01	0	29	104	3289382912	60	49723
2026-01-26 05:25:16.60	335.71	1.68	-50.1	-62.2	3.6	8.44e-01	0	29	104	3289382912	60	46562
2026-01-26 05:25:17.61	335.81	1.63	-50.9	-63.1	3.6	8.44e-01	0	29	104	3289382912	60	51508
2026-01-26 05:25:18.62	335.91	1.59	-51.0	-63.1	3.6	8.44e-01	0	29	104	3289382912	60	51622
2026-01-26 05:25:19.63	336.01	1.55	-50.5	-62.6	3.6	8.45e-01	0	29	104	3289382912	60	48662
2026-01-26 05:25:20.64	336.11	1.50	-51.1	-63.2	3.6	8.45e-01	0	29	104	3289382912	60	51988
2026-01-26 05:25:21.65	336.21	1.46	-50.7	-62.8	3.6	8.45e-01	0	29	104	3289382912	60	49987
2026-01-26 05:25:22.66	336.31	1.42	-51.1	-63.2	3.6	8.44e-01	0	29	104	3289382912	60	52306
2026-01-26 05:25:23.67	336.41	1.37	-50.7	-62.8	3.6	8.44e-01	0	29	104	3289382912	60	50052
2026-01-26 05:25:24.68	336.50	1.33	-51.7	-63.8	3.6	8.44e-01	0	29	104	3289382912	60	56169
2026-01-26 05:25:25.69	336.60	1.29	-50.7	-62.8	3.5	8.45e-01	0	29	104	3289382912	60	49958
2026-01-26 05:25:26.70	336.70	1.24	-50.5	-62.6	3.6	8.46e-01	0	29	104	3289382912	60	48899
2026-01-26 05:25:27.70	336.79	1.20	-50.8	-62.9	3.6	8.46e-01	0	29	104	3289382912	60	50665
