passes_logs/2026/01/26/R4.6S_Anadyr/R4.6S_Anadyr__20260126_005241_SUOMI_NPP_rec.log

#Pass ID: 20260126_005241_SUOMI NPP
#Satellite: SUOMI NPP
#Configuration: NPP
#almurnet v.1.7.20251203
#Start time: 2026-01-26 00:52:42

#Version: 2.2.20231116
#Station: R4.6S_Anadyr
#Location: 177.4865 lon 64.73178 lat
#TLE: 1 37849U 11061A   26025.53586395  .00000179  00000+0  10601-3 0  9996
#TLE: 2 37849  98.7821 327.4943 0002169  45.6246 314.5108 14.19529815738202

#Time	Az	El	Level	Level2	SNR	BER	BlckErr	Temp	State	Recorded	gain1	gain2
2026-01-26 00:52:42.37	170.89	0.06	-50.1	-62.6	3.6	1.52e+00	0	31	0	0	60	47558
2026-01-26 00:52:43.37	170.91	0.12	-51.7	-66.9	3.6	1.51e+00	0	32	104	0	60	80345
2026-01-26 00:52:44.38	170.93	0.18	-51.3	-66.5	3.6	1.51e+00	0	32	104	0	60	76403
2026-01-26 00:52:45.39	170.95	0.24	-50.4	-65.7	3.6	1.51e+00	0	32	104	0	60	69775
2026-01-26 00:52:46.40	170.98	0.30	-51.2	-66.5	3.5	1.51e+00	0	32	104	0	60	76156
2026-01-26 00:52:47.41	171.00	0.36	-50.3	-65.5	3.6	1.51e+00	0	32	104	0	60	68145
2026-01-26 00:52:48.42	171.02	0.42	-50.4	-65.6	3.6	1.51e+00	0	33	104	0	60	69115
2026-01-26 00:52:49.43	171.04	0.48	-50.1	-65.4	3.6	1.51e+00	0	33	104	0	60	66974
2026-01-26 00:52:50.44	171.06	0.54	-50.3	-65.5	3.6	1.51e+00	0	33	104	0	60	68236
2026-01-26 00:52:51.45	171.08	0.60	-50.3	-65.5	3.6	1.51e+00	0	33	104	0	60	67969
2026-01-26 00:52:52.46	171.10	0.66	-49.9	-65.1	3.6	1.51e+00	0	33	104	0	60	65393
2026-01-26 00:52:53.47	171.13	0.73	-49.9	-65.1	3.6	1.51e+00	0	33	104	0	60	65304
2026-01-26 00:52:54.48	171.15	0.79	-49.7	-64.9	3.6	1.51e+00	0	33	104	0	60	63596
2026-01-26 00:52:55.49	171.17	0.85	-49.8	-65.0	3.6	1.51e+00	0	33	104	0	60	64278
2026-01-26 00:52:56.50	171.19	0.91	-50.0	-65.2	3.6	1.51e+00	0	33	104	0	60	65890
2026-01-26 00:52:57.51	171.21	0.97	-50.4	-65.6	3.6	1.51e+00	0	33	104	0	60	69191
2026-01-26 00:52:58.52	171.24	1.03	-50.0	-65.2	3.6	1.51e+00	0	33	104	0	60	65822
2026-01-26 00:52:59.53	171.26	1.10	-50.2	-65.5	3.6	1.51e+00	0	33	104	0	60	67698
2026-01-26 00:53:00.54	171.28	1.16	-50.5	-65.9	3.6	1.51e+00	0	33	104	0	60	70990
2026-01-26 00:53:01.55	171.30	1.22	-50.0	-65.2	3.6	1.51e+00	0	33	104	0	60	65926
2026-01-26 00:53:02.56	171.33	1.28	-50.0	-65.2	3.6	1.51e+00	0	33	104	0	60	65801
2026-01-26 00:53:03.57	171.35	1.35	-50.0	-65.2	3.6	1.51e+00	0	33	104	0	60	66069
2026-01-26 00:53:04.58	171.37	1.41	-49.5	-64.8	3.6	1.51e+00	0	33	104	0	60	62593
2026-01-26 00:53:05.59	171.39	1.47	-49.1	-64.3	3.6	1.51e+00	0	33	104	0	60	59466
2026-01-26 00:53:06.60	171.42	1.53	-49.1	-64.3	3.6	1.51e+00	0	33	104	0	60	59472
2026-01-26 00:53:07.61	171.44	1.60	-48.7	-63.8	3.6	1.51e+00	0	33	104	0	60	55741
2026-01-26 00:53:08.62	171.46	1.66	-48.5	-63.5	3.6	1.51e+00	0	33	104	0	60	54133
2026-01-26 00:53:09.62	171.49	1.72	-48.4	-63.5	3.6	1.51e+00	0	33	104	0	60	54276
2026-01-26 00:53:10.64	171.51	1.79	-48.4	-63.4	3.6	1.51e+00	0	33	104	0	60	53524
2026-01-26 00:53:11.64	171.53	1.85	-48.3	-63.4	3.6	1.51e+00	0	33	104	0	60	53245
2026-01-26 00:53:12.66	171.56	1.91	-48.2	-63.3	3.6	1.51e+00	0	33	104	0	60	52984
2026-01-26 00:53:13.66	171.58	1.98	-48.2	-63.3	3.6	1.51e+00	0	33	104	0	60	52826
2026-01-26 00:53:14.67	171.60	2.04	-48.2	-63.4	3.6	1.51e+00	0	33	104	0	60	53270
2026-01-26 00:53:15.68	171.63	2.11	-48.3	-63.4	3.6	1.51e+00	0	33	104	0	60	53617
2026-01-26 00:53:16.69	171.65	2.17	-48.4	-63.5	3.6	1.51e+00	0	33	104	0	60	54202
2026-01-26 00:53:17.70	171.67	2.23	-48.5	-63.5	3.6	1.51e+00	0	33	104	0	60	54239
2026-01-26 00:53:18.71	171.70	2.30	-48.6	-63.7	3.6	1.51e+00	0	33	104	0	60	55167
2026-01-26 00:53:19.72	171.72	2.36	-48.4	-63.4	3.6	1.51e+00	0	33	104	0	60	53207
2026-01-26 00:53:20.74	171.74	2.43	-48.5	-62.9	3.6	1.51e+00	0	33	104	0	60	50651
2026-01-26 00:53:21.75	171.77	2.49	-48.5	-62.7	3.6	1.51e+00	0	33	104	0	60	49290
2026-01-26 00:53:22.76	171.79	2.56	-48.5	-62.4	3.6	1.51e+00	0	33	104	0	60	47899
2026-01-26 00:53:23.77	171.82	2.63	-48.4	-62.4	3.6	1.51e+00	0	33	104	0	60	47531
2026-01-26 00:53:24.78	171.84	2.69	-48.3	-62.7	3.6	1.51e+00	0	33	104	0	60	49277
2026-01-26 00:53:25.79	171.87	2.76	-48.3	-63.3	3.6	1.51e+00	0	33	104	0	60	52860
2026-01-26 00:53:26.80	171.89	2.82	-48.2	-63.2	3.6	1.51e+00	0	33	104	0	60	52492
2026-01-26 00:53:27.81	171.92	2.89	-48.1	-61.0	3.6	1.51e+00	0	33	104	0	60	40567
2026-01-26 00:53:28.81	171.94	2.95	-47.8	-56.7	5.1	5.32e-01	92	33	0	0	60	24692
2026-01-26 00:53:29.82	171.96	3.02	-47.4	-53.9	7.5	3.55e-01	6	33	0	2097152	60	17943
2026-01-26 00:53:30.84	171.99	3.09	-46.9	-52.3	9.8	4.54e-02	92	33	0	4194304	60	14962
2026-01-26 00:53:31.85	172.02	3.15	-45.3	-48.7	13.3	1.44e-03	0	33	0	5242880	60	9862
2026-01-26 00:53:32.86	172.04	3.22	-44.4	-47.1	15.3	0.00e+00	92	33	0	7340032	60	8155
2026-01-26 00:53:33.87	172.07	3.29	-44.4	-47.1	15.4	0.00e+00	0	33	0	9437184	60	8221
2026-01-26 00:53:34.88	172.09	3.35	-43.1	-45.1	17.3	0.00e+00	92	33	0	11534336	60	6485
2026-01-26 00:53:35.89	172.12	3.42	-42.5	-44.3	17.8	0.00e+00	92	33	0	13631488	58	6692
2026-01-26 00:53:36.90	172.14	3.49	-41.6	-43.1	19.0	0.00e+00	92	33	0	14680064	58	5827
2026-01-26 00:53:37.91	172.17	3.56	-42.2	-43.9	18.3	0.00e+00	91	33	0	16777216	56	7096
2026-01-26 00:53:38.92	172.19	3.62	-41.9	-43.5	18.7	0.00e+00	0	33	0	18874368	56	6806
2026-01-26 00:53:39.93	172.22	3.69	-42.6	-44.4	17.9	0.00e+00	92	33	0	20971520	56	7527
2026-01-26 00:53:40.94	172.25	3.76	-42.6	-44.4	18.0	0.00e+00	0	33	0	23068672	58	6733
2026-01-26 00:53:41.95	172.27	3.83	-44.4	-47.0	15.2	0.00e+00	91	33	0	24117248	60	8075
2026-01-26 00:53:42.96	172.30	3.90	-47.1	-52.1	8.4	7.00e-07	92	33	0	26214400	60	14599
2026-01-26 00:53:43.97	172.32	3.97	-47.4	-52.9	5.5	1.50e+00	0	33	104	26214400	60	15966
2026-01-26 00:53:44.98	172.35	4.03	-44.2	-46.4	14.2	6.53e-03	92	33	104	26214400	60	7577
2026-01-26 00:53:45.99	172.38	4.10	-44.0	-46.2	16.9	1.94e-03	0	33	0	27262976	60	7351
2026-01-26 00:53:47.00	172.40	4.17	-43.1	-45.0	17.6	0.00e+00	82	33	0	29360128	60	6460
2026-01-26 00:53:48.01	172.43	4.24	-43.6	-45.5	17.7	0.00e+00	0	33	0	31457280	60	6844
2026-01-26 00:53:49.02	172.46	4.31	-43.1	-44.9	18.3	0.00e+00	92	33	0	33554432	60	6323
2026-01-26 00:53:50.03	172.48	4.38	-42.6	-44.4	18.3	0.00e+00	33	33	0	34603008	58	6696
2026-01-26 00:53:51.04	172.51	4.45	-42.3	-44.0	18.5	0.00e+00	92	33	0	36700160	58	6434
2026-01-26 00:53:52.05	172.54	4.52	-42.5	-44.3	18.3	0.00e+00	90	33	0	38797312	58	6620
2026-01-26 00:53:53.06	172.57	4.59	-42.1	-43.7	18.8	0.00e+00	0	33	0	40894464	58	6228
2026-01-26 00:53:54.07	172.59	4.66	-42.5	-44.2	18.3	0.00e+00	62	33	0	42991616	58	6573
2026-01-26 00:53:55.08	172.62	4.73	-42.2	-43.8	18.5	0.00e+00	0	33	0	44040192	58	6298
2026-01-26 00:53:56.09	172.65	4.80	-42.9	-44.8	17.7	0.00e+00	92	33	0	46137344	58	7032
2026-01-26 00:53:57.10	172.68	4.87	-42.2	-43.8	18.9	0.00e+00	36	33	0	48234496	58	6254
2026-01-26 00:53:58.11	172.70	4.94	-41.9	-43.5	19.1	0.00e+00	92	33	0	50331648	56	6782
2026-01-26 00:53:59.11	172.73	5.01	-42.0	-43.5	19.0	0.00e+00	92	33	0	52428800	56	6829
2026-01-26 00:54:00.12	172.76	5.09	-41.9	-43.4	19.3	0.00e+00	15	33	0	53477376	56	6703
2026-01-26 00:54:01.13	172.79	5.16	-41.8	-43.3	19.3	0.00e+00	62	33	0	55574528	56	6618
2026-01-26 00:54:02.14	172.82	5.23	-41.8	-43.3	19.2	0.00e+00	0	33	0	57671680	56	6655
2026-01-26 00:54:03.15	172.84	5.30	-42.5	-44.1	19.5	0.00e+00	92	33	0	59768832	56	7291
2026-01-26 00:54:04.16	172.87	5.37	-42.5	-44.1	19.0	0.00e+00	0	33	0	61865984	58	6504
2026-01-26 00:54:05.17	172.90	5.45	-41.6	-42.9	20.0	0.00e+00	92	33	0	62914560	56	6381
2026-01-26 00:54:06.18	172.93	5.52	-41.0	-42.3	20.3	0.00e+00	92	33	0	65011712	56	5958
2026-01-26 00:54:07.19	172.96	5.59	-41.2	-42.5	20.3	0.00e+00	0	33	0	67108864	56	6071
2026-01-26 00:54:08.20	172.99	5.66	-41.2	-42.5	20.2	0.00e+00	92	33	0	69206016	56	6094
2026-01-26 00:54:09.20	173.02	5.74	-40.9	-42.1	20.6	0.00e+00	0	33	0	71303168	56	5816
2026-01-26 00:54:10.21	173.05	5.81	-41.0	-42.2	20.4	0.00e+00	92	33	0	72351744	56	5894
2026-01-26 00:54:11.22	173.08	5.88	-40.8	-42.0	20.7	0.00e+00	0	33	0	74448896	54	6414
2026-01-26 00:54:12.23	173.11	5.96	-40.8	-42.1	20.5	0.00e+00	92	33	0	76546048	54	6496
2026-01-26 00:54:13.24	173.14	6.03	-40.7	-41.9	20.7	0.00e+00	37	33	0	78643200	54	6350
2026-01-26 00:54:14.25	173.17	6.10	-41.3	-42.6	20.1	0.00e+00	0	33	0	80740352	54	6909
2026-01-26 00:54:15.26	173.20	6.18	-41.3	-42.6	20.3	0.00e+00	92	33	0	81788928	56	6170
2026-01-26 00:54:16.27	173.23	6.25	-41.0	-42.3	20.6	0.00e+00	0	33	0	83886080	56	5913
2026-01-26 00:54:17.28	173.26	6.33	-41.3	-42.7	20.2	0.00e+00	57	33	0	85983232	56	6174
2026-01-26 00:54:18.29	173.29	6.40	-41.6	-42.9	20.3	0.00e+00	0	33	0	88080384	56	6365
2026-01-26 00:54:19.30	173.32	6.48	-41.3	-42.6	20.2	0.00e+00	92	33	0	90177536	56	6155
2026-01-26 00:54:20.31	173.35	6.55	-41.1	-42.3	20.6	0.00e+00	0	33	0	91226112	56	5948
2026-01-26 00:54:21.32	173.38	6.63	-40.6	-41.8	21.0	0.00e+00	90	33	0	93323264	54	6261
2026-01-26 00:54:22.33	173.41	6.71	-40.7	-41.9	20.6	0.00e+00	92	33	0	95420416	54	6354
2026-01-26 00:54:23.34	173.44	6.78	-40.4	-41.6	21.0	0.00e+00	0	33	0	97517568	54	6167
2026-01-26 00:54:24.35	173.47	6.86	-40.5	-41.7	21.0	0.00e+00	40	33	0	99614720	54	6225
2026-01-26 00:54:25.36	173.51	6.93	-40.3	-41.5	21.3	0.00e+00	0	33	0	101711872	54	6049
2026-01-26 00:54:26.37	173.54	7.01	-40.2	-41.3	21.2	0.00e+00	55	33	0	102760448	54	5949
2026-01-26 00:54:27.37	173.57	7.09	-40.0	-41.1	21.4	0.00e+00	12	33	0	104857600	54	5782
2026-01-26 00:54:28.38	173.60	7.16	-40.1	-41.2	21.4	0.00e+00	90	32	0	106954752	54	5855
2026-01-26 00:54:29.39	173.63	7.24	-40.0	-41.2	21.4	0.00e+00	92	33	0	109051904	54	5831
2026-01-26 00:54:30.40	173.66	7.32	-39.8	-40.9	21.6	0.00e+00	0	33	0	111149056	54	5656
2026-01-26 00:54:31.41	173.70	7.40	-39.9	-41.0	21.4	0.00e+00	90	33	0	112197632	52	6454
2026-01-26 00:54:32.42	173.73	7.48	-39.7	-40.8	21.6	0.00e+00	0	32	0	114294784	52	6269
2026-01-26 00:54:33.43	173.76	7.55	-39.7	-40.8	21.6	0.00e+00	92	33	0	116391936	52	6290
2026-01-26 00:54:34.44	173.80	7.63	-39.7	-40.8	21.6	0.00e+00	0	33	0	118489088	52	6265
2026-01-26 00:54:35.45	173.83	7.71	-39.8	-40.9	21.5	0.00e+00	92	33	0	120586240	52	6345
2026-01-26 00:54:36.46	173.86	7.79	-40.0	-41.1	21.6	0.00e+00	90	32	0	121634816	52	6465
2026-01-26 00:54:37.47	173.89	7.87	-40.1	-41.2	21.3	0.00e+00	31	33	0	123731968	52	6596
2026-01-26 00:54:38.48	173.93	7.95	-39.9	-41.0	21.5	0.00e+00	90	33	0	125829120	52	6420
2026-01-26 00:54:39.49	173.96	8.03	-39.9	-41.0	21.4	0.00e+00	0	33	0	127926272	52	6462
2026-01-26 00:54:40.49	174.00	8.11	-39.9	-41.0	21.7	0.00e+00	92	33	0	130023424	52	6427
2026-01-26 00:54:41.50	174.03	8.19	-40.0	-41.1	21.6	0.00e+00	0	33	0	131072000	52	6471
2026-01-26 00:54:42.51	174.06	8.27	-39.8	-40.9	21.6	0.00e+00	92	33	0	133169152	52	6362
2026-01-26 00:54:43.52	174.10	8.35	-39.9	-41.0	21.7	0.00e+00	92	33	0	135266304	52	6399
2026-01-26 00:54:44.53	174.13	8.43	-40.4	-41.5	21.5	0.00e+00	33	33	0	137363456	52	6838
2026-01-26 00:54:45.54	174.17	8.51	-40.9	-42.0	21.6	0.00e+00	92	33	0	139460608	54	6457
2026-01-26 00:54:46.55	174.20	8.59	-40.5	-41.5	21.9	0.00e+00	0	33	0	140509184	54	6085
2026-01-26 00:54:47.56	174.24	8.67	-40.0	-41.1	22.0	0.00e+00	92	33	0	142606336	54	5767
2026-01-26 00:54:48.57	174.27	8.76	-39.9	-41.0	21.9	0.00e+00	0	33	0	144703488	54	5708
2026-01-26 00:54:49.58	174.31	8.84	-39.6	-40.7	22.0	0.00e+00	91	33	0	146800640	52	6177
2026-01-26 00:54:50.59	174.34	8.92	-39.5	-40.6	22.1	0.00e+00	91	33	0	148897792	52	6109
2026-01-26 00:54:51.60	174.38	9.00	-39.7	-40.8	21.9	0.00e+00	25	33	0	149946368	52	6268
2026-01-26 00:54:52.61	174.42	9.09	-39.6	-40.6	22.2	0.00e+00	91	33	0	152043520	52	6129
2026-01-26 00:54:53.62	174.45	9.17	-39.5	-40.5	22.2	0.00e+00	0	32	0	154140672	52	6063
2026-01-26 00:54:54.63	174.49	9.25	-39.5	-40.5	22.3	0.00e+00	92	33	0	156237824	52	6076
2026-01-26 00:54:55.64	174.52	9.34	-39.2	-40.2	22.6	0.00e+00	0	33	0	158334976	52	5844
2026-01-26 00:54:56.65	174.56	9.42	-39.6	-40.6	22.3	0.00e+00	91	32	0	159383552	52	6136
2026-01-26 00:54:57.66	174.60	9.51	-39.3	-40.3	22.5	0.00e+00	59	32	0	161480704	52	5933
2026-01-26 00:54:58.67	174.64	9.59	-39.4	-40.4	22.4	0.00e+00	91	33	0	163577856	52	5971
2026-01-26 00:54:59.68	174.67	9.68	-39.6	-40.5	22.4	0.00e+00	92	32	0	165675008	52	6096
2026-01-26 00:55:00.69	174.71	9.76	-39.3	-40.3	22.5	0.00e+00	0	33	0	167772160	52	5935
2026-01-26 00:55:01.70	174.75	9.85	-39.7	-40.7	22.2	0.00e+00	69	32	0	169869312	52	6180
2026-01-26 00:55:02.71	174.79	9.93	-39.6	-40.6	22.5	0.00e+00	0	33	0	170917888	52	6124
2026-01-26 00:55:03.72	174.82	10.02	-39.7	-40.7	22.2	0.00e+00	90	32	0	173015040	52	6238
2026-01-26 00:55:04.72	174.86	10.11	-39.5	-40.5	22.3	0.00e+00	32	33	0	175112192	52	6072
2026-01-26 00:55:05.73	174.90	10.19	-39.6	-40.6	22.2	0.00e+00	90	32	0	177209344	52	6145
2026-01-26 00:55:06.74	174.94	10.28	-39.3	-40.3	22.6	0.00e+00	91	33	0	179306496	52	5919
2026-01-26 00:55:07.75	174.98	10.37	-39.3	-40.3	22.3	0.00e+00	0	32	0	180355072	52	5920
2026-01-26 00:55:08.76	175.02	10.45	-39.3	-40.2	22.8	0.00e+00	60	32	0	182452224	52	5886
2026-01-26 00:55:09.77	175.06	10.54	-39.2	-40.2	22.3	0.00e+00	0	33	0	184549376	52	5857
2026-01-26 00:55:10.78	175.10	10.63	-39.2	-40.1	22.8	0.00e+00	86	32	0	186646528	52	5828
2026-01-26 00:55:11.79	175.14	10.72	-38.9	-39.8	22.6	0.00e+00	0	32	0	188743680	52	5613
2026-01-26 00:55:12.80	175.18	10.81	-38.9	-39.9	23.0	0.00e+00	90	32	0	189792256	52	5645
2026-01-26 00:55:13.81	175.22	10.90	-39.2	-40.1	23.0	0.00e+00	91	33	0	191889408	52	5808
2026-01-26 00:55:14.82	175.26	10.99	-39.1	-40.1	22.9	0.00e+00	0	32	0	193986560	52	5765
2026-01-26 00:55:15.83	175.30	11.08	-39.0	-39.9	23.0	0.00e+00	67	33	0	196083712	52	5674
2026-01-26 00:55:16.84	175.34	11.17	-39.1	-40.0	22.7	0.00e+00	0	32	0	198180864	52	5745
2026-01-26 00:55:17.85	175.38	11.26	-38.9	-39.8	22.8	0.00e+00	91	32	0	199229440	52	5591
2026-01-26 00:55:18.86	175.42	11.35	-38.7	-39.6	22.9	0.00e+00	0	32	0	201326592	52	5479
2026-01-26 00:55:19.87	175.46	11.44	-39.0	-39.9	22.6	0.00e+00	92	32	0	203423744	50	6371
2026-01-26 00:55:20.88	175.50	11.53	-39.2	-40.1	22.7	0.00e+00	32	32	0	205520896	50	6514
2026-01-26 00:55:21.88	175.55	11.62	-38.8	-39.8	22.9	0.00e+00	20	32	0	207618048	50	6256
2026-01-26 00:55:22.90	175.59	11.71	-39.0	-40.0	22.7	0.00e+00	90	33	0	208666624	50	6411
2026-01-26 00:55:23.90	175.63	11.81	-39.2	-40.2	22.4	0.00e+00	0	32	0	210763776	50	6555
2026-01-26 00:55:24.92	175.67	11.90	-39.1	-40.0	22.6	0.00e+00	92	32	0	212860928	50	6450
2026-01-26 00:55:25.92	175.72	11.99	-38.8	-39.7	22.9	0.00e+00	0	32	0	214958080	50	6220
2026-01-26 00:55:26.93	175.76	12.09	-38.4	-39.3	23.1	0.00e+00	92	32	0	217055232	50	5938
2026-01-26 00:55:27.94	175.80	12.18	-38.4	-39.3	23.2	0.00e+00	92	32	0	218103808	50	5964
2026-01-26 00:55:28.95	175.85	12.27	-38.4	-39.3	23.4	0.00e+00	92	32	0	220200960	50	5921
2026-01-26 00:55:29.96	175.89	12.37	-38.5	-39.4	23.3	0.00e+00	92	32	0	222298112	50	6009
2026-01-26 00:55:30.97	175.94	12.46	-38.2	-39.1	23.5	0.00e+00	0	32	0	224395264	50	5769
2026-01-26 00:55:31.98	175.98	12.56	-38.6	-39.5	23.2	0.00e+00	92	33	0	226492416	50	6102
2026-01-26 00:55:32.99	176.03	12.65	-38.3	-39.2	23.3	0.00e+00	0	32	0	227540992	50	5871
2026-01-26 00:55:34.00	176.07	12.75	-38.3	-39.2	23.2	0.00e+00	90	32	0	229638144	50	5868
2026-01-26 00:55:35.00	176.12	12.85	-38.0	-38.8	23.6	0.00e+00	0	32	0	231735296	50	5625
2026-01-26 00:55:36.01	176.16	12.94	-38.0	-38.9	23.4	0.00e+00	92	32	0	233832448	50	5656
2026-01-26 00:55:37.02	176.21	13.04	-38.0	-38.8	23.4	0.00e+00	91	32	0	235929600	50	5620
2026-01-26 00:55:38.03	176.25	13.14	-38.3	-39.1	23.4	0.00e+00	0	32	0	238026752	50	5814
2026-01-26 00:55:39.04	176.30	13.23	-38.0	-38.8	23.6	0.00e+00	92	32	0	239075328	50	5610
2026-01-26 00:55:40.05	176.35	13.33	-38.2	-39.0	23.6	0.00e+00	0	32	0	241172480	50	5740
2026-01-26 00:55:41.06	176.39	13.43	-38.2	-39.1	23.5	0.00e+00	92	32	0	243269632	50	5803
2026-01-26 00:55:42.07	176.44	13.53	-38.2	-39.0	23.6	0.00e+00	0	32	0	245366784	50	5753
2026-01-26 00:55:43.08	176.49	13.63	-38.4	-39.3	23.3	0.00e+00	92	32	0	247463936	50	5916
2026-01-26 00:55:44.09	176.54	13.73	-38.2	-39.1	23.5	0.00e+00	92	32	0	248512512	50	5800
2026-01-26 00:55:45.10	176.58	13.83	-38.4	-39.3	23.4	0.00e+00	0	32	0	250609664	50	5899
2026-01-26 00:55:46.11	176.63	13.93	-38.2	-39.1	23.4	0.00e+00	92	33	0	252706816	50	5775
2026-01-26 00:55:47.12	176.68	14.03	-38.1	-39.0	23.5	0.00e+00	0	32	0	254803968	50	5707
2026-01-26 00:55:48.13	176.73	14.13	-38.2	-39.1	23.4	0.00e+00	92	32	0	256901120	50	5810
2026-01-26 00:55:49.14	176.78	14.23	-38.2	-39.1	23.5	0.00e+00	2	32	0	257949696	50	5762
2026-01-26 00:55:50.15	176.83	14.34	-38.5	-39.4	23.4	0.00e+00	92	32	0	260046848	50	5968
2026-01-26 00:55:51.16	176.88	14.44	-38.4	-39.3	23.3	0.00e+00	92	32	0	262144000	50	5898
2026-01-26 00:55:52.17	176.93	14.54	-38.6	-39.5	23.4	0.00e+00	0	32	0	264241152	50	6053
2026-01-26 00:55:53.18	176.98	14.64	-38.3	-39.1	23.4	0.00e+00	92	32	0	266338304	50	5824
2026-01-26 00:55:54.19	177.03	14.75	-38.3	-39.2	23.4	0.00e+00	0	32	0	267386880	50	5837
2026-01-26 00:55:55.20	177.09	14.85	-38.2	-39.1	23.4	0.00e+00	92	32	0	269484032	50	5797
2026-01-26 00:55:56.21	177.14	14.96	-38.3	-39.2	23.3	0.00e+00	0	32	0	271581184	50	5845
2026-01-26 00:55:57.22	177.19	15.06	-38.2	-39.1	23.4	0.00e+00	90	32	0	273678336	50	5784
2026-01-26 00:55:58.23	177.24	15.17	-38.1	-39.0	23.5	0.00e+00	41	32	0	275775488	50	5724
2026-01-26 00:55:59.23	177.29	15.27	-38.2	-39.1	23.4	0.00e+00	0	32	0	276824064	50	5808
2026-01-26 00:56:00.24	177.35	15.38	-38.3	-39.2	23.3	0.00e+00	92	32	0	278921216	50	5892
2026-01-26 00:56:01.25	177.40	15.49	-38.2	-39.1	23.3	0.00e+00	0	32	0	281018368	50	5808
2026-01-26 00:56:02.26	177.45	15.59	-38.4	-39.3	23.2	0.00e+00	92	32	0	283115520	50	5939
2026-01-26 00:56:03.27	177.51	15.70	-38.5	-39.4	23.1	0.00e+00	0	32	0	285212672	50	6026
2026-01-26 00:56:04.28	177.56	15.81	-38.2	-39.2	23.2	0.00e+00	92	32	0	286261248	50	5837
2026-01-26 00:56:05.29	177.62	15.92	-38.3	-39.2	23.3	0.00e+00	10	32	0	288358400	50	5859
2026-01-26 00:56:06.30	177.67	16.03	-38.5	-39.4	23.3	0.00e+00	0	32	0	290455552	50	6021
2026-01-26 00:56:07.31	177.73	16.14	-38.4	-39.3	23.1	0.00e+00	92	32	0	292552704	50	5932
2026-01-26 00:56:08.32	177.79	16.25	-38.6	-39.5	23.1	0.00e+00	0	32	0	294649856	50	6062
2026-01-26 00:56:09.33	177.84	16.36	-38.4	-39.4	23.0	0.00e+00	90	32	0	295698432	50	5973
2026-01-26 00:56:10.34	177.90	16.47	-38.5	-39.4	23.2	0.00e+00	0	32	0	297795584	50	6010
2026-01-26 00:56:11.35	177.96	16.58	-38.6	-39.5	23.1	0.00e+00	90	32	0	299892736	50	6066
2026-01-26 00:56:12.35	178.01	16.69	-38.8	-39.8	22.9	0.00e+00	47	32	0	301989888	50	6296
2026-01-26 00:56:13.36	178.07	16.80	-38.9	-39.9	22.8	0.00e+00	79	32	0	304087040	50	6344
2026-01-26 00:56:14.37	178.13	16.92	-38.8	-39.7	22.9	0.00e+00	91	32	0	305135616	50	6242
2026-01-26 00:56:15.38	178.19	17.03	-39.1	-40.1	22.9	0.00e+00	0	32	0	307232768	50	6491
2026-01-26 00:56:16.39	178.25	17.14	-38.9	-39.8	22.8	0.00e+00	92	32	0	309329920	50	6316
2026-01-26 00:56:17.40	178.31	17.26	-38.8	-39.7	23.0	0.00e+00	0	32	0	311427072	50	6207
2026-01-26 00:56:18.41	178.37	17.37	-38.8	-39.8	22.8	0.00e+00	92	32	0	313524224	50	6249
2026-01-26 00:56:19.42	178.43	17.49	-39.0	-40.0	22.8	0.00e+00	0	32	0	314572800	50	6405
2026-01-26 00:56:20.43	178.49	17.61	-38.9	-39.9	22.7	0.00e+00	92	32	0	316669952	50	6333
2026-01-26 00:56:21.44	178.55	17.72	-38.9	-39.9	22.8	0.00e+00	92	32	0	318767104	50	6343
2026-01-26 00:56:22.45	178.61	17.84	-39.0	-39.9	22.9	0.00e+00	0	32	0	320864256	50	6381
2026-01-26 00:56:23.46	178.68	17.96	-39.0	-40.0	23.0	0.00e+00	56	32	0	322961408	50	6395
2026-01-26 00:56:24.47	178.74	18.08	-38.8	-39.7	23.2	0.00e+00	0	32	0	324009984	50	6245
2026-01-26 00:56:25.48	178.80	18.19	-39.0	-40.0	22.9	0.00e+00	90	32	0	326107136	50	6391
2026-01-26 00:56:26.49	178.87	18.31	-38.9	-39.8	23.0	0.00e+00	17	32	0	328204288	50	6293
2026-01-26 00:56:27.50	178.93	18.43	-38.8	-39.8	23.0	0.00e+00	90	32	0	330301440	50	6261
2026-01-26 00:56:28.51	178.99	18.55	-38.7	-39.6	23.0	0.00e+00	91	32	0	332398592	50	6131
2026-01-26 00:56:29.51	179.06	18.67	-38.6	-39.5	23.0	0.00e+00	0	32	0	334495744	50	6092
2026-01-26 00:56:30.52	179.13	18.80	-38.9	-39.9	22.9	0.00e+00	91	32	0	335544320	50	6342
2026-01-26 00:56:31.53	179.19	18.92	-39.1	-40.1	22.7	0.00e+00	0	32	0	337641472	50	6494
2026-01-26 00:56:32.54	179.26	19.04	-39.3	-40.2	22.7	0.00e+00	92	32	0	339738624	50	6612
2026-01-26 00:56:33.55	179.33	19.16	-39.6	-40.6	22.6	0.00e+00	0	32	0	341835776	50	6860
2026-01-26 00:56:34.56	179.39	19.29	-39.4	-40.4	22.8	0.00e+00	90	32	0	343932928	52	5999
2026-01-26 00:56:35.57	179.46	19.41	-39.7	-40.7	22.5	0.00e+00	39	32	0	344981504	52	6203
2026-01-26 00:56:36.58	179.53	19.54	-40.0	-41.0	22.5	0.00e+00	0	32	0	347078656	52	6439
2026-01-26 00:56:37.59	179.60	19.66	-40.2	-41.1	22.7	0.00e+00	91	32	0	349175808	52	6535
2026-01-26 00:56:38.60	179.67	19.79	-39.8	-40.7	22.9	0.00e+00	0	32	0	351272960	52	6245
2026-01-26 00:56:39.61	179.74	19.91	-39.4	-40.3	23.1	0.00e+00	91	32	0	353370112	52	5959
2026-01-26 00:56:40.62	179.81	20.04	-39.6	-40.5	23.1	0.00e+00	0	32	0	354418688	52	6052
2026-01-26 00:56:41.63	179.88	20.17	-39.5	-40.4	23.1	0.00e+00	92	32	0	356515840	52	5982
2026-01-26 00:56:42.64	179.95	20.30	-39.4	-40.3	23.1	0.00e+00	92	32	0	358612992	52	5913
2026-01-26 00:56:43.64	180.03	20.43	-39.5	-40.4	23.1	0.00e+00	0	32	0	360710144	52	5984
2026-01-26 00:56:44.65	180.10	20.56	-39.7	-40.6	23.0	0.00e+00	92	32	0	362807296	52	6153
2026-01-26 00:56:45.66	180.17	20.69	-39.7	-40.6	22.9	0.00e+00	0	32	0	363855872	52	6163
2026-01-26 00:56:46.66	180.25	20.82	-39.6	-40.6	22.6	0.00e+00	69	32	0	365953024	52	6119
2026-01-26 00:56:47.68	180.32	20.95	-39.5	-40.4	22.8	0.00e+00	0	32	0	368050176	52	6027
2026-01-26 00:56:48.69	180.40	21.08	-39.6	-40.6	22.5	0.00e+00	92	32	0	370147328	52	6161
2026-01-26 00:56:49.70	180.47	21.22	-39.4	-40.4	22.6	0.00e+00	36	32	0	372244480	52	5972
2026-01-26 00:56:50.70	180.55	21.35	-40.0	-41.0	22.5	0.00e+00	92	32	0	373293056	52	6430
2026-01-26 00:56:51.72	180.63	21.48	-39.7	-40.7	22.5	0.00e+00	92	32	0	375390208	52	6215
2026-01-26 00:56:52.72	180.71	21.62	-39.6	-40.7	22.5	0.00e+00	0	32	0	377487360	52	6201
2026-01-26 00:56:53.73	180.78	21.75	-39.3	-40.3	22.6	0.00e+00	74	32	0	379584512	52	5959
2026-01-26 00:56:54.74	180.86	21.89	-39.4	-40.5	22.6	0.00e+00	0	32	0	381681664	52	6034
2026-01-26 00:56:55.75	180.94	22.03	-39.9	-41.0	22.3	0.00e+00	92	32	0	382730240	52	6403
2026-01-26 00:56:56.76	181.03	22.16	-39.0	-39.9	23.2	0.00e+00	0	32	0	384827392	52	5687
2026-01-26 00:56:57.77	181.11	22.30	-38.8	-39.8	23.3	0.00e+00	90	32	0	386924544	52	5571
2026-01-26 00:56:58.78	181.19	22.44	-39.1	-40.0	23.4	0.00e+00	92	32	0	389021696	52	5753
2026-01-26 00:56:59.79	181.27	22.58	-39.0	-40.0	23.3	0.00e+00	0	32	0	391118848	50	6405
2026-01-26 00:57:00.80	181.36	22.72	-38.7	-39.6	23.7	0.00e+00	90	32	0	392167424	50	6115
2026-01-26 00:57:01.81	181.44	22.86	-38.0	-38.9	23.9	0.00e+00	0	32	0	394264576	50	5634
2026-01-26 00:57:02.82	181.52	23.00	-38.1	-38.9	23.9	0.00e+00	90	32	0	396361728	50	5665
2026-01-26 00:57:03.83	181.61	23.15	-38.1	-38.9	24.0	0.00e+00	0	32	0	398458880	50	5663
2026-01-26 00:57:04.84	181.70	23.29	-37.6	-38.4	24.1	0.00e+00	92	32	0	400556032	48	6015
2026-01-26 00:57:05.85	181.78	23.44	-37.4	-38.2	24.3	0.00e+00	36	32	0	402653184	48	5832
2026-01-26 00:57:06.86	181.87	23.58	-37.2	-38.1	24.3	0.00e+00	0	32	0	403701760	48	5767
2026-01-26 00:57:07.87	181.96	23.73	-37.0	-37.8	24.4	0.00e+00	92	32	0	405798912	48	5569
2026-01-26 00:57:08.88	182.05	23.87	-36.9	-37.7	24.6	0.00e+00	0	32	0	407896064	46	6193
2026-01-26 00:57:09.88	182.14	24.02	-36.8	-37.6	24.7	0.00e+00	92	32	0	409993216	46	6135
2026-01-26 00:57:10.90	182.23	24.17	-36.9	-37.7	24.7	0.00e+00	0	32	0	412090368	46	6184
2026-01-26 00:57:11.90	182.32	24.31	-37.2	-38.0	24.5	0.00e+00	91	32	0	413138944	46	6449
2026-01-26 00:57:12.91	182.42	24.46	-37.1	-37.8	24.7	0.00e+00	4	32	0	415236096	46	6294
2026-01-26 00:57:13.92	182.51	24.61	-37.1	-37.8	24.7	0.00e+00	0	32	0	417333248	46	6299
2026-01-26 00:57:14.93	182.61	24.77	-37.0	-37.7	24.8	0.00e+00	92	32	0	419430400	46	6245
2026-01-26 00:57:15.94	182.70	24.92	-36.9	-37.7	24.7	0.00e+00	0	32	0	421527552	46	6209
2026-01-26 00:57:16.95	182.80	25.07	-36.8	-37.5	24.8	0.00e+00	70	32	0	422576128	46	6089
2026-01-26 00:57:17.96	182.89	25.22	-37.3	-38.1	24.5	0.00e+00	0	32	0	424673280	46	6465
2026-01-26 00:57:18.97	182.99	25.38	-37.2	-38.0	24.5	0.00e+00	91	32	0	426770432	46	6463
2026-01-26 00:57:19.97	183.09	25.53	-37.1	-37.9	24.6	0.00e+00	0	32	0	428867584	46	6327
2026-01-26 00:57:20.99	183.19	25.69	-37.1	-37.9	24.8	0.00e+00	0	32	0	430964736	46	6355
2026-01-26 00:57:22.00	183.29	25.85	-37.0	-37.7	24.7	0.00e+00	91	32	0	432013312	46	6240
2026-01-26 00:57:23.01	183.40	26.00	-36.9	-37.7	24.8	0.00e+00	0	32	0	434110464	46	6226
2026-01-26 00:57:24.02	183.50	26.16	-36.9	-37.7	24.7	0.00e+00	91	32	0	436207616	46	6220
2026-01-26 00:57:25.03	183.60	26.32	-37.1	-38.0	24.5	0.00e+00	0	32	0	438304768	46	6397
2026-01-26 00:57:26.03	183.71	26.48	-37.3	-38.1	24.4	0.00e+00	91	32	0	440401920	46	6515
2026-01-26 00:57:27.04	183.81	26.64	-38.0	-38.9	24.2	0.00e+00	0	32	0	441450496	48	6351
2026-01-26 00:57:28.05	183.92	26.80	-38.2	-39.1	24.1	0.00e+00	92	32	0	443547648	48	6465
2026-01-26 00:57:29.06	184.03	26.97	-38.0	-38.8	24.1	0.00e+00	92	32	0	445644800	48	6295
2026-01-26 00:57:30.07	184.14	27.13	-37.8	-38.6	24.0	0.00e+00	0	32	0	447741952	48	6168
2026-01-26 00:57:31.08	184.25	27.29	-37.7	-38.5	24.2	0.00e+00	92	32	0	449839104	48	6098
2026-01-26 00:57:32.09	184.36	27.46	-37.4	-38.2	24.2	0.00e+00	0	32	0	450887680	48	5894
2026-01-26 00:57:33.10	184.47	27.62	-37.3	-38.1	24.4	0.00e+00	75	32	0	452984832	48	5815
2026-01-26 00:57:34.11	184.58	27.79	-37.2	-38.0	24.4	0.00e+00	0	32	0	455081984	48	5742
2026-01-26 00:57:35.12	184.70	27.96	-37.2	-38.0	24.3	0.00e+00	90	32	0	457179136	48	5697
2026-01-26 00:57:36.13	184.81	28.13	-37.1	-37.9	24.4	0.00e+00	92	32	0	459276288	48	5659
2026-01-26 00:57:37.14	184.93	28.30	-37.2	-38.0	24.4	0.00e+00	0	32	0	460324864	48	5720
2026-01-26 00:57:38.15	185.05	28.47	-37.3	-38.1	24.4	0.00e+00	92	32	0	462422016	48	5800
2026-01-26 00:57:39.16	185.17	28.64	-37.7	-38.5	24.2	0.00e+00	0	32	0	464519168	48	6093
2026-01-26 00:57:40.17	185.29	28.81	-37.5	-38.3	24.3	0.00e+00	72	32	0	466616320	48	5936
2026-01-26 00:57:41.18	185.41	28.99	-37.7	-38.5	24.2	0.00e+00	0	32	0	468713472	48	6079
2026-01-26 00:57:42.19	185.54	29.16	-37.9	-38.7	24.1	0.00e+00	92	32	0	470810624	48	6208
2026-01-26 00:57:43.20	185.66	29.34	-38.1	-38.9	24.0	0.00e+00	90	32	0	471859200	48	6352
2026-01-26 00:57:44.21	185.79	29.51	-38.4	-39.2	23.9	0.00e+00	0	32	0	473956352	48	6611
2026-01-26 00:57:45.22	185.91	29.69	-38.7	-39.6	23.4	0.00e+00	92	32	0	476053504	48	6874
2026-01-26 00:57:46.23	186.04	29.87	-38.5	-39.4	23.3	0.00e+00	0	32	0	478150656	50	6033
2026-01-26 00:57:47.24	186.17	30.05	-38.4	-39.3	23.4	0.00e+00	90	32	0	480247808	50	5902
2026-01-26 00:57:48.25	186.30	30.23	-38.9	-39.8	23.2	0.00e+00	0	32	0	481296384	50	6293
2026-01-26 00:57:49.25	186.44	30.41	-39.3	-40.2	23.0	0.00e+00	92	32	0	483393536	50	6601
2026-01-26 00:57:50.26	186.57	30.59	-39.5	-40.4	22.9	0.00e+00	42	32	0	485490688	50	6744
2026-01-26 00:57:51.27	186.71	30.77	-39.6	-40.6	22.7	0.00e+00	0	32	0	487587840	50	6917
2026-01-26 00:57:52.28	186.84	30.96	-40.3	-41.4	22.3	0.00e+00	92	32	0	489684992	52	6695
2026-01-26 00:57:53.29	186.98	31.14	-40.5	-41.5	22.2	0.00e+00	0	32	0	490733568	52	6835
2026-01-26 00:57:54.30	187.12	31.33	-41.0	-42.2	21.7	0.00e+00	40	32	0	492830720	52	7339
2026-01-26 00:57:55.31	187.26	31.52	-41.5	-42.7	21.3	0.00e+00	0	32	0	494927872	54	6935
2026-01-26 00:57:56.32	187.41	31.71	-41.7	-42.9	20.8	0.00e+00	92	32	0	497025024	56	6375
2026-01-26 00:57:57.33	187.55	31.90	-42.1	-43.5	20.1	0.00e+00	21	32	0	499122176	56	6772
2026-01-26 00:57:58.34	187.70	32.09	-42.3	-43.6	20.3	0.00e+00	76	32	0	500170752	58	6139
2026-01-26 00:57:59.35	187.85	32.28	-42.5	-43.9	19.9	0.00e+00	92	32	0	502267904	58	6382
2026-01-26 00:58:00.36	188.00	32.47	-42.9	-44.4	19.6	0.00e+00	0	32	0	504365056	58	6693
2026-01-26 00:58:01.37	188.15	32.66	-42.2	-43.6	20.2	0.00e+00	92	32	0	506462208	58	6138
2026-01-26 00:58:02.38	188.30	32.86	-41.9	-43.2	20.4	0.00e+00	0	32	0	508559360	56	6608
2026-01-26 00:58:03.39	188.46	33.05	-41.9	-43.2	20.5	0.00e+00	92	32	0	509607936	56	6551
2026-01-26 00:58:04.40	188.62	33.25	-41.7	-42.9	20.7	0.00e+00	44	32	0	511705088	56	6365
2026-01-26 00:58:05.41	188.78	33.45	-40.9	-42.0	21.5	0.00e+00	92	32	0	513802240	56	5761
2026-01-26 00:58:06.42	188.94	33.64	-41.1	-42.2	21.6	0.00e+00	92	32	0	515899392	56	5835
2026-01-26 00:58:07.42	189.10	33.84	-40.7	-41.7	21.8	0.00e+00	9	32	0	517996544	54	6234
2026-01-26 00:58:08.43	189.26	34.04	-40.0	-41.0	22.5	0.00e+00	45	32	0	519045120	54	5708
2026-01-26 00:58:09.44	189.43	34.24	-39.9	-40.9	22.2	0.00e+00	0	32	0	521142272	54	5644
2026-01-26 00:58:10.45	189.60	34.45	-39.9	-40.9	22.6	0.00e+00	92	32	0	523239424	54	5667
2026-01-26 00:58:11.46	189.77	34.65	-40.1	-41.2	22.3	0.00e+00	0	32	0	525336576	52	6582
2026-01-26 00:58:12.47	189.94	34.86	-40.0	-41.0	22.2	0.00e+00	92	32	0	527433728	52	6454
2026-01-26 00:58:13.48	190.12	35.06	-39.8	-40.8	22.4	0.00e+00	92	32	0	528482304	52	6266
2026-01-26 00:58:14.49	190.30	35.27	-40.2	-41.3	22.2	0.00e+00	0	32	0	530579456	52	6649
2026-01-26 00:58:15.50	190.48	35.48	-40.4	-41.5	21.9	0.00e+00	90	32	0	532676608	52	6848
2026-01-26 00:58:16.51	190.66	35.69	-40.8	-41.9	21.5	0.00e+00	0	32	0	534773760	54	6371
2026-01-26 00:58:17.52	190.84	35.90	-41.0	-42.2	21.6	0.00e+00	92	32	0	536870912	54	6540
2026-01-26 00:58:18.53	191.03	36.11	-41.6	-42.8	20.8	0.00e+00	0	32	0	538968064	54	7088
2026-01-26 00:58:19.54	191.22	36.32	-41.6	-42.7	21.3	0.00e+00	92	32	0	540016640	56	6228
2026-01-26 00:58:20.55	191.41	36.53	-41.2	-42.3	21.5	0.00e+00	90	32	0	542113792	56	5926
2026-01-26 00:58:21.56	191.60	36.75	-40.9	-42.0	21.7	0.00e+00	33	32	0	544210944	54	6416
2026-01-26 00:58:22.57	191.80	36.96	-40.9	-42.1	21.4	0.00e+00	90	32	0	546308096	54	6478
2026-01-26 00:58:23.57	192.00	37.18	-40.7	-41.8	21.6	0.00e+00	0	32	0	547356672	54	6288
2026-01-26 00:58:24.58	192.20	37.40	-40.1	-41.1	22.3	0.00e+00	92	32	0	549453824	54	5779
2026-01-26 00:58:25.59	192.40	37.61	-41.0	-42.2	21.5	0.00e+00	0	32	0	551550976	54	6569
2026-01-26 00:58:26.60	192.61	37.83	-41.0	-42.1	21.4	0.00e+00	92	32	0	553648128	54	6501
2026-01-26 00:58:27.61	192.82	38.05	-41.7	-42.9	21.1	0.00e+00	0	32	0	555745280	56	6387
2026-01-26 00:58:28.62	193.03	38.28	-41.6	-42.7	21.4	0.00e+00	92	32	0	556793856	56	6229
2026-01-26 00:58:29.63	193.25	38.50	-41.5	-42.7	21.1	0.00e+00	90	32	0	558891008	56	6239
2026-01-26 00:58:30.64	193.47	38.72	-40.8	-41.9	22.0	0.00e+00	0	32	0	560988160	56	5647
2026-01-26 00:58:31.64	193.68	38.94	-40.8	-41.9	21.9	0.00e+00	92	32	0	563085312	54	6355
2026-01-26 00:58:32.65	193.91	39.17	-40.4	-41.4	22.1	0.00e+00	0	32	0	565182464	54	5999
2026-01-26 00:58:33.66	194.14	39.40	-40.8	-41.9	21.6	0.00e+00	91	32	0	567279616	54	6339
2026-01-26 00:58:34.67	194.37	39.62	-41.1	-42.2	21.1	0.00e+00	0	32	0	568328192	54	6581
2026-01-26 00:58:35.68	194.60	39.85	-41.2	-42.3	21.2	0.00e+00	92	32	0	570425344	54	6684
2026-01-26 00:58:36.69	194.84	40.08	-41.2	-42.4	21.2	0.00e+00	92	32	0	572522496	54	6707
2026-01-26 00:58:37.69	195.07	40.31	-41.2	-42.4	21.2	0.00e+00	0	32	0	574619648	54	6719
2026-01-26 00:58:38.70	195.32	40.54	-41.3	-42.5	21.4	0.00e+00	90	32	0	576716800	54	6843
2026-01-26 00:58:39.71	195.56	40.78	-40.7	-41.8	21.8	0.00e+00	0	32	0	577765376	54	6278
2026-01-26 00:58:40.72	195.81	41.01	-40.8	-42.0	21.8	0.00e+00	89	32	0	579862528	54	6413
2026-01-26 00:58:41.73	196.07	41.24	-39.8	-40.8	22.7	0.00e+00	0	32	0	581959680	54	5627
2026-01-26 00:58:42.74	196.33	41.48	-39.4	-40.4	22.9	0.00e+00	92	32	0	584056832	52	5978
2026-01-26 00:58:43.75	196.59	41.71	-39.3	-40.2	23.0	0.00e+00	92	32	0	586153984	52	5867
2026-01-26 00:58:44.76	196.85	41.95	-39.5	-40.4	22.6	0.00e+00	0	32	0	587202560	52	6004
2026-01-26 00:58:45.77	197.12	42.19	-39.4	-40.4	22.7	0.00e+00	92	32	0	589299712	52	5986
2026-01-26 00:58:46.78	197.39	42.43	-40.2	-41.3	21.8	0.00e+00	0	32	0	591396864	52	6681
2026-01-26 00:58:47.79	197.67	42.67	-40.6	-41.8	21.5	0.00e+00	92	32	0	593494016	52	7014
2026-01-26 00:58:48.80	197.95	42.91	-40.4	-41.5	21.7	0.00e+00	0	32	0	595591168	54	6084
2026-01-26 00:58:49.81	198.24	43.15	-40.4	-41.5	21.7	0.00e+00	92	32	0	596639744	54	6103
2026-01-26 00:58:50.82	198.53	43.39	-39.9	-40.9	22.4	0.00e+00	83	32	0	598736896	54	5652
2026-01-26 00:58:51.83	198.82	43.63	-40.0	-41.0	22.5	0.00e+00	0	32	0	600834048	54	5756
2026-01-26 00:58:52.84	199.12	43.88	-39.3	-40.3	22.8	0.00e+00	92	32	0	602931200	52	5916
2026-01-26 00:58:53.85	199.42	44.12	-39.8	-40.7	22.5	0.00e+00	0	32	0	605028352	52	6241
2026-01-26 00:58:54.86	199.73	44.37	-39.6	-40.5	22.7	0.00e+00	92	32	0	606076928	52	6093
2026-01-26 00:58:55.87	200.04	44.61	-40.4	-41.5	22.2	0.00e+00	0	32	0	608174080	52	6781
2026-01-26 00:58:56.88	200.36	44.86	-40.6	-41.7	21.8	0.00e+00	91	32	0	610271232	52	6975
2026-01-26 00:58:57.89	200.68	45.10	-40.3	-41.4	21.9	0.00e+00	90	32	0	612368384	52	6740
2026-01-26 00:58:58.90	201.01	45.35	-39.9	-41.0	22.3	0.00e+00	33	32	0	614465536	52	6415
2026-01-26 00:58:59.91	201.34	45.60	-40.1	-41.2	22.1	0.00e+00	92	32	0	615514112	52	6544
2026-01-26 00:59:00.92	201.67	45.85	-39.7	-40.8	22.4	0.00e+00	0	32	0	617611264	52	6252
2026-01-26 00:59:01.93	202.02	46.09	-39.3	-40.3	22.6	0.00e+00	92	32	0	619708416	52	5923
2026-01-26 00:59:02.94	202.36	46.34	-39.4	-40.4	22.7	0.00e+00	0	32	0	621805568	52	5996
2026-01-26 00:59:03.95	202.72	46.59	-39.3	-40.2	22.9	0.00e+00	92	32	0	623902720	52	5896
2026-01-26 00:59:04.96	203.08	46.84	-40.5	-41.6	21.9	0.00e+00	23	32	0	624951296	52	6903
2026-01-26 00:59:05.97	203.44	47.09	-40.1	-41.1	21.9	0.00e+00	92	32	0	627048448	52	6513
2026-01-26 00:59:06.98	203.81	47.34	-40.6	-41.7	22.0	0.00e+00	92	32	0	629145600	52	6997
2026-01-26 00:59:07.98	204.18	47.59	-41.0	-42.1	21.8	0.00e+00	0	32	0	631242752	54	6527
2026-01-26 00:59:09.00	204.57	47.84	-41.8	-43.0	20.7	0.00e+00	69	32	0	633339904	56	6456
2026-01-26 00:59:10.00	204.95	48.09	-41.4	-42.6	21.8	0.00e+00	0	32	0	635437056	54	6873
2026-01-26 00:59:11.01	205.35	48.34	-39.7	-40.7	22.9	0.00e+00	88	32	0	636485632	52	6211
2026-01-26 00:59:12.02	205.75	48.59	-39.2	-40.1	23.3	0.00e+00	0	32	0	638582784	52	5792
2026-01-26 00:59:13.03	206.15	48.84	-38.9	-39.8	23.3	0.00e+00	81	32	0	640679936	50	6289
2026-01-26 00:59:14.04	206.57	49.09	-39.0	-39.9	23.0	0.00e+00	92	32	0	642777088	50	6375
2026-01-26 00:59:15.05	206.99	49.34	-40.1	-41.0	22.7	0.00e+00	0	32	0	644874240	52	6427
2026-01-26 00:59:16.06	207.41	49.59	-41.5	-42.7	20.8	0.00e+00	52	32	0	645922816	54	6963
2026-01-26 00:59:17.07	207.85	49.84	-41.9	-43.2	20.3	0.00e+00	0	32	0	648019968	56	6573
2026-01-26 00:59:18.08	208.29	50.09	-43.0	-44.5	19.5	0.00e+00	90	32	0	650117120	58	6821
2026-01-26 00:59:19.09	208.74	50.34	-41.2	-42.3	21.5	0.00e+00	0	32	0	652214272	56	5952
2026-01-26 00:59:20.10	209.19	50.59	-40.9	-42.0	22.0	0.00e+00	90	32	0	654311424	54	6399
2026-01-26 00:59:21.11	209.66	50.83	-39.3	-40.2	23.3	0.00e+00	92	32	0	655360000	52	5849
2026-01-26 00:59:22.12	210.13	51.08	-40.1	-41.1	22.8	0.00e+00	0	32	0	657457152	52	6465
2026-01-26 00:59:23.13	210.61	51.33	-40.2	-41.2	22.1	0.00e+00	59	32	0	659554304	52	6572
2026-01-26 00:59:24.14	211.09	51.57	-40.6	-41.6	22.8	0.00e+00	0	32	0	661651456	52	6904
2026-01-26 00:59:25.15	211.59	51.82	-39.9	-40.9	22.7	0.00e+00	90	32	0	663748608	52	6330
2026-01-26 00:59:26.16	212.09	52.06	-39.4	-40.3	23.3	0.00e+00	0	32	0	664797184	52	5943
2026-01-26 00:59:27.17	212.60	52.30	-40.2	-41.1	22.9	0.00e+00	92	32	0	666894336	52	6518
2026-01-26 00:59:28.18	213.12	52.55	-40.5	-41.6	22.4	0.00e+00	92	32	0	668991488	54	6115
2026-01-26 00:59:29.19	213.65	52.79	-40.5	-41.6	22.2	0.00e+00	0	32	0	671088640	54	6112
2026-01-26 00:59:30.20	214.18	53.02	-39.9	-40.9	22.5	0.00e+00	92	32	0	673185792	54	5694
2026-01-26 00:59:31.20	214.72	53.26	-39.8	-40.7	23.1	0.00e+00	0	32	0	674234368	52	6200
2026-01-26 00:59:32.21	215.28	53.50	-39.3	-40.1	23.5	0.00e+00	92	32	0	676331520	52	5826
2026-01-26 00:59:33.22	215.84	53.73	-39.5	-40.4	23.3	0.00e+00	0	32	0	678428672	52	6011
2026-01-26 00:59:34.24	216.42	53.96	-40.0	-41.0	22.7	0.00e+00	90	32	0	680525824	52	6429
2026-01-26 00:59:35.24	216.99	54.19	-40.5	-41.5	22.4	0.00e+00	91	32	0	682622976	52	6844
2026-01-26 00:59:36.25	217.58	54.42	-40.2	-41.2	22.8	0.00e+00	0	32	0	683671552	54	5854
2026-01-26 00:59:37.26	218.18	54.65	-39.3	-40.2	23.2	0.00e+00	90	32	0	685768704	52	5888
2026-01-26 00:59:38.27	218.79	54.87	-38.7	-39.6	23.6	0.00e+00	0	32	0	687865856	50	6110
2026-01-26 00:59:39.28	219.41	55.10	-39.2	-40.2	23.0	0.00e+00	64	32	0	689963008	50	6546
2026-01-26 00:59:40.29	220.04	55.32	-39.8	-40.7	22.9	0.00e+00	0	32	0	692060160	50	6976
2026-01-26 00:59:41.30	220.67	55.53	-39.6	-40.5	23.2	0.00e+00	90	32	0	693108736	52	6087
2026-01-26 00:59:42.31	221.32	55.75	-40.3	-41.3	23.0	0.00e+00	23	32	0	695205888	52	6632
2026-01-26 00:59:43.31	221.97	55.96	-39.6	-40.6	23.2	0.00e+00	85	32	0	697303040	52	6131
2026-01-26 00:59:44.32	222.64	56.17	-39.8	-40.8	22.9	0.00e+00	92	32	0	699400192	52	6269
2026-01-26 00:59:45.33	223.32	56.37	-39.4	-40.3	23.4	0.00e+00	0	32	0	701497344	52	5931
2026-01-26 00:59:46.34	224.00	56.58	-38.9	-39.8	23.5	0.00e+00	92	32	0	703594496	52	5611
2026-01-26 00:59:47.35	224.70	56.78	-40.0	-41.1	22.5	0.00e+00	0	32	0	704643072	52	6496
2026-01-26 00:59:48.36	225.41	56.97	-40.1	-41.2	21.8	0.00e+00	92	32	0	706740224	52	6579
2026-01-26 00:59:49.37	226.12	57.17	-39.8	-40.8	22.1	0.00e+00	0	32	0	708837376	52	6314
2026-01-26 00:59:50.38	226.85	57.36	-38.3	-39.2	23.5	0.00e+00	92	32	0	710934528	50	5895
2026-01-26 00:59:51.39	227.59	57.54	-38.2	-39.1	23.4	0.00e+00	92	32	0	713031680	50	5809
2026-01-26 00:59:52.40	228.34	57.72	-37.5	-38.4	23.8	0.00e+00	0	32	0	714080256	48	5985
2026-01-26 00:59:53.41	229.09	57.90	-37.5	-38.3	24.2	0.00e+00	56	32	0	716177408	48	5924
2026-01-26 00:59:54.42	229.86	58.08	-37.2	-38.0	24.5	0.00e+00	0	32	0	718274560	48	5699
2026-01-26 00:59:55.42	230.63	58.24	-37.4	-38.3	24.2	0.00e+00	92	32	0	720371712	48	5900
2026-01-26 00:59:56.43	231.42	58.41	-37.8	-38.6	23.8	0.00e+00	0	32	0	722468864	48	6158
2026-01-26 00:59:57.44	232.21	58.57	-38.2	-39.1	23.6	0.00e+00	92	32	0	723517440	48	6486
2026-01-26 00:59:58.45	233.02	58.72	-38.8	-39.7	22.9	0.00e+00	92	32	0	725614592	50	6237
2026-01-26 00:59:59.46	233.83	58.87	-39.5	-40.5	22.6	0.00e+00	0	32	0	727711744	50	6786
2026-01-26 01:00:00.47	234.66	59.02	-39.1	-40.1	22.9	0.00e+00	92	32	0	729808896	50	6483
2026-01-26 01:00:01.48	235.49	59.16	-38.4	-39.3	23.5	0.00e+00	0	32	0	731906048	50	5922
2026-01-26 01:00:02.49	236.33	59.30	-37.6	-38.4	24.2	0.00e+00	92	32	0	732954624	48	6017
2026-01-26 01:00:03.50	237.18	59.43	-36.9	-37.7	24.7	0.00e+00	0	32	0	735051776	46	6214
2026-01-26 01:00:04.52	238.05	59.55	-37.1	-38.0	24.4	0.00e+00	92	32	0	737148928	46	6396
2026-01-26 01:00:05.53	238.92	59.67	-37.7	-38.6	24.1	0.00e+00	44	32	0	739246080	46	6876
2026-01-26 01:00:06.53	239.78	59.78	-38.1	-39.0	23.8	0.00e+00	0	32	0	741343232	48	6403
2026-01-26 01:00:07.54	240.66	59.89	-38.5	-39.4	23.3	0.00e+00	92	32	0	742391808	48	6750
2026-01-26 01:00:08.55	241.55	59.99	-39.5	-40.5	22.5	0.00e+00	0	32	0	744488960	50	6785
2026-01-26 01:00:09.56	242.45	60.09	-40.2	-41.3	21.8	0.00e+00	92	32	0	746586112	52	6661
2026-01-26 01:00:10.57	243.35	60.18	-40.1	-41.2	22.2	0.00e+00	0	32	0	748683264	52	6560
2026-01-26 01:00:11.58	244.26	60.26	-39.6	-40.7	22.7	0.00e+00	92	32	0	750780416	52	6174
2026-01-26 01:00:12.59	245.17	60.34	-39.5	-40.5	22.7	0.00e+00	16	32	0	751828992	52	6052
2026-01-26 01:00:13.60	246.09	60.41	-39.9	-40.8	22.8	0.00e+00	0	32	0	753926144	52	6315
2026-01-26 01:00:14.61	247.01	60.47	-40.5	-41.6	22.0	0.00e+00	92	32	0	756023296	52	6878
2026-01-26 01:00:15.62	247.94	60.53	-41.1	-42.2	21.7	0.00e+00	0	32	0	758120448	54	6590
2026-01-26 01:00:16.63	248.87	60.58	-40.6	-41.7	21.9	0.00e+00	63	32	0	760217600	54	6219
2026-01-26 01:00:17.63	249.80	60.63	-39.8	-40.9	22.8	0.00e+00	0	32	0	761266176	54	5654
2026-01-26 01:00:18.64	250.74	60.66	-39.8	-40.8	22.8	0.00e+00	92	32	0	763363328	52	6274
2026-01-26 01:00:19.65	251.68	60.70	-40.8	-41.8	22.4	0.00e+00	44	32	0	765460480	54	6306
2026-01-26 01:00:20.66	252.62	60.72	-41.9	-43.2	21.2	0.00e+00	91	32	0	767557632	54	7384
2026-01-26 01:00:21.67	253.57	60.74	-41.3	-42.4	22.0	0.00e+00	92	32	0	769654784	56	5979
2026-01-26 01:00:22.68	254.51	60.75	-39.9	-40.8	22.7	0.00e+00	0	32	0	770703360	54	5613
2026-01-26 01:00:23.69	255.46	60.75	-40.2	-41.2	22.9	0.00e+00	38	32	0	772800512	52	6569
2026-01-26 01:00:24.70	256.41	60.75	-40.2	-41.2	23.1	0.00e+00	0	32	0	774897664	52	6550
2026-01-26 01:00:25.71	257.35	60.74	-38.8	-39.6	24.4	0.00e+00	92	32	0	776994816	52	5464
2026-01-26 01:00:26.71	258.29	60.72	-38.4	-39.2	24.0	0.00e+00	9	32	0	779091968	50	5858
2026-01-26 01:00:27.73	259.24	60.70	-40.1	-41.0	23.2	0.00e+00	92	32	0	780140544	52	6445
2026-01-26 01:00:28.74	260.18	60.67	-39.8	-40.8	23.2	0.00e+00	92	32	0	782237696	52	6315
2026-01-26 01:00:29.75	261.12	60.63	-39.5	-40.4	23.9	0.00e+00	0	32	0	784334848	52	5983
2026-01-26 01:00:30.76	262.06	60.59	-39.1	-40.0	24.1	0.00e+00	45	32	0	786432000	52	5731
2026-01-26 01:00:31.76	262.98	60.54	-39.3	-40.2	23.4	0.00e+00	0	32	0	788529152	52	5829
2026-01-26 01:00:32.78	263.92	60.48	-39.2	-40.1	23.9	0.00e+00	92	32	0	789577728	52	5799
2026-01-26 01:00:33.78	264.83	60.42	-39.5	-40.3	23.8	0.00e+00	0	32	0	791674880	52	5940
2026-01-26 01:00:34.79	265.75	60.35	-39.7	-40.6	23.7	0.00e+00	91	32	0	793772032	50	6904
2026-01-26 01:00:35.80	266.67	60.28	-39.9	-40.8	23.6	0.00e+00	91	32	0	795869184	52	6248
2026-01-26 01:00:36.81	267.57	60.19	-40.7	-41.8	22.1	0.00e+00	0	32	0	797966336	54	6246
2026-01-26 01:00:37.82	268.48	60.11	-41.7	-42.9	21.6	0.00e+00	91	32	0	800063488	56	6330
2026-01-26 01:00:38.83	269.37	60.01	-41.8	-43.0	21.9	0.00e+00	0	32	0	801112064	56	6429
2026-01-26 01:00:39.84	270.26	59.91	-41.7	-42.9	21.8	0.00e+00	90	32	0	803209216	56	6327
2026-01-26 01:00:40.85	271.14	59.80	-41.5	-42.7	21.8	0.00e+00	0	32	0	805306368	56	6236
2026-01-26 01:00:41.86	272.02	59.69	-41.3	-42.4	22.1	0.00e+00	92	32	0	807403520	56	6000
2026-01-26 01:00:42.87	272.89	59.57	-42.6	-43.8	21.1	0.00e+00	38	32	0	809500672	56	7058
2026-01-26 01:00:43.88	273.75	59.45	-42.4	-43.7	20.7	0.00e+00	0	32	0	810549248	58	6244
2026-01-26 01:00:44.89	274.60	59.32	-42.5	-43.9	20.3	0.00e+00	90	32	0	812646400	58	6354
2026-01-26 01:00:45.90	275.44	59.19	-42.0	-43.4	20.5	0.00e+00	0	32	0	814743552	58	5980
2026-01-26 01:00:46.91	276.27	59.05	-43.7	-45.5	19.1	0.00e+00	78	32	0	816840704	60	6776
2026-01-26 01:00:47.92	277.10	58.90	-44.9	-46.7	18.9	0.00e+00	0	32	0	818937856	60	7839
2026-01-26 01:00:48.93	277.91	58.75	-43.3	-44.8	20.3	0.00e+00	92	32	0	819986432	60	6295
2026-01-26 01:00:49.94	278.72	58.60	-41.6	-42.8	21.2	0.00e+00	92	32	0	822083584	58	5625
2026-01-26 01:00:50.95	279.52	58.44	-41.7	-42.9	21.7	0.00e+00	0	32	0	824180736	56	6341
2026-01-26 01:00:51.96	280.30	58.28	-41.8	-43.0	21.1	0.00e+00	92	32	0	826277888	56	6446
2026-01-26 01:00:52.97	281.08	58.11	-41.8	-42.9	21.6	0.00e+00	0	32	0	828375040	56	6390
2026-01-26 01:00:53.98	281.85	57.94	-41.1	-42.1	22.7	0.00e+00	90	32	0	829423616	56	5817
2026-01-26 01:00:54.99	282.61	57.76	-39.4	-40.3	23.7	0.00e+00	0	32	0	831520768	54	5255
2026-01-26 01:00:56.00	283.35	57.58	-38.3	-39.1	24.1	0.00e+00	92	32	0	833617920	50	5807
2026-01-26 01:00:57.01	284.09	57.39	-38.4	-39.2	24.2	0.00e+00	0	32	0	835715072	50	5878
2026-01-26 01:00:58.01	284.81	57.21	-38.3	-39.1	24.5	0.00e+00	69	32	0	837812224	50	5814
2026-01-26 01:00:59.02	285.53	57.02	-37.5	-38.3	24.7	0.00e+00	91	32	0	838860800	48	5936
2026-01-26 01:01:00.03	286.24	56.82	-37.7	-38.5	24.7	0.00e+00	0	32	0	840957952	48	6050
2026-01-26 01:01:01.04	286.94	56.62	-37.9	-38.7	24.8	0.00e+00	92	32	0	843055104	48	6187
2026-01-26 01:01:02.05	287.62	56.42	-37.3	-38.0	25.2	0.00e+00	0	32	0	845152256	48	5736
2026-01-26 01:01:03.06	288.30	56.21	-37.0	-37.7	25.2	0.00e+00	86	32	0	847249408	46	6238
2026-01-26 01:01:04.07	288.97	56.01	-37.2	-38.0	25.4	0.00e+00	0	32	0	848297984	48	5716
2026-01-26 01:01:05.08	289.63	55.79	-36.3	-37.0	25.7	0.00e+00	0	32	0	850395136	46	5751
2026-01-26 01:01:06.09	290.28	55.58	-36.4	-37.1	25.5	0.00e+00	92	32	0	852492288	44	6539
2026-01-26 01:01:07.10	290.92	55.36	-37.5	-38.3	24.6	0.00e+00	33	32	0	854589440	46	6662
2026-01-26 01:01:08.11	291.54	55.15	-38.1	-39.0	24.1	0.00e+00	44	32	0	856686592	48	6425
2026-01-26 01:01:09.12	292.16	54.92	-36.8	-37.5	25.2	0.00e+00	0	32	0	857735168	48	5414
2026-01-26 01:01:10.13	292.77	54.70	-36.7	-37.4	25.3	0.00e+00	88	32	0	859832320	46	6022
2026-01-26 01:01:11.14	293.37	54.48	-37.0	-37.8	24.9	0.00e+00	0	32	0	861929472	46	6273
2026-01-26 01:01:12.15	293.96	54.25	-38.3	-39.1	24.1	0.00e+00	86	32	0	864026624	50	5812
2026-01-26 01:01:13.15	294.54	54.02	-39.1	-40.0	24.2	0.00e+00	44	32	0	866123776	50	6408
2026-01-26 01:01:14.17	295.12	53.79	-38.4	-39.2	24.5	0.00e+00	0	32	0	868220928	50	5865
2026-01-26 01:01:15.17	295.67	53.56	-39.4	-40.2	23.9	0.00e+00	50	32	0	869269504	50	6604
2026-01-26 01:01:16.18	296.23	53.32	-39.6	-40.5	23.6	0.00e+00	0	32	0	871366656	52	6098
2026-01-26 01:01:17.19	296.77	53.08	-38.6	-39.5	24.5	0.00e+00	92	32	0	873463808	50	6036
2026-01-26 01:01:18.20	297.31	52.85	-37.7	-38.4	25.0	0.00e+00	0	32	0	875560960	48	6028
2026-01-26 01:01:19.21	297.84	52.61	-37.9	-38.7	24.8	0.00e+00	92	32	0	877658112	48	6191
2026-01-26 01:01:20.22	298.36	52.37	-38.7	-39.5	24.4	0.00e+00	44	32	0	878706688	48	6805
2026-01-26 01:01:21.23	298.87	52.13	-37.2	-37.9	25.2	0.00e+00	0	32	0	880803840	48	5660
2026-01-26 01:01:22.24	299.37	51.88	-37.0	-37.8	25.1	0.00e+00	49	32	0	882900992	48	5581
2026-01-26 01:01:23.25	299.87	51.64	-39.2	-40.1	24.0	0.00e+00	0	32	0	884998144	50	6483
2026-01-26 01:01:24.26	300.36	51.39	-40.2	-41.2	22.3	0.00e+00	93	32	0	887095296	54	5861
2026-01-26 01:01:25.27	300.83	51.15	-42.9	-44.1	21.7	0.00e+00	0	32	0	888143872	56	7270
2026-01-26 01:01:26.28	301.31	50.90	-41.7	-43.0	20.8	0.00e+00	55	32	0	890241024	58	5716
2026-01-26 01:01:27.29	301.77	50.66	-42.7	-44.0	21.7	0.00e+00	19	32	0	892338176	56	7197
2026-01-26 01:01:28.30	302.23	50.41	-40.8	-41.8	22.9	0.00e+00	0	32	0	894435328	56	5590
2026-01-26 01:01:29.31	302.68	50.16	-40.9	-41.9	22.8	0.00e+00	91	32	0	896532480	54	6332
2026-01-26 01:01:30.32	303.12	49.91	-41.5	-42.6	21.9	0.00e+00	0	32	0	897581056	54	6893
2026-01-26 01:01:31.33	303.55	49.67	-42.2	-43.4	21.1	0.00e+00	39	32	0	899678208	56	6700
2026-01-26 01:01:32.33	303.98	49.42	-43.6	-44.9	20.5	0.00e+00	0	32	0	901775360	58	7159
2026-01-26 01:01:33.35	304.40	49.17	-45.0	-46.6	18.8	0.00e+00	73	32	0	903872512	60	7724
2026-01-26 01:01:34.35	304.81	48.92	-45.1	-46.8	18.9	0.00e+00	0	32	0	905969664	60	7916
2026-01-26 01:01:35.36	305.22	48.67	-44.9	-46.7	18.9	0.00e+00	0	32	0	907018240	60	7797
2026-01-26 01:01:36.37	305.62	48.42	-43.7	-45.2	19.7	0.00e+00	90	32	0	909115392	60	6540
2026-01-26 01:01:37.38	306.01	48.17	-41.5	-42.7	21.7	0.00e+00	0	32	0	911212544	58	5503
2026-01-26 01:01:38.39	306.40	47.92	-42.4	-43.6	20.9	0.00e+00	57	32	0	913309696	56	6884
2026-01-26 01:01:39.40	306.79	47.67	-43.5	-44.9	19.9	0.00e+00	32	32	0	915406848	58	7149
2026-01-26 01:01:40.41	307.16	47.43	-43.6	-44.9	20.7	0.00e+00	92	32	0	916455424	60	6351
2026-01-26 01:01:41.42	307.53	47.18	-41.2	-42.2	22.4	0.00e+00	0	32	0	918552576	56	5833
2026-01-26 01:01:42.43	307.90	46.93	-42.0	-43.0	22.0	0.00e+00	47	32	0	920649728	56	6418
2026-01-26 01:01:43.44	308.26	46.68	-43.5	-44.8	20.6	0.00e+00	90	32	0	922746880	58	7038
2026-01-26 01:01:44.45	308.61	46.43	-44.0	-45.3	20.1	0.00e+00	0	32	0	924844032	60	6660
2026-01-26 01:01:45.46	308.96	46.18	-43.0	-44.1	21.3	0.00e+00	41	32	0	925892608	60	5801
2026-01-26 01:01:46.47	309.30	45.94	-41.2	-42.2	22.8	0.00e+00	32	32	0	927989760	56	5843
2026-01-26 01:01:47.48	309.64	45.69	-39.9	-40.7	23.6	0.00e+00	92	32	0	930086912	52	6222
2026-01-26 01:01:48.49	309.97	45.44	-39.5	-40.4	23.9	0.00e+00	0	32	0	932184064	52	5965
2026-01-26 01:01:49.50	310.30	45.20	-39.7	-40.6	23.8	0.00e+00	60	32	0	934281216	52	6131
2026-01-26 01:01:50.51	310.62	44.95	-39.7	-40.6	23.7	0.00e+00	90	32	0	936378368	52	6112
2026-01-26 01:01:51.52	310.94	44.71	-40.3	-41.2	23.0	0.00e+00	0	32	0	937426944	52	6615
2026-01-26 01:01:52.53	311.25	44.46	-41.6	-42.7	21.5	0.00e+00	89	32	0	939524096	54	6975
2026-01-26 01:01:53.54	311.56	44.22	-43.7	-45.2	20.1	0.00e+00	0	32	0	941621248	60	6568
2026-01-26 01:01:54.54	311.86	43.98	-43.5	-44.8	20.9	0.00e+00	92	32	0	943718400	60	6259
2026-01-26 01:01:55.56	312.16	43.73	-41.2	-42.2	23.0	0.00e+00	0	32	0	945815552	56	5830
2026-01-26 01:01:56.57	312.45	43.49	-40.4	-41.2	23.6	0.00e+00	91	32	0	946864128	54	5881
2026-01-26 01:01:57.58	312.74	43.25	-40.4	-41.3	23.6	0.00e+00	38	32	0	948961280	52	6655
2026-01-26 01:01:58.59	313.03	43.01	-40.5	-41.5	22.8	0.00e+00	0	32	0	951058432	52	6822
2026-01-26 01:01:59.60	313.31	42.77	-41.6	-42.6	22.4	0.00e+00	92	32	0	953155584	56	6151
2026-01-26 01:02:00.61	313.59	42.53	-42.2	-43.2	22.4	0.00e+00	0	32	0	955252736	56	6582
2026-01-26 01:02:01.62	313.86	42.29	-41.2	-42.1	22.8	0.00e+00	90	32	0	956301312	56	5789
2026-01-26 01:02:02.63	314.13	42.06	-40.5	-41.3	23.6	0.00e+00	0	32	0	958398464	54	5957
2026-01-26 01:02:03.64	314.40	41.82	-39.4	-40.2	23.4	0.00e+00	92	32	0	960495616	52	5872
2026-01-26 01:02:04.65	314.66	41.59	-39.7	-40.6	23.6	0.00e+00	55	32	0	962592768	52	6124
2026-01-26 01:02:05.65	314.91	41.35	-40.1	-41.0	23.1	0.00e+00	0	32	0	964689920	52	6413
2026-01-26 01:02:06.66	315.17	41.12	-41.2	-42.2	22.5	0.00e+00	92	32	0	965738496	54	6554
2026-01-26 01:02:07.67	315.42	40.89	-42.0	-43.1	21.2	0.00e+00	0	32	0	967835648	54	7325
2026-01-26 01:02:08.68	315.67	40.66	-42.8	-44.1	20.6	0.00e+00	90	32	0	969932800	58	6469
2026-01-26 01:02:09.69	315.91	40.42	-42.5	-43.8	20.9	0.00e+00	0	32	0	972029952	58	6272
2026-01-26 01:02:10.70	316.15	40.19	-42.0	-43.0	22.0	0.00e+00	92	32	0	974127104	58	5743
2026-01-26 01:02:11.71	316.39	39.97	-40.4	-41.3	23.4	0.00e+00	30	32	0	975175680	54	5908
2026-01-26 01:02:12.72	316.62	39.74	-40.3	-41.1	23.8	0.00e+00	0	32	0	977272832	52	6539
2026-01-26 01:02:13.73	316.85	39.51	-40.5	-41.4	23.5	0.00e+00	88	32	0	979369984	52	6700
2026-01-26 01:02:14.74	317.08	39.29	-41.1	-42.1	22.4	0.00e+00	0	32	0	981467136	54	6508
2026-01-26 01:02:15.75	317.30	39.06	-42.6	-43.8	21.1	0.00e+00	36	32	0	983564288	58	6249
2026-01-26 01:02:16.76	317.53	38.84	-43.2	-44.5	20.5	0.00e+00	0	32	0	984612864	60	6040
2026-01-26 01:02:17.77	317.74	38.61	-42.1	-43.4	20.9	0.00e+00	92	32	0	986710016	58	5975
2026-01-26 01:02:18.78	317.96	38.39	-42.3	-43.5	20.9	0.00e+00	0	32	0	988807168	58	6061
2026-01-26 01:02:19.79	318.17	38.17	-41.0	-42.0	22.7	0.00e+00	0	32	0	990904320	56	5717
2026-01-26 01:02:20.80	318.38	37.95	-40.6	-41.6	23.1	0.00e+00	90	32	0	993001472	54	6109
2026-01-26 01:02:21.80	318.59	37.73	-39.5	-40.3	23.0	0.00e+00	0	32	0	994050048	52	5911
2026-01-26 01:02:22.81	318.79	37.52	-40.2	-41.1	23.4	0.00e+00	35	32	0	996147200	52	6492
2026-01-26 01:02:23.82	318.99	37.30	-40.8	-41.7	22.9	0.00e+00	0	32	0	998244352	54	6174
2026-01-26 01:02:24.83	319.19	37.08	-40.4	-41.3	22.5	0.00e+00	92	32	0	1000341504	54	5951
2026-01-26 01:02:25.84	319.39	36.87	-41.8	-42.8	22.2	0.00e+00	0	32	0	1002438656	54	7070
2026-01-26 01:02:26.85	319.59	36.66	-41.4	-42.4	22.3	0.00e+00	27	32	0	1004535808	56	5994
2026-01-26 01:02:27.86	319.78	36.44	-40.9	-41.9	22.2	0.00e+00	36	32	0	1005584384	56	5687
2026-01-26 01:02:28.87	319.97	36.23	-40.7	-41.6	22.4	0.00e+00	0	32	0	1007681536	56	5482
2026-01-26 01:02:29.88	320.15	36.02	-40.6	-41.5	23.0	0.00e+00	52	32	0	1009778688	54	6070
2026-01-26 01:02:30.89	320.34	35.81	-39.6	-40.5	23.3	0.00e+00	0	32	0	1011875840	52	6044
2026-01-26 01:02:31.90	320.52	35.60	-39.2	-40.0	23.6	0.00e+00	90	32	0	1013972992	50	6461
2026-01-26 01:02:32.91	320.70	35.40	-39.7	-40.6	23.4	0.00e+00	0	32	0	1015021568	52	6144
2026-01-26 01:02:33.92	320.88	35.19	-40.5	-41.4	23.1	0.00e+00	91	32	0	1017118720	54	5986
2026-01-26 01:02:34.93	321.05	34.98	-41.6	-42.6	22.3	0.00e+00	92	32	0	1019215872	56	6109
2026-01-26 01:02:35.94	321.23	34.78	-42.9	-44.0	20.9	0.00e+00	0	32	0	1021313024	58	6452
2026-01-26 01:02:36.95	321.40	34.58	-43.5	-44.9	19.9	0.00e+00	35	32	0	1023410176	60	6365
2026-01-26 01:02:37.95	321.57	34.38	-44.0	-45.7	19.1	0.00e+00	0	32	0	1024458752	60	6935
2026-01-26 01:02:38.96	321.74	34.18	-44.2	-45.8	19.1	0.00e+00	72	32	0	1026555904	60	7065
2026-01-26 01:02:39.97	321.90	33.98	-43.6	-45.0	20.2	0.00e+00	0	32	0	1028653056	60	6401
2026-01-26 01:02:40.98	322.06	33.78	-42.6	-43.9	20.7	0.00e+00	81	32	0	1030750208	58	6365
2026-01-26 01:02:41.99	322.23	33.58	-41.6	-42.8	21.2	0.00e+00	42	32	0	1032847360	58	5576
2026-01-26 01:02:43.00	322.39	33.38	-40.1	-41.1	22.7	0.00e+00	0	32	0	1033895936	54	5796
2026-01-26 01:02:44.01	322.54	33.19	-40.3	-41.3	22.7	0.00e+00	92	32	0	1035993088	54	5905
2026-01-26 01:02:45.02	322.70	32.99	-39.9	-40.9	22.7	0.00e+00	0	32	0	1038090240	52	6348
2026-01-26 01:02:46.02	322.85	32.80	-40.2	-41.1	22.9	0.00e+00	92	32	0	1040187392	52	6530
2026-01-26 01:02:47.04	323.01	32.61	-41.1	-42.0	22.7	0.00e+00	0	32	0	1042284544	54	6442
2026-01-26 01:02:48.05	323.16	32.41	-41.3	-42.3	22.2	0.00e+00	92	32	0	1043333120	54	6685
2026-01-26 01:02:49.05	323.30	32.23	-41.3	-42.3	22.1	0.00e+00	0	32	0	1045430272	54	6636
2026-01-26 01:02:50.07	323.45	32.03	-40.8	-41.8	22.3	0.00e+00	0	32	0	1047527424	54	6308
2026-01-26 01:02:51.07	323.60	31.85	-40.9	-42.0	22.0	0.00e+00	63	32	0	1049624576	54	6403
2026-01-26 01:02:52.09	323.74	31.66	-40.8	-41.8	22.3	0.00e+00	0	32	0	1051721728	54	6308
2026-01-26 01:02:53.09	323.88	31.47	-40.4	-41.4	22.1	0.00e+00	92	32	0	1052770304	54	5984
2026-01-26 01:02:54.10	324.02	31.29	-41.3	-42.4	21.5	0.00e+00	0	32	0	1054867456	54	6735
2026-01-26 01:02:55.11	324.16	31.10	-40.8	-41.8	21.8	0.00e+00	92	32	0	1056964608	56	5589
2026-01-26 01:02:56.12	324.30	30.92	-41.7	-42.8	21.6	0.00e+00	0	32	0	1059061760	56	6267
2026-01-26 01:02:57.13	324.44	30.74	-41.9	-43.0	21.4	0.00e+00	0	32	0	1061158912	56	6418
2026-01-26 01:02:58.14	324.57	30.55	-42.0	-43.1	21.2	0.00e+00	92	32	0	1062207488	56	6491
2026-01-26 01:02:59.15	324.71	30.37	-43.2	-44.5	20.5	0.00e+00	0	32	0	1064304640	58	6773
2026-01-26 01:03:00.16	324.84	30.19	-42.8	-44.0	21.0	0.00e+00	41	32	0	1066401792	58	6442
2026-01-26 01:03:01.17	324.97	30.02	-43.0	-44.3	21.2	0.00e+00	0	32	0	1068498944	58	6627
2026-01-26 01:03:02.17	325.10	29.84	-41.7	-42.8	21.8	0.00e+00	38	32	0	1070596096	56	6306
2026-01-26 01:03:03.18	325.22	29.66	-41.6	-42.6	22.2	0.00e+00	0	32	0	1072693248	54	6888
2026-01-26 01:03:04.19	325.35	29.49	-40.2	-41.2	22.9	0.00e+00	0	32	0	1073741824	54	5843
2026-01-26 01:03:05.20	325.47	29.31	-39.8	-40.7	23.5	0.00e+00	45	32	0	1075838976	52	6224
2026-01-26 01:03:06.21	325.60	29.14	-39.2	-40.1	23.3	0.00e+00	0	32	0	1077936128	52	5810
2026-01-26 01:03:07.22	325.72	28.96	-38.9	-39.7	23.9	0.00e+00	42	32	0	1080033280	50	6229
2026-01-26 01:03:08.23	325.84	28.79	-39.5	-40.4	22.9	0.00e+00	0	32	0	1082130432	50	6755
2026-01-26 01:03:09.24	325.96	28.62	-39.3	-40.2	23.3	0.00e+00	70	32	0	1083179008	52	5891
2026-01-26 01:03:10.25	326.08	28.45	-39.5	-40.4	23.4	0.00e+00	0	32	0	1085276160	52	6018
2026-01-26 01:03:11.26	326.20	28.28	-40.2	-41.2	22.5	0.00e+00	49	32	0	1087373312	52	6540
2026-01-26 01:03:12.27	326.32	28.11	-40.5	-41.5	22.1	0.00e+00	39	32	0	1089470464	54	6085
2026-01-26 01:03:13.28	326.43	27.95	-42.0	-43.2	21.0	0.00e+00	0	32	0	1091567616	54	7413
2026-01-26 01:03:14.29	326.54	27.78	-41.9	-43.2	20.6	0.00e+00	14	32	0	1092616192	56	6567
2026-01-26 01:03:15.30	326.66	27.61	-42.4	-43.7	20.8	0.00e+00	0	32	0	1094713344	56	6962
2026-01-26 01:03:16.31	326.77	27.45	-42.3	-43.7	20.4	0.00e+00	39	32	0	1096810496	58	6178
2026-01-26 01:03:17.32	326.88	27.28	-42.1	-43.4	20.8	0.00e+00	0	32	0	1098907648	58	6022
2026-01-26 01:03:18.32	326.99	27.12	-41.7	-42.9	21.0	0.00e+00	58	32	0	1101004800	58	5674
2026-01-26 01:03:19.34	327.10	26.96	-41.3	-42.4	22.0	0.00e+00	19	32	0	1102053376	56	6014
2026-01-26 01:03:20.34	327.20	26.80	-41.5	-42.6	21.9	0.00e+00	0	32	0	1104150528	56	6154
2026-01-26 01:03:21.35	327.31	26.64	-40.5	-41.5	22.3	0.00e+00	91	32	0	1106247680	56	5413
2026-01-26 01:03:22.36	327.42	26.48	-40.8	-41.9	22.5	0.00e+00	0	32	0	1108344832	54	6326
2026-01-26 01:03:23.37	327.52	26.32	-40.9	-42.0	22.2	0.00e+00	92	32	0	1110441984	54	6426
2026-01-26 01:03:24.38	327.62	26.16	-40.9	-41.9	22.3	0.00e+00	0	32	0	1111490560	54	6351
2026-01-26 01:03:25.39	327.73	26.01	-41.5	-42.6	21.7	0.00e+00	92	32	0	1113587712	54	6859
2026-01-26 01:03:26.40	327.83	25.85	-41.4	-42.6	21.6	0.00e+00	33	32	0	1115684864	54	6867
2026-01-26 01:03:27.41	327.93	25.69	-41.1	-42.2	21.8	0.00e+00	0	32	0	1117782016	54	6599
2026-01-26 01:03:28.42	328.03	25.54	-42.4	-43.6	21.2	0.00e+00	92	32	0	1119879168	56	6862
2026-01-26 01:03:29.43	328.13	25.39	-41.3	-42.4	21.7	0.00e+00	0	32	0	1120927744	56	6025
2026-01-26 01:03:30.44	328.23	25.23	-41.4	-42.5	21.7	0.00e+00	92	32	0	1123024896	56	6089
2026-01-26 01:03:31.45	328.32	25.08	-40.2	-41.2	22.2	0.00e+00	0	32	0	1125122048	54	5856
2026-01-26 01:03:32.45	328.42	24.93	-39.9	-40.9	22.5	0.00e+00	92	32	0	1127219200	52	6352
2026-01-26 01:03:33.46	328.51	24.78	-40.2	-41.2	22.5	0.00e+00	32	32	0	1129316352	52	6592
2026-01-26 01:03:34.48	328.61	24.63	-39.2	-40.2	23.2	0.00e+00	71	32	0	1130364928	52	5838
2026-01-26 01:03:35.49	328.70	24.48	-39.3	-40.2	23.2	0.00e+00	78	32	0	1132462080	52	5840
2026-01-26 01:03:36.50	328.79	24.33	-39.5	-40.5	23.1	0.00e+00	0	32	0	1134559232	52	6048
2026-01-26 01:03:37.50	328.88	24.19	-39.1	-40.0	23.3	0.00e+00	39	32	0	1136656384	52	5759
2026-01-26 01:03:38.51	328.98	24.04	-39.7	-40.6	23.6	0.00e+00	0	32	0	1138753536	52	6108
2026-01-26 01:03:39.52	329.07	23.89	-38.9	-39.7	23.8	0.00e+00	91	32	0	1139802112	52	5548
2026-01-26 01:03:40.53	329.16	23.75	-39.2	-40.0	23.7	0.00e+00	0	32	0	1141899264	52	5757
2026-01-26 01:03:41.54	329.24	23.60	-38.6	-39.4	23.9	0.00e+00	0	32	0	1143996416	50	6010
2026-01-26 01:03:42.55	329.33	23.46	-38.5	-39.3	23.9	0.00e+00	91	32	0	1146093568	50	5951
2026-01-26 01:03:43.56	329.42	23.32	-38.4	-39.3	24.0	0.00e+00	0	32	0	1148190720	50	5908
2026-01-26 01:03:44.57	329.51	23.17	-38.7	-39.5	23.7	0.00e+00	73	32	0	1149239296	50	6073
2026-01-26 01:03:45.58	329.59	23.03	-39.4	-40.2	23.6	0.00e+00	0	32	0	1151336448	50	6586
2026-01-26 01:03:46.59	329.68	22.89	-39.7	-40.5	23.7	0.00e+00	92	32	0	1153433600	50	6823
2026-01-26 01:03:47.60	329.76	22.75	-39.2	-40.1	23.4	0.00e+00	0	32	0	1155530752	50	6473
2026-01-26 01:03:48.61	329.84	22.61	-39.5	-40.4	23.5	0.00e+00	57	32	0	1157627904	52	5973
2026-01-26 01:03:49.62	329.93	22.47	-39.3	-40.2	23.2	0.00e+00	39	32	0	1158676480	52	5893
2026-01-26 01:03:50.63	330.01	22.33	-39.7	-40.6	23.0	0.00e+00	0	32	0	1160773632	52	6158
2026-01-26 01:03:51.63	330.09	22.20	-40.1	-41.1	22.6	0.00e+00	81	32	0	1162870784	52	6492
2026-01-26 01:03:52.64	330.17	22.06	-40.7	-41.7	22.5	0.00e+00	0	32	0	1164967936	54	6187
2026-01-26 01:03:53.65	330.25	21.93	-40.5	-41.6	21.8	0.00e+00	92	32	0	1167065088	54	6110
2026-01-26 01:03:54.66	330.33	21.79	-40.9	-42.1	21.9	0.00e+00	0	32	0	1169162240	54	6472
2026-01-26 01:03:55.67	330.41	21.66	-40.9	-42.1	21.8	0.00e+00	70	32	0	1170210816	54	6473
2026-01-26 01:03:56.68	330.49	21.52	-41.0	-42.1	21.6	0.00e+00	0	32	0	1172307968	54	6519
2026-01-26 01:03:57.68	330.56	21.39	-40.8	-41.9	21.8	0.00e+00	0	32	0	1174405120	54	6367
2026-01-26 01:03:58.69	330.64	21.26	-41.0	-42.1	21.7	0.00e+00	92	32	0	1176502272	54	6533
2026-01-26 01:03:59.70	330.71	21.13	-40.1	-41.3	22.2	0.00e+00	0	32	0	1178599424	54	5898
2026-01-26 01:04:00.71	330.79	20.99	-40.4	-41.4	22.4	0.00e+00	88	32	0	1179648000	54	6030
2026-01-26 01:04:01.72	330.87	20.86	-40.0	-41.0	22.6	0.00e+00	0	32	0	1181745152	54	5729
2026-01-26 01:04:02.73	330.94	20.73	-39.4	-40.3	23.1	0.00e+00	89	32	0	1183842304	52	5941
2026-01-26 01:04:03.74	331.01	20.60	-39.0	-39.9	23.4	0.00e+00	0	32	0	1185939456	52	5681
2026-01-26 01:04:04.75	331.09	20.47	-38.7	-39.5	23.6	0.00e+00	0	32	0	1188036608	52	5435
2026-01-26 01:04:05.75	331.16	20.35	-38.2	-39.0	24.0	0.00e+00	42	32	0	1189085184	50	5740
2026-01-26 01:04:06.76	331.23	20.22	-37.9	-38.7	24.2	0.00e+00	0	32	0	1191182336	50	5540
2026-01-26 01:04:07.77	331.30	20.09	-37.3	-38.2	24.6	0.00e+00	92	32	0	1193279488	48	5835
2026-01-26 01:04:08.78	331.37	19.97	-36.8	-37.6	24.8	0.00e+00	0	32	0	1195376640	46	6122
2026-01-26 01:04:09.80	331.44	19.84	-36.9	-37.7	24.9	0.00e+00	92	32	0	1197473792	46	6224
2026-01-26 01:04:10.80	331.51	19.72	-37.0	-37.8	24.9	0.00e+00	0	32	0	1198522368	46	6273
2026-01-26 01:04:11.82	331.58	19.59	-36.5	-37.3	25.1	0.00e+00	0	32	0	1200619520	46	5927
