passes_logs/2026/01/26/R4.6S_Anadyr/R4.6S_Anadyr__20260126_211546_SUOMI_NPP_rec.log

#Pass ID: 20260126_211546_SUOMI NPP
#Satellite: SUOMI NPP
#Configuration: NPP
#almurnet v.1.7.20251203
#Start time: 2026-01-26 21:15:50

#Version: 2.2.20231116
#Station: R4.6S_Anadyr
#Location: 177.4865 lon 64.73178 lat
#TLE: 1 37849U 11061A   26025.95877665  .00000192  00000+0  11229-3 0  9997
#TLE: 2 37849  98.7822 327.9136 0002155  44.9234 315.2116 14.19530109738267

#Time	Az	El	Level	Level2	SNR	BER	BlckErr	Temp	State	Recorded	gain1	gain2
2026-01-26 21:15:50.70	84.83	0.23	-50.3	-63.9	5.5	0.00e+00	0	27	0	0	60	63565
2026-01-26 21:15:51.70	84.77	0.29	-49.6	-64.8	3.6	1.51e+00	0	28	104	0	60	62792
2026-01-26 21:15:52.71	84.70	0.34	-49.3	-64.5	3.6	1.51e+00	0	28	104	0	60	61007
2026-01-26 21:15:53.73	84.63	0.39	-49.4	-64.6	3.6	1.51e+00	0	28	104	0	60	61717
2026-01-26 21:15:54.74	84.57	0.45	-49.3	-64.6	3.6	1.51e+00	0	28	104	0	60	61427
2026-01-26 21:15:55.75	84.50	0.50	-49.2	-64.5	3.6	1.51e+00	0	28	104	0	60	60336
2026-01-26 21:15:56.76	84.43	0.55	-49.2	-64.4	3.6	1.51e+00	0	29	104	0	60	59929
2026-01-26 21:15:57.77	84.37	0.60	-49.2	-64.4	3.6	1.51e+00	0	29	104	0	60	60163
2026-01-26 21:15:58.78	84.30	0.66	-49.0	-64.4	3.6	1.51e+00	0	28	104	0	60	59969
2026-01-26 21:15:59.79	84.23	0.71	-49.2	-64.4	3.6	1.51e+00	0	29	104	0	60	60204
2026-01-26 21:16:00.80	84.16	0.76	-49.2	-64.4	3.6	1.51e+00	0	29	104	0	60	60093
2026-01-26 21:16:01.81	84.10	0.82	-49.2	-64.4	3.6	1.51e+00	0	28	104	0	60	59664
2026-01-26 21:16:02.82	84.03	0.87	-49.2	-64.4	3.6	1.51e+00	0	28	104	0	60	59796
2026-01-26 21:16:03.83	83.96	0.92	-49.1	-64.3	3.6	1.51e+00	0	29	104	0	60	59504
2026-01-26 21:16:04.84	83.89	0.98	-49.0	-64.3	3.6	1.51e+00	0	29	104	0	60	59098
2026-01-26 21:16:05.85	83.82	1.03	-49.1	-64.3	3.6	1.51e+00	0	29	104	0	60	59071
2026-01-26 21:16:06.86	83.75	1.08	-49.0	-64.2	3.5	1.51e+00	0	29	104	0	60	58365
2026-01-26 21:16:07.87	83.68	1.14	-48.8	-64.1	3.6	1.51e+00	0	29	104	0	60	58091
2026-01-26 21:16:08.88	83.61	1.19	-48.8	-64.0	3.6	1.51e+00	0	29	104	0	60	57600
2026-01-26 21:16:09.89	83.54	1.25	-48.6	-63.9	3.6	1.51e+00	0	29	104	0	60	56879
2026-01-26 21:16:10.90	83.47	1.30	-48.6	-63.7	3.6	1.51e+00	0	29	104	0	60	55029
2026-01-26 21:16:11.91	83.40	1.35	-48.2	-63.6	3.6	1.51e+00	0	29	104	0	60	54566
2026-01-26 21:16:12.92	83.33	1.41	-47.9	-63.1	3.6	1.51e+00	0	29	104	0	60	51392
2026-01-26 21:16:13.93	83.26	1.46	-47.5	-62.8	3.6	1.51e+00	0	29	104	0	60	50009
2026-01-26 21:16:14.94	83.18	1.51	-47.4	-62.8	3.6	1.51e+00	0	29	104	0	60	49895
2026-01-26 21:16:15.95	83.11	1.57	-47.4	-62.8	3.6	1.51e+00	0	29	104	0	60	49697
2026-01-26 21:16:16.96	83.04	1.62	-47.5	-62.7	3.6	1.51e+00	0	29	104	0	60	49387
2026-01-26 21:16:17.97	82.97	1.68	-47.4	-62.7	3.6	1.51e+00	0	29	104	0	60	49573
2026-01-26 21:16:18.98	82.89	1.73	-47.4	-62.8	3.6	1.51e+00	0	29	104	0	60	49933
2026-01-26 21:16:19.99	82.82	1.79	-47.5	-62.8	3.6	1.51e+00	0	29	104	0	60	49978
2026-01-26 21:16:21.00	82.75	1.84	-47.4	-62.8	3.6	1.51e+00	0	29	104	0	60	50006
2026-01-26 21:16:22.01	82.67	1.89	-47.4	-62.8	3.6	1.51e+00	0	29	104	0	60	49870
2026-01-26 21:16:23.02	82.60	1.95	-47.4	-62.8	3.5	1.51e+00	0	29	104	0	60	49815
2026-01-26 21:16:24.03	82.53	2.00	-47.4	-62.8	3.6	1.51e+00	0	29	104	0	60	49838
2026-01-26 21:16:25.04	82.45	2.06	-47.4	-62.8	3.6	1.51e+00	0	29	104	0	60	49640
2026-01-26 21:16:26.05	82.38	2.11	-47.5	-62.8	3.6	1.51e+00	0	29	104	0	60	49714
2026-01-26 21:16:27.06	82.30	2.17	-47.4	-62.7	3.6	1.51e+00	0	29	104	0	60	49509
2026-01-26 21:16:28.07	82.23	2.22	-47.4	-62.7	3.6	1.51e+00	0	29	104	0	60	49485
2026-01-26 21:16:29.08	82.15	2.28	-47.4	-62.8	3.6	1.51e+00	0	29	104	0	60	49874
2026-01-26 21:16:30.09	82.08	2.33	-47.4	-62.8	3.6	1.51e+00	0	29	104	0	60	50130
2026-01-26 21:16:31.10	82.00	2.39	-47.4	-62.8	3.6	1.51e+00	0	29	104	0	60	49810
2026-01-26 21:16:32.11	81.92	2.44	-47.4	-62.8	3.6	1.51e+00	0	29	104	0	60	49610
2026-01-26 21:16:33.12	81.85	2.50	-47.4	-62.7	3.6	1.51e+00	0	29	104	0	60	49500
2026-01-26 21:16:34.13	81.77	2.55	-47.4	-62.8	3.6	1.51e+00	0	29	104	0	60	49767
2026-01-26 21:16:35.14	81.69	2.61	-47.4	-62.8	3.6	1.51e+00	0	29	104	0	60	49885
2026-01-26 21:16:36.15	81.61	2.66	-47.4	-62.7	3.6	1.51e+00	0	29	104	0	60	49236
2026-01-26 21:16:37.16	81.54	2.72	-47.4	-62.2	3.6	1.51e+00	0	29	104	0	60	46683
2026-01-26 21:16:38.17	81.46	2.77	-47.4	-62.2	3.6	1.51e+00	0	29	104	0	60	46429
2026-01-26 21:16:39.18	81.38	2.83	-47.4	-62.6	3.6	1.51e+00	0	29	104	0	60	48819
2026-01-26 21:16:40.19	81.30	2.89	-47.4	-62.6	3.6	1.51e+00	0	29	104	0	60	48672
2026-01-26 21:16:41.20	81.22	2.94	-47.3	-59.9	3.7	1.51e+00	0	29	104	0	60	35555
2026-01-26 21:16:42.22	81.14	3.00	-46.8	-54.4	6.8	3.83e-01	0	29	0	0	60	18949
2026-01-26 21:16:43.23	81.06	3.05	-45.9	-51.0	10.5	2.74e-02	0	29	0	2097152	60	12870
2026-01-26 21:16:44.24	80.98	3.11	-44.6	-48.1	13.7	7.29e-04	0	29	0	3145728	60	9146
2026-01-26 21:16:45.25	80.90	3.16	-43.9	-46.8	14.9	0.00e+00	0	29	0	5242880	60	7940
2026-01-26 21:16:46.26	80.82	3.22	-47.6	-59.2	3.8	8.78e-01	0	29	104	6291456	60	33156
2026-01-26 21:16:47.27	80.74	3.28	-45.4	-49.2	13.5	2.79e-01	0	29	0	6291456	60	10399
2026-01-26 21:16:48.28	80.66	3.33	-47.3	-61.2	3.6	1.47e+00	0	29	104	7340032	60	41526
2026-01-26 21:16:49.29	80.57	3.39	-47.4	-58.5	4.4	1.51e+00	0	29	104	7340032	60	30363
2026-01-26 21:16:50.30	80.49	3.44	-45.4	-49.9	11.3	1.06e+00	0	29	104	7340032	60	11346
2026-01-26 21:16:51.31	80.41	3.50	-45.1	-49.1	12.4	1.43e-04	0	29	0	8388608	60	10294
2026-01-26 21:16:52.32	80.33	3.56	-45.2	-49.3	12.4	4.04e-05	0	29	0	10485760	60	10527
2026-01-26 21:16:53.33	80.24	3.61	-44.1	-47.1	14.4	6.10e-06	0	29	0	11534336	60	8163
2026-01-26 21:16:54.34	80.16	3.67	-44.3	-47.4	15.1	0.00e+00	0	29	0	13631488	60	8469
2026-01-26 21:16:55.35	80.08	3.73	-44.2	-47.2	14.0	4.50e-06	0	29	0	15728640	60	8262
2026-01-26 21:16:56.35	79.99	3.78	-44.0	-46.9	14.6	2.20e-06	0	29	0	17825792	60	7970
2026-01-26 21:16:57.36	79.91	3.84	-43.3	-45.6	16.3	0.00e+00	0	29	0	19922944	60	6905
2026-01-26 21:16:58.37	79.82	3.89	-42.9	-45.1	16.8	0.00e+00	0	29	0	20971520	60	6470
2026-01-26 21:16:59.38	79.74	3.95	-43.7	-46.4	15.4	0.00e+00	0	29	0	23068672	60	7524
2026-01-26 21:17:00.39	79.65	4.01	-42.7	-44.8	17.1	0.00e+00	0	29	0	25165824	58	7022
2026-01-26 21:17:01.40	79.57	4.06	-43.4	-45.8	16.2	0.00e+00	0	29	0	27262976	58	7877
2026-01-26 21:17:02.41	79.48	4.12	-42.7	-44.8	17.1	0.00e+00	0	29	0	29360128	58	7080
2026-01-26 21:17:03.42	79.40	4.18	-43.0	-45.2	16.9	0.00e+00	0	29	0	30408704	58	7398
2026-01-26 21:17:04.43	79.31	4.24	-42.7	-44.8	17.2	0.00e+00	0	29	0	32505856	58	7013
2026-01-26 21:17:05.44	79.22	4.29	-43.0	-45.1	17.0	0.00e+00	0	29	0	34603008	58	7284
2026-01-26 21:17:06.45	79.13	4.35	-42.0	-43.8	17.7	0.00e+00	0	29	0	36700160	58	6299
2026-01-26 21:17:07.46	79.05	4.41	-42.3	-44.2	17.9	0.00e+00	0	29	0	38797312	58	6546
2026-01-26 21:17:08.47	78.96	4.46	-41.9	-43.7	18.4	0.00e+00	0	29	0	39845888	58	6201
2026-01-26 21:17:09.48	78.87	4.52	-41.9	-43.6	18.4	0.00e+00	0	29	0	41943040	56	6913
2026-01-26 21:17:10.49	78.78	4.58	-41.9	-43.6	18.1	0.00e+00	0	29	0	44040192	56	6925
2026-01-26 21:17:11.50	78.69	4.64	-42.1	-43.9	18.4	0.00e+00	0	29	0	46137344	56	7114
2026-01-26 21:17:12.51	78.60	4.69	-41.8	-43.5	18.4	0.00e+00	0	29	0	48234496	56	6789
2026-01-26 21:17:13.53	78.51	4.75	-42.0	-43.7	18.2	0.00e+00	0	29	0	50331648	56	6996
2026-01-26 21:17:14.53	78.42	4.81	-41.4	-42.9	19.0	0.00e+00	0	29	0	51380224	56	6390
2026-01-26 21:17:15.54	78.33	4.87	-41.0	-42.5	19.5	0.00e+00	0	29	0	53477376	56	6038
2026-01-26 21:17:16.55	78.24	4.92	-41.2	-42.6	19.3	0.00e+00	0	29	0	55574528	56	6148
2026-01-26 21:17:17.56	78.15	4.98	-41.4	-42.9	18.9	0.00e+00	0	29	0	57671680	56	6375
2026-01-26 21:17:18.57	78.06	5.04	-42.1	-43.8	18.4	0.00e+00	0	29	0	59768832	56	7054
2026-01-26 21:17:19.58	77.96	5.10	-41.9	-43.6	18.4	0.00e+00	0	29	0	60817408	56	6899
2026-01-26 21:17:20.59	77.87	5.15	-42.2	-43.9	18.3	0.00e+00	0	29	0	62914560	56	7123
2026-01-26 21:17:21.60	77.78	5.21	-41.8	-43.4	18.6	0.00e+00	0	29	0	65011712	56	6767
2026-01-26 21:17:22.61	77.68	5.27	-41.7	-43.3	18.6	0.00e+00	0	29	0	67108864	56	6626
2026-01-26 21:17:23.62	77.59	5.33	-42.5	-44.3	17.7	0.00e+00	0	29	0	69206016	56	7467
2026-01-26 21:17:24.63	77.50	5.39	-42.7	-44.6	17.8	0.00e+00	0	29	0	70254592	56	7720
2026-01-26 21:17:25.64	77.40	5.44	-42.5	-44.3	17.6	0.00e+00	0	29	0	72351744	58	6684
2026-01-26 21:17:26.65	77.31	5.50	-43.1	-45.2	17.1	0.00e+00	0	29	0	74448896	58	7384
2026-01-26 21:17:27.66	77.21	5.56	-43.3	-45.5	16.7	0.00e+00	0	29	0	76546048	58	7635
2026-01-26 21:17:28.67	77.12	5.62	-42.6	-44.5	17.7	0.00e+00	0	29	0	78643200	58	6791
2026-01-26 21:17:29.68	77.02	5.68	-43.0	-45.1	16.6	0.00e+00	0	29	0	79691776	58	7256
2026-01-26 21:17:30.69	76.92	5.74	-43.0	-45.0	17.3	0.00e+00	0	29	0	81788928	58	7191
2026-01-26 21:17:31.70	76.83	5.79	-43.2	-45.3	16.6	0.00e+00	0	29	0	83886080	58	7497
2026-01-26 21:17:32.71	76.73	5.85	-42.5	-44.4	17.7	0.00e+00	0	29	0	85983232	58	6731
2026-01-26 21:17:33.72	76.63	5.91	-42.9	-44.9	17.1	0.00e+00	0	29	0	88080384	58	7110
2026-01-26 21:17:34.73	76.53	5.97	-43.0	-45.1	17.1	0.00e+00	0	29	0	89128960	58	7267
2026-01-26 21:17:35.74	76.43	6.03	-42.8	-44.7	17.4	0.00e+00	0	29	0	91226112	58	6999
2026-01-26 21:17:36.75	76.34	6.09	-42.6	-44.4	17.7	0.00e+00	0	29	0	93323264	58	6753
2026-01-26 21:17:37.76	76.24	6.15	-42.4	-44.2	18.0	0.00e+00	0	29	0	95420416	58	6566
2026-01-26 21:17:38.77	76.14	6.20	-42.6	-44.5	17.8	0.00e+00	0	29	0	97517568	58	6770
2026-01-26 21:17:39.78	76.04	6.26	-41.5	-42.9	19.1	0.00e+00	0	29	0	98566144	56	6386
2026-01-26 21:17:40.79	75.94	6.32	-41.5	-43.0	19.2	0.00e+00	0	29	0	100663296	56	6455
2026-01-26 21:17:41.80	75.83	6.38	-41.7	-43.2	18.9	0.00e+00	0	29	0	102760448	56	6572
2026-01-26 21:17:42.81	75.73	6.44	-40.7	-42.0	20.0	0.00e+00	0	29	0	104857600	56	5720
2026-01-26 21:17:43.82	75.63	6.50	-41.1	-42.6	19.6	0.00e+00	0	29	0	106954752	54	6852
2026-01-26 21:17:44.83	75.53	6.56	-40.9	-42.2	19.9	0.00e+00	0	29	0	108003328	54	6595
2026-01-26 21:17:45.84	75.43	6.62	-40.8	-42.1	19.9	0.00e+00	0	29	0	110100480	54	6503
2026-01-26 21:17:46.85	75.32	6.68	-41.1	-42.5	19.6	0.00e+00	0	29	0	112197632	54	6811
2026-01-26 21:17:47.86	75.22	6.74	-41.1	-42.5	19.4	0.00e+00	0	29	0	114294784	54	6822
2026-01-26 21:17:48.87	75.12	6.80	-41.5	-43.0	19.3	0.00e+00	0	29	0	116391936	54	7187
2026-01-26 21:17:49.88	75.01	6.85	-41.2	-42.6	19.6	0.00e+00	0	29	0	117440512	54	6920
2026-01-26 21:17:50.89	74.91	6.91	-41.0	-42.4	19.8	0.00e+00	0	29	0	119537664	54	6697
2026-01-26 21:17:51.90	74.80	6.97	-40.8	-42.2	19.9	0.00e+00	0	29	0	121634816	54	6565
2026-01-26 21:17:52.91	74.69	7.03	-40.9	-42.3	19.9	0.00e+00	0	29	0	123731968	54	6665
2026-01-26 21:17:53.92	74.59	7.09	-40.9	-42.3	19.8	0.00e+00	0	29	0	125829120	54	6648
2026-01-26 21:17:54.93	74.48	7.15	-41.2	-42.7	19.4	0.00e+00	0	29	0	127926272	54	6948
2026-01-26 21:17:55.94	74.37	7.21	-41.4	-42.9	19.3	0.00e+00	0	29	0	128974848	54	7153
2026-01-26 21:17:56.95	74.27	7.27	-41.7	-43.4	18.8	0.00e+00	0	29	0	131072000	54	7510
2026-01-26 21:17:57.96	74.16	7.33	-41.9	-43.6	18.6	0.00e+00	0	29	0	133169152	56	6914
2026-01-26 21:17:58.97	74.05	7.39	-41.7	-43.3	18.9	0.00e+00	0	29	0	135266304	56	6671
2026-01-26 21:17:59.98	73.94	7.45	-41.7	-43.2	19.1	0.00e+00	0	29	0	137363456	56	6609
2026-01-26 21:18:00.99	73.83	7.51	-41.3	-42.7	19.4	0.00e+00	0	29	0	138412032	56	6233
2026-01-26 21:18:02.00	73.72	7.57	-41.1	-42.5	19.7	0.00e+00	0	29	0	140509184	56	6078
2026-01-26 21:18:03.01	73.61	7.63	-41.3	-42.8	19.4	0.00e+00	0	29	0	142606336	56	6247
2026-01-26 21:18:04.02	73.50	7.69	-41.2	-42.7	19.6	0.00e+00	0	29	0	144703488	56	6187
2026-01-26 21:18:05.03	73.39	7.75	-41.3	-42.7	19.6	0.00e+00	0	29	0	146800640	56	6245
2026-01-26 21:18:06.04	73.28	7.81	-41.1	-42.5	19.8	0.00e+00	0	29	0	147849216	56	6065
2026-01-26 21:18:07.04	73.17	7.87	-40.8	-42.2	20.1	0.00e+00	0	29	0	149946368	56	5851
2026-01-26 21:18:08.05	73.05	7.93	-40.9	-42.3	19.9	0.00e+00	0	29	0	152043520	56	5939
2026-01-26 21:18:09.06	72.94	7.99	-40.9	-42.3	20.0	0.00e+00	0	29	0	154140672	56	5899
2026-01-26 21:18:10.07	72.83	8.05	-41.0	-42.4	19.9	0.00e+00	0	29	0	156237824	56	6022
2026-01-26 21:18:11.09	72.71	8.11	-40.5	-41.9	20.3	0.00e+00	0	29	0	157286400	54	6332
2026-01-26 21:18:12.09	72.60	8.17	-40.9	-42.2	20.0	0.00e+00	0	29	0	159383552	54	6605
2026-01-26 21:18:13.10	72.48	8.23	-40.8	-42.2	20.1	0.00e+00	0	29	0	161480704	54	6597
2026-01-26 21:18:14.11	72.37	8.29	-40.4	-41.6	20.5	0.00e+00	0	29	0	163577856	54	6165
2026-01-26 21:18:15.13	72.25	8.35	-40.3	-41.6	20.6	0.00e+00	0	29	0	165675008	54	6120
2026-01-26 21:18:16.14	72.13	8.41	-40.9	-42.2	20.1	0.00e+00	0	29	0	166723584	54	6590
2026-01-26 21:18:17.15	72.02	8.47	-40.5	-41.8	20.3	0.00e+00	0	29	0	168820736	54	6303
2026-01-26 21:18:18.16	71.90	8.53	-40.4	-41.7	20.4	0.00e+00	0	29	0	170917888	54	6184
2026-01-26 21:18:19.17	71.78	8.59	-40.8	-42.2	20.0	0.00e+00	0	29	0	173015040	54	6566
2026-01-26 21:18:20.18	71.66	8.65	-40.9	-42.3	20.0	0.00e+00	0	29	0	175112192	54	6638
2026-01-26 21:18:21.19	71.54	8.71	-40.7	-42.1	20.2	0.00e+00	0	29	0	176160768	54	6515
2026-01-26 21:18:22.20	71.43	8.78	-40.7	-42.0	20.1	0.00e+00	0	29	0	178257920	54	6420
2026-01-26 21:18:23.21	71.31	8.84	-40.8	-42.2	20.0	0.00e+00	0	29	0	180355072	54	6580
2026-01-26 21:18:24.22	71.18	8.90	-40.7	-42.0	20.4	0.00e+00	0	29	0	182452224	54	6449
2026-01-26 21:18:25.22	71.06	8.96	-40.4	-41.7	20.5	0.00e+00	0	30	0	184549376	54	6226
2026-01-26 21:18:26.23	70.94	9.02	-40.6	-41.9	20.3	0.00e+00	0	29	0	185597952	54	6382
2026-01-26 21:18:27.24	70.82	9.08	-40.4	-41.7	20.5	0.00e+00	0	29	0	187695104	54	6174
2026-01-26 21:18:28.25	70.70	9.14	-40.5	-41.8	20.4	0.00e+00	0	29	0	189792256	54	6258
2026-01-26 21:18:29.26	70.58	9.20	-40.7	-42.1	20.1	0.00e+00	0	29	0	191889408	54	6508
2026-01-26 21:18:30.27	70.45	9.26	-41.1	-42.5	19.9	0.00e+00	0	29	0	193986560	54	6828
2026-01-26 21:18:31.28	70.33	9.32	-41.1	-42.5	19.8	0.00e+00	0	29	0	196083712	54	6826
2026-01-26 21:18:32.29	70.20	9.38	-41.0	-42.5	20.0	0.00e+00	0	29	0	197132288	54	6783
2026-01-26 21:18:33.30	70.08	9.44	-41.0	-42.4	19.9	0.00e+00	0	29	0	199229440	54	6698
2026-01-26 21:18:34.31	69.95	9.50	-41.4	-42.9	19.4	0.00e+00	0	29	0	201326592	54	7169
2026-01-26 21:18:35.32	69.83	9.56	-40.9	-42.3	19.9	0.00e+00	0	29	0	203423744	54	6622
2026-01-26 21:18:36.33	69.70	9.62	-41.0	-42.4	20.3	0.00e+00	0	29	0	205520896	54	6693
2026-01-26 21:18:37.34	69.57	9.69	-40.8	-42.2	20.2	0.00e+00	0	29	0	206569472	54	6582
2026-01-26 21:18:38.35	69.44	9.75	-41.1	-42.5	19.8	0.00e+00	0	29	0	208666624	54	6841
2026-01-26 21:18:39.36	69.31	9.81	-40.5	-41.8	20.5	0.00e+00	0	29	0	210763776	54	6277
2026-01-26 21:18:40.36	69.19	9.87	-40.3	-41.6	20.6	0.00e+00	0	29	0	212860928	54	6142
2026-01-26 21:18:41.37	69.06	9.93	-40.2	-41.5	20.8	0.00e+00	0	29	0	214958080	54	6054
2026-01-26 21:18:42.38	68.93	9.99	-40.2	-41.5	21.0	0.00e+00	0	29	0	216006656	54	6057
2026-01-26 21:18:43.39	68.80	10.05	-40.2	-41.4	20.8	0.00e+00	0	29	0	218103808	54	6016
2026-01-26 21:18:44.40	68.66	10.11	-40.3	-41.5	20.8	0.00e+00	0	30	0	220200960	54	6063
2026-01-26 21:18:45.41	68.53	10.17	-40.1	-41.4	20.9	0.00e+00	0	29	0	222298112	54	5965
2026-01-26 21:18:46.42	68.40	10.23	-40.1	-41.3	20.9	0.00e+00	0	30	0	224395264	54	5937
2026-01-26 21:18:47.43	68.27	10.29	-40.2	-41.4	21.0	0.00e+00	0	29	0	225443840	54	5982
2026-01-26 21:18:48.44	68.13	10.35	-40.1	-41.3	21.0	0.00e+00	0	29	0	227540992	54	5920
2026-01-26 21:18:49.45	68.00	10.41	-40.1	-41.4	20.7	0.00e+00	0	29	0	229638144	54	5981
2026-01-26 21:18:50.46	67.87	10.48	-40.2	-41.5	21.0	0.00e+00	0	29	0	231735296	54	6058
2026-01-26 21:18:51.47	67.73	10.54	-40.3	-41.6	20.5	0.00e+00	0	29	0	233832448	54	6114
2026-01-26 21:18:52.48	67.59	10.60	-40.3	-41.6	20.2	0.00e+00	0	29	0	234881024	54	6112
2026-01-26 21:18:53.49	67.46	10.66	-40.2	-41.4	20.6	0.00e+00	0	29	0	236978176	54	5985
2026-01-26 21:18:54.50	67.32	10.72	-40.3	-41.5	20.8	0.00e+00	0	30	0	239075328	54	6090
2026-01-26 21:18:55.51	67.18	10.78	-40.2	-41.4	20.7	0.00e+00	0	30	0	241172480	54	5988
2026-01-26 21:18:56.52	67.05	10.84	-40.2	-41.4	21.0	0.00e+00	0	29	0	243269632	54	6003
2026-01-26 21:18:57.53	66.91	10.90	-40.0	-41.2	21.0	0.00e+00	0	29	0	244318208	54	5865
2026-01-26 21:18:58.54	66.77	10.96	-39.8	-41.0	21.2	0.00e+00	0	29	0	246415360	54	5709
2026-01-26 21:18:59.55	66.63	11.02	-40.2	-41.4	20.9	0.00e+00	0	29	0	248512512	54	6010
2026-01-26 21:19:00.56	66.49	11.08	-40.0	-41.2	21.0	0.00e+00	0	30	0	250609664	54	5873
2026-01-26 21:19:01.57	66.35	11.14	-39.9	-41.1	21.2	0.00e+00	0	29	0	252706816	54	5775
2026-01-26 21:19:02.58	66.20	11.21	-40.0	-41.1	21.2	0.00e+00	0	29	0	253755392	54	5827
2026-01-26 21:19:03.59	66.06	11.27	-40.0	-41.2	21.1	0.00e+00	0	30	0	255852544	54	5884
2026-01-26 21:19:04.60	65.92	11.33	-39.9	-41.1	21.3	0.00e+00	0	29	0	257949696	52	6504
2026-01-26 21:19:05.61	65.78	11.39	-39.6	-40.7	21.5	0.00e+00	0	29	0	260046848	52	6240
2026-01-26 21:19:06.62	65.63	11.45	-39.6	-40.7	21.7	0.00e+00	0	29	0	262144000	52	6179
2026-01-26 21:19:07.63	65.49	11.51	-39.7	-40.7	21.5	0.00e+00	0	29	0	264241152	52	6244
2026-01-26 21:19:08.64	65.34	11.57	-39.8	-40.9	21.4	0.00e+00	0	29	0	265289728	52	6385
2026-01-26 21:19:09.65	65.20	11.63	-39.8	-40.9	21.5	0.00e+00	0	29	0	267386880	52	6359
2026-01-26 21:19:10.66	65.05	11.69	-40.0	-41.2	21.2	0.00e+00	0	29	0	269484032	52	6555
2026-01-26 21:19:11.67	64.90	11.75	-39.8	-41.0	21.4	0.00e+00	0	29	0	271581184	52	6407
2026-01-26 21:19:12.68	64.75	11.81	-39.8	-41.0	21.3	0.00e+00	0	29	0	273678336	52	6395
2026-01-26 21:19:13.69	64.61	11.87	-40.1	-41.3	21.0	0.00e+00	0	29	0	274726912	52	6643
2026-01-26 21:19:14.70	64.46	11.93	-40.1	-41.3	20.9	0.00e+00	0	29	0	276824064	52	6666
2026-01-26 21:19:15.71	64.31	11.99	-40.2	-41.4	20.8	0.00e+00	0	29	0	278921216	52	6752
2026-01-26 21:19:16.72	64.16	12.05	-40.4	-41.6	20.7	0.00e+00	0	29	0	281018368	52	6872
2026-01-26 21:19:17.73	64.01	12.11	-40.5	-41.7	20.8	0.00e+00	0	29	0	283115520	52	6976
2026-01-26 21:19:18.74	63.86	12.17	-40.4	-41.6	20.9	0.00e+00	0	29	0	284164096	52	6866
2026-01-26 21:19:19.75	63.70	12.23	-40.4	-41.7	20.8	0.00e+00	0	29	0	286261248	52	6958
2026-01-26 21:19:20.76	63.55	12.29	-40.6	-41.9	20.6	0.00e+00	0	29	0	288358400	52	7117
2026-01-26 21:19:21.77	63.40	12.35	-40.6	-41.9	20.5	0.00e+00	0	29	0	290455552	52	7101
2026-01-26 21:19:22.78	63.24	12.41	-40.9	-42.2	20.3	0.00e+00	0	29	0	292552704	54	6610
2026-01-26 21:19:23.78	63.09	12.47	-40.9	-42.3	20.2	0.00e+00	0	29	0	293601280	54	6655
2026-01-26 21:19:24.79	62.93	12.53	-40.8	-42.1	20.4	0.00e+00	0	29	0	295698432	54	6498
2026-01-26 21:19:25.80	62.78	12.59	-40.7	-42.0	20.5	0.00e+00	0	29	0	297795584	54	6451
2026-01-26 21:19:26.81	62.62	12.65	-40.3	-41.6	20.8	0.00e+00	0	29	0	299892736	54	6113
2026-01-26 21:19:27.82	62.47	12.71	-40.4	-41.7	20.7	0.00e+00	0	29	0	301989888	54	6192
2026-01-26 21:19:28.83	62.31	12.77	-40.2	-41.5	20.8	0.00e+00	0	29	0	303038464	54	6049
2026-01-26 21:19:29.84	62.15	12.83	-40.2	-41.5	21.0	0.00e+00	0	29	0	305135616	54	6037
2026-01-26 21:19:30.85	61.99	12.89	-40.1	-41.3	21.0	0.00e+00	0	29	0	307232768	54	5960
2026-01-26 21:19:31.86	61.83	12.95	-40.1	-41.3	21.0	0.00e+00	0	29	0	309329920	54	5931
2026-01-26 21:19:32.87	61.67	13.01	-40.0	-41.1	21.3	0.00e+00	0	29	0	311427072	54	5826
2026-01-26 21:19:33.88	61.51	13.07	-39.9	-41.1	21.1	0.00e+00	0	30	0	312475648	54	5799
2026-01-26 21:19:34.88	61.35	13.13	-40.1	-41.3	21.0	7.00e-07	0	29	0	314572800	54	5924
2026-01-26 21:19:35.89	61.19	13.18	-40.0	-41.2	21.3	7.00e-07	0	29	0	316669952	54	5856
2026-01-26 21:19:36.90	61.02	13.24	-39.9	-41.1	21.3	0.00e+00	0	30	0	318767104	54	5766
2026-01-26 21:19:37.91	60.86	13.30	-39.9	-41.1	21.2	0.00e+00	0	29	0	320864256	54	5789
2026-01-26 21:19:38.92	60.69	13.36	-40.0	-41.2	21.3	0.00e+00	0	29	0	321912832	52	6572
2026-01-26 21:19:39.93	60.53	13.42	-40.0	-41.2	21.2	0.00e+00	0	29	0	324009984	52	6608
2026-01-26 21:19:40.94	60.36	13.48	-39.7	-40.8	21.6	0.00e+00	0	29	0	326107136	52	6294
2026-01-26 21:19:41.95	60.20	13.54	-39.7	-40.9	21.4	0.00e+00	0	29	0	328204288	52	6323
2026-01-26 21:19:42.96	60.03	13.60	-39.7	-40.8	21.4	0.00e+00	0	29	0	330301440	52	6294
2026-01-26 21:19:43.97	59.86	13.65	-39.8	-41.0	21.4	0.00e+00	0	30	0	332398592	52	6404
2026-01-26 21:19:44.98	59.69	13.71	-39.6	-40.7	21.7	0.00e+00	0	29	0	333447168	52	6224
2026-01-26 21:19:45.99	59.53	13.77	-39.5	-40.6	21.8	0.00e+00	0	29	0	335544320	52	6120
2026-01-26 21:19:47.00	59.36	13.83	-39.3	-40.4	22.0	0.00e+00	0	29	0	337641472	52	6009
2026-01-26 21:19:48.01	59.19	13.89	-39.0	-40.1	22.1	0.00e+00	0	30	0	339738624	52	5796
2026-01-26 21:19:49.02	59.01	13.94	-38.9	-39.9	22.3	0.00e+00	0	30	0	341835776	52	5693
2026-01-26 21:19:50.03	58.84	14.00	-39.3	-40.3	21.8	0.00e+00	0	29	0	342884352	52	5964
2026-01-26 21:19:51.04	58.67	14.06	-38.8	-39.8	22.1	0.00e+00	0	29	0	344981504	52	5612
2026-01-26 21:19:52.05	58.50	14.12	-38.8	-39.8	22.4	0.00e+00	0	29	0	347078656	50	6309
2026-01-26 21:19:53.07	58.32	14.17	-38.5	-39.5	22.5	0.00e+00	0	29	0	349175808	50	6068
2026-01-26 21:19:54.08	58.15	14.23	-38.4	-39.4	22.6	0.00e+00	0	29	0	351272960	50	6018
2026-01-26 21:19:55.09	57.97	14.29	-38.5	-39.5	22.6	0.00e+00	0	30	0	352321536	50	6064
2026-01-26 21:19:56.10	57.80	14.34	-38.6	-39.6	22.5	0.00e+00	0	29	0	354418688	50	6109
2026-01-26 21:19:57.10	57.62	14.40	-38.5	-39.5	22.7	0.00e+00	0	29	0	356515840	50	6081
2026-01-26 21:19:58.11	57.44	14.46	-38.3	-39.2	22.8	0.00e+00	0	30	0	358612992	50	5895
2026-01-26 21:19:59.12	57.27	14.51	-38.4	-39.4	22.7	0.00e+00	0	30	0	360710144	50	6029
2026-01-26 21:20:00.13	57.09	14.57	-38.1	-39.1	22.9	0.00e+00	0	29	0	361758720	50	5789
2026-01-26 21:20:01.14	56.91	14.63	-38.1	-39.1	23.0	0.00e+00	0	29	0	363855872	50	5795
2026-01-26 21:20:02.15	56.73	14.68	-38.1	-39.1	23.1	0.00e+00	0	29	0	365953024	50	5781
2026-01-26 21:20:03.16	56.55	14.74	-38.0	-39.0	23.1	0.00e+00	0	30	0	368050176	50	5720
2026-01-26 21:20:04.17	56.37	14.79	-37.9	-38.8	23.2	0.00e+00	0	29	0	370147328	50	5614
2026-01-26 21:20:05.18	56.18	14.85	-37.9	-38.8	23.2	0.00e+00	0	30	0	371195904	50	5585
2026-01-26 21:20:06.20	56.00	14.90	-38.0	-38.9	23.1	0.00e+00	0	29	0	373293056	50	5665
2026-01-26 21:20:07.20	55.82	14.96	-38.0	-38.9	23.0	0.00e+00	0	29	0	375390208	50	5683
2026-01-26 21:20:08.21	55.63	15.01	-38.1	-39.1	23.0	0.00e+00	0	30	0	377487360	50	5763
2026-01-26 21:20:09.22	55.45	15.07	-38.2	-39.2	23.0	0.00e+00	0	30	0	379584512	50	5836
2026-01-26 21:20:10.23	55.26	15.12	-38.2	-39.2	22.8	0.00e+00	0	30	0	380633088	50	5858
2026-01-26 21:20:11.24	55.08	15.18	-38.3	-39.3	22.9	0.00e+00	0	30	0	382730240	50	5907
2026-01-26 21:20:12.25	54.89	15.23	-38.4	-39.4	22.7	0.00e+00	0	30	0	384827392	50	5994
2026-01-26 21:20:13.26	54.70	15.29	-38.5	-39.5	22.6	0.00e+00	0	29	0	386924544	50	6098
2026-01-26 21:20:14.28	54.51	15.34	-38.6	-39.7	22.6	0.00e+00	0	30	0	389021696	50	6193
2026-01-26 21:20:15.29	54.33	15.39	-38.7	-39.7	22.6	0.00e+00	0	30	0	390070272	50	6217
2026-01-26 21:20:16.30	54.14	15.45	-38.8	-39.9	22.4	0.00e+00	0	30	0	392167424	50	6356
2026-01-26 21:20:17.31	53.95	15.50	-38.9	-39.9	22.3	0.00e+00	0	30	0	394264576	50	6382
2026-01-26 21:20:18.32	53.76	15.55	-38.7	-39.7	22.4	0.00e+00	0	30	0	396361728	50	6236
2026-01-26 21:20:19.33	53.56	15.61	-38.0	-38.9	23.1	0.00e+00	0	29	0	398458880	50	5683
2026-01-26 21:20:20.34	53.37	15.66	-38.1	-39.1	23.0	0.00e+00	0	30	0	400556032	50	5775
2026-01-26 21:20:21.35	53.18	15.71	-38.1	-39.0	22.9	0.00e+00	0	30	0	401604608	50	5730
2026-01-26 21:20:22.36	52.98	15.76	-37.9	-38.9	23.2	0.00e+00	0	29	0	403701760	50	5634
2026-01-26 21:20:23.37	52.79	15.81	-37.6	-38.6	23.5	0.00e+00	0	29	0	405798912	48	6106
2026-01-26 21:20:24.38	52.60	15.87	-37.4	-38.3	23.6	0.00e+00	0	30	0	407896064	48	5943
2026-01-26 21:20:25.39	52.40	15.92	-37.5	-38.4	23.5	0.00e+00	0	30	0	409993216	48	6028
2026-01-26 21:20:26.40	52.20	15.97	-37.5	-38.4	23.5	0.00e+00	0	30	0	411041792	48	6027
2026-01-26 21:20:27.41	52.01	16.02	-37.6	-38.5	23.4	0.00e+00	0	30	0	413138944	48	6065
2026-01-26 21:20:28.42	51.81	16.07	-37.8	-38.7	23.3	0.00e+00	0	30	0	415236096	48	6220
2026-01-26 21:20:29.43	51.61	16.12	-37.8	-38.8	23.2	0.00e+00	0	30	0	417333248	48	6276
2026-01-26 21:20:30.44	51.41	16.17	-37.9	-38.8	23.3	0.00e+00	0	30	0	419430400	48	6314
2026-01-26 21:20:31.45	51.21	16.22	-37.8	-38.8	23.2	0.00e+00	0	30	0	420478976	48	6259
2026-01-26 21:20:32.46	51.01	16.27	-37.9	-38.8	23.3	0.00e+00	0	29	0	422576128	48	6285
2026-01-26 21:20:33.47	50.81	16.32	-37.7	-38.6	23.4	0.00e+00	0	29	0	424673280	48	6132
2026-01-26 21:20:34.48	50.61	16.37	-37.8	-38.8	23.2	0.00e+00	0	29	0	426770432	48	6253
2026-01-26 21:20:35.49	50.41	16.42	-37.6	-38.6	23.0	0.00e+00	0	29	0	428867584	48	6110
2026-01-26 21:20:36.50	50.20	16.47	-37.9	-38.8	23.3	0.00e+00	0	29	0	429916160	48	6304
2026-01-26 21:20:37.51	50.00	16.52	-37.8	-38.8	23.5	0.00e+00	0	29	0	432013312	48	6263
2026-01-26 21:20:38.52	49.80	16.56	-37.6	-38.5	23.4	0.00e+00	0	30	0	434110464	48	6065
2026-01-26 21:20:39.53	49.59	16.61	-37.5	-38.4	23.4	0.00e+00	0	29	0	436207616	48	5968
2026-01-26 21:20:40.53	49.39	16.66	-37.0	-37.8	24.0	0.00e+00	0	30	0	438304768	48	5627
2026-01-26 21:20:41.54	49.18	16.71	-36.9	-37.8	24.1	0.00e+00	0	30	0	439353344	48	5570
2026-01-26 21:20:42.55	48.97	16.75	-36.8	-37.7	24.1	0.00e+00	0	30	0	441450496	48	5524
2026-01-26 21:20:43.56	48.77	16.80	-36.9	-37.7	24.0	0.00e+00	0	30	0	443547648	48	5561
2026-01-26 21:20:44.57	48.56	16.85	-37.1	-37.9	24.0	0.00e+00	0	30	0	445644800	48	5677
2026-01-26 21:20:45.58	48.35	16.89	-37.0	-37.8	24.0	0.00e+00	0	29	0	447741952	48	5605
2026-01-26 21:20:46.59	48.14	16.94	-36.9	-37.8	24.0	0.00e+00	0	30	0	448790528	48	5580
2026-01-26 21:20:47.60	47.93	16.99	-37.1	-37.9	23.9	0.00e+00	0	30	0	450887680	48	5683
2026-01-26 21:20:48.61	47.72	17.03	-37.1	-38.0	23.7	0.00e+00	0	29	0	452984832	48	5703
2026-01-26 21:20:49.62	47.51	17.08	-37.3	-38.2	23.7	0.00e+00	0	30	0	455081984	48	5851
2026-01-26 21:20:50.63	47.29	17.12	-37.3	-38.2	23.7	0.00e+00	0	30	0	457179136	48	5857
2026-01-26 21:20:51.64	47.08	17.16	-37.4	-38.3	23.7	0.00e+00	0	30	0	458227712	48	5936
2026-01-26 21:20:52.65	46.87	17.21	-37.4	-38.3	23.6	0.00e+00	0	30	0	460324864	48	5903
2026-01-26 21:20:53.66	46.65	17.25	-37.4	-38.3	23.5	0.00e+00	0	30	0	462422016	48	5949
2026-01-26 21:20:54.67	46.44	17.29	-37.6	-38.6	23.5	0.00e+00	0	29	0	464519168	48	6108
2026-01-26 21:20:55.68	46.22	17.34	-37.8	-38.8	23.3	0.00e+00	0	30	0	466616320	48	6247
2026-01-26 21:20:56.69	46.01	17.38	-38.0	-39.0	23.1	0.00e+00	0	29	0	468713472	48	6407
2026-01-26 21:20:57.69	45.79	17.42	-38.1	-39.0	23.1	0.00e+00	0	29	0	469762048	48	6446
2026-01-26 21:20:58.70	45.58	17.46	-37.9	-38.8	23.2	0.00e+00	0	29	0	471859200	48	6288
2026-01-26 21:20:59.71	45.36	17.51	-37.9	-38.8	23.2	0.00e+00	0	29	0	473956352	48	6288
2026-01-26 21:21:00.72	45.14	17.55	-37.7	-38.6	23.1	0.00e+00	0	30	0	476053504	48	6166
2026-01-26 21:21:01.73	44.92	17.59	-37.5	-38.4	23.5	0.00e+00	0	29	0	478150656	48	5993
2026-01-26 21:21:02.74	44.70	17.63	-36.9	-37.8	23.9	0.00e+00	0	29	0	479199232	48	5585
2026-01-26 21:21:03.75	44.48	17.67	-37.1	-38.0	24.0	0.00e+00	0	29	0	481296384	48	5704
2026-01-26 21:21:04.76	44.26	17.71	-37.1	-37.9	24.0	0.00e+00	0	29	0	483393536	48	5666
2026-01-26 21:21:05.77	44.04	17.75	-36.8	-37.6	24.2	0.00e+00	0	29	0	485490688	48	5491
2026-01-26 21:21:06.78	43.82	17.79	-36.7	-37.5	24.1	0.00e+00	0	29	0	487587840	46	6065
2026-01-26 21:21:07.79	43.60	17.83	-36.5	-37.3	24.4	0.00e+00	0	29	0	488636416	46	5927
2026-01-26 21:21:08.80	43.37	17.86	-36.4	-37.2	24.1	0.00e+00	0	29	0	490733568	46	5877
2026-01-26 21:21:09.81	43.15	17.90	-36.8	-37.6	24.2	0.00e+00	0	29	0	492830720	46	6123
2026-01-26 21:21:10.82	42.93	17.94	-37.0	-37.8	24.1	0.00e+00	0	29	0	494927872	46	6316
2026-01-26 21:21:11.83	42.70	17.98	-36.7	-37.6	24.0	0.00e+00	0	29	0	497025024	46	6112
2026-01-26 21:21:12.84	42.48	18.01	-36.8	-37.6	23.2	0.00e+00	0	29	0	498073600	46	6131
2026-01-26 21:21:13.85	42.25	18.05	-36.7	-37.5	24.2	0.00e+00	0	29	0	500170752	46	6090
2026-01-26 21:21:14.86	42.02	18.08	-36.7	-37.5	24.1	0.00e+00	0	29	0	502267904	46	6086
2026-01-26 21:21:15.87	41.80	18.12	-37.0	-37.9	23.9	0.00e+00	0	29	0	504365056	46	6343
2026-01-26 21:21:16.88	41.57	18.15	-37.3	-38.1	24.0	0.00e+00	0	29	0	506462208	46	6534
2026-01-26 21:21:17.89	41.34	18.19	-37.2	-38.1	23.9	0.00e+00	0	29	0	507510784	46	6495
2026-01-26 21:21:18.90	41.11	18.22	-37.5	-38.4	23.7	0.00e+00	0	29	0	509607936	46	6725
2026-01-26 21:21:19.91	40.88	18.26	-37.5	-38.4	23.7	0.00e+00	0	29	0	511705088	46	6708
2026-01-26 21:21:20.92	40.66	18.29	-37.6	-38.5	23.4	0.00e+00	0	29	0	513802240	46	6777
2026-01-26 21:21:21.93	40.43	18.32	-37.9	-38.8	23.3	0.00e+00	0	29	0	515899392	48	6302
2026-01-26 21:21:22.94	40.20	18.36	-37.9	-38.9	23.1	0.00e+00	0	29	0	516947968	48	6331
2026-01-26 21:21:23.95	39.96	18.39	-37.8	-38.7	23.2	0.00e+00	0	29	0	519045120	48	6234
2026-01-26 21:21:24.96	39.73	18.42	-38.1	-39.1	23.1	0.00e+00	0	29	0	521142272	48	6465
2026-01-26 21:21:25.98	39.50	18.45	-37.8	-38.7	23.3	0.00e+00	0	29	0	523239424	48	6204
2026-01-26 21:21:26.99	39.27	18.48	-37.8	-38.7	23.4	0.00e+00	0	29	0	525336576	48	6183
2026-01-26 21:21:28.00	39.03	18.51	-37.7	-38.6	23.4	0.00e+00	0	29	0	526385152	48	6163
2026-01-26 21:21:29.01	38.80	18.54	-38.0	-39.0	23.1	0.00e+00	0	29	0	528482304	48	6400
2026-01-26 21:21:30.01	38.57	18.57	-38.2	-39.1	23.0	0.00e+00	0	29	0	530579456	48	6510
2026-01-26 21:21:31.03	38.33	18.60	-38.2	-39.2	22.9	0.00e+00	0	29	0	532676608	48	6558
2026-01-26 21:21:32.03	38.10	18.63	-38.0	-38.9	23.1	0.00e+00	0	29	0	534773760	48	6375
2026-01-26 21:21:33.04	37.87	18.65	-38.3	-39.3	23.0	0.00e+00	0	29	0	536870912	48	6646
2026-01-26 21:21:34.05	37.63	18.68	-38.5	-39.5	22.8	0.00e+00	0	29	0	537919488	48	6774
2026-01-26 21:21:35.06	37.39	18.71	-38.3	-39.3	22.9	0.00e+00	0	29	0	540016640	48	6647
2026-01-26 21:21:36.07	37.16	18.74	-38.5	-39.5	22.7	0.00e+00	0	29	0	542113792	48	6806
2026-01-26 21:21:37.08	36.92	18.76	-38.0	-38.9	23.1	0.00e+00	0	29	0	544210944	48	6364
2026-01-26 21:21:38.09	36.68	18.79	-37.9	-38.8	23.4	0.00e+00	0	29	0	546308096	48	6293
2026-01-26 21:21:39.10	36.45	18.81	-37.8	-38.7	23.4	0.00e+00	0	29	0	547356672	48	6235
2026-01-26 21:21:40.11	36.21	18.84	-37.8	-38.7	23.4	0.00e+00	0	29	0	549453824	48	6188
2026-01-26 21:21:41.12	35.97	18.86	-38.2	-39.1	23.0	0.00e+00	0	29	0	551550976	48	6485
2026-01-26 21:21:42.12	35.73	18.88	-38.4	-39.4	22.8	0.00e+00	0	29	0	553648128	48	6715
2026-01-26 21:21:43.13	35.49	18.91	-38.2	-39.2	23.0	0.00e+00	0	29	0	555745280	48	6576
2026-01-26 21:21:44.14	35.26	18.93	-38.5	-39.5	22.7	0.00e+00	0	29	0	556793856	48	6823
2026-01-26 21:21:45.16	35.01	18.95	-38.5	-39.5	22.6	0.00e+00	0	29	0	558891008	48	6786
2026-01-26 21:21:46.16	34.78	18.97	-38.6	-39.6	22.5	0.00e+00	0	29	0	560988160	48	6908
2026-01-26 21:21:47.17	34.54	18.99	-38.3	-39.3	22.9	0.00e+00	0	29	0	563085312	48	6659
2026-01-26 21:21:48.18	34.29	19.01	-38.3	-39.3	22.8	0.00e+00	0	29	0	565182464	48	6663
2026-01-26 21:21:49.19	34.05	19.03	-38.5	-39.5	22.7	0.00e+00	0	29	0	566231040	48	6802
2026-01-26 21:21:50.20	33.81	19.05	-38.5	-39.5	22.7	0.00e+00	0	29	0	568328192	48	6820
2026-01-26 21:21:51.21	33.57	19.07	-38.6	-39.6	22.6	0.00e+00	0	29	0	570425344	48	6919
2026-01-26 21:21:52.22	33.33	19.09	-39.0	-40.1	22.4	0.00e+00	0	29	0	572522496	50	6508
2026-01-26 21:21:53.23	33.09	19.11	-39.2	-40.3	22.0	0.00e+00	0	29	0	574619648	50	6676
2026-01-26 21:21:54.24	32.84	19.13	-39.6	-40.8	21.8	0.00e+00	0	29	0	575668224	50	7023
2026-01-26 21:21:55.25	32.60	19.14	-39.8	-40.9	21.6	0.00e+00	0	29	0	577765376	52	6383
2026-01-26 21:21:56.26	32.36	19.16	-39.4	-40.5	22.0	0.00e+00	0	29	0	579862528	52	6072
2026-01-26 21:21:57.27	32.11	19.18	-39.1	-40.2	22.1	0.00e+00	0	29	0	581959680	52	5847
2026-01-26 21:21:58.28	31.87	19.19	-38.7	-39.7	22.6	0.00e+00	0	29	0	584056832	50	6195
2026-01-26 21:21:59.29	31.63	19.21	-38.7	-39.7	22.8	0.00e+00	0	29	0	585105408	50	6187
2026-01-26 21:22:00.30	31.38	19.22	-38.4	-39.4	22.9	0.00e+00	0	29	0	587202560	50	5998
2026-01-26 21:22:01.31	31.14	19.23	-38.3	-39.3	22.9	0.00e+00	0	29	0	589299712	50	5923
2026-01-26 21:22:02.32	30.89	19.25	-38.3	-39.3	22.9	0.00e+00	0	29	0	591396864	50	5910
2026-01-26 21:22:03.32	30.65	19.26	-38.4	-39.4	22.8	0.00e+00	0	29	0	593494016	50	6006
2026-01-26 21:22:04.34	30.40	19.27	-38.6	-39.6	22.8	0.00e+00	0	29	0	594542592	50	6121
2026-01-26 21:22:05.34	30.16	19.28	-38.9	-39.9	22.3	0.00e+00	0	29	0	596639744	50	6343
2026-01-26 21:22:06.35	29.92	19.29	-38.5	-39.5	22.7	0.00e+00	0	29	0	598736896	50	6061
2026-01-26 21:22:07.36	29.67	19.31	-38.6	-39.5	22.5	0.00e+00	0	29	0	600834048	50	6096
2026-01-26 21:22:08.37	29.43	19.31	-38.5	-39.4	22.8	0.00e+00	0	29	0	602931200	50	6026
2026-01-26 21:22:09.37	29.18	19.32	-38.2	-39.2	23.0	0.00e+00	0	29	0	605028352	50	5848
2026-01-26 21:22:10.38	28.94	19.33	-38.3	-39.2	22.9	0.00e+00	0	29	0	606076928	50	5888
2026-01-26 21:22:11.39	28.69	19.34	-38.0	-38.9	23.3	0.00e+00	0	29	0	608174080	50	5692
2026-01-26 21:22:12.40	28.44	19.35	-38.1	-39.0	23.1	0.00e+00	0	29	0	610271232	50	5746
2026-01-26 21:22:13.41	28.20	19.36	-37.8	-38.7	23.2	0.00e+00	0	29	0	612368384	50	5535
2026-01-26 21:22:14.42	27.95	19.36	-38.1	-39.0	23.1	0.00e+00	0	29	0	614465536	50	5723
2026-01-26 21:22:15.43	27.71	19.37	-38.3	-39.2	23.1	0.00e+00	0	29	0	615514112	50	5864
2026-01-26 21:22:16.44	27.46	19.37	-38.3	-39.3	22.9	0.00e+00	0	29	0	617611264	50	5926
2026-01-26 21:22:17.45	27.21	19.38	-38.5	-39.5	22.8	0.00e+00	0	29	0	619708416	50	6073
2026-01-26 21:22:18.46	26.97	19.38	-38.7	-39.7	22.7	0.00e+00	0	29	0	621805568	50	6181
2026-01-26 21:22:19.47	26.72	19.39	-38.5	-39.5	22.9	0.00e+00	0	29	0	623902720	50	6039
2026-01-26 21:22:20.48	26.47	19.39	-38.6	-39.6	22.7	0.00e+00	0	29	0	624951296	50	6137
2026-01-26 21:22:21.49	26.22	19.39	-38.4	-39.4	22.8	0.00e+00	0	29	0	627048448	50	5968
2026-01-26 21:22:22.50	25.98	19.40	-38.3	-39.2	23.0	0.00e+00	0	29	0	629145600	50	5892
2026-01-26 21:22:23.51	25.73	19.40	-38.4	-39.4	22.8	0.00e+00	0	29	0	631242752	50	5973
2026-01-26 21:22:24.52	25.48	19.40	-38.2	-39.1	23.0	0.00e+00	0	29	0	633339904	50	5781
2026-01-26 21:22:25.53	25.24	19.40	-38.3	-39.2	23.0	0.00e+00	0	29	0	634388480	50	5891
2026-01-26 21:22:26.54	24.99	19.40	-38.2	-39.2	23.0	0.00e+00	0	29	0	636485632	50	5833
2026-01-26 21:22:27.55	24.74	19.40	-38.3	-39.3	23.1	0.00e+00	0	29	0	638582784	50	5919
2026-01-26 21:22:28.56	24.50	19.40	-38.3	-39.3	22.8	0.00e+00	0	29	0	640679936	50	5930
2026-01-26 21:22:29.56	24.25	19.40	-38.3	-39.2	22.9	0.00e+00	0	29	0	642777088	50	5878
2026-01-26 21:22:30.58	24.00	19.39	-38.5	-39.5	22.6	0.00e+00	0	29	0	643825664	50	6096
2026-01-26 21:22:31.59	23.76	19.39	-38.8	-39.9	22.4	0.00e+00	0	29	0	645922816	50	6364
2026-01-26 21:22:32.60	23.51	19.39	-39.1	-40.2	22.1	0.00e+00	0	29	0	648019968	50	6573
2026-01-26 21:22:33.61	23.26	19.38	-39.3	-40.4	22.0	0.00e+00	0	29	0	650117120	50	6722
2026-01-26 21:22:34.62	23.02	19.38	-39.3	-40.4	22.0	0.00e+00	0	29	0	652214272	50	6748
2026-01-26 21:22:35.63	22.77	19.37	-39.1	-40.1	22.1	0.00e+00	0	29	0	653262848	50	6528
2026-01-26 21:22:36.64	22.52	19.37	-38.9	-39.9	22.4	0.00e+00	0	29	0	655360000	50	6377
2026-01-26 21:22:37.65	22.28	19.36	-38.4	-39.4	22.8	0.00e+00	0	29	0	657457152	50	6003
2026-01-26 21:22:38.66	22.03	19.36	-38.0	-38.9	23.1	0.00e+00	0	29	0	659554304	50	5695
2026-01-26 21:22:39.67	21.78	19.35	-37.8	-38.7	22.7	0.00e+00	0	29	0	661651456	48	6187
2026-01-26 21:22:40.68	21.54	19.34	-37.3	-38.1	23.7	0.00e+00	0	29	0	662700032	48	5799
2026-01-26 21:22:41.69	21.29	19.33	-37.1	-37.9	23.8	0.00e+00	0	29	0	664797184	48	5679
2026-01-26 21:22:42.70	21.05	19.32	-36.9	-37.7	24.1	0.00e+00	0	29	0	666894336	48	5539
2026-01-26 21:22:43.71	20.80	19.31	-36.9	-37.7	24.1	0.00e+00	0	29	0	668991488	48	5562
2026-01-26 21:22:44.72	20.55	19.30	-37.0	-37.9	23.9	0.00e+00	0	29	0	671088640	48	5663
2026-01-26 21:22:45.73	20.31	19.29	-37.1	-38.0	23.9	0.00e+00	0	29	0	673185792	48	5711
2026-01-26 21:22:46.74	20.06	19.28	-37.1	-38.0	23.9	0.00e+00	0	29	0	674234368	48	5712
2026-01-26 21:22:47.75	19.82	19.27	-36.9	-37.7	24.1	0.00e+00	0	29	0	676331520	48	5530
2026-01-26 21:22:48.76	19.57	19.26	-37.1	-37.9	23.9	0.00e+00	0	29	0	678428672	48	5692
2026-01-26 21:22:49.76	19.33	19.25	-37.1	-38.0	23.8	0.00e+00	0	29	0	680525824	48	5722
2026-01-26 21:22:50.77	19.09	19.23	-37.1	-38.0	23.9	0.00e+00	0	29	0	682622976	48	5728
2026-01-26 21:22:51.78	18.84	19.22	-37.2	-38.1	23.8	0.00e+00	0	29	0	683671552	48	5781
2026-01-26 21:22:52.79	18.60	19.20	-37.3	-38.2	23.7	0.00e+00	0	29	0	685768704	48	5854
2026-01-26 21:22:53.80	18.36	19.19	-37.5	-38.4	23.7	0.00e+00	0	29	0	687865856	48	5974
2026-01-26 21:22:54.81	18.11	19.17	-37.2	-38.1	23.9	0.00e+00	0	29	0	689963008	48	5763
2026-01-26 21:22:55.82	17.87	19.16	-36.9	-37.7	24.1	0.00e+00	0	29	0	692060160	48	5546
2026-01-26 21:22:56.83	17.63	19.14	-37.0	-37.8	24.0	0.00e+00	0	29	0	693108736	46	6307
2026-01-26 21:22:57.84	17.38	19.13	-36.7	-37.5	24.3	0.00e+00	0	29	0	695205888	46	6092
2026-01-26 21:22:58.85	17.14	19.11	-36.6	-37.4	24.2	0.00e+00	0	29	0	697303040	46	6028
2026-01-26 21:22:59.86	16.90	19.09	-36.8	-37.7	24.2	0.00e+00	0	29	0	699400192	46	6178
2026-01-26 21:23:00.87	16.66	19.07	-36.6	-37.5	24.2	0.00e+00	0	29	0	701497344	46	6037
2026-01-26 21:23:01.88	16.42	19.05	-36.5	-37.3	24.3	0.00e+00	0	29	0	702545920	46	5900
2026-01-26 21:23:02.89	16.18	19.03	-36.6	-37.4	24.3	0.00e+00	0	29	0	704643072	46	5985
2026-01-26 21:23:03.90	15.93	19.01	-36.7	-37.5	24.3	0.00e+00	0	29	0	706740224	46	6062
2026-01-26 21:23:04.91	15.69	18.99	-36.7	-37.6	24.3	0.00e+00	0	29	0	708837376	46	6109
2026-01-26 21:23:05.92	15.45	18.97	-36.8	-37.6	24.1	0.00e+00	0	29	0	710934528	46	6146
2026-01-26 21:23:06.94	15.21	18.95	-37.1	-37.9	24.0	0.00e+00	0	29	0	711983104	46	6378
2026-01-26 21:23:07.94	14.97	18.93	-36.9	-37.7	24.0	0.00e+00	0	29	0	714080256	46	6220
2026-01-26 21:23:08.95	14.74	18.91	-37.0	-37.8	23.9	0.00e+00	0	29	0	716177408	46	6310
2026-01-26 21:23:09.96	14.50	18.88	-37.3	-38.2	23.7	0.00e+00	0	29	0	718274560	46	6562
2026-01-26 21:23:10.97	14.26	18.86	-37.3	-38.2	23.7	0.00e+00	0	29	0	720371712	46	6555
2026-01-26 21:23:11.98	14.02	18.83	-37.4	-38.3	23.6	0.00e+00	0	28	0	721420288	46	6630
2026-01-26 21:23:12.99	13.78	18.81	-37.1	-38.0	23.9	0.00e+00	0	29	0	723517440	46	6412
2026-01-26 21:23:14.00	13.55	18.79	-37.1	-38.0	23.8	0.00e+00	0	29	0	725614592	46	6415
2026-01-26 21:23:15.01	13.31	18.76	-37.0	-37.9	23.9	0.00e+00	0	29	0	727711744	46	6331
2026-01-26 21:23:16.02	13.07	18.73	-37.1	-38.0	23.8	0.00e+00	0	29	0	729808896	46	6449
2026-01-26 21:23:17.03	12.84	18.71	-37.5	-38.5	23.5	0.00e+00	0	28	0	730857472	46	6777
2026-01-26 21:23:18.04	12.60	18.68	-37.8	-38.7	23.4	0.00e+00	0	29	0	732954624	48	6203
2026-01-26 21:23:19.05	12.37	18.65	-38.2	-39.2	22.9	0.00e+00	0	29	0	735051776	48	6568
2026-01-26 21:23:20.06	12.13	18.62	-38.8	-39.8	22.4	0.00e+00	0	29	0	737148928	50	6300
2026-01-26 21:23:21.07	11.90	18.60	-39.2	-40.3	22.1	0.00e+00	0	29	0	739246080	50	6642
2026-01-26 21:23:22.08	11.66	18.57	-39.3	-40.4	21.8	0.00e+00	0	29	0	741343232	50	6728
2026-01-26 21:23:23.09	11.43	18.54	-39.2	-40.3	22.1	0.00e+00	0	29	0	742391808	50	6619
2026-01-26 21:23:24.10	11.20	18.51	-39.2	-40.2	22.2	0.00e+00	0	29	0	744488960	50	6584
2026-01-26 21:23:25.11	10.96	18.48	-38.6	-39.6	22.5	0.00e+00	0	28	0	746586112	50	6149
2026-01-26 21:23:26.12	10.73	18.45	-38.9	-40.0	22.3	0.00e+00	0	28	0	748683264	50	6397
2026-01-26 21:23:27.13	10.50	18.42	-38.9	-39.9	22.5	0.00e+00	0	28	0	750780416	50	6371
2026-01-26 21:23:28.14	10.27	18.39	-39.4	-40.5	21.9	0.00e+00	0	29	0	751828992	50	6831
2026-01-26 21:23:29.15	10.04	18.35	-39.8	-40.9	21.6	0.00e+00	0	29	0	753926144	52	6390
2026-01-26 21:23:30.16	9.81	18.32	-39.7	-40.8	21.4	0.00e+00	0	28	0	756023296	52	6287
2026-01-26 21:23:31.17	9.58	18.29	-39.4	-40.5	21.9	0.00e+00	0	28	0	758120448	52	6062
2026-01-26 21:23:32.18	9.35	18.25	-39.4	-40.5	22.1	0.00e+00	0	28	0	760217600	52	6055
2026-01-26 21:23:33.19	9.12	18.22	-39.3	-40.4	22.1	0.00e+00	0	28	0	761266176	52	6003
2026-01-26 21:23:34.19	8.90	18.19	-39.4	-40.5	21.8	0.00e+00	0	28	0	763363328	52	6078
2026-01-26 21:23:35.20	8.67	18.15	-39.4	-40.6	21.8	0.00e+00	0	28	0	765460480	52	6105
2026-01-26 21:23:36.21	8.44	18.12	-39.3	-40.4	21.9	0.00e+00	0	28	0	767557632	52	5988
2026-01-26 21:23:37.22	8.22	18.08	-39.4	-40.5	22.1	0.00e+00	0	28	0	769654784	52	6050
2026-01-26 21:23:38.23	7.99	18.05	-38.6	-39.6	22.7	0.00e+00	0	28	0	770703360	52	5468
2026-01-26 21:23:39.24	7.76	18.01	-38.4	-39.4	22.9	0.00e+00	0	28	0	772800512	50	5970
2026-01-26 21:23:40.25	7.54	17.97	-38.2	-39.1	23.0	0.00e+00	0	28	0	774897664	50	5824
2026-01-26 21:23:41.26	7.32	17.94	-38.3	-39.3	22.9	0.00e+00	0	28	0	776994816	50	5914
2026-01-26 21:23:42.27	7.09	17.90	-38.4	-39.3	22.9	0.00e+00	0	28	0	779091968	50	5954
2026-01-26 21:23:43.28	6.87	17.86	-38.4	-39.3	22.9	0.00e+00	0	28	0	780140544	50	5955
2026-01-26 21:23:44.29	6.65	17.82	-38.7	-39.7	22.5	0.00e+00	0	28	0	782237696	50	6192
2026-01-26 21:23:45.30	6.42	17.78	-38.4	-39.4	22.8	0.00e+00	0	28	0	784334848	50	6010
2026-01-26 21:23:46.31	6.20	17.75	-38.3	-39.2	23.0	0.00e+00	0	28	0	786432000	50	5868
2026-01-26 21:23:47.31	5.98	17.71	-38.4	-39.4	22.8	0.00e+00	0	28	0	788529152	50	5977
2026-01-26 21:23:48.33	5.76	17.67	-38.4	-39.3	22.8	0.00e+00	0	28	0	789577728	50	5959
2026-01-26 21:23:49.34	5.54	17.63	-38.4	-39.3	22.9	0.00e+00	0	28	0	791674880	50	5955
2026-01-26 21:23:50.35	5.32	17.59	-38.3	-39.2	22.8	0.00e+00	0	28	0	793772032	50	5873
2026-01-26 21:23:51.36	5.11	17.55	-38.0	-38.9	23.1	0.00e+00	0	28	0	795869184	50	5694
2026-01-26 21:23:52.37	4.89	17.50	-37.6	-38.5	23.5	0.00e+00	0	28	0	797966336	50	5422
2026-01-26 21:23:53.38	4.67	17.46	-37.5	-38.4	23.6	0.00e+00	0	28	0	799014912	48	5971
2026-01-26 21:23:54.39	4.45	17.42	-36.9	-37.8	24.0	0.00e+00	0	28	0	801112064	48	5574
2026-01-26 21:23:55.40	4.24	17.38	-37.1	-37.9	23.8	0.00e+00	0	28	0	803209216	48	5681
2026-01-26 21:23:56.41	4.02	17.34	-37.1	-38.0	23.9	0.00e+00	0	28	0	805306368	48	5724
2026-01-26 21:23:57.42	3.81	17.29	-37.2	-38.1	23.8	0.00e+00	0	28	0	807403520	48	5783
2026-01-26 21:23:58.43	3.59	17.25	-37.2	-38.1	23.5	0.00e+00	0	28	0	809500672	48	5777
2026-01-26 21:23:59.44	3.38	17.21	-37.1	-37.9	23.9	0.00e+00	0	28	0	810549248	48	5681
2026-01-26 21:24:00.45	3.17	17.16	-37.2	-38.0	23.7	0.00e+00	0	28	0	812646400	48	5742
2026-01-26 21:24:01.45	2.96	17.12	-37.6	-38.5	23.3	0.00e+00	0	28	0	814743552	48	6049
2026-01-26 21:24:02.46	2.75	17.07	-38.3	-39.2	22.9	0.00e+00	0	28	0	816840704	48	6613
2026-01-26 21:24:03.47	2.53	17.03	-38.6	-39.6	22.6	0.00e+00	0	28	0	818937856	48	6896
2026-01-26 21:24:04.48	2.32	16.98	-39.2	-40.3	22.0	0.00e+00	0	28	0	819986432	50	6656
2026-01-26 21:24:05.49	2.11	16.94	-39.2	-40.3	22.0	0.00e+00	0	28	0	822083584	50	6648
2026-01-26 21:24:06.50	1.90	16.89	-39.2	-40.3	22.1	0.00e+00	0	28	0	824180736	50	6672
2026-01-26 21:24:07.51	1.70	16.85	-39.2	-40.2	22.2	0.00e+00	0	28	0	826277888	50	6611
2026-01-26 21:24:08.52	1.49	16.80	-39.1	-40.2	22.2	0.00e+00	0	28	0	828375040	50	6578
2026-01-26 21:24:09.53	1.28	16.75	-39.4	-40.5	21.9	0.00e+00	0	28	0	829423616	50	6831
2026-01-26 21:24:10.54	1.08	16.71	-39.5	-40.6	21.5	0.00e+00	0	28	0	831520768	50	6893
2026-01-26 21:24:11.55	0.87	16.66	-39.9	-41.1	21.2	0.00e+00	0	28	0	833617920	52	6527
2026-01-26 21:24:12.56	0.66	16.61	-39.5	-40.6	21.8	0.00e+00	0	28	0	835715072	52	6147
2026-01-26 21:24:13.57	0.46	16.56	-39.5	-40.5	21.8	0.00e+00	0	28	0	837812224	52	6102
2026-01-26 21:24:14.58	0.26	16.52	-39.5	-40.6	21.7	0.00e+00	0	28	0	838860800	52	6123
2026-01-26 21:24:15.59	0.05	16.47	-39.6	-40.7	21.7	0.00e+00	0	28	0	840957952	52	6193
2026-01-26 21:24:16.60	359.85	16.42	-39.7	-40.8	21.7	0.00e+00	0	28	0	843055104	52	6282
2026-01-26 21:24:17.61	359.65	16.37	-39.4	-40.5	22.0	0.00e+00	0	28	0	845152256	52	6097
2026-01-26 21:24:18.61	359.45	16.32	-38.7	-39.7	22.5	0.00e+00	0	28	0	847249408	50	6198
2026-01-26 21:24:19.63	359.25	16.27	-38.9	-39.9	22.4	0.00e+00	0	28	0	848297984	50	6352
2026-01-26 21:24:20.63	359.05	16.22	-38.3	-39.2	22.9	0.00e+00	0	28	0	850395136	50	5890
2026-01-26 21:24:21.65	358.85	16.17	-38.6	-39.6	22.6	0.00e+00	0	28	0	852492288	50	6136
2026-01-26 21:24:22.65	358.65	16.12	-38.4	-39.4	22.9	0.00e+00	0	28	0	854589440	50	5977
2026-01-26 21:24:23.67	358.45	16.07	-38.1	-39.0	23.0	0.00e+00	0	28	0	856686592	50	5753
2026-01-26 21:24:24.67	358.26	16.02	-37.8	-38.7	23.4	0.00e+00	0	28	0	857735168	50	5519
2026-01-26 21:24:25.68	358.06	15.97	-37.8	-38.7	23.3	0.00e+00	0	28	0	859832320	48	6212
2026-01-26 21:24:26.69	357.86	15.92	-37.8	-38.7	23.1	0.00e+00	0	28	0	861929472	48	6211
2026-01-26 21:24:27.70	357.67	15.87	-37.9	-38.8	23.2	0.00e+00	0	28	0	864026624	48	6276
2026-01-26 21:24:28.71	357.47	15.82	-37.8	-38.7	23.2	0.00e+00	0	28	0	866123776	48	6217
2026-01-26 21:24:29.72	357.28	15.76	-38.0	-38.9	23.1	0.00e+00	0	28	0	867172352	48	6365
2026-01-26 21:24:30.73	357.09	15.71	-38.4	-39.4	22.7	0.00e+00	0	28	0	869269504	48	6732
2026-01-26 21:24:31.74	356.90	15.66	-38.7	-39.7	22.5	0.00e+00	0	28	0	871366656	50	6230
2026-01-26 21:24:32.75	356.70	15.61	-38.9	-39.9	22.4	0.00e+00	0	28	0	873463808	50	6348
2026-01-26 21:24:33.76	356.51	15.55	-39.2	-40.2	22.2	0.00e+00	0	28	0	875560960	50	6612
2026-01-26 21:24:34.77	356.32	15.50	-38.5	-39.4	22.7	0.00e+00	0	28	0	877658112	50	6033
2026-01-26 21:24:35.77	356.13	15.45	-38.5	-39.4	22.8	0.00e+00	0	28	0	878706688	50	6007
2026-01-26 21:24:36.78	355.95	15.40	-38.0	-38.9	23.1	0.00e+00	0	28	0	880803840	50	5676
2026-01-26 21:24:37.79	355.76	15.34	-37.9	-38.9	23.1	0.00e+00	0	28	0	882900992	50	5639
2026-01-26 21:24:38.80	355.57	15.29	-37.8	-38.7	23.3	0.00e+00	0	28	0	884998144	48	6201
2026-01-26 21:24:39.81	355.38	15.23	-38.2	-39.1	22.9	0.00e+00	0	28	0	886046720	48	6516
2026-01-26 21:24:40.82	355.20	15.18	-38.2	-39.1	22.9	0.00e+00	0	28	0	888143872	48	6508
2026-01-26 21:24:41.83	355.01	15.13	-38.8	-39.9	22.3	0.00e+00	0	28	0	890241024	48	7095
2026-01-26 21:24:42.84	354.83	15.07	-39.3	-40.3	21.8	0.00e+00	0	28	0	892338176	50	6680
2026-01-26 21:24:43.85	354.64	15.02	-39.8	-41.0	21.4	0.00e+00	0	28	0	894435328	50	7174
2026-01-26 21:24:44.86	354.46	14.96	-40.0	-41.2	21.3	0.00e+00	0	28	0	896532480	52	6561
2026-01-26 21:24:45.87	354.28	14.91	-40.5	-41.7	20.7	0.00e+00	0	28	0	897581056	52	6984
2026-01-26 21:24:46.88	354.09	14.85	-40.7	-42.0	20.5	0.00e+00	0	28	0	899678208	54	6455
2026-01-26 21:24:47.89	353.91	14.80	-40.7	-42.1	20.3	0.00e+00	0	28	0	901775360	54	6496
2026-01-26 21:24:48.90	353.73	14.74	-40.4	-41.7	20.8	0.00e+00	0	28	0	903872512	54	6177
2026-01-26 21:24:49.91	353.55	14.69	-40.1	-41.3	21.1	0.00e+00	0	28	0	905969664	54	5952
2026-01-26 21:24:50.92	353.37	14.63	-40.1	-41.4	21.1	0.00e+00	0	28	0	907018240	54	5980
2026-01-26 21:24:51.93	353.19	14.57	-39.9	-41.1	21.3	0.00e+00	0	28	0	909115392	54	5797
2026-01-26 21:24:52.94	353.02	14.52	-39.9	-41.0	21.3	0.00e+00	0	28	0	911212544	52	6464
2026-01-26 21:24:53.95	352.84	14.46	-39.8	-41.0	21.4	0.00e+00	0	28	0	913309696	52	6431
2026-01-26 21:24:54.96	352.66	14.40	-39.8	-40.9	21.4	0.00e+00	0	28	0	915406848	52	6367
2026-01-26 21:24:55.97	352.49	14.35	-39.5	-40.6	21.7	0.00e+00	0	28	0	916455424	52	6169
2026-01-26 21:24:56.98	352.31	14.29	-39.5	-40.6	21.7	0.00e+00	0	28	0	918552576	52	6146
2026-01-26 21:24:57.99	352.14	14.23	-39.3	-40.4	21.8	0.00e+00	0	28	0	920649728	52	6020
2026-01-26 21:24:59.00	351.96	14.18	-39.0	-40.1	22.0	0.00e+00	0	28	0	922746880	52	5792
2026-01-26 21:25:00.01	351.79	14.12	-38.9	-39.9	22.3	0.00e+00	0	28	0	924844032	52	5691
2026-01-26 21:25:01.02	351.62	14.06	-38.9	-40.0	22.3	0.00e+00	0	28	0	925892608	52	5708
2026-01-26 21:25:02.03	351.44	14.01	-39.1	-40.1	22.0	0.00e+00	0	28	0	927989760	52	5812
2026-01-26 21:25:03.04	351.27	13.95	-39.4	-40.5	21.7	0.00e+00	0	28	0	930086912	52	6093
2026-01-26 21:25:04.05	351.10	13.89	-39.7	-40.9	21.5	0.00e+00	0	28	0	932184064	52	6357
2026-01-26 21:25:05.06	350.93	13.83	-39.8	-41.0	21.4	0.00e+00	0	28	0	934281216	52	6407
2026-01-26 21:25:06.07	350.76	13.78	-39.9	-41.0	21.3	0.00e+00	0	28	0	935329792	52	6464
2026-01-26 21:25:07.08	350.60	13.72	-39.6	-40.8	21.6	0.00e+00	0	28	0	937426944	52	6276
2026-01-26 21:25:08.09	350.43	13.66	-39.5	-40.6	21.7	0.00e+00	0	28	0	939524096	52	6142
2026-01-26 21:25:09.10	350.26	13.60	-39.2	-40.2	22.0	0.00e+00	0	28	0	941621248	52	5896
2026-01-26 21:25:10.11	350.09	13.54	-39.1	-40.1	22.0	0.00e+00	0	28	0	943718400	52	5804
2026-01-26 21:25:11.12	349.93	13.49	-38.7	-39.8	22.3	0.00e+00	0	28	0	945815552	52	5569
2026-01-26 21:25:12.13	349.76	13.43	-38.5	-39.5	22.5	0.00e+00	0	28	0	946864128	50	6046
2026-01-26 21:25:13.14	349.60	13.37	-38.5	-39.5	22.5	0.00e+00	0	28	0	948961280	50	6062
2026-01-26 21:25:14.15	349.43	13.31	-38.5	-39.5	22.7	0.00e+00	0	28	0	951058432	50	6082
2026-01-26 21:25:15.16	349.27	13.25	-38.6	-39.6	22.4	0.00e+00	0	28	0	953155584	50	6126
2026-01-26 21:25:16.17	349.11	13.19	-38.7	-39.7	22.4	0.00e+00	0	28	0	955252736	50	6207
2026-01-26 21:25:17.17	348.95	13.13	-38.9	-39.9	22.2	0.00e+00	0	28	0	956301312	50	6356
2026-01-26 21:25:18.18	348.79	13.07	-39.0	-40.0	22.0	0.00e+00	0	28	0	958398464	50	6461
2026-01-26 21:25:19.19	348.63	13.02	-39.1	-40.2	22.0	0.00e+00	0	28	0	960495616	50	6566
2026-01-26 21:25:20.20	348.47	12.96	-39.3	-40.4	21.8	0.00e+00	0	28	0	962592768	50	6756
2026-01-26 21:25:21.21	348.31	12.90	-39.5	-40.7	21.6	0.00e+00	0	28	0	964689920	50	6933
2026-01-26 21:25:22.22	348.15	12.84	-39.3	-40.4	21.8	0.00e+00	0	28	0	965738496	50	6762
2026-01-26 21:25:23.23	347.99	12.78	-39.3	-40.4	21.9	0.00e+00	0	28	0	967835648	50	6729
2026-01-26 21:25:24.24	347.83	12.72	-39.1	-40.2	22.1	0.00e+00	0	28	0	969932800	50	6540
2026-01-26 21:25:25.25	347.68	12.66	-39.0	-40.1	22.0	0.00e+00	0	28	0	972029952	50	6495
2026-01-26 21:25:26.26	347.52	12.60	-38.9	-40.0	22.1	0.00e+00	0	28	0	974127104	50	6402
2026-01-26 21:25:27.27	347.37	12.54	-38.7	-39.8	22.2	0.00e+00	0	28	0	975175680	50	6268
2026-01-26 21:25:28.28	347.21	12.48	-38.8	-39.8	22.3	0.00e+00	0	28	0	977272832	50	6278
2026-01-26 21:25:29.29	347.06	12.42	-38.7	-39.8	22.2	0.00e+00	0	28	0	979369984	50	6252
2026-01-26 21:25:30.29	346.91	12.36	-38.5	-39.5	22.5	0.00e+00	0	28	0	981467136	50	6081
2026-01-26 21:25:31.31	346.75	12.30	-38.4	-39.4	22.6	0.00e+00	0	28	0	983564288	50	6030
2026-01-26 21:25:32.31	346.60	12.24	-38.1	-39.0	22.8	0.00e+00	0	28	0	984612864	50	5730
2026-01-26 21:25:33.32	346.45	12.18	-38.0	-39.0	23.0	0.00e+00	0	28	0	986710016	50	5716
2026-01-26 21:25:34.34	346.30	12.12	-37.5	-38.4	23.3	0.00e+00	0	28	0	988807168	48	6020
2026-01-26 21:25:35.35	346.15	12.06	-37.5	-38.4	23.4	0.00e+00	0	28	0	990904320	48	6005
2026-01-26 21:25:36.36	346.00	12.00	-37.4	-38.3	23.5	0.00e+00	0	28	0	993001472	48	5938
2026-01-26 21:25:37.37	345.85	11.94	-36.9	-37.8	23.8	0.00e+00	0	28	0	994050048	48	5600
2026-01-26 21:25:38.38	345.70	11.88	-37.1	-37.9	23.7	0.00e+00	0	28	0	996147200	48	5682
2026-01-26 21:25:39.38	345.55	11.82	-37.2	-38.1	23.6	0.00e+00	0	28	0	998244352	48	5765
2026-01-26 21:25:40.39	345.41	11.76	-37.2	-38.1	23.6	0.00e+00	0	28	0	1000341504	48	5782
2026-01-26 21:25:41.40	345.26	11.70	-37.4	-38.3	23.4	0.00e+00	0	28	0	1002438656	48	5907
2026-01-26 21:25:42.41	345.11	11.64	-37.6	-38.6	23.3	0.00e+00	0	28	0	1003487232	48	6112
2026-01-26 21:25:43.42	344.97	11.58	-38.0	-39.0	22.9	0.00e+00	0	28	0	1005584384	48	6458
2026-01-26 21:25:44.43	344.82	11.52	-38.1	-39.1	22.8	0.00e+00	0	28	0	1007681536	48	6478
2026-01-26 21:25:45.44	344.68	11.46	-38.2	-39.2	22.7	0.00e+00	0	28	0	1009778688	48	6596
2026-01-26 21:25:46.45	344.54	11.40	-38.3	-39.3	22.7	0.00e+00	0	28	0	1011875840	48	6683
2026-01-26 21:25:47.46	344.39	11.34	-38.3	-39.3	22.6	0.00e+00	0	28	0	1012924416	48	6687
2026-01-26 21:25:48.47	344.25	11.28	-38.2	-39.2	22.7	0.00e+00	0	28	0	1015021568	48	6595
2026-01-26 21:25:49.48	344.11	11.22	-38.2	-39.2	22.8	0.00e+00	0	28	0	1017118720	48	6549
2026-01-26 21:25:50.49	343.97	11.16	-38.1	-39.0	22.8	0.00e+00	0	28	0	1019215872	48	6456
2026-01-26 21:25:51.50	343.83	11.10	-37.8	-38.7	23.0	0.00e+00	0	28	0	1021313024	48	6209
2026-01-26 21:25:52.51	343.69	11.04	-37.8	-38.7	23.1	0.00e+00	0	28	0	1022361600	48	6224
2026-01-26 21:25:53.52	343.55	10.97	-37.7	-38.6	23.1	0.00e+00	0	28	0	1024458752	48	6168
2026-01-26 21:25:54.53	343.41	10.91	-37.8	-38.7	23.1	0.00e+00	0	28	0	1026555904	48	6222
2026-01-26 21:25:55.53	343.27	10.85	-37.6	-38.5	23.2	0.00e+00	0	28	0	1028653056	48	6087
2026-01-26 21:25:56.54	343.14	10.79	-37.7	-38.7	23.2	0.00e+00	0	28	0	1030750208	48	6181
2026-01-26 21:25:57.55	343.00	10.73	-37.9	-38.8	23.0	0.00e+00	0	28	0	1031798784	48	6286
2026-01-26 21:25:58.56	342.86	10.67	-37.9	-38.8	22.9	0.00e+00	0	28	0	1033895936	48	6304
2026-01-26 21:25:59.57	342.73	10.61	-38.0	-39.0	22.9	0.00e+00	0	28	0	1035993088	48	6407
2026-01-26 21:26:00.58	342.59	10.55	-38.1	-39.1	22.8	0.00e+00	0	28	0	1038090240	48	6487
2026-01-26 21:26:01.59	342.46	10.49	-38.2	-39.2	22.7	0.00e+00	0	28	0	1040187392	48	6559
2026-01-26 21:26:02.60	342.32	10.43	-38.2	-39.2	22.7	0.00e+00	0	27	0	1042284544	48	6611
2026-01-26 21:26:03.61	342.19	10.37	-38.5	-39.5	22.4	0.00e+00	0	28	0	1043333120	48	6835
2026-01-26 21:26:04.62	342.06	10.31	-38.6	-39.6	22.4	0.00e+00	0	28	0	1045430272	48	6897
2026-01-26 21:26:05.63	341.92	10.25	-38.6	-39.6	22.3	0.00e+00	0	28	0	1047527424	48	6920
2026-01-26 21:26:06.65	341.79	10.19	-38.8	-39.9	22.1	0.00e+00	0	28	0	1049624576	50	6355
2026-01-26 21:26:07.66	341.66	10.13	-38.7	-39.8	22.2	0.00e+00	0	27	0	1051721728	50	6291
2026-01-26 21:26:08.67	341.53	10.06	-38.9	-40.0	22.1	0.00e+00	0	28	0	1052770304	50	6450
2026-01-26 21:26:09.68	341.40	10.00	-38.9	-40.0	22.0	0.00e+00	0	27	0	1054867456	50	6418
2026-01-26 21:26:10.68	341.27	9.94	-39.0	-40.1	21.9	0.00e+00	0	28	0	1056964608	50	6520
2026-01-26 21:26:11.69	341.14	9.88	-38.6	-39.7	22.2	0.00e+00	0	27	0	1059061760	50	6213
2026-01-26 21:26:12.70	341.01	9.82	-38.5	-39.6	22.2	0.00e+00	0	27	0	1061158912	50	6104
2026-01-26 21:26:13.71	340.88	9.76	-38.1	-39.1	22.3	0.00e+00	0	28	0	1062207488	50	5813
2026-01-26 21:26:14.72	340.76	9.70	-38.0	-39.0	22.8	0.00e+00	0	28	0	1064304640	50	5716
2026-01-26 21:26:15.73	340.63	9.64	-37.9	-38.9	22.8	0.00e+00	0	27	0	1066401792	50	5651
2026-01-26 21:26:16.74	340.50	9.58	-37.9	-38.9	22.8	0.00e+00	0	27	0	1068498944	50	5656
2026-01-26 21:26:17.75	340.38	9.52	-37.9	-38.9	23.0	0.00e+00	0	28	0	1070596096	50	5646
2026-01-26 21:26:18.76	340.25	9.46	-37.5	-38.4	23.0	0.00e+00	0	28	0	1071644672	48	6020
2026-01-26 21:26:19.77	340.13	9.40	-37.7	-38.6	22.4	0.00e+00	0	28	0	1073741824	48	6170
2026-01-26 21:26:20.78	340.00	9.34	-37.9	-38.9	22.4	0.00e+00	0	28	0	1075838976	48	6372
2026-01-26 21:26:21.79	339.88	9.28	-38.1	-39.1	22.6	0.00e+00	0	28	0	1077936128	48	6472
2026-01-26 21:26:22.80	339.76	9.22	-38.5	-39.5	22.3	0.00e+00	0	28	0	1080033280	48	6806
2026-01-26 21:26:23.81	339.63	9.16	-38.8	-39.9	22.1	0.00e+00	0	28	0	1081081856	50	6337
2026-01-26 21:26:24.82	339.51	9.09	-39.0	-40.1	21.8	0.00e+00	0	28	0	1083179008	50	6525
2026-01-26 21:26:25.83	339.39	9.03	-39.3	-40.5	21.5	0.00e+00	0	28	0	1085276160	50	6788
2026-01-26 21:26:26.84	339.27	8.97	-39.6	-40.8	21.2	0.00e+00	0	27	0	1087373312	50	7029
2026-01-26 21:26:27.85	339.15	8.91	-39.5	-40.7	21.4	0.00e+00	0	27	0	1089470464	50	6928
2026-01-26 21:26:28.86	339.03	8.85	-39.4	-40.5	21.3	0.00e+00	0	28	0	1090519040	50	6830
2026-01-26 21:26:29.87	338.91	8.79	-39.2	-40.3	21.7	0.00e+00	0	27	0	1092616192	50	6646
2026-01-26 21:26:30.88	338.79	8.73	-39.0	-40.1	21.9	0.00e+00	0	27	0	1094713344	50	6505
2026-01-26 21:26:31.89	338.67	8.67	-39.2	-40.4	21.4	0.00e+00	0	27	0	1096810496	50	6697
2026-01-26 21:26:32.90	338.55	8.61	-39.2	-40.3	21.9	0.00e+00	0	27	0	1098907648	50	6645
2026-01-26 21:26:33.91	338.44	8.55	-38.7	-39.7	22.1	0.00e+00	0	27	0	1101004800	50	6212
2026-01-26 21:26:34.92	338.32	8.49	-38.6	-39.7	22.2	0.00e+00	0	27	0	1102053376	50	6174
2026-01-26 21:26:35.93	338.20	8.43	-38.6	-39.6	22.2	0.00e+00	0	27	0	1104150528	50	6152
2026-01-26 21:26:36.94	338.09	8.37	-38.8	-39.8	22.1	0.00e+00	0	27	0	1106247680	50	6309
2026-01-26 21:26:37.95	337.97	8.31	-38.9	-40.0	22.0	0.00e+00	0	27	0	1108344832	50	6446
2026-01-26 21:26:38.96	337.86	8.25	-38.9	-40.0	22.0	0.00e+00	0	27	0	1110441984	50	6450
2026-01-26 21:26:39.97	337.74	8.19	-38.7	-39.8	22.2	0.00e+00	0	27	0	1111490560	50	6272
2026-01-26 21:26:40.98	337.63	8.13	-39.1	-40.2	21.7	0.00e+00	0	27	0	1113587712	50	6572
2026-01-26 21:26:41.99	337.52	8.07	-39.2	-40.3	21.7	0.00e+00	0	27	0	1115684864	50	6627
2026-01-26 21:26:43.00	337.40	8.01	-39.1	-40.2	21.7	0.00e+00	0	27	0	1117782016	50	6581
2026-01-26 21:26:44.00	337.29	7.95	-39.3	-40.4	21.6	0.00e+00	0	27	0	1119879168	50	6752
2026-01-26 21:26:45.01	337.18	7.89	-39.4	-40.5	21.4	0.00e+00	0	27	0	1120927744	50	6814
2026-01-26 21:26:46.02	337.07	7.83	-39.4	-40.6	21.4	0.00e+00	0	28	0	1123024896	50	6885
2026-01-26 21:26:47.03	336.96	7.77	-39.7	-40.8	21.1	0.00e+00	0	27	0	1125122048	50	7087
2026-01-26 21:26:48.04	336.85	7.71	-39.8	-41.0	20.9	0.00e+00	0	27	0	1127219200	50	7248
2026-01-26 21:26:49.05	336.73	7.65	-39.9	-41.1	20.9	0.00e+00	0	27	0	1129316352	52	6489
2026-01-26 21:26:50.06	336.63	7.59	-40.0	-41.2	20.9	0.00e+00	0	27	0	1130364928	52	6574
2026-01-26 21:26:51.07	336.52	7.53	-40.0	-41.2	20.8	0.00e+00	0	27	0	1132462080	52	6577
2026-01-26 21:26:52.08	336.41	7.47	-40.0	-41.3	20.8	0.00e+00	0	27	0	1134559232	52	6621
2026-01-26 21:26:53.09	336.30	7.41	-40.3	-41.6	20.5	0.00e+00	0	27	0	1136656384	52	6875
2026-01-26 21:26:54.09	336.19	7.35	-40.0	-41.2	20.9	0.00e+00	0	27	0	1138753536	52	6569
2026-01-26 21:26:55.10	336.08	7.29	-39.9	-41.1	20.9	0.00e+00	0	27	0	1139802112	52	6498
2026-01-26 21:26:56.11	335.98	7.23	-40.0	-41.2	20.9	0.00e+00	0	27	0	1141899264	52	6578
2026-01-26 21:26:57.12	335.87	7.17	-40.0	-41.2	20.8	0.00e+00	0	27	0	1143996416	52	6579
2026-01-26 21:26:58.13	335.76	7.11	-40.0	-41.2	20.8	0.00e+00	0	27	0	1146093568	52	6553
2026-01-26 21:26:59.14	335.66	7.06	-39.6	-40.8	21.1	0.00e+00	0	27	0	1148190720	52	6275
2026-01-26 21:27:00.15	335.55	7.00	-39.7	-40.9	21.1	0.00e+00	0	27	0	1149239296	52	6340
2026-01-26 21:27:01.16	335.45	6.94	-39.6	-40.8	21.2	0.00e+00	0	27	0	1151336448	52	6246
2026-01-26 21:27:02.18	335.34	6.88	-40.0	-41.2	20.9	0.00e+00	0	27	0	1153433600	52	6588
2026-01-26 21:27:03.18	335.24	6.82	-40.1	-41.4	20.5	0.00e+00	0	27	0	1155530752	52	6732
2026-01-26 21:27:04.19	335.14	6.76	-40.3	-41.6	20.4	0.00e+00	0	27	0	1157627904	52	6885
2026-01-26 21:27:05.20	335.03	6.70	-40.6	-41.9	20.1	0.00e+00	0	27	0	1158676480	52	7156
2026-01-26 21:27:06.21	334.93	6.64	-40.7	-42.1	19.8	0.00e+00	0	27	0	1160773632	52	7325
2026-01-26 21:27:07.22	334.83	6.58	-41.0	-42.4	19.6	0.00e+00	0	27	0	1162870784	54	6767
2026-01-26 21:27:08.23	334.73	6.52	-40.9	-42.3	19.7	0.00e+00	0	27	0	1164967936	54	6632
2026-01-26 21:27:09.24	334.63	6.46	-41.0	-42.5	19.4	0.00e+00	0	27	0	1167065088	54	6777
2026-01-26 21:27:10.25	334.53	6.41	-41.0	-42.4	19.4	0.00e+00	0	27	0	1168113664	54	6749
2026-01-26 21:27:11.27	334.42	6.35	-41.1	-42.6	19.2	0.00e+00	0	27	0	1170210816	54	6871
2026-01-26 21:27:12.28	334.32	6.29	-40.9	-42.4	19.4	0.00e+00	0	27	0	1172307968	54	6749
2026-01-26 21:27:13.29	334.22	6.23	-41.0	-42.4	19.1	0.00e+00	0	27	0	1174405120	54	6760
2026-01-26 21:27:14.29	334.13	6.17	-41.4	-43.0	18.7	0.00e+00	0	27	0	1176502272	54	7208
2026-01-26 21:27:15.30	334.03	6.11	-41.0	-42.5	19.0	0.00e+00	0	27	0	1178599424	54	6807
2026-01-26 21:27:16.31	333.93	6.05	-40.9	-42.5	19.0	0.00e+00	0	27	0	1179648000	54	6793
2026-01-26 21:27:17.32	333.83	5.99	-40.8	-42.3	19.2	0.00e+00	0	27	0	1181745152	54	6666
2026-01-26 21:27:18.32	333.73	5.94	-40.8	-42.3	19.0	0.00e+00	0	27	0	1183842304	54	6671
2026-01-26 21:27:19.33	333.64	5.88	-40.9	-42.5	18.8	0.00e+00	0	27	0	1185939456	54	6798
2026-01-26 21:27:20.34	333.54	5.82	-41.0	-42.6	18.6	0.00e+00	0	27	0	1188036608	54	6922
2026-01-26 21:27:21.35	333.44	5.76	-41.0	-42.6	18.6	0.00e+00	0	27	0	1189085184	54	6908
2026-01-26 21:27:22.36	333.35	5.70	-40.9	-42.5	18.6	0.00e+00	0	27	0	1191182336	54	6846
2026-01-26 21:27:23.37	333.25	5.64	-41.4	-43.2	17.9	0.00e+00	0	27	0	1193279488	54	7413
2026-01-26 21:27:24.38	333.16	5.59	-41.5	-43.3	17.8	0.00e+00	0	27	0	1195376640	54	7461
2026-01-26 21:27:25.39	333.06	5.53	-41.2	-43.1	17.7	0.00e+00	0	27	0	1197473792	54	7261
2026-01-26 21:27:26.39	332.97	5.47	-41.5	-43.3	17.7	0.00e+00	0	27	0	1198522368	54	7499
2026-01-26 21:27:27.41	332.87	5.41	-41.4	-43.3	17.7	0.00e+00	0	27	0	1200619520	54	7443
2026-01-26 21:27:28.42	332.78	5.35	-41.4	-43.2	17.9	0.00e+00	0	27	0	1202716672	54	7416
2026-01-26 21:27:29.43	332.69	5.30	-41.6	-43.4	17.6	0.00e+00	0	27	0	1204813824	54	7564
2026-01-26 21:27:30.44	332.59	5.24	-41.5	-43.2	18.0	0.00e+00	0	27	0	1206910976	54	7408
2026-01-26 21:27:31.45	332.50	5.18	-41.5	-43.3	17.9	0.00e+00	0	27	0	1207959552	54	7504
2026-01-26 21:27:32.46	332.41	5.12	-41.0	-42.6	18.7	0.00e+00	0	27	0	1210056704	54	6918
