passes_logs/2025/01/18/LEX_Murmansk/LEX_Murmansk__20250118_184828_NOAA_18_rec.log

#Pass ID: 20250118_184828_NOAA 18
#Satellite: NOAA 18
#Configuration: NOAA 18
#Start time: 2025-01-18 18:48:23.238442

#LorettStation: 1.0.0 05.05.2024
#Station: LEX_Murmansk
#Location: 33.156738 lon 68.926811 lat
#TLE: 1 28654U 05018A   25018.13582066  .00000389  00000+0  23006-3 0  9999
#TLE: 2 28654  98.8561  99.1591 0014505 170.4027 189.7425 14.13489305 13620

#Time	Az	El	Level	SNR
2025-01-18 18:48:35.390330	149.9	16.3	-90.2	5.6
2025-01-18 18:48:36.552118	149.9	16.4	-90.7	5.4
2025-01-18 18:48:37.713725	149.9	16.6	-90.8	5.7
2025-01-18 18:48:38.873307	149.9	16.7	-90.5	5.3
2025-01-18 18:48:40.026091	149.9	16.8	-90.1	6.2
2025-01-18 18:48:41.186706	149.9	17.0	-90.6	6.4
2025-01-18 18:48:42.314759	149.9	17.1	-91.0	5.6
2025-01-18 18:48:43.459604	149.9	17.2	-90.3	6.9
2025-01-18 18:48:44.625754	149.9	17.4	-91.0	5.0
2025-01-18 18:48:45.761975	149.9	17.5	-91.1	4.6
2025-01-18 18:48:46.920615	149.9	17.6	-90.8	5.2
2025-01-18 18:48:48.071440	149.9	17.8	-91.3	4.9
2025-01-18 18:48:49.238725	149.9	17.9	-90.4	6.3
2025-01-18 18:48:50.404339	149.9	18.0	-91.1	5.5
2025-01-18 18:48:51.562673	149.9	18.2	-91.0	4.0
2025-01-18 18:48:52.718013	149.9	18.3	-90.4	5.8
2025-01-18 18:48:53.852846	149.9	18.4	-90.9	6.4
2025-01-18 18:48:54.996934	149.9	18.6	-90.9	6.6
2025-01-18 18:48:56.151434	149.9	18.7	-90.5	7.8
2025-01-18 18:48:57.300405	149.9	18.9	-90.4	10.1
2025-01-18 18:48:58.448026	149.9	19.0	-90.8	8.7
2025-01-18 18:48:59.604248	149.9	19.2	-90.8	8.2
2025-01-18 18:49:00.750014	149.8	19.3	-90.4	9.1
2025-01-18 18:49:01.880158	149.8	19.4	-90.7	7.9
2025-01-18 18:49:03.034277	149.8	19.6	-91.4	7.6
2025-01-18 18:49:04.186374	149.8	19.7	-90.7	10.5
2025-01-18 18:49:05.341452	149.8	19.9	-91.0	9.2
2025-01-18 18:49:06.496873	149.8	20.0	-90.8	6.2
2025-01-18 18:49:07.651314	149.8	20.2	-90.4	8.9
2025-01-18 18:49:08.805700	149.8	20.3	-90.8	10.8
2025-01-18 18:49:09.946429	149.8	20.5	-90.7	12.7
2025-01-18 18:49:11.080740	149.8	20.6	-90.7	9.1
2025-01-18 18:49:12.228444	149.8	20.8	-90.5	10.0
2025-01-18 18:49:13.379826	149.8	20.9	-90.9	7.5
2025-01-18 18:49:14.531963	149.8	21.1	-90.5	8.6
2025-01-18 18:49:15.684881	149.8	21.2	-90.9	8.7
2025-01-18 18:49:16.839565	149.8	21.4	-90.6	8.4
2025-01-18 18:49:18.004271	149.8	21.5	-91.1	5.6
2025-01-18 18:49:19.161443	149.8	21.7	-91.0	6.3
2025-01-18 18:49:20.306752	149.8	21.9	-90.9	8.5
2025-01-18 18:49:21.473174	149.8	22.0	-90.8	4.7
2025-01-18 18:49:22.631833	149.8	22.2	-90.4	5.8
2025-01-18 18:49:23.792782	149.8	22.4	-90.8	8.0
2025-01-18 18:49:24.959301	149.8	22.5	-90.9	8.8
2025-01-18 18:49:26.119271	149.8	22.7	-90.6	8.1
2025-01-18 18:49:27.277914	149.7	22.8	-90.7	8.3
2025-01-18 18:49:28.405369	149.7	23.0	-90.6	7.5
2025-01-18 18:49:29.550993	149.7	23.2	-90.6	7.2
2025-01-18 18:49:30.709436	149.7	23.3	-91.0	9.5
2025-01-18 18:49:31.849796	149.7	23.5	-90.9	9.5
2025-01-18 18:49:33.003804	149.7	23.7	-90.6	9.8
2025-01-18 18:49:34.159037	149.7	23.9	-91.0	9.3
2025-01-18 18:49:35.316084	149.7	24.0	-90.9	9.9
2025-01-18 18:49:36.472866	149.7	24.2	-91.1	6.1
2025-01-18 18:49:37.642224	149.7	24.4	-90.2	6.6
2025-01-18 18:49:38.800237	149.7	24.6	-90.4	9.7
2025-01-18 18:49:39.967578	149.7	24.7	-90.9	7.4
2025-01-18 18:49:41.134304	149.7	24.9	-91.1	11.5
2025-01-18 18:49:42.296137	149.7	25.1	-91.0	11.0
2025-01-18 18:49:43.452204	149.7	25.3	-90.7	11.8
2025-01-18 18:49:44.614272	149.7	25.5	-90.7	11.3
2025-01-18 18:49:45.783009	149.6	25.7	-90.3	12.7
2025-01-18 18:49:46.946466	149.6	25.8	-90.5	11.1
2025-01-18 18:49:48.114887	149.6	26.0	-91.1	12.9
2025-01-18 18:49:49.274492	149.6	26.2	-90.8	10.9
2025-01-18 18:49:50.436849	149.6	26.4	-90.9	8.9
2025-01-18 18:49:51.607888	149.6	26.6	-91.1	6.7
2025-01-18 18:49:52.765163	149.6	26.8	-91.3	5.9
2025-01-18 18:49:53.933363	149.6	27.0	-91.3	5.4
2025-01-18 18:49:55.103250	149.6	27.2	-91.0	5.1
2025-01-18 18:49:56.263830	149.6	27.4	-90.8	7.2
2025-01-18 18:49:57.428261	149.6	27.6	-90.9	4.0
2025-01-18 18:49:58.594423	149.6	27.8	-91.3	5.9
2025-01-18 18:49:59.754527	149.5	28.0	-91.1	7.5
2025-01-18 18:50:00.914916	149.5	28.2	-91.2	6.9
2025-01-18 18:50:02.077620	149.5	28.4	-91.1	7.0
2025-01-18 18:50:03.238680	149.5	28.6	-90.8	10.0
2025-01-18 18:50:04.399544	149.5	28.8	-90.9	9.8
2025-01-18 18:50:05.558898	149.5	29.0	-91.0	12.3
2025-01-18 18:50:06.722828	149.5	29.2	-90.9	10.5
2025-01-18 18:50:07.878530	149.5	29.4	-90.7	8.7
2025-01-18 18:50:09.018077	149.5	29.6	-91.0	4.4
2025-01-18 18:50:10.139474	149.5	29.8	-88.1	6.5
2025-01-18 18:50:11.259357	149.5	30.1	-90.6	7.7
2025-01-18 18:50:12.379843	149.4	30.3	-90.7	6.5
2025-01-18 18:50:13.500200	149.4	30.5	-90.4	8.5
2025-01-18 18:50:14.620808	149.4	30.7	-90.4	9.7
2025-01-18 18:50:15.742047	149.4	30.9	-90.7	8.7
2025-01-18 18:50:16.866617	149.4	31.1	-88.7	9.7
2025-01-18 18:50:17.991522	149.4	31.3	-90.7	10.3
2025-01-18 18:50:19.114274	149.4	31.6	-90.2	8.2
2025-01-18 18:50:20.257582	149.4	31.8	-90.6	8.4
2025-01-18 18:50:21.405319	149.3	32.0	-90.2	10.1
2025-01-18 18:50:22.548468	149.3	32.2	-90.1	9.3
2025-01-18 18:50:23.704453	149.3	32.5	-90.5	10.0
2025-01-18 18:50:24.860646	149.3	32.7	-90.3	10.6
2025-01-18 18:50:26.001578	149.3	32.9	-90.7	9.1
2025-01-18 18:50:27.138310	149.3	33.2	-90.6	9.2
2025-01-18 18:50:28.286203	149.3	33.4	-91.1	11.3
2025-01-18 18:50:29.429804	149.3	33.7	-91.0	6.9
2025-01-18 18:50:30.563689	149.2	33.9	-90.8	9.8
2025-01-18 18:50:31.720216	149.2	34.1	-87.6	8.5
2025-01-18 18:50:32.863411	149.2	34.4	-89.1	9.9
2025-01-18 18:50:34.002225	149.2	34.6	-89.1	9.1
2025-01-18 18:50:35.152510	149.2	34.9	-88.0	11.8
2025-01-18 18:50:36.307729	149.2	35.1	-86.7	11.1
2025-01-18 18:50:37.464721	149.1	35.4	-88.8	9.0
2025-01-18 18:50:38.619892	149.1	35.7	-90.5	14.6
2025-01-18 18:50:39.766560	149.1	35.9	-91.1	15.5
2025-01-18 18:50:40.933239	149.1	36.2	-91.1	13.0
2025-01-18 18:50:42.089497	149.1	36.5	-90.8	11.5
2025-01-18 18:50:43.250449	149.1	36.7	-90.6	14.1
2025-01-18 18:50:44.412262	149.0	37.0	-90.2	8.7
2025-01-18 18:50:45.575444	149.0	37.3	-91.0	6.7
2025-01-18 18:50:46.741377	149.0	37.5	-91.4	14.2
2025-01-18 18:50:47.902808	149.0	37.8	-90.8	10.5
2025-01-18 18:50:49.067732	149.0	38.1	-91.4	13.1
2025-01-18 18:50:50.229591	148.9	38.4	-91.2	13.9
2025-01-18 18:50:51.395109	148.9	38.7	-91.0	13.3
2025-01-18 18:50:52.557429	148.9	39.0	-90.7	11.2
2025-01-18 18:50:53.717346	148.9	39.2	-90.2	14.5
2025-01-18 18:50:54.877925	148.8	39.5	-89.8	15.1
2025-01-18 18:50:56.043195	148.8	39.8	-90.2	14.0
2025-01-18 18:50:57.211702	148.8	40.1	-90.2	12.7
2025-01-18 18:50:58.362340	148.8	40.4	-90.0	14.3
2025-01-18 18:50:59.526728	148.8	40.7	-89.9	14.3
2025-01-18 18:51:00.689526	148.7	41.0	-90.1	14.6
2025-01-18 18:51:01.849083	148.7	41.3	-90.1	14.0
2025-01-18 18:51:03.009463	148.7	41.6	-90.4	6.5
2025-01-18 18:51:04.172706	148.7	42.0	-90.7	13.9
2025-01-18 18:51:05.336585	148.6	42.3	-90.5	12.7
2025-01-18 18:51:06.501215	148.6	42.6	-90.6	10.4
2025-01-18 18:51:07.664135	148.6	42.9	-90.3	15.6
2025-01-18 18:51:08.823738	148.5	43.2	-90.5	14.3
2025-01-18 18:51:09.976666	148.5	43.6	-90.3	15.0
2025-01-18 18:51:11.121581	148.5	43.9	-90.4	16.1
2025-01-18 18:51:12.243045	148.4	44.2	-90.3	15.7
2025-01-18 18:51:13.363777	148.4	44.5	-90.5	16.2
2025-01-18 18:51:14.484375	148.4	44.8	-90.5	14.2
2025-01-18 18:51:15.605572	148.4	45.2	-91.0	16.5
2025-01-18 18:51:16.725731	148.3	45.5	-90.9	14.4
2025-01-18 18:51:17.845728	148.3	45.8	-90.8	15.5
2025-01-18 18:51:18.965886	148.2	46.2	-91.1	8.2
2025-01-18 18:51:20.091348	148.2	46.5	-91.2	8.8
2025-01-18 18:51:21.226537	148.2	46.9	-90.6	10.0
2025-01-18 18:51:22.396762	148.1	47.2	-90.1	6.2
2025-01-18 18:51:23.548856	148.1	47.6	-90.6	5.2
2025-01-18 18:51:24.708335	148.1	47.9	-90.8	3.2
2025-01-18 18:51:25.846960	148.0	48.3	-90.6	8.0
2025-01-18 18:51:26.971628	148.0	48.6	-90.9	10.1
2025-01-18 18:51:28.133938	147.9	49.0	-90.9	9.4
2025-01-18 18:51:29.283155	147.9	49.4	-90.5	11.2
2025-01-18 18:51:30.445792	147.8	49.8	-90.6	9.3
2025-01-18 18:51:31.598740	147.8	50.1	-91.1	12.0
2025-01-18 18:51:32.750316	147.7	50.5	-90.1	12.0
2025-01-18 18:51:33.910326	147.7	50.9	-90.1	9.0
2025-01-18 18:51:35.066964	147.6	51.3	-90.7	11.0
2025-01-18 18:51:36.225447	147.6	51.7	-90.6	12.2
2025-01-18 18:51:37.389647	147.5	52.1	-90.8	14.6
2025-01-18 18:51:38.548697	147.5	52.5	-90.8	16.7
2025-01-18 18:51:39.713939	147.4	52.9	-90.2	16.4
2025-01-18 18:51:40.875356	147.4	53.3	-90.5	15.3
2025-01-18 18:51:42.049853	147.3	53.7	-90.3	10.9
2025-01-18 18:51:43.201156	147.2	54.1	-90.6	15.7
2025-01-18 18:51:44.346594	147.2	54.5	-90.4	14.5
2025-01-18 18:51:45.474316	147.1	54.9	-91.3	9.0
2025-01-18 18:51:46.632041	147.0	55.3	-90.9	15.3
2025-01-18 18:51:47.771803	147.0	55.8	-90.3	19.1
2025-01-18 18:51:48.926451	146.9	56.2	-90.7	16.6
2025-01-18 18:51:50.087218	146.8	56.6	-90.7	17.4
2025-01-18 18:51:51.239304	146.7	57.0	-90.5	16.1
2025-01-18 18:51:52.389329	146.6	57.5	-91.2	17.9
2025-01-18 18:51:53.546226	146.6	57.9	-90.8	15.6
2025-01-18 18:51:54.703936	146.5	58.4	-90.8	16.6
2025-01-18 18:51:55.866627	146.4	58.8	-90.8	16.8
2025-01-18 18:51:57.030133	146.3	59.3	-91.3	13.2
2025-01-18 18:51:58.184452	146.2	59.7	-90.0	15.0
2025-01-18 18:51:59.346807	146.1	60.2	-89.6	17.9
2025-01-18 18:52:00.504786	146.0	60.6	-90.6	18.9
2025-01-18 18:52:01.664387	145.9	61.1	-90.6	19.2
2025-01-18 18:52:02.829321	145.8	61.6	-90.8	19.7
2025-01-18 18:52:03.985203	145.6	62.0	-90.6	16.2
2025-01-18 18:52:05.144409	145.5	62.5	-90.9	15.5
2025-01-18 18:52:06.297149	145.4	63.0	-90.9	17.6
2025-01-18 18:52:07.420873	145.3	63.4	-90.8	8.0
2025-01-18 18:52:08.573383	145.1	63.9	-90.5	10.7
2025-01-18 18:52:09.720936	145.0	64.4	-90.4	16.8
2025-01-18 18:52:10.841250	144.8	64.9	-90.6	18.6
2025-01-18 18:52:11.994792	144.7	65.4	-90.7	11.0
2025-01-18 18:52:13.134513	144.5	65.8	-90.6	11.5
2025-01-18 18:52:14.282815	144.3	66.3	-90.9	18.1
2025-01-18 18:52:15.431013	144.2	66.8	-90.8	17.6
2025-01-18 18:52:16.582347	144.0	67.3	-90.4	18.2
2025-01-18 18:52:17.710505	143.8	67.8	-90.6	16.6
2025-01-18 18:52:18.865498	143.6	68.3	-90.7	20.5
2025-01-18 18:52:20.015264	143.4	68.8	-90.6	19.7
2025-01-18 18:52:21.169387	143.1	69.3	-90.5	17.6
2025-01-18 18:52:22.323328	142.9	69.9	-90.3	15.1
2025-01-18 18:52:23.473627	142.6	70.4	-91.1	12.6
2025-01-18 18:52:24.628268	142.3	70.9	-90.7	14.0
2025-01-18 18:52:25.783590	142.1	71.4	-90.6	18.8
2025-01-18 18:52:26.939039	141.7	71.9	-90.5	13.8
2025-01-18 18:52:28.111134	141.4	72.5	-90.3	16.3
2025-01-18 18:52:29.275425	141.1	73.0	-90.4	19.7
2025-01-18 18:52:30.431603	140.7	73.5	-90.6	18.3
2025-01-18 18:52:31.597700	140.3	74.1	-90.5	21.5
2025-01-18 18:52:32.762406	139.8	74.6	-90.4	21.7
2025-01-18 18:52:33.919793	139.4	75.1	-90.7	17.2
2025-01-18 18:52:35.081704	138.9	75.7	-90.8	17.6
2025-01-18 18:52:36.247729	138.3	76.2	-90.6	18.8
2025-01-18 18:52:37.409863	137.7	76.7	-90.8	13.8
2025-01-18 18:52:38.567252	137.1	77.3	-90.7	11.2
2025-01-18 18:52:39.733397	136.4	77.8	-90.7	12.6
2025-01-18 18:52:40.893846	135.6	78.3	-90.7	11.4
2025-01-18 18:52:42.060012	134.8	78.9	-90.5	12.0
2025-01-18 18:52:43.211346	133.9	79.4	-90.8	19.8
2025-01-18 18:52:44.371910	132.8	80.0	-90.5	20.9
2025-01-18 18:52:45.535938	131.7	80.5	-90.8	12.9
2025-01-18 18:52:46.700960	130.4	81.0	-90.2	21.0
2025-01-18 18:52:47.862637	128.9	81.5	-90.7	21.9
2025-01-18 18:52:49.023062	127.3	82.1	-90.4	16.5
2025-01-18 18:52:50.175859	125.4	82.6	-89.9	21.0
2025-01-18 18:52:51.340179	123.2	83.1	-90.6	20.3
2025-01-18 18:52:52.503824	120.7	83.6	-90.8	19.9
2025-01-18 18:52:53.661841	117.8	84.1	-90.5	22.4
2025-01-18 18:52:54.828789	114.4	84.5	-90.5	21.7
2025-01-18 18:52:55.992852	110.3	85.0	-91.0	25.0
2025-01-18 18:52:57.158236	105.5	85.4	-90.6	21.5
2025-01-18 18:52:58.324178	99.7	85.8	-90.9	21.0
2025-01-18 18:52:59.485001	92.9	86.1	-91.1	22.0
2025-01-18 18:53:00.645902	85.1	86.4	-90.4	22.3
2025-01-18 18:53:01.810689	76.2	86.5	-90.3	23.9
2025-01-18 18:53:02.974349	66.5	86.6	-90.4	18.9
2025-01-18 18:53:04.127352	56.8	86.6	-90.8	20.7
2025-01-18 18:53:05.281307	47.3	86.5	-90.8	23.8
2025-01-18 18:53:06.410464	38.8	86.3	-90.7	16.0
2025-01-18 18:53:07.531890	31.2	86.1	-90.8	15.8
2025-01-18 18:53:08.653862	24.8	85.8	-90.3	20.6
2025-01-18 18:53:09.774269	19.2	85.4	-90.7	24.5
2025-01-18 18:53:10.894851	14.6	85.0	-90.9	17.3
2025-01-18 18:53:12.015059	10.6	84.6	-90.0	11.8
2025-01-18 18:53:13.136076	7.2	84.1	-90.6	17.3
2025-01-18 18:53:14.261563	4.3	83.7	-90.3	22.7
2025-01-18 18:53:15.382265	1.8	83.2	-90.2	17.6
2025-01-18 18:53:16.535297	359.6	82.7	-90.5	13.6
2025-01-18 18:53:17.694510	357.7	82.2	-90.8	21.7
2025-01-18 18:53:18.855259	356.0	81.6	-90.2	21.9
2025-01-18 18:53:20.004847	354.5	81.1	-91.2	14.6
2025-01-18 18:53:21.159429	353.2	80.6	-91.0	21.4
2025-01-18 18:53:22.297376	352.1	80.1	-91.0	22.9
2025-01-18 18:53:23.440630	351.0	79.6	-90.4	15.7
2025-01-18 18:53:24.590611	350.1	79.0	-90.3	13.6
2025-01-18 18:53:25.734437	349.2	78.5	-91.0	21.6
2025-01-18 18:53:26.894231	348.5	78.0	-90.7	14.2
2025-01-18 18:53:28.048579	347.7	77.4	-91.2	12.9
2025-01-18 18:53:29.207182	347.1	76.9	-91.0	17.1
2025-01-18 18:53:30.345820	346.5	76.4	-90.6	21.2
2025-01-18 18:53:31.482738	345.9	75.8	-90.9	13.7
2025-01-18 18:53:32.638765	345.4	75.3	-91.0	14.6
2025-01-18 18:53:33.770196	345.0	74.8	-91.1	18.4
2025-01-18 18:53:34.926456	344.5	74.2	-90.0	11.0
2025-01-18 18:53:36.080507	344.1	73.7	-91.1	12.1
2025-01-18 18:53:37.241909	343.7	73.2	-91.0	19.1
2025-01-18 18:53:38.403761	343.4	72.7	-90.7	13.8
2025-01-18 18:53:39.566940	343.0	72.1	-90.7	10.1
2025-01-18 18:53:40.728633	342.7	71.6	-90.7	16.5
2025-01-18 18:53:41.889649	342.4	71.1	-90.8	13.1
2025-01-18 18:53:43.045352	342.1	70.6	-90.3	9.1
2025-01-18 18:53:44.196393	341.9	70.0	-90.7	17.5
2025-01-18 18:53:45.352557	341.6	69.5	-90.7	19.6
2025-01-18 18:53:46.511021	341.4	69.0	-90.8	13.0
2025-01-18 18:53:47.671900	341.2	68.5	-90.8	16.2
2025-01-18 18:53:48.833690	340.9	68.0	-90.5	20.2
2025-01-18 18:53:49.994635	340.7	67.5	-90.7	12.7
2025-01-18 18:53:51.159036	340.5	67.0	-90.8	19.3
2025-01-18 18:53:52.318374	340.4	66.5	-90.9	21.7
2025-01-18 18:53:53.476025	340.2	66.0	-90.7	11.5
2025-01-18 18:53:54.634394	340.0	65.5	-89.9	14.4
2025-01-18 18:53:55.775589	339.9	65.0	-89.9	21.5
2025-01-18 18:53:56.904963	339.7	64.5	-90.1	15.7
2025-01-18 18:53:58.064295	339.6	64.0	-89.6	10.4
2025-01-18 18:53:59.204114	339.4	63.6	-89.4	19.4
2025-01-18 18:54:00.360866	339.3	63.1	-89.9	20.9
2025-01-18 18:54:01.513514	339.2	62.6	-90.6	15.3
2025-01-18 18:54:02.661324	339.0	62.1	-90.7	20.4
2025-01-18 18:54:03.810219	338.9	61.7	-90.7	21.5
2025-01-18 18:54:04.971195	338.8	61.2	-90.5	15.4
2025-01-18 18:54:06.129601	338.7	60.8	-90.3	17.2
2025-01-18 18:54:07.295878	338.6	60.3	-90.2	18.8
2025-01-18 18:54:08.453540	338.5	59.8	-90.2	15.4
2025-01-18 18:54:09.610014	338.4	59.4	-90.1	17.3
2025-01-18 18:54:10.770711	338.3	58.9	-90.9	19.1
2025-01-18 18:54:11.937306	338.2	58.5	-90.2	16.7
2025-01-18 18:54:13.097064	338.1	58.0	-90.4	16.6
2025-01-18 18:54:14.252736	338.0	57.6	-90.1	15.1
2025-01-18 18:54:15.415673	337.9	57.1	-90.0	16.3
2025-01-18 18:54:16.579356	337.9	56.7	-90.7	16.3
2025-01-18 18:54:17.743166	337.8	56.3	-90.5	16.4
2025-01-18 18:54:18.911275	337.7	55.8	-90.5	16.1
2025-01-18 18:54:20.071812	337.6	55.4	-91.2	12.0
2025-01-18 18:54:21.235524	337.6	55.0	-90.7	9.6
2025-01-18 18:54:22.397111	337.5	54.6	-90.5	8.4
2025-01-18 18:54:23.549262	337.4	54.2	-90.9	10.8
2025-01-18 18:54:24.706110	337.4	53.8	-90.8	7.0
2025-01-18 18:54:25.866221	337.3	53.3	-91.0	7.0
2025-01-18 18:54:27.030444	337.2	52.9	-91.1	4.6
2025-01-18 18:54:28.191242	337.2	52.5	-90.3	5.3
2025-01-18 18:54:29.347611	337.1	52.1	-90.2	7.2
2025-01-18 18:54:30.493118	337.1	51.7	-90.4	7.9
2025-01-18 18:54:31.613181	337.0	51.4	-90.0	8.4
2025-01-18 18:54:32.734371	337.0	51.0	-90.5	8.7
2025-01-18 18:54:33.855111	336.9	50.6	-90.3	7.3
2025-01-18 18:54:34.975080	336.9	50.2	-89.9	7.4
2025-01-18 18:54:36.096382	336.8	49.9	-90.3	8.6
2025-01-18 18:54:37.216747	336.8	49.5	-89.9	8.2
2025-01-18 18:54:38.337759	336.7	49.2	-90.3	14.4
2025-01-18 18:54:39.462343	336.7	48.8	-90.1	14.6
2025-01-18 18:54:40.602179	336.7	48.4	-90.0	12.1
2025-01-18 18:54:41.766661	336.6	48.1	-89.9	9.4
2025-01-18 18:54:42.922516	336.6	47.7	-89.9	15.1
2025-01-18 18:54:44.084841	336.5	47.3	-90.1	15.7
2025-01-18 18:54:45.234583	336.5	47.0	-90.7	17.9
2025-01-18 18:54:46.394663	336.5	46.6	-90.4	16.8
2025-01-18 18:54:47.560787	336.4	46.3	-90.7	14.7
2025-01-18 18:54:48.719850	336.4	45.9	-90.6	16.0
2025-01-18 18:54:49.884410	336.3	45.6	-91.1	13.6
2025-01-18 18:54:51.047183	336.3	45.2	-91.1	10.6
2025-01-18 18:54:52.208453	336.3	44.9	-90.6	14.7
2025-01-18 18:54:53.366832	336.2	44.6	-91.0	17.3
2025-01-18 18:54:54.526904	336.2	44.2	-90.7	10.4
2025-01-18 18:54:55.694894	336.2	43.9	-90.6	20.0
2025-01-18 18:54:56.856145	336.2	43.6	-90.9	18.4
2025-01-18 18:54:58.017040	336.1	43.2	-90.8	12.6
2025-01-18 18:54:59.178072	336.1	42.9	-90.5	18.2
2025-01-18 18:55:00.345484	336.1	42.6	-90.3	19.9
2025-01-18 18:55:01.509988	336.0	42.3	-90.4	14.7
2025-01-18 18:55:02.671824	336.0	42.0	-90.6	19.3
2025-01-18 18:55:03.829029	336.0	41.7	-90.9	18.8
2025-01-18 18:55:04.987504	336.0	41.3	-91.2	20.7
2025-01-18 18:55:06.150427	335.9	41.0	-91.4	15.2
2025-01-18 18:55:07.314041	335.9	40.7	-90.8	18.6
2025-01-18 18:55:08.478349	335.9	40.4	-90.4	10.0
2025-01-18 18:55:09.623698	335.9	40.1	-91.1	11.9
2025-01-18 18:55:10.767107	335.8	39.8	-90.6	10.0
2025-01-18 18:55:11.896737	335.8	39.6	-90.8	14.6
2025-01-18 18:55:13.052732	335.8	39.3	-90.4	8.5
2025-01-18 18:55:14.199577	335.8	39.0	-90.6	17.0
2025-01-18 18:55:15.354373	335.7	38.7	-90.5	17.0
2025-01-18 18:55:16.503186	335.7	38.4	-90.7	15.0
2025-01-18 18:55:17.663111	335.7	38.1	-90.8	13.9
2025-01-18 18:55:18.828573	335.7	37.9	-91.1	11.1
2025-01-18 18:55:19.989911	335.7	37.6	-91.4	16.0
2025-01-18 18:55:21.153507	335.6	37.3	-90.4	13.9
2025-01-18 18:55:22.314164	335.6	37.0	-90.6	6.7
2025-01-18 18:55:23.471576	335.6	36.8	-90.6	10.1
2025-01-18 18:55:24.630936	335.6	36.5	-90.2	10.7
2025-01-18 18:55:25.798220	335.6	36.2	-91.2	10.1
2025-01-18 18:55:26.962446	335.6	36.0	-90.8	8.9
2025-01-18 18:55:28.127006	335.5	35.7	-90.9	6.8
2025-01-18 18:55:29.288854	335.5	35.4	-91.4	17.5
2025-01-18 18:55:30.449738	335.5	35.2	-91.2	7.8
2025-01-18 18:55:31.606311	335.5	34.9	-90.6	10.3
2025-01-18 18:55:32.766599	335.5	34.7	-90.9	17.3
2025-01-18 18:55:33.927333	335.5	34.4	-91.0	12.6
2025-01-18 18:55:35.086621	335.4	34.2	-91.2	12.6
2025-01-18 18:55:36.255755	335.4	33.9	-91.2	12.3
2025-01-18 18:55:37.426115	335.4	33.7	-91.0	17.0
2025-01-18 18:55:38.591475	335.4	33.4	-90.4	5.9
2025-01-18 18:55:39.751105	335.4	33.2	-91.2	11.2
2025-01-18 18:55:40.921117	335.4	32.9	-91.3	9.5
2025-01-18 18:55:42.079235	335.4	32.7	-91.3	8.3
2025-01-18 18:55:43.243216	335.3	32.5	-90.9	12.6
2025-01-18 18:55:44.393203	335.3	32.2	-90.6	10.1
2025-01-18 18:55:45.562024	335.3	32.0	-91.0	11.6
2025-01-18 18:55:46.726772	335.3	31.8	-91.2	13.0
2025-01-18 18:55:47.883243	335.3	31.5	-91.0	6.2
2025-01-18 18:55:49.051614	335.3	31.3	-91.5	11.9
2025-01-18 18:55:50.215878	335.3	31.1	-91.1	15.5
2025-01-18 18:55:51.381936	335.3	30.8	-91.0	11.2
2025-01-18 18:55:52.546943	335.3	30.6	-91.4	15.9
2025-01-18 18:55:53.707795	335.2	30.4	-90.9	8.7
2025-01-18 18:55:54.861965	335.2	30.2	-90.6	9.7
2025-01-18 18:55:56.030503	335.2	30.0	-90.8	7.5
2025-01-18 18:55:57.193403	335.2	29.8	-90.6	11.2
2025-01-18 18:55:58.351668	335.2	29.5	-90.8	4.2
2025-01-18 18:55:59.515477	335.2	29.3	-90.9	4.3
2025-01-18 18:56:00.685788	335.2	29.1	-91.1	9.1
2025-01-18 18:56:01.843218	335.2	28.9	-90.8	12.1
2025-01-18 18:56:03.002093	335.2	28.7	-91.0	7.2
2025-01-18 18:56:04.160622	335.2	28.5	-91.0	7.0
2025-01-18 18:56:05.285337	335.1	28.3	-91.1	4.1
2025-01-18 18:56:06.405101	335.1	28.1	-91.1	8.2
2025-01-18 18:56:07.525946	335.1	27.9	-90.7	8.6
2025-01-18 18:56:08.646747	335.1	27.7	-90.6	5.9
2025-01-18 18:56:09.768055	335.1	27.5	-90.9	6.7
2025-01-18 18:56:10.889982	335.1	27.3	-90.8	5.7
2025-01-18 18:56:12.010645	335.1	27.1	-90.3	5.5
2025-01-18 18:56:13.134307	335.1	26.9	-90.0	7.6
2025-01-18 18:56:14.254535	335.1	26.8	-90.9	12.0
2025-01-18 18:56:15.408359	335.1	26.6	-91.0	7.1
2025-01-18 18:56:16.565820	335.1	26.4	-90.3	8.4
2025-01-18 18:56:17.724648	335.1	26.2	-91.2	16.4
2025-01-18 18:56:18.879174	335.0	26.0	-90.5	10.8
2025-01-18 18:56:20.037762	335.0	25.8	-91.3	7.6
2025-01-18 18:56:21.200227	335.0	25.6	-90.7	12.4
2025-01-18 18:56:22.365453	335.0	25.4	-90.4	11.1
2025-01-18 18:56:23.528096	335.0	25.3	-90.6	13.5
2025-01-18 18:56:24.686574	335.0	25.1	-90.7	12.0
2025-01-18 18:56:25.851195	335.0	24.9	-90.5	8.1
2025-01-18 18:56:27.012240	335.0	24.7	-90.5	9.4
2025-01-18 18:56:28.174337	335.0	24.5	-90.1	10.9
2025-01-18 18:56:29.325430	335.0	24.4	-90.5	11.5
2025-01-18 18:56:30.454127	335.0	24.2	-91.1	5.2
2025-01-18 18:56:31.599634	335.0	24.0	-91.4	5.0
2025-01-18 18:56:32.751630	335.0	23.8	-90.7	6.0
2025-01-18 18:56:33.893935	335.0	23.7	-90.9	9.6
2025-01-18 18:56:35.043935	335.0	23.5	-91.2	6.7
2025-01-18 18:56:36.198266	335.0	23.3	-91.0	12.6
2025-01-18 18:56:37.361147	335.0	23.2	-90.9	9.9
2025-01-18 18:56:38.524238	334.9	23.0	-91.1	8.6
2025-01-18 18:56:39.682343	334.9	22.8	-91.1	7.6
2025-01-18 18:56:40.841823	334.9	22.7	-91.2	10.5
2025-01-18 18:56:42.003099	334.9	22.5	-91.1	6.6
2025-01-18 18:56:43.165409	334.9	22.3	-91.0	8.8
2025-01-18 18:56:44.319946	334.9	22.2	-90.9	6.5
2025-01-18 18:56:45.484051	334.9	22.0	-90.9	7.0
2025-01-18 18:56:46.643115	334.9	21.8	-91.0	5.4
2025-01-18 18:56:47.801548	334.9	21.7	-90.7	4.3
2025-01-18 18:56:48.975107	334.9	21.5	-91.1	5.6
2025-01-18 18:56:50.145833	334.9	21.4	-91.0	11.0
2025-01-18 18:56:51.310380	334.9	21.2	-90.9	7.1
2025-01-18 18:56:52.469981	334.9	21.0	-91.1	4.9
2025-01-18 18:56:53.633184	334.9	20.9	-90.7	5.1
2025-01-18 18:56:54.790680	334.9	20.7	-91.0	3.2
2025-01-18 18:56:55.955782	334.9	20.6	-90.8	8.2
2025-01-18 18:56:57.115321	334.9	20.4	-91.0	3.0
2025-01-18 18:56:58.281132	334.9	20.3	-91.5	6.4
2025-01-18 18:56:59.445923	334.9	20.1	-91.6	5.5
2025-01-18 18:57:00.603508	334.9	20.0	-91.1	4.1
2025-01-18 18:57:01.753286	334.9	19.8	-91.7	8.8
2025-01-18 18:57:02.879409	334.9	19.7	-91.3	5.7
2025-01-18 18:57:04.026776	334.9	19.5	-91.3	3.9
2025-01-18 18:57:05.169766	334.9	19.4	-91.1	4.7
2025-01-18 18:57:06.329475	334.9	19.3	-91.2	5.7
2025-01-18 18:57:07.481812	334.8	19.1	-91.4	4.6
2025-01-18 18:57:08.635259	334.8	19.0	-91.3	5.1
2025-01-18 18:57:09.787269	334.8	18.8	-91.0	4.6
2025-01-18 18:57:10.951322	334.8	18.7	-91.2	5.3
2025-01-18 18:57:12.117532	334.8	18.5	-91.0	3.4
2025-01-18 18:57:13.270816	334.8	18.4	-91.2	9.3
2025-01-18 18:57:14.424191	334.8	18.3	-91.2	4.8
2025-01-18 18:57:15.551752	334.8	18.1	-91.4	4.9
2025-01-18 18:57:16.699663	334.8	18.0	-91.2	5.0
2025-01-18 18:57:17.846083	334.8	17.9	-91.2	5.8
2025-01-18 18:57:18.993478	334.8	17.7	-91.1	3.3
2025-01-18 18:57:20.145495	334.8	17.6	-90.9	3.4
2025-01-18 18:57:21.297377	334.8	17.5	-91.2	5.7
2025-01-18 18:57:22.456829	334.8	17.3	-91.5	5.1
2025-01-18 18:57:23.610266	334.8	17.2	-91.1	6.3
2025-01-18 18:57:24.770503	334.8	17.1	-91.1	6.9
2025-01-18 18:57:25.926174	334.8	16.9	-91.5	4.4
2025-01-18 18:57:27.063799	334.8	16.8	-90.8	5.1
2025-01-18 18:57:28.207407	334.8	16.7	-90.5	7.3
2025-01-18 18:57:29.359752	334.8	16.5	-91.0	5.3
2025-01-18 18:57:30.503677	334.8	16.4	-90.5	6.5
2025-01-18 18:57:31.652603	334.8	16.3	-90.7	5.4
2025-01-18 18:57:32.811952	334.8	16.1	-91.1	4.5
2025-01-18 18:57:33.971230	334.8	16.0	-90.7	5.1
2025-01-18 18:57:35.127415	334.8	15.9	-91.0	6.4
2025-01-18 18:57:36.287300	334.8	15.8	-91.3	5.5
2025-01-18 18:57:37.444768	334.8	15.6	-91.3	5.1
2025-01-18 18:57:38.608692	334.8	15.5	-91.2	3.3
2025-01-18 18:57:39.768134	334.8	15.4	-91.2	10.1
2025-01-18 18:57:40.927578	334.8	15.3	-91.3	4.5
2025-01-18 18:57:42.091358	334.8	15.1	-91.3	5.3
2025-01-18 18:57:43.248157	334.8	15.0	-91.1	5.1
2025-01-18 18:57:44.412158	334.8	14.9	-90.8	6.7
2025-01-18 18:57:45.576419	334.8	14.8	-90.6	4.0
2025-01-18 18:57:46.736706	334.8	14.7	-90.9	3.7
2025-01-18 18:57:47.905814	334.8	14.5	-91.0	5.4
2025-01-18 18:57:49.084184	334.8	14.4	-91.1	4.3
#Closed at: 2025-01-18 18:48:28.174436