passes_logs/2025/01/18/LEX_Murmansk/LEX_Murmansk__20250118_164341_NOAA_19_rec.log

#Pass ID: 20250118_164341_NOAA 19
#Satellite: NOAA 19
#Configuration: NOAA 19
#Start time: 2025-01-18 16:43:36.888150

#LorettStation: 1.0.0 05.05.2024
#Station: LEX_Murmansk
#Location: 33.156738 lon 68.926811 lat
#TLE: 1 33591U 09005A   25018.04840605  .00000325  00000+0  19728-3 0  9997
#TLE: 2 33591  99.0190  81.8343 0014373  49.4310 310.8111 14.13261983821977

#Time	Az	El	Level	SNR
2025-01-18 16:43:49.060582	122.2	16.3	-90.8	6.2
2025-01-18 16:43:50.227538	122.1	16.4	-90.5	2.5
2025-01-18 16:43:51.380676	122.1	16.5	-90.7	2.6
2025-01-18 16:43:52.539199	122.0	16.7	-90.8	4.4
2025-01-18 16:43:53.703022	121.9	16.8	-90.5	2.4
2025-01-18 16:43:54.866339	121.9	16.9	-89.9	3.4
2025-01-18 16:43:56.018650	121.8	17.0	-90.3	5.3
2025-01-18 16:43:57.170734	121.7	17.2	-90.5	10.8
2025-01-18 16:43:58.332514	121.6	17.3	-90.2	7.0
2025-01-18 16:43:59.495076	121.6	17.4	-90.7	7.2
2025-01-18 16:44:00.651459	121.5	17.6	-91.1	6.5
2025-01-18 16:44:01.813885	121.4	17.7	-90.8	3.0
2025-01-18 16:44:02.971149	121.3	17.8	-90.4	9.7
2025-01-18 16:44:04.132260	121.3	18.0	-90.6	9.1
2025-01-18 16:44:05.290406	121.2	18.1	-91.0	10.3
2025-01-18 16:44:06.457241	121.1	18.2	-90.9	6.7
2025-01-18 16:44:07.620505	121.0	18.4	-91.0	4.2
2025-01-18 16:44:08.788035	120.9	18.5	-90.6	2.4
2025-01-18 16:44:09.952910	120.9	18.6	-90.7	3.2
2025-01-18 16:44:11.107076	120.8	18.8	-90.8	3.9
2025-01-18 16:44:12.269338	120.7	18.9	-90.4	7.8
2025-01-18 16:44:13.427844	120.6	19.0	-90.7	8.5
2025-01-18 16:44:14.590541	120.5	19.2	-90.9	9.9
2025-01-18 16:44:15.753162	120.4	19.3	-90.9	5.9
2025-01-18 16:44:16.911704	120.4	19.5	-91.2	6.0
2025-01-18 16:44:18.065727	120.3	19.6	-90.5	8.0
2025-01-18 16:44:19.228377	120.2	19.7	-90.7	8.2
2025-01-18 16:44:20.387032	120.1	19.9	-90.8	12.1
2025-01-18 16:44:21.549537	120.0	20.0	-90.6	10.6
2025-01-18 16:44:22.704504	119.9	20.2	-90.5	7.1
2025-01-18 16:44:23.864862	119.8	20.3	-90.7	4.4
2025-01-18 16:44:25.027425	119.7	20.5	-90.9	4.6
2025-01-18 16:44:26.183114	119.7	20.6	-90.5	4.0
2025-01-18 16:44:27.341885	119.6	20.8	-90.6	3.7
2025-01-18 16:44:28.479426	119.5	20.9	-90.7	8.3
2025-01-18 16:44:29.600797	119.4	21.0	-91.0	10.9
2025-01-18 16:44:30.720226	119.3	21.2	-91.1	12.1
2025-01-18 16:44:31.842203	119.2	21.3	-90.8	9.7
2025-01-18 16:44:32.963121	119.1	21.5	-90.4	10.1
2025-01-18 16:44:34.085632	119.0	21.6	-90.4	9.3
2025-01-18 16:44:35.209130	118.9	21.8	-90.5	9.4
2025-01-18 16:44:36.336256	118.8	21.9	-90.7	12.8
2025-01-18 16:44:37.459030	118.7	22.1	-90.9	10.7
2025-01-18 16:44:38.599542	118.6	22.2	-90.9	11.3
2025-01-18 16:44:39.765064	118.5	22.4	-90.9	6.7
2025-01-18 16:44:40.913648	118.4	22.5	-90.5	4.4
2025-01-18 16:44:42.065457	118.3	22.7	-90.6	1.9
2025-01-18 16:44:43.219904	118.2	22.9	-90.5	2.9
2025-01-18 16:44:44.373845	118.1	23.0	-90.6	6.5
2025-01-18 16:44:45.529980	118.0	23.2	-90.6	8.2
2025-01-18 16:44:46.694229	117.9	23.3	-90.4	13.5
2025-01-18 16:44:47.858158	117.7	23.5	-90.5	11.6
2025-01-18 16:44:49.022871	117.6	23.7	-90.1	8.3
2025-01-18 16:44:50.193432	117.5	23.8	-90.6	4.1
2025-01-18 16:44:51.344975	117.4	24.0	-90.4	5.0
2025-01-18 16:44:52.510117	117.3	24.2	-91.2	6.6
2025-01-18 16:44:53.671626	117.2	24.3	-90.6	10.8
2025-01-18 16:44:54.837053	117.1	24.5	-91.1	9.4
2025-01-18 16:44:55.999552	116.9	24.7	-91.1	6.8
2025-01-18 16:44:57.160963	116.8	24.8	-90.8	3.8
2025-01-18 16:44:58.322889	116.7	25.0	-90.5	2.8
2025-01-18 16:44:59.485775	116.6	25.2	-90.7	3.9
2025-01-18 16:45:00.638312	116.4	25.3	-91.1	4.8
2025-01-18 16:45:01.799503	116.3	25.5	-91.2	3.9
2025-01-18 16:45:02.955363	116.2	25.7	-91.1	6.0
2025-01-18 16:45:04.124045	116.0	25.9	-90.9	3.4
2025-01-18 16:45:05.291724	115.9	26.0	-90.9	5.6
2025-01-18 16:45:06.454032	115.8	26.2	-90.6	4.7
2025-01-18 16:45:07.619042	115.6	26.4	-91.0	4.4
2025-01-18 16:45:08.777224	115.5	26.6	-90.9	2.8
2025-01-18 16:45:09.944091	115.4	26.7	-91.0	6.2
2025-01-18 16:45:11.107300	115.2	26.9	-90.7	2.9
2025-01-18 16:45:12.269409	115.1	27.1	-91.0	0.0
2025-01-18 16:45:13.425560	115.0	27.3	-91.2	3.6
2025-01-18 16:45:14.587286	114.8	27.5	-90.0	3.2
2025-01-18 16:45:15.753062	114.7	27.7	-90.2	1.7
2025-01-18 16:45:16.917362	114.5	27.8	-89.9	1.6
2025-01-18 16:45:18.080726	114.4	28.0	-90.3	1.7
2025-01-18 16:45:19.250770	114.2	28.2	-90.5	3.1
2025-01-18 16:45:20.417745	114.1	28.4	-90.3	3.4
2025-01-18 16:45:21.577623	113.9	28.6	-90.5	2.3
2025-01-18 16:45:22.736216	113.7	28.8	-90.5	2.0
2025-01-18 16:45:23.897011	113.6	29.0	-90.4	3.8
2025-01-18 16:45:25.061938	113.4	29.2	-90.2	1.7
2025-01-18 16:45:26.221406	113.3	29.4	-90.5	2.8
2025-01-18 16:45:27.387130	113.1	29.6	-90.4	2.2
2025-01-18 16:45:28.543945	112.9	29.8	-90.3	2.9
2025-01-18 16:45:29.702891	112.8	30.0	-90.8	0.8
2025-01-18 16:45:30.837769	112.6	30.2	-90.5	2.5
2025-01-18 16:45:31.958380	112.4	30.4	-90.5	3.8
2025-01-18 16:45:33.079126	112.3	30.5	-90.7	4.1
2025-01-18 16:45:34.200296	112.1	30.7	-91.2	2.2
2025-01-18 16:45:35.322210	111.9	30.9	-90.9	3.3
2025-01-18 16:45:36.442610	111.7	31.1	-91.2	7.8
2025-01-18 16:45:37.563632	111.6	31.3	-91.1	8.0
2025-01-18 16:45:38.684483	111.4	31.5	-91.3	10.8
2025-01-18 16:45:39.806186	111.2	31.7	-90.9	14.2
2025-01-18 16:45:40.952559	111.0	31.9	-91.0	12.3
2025-01-18 16:45:42.123295	110.8	32.1	-90.8	11.5
2025-01-18 16:45:43.277233	110.6	32.4	-90.9	8.1
2025-01-18 16:45:44.436778	110.4	32.6	-91.1	8.7
2025-01-18 16:45:45.585511	110.2	32.8	-90.7	10.4
2025-01-18 16:45:46.753780	110.0	33.0	-91.2	7.8
2025-01-18 16:45:47.913522	109.8	33.2	-91.5	12.8
2025-01-18 16:45:49.079162	109.6	33.4	-91.4	12.6
2025-01-18 16:45:50.243243	109.4	33.6	-91.0	7.7
2025-01-18 16:45:51.412317	109.2	33.9	-91.2	8.5
2025-01-18 16:45:52.570745	109.0	34.1	-91.0	5.8
2025-01-18 16:45:53.731975	108.7	34.3	-90.9	1.9
2025-01-18 16:45:54.894183	108.5	34.5	-90.9	4.4
2025-01-18 16:45:56.053624	108.3	34.7	-90.2	10.9
2025-01-18 16:45:57.210668	108.1	35.0	-90.8	12.6
2025-01-18 16:45:58.366349	107.8	35.2	-90.5	13.7
2025-01-18 16:45:59.504114	107.6	35.4	-90.6	17.4
2025-01-18 16:46:00.638183	107.4	35.6	-90.8	12.6
2025-01-18 16:46:01.791382	107.1	35.8	-91.1	9.7
2025-01-18 16:46:02.946080	106.9	36.1	-90.7	8.1
2025-01-18 16:46:04.101392	106.6	36.3	-90.8	10.4
2025-01-18 16:46:05.246577	106.4	36.5	-91.2	6.5
2025-01-18 16:46:06.408063	106.1	36.8	-90.5	13.3
2025-01-18 16:46:07.572120	105.8	37.0	-90.8	14.3
2025-01-18 16:46:08.731770	105.6	37.2	-90.8	13.5
2025-01-18 16:46:09.871563	105.3	37.4	-90.6	8.6
2025-01-18 16:46:11.029995	105.0	37.7	-91.0	6.7
2025-01-18 16:46:12.192059	104.8	37.9	-90.9	1.9
2025-01-18 16:46:13.354026	104.5	38.2	-90.7	3.4
2025-01-18 16:46:14.513051	104.2	38.4	-91.2	1.8
2025-01-18 16:46:15.682208	103.9	38.6	-90.9	3.2
2025-01-18 16:46:16.835886	103.6	38.9	-91.1	5.1
2025-01-18 16:46:18.000272	103.3	39.1	-90.9	12.5
2025-01-18 16:46:19.162775	103.0	39.3	-90.9	12.3
2025-01-18 16:46:20.326865	102.7	39.6	-90.8	8.3
2025-01-18 16:46:21.469103	102.4	39.8	-91.3	8.3
2025-01-18 16:46:22.630251	102.1	40.1	-91.3	6.8
2025-01-18 16:46:23.792555	101.8	40.3	-91.2	5.0
2025-01-18 16:46:24.959252	101.4	40.5	-91.3	5.8
2025-01-18 16:46:26.124564	101.1	40.8	-90.9	5.5
2025-01-18 16:46:27.285498	100.8	41.0	-90.8	3.3
2025-01-18 16:46:28.458075	100.4	41.3	-91.2	4.4
2025-01-18 16:46:29.613365	100.1	41.5	-91.3	2.3
2025-01-18 16:46:30.781324	99.7	41.8	-91.3	6.5
2025-01-18 16:46:31.943894	99.4	42.0	-91.3	6.9
2025-01-18 16:46:33.102515	99.0	42.3	-91.3	7.8
2025-01-18 16:46:34.270525	98.6	42.5	-91.0	3.6
2025-01-18 16:46:35.430196	98.3	42.8	-91.2	6.1
2025-01-18 16:46:36.591964	97.9	43.0	-91.3	6.2
2025-01-18 16:46:37.751806	97.5	43.3	-91.0	3.6
2025-01-18 16:46:38.916090	97.1	43.5	-91.2	9.0
2025-01-18 16:46:40.077432	96.7	43.8	-91.2	12.0
2025-01-18 16:46:41.239760	96.3	44.0	-90.5	13.7
2025-01-18 16:46:42.396581	95.9	44.2	-90.7	16.6
2025-01-18 16:46:43.560817	95.5	44.5	-91.3	17.1
2025-01-18 16:46:44.726682	95.1	44.7	-91.0	12.2
2025-01-18 16:46:45.887518	94.6	45.0	-91.3	11.4
2025-01-18 16:46:47.046739	94.2	45.2	-91.2	10.8
2025-01-18 16:46:48.211600	93.8	45.5	-91.1	6.1
2025-01-18 16:46:49.377453	93.3	45.7	-91.0	10.1
2025-01-18 16:46:50.534115	92.8	46.0	-91.2	12.3
2025-01-18 16:46:51.679909	92.4	46.2	-91.3	12.1
2025-01-18 16:46:52.801914	91.9	46.5	-91.4	10.3
2025-01-18 16:46:53.922020	91.5	46.7	-91.3	11.7
2025-01-18 16:46:55.041936	91.0	46.9	-90.9	10.3
2025-01-18 16:46:56.161944	90.5	47.2	-91.0	10.2
2025-01-18 16:46:57.282792	90.0	47.4	-91.0	6.1
2025-01-18 16:46:58.403384	89.6	47.6	-90.8	3.7
2025-01-18 16:46:59.524887	89.1	47.8	-90.5	4.3
2025-01-18 16:47:00.646121	88.5	48.1	-90.2	2.7
2025-01-18 16:47:01.783778	88.0	48.3	-90.1	2.4
2025-01-18 16:47:02.946731	87.5	48.5	-90.4	3.6
2025-01-18 16:47:04.099397	86.9	48.8	-90.4	7.2
2025-01-18 16:47:05.257699	86.4	49.0	-90.3	5.7
2025-01-18 16:47:06.409243	85.8	49.2	-90.3	7.0
2025-01-18 16:47:07.570610	85.3	49.5	-90.5	7.6
2025-01-18 16:47:08.733937	84.7	49.7	-90.5	7.7
2025-01-18 16:47:09.899275	84.1	49.9	-90.5	6.7
2025-01-18 16:47:11.061344	83.5	50.1	-90.1	7.8
2025-01-18 16:47:12.220777	82.9	50.3	-90.4	5.3
2025-01-18 16:47:13.371832	82.3	50.6	-90.3	6.1
2025-01-18 16:47:14.532824	81.6	50.8	-90.5	7.1
2025-01-18 16:47:15.690963	81.0	51.0	-90.6	4.3
2025-01-18 16:47:16.852239	80.4	51.2	-90.8	6.2
2025-01-18 16:47:18.009183	79.7	51.4	-91.1	9.0
2025-01-18 16:47:19.140559	79.1	51.6	-90.9	7.4
2025-01-18 16:47:20.288734	78.4	51.8	-90.9	7.3
2025-01-18 16:47:21.426190	77.7	52.0	-90.7	11.6
2025-01-18 16:47:22.577681	77.1	52.2	-91.0	12.6
2025-01-18 16:47:23.726491	76.4	52.4	-91.1	9.2
2025-01-18 16:47:24.891509	75.7	52.5	-91.0	8.9
2025-01-18 16:47:26.056391	74.9	52.7	-91.0	9.2
2025-01-18 16:47:27.217194	74.2	52.9	-90.5	8.1
2025-01-18 16:47:28.377536	73.5	53.1	-91.1	9.5
2025-01-18 16:47:29.532228	72.8	53.2	-90.6	6.7
2025-01-18 16:47:30.676237	72.0	53.4	-91.0	6.3
2025-01-18 16:47:31.804091	71.3	53.6	-90.8	1.4
2025-01-18 16:47:32.950600	70.5	53.7	-91.2	4.4
2025-01-18 16:47:34.095585	69.8	53.9	-90.7	7.0
2025-01-18 16:47:35.251657	69.0	54.0	-90.3	5.4
2025-01-18 16:47:36.402842	68.2	54.1	-90.7	6.8
2025-01-18 16:47:37.565497	67.4	54.3	-91.2	8.0
2025-01-18 16:47:38.726237	66.6	54.4	-91.0	6.7
2025-01-18 16:47:39.890401	65.8	54.5	-90.8	8.4
2025-01-18 16:47:41.050755	65.0	54.7	-90.9	12.2
2025-01-18 16:47:42.216103	64.2	54.8	-90.6	11.9
2025-01-18 16:47:43.372633	63.3	54.9	-91.2	13.8
2025-01-18 16:47:44.528798	62.5	55.0	-91.1	15.0
2025-01-18 16:47:45.689744	61.6	55.1	-91.0	17.2
2025-01-18 16:47:46.856349	60.8	55.2	-91.3	15.1
2025-01-18 16:47:48.018905	59.9	55.2	-91.4	15.4
2025-01-18 16:47:49.183319	59.1	55.3	-90.9	11.5
2025-01-18 16:47:50.336807	58.2	55.4	-91.1	13.6
2025-01-18 16:47:51.472175	57.4	55.5	-91.3	12.7
2025-01-18 16:47:52.598394	56.5	55.5	-91.0	9.4
2025-01-18 16:47:53.753383	55.7	55.6	-91.1	8.9
2025-01-18 16:47:54.899924	54.8	55.6	-91.4	8.5
2025-01-18 16:47:56.056507	53.9	55.7	-91.0	7.2
2025-01-18 16:47:57.206231	53.0	55.7	-90.7	6.2
2025-01-18 16:47:58.360262	52.2	55.7	-91.1	8.9
2025-01-18 16:47:59.516209	51.3	55.7	-91.1	9.3
2025-01-18 16:48:00.666677	50.4	55.7	-90.7	5.3
2025-01-18 16:48:01.843470	49.5	55.7	-90.5	5.8
2025-01-18 16:48:03.008629	48.6	55.7	-90.5	7.3
2025-01-18 16:48:04.164545	47.7	55.7	-90.2	8.0
2025-01-18 16:48:05.323643	46.9	55.7	-90.8	4.4
2025-01-18 16:48:06.488083	46.0	55.7	-90.6	9.3
2025-01-18 16:48:07.656526	45.1	55.7	-90.2	5.8
2025-01-18 16:48:08.821724	44.2	55.6	-90.4	6.4
2025-01-18 16:48:09.985604	43.3	55.6	-90.2	6.5
2025-01-18 16:48:11.151094	42.4	55.6	-90.1	10.5
2025-01-18 16:48:12.314480	41.6	55.5	-89.7	10.6
2025-01-18 16:48:13.473877	40.7	55.4	-90.6	9.3
2025-01-18 16:48:14.628509	39.8	55.4	-90.7	10.7
2025-01-18 16:48:15.788582	39.0	55.3	-90.6	15.1
2025-01-18 16:48:16.949890	38.1	55.2	-90.4	11.7
2025-01-18 16:48:18.116261	37.3	55.1	-90.1	7.6
2025-01-18 16:48:19.272785	36.4	55.0	-90.8	10.9
2025-01-18 16:48:20.437796	35.6	54.9	-90.7	10.5
2025-01-18 16:48:21.595385	34.8	54.8	-91.0	9.6
2025-01-18 16:48:22.763591	33.9	54.7	-91.0	14.0
2025-01-18 16:48:23.923146	33.1	54.6	-91.0	16.0
2025-01-18 16:48:25.087174	32.3	54.5	-90.7	15.8
2025-01-18 16:48:26.250837	31.5	54.4	-90.6	17.8
2025-01-18 16:48:27.415489	30.7	54.2	-90.6	16.8
2025-01-18 16:48:28.580281	29.9	54.1	-90.5	18.5
2025-01-18 16:48:29.743718	29.1	53.9	-90.2	17.0
2025-01-18 16:48:30.909967	28.3	53.8	-90.8	17.5
2025-01-18 16:48:32.073323	27.5	53.6	-90.7	16.0
2025-01-18 16:48:33.234569	26.8	53.5	-91.2	16.4
2025-01-18 16:48:34.399390	26.0	53.3	-90.8	15.1
2025-01-18 16:48:35.563220	25.3	53.2	-91.1	16.4
2025-01-18 16:48:36.714981	24.6	53.0	-90.9	14.5
2025-01-18 16:48:37.836633	23.9	52.8	-90.8	15.2
2025-01-18 16:48:38.957607	23.2	52.7	-90.7	15.3
2025-01-18 16:48:40.078127	22.5	52.5	-91.1	15.8
2025-01-18 16:48:41.198439	21.8	52.3	-91.0	11.0
2025-01-18 16:48:42.318929	21.1	52.1	-91.0	9.6
2025-01-18 16:48:43.440143	20.5	51.9	-91.1	10.8
2025-01-18 16:48:44.561224	19.8	51.7	-91.3	12.4
2025-01-18 16:48:45.687708	19.2	51.5	-91.0	11.3
2025-01-18 16:48:46.817398	18.5	51.4	-90.9	14.5
2025-01-18 16:48:47.983382	17.9	51.1	-91.1	10.3
2025-01-18 16:48:49.146014	17.2	50.9	-90.8	4.3
2025-01-18 16:48:50.313595	16.6	50.7	-91.2	7.5
2025-01-18 16:48:51.469923	16.0	50.5	-91.1	12.7
2025-01-18 16:48:52.635627	15.4	50.3	-91.4	12.0
2025-01-18 16:48:53.790786	14.8	50.1	-91.0	8.3
2025-01-18 16:48:54.955472	14.2	49.9	-91.3	12.2
2025-01-18 16:48:56.120557	13.6	49.6	-91.1	13.4
2025-01-18 16:48:57.284447	13.0	49.4	-90.4	12.0
2025-01-18 16:48:58.451176	12.4	49.2	-90.6	14.7
2025-01-18 16:48:59.624018	11.9	48.9	-90.9	12.6
2025-01-18 16:49:00.782046	11.3	48.7	-90.8	10.7
2025-01-18 16:49:01.947327	10.8	48.5	-90.6	11.1
2025-01-18 16:49:03.119275	10.2	48.2	-90.0	12.5
2025-01-18 16:49:04.276749	9.7	48.0	-90.1	6.7
2025-01-18 16:49:05.439603	9.2	47.8	-90.3	8.4
2025-01-18 16:49:06.603028	8.7	47.5	-90.2	9.4
2025-01-18 16:49:07.767569	8.2	47.3	-90.2	4.4
2025-01-18 16:49:08.939060	7.7	47.1	-90.5	8.2
2025-01-18 16:49:10.103501	7.2	46.8	-90.7	10.3
2025-01-18 16:49:11.267359	6.7	46.6	-90.5	6.9
2025-01-18 16:49:12.424010	6.2	46.3	-90.7	8.2
2025-01-18 16:49:13.585498	5.8	46.1	-90.4	9.2
2025-01-18 16:49:14.749034	5.3	45.8	-90.5	5.7
2025-01-18 16:49:15.911741	4.9	45.6	-90.3	6.3
2025-01-18 16:49:17.059013	4.4	45.4	-90.6	8.5
2025-01-18 16:49:18.212133	4.0	45.1	-90.4	6.7
2025-01-18 16:49:19.376274	3.5	44.9	-90.9	8.1
2025-01-18 16:49:20.545158	3.1	44.6	-91.0	11.9
2025-01-18 16:49:21.704141	2.7	44.4	-91.0	6.9
2025-01-18 16:49:22.876178	2.3	44.1	-90.9	7.8
2025-01-18 16:49:24.047827	1.9	43.9	-90.9	12.4
2025-01-18 16:49:25.209705	1.5	43.6	-91.2	13.8
2025-01-18 16:49:26.369405	1.1	43.4	-91.1	12.4
2025-01-18 16:49:27.540106	0.7	43.1	-91.1	18.1
2025-01-18 16:49:28.708486	0.3	42.9	-90.9	18.2
2025-01-18 16:49:29.874556	359.9	42.6	-91.2	19.0
2025-01-18 16:49:31.033990	359.6	42.4	-91.1	18.4
2025-01-18 16:49:32.195404	359.2	42.1	-91.0	17.9
2025-01-18 16:49:33.359828	358.8	41.9	-91.0	18.2
2025-01-18 16:49:34.518240	358.5	41.7	-91.0	18.2
2025-01-18 16:49:35.678517	358.1	41.4	-91.4	14.6
2025-01-18 16:49:36.842111	357.8	41.2	-91.3	13.1
2025-01-18 16:49:38.004535	357.5	40.9	-90.8	12.1
2025-01-18 16:49:39.168475	357.1	40.7	-90.7	10.5
2025-01-18 16:49:40.328859	356.8	40.4	-90.9	8.8
2025-01-18 16:49:41.489754	356.5	40.2	-91.0	9.7
2025-01-18 16:49:42.654201	356.2	40.0	-90.2	9.1
2025-01-18 16:49:43.813772	355.9	39.7	-90.1	6.4
2025-01-18 16:49:44.979140	355.6	39.5	-90.4	7.3
2025-01-18 16:49:46.138893	355.2	39.2	-90.4	8.7
2025-01-18 16:49:47.303300	354.9	39.0	-90.7	5.2
2025-01-18 16:49:48.469043	354.7	38.8	-90.6	9.1
2025-01-18 16:49:49.638833	354.4	38.5	-90.6	10.1
2025-01-18 16:49:50.808799	354.1	38.3	-90.4	10.6
2025-01-18 16:49:51.967668	353.8	38.1	-90.4	10.7
2025-01-18 16:49:53.129404	353.5	37.8	-90.0	12.6
2025-01-18 16:49:54.286759	353.2	37.6	-90.4	9.4
2025-01-18 16:49:55.448297	353.0	37.4	-90.8	11.3
2025-01-18 16:49:56.611277	352.7	37.1	-91.1	11.9
2025-01-18 16:49:57.779363	352.4	36.9	-91.3	7.4
2025-01-18 16:49:58.942459	352.2	36.7	-91.2	10.9
2025-01-18 16:50:00.107150	351.9	36.4	-90.9	10.2
2025-01-18 16:50:01.270052	351.7	36.2	-91.0	8.4
2025-01-18 16:50:02.433421	351.4	36.0	-91.0	6.7
2025-01-18 16:50:03.568781	351.2	35.8	-91.5	6.6
2025-01-18 16:50:04.689331	351.0	35.5	-91.1	4.9
2025-01-18 16:50:05.849816	350.7	35.3	-91.1	3.5
2025-01-18 16:50:07.013405	350.5	35.1	-91.0	5.0
2025-01-18 16:50:08.172393	350.3	34.9	-90.7	3.0
2025-01-18 16:50:09.336041	350.0	34.6	-90.3	4.2
2025-01-18 16:50:10.496650	349.8	34.4	-90.5	4.9
2025-01-18 16:50:11.664784	349.6	34.2	-90.1	5.4
2025-01-18 16:50:12.828667	349.4	34.0	-90.4	4.6
2025-01-18 16:50:13.990064	349.2	33.8	-90.1	7.9
2025-01-18 16:50:15.152624	348.9	33.6	-90.3	8.4
2025-01-18 16:50:16.318179	348.7	33.3	-90.4	7.9
2025-01-18 16:50:17.483345	348.5	33.1	-91.3	7.2
2025-01-18 16:50:18.646463	348.3	32.9	-91.1	10.2
2025-01-18 16:50:19.814486	348.1	32.7	-91.2	9.7
2025-01-18 16:50:20.972546	347.9	32.5	-90.7	9.1
2025-01-18 16:50:22.139638	347.7	32.3	-91.1	10.2
2025-01-18 16:50:23.299874	347.5	32.1	-90.8	7.6
2025-01-18 16:50:24.459441	347.3	31.9	-90.9	7.3
2025-01-18 16:50:25.628655	347.1	31.7	-90.5	7.6
2025-01-18 16:50:26.787481	347.0	31.5	-90.8	5.7
2025-01-18 16:50:27.953264	346.8	31.2	-90.9	4.1
2025-01-18 16:50:29.116408	346.6	31.0	-90.9	6.1
2025-01-18 16:50:30.280619	346.4	30.8	-90.5	6.9
2025-01-18 16:50:31.439924	346.2	30.6	-90.4	8.6
2025-01-18 16:50:32.603654	346.1	30.4	-90.9	8.2
2025-01-18 16:50:33.764958	345.9	30.2	-90.7	10.3
2025-01-18 16:50:34.928056	345.7	30.0	-90.7	8.0
2025-01-18 16:50:36.097345	345.6	29.8	-90.5	10.5
2025-01-18 16:50:37.262420	345.4	29.7	-90.6	8.9
2025-01-18 16:50:38.391220	345.2	29.5	-90.2	8.6
2025-01-18 16:50:39.511959	345.1	29.3	-90.7	9.1
2025-01-18 16:50:40.632925	344.9	29.1	-91.1	8.2
2025-01-18 16:50:41.753451	344.8	28.9	-91.0	3.1
2025-01-18 16:50:42.873723	344.6	28.7	-90.7	4.2
2025-01-18 16:50:43.993509	344.5	28.5	-90.8	5.6
2025-01-18 16:50:45.114178	344.3	28.4	-90.4	3.4
2025-01-18 16:50:46.239045	344.2	28.2	-90.8	2.5
2025-01-18 16:50:47.364874	344.0	28.0	-90.4	3.2
2025-01-18 16:50:48.525901	343.9	27.8	-90.6	3.7
2025-01-18 16:50:49.685176	343.7	27.6	-90.8	7.0
2025-01-18 16:50:50.844687	343.6	27.4	-91.0	8.8
2025-01-18 16:50:51.996497	343.4	27.3	-91.0	10.9
2025-01-18 16:50:53.154206	343.3	27.1	-90.8	10.8
2025-01-18 16:50:54.314164	343.2	26.9	-90.9	9.9
2025-01-18 16:50:55.477395	343.0	26.7	-90.9	8.9
2025-01-18 16:50:56.644359	342.9	26.5	-91.2	7.0
2025-01-18 16:50:57.810165	342.8	26.4	-91.1	6.3
2025-01-18 16:50:58.970253	342.6	26.2	-91.1	5.9
2025-01-18 16:51:00.129317	342.5	26.0	-89.9	8.1
2025-01-18 16:51:01.291264	342.4	25.8	-91.1	3.4
2025-01-18 16:51:02.457027	342.2	25.7	-91.0	7.0
2025-01-18 16:51:03.620144	342.1	25.5	-91.1	8.7
2025-01-18 16:51:04.780850	342.0	25.3	-91.0	6.1
2025-01-18 16:51:05.938689	341.9	25.2	-90.5	7.9
2025-01-18 16:51:07.106125	341.7	25.0	-90.6	9.3
2025-01-18 16:51:08.270039	341.6	24.8	-90.7	12.0
2025-01-18 16:51:09.437875	341.5	24.6	-90.6	7.4
2025-01-18 16:51:10.600775	341.4	24.5	-90.6	8.2
2025-01-18 16:51:11.762367	341.3	24.3	-90.5	6.7
2025-01-18 16:51:12.929484	341.1	24.1	-90.9	8.1
2025-01-18 16:51:14.083759	341.0	24.0	-90.7	7.4
2025-01-18 16:51:15.247668	340.9	23.8	-90.8	3.7
2025-01-18 16:51:16.406863	340.8	23.7	-90.6	4.9
2025-01-18 16:51:17.571933	340.7	23.5	-90.6	5.3
2025-01-18 16:51:18.730056	340.6	23.3	-90.9	4.0
2025-01-18 16:51:19.897586	340.5	23.2	-91.1	4.9
2025-01-18 16:51:21.055343	340.4	23.0	-90.5	7.0
2025-01-18 16:51:22.202017	340.3	22.9	-90.1	7.6
2025-01-18 16:51:23.323242	340.2	22.7	-89.9	9.5
2025-01-18 16:51:24.444687	340.1	22.6	-89.7	9.6
2025-01-18 16:51:25.565309	340.0	22.4	-89.7	12.6
2025-01-18 16:51:26.687476	339.9	22.3	-89.9	9.6
2025-01-18 16:51:27.807890	339.8	22.1	-89.7	8.4
2025-01-18 16:51:28.928600	339.7	22.0	-89.7	7.6
2025-01-18 16:51:30.051066	339.6	21.8	-89.5	7.3
2025-01-18 16:51:31.173463	339.5	21.7	-89.9	4.0
2025-01-18 16:51:32.297230	339.4	21.5	-89.7	4.7
2025-01-18 16:51:33.425860	339.3	21.4	-90.6	6.8
2025-01-18 16:51:34.578098	339.2	21.2	-90.6	6.5
2025-01-18 16:51:35.725582	339.1	21.1	-90.5	4.8
2025-01-18 16:51:36.872877	339.0	20.9	-90.6	6.7
2025-01-18 16:51:38.021004	338.9	20.8	-90.5	6.7
2025-01-18 16:51:39.180665	338.8	20.6	-90.5	6.7
2025-01-18 16:51:40.334674	338.7	20.5	-90.3	4.6
2025-01-18 16:51:41.464012	338.6	20.4	-90.2	4.2
2025-01-18 16:51:42.622225	338.5	20.2	-90.6	4.4
2025-01-18 16:51:43.760018	338.5	20.1	-90.3	3.0
2025-01-18 16:51:44.905158	338.4	19.9	-90.0	1.8
2025-01-18 16:51:46.064021	338.3	19.8	-90.2	2.1
2025-01-18 16:51:47.227113	338.2	19.7	-90.0	1.1
2025-01-18 16:51:48.384224	338.1	19.5	-90.2	3.3
2025-01-18 16:51:49.544511	338.0	19.4	-90.2	3.0
2025-01-18 16:51:50.707125	337.9	19.2	-90.4	0.5
2025-01-18 16:51:51.871503	337.9	19.1	-90.0	2.2
2025-01-18 16:51:53.036073	337.8	19.0	-89.9	3.1
2025-01-18 16:51:54.208252	337.7	18.8	-90.4	4.4
2025-01-18 16:51:55.374801	337.6	18.7	-90.3	2.9
2025-01-18 16:51:56.534463	337.5	18.5	-90.4	4.5
2025-01-18 16:51:57.697268	337.5	18.4	-90.2	1.7
2025-01-18 16:51:58.858827	337.4	18.3	-90.5	3.2
2025-01-18 16:52:00.020309	337.3	18.1	-90.2	0.9
2025-01-18 16:52:01.176630	337.2	18.0	-90.4	2.2
2025-01-18 16:52:02.344376	337.2	17.9	-90.7	2.3
2025-01-18 16:52:03.507125	337.1	17.7	-90.5	2.9
2025-01-18 16:52:04.672578	337.0	17.6	-91.2	2.9
2025-01-18 16:52:05.836657	336.9	17.5	-91.3	4.7
2025-01-18 16:52:07.000920	336.9	17.4	-90.9	3.3
2025-01-18 16:52:08.169221	336.8	17.2	-90.5	2.9
2025-01-18 16:52:09.325085	336.7	17.1	-90.4	1.5
2025-01-18 16:52:10.486336	336.6	17.0	-90.7	2.3
2025-01-18 16:52:11.639778	336.6	16.8	-90.7	3.9
2025-01-18 16:52:12.768158	336.5	16.7	-91.0	2.6
2025-01-18 16:52:13.888999	336.4	16.6	-90.4	2.9
2025-01-18 16:52:15.026605	336.4	16.5	-91.1	0.3
2025-01-18 16:52:16.167736	336.3	16.4	-90.6	3.6
2025-01-18 16:52:17.319913	336.2	16.2	-90.5	1.6
2025-01-18 16:52:18.468992	336.2	16.1	-90.6	2.0
2025-01-18 16:52:19.636161	336.1	16.0	-90.9	3.1
2025-01-18 16:52:20.795384	336.0	15.9	-90.9	3.1
2025-01-18 16:52:21.943319	336.0	15.7	-91.3	4.2
2025-01-18 16:52:23.108658	335.9	15.6	-90.7	3.4
2025-01-18 16:52:24.268267	335.8	15.5	-90.4	1.2
2025-01-18 16:52:25.427418	335.8	15.4	-91.0	2.5
2025-01-18 16:52:26.592626	335.7	15.3	-91.0	2.2
2025-01-18 16:52:27.752829	335.6	15.1	-90.0	2.9
2025-01-18 16:52:28.921589	335.6	15.0	-90.1	3.7
2025-01-18 16:52:30.080409	335.5	14.9	-90.4	2.9
2025-01-18 16:52:31.235981	335.5	14.8	-90.9	3.6
2025-01-18 16:52:32.400856	335.4	14.7	-90.6	1.9
2025-01-18 16:52:33.555786	335.3	14.6	-90.9	1.5
2025-01-18 16:52:34.705416	335.3	14.4	-91.1	3.0
#Closed at: 2025-01-18 16:43:41.872760