passes_logs/2025/01/18/LEX_Murmansk/LEX_Murmansk__20250118_100457_NOAA_19_rec.log

#Pass ID: 20250118_100457_NOAA 19
#Satellite: NOAA 19
#Configuration: NOAA 19
#Start time: 2025-01-18 10:04:52.402253

#LorettStation: 1.0.0 05.05.2024
#Station: LEX_Murmansk
#Location: 33.156738 lon 68.926811 lat
#TLE: 1 33591U 09005A   25017.12803845  .00000314  00000+0  19161-3 0  9999
#TLE: 2 33591  99.0192  80.9069 0014403  51.8715 308.3753 14.13261185821848

#Time	Az	El	Level	SNR
2025-01-18 10:05:04.700434	23.6	16.3	-92.0	3.5
2025-01-18 10:05:05.853874	23.5	16.4	-92.5	2.8
2025-01-18 10:05:07.005968	23.4	16.5	-92.4	3.1
2025-01-18 10:05:08.162211	23.4	16.6	-91.8	3.7
2025-01-18 10:05:09.290715	23.3	16.8	-92.1	1.8
2025-01-18 10:05:10.411803	23.2	16.9	-92.1	3.5
2025-01-18 10:05:11.531314	23.1	17.0	-92.2	3.1
2025-01-18 10:05:12.651981	23.0	17.1	-91.8	7.0
2025-01-18 10:05:13.772816	23.0	17.2	-92.4	9.8
2025-01-18 10:05:14.894935	22.9	17.4	-92.2	8.2
2025-01-18 10:05:16.015502	22.8	17.5	-92.3	8.6
2025-01-18 10:05:17.140165	22.7	17.6	-92.3	8.9
2025-01-18 10:05:18.260873	22.6	17.7	-91.9	6.1
2025-01-18 10:05:19.432832	22.5	17.9	-91.8	6.4
2025-01-18 10:05:20.575016	22.5	18.0	-92.0	8.4
2025-01-18 10:05:21.725258	22.4	18.1	-92.3	10.0
2025-01-18 10:05:22.869930	22.3	18.3	-92.1	8.9
2025-01-18 10:05:24.024749	22.2	18.4	-92.1	5.8
2025-01-18 10:05:25.169234	22.1	18.5	-92.3	4.2
2025-01-18 10:05:26.321380	22.0	18.7	-92.2	1.8
2025-01-18 10:05:27.481426	21.9	18.8	-92.6	4.8
2025-01-18 10:05:28.639659	21.8	18.9	-92.0	7.6
2025-01-18 10:05:29.800811	21.7	19.1	-92.4	11.7
2025-01-18 10:05:30.958015	21.6	19.2	-92.5	10.4
2025-01-18 10:05:32.114030	21.5	19.3	-92.3	9.3
2025-01-18 10:05:33.261927	21.4	19.5	-92.4	4.9
2025-01-18 10:05:34.406862	21.3	19.6	-92.2	5.6
2025-01-18 10:05:35.554246	21.3	19.7	-92.1	6.0
2025-01-18 10:05:36.705256	21.2	19.9	-92.5	7.4
2025-01-18 10:05:37.858310	21.1	20.0	-92.4	7.0
2025-01-18 10:05:39.018209	21.0	20.2	-92.3	3.3
2025-01-18 10:05:40.174519	20.8	20.3	-92.2	3.7
2025-01-18 10:05:41.327609	20.7	20.4	-91.9	0.1
2025-01-18 10:05:42.485563	20.6	20.6	-92.2	1.5
2025-01-18 10:05:43.648621	20.5	20.7	-92.4	0.0
2025-01-18 10:05:44.805204	20.4	20.9	-92.4	5.1
2025-01-18 10:05:45.966184	20.3	21.0	-92.3	6.8
2025-01-18 10:05:47.119455	20.2	21.2	-92.5	7.7
2025-01-18 10:05:48.277377	20.1	21.3	-92.3	7.9
2025-01-18 10:05:49.425331	20.0	21.5	-92.6	6.6
2025-01-18 10:05:50.572204	19.9	21.6	-92.2	5.0
2025-01-18 10:05:51.729219	19.8	21.7	-92.3	5.8
2025-01-18 10:05:52.888690	19.7	21.9	-92.3	5.3
2025-01-18 10:05:54.027909	19.5	22.0	-92.2	10.5
2025-01-18 10:05:55.170524	19.4	22.2	-92.0	9.6
2025-01-18 10:05:56.325012	19.3	22.3	-92.3	6.8
2025-01-18 10:05:57.481032	19.2	22.5	-92.2	4.0
2025-01-18 10:05:58.639625	19.1	22.6	-92.3	3.6
2025-01-18 10:05:59.793537	19.0	22.8	-92.0	2.4
2025-01-18 10:06:00.951439	18.8	23.0	-92.5	5.9
2025-01-18 10:06:02.105846	18.7	23.1	-92.6	8.1
2025-01-18 10:06:03.257748	18.6	23.3	-92.1	10.4
2025-01-18 10:06:04.412021	18.5	23.4	-92.3	12.3
2025-01-18 10:06:05.572186	18.3	23.6	-92.2	8.7
2025-01-18 10:06:06.726416	18.2	23.7	-92.1	6.3
2025-01-18 10:06:07.886906	18.1	23.9	-92.1	6.7
2025-01-18 10:06:09.042706	18.0	24.1	-92.2	6.9
2025-01-18 10:06:10.203058	17.8	24.2	-91.5	9.8
2025-01-18 10:06:11.355452	17.7	24.4	-91.5	6.8
2025-01-18 10:06:12.511809	17.6	24.5	-91.6	7.9
2025-01-18 10:06:13.671167	17.4	24.7	-92.3	7.9
2025-01-18 10:06:14.831582	17.3	24.9	-92.3	3.2
2025-01-18 10:06:15.978175	17.1	25.0	-92.3	1.6
2025-01-18 10:06:17.125792	17.0	25.2	-92.3	6.1
2025-01-18 10:06:18.277704	16.9	25.4	-92.3	4.8
2025-01-18 10:06:19.433913	16.7	25.5	-92.4	6.3
2025-01-18 10:06:20.588821	16.6	25.7	-92.4	9.6
2025-01-18 10:06:21.746692	16.4	25.9	-92.3	14.5
2025-01-18 10:06:22.903956	16.3	26.0	-92.4	13.6
2025-01-18 10:06:24.051737	16.1	26.2	-92.3	9.4
2025-01-18 10:06:25.214268	16.0	26.4	-92.3	3.9
2025-01-18 10:06:26.357938	15.8	26.5	-92.1	5.9
2025-01-18 10:06:27.516241	15.7	26.7	-92.1	9.4
2025-01-18 10:06:28.674414	15.5	26.9	-92.1	12.8
2025-01-18 10:06:29.824505	15.4	27.1	-92.6	10.9
2025-01-18 10:06:30.979960	15.2	27.2	-92.3	6.3
2025-01-18 10:06:32.136796	15.0	27.4	-92.4	3.5
2025-01-18 10:06:33.291653	14.9	27.6	-92.7	3.3
2025-01-18 10:06:34.446546	14.7	27.8	-92.8	2.4
2025-01-18 10:06:35.596776	14.5	27.9	-92.1	2.8
2025-01-18 10:06:36.754096	14.4	28.1	-92.5	2.1
2025-01-18 10:06:37.910706	14.2	28.3	-92.4	3.8
2025-01-18 10:06:39.068617	14.0	28.5	-92.4	5.3
2025-01-18 10:06:40.222734	13.8	28.7	-92.5	7.7
2025-01-18 10:06:41.374292	13.7	28.8	-92.3	8.6
2025-01-18 10:06:42.523484	13.5	29.0	-92.8	4.8
2025-01-18 10:06:43.679113	13.3	29.2	-92.4	5.1
2025-01-18 10:06:44.828617	13.1	29.4	-92.3	4.5
2025-01-18 10:06:45.985138	12.9	29.6	-91.9	8.1
2025-01-18 10:06:47.133555	12.7	29.8	-92.5	11.7
2025-01-18 10:06:48.284533	12.6	30.0	-92.5	12.7
2025-01-18 10:06:49.436812	12.4	30.2	-92.7	10.6
2025-01-18 10:06:50.595048	12.2	30.3	-92.2	7.1
2025-01-18 10:06:51.741797	12.0	30.5	-92.3	2.7
2025-01-18 10:06:52.889682	11.8	30.7	-92.5	6.0
2025-01-18 10:06:54.047938	11.6	30.9	-92.6	4.0
2025-01-18 10:06:55.201778	11.4	31.1	-92.5	3.1
2025-01-18 10:06:56.352137	11.2	31.3	-92.3	5.8
2025-01-18 10:06:57.513724	11.0	31.5	-92.5	13.8
2025-01-18 10:06:58.674661	10.7	31.7	-92.7	14.9
2025-01-18 10:06:59.829093	10.5	31.9	-92.4	13.1
2025-01-18 10:07:00.984388	10.3	32.1	-92.2	11.6
2025-01-18 10:07:02.139111	10.1	32.3	-92.0	12.4
2025-01-18 10:07:03.289273	9.9	32.5	-92.4	6.3
2025-01-18 10:07:04.443910	9.6	32.7	-92.4	9.8
2025-01-18 10:07:05.606357	9.4	32.9	-92.6	13.7
2025-01-18 10:07:06.759607	9.2	33.1	-92.7	12.4
2025-01-18 10:07:07.914550	8.9	33.3	-92.3	15.1
2025-01-18 10:07:09.071880	8.7	33.5	-92.7	11.0
2025-01-18 10:07:10.232107	8.5	33.7	-92.6	7.6
2025-01-18 10:07:11.390602	8.2	33.9	-92.4	5.0
2025-01-18 10:07:12.545422	8.0	34.1	-92.3	3.9
2025-01-18 10:07:13.700132	7.7	34.3	-92.3	2.3
2025-01-18 10:07:14.852461	7.5	34.5	-92.2	3.1
2025-01-18 10:07:16.005892	7.2	34.7	-92.5	10.4
2025-01-18 10:07:17.168659	7.0	34.9	-92.4	14.1
2025-01-18 10:07:18.323993	6.7	35.1	-92.2	18.2
2025-01-18 10:07:19.481034	6.4	35.4	-92.9	17.3
2025-01-18 10:07:20.633355	6.2	35.6	-92.6	14.8
2025-01-18 10:07:21.791979	5.9	35.8	-92.8	10.4
2025-01-18 10:07:22.948763	5.6	36.0	-92.7	11.5
2025-01-18 10:07:24.107159	5.3	36.2	-92.6	11.3
2025-01-18 10:07:25.262796	5.0	36.4	-92.3	13.7
2025-01-18 10:07:26.416243	4.8	36.6	-92.6	15.1
2025-01-18 10:07:27.568675	4.5	36.8	-92.2	17.0
2025-01-18 10:07:28.719041	4.2	37.1	-92.6	19.0
2025-01-18 10:07:29.868824	3.9	37.3	-92.7	13.5
2025-01-18 10:07:31.020248	3.6	37.5	-92.5	10.0
2025-01-18 10:07:32.172101	3.3	37.7	-92.5	8.2
2025-01-18 10:07:33.337898	2.9	37.9	-92.7	3.7
2025-01-18 10:07:34.492002	2.6	38.1	-92.5	5.0
2025-01-18 10:07:35.651968	2.3	38.3	-92.2	9.2
2025-01-18 10:07:36.796961	2.0	38.6	-92.5	8.1
2025-01-18 10:07:37.947708	1.7	38.8	-92.5	15.6
2025-01-18 10:07:39.093970	1.3	39.0	-92.3	18.4
2025-01-18 10:07:40.247715	1.0	39.2	-92.3	19.8
2025-01-18 10:07:41.405135	0.6	39.4	-92.7	17.7
2025-01-18 10:07:42.557736	0.3	39.6	-92.2	16.5
2025-01-18 10:07:43.704917	359.9	39.9	-92.5	10.3
2025-01-18 10:07:44.859263	359.6	40.1	-92.3	8.0
2025-01-18 10:07:46.013031	359.2	40.3	-92.7	9.7
2025-01-18 10:07:47.169911	358.9	40.5	-92.2	11.1
2025-01-18 10:07:48.319497	358.5	40.7	-92.0	15.9
2025-01-18 10:07:49.479322	358.1	41.0	-92.7	19.3
2025-01-18 10:07:50.636981	357.7	41.2	-92.2	18.2
2025-01-18 10:07:51.797333	357.3	41.4	-92.3	16.5
2025-01-18 10:07:52.953228	356.9	41.6	-92.4	16.0
2025-01-18 10:07:54.117087	356.5	41.8	-92.3	11.5
2025-01-18 10:07:55.271271	356.1	42.1	-92.3	5.2
2025-01-18 10:07:56.428957	355.7	42.3	-92.2	5.8
2025-01-18 10:07:57.588427	355.3	42.5	-92.3	5.9
2025-01-18 10:07:58.738994	354.9	42.7	-92.4	5.2
2025-01-18 10:07:59.895311	354.5	42.9	-92.3	9.2
2025-01-18 10:08:01.052560	354.0	43.1	-92.4	10.9
2025-01-18 10:08:02.218139	353.6	43.3	-92.4	15.4
2025-01-18 10:08:03.371107	353.2	43.6	-92.5	17.4
2025-01-18 10:08:04.533100	352.7	43.8	-92.3	20.3
2025-01-18 10:08:05.679222	352.3	44.0	-92.5	20.4
2025-01-18 10:08:06.836610	351.8	44.2	-92.5	14.8
2025-01-18 10:08:07.991717	351.3	44.4	-92.1	15.3
2025-01-18 10:08:09.157353	350.8	44.6	-92.0	13.3
2025-01-18 10:08:10.309705	350.4	44.8	-92.0	8.3
2025-01-18 10:08:11.462786	349.9	45.0	-92.2	13.5
2025-01-18 10:08:12.619850	349.4	45.2	-92.2	13.7
2025-01-18 10:08:13.780272	348.9	45.4	-92.3	15.1
2025-01-18 10:08:14.941838	348.4	45.6	-92.4	13.8
2025-01-18 10:08:16.091520	347.9	45.8	-92.2	16.7
2025-01-18 10:08:17.238898	347.4	46.0	-92.2	16.5
2025-01-18 10:08:18.398736	346.8	46.2	-92.4	16.6
2025-01-18 10:08:19.558022	346.3	46.4	-92.5	11.7
2025-01-18 10:08:20.714095	345.8	46.6	-92.6	9.8
2025-01-18 10:08:21.865420	345.2	46.8	-92.2	5.4
2025-01-18 10:08:23.033303	344.6	47.0	-92.2	8.2
2025-01-18 10:08:24.190057	344.1	47.2	-92.7	5.4
2025-01-18 10:08:25.341658	343.5	47.4	-92.1	3.2
2025-01-18 10:08:26.497044	343.0	47.6	-92.2	6.6
2025-01-18 10:08:27.662445	342.4	47.8	-92.6	5.5
2025-01-18 10:08:28.822294	341.8	47.9	-92.7	6.3
2025-01-18 10:08:29.980792	341.2	48.1	-92.1	7.2
2025-01-18 10:08:31.138510	340.6	48.3	-92.4	7.2
2025-01-18 10:08:32.288063	340.0	48.5	-92.3	7.0
2025-01-18 10:08:33.446442	339.4	48.6	-92.0	11.8
2025-01-18 10:08:34.610639	338.7	48.8	-92.5	9.3
2025-01-18 10:08:35.769964	338.1	49.0	-92.3	9.3
2025-01-18 10:08:36.918755	337.5	49.1	-92.3	11.7
2025-01-18 10:08:38.076533	336.8	49.3	-92.7	12.9
2025-01-18 10:08:39.233182	336.2	49.4	-92.5	10.7
2025-01-18 10:08:40.389099	335.5	49.6	-92.4	8.0
2025-01-18 10:08:41.546960	334.9	49.7	-92.7	8.0
2025-01-18 10:08:42.697925	334.2	49.9	-92.7	2.9
2025-01-18 10:08:43.851382	333.5	50.0	-92.6	6.0
2025-01-18 10:08:45.007351	332.9	50.1	-92.3	6.8
2025-01-18 10:08:46.165379	332.2	50.3	-92.4	7.0
2025-01-18 10:08:47.315820	331.5	50.4	-92.4	8.6
2025-01-18 10:08:48.478343	330.8	50.5	-92.5	13.6
2025-01-18 10:08:49.631713	330.1	50.6	-92.3	13.5
2025-01-18 10:08:50.787451	329.4	50.7	-92.6	11.8
2025-01-18 10:08:51.943623	328.7	50.8	-92.7	12.5
2025-01-18 10:08:53.105359	328.0	50.9	-92.8	10.9
2025-01-18 10:08:54.261474	327.2	51.0	-92.7	3.4
2025-01-18 10:08:55.423595	326.5	51.1	-92.5	5.9
2025-01-18 10:08:56.572182	325.8	51.2	-92.6	5.8
2025-01-18 10:08:57.733311	325.0	51.3	-92.5	4.1
2025-01-18 10:08:58.890725	324.3	51.4	-92.7	10.4
2025-01-18 10:09:00.043671	323.6	51.5	-91.9	10.5
2025-01-18 10:09:01.188577	322.8	51.5	-92.5	5.8
2025-01-18 10:09:02.339998	322.1	51.6	-92.8	4.9
2025-01-18 10:09:03.500296	321.3	51.7	-92.7	3.8
2025-01-18 10:09:04.663126	320.6	51.7	-92.7	3.4
2025-01-18 10:09:05.825998	319.8	51.8	-92.8	2.8
2025-01-18 10:09:06.983924	319.0	51.8	-92.7	3.2
2025-01-18 10:09:08.136428	318.3	51.9	-92.2	7.9
2025-01-18 10:09:09.287964	317.5	51.9	-92.0	2.6
2025-01-18 10:09:10.445897	316.7	51.9	-92.6	4.9
2025-01-18 10:09:11.600391	316.0	51.9	-92.7	4.5
2025-01-18 10:09:12.758938	315.2	52.0	-92.4	0.3
2025-01-18 10:09:13.920181	314.4	52.0	-92.6	3.4
2025-01-18 10:09:15.075195	313.7	52.0	-92.7	4.1
2025-01-18 10:09:16.219703	312.9	52.0	-92.9	3.6
2025-01-18 10:09:17.383404	312.1	52.0	-92.3	5.9
2025-01-18 10:09:18.536523	311.3	52.0	-92.6	7.2
2025-01-18 10:09:19.687172	310.6	52.0	-93.2	7.6
2025-01-18 10:09:20.833508	309.8	51.9	-92.3	1.7
2025-01-18 10:09:21.993202	309.0	51.9	-92.7	9.1
2025-01-18 10:09:23.146562	308.3	51.9	-92.6	1.4
2025-01-18 10:09:24.299961	307.5	51.9	-92.5	4.3
2025-01-18 10:09:25.452498	306.8	51.8	-92.7	6.0
2025-01-18 10:09:26.607491	306.0	51.8	-93.0	3.8
2025-01-18 10:09:27.757441	305.2	51.7	-92.8	9.7
2025-01-18 10:09:28.914612	304.5	51.7	-92.3	15.2
2025-01-18 10:09:30.073110	303.7	51.6	-92.6	15.6
2025-01-18 10:09:31.229121	303.0	51.5	-92.8	16.1
2025-01-18 10:09:32.382305	302.2	51.5	-92.0	13.6
2025-01-18 10:09:33.537055	301.5	51.4	-92.2	15.9
2025-01-18 10:09:34.689310	300.8	51.3	-92.4	13.9
2025-01-18 10:09:35.837156	300.0	51.2	-92.7	9.9
2025-01-18 10:09:36.972655	299.3	51.1	-92.7	12.8
2025-01-18 10:09:38.093493	298.6	51.0	-92.7	8.7
2025-01-18 10:09:39.217284	297.9	50.9	-92.5	10.6
2025-01-18 10:09:40.339258	297.2	50.8	-92.5	10.8
2025-01-18 10:09:41.459285	296.5	50.7	-92.2	14.4
2025-01-18 10:09:42.580916	295.8	50.6	-92.6	12.3
2025-01-18 10:09:43.692861	295.2	50.5	-92.4	10.5
2025-01-18 10:09:44.814558	294.5	50.4	-92.3	11.4
2025-01-18 10:09:45.935930	293.8	50.3	-92.1	10.8
2025-01-18 10:09:47.074514	293.1	50.1	-92.1	16.4
2025-01-18 10:09:48.227162	292.5	50.0	-92.7	10.7
2025-01-18 10:09:49.379870	291.8	49.9	-92.1	9.1
2025-01-18 10:09:50.538274	291.1	49.7	-92.2	10.9
2025-01-18 10:09:51.684849	290.5	49.6	-92.3	9.9
2025-01-18 10:09:52.842436	289.8	49.4	-92.6	7.4
2025-01-18 10:09:54.013428	289.2	49.3	-92.7	9.4
2025-01-18 10:09:55.171202	288.5	49.1	-92.4	11.2
2025-01-18 10:09:56.326110	287.9	49.0	-92.7	7.0
2025-01-18 10:09:57.484390	287.3	48.8	-92.1	8.9
2025-01-18 10:09:58.642680	286.6	48.7	-92.5	13.3
2025-01-18 10:09:59.797133	286.0	48.5	-92.5	14.3
2025-01-18 10:10:00.942830	285.4	48.3	-92.6	15.2
2025-01-18 10:10:02.095411	284.8	48.1	-92.4	16.6
2025-01-18 10:10:03.255166	284.2	48.0	-92.8	9.6
2025-01-18 10:10:04.411759	283.6	47.8	-92.5	13.2
2025-01-18 10:10:05.562346	283.1	47.6	-92.1	10.6
2025-01-18 10:10:06.717819	282.5	47.4	-92.3	8.8
2025-01-18 10:10:07.877876	281.9	47.2	-92.3	17.3
2025-01-18 10:10:09.031574	281.4	47.1	-92.7	7.3
2025-01-18 10:10:10.198169	280.8	46.9	-92.0	11.5
2025-01-18 10:10:11.366147	280.2	46.7	-92.3	14.3
2025-01-18 10:10:12.513753	279.7	46.5	-92.5	16.5
2025-01-18 10:10:13.673028	279.2	46.3	-92.1	15.7
2025-01-18 10:10:14.825961	278.6	46.1	-92.5	15.2
2025-01-18 10:10:15.983013	278.1	45.9	-92.7	15.7
2025-01-18 10:10:17.140784	277.6	45.7	-92.6	16.4
2025-01-18 10:10:18.289157	277.1	45.5	-92.2	13.4
2025-01-18 10:10:19.446619	276.6	45.3	-92.5	17.5
2025-01-18 10:10:20.602956	276.1	45.1	-92.4	17.2
2025-01-18 10:10:21.771943	275.6	44.9	-92.5	15.2
2025-01-18 10:10:22.925640	275.1	44.7	-92.1	9.0
2025-01-18 10:10:24.079184	274.7	44.4	-92.5	12.1
2025-01-18 10:10:25.229999	274.2	44.2	-92.3	13.6
2025-01-18 10:10:26.378846	273.7	44.0	-92.4	15.4
2025-01-18 10:10:27.533168	273.3	43.8	-92.6	15.2
2025-01-18 10:10:28.694130	272.8	43.6	-92.4	10.1
2025-01-18 10:10:29.851699	272.4	43.4	-92.6	8.8
2025-01-18 10:10:31.018039	271.9	43.2	-92.8	9.8
2025-01-18 10:10:32.162629	271.5	43.0	-92.4	6.8
2025-01-18 10:10:33.314179	271.1	42.7	-92.4	5.9
2025-01-18 10:10:34.472926	270.7	42.5	-92.5	4.6
2025-01-18 10:10:35.631118	270.2	42.3	-92.2	13.0
2025-01-18 10:10:36.792264	269.8	42.1	-92.5	6.6
2025-01-18 10:10:37.949018	269.4	41.9	-92.6	6.7
2025-01-18 10:10:39.107464	269.0	41.7	-92.4	10.0
2025-01-18 10:10:40.260856	268.6	41.4	-92.4	2.3
2025-01-18 10:10:41.425304	268.2	41.2	-92.5	4.7
2025-01-18 10:10:42.577115	267.9	41.0	-92.6	11.6
2025-01-18 10:10:43.733655	267.5	40.8	-92.6	7.4
2025-01-18 10:10:44.887726	267.1	40.6	-92.7	8.9
2025-01-18 10:10:46.029734	266.7	40.4	-92.5	12.2
2025-01-18 10:10:47.185294	266.4	40.1	-92.3	8.0
2025-01-18 10:10:48.334085	266.0	39.9	-92.3	9.7
2025-01-18 10:10:49.490935	265.7	39.7	-92.7	10.2
2025-01-18 10:10:50.642223	265.3	39.5	-92.7	10.7
2025-01-18 10:10:51.794790	265.0	39.3	-92.9	6.7
2025-01-18 10:10:52.965118	264.6	39.0	-92.6	6.8
2025-01-18 10:10:54.121637	264.3	38.8	-92.5	6.4
2025-01-18 10:10:55.270950	264.0	38.6	-92.6	3.9
2025-01-18 10:10:56.425752	263.7	38.4	-92.5	1.1
2025-01-18 10:10:57.582400	263.3	38.2	-92.6	3.6
2025-01-18 10:10:58.734686	263.0	38.0	-92.4	1.2
2025-01-18 10:10:59.898373	262.7	37.7	-92.5	1.6
2025-01-18 10:11:01.051086	262.4	37.5	-92.5	4.7
2025-01-18 10:11:02.215839	262.1	37.3	-92.7	2.0
2025-01-18 10:11:03.369864	261.8	37.1	-92.2	3.8
2025-01-18 10:11:04.518233	261.5	36.9	-92.2	2.5
2025-01-18 10:11:05.682857	261.2	36.7	-92.5	6.0
2025-01-18 10:11:06.839193	260.9	36.5	-92.5	10.0
2025-01-18 10:11:07.994165	260.6	36.2	-92.7	2.1
2025-01-18 10:11:09.144829	260.3	36.0	-92.6	10.4
2025-01-18 10:11:10.294896	260.1	35.8	-92.8	14.0
2025-01-18 10:11:11.442842	259.8	35.6	-92.2	10.3
2025-01-18 10:11:12.607016	259.5	35.4	-92.5	10.3
2025-01-18 10:11:13.756520	259.3	35.2	-92.4	10.0
2025-01-18 10:11:14.914324	259.0	35.0	-92.3	16.1
2025-01-18 10:11:16.063893	258.7	34.8	-92.6	12.6
2025-01-18 10:11:17.228760	258.5	34.6	-92.3	15.7
2025-01-18 10:11:18.389456	258.2	34.4	-92.5	12.1
2025-01-18 10:11:19.552845	258.0	34.1	-92.5	14.3
2025-01-18 10:11:20.712573	257.7	33.9	-92.8	13.2
2025-01-18 10:11:21.865751	257.5	33.7	-92.7	13.2
2025-01-18 10:11:23.022627	257.2	33.5	-92.8	8.6
2025-01-18 10:11:24.179768	257.0	33.3	-92.5	13.8
2025-01-18 10:11:25.337050	256.8	33.1	-92.6	21.3
2025-01-18 10:11:26.496342	256.5	32.9	-92.7	9.5
2025-01-18 10:11:27.648964	256.3	32.7	-92.7	14.7
2025-01-18 10:11:28.804870	256.1	32.5	-92.6	18.5
2025-01-18 10:11:29.959696	255.9	32.3	-92.5	9.2
2025-01-18 10:11:31.122539	255.6	32.1	-92.4	13.3
2025-01-18 10:11:32.282117	255.4	31.9	-92.7	18.6
2025-01-18 10:11:33.432088	255.2	31.7	-92.6	14.7
2025-01-18 10:11:34.586648	255.0	31.5	-92.6	18.5
2025-01-18 10:11:35.746431	254.8	31.3	-92.6	14.6
2025-01-18 10:11:36.900694	254.6	31.1	-92.7	21.7
2025-01-18 10:11:38.061424	254.4	31.0	-92.6	21.7
2025-01-18 10:11:39.215092	254.2	30.8	-92.7	18.3
2025-01-18 10:11:40.386318	254.0	30.6	-92.3	19.7
2025-01-18 10:11:41.537635	253.8	30.4	-92.5	13.8
2025-01-18 10:11:42.687661	253.6	30.2	-92.5	11.7
2025-01-18 10:11:43.813339	253.4	30.0	-92.5	11.7
2025-01-18 10:11:44.933804	253.2	29.8	-92.4	12.2
2025-01-18 10:11:46.053788	253.0	29.6	-92.7	5.4
2025-01-18 10:11:47.175008	252.8	29.5	-92.2	12.9
2025-01-18 10:11:48.296180	252.6	29.3	-92.6	13.1
2025-01-18 10:11:49.416254	252.5	29.1	-92.9	7.8
2025-01-18 10:11:50.537709	252.3	28.9	-92.6	9.2
2025-01-18 10:11:51.661439	252.1	28.7	-92.6	11.9
2025-01-18 10:11:52.789528	251.9	28.6	-92.4	14.8
2025-01-18 10:11:53.946508	251.8	28.4	-92.4	16.2
2025-01-18 10:11:55.090886	251.6	28.2	-92.6	14.3
2025-01-18 10:11:56.236243	251.4	28.0	-92.1	17.8
2025-01-18 10:11:57.359583	251.3	27.9	-92.3	17.2
2025-01-18 10:11:58.502117	251.1	27.7	-92.7	17.6
2025-01-18 10:11:59.645975	250.9	27.5	-92.9	19.0
2025-01-18 10:12:00.789034	250.8	27.3	-92.6	15.4
2025-01-18 10:12:01.929261	250.6	27.2	-93.1	14.3
2025-01-18 10:12:03.083833	250.5	27.0	-92.8	10.4
2025-01-18 10:12:04.239264	250.3	26.8	-92.5	17.2
2025-01-18 10:12:05.408293	250.1	26.6	-92.6	10.8
2025-01-18 10:12:06.560434	250.0	26.5	-92.7	9.8
2025-01-18 10:12:07.713115	249.8	26.3	-92.6	13.1
2025-01-18 10:12:08.859701	249.7	26.1	-92.9	7.4
2025-01-18 10:12:10.001979	249.5	26.0	-93.1	9.8
2025-01-18 10:12:11.129278	249.4	25.8	-92.8	10.8
2025-01-18 10:12:12.277511	249.3	25.6	-93.0	11.6
2025-01-18 10:12:13.418693	249.1	25.5	-92.4	12.7
2025-01-18 10:12:14.574536	249.0	25.3	-92.6	12.7
2025-01-18 10:12:15.723893	248.8	25.1	-92.8	11.9
2025-01-18 10:12:16.886804	248.7	25.0	-93.1	10.2
2025-01-18 10:12:18.039246	248.5	24.8	-92.5	5.1
2025-01-18 10:12:19.191243	248.4	24.6	-92.5	8.5
2025-01-18 10:12:20.342896	248.3	24.5	-92.7	6.8
2025-01-18 10:12:21.499839	248.1	24.3	-92.6	3.5
2025-01-18 10:12:22.660304	248.0	24.2	-92.9	3.2
2025-01-18 10:12:23.829378	247.9	24.0	-92.7	3.9
2025-01-18 10:12:24.992374	247.7	23.8	-92.7	5.9
2025-01-18 10:12:26.164221	247.6	23.7	-92.7	4.9
2025-01-18 10:12:27.316827	247.5	23.5	-92.8	6.2
2025-01-18 10:12:28.472786	247.4	23.4	-92.3	5.6
2025-01-18 10:12:29.630322	247.2	23.2	-92.8	2.0
2025-01-18 10:12:30.792444	247.1	23.0	-92.8	2.3
2025-01-18 10:12:31.947371	247.0	22.9	-92.4	1.4
2025-01-18 10:12:33.097632	246.9	22.7	-92.7	5.9
2025-01-18 10:12:34.259775	246.7	22.6	-92.4	4.4
2025-01-18 10:12:35.406256	246.6	22.4	-92.7	5.5
2025-01-18 10:12:36.564311	246.5	22.3	-92.9	5.7
2025-01-18 10:12:37.718439	246.4	22.1	-92.8	5.0
2025-01-18 10:12:38.872136	246.3	22.0	-92.7	6.3
2025-01-18 10:12:40.028514	246.2	21.8	-92.5	4.7
2025-01-18 10:12:41.181849	246.1	21.7	-92.4	8.1
2025-01-18 10:12:42.338897	245.9	21.5	-92.4	3.2
2025-01-18 10:12:43.492526	245.8	21.4	-92.3	6.1
2025-01-18 10:12:44.651156	245.7	21.2	-92.5	4.2
2025-01-18 10:12:45.802386	245.6	21.1	-91.8	5.1
2025-01-18 10:12:46.959833	245.5	21.0	-92.6	3.2
2025-01-18 10:12:48.105087	245.4	20.8	-92.5	6.1
2025-01-18 10:12:49.261187	245.3	20.7	-92.4	8.5
2025-01-18 10:12:50.420341	245.2	20.5	-92.7	3.5
2025-01-18 10:12:51.578125	245.1	20.4	-92.1	4.8
2025-01-18 10:12:52.732448	245.0	20.2	-92.1	6.4
2025-01-18 10:12:53.890282	244.9	20.1	-92.5	5.9
2025-01-18 10:12:55.045226	244.8	20.0	-92.0	2.7
2025-01-18 10:12:56.206752	244.7	19.8	-92.6	8.8
2025-01-18 10:12:57.356756	244.6	19.7	-92.4	5.6
2025-01-18 10:12:58.506058	244.5	19.6	-92.3	10.8
2025-01-18 10:12:59.658942	244.4	19.4	-92.8	10.9
2025-01-18 10:13:00.806671	244.3	19.3	-92.6	12.5
2025-01-18 10:13:01.956577	244.2	19.1	-92.7	11.5
2025-01-18 10:13:03.117966	244.1	19.0	-92.5	10.5
2025-01-18 10:13:04.275495	244.0	18.9	-92.6	14.7
2025-01-18 10:13:05.427434	243.9	18.7	-92.6	9.7
2025-01-18 10:13:06.581470	243.8	18.6	-92.8	9.9
2025-01-18 10:13:07.732379	243.7	18.5	-92.2	11.4
2025-01-18 10:13:08.891313	243.6	18.3	-92.9	8.6
2025-01-18 10:13:10.040714	243.6	18.2	-92.2	10.4
2025-01-18 10:13:11.193983	243.5	18.1	-92.6	12.5
2025-01-18 10:13:12.352110	243.4	18.0	-92.3	13.1
2025-01-18 10:13:13.506770	243.3	17.8	-92.5	10.0
2025-01-18 10:13:14.660269	243.2	17.7	-92.6	10.0
2025-01-18 10:13:15.819927	243.1	17.6	-92.2	8.0
2025-01-18 10:13:16.980496	243.0	17.4	-92.6	5.0
2025-01-18 10:13:18.133455	242.9	17.3	-92.9	1.9
2025-01-18 10:13:19.288897	242.9	17.2	-92.4	3.0
2025-01-18 10:13:20.447097	242.8	17.1	-92.3	1.2
2025-01-18 10:13:21.606118	242.7	16.9	-92.6	4.5
2025-01-18 10:13:22.760313	242.6	16.8	-92.7	5.6
2025-01-18 10:13:23.908408	242.5	16.7	-91.9	3.8
2025-01-18 10:13:25.064141	242.5	16.6	-92.2	5.3
2025-01-18 10:13:26.224454	242.4	16.4	-92.4	8.1
2025-01-18 10:13:27.376741	242.3	16.3	-91.7	8.4
2025-01-18 10:13:28.536771	242.2	16.2	-92.3	9.7
2025-01-18 10:13:29.690921	242.1	16.1	-92.2	8.6
2025-01-18 10:13:30.861521	242.1	15.9	-92.3	10.1
2025-01-18 10:13:32.012401	242.0	15.8	-92.0	6.8
2025-01-18 10:13:33.175908	241.9	15.7	-92.3	10.0
2025-01-18 10:13:34.336225	241.8	15.6	-92.6	11.9
2025-01-18 10:13:35.497238	241.8	15.5	-92.1	7.7
2025-01-18 10:13:36.654414	241.7	15.4	-92.3	8.0
2025-01-18 10:13:37.810887	241.6	15.2	-92.6	10.7
2025-01-18 10:13:38.969841	241.5	15.1	-91.9	8.4
2025-01-18 10:13:40.123582	241.5	15.0	-91.9	10.0
2025-01-18 10:13:41.272571	241.4	14.9	-92.6	12.0
2025-01-18 10:13:42.425866	241.3	14.8	-92.0	9.5
2025-01-18 10:13:43.578884	241.3	14.7	-92.2	9.6
2025-01-18 10:13:44.730960	241.2	14.5	-92.2	10.8
#Closed at: 2025-01-18 10:04:57.484426