passes_logs/2025/01/18/LEX_Murmansk/LEX_Murmansk__20250118_082407_NOAA_19_rec.log

#Pass ID: 20250118_082407_NOAA 19
#Satellite: NOAA 19
#Configuration: NOAA 19
#Start time: 2025-01-18 08:24:02.530997

#LorettStation: 1.0.0 05.05.2024
#Station: LEX_Murmansk
#Location: 33.156738 lon 68.926811 lat
#TLE: 1 33591U 09005A   25017.12803845  .00000314  00000+0  19161-3 0  9999
#TLE: 2 33591  99.0192  80.9069 0014403  51.8715 308.3753 14.13261185821848

#Time	Az	El	Level	SNR
2025-01-18 08:24:14.652789	28.0	16.3	-91.0	3.3
2025-01-18 08:24:15.805374	28.1	16.4	-91.1	2.2
2025-01-18 08:24:16.951940	28.1	16.5	-91.3	2.3
2025-01-18 08:24:18.098513	28.2	16.7	-91.4	1.6
2025-01-18 08:24:19.248093	28.2	16.8	-90.9	6.6
2025-01-18 08:24:20.398002	28.3	16.9	-91.1	3.0
2025-01-18 08:24:21.548412	28.3	17.1	-91.2	1.9
2025-01-18 08:24:22.692110	28.4	17.2	-90.9	1.5
2025-01-18 08:24:23.842693	28.4	17.3	-91.2	3.3
2025-01-18 08:24:24.990583	28.5	17.4	-91.3	2.9
2025-01-18 08:24:26.135218	28.5	17.6	-91.1	9.2
2025-01-18 08:24:27.286296	28.6	17.7	-91.7	3.2
2025-01-18 08:24:28.435840	28.6	17.8	-91.7	9.4
2025-01-18 08:24:29.583740	28.7	18.0	-91.7	4.7
2025-01-18 08:24:30.726946	28.7	18.1	-91.9	6.3
2025-01-18 08:24:31.875465	28.8	18.2	-92.0	3.8
2025-01-18 08:24:33.018315	28.9	18.4	-91.8	6.6
2025-01-18 08:24:34.162168	28.9	18.5	-91.7	5.6
2025-01-18 08:24:35.310156	29.0	18.7	-91.8	6.3
2025-01-18 08:24:36.458486	29.0	18.8	-91.6	1.7
2025-01-18 08:24:37.605947	29.1	18.9	-91.6	1.0
2025-01-18 08:24:38.751224	29.1	19.1	-91.6	3.3
2025-01-18 08:24:39.897766	29.2	19.2	-91.9	1.7
2025-01-18 08:24:41.048248	29.2	19.4	-91.7	5.8
2025-01-18 08:24:42.198787	29.3	19.5	-92.1	7.3
2025-01-18 08:24:43.342778	29.3	19.6	-92.3	9.3
2025-01-18 08:24:44.490504	29.4	19.8	-91.4	9.4
2025-01-18 08:24:45.637672	29.5	19.9	-91.6	10.1
2025-01-18 08:24:46.781747	29.5	20.1	-92.2	6.5
2025-01-18 08:24:47.932870	29.6	20.2	-91.4	7.6
2025-01-18 08:24:49.081972	29.6	20.4	-91.8	6.8
2025-01-18 08:24:50.231247	29.7	20.5	-91.7	9.6
2025-01-18 08:24:51.382002	29.8	20.7	-91.8	5.0
2025-01-18 08:24:52.535442	29.8	20.8	-91.6	5.9
2025-01-18 08:24:53.685669	29.9	21.0	-91.7	2.7
2025-01-18 08:24:54.836800	30.0	21.1	-91.6	2.2
2025-01-18 08:24:55.986864	30.0	21.3	-91.9	3.5
2025-01-18 08:24:57.136069	30.1	21.4	-91.9	7.4
2025-01-18 08:24:58.284261	30.1	21.6	-91.6	8.3
2025-01-18 08:24:59.427060	30.2	21.7	-91.7	13.4
2025-01-18 08:25:00.570246	30.3	21.9	-91.9	12.6
2025-01-18 08:25:01.718154	30.3	22.0	-91.8	9.1
2025-01-18 08:25:02.866123	30.4	22.2	-91.8	9.8
2025-01-18 08:25:04.008022	30.5	22.3	-91.9	8.3
2025-01-18 08:25:05.156007	30.5	22.5	-91.6	10.9
2025-01-18 08:25:06.305618	30.6	22.7	-91.5	14.2
2025-01-18 08:25:07.451007	30.7	22.8	-91.6	10.3
2025-01-18 08:25:08.597174	30.7	23.0	-91.4	6.3
2025-01-18 08:25:09.742107	30.8	23.1	-91.6	5.1
2025-01-18 08:25:10.886980	30.9	23.3	-91.3	5.7
2025-01-18 08:25:12.033357	31.0	23.5	-91.6	3.4
2025-01-18 08:25:13.180095	31.0	23.6	-91.8	5.3
2025-01-18 08:25:14.325146	31.1	23.8	-91.1	10.4
2025-01-18 08:25:15.472676	31.2	24.0	-91.5	11.5
2025-01-18 08:25:16.618515	31.3	24.1	-91.7	11.9
2025-01-18 08:25:17.765696	31.3	24.3	-91.4	9.5
2025-01-18 08:25:18.913076	31.4	24.5	-91.6	8.1
2025-01-18 08:25:20.063839	31.5	24.7	-91.4	7.1
2025-01-18 08:25:21.211463	31.6	24.8	-91.7	9.8
2025-01-18 08:25:22.355763	31.6	25.0	-91.5	11.9
2025-01-18 08:25:23.503552	31.7	25.2	-91.6	11.2
2025-01-18 08:25:24.650147	31.8	25.4	-91.8	8.8
2025-01-18 08:25:25.792487	31.9	25.5	-91.6	5.2
2025-01-18 08:25:26.951297	32.0	25.7	-91.3	3.1
2025-01-18 08:25:28.097420	32.0	25.9	-91.7	3.2
2025-01-18 08:25:29.244105	32.1	26.1	-91.9	4.0
2025-01-18 08:25:30.392600	32.2	26.3	-91.5	2.7
2025-01-18 08:25:31.540782	32.3	26.4	-91.6	7.1
2025-01-18 08:25:32.677781	32.4	26.6	-91.5	9.9
2025-01-18 08:25:33.801872	32.5	26.8	-91.8	8.6
2025-01-18 08:25:34.923532	32.6	27.0	-91.9	6.3
2025-01-18 08:25:36.045452	32.6	27.2	-92.1	6.3
2025-01-18 08:25:37.164321	32.7	27.4	-91.6	7.2
2025-01-18 08:25:38.285987	32.8	27.5	-91.9	7.1
2025-01-18 08:25:39.406005	32.9	27.7	-91.9	9.4
2025-01-18 08:25:40.527977	33.0	27.9	-91.7	7.8
2025-01-18 08:25:41.650463	33.1	28.1	-91.8	5.0
2025-01-18 08:25:42.774247	33.2	28.3	-91.5	3.6
2025-01-18 08:25:43.921115	33.3	28.5	-91.5	2.0
2025-01-18 08:25:45.066858	33.4	28.7	-91.5	1.8
2025-01-18 08:25:46.212221	33.5	28.9	-91.7	3.0
2025-01-18 08:25:47.353324	33.6	29.1	-91.7	7.2
2025-01-18 08:25:48.500665	33.7	29.3	-91.9	11.1
2025-01-18 08:25:49.645395	33.8	29.5	-91.7	11.7
2025-01-18 08:25:50.777498	33.9	29.7	-91.8	11.5
2025-01-18 08:25:51.926158	34.0	29.9	-91.7	7.2
2025-01-18 08:25:53.070928	34.1	30.1	-91.8	7.4
2025-01-18 08:25:54.214656	34.2	30.3	-91.8	10.2
2025-01-18 08:25:55.361259	34.3	30.5	-91.8	11.1
2025-01-18 08:25:56.509862	34.4	30.7	-91.5	13.0
2025-01-18 08:25:57.660100	34.5	30.9	-91.7	10.8
2025-01-18 08:25:58.810561	34.6	31.2	-91.5	8.1
2025-01-18 08:25:59.955614	34.8	31.4	-91.7	4.9
2025-01-18 08:26:01.095903	34.9	31.6	-92.0	0.8
2025-01-18 08:26:02.245233	35.0	31.8	-92.1	4.8
2025-01-18 08:26:03.393429	35.1	32.0	-91.5	4.8
2025-01-18 08:26:04.545177	35.2	32.3	-91.6	4.4
2025-01-18 08:26:05.695135	35.3	32.5	-91.8	8.5
2025-01-18 08:26:06.842767	35.5	32.7	-91.8	11.3
2025-01-18 08:26:07.992391	35.6	32.9	-91.6	11.8
2025-01-18 08:26:09.138965	35.7	33.2	-91.8	10.8
2025-01-18 08:26:10.284322	35.8	33.4	-92.0	10.0
2025-01-18 08:26:11.433704	36.0	33.6	-91.7	7.8
2025-01-18 08:26:12.580782	36.1	33.9	-91.7	8.1
2025-01-18 08:26:13.723165	36.2	34.1	-91.9	13.0
2025-01-18 08:26:14.876815	36.4	34.3	-92.1	15.4
2025-01-18 08:26:16.023658	36.5	34.6	-92.1	13.0
2025-01-18 08:26:17.169176	36.7	34.8	-92.0	8.6
2025-01-18 08:26:18.313877	36.8	35.0	-91.9	7.9
2025-01-18 08:26:19.464597	36.9	35.3	-91.8	3.1
2025-01-18 08:26:20.611087	37.1	35.5	-92.0	3.5
2025-01-18 08:26:21.755613	37.2	35.8	-91.9	7.0
2025-01-18 08:26:22.901460	37.4	36.0	-91.7	9.8
2025-01-18 08:26:24.046806	37.5	36.3	-92.1	11.5
2025-01-18 08:26:25.190747	37.7	36.5	-92.1	15.5
2025-01-18 08:26:26.334780	37.8	36.8	-91.6	15.0
2025-01-18 08:26:27.477560	38.0	37.0	-92.0	12.3
2025-01-18 08:26:28.626953	38.2	37.3	-91.6	10.2
2025-01-18 08:26:29.773954	38.3	37.5	-91.8	10.1
2025-01-18 08:26:30.917472	38.5	37.8	-92.1	10.6
2025-01-18 08:26:32.064155	38.7	38.1	-91.8	13.5
2025-01-18 08:26:33.209465	38.8	38.3	-91.9	17.2
2025-01-18 08:26:34.355312	39.0	38.6	-92.0	15.0
2025-01-18 08:26:35.494024	39.2	38.9	-91.9	10.3
2025-01-18 08:26:36.641490	39.4	39.1	-91.5	6.9
2025-01-18 08:26:37.791931	39.5	39.4	-92.0	4.6
2025-01-18 08:26:38.938604	39.7	39.7	-91.8	1.7
2025-01-18 08:26:40.086894	39.9	39.9	-91.9	2.3
2025-01-18 08:26:41.232595	40.1	40.2	-92.0	8.3
2025-01-18 08:26:42.379188	40.3	40.5	-91.6	9.9
2025-01-18 08:26:43.533638	40.5	40.8	-91.8	12.1
2025-01-18 08:26:44.676242	40.7	41.0	-91.9	16.6
2025-01-18 08:26:45.823009	40.9	41.3	-91.7	17.1
2025-01-18 08:26:46.967357	41.1	41.6	-91.7	12.1
2025-01-18 08:26:48.107664	41.3	41.9	-91.5	9.4
2025-01-18 08:26:49.258611	41.5	42.2	-91.7	14.5
2025-01-18 08:26:50.404163	41.8	42.5	-92.0	12.6
2025-01-18 08:26:51.552382	42.0	42.8	-91.6	15.1
2025-01-18 08:26:52.703003	42.2	43.1	-91.6	18.9
2025-01-18 08:26:53.853120	42.4	43.4	-91.6	18.0
2025-01-18 08:26:54.999252	42.7	43.7	-92.1	16.8
2025-01-18 08:26:56.143443	42.9	44.0	-91.7	11.3
2025-01-18 08:26:57.291123	43.2	44.3	-91.7	8.0
2025-01-18 08:26:58.437819	43.4	44.6	-92.1	5.3
2025-01-18 08:26:59.585168	43.7	44.9	-92.0	2.7
2025-01-18 08:27:00.726556	43.9	45.2	-91.9	5.1
2025-01-18 08:27:01.871766	44.2	45.5	-91.9	7.1
2025-01-18 08:27:03.025935	44.5	45.8	-92.2	10.8
2025-01-18 08:27:04.172751	44.7	46.1	-91.8	14.3
2025-01-18 08:27:05.318170	45.0	46.4	-92.0	16.3
2025-01-18 08:27:06.465798	45.3	46.7	-92.0	15.5
2025-01-18 08:27:07.609598	45.6	47.0	-91.8	12.0
2025-01-18 08:27:08.758133	45.9	47.4	-91.8	11.3
2025-01-18 08:27:09.905609	46.2	47.7	-92.1	8.3
2025-01-18 08:27:11.052702	46.5	48.0	-91.7	4.7
2025-01-18 08:27:12.206144	46.8	48.3	-92.0	7.3
2025-01-18 08:27:13.353635	47.1	48.6	-91.5	7.8
2025-01-18 08:27:14.502805	47.5	49.0	-91.1	5.1
2025-01-18 08:27:15.650716	47.8	49.3	-91.0	7.7
2025-01-18 08:27:16.797127	48.1	49.6	-91.2	6.7
2025-01-18 08:27:17.942384	48.5	49.9	-91.1	5.2
2025-01-18 08:27:19.090819	48.8	50.3	-91.1	1.6
2025-01-18 08:27:20.239070	49.2	50.6	-92.0	4.4
2025-01-18 08:27:21.386820	49.6	50.9	-91.9	5.1
2025-01-18 08:27:22.536047	50.0	51.3	-92.0	1.2
2025-01-18 08:27:23.682331	50.4	51.6	-91.2	1.7
2025-01-18 08:27:24.829645	50.8	51.9	-91.2	4.4
2025-01-18 08:27:25.975601	51.2	52.3	-91.3	7.6
2025-01-18 08:27:27.123759	51.6	52.6	-90.8	8.3
2025-01-18 08:27:28.273456	52.0	53.0	-91.2	12.4
2025-01-18 08:27:29.422536	52.4	53.3	-91.3	14.5
2025-01-18 08:27:30.570962	52.9	53.6	-90.9	12.6
2025-01-18 08:27:31.715894	53.3	54.0	-91.8	9.8
2025-01-18 08:27:32.863630	53.8	54.3	-91.9	10.5
2025-01-18 08:27:34.012303	54.3	54.7	-91.5	5.5
2025-01-18 08:27:35.158536	54.8	55.0	-91.7	8.7
2025-01-18 08:27:36.309031	55.3	55.3	-91.9	8.2
2025-01-18 08:27:37.458048	55.8	55.7	-91.5	9.1
2025-01-18 08:27:38.605767	56.3	56.0	-91.7	11.9
2025-01-18 08:27:39.747983	56.9	56.4	-92.1	15.2
2025-01-18 08:27:40.899704	57.4	56.7	-91.8	15.3
2025-01-18 08:27:42.045607	58.0	57.0	-91.7	13.4
2025-01-18 08:27:43.193303	58.6	57.4	-92.0	13.5
2025-01-18 08:27:44.342065	59.2	57.7	-91.7	9.7
2025-01-18 08:27:45.487624	59.8	58.1	-91.7	8.9
2025-01-18 08:27:46.634892	60.4	58.4	-91.7	8.7
2025-01-18 08:27:47.776621	61.0	58.7	-92.0	6.5
2025-01-18 08:27:48.923886	61.7	59.1	-91.9	4.3
2025-01-18 08:27:50.067302	62.4	59.4	-91.8	3.5
2025-01-18 08:27:51.209781	63.0	59.7	-92.2	8.3
2025-01-18 08:27:52.357876	63.7	60.1	-91.8	9.6
2025-01-18 08:27:53.502981	64.5	60.4	-91.9	10.3
2025-01-18 08:27:54.649293	65.2	60.7	-92.0	15.8
2025-01-18 08:27:55.798878	66.0	61.0	-91.6	17.5
2025-01-18 08:27:56.946756	66.8	61.3	-91.8	18.2
2025-01-18 08:27:58.089908	67.6	61.7	-92.1	18.4
2025-01-18 08:27:59.237363	68.4	62.0	-91.6	18.4
2025-01-18 08:28:00.382784	69.2	62.3	-91.8	18.0
2025-01-18 08:28:01.529549	70.1	62.6	-92.0	13.0
2025-01-18 08:28:02.676824	71.0	62.9	-91.9	11.2
2025-01-18 08:28:03.824002	71.9	63.2	-92.0	10.2
2025-01-18 08:28:04.970677	72.8	63.5	-92.2	7.1
2025-01-18 08:28:06.117356	73.8	63.7	-91.7	8.1
2025-01-18 08:28:07.266095	74.8	64.0	-91.9	10.9
2025-01-18 08:28:08.415131	75.8	64.3	-92.1	9.0
2025-01-18 08:28:09.563937	76.8	64.6	-91.9	13.1
2025-01-18 08:28:10.713489	77.8	64.8	-91.9	10.7
2025-01-18 08:28:11.862416	78.9	65.1	-92.1	15.4
2025-01-18 08:28:13.008794	80.0	65.3	-92.0	12.2
2025-01-18 08:28:14.152837	81.1	65.6	-91.8	16.9
2025-01-18 08:28:15.299015	82.3	65.8	-91.9	15.1
2025-01-18 08:28:16.442835	83.4	66.0	-92.1	14.2
2025-01-18 08:28:17.590214	84.6	66.2	-91.7	15.9
2025-01-18 08:28:18.736177	85.9	66.4	-92.1	13.1
2025-01-18 08:28:19.882401	87.1	66.6	-92.1	9.8
2025-01-18 08:28:21.029534	88.4	66.8	-91.9	9.5
2025-01-18 08:28:22.176681	89.6	67.0	-92.1	9.7
2025-01-18 08:28:23.323352	90.9	67.2	-92.0	4.8
2025-01-18 08:28:24.479238	92.3	67.3	-91.8	3.6
2025-01-18 08:28:25.629921	93.6	67.5	-92.3	8.2
2025-01-18 08:28:26.780350	95.0	67.6	-91.9	8.6
2025-01-18 08:28:27.924656	96.4	67.7	-91.9	6.0
2025-01-18 08:28:29.069496	97.8	67.8	-91.9	4.0
2025-01-18 08:28:30.217537	99.2	67.9	-91.6	9.0
2025-01-18 08:28:31.361749	100.6	68.0	-91.7	6.4
2025-01-18 08:28:32.512946	102.0	68.1	-91.8	4.9
2025-01-18 08:28:33.659285	103.5	68.1	-91.8	8.1
2025-01-18 08:28:34.803353	104.9	68.2	-91.8	9.3
2025-01-18 08:28:35.949888	106.4	68.2	-91.8	8.7
2025-01-18 08:28:37.093991	107.8	68.3	-92.0	7.9
2025-01-18 08:28:38.240927	109.3	68.3	-91.8	13.0
2025-01-18 08:28:39.385596	110.7	68.3	-91.8	10.2
2025-01-18 08:28:40.529679	112.2	68.2	-92.1	14.6
2025-01-18 08:28:41.675536	113.7	68.2	-92.0	14.2
2025-01-18 08:28:42.821091	115.1	68.2	-91.9	14.0
2025-01-18 08:28:43.966543	116.6	68.1	-92.1	16.1
2025-01-18 08:28:45.114028	118.0	68.0	-92.0	19.7
2025-01-18 08:28:46.261593	119.4	68.0	-91.9	16.0
2025-01-18 08:28:47.420097	120.9	67.9	-91.8	18.0
2025-01-18 08:28:48.567265	122.3	67.8	-92.3	19.7
2025-01-18 08:28:49.720415	123.6	67.7	-92.2	20.1
2025-01-18 08:28:50.865864	125.0	67.5	-91.8	20.0
2025-01-18 08:28:52.013888	126.4	67.4	-91.5	16.4
2025-01-18 08:28:53.160582	127.7	67.2	-92.2	18.5
2025-01-18 08:28:54.312153	129.0	67.1	-91.4	22.6
2025-01-18 08:28:55.459916	130.3	66.9	-91.7	16.2
2025-01-18 08:28:56.599128	131.6	66.7	-91.9	19.1
2025-01-18 08:28:57.749135	132.8	66.5	-91.7	18.2
2025-01-18 08:28:58.895558	134.1	66.3	-91.7	17.4
2025-01-18 08:29:00.038467	135.3	66.1	-92.1	18.6
2025-01-18 08:29:01.187135	136.4	65.9	-91.8	7.2
2025-01-18 08:29:02.333038	137.6	65.7	-91.9	9.8
2025-01-18 08:29:03.483443	138.7	65.4	-91.7	15.2
2025-01-18 08:29:04.626250	139.8	65.2	-91.8	13.2
2025-01-18 08:29:05.773122	140.9	64.9	-91.8	6.7
2025-01-18 08:29:06.919528	142.0	64.7	-91.8	17.5
2025-01-18 08:29:08.065275	143.0	64.4	-92.0	15.8
2025-01-18 08:29:09.211739	144.0	64.2	-92.1	16.3
2025-01-18 08:29:10.357218	145.0	63.9	-92.4	15.8
2025-01-18 08:29:11.500844	146.0	63.6	-92.0	17.1
2025-01-18 08:29:12.647884	146.9	63.3	-91.9	14.4
2025-01-18 08:29:13.794510	147.9	63.0	-92.0	13.7
2025-01-18 08:29:14.938354	148.7	62.7	-91.8	17.9
2025-01-18 08:29:16.081694	149.6	62.4	-92.0	18.0
2025-01-18 08:29:17.230989	150.5	62.1	-92.0	14.9
2025-01-18 08:29:18.378737	151.3	61.8	-90.7	12.9
2025-01-18 08:29:19.532511	152.1	61.5	-92.1	15.4
2025-01-18 08:29:20.680712	152.9	61.2	-92.2	15.6
2025-01-18 08:29:21.824721	153.7	60.9	-91.7	17.8
2025-01-18 08:29:22.971949	154.5	60.5	-91.8	17.3
2025-01-18 08:29:24.120517	155.2	60.2	-92.0	18.1
2025-01-18 08:29:25.263813	155.9	59.9	-90.5	15.4
2025-01-18 08:29:26.416672	156.6	59.6	-90.3	16.9
2025-01-18 08:29:27.559487	157.3	59.2	-92.0	15.3
2025-01-18 08:29:28.705238	157.9	58.9	-91.7	15.0
2025-01-18 08:29:29.853909	158.6	58.6	-92.0	13.9
2025-01-18 08:29:31.004070	159.2	58.2	-92.0	16.8
2025-01-18 08:29:32.153046	159.9	57.9	-92.0	14.1
2025-01-18 08:29:33.300103	160.5	57.6	-92.3	15.8
2025-01-18 08:29:34.446247	161.0	57.2	-91.9	15.3
2025-01-18 08:29:35.592151	161.6	56.9	-92.0	11.7
2025-01-18 08:29:36.741178	162.2	56.5	-92.0	13.5
2025-01-18 08:29:37.888901	162.7	56.2	-91.8	11.9
2025-01-18 08:29:39.036267	163.2	55.9	-92.0	13.2
2025-01-18 08:29:40.179188	163.8	55.5	-92.1	14.7
2025-01-18 08:29:41.329808	164.3	55.2	-91.9	13.8
2025-01-18 08:29:42.472513	164.8	54.8	-91.9	11.9
2025-01-18 08:29:43.622735	165.3	54.5	-92.2	11.2
2025-01-18 08:29:44.774463	165.7	54.1	-91.7	10.0
2025-01-18 08:29:45.923510	166.2	53.8	-91.9	14.1
2025-01-18 08:29:47.068705	166.6	53.5	-92.2	15.4
2025-01-18 08:29:48.215183	167.1	53.1	-91.8	10.0
2025-01-18 08:29:49.362543	167.5	52.8	-91.9	8.3
2025-01-18 08:29:50.506465	167.9	52.5	-92.2	13.9
2025-01-18 08:29:51.651629	168.3	52.1	-91.8	7.1
2025-01-18 08:29:52.797454	168.7	51.8	-91.8	7.3
2025-01-18 08:29:53.945932	169.1	51.4	-92.0	11.5
2025-01-18 08:29:55.096718	169.5	51.1	-91.9	8.7
2025-01-18 08:29:56.240122	169.9	50.8	-91.8	4.1
2025-01-18 08:29:57.388645	170.3	50.4	-92.0	8.4
2025-01-18 08:29:58.536777	170.6	50.1	-92.0	11.3
2025-01-18 08:29:59.685872	171.0	49.8	-91.8	8.9
2025-01-18 08:30:00.831640	171.3	49.5	-91.8	8.3
2025-01-18 08:30:01.976339	171.7	49.1	-92.1	15.5
2025-01-18 08:30:03.125690	172.0	48.8	-92.0	13.6
2025-01-18 08:30:04.272791	172.3	48.5	-92.2	12.9
2025-01-18 08:30:05.423093	172.6	48.2	-92.2	15.0
2025-01-18 08:30:06.573039	173.0	47.8	-92.2	14.8
2025-01-18 08:30:07.717514	173.3	47.5	-91.9	16.5
2025-01-18 08:30:08.868426	173.6	47.2	-92.1	15.2
2025-01-18 08:30:10.012083	173.9	46.9	-91.7	16.6
2025-01-18 08:30:11.165315	174.1	46.6	-91.7	15.5
2025-01-18 08:30:12.310161	174.4	46.2	-92.0	10.9
2025-01-18 08:30:13.454429	174.7	45.9	-92.2	15.9
2025-01-18 08:30:14.597233	175.0	45.6	-92.0	15.2
2025-01-18 08:30:15.746135	175.2	45.3	-92.3	12.6
2025-01-18 08:30:16.890645	175.5	45.0	-91.8	11.9
2025-01-18 08:30:18.042850	175.8	44.7	-91.9	11.6
2025-01-18 08:30:19.190736	176.0	44.4	-91.7	8.2
2025-01-18 08:30:20.339604	176.2	44.1	-92.0	6.3
2025-01-18 08:30:21.487759	176.5	43.8	-91.9	12.7
2025-01-18 08:30:22.633667	176.7	43.5	-91.7	9.5
2025-01-18 08:30:23.782112	177.0	43.2	-91.8	8.6
2025-01-18 08:30:24.930517	177.2	42.9	-92.0	13.3
2025-01-18 08:30:26.076187	177.4	42.6	-91.5	12.5
2025-01-18 08:30:27.224161	177.6	42.3	-92.0	10.8
2025-01-18 08:30:28.370667	177.9	42.0	-91.8	12.9
2025-01-18 08:30:29.516591	178.1	41.8	-91.6	16.8
2025-01-18 08:30:30.668859	178.3	41.5	-92.1	15.3
2025-01-18 08:30:31.810848	178.5	41.2	-92.0	13.4
2025-01-18 08:30:32.952809	178.7	40.9	-91.8	8.8
2025-01-18 08:30:34.101511	178.9	40.6	-92.1	8.2
2025-01-18 08:30:35.249020	179.1	40.3	-92.3	11.0
2025-01-18 08:30:36.398600	179.3	40.1	-91.7	9.5
2025-01-18 08:30:37.545361	179.5	39.8	-91.7	5.9
2025-01-18 08:30:38.693007	179.7	39.5	-92.0	5.0
2025-01-18 08:30:39.838140	179.8	39.2	-91.9	6.8
2025-01-18 08:30:40.983238	180.0	39.0	-92.1	12.2
2025-01-18 08:30:42.125817	180.2	38.7	-91.8	11.5
2025-01-18 08:30:43.273315	180.4	38.4	-91.8	7.5
2025-01-18 08:30:44.425770	180.5	38.2	-91.9	7.3
2025-01-18 08:30:45.574789	180.7	37.9	-92.0	9.1
2025-01-18 08:30:46.720128	180.9	37.7	-92.0	9.5
2025-01-18 08:30:47.868463	181.0	37.4	-92.1	12.8
2025-01-18 08:30:49.016454	181.2	37.1	-92.2	15.1
2025-01-18 08:30:50.164746	181.4	36.9	-91.8	12.2
2025-01-18 08:30:51.311057	181.5	36.6	-91.8	9.6
2025-01-18 08:30:52.456769	181.7	36.4	-92.1	12.2
2025-01-18 08:30:53.605364	181.8	36.1	-92.1	12.4
2025-01-18 08:30:54.752838	182.0	35.9	-91.7	10.5
2025-01-18 08:30:55.908417	182.1	35.6	-91.9	11.4
2025-01-18 08:30:57.055167	182.3	35.4	-92.0	11.5
2025-01-18 08:30:58.204971	182.4	35.1	-92.3	5.7
2025-01-18 08:30:59.358852	182.6	34.9	-91.6	3.9
2025-01-18 08:31:00.505854	182.7	34.7	-91.7	11.0
2025-01-18 08:31:01.651989	182.8	34.4	-92.1	6.7
2025-01-18 08:31:02.793626	183.0	34.2	-91.8	8.0
2025-01-18 08:31:03.941620	183.1	34.0	-91.7	11.6
2025-01-18 08:31:05.082145	183.2	33.7	-91.8	10.8
2025-01-18 08:31:06.228613	183.4	33.5	-91.7	6.2
2025-01-18 08:31:07.375146	183.5	33.3	-91.7	8.5
2025-01-18 08:31:08.517303	183.6	33.0	-91.4	9.7
2025-01-18 08:31:09.663212	183.8	32.8	-91.4	13.0
2025-01-18 08:31:10.809551	183.9	32.6	-91.9	11.8
2025-01-18 08:31:11.947753	184.0	32.4	-91.5	11.0
2025-01-18 08:31:13.094175	184.1	32.1	-91.6	10.3
2025-01-18 08:31:14.240200	184.2	31.9	-91.7	7.6
2025-01-18 08:31:15.388004	184.4	31.7	-91.7	5.3
2025-01-18 08:31:16.539606	184.5	31.5	-91.4	8.7
2025-01-18 08:31:17.693009	184.6	31.3	-91.9	7.6
2025-01-18 08:31:18.839527	184.7	31.0	-91.8	5.1
2025-01-18 08:31:19.986881	184.8	30.8	-91.5	9.4
2025-01-18 08:31:21.135633	184.9	30.6	-91.7	9.0
2025-01-18 08:31:22.277442	185.0	30.4	-92.0	7.8
2025-01-18 08:31:23.429655	185.1	30.2	-91.7	8.2
2025-01-18 08:31:24.579786	185.2	30.0	-91.4	8.4
2025-01-18 08:31:25.728702	185.3	29.8	-91.6	8.2
2025-01-18 08:31:26.876750	185.5	29.6	-91.9	6.6
2025-01-18 08:31:28.021884	185.6	29.4	-91.4	7.1
2025-01-18 08:31:29.168494	185.7	29.2	-91.7	5.6
2025-01-18 08:31:30.319641	185.8	29.0	-91.8	6.4
2025-01-18 08:31:31.466505	185.9	28.8	-91.6	10.2
2025-01-18 08:31:32.612684	186.0	28.6	-91.5	5.4
2025-01-18 08:31:33.759416	186.0	28.4	-91.8	5.8
2025-01-18 08:31:34.902960	186.1	28.2	-91.6	7.1
2025-01-18 08:31:36.051187	186.2	28.0	-91.6	7.9
2025-01-18 08:31:37.203876	186.3	27.8	-92.0	4.2
2025-01-18 08:31:38.351984	186.4	27.6	-91.7	8.2
2025-01-18 08:31:39.500135	186.5	27.4	-91.7	11.0
2025-01-18 08:31:40.649112	186.6	27.2	-91.8	11.5
2025-01-18 08:31:41.809131	186.7	27.0	-91.7	11.1
2025-01-18 08:31:42.957633	186.8	26.8	-91.7	9.1
2025-01-18 08:31:44.103576	186.9	26.7	-91.7	8.0
2025-01-18 08:31:45.251375	187.0	26.5	-91.8	7.9
2025-01-18 08:31:46.404246	187.0	26.3	-91.5	7.2
2025-01-18 08:31:47.554808	187.1	26.1	-91.9	8.0
2025-01-18 08:31:48.701153	187.2	25.9	-91.7	5.9
2025-01-18 08:31:49.850980	187.3	25.7	-91.7	5.3
2025-01-18 08:31:50.999638	187.4	25.6	-91.8	9.4
2025-01-18 08:31:52.141013	187.5	25.4	-91.7	9.6
2025-01-18 08:31:53.293932	187.5	25.2	-91.7	10.2
2025-01-18 08:31:54.442107	187.6	25.0	-91.9	9.7
2025-01-18 08:31:55.588895	187.7	24.9	-91.9	8.7
2025-01-18 08:31:56.741838	187.8	24.7	-92.2	7.0
2025-01-18 08:31:57.889020	187.8	24.5	-91.4	6.4
2025-01-18 08:31:59.034411	187.9	24.3	-91.4	9.0
2025-01-18 08:32:00.180387	188.0	24.2	-92.0	7.2
2025-01-18 08:32:01.324768	188.1	24.0	-92.1	5.1
2025-01-18 08:32:02.471187	188.1	23.8	-92.2	8.5
2025-01-18 08:32:03.618935	188.2	23.7	-91.7	6.8
2025-01-18 08:32:04.768006	188.3	23.5	-91.8	7.3
2025-01-18 08:32:05.915992	188.4	23.3	-92.1	9.0
2025-01-18 08:32:07.062394	188.4	23.2	-91.7	10.5
2025-01-18 08:32:08.210715	188.5	23.0	-91.4	11.2
2025-01-18 08:32:09.352957	188.6	22.9	-92.4	12.9
2025-01-18 08:32:10.497893	188.6	22.7	-92.0	11.8
2025-01-18 08:32:11.644064	188.7	22.5	-92.3	11.0
2025-01-18 08:32:12.789737	188.8	22.4	-92.4	12.2
2025-01-18 08:32:13.937651	188.8	22.2	-92.0	10.2
2025-01-18 08:32:15.086570	188.9	22.1	-92.0	11.7
2025-01-18 08:32:16.234134	189.0	21.9	-91.9	7.2
2025-01-18 08:32:17.378267	189.0	21.7	-92.1	4.7
2025-01-18 08:32:18.525749	189.1	21.6	-92.3	7.6
2025-01-18 08:32:19.673250	189.2	21.4	-92.4	2.3
2025-01-18 08:32:20.818656	189.2	21.3	-92.2	4.7
2025-01-18 08:32:21.965989	189.3	21.1	-92.0	7.7
2025-01-18 08:32:23.113404	189.4	21.0	-92.2	8.0
2025-01-18 08:32:24.256067	189.4	20.8	-91.8	9.2
2025-01-18 08:32:25.395842	189.5	20.7	-91.8	8.5
2025-01-18 08:32:26.542882	189.5	20.5	-92.1	11.1
2025-01-18 08:32:27.692392	189.6	20.4	-92.3	8.3
2025-01-18 08:32:28.837583	189.7	20.2	-91.8	5.5
2025-01-18 08:32:29.983269	189.7	20.1	-92.1	9.7
2025-01-18 08:32:31.130352	189.8	19.9	-92.3	8.1
2025-01-18 08:32:32.278273	189.8	19.8	-91.8	4.7
2025-01-18 08:32:33.421732	189.9	19.7	-92.2	11.2
2025-01-18 08:32:34.571626	189.9	19.5	-92.2	10.8
2025-01-18 08:32:35.717358	190.0	19.4	-92.0	7.5
2025-01-18 08:32:36.863568	190.1	19.2	-92.4	8.5
2025-01-18 08:32:38.010662	190.1	19.1	-92.1	9.9
2025-01-18 08:32:39.157877	190.2	19.0	-92.1	10.0
2025-01-18 08:32:40.308548	190.2	18.8	-92.2	6.9
2025-01-18 08:32:41.451877	190.3	18.7	-92.2	7.8
2025-01-18 08:32:42.602413	190.3	18.5	-92.0	5.0
2025-01-18 08:32:43.746484	190.4	18.4	-92.0	5.6
2025-01-18 08:32:44.896349	190.4	18.3	-92.2	3.8
2025-01-18 08:32:46.044006	190.5	18.1	-92.1	4.3
2025-01-18 08:32:47.189987	190.5	18.0	-92.2	2.3
2025-01-18 08:32:48.334254	190.6	17.9	-92.0	3.5
2025-01-18 08:32:49.474006	190.6	17.7	-92.0	4.7
2025-01-18 08:32:50.622482	190.7	17.6	-92.3	4.0
2025-01-18 08:32:51.767204	190.7	17.5	-92.0	3.9
2025-01-18 08:32:52.913712	190.8	17.3	-92.1	4.3
2025-01-18 08:32:54.058670	190.8	17.2	-92.2	6.7
2025-01-18 08:32:55.212848	190.9	17.1	-92.3	5.2
2025-01-18 08:32:56.356144	190.9	16.9	-92.1	2.9
2025-01-18 08:32:57.501386	191.0	16.8	-92.1	5.6
2025-01-18 08:32:58.648600	191.0	16.7	-92.2	3.4
2025-01-18 08:32:59.798220	191.1	16.6	-92.4	2.5
2025-01-18 08:33:00.941314	191.1	16.4	-92.0	5.4
2025-01-18 08:33:02.089591	191.2	16.3	-92.3	5.5
2025-01-18 08:33:03.235364	191.2	16.2	-92.1	5.4
2025-01-18 08:33:04.379460	191.3	16.1	-92.1	6.5
2025-01-18 08:33:05.526774	191.3	15.9	-92.4	7.5
2025-01-18 08:33:06.672756	191.4	15.8	-92.1	5.6
2025-01-18 08:33:07.819565	191.4	15.7	-92.5	4.7
2025-01-18 08:33:08.963355	191.4	15.6	-92.2	6.8
2025-01-18 08:33:10.108678	191.5	15.5	-92.1	3.4
2025-01-18 08:33:11.256990	191.5	15.3	-92.3	3.3
2025-01-18 08:33:12.409324	191.6	15.2	-92.3	3.5
2025-01-18 08:33:13.549499	191.6	15.1	-92.2	5.0
2025-01-18 08:33:14.697393	191.7	15.0	-92.4	4.4
2025-01-18 08:33:15.846480	191.7	14.9	-92.3	2.3
2025-01-18 08:33:16.995175	191.8	14.7	-92.0	4.4
2025-01-18 08:33:18.141911	191.8	14.6	-92.2	3.6
2025-01-18 08:33:19.284603	191.8	14.5	-92.4	3.3
#Closed at: 2025-01-18 08:24:07.454125