passes_logs/2025/01/18/LEX_Murmansk/LEX_Murmansk__20250118_102923_NOAA_18_rec.log

#Pass ID: 20250118_102923_NOAA 18
#Satellite: NOAA 18
#Configuration: NOAA 18
#Start time: 2025-01-18 10:29:18.555060

#LorettStation: 1.0.0 05.05.2024
#Station: LEX_Murmansk
#Location: 33.156738 lon 68.926811 lat
#TLE: 1 28654U 05018A   25017.14480960  .00000361  00000+0  21486-3 0  9999
#TLE: 2 28654  98.8562  98.1779 0014463 173.1209 187.0164 14.13488310 13483

#Time	Az	El	Level	SNR
2025-01-18 10:29:30.759328	24.2	16.3	-89.9	6.1
2025-01-18 10:29:31.922850	24.2	16.4	-89.5	8.1
2025-01-18 10:29:33.081143	24.2	16.6	-89.9	5.1
2025-01-18 10:29:34.244724	24.1	16.7	-90.0	9.1
2025-01-18 10:29:35.406114	24.1	16.8	-90.0	7.4
2025-01-18 10:29:36.571878	24.1	17.0	-89.1	5.0
2025-01-18 10:29:37.735714	24.0	17.1	-90.0	9.2
2025-01-18 10:29:38.895861	24.0	17.2	-89.4	6.6
2025-01-18 10:29:40.064077	24.0	17.3	-89.6	7.5
2025-01-18 10:29:41.220957	24.0	17.5	-90.0	9.0
2025-01-18 10:29:42.388404	23.9	17.6	-89.7	9.6
2025-01-18 10:29:43.550702	23.9	17.8	-89.0	6.9
2025-01-18 10:29:44.712315	23.9	17.9	-89.3	8.9
2025-01-18 10:29:45.871900	23.8	18.0	-89.1	9.7
2025-01-18 10:29:47.041307	23.8	18.2	-89.3	4.5
2025-01-18 10:29:48.207019	23.8	18.3	-88.8	11.7
2025-01-18 10:29:49.362032	23.7	18.4	-89.0	8.4
2025-01-18 10:29:50.526466	23.7	18.6	-89.0	10.5
2025-01-18 10:29:51.685729	23.7	18.7	-90.0	12.9
2025-01-18 10:29:52.850520	23.6	18.9	-89.4	11.6
2025-01-18 10:29:54.010917	23.6	19.0	-89.2	12.1
2025-01-18 10:29:55.179894	23.6	19.1	-89.6	13.6
2025-01-18 10:29:56.341031	23.5	19.3	-89.7	12.8
2025-01-18 10:29:57.505588	23.5	19.4	-89.8	9.5
2025-01-18 10:29:58.664906	23.4	19.6	-89.4	10.6
2025-01-18 10:29:59.824924	23.4	19.7	-90.2	11.2
2025-01-18 10:30:00.987594	23.4	19.9	-89.5	6.5
2025-01-18 10:30:02.144368	23.3	20.0	-89.3	9.8
2025-01-18 10:30:03.304962	23.3	20.2	-89.9	15.7
2025-01-18 10:30:04.467932	23.3	20.3	-89.0	12.9
2025-01-18 10:30:05.634962	23.2	20.5	-89.4	12.7
2025-01-18 10:30:06.796134	23.2	20.6	-89.6	14.3
2025-01-18 10:30:07.964819	23.1	20.8	-89.7	8.9
2025-01-18 10:30:09.126608	23.1	20.9	-90.3	14.5
2025-01-18 10:30:10.282407	23.1	21.1	-89.2	15.5
2025-01-18 10:30:11.440720	23.0	21.2	-90.1	15.6
2025-01-18 10:30:12.607370	23.0	21.4	-89.4	11.7
2025-01-18 10:30:13.769794	22.9	21.5	-89.9	9.2
2025-01-18 10:30:14.934565	22.9	21.7	-89.9	6.6
2025-01-18 10:30:16.100947	22.8	21.9	-90.0	6.5
2025-01-18 10:30:17.257994	22.8	22.0	-89.9	11.0
2025-01-18 10:30:18.423926	22.8	22.2	-90.5	8.9
2025-01-18 10:30:19.586470	22.7	22.3	-90.7	9.9
2025-01-18 10:30:20.752577	22.7	22.5	-90.6	10.2
2025-01-18 10:30:21.908959	22.6	22.7	-90.1	15.1
2025-01-18 10:30:23.077350	22.6	22.8	-90.8	10.6
2025-01-18 10:30:24.242712	22.5	23.0	-90.7	14.0
2025-01-18 10:30:25.408959	22.5	23.2	-90.3	12.5
2025-01-18 10:30:26.576441	22.4	23.3	-89.7	13.9
2025-01-18 10:30:27.741272	22.4	23.5	-90.2	11.5
2025-01-18 10:30:28.909260	22.3	23.7	-90.4	11.6
2025-01-18 10:30:30.076017	22.3	23.8	-90.3	7.0
2025-01-18 10:30:31.236338	22.2	24.0	-90.0	12.0
2025-01-18 10:30:32.391054	22.2	24.2	-90.1	8.0
2025-01-18 10:30:33.558807	22.1	24.4	-90.5	8.3
2025-01-18 10:30:34.725270	22.1	24.5	-90.5	14.5
2025-01-18 10:30:35.892349	22.0	24.7	-90.2	14.1
2025-01-18 10:30:37.056619	22.0	24.9	-90.4	13.4
2025-01-18 10:30:38.217975	21.9	25.1	-90.1	14.0
2025-01-18 10:30:39.386622	21.9	25.2	-89.9	14.7
2025-01-18 10:30:40.567926	21.8	25.4	-90.0	10.2
2025-01-18 10:30:41.725792	21.8	25.6	-90.4	15.0
2025-01-18 10:30:42.892228	21.7	25.8	-90.7	12.6
2025-01-18 10:30:44.062590	21.7	26.0	-90.8	8.7
2025-01-18 10:30:45.236719	21.6	26.2	-90.1	9.7
2025-01-18 10:30:46.401194	21.5	26.4	-89.6	7.4
2025-01-18 10:30:47.565135	21.5	26.5	-89.7	3.5
2025-01-18 10:30:48.727109	21.4	26.7	-90.0	11.4
2025-01-18 10:30:49.888859	21.4	26.9	-90.3	6.7
2025-01-18 10:30:51.053633	21.3	27.1	-90.2	7.7
2025-01-18 10:30:52.210997	21.2	27.3	-89.8	8.0
2025-01-18 10:30:53.379767	21.2	27.5	-90.5	7.5
2025-01-18 10:30:54.538792	21.1	27.7	-90.1	7.5
2025-01-18 10:30:55.705571	21.0	27.9	-90.5	6.0
2025-01-18 10:30:56.871061	21.0	28.1	-90.5	6.8
2025-01-18 10:30:58.035050	20.9	28.3	-89.8	8.0
2025-01-18 10:30:59.199750	20.8	28.5	-90.1	10.9
2025-01-18 10:31:00.359137	20.8	28.7	-90.1	9.8
2025-01-18 10:31:01.516695	20.7	28.9	-90.5	9.9
2025-01-18 10:31:02.674513	20.6	29.1	-90.5	8.8
2025-01-18 10:31:03.835381	20.6	29.3	-90.1	7.6
2025-01-18 10:31:05.009818	20.5	29.5	-90.1	8.2
2025-01-18 10:31:06.167544	20.4	29.7	-89.7	9.0
2025-01-18 10:31:07.332873	20.3	30.0	-90.3	9.7
2025-01-18 10:31:08.494766	20.3	30.2	-89.6	5.9
2025-01-18 10:31:09.659648	20.2	30.4	-90.8	9.7
2025-01-18 10:31:10.823100	20.1	30.6	-90.7	11.1
2025-01-18 10:31:11.983513	20.0	30.8	-89.7	8.2
2025-01-18 10:31:13.148214	20.0	31.0	-89.6	10.5
2025-01-18 10:31:14.313442	19.9	31.3	-90.0	13.9
2025-01-18 10:31:15.474657	19.8	31.5	-89.6	6.7
2025-01-18 10:31:16.638884	19.7	31.7	-90.3	11.5
2025-01-18 10:31:17.801076	19.6	31.9	-90.0	13.0
2025-01-18 10:31:18.970037	19.5	32.2	-90.0	10.6
2025-01-18 10:31:20.130688	19.5	32.4	-89.9	7.8
2025-01-18 10:31:21.289168	19.4	32.6	-90.0	8.9
2025-01-18 10:31:22.453843	19.3	32.9	-89.7	6.1
2025-01-18 10:31:23.618224	19.2	33.1	-89.9	5.7
2025-01-18 10:31:24.785895	19.1	33.3	-90.7	16.7
2025-01-18 10:31:25.948389	19.0	33.6	-90.3	8.7
2025-01-18 10:31:27.113664	18.9	33.8	-89.8	11.9
2025-01-18 10:31:28.277841	18.8	34.0	-90.8	12.5
2025-01-18 10:31:29.443977	18.7	34.3	-90.0	13.6
2025-01-18 10:31:30.605716	18.6	34.5	-90.4	13.5
2025-01-18 10:31:31.765929	18.5	34.8	-90.0	12.0
2025-01-18 10:31:32.934037	18.4	35.0	-90.3	12.1
2025-01-18 10:31:34.098994	18.3	35.3	-90.0	12.8
2025-01-18 10:31:35.265557	18.2	35.5	-90.8	13.5
2025-01-18 10:31:36.424854	18.1	35.8	-90.5	14.8
2025-01-18 10:31:37.589803	18.0	36.0	-90.8	13.1
2025-01-18 10:31:38.750007	17.9	36.3	-90.8	13.5
2025-01-18 10:31:39.911930	17.7	36.6	-90.0	10.3
2025-01-18 10:31:41.073976	17.6	36.8	-90.2	8.4
2025-01-18 10:31:42.235903	17.5	37.1	-90.2	16.1
2025-01-18 10:31:43.396610	17.4	37.4	-89.7	11.2
2025-01-18 10:31:44.561159	17.3	37.6	-89.9	13.2
2025-01-18 10:31:45.730926	17.2	37.9	-90.8	18.0
2025-01-18 10:31:46.887106	17.0	38.2	-90.7	14.8
2025-01-18 10:31:48.054281	16.9	38.4	-90.5	13.9
2025-01-18 10:31:49.217666	16.8	38.7	-90.4	17.6
2025-01-18 10:31:50.379630	16.6	39.0	-90.8	9.9
2025-01-18 10:31:51.535798	16.5	39.3	-90.7	13.1
2025-01-18 10:31:52.696659	16.4	39.6	-90.4	16.9
2025-01-18 10:31:53.862585	16.2	39.8	-90.7	16.8
2025-01-18 10:31:55.023126	16.1	40.1	-90.6	18.0
2025-01-18 10:31:56.166680	15.9	40.4	-90.7	16.3
2025-01-18 10:31:57.287395	15.8	40.7	-90.3	19.8
2025-01-18 10:31:58.438517	15.6	41.0	-89.7	10.6
2025-01-18 10:31:59.595332	15.5	41.3	-89.4	8.3
2025-01-18 10:32:00.753150	15.3	41.6	-90.1	16.9
2025-01-18 10:32:01.916228	15.2	41.9	-90.4	12.5
2025-01-18 10:32:03.077360	15.0	42.2	-90.7	10.7
2025-01-18 10:32:04.238884	14.9	42.5	-89.9	18.6
2025-01-18 10:32:05.411614	14.7	42.8	-90.7	16.7
2025-01-18 10:32:06.573298	14.5	43.1	-90.3	15.1
2025-01-18 10:32:07.734620	14.3	43.4	-90.7	17.8
2025-01-18 10:32:08.895671	14.2	43.7	-89.7	17.5
2025-01-18 10:32:10.057934	14.0	44.0	-90.3	14.4
2025-01-18 10:32:11.222331	13.8	44.4	-90.2	17.7
2025-01-18 10:32:12.382852	13.6	44.7	-90.4	18.3
2025-01-18 10:32:13.547788	13.4	45.0	-89.9	17.1
2025-01-18 10:32:14.706898	13.2	45.3	-90.4	19.3
2025-01-18 10:32:15.854549	13.0	45.6	-90.2	21.3
2025-01-18 10:32:16.978820	12.8	46.0	-90.8	14.1
2025-01-18 10:32:18.098851	12.6	46.3	-90.4	12.6
2025-01-18 10:32:19.219372	12.4	46.6	-90.2	17.3
2025-01-18 10:32:20.339902	12.2	46.9	-90.1	16.7
2025-01-18 10:32:21.460660	12.0	47.3	-90.2	8.7
2025-01-18 10:32:22.581101	11.8	47.6	-90.2	10.8
2025-01-18 10:32:23.702073	11.5	47.9	-90.3	15.7
2025-01-18 10:32:24.826747	11.3	48.2	-89.9	15.1
2025-01-18 10:32:25.951829	11.1	48.6	-90.4	18.7
2025-01-18 10:32:27.110376	10.8	48.9	-90.7	17.9
2025-01-18 10:32:28.267495	10.6	49.3	-89.8	17.8
2025-01-18 10:32:29.431208	10.3	49.6	-90.7	13.6
2025-01-18 10:32:30.589307	10.0	50.0	-90.6	12.5
2025-01-18 10:32:31.745881	9.8	50.3	-90.4	16.8
2025-01-18 10:32:32.909034	9.5	50.7	-90.6	13.0
2025-01-18 10:32:34.069560	9.2	51.1	-89.8	8.7
2025-01-18 10:32:35.238178	8.9	51.4	-90.2	11.6
2025-01-18 10:32:36.401159	8.6	51.8	-90.1	10.8
2025-01-18 10:32:37.564327	8.3	52.1	-90.1	11.6
2025-01-18 10:32:38.726179	8.0	52.5	-90.3	13.3
2025-01-18 10:32:39.885485	7.6	52.9	-89.8	8.1
2025-01-18 10:32:41.046769	7.3	53.3	-89.6	5.4
2025-01-18 10:32:42.203854	7.0	53.6	-89.8	11.9
2025-01-18 10:32:43.372423	6.6	54.0	-89.5	12.7
2025-01-18 10:32:44.530071	6.2	54.4	-89.7	6.4
2025-01-18 10:32:45.691316	5.9	54.8	-89.8	12.3
2025-01-18 10:32:46.851169	5.5	55.1	-90.0	5.7
2025-01-18 10:32:48.017975	5.1	55.5	-90.4	7.3
2025-01-18 10:32:49.176767	4.7	55.9	-90.0	9.6
2025-01-18 10:32:50.340397	4.3	56.3	-90.2	14.8
2025-01-18 10:32:51.501773	3.9	56.7	-90.5	15.2
2025-01-18 10:32:52.661846	3.4	57.1	-90.1	17.7
2025-01-18 10:32:53.824367	3.0	57.4	-89.9	17.4
2025-01-18 10:32:54.979977	2.5	57.8	-90.2	12.0
2025-01-18 10:32:56.142622	2.0	58.2	-90.1	11.8
2025-01-18 10:32:57.306700	1.5	58.6	-90.1	7.1
2025-01-18 10:32:58.462653	1.0	59.0	-90.3	9.8
2025-01-18 10:32:59.625581	0.5	59.4	-90.6	9.9
2025-01-18 10:33:00.777627	360.0	59.8	-90.5	16.1
2025-01-18 10:33:01.940305	359.4	60.2	-91.2	18.1
2025-01-18 10:33:03.093760	358.9	60.5	-91.0	21.2
2025-01-18 10:33:04.254495	358.3	60.9	-90.6	18.5
2025-01-18 10:33:05.418294	357.7	61.3	-90.5	14.2
2025-01-18 10:33:06.587347	357.0	61.7	-90.5	11.6
2025-01-18 10:33:07.748144	356.4	62.1	-90.7	17.5
2025-01-18 10:33:08.910935	355.7	62.5	-90.5	7.3
2025-01-18 10:33:10.071082	355.0	62.9	-90.4	5.3
2025-01-18 10:33:11.235974	354.3	63.3	-91.0	8.5
2025-01-18 10:33:12.397162	353.6	63.6	-91.1	12.4
2025-01-18 10:33:13.561676	352.8	64.0	-90.4	15.6
2025-01-18 10:33:14.726642	352.0	64.4	-91.3	20.3
2025-01-18 10:33:15.887708	351.2	64.8	-91.0	20.9
2025-01-18 10:33:17.051443	350.4	65.1	-91.0	21.7
2025-01-18 10:33:18.218450	349.5	65.5	-91.2	21.8
2025-01-18 10:33:19.378080	348.6	65.9	-90.8	20.3
2025-01-18 10:33:20.539362	347.6	66.2	-90.8	18.9
2025-01-18 10:33:21.696663	346.7	66.6	-91.1	16.0
2025-01-18 10:33:22.855502	345.7	67.0	-90.8	15.3
2025-01-18 10:33:24.016632	344.7	67.3	-90.9	10.5
2025-01-18 10:33:25.181039	343.6	67.6	-90.4	13.9
2025-01-18 10:33:26.339586	342.5	68.0	-90.5	18.1
2025-01-18 10:33:27.505771	341.4	68.3	-90.5	13.3
2025-01-18 10:33:28.668201	340.2	68.6	-90.5	17.8
2025-01-18 10:33:29.844406	339.0	69.0	-90.9	19.0
2025-01-18 10:33:31.006365	337.7	69.3	-90.0	14.6
2025-01-18 10:33:32.170890	336.4	69.6	-90.9	17.7
2025-01-18 10:33:33.331685	335.1	69.8	-90.4	11.3
2025-01-18 10:33:34.497123	333.7	70.1	-91.0	11.4
2025-01-18 10:33:35.661146	332.3	70.4	-91.0	10.5
2025-01-18 10:33:36.822285	330.8	70.7	-91.1	11.3
2025-01-18 10:33:37.985440	329.3	70.9	-91.3	10.2
2025-01-18 10:33:39.126317	327.8	71.1	-90.7	13.4
2025-01-18 10:33:40.248636	326.3	71.3	-90.0	13.7
2025-01-18 10:33:41.369412	324.7	71.5	-90.7	16.2
2025-01-18 10:33:42.491259	323.1	71.7	-91.2	11.2
2025-01-18 10:33:43.613028	321.5	71.9	-91.2	11.1
2025-01-18 10:33:44.733940	319.9	72.1	-91.4	15.0
2025-01-18 10:33:45.854495	318.2	72.2	-90.9	16.3
2025-01-18 10:33:46.975044	316.4	72.4	-90.8	9.1
2025-01-18 10:33:48.097396	314.7	72.5	-90.8	9.7
2025-01-18 10:33:49.240317	312.9	72.6	-90.5	14.5
2025-01-18 10:33:50.381460	311.1	72.7	-90.8	16.7
2025-01-18 10:33:51.546540	309.2	72.7	-90.6	16.2
2025-01-18 10:33:52.709082	307.3	72.8	-90.8	15.6
2025-01-18 10:33:53.867982	305.4	72.8	-90.4	17.3
2025-01-18 10:33:55.027094	303.5	72.8	-90.7	18.5
2025-01-18 10:33:56.188420	301.6	72.8	-91.0	20.7
2025-01-18 10:33:57.354530	299.7	72.8	-91.0	24.0
2025-01-18 10:33:58.515412	297.8	72.8	-90.7	22.2
2025-01-18 10:33:59.684180	295.9	72.7	-90.7	22.8
2025-01-18 10:34:00.839091	294.0	72.7	-90.6	23.6
2025-01-18 10:34:01.995422	292.2	72.6	-90.5	26.0
2025-01-18 10:34:03.155503	290.3	72.5	-89.9	24.0
2025-01-18 10:34:04.318891	288.5	72.3	-90.7	24.4
2025-01-18 10:34:05.479493	286.8	72.2	-90.3	26.4
2025-01-18 10:34:06.647167	285.0	72.0	-91.0	20.9
2025-01-18 10:34:07.786930	283.3	71.9	-91.3	26.0
2025-01-18 10:34:08.954711	281.6	71.7	-90.5	24.2
2025-01-18 10:34:10.111898	280.0	71.5	-90.9	23.1
2025-01-18 10:34:11.278358	278.4	71.3	-90.7	24.1
2025-01-18 10:34:12.434837	276.8	71.0	-90.9	22.9
2025-01-18 10:34:13.600359	275.3	70.8	-90.6	14.4
2025-01-18 10:34:14.765766	273.8	70.5	-90.5	23.8
2025-01-18 10:34:15.921822	272.4	70.3	-90.9	16.2
2025-01-18 10:34:17.078599	271.0	70.0	-91.3	15.6
2025-01-18 10:34:18.235393	269.6	69.7	-90.5	20.6
2025-01-18 10:34:19.356620	268.3	69.4	-90.4	20.5
2025-01-18 10:34:20.508682	267.1	69.1	-91.4	15.1
2025-01-18 10:34:21.651525	265.9	68.8	-90.9	20.3
2025-01-18 10:34:22.793889	264.7	68.5	-90.5	23.1
2025-01-18 10:34:23.947758	263.5	68.2	-90.5	16.8
2025-01-18 10:34:25.101314	262.4	67.9	-91.3	19.9
2025-01-18 10:34:26.264631	261.3	67.5	-91.3	23.3
2025-01-18 10:34:27.421154	260.3	67.2	-91.2	16.0
2025-01-18 10:34:28.576474	259.2	66.8	-91.3	17.6
2025-01-18 10:34:29.738086	258.3	66.5	-91.2	24.0
2025-01-18 10:34:30.900933	257.3	66.1	-91.2	19.5
2025-01-18 10:34:32.058807	256.4	65.8	-90.9	21.3
2025-01-18 10:34:33.216226	255.5	65.4	-91.3	22.3
2025-01-18 10:34:34.377180	254.6	65.0	-91.2	27.5
2025-01-18 10:34:35.541231	253.8	64.7	-91.2	15.3
2025-01-18 10:34:36.707040	253.0	64.3	-91.0	22.7
2025-01-18 10:34:37.867871	252.2	63.9	-91.0	19.4
2025-01-18 10:34:39.033928	251.4	63.5	-91.0	17.2
2025-01-18 10:34:40.196475	250.7	63.1	-90.6	18.3
2025-01-18 10:34:41.359657	250.0	62.7	-90.6	24.7
2025-01-18 10:34:42.519124	249.3	62.4	-91.1	16.1
2025-01-18 10:34:43.676447	248.7	62.0	-90.9	19.6
2025-01-18 10:34:44.846338	248.0	61.6	-91.1	24.0
2025-01-18 10:34:46.003303	247.4	61.2	-91.1	21.8
2025-01-18 10:34:47.168806	246.8	60.8	-90.6	22.7
2025-01-18 10:34:48.325648	246.2	60.4	-90.6	16.8
2025-01-18 10:34:49.487158	245.6	60.0	-90.5	19.9
2025-01-18 10:34:50.650035	245.1	59.6	-90.4	19.6
2025-01-18 10:34:51.810634	244.5	59.2	-91.0	18.0
2025-01-18 10:34:52.974701	244.0	58.8	-90.5	18.7
2025-01-18 10:34:54.136524	243.5	58.4	-90.6	15.8
2025-01-18 10:34:55.297021	243.0	58.1	-90.3	19.5
2025-01-18 10:34:56.459363	242.6	57.7	-90.7	17.7
2025-01-18 10:34:57.622581	242.1	57.3	-90.9	19.7
2025-01-18 10:34:58.784552	241.6	56.9	-91.2	14.6
2025-01-18 10:34:59.951316	241.2	56.5	-90.8	12.6
2025-01-18 10:35:01.105846	240.8	56.1	-91.3	14.5
2025-01-18 10:35:02.272368	240.4	55.7	-90.9	14.9
2025-01-18 10:35:03.430941	240.0	55.3	-91.3	10.0
2025-01-18 10:35:04.596787	239.6	55.0	-90.6	16.0
2025-01-18 10:35:05.756196	239.2	54.6	-90.8	6.1
2025-01-18 10:35:06.928915	238.8	54.2	-90.6	8.3
2025-01-18 10:35:08.094909	238.5	53.8	-90.7	9.6
2025-01-18 10:35:09.259646	238.1	53.4	-90.5	17.0
2025-01-18 10:35:10.425381	237.8	53.1	-90.9	11.3
2025-01-18 10:35:11.589280	237.4	52.7	-91.0	10.2
2025-01-18 10:35:12.753317	237.1	52.3	-90.8	20.8
2025-01-18 10:35:13.912963	236.8	52.0	-90.9	8.6
2025-01-18 10:35:15.077633	236.5	51.6	-90.1	14.1
2025-01-18 10:35:16.239183	236.2	51.2	-90.9	19.4
2025-01-18 10:35:17.410199	235.9	50.9	-91.1	12.5
2025-01-18 10:35:18.571542	235.6	50.5	-90.7	12.6
2025-01-18 10:35:19.733127	235.3	50.1	-91.0	15.3
2025-01-18 10:35:20.893941	235.1	49.8	-91.3	14.5
2025-01-18 10:35:22.056423	234.8	49.4	-90.7	13.8
2025-01-18 10:35:23.217215	234.5	49.1	-91.1	12.7
2025-01-18 10:35:24.374673	234.3	48.7	-90.8	13.6
2025-01-18 10:35:25.535090	234.0	48.4	-90.8	14.1
2025-01-18 10:35:26.694948	233.8	48.0	-90.9	14.7
2025-01-18 10:35:27.851823	233.6	47.7	-91.0	8.9
2025-01-18 10:35:29.015522	233.3	47.3	-90.8	6.8
2025-01-18 10:35:30.175932	233.1	47.0	-90.9	7.4
2025-01-18 10:35:31.335110	232.9	46.7	-90.8	5.4
2025-01-18 10:35:32.498936	232.7	46.3	-90.4	7.4
2025-01-18 10:35:33.650231	232.5	46.0	-91.0	6.2
2025-01-18 10:35:34.813830	232.2	45.7	-91.6	4.5
2025-01-18 10:35:35.972578	232.0	45.3	-91.5	7.1
2025-01-18 10:35:37.133524	231.8	45.0	-91.1	7.3
2025-01-18 10:35:38.294913	231.6	44.7	-91.3	8.4
2025-01-18 10:35:39.457917	231.5	44.4	-90.8	4.9
2025-01-18 10:35:40.607750	231.3	44.0	-91.1	8.0
2025-01-18 10:35:41.728429	231.1	43.7	-90.8	5.0
2025-01-18 10:35:42.851906	230.9	43.4	-90.2	5.6
2025-01-18 10:35:43.971864	230.7	43.1	-90.5	4.8
2025-01-18 10:35:45.092557	230.6	42.8	-90.8	4.2
2025-01-18 10:35:46.213237	230.4	42.5	-91.1	10.2
2025-01-18 10:35:47.333894	230.3	42.2	-90.9	3.5
2025-01-18 10:35:48.454069	230.1	41.9	-90.1	4.1
2025-01-18 10:35:49.582951	229.9	41.6	-91.5	6.7
2025-01-18 10:35:50.724383	229.8	41.4	-91.1	7.8
2025-01-18 10:35:51.886738	229.6	41.1	-91.3	7.8
2025-01-18 10:35:53.040506	229.5	40.8	-91.2	4.9
2025-01-18 10:35:54.202152	229.3	40.5	-90.7	10.0
2025-01-18 10:35:55.348074	229.2	40.2	-91.3	13.8
2025-01-18 10:35:56.509873	229.0	39.9	-90.9	8.3
2025-01-18 10:35:57.671329	228.9	39.6	-90.9	12.3
2025-01-18 10:35:58.826435	228.8	39.3	-91.2	18.2
2025-01-18 10:35:59.989647	228.6	39.0	-91.0	10.5
2025-01-18 10:36:01.139088	228.5	38.8	-90.5	15.3
2025-01-18 10:36:02.302049	228.4	38.5	-90.7	18.7
2025-01-18 10:36:03.465698	228.2	38.2	-91.1	15.5
2025-01-18 10:36:04.623765	228.1	37.9	-90.7	14.8
2025-01-18 10:36:05.789256	228.0	37.7	-91.0	17.2
2025-01-18 10:36:06.948791	227.9	37.4	-91.0	17.5
2025-01-18 10:36:08.113308	227.7	37.1	-91.1	17.5
2025-01-18 10:36:09.275640	227.6	36.8	-91.2	17.2
2025-01-18 10:36:10.436001	227.5	36.6	-91.3	13.6
2025-01-18 10:36:11.599647	227.4	36.3	-91.0	14.9
2025-01-18 10:36:12.762625	227.3	36.1	-90.8	18.6
2025-01-18 10:36:13.914194	227.2	35.8	-91.2	14.4
2025-01-18 10:36:15.077476	227.0	35.5	-91.0	13.5
2025-01-18 10:36:16.216320	226.9	35.3	-91.1	16.9
2025-01-18 10:36:17.353063	226.8	35.0	-91.2	16.8
2025-01-18 10:36:18.505376	226.7	34.8	-91.2	13.6
2025-01-18 10:36:19.649418	226.6	34.5	-91.2	16.6
2025-01-18 10:36:20.811747	226.5	34.3	-91.2	19.1
2025-01-18 10:36:21.961461	226.4	34.1	-91.2	17.4
2025-01-18 10:36:23.114908	226.3	33.8	-91.7	19.5
2025-01-18 10:36:24.278543	226.2	33.6	-91.2	20.9
2025-01-18 10:36:25.434445	226.1	33.3	-91.3	16.7
2025-01-18 10:36:26.590531	226.0	33.1	-91.7	16.6
2025-01-18 10:36:27.723651	226.0	32.9	-91.2	18.4
2025-01-18 10:36:28.862129	225.9	32.6	-91.6	14.0
2025-01-18 10:36:30.013458	225.8	32.4	-90.8	11.0
2025-01-18 10:36:31.170347	225.7	32.2	-91.3	14.0
2025-01-18 10:36:32.321523	225.6	31.9	-90.9	15.9
2025-01-18 10:36:33.475007	225.5	31.7	-91.3	9.5
2025-01-18 10:36:34.633401	225.4	31.5	-91.0	12.4
2025-01-18 10:36:35.796468	225.4	31.3	-91.4	17.8
2025-01-18 10:36:36.948909	225.3	31.0	-90.9	12.2
2025-01-18 10:36:38.106876	225.2	30.8	-90.6	14.0
2025-01-18 10:36:39.268078	225.1	30.6	-90.8	13.4
2025-01-18 10:36:40.433615	225.0	30.4	-90.8	15.7
2025-01-18 10:36:41.589909	225.0	30.2	-90.6	12.5
2025-01-18 10:36:42.751235	224.9	29.9	-91.0	12.7
2025-01-18 10:36:43.910309	224.8	29.7	-91.1	15.1
2025-01-18 10:36:45.071117	224.7	29.5	-90.9	12.4
2025-01-18 10:36:46.233759	224.7	29.3	-90.9	13.8
2025-01-18 10:36:47.397291	224.6	29.1	-90.9	10.8
2025-01-18 10:36:48.563269	224.5	28.9	-91.0	8.0
2025-01-18 10:36:49.724079	224.4	28.7	-90.9	7.4
2025-01-18 10:36:50.888025	224.4	28.5	-90.9	4.3
2025-01-18 10:36:52.049530	224.3	28.3	-90.7	5.3
2025-01-18 10:36:53.208007	224.2	28.1	-91.1	7.5
2025-01-18 10:36:54.371648	224.2	27.9	-90.8	7.2
2025-01-18 10:36:55.528772	224.1	27.7	-90.9	6.7
2025-01-18 10:36:56.693225	224.0	27.5	-91.0	7.4
2025-01-18 10:36:57.855987	224.0	27.3	-90.9	5.6
2025-01-18 10:36:59.021149	223.9	27.1	-90.5	7.0
2025-01-18 10:37:00.182961	223.8	26.9	-91.0	6.7
2025-01-18 10:37:01.345253	223.8	26.7	-91.2	6.2
2025-01-18 10:37:02.507551	223.7	26.5	-90.6	4.5
2025-01-18 10:37:03.669696	223.7	26.3	-90.5	5.7
2025-01-18 10:37:04.835111	223.6	26.1	-90.4	6.0
2025-01-18 10:37:05.997227	223.5	25.9	-90.6	6.0
2025-01-18 10:37:07.158547	223.5	25.7	-90.9	5.5
2025-01-18 10:37:08.325612	223.4	25.6	-90.7	7.5
2025-01-18 10:37:09.489046	223.4	25.4	-90.9	9.3
2025-01-18 10:37:10.649195	223.3	25.2	-90.8	10.8
2025-01-18 10:37:11.815786	223.3	25.0	-91.1	10.5
2025-01-18 10:37:12.980446	223.2	24.8	-91.1	9.4
2025-01-18 10:37:14.134835	223.2	24.7	-90.4	9.2
2025-01-18 10:37:15.303708	223.1	24.5	-90.7	12.9
2025-01-18 10:37:16.464567	223.0	24.3	-91.0	9.4
2025-01-18 10:37:17.626970	223.0	24.1	-90.7	9.5
2025-01-18 10:37:18.791872	222.9	23.9	-91.1	13.5
2025-01-18 10:37:19.965023	222.9	23.8	-90.7	11.2
2025-01-18 10:37:21.124174	222.8	23.6	-91.0	10.9
2025-01-18 10:37:22.285839	222.8	23.4	-90.8	14.5
2025-01-18 10:37:23.446136	222.7	23.3	-90.7	15.3
2025-01-18 10:37:24.598855	222.7	23.1	-91.0	12.7
2025-01-18 10:37:25.766055	222.6	22.9	-90.9	13.0
2025-01-18 10:37:26.923699	222.6	22.8	-90.0	9.3
2025-01-18 10:37:28.092372	222.6	22.6	-90.9	8.3
2025-01-18 10:37:29.253607	222.5	22.4	-91.2	10.8
2025-01-18 10:37:30.418987	222.5	22.3	-90.8	5.2
2025-01-18 10:37:31.578981	222.4	22.1	-90.7	8.2
2025-01-18 10:37:32.736036	222.4	21.9	-90.7	10.6
2025-01-18 10:37:33.888685	222.3	21.8	-90.8	7.4
2025-01-18 10:37:35.026177	222.3	21.6	-90.6	7.4
2025-01-18 10:37:36.147996	222.2	21.5	-90.4	11.9
2025-01-18 10:37:37.268961	222.2	21.3	-91.0	11.8
2025-01-18 10:37:38.390464	222.2	21.2	-90.7	12.7
2025-01-18 10:37:39.511477	222.1	21.0	-91.0	12.9
2025-01-18 10:37:40.631244	222.1	20.9	-91.5	11.5
2025-01-18 10:37:41.752347	222.0	20.7	-90.9	13.0
2025-01-18 10:37:42.873545	222.0	20.6	-91.1	12.3
2025-01-18 10:37:43.999260	222.0	20.4	-91.0	11.6
2025-01-18 10:37:45.140797	221.9	20.3	-91.1	11.7
2025-01-18 10:37:46.306784	221.9	20.1	-90.7	12.0
2025-01-18 10:37:47.459834	221.8	20.0	-90.9	9.9
2025-01-18 10:37:48.619745	221.8	19.8	-91.1	11.6
2025-01-18 10:37:49.764718	221.8	19.7	-90.8	12.9
2025-01-18 10:37:50.929875	221.7	19.5	-91.1	10.5
2025-01-18 10:37:52.091967	221.7	19.4	-90.9	12.3
2025-01-18 10:37:53.260917	221.7	19.2	-90.4	10.6
2025-01-18 10:37:54.424562	221.6	19.1	-90.5	9.4
2025-01-18 10:37:55.587934	221.6	18.9	-90.7	7.6
2025-01-18 10:37:56.747958	221.6	18.8	-91.1	9.8
2025-01-18 10:37:57.909671	221.5	18.7	-90.9	4.4
2025-01-18 10:37:59.073385	221.5	18.5	-90.8	7.4
2025-01-18 10:38:00.234135	221.4	18.4	-90.7	8.3
2025-01-18 10:38:01.397793	221.4	18.2	-91.1	6.4
2025-01-18 10:38:02.561154	221.4	18.1	-91.2	7.4
2025-01-18 10:38:03.719748	221.3	18.0	-91.2	8.5
2025-01-18 10:38:04.882650	221.3	17.8	-91.1	11.9
2025-01-18 10:38:06.044742	221.3	17.7	-91.5	10.8
2025-01-18 10:38:07.206717	221.2	17.5	-91.5	11.2
2025-01-18 10:38:08.379522	221.2	17.4	-91.2	10.0
2025-01-18 10:38:09.540292	221.2	17.3	-91.0	9.3
2025-01-18 10:38:10.709531	221.1	17.1	-90.8	11.5
2025-01-18 10:38:11.868059	221.1	17.0	-90.9	9.0
2025-01-18 10:38:13.035452	221.1	16.9	-91.2	9.8
2025-01-18 10:38:14.196438	221.1	16.7	-91.1	8.7
2025-01-18 10:38:15.357790	221.0	16.6	-91.1	11.2
2025-01-18 10:38:16.526079	221.0	16.5	-91.0	9.9
2025-01-18 10:38:17.692664	221.0	16.3	-91.2	11.0
2025-01-18 10:38:18.859992	220.9	16.2	-91.7	8.9
2025-01-18 10:38:20.019096	220.9	16.1	-91.2	8.7
2025-01-18 10:38:21.179682	220.9	16.0	-91.2	7.7
2025-01-18 10:38:22.340264	220.8	15.8	-90.9	8.6
2025-01-18 10:38:23.494317	220.8	15.7	-91.4	4.6
2025-01-18 10:38:24.649188	220.8	15.6	-91.5	7.1
2025-01-18 10:38:25.809892	220.8	15.5	-91.2	5.5
2025-01-18 10:38:26.979695	220.7	15.3	-91.2	4.6
2025-01-18 10:38:28.145295	220.7	15.2	-91.3	3.4
2025-01-18 10:38:29.305035	220.7	15.1	-91.5	4.7
2025-01-18 10:38:30.470348	220.7	15.0	-91.5	6.0
2025-01-18 10:38:31.654140	220.6	14.8	-91.3	7.5
2025-01-18 10:38:32.814261	220.6	14.7	-91.1	5.7
2025-01-18 10:38:33.979635	220.6	14.6	-90.8	4.9
2025-01-18 10:38:35.145129	220.5	14.5	-90.7	6.4
#Closed at: 2025-01-18 10:29:23.547648