passes_logs/2026/01/17/R3.2S_Murmansk/R3.2S_Murmansk__20260117_224133_KANOPUS-V_5_rec.log

#Pass ID: 20260117_224133_KANOPUS-V 5
#Satellite: KANOPUS-V 5
#Configuration: KANOPUS-V_8320
#almurnet v.1.7.20251203
#Start time: 2026-01-17 22:41:34

#Version: 2.2.20231116
#Station: R3.2S_Murmansk
#Location: 33.079688 lon 68.888172 lat
#TLE: 1 43876U 18111A   26017.66658644  .00002803  00000+0  12058-3 0  9992
#TLE: 2 43876  97.3688 286.1324 0001777  87.2776 272.8665 15.23451717391876

#Time	Az	El	Level	Level2	SNR	BER	BlckErr	Temp	State	Recorded	gain1	gain2
2026-01-17 22:41:34.59	20.90	2.05	-52.9	-61.7	3.8	7.46e-01	0	33	0	0	77	9923
2026-01-17 22:41:35.58	20.89	2.12	-52.9	-61.7	3.8	7.43e-01	0	33	104	0	76	10510
2026-01-17 22:41:36.59	20.87	2.19	-52.9	-61.7	3.8	7.43e-01	0	33	104	0	76	10487
2026-01-17 22:41:37.60	20.86	2.26	-52.9	-61.7	3.8	7.46e-01	0	33	104	0	76	10508
2026-01-17 22:41:38.61	20.84	2.33	-52.9	-61.7	3.8	7.46e-01	0	33	104	0	76	10498
2026-01-17 22:41:39.62	20.83	2.40	-52.9	-61.7	3.8	7.46e-01	0	33	104	0	76	10523
2026-01-17 22:41:40.62	20.81	2.47	-52.9	-61.7	3.8	7.46e-01	0	34	104	0	76	10483
2026-01-17 22:41:41.63	20.79	2.54	-52.9	-61.7	3.8	7.45e-01	0	33	104	0	76	10467
2026-01-17 22:41:42.64	20.78	2.61	-52.9	-61.7	3.8	7.45e-01	0	33	104	0	76	10492
2026-01-17 22:41:43.65	20.76	2.69	-52.9	-61.7	3.8	7.44e-01	0	33	104	0	76	10479
2026-01-17 22:41:44.66	20.74	2.76	-52.9	-61.7	3.8	7.44e-01	0	33	104	0	76	10464
2026-01-17 22:41:45.67	20.73	2.83	-52.9	-61.7	3.8	7.45e-01	0	34	104	0	76	10506
2026-01-17 22:41:46.68	20.71	2.91	-52.9	-61.7	3.8	7.45e-01	0	34	104	0	76	10501
2026-01-17 22:41:47.69	20.69	2.98	-52.9	-61.7	3.8	7.44e-01	0	34	104	0	76	10524
2026-01-17 22:41:48.69	20.68	3.05	-52.9	-61.7	3.8	7.46e-01	0	34	104	0	76	10501
2026-01-17 22:41:49.70	20.66	3.13	-52.9	-61.7	3.8	7.45e-01	0	34	104	0	76	10481
2026-01-17 22:41:50.71	20.64	3.20	-52.9	-61.7	3.8	7.45e-01	0	34	104	0	76	10467
2026-01-17 22:41:51.72	20.62	3.27	-52.9	-61.7	3.8	7.47e-01	0	34	104	0	76	10502
2026-01-17 22:41:52.73	20.61	3.35	-52.9	-61.7	3.8	7.46e-01	0	34	104	0	76	10502
2026-01-17 22:41:53.74	20.59	3.42	-52.9	-61.7	3.8	7.45e-01	0	34	104	0	76	10471
2026-01-17 22:41:54.75	20.57	3.50	-52.9	-61.7	3.8	7.46e-01	0	34	104	0	76	10474
2026-01-17 22:41:55.75	20.55	3.57	-52.9	-61.7	3.8	7.47e-01	0	34	104	0	76	10504
2026-01-17 22:41:56.76	20.53	3.65	-52.9	-61.7	3.8	7.45e-01	0	34	104	0	76	10514
2026-01-17 22:41:57.77	20.52	3.73	-52.9	-61.7	3.8	7.45e-01	0	34	104	0	76	10450
2026-01-17 22:41:58.78	20.50	3.80	-52.9	-61.7	3.8	7.44e-01	0	34	104	0	76	10456
2026-01-17 22:41:59.79	20.48	3.88	-52.9	-61.7	3.8	7.46e-01	0	34	104	0	76	10483
2026-01-17 22:42:00.80	20.46	3.95	-52.9	-61.7	3.8	7.44e-01	0	34	104	0	76	10500
2026-01-17 22:42:01.80	20.44	4.03	-52.9	-61.7	3.8	7.45e-01	0	34	104	0	76	10467
2026-01-17 22:42:02.81	20.42	4.11	-52.9	-61.7	3.8	7.46e-01	0	34	104	0	76	10467
2026-01-17 22:42:03.82	20.40	4.19	-52.9	-61.7	3.8	7.46e-01	0	34	104	0	76	10490
2026-01-17 22:42:04.82	20.38	4.26	-52.9	-61.7	3.8	7.44e-01	0	34	104	0	76	10498
2026-01-17 22:42:05.83	20.36	4.34	-52.9	-61.7	3.8	7.43e-01	0	34	104	0	76	10476
2026-01-17 22:42:06.84	20.34	4.42	-52.9	-61.7	3.8	7.45e-01	0	34	104	0	76	10503
2026-01-17 22:42:07.85	20.32	4.50	-52.9	-61.7	3.8	7.44e-01	0	34	104	0	76	10458
2026-01-17 22:42:08.86	20.30	4.58	-52.9	-61.7	3.8	7.45e-01	0	34	104	0	76	10480
2026-01-17 22:42:09.87	20.28	4.66	-52.9	-61.7	3.8	7.44e-01	0	34	104	0	76	10462
2026-01-17 22:42:10.88	20.26	4.74	-52.9	-61.7	3.8	7.45e-01	0	34	104	0	76	10474
2026-01-17 22:42:11.88	20.24	4.82	-52.9	-61.7	3.8	7.45e-01	0	34	104	0	76	10473
2026-01-17 22:42:12.89	20.22	4.90	-52.9	-61.7	3.8	7.46e-01	0	34	104	0	76	10476
2026-01-17 22:42:13.90	20.20	4.98	-52.9	-61.7	3.8	7.45e-01	0	34	104	0	76	10462
2026-01-17 22:42:14.91	20.18	5.06	-52.9	-61.7	3.8	7.45e-01	0	34	104	0	76	10494
2026-01-17 22:42:15.92	20.16	5.14	-52.9	-61.7	3.8	7.45e-01	0	34	104	0	76	10516
2026-01-17 22:42:16.92	20.14	5.22	-53.0	-61.9	3.8	7.46e-01	0	34	104	0	76	10689
2026-01-17 22:42:17.93	20.11	5.30	-52.8	-61.7	3.8	7.46e-01	0	34	104	0	76	10422
2026-01-17 22:42:18.94	20.09	5.39	-53.0	-61.8	3.8	7.45e-01	0	34	104	0	76	10652
2026-01-17 22:42:19.94	20.07	5.47	-52.9	-61.7	3.8	7.45e-01	0	34	104	0	76	10528
2026-01-17 22:42:20.95	20.05	5.55	-53.1	-61.9	3.8	7.45e-01	0	34	104	0	76	10772
2026-01-17 22:42:21.96	20.03	5.64	-52.9	-61.7	3.8	7.45e-01	0	35	104	0	76	10475
2026-01-17 22:42:22.97	20.00	5.72	-53.1	-61.9	3.8	7.45e-01	0	34	104	0	76	10716
2026-01-17 22:42:23.98	19.98	5.80	-53.0	-61.9	3.8	7.46e-01	0	35	104	0	76	10668
2026-01-17 22:42:24.98	19.96	5.89	-53.1	-62.0	3.8	7.46e-01	0	35	104	0	76	10838
2026-01-17 22:42:25.99	19.93	5.97	-52.9	-61.8	3.8	7.44e-01	0	34	104	0	76	10606
2026-01-17 22:42:27.00	19.91	6.06	-53.1	-62.0	3.8	7.46e-01	0	35	104	0	76	10791
2026-01-17 22:42:28.01	19.89	6.14	-53.0	-61.9	3.8	7.45e-01	0	35	104	0	76	10707
2026-01-17 22:42:29.02	19.86	6.23	-53.2	-62.0	3.8	7.45e-01	0	35	104	0	76	10872
2026-01-17 22:42:30.02	19.84	6.31	-53.0	-61.9	3.8	7.44e-01	0	35	104	0	76	10673
2026-01-17 22:42:31.03	19.81	6.40	-53.2	-62.0	3.8	7.45e-01	0	35	104	0	76	10834
2026-01-17 22:42:32.04	19.79	6.49	-53.1	-61.9	3.8	7.46e-01	0	35	104	0	76	10762
2026-01-17 22:42:33.05	19.77	6.58	-53.2	-62.1	3.8	7.46e-01	0	35	104	0	77	10346
2026-01-17 22:42:34.06	19.74	6.66	-53.1	-61.9	3.8	7.45e-01	0	35	104	0	77	10122
2026-01-17 22:42:35.07	19.72	6.75	-53.2	-62.0	3.8	7.45e-01	0	34	104	0	77	10291
2026-01-17 22:42:36.07	19.69	6.84	-53.1	-62.0	3.8	7.44e-01	0	35	104	0	77	10232
2026-01-17 22:42:37.08	19.66	6.93	-53.3	-62.1	3.8	7.45e-01	0	35	104	0	77	10395
2026-01-17 22:42:38.09	19.64	7.02	-53.1	-62.0	3.8	7.45e-01	0	35	104	0	77	10191
2026-01-17 22:42:39.09	19.61	7.11	-53.3	-62.1	3.8	7.46e-01	0	35	104	0	77	10315
2026-01-17 22:42:40.10	19.59	7.20	-53.2	-62.0	3.8	7.46e-01	0	35	104	0	77	10274
2026-01-17 22:42:41.11	19.56	7.29	-53.3	-62.2	3.8	7.45e-01	0	35	104	0	77	10415
2026-01-17 22:42:42.12	19.53	7.38	-53.2	-62.0	3.8	7.45e-01	0	35	104	0	77	10234
2026-01-17 22:42:43.13	19.51	7.47	-53.3	-62.2	3.8	7.45e-01	0	35	104	0	77	10420
2026-01-17 22:42:44.14	19.48	7.57	-53.3	-62.1	3.8	7.46e-01	0	35	104	0	77	10337
2026-01-17 22:42:45.14	19.45	7.66	-53.4	-62.2	3.8	7.46e-01	0	35	104	0	77	10492
2026-01-17 22:42:46.15	19.42	7.75	-53.2	-62.1	3.8	7.45e-01	0	35	104	0	77	10343
2026-01-17 22:42:47.16	19.39	7.84	-53.4	-62.2	3.8	7.45e-01	0	35	104	0	77	10465
2026-01-17 22:42:48.16	19.37	7.94	-53.3	-62.1	3.8	7.45e-01	0	35	104	0	77	10388
2026-01-17 22:42:49.17	19.34	8.03	-53.4	-62.2	3.8	7.44e-01	0	35	104	0	77	10526
2026-01-17 22:42:50.18	19.31	8.13	-53.3	-62.1	3.8	7.46e-01	0	35	104	0	77	10361
2026-01-17 22:42:51.18	19.28	8.22	-53.4	-62.2	3.8	7.46e-01	0	35	104	0	77	10519
2026-01-17 22:42:52.19	19.25	8.32	-53.3	-62.2	3.8	7.45e-01	0	35	104	0	77	10451
2026-01-17 22:42:53.20	19.22	8.41	-53.4	-62.3	3.8	7.45e-01	0	35	104	0	77	10554
2026-01-17 22:42:54.21	19.19	8.51	-53.3	-62.2	3.8	7.46e-01	0	34	104	0	77	10455
2026-01-17 22:42:55.22	19.16	8.61	-53.4	-62.3	3.8	7.44e-01	0	35	104	0	77	10548
2026-01-17 22:42:56.23	19.13	8.71	-53.4	-62.2	3.8	7.46e-01	0	35	104	0	77	10482
2026-01-17 22:42:57.24	19.10	8.80	-53.5	-62.3	3.8	7.46e-01	0	35	104	0	77	10595
2026-01-17 22:42:58.24	19.07	8.90	-53.4	-62.2	3.8	7.45e-01	0	35	104	0	77	10457
2026-01-17 22:42:59.25	19.04	9.00	-53.5	-62.3	3.8	7.46e-01	0	35	104	0	77	10613
2026-01-17 22:43:00.26	19.01	9.10	-53.4	-62.2	3.8	7.44e-01	0	35	104	0	77	10517
2026-01-17 22:43:01.27	18.97	9.20	-53.5	-62.3	3.8	7.46e-01	0	35	104	0	77	10639
2026-01-17 22:43:02.28	18.94	9.30	-53.4	-62.2	3.8	7.45e-01	0	35	104	0	77	10530
2026-01-17 22:43:03.28	18.91	9.40	-53.5	-62.3	3.8	7.44e-01	0	35	104	0	77	10650
2026-01-17 22:43:04.29	18.88	9.50	-53.5	-62.3	3.8	7.46e-01	0	35	104	0	77	10595
2026-01-17 22:43:05.30	18.84	9.61	-53.5	-62.4	3.8	7.45e-01	0	35	104	0	77	10736
2026-01-17 22:43:06.30	18.81	9.71	-53.5	-62.3	3.8	7.45e-01	0	35	104	0	77	10585
2026-01-17 22:43:07.31	18.77	9.81	-53.5	-62.4	3.8	7.46e-01	0	35	104	0	77	10670
2026-01-17 22:43:08.32	18.74	9.92	-53.5	-62.3	3.8	7.46e-01	0	35	104	0	77	10643
2026-01-17 22:43:09.33	18.71	10.02	-53.6	-62.4	3.8	7.46e-01	0	35	104	0	77	10719
2026-01-17 22:43:10.34	18.67	10.13	-53.5	-62.3	3.8	7.46e-01	0	35	104	0	77	10627
2026-01-17 22:43:11.34	18.64	10.23	-53.5	-62.3	3.8	7.46e-01	0	35	104	0	77	10652
2026-01-17 22:43:12.35	18.60	10.34	-53.5	-62.4	3.8	7.45e-01	0	35	104	0	77	10676
2026-01-17 22:43:13.36	18.56	10.45	-53.6	-62.4	3.8	7.44e-01	0	35	104	0	77	10760
2026-01-17 22:43:14.37	18.53	10.56	-53.5	-62.4	3.8	7.46e-01	0	35	104	0	77	10677
2026-01-17 22:43:15.38	18.49	10.66	-53.6	-62.4	3.8	7.44e-01	0	35	104	0	77	10733
2026-01-17 22:43:16.38	18.45	10.77	-53.6	-62.4	3.8	7.46e-01	0	35	104	0	77	10684
2026-01-17 22:43:17.39	18.42	10.88	-53.6	-62.4	3.8	7.44e-01	0	35	104	0	77	10765
2026-01-17 22:43:18.40	18.38	10.99	-53.6	-62.4	3.8	7.46e-01	0	35	104	0	77	10733
2026-01-17 22:43:19.41	18.34	11.10	-53.6	-62.4	3.8	7.45e-01	0	35	104	0	77	10766
2026-01-17 22:43:20.42	18.30	11.21	-53.6	-62.4	3.8	7.45e-01	0	35	104	0	77	10752
2026-01-17 22:43:21.42	18.26	11.33	-53.6	-62.4	3.8	7.46e-01	0	35	104	0	77	10777
2026-01-17 22:43:22.43	18.22	11.44	-53.6	-62.4	3.8	7.46e-01	0	35	104	0	77	10763
2026-01-17 22:43:23.44	18.18	11.55	-53.6	-62.4	3.8	7.46e-01	0	35	104	0	77	10767
2026-01-17 22:43:24.45	18.14	11.67	-53.6	-62.5	3.8	7.44e-01	0	35	104	0	77	10818
2026-01-17 22:43:25.46	18.10	11.78	-53.7	-62.5	3.8	7.45e-01	0	35	104	0	77	10860
2026-01-17 22:43:26.46	18.06	11.90	-53.6	-62.5	3.8	7.45e-01	0	35	104	0	77	10791
2026-01-17 22:43:27.47	18.02	12.01	-53.7	-62.5	3.8	7.44e-01	0	35	104	0	77	10793
2026-01-17 22:43:28.48	17.98	12.13	-53.7	-62.5	3.8	7.46e-01	0	35	104	0	77	10851
2026-01-17 22:43:29.49	17.93	12.25	-53.7	-62.5	3.8	7.46e-01	0	35	104	0	77	10864
2026-01-17 22:43:30.50	17.89	12.37	-53.7	-62.5	3.8	7.44e-01	0	35	104	0	77	10838
2026-01-17 22:43:31.50	17.85	12.49	-53.7	-62.5	3.8	7.45e-01	0	35	104	0	77	10846
2026-01-17 22:43:32.51	17.80	12.61	-53.7	-62.6	3.8	7.44e-01	0	35	104	0	77	10923
2026-01-17 22:43:33.52	17.76	12.73	-53.7	-62.6	3.8	7.45e-01	0	35	104	0	78	10338
2026-01-17 22:43:34.53	17.71	12.85	-53.7	-62.6	3.8	7.45e-01	0	35	104	0	78	10302
2026-01-17 22:43:35.54	17.67	12.97	-53.7	-62.6	3.8	7.45e-01	0	35	104	0	78	10305
2026-01-17 22:43:36.55	17.62	13.10	-53.8	-62.6	3.8	7.45e-01	0	35	104	0	78	10349
2026-01-17 22:43:37.56	17.58	13.22	-53.8	-62.6	3.8	7.45e-01	0	35	104	0	78	10350
2026-01-17 22:43:38.56	17.53	13.35	-53.7	-62.6	3.8	7.44e-01	0	35	104	0	78	10322
2026-01-17 22:43:39.57	17.48	13.47	-53.8	-62.6	3.8	7.44e-01	0	35	104	0	78	10368
2026-01-17 22:43:40.58	17.43	13.60	-53.8	-62.6	3.8	7.46e-01	0	35	104	0	78	10400
2026-01-17 22:43:41.59	17.39	13.73	-53.8	-62.6	3.8	7.46e-01	0	35	104	0	78	10334
2026-01-17 22:43:42.60	17.34	13.85	-53.8	-62.6	3.8	7.45e-01	0	35	104	0	78	10408
2026-01-17 22:43:43.60	17.29	13.98	-53.8	-62.6	3.8	7.46e-01	0	35	104	0	78	10380
2026-01-17 22:43:44.61	17.24	14.11	-53.8	-62.6	3.8	7.46e-01	0	35	104	0	78	10407
2026-01-17 22:43:45.62	17.19	14.24	-53.8	-62.7	3.8	7.44e-01	0	35	104	0	78	10416
2026-01-17 22:43:46.63	17.13	14.38	-53.8	-62.6	3.8	7.46e-01	0	35	104	0	78	10384
2026-01-17 22:43:47.64	17.08	14.51	-53.8	-62.7	3.8	7.45e-01	0	35	104	0	78	10441
2026-01-17 22:43:48.64	17.03	14.64	-53.8	-62.7	3.8	7.44e-01	0	35	104	0	78	10480
2026-01-17 22:43:49.65	16.98	14.78	-53.8	-62.7	3.8	7.44e-01	0	35	104	0	78	10464
2026-01-17 22:43:50.66	16.92	14.91	-53.8	-62.7	3.8	7.45e-01	0	35	104	0	78	10433
2026-01-17 22:43:51.67	16.87	15.05	-53.8	-62.7	3.8	7.45e-01	0	35	104	0	78	10447
2026-01-17 22:43:52.67	16.81	15.19	-53.9	-62.7	3.8	7.44e-01	0	35	104	0	78	10494
2026-01-17 22:43:53.68	16.76	15.33	-53.8	-62.7	3.8	7.47e-01	0	35	104	0	78	10452
2026-01-17 22:43:54.69	16.70	15.47	-53.9	-62.7	3.8	7.47e-01	0	35	104	0	78	10498
2026-01-17 22:43:55.70	16.65	15.61	-53.9	-62.7	3.8	7.43e-01	0	35	104	0	78	10468
2026-01-17 22:43:56.71	16.59	15.75	-53.9	-62.7	3.8	7.46e-01	0	35	104	0	78	10521
2026-01-17 22:43:57.72	16.53	15.89	-53.9	-62.7	3.8	7.45e-01	0	35	104	0	78	10484
2026-01-17 22:43:58.72	16.47	16.03	-53.9	-62.7	3.8	7.46e-01	0	35	104	0	78	10485
2026-01-17 22:43:59.73	16.41	16.18	-53.9	-62.7	3.8	7.45e-01	0	35	104	0	78	10502
2026-01-17 22:44:00.74	16.35	16.33	-53.9	-62.8	3.8	7.45e-01	0	35	104	0	78	10555
2026-01-17 22:44:01.75	16.29	16.47	-53.9	-62.7	3.8	7.44e-01	0	35	104	0	78	10528
2026-01-17 22:44:02.75	16.23	16.62	-53.9	-62.7	3.8	7.48e-01	0	35	104	0	78	10531
2026-01-17 22:44:03.76	16.16	16.77	-53.9	-62.7	3.8	7.46e-01	0	35	104	0	78	10513
2026-01-17 22:44:04.77	16.10	16.92	-53.9	-62.8	3.8	7.45e-01	0	35	104	0	78	10591
2026-01-17 22:44:05.78	16.04	17.07	-53.9	-62.8	3.8	7.46e-01	0	35	104	0	78	10558
2026-01-17 22:44:06.78	15.97	17.22	-53.9	-62.8	3.8	7.45e-01	0	35	104	0	78	10583
2026-01-17 22:44:07.79	15.91	17.38	-53.9	-62.8	3.8	7.46e-01	0	35	104	0	78	10534
2026-01-17 22:44:08.80	15.84	17.53	-54.0	-62.8	3.8	7.45e-01	0	36	104	0	78	10613
2026-01-17 22:44:09.81	15.77	17.69	-53.9	-62.8	3.8	7.45e-01	0	35	104	0	78	10587
2026-01-17 22:44:10.82	15.70	17.85	-54.0	-62.8	3.8	7.44e-01	0	35	104	0	78	10597
2026-01-17 22:44:11.82	15.63	18.01	-53.9	-62.8	3.8	7.44e-01	0	35	104	0	78	10601
2026-01-17 22:44:12.83	15.56	18.17	-54.0	-62.8	3.8	7.45e-01	0	35	104	0	78	10624
2026-01-17 22:44:13.84	15.49	18.33	-54.0	-62.8	3.8	7.46e-01	0	35	104	0	78	10558
2026-01-17 22:44:14.85	15.42	18.49	-54.0	-62.8	3.8	7.45e-01	0	35	104	0	78	10613
2026-01-17 22:44:15.85	15.35	18.66	-54.0	-62.8	3.8	7.45e-01	0	35	104	0	78	10569
2026-01-17 22:44:16.86	15.27	18.82	-54.0	-62.9	3.8	7.44e-01	0	35	104	0	78	10701
2026-01-17 22:44:17.87	15.20	18.99	-54.0	-62.8	3.8	7.44e-01	0	35	104	0	78	10612
2026-01-17 22:44:18.88	15.12	19.16	-54.0	-62.8	3.8	7.44e-01	0	35	104	0	78	10651
2026-01-17 22:44:19.89	15.04	19.33	-54.0	-62.8	3.8	7.43e-01	0	35	104	0	78	10620
2026-01-17 22:44:20.89	14.96	19.50	-54.0	-62.9	3.8	7.43e-01	0	35	104	0	78	10707
2026-01-17 22:44:21.90	14.89	19.67	-54.0	-62.9	3.8	7.44e-01	0	35	104	0	78	10682
2026-01-17 22:44:22.91	14.80	19.85	-54.0	-62.9	3.8	7.45e-01	0	35	104	0	78	10717
2026-01-17 22:44:23.92	14.72	20.02	-54.0	-62.9	3.8	7.46e-01	0	35	104	0	78	10680
2026-01-17 22:44:24.92	14.64	20.20	-54.1	-62.9	3.8	7.45e-01	0	35	104	0	78	10744
2026-01-17 22:44:25.93	14.56	20.38	-54.0	-62.9	3.8	7.45e-01	0	35	104	0	78	10676
2026-01-17 22:44:26.94	14.47	20.56	-54.1	-62.9	3.8	7.45e-01	0	35	104	0	78	10720
2026-01-17 22:44:27.95	14.39	20.74	-54.0	-62.9	3.8	7.46e-01	0	35	104	0	78	10658
2026-01-17 22:44:28.96	14.30	20.93	-54.1	-62.9	3.8	7.45e-01	0	35	104	0	78	10754
2026-01-17 22:44:29.96	14.21	21.11	-54.0	-62.9	3.8	7.44e-01	0	35	104	0	78	10734
2026-01-17 22:44:30.97	14.12	21.30	-54.1	-62.9	3.8	7.45e-01	0	35	104	0	78	10737
2026-01-17 22:44:31.98	14.03	21.49	-54.1	-62.9	3.8	7.45e-01	0	35	104	0	78	10714
2026-01-17 22:44:32.99	13.94	21.68	-54.1	-62.9	3.8	7.45e-01	0	35	104	0	78	10761
2026-01-17 22:44:34.00	13.84	21.87	-54.1	-62.9	3.8	7.45e-01	0	35	104	0	78	10726
2026-01-17 22:44:35.00	13.75	22.06	-54.1	-62.9	3.8	7.44e-01	0	35	104	0	78	10734
2026-01-17 22:44:36.01	13.65	22.26	-54.1	-62.9	3.8	7.47e-01	0	35	104	0	78	10768
2026-01-17 22:44:37.02	13.55	22.46	-54.1	-63.0	3.8	7.46e-01	0	35	104	0	78	10800
2026-01-17 22:44:38.03	13.45	22.66	-54.1	-62.9	3.8	7.44e-01	0	35	104	0	78	10748
2026-01-17 22:44:39.03	13.35	22.85	-54.1	-63.0	3.8	7.46e-01	0	35	104	0	78	10809
2026-01-17 22:44:40.04	13.25	23.06	-54.1	-63.0	3.8	7.45e-01	0	35	104	0	78	10780
2026-01-17 22:44:41.05	13.14	23.26	-54.1	-63.0	3.8	7.45e-01	0	35	104	0	78	10792
2026-01-17 22:44:42.06	13.04	23.47	-54.1	-62.9	3.8	7.44e-01	0	35	104	0	78	10761
2026-01-17 22:44:43.06	12.93	23.68	-54.1	-63.0	3.8	7.45e-01	0	35	104	0	78	10799
2026-01-17 22:44:44.07	12.82	23.89	-54.1	-62.9	3.8	7.46e-01	0	35	104	0	78	10774
2026-01-17 22:44:45.08	12.71	24.10	-54.2	-63.0	3.8	7.45e-01	0	35	104	0	78	10854
2026-01-17 22:44:46.09	12.60	24.32	-54.1	-63.0	3.8	7.46e-01	0	35	104	0	78	10810
2026-01-17 22:44:47.09	12.48	24.53	-54.2	-63.0	3.8	7.46e-01	0	35	104	0	78	10834
2026-01-17 22:44:48.10	12.37	24.75	-54.1	-63.0	3.8	7.44e-01	0	35	104	0	78	10814
2026-01-17 22:44:49.11	12.25	24.97	-54.2	-63.0	3.8	7.44e-01	0	35	104	0	78	10901
2026-01-17 22:44:50.12	12.13	25.20	-54.2	-63.0	3.8	7.45e-01	0	35	104	0	78	10803
2026-01-17 22:44:51.12	12.01	25.42	-54.2	-63.0	3.8	7.45e-01	0	35	104	0	78	10872
2026-01-17 22:44:52.13	11.88	25.65	-54.2	-63.0	3.8	7.46e-01	0	35	104	0	78	10820
2026-01-17 22:44:53.14	11.75	25.88	-54.2	-63.0	3.8	7.45e-01	0	35	104	0	78	10887
2026-01-17 22:44:54.15	11.63	26.11	-54.2	-63.0	3.8	7.46e-01	0	35	104	0	78	10852
2026-01-17 22:44:55.16	11.50	26.35	-54.2	-63.1	3.8	7.46e-01	0	35	104	0	78	10908
2026-01-17 22:44:56.16	11.36	26.58	-54.2	-63.0	3.8	7.45e-01	0	35	104	0	78	10875
2026-01-17 22:44:57.17	11.23	26.82	-54.2	-63.1	3.8	7.45e-01	0	35	104	0	79	10318
2026-01-17 22:44:58.18	11.09	27.07	-54.2	-63.1	3.8	7.46e-01	0	35	104	0	79	10306
2026-01-17 22:44:59.18	10.95	27.31	-54.2	-63.1	3.8	7.46e-01	0	35	104	0	79	10325
2026-01-17 22:45:00.19	10.81	27.56	-54.2	-63.1	3.8	7.46e-01	0	35	104	0	79	10323
2026-01-17 22:45:01.20	10.66	27.81	-54.3	-63.1	3.8	7.47e-01	0	35	104	0	79	10341
2026-01-17 22:45:02.21	10.52	28.06	-54.2	-63.1	3.8	7.45e-01	0	35	104	0	79	10353
2026-01-17 22:45:03.22	10.37	28.31	-54.3	-63.1	3.8	7.45e-01	0	35	104	0	79	10364
2026-01-17 22:45:04.22	10.21	28.57	-54.2	-63.1	3.8	7.44e-01	0	35	104	0	79	10358
2026-01-17 22:45:05.23	10.06	28.83	-54.3	-63.1	3.8	7.45e-01	0	35	104	0	79	10394
2026-01-17 22:45:06.24	9.90	29.09	-54.3	-63.1	3.8	7.44e-01	0	35	104	0	79	10342
2026-01-17 22:45:07.24	9.74	29.35	-54.3	-63.1	3.8	7.44e-01	0	35	104	0	79	10369
2026-01-17 22:45:08.25	9.58	29.62	-54.3	-63.1	3.8	7.46e-01	0	36	104	0	79	10365
2026-01-17 22:45:09.26	9.41	29.89	-54.3	-63.2	3.8	7.46e-01	0	36	104	0	79	10449
2026-01-17 22:45:10.27	9.24	30.17	-54.3	-63.1	3.8	7.44e-01	0	35	104	0	79	10364
2026-01-17 22:45:11.28	9.06	30.45	-54.3	-63.2	3.8	7.43e-01	0	35	104	0	79	10432
2026-01-17 22:45:12.29	8.89	30.73	-54.3	-63.2	3.8	7.46e-01	0	35	104	0	79	10432
2026-01-17 22:45:13.29	8.71	31.01	-54.3	-63.1	3.8	7.46e-01	0	35	104	0	79	10406
2026-01-17 22:45:14.30	8.52	31.29	-54.3	-63.1	3.8	7.44e-01	0	36	104	0	79	10397
2026-01-17 22:45:15.31	8.33	31.58	-54.3	-63.2	3.8	7.45e-01	0	35	104	0	79	10454
2026-01-17 22:45:16.32	8.14	31.87	-54.3	-63.2	3.8	7.46e-01	0	35	104	0	79	10454
2026-01-17 22:45:17.33	7.95	32.17	-54.4	-63.2	3.8	7.44e-01	0	35	104	0	79	10477
2026-01-17 22:45:18.33	7.75	32.46	-54.3	-63.2	3.8	7.46e-01	0	35	104	0	79	10431
2026-01-17 22:45:19.34	7.55	32.76	-54.4	-63.2	3.8	7.44e-01	0	35	104	0	79	10444
2026-01-17 22:45:20.35	7.34	33.07	-54.4	-63.2	3.8	7.45e-01	0	35	104	0	79	10486
2026-01-17 22:45:21.36	7.13	33.37	-54.4	-63.2	3.8	7.46e-01	0	35	104	0	79	10468
2026-01-17 22:45:22.36	6.91	33.68	-54.4	-63.2	3.8	7.46e-01	0	35	104	0	79	10450
2026-01-17 22:45:23.37	6.69	34.00	-54.4	-63.2	3.8	7.45e-01	0	35	104	0	79	10492
2026-01-17 22:45:24.38	6.46	34.31	-54.4	-63.2	3.8	7.43e-01	0	35	104	0	79	10516
2026-01-17 22:45:25.38	6.24	34.63	-54.4	-63.2	3.8	7.45e-01	0	36	104	0	79	10528
2026-01-17 22:45:26.39	6.00	34.96	-54.4	-63.2	3.8	7.44e-01	0	35	104	0	79	10480
2026-01-17 22:45:27.40	5.76	35.28	-54.4	-63.3	3.8	7.46e-01	0	35	104	0	79	10546
2026-01-17 22:45:28.41	5.51	35.61	-54.4	-63.3	3.8	7.44e-01	0	36	104	0	79	10558
2026-01-17 22:45:29.42	5.26	35.95	-54.4	-63.3	3.8	7.45e-01	0	35	104	0	79	10569
2026-01-17 22:45:30.42	5.01	36.28	-54.4	-63.2	3.8	7.44e-01	0	36	104	0	79	10520
2026-01-17 22:45:31.43	4.74	36.62	-54.4	-63.3	3.8	7.45e-01	0	36	104	0	79	10609
2026-01-17 22:45:32.44	4.48	36.97	-54.5	-63.3	3.8	7.44e-01	0	35	104	0	79	10609
2026-01-17 22:45:33.45	4.20	37.32	-54.5	-63.3	3.8	7.45e-01	0	35	104	0	79	10591
2026-01-17 22:45:34.46	3.92	37.67	-54.4	-63.3	3.8	7.45e-01	0	35	104	0	79	10564
2026-01-17 22:45:35.46	3.63	38.02	-54.5	-63.4	3.8	7.46e-01	0	36	104	0	79	10669
2026-01-17 22:45:36.47	3.34	38.38	-54.5	-63.3	3.8	7.46e-01	0	35	104	0	79	10640
2026-01-17 22:45:37.48	3.04	38.74	-54.5	-63.3	3.8	7.44e-01	0	35	104	0	79	10630
2026-01-17 22:45:38.49	2.73	39.11	-54.5	-63.3	3.8	7.46e-01	0	36	104	0	79	10616
2026-01-17 22:45:39.50	2.41	39.48	-54.5	-63.3	3.8	7.47e-01	0	35	104	0	79	10610
2026-01-17 22:45:40.50	2.09	39.84	-54.5	-63.4	3.8	7.44e-01	0	35	104	0	79	10675
2026-01-17 22:45:41.51	1.76	40.22	-54.5	-63.4	3.8	7.44e-01	0	36	104	0	79	10668
2026-01-17 22:45:42.52	1.42	40.60	-54.5	-63.3	3.8	7.47e-01	0	35	104	0	79	10610
2026-01-17 22:45:43.53	1.07	40.98	-54.5	-63.4	3.8	7.44e-01	0	35	104	0	79	10693
2026-01-17 22:45:44.54	0.71	41.37	-54.6	-63.4	3.8	7.44e-01	0	35	104	0	79	10709
2026-01-17 22:45:45.54	0.35	41.76	-54.5	-63.4	3.8	7.45e-01	0	36	104	0	79	10694
2026-01-17 22:45:46.55	359.97	42.15	-54.5	-63.4	3.8	7.44e-01	0	35	104	0	79	10727
2026-01-17 22:45:47.56	359.58	42.55	-54.6	-63.4	3.8	7.45e-01	0	35	104	0	79	10708
2026-01-17 22:45:48.57	359.18	42.95	-54.6	-63.5	3.8	7.46e-01	0	36	104	0	79	10791
2026-01-17 22:45:49.58	358.78	43.35	-54.6	-63.4	3.8	7.46e-01	0	36	104	0	79	10748
2026-01-17 22:45:50.58	358.36	43.76	-54.6	-63.4	3.8	7.46e-01	0	35	104	0	79	10705
2026-01-17 22:45:51.59	357.93	44.17	-54.6	-63.5	3.8	7.45e-01	0	35	104	0	79	10793
2026-01-17 22:45:52.60	357.49	44.58	-54.6	-63.5	3.8	7.44e-01	0	36	104	0	79	10803
2026-01-17 22:45:53.61	357.04	45.00	-54.6	-63.4	3.8	7.45e-01	0	36	104	0	79	10744
2026-01-17 22:45:54.62	356.57	45.42	-54.6	-63.5	3.8	7.47e-01	0	35	104	0	79	10779
2026-01-17 22:45:55.62	356.10	45.83	-54.6	-63.4	3.8	7.46e-01	0	36	104	0	79	10768
2026-01-17 22:45:56.63	355.60	46.26	-54.6	-63.5	3.8	7.44e-01	0	35	104	0	79	10839
2026-01-17 22:45:57.64	355.10	46.69	-54.6	-63.5	3.8	7.45e-01	0	35	104	0	79	10836
2026-01-17 22:45:58.65	354.57	47.12	-54.6	-63.5	3.8	7.47e-01	0	36	104	0	79	10815
2026-01-17 22:45:59.65	354.04	47.55	-54.7	-63.5	3.8	7.45e-01	0	36	104	0	79	10843
2026-01-17 22:46:00.66	353.49	47.98	-54.7	-63.5	3.8	7.46e-01	0	36	104	0	79	10888
2026-01-17 22:46:01.67	352.92	48.42	-54.7	-63.5	3.8	7.45e-01	0	35	104	0	79	10828
2026-01-17 22:46:02.68	352.34	48.86	-54.7	-63.5	3.8	7.46e-01	0	35	104	0	79	10867
2026-01-17 22:46:03.69	351.73	49.30	-54.7	-63.5	3.8	7.45e-01	0	35	104	0	79	10857
2026-01-17 22:46:04.70	351.11	49.74	-54.7	-63.5	3.8	7.44e-01	0	35	104	0	79	10861
2026-01-17 22:46:05.71	350.47	50.18	-54.7	-63.5	3.8	7.46e-01	0	35	104	0	79	10848
2026-01-17 22:46:06.72	349.81	50.62	-54.7	-63.6	3.8	7.45e-01	0	35	104	0	79	10926
2026-01-17 22:46:07.72	349.14	51.06	-54.7	-63.6	3.8	7.46e-01	0	36	104	0	79	10953
2026-01-17 22:46:08.73	348.43	51.51	-54.7	-63.6	3.8	7.45e-01	0	35	104	0	79	10908
2026-01-17 22:46:09.74	347.71	51.95	-54.7	-63.6	3.8	7.46e-01	0	35	104	0	79	10907
2026-01-17 22:46:10.75	346.96	52.40	-54.7	-63.6	3.8	7.45e-01	0	35	104	0	79	10915
2026-01-17 22:46:11.76	346.20	52.84	-54.7	-63.5	3.8	7.45e-01	0	35	104	0	80	10225
2026-01-17 22:46:12.76	345.41	53.28	-54.7	-63.5	3.8	7.46e-01	0	35	104	0	80	10272
2026-01-17 22:46:13.77	344.59	53.72	-54.7	-63.5	3.8	7.46e-01	0	35	104	0	80	10258
2026-01-17 22:46:14.78	343.75	54.16	-54.7	-63.5	3.8	7.44e-01	0	35	104	0	80	10257
2026-01-17 22:46:15.79	342.88	54.60	-54.7	-63.5	3.8	7.45e-01	0	35	104	0	80	10285
2026-01-17 22:46:16.80	341.98	55.03	-54.7	-63.6	3.8	7.45e-01	0	35	104	0	80	10306
2026-01-17 22:46:17.80	341.06	55.46	-54.7	-63.5	3.8	7.48e-01	0	35	104	0	80	10239
2026-01-17 22:46:18.81	340.10	55.89	-54.7	-63.5	3.8	7.45e-01	0	35	104	0	80	10277
2026-01-17 22:46:19.82	339.11	56.31	-54.7	-63.5	3.8	7.45e-01	0	36	104	0	80	10290
2026-01-17 22:46:20.83	338.10	56.73	-54.7	-63.6	3.8	7.46e-01	0	35	104	0	80	10301
2026-01-17 22:46:21.83	337.06	57.14	-54.7	-63.5	3.8	7.45e-01	0	35	104	0	80	10266
2026-01-17 22:46:22.84	335.98	57.54	-54.7	-63.5	3.8	7.46e-01	0	36	104	0	80	10279
2026-01-17 22:46:23.85	334.86	57.95	-54.7	-63.6	3.8	7.45e-01	0	35	104	0	80	10310
2026-01-17 22:46:24.86	333.71	58.34	-54.7	-63.6	3.8	7.45e-01	0	35	104	0	80	10306
2026-01-17 22:46:25.87	332.53	58.72	-54.7	-63.6	3.8	7.44e-01	0	36	104	0	80	10304
2026-01-17 22:46:26.88	331.31	59.10	-54.7	-63.6	3.8	7.47e-01	0	36	104	0	80	10320
2026-01-17 22:46:27.88	330.06	59.46	-54.7	-63.6	3.8	7.44e-01	0	35	104	0	80	10338
2026-01-17 22:46:28.89	328.77	59.82	-54.7	-63.6	3.8	7.45e-01	0	35	104	0	80	10333
2026-01-17 22:46:29.90	327.45	60.16	-54.7	-63.6	3.8	7.47e-01	0	36	104	0	80	10331
2026-01-17 22:46:30.91	326.08	60.49	-54.7	-63.6	3.8	7.45e-01	0	35	104	0	80	10336
2026-01-17 22:46:31.92	324.69	60.81	-54.7	-63.6	3.8	7.45e-01	0	35	104	0	80	10361
2026-01-17 22:46:32.92	323.27	61.12	-54.7	-63.6	3.8	7.43e-01	0	36	104	0	80	10317
2026-01-17 22:46:33.93	321.80	61.41	-54.7	-63.6	3.8	7.46e-01	0	35	104	0	80	10334
2026-01-17 22:46:34.94	320.29	61.69	-54.7	-63.6	3.8	7.44e-01	0	35	104	0	80	10310
2026-01-17 22:46:35.95	318.75	61.95	-54.7	-63.6	3.8	7.44e-01	0	35	104	0	80	10337
2026-01-17 22:46:36.96	317.18	62.19	-54.8	-63.6	3.8	7.45e-01	0	35	104	0	80	10353
2026-01-17 22:46:37.96	315.60	62.41	-54.7	-63.6	3.8	7.47e-01	0	35	104	0	80	10322
2026-01-17 22:46:38.97	313.97	62.62	-54.7	-63.6	3.8	7.45e-01	0	35	104	0	80	10353
2026-01-17 22:46:39.98	312.31	62.81	-54.8	-63.6	3.8	7.45e-01	0	36	104	0	80	10326
2026-01-17 22:46:40.99	310.63	62.98	-54.8	-63.6	3.8	7.45e-01	0	36	104	0	80	10363
2026-01-17 22:46:41.99	308.94	63.13	-54.7	-63.6	3.8	7.45e-01	0	36	104	0	80	10328
2026-01-17 22:46:43.00	307.22	63.25	-54.7	-63.6	3.8	7.47e-01	0	35	104	0	80	10360
2026-01-17 22:46:44.01	305.47	63.36	-54.8	-63.6	3.8	7.45e-01	0	35	104	0	80	10347
2026-01-17 22:46:45.02	303.72	63.44	-54.8	-63.6	3.8	7.45e-01	0	35	104	0	80	10322
2026-01-17 22:46:46.03	301.95	63.51	-54.7	-63.6	3.8	7.45e-01	0	35	104	0	80	10312
2026-01-17 22:46:47.03	300.19	63.55	-54.8	-63.6	3.8	7.45e-01	0	35	104	0	80	10333
2026-01-17 22:46:48.04	298.41	63.57	-54.8	-63.6	3.8	7.47e-01	0	35	104	0	80	10332
2026-01-17 22:46:49.05	296.63	63.56	-54.8	-63.6	3.8	7.46e-01	0	36	104	0	80	10340
2026-01-17 22:46:50.06	294.85	63.53	-54.7	-63.6	3.8	7.46e-01	0	35	104	0	80	10322
2026-01-17 22:46:51.06	293.09	63.49	-54.7	-63.6	3.8	7.47e-01	0	36	104	0	80	10347
2026-01-17 22:46:52.07	291.33	63.41	-54.8	-63.6	3.8	7.45e-01	0	36	104	0	80	10375
2026-01-17 22:46:53.08	289.57	63.32	-54.8	-63.6	3.8	7.43e-01	0	36	104	0	80	10361
2026-01-17 22:46:54.09	287.84	63.21	-54.7	-63.6	3.8	7.43e-01	0	35	104	0	80	10350
2026-01-17 22:46:55.10	286.12	63.07	-54.7	-63.6	3.8	7.45e-01	0	35	104	0	80	10349
2026-01-17 22:46:56.11	284.42	62.91	-54.8	-63.6	3.8	7.47e-01	0	35	104	0	80	10382
2026-01-17 22:46:57.12	282.75	62.74	-54.8	-63.6	3.8	7.46e-01	0	36	104	0	80	10352
2026-01-17 22:46:58.12	281.12	62.54	-54.7	-63.6	3.8	7.44e-01	0	35	104	0	80	10344
2026-01-17 22:46:59.13	279.50	62.33	-54.8	-63.6	3.8	7.45e-01	0	36	104	0	80	10336
2026-01-17 22:47:00.14	277.91	62.09	-54.8	-63.6	3.8	7.45e-01	0	35	104	0	80	10376
2026-01-17 22:47:01.15	276.35	61.84	-54.7	-63.6	3.8	7.46e-01	0	35	104	0	80	10360
2026-01-17 22:47:02.15	274.84	61.58	-54.7	-63.6	3.8	7.45e-01	0	35	104	0	80	10310
2026-01-17 22:47:03.16	273.35	61.29	-54.7	-63.6	3.8	7.45e-01	0	36	104	0	80	10325
2026-01-17 22:47:04.17	271.89	61.00	-54.8	-63.6	3.8	7.44e-01	0	35	104	0	80	10369
2026-01-17 22:47:05.18	270.47	60.68	-54.7	-63.6	3.8	7.45e-01	0	36	104	0	80	10325
2026-01-17 22:47:06.19	269.08	60.36	-54.7	-63.6	3.8	7.44e-01	0	35	104	0	80	10334
2026-01-17 22:47:07.20	267.73	60.02	-54.7	-63.5	3.8	7.45e-01	0	36	104	0	80	10291
2026-01-17 22:47:08.20	266.43	59.67	-54.7	-63.6	3.8	7.46e-01	0	36	104	0	80	10361
2026-01-17 22:47:09.21	265.15	59.31	-54.7	-63.6	3.8	7.45e-01	0	36	104	0	80	10333
2026-01-17 22:47:10.22	263.91	58.94	-54.7	-63.6	3.8	7.45e-01	0	35	104	0	80	10328
2026-01-17 22:47:11.23	262.71	58.56	-54.7	-63.6	3.8	7.47e-01	0	36	104	0	80	10385
2026-01-17 22:47:12.24	261.53	58.17	-54.7	-63.6	3.8	7.44e-01	0	36	104	0	80	10387
2026-01-17 22:47:13.24	260.41	57.78	-54.7	-63.5	3.8	7.45e-01	0	36	104	0	80	10293
2026-01-17 22:47:14.25	259.30	57.38	-54.7	-63.5	3.8	7.44e-01	0	36	104	0	80	10273
2026-01-17 22:47:15.26	258.23	56.97	-54.7	-63.6	3.8	7.45e-01	0	36	104	0	80	10334
2026-01-17 22:47:16.27	257.20	56.55	-54.7	-63.6	3.8	7.43e-01	0	36	104	0	80	10323
2026-01-17 22:47:17.27	256.20	56.13	-54.7	-63.6	3.8	7.46e-01	0	36	104	0	80	10297
2026-01-17 22:47:18.28	255.22	55.71	-54.7	-63.5	3.8	7.46e-01	0	36	104	0	80	10266
2026-01-17 22:47:19.29	254.28	55.28	-54.7	-63.6	3.8	7.44e-01	0	36	104	0	80	10314
2026-01-17 22:47:20.30	253.36	54.84	-54.7	-63.6	3.8	7.45e-01	0	35	104	0	80	10339
2026-01-17 22:47:21.31	252.47	54.41	-54.7	-63.6	3.8	7.46e-01	0	36	104	0	80	10307
2026-01-17 22:47:22.31	251.62	53.97	-54.7	-63.6	3.8	7.45e-01	0	36	104	0	80	10330
2026-01-17 22:47:23.32	250.78	53.53	-54.7	-63.6	3.8	7.46e-01	0	36	104	0	80	10296
2026-01-17 22:47:24.33	249.97	53.09	-54.7	-63.5	3.8	7.44e-01	0	36	104	0	80	10279
2026-01-17 22:47:25.34	249.19	52.64	-54.7	-63.5	3.8	7.44e-01	0	36	104	0	80	10287
2026-01-17 22:47:26.35	248.43	52.20	-54.7	-63.6	3.8	7.46e-01	0	36	104	0	80	10308
2026-01-17 22:47:27.35	247.70	51.76	-54.7	-63.5	3.8	7.45e-01	0	36	104	0	80	10278
2026-01-17 22:47:28.36	246.98	51.31	-54.7	-63.5	3.8	7.46e-01	0	36	104	0	80	10246
2026-01-17 22:47:29.37	246.29	50.86	-54.7	-63.5	3.8	7.46e-01	0	36	104	0	80	10259
2026-01-17 22:47:30.37	245.62	50.42	-54.7	-63.5	3.8	7.45e-01	0	36	104	0	80	10262
2026-01-17 22:47:31.38	244.97	49.98	-54.7	-63.5	3.8	7.46e-01	0	36	104	0	80	10221
2026-01-17 22:47:32.39	244.33	49.54	-54.7	-63.5	3.8	7.45e-01	0	35	104	0	80	10271
2026-01-17 22:47:33.40	243.72	49.09	-54.6	-63.5	3.8	7.46e-01	0	36	104	0	80	10220
2026-01-17 22:47:34.40	243.13	48.66	-54.6	-63.5	3.8	7.46e-01	0	36	104	0	80	10217
2026-01-17 22:47:35.41	242.55	48.22	-54.7	-63.5	3.8	7.45e-01	0	36	104	0	80	10255
2026-01-17 22:47:36.42	241.98	47.78	-54.6	-63.5	3.8	7.44e-01	0	36	104	0	80	10237
2026-01-17 22:47:37.43	241.44	47.35	-54.6	-63.5	3.8	7.47e-01	0	36	104	0	80	10231
2026-01-17 22:47:38.44	240.90	46.91	-54.6	-63.5	3.8	7.47e-01	0	36	104	0	80	10224
2026-01-17 22:47:39.44	240.39	46.49	-54.6	-63.5	3.8	7.43e-01	0	36	104	0	80	10199
2026-01-17 22:47:40.45	239.89	46.06	-54.6	-63.5	3.8	7.46e-01	0	36	104	0	80	10230
2026-01-17 22:47:41.46	239.40	45.63	-54.6	-63.5	3.8	7.46e-01	0	36	104	0	80	10218
2026-01-17 22:47:42.47	238.93	45.21	-54.6	-63.5	3.8	7.44e-01	0	36	104	0	80	10211
2026-01-17 22:47:43.48	238.47	44.79	-54.6	-63.5	3.8	7.45e-01	0	36	104	0	80	10178
2026-01-17 22:47:44.48	238.02	44.38	-54.6	-63.5	3.8	7.48e-01	0	36	104	0	80	10207
2026-01-17 22:47:45.49	237.58	43.97	-54.6	-63.4	3.8	7.46e-01	0	36	104	0	80	10165
2026-01-17 22:47:46.50	237.16	43.56	-54.6	-63.4	3.8	7.46e-01	0	36	104	0	80	10165
2026-01-17 22:47:47.51	236.74	43.15	-54.6	-63.5	3.8	7.45e-01	0	36	104	0	80	10192
2026-01-17 22:47:48.52	236.34	42.74	-54.6	-63.5	3.8	7.45e-01	0	36	104	0	80	10193
2026-01-17 22:47:49.52	235.95	42.35	-54.6	-63.5	3.8	7.44e-01	0	36	104	0	80	10179
2026-01-17 22:47:50.53	235.56	41.95	-54.6	-63.4	3.8	7.46e-01	0	36	104	0	80	10122
2026-01-17 22:47:51.54	235.19	41.56	-54.6	-63.5	3.8	7.47e-01	0	36	104	0	80	10196
2026-01-17 22:47:52.54	234.83	41.17	-54.6	-63.4	3.8	7.45e-01	0	36	104	0	80	10170
2026-01-17 22:47:53.55	234.48	40.78	-54.6	-63.4	3.8	7.44e-01	0	36	104	0	80	10114
2026-01-17 22:47:54.56	234.13	40.40	-54.6	-63.4	3.8	7.46e-01	0	36	104	0	80	10124
2026-01-17 22:47:55.57	233.79	40.02	-54.6	-63.5	3.8	7.46e-01	0	36	104	0	80	10176
2026-01-17 22:47:56.58	233.46	39.65	-54.6	-63.4	3.8	7.45e-01	0	36	104	0	80	10134
2026-01-17 22:47:57.58	233.14	39.28	-54.6	-63.4	3.8	7.45e-01	0	36	104	0	80	10084
2026-01-17 22:47:58.59	232.83	38.91	-54.5	-63.4	3.8	7.45e-01	0	36	104	0	80	10105
2026-01-17 22:47:59.60	232.52	38.54	-54.6	-63.4	3.8	7.44e-01	0	36	104	0	80	10136
2026-01-17 22:48:00.61	232.22	38.18	-54.5	-63.4	3.8	7.45e-01	0	36	104	0	80	10109
2026-01-17 22:48:01.62	231.93	37.82	-54.5	-63.4	3.8	7.46e-01	0	36	104	0	80	10093
2026-01-17 22:48:02.62	231.65	37.47	-54.5	-63.4	3.8	7.45e-01	0	36	104	0	80	10088
2026-01-17 22:48:03.63	231.37	37.12	-54.5	-63.4	3.8	7.43e-01	0	36	104	0	80	10138
2026-01-17 22:48:04.64	231.09	36.77	-54.5	-63.4	3.8	7.45e-01	0	36	104	0	80	10073
2026-01-17 22:48:05.64	230.83	36.43	-54.5	-63.3	3.8	7.47e-01	0	36	104	0	80	10051
2026-01-17 22:48:06.65	230.57	36.09	-54.5	-63.3	3.8	7.45e-01	0	36	104	0	80	10036
2026-01-17 22:48:07.66	230.31	35.75	-54.5	-63.4	3.8	7.46e-01	0	36	104	0	80	10081
2026-01-17 22:48:08.67	230.06	35.42	-54.5	-63.3	3.8	7.44e-01	0	36	104	0	80	10043
2026-01-17 22:48:09.68	229.82	35.09	-54.5	-63.4	3.8	7.44e-01	0	36	104	0	80	10072
2026-01-17 22:48:10.69	229.58	34.76	-54.5	-63.3	3.8	7.46e-01	0	36	104	0	80	10045
2026-01-17 22:48:11.70	229.35	34.44	-54.5	-63.3	3.8	7.46e-01	0	36	104	0	80	10034
2026-01-17 22:48:12.70	229.12	34.12	-54.5	-63.3	3.8	7.46e-01	0	36	104	0	80	10016
2026-01-17 22:48:13.71	228.89	33.80	-54.5	-63.3	3.8	7.44e-01	0	36	104	0	80	9995
2026-01-17 22:48:14.72	228.67	33.49	-54.4	-63.3	3.8	7.46e-01	0	36	104	0	80	9991
2026-01-17 22:48:15.72	228.46	33.18	-54.5	-63.3	3.8	7.44e-01	0	36	104	0	80	9993
2026-01-17 22:48:16.73	228.25	32.87	-54.4	-63.3	3.8	7.44e-01	0	36	104	0	80	9992
2026-01-17 22:48:17.74	228.04	32.57	-54.4	-63.3	3.8	7.46e-01	0	36	104	0	80	10015
2026-01-17 22:48:18.75	227.84	32.27	-54.4	-63.3	3.8	7.45e-01	0	36	104	0	80	9980
2026-01-17 22:48:19.76	227.64	31.97	-54.4	-63.3	3.8	7.45e-01	0	36	104	0	80	9951
2026-01-17 22:48:20.76	227.45	31.68	-54.4	-63.3	3.8	7.45e-01	0	36	104	0	80	9981
2026-01-17 22:48:21.77	227.26	31.39	-54.4	-63.3	3.8	7.45e-01	0	36	104	0	80	9973
2026-01-17 22:48:22.78	227.07	31.10	-54.4	-63.3	3.8	7.44e-01	0	36	104	0	80	9952
2026-01-17 22:48:23.79	226.89	30.82	-54.4	-63.3	3.8	7.43e-01	0	36	104	0	80	9974
2026-01-17 22:48:24.80	226.71	30.53	-54.4	-63.3	3.8	7.45e-01	0	36	104	0	80	9958
2026-01-17 22:48:25.81	226.53	30.25	-54.4	-63.3	3.8	7.44e-01	0	36	104	0	80	9977
2026-01-17 22:48:26.82	226.36	29.98	-54.4	-63.2	3.8	7.45e-01	0	36	104	0	80	9941
2026-01-17 22:48:27.82	226.19	29.71	-54.4	-63.3	3.8	7.46e-01	0	36	104	0	80	9957
2026-01-17 22:48:28.83	226.03	29.43	-54.4	-63.2	3.8	7.46e-01	0	36	104	0	80	9936
2026-01-17 22:48:29.84	225.86	29.17	-54.4	-63.2	3.8	7.46e-01	0	36	104	0	80	9921
2026-01-17 22:48:30.85	225.70	28.90	-54.4	-63.2	3.8	7.44e-01	0	36	104	0	80	9926
2026-01-17 22:48:31.85	225.54	28.64	-54.4	-63.2	3.8	7.45e-01	0	36	104	0	80	9904
2026-01-17 22:48:32.86	225.39	28.38	-54.3	-63.2	3.8	7.46e-01	0	36	104	0	80	9872
2026-01-17 22:48:33.87	225.24	28.12	-54.3	-63.2	3.8	7.45e-01	0	36	104	0	80	9848
2026-01-17 22:48:34.88	225.09	27.87	-54.3	-63.2	3.8	7.43e-01	0	36	104	0	80	9864
2026-01-17 22:48:35.89	224.94	27.62	-54.3	-63.2	3.8	7.45e-01	0	36	104	0	80	9853
2026-01-17 22:48:36.90	224.80	27.37	-54.3	-63.2	3.8	7.46e-01	0	36	104	0	80	9889
2026-01-17 22:48:37.90	224.66	27.12	-54.3	-63.2	3.8	7.45e-01	0	36	104	0	80	9832
2026-01-17 22:48:38.91	224.52	26.88	-54.3	-63.2	3.8	7.44e-01	0	36	104	0	80	9846
2026-01-17 22:48:39.92	224.38	26.64	-54.3	-63.1	3.8	7.47e-01	0	36	104	0	80	9822
2026-01-17 22:48:40.93	224.24	26.40	-54.3	-63.1	3.8	7.44e-01	0	36	104	0	80	9824
2026-01-17 22:48:41.94	224.11	26.16	-54.3	-63.1	3.8	7.44e-01	0	36	104	0	80	9816
2026-01-17 22:48:42.94	223.98	25.93	-54.3	-63.1	3.8	7.44e-01	0	36	104	0	80	9792
2026-01-17 22:48:43.95	223.86	25.70	-54.3	-63.2	3.8	7.43e-01	0	36	104	0	80	9842
2026-01-17 22:48:44.96	223.73	25.47	-54.3	-63.1	3.8	7.45e-01	0	36	104	0	80	9776
2026-01-17 22:48:45.96	223.61	25.24	-54.3	-63.1	3.8	7.46e-01	0	36	104	0	80	9787
2026-01-17 22:48:46.97	223.48	25.01	-54.3	-63.1	3.8	7.45e-01	0	36	104	0	80	9767
2026-01-17 22:48:47.98	223.36	24.79	-54.2	-63.1	3.8	7.45e-01	0	36	104	0	80	9768
2026-01-17 22:48:48.99	223.25	24.57	-54.3	-63.1	3.8	7.44e-01	0	36	104	0	80	9767
2026-01-17 22:48:50.00	223.13	24.35	-54.3	-63.1	3.8	7.43e-01	0	36	104	0	80	9784
2026-01-17 22:48:51.00	223.02	24.13	-54.2	-63.1	3.8	7.44e-01	0	36	104	0	80	9757
2026-01-17 22:48:52.01	222.90	23.92	-54.2	-63.1	3.8	7.46e-01	0	36	104	0	80	9719
2026-01-17 22:48:53.02	222.79	23.71	-54.2	-63.0	3.8	7.46e-01	0	36	104	0	80	9714
2026-01-17 22:48:54.02	222.68	23.50	-54.2	-63.1	3.8	7.46e-01	0	36	104	0	80	9773
2026-01-17 22:48:55.03	222.58	23.29	-54.2	-63.0	3.8	7.46e-01	0	36	104	0	80	9701
2026-01-17 22:48:56.04	222.47	23.08	-54.2	-63.0	3.8	7.46e-01	0	36	104	0	80	9694
2026-01-17 22:48:57.05	222.37	22.88	-54.2	-63.0	3.8	7.44e-01	0	36	104	0	80	9684
2026-01-17 22:48:58.06	222.26	22.67	-54.2	-63.0	3.8	7.45e-01	0	36	104	0	80	9686
2026-01-17 22:48:59.06	222.16	22.47	-54.2	-63.1	3.8	7.47e-01	0	36	104	0	80	9731
2026-01-17 22:49:00.07	222.06	22.27	-54.2	-63.1	3.8	7.45e-01	0	36	104	0	80	9732
2026-01-17 22:49:01.08	221.97	22.08	-54.2	-63.0	3.8	7.44e-01	0	36	104	0	80	9681
2026-01-17 22:49:02.09	221.87	21.88	-54.2	-63.0	3.8	7.45e-01	0	36	104	0	80	9672
2026-01-17 22:49:03.09	221.78	21.69	-54.2	-63.0	3.8	7.44e-01	0	36	104	0	80	9685
2026-01-17 22:49:04.10	221.68	21.50	-54.2	-63.0	3.8	7.46e-01	0	36	104	0	80	9650
2026-01-17 22:49:05.10	221.59	21.31	-54.1	-63.0	3.8	7.46e-01	0	36	104	0	80	9653
2026-01-17 22:49:06.11	221.50	21.12	-54.1	-63.0	3.8	7.45e-01	0	36	104	0	80	9704
2026-01-17 22:49:07.12	221.41	20.93	-54.1	-63.0	3.8	7.46e-01	0	36	104	0	80	9649
2026-01-17 22:49:08.13	221.32	20.75	-54.1	-63.0	3.8	7.44e-01	0	36	104	0	80	9646
2026-01-17 22:49:09.14	221.23	20.56	-54.1	-63.0	3.8	7.45e-01	0	36	104	0	80	9610
2026-01-17 22:49:10.14	221.15	20.38	-54.1	-63.0	3.8	7.45e-01	0	36	104	0	80	9656
2026-01-17 22:49:11.15	221.06	20.20	-54.1	-63.0	3.8	7.44e-01	0	36	104	0	80	9619
2026-01-17 22:49:12.16	220.98	20.02	-54.1	-63.0	3.8	7.46e-01	0	36	104	0	80	9613
2026-01-17 22:49:13.17	220.90	19.85	-54.1	-62.9	3.8	7.46e-01	0	36	104	0	80	9582
2026-01-17 22:49:14.18	220.81	19.67	-54.1	-63.0	3.8	7.46e-01	0	36	104	0	80	9611
2026-01-17 22:49:15.18	220.73	19.50	-54.1	-62.9	3.8	7.45e-01	0	36	104	0	80	9563
2026-01-17 22:49:16.19	220.65	19.32	-54.1	-62.9	3.8	7.45e-01	0	36	104	0	80	9594
2026-01-17 22:49:17.20	220.58	19.15	-54.1	-62.9	3.8	7.44e-01	0	36	104	0	80	9602
2026-01-17 22:49:18.21	220.50	18.98	-54.1	-63.0	3.8	7.45e-01	0	36	104	0	80	9612
2026-01-17 22:49:19.22	220.42	18.81	-54.1	-62.9	3.8	7.43e-01	0	36	104	0	80	9570
2026-01-17 22:49:20.22	220.35	18.65	-54.0	-62.9	3.8	7.44e-01	0	36	104	0	80	9584
2026-01-17 22:49:21.23	220.27	18.48	-54.0	-62.9	3.8	7.44e-01	0	36	104	0	80	9538
2026-01-17 22:49:22.24	220.20	18.32	-54.1	-62.9	3.8	7.45e-01	0	36	104	0	80	9572
2026-01-17 22:49:23.25	220.13	18.15	-54.0	-62.9	3.8	7.45e-01	0	36	104	0	80	9559
2026-01-17 22:49:24.26	220.06	17.99	-54.0	-62.9	3.8	7.46e-01	0	36	104	0	80	9513
2026-01-17 22:49:25.26	219.99	17.83	-54.0	-62.9	3.8	7.45e-01	0	36	104	0	80	9506
2026-01-17 22:49:26.27	219.92	17.67	-54.0	-62.9	3.8	7.45e-01	0	36	104	0	80	9536
2026-01-17 22:49:27.28	219.85	17.52	-54.0	-62.9	3.8	7.45e-01	0	36	104	0	80	9519
2026-01-17 22:49:28.29	219.78	17.36	-54.0	-62.8	3.8	7.45e-01	0	36	104	0	80	9491
2026-01-17 22:49:29.29	219.71	17.21	-54.0	-62.9	3.8	7.45e-01	0	36	104	0	80	9515
2026-01-17 22:49:30.30	219.65	17.05	-54.0	-62.9	3.8	7.45e-01	0	36	104	0	80	9504
2026-01-17 22:49:31.31	219.58	16.90	-54.0	-62.9	3.8	7.45e-01	0	36	104	0	80	9507
2026-01-17 22:49:32.32	219.52	16.75	-54.0	-62.8	3.8	7.45e-01	0	36	104	0	80	9455
2026-01-17 22:49:33.33	219.45	16.60	-54.0	-62.8	3.8	7.43e-01	0	36	104	0	80	9461
2026-01-17 22:49:34.34	219.39	16.45	-54.0	-62.9	3.8	7.44e-01	0	36	104	0	80	9510
2026-01-17 22:49:35.34	219.33	16.30	-54.0	-62.8	3.8	7.45e-01	0	36	104	0	80	9464
2026-01-17 22:49:36.35	219.27	16.15	-54.0	-62.9	3.8	7.45e-01	0	36	104	0	79	10073
2026-01-17 22:49:37.36	219.21	16.01	-54.0	-62.8	3.8	7.47e-01	0	36	104	0	79	10055
2026-01-17 22:49:38.36	219.15	15.86	-54.0	-62.9	3.8	7.46e-01	0	36	104	0	79	10081
2026-01-17 22:49:39.37	219.09	15.72	-54.0	-62.8	3.8	7.45e-01	0	36	104	0	79	10058
2026-01-17 22:49:40.38	219.03	15.58	-54.0	-62.8	3.8	7.46e-01	0	36	104	0	79	10018
2026-01-17 22:49:41.39	218.97	15.43	-54.0	-62.9	3.8	7.46e-01	0	36	104	0	79	10077
2026-01-17 22:49:42.39	218.92	15.29	-54.0	-62.8	3.8	7.44e-01	0	36	104	0	79	10044
2026-01-17 22:49:43.40	218.86	15.15	-54.0	-62.8	3.8	7.44e-01	0	36	104	0	79	10033
2026-01-17 22:49:44.41	218.80	15.02	-54.0	-62.8	3.8	7.47e-01	0	36	104	0	79	10028
2026-01-17 22:49:45.42	218.75	14.88	-54.0	-62.8	3.8	7.45e-01	0	36	104	0	79	10043
2026-01-17 22:49:46.43	218.69	14.74	-54.0	-62.8	3.8	7.45e-01	0	36	104	0	79	10035
2026-01-17 22:49:47.43	218.64	14.61	-54.0	-62.8	3.8	7.46e-01	0	36	104	0	79	10018
2026-01-17 22:49:48.44	218.59	14.47	-54.0	-62.8	3.8	7.44e-01	0	36	104	0	79	10014
2026-01-17 22:49:49.45	218.53	14.34	-54.0	-62.8	3.8	7.46e-01	0	36	104	0	79	10001
2026-01-17 22:49:50.46	218.48	14.21	-54.0	-62.8	3.8	7.45e-01	0	36	104	0	79	10023
2026-01-17 22:49:51.46	218.43	14.07	-53.9	-62.8	3.8	7.44e-01	0	36	104	0	79	10001
2026-01-17 22:49:52.47	218.38	13.94	-53.9	-62.8	3.8	7.45e-01	0	36	104	0	79	9973
2026-01-17 22:49:53.48	218.33	13.81	-53.9	-62.8	3.8	7.46e-01	0	36	104	0	79	9977
2026-01-17 22:49:54.49	218.28	13.68	-53.9	-62.8	3.8	7.45e-01	0	36	104	0	79	9976
2026-01-17 22:49:55.50	218.23	13.56	-53.9	-62.7	3.8	7.46e-01	0	36	104	0	79	9943
2026-01-17 22:49:56.50	218.18	13.43	-53.9	-62.7	3.8	7.46e-01	0	36	104	0	79	9936
2026-01-17 22:49:57.51	218.13	13.30	-53.9	-62.7	3.8	7.45e-01	0	36	104	0	79	9940
2026-01-17 22:49:58.52	218.09	13.18	-53.9	-62.8	3.8	7.47e-01	0	36	104	0	79	9965
2026-01-17 22:49:59.53	218.04	13.05	-53.9	-62.7	3.8	7.46e-01	0	36	104	0	79	9902
2026-01-17 22:50:00.54	217.99	12.93	-53.9	-62.7	3.8	7.45e-01	0	36	104	0	79	9917
2026-01-17 22:50:01.55	217.95	12.80	-53.9	-62.8	3.8	7.44e-01	0	36	104	0	79	9958
2026-01-17 22:50:02.56	217.90	12.68	-53.9	-62.7	3.8	7.46e-01	0	36	104	0	79	9929
2026-01-17 22:50:03.56	217.86	12.56	-53.9	-62.7	3.8	7.46e-01	0	36	104	0	79	9880
2026-01-17 22:50:04.57	217.81	12.44	-53.8	-62.7	3.8	7.46e-01	0	36	104	0	79	9880
2026-01-17 22:50:05.58	217.77	12.32	-53.9	-62.7	3.8	7.45e-01	0	36	104	0	79	9910
2026-01-17 22:50:06.59	217.72	12.20	-53.9	-62.7	3.8	7.45e-01	0	36	104	0	79	9897
2026-01-17 22:50:07.60	217.68	12.08	-53.8	-62.7	3.8	7.45e-01	0	36	104	0	79	9857
2026-01-17 22:50:08.60	217.64	11.96	-53.8	-62.7	3.8	7.45e-01	0	36	104	0	79	9852
2026-01-17 22:50:09.61	217.60	11.85	-53.8	-62.7	3.8	7.44e-01	0	36	104	0	79	9867
2026-01-17 22:50:10.62	217.55	11.73	-53.8	-62.7	3.8	7.45e-01	0	36	104	0	79	9872
2026-01-17 22:50:11.62	217.51	11.62	-53.8	-62.6	3.8	7.46e-01	0	36	104	0	79	9829
2026-01-17 22:50:12.63	217.47	11.50	-53.8	-62.6	3.8	7.46e-01	0	36	104	0	79	9786
2026-01-17 22:50:13.64	217.43	11.39	-53.8	-62.7	3.8	7.45e-01	0	36	104	0	79	9865
2026-01-17 22:50:14.65	217.39	11.27	-53.8	-62.7	3.8	7.45e-01	0	36	104	0	79	9847
2026-01-17 22:50:15.66	217.35	11.16	-53.8	-62.6	3.8	7.45e-01	0	36	104	0	79	9785
2026-01-17 22:50:16.66	217.31	11.05	-53.7	-62.6	3.8	7.44e-01	0	36	104	0	79	9788
2026-01-17 22:50:17.67	217.27	10.94	-53.8	-62.6	3.8	7.43e-01	0	36	104	0	79	9797
2026-01-17 22:50:18.68	217.23	10.82	-53.8	-62.7	3.8	7.46e-01	0	36	104	0	79	9833
2026-01-17 22:50:19.69	217.20	10.71	-53.7	-62.6	3.8	7.45e-01	0	36	104	0	79	9744
2026-01-17 22:50:20.70	217.16	10.60	-53.7	-62.5	3.8	7.45e-01	0	36	104	0	79	9690
2026-01-17 22:50:21.71	217.12	10.50	-53.7	-62.6	3.8	7.44e-01	0	36	104	0	79	9734
2026-01-17 22:50:22.71	217.08	10.39	-53.7	-62.6	3.8	7.46e-01	0	36	104	0	79	9763
2026-01-17 22:50:23.72	217.05	10.28	-53.7	-62.5	3.8	7.44e-01	0	36	104	0	79	9693
2026-01-17 22:50:24.72	217.01	10.17	-53.7	-62.5	3.8	7.45e-01	0	36	104	0	79	9715
2026-01-17 22:50:25.73	216.97	10.07	-53.7	-62.6	3.8	7.45e-01	0	36	104	0	79	9727
2026-01-17 22:50:26.74	216.94	9.96	-53.7	-62.5	3.8	7.45e-01	0	36	104	0	79	9717
2026-01-17 22:50:27.74	216.90	9.86	-53.7	-62.5	3.8	7.46e-01	0	36	104	0	79	9703
2026-01-17 22:50:28.75	216.87	9.75	-53.6	-62.5	3.8	7.45e-01	0	36	104	0	79	9657
2026-01-17 22:50:29.76	216.83	9.65	-53.7	-62.5	3.8	7.47e-01	0	36	104	0	79	9682
2026-01-17 22:50:30.77	216.80	9.54	-53.7	-62.5	3.8	7.46e-01	0	36	104	0	79	9623
2026-01-17 22:50:31.77	216.77	9.44	-53.6	-62.4	3.8	7.44e-01	0	36	104	0	79	9590
2026-01-17 22:50:32.78	216.73	9.34	-53.6	-62.4	3.8	7.46e-01	0	36	104	0	79	9574
2026-01-17 22:50:33.79	216.70	9.24	-53.7	-62.5	3.8	7.44e-01	0	36	104	0	79	9679
2026-01-17 22:50:34.80	216.67	9.14	-53.6	-62.5	3.8	7.45e-01	0	36	104	0	79	9649
2026-01-17 22:50:35.80	216.63	9.04	-53.6	-62.4	3.8	7.46e-01	0	36	104	0	79	9584
2026-01-17 22:50:36.81	216.60	8.94	-53.6	-62.4	3.8	7.46e-01	0	36	104	0	79	9559
2026-01-17 22:50:37.82	216.57	8.84	-53.6	-62.5	3.8	7.46e-01	0	36	104	0	79	9611
2026-01-17 22:50:38.83	216.54	8.74	-53.6	-62.4	3.8	7.45e-01	0	36	104	0	79	9592
2026-01-17 22:50:39.84	216.51	8.64	-53.5	-62.4	3.8	7.44e-01	0	36	104	0	79	9526
2026-01-17 22:50:40.84	216.47	8.54	-53.5	-62.3	3.8	7.47e-01	0	36	104	0	79	9475
2026-01-17 22:50:41.85	216.44	8.44	-53.6	-62.5	3.8	7.45e-01	0	36	104	0	79	9615
2026-01-17 22:50:42.86	216.41	8.35	-53.5	-62.4	3.8	7.46e-01	0	36	104	0	79	9529
2026-01-17 22:50:43.86	216.38	8.25	-53.5	-62.3	3.8	7.46e-01	0	36	104	0	79	9424
2026-01-17 22:50:44.87	216.35	8.15	-53.4	-62.3	3.8	7.46e-01	0	36	104	0	78	10004
2026-01-17 22:50:45.88	216.32	8.06	-53.5	-62.4	3.8	7.45e-01	0	36	104	0	78	10067
2026-01-17 22:50:46.89	216.29	7.96	-53.5	-62.4	3.8	7.46e-01	0	36	104	0	78	10061
2026-01-17 22:50:47.89	216.26	7.87	-53.4	-62.3	3.8	7.47e-01	0	36	104	0	78	9959
2026-01-17 22:50:48.90	216.23	7.77	-53.4	-62.2	3.8	7.44e-01	0	36	104	0	78	9908
2026-01-17 22:50:49.91	216.21	7.68	-53.5	-62.3	3.8	7.47e-01	0	36	104	0	78	10035
2026-01-17 22:50:50.92	216.18	7.59	-53.4	-62.3	3.8	7.45e-01	0	36	104	0	78	9968
2026-01-17 22:50:51.93	216.15	7.49	-53.4	-62.2	3.8	7.47e-01	0	36	104	0	78	9924
2026-01-17 22:50:52.93	216.12	7.40	-53.3	-62.2	3.8	7.45e-01	0	36	104	0	78	9868
2026-01-17 22:50:53.95	216.09	7.31	-53.4	-62.3	3.8	7.45e-01	0	36	104	0	78	10023
2026-01-17 22:50:54.95	216.07	7.22	-53.4	-62.3	3.8	7.46e-01	0	36	104	0	78	9946
2026-01-17 22:50:55.96	216.04	7.13	-53.3	-62.2	3.8	7.46e-01	0	36	104	0	78	9869
2026-01-17 22:50:56.97	216.01	7.04	-53.3	-62.1	3.8	7.43e-01	0	36	104	0	78	9790
2026-01-17 22:50:57.98	215.99	6.94	-53.4	-62.2	3.8	7.46e-01	0	36	104	0	78	9924
2026-01-17 22:50:58.98	215.96	6.86	-53.3	-62.2	3.8	7.46e-01	0	36	104	0	78	9916
2026-01-17 22:50:59.99	215.93	6.77	-53.3	-62.1	3.8	7.45e-01	0	36	104	0	78	9807
2026-01-17 22:51:01.00	215.91	6.68	-53.2	-62.1	3.8	7.45e-01	0	36	104	0	78	9730
2026-01-17 22:51:02.01	215.88	6.59	-53.4	-62.2	3.8	7.45e-01	0	36	104	0	78	9915
2026-01-17 22:51:03.02	215.85	6.50	-53.3	-62.1	3.8	7.46e-01	0	36	104	0	78	9818
2026-01-17 22:51:04.02	215.83	6.41	-53.2	-62.1	3.8	7.45e-01	0	36	104	0	78	9734
2026-01-17 22:51:05.03	215.80	6.33	-53.2	-62.0	3.8	7.45e-01	0	36	104	0	78	9708
2026-01-17 22:51:06.04	215.78	6.24	-53.3	-62.2	3.8	7.44e-01	0	36	104	0	78	9861
2026-01-17 22:51:07.04	215.75	6.15	-53.3	-62.1	3.8	7.46e-01	0	36	104	0	78	9757
2026-01-17 22:51:08.05	215.73	6.07	-53.2	-62.0	3.8	7.45e-01	0	36	104	0	78	9674
2026-01-17 22:51:09.06	215.71	5.98	-53.1	-62.0	3.8	7.45e-01	0	36	104	0	78	9618
2026-01-17 22:51:10.07	215.68	5.89	-53.3	-62.1	3.8	7.47e-01	0	36	104	0	78	9755
2026-01-17 22:51:11.08	215.66	5.81	-53.2	-62.0	3.8	7.46e-01	0	36	104	0	78	9707
2026-01-17 22:51:12.09	215.63	5.72	-53.1	-61.9	3.8	7.45e-01	0	36	104	0	78	9600
2026-01-17 22:51:13.10	215.61	5.64	-53.1	-61.9	3.8	7.44e-01	0	36	104	0	78	9570
2026-01-17 22:51:14.11	215.59	5.56	-53.2	-62.1	3.8	7.45e-01	0	36	104	0	78	9737
2026-01-17 22:51:15.11	215.56	5.47	-53.1	-62.0	3.8	7.44e-01	0	36	104	0	78	9623
2026-01-17 22:51:16.12	215.54	5.39	-53.0	-61.9	3.8	7.45e-01	0	36	104	0	78	9558
2026-01-17 22:51:17.13	215.52	5.31	-53.0	-61.9	3.8	7.45e-01	0	36	104	0	78	9520
2026-01-17 22:51:18.14	215.50	5.22	-53.2	-62.0	3.8	7.45e-01	0	36	104	0	78	9659
2026-01-17 22:51:19.14	215.47	5.14	-53.1	-61.9	3.8	7.45e-01	0	36	104	0	78	9578
2026-01-17 22:51:20.15	215.45	5.06	-53.0	-61.9	3.8	7.43e-01	0	36	104	0	78	9521
2026-01-17 22:51:21.16	215.43	4.98	-53.3	-62.2	3.8	7.46e-01	0	36	104	0	78	9867
2026-01-17 22:51:22.17	215.41	4.90	-53.8	-62.6	3.8	7.44e-01	0	36	104	0	78	10402
2026-01-17 22:51:23.18	215.39	4.81	-54.0	-62.8	3.8	7.44e-01	0	36	104	0	78	10642
2026-01-17 22:51:24.19	215.36	4.73	-54.2	-63.0	3.8	7.45e-01	0	36	104	0	78	10875
2026-01-17 22:51:25.19	215.34	4.65	-54.3	-63.1	3.8	7.48e-01	0	36	104	0	79	10406
2026-01-17 22:51:26.20	215.32	4.57	-54.4	-63.2	3.8	7.45e-01	0	36	104	0	79	10473
2026-01-17 22:51:27.21	215.30	4.49	-54.4	-63.3	3.8	7.45e-01	0	36	104	0	79	10557
2026-01-17 22:51:28.22	215.28	4.41	-54.5	-63.3	3.8	7.45e-01	0	36	104	0	79	10639
2026-01-17 22:51:29.22	215.26	4.34	-54.6	-63.4	3.8	7.43e-01	0	36	104	0	79	10683
2026-01-17 22:51:30.23	215.24	4.26	-54.6	-63.5	3.8	7.46e-01	0	36	104	0	79	10789
2026-01-17 22:51:31.24	215.22	4.18	-54.6	-63.5	3.8	7.45e-01	0	36	104	0	79	10807
2026-01-17 22:51:32.25	215.20	4.10	-54.7	-63.5	3.8	7.45e-01	0	36	104	0	79	10889
2026-01-17 22:51:33.26	215.18	4.02	-54.7	-63.5	3.8	7.46e-01	0	36	104	0	79	10891
2026-01-17 22:51:34.26	215.16	3.95	-54.7	-63.6	3.8	7.46e-01	0	36	104	0	79	10944
2026-01-17 22:51:35.27	215.14	3.87	-54.7	-63.5	3.8	7.47e-01	0	36	104	0	80	10254
2026-01-17 22:51:36.28	215.12	3.79	-54.7	-63.6	3.8	7.44e-01	0	36	104	0	80	10303
2026-01-17 22:51:37.28	215.10	3.71	-54.7	-63.6	3.8	7.45e-01	0	36	104	0	80	10327
2026-01-17 22:51:38.29	215.08	3.64	-54.7	-63.6	3.8	7.46e-01	0	36	104	0	80	10332
2026-01-17 22:51:39.30	215.06	3.56	-54.8	-63.6	3.8	7.46e-01	0	36	104	0	80	10371
2026-01-17 22:51:40.31	215.04	3.49	-54.8	-63.6	3.8	7.45e-01	0	36	104	0	80	10368
2026-01-17 22:51:41.32	215.02	3.41	-54.8	-63.6	3.8	7.46e-01	0	36	104	0	80	10381
2026-01-17 22:51:42.32	215.01	3.34	-54.8	-63.7	3.8	7.45e-01	0	36	104	0	80	10443
2026-01-17 22:51:43.33	214.99	3.26	-54.8	-63.7	3.8	7.44e-01	0	36	104	0	80	10418
2026-01-17 22:51:44.34	214.97	3.19	-54.8	-63.6	3.8	7.46e-01	0	36	104	0	80	10377
2026-01-17 22:51:45.35	214.95	3.11	-54.8	-63.6	3.8	7.45e-01	0	36	104	0	80	10350
2026-01-17 22:51:46.36	214.93	3.04	-54.7	-63.6	3.8	7.45e-01	0	36	104	0	80	10320
2026-01-17 22:51:47.37	214.91	2.96	-54.7	-63.6	3.8	7.46e-01	0	36	104	0	80	10344
2026-01-17 22:51:48.37	214.90	2.89	-54.7	-63.6	3.8	7.46e-01	0	36	104	0	80	10321
2026-01-17 22:51:49.38	214.88	2.82	-54.7	-63.6	3.8	7.44e-01	0	36	104	0	80	10347
2026-01-17 22:51:50.39	214.86	2.74	-54.7	-63.6	3.8	7.46e-01	0	36	104	0	80	10319
2026-01-17 22:51:51.40	214.84	2.67	-54.7	-63.6	3.8	7.46e-01	0	36	104	0	80	10340
2026-01-17 22:51:52.40	214.83	2.60	-54.7	-63.6	3.8	7.46e-01	0	36	104	0	80	10311
2026-01-17 22:51:53.41	214.81	2.52	-54.7	-63.5	3.8	7.46e-01	0	36	104	0	80	10293
2026-01-17 22:51:54.42	214.79	2.45	-54.7	-63.6	3.8	7.45e-01	0	36	104	0	80	10318
2026-01-17 22:51:55.43	214.78	2.38	-54.7	-63.6	3.8	7.45e-01	0	36	104	0	80	10355
2026-01-17 22:51:56.44	214.76	2.31	-54.7	-63.6	3.8	7.45e-01	0	36	104	0	80	10305
2026-01-17 22:51:57.45	214.74	2.24	-54.7	-63.6	3.8	7.45e-01	0	36	104	0	80	10301
2026-01-17 22:51:58.46	214.73	2.17	-54.7	-63.5	3.8	7.46e-01	0	36	104	0	80	10292
2026-01-17 22:51:59.47	214.71	2.09	-54.7	-63.6	3.8	7.45e-01	0	36	104	0	80	10329
2026-01-17 22:52:00.48	214.69	2.02	-54.7	-63.6	3.8	7.45e-01	0	36	104	0	80	10314
2026-01-17 22:52:01.48	214.68	1.95	-54.7	-63.5	3.8	7.45e-01	0	36	104	0	80	10292
2026-01-17 22:52:02.49	214.66	1.88	-54.7	-63.6	3.8	7.46e-01	0	36	104	0	80	10300

#Closed at: 2026-01-17 22:52:03
#Recorded file [0 MB]: D:/lorett/data/31041_260118_014134.dat