passes_logs/2026/01/17/R3.2S_Murmansk/R3.2S_Murmansk__20260117_232143_AQUA_rec.log

#Pass ID: 20260117_232143_AQUA
#Satellite: AQUA
#Configuration: AQUA
#almurnet v.1.7.20251203
#Start time: 2026-01-17 23:21:42

#Version: 2.2.20231116
#Station: R3.2S_Murmansk
#Location: 33.079688 lon 68.888172 lat
#TLE: 1 27424U 02022A   26017.62394888  .00000781  00000+0  16630-3 0  9993
#TLE: 2 27424  98.4086 344.0954 0002010  75.0132 339.4723 14.61825944261279

#Time	Az	El	Level	Level2	SNR	BER	BlckErr	Temp	State	Recorded	gain1	gain2
2026-01-17 23:21:42.59	21.94	1.98	-53.1	-70.5	3.8	7.43e-01	0	33	0	0	78	25602
2026-01-17 23:21:43.60	22.04	2.02	-53.1	-70.3	3.8	7.49e-01	0	33	104	0	76	28084
2026-01-17 23:21:44.60	22.15	2.07	-53.1	-70.5	3.8	7.45e-01	0	33	104	0	76	28708
2026-01-17 23:21:45.61	22.25	2.12	-53.1	-70.6	3.8	7.46e-01	0	33	104	0	76	29026
2026-01-17 23:21:46.62	22.36	2.17	-53.1	-70.6	3.8	7.45e-01	0	33	104	0	76	29162
2026-01-17 23:21:47.63	22.47	2.22	-53.1	-70.7	3.8	7.43e-01	0	33	104	0	76	29531
2026-01-17 23:21:48.64	22.58	2.27	-53.1	-70.8	3.8	7.46e-01	0	33	104	0	76	29883
2026-01-17 23:21:49.65	22.68	2.31	-53.1	-70.8	3.8	7.45e-01	0	33	104	0	76	29874
2026-01-17 23:21:50.65	22.79	2.36	-53.1	-70.8	3.8	7.45e-01	0	34	104	0	76	29785
2026-01-17 23:21:51.66	22.90	2.41	-53.1	-70.8	3.8	7.43e-01	0	33	104	0	76	29781
2026-01-17 23:21:52.67	23.01	2.46	-53.1	-70.8	3.8	7.45e-01	0	34	104	0	76	29990
2026-01-17 23:21:53.68	23.12	2.51	-53.1	-70.9	3.8	7.45e-01	0	33	104	0	76	30058
2026-01-17 23:21:54.69	23.23	2.56	-53.1	-70.9	3.8	7.45e-01	0	34	104	0	76	30053
2026-01-17 23:21:55.69	23.34	2.60	-53.1	-70.8	3.8	7.46e-01	0	34	104	0	76	30020
2026-01-17 23:21:56.70	23.45	2.65	-53.1	-70.9	3.8	7.44e-01	0	34	104	0	76	30052
2026-01-17 23:21:57.71	23.56	2.70	-53.1	-70.8	3.8	7.45e-01	0	34	104	0	76	30014
2026-01-17 23:21:58.72	23.67	2.75	-53.1	-70.8	3.8	7.45e-01	0	34	104	0	76	30016
2026-01-17 23:21:59.73	23.78	2.80	-53.1	-70.8	3.8	7.46e-01	0	34	104	0	76	29996
2026-01-17 23:22:00.73	23.90	2.85	-53.1	-70.9	3.8	7.43e-01	0	34	104	0	76	30138
2026-01-17 23:22:01.74	24.01	2.90	-53.1	-70.8	3.8	7.46e-01	0	34	104	0	76	29985
2026-01-17 23:22:02.75	24.12	2.94	-53.1	-70.7	3.8	7.44e-01	0	34	104	0	76	29663
2026-01-17 23:22:03.75	24.23	2.99	-53.1	-70.6	3.8	7.45e-01	0	34	104	0	76	29124
2026-01-17 23:22:04.76	24.35	3.04	-53.1	-70.5	3.8	7.42e-01	0	34	104	0	76	28933
2026-01-17 23:22:05.77	24.46	3.09	-53.1	-70.3	3.8	7.47e-01	0	34	104	0	76	28164
2026-01-17 23:22:06.78	24.58	3.14	-53.1	-70.3	3.8	7.49e-01	0	34	104	0	76	28305
2026-01-17 23:22:07.79	24.69	3.19	-53.1	-70.6	3.8	7.41e-01	0	34	104	0	76	29256
2026-01-17 23:22:08.80	24.81	3.24	-53.1	-70.7	3.8	7.46e-01	0	34	104	0	76	29441
2026-01-17 23:22:09.80	24.92	3.28	-53.1	-70.7	3.8	7.44e-01	0	34	104	0	76	29535
2026-01-17 23:22:10.81	25.04	3.33	-53.1	-70.8	3.8	7.45e-01	0	34	104	0	76	29756
2026-01-17 23:22:11.82	25.16	3.38	-53.1	-70.8	3.8	7.46e-01	0	34	104	0	76	29827
2026-01-17 23:22:12.83	25.27	3.43	-53.1	-70.7	3.8	7.45e-01	0	34	104	0	76	29483
2026-01-17 23:22:13.83	25.39	3.48	-53.1	-70.7	3.8	7.45e-01	0	34	104	0	76	29490
2026-01-17 23:22:14.84	25.51	3.53	-53.1	-70.8	3.8	7.46e-01	0	34	104	0	76	29696
2026-01-17 23:22:15.85	25.63	3.58	-53.1	-70.8	3.8	7.44e-01	0	34	104	0	76	29931
2026-01-17 23:22:16.86	25.74	3.62	-53.1	-70.7	3.8	7.44e-01	0	34	104	0	76	29673
2026-01-17 23:22:17.87	25.86	3.67	-53.1	-70.5	3.8	7.48e-01	0	34	104	0	76	28800
2026-01-17 23:22:18.88	25.98	3.72	-53.1	-70.5	3.8	7.45e-01	0	34	104	0	76	28893
2026-01-17 23:22:19.89	26.10	3.77	-53.1	-70.7	3.8	7.49e-01	0	34	104	0	76	29492
2026-01-17 23:22:20.89	26.22	3.82	-53.1	-70.7	3.8	7.45e-01	0	34	104	0	76	29357
2026-01-17 23:22:21.90	26.34	3.87	-53.1	-70.9	3.8	7.46e-01	0	34	104	0	76	30058
2026-01-17 23:22:22.91	26.46	3.92	-53.1	-70.6	3.8	7.47e-01	0	34	104	0	76	29081
2026-01-17 23:22:23.92	26.59	3.97	-53.1	-70.6	3.8	7.43e-01	0	34	104	0	76	29181
2026-01-17 23:22:24.93	26.71	4.01	-53.1	-70.8	3.8	7.44e-01	0	34	104	0	76	29909
2026-01-17 23:22:25.94	26.83	4.06	-53.1	-70.8	3.8	7.44e-01	0	34	104	0	76	29809
2026-01-17 23:22:26.94	26.95	4.11	-53.1	-70.6	3.8	7.43e-01	0	34	104	0	76	29032
2026-01-17 23:22:27.95	27.08	4.16	-53.1	-70.7	3.8	7.44e-01	0	34	104	0	76	29671
2026-01-17 23:22:28.96	27.20	4.21	-53.1	-70.5	3.8	7.45e-01	0	34	104	0	76	28798
2026-01-17 23:22:29.97	27.32	4.26	-53.1	-70.7	3.8	7.44e-01	0	34	104	0	76	29583
2026-01-17 23:22:30.98	27.45	4.31	-53.1	-70.6	3.8	7.50e-01	0	34	104	0	76	29242
2026-01-17 23:22:31.98	27.57	4.35	-53.1	-70.7	3.8	7.47e-01	0	34	104	0	76	29391
2026-01-17 23:22:32.99	27.70	4.40	-53.1	-70.6	3.8	7.44e-01	0	34	104	0	76	29247
2026-01-17 23:22:34.00	27.82	4.45	-53.1	-70.0	3.8	7.43e-01	0	34	104	0	76	27324
2026-01-17 23:22:35.01	27.95	4.50	-53.0	-69.8	3.8	7.45e-01	0	35	104	0	76	26710
2026-01-17 23:22:36.02	28.08	4.55	-53.0	-69.1	3.8	7.46e-01	0	34	104	0	76	24466
2026-01-17 23:22:37.02	28.20	4.60	-53.0	-68.0	3.8	7.41e-01	0	34	104	0	76	21725
2026-01-17 23:22:38.03	28.33	4.65	-52.9	-67.3	3.8	7.41e-01	0	35	104	0	76	19928
2026-01-17 23:22:39.04	28.46	4.70	-53.0	-68.3	3.8	7.42e-01	0	35	104	0	76	22513
2026-01-17 23:22:40.05	28.59	4.74	-53.0	-67.5	3.8	7.40e-01	0	34	104	0	76	20443
2026-01-17 23:22:41.06	28.72	4.79	-52.9	-66.9	3.9	7.38e-01	0	34	104	0	76	19087
2026-01-17 23:22:42.06	28.85	4.84	-52.8	-64.1	5.8	6.87e-01	182	35	0	0	76	13745
2026-01-17 23:22:43.07	28.98	4.89	-52.7	-63.1	6.5	6.70e-01	184	35	0	1572864	76	12328
2026-01-17 23:22:44.08	29.11	4.94	-52.5	-61.5	8.0	6.45e-01	166	35	0	3670016	76	10281
2026-01-17 23:22:45.09	29.24	4.99	-52.3	-60.5	9.1	6.29e-01	0	35	0	5767168	76	9085
2026-01-17 23:22:46.10	29.37	5.04	-52.4	-60.8	8.9	6.31e-01	1	35	0	7340032	76	9391
2026-01-17 23:22:47.10	29.50	5.08	-52.5	-59.9	10.0	6.20e-01	0	35	0	9437184	76	8548
2026-01-17 23:22:48.11	29.63	5.13	-52.8	-63.3	6.3	6.74e-01	182	35	0	11010048	76	12564
2026-01-17 23:22:49.12	29.77	5.18	-52.6	-62.5	7.2	6.60e-01	184	35	0	13107200	76	11444
2026-01-17 23:22:50.13	29.90	5.23	-52.2	-68.9	3.8	7.45e-01	0	35	104	13107200	76	23871
2026-01-17 23:22:51.13	30.03	5.28	-50.8	-54.7	15.6	6.04e-01	0	35	0	13631488	73	5538
2026-01-17 23:22:52.14	30.16	5.33	-50.8	-54.7	15.7	6.02e-01	0	35	0	15728640	73	5551
2026-01-17 23:22:53.15	30.30	5.37	-50.7	-54.6	15.7	6.05e-01	0	34	0	17301504	73	5486
2026-01-17 23:22:54.16	30.43	5.42	-50.8	-54.6	15.8	6.02e-01	0	35	0	19398656	73	5510
2026-01-17 23:22:55.17	30.57	5.47	-50.4	-54.0	16.5	6.02e-01	0	35	0	20971520	72	5415
2026-01-17 23:22:56.18	30.71	5.52	-50.7	-54.4	16.0	6.03e-01	0	35	0	23068672	72	5702
2026-01-17 23:22:57.18	30.84	5.57	-50.5	-54.0	16.4	6.03e-01	0	35	0	25165824	72	5458
2026-01-17 23:22:58.19	30.98	5.62	-50.4	-53.8	16.7	6.05e-01	0	35	0	26738688	72	5317
2026-01-17 23:22:59.20	31.12	5.66	-49.9	-53.0	17.6	6.04e-01	0	35	0	28835840	71	5118
2026-01-17 23:23:00.21	31.25	5.71	-49.7	-52.6	18.1	6.00e-01	0	35	0	30932992	71	4875
2026-01-17 23:23:01.22	31.39	5.76	-49.7	-52.5	18.1	6.02e-01	0	35	0	32505856	71	4836
2026-01-17 23:23:02.22	31.53	5.81	-48.8	-51.2	19.5	6.04e-01	0	35	0	34603008	69	4678
2026-01-17 23:23:03.23	31.67	5.86	-48.6	-50.9	19.8	6.02e-01	0	35	0	36175872	69	4503
2026-01-17 23:23:04.24	31.81	5.90	-48.1	-50.1	20.5	6.04e-01	0	35	0	38273024	68	4370
2026-01-17 23:23:05.24	31.95	5.95	-48.1	-50.2	20.7	6.04e-01	0	35	0	40370176	67	4658
2026-01-17 23:23:06.25	32.09	6.00	-48.0	-50.0	20.8	6.02e-01	0	35	0	41943040	67	4578
2026-01-17 23:23:07.26	32.23	6.05	-48.3	-50.4	20.5	6.04e-01	0	35	0	44040192	67	4766
2026-01-17 23:23:08.27	32.37	6.10	-47.9	-49.8	21.0	6.04e-01	0	35	0	45613056	67	4480
2026-01-17 23:23:09.28	32.51	6.14	-47.9	-49.8	21.0	6.02e-01	0	35	0	47710208	67	4485
2026-01-17 23:23:10.28	32.66	6.19	-47.8	-49.8	21.0	6.03e-01	0	35	0	49283072	67	4451
2026-01-17 23:23:11.29	32.80	6.24	-47.4	-49.2	21.7	6.03e-01	0	35	0	51380224	66	4426
2026-01-17 23:23:12.30	32.94	6.29	-47.5	-49.3	21.5	6.05e-01	0	35	0	53477376	66	4490
2026-01-17 23:23:13.31	33.09	6.33	-47.6	-49.4	21.4	6.03e-01	0	35	0	55050240	66	4533
2026-01-17 23:23:14.31	33.23	6.38	-47.7	-49.6	21.3	6.06e-01	0	35	0	57147392	66	4608
2026-01-17 23:23:15.32	33.38	6.43	-47.8	-49.7	21.2	6.04e-01	0	35	0	59244544	66	4664
2026-01-17 23:23:16.33	33.52	6.48	-47.5	-49.3	21.6	6.02e-01	0	35	0	60817408	66	4470
2026-01-17 23:23:17.34	33.67	6.53	-47.1	-48.8	22.0	6.05e-01	0	35	0	62914560	66	4238
2026-01-17 23:23:18.35	33.82	6.57	-47.3	-49.1	21.8	6.02e-01	0	35	0	64487424	66	4378
2026-01-17 23:23:19.36	33.96	6.62	-47.1	-48.8	22.1	6.02e-01	0	35	0	66584576	66	4206
2026-01-17 23:23:20.36	34.11	6.67	-47.2	-48.9	22.0	6.04e-01	0	35	0	68681728	66	4280
2026-01-17 23:23:21.37	34.26	6.71	-47.4	-49.2	21.7	6.03e-01	0	35	0	70254592	66	4409
2026-01-17 23:23:22.38	34.41	6.76	-47.3	-49.0	21.9	6.03e-01	0	35	0	72351744	66	4317
2026-01-17 23:23:23.39	34.56	6.81	-47.2	-48.9	22.0	6.03e-01	0	35	0	74448896	66	4270
2026-01-17 23:23:24.39	34.70	6.86	-47.1	-48.8	22.1	6.01e-01	0	35	0	76021760	66	4242
2026-01-17 23:23:25.40	34.85	6.90	-47.2	-48.9	22.1	6.05e-01	0	35	0	78118912	66	4251
2026-01-17 23:23:26.41	35.01	6.95	-47.0	-48.7	22.2	6.05e-01	0	35	0	79691776	66	4177
2026-01-17 23:23:27.42	35.16	7.00	-47.1	-48.9	22.1	6.03e-01	0	35	0	81788928	66	4249
2026-01-17 23:23:28.43	35.31	7.04	-47.1	-48.8	22.1	6.05e-01	0	35	0	83361792	66	4238
2026-01-17 23:23:29.44	35.46	7.09	-47.1	-48.8	22.2	6.04e-01	0	35	0	85458944	66	4200
2026-01-17 23:23:30.44	35.61	7.14	-47.2	-48.9	22.2	6.05e-01	0	35	0	87556096	66	4265
2026-01-17 23:23:31.45	35.77	7.18	-47.2	-48.9	22.0	6.01e-01	0	35	0	89128960	66	4288
2026-01-17 23:23:32.46	35.92	7.23	-47.2	-49.0	22.0	6.04e-01	0	35	0	91226112	66	4306
2026-01-17 23:23:33.47	36.07	7.28	-47.1	-48.9	22.2	6.04e-01	0	35	0	92798976	66	4244
2026-01-17 23:23:34.48	36.23	7.32	-47.3	-49.0	22.0	6.03e-01	0	35	0	94896128	66	4318
2026-01-17 23:23:35.48	36.38	7.37	-47.0	-48.7	22.3	6.00e-01	0	35	0	96993280	66	4146
2026-01-17 23:23:36.49	36.54	7.42	-46.9	-48.5	22.5	6.01e-01	0	35	0	98566144	65	4333
2026-01-17 23:23:37.50	36.70	7.46	-46.8	-48.4	22.6	6.02e-01	0	35	0	100663296	65	4278
2026-01-17 23:23:38.50	36.85	7.51	-46.9	-48.6	22.4	6.05e-01	0	35	0	102760448	65	4369
2026-01-17 23:23:39.51	37.01	7.56	-46.8	-48.4	22.5	6.02e-01	0	35	0	104333312	65	4276
2026-01-17 23:23:40.52	37.17	7.60	-47.1	-48.9	22.2	6.02e-01	0	35	0	106430464	65	4497
2026-01-17 23:23:41.53	37.33	7.65	-47.0	-48.7	22.3	6.04e-01	0	35	0	108003328	65	4437
2026-01-17 23:23:42.54	37.49	7.69	-46.7	-48.3	22.7	6.02e-01	0	35	0	110100480	65	4234
2026-01-17 23:23:43.54	37.64	7.74	-46.8	-48.4	22.7	6.03e-01	0	35	0	111673344	65	4272
2026-01-17 23:23:44.55	37.80	7.79	-47.0	-48.7	22.4	6.04e-01	0	35	0	113770496	65	4422
2026-01-17 23:23:45.56	37.96	7.83	-46.9	-48.5	22.6	6.02e-01	0	35	0	115867648	65	4316
2026-01-17 23:23:46.57	38.13	7.88	-46.9	-48.6	22.5	6.04e-01	0	35	0	117440512	65	4351
2026-01-17 23:23:47.58	38.29	7.92	-46.9	-48.5	22.5	6.05e-01	0	35	0	119537664	65	4319
2026-01-17 23:23:48.58	38.45	7.97	-46.9	-48.5	22.6	6.03e-01	0	35	0	121634816	65	4311
2026-01-17 23:23:49.59	38.61	8.01	-46.8	-48.4	22.6	6.04e-01	0	35	0	123207680	65	4286
2026-01-17 23:23:50.60	38.77	8.06	-46.6	-48.2	22.8	6.04e-01	0	35	0	125304832	65	4181
2026-01-17 23:23:51.61	38.94	8.10	-46.8	-48.4	22.7	6.01e-01	0	35	0	126877696	65	4250
2026-01-17 23:23:52.62	39.10	8.15	-46.7	-48.3	22.8	6.03e-01	0	35	0	128974848	65	4207
2026-01-17 23:23:53.62	39.27	8.19	-46.8	-48.5	22.6	6.03e-01	0	35	0	131072000	65	4301
2026-01-17 23:23:54.63	39.43	8.24	-46.7	-48.3	22.8	6.02e-01	0	35	0	132644864	65	4200
2026-01-17 23:23:55.64	39.60	8.28	-46.6	-48.1	22.9	6.03e-01	0	35	0	134742016	65	4144
2026-01-17 23:23:56.65	39.76	8.33	-46.7	-48.2	22.9	6.04e-01	0	35	0	136314880	65	4191
2026-01-17 23:23:57.65	39.93	8.37	-46.5	-48.1	23.0	6.02e-01	0	35	0	138412032	65	4116
2026-01-17 23:23:58.66	40.10	8.42	-46.7	-48.3	22.8	6.02e-01	0	35	0	139984896	65	4212
2026-01-17 23:23:59.66	40.26	8.46	-46.8	-48.4	22.7	6.04e-01	0	35	0	142082048	65	4257
2026-01-17 23:24:00.67	40.43	8.50	-46.7	-48.3	22.8	6.04e-01	0	35	0	144179200	65	4196
2026-01-17 23:24:01.68	40.60	8.55	-46.5	-48.1	23.0	6.04e-01	0	35	0	145752064	65	4119
2026-01-17 23:24:02.69	40.77	8.59	-46.6	-48.2	23.0	6.04e-01	0	35	0	147849216	65	4146
2026-01-17 23:24:03.69	40.94	8.64	-46.3	-47.9	23.2	6.04e-01	0	35	0	149946368	64	4243
2026-01-17 23:24:04.70	41.11	8.68	-46.5	-48.0	23.0	6.03e-01	0	35	0	151519232	64	4335
2026-01-17 23:24:05.71	41.28	8.72	-46.5	-48.1	23.0	6.03e-01	0	35	0	153616384	64	4363
2026-01-17 23:24:06.72	41.46	8.77	-46.7	-48.2	22.9	6.01e-01	0	35	0	155189248	64	4435
2026-01-17 23:24:07.73	41.63	8.81	-46.7	-48.2	22.9	6.02e-01	0	35	0	157286400	64	4434
2026-01-17 23:24:08.74	41.80	8.85	-46.7	-48.3	22.9	6.01e-01	0	35	0	159383552	64	4452
2026-01-17 23:24:09.74	41.97	8.90	-46.5	-48.1	23.0	6.03e-01	0	35	0	160956416	64	4346
2026-01-17 23:24:10.75	42.15	8.94	-46.6	-48.2	22.9	6.06e-01	0	35	0	163053568	64	4415
2026-01-17 23:24:11.76	42.32	8.98	-46.5	-48.1	23.0	6.01e-01	0	35	0	164626432	64	4362
2026-01-17 23:24:12.77	42.50	9.02	-46.6	-48.1	23.0	6.04e-01	0	35	0	166723584	64	4382
2026-01-17 23:24:13.77	42.67	9.07	-46.7	-48.2	22.8	6.04e-01	0	35	0	168296448	64	4434
2026-01-17 23:24:14.78	42.85	9.11	-46.7	-48.3	22.8	6.03e-01	0	35	0	170393600	64	4454
2026-01-17 23:24:15.79	43.03	9.15	-46.5	-48.1	23.0	6.04e-01	0	35	0	172490752	64	4350
2026-01-17 23:24:16.80	43.20	9.19	-46.5	-48.0	23.1	6.04e-01	0	35	0	174587904	64	4322
2026-01-17 23:24:17.80	43.38	9.23	-46.5	-48.0	23.1	6.05e-01	0	35	0	176160768	64	4339
2026-01-17 23:24:18.81	43.56	9.28	-46.4	-47.9	23.2	6.04e-01	0	35	0	178257920	64	4275
2026-01-17 23:24:19.82	43.74	9.32	-46.5	-48.0	23.1	6.02e-01	0	35	0	179830784	64	4333
2026-01-17 23:24:20.83	43.92	9.36	-46.5	-48.0	23.1	6.03e-01	0	35	0	181927936	64	4329
2026-01-17 23:24:21.84	44.10	9.40	-46.5	-48.0	23.1	6.03e-01	0	35	0	183500800	64	4309
2026-01-17 23:24:22.84	44.28	9.44	-46.5	-48.0	23.2	6.02e-01	0	35	0	185597952	64	4304
2026-01-17 23:24:23.85	44.46	9.48	-46.4	-47.9	23.2	6.05e-01	0	35	0	187695104	64	4280
2026-01-17 23:24:24.86	44.64	9.52	-46.3	-47.8	23.3	6.02e-01	0	35	0	189267968	64	4234
2026-01-17 23:24:25.86	44.82	9.56	-46.4	-47.9	23.1	6.03e-01	0	35	0	191365120	64	4290
2026-01-17 23:24:26.87	45.00	9.61	-46.4	-47.9	23.2	6.00e-01	0	35	0	192937984	64	4284
2026-01-17 23:24:27.88	45.19	9.65	-46.4	-48.0	23.2	6.04e-01	0	35	0	195035136	64	4298
2026-01-17 23:24:28.89	45.37	9.69	-46.5	-48.0	23.2	6.01e-01	0	35	0	197132288	64	4298
2026-01-17 23:24:29.90	45.55	9.73	-46.3	-47.8	23.4	6.05e-01	0	35	0	198705152	64	4214
2026-01-17 23:24:30.90	45.74	9.77	-46.2	-47.6	23.5	6.04e-01	0	35	0	200802304	64	4127
2026-01-17 23:24:31.91	45.92	9.81	-46.1	-47.5	23.6	6.03e-01	0	35	0	202899456	64	4094
2026-01-17 23:24:32.92	46.11	9.85	-46.2	-47.7	23.5	6.01e-01	0	35	0	204472320	64	4160
2026-01-17 23:24:33.93	46.29	9.88	-46.4	-47.9	23.3	6.02e-01	0	35	0	206569472	64	4270
2026-01-17 23:24:34.94	46.48	9.92	-46.4	-47.9	23.3	6.05e-01	0	35	0	208142336	64	4264
2026-01-17 23:24:35.94	46.67	9.96	-46.4	-47.9	23.3	6.02e-01	0	35	0	210239488	64	4268
2026-01-17 23:24:36.95	46.86	10.00	-46.4	-47.8	23.4	6.04e-01	0	35	0	211812352	64	4237
2026-01-17 23:24:37.96	47.04	10.04	-46.3	-47.8	23.3	6.01e-01	0	35	0	213909504	64	4202
2026-01-17 23:24:38.97	47.23	10.08	-46.2	-47.7	23.5	6.03e-01	0	35	0	216006656	64	4146
2026-01-17 23:24:39.98	47.42	10.12	-46.4	-47.9	23.3	6.05e-01	0	35	0	217579520	64	4258
2026-01-17 23:24:40.98	47.61	10.15	-46.2	-47.7	23.5	6.04e-01	0	35	0	219676672	64	4182
2026-01-17 23:24:41.99	47.80	10.19	-46.2	-47.7	23.5	6.05e-01	0	35	0	221773824	64	4178
2026-01-17 23:24:43.00	47.99	10.23	-46.1	-47.6	23.6	6.01e-01	0	35	0	223346688	64	4104
2026-01-17 23:24:44.01	48.19	10.27	-46.1	-47.6	23.6	6.03e-01	0	35	0	225443840	64	4125
2026-01-17 23:24:45.01	48.38	10.30	-46.2	-47.7	23.5	6.03e-01	0	35	0	227016704	64	4170
2026-01-17 23:24:46.02	48.57	10.34	-46.1	-47.6	23.6	6.04e-01	0	35	0	229113856	64	4114
2026-01-17 23:24:47.03	48.76	10.38	-46.0	-47.5	23.7	6.03e-01	0	35	0	231211008	64	4064
2026-01-17 23:24:48.02	48.95	10.41	-46.1	-47.5	23.7	6.05e-01	0	35	0	232783872	64	4098
2026-01-17 23:24:49.03	49.15	10.45	-46.0	-47.5	23.7	6.01e-01	0	35	0	234881024	64	4066
2026-01-17 23:24:50.04	49.34	10.49	-46.0	-47.5	23.7	6.02e-01	0	35	0	236453888	64	4052
2026-01-17 23:24:51.04	49.53	10.52	-46.1	-47.6	23.6	6.04e-01	0	35	0	238551040	64	4127
2026-01-17 23:24:52.05	49.73	10.56	-46.2	-47.6	23.5	6.00e-01	0	35	0	240123904	64	4145
2026-01-17 23:24:53.06	49.93	10.59	-46.0	-47.5	23.7	6.03e-01	0	35	0	242221056	64	4056
2026-01-17 23:24:54.06	50.12	10.63	-46.1	-47.6	23.1	6.05e-01	0	35	0	244318208	63	4349
2026-01-17 23:24:55.07	50.32	10.66	-46.1	-47.5	23.8	6.03e-01	0	35	0	245891072	63	4338
2026-01-17 23:24:56.08	50.52	10.70	-46.3	-47.7	23.6	6.04e-01	0	35	0	247988224	63	4431
2026-01-17 23:24:57.09	50.72	10.73	-46.2	-47.6	23.6	6.04e-01	0	35	0	250085376	63	4390
2026-01-17 23:24:58.09	50.91	10.77	-46.1	-47.5	23.7	6.04e-01	0	35	0	251658240	63	4324
2026-01-17 23:24:59.10	51.11	10.80	-46.0	-47.4	23.8	6.02e-01	0	35	0	253755392	63	4272
2026-01-17 23:25:00.11	51.31	10.84	-46.1	-47.5	23.8	6.02e-01	0	35	0	255328256	63	4340
2026-01-17 23:25:01.12	51.51	10.87	-46.1	-47.6	23.7	6.01e-01	0	35	0	257425408	63	4359
2026-01-17 23:25:02.13	51.71	10.90	-46.2	-47.6	23.7	6.02e-01	0	35	0	259522560	63	4367
2026-01-17 23:25:03.14	51.91	10.94	-46.2	-47.7	23.7	6.02e-01	0	35	0	261095424	63	4398
2026-01-17 23:25:04.14	52.11	10.97	-46.2	-47.7	23.6	6.01e-01	0	35	0	263192576	63	4416
2026-01-17 23:25:05.15	52.32	11.00	-46.1	-47.6	23.7	6.02e-01	0	35	0	264765440	63	4354
2026-01-17 23:25:06.16	52.52	11.03	-46.0	-47.4	23.9	6.04e-01	0	35	0	266862592	63	4273
2026-01-17 23:25:07.17	52.72	11.07	-46.0	-47.5	23.8	6.03e-01	0	35	0	268435456	63	4304
2026-01-17 23:25:08.18	52.93	11.10	-46.1	-47.5	23.8	6.02e-01	0	35	0	270532608	63	4308
2026-01-17 23:25:09.18	53.13	11.13	-46.1	-47.5	23.8	6.03e-01	0	35	0	272629760	63	4329
2026-01-17 23:25:10.19	53.33	11.16	-46.1	-47.6	23.6	6.04e-01	0	35	0	274726912	63	4358
2026-01-17 23:25:11.20	53.54	11.19	-46.1	-47.6	23.7	6.01e-01	0	35	0	276299776	63	4359
2026-01-17 23:25:12.21	53.74	11.22	-46.0	-47.4	23.9	6.04e-01	0	35	0	278396928	63	4264
2026-01-17 23:25:13.22	53.95	11.25	-46.0	-47.4	23.9	6.02e-01	0	35	0	279969792	63	4279
2026-01-17 23:25:14.23	54.16	11.28	-46.1	-47.5	23.9	6.03e-01	0	35	0	282066944	63	4311
2026-01-17 23:25:15.24	54.36	11.31	-46.1	-47.5	23.8	6.04e-01	0	35	0	283639808	63	4314
2026-01-17 23:25:16.24	54.57	11.34	-46.1	-47.5	23.7	6.05e-01	0	35	0	285736960	63	4326
2026-01-17 23:25:17.25	54.78	11.37	-46.0	-47.4	23.9	6.03e-01	0	35	0	287834112	63	4265
2026-01-17 23:25:18.26	54.98	11.40	-45.9	-47.3	24.0	6.03e-01	0	35	0	289406976	63	4202
2026-01-17 23:25:19.27	55.19	11.43	-46.0	-47.4	23.9	6.04e-01	0	35	0	291504128	63	4257
2026-01-17 23:25:20.28	55.40	11.46	-46.1	-47.6	23.7	6.02e-01	0	35	0	293076992	63	4347
2026-01-17 23:25:21.28	55.61	11.49	-46.0	-47.4	23.9	6.00e-01	0	35	0	295174144	63	4288
2026-01-17 23:25:22.29	55.82	11.52	-46.0	-47.5	23.9	6.02e-01	0	35	0	297271296	63	4303
2026-01-17 23:25:23.30	56.03	11.55	-46.0	-47.5	23.9	6.02e-01	0	35	0	298844160	63	4297
2026-01-17 23:25:24.30	56.24	11.57	-45.9	-47.3	24.0	6.02e-01	0	35	0	300941312	63	4217
2026-01-17 23:25:25.31	56.45	11.60	-46.0	-47.4	23.9	6.00e-01	0	35	0	303038464	63	4257
2026-01-17 23:25:26.32	56.66	11.63	-46.0	-47.4	24.0	6.02e-01	0	35	0	304611328	63	4258
2026-01-17 23:25:27.33	56.87	11.65	-45.9	-47.2	24.1	6.03e-01	0	35	0	306708480	63	4189
2026-01-17 23:25:28.34	57.08	11.68	-46.0	-47.4	24.0	6.01e-01	0	35	0	308281344	63	4254
2026-01-17 23:25:29.34	57.30	11.71	-45.9	-47.3	24.0	6.00e-01	0	35	0	310378496	63	4230
2026-01-17 23:25:30.35	57.51	11.73	-46.0	-47.4	24.0	6.04e-01	0	35	0	311951360	63	4254
2026-01-17 23:25:31.36	57.72	11.76	-45.9	-47.3	24.1	6.05e-01	0	35	0	314048512	63	4203
2026-01-17 23:25:32.37	57.94	11.78	-46.0	-47.5	23.9	6.03e-01	0	35	0	316145664	63	4298
2026-01-17 23:25:33.36	58.15	11.81	-45.8	-47.2	24.1	6.02e-01	0	35	0	317718528	63	4168
2026-01-17 23:25:34.37	58.36	11.83	-45.9	-47.3	24.0	6.02e-01	0	35	0	319815680	63	4200
2026-01-17 23:25:35.38	58.58	11.86	-45.9	-47.3	24.0	6.03e-01	0	35	0	321388544	63	4229
2026-01-17 23:25:36.39	58.79	11.88	-46.0	-47.4	23.9	6.04e-01	0	35	0	323485696	63	4268
2026-01-17 23:25:37.40	59.01	11.90	-45.9	-47.3	24.0	6.00e-01	0	35	0	325582848	63	4242
2026-01-17 23:25:38.40	59.22	11.93	-45.8	-47.2	24.1	6.02e-01	0	35	0	327155712	63	4164
2026-01-17 23:25:39.41	59.44	11.95	-45.8	-47.2	24.1	6.05e-01	0	35	0	329252864	63	4171
2026-01-17 23:25:40.42	59.66	11.97	-45.9	-47.3	23.9	6.01e-01	0	35	0	331350016	63	4233
2026-01-17 23:25:41.43	59.87	11.99	-45.8	-47.2	24.0	6.05e-01	0	35	0	332922880	63	4165
2026-01-17 23:25:42.44	60.09	12.02	-45.7	-47.1	24.2	6.02e-01	0	35	0	335020032	63	4134
2026-01-17 23:25:43.44	60.31	12.04	-45.8	-47.2	24.2	6.03e-01	0	35	0	336592896	63	4151
2026-01-17 23:25:44.45	60.52	12.06	-45.9	-47.3	24.1	6.04e-01	0	35	0	338690048	63	4197
2026-01-17 23:25:45.45	60.74	12.08	-45.9	-47.3	24.1	6.05e-01	0	35	0	340262912	63	4214
2026-01-17 23:25:46.46	60.96	12.10	-45.9	-47.3	23.9	6.02e-01	0	35	0	342360064	63	4228
2026-01-17 23:25:47.47	61.18	12.12	-45.9	-47.4	23.8	6.06e-01	0	35	0	344457216	63	4251
2026-01-17 23:25:48.48	61.40	12.14	-45.9	-47.3	23.9	6.02e-01	0	35	0	346030080	63	4240
2026-01-17 23:25:49.48	61.62	12.16	-45.7	-47.1	24.0	6.07e-01	0	35	0	348127232	63	4126
2026-01-17 23:25:50.49	61.84	12.18	-45.9	-47.3	23.8	6.04e-01	0	35	0	350224384	63	4207
2026-01-17 23:25:51.50	62.06	12.20	-45.8	-47.2	23.4	6.04e-01	0	35	0	351797248	63	4182
2026-01-17 23:25:52.51	62.28	12.22	-45.8	-47.2	23.5	6.04e-01	0	35	0	353894400	63	4181
2026-01-17 23:25:53.52	62.50	12.23	-45.9	-47.3	24.0	6.02e-01	0	35	0	355467264	63	4203
2026-01-17 23:25:54.52	62.72	12.25	-45.9	-47.3	24.0	6.04e-01	0	35	0	357564416	63	4230
2026-01-17 23:25:55.53	62.94	12.27	-45.9	-47.3	23.9	6.04e-01	0	35	0	359661568	63	4236
2026-01-17 23:25:56.54	63.16	12.29	-45.7	-47.1	23.9	6.04e-01	0	35	0	361234432	63	4136
2026-01-17 23:25:57.55	63.38	12.30	-45.8	-47.2	23.7	6.06e-01	0	35	0	363331584	63	4177
2026-01-17 23:25:58.55	63.60	12.32	-45.8	-47.2	23.9	6.04e-01	0	35	0	364904448	63	4169
2026-01-17 23:25:59.56	63.83	12.34	-45.8	-47.2	23.9	6.04e-01	0	35	0	367001600	63	4177
2026-01-17 23:26:00.57	64.05	12.35	-45.7	-47.1	24.1	6.03e-01	0	35	0	368574464	63	4138
2026-01-17 23:26:01.58	64.27	12.37	-45.8	-47.1	24.2	6.03e-01	0	35	0	370671616	63	4133
2026-01-17 23:26:02.58	64.49	12.38	-45.8	-47.2	24.1	6.02e-01	0	35	0	372768768	63	4191
2026-01-17 23:26:03.59	64.72	12.40	-45.8	-47.2	24.1	6.01e-01	0	35	0	374865920	63	4165
2026-01-17 23:26:04.60	64.94	12.41	-45.7	-47.1	24.0	6.03e-01	0	35	0	376438784	63	4131
2026-01-17 23:26:05.61	65.17	12.42	-45.8	-47.2	24.1	6.04e-01	0	35	0	378535936	63	4157
2026-01-17 23:26:06.62	65.39	12.44	-45.7	-47.1	24.2	6.03e-01	0	35	0	380108800	63	4117
2026-01-17 23:26:07.62	65.61	12.45	-45.8	-47.2	24.1	6.01e-01	0	35	0	382205952	63	4162
2026-01-17 23:26:08.63	65.84	12.46	-45.9	-47.3	24.1	6.01e-01	0	35	0	383778816	63	4203
2026-01-17 23:26:09.64	66.06	12.48	-45.8	-47.2	24.1	6.03e-01	0	35	0	385875968	63	4181
2026-01-17 23:26:10.65	66.29	12.49	-45.9	-47.3	24.1	6.03e-01	0	35	0	387973120	63	4195
2026-01-17 23:26:11.65	66.51	12.50	-45.8	-47.1	24.2	6.04e-01	0	35	0	389545984	63	4138
2026-01-17 23:26:12.66	66.74	12.51	-45.8	-47.2	24.2	6.03e-01	0	35	0	391643136	63	4151
2026-01-17 23:26:13.67	66.96	12.52	-45.9	-47.3	24.1	6.06e-01	0	35	0	393216000	63	4212
2026-01-17 23:26:14.68	67.19	12.53	-45.9	-47.2	24.1	6.02e-01	0	35	0	395313152	63	4189
2026-01-17 23:26:15.68	67.41	12.54	-45.7	-47.1	24.3	6.03e-01	0	35	0	397410304	63	4106
2026-01-17 23:26:16.69	67.64	12.55	-45.8	-47.2	24.2	6.02e-01	0	35	0	398983168	63	4163
2026-01-17 23:26:17.70	67.87	12.56	-45.7	-47.1	24.3	6.04e-01	0	35	0	401080320	63	4130
2026-01-17 23:26:18.71	68.09	12.57	-45.9	-47.3	24.1	6.03e-01	0	35	0	403177472	63	4205
2026-01-17 23:26:19.72	68.32	12.58	-45.8	-47.2	24.1	6.02e-01	0	35	0	404750336	63	4189
2026-01-17 23:26:20.73	68.55	12.59	-45.9	-47.3	24.0	6.06e-01	0	35	0	406847488	63	4209
2026-01-17 23:26:21.73	68.77	12.60	-45.7	-47.1	24.2	6.05e-01	0	35	0	408420352	63	4113
2026-01-17 23:26:22.74	69.00	12.60	-45.6	-46.9	24.4	6.02e-01	0	35	0	410517504	63	4041
2026-01-17 23:26:23.75	69.23	12.61	-45.7	-47.1	24.2	6.05e-01	0	35	0	412090368	63	4122
2026-01-17 23:26:24.76	69.45	12.62	-45.7	-47.1	24.2	6.02e-01	0	35	0	414187520	63	4117
2026-01-17 23:26:25.76	69.68	12.62	-45.8	-47.1	24.1	6.02e-01	0	35	0	416284672	63	4145
2026-01-17 23:26:26.77	69.91	12.63	-45.7	-47.1	24.3	6.04e-01	0	35	0	417857536	63	4107
2026-01-17 23:26:27.78	70.13	12.64	-45.8	-47.2	24.1	6.03e-01	0	35	0	419954688	63	4180
2026-01-17 23:26:28.79	70.36	12.64	-45.8	-47.2	24.2	6.02e-01	0	35	0	422051840	63	4173
2026-01-17 23:26:29.80	70.59	12.65	-45.9	-47.3	24.1	6.04e-01	0	35	0	423624704	63	4205
2026-01-17 23:26:30.80	70.82	12.65	-46.0	-47.4	24.0	6.03e-01	0	35	0	425721856	63	4259
2026-01-17 23:26:31.81	71.04	12.65	-45.9	-47.3	24.1	6.04e-01	0	35	0	427294720	63	4200
2026-01-17 23:26:32.82	71.27	12.66	-45.7	-47.0	24.3	6.03e-01	0	35	0	429391872	63	4080
2026-01-17 23:26:33.83	71.50	12.66	-45.8	-47.1	24.2	6.03e-01	0	35	0	431489024	63	4134
2026-01-17 23:26:34.83	71.73	12.66	-45.7	-47.1	24.2	6.04e-01	0	35	0	433061888	63	4130
2026-01-17 23:26:35.84	71.96	12.67	-45.8	-47.2	24.1	6.00e-01	0	35	0	435159040	63	4170
2026-01-17 23:26:36.85	72.18	12.67	-45.9	-47.3	24.1	6.04e-01	0	35	0	436731904	63	4201
2026-01-17 23:26:37.86	72.41	12.67	-45.8	-47.2	24.1	6.03e-01	0	35	0	438829056	63	4173
2026-01-17 23:26:38.87	72.64	12.67	-45.7	-47.1	24.2	6.02e-01	0	35	0	440401920	63	4130
2026-01-17 23:26:39.88	72.87	12.67	-45.8	-47.1	24.2	6.02e-01	0	35	0	442499072	63	4142
2026-01-17 23:26:40.88	73.09	12.67	-45.7	-47.1	24.2	6.02e-01	0	35	0	444596224	63	4113
2026-01-17 23:26:41.89	73.32	12.67	-45.8	-47.1	24.2	6.04e-01	0	35	0	446169088	63	4140
2026-01-17 23:26:42.90	73.55	12.67	-45.9	-47.3	24.1	6.02e-01	0	35	0	448266240	63	4238
2026-01-17 23:26:43.90	73.78	12.67	-46.0	-47.4	24.0	6.03e-01	0	35	0	450363392	63	4248
2026-01-17 23:26:44.91	74.01	12.67	-45.7	-47.0	24.3	6.02e-01	0	35	0	451936256	63	4098
2026-01-17 23:26:45.92	74.23	12.67	-45.8	-47.1	24.2	6.05e-01	0	35	0	454033408	63	4143
2026-01-17 23:26:46.93	74.46	12.67	-45.9	-47.3	24.1	6.03e-01	0	35	0	455606272	63	4201
2026-01-17 23:26:47.94	74.69	12.66	-45.8	-47.2	24.1	6.00e-01	0	35	0	457703424	63	4173
2026-01-17 23:26:48.95	74.92	12.66	-45.8	-47.1	24.2	6.02e-01	0	35	0	459800576	63	4135
2026-01-17 23:26:49.96	75.15	12.66	-45.9	-47.2	24.1	6.03e-01	0	35	0	461373440	63	4192
2026-01-17 23:26:50.96	75.37	12.66	-45.7	-47.1	24.2	6.01e-01	0	35	0	463470592	63	4116
2026-01-17 23:26:51.97	75.60	12.65	-45.7	-47.1	24.2	6.04e-01	0	35	0	465043456	63	4123
2026-01-17 23:26:52.98	75.83	12.65	-45.8	-47.2	24.1	6.03e-01	0	35	0	467140608	63	4187
2026-01-17 23:26:53.99	76.06	12.64	-45.8	-47.2	24.2	6.05e-01	0	35	0	469237760	63	4149
2026-01-17 23:26:55.00	76.29	12.64	-45.8	-47.2	24.1	6.03e-01	0	35	0	470810624	63	4185
2026-01-17 23:26:56.00	76.51	12.63	-45.9	-47.2	24.1	6.04e-01	0	35	0	472907776	63	4192
2026-01-17 23:26:57.01	76.74	12.63	-45.7	-47.0	24.3	6.02e-01	0	35	0	474480640	63	4095
2026-01-17 23:26:58.02	76.97	12.62	-45.6	-47.0	24.3	6.01e-01	0	35	0	476577792	63	4074
2026-01-17 23:26:59.03	77.20	12.61	-45.7	-47.1	24.3	6.03e-01	0	35	0	478674944	63	4102
2026-01-17 23:27:00.04	77.42	12.61	-45.7	-47.0	24.3	6.02e-01	0	35	0	480247808	63	4088
2026-01-17 23:27:01.05	77.65	12.60	-45.6	-47.0	24.3	6.02e-01	0	35	0	482344960	63	4074
2026-01-17 23:27:02.05	77.88	12.59	-45.7	-47.0	24.3	6.01e-01	0	35	0	483917824	63	4093
2026-01-17 23:27:03.06	78.10	12.58	-45.7	-47.1	24.3	6.02e-01	0	35	0	486014976	63	4106
2026-01-17 23:27:04.06	78.33	12.58	-45.8	-47.1	24.2	6.04e-01	0	35	0	488112128	63	4145
2026-01-17 23:27:05.07	78.55	12.57	-45.7	-47.1	24.3	6.04e-01	0	35	0	489684992	63	4103
2026-01-17 23:27:06.08	78.78	12.56	-45.6	-47.0	24.3	6.03e-01	0	35	0	491782144	63	4074
2026-01-17 23:27:07.09	79.01	12.55	-45.7	-47.1	24.2	6.02e-01	0	35	0	493879296	63	4114
2026-01-17 23:27:08.10	79.23	12.54	-45.7	-47.1	24.2	6.02e-01	0	35	0	495452160	63	4127
2026-01-17 23:27:09.11	79.46	12.53	-45.7	-47.0	24.3	6.03e-01	0	35	0	497549312	63	4083
2026-01-17 23:27:10.11	79.69	12.52	-45.6	-47.0	24.4	6.03e-01	0	35	0	499122176	63	4058
2026-01-17 23:27:11.12	79.91	12.51	-45.7	-47.1	24.2	6.05e-01	0	35	0	501219328	63	4121
2026-01-17 23:27:12.13	80.14	12.49	-45.8	-47.1	24.2	6.01e-01	0	35	0	502792192	63	4145
2026-01-17 23:27:13.14	80.36	12.48	-45.9	-47.3	24.1	6.03e-01	0	35	0	504889344	63	4211
2026-01-17 23:27:14.14	80.59	12.47	-45.7	-47.1	24.2	6.01e-01	0	35	0	506986496	63	4119
2026-01-17 23:27:15.15	80.81	12.46	-45.7	-47.1	24.3	6.02e-01	0	35	0	508559360	63	4107
2026-01-17 23:27:16.16	81.04	12.44	-45.7	-47.1	24.3	6.05e-01	0	35	0	510656512	63	4106
2026-01-17 23:27:17.17	81.26	12.43	-45.8	-47.1	24.1	6.03e-01	0	35	0	512229376	63	4142
2026-01-17 23:27:18.17	81.48	12.42	-45.8	-47.2	24.1	6.03e-01	0	35	0	514326528	63	4163
2026-01-17 23:27:19.18	81.71	12.40	-45.8	-47.2	24.1	6.04e-01	0	35	0	516423680	63	4171
2026-01-17 23:27:20.19	81.93	12.39	-45.7	-47.1	24.2	6.03e-01	0	35	0	517996544	63	4128
2026-01-17 23:27:21.20	82.16	12.37	-45.8	-47.1	24.2	6.04e-01	0	35	0	520093696	63	4143
2026-01-17 23:27:22.20	82.38	12.36	-45.7	-47.1	24.2	6.03e-01	0	35	0	522190848	63	4110
2026-01-17 23:27:23.21	82.60	12.34	-45.8	-47.1	24.2	6.02e-01	0	35	0	523763712	63	4144
2026-01-17 23:27:24.22	82.82	12.33	-45.8	-47.1	24.2	6.03e-01	0	35	0	525860864	63	4139
2026-01-17 23:27:25.23	83.05	12.31	-45.7	-47.0	24.2	6.03e-01	0	35	0	527433728	63	4096
2026-01-17 23:27:26.24	83.27	12.29	-45.6	-47.0	24.3	6.02e-01	0	35	0	529530880	63	4078
2026-01-17 23:27:27.25	83.49	12.28	-45.7	-47.1	24.2	6.02e-01	0	35	0	531103744	63	4111
2026-01-17 23:27:28.25	83.71	12.26	-45.8	-47.2	24.1	6.02e-01	0	35	0	533200896	63	4169
2026-01-17 23:27:29.26	83.93	12.24	-45.8	-47.1	24.2	5.99e-01	0	35	0	535298048	63	4144
2026-01-17 23:27:30.27	84.16	12.22	-45.6	-47.0	24.3	6.02e-01	0	35	0	536870912	63	4073
2026-01-17 23:27:31.28	84.38	12.21	-45.7	-47.0	24.2	6.02e-01	0	35	0	538968064	63	4097
2026-01-17 23:27:32.28	84.60	12.19	-45.8	-47.1	24.2	6.03e-01	0	35	0	541065216	63	4145
2026-01-17 23:27:33.29	84.82	12.17	-45.8	-47.2	24.1	6.05e-01	0	35	0	542638080	63	4164
2026-01-17 23:27:34.30	85.04	12.15	-45.8	-47.2	24.1	6.04e-01	0	35	0	544735232	63	4183
2026-01-17 23:27:35.31	85.26	12.13	-45.8	-47.2	24.1	6.04e-01	0	35	0	546308096	63	4150
2026-01-17 23:27:36.32	85.48	12.11	-45.8	-47.1	24.2	6.01e-01	0	35	0	548405248	63	4145
2026-01-17 23:27:37.32	85.70	12.09	-45.8	-47.2	24.2	6.03e-01	0	35	0	550502400	63	4157
2026-01-17 23:27:38.33	85.91	12.07	-45.8	-47.2	24.1	6.02e-01	0	35	0	552075264	63	4170
2026-01-17 23:27:39.34	86.13	12.05	-45.8	-47.2	24.1	6.02e-01	0	35	0	554172416	63	4173
2026-01-17 23:27:40.34	86.35	12.02	-45.8	-47.2	24.0	6.03e-01	0	35	0	555745280	63	4169
2026-01-17 23:27:41.35	86.57	12.00	-45.7	-47.1	24.2	6.00e-01	0	35	0	557842432	63	4118
2026-01-17 23:27:42.36	86.79	11.98	-45.8	-47.1	24.2	6.03e-01	0	35	0	559415296	63	4137
2026-01-17 23:27:43.37	87.00	11.96	-45.8	-47.2	24.1	6.01e-01	0	35	0	561512448	63	4185
2026-01-17 23:27:44.38	87.22	11.94	-45.9	-47.4	23.9	6.04e-01	0	35	0	563609600	63	4246
2026-01-17 23:27:45.38	87.44	11.91	-45.8	-47.2	24.1	6.02e-01	0	35	0	565706752	63	4173
2026-01-17 23:27:46.39	87.65	11.89	-45.8	-47.2	24.1	6.02e-01	0	35	0	567279616	63	4182
2026-01-17 23:27:47.40	87.87	11.87	-45.8	-47.2	24.1	6.02e-01	0	35	0	569376768	63	4189
2026-01-17 23:27:48.41	88.08	11.84	-45.9	-47.3	24.0	6.02e-01	0	35	0	570949632	63	4232
2026-01-17 23:27:49.42	88.30	11.82	-45.8	-47.2	24.0	6.04e-01	0	35	0	573046784	63	4176
2026-01-17 23:27:50.42	88.51	11.79	-45.9	-47.3	24.0	6.03e-01	0	35	0	574619648	63	4204
2026-01-17 23:27:51.43	88.73	11.77	-45.9	-47.3	24.0	6.04e-01	0	35	0	576716800	63	4202
2026-01-17 23:27:52.44	88.94	11.74	-45.6	-47.0	24.3	6.04e-01	0	35	0	578813952	63	4073
2026-01-17 23:27:53.45	89.16	11.72	-45.7	-47.1	24.2	6.02e-01	0	35	0	580386816	63	4128
2026-01-17 23:27:54.46	89.37	11.69	-45.8	-47.2	24.1	6.03e-01	0	35	0	582483968	63	4151
2026-01-17 23:27:55.46	89.58	11.66	-45.9	-47.3	24.0	6.03e-01	0	35	0	584056832	63	4196
2026-01-17 23:27:56.47	89.79	11.64	-45.9	-47.3	24.0	6.04e-01	0	35	0	586153984	63	4214
2026-01-17 23:27:57.48	90.01	11.61	-45.9	-47.3	24.0	6.05e-01	0	35	0	587726848	63	4216
2026-01-17 23:27:58.49	90.22	11.58	-45.9	-47.3	24.0	6.02e-01	0	35	0	589824000	63	4209
2026-01-17 23:27:59.50	90.43	11.56	-45.8	-47.2	24.0	6.04e-01	0	35	0	591921152	63	4188
2026-01-17 23:28:00.50	90.64	11.53	-45.9	-47.2	24.1	6.03e-01	0	35	0	594018304	63	4192
2026-01-17 23:28:01.51	90.85	11.50	-45.9	-47.3	24.1	6.04e-01	0	35	0	595591168	63	4195
2026-01-17 23:28:02.52	91.06	11.47	-45.8	-47.3	24.0	6.01e-01	0	35	0	597688320	63	4197
2026-01-17 23:28:03.52	91.27	11.44	-45.9	-47.3	23.9	6.04e-01	0	35	0	599261184	63	4226
2026-01-17 23:28:04.53	91.48	11.41	-45.8	-47.2	24.0	6.04e-01	0	35	0	601358336	63	4169
2026-01-17 23:28:05.54	91.68	11.38	-45.8	-47.2	24.1	6.05e-01	0	35	0	602931200	63	4148
2026-01-17 23:28:06.55	91.89	11.35	-45.8	-47.2	24.1	6.04e-01	0	35	0	605028352	63	4149
2026-01-17 23:28:07.56	92.10	11.32	-45.9	-47.3	23.9	6.05e-01	0	35	0	607125504	63	4220
2026-01-17 23:28:08.57	92.31	11.29	-45.9	-47.3	23.9	6.04e-01	0	35	0	608698368	63	4242
2026-01-17 23:28:09.57	92.51	11.26	-45.9	-47.3	23.9	6.01e-01	0	35	0	610795520	63	4242
2026-01-17 23:28:10.58	92.72	11.23	-45.9	-47.3	23.9	6.03e-01	0	35	0	612892672	63	4230
2026-01-17 23:28:11.59	92.93	11.20	-45.9	-47.3	23.9	6.02e-01	0	35	0	614465536	63	4229
2026-01-17 23:28:12.60	93.13	11.17	-45.9	-47.3	24.0	6.02e-01	0	35	0	616562688	63	4214
2026-01-17 23:28:13.61	93.34	11.14	-45.8	-47.2	24.0	6.02e-01	0	35	0	618135552	63	4184
2026-01-17 23:28:14.62	93.54	11.11	-45.9	-47.3	24.0	6.03e-01	0	35	0	620232704	63	4200
2026-01-17 23:28:15.62	93.75	11.08	-45.9	-47.3	23.9	6.05e-01	0	35	0	622329856	63	4200
2026-01-17 23:28:16.63	93.95	11.04	-45.9	-47.4	23.9	6.04e-01	0	35	0	623902720	63	4251
2026-01-17 23:28:17.64	94.15	11.01	-45.9	-47.4	23.9	6.01e-01	0	35	0	625999872	63	4258
2026-01-17 23:28:18.65	94.36	10.98	-45.8	-47.2	23.9	6.03e-01	0	35	0	627572736	63	4192
2026-01-17 23:28:19.66	94.56	10.95	-45.9	-47.3	24.0	6.02e-01	0	35	0	629669888	63	4204
2026-01-17 23:28:20.66	94.76	10.91	-45.9	-47.4	23.9	6.01e-01	0	35	0	631242752	63	4253
2026-01-17 23:28:21.67	94.96	10.88	-45.9	-47.3	23.9	6.04e-01	0	35	0	633339904	63	4221
2026-01-17 23:28:22.68	95.16	10.85	-45.9	-47.3	23.9	6.06e-01	0	35	0	635437056	63	4236
2026-01-17 23:28:23.68	95.36	10.81	-45.9	-47.4	23.9	6.02e-01	0	35	0	637534208	63	4244
2026-01-17 23:28:24.69	95.56	10.78	-45.9	-47.3	23.9	6.03e-01	0	35	0	639107072	63	4235
2026-01-17 23:28:25.70	95.76	10.74	-45.9	-47.3	23.9	6.02e-01	0	35	0	641204224	63	4242
2026-01-17 23:28:26.71	95.96	10.71	-45.9	-47.3	23.9	6.03e-01	0	35	0	642777088	63	4230
2026-01-17 23:28:27.72	96.16	10.67	-45.9	-47.3	23.9	6.03e-01	0	35	0	644874240	63	4241
2026-01-17 23:28:28.72	96.36	10.64	-46.0	-47.4	23.8	6.04e-01	0	35	0	646447104	63	4265
2026-01-17 23:28:29.73	96.55	10.60	-46.0	-47.4	23.8	6.03e-01	0	35	0	648544256	63	4288
2026-01-17 23:28:30.74	96.75	10.57	-46.1	-47.5	23.7	6.03e-01	0	35	0	650641408	63	4321
2026-01-17 23:28:31.75	96.95	10.53	-46.0	-47.4	23.8	6.05e-01	0	35	0	652214272	63	4280
2026-01-17 23:28:32.75	97.14	10.50	-45.9	-47.3	23.9	6.02e-01	0	35	0	654311424	63	4231
2026-01-17 23:28:33.76	97.34	10.46	-45.9	-47.3	23.9	6.02e-01	0	35	0	655884288	63	4220
2026-01-17 23:28:34.77	97.53	10.42	-46.0	-47.4	23.8	6.03e-01	0	35	0	657981440	63	4266
2026-01-17 23:28:35.78	97.73	10.39	-46.0	-47.4	23.8	6.05e-01	0	35	0	659554304	63	4276
2026-01-17 23:28:36.78	97.92	10.35	-46.1	-47.5	23.7	6.02e-01	0	35	0	661651456	63	4314
2026-01-17 23:28:37.79	98.11	10.31	-46.0	-47.5	23.7	6.03e-01	0	35	0	663748608	63	4300
2026-01-17 23:28:38.80	98.31	10.27	-46.1	-47.6	23.6	6.01e-01	0	35	0	665845760	63	4361
2026-01-17 23:28:39.81	98.50	10.24	-46.1	-47.5	23.7	6.04e-01	0	35	0	667418624	63	4322
2026-01-17 23:28:40.82	98.69	10.20	-46.0	-47.4	23.8	6.02e-01	0	35	0	669515776	63	4278
2026-01-17 23:28:41.82	98.88	10.16	-45.9	-47.4	23.8	6.02e-01	0	35	0	671088640	63	4253
2026-01-17 23:28:42.83	99.07	10.12	-45.9	-47.3	23.9	6.05e-01	0	35	0	673185792	63	4216
2026-01-17 23:28:43.84	99.26	10.09	-46.0	-47.4	23.7	6.01e-01	0	35	0	674758656	63	4276
2026-01-17 23:28:44.85	99.45	10.05	-46.1	-47.5	23.7	6.06e-01	0	35	0	676855808	63	4340
2026-01-17 23:28:45.85	99.64	10.01	-46.1	-47.6	23.6	6.06e-01	0	35	0	678952960	63	4367
2026-01-17 23:28:46.86	99.83	9.97	-46.2	-47.6	23.5	6.02e-01	0	35	0	680525824	63	4387
2026-01-17 23:28:47.87	100.02	9.93	-46.1	-47.6	23.6	6.02e-01	0	35	0	682622976	63	4349
2026-01-17 23:28:48.88	100.21	9.89	-46.0	-47.5	23.7	6.03e-01	0	35	0	684195840	63	4309
2026-01-17 23:28:49.88	100.39	9.85	-46.2	-47.7	23.5	6.05e-01	0	35	0	686292992	63	4401
2026-01-17 23:28:50.89	100.58	9.81	-46.0	-47.4	23.7	6.03e-01	0	35	0	688390144	63	4287
2026-01-17 23:28:51.90	100.76	9.77	-46.0	-47.5	23.7	6.00e-01	0	35	0	689963008	63	4293
2026-01-17 23:28:52.91	100.95	9.73	-46.1	-47.5	23.6	6.03e-01	0	35	0	692060160	63	4326
2026-01-17 23:28:53.92	101.14	9.69	-46.1	-47.5	23.6	6.05e-01	0	35	0	694157312	63	4328
2026-01-17 23:28:54.92	101.32	9.65	-46.1	-47.6	23.6	6.03e-01	0	35	0	695730176	63	4358
2026-01-17 23:28:55.93	101.50	9.61	-46.0	-47.5	23.7	6.03e-01	0	35	0	697827328	63	4307
2026-01-17 23:28:56.94	101.69	9.57	-46.2	-47.6	23.5	6.02e-01	0	35	0	699400192	63	4384
2026-01-17 23:28:57.95	101.87	9.53	-46.2	-47.7	23.4	6.05e-01	0	35	0	701497344	63	4426
2026-01-17 23:28:58.96	102.05	9.49	-46.3	-47.7	23.4	6.02e-01	0	35	0	703070208	63	4441
2026-01-17 23:28:59.96	102.23	9.45	-46.2	-47.7	23.4	6.04e-01	0	35	0	705167360	63	4419
2026-01-17 23:29:00.97	102.41	9.41	-46.3	-47.8	23.4	6.05e-01	0	35	0	707264512	63	4461
2026-01-17 23:29:01.98	102.60	9.36	-46.2	-47.7	23.4	6.04e-01	0	35	0	708837376	63	4422
2026-01-17 23:29:02.99	102.78	9.32	-46.1	-47.5	23.6	6.04e-01	0	35	0	710934528	63	4329
2026-01-17 23:29:03.99	102.95	9.28	-46.2	-47.7	23.5	6.03e-01	0	35	0	713031680	63	4405
2026-01-17 23:29:05.00	103.13	9.24	-46.2	-47.7	23.4	6.04e-01	0	35	0	714604544	63	4433
2026-01-17 23:29:06.01	103.31	9.20	-46.2	-47.7	23.4	6.03e-01	0	35	0	716701696	63	4411
2026-01-17 23:29:07.02	103.49	9.15	-46.3	-47.8	23.4	6.03e-01	0	35	0	718274560	63	4460
2026-01-17 23:29:08.03	103.67	9.11	-46.2	-47.7	23.5	6.05e-01	0	35	0	720371712	63	4398
2026-01-17 23:29:09.04	103.85	9.07	-46.3	-47.8	23.3	6.03e-01	0	35	0	722468864	63	4489
2026-01-17 23:29:10.04	104.02	9.03	-46.4	-48.0	23.2	6.04e-01	0	35	0	724041728	63	4549
2026-01-17 23:29:11.05	104.20	8.98	-46.5	-48.1	23.1	6.03e-01	0	35	0	726138880	63	4603
2026-01-17 23:29:12.06	104.37	8.94	-46.4	-48.0	23.2	6.03e-01	0	35	0	727711744	63	4561
2026-01-17 23:29:13.07	104.55	8.90	-46.5	-48.1	23.1	6.02e-01	0	35	0	729808896	63	4601
2026-01-17 23:29:14.07	104.72	8.85	-46.3	-47.8	23.3	6.02e-01	0	35	0	731381760	63	4478
2026-01-17 23:29:15.08	104.89	8.81	-46.3	-47.8	23.3	6.03e-01	0	35	0	733478912	63	4458
2026-01-17 23:29:16.09	105.07	8.77	-46.3	-47.7	23.4	6.03e-01	0	35	0	735576064	63	4439
2026-01-17 23:29:17.10	105.24	8.72	-46.2	-47.6	23.4	6.03e-01	0	35	0	737673216	63	4381
2026-01-17 23:29:18.11	105.41	8.68	-46.3	-47.8	23.3	6.03e-01	0	35	0	739246080	63	4456
2026-01-17 23:29:19.12	105.59	8.64	-46.5	-48.0	23.1	6.02e-01	0	35	0	741343232	63	4572
2026-01-17 23:29:20.12	105.75	8.59	-46.5	-48.0	23.1	6.03e-01	0	35	0	742916096	63	4592
2026-01-17 23:29:21.13	105.93	8.55	-46.5	-48.0	23.1	6.04e-01	0	35	0	745013248	63	4572
2026-01-17 23:29:22.14	106.10	8.50	-46.5	-48.0	23.1	6.03e-01	0	35	0	746586112	63	4581
2026-01-17 23:29:23.15	106.27	8.46	-46.6	-48.1	23.0	6.05e-01	0	35	0	748683264	63	4633
2026-01-17 23:29:24.16	106.43	8.41	-46.4	-47.9	23.2	6.02e-01	0	35	0	750780416	63	4517
2026-01-17 23:29:25.16	106.60	8.37	-46.4	-48.0	23.1	6.04e-01	0	35	0	752353280	63	4562
2026-01-17 23:29:26.17	106.77	8.32	-46.5	-48.1	23.0	6.02e-01	0	35	0	754450432	63	4617
2026-01-17 23:29:27.18	106.94	8.28	-46.6	-48.1	23.0	6.00e-01	0	35	0	756023296	63	4640
2026-01-17 23:29:28.19	107.10	8.23	-46.6	-48.1	23.0	6.03e-01	0	35	0	758120448	63	4636
2026-01-17 23:29:29.20	107.27	8.19	-46.4	-48.0	23.1	6.04e-01	0	35	0	760217600	63	4556
2026-01-17 23:29:30.20	107.43	8.14	-46.4	-48.0	23.1	6.02e-01	0	35	0	761790464	63	4557
2026-01-17 23:29:31.21	107.60	8.10	-46.5	-48.0	23.1	6.03e-01	0	35	0	763887616	63	4589
2026-01-17 23:29:32.22	107.76	8.05	-46.6	-48.2	22.9	6.03e-01	0	35	0	765984768	63	4664
2026-01-17 23:29:33.22	107.93	8.01	-46.6	-48.2	22.8	6.04e-01	0	35	0	767557632	64	4411
2026-01-17 23:29:34.23	108.09	7.96	-46.6	-48.2	22.7	6.04e-01	0	35	0	769654784	64	4436
2026-01-17 23:29:35.24	108.25	7.92	-46.7	-48.3	22.7	6.02e-01	0	35	0	771227648	64	4491
2026-01-17 23:29:36.25	108.42	7.87	-46.9	-48.5	22.5	6.04e-01	0	35	0	773324800	64	4581
2026-01-17 23:29:37.25	108.58	7.83	-46.6	-48.2	22.7	6.03e-01	0	35	0	774897664	64	4413
2026-01-17 23:29:38.26	108.74	7.78	-46.4	-48.0	23.0	6.04e-01	0	35	0	776994816	64	4312
2026-01-17 23:29:39.27	108.90	7.73	-46.6	-48.2	22.8	6.02e-01	0	35	0	779091968	64	4416
2026-01-17 23:29:40.28	109.06	7.69	-46.4	-48.0	23.0	6.02e-01	0	35	0	780664832	64	4292
2026-01-17 23:29:41.29	109.22	7.64	-46.5	-48.1	22.9	6.03e-01	0	35	0	782761984	64	4358
2026-01-17 23:29:42.30	109.38	7.59	-46.6	-48.1	22.9	6.06e-01	0	35	0	784859136	64	4387
2026-01-17 23:29:43.30	109.54	7.55	-46.6	-48.3	22.7	6.03e-01	0	36	0	786432000	64	4445
2026-01-17 23:29:44.31	109.70	7.50	-46.7	-48.3	22.7	6.04e-01	0	35	0	788529152	64	4450
2026-01-17 23:29:45.32	109.85	7.46	-46.7	-48.3	22.7	6.01e-01	0	35	0	790102016	64	4457
2026-01-17 23:29:46.33	110.01	7.41	-46.6	-48.2	22.7	6.05e-01	0	35	0	792199168	64	4440
2026-01-17 23:29:47.34	110.17	7.36	-46.6	-48.2	22.8	6.02e-01	0	35	0	794296320	64	4428
2026-01-17 23:29:48.34	110.32	7.32	-46.6	-48.2	22.8	6.03e-01	0	35	0	795869184	64	4398
2026-01-17 23:29:49.35	110.48	7.27	-46.5	-48.1	22.8	6.03e-01	0	35	0	797966336	64	4380
2026-01-17 23:29:50.36	110.63	7.22	-46.6	-48.2	22.7	6.02e-01	0	35	0	799539200	64	4438
2026-01-17 23:29:51.37	110.79	7.17	-46.6	-48.2	22.8	6.04e-01	0	35	0	801636352	64	4397
2026-01-17 23:29:52.38	110.94	7.13	-46.7	-48.3	22.6	6.04e-01	0	35	0	803209216	64	4461
2026-01-17 23:29:53.39	111.10	7.08	-46.7	-48.3	22.7	6.03e-01	0	35	0	805306368	64	4470
2026-01-17 23:29:54.40	111.25	7.03	-46.7	-48.3	22.7	6.05e-01	0	35	0	807403520	64	4474
2026-01-17 23:29:55.40	111.40	6.99	-46.8	-48.4	22.5	6.02e-01	0	35	0	808976384	64	4541
2026-01-17 23:29:56.41	111.55	6.94	-46.9	-48.5	22.4	6.05e-01	0	35	0	811073536	64	4589
2026-01-17 23:29:57.42	111.70	6.89	-46.9	-48.6	22.3	6.02e-01	0	36	0	813170688	64	4631
2026-01-17 23:29:58.43	111.86	6.84	-46.9	-48.5	22.3	6.04e-01	0	35	0	814743552	64	4596
2026-01-17 23:29:59.44	112.01	6.80	-46.9	-48.6	22.3	6.03e-01	0	35	0	816840704	64	4641
2026-01-17 23:30:00.44	112.15	6.75	-47.0	-48.6	22.3	6.01e-01	0	35	0	818413568	64	4646
2026-01-17 23:30:01.45	112.30	6.70	-46.9	-48.6	22.3	6.05e-01	0	36	0	820510720	64	4620
2026-01-17 23:30:02.46	112.45	6.65	-47.0	-48.7	22.3	6.01e-01	0	35	0	822607872	64	4660
2026-01-17 23:30:03.47	112.60	6.61	-46.9	-48.6	22.3	6.05e-01	0	35	0	824180736	64	4627
2026-01-17 23:30:04.48	112.75	6.56	-46.9	-48.6	22.2	6.04e-01	0	35	0	826277888	64	4645
2026-01-17 23:30:05.48	112.90	6.51	-46.9	-48.6	22.3	6.03e-01	0	35	0	828375040	64	4600
2026-01-17 23:30:06.49	113.04	6.46	-46.9	-48.6	22.3	6.04e-01	0	35	0	829947904	64	4602
2026-01-17 23:30:07.50	113.19	6.41	-47.0	-48.7	22.1	6.03e-01	0	35	0	832045056	64	4678
2026-01-17 23:30:08.51	113.34	6.37	-47.0	-48.7	22.1	6.03e-01	0	35	0	833617920	64	4652
2026-01-17 23:30:09.52	113.48	6.32	-46.9	-48.6	22.2	6.02e-01	0	35	0	835715072	64	4616
2026-01-17 23:30:10.52	113.62	6.27	-46.9	-48.5	22.3	6.03e-01	0	35	0	837287936	64	4596
2026-01-17 23:30:11.53	113.77	6.22	-47.0	-48.7	22.1	6.05e-01	0	35	0	839385088	64	4674
2026-01-17 23:30:12.54	113.91	6.17	-47.0	-48.8	22.0	6.03e-01	0	35	0	841482240	64	4729
2026-01-17 23:30:13.55	114.06	6.13	-47.1	-48.9	21.9	6.05e-01	0	35	0	843055104	64	4773
2026-01-17 23:30:14.56	114.20	6.08	-47.1	-48.9	21.8	6.02e-01	0	35	0	845152256	64	4764
2026-01-17 23:30:15.56	114.34	6.03	-47.1	-48.8	21.9	6.01e-01	0	36	0	846725120	64	4740
2026-01-17 23:30:16.57	114.48	5.98	-47.1	-48.9	21.8	6.02e-01	0	35	0	848822272	64	4761
2026-01-17 23:30:17.58	114.62	5.93	-47.1	-48.9	21.8	6.01e-01	0	35	0	850919424	64	4798
2026-01-17 23:30:18.59	114.76	5.88	-47.3	-49.1	21.6	6.03e-01	0	35	0	852492288	65	4619
2026-01-17 23:30:19.60	114.91	5.84	-47.1	-48.9	21.7	6.04e-01	0	35	0	854589440	65	4525
2026-01-17 23:30:20.60	115.04	5.79	-47.2	-49.0	21.6	6.05e-01	0	35	0	856686592	65	4594
2026-01-17 23:30:21.61	115.18	5.74	-47.0	-48.8	21.8	6.03e-01	0	35	0	858259456	65	4472
2026-01-17 23:30:22.62	115.32	5.69	-47.1	-48.9	21.7	6.03e-01	0	35	0	860356608	65	4527
2026-01-17 23:30:23.63	115.46	5.64	-47.3	-49.1	21.5	6.03e-01	0	35	0	861929472	65	4621
2026-01-17 23:30:24.63	115.60	5.59	-47.2	-49.1	21.5	6.06e-01	0	35	0	864026624	65	4603
2026-01-17 23:30:25.64	115.74	5.55	-47.2	-49.1	21.5	6.05e-01	0	35	0	865599488	65	4611
2026-01-17 23:30:26.65	115.87	5.50	-47.2	-49.0	21.5	6.02e-01	0	36	0	867696640	65	4590
2026-01-17 23:30:27.66	116.01	5.45	-47.3	-49.2	21.3	6.02e-01	0	35	0	869793792	65	4667
2026-01-17 23:30:28.67	116.14	5.40	-47.0	-48.8	21.7	6.02e-01	0	35	0	871366656	65	4486
2026-01-17 23:30:29.68	116.28	5.35	-47.2	-49.0	21.5	6.04e-01	0	35	0	873463808	65	4583
2026-01-17 23:30:30.68	116.41	5.30	-47.4	-49.3	21.2	6.01e-01	0	35	0	875560960	65	4751
2026-01-17 23:30:31.69	116.55	5.25	-47.4	-49.4	21.1	6.03e-01	0	35	0	877133824	65	4760
2026-01-17 23:30:32.70	116.68	5.20	-47.6	-49.6	20.9	6.03e-01	0	35	0	879230976	65	4904
2026-01-17 23:30:33.71	116.82	5.16	-47.6	-49.6	20.7	6.03e-01	0	35	0	880803840	66	4640
2026-01-17 23:30:34.72	116.95	5.11	-47.3	-49.2	21.2	6.06e-01	0	35	0	882900992	66	4399
2026-01-17 23:30:35.72	117.08	5.06	-47.5	-49.5	20.9	6.06e-01	0	35	0	884998144	66	4583
2026-01-17 23:30:36.73	117.21	5.01	-51.0	-55.0	16.3	6.03e-01	0	35	0	886571008	72	6107
2026-01-17 23:30:37.74	117.35	4.96	-54.0	-71.9	3.8	7.43e-01	0	35	104	887095296	78	30093
2026-01-17 23:30:38.75	117.48	4.91	-54.3	-72.1	3.8	7.48e-01	0	35	104	887095296	79	29070
2026-01-17 23:30:39.76	117.61	4.86	-54.5	-72.0	3.8	7.46e-01	0	35	104	887095296	79	28785
2026-01-17 23:30:40.77	117.74	4.81	-54.6	-72.2	3.8	7.44e-01	0	36	104	887095296	79	29602
2026-01-17 23:30:41.78	117.87	4.76	-54.7	-72.4	3.8	7.45e-01	0	35	104	887095296	80	28508
2026-01-17 23:30:42.78	118.00	4.72	-54.8	-72.6	3.8	7.46e-01	0	36	104	887095296	80	29142
2026-01-17 23:30:43.79	118.13	4.67	-54.9	-72.7	3.8	7.45e-01	0	35	104	887095296	80	29437
2026-01-17 23:30:44.80	118.26	4.62	-55.0	-72.8	3.8	7.49e-01	0	35	104	887095296	80	29900
2026-01-17 23:30:45.81	118.38	4.57	-55.0	-72.8	3.8	7.42e-01	0	35	104	887095296	80	29816
2026-01-17 23:30:46.82	118.51	4.52	-55.1	-72.8	3.8	7.42e-01	0	36	104	887095296	80	30009
2026-01-17 23:30:47.82	118.64	4.47	-55.1	-72.9	3.8	7.48e-01	0	35	104	887095296	80	30332
2026-01-17 23:30:48.83	118.76	4.42	-55.2	-73.0	3.8	7.44e-01	0	35	104	887095296	80	30442
2026-01-17 23:30:49.84	118.89	4.37	-55.2	-73.0	3.8	7.44e-01	0	36	104	887095296	80	30606
2026-01-17 23:30:50.85	119.02	4.32	-55.2	-73.0	3.8	7.42e-01	0	35	104	887095296	81	28989
2026-01-17 23:30:51.86	119.14	4.27	-55.3	-73.1	3.8	7.44e-01	0	35	104	887095296	81	29077
2026-01-17 23:30:52.86	119.27	4.23	-55.3	-73.1	3.8	7.45e-01	0	35	104	887095296	81	29121
2026-01-17 23:30:53.87	119.39	4.18	-55.3	-73.1	3.8	7.44e-01	0	35	104	887095296	81	29235
2026-01-17 23:30:54.88	119.52	4.13	-55.3	-73.1	3.8	7.46e-01	0	35	104	887095296	81	29249
2026-01-17 23:30:55.89	119.64	4.08	-55.3	-73.1	3.8	7.42e-01	0	36	104	887095296	81	29339
2026-01-17 23:30:56.90	119.76	4.03	-55.3	-73.1	3.8	7.43e-01	0	36	104	887095296	81	29322
2026-01-17 23:30:57.90	119.88	3.98	-55.4	-73.1	3.8	7.46e-01	0	35	104	887095296	81	29346
2026-01-17 23:30:58.91	120.01	3.93	-55.4	-73.2	3.8	7.46e-01	0	35	104	887095296	81	29467
2026-01-17 23:30:59.92	120.13	3.88	-55.4	-73.2	3.8	7.43e-01	0	36	104	887095296	81	29502
2026-01-17 23:31:00.93	120.25	3.83	-55.4	-73.2	3.8	7.45e-01	0	35	104	887095296	81	29496
2026-01-17 23:31:01.94	120.37	3.78	-55.4	-73.2	3.8	7.45e-01	0	36	104	887095296	81	29575
2026-01-17 23:31:02.94	120.49	3.73	-55.4	-73.2	3.8	7.44e-01	0	35	104	887095296	81	29670
2026-01-17 23:31:03.95	120.61	3.69	-55.4	-73.3	3.8	7.44e-01	0	36	104	887095296	81	29764
2026-01-17 23:31:04.96	120.73	3.64	-55.4	-73.3	3.8	7.47e-01	0	36	104	887095296	81	29738
2026-01-17 23:31:05.96	120.85	3.59	-55.4	-73.2	3.8	7.48e-01	0	36	104	887095296	81	29682
2026-01-17 23:31:06.97	120.97	3.54	-55.4	-73.2	3.8	7.45e-01	0	35	104	887095296	81	29652
2026-01-17 23:31:07.98	121.09	3.49	-55.4	-73.2	3.8	7.47e-01	0	36	104	887095296	81	29602
2026-01-17 23:31:08.99	121.21	3.44	-55.4	-73.2	3.8	7.44e-01	0	36	104	887095296	81	29596
2026-01-17 23:31:10.00	121.32	3.39	-55.4	-73.2	3.8	7.44e-01	0	35	104	887095296	81	29585
2026-01-17 23:31:11.01	121.44	3.34	-55.4	-73.2	3.8	7.47e-01	0	36	104	887095296	81	29607
2026-01-17 23:31:12.02	121.56	3.29	-55.4	-73.2	3.8	7.45e-01	0	35	104	887095296	81	29528
2026-01-17 23:31:13.02	121.67	3.24	-55.4	-73.2	3.8	7.46e-01	0	36	104	887095296	81	29519
2026-01-17 23:31:14.03	121.79	3.20	-55.4	-73.2	3.8	7.45e-01	0	36	104	887095296	81	29492
2026-01-17 23:31:15.04	121.91	3.15	-55.4	-73.2	3.8	7.44e-01	0	36	104	887095296	81	29528
2026-01-17 23:31:16.05	122.02	3.10	-55.4	-73.2	3.8	7.47e-01	0	36	104	887095296	81	29538
2026-01-17 23:31:17.06	122.14	3.05	-55.4	-73.2	3.8	7.47e-01	0	35	104	887095296	81	29508
2026-01-17 23:31:18.06	122.25	3.00	-55.4	-73.2	3.8	7.47e-01	0	36	104	887095296	81	29446
2026-01-17 23:31:19.07	122.36	2.95	-55.4	-73.2	3.8	7.45e-01	0	36	104	887095296	81	29539
2026-01-17 23:31:20.08	122.48	2.90	-55.4	-73.2	3.8	7.45e-01	0	36	104	887095296	81	29502
2026-01-17 23:31:21.09	122.59	2.85	-55.4	-73.2	3.8	7.45e-01	0	36	104	887095296	81	29442
2026-01-17 23:31:22.10	122.70	2.80	-55.4	-73.2	3.8	7.47e-01	0	36	104	887095296	81	29452
2026-01-17 23:31:23.10	122.82	2.75	-55.4	-73.2	3.8	7.45e-01	0	36	104	887095296	81	29467
2026-01-17 23:31:24.11	122.93	2.71	-55.4	-73.2	3.8	7.46e-01	0	36	104	887095296	81	29480
2026-01-17 23:31:25.12	123.04	2.66	-55.4	-73.2	3.8	7.43e-01	0	36	104	887095296	81	29430
2026-01-17 23:31:26.13	123.15	2.61	-55.4	-73.2	3.8	7.47e-01	0	36	104	887095296	81	29464
2026-01-17 23:31:27.14	123.26	2.56	-55.4	-73.2	3.8	7.44e-01	0	36	104	887095296	81	29397
2026-01-17 23:31:28.14	123.37	2.51	-55.3	-73.2	3.8	7.46e-01	0	36	104	887095296	81	29466
2026-01-17 23:31:29.15	123.48	2.46	-55.4	-73.2	3.8	7.46e-01	0	36	104	887095296	81	29410
2026-01-17 23:31:30.16	123.59	2.41	-55.3	-73.2	3.8	7.44e-01	0	36	104	887095296	81	29420
2026-01-17 23:31:31.17	123.70	2.36	-55.3	-73.2	3.8	7.47e-01	0	36	104	887095296	81	29386
2026-01-17 23:31:32.17	123.81	2.32	-55.3	-73.2	3.8	7.44e-01	0	36	104	887095296	81	29427
2026-01-17 23:31:33.19	123.92	2.27	-55.3	-73.2	3.8	7.41e-01	0	36	104	887095296	81	29498
2026-01-17 23:31:34.19	124.03	2.22	-55.3	-73.2	3.8	7.41e-01	0	36	104	887095296	81	29389
2026-01-17 23:31:35.20	124.14	2.17	-55.3	-73.1	3.8	7.47e-01	0	36	104	887095296	81	29329
2026-01-17 23:31:36.21	124.24	2.12	-55.3	-73.2	3.8	7.43e-01	0	36	104	887095296	81	29403
2026-01-17 23:31:37.22	124.35	2.07	-55.3	-73.2	3.8	7.49e-01	0	36	104	887095296	81	29391
2026-01-17 23:31:38.22	124.46	2.02	-55.3	-73.1	3.8	7.46e-01	0	36	104	887095296	81	29333
2026-01-17 23:31:39.23	124.56	1.97	-55.3	-73.1	3.8	7.44e-01	0	36	104	887095296	81	29294
2026-01-17 23:31:40.24	124.67	1.93	-55.3	-73.2	3.8	7.45e-01	0	36	104	887095296	81	29355
2026-01-17 23:31:41.25	124.78	1.88	-55.3	-73.2	3.8	7.47e-01	0	36	104	887095296	81	29351

#Closed at: 2026-01-17 23:31:41
#Recorded file [887 MB]: D:/lorett/data/31041_260118_022142.dat