passes_logs/2026/01/17/R3.2S_Murmansk/R3.2S_Murmansk__20260117_205929_TY-42_rec.log

#Pass ID: 20260117_205929_TY-42
#Satellite: TY-42
#Configuration: TY-42_900M
#almurnet v.1.7.20251203
#Start time: 2026-01-17 20:59:30

#Version: 2.2.20231116
#Station: R3.2S_Murmansk
#Location: 33.079688 lon 68.888172 lat
#TLE: 1 64048U 25103A   26017.54141204  .00008008  00000-0  38191-3 0 09991
#TLE: 2 64048 097.4124 092.9111 0001919 092.8629 297.5859 15.19160543 37202

#Time	Az	El	Level	Level2	SNR	BER	BlckErr	Temp	State	Recorded	gain1	gain2
2026-01-17 20:59:30.71	220.94	2.08	-52.8	-55.0	6.2	0.00e+00	0	41	0	0	77	18217
2026-01-17 20:59:31.71	221.05	2.14	-52.8	-55.0	6.2	0.00e+00	0	41	104	0	77	18307
2026-01-17 20:59:32.72	221.16	2.20	-52.8	-55.0	6.2	0.00e+00	0	41	104	0	77	18244
2026-01-17 20:59:33.73	221.27	2.26	-52.8	-55.0	6.2	0.00e+00	0	41	104	0	77	18196
2026-01-17 20:59:34.73	221.38	2.31	-52.8	-55.0	6.2	0.00e+00	0	41	104	0	77	18192
2026-01-17 20:59:35.74	221.50	2.37	-52.8	-55.0	6.2	0.00e+00	0	41	104	0	77	18265
2026-01-17 20:59:36.75	221.61	2.43	-52.8	-55.0	6.2	0.00e+00	0	41	104	0	77	18226
2026-01-17 20:59:37.76	221.72	2.49	-52.8	-55.0	6.2	0.00e+00	0	41	104	0	77	18231
2026-01-17 20:59:38.76	221.84	2.54	-52.8	-55.0	6.2	0.00e+00	0	42	104	0	77	18234
2026-01-17 20:59:39.77	221.95	2.60	-52.8	-55.0	6.2	0.00e+00	0	42	104	0	77	18193
2026-01-17 20:59:40.78	222.07	2.66	-52.8	-55.0	6.2	0.00e+00	0	42	104	0	77	18187
2026-01-17 20:59:41.79	222.18	2.72	-52.8	-55.0	6.2	0.00e+00	0	41	104	0	77	18191
2026-01-17 20:59:42.80	222.30	2.78	-52.8	-55.0	6.2	0.00e+00	0	42	104	0	77	18208
2026-01-17 20:59:43.80	222.41	2.83	-52.8	-55.0	6.2	0.00e+00	0	42	104	0	77	18191
2026-01-17 20:59:44.81	222.53	2.89	-52.8	-55.0	6.2	0.00e+00	0	42	104	0	77	18204
2026-01-17 20:59:45.82	222.65	2.95	-52.8	-55.0	6.2	0.00e+00	0	42	104	0	77	18185
2026-01-17 20:59:46.83	222.77	3.01	-52.8	-54.9	6.2	0.00e+00	0	42	104	0	77	18161
2026-01-17 20:59:47.83	222.89	3.07	-52.8	-55.0	6.2	0.00e+00	0	42	104	0	77	18237
2026-01-17 20:59:48.84	223.01	3.12	-52.8	-54.9	6.2	0.00e+00	0	42	104	0	77	18179
2026-01-17 20:59:49.85	223.13	3.18	-52.8	-55.0	6.2	0.00e+00	0	42	104	0	77	18195
2026-01-17 20:59:50.86	223.25	3.24	-52.8	-55.0	6.2	0.00e+00	0	42	104	0	77	18217
2026-01-17 20:59:51.86	223.37	3.30	-52.8	-55.0	6.2	0.00e+00	0	42	104	0	77	18210
2026-01-17 20:59:52.87	223.49	3.36	-52.8	-55.0	6.2	0.00e+00	0	42	104	0	77	18191
2026-01-17 20:59:53.88	223.61	3.42	-52.8	-55.0	6.2	0.00e+00	0	42	104	0	77	18193
2026-01-17 20:59:54.89	223.74	3.48	-52.8	-55.0	6.2	0.00e+00	0	42	104	0	77	18237
2026-01-17 20:59:55.90	223.86	3.54	-52.8	-55.0	6.2	0.00e+00	0	42	104	0	77	18202
2026-01-17 20:59:56.91	223.98	3.60	-52.8	-55.0	6.2	0.00e+00	0	43	104	0	77	18215
2026-01-17 20:59:57.92	224.11	3.66	-52.8	-54.9	6.2	0.00e+00	0	42	104	0	77	18160
2026-01-17 20:59:58.92	224.23	3.71	-52.8	-55.0	6.2	0.00e+00	0	43	104	0	77	18219
2026-01-17 20:59:59.93	224.36	3.77	-52.8	-54.9	6.2	0.00e+00	0	43	104	0	77	18161
2026-01-17 21:00:00.94	224.49	3.83	-52.8	-54.9	6.2	0.00e+00	0	43	104	0	77	18131
2026-01-17 21:00:01.95	224.61	3.89	-52.8	-54.9	6.2	0.00e+00	0	43	104	0	77	18139
2026-01-17 21:00:02.96	224.74	3.95	-52.8	-55.0	6.2	0.00e+00	0	43	104	0	77	18227
2026-01-17 21:00:03.96	224.87	4.01	-52.8	-55.0	6.2	0.00e+00	0	43	104	0	77	18225
2026-01-17 21:00:04.97	225.00	4.07	-52.8	-55.0	6.2	0.00e+00	0	43	104	0	77	18187
2026-01-17 21:00:05.98	225.13	4.13	-52.8	-55.0	6.2	0.00e+00	0	43	104	0	77	18238
2026-01-17 21:00:06.99	225.26	4.19	-52.8	-55.0	6.2	0.00e+00	0	43	104	0	77	18210
2026-01-17 21:00:08.00	225.39	4.25	-52.8	-55.0	6.2	0.00e+00	0	43	104	0	77	18235
2026-01-17 21:00:09.00	225.52	4.31	-52.8	-55.0	6.2	0.00e+00	0	43	104	0	77	18212
2026-01-17 21:00:10.01	225.66	4.37	-52.8	-55.0	6.2	0.00e+00	0	43	104	0	77	18192
2026-01-17 21:00:11.02	225.79	4.43	-52.8	-55.0	6.2	0.00e+00	0	43	104	0	77	18203
2026-01-17 21:00:12.03	225.92	4.49	-52.8	-54.9	6.2	0.00e+00	0	43	104	0	77	18178
2026-01-17 21:00:13.04	226.06	4.55	-52.8	-55.0	6.2	0.00e+00	0	43	104	0	77	18212
2026-01-17 21:00:14.04	226.19	4.61	-52.8	-55.0	6.2	0.00e+00	0	43	104	0	77	18192
2026-01-17 21:00:15.05	226.33	4.67	-52.8	-55.0	6.2	0.00e+00	0	43	104	0	77	18279
2026-01-17 21:00:16.06	226.46	4.73	-52.8	-55.0	6.2	0.00e+00	0	43	104	0	77	18229
2026-01-17 21:00:17.07	226.60	4.79	-52.8	-54.9	6.2	0.00e+00	0	43	104	0	77	18169
2026-01-17 21:00:18.08	226.74	4.85	-52.8	-54.9	6.2	0.00e+00	0	43	104	0	77	18173
2026-01-17 21:00:19.08	226.88	4.91	-52.8	-55.0	6.2	0.00e+00	0	43	104	0	77	18204
2026-01-17 21:00:20.09	227.02	4.97	-52.8	-55.0	6.2	0.00e+00	0	43	104	0	77	18194
2026-01-17 21:00:21.10	227.16	5.04	-52.8	-55.0	6.2	0.00e+00	0	43	104	0	77	18236
2026-01-17 21:00:22.11	227.30	5.10	-52.9	-55.1	6.2	0.00e+00	0	43	104	0	77	18444
2026-01-17 21:00:23.12	227.44	5.16	-51.7	-53.8	6.2	0.00e+00	0	44	104	0	75	17878
2026-01-17 21:00:24.12	227.58	5.22	-51.3	-53.5	6.2	0.00e+00	0	43	104	0	74	18210
2026-01-17 21:00:25.14	227.73	5.28	-51.2	-53.4	6.2	0.00e+00	0	43	104	0	74	18023
2026-01-17 21:00:26.14	227.87	5.34	-51.2	-53.4	6.2	0.00e+00	0	43	104	0	74	17995
2026-01-17 21:00:27.15	228.01	5.40	-51.2	-53.4	6.2	0.00e+00	0	43	104	0	74	17999
2026-01-17 21:00:28.16	228.16	5.46	-51.2	-53.4	6.2	0.00e+00	0	43	104	0	74	18019
2026-01-17 21:00:29.17	228.31	5.52	-51.2	-53.3	6.2	0.00e+00	0	44	104	0	74	17869
2026-01-17 21:00:30.18	228.45	5.59	-51.2	-53.3	6.2	0.00e+00	0	43	104	0	74	17901
2026-01-17 21:00:31.19	228.60	5.65	-51.2	-53.3	6.2	0.00e+00	0	43	104	0	74	17895
2026-01-17 21:00:32.20	228.75	5.71	-51.2	-53.3	6.2	0.00e+00	0	44	104	0	74	17877
2026-01-17 21:00:33.20	228.90	5.77	-51.2	-53.3	6.2	0.00e+00	0	43	104	0	74	17941
2026-01-17 21:00:34.21	229.05	5.83	-51.2	-53.3	6.2	0.00e+00	0	44	104	0	74	17801
2026-01-17 21:00:35.22	229.20	5.89	-51.2	-53.3	6.2	0.00e+00	0	44	104	0	74	17945
2026-01-17 21:00:36.23	229.35	5.96	-51.2	-53.3	6.2	0.00e+00	0	43	104	0	74	17919
2026-01-17 21:00:37.24	229.50	6.02	-51.2	-53.3	6.2	0.00e+00	0	44	104	0	74	17936
2026-01-17 21:00:38.25	229.65	6.08	-51.2	-53.3	6.2	0.00e+00	0	44	104	0	74	17907
2026-01-17 21:00:39.26	229.81	6.14	-51.2	-53.3	6.2	0.00e+00	0	43	104	0	74	17922
2026-01-17 21:00:40.26	229.96	6.20	-51.2	-53.3	6.2	0.00e+00	0	44	104	0	74	17962
2026-01-17 21:00:41.27	230.12	6.26	-51.2	-53.3	6.2	0.00e+00	0	44	104	0	74	17894
2026-01-17 21:00:42.28	230.27	6.33	-51.2	-53.3	6.2	0.00e+00	0	44	104	0	74	17883
2026-01-17 21:00:43.29	230.43	6.39	-51.2	-53.3	6.2	0.00e+00	0	44	104	0	74	17934
2026-01-17 21:00:44.30	230.59	6.45	-51.2	-53.3	6.2	0.00e+00	0	44	104	0	74	17882
2026-01-17 21:00:45.31	230.75	6.51	-51.2	-53.3	6.2	0.00e+00	0	44	104	0	74	17956
2026-01-17 21:00:46.32	230.90	6.58	-51.2	-53.3	6.2	0.00e+00	0	44	104	0	74	17920
2026-01-17 21:00:47.32	231.06	6.64	-51.2	-53.3	6.2	0.00e+00	0	44	104	0	74	17932
2026-01-17 21:00:48.33	231.22	6.70	-51.2	-53.3	6.2	0.00e+00	0	44	104	0	74	17961
2026-01-17 21:00:49.34	231.39	6.76	-51.2	-53.4	6.2	0.00e+00	0	44	104	0	74	17979
2026-01-17 21:00:50.35	231.55	6.82	-51.2	-53.3	6.2	0.00e+00	0	44	104	0	74	17954
2026-01-17 21:00:51.36	231.71	6.89	-51.2	-53.3	6.2	0.00e+00	0	44	104	0	74	17936
2026-01-17 21:00:52.37	231.88	6.95	-51.2	-53.3	6.2	0.00e+00	0	44	104	0	74	17852
2026-01-17 21:00:53.38	232.04	7.01	-51.2	-53.3	6.2	0.00e+00	0	44	104	0	74	17970
2026-01-17 21:00:54.38	232.21	7.07	-51.2	-53.3	6.2	0.00e+00	0	44	104	0	74	17921
2026-01-17 21:00:55.39	232.37	7.14	-51.2	-53.3	6.2	0.00e+00	0	44	104	0	74	17900
2026-01-17 21:00:56.40	232.54	7.20	-51.2	-53.3	6.2	0.00e+00	0	44	104	0	74	17967
2026-01-17 21:00:57.41	232.71	7.26	-51.2	-53.3	6.2	0.00e+00	0	44	104	0	74	17920
2026-01-17 21:00:58.42	232.88	7.32	-51.2	-53.3	6.2	0.00e+00	0	44	104	0	74	17950
2026-01-17 21:00:59.42	233.05	7.39	-51.2	-53.3	6.2	0.00e+00	0	44	104	0	74	17936
2026-01-17 21:01:00.43	233.22	7.45	-51.2	-53.3	6.2	0.00e+00	0	44	104	0	74	17913
2026-01-17 21:01:01.43	233.39	7.51	-51.2	-53.3	6.2	0.00e+00	0	44	104	0	74	17920
2026-01-17 21:01:02.44	233.56	7.57	-51.2	-53.3	6.2	0.00e+00	0	44	104	0	74	17894
2026-01-17 21:01:03.45	233.74	7.64	-51.2	-53.3	6.2	0.00e+00	0	44	104	0	74	17898
2026-01-17 21:01:04.46	233.91	7.70	-51.2	-53.4	6.2	0.00e+00	0	44	104	0	74	17974
2026-01-17 21:01:05.47	234.09	7.76	-51.4	-53.5	6.2	0.00e+00	0	44	104	0	74	18307
2026-01-17 21:01:06.48	234.27	7.82	-52.0	-54.2	6.2	0.00e+00	0	44	104	0	74	19733
2026-01-17 21:01:07.48	234.44	7.89	-52.0	-54.2	6.2	0.00e+00	0	44	104	0	74	19750
2026-01-17 21:01:08.49	234.62	7.95	-52.7	-54.8	6.2	0.00e+00	0	44	104	0	75	20112
2026-01-17 21:01:09.50	234.80	8.01	-53.3	-55.4	6.2	0.00e+00	0	44	104	0	77	19186
2026-01-17 21:01:10.50	234.98	8.07	-53.6	-55.7	6.2	0.00e+00	0	44	104	0	77	19897
2026-01-17 21:01:11.51	235.16	8.14	-53.8	-55.9	6.2	0.00e+00	0	44	104	0	78	19149
2026-01-17 21:01:12.52	235.34	8.20	-53.9	-56.1	6.2	0.00e+00	0	44	104	0	78	19516
2026-01-17 21:01:13.53	235.53	8.26	-54.0	-56.2	6.2	0.00e+00	0	45	104	0	78	19706
2026-01-17 21:01:14.54	235.71	8.32	-54.1	-56.2	6.2	0.00e+00	0	44	104	0	78	19788
2026-01-17 21:01:15.54	235.89	8.39	-54.1	-56.3	6.2	0.00e+00	0	44	104	0	78	19945
2026-01-17 21:01:16.55	236.08	8.45	-54.2	-56.3	6.2	0.00e+00	0	44	104	0	78	20089
2026-01-17 21:01:17.56	236.27	8.51	-54.2	-56.3	6.2	0.00e+00	0	44	104	0	78	20147
2026-01-17 21:01:18.57	236.46	8.57	-54.3	-56.4	6.2	0.00e+00	0	44	104	0	79	19093
2026-01-17 21:01:19.58	236.64	8.64	-54.2	-56.4	6.2	0.00e+00	0	44	104	0	79	19129
2026-01-17 21:01:20.58	236.83	8.70	-54.2	-56.4	6.2	0.00e+00	0	44	104	0	79	19067
2026-01-17 21:01:21.59	237.02	8.76	-54.2	-56.4	6.2	0.00e+00	0	44	104	0	79	19069
2026-01-17 21:01:22.60	237.22	8.82	-54.2	-56.3	6.2	0.00e+00	0	44	104	0	79	19024
2026-01-17 21:01:23.61	237.41	8.89	-54.2	-56.4	6.2	0.00e+00	0	44	104	0	79	19042
2026-01-17 21:01:24.62	237.60	8.95	-54.3	-56.4	6.2	0.00e+00	0	44	104	0	79	19194
2026-01-17 21:01:25.62	237.80	9.01	-54.3	-56.4	6.2	0.00e+00	0	44	104	0	79	19198
2026-01-17 21:01:26.63	237.99	9.07	-54.4	-56.5	6.2	0.00e+00	0	44	104	0	79	19408
2026-01-17 21:01:27.64	238.19	9.14	-54.4	-56.5	6.2	0.00e+00	0	44	104	0	79	19413
2026-01-17 21:01:28.65	238.39	9.20	-54.4	-56.6	6.2	0.00e+00	0	44	104	0	79	19501
2026-01-17 21:01:29.66	238.59	9.26	-54.4	-56.6	6.2	0.00e+00	0	45	104	0	79	19535
2026-01-17 21:01:30.66	238.78	9.32	-54.4	-56.6	6.2	0.00e+00	0	44	104	0	79	19527
2026-01-17 21:01:31.67	238.98	9.38	-54.4	-56.6	6.2	0.00e+00	0	45	104	0	79	19550
2026-01-17 21:01:32.68	239.19	9.45	-54.4	-56.6	6.2	0.00e+00	0	45	104	0	79	19484
2026-01-17 21:01:33.69	239.39	9.51	-54.4	-56.6	6.2	0.00e+00	0	45	104	0	79	19514
2026-01-17 21:01:34.70	239.59	9.57	-54.4	-56.5	6.2	0.00e+00	0	45	104	0	79	19471
2026-01-17 21:01:35.71	239.80	9.63	-54.4	-56.6	6.2	0.00e+00	0	44	104	0	79	19556
2026-01-17 21:01:36.71	240.00	9.69	-54.4	-56.6	6.2	0.00e+00	0	45	104	0	79	19569
2026-01-17 21:01:37.72	240.21	9.76	-54.4	-56.6	6.2	0.00e+00	0	45	104	0	79	19520
2026-01-17 21:01:38.72	240.42	9.82	-54.4	-56.5	6.2	0.00e+00	0	45	104	0	79	19417
2026-01-17 21:01:39.73	240.63	9.88	-54.4	-56.5	6.2	0.00e+00	0	45	104	0	79	19437
2026-01-17 21:01:40.74	240.84	9.94	-54.4	-56.5	6.2	0.00e+00	0	45	104	0	79	19420
2026-01-17 21:01:41.75	241.05	10.00	-54.4	-56.5	6.2	0.00e+00	0	45	104	0	79	19421
2026-01-17 21:01:42.75	241.26	10.06	-54.4	-56.6	6.2	0.00e+00	0	45	104	0	79	19554
2026-01-17 21:01:43.76	241.47	10.12	-54.4	-56.5	6.2	0.00e+00	0	44	104	0	79	19451
2026-01-17 21:01:44.77	241.69	10.18	-54.4	-56.5	6.2	0.00e+00	0	45	104	0	79	19360
2026-01-17 21:01:45.78	241.90	10.24	-54.3	-56.5	6.2	0.00e+00	0	45	104	0	79	19349
2026-01-17 21:01:46.79	242.12	10.30	-54.3	-56.5	6.2	0.00e+00	0	45	104	0	79	19311
2026-01-17 21:01:47.80	242.33	10.37	-54.3	-56.5	6.2	0.00e+00	0	45	104	0	79	19298
2026-01-17 21:01:48.81	242.55	10.43	-54.3	-56.5	6.2	0.00e+00	0	45	104	0	79	19290
2026-01-17 21:01:49.82	242.77	10.49	-54.3	-56.4	6.2	0.00e+00	0	45	104	0	79	19250
2026-01-17 21:01:50.82	242.99	10.55	-54.3	-56.5	6.2	0.00e+00	0	45	104	0	79	19270
2026-01-17 21:01:51.83	243.21	10.61	-54.3	-56.5	6.2	0.00e+00	0	45	104	0	79	19281
2026-01-17 21:01:52.84	243.44	10.67	-54.3	-56.5	6.2	0.00e+00	0	45	104	0	79	19279
2026-01-17 21:01:53.85	243.66	10.73	-54.3	-56.5	6.2	0.00e+00	0	45	104	0	79	19258
2026-01-17 21:01:54.85	243.88	10.79	-54.3	-56.4	6.2	0.00e+00	0	45	104	0	79	19221
2026-01-17 21:01:55.86	244.11	10.85	-54.3	-56.4	6.2	0.00e+00	0	45	104	0	79	19185
2026-01-17 21:01:56.87	244.34	10.90	-54.3	-56.4	6.2	0.00e+00	0	45	104	0	79	19198
2026-01-17 21:01:57.88	244.57	10.96	-54.3	-56.4	6.2	0.00e+00	0	45	104	0	79	19182
2026-01-17 21:01:58.88	244.79	11.02	-54.3	-56.4	6.2	0.00e+00	0	45	104	0	79	19175
2026-01-17 21:01:59.89	245.02	11.08	-54.3	-56.4	6.2	0.00e+00	0	45	104	0	79	19228
2026-01-17 21:02:00.90	245.26	11.14	-54.3	-56.4	6.2	0.00e+00	0	45	104	0	79	19162
2026-01-17 21:02:01.91	245.49	11.20	-54.3	-56.4	6.2	0.00e+00	0	45	104	0	79	19129
2026-01-17 21:02:02.92	245.72	11.26	-54.3	-56.4	6.2	0.00e+00	0	45	104	0	79	19122
2026-01-17 21:02:03.92	245.96	11.32	-54.3	-56.4	6.2	0.00e+00	0	45	104	0	79	19169
2026-01-17 21:02:04.93	246.19	11.37	-54.3	-56.4	6.2	0.00e+00	0	45	104	0	79	19108
2026-01-17 21:02:05.94	246.43	11.43	-54.3	-56.4	6.2	0.00e+00	0	45	104	0	79	19067
2026-01-17 21:02:06.94	246.67	11.49	-54.3	-56.5	6.2	0.00e+00	0	45	104	0	79	19275
2026-01-17 21:02:07.95	246.90	11.55	-54.4	-56.5	6.2	0.00e+00	0	45	104	0	79	19445
2026-01-17 21:02:08.96	247.15	11.60	-54.4	-56.6	6.2	0.00e+00	0	45	104	0	79	19502
2026-01-17 21:02:09.97	247.39	11.66	-54.5	-56.6	6.2	0.00e+00	0	45	104	0	79	19556
2026-01-17 21:02:10.98	247.63	11.72	-54.5	-56.6	6.2	0.00e+00	0	45	104	0	79	19614
2026-01-17 21:02:11.98	247.87	11.77	-54.5	-56.6	6.2	0.00e+00	0	45	104	0	79	19550
2026-01-17 21:02:12.99	248.12	11.83	-54.4	-56.6	6.2	0.00e+00	0	45	104	0	79	19568
2026-01-17 21:02:14.00	248.36	11.88	-54.4	-56.6	6.2	0.00e+00	0	45	104	0	79	19493
2026-01-17 21:02:15.01	248.61	11.94	-54.4	-56.6	6.2	0.00e+00	0	45	104	0	79	19511
2026-01-17 21:02:16.02	248.86	12.00	-54.4	-56.5	6.2	0.00e+00	0	45	104	0	79	19413
2026-01-17 21:02:17.02	249.10	12.05	-54.3	-56.5	6.2	0.00e+00	0	45	104	0	79	19326
2026-01-17 21:02:18.03	249.35	12.11	-54.3	-56.4	6.2	0.00e+00	0	45	104	0	79	19242
2026-01-17 21:02:19.04	249.61	12.16	-54.3	-56.4	6.2	0.00e+00	0	45	104	0	79	19097
2026-01-17 21:02:20.05	249.86	12.21	-54.2	-56.3	6.2	0.00e+00	0	45	104	0	79	18977
2026-01-17 21:02:21.06	250.11	12.27	-54.1	-56.2	6.2	0.00e+00	0	45	104	0	79	18723
2026-01-17 21:02:22.06	250.36	12.32	-54.0	-56.1	6.2	0.00e+00	0	45	104	0	79	18521
2026-01-17 21:02:23.07	250.62	12.38	-53.8	-55.9	6.2	0.00e+00	0	45	104	0	79	18141
2026-01-17 21:02:24.08	250.88	12.43	-53.7	-55.8	6.2	0.00e+00	0	45	104	0	78	18847
2026-01-17 21:02:25.09	251.14	12.48	-44.8	-44.8	10.0	0.00e+00	8023	46	104	0	61	14126
2026-01-17 21:02:26.10	251.39	12.53	-35.8	-35.6	14.5	1.75e-02	0	46	0	100663296	43	13855
2026-01-17 21:02:27.11	251.65	12.59	-38.1	-38.0	13.2	1.75e-02	0	46	0	218103808	47	14446
2026-01-17 21:02:28.12	251.92	12.64	-37.1	-37.0	13.8	3.72e-02	0	47	0	335544320	46	13719
2026-01-17 21:02:29.12	252.18	12.69	-43.4	-43.4	11.0	3.72e-02	11005	48	0	452984832	58	14372
2026-01-17 21:02:30.13	252.44	12.74	-36.5	-36.4	14.1	3.72e-02	0	47	0	562036736	45	13520
2026-01-17 21:02:31.14	252.70	12.79	-37.0	-36.9	13.8	3.72e-02	0	47	0	679477248	44	15222
2026-01-17 21:02:32.15	252.97	12.84	-34.2	-34.1	15.2	3.54e-02	0	47	0	788529152	40	13911
2026-01-17 21:02:33.16	253.24	12.89	-34.3	-34.2	15.1	3.54e-02	0	47	0	897581056	40	14055
2026-01-17 21:02:34.16	253.50	12.94	-34.0	-33.9	15.3	3.54e-02	0	47	0	1015021568	39	14435
2026-01-17 21:02:35.17	253.77	12.99	-33.9	-33.8	15.3	4.53e-03	0	47	0	1124073472	39	14151
2026-01-17 21:02:36.18	254.04	13.04	-34.0	-34.0	15.3	4.53e-03	0	47	0	1241513984	39	14458
2026-01-17 21:02:37.19	254.31	13.09	-33.9	-33.8	15.3	4.53e-03	0	47	0	1350565888	39	14271
2026-01-17 21:02:38.20	254.58	13.14	-33.9	-33.8	15.3	3.59e-03	0	47	0	1459617792	39	14195
2026-01-17 21:02:39.21	254.85	13.19	-33.9	-33.8	15.4	3.59e-03	0	47	0	1577058304	39	14127
2026-01-17 21:02:40.22	255.13	13.23	-33.9	-33.8	15.4	3.59e-03	0	47	0	1702887424	39	14138
2026-01-17 21:02:41.23	255.40	13.28	-33.8	-33.8	15.3	3.30e-03	0	47	0	1811939328	39	14121
2026-01-17 21:02:42.23	255.68	13.33	-33.8	-33.7	15.4	3.30e-03	0	47	0	1920991232	39	13963
2026-01-17 21:02:43.24	255.95	13.37	-33.7	-33.6	15.4	3.05e-03	0	48	0	2038431744	39	13934
2026-01-17 21:02:44.25	256.23	13.42	-33.8	-33.7	15.4	3.05e-03	0	47	0	2147483648	39	14034
2026-01-17 21:02:45.26	256.51	13.47	-33.8	-33.7	15.4	2.79e-03	0	48	0	2264924160	39	14036
2026-01-17 21:02:46.26	256.79	13.51	-33.8	-33.8	15.4	2.79e-03	0	48	0	2373976064	39	14117
2026-01-17 21:02:47.27	257.07	13.55	-33.8	-33.7	15.4	2.79e-03	0	48	0	2483027968	39	14068
2026-01-17 21:02:48.28	257.35	13.60	-33.8	-33.7	15.4	3.23e-03	0	48	0	2600468480	39	13987
2026-01-17 21:02:49.29	257.63	13.64	-33.8	-33.7	15.4	3.23e-03	0	48	0	2709520384	39	13951
2026-01-17 21:02:50.29	257.91	13.69	-33.7	-33.6	15.4	3.23e-03	0	48	0	2826960896	39	13914
2026-01-17 21:02:51.30	258.20	13.73	-33.7	-33.6	15.4	2.86e-03	0	48	0	2936012800	39	13793
2026-01-17 21:02:52.31	258.48	13.77	-33.6	-33.5	15.4	2.86e-03	0	48	0	3045064704	39	13768
2026-01-17 21:02:53.31	258.77	13.81	-33.7	-33.6	15.4	2.86e-03	0	48	0	3162505216	39	13837
2026-01-17 21:02:54.32	259.06	13.85	-33.8	-33.7	15.4	2.79e-03	0	48	0	3288334336	39	13965
2026-01-17 21:02:55.33	259.34	13.89	-33.6	-33.5	15.4	2.79e-03	0	48	0	3397386240	39	13740
2026-01-17 21:02:56.34	259.63	13.93	-33.6	-33.5	15.4	2.86e-03	0	48	0	3506438144	39	13765
2026-01-17 21:02:57.34	259.92	13.97	-33.6	-33.5	15.4	2.86e-03	0	48	0	3623878656	39	13696
2026-01-17 21:02:58.35	260.21	14.01	-33.6	-33.5	15.4	2.86e-03	0	48	0	3732930560	39	13777
2026-01-17 21:02:59.36	260.50	14.05	-33.7	-33.6	15.4	2.67e-03	0	48	0	3850371072	39	13835
2026-01-17 21:03:00.37	260.80	14.09	-33.6	-33.5	15.4	2.67e-03	0	48	0	3959422976	39	13718
2026-01-17 21:03:01.38	261.09	14.13	-33.6	-33.5	15.5	2.67e-03	0	48	0	4076863488	39	13693
2026-01-17 21:03:02.38	261.38	14.16	-33.5	-33.4	15.5	2.82e-03	0	48	0	4185915392	39	13584
2026-01-17 21:03:03.39	261.68	14.20	-33.6	-33.5	15.4	2.82e-03	0	48	0	4294967296	39	13745
2026-01-17 21:03:04.40	261.97	14.24	-33.6	-33.5	15.5	2.82e-03	0	48	0	4412407808	39	13691
2026-01-17 21:03:05.41	262.27	14.27	-33.5	-33.4	15.5	2.56e-03	0	48	0	4521459712	39	13507
2026-01-17 21:03:06.41	262.57	14.31	-33.6	-33.5	15.5	2.56e-03	0	48	0	4638900224	39	13662
2026-01-17 21:03:07.42	262.87	14.34	-33.5	-33.4	15.5	2.56e-03	0	48	0	4756340736	39	13580
2026-01-17 21:03:08.42	263.16	14.37	-33.6	-33.5	15.4	2.54e-03	0	48	0	4873781248	39	13658
2026-01-17 21:03:09.43	263.46	14.41	-33.5	-33.4	15.5	2.54e-03	0	49	0	4982833152	39	13563
2026-01-17 21:03:10.44	263.76	14.44	-33.6	-33.5	15.4	2.54e-03	0	48	0	5100273664	39	13679
2026-01-17 21:03:11.45	264.07	14.47	-33.6	-33.5	15.4	2.78e-03	0	49	0	5209325568	39	13712
2026-01-17 21:03:12.45	264.37	14.50	-33.5	-33.4	15.5	2.78e-03	0	49	0	5318377472	39	13591
2026-01-17 21:03:13.46	264.67	14.53	-33.5	-33.4	15.4	2.79e-03	0	48	0	5435817984	39	13608
2026-01-17 21:03:14.47	264.97	14.56	-33.6	-33.5	15.4	2.79e-03	0	49	0	5544869888	39	13716
2026-01-17 21:03:15.48	265.28	14.59	-33.7	-33.6	15.4	2.72e-03	0	48	0	5662310400	39	13813
2026-01-17 21:03:16.48	265.58	14.62	-33.6	-33.5	15.5	2.72e-03	0	48	0	5771362304	39	13748
2026-01-17 21:03:17.49	265.89	14.65	-33.6	-33.5	15.4	2.72e-03	0	49	0	5880414208	39	13784
2026-01-17 21:03:18.50	266.19	14.68	-33.5	-33.5	15.5	2.96e-03	0	49	0	5997854720	39	13636
2026-01-17 21:03:19.51	266.50	14.71	-33.7	-33.6	15.4	2.96e-03	0	48	0	6106906624	39	13941
2026-01-17 21:03:20.52	266.81	14.73	-33.7	-33.6	15.4	2.96e-03	0	49	0	6232735744	39	13881
2026-01-17 21:03:21.52	267.11	14.76	-33.6	-33.5	15.4	3.29e-03	0	49	0	6341787648	39	13741
2026-01-17 21:03:22.53	267.42	14.78	-33.7	-33.6	15.4	3.29e-03	0	48	0	6459228160	39	13807
2026-01-17 21:03:23.54	267.73	14.81	-33.7	-33.6	15.4	3.29e-03	0	49	0	6568280064	39	13866
2026-01-17 21:03:24.55	268.04	14.83	-33.7	-33.6	15.4	2.99e-03	0	49	0	6685720576	39	13913
2026-01-17 21:03:25.55	268.35	14.85	-33.7	-33.6	15.4	2.99e-03	0	49	0	6794772480	39	13864
2026-01-17 21:03:26.56	268.66	14.88	-33.6	-33.5	15.4	2.99e-03	0	49	0	6903824384	39	13783
2026-01-17 21:03:27.57	268.97	14.90	-33.6	-33.5	15.5	3.16e-03	0	49	0	7021264896	39	13657
2026-01-17 21:03:28.58	269.29	14.92	-33.6	-33.5	15.4	3.16e-03	0	49	0	7130316800	39	13778
2026-01-17 21:03:29.58	269.60	14.94	-33.6	-33.5	15.5	3.14e-03	0	49	0	7247757312	39	13664
2026-01-17 21:03:30.59	269.91	14.96	-33.7	-33.6	15.4	3.14e-03	0	49	0	7356809216	39	13812
2026-01-17 21:03:31.60	270.22	14.98	-33.6	-33.5	15.4	3.14e-03	0	49	0	7474249728	39	13761
2026-01-17 21:03:32.61	270.54	15.00	-33.6	-33.5	15.4	3.08e-03	0	49	0	7583301632	39	13754
2026-01-17 21:03:33.62	270.85	15.01	-33.6	-33.5	15.4	3.08e-03	0	49	0	7709130752	39	13765
2026-01-17 21:03:34.62	271.17	15.03	-33.6	-33.5	15.4	3.08e-03	0	49	0	7818182656	39	13745
2026-01-17 21:03:35.63	271.48	15.05	-33.7	-33.6	15.4	2.92e-03	0	49	0	7935623168	39	13872
2026-01-17 21:03:36.64	271.80	15.06	-33.7	-33.6	15.4	2.92e-03	0	49	0	8044675072	39	13938
2026-01-17 21:03:37.65	272.11	15.08	-33.7	-33.5	15.4	3.17e-03	0	49	0	8153726976	39	13788
2026-01-17 21:03:38.66	272.43	15.09	-33.7	-33.6	15.4	3.17e-03	0	49	0	8271167488	39	13814
2026-01-17 21:03:39.67	272.75	15.10	-33.8	-33.6	15.4	3.17e-03	0	49	0	8380219392	39	13941
2026-01-17 21:03:40.67	273.06	15.12	-33.7	-33.6	15.3	3.18e-03	0	49	0	8497659904	39	13863
2026-01-17 21:03:41.68	273.38	15.13	-33.8	-33.7	15.3	3.18e-03	0	49	0	8606711808	39	13976
2026-01-17 21:03:42.69	273.70	15.14	-33.7	-33.6	15.4	3.18e-03	0	49	0	8715763712	39	13813
2026-01-17 21:03:43.70	274.01	15.15	-33.6	-33.5	15.4	3.18e-03	0	49	0	8833204224	39	13783
2026-01-17 21:03:44.70	274.33	15.16	-33.7	-33.6	15.4	3.02e-03	0	49	0	8942256128	39	13868
2026-01-17 21:03:45.71	274.65	15.17	-33.7	-33.6	15.3	3.02e-03	0	49	0	9059696640	39	13938
2026-01-17 21:03:46.72	274.97	15.18	-33.7	-33.6	15.4	3.44e-03	0	49	0	9177137152	39	13884
2026-01-17 21:03:47.72	275.28	15.19	-33.7	-33.6	15.3	3.44e-03	0	49	0	9294577664	39	13870
2026-01-17 21:03:48.73	275.60	15.19	-33.7	-33.6	15.3	3.44e-03	0	49	0	9403629568	39	13882
2026-01-17 21:03:49.74	275.92	15.20	-33.7	-33.6	15.3	3.23e-03	0	49	0	9521070080	39	13943
2026-01-17 21:03:50.75	276.24	15.20	-33.7	-33.6	15.3	3.23e-03	0	49	0	9630121984	39	13889
2026-01-17 21:03:51.76	276.56	15.21	-33.8	-33.7	15.3	3.03e-03	0	49	0	9739173888	39	13976
2026-01-17 21:03:52.76	276.88	15.21	-33.8	-33.7	15.3	3.03e-03	0	49	0	9856614400	39	14000
2026-01-17 21:03:53.77	277.20	15.22	-33.8	-33.7	15.3	3.12e-03	0	49	0	9965666304	39	14025
2026-01-17 21:03:54.78	277.52	15.22	-33.6	-33.5	15.4	3.12e-03	0	49	0	10083106816	39	13761
2026-01-17 21:03:55.79	277.84	15.22	-33.7	-33.6	15.3	3.12e-03	0	49	0	10192158720	39	13844
2026-01-17 21:03:56.80	278.16	15.22	-33.7	-33.6	15.3	3.12e-03	0	49	0	10309599232	39	13892
2026-01-17 21:03:57.80	278.47	15.22	-33.7	-33.6	15.3	3.05e-03	0	49	0	10418651136	39	13936
2026-01-17 21:03:58.81	278.79	15.22	-33.7	-33.6	15.3	3.05e-03	0	49	0	10527703040	39	13917
2026-01-17 21:03:59.82	279.11	15.22	-33.7	-33.6	15.3	2.98e-03	0	49	0	10653532160	39	13890
2026-01-17 21:04:00.83	279.43	15.22	-33.7	-33.6	15.3	2.98e-03	0	49	0	10762584064	39	13931
2026-01-17 21:04:01.83	279.75	15.21	-33.7	-33.6	15.3	3.03e-03	0	49	0	10880024576	39	13873
2026-01-17 21:04:02.84	280.07	15.21	-33.8	-33.7	15.3	3.03e-03	0	49	0	10989076480	39	13970
2026-01-17 21:04:03.85	280.39	15.21	-33.9	-33.8	15.2	3.03e-03	0	49	0	11106516992	39	14156
2026-01-17 21:04:04.85	280.70	15.20	-33.8	-33.7	15.3	3.39e-03	0	49	0	11215568896	39	14023
2026-01-17 21:04:05.86	281.02	15.20	-33.8	-33.7	15.3	3.39e-03	0	50	0	11333009408	39	14106
2026-01-17 21:04:06.87	281.34	15.19	-33.9	-33.8	15.2	3.39e-03	0	49	0	11442061312	39	14196
2026-01-17 21:04:07.88	281.66	15.18	-33.9	-33.8	15.2	3.46e-03	0	49	0	11551113216	39	14265
2026-01-17 21:04:08.88	281.98	15.17	-34.0	-33.9	15.2	3.46e-03	0	49	0	11668553728	39	14325
2026-01-17 21:04:09.89	282.30	15.17	-34.0	-34.0	15.2	3.46e-03	0	49	0	11777605632	39	14441
2026-01-17 21:04:10.90	282.61	15.16	-34.0	-33.9	15.2	3.91e-03	0	50	0	11895046144	39	14343
2026-01-17 21:04:11.91	282.93	15.15	-34.0	-33.9	15.2	3.91e-03	0	49	0	12004098048	39	14382
2026-01-17 21:04:12.92	283.25	15.13	-34.0	-33.9	15.2	3.91e-03	0	49	0	12129927168	39	14432
2026-01-17 21:04:13.92	283.56	15.12	-34.1	-34.0	15.2	3.70e-03	0	49	0	12238979072	39	14499
2026-01-17 21:04:14.93	283.88	15.11	-34.0	-33.9	15.2	3.70e-03	0	49	0	12356419584	39	14403
2026-01-17 21:04:15.94	284.20	15.10	-34.0	-33.9	15.2	3.70e-03	0	49	0	12465471488	39	14393
2026-01-17 21:04:16.95	284.52	15.08	-34.0	-33.9	15.2	3.70e-03	0	49	0	12574523392	39	14438
2026-01-17 21:04:17.96	284.83	15.07	-34.0	-34.0	15.2	4.18e-03	0	50	0	12691963904	39	14441
2026-01-17 21:04:18.96	285.14	15.05	-34.1	-34.0	15.2	4.18e-03	0	49	0	12801015808	39	14465
2026-01-17 21:04:19.97	285.46	15.04	-34.1	-34.0	15.1	4.38e-03	0	50	0	12918456320	39	14547
2026-01-17 21:04:20.98	285.77	15.02	-34.2	-34.1	15.1	4.38e-03	0	49	0	13027508224	39	14682
2026-01-17 21:04:21.99	286.09	15.00	-34.1	-34.0	15.1	4.17e-03	0	50	0	13136560128	39	14493
2026-01-17 21:04:23.00	286.40	14.99	-34.2	-34.1	15.1	4.17e-03	0	50	0	13254000640	39	14690
2026-01-17 21:04:24.00	286.71	14.97	-34.2	-34.1	15.1	4.17e-03	0	49	0	13363052544	39	14735
2026-01-17 21:04:25.02	287.03	14.95	-34.2	-34.1	15.1	4.17e-03	0	49	0	13480493056	39	14679
2026-01-17 21:04:26.02	287.34	14.93	-34.2	-34.0	15.1	4.58e-03	0	50	0	13597933568	39	14605
2026-01-17 21:04:27.03	287.65	14.91	-34.2	-34.1	15.1	4.58e-03	0	50	0	13715374080	39	14688
2026-01-17 21:04:28.04	287.96	14.89	-34.1	-34.0	15.1	4.58e-03	0	50	0	13824425984	39	14588
2026-01-17 21:04:29.05	288.27	14.86	-34.1	-34.0	15.1	3.96e-03	0	49	0	13941866496	39	14547
2026-01-17 21:04:30.06	288.58	14.84	-34.2	-34.1	15.1	3.96e-03	0	49	0	14050918400	39	14649
2026-01-17 21:04:31.06	288.89	14.82	-34.2	-34.1	15.1	4.35e-03	0	50	0	14159970304	39	14701
2026-01-17 21:04:32.07	289.20	14.79	-34.2	-34.1	15.1	4.35e-03	0	50	0	14277410816	39	14632
2026-01-17 21:04:33.08	289.51	14.77	-34.2	-34.1	15.1	4.35e-03	0	50	0	14386462720	39	14769
2026-01-17 21:04:34.09	289.82	14.74	-34.2	-34.1	15.1	4.52e-03	0	50	0	14503903232	39	14710
2026-01-17 21:04:35.10	290.13	14.72	-34.2	-34.1	15.1	4.52e-03	0	50	0	14612955136	39	14618
2026-01-17 21:04:36.10	290.43	14.69	-34.3	-34.2	15.1	4.52e-03	0	49	0	14730395648	39	14800
2026-01-17 21:04:37.11	290.74	14.66	-34.3	-34.2	15.1	4.31e-03	0	50	0	14839447552	39	14934
2026-01-17 21:04:38.12	291.04	14.64	-34.1	-34.0	15.2	4.31e-03	0	50	0	14965276672	39	14568
2026-01-17 21:04:39.12	291.34	14.61	-34.2	-34.1	15.1	4.36e-03	0	50	0	15074328576	39	14629
2026-01-17 21:04:40.13	291.65	14.58	-34.3	-34.2	15.1	4.36e-03	0	50	0	15191769088	39	14823
2026-01-17 21:04:41.14	291.95	14.55	-34.3	-34.2	15.1	4.36e-03	0	50	0	15300820992	39	14903
2026-01-17 21:04:42.15	292.25	14.52	-34.3	-34.2	15.1	4.36e-03	0	50	0	15409872896	39	14842
2026-01-17 21:04:43.16	292.56	14.49	-34.4	-34.3	15.1	4.35e-03	0	50	0	15527313408	39	15023
2026-01-17 21:04:44.17	292.86	14.46	-34.5	-34.4	15.1	4.35e-03	0	50	0	15636365312	39	15185
2026-01-17 21:04:45.18	293.16	14.42	-34.2	-34.1	15.2	4.35e-03	0	49	0	15753805824	39	14692
2026-01-17 21:04:46.18	293.46	14.39	-34.3	-34.2	15.2	4.53e-03	0	50	0	15862857728	39	14820
2026-01-17 21:04:47.20	293.76	14.36	-34.3	-34.1	15.2	4.53e-03	0	50	0	15971909632	39	14769
2026-01-17 21:04:48.20	294.05	14.32	-34.4	-34.3	15.1	4.53e-03	0	50	0	16089350144	39	15098
2026-01-17 21:04:49.21	294.35	14.29	-34.4	-34.2	15.2	4.32e-03	0	50	0	16198402048	39	14944
2026-01-17 21:04:50.22	294.65	14.25	-34.3	-34.2	15.2	4.32e-03	0	50	0	16324231168	39	14839
2026-01-17 21:04:51.22	294.94	14.22	-34.3	-34.2	15.1	4.22e-03	0	49	0	16433283072	39	14907
2026-01-17 21:04:52.23	295.23	14.18	-34.3	-34.2	15.2	4.22e-03	0	50	0	16550723584	39	14885
2026-01-17 21:04:53.24	295.53	14.15	-34.4	-34.3	15.1	4.34e-03	0	50	0	16659775488	39	15084
2026-01-17 21:04:54.25	295.82	14.11	-34.4	-34.3	15.2	4.34e-03	0	50	0	16777216000	39	15067
2026-01-17 21:04:55.25	296.11	14.07	-34.4	-34.3	15.2	4.62e-03	0	50	0	16886267904	39	14993
2026-01-17 21:04:56.26	296.40	14.03	-34.4	-34.3	15.2	4.62e-03	0	50	0	16995319808	39	14978
2026-01-17 21:04:57.27	296.69	13.99	-34.5	-34.4	15.2	4.62e-03	0	50	0	17112760320	39	15144
2026-01-17 21:04:58.28	296.98	13.96	-34.5	-34.4	15.1	4.07e-03	0	50	0	17221812224	39	15254
2026-01-17 21:04:59.28	297.27	13.92	-34.7	-34.6	15.1	4.07e-03	0	50	0	17339252736	39	15475
2026-01-17 21:05:00.29	297.56	13.88	-34.4	-34.3	15.2	4.07e-03	0	50	0	17448304640	39	14989
2026-01-17 21:05:01.30	297.84	13.83	-34.5	-34.4	15.2	4.07e-03	0	50	0	17565745152	39	15156
2026-01-17 21:05:02.31	298.13	13.79	-34.5	-34.4	15.1	4.66e-03	0	50	0	17674797056	39	15204
2026-01-17 21:05:03.32	298.42	13.75	-34.4	-34.2	15.2	4.66e-03	0	50	0	17800626176	39	14945
2026-01-17 21:05:04.32	298.70	13.71	-34.4	-34.3	15.2	4.12e-03	0	50	0	17909678080	39	14999
2026-01-17 21:05:05.33	298.98	13.67	-34.5	-34.4	15.2	4.12e-03	0	50	0	18018729984	39	15215
2026-01-17 21:05:06.34	299.26	13.62	-34.5	-34.4	15.2	4.12e-03	0	50	0	18136170496	39	15178
2026-01-17 21:05:07.35	299.54	13.58	-34.4	-34.3	15.2	4.34e-03	0	50	0	18245222400	39	15113
2026-01-17 21:05:08.36	299.82	13.54	-34.6	-34.5	15.2	4.34e-03	0	50	0	18362662912	39	15325
2026-01-17 21:05:09.36	300.10	13.49	-34.7	-34.6	15.1	4.15e-03	0	50	0	18471714816	39	15490
2026-01-17 21:05:10.37	300.38	13.45	-34.6	-34.5	15.1	4.15e-03	0	50	0	18589155328	39	15448
2026-01-17 21:05:11.38	300.66	13.40	-34.4	-34.3	15.3	4.15e-03	0	50	0	18698207232	39	15100
2026-01-17 21:05:12.39	300.93	13.35	-34.5	-34.4	15.2	4.21e-03	0	50	0	18807259136	39	15131
2026-01-17 21:05:13.40	301.21	13.31	-34.6	-34.5	15.2	4.21e-03	0	50	0	18924699648	39	15350
2026-01-17 21:05:14.41	301.48	13.26	-34.7	-34.6	15.2	4.84e-03	0	50	0	19033751552	39	15480
2026-01-17 21:05:15.41	301.75	13.22	-34.6	-34.5	15.2	4.84e-03	0	50	0	19151192064	39	15427
2026-01-17 21:05:16.42	302.03	13.17	-34.7	-34.6	15.1	4.84e-03	0	50	0	19268632576	40	14751
2026-01-17 21:05:17.42	302.29	13.12	-34.6	-34.5	15.2	5.20e-03	0	50	0	19386073088	40	14575
2026-01-17 21:05:18.43	302.56	13.07	-34.7	-34.6	15.1	5.20e-03	0	50	0	19495124992	40	14723
2026-01-17 21:05:19.44	302.83	13.02	-34.7	-34.6	15.2	5.40e-03	0	50	0	19612565504	40	14640
2026-01-17 21:05:20.45	303.10	12.97	-34.9	-34.7	15.1	5.40e-03	0	50	0	19721617408	40	14946
2026-01-17 21:05:21.46	303.37	12.92	-34.7	-34.6	15.2	5.40e-03	0	50	0	19830669312	40	14661
2026-01-17 21:05:22.46	303.63	12.88	-34.8	-34.7	15.1	5.04e-03	0	50	0	19948109824	40	14835
2026-01-17 21:05:23.47	303.90	12.82	-34.8	-34.7	15.1	5.04e-03	0	50	0	20057161728	40	14845
2026-01-17 21:05:24.48	304.16	12.77	-34.9	-34.8	15.0	5.04e-03	0	50	0	20174602240	40	15079
2026-01-17 21:05:25.49	304.42	12.72	-34.7	-34.6	15.2	5.90e-03	0	50	0	20283654144	40	14686
2026-01-17 21:05:26.50	304.68	12.67	-34.6	-34.5	15.2	5.90e-03	0	50	0	20392706048	40	14465
2026-01-17 21:05:27.50	304.94	12.62	-34.7	-34.5	15.2	5.22e-03	0	50	0	20510146560	40	14603
2026-01-17 21:05:28.51	305.20	12.57	-34.6	-34.5	15.2	5.22e-03	0	50	0	20619198464	40	14514
2026-01-17 21:05:29.51	305.46	12.52	-34.6	-34.6	15.2	5.22e-03	0	50	0	20736638976	40	14609
2026-01-17 21:05:30.52	305.72	12.47	-34.7	-34.6	15.2	5.10e-03	0	50	0	20854079488	40	14633
2026-01-17 21:05:31.53	305.97	12.41	-34.6	-34.5	15.2	5.10e-03	0	50	0	20971520000	40	14463
2026-01-17 21:05:32.54	306.23	12.36	-34.6	-34.5	15.2	5.10e-03	0	50	0	21080571904	40	14554
2026-01-17 21:05:33.54	306.48	12.31	-34.7	-34.6	15.2	4.69e-03	0	50	0	21198012416	40	14686
2026-01-17 21:05:34.55	306.73	12.25	-34.8	-34.7	15.2	4.69e-03	0	50	0	21307064320	40	14784
2026-01-17 21:05:35.56	306.98	12.20	-34.8	-34.7	15.2	4.69e-03	0	50	0	21416116224	40	14777
2026-01-17 21:05:36.57	307.23	12.14	-34.7	-34.6	15.2	4.98e-03	0	50	0	21533556736	40	14638
2026-01-17 21:05:37.56	307.48	12.09	-34.8	-34.6	15.2	4.98e-03	0	50	0	21642608640	40	14769
2026-01-17 21:05:38.57	307.73	12.04	-34.8	-34.7	15.2	4.98e-03	0	50	0	21760049152	40	14818
2026-01-17 21:05:39.58	307.98	11.98	-34.9	-34.8	15.1	4.93e-03	0	50	0	21869101056	40	15114
2026-01-17 21:05:40.59	308.22	11.93	-34.9	-34.8	15.1	4.93e-03	0	50	0	21986541568	40	15100
2026-01-17 21:05:41.59	308.47	11.87	-34.8	-34.7	15.1	4.93e-03	0	50	0	22095593472	40	14889
2026-01-17 21:05:42.60	308.71	11.82	-34.8	-34.7	15.2	4.93e-03	0	50	0	22204645376	40	14871
2026-01-17 21:05:43.61	308.95	11.76	-34.8	-34.7	15.1	5.76e-03	0	50	0	22322085888	40	14850
2026-01-17 21:05:44.62	309.20	11.70	-35.0	-34.8	15.1	5.76e-03	0	50	0	22447915008	40	15115
2026-01-17 21:05:45.62	309.43	11.65	-34.9	-34.8	15.1	5.13e-03	0	50	0	22556966912	40	15056
2026-01-17 21:05:46.63	309.67	11.59	-35.0	-34.9	15.1	5.13e-03	0	50	0	22666018816	40	15173
2026-01-17 21:05:47.64	309.91	11.53	-35.0	-34.9	15.1	5.13e-03	0	50	0	22783459328	40	15166
2026-01-17 21:05:48.64	310.15	11.48	-35.0	-34.9	15.0	6.13e-03	0	50	0	22892511232	40	15245
2026-01-17 21:05:49.65	310.39	11.42	-35.0	-34.9	15.0	6.13e-03	0	50	0	23009951744	40	15220
2026-01-17 21:05:50.66	310.62	11.36	-35.2	-35.1	15.0	6.13e-03	0	50	0	23119003648	40	15474
2026-01-17 21:05:51.67	310.86	11.30	-35.0	-34.9	15.1	6.13e-03	0	50	0	23228055552	40	15278
2026-01-17 21:05:52.67	311.09	11.25	-35.0	-34.9	15.0	6.08e-03	0	50	0	23345496064	40	15257
2026-01-17 21:05:53.68	311.32	11.19	-35.1	-35.0	15.0	6.08e-03	0	50	0	23454547968	40	15362
2026-01-17 21:05:54.69	311.55	11.13	-35.1	-35.0	15.0	6.40e-03	0	50	0	23571988480	40	15430
2026-01-17 21:05:55.70	311.78	11.07	-35.2	-35.1	14.9	6.40e-03	0	50	0	23681040384	40	15546
2026-01-17 21:05:56.71	312.01	11.01	-35.1	-35.0	15.0	6.40e-03	0	50	0	23790092288	40	15389
2026-01-17 21:05:57.71	312.23	10.96	-35.1	-35.0	15.0	6.96e-03	0	50	0	23907532800	40	15445
2026-01-17 21:05:58.72	312.46	10.90	-35.1	-35.0	15.0	6.96e-03	0	50	0	24033361920	40	15454
2026-01-17 21:05:59.73	312.69	10.84	-35.1	-35.0	15.0	6.96e-03	0	50	0	24142413824	40	15311
2026-01-17 21:06:00.74	312.91	10.78	-35.1	-35.0	15.0	6.93e-03	0	50	0	24251465728	40	15402
2026-01-17 21:06:01.74	313.13	10.72	-35.2	-35.1	14.9	6.93e-03	0	50	0	24368906240	40	15583
2026-01-17 21:06:02.75	313.36	10.66	-35.1	-35.0	15.0	6.93e-03	0	50	0	24477958144	40	15439
2026-01-17 21:06:03.76	313.58	10.60	-35.2	-35.1	14.9	7.14e-03	0	50	0	24595398656	40	15547
2026-01-17 21:06:04.76	313.80	10.54	-35.2	-35.1	14.9	7.14e-03	0	50	0	24704450560	40	15597
2026-01-17 21:06:05.77	314.02	10.48	-35.2	-35.1	14.9	7.14e-03	0	50	0	24821891072	41	14681
2026-01-17 21:06:06.78	314.23	10.42	-35.2	-35.1	14.9	7.32e-03	0	50	0	24930942976	41	14695
2026-01-17 21:06:07.79	314.45	10.36	-35.3	-35.2	14.9	7.32e-03	0	50	0	25039994880	41	14875
2026-01-17 21:06:08.80	314.67	10.30	-35.3	-35.2	14.9	7.80e-03	0	51	0	25157435392	41	14866
2026-01-17 21:06:09.80	314.88	10.24	-35.3	-35.2	14.9	7.80e-03	0	50	0	25266487296	41	14905
2026-01-17 21:06:10.81	315.09	10.18	-35.3	-35.2	14.9	7.80e-03	0	50	0	25383927808	41	14889
2026-01-17 21:06:11.82	315.31	10.12	-35.2	-35.1	14.9	7.72e-03	0	50	0	25501368320	41	14760
2026-01-17 21:06:12.83	315.52	10.06	-35.4	-35.2	14.8	7.72e-03	0	50	0	25618808832	41	14943
2026-01-17 21:06:13.84	315.73	10.00	-35.3	-35.2	14.9	7.72e-03	0	51	0	25727860736	41	14929
2026-01-17 21:06:14.85	315.94	9.94	-35.4	-35.3	14.8	8.08e-03	0	50	0	25845301248	41	15050
2026-01-17 21:06:15.85	316.15	9.88	-35.4	-35.3	14.8	8.08e-03	0	51	0	25954353152	41	15032
2026-01-17 21:06:16.86	316.35	9.82	-35.3	-35.2	14.9	8.08e-03	0	51	0	26063405056	41	14931
2026-01-17 21:06:17.87	316.56	9.75	-35.5	-35.4	14.8	8.13e-03	0	50	0	26180845568	41	15247
2026-01-17 21:06:18.88	316.77	9.69	-35.4	-35.3	14.8	8.13e-03	0	51	0	26289897472	41	15032
2026-01-17 21:06:19.89	316.97	9.63	-35.4	-35.3	14.8	8.13e-03	0	51	0	26407337984	41	14956
2026-01-17 21:06:20.90	317.17	9.57	-35.4	-35.3	14.9	8.04e-03	0	50	0	26516389888	41	14956
2026-01-17 21:06:21.90	317.37	9.51	-35.4	-35.3	14.8	8.04e-03	0	51	0	26625441792	41	14977
2026-01-17 21:06:22.91	317.58	9.45	-35.3	-35.3	14.9	7.47e-03	0	51	0	26742882304	41	14963
2026-01-17 21:06:23.92	317.78	9.39	-35.5	-35.4	14.8	7.47e-03	0	51	0	26860322816	41	15268
2026-01-17 21:06:24.93	317.98	9.32	-35.5	-35.4	14.8	7.47e-03	0	50	0	26977763328	41	15205
2026-01-17 21:06:25.94	318.18	9.26	-35.4	-35.4	14.8	8.47e-03	0	51	0	27086815232	41	15125
2026-01-17 21:06:26.95	318.37	9.20	-35.5	-35.4	14.8	8.47e-03	0	51	0	27204255744	41	15176
2026-01-17 21:06:27.95	318.57	9.14	-35.5	-35.4	14.7	8.44e-03	0	50	0	27313307648	41	15287
2026-01-17 21:06:28.96	318.76	9.08	-35.6	-35.5	14.7	8.44e-03	0	50	0	27430748160	41	15311
2026-01-17 21:06:29.97	318.96	9.02	-35.4	-35.3	14.8	8.44e-03	0	51	0	27539800064	41	15084
2026-01-17 21:06:30.98	319.15	8.95	-35.4	-35.3	14.8	8.72e-03	0	51	0	27648851968	41	15101
2026-01-17 21:06:31.98	319.34	8.89	-35.5	-35.4	14.7	8.72e-03	0	51	0	27766292480	41	15231
2026-01-17 21:06:32.99	319.53	8.83	-35.5	-35.4	14.8	8.72e-03	0	51	0	27875344384	41	15168
2026-01-17 21:06:34.00	319.72	8.77	-35.5	-35.4	14.7	8.22e-03	0	51	0	27992784896	41	15162
2026-01-17 21:06:35.01	319.91	8.71	-35.6	-35.5	14.7	8.22e-03	0	51	0	28101836800	41	15387
2026-01-17 21:06:36.02	320.10	8.64	-35.5	-35.5	14.7	8.59e-03	0	51	0	28219277312	41	15305
2026-01-17 21:06:37.02	320.29	8.58	-35.5	-35.4	14.7	8.59e-03	0	51	0	28336717824	41	15168
2026-01-17 21:06:38.03	320.47	8.52	-35.7	-35.6	14.6	8.59e-03	0	51	0	28454158336	41	15487
2026-01-17 21:06:39.04	320.66	8.46	-35.5	-35.4	14.7	8.85e-03	0	51	0	28563210240	41	15237
2026-01-17 21:06:40.05	320.85	8.40	-35.7	-35.6	14.6	8.85e-03	0	51	0	28672262144	41	15522
2026-01-17 21:06:41.06	321.03	8.33	-35.6	-35.5	14.7	8.85e-03	0	51	0	28789702656	41	15361
2026-01-17 21:06:42.06	321.21	8.27	-35.7	-35.6	14.6	9.61e-03	0	51	0	28898754560	41	15495
2026-01-17 21:06:43.07	321.39	8.21	-35.7	-35.6	14.6	9.61e-03	0	51	0	29016195072	41	15517
2026-01-17 21:06:44.08	321.57	8.15	-35.9	-35.8	14.5	1.02e-02	0	51	0	29125246976	42	15036
2026-01-17 21:06:45.09	321.75	8.09	-35.8	-35.7	14.6	1.02e-02	0	51	0	29242687488	42	14862
2026-01-17 21:06:46.10	321.93	8.02	-35.8	-35.7	14.5	1.02e-02	0	51	0	29351739392	42	14926
2026-01-17 21:06:47.11	322.11	7.96	-35.9	-35.8	14.5	1.06e-02	0	51	0	29460791296	42	14976
2026-01-17 21:06:48.12	322.29	7.90	-35.8	-35.7	14.5	1.06e-02	0	51	0	29586620416	42	14919
2026-01-17 21:06:49.12	322.46	7.84	-35.9	-35.8	14.5	1.06e-02	0	51	0	29704060928	42	15091
2026-01-17 21:06:50.13	322.64	7.77	-36.0	-35.9	14.4	1.15e-02	0	51	0	29813112832	42	15153
2026-01-17 21:06:51.14	322.81	7.71	-35.9	-35.9	14.4	1.15e-02	0	51	0	29922164736	42	15140
2026-01-17 21:06:52.15	322.99	7.65	-36.0	-35.9	14.4	1.15e-02	0	51	0	30039605248	42	15214
2026-01-17 21:06:53.16	323.16	7.59	-36.0	-35.9	14.4	1.31e-02	0	51	0	30148657152	42	15268
2026-01-17 21:06:54.16	323.33	7.53	-36.0	-36.0	14.4	1.31e-02	0	51	0	30266097664	42	15299
2026-01-17 21:06:55.17	323.50	7.46	-36.0	-35.9	14.4	1.31e-02	0	51	0	30375149568	42	15190
2026-01-17 21:06:56.18	323.67	7.40	-36.1	-36.0	14.3	1.37e-02	0	51	0	30484201472	42	15392
2026-01-17 21:06:57.19	323.84	7.34	-36.2	-36.1	14.3	1.37e-02	0	51	0	30601641984	42	15531
2026-01-17 21:06:58.20	324.01	7.28	-36.2	-36.1	14.3	1.37e-02	0	51	0	30710693888	43	14725
2026-01-17 21:06:59.20	324.18	7.22	-36.1	-36.0	14.4	1.49e-02	0	51	0	30828134400	43	14474
2026-01-17 21:07:00.21	324.34	7.15	-36.0	-35.9	14.4	1.49e-02	0	51	0	30937186304	43	14413
2026-01-17 21:07:01.22	324.51	7.09	-36.1	-36.0	14.4	1.34e-02	0	51	0	31063015424	43	14477
2026-01-17 21:07:02.22	324.67	7.03	-36.2	-36.1	14.3	1.34e-02	0	51	0	31172067328	43	14674
2026-01-17 21:07:03.23	324.84	6.97	-36.2	-36.1	14.3	1.34e-02	0	51	0	31289507840	43	14675
2026-01-17 21:07:04.24	325.00	6.91	-36.3	-36.2	14.2	1.61e-02	0	51	0	31398559744	43	14862
2026-01-17 21:07:05.25	325.16	6.84	-36.2	-36.1	14.2	1.61e-02	0	51	0	31507611648	43	14723
2026-01-17 21:07:06.26	325.33	6.78	-36.3	-36.3	14.2	1.61e-02	0	51	0	31625052160	43	14960
2026-01-17 21:07:07.26	325.48	6.72	-36.5	-36.4	14.1	1.77e-02	0	51	0	31734104064	43	15178
2026-01-17 21:07:08.27	325.64	6.66	-36.4	-36.3	14.1	1.77e-02	0	51	0	31851544576	43	15026
2026-01-17 21:07:09.28	325.80	6.60	-36.5	-36.4	14.0	1.95e-02	0	51	0	31960596480	43	15181
2026-01-17 21:07:10.29	325.96	6.54	-36.5	-36.4	14.0	1.95e-02	0	51	0	32078036992	43	15230
2026-01-17 21:07:11.29	326.12	6.48	-36.4	-36.3	14.1	1.95e-02	0	51	0	32187088896	43	15038
2026-01-17 21:07:12.30	326.28	6.41	-36.3	-36.2	14.1	2.08e-02	0	51	0	32296140800	43	14864
2026-01-17 21:07:13.31	326.43	6.35	-36.5	-36.4	14.0	2.08e-02	0	51	0	32413581312	43	15185
2026-01-17 21:07:14.32	326.59	6.29	-36.5	-36.4	14.0	2.06e-02	0	51	0	32531021824	43	15197
2026-01-17 21:07:15.32	326.74	6.23	-36.5	-36.4	14.0	2.06e-02	0	51	0	32648462336	43	15217
2026-01-17 21:07:16.33	326.89	6.17	-36.6	-36.5	13.9	2.27e-02	0	51	0	32757514240	43	15414
2026-01-17 21:07:17.34	327.05	6.11	-36.7	-36.6	13.9	2.27e-02	0	51	0	32874954752	43	15542
2026-01-17 21:07:18.35	327.20	6.04	-36.4	-36.4	14.0	2.27e-02	0	51	0	32984006656	43	15136
2026-01-17 21:07:19.35	327.35	5.98	-36.7	-36.6	13.9	2.35e-02	0	51	0	33101447168	43	15610
2026-01-17 21:07:20.36	327.50	5.92	-36.6	-36.5	13.9	2.35e-02	0	51	0	33210499072	44	14497
2026-01-17 21:07:21.37	327.65	5.86	-36.7	-36.6	13.8	2.35e-02	0	51	0	33319550976	44	14667
2026-01-17 21:07:22.38	327.80	5.80	-36.4	-36.3	14.0	2.52e-02	0	51	0	33436991488	44	14243
2026-01-17 21:07:23.38	327.94	5.74	-36.5	-36.4	13.9	2.52e-02	0	51	0	33546043392	44	14423
2026-01-17 21:07:24.39	328.09	5.68	-36.6	-36.5	13.8	2.55e-02	0	51	0	33663483904	44	14602
2026-01-17 21:07:25.40	328.24	5.62	-36.6	-36.5	13.9	2.55e-02	0	51	0	33772535808	44	14506
2026-01-17 21:07:26.41	328.38	5.56	-36.6	-36.5	13.8	2.55e-02	0	51	0	33881587712	44	14606
2026-01-17 21:07:27.41	328.53	5.50	-36.6	-36.5	13.8	2.66e-02	0	51	0	33999028224	44	14578
2026-01-17 21:07:28.42	328.67	5.44	-36.9	-36.8	13.7	2.66e-02	0	51	0	34124857344	44	15060
2026-01-17 21:07:29.43	328.82	5.37	-36.9	-36.8	13.6	2.66e-02	0	51	0	34233909248	44	15064
2026-01-17 21:07:30.43	328.96	5.31	-36.8	-36.7	13.7	2.66e-02	0	51	0	34342961152	44	14888
2026-01-17 21:07:31.44	329.10	5.25	-36.9	-36.8	13.6	3.06e-02	0	51	0	34460401664	44	15100
2026-01-17 21:07:32.45	329.24	5.19	-36.9	-36.8	13.6	3.06e-02	0	51	0	34569453568	44	15066
2026-01-17 21:07:33.46	329.38	5.13	-36.7	-36.7	13.7	3.06e-02	0	51	0	34686894080	44	14779
2026-01-17 21:07:34.46	329.52	5.07	-36.9	-36.8	13.6	3.17e-02	0	51	0	34795945984	44	15035
2026-01-17 21:07:35.47	329.66	5.01	-37.2	-37.2	13.4	3.17e-02	0	51	0	34904997888	44	15704
2026-01-17 21:07:36.48	329.80	4.95	-53.0	-55.1	6.2	6.90e-02	0	50	104	34972106752	76	19704
2026-01-17 21:07:37.49	329.94	4.89	-53.4	-55.6	6.2	6.90e-02	0	50	104	34972106752	77	19576
2026-01-17 21:07:38.50	330.08	4.83	-53.6	-55.8	6.2	6.90e-02	0	50	104	34972106752	77	20071
2026-01-17 21:07:39.50	330.21	4.77	-53.8	-56.0	6.2	6.90e-02	0	50	104	34972106752	78	19259
2026-01-17 21:07:40.51	330.35	4.71	-54.0	-56.1	6.2	6.90e-02	0	50	104	34972106752	78	19594
2026-01-17 21:07:41.52	330.48	4.65	-54.1	-56.2	6.2	6.90e-02	0	50	104	34972106752	78	19867
2026-01-17 21:07:42.53	330.62	4.59	-54.2	-56.3	6.2	6.90e-02	0	50	104	34972106752	78	20035
2026-01-17 21:07:43.54	330.75	4.53	-54.3	-56.4	6.2	0.00e+00	0	50	104	34972106752	79	19098
2026-01-17 21:07:44.55	330.89	4.47	-54.3	-56.5	6.2	0.00e+00	0	50	104	34972106752	79	19264
2026-01-17 21:07:45.56	331.02	4.41	-54.4	-56.5	6.2	0.00e+00	0	50	104	34972106752	79	19416
2026-01-17 21:07:46.56	331.15	4.35	-54.4	-56.6	6.2	0.00e+00	0	49	104	34972106752	79	19531
2026-01-17 21:07:47.57	331.28	4.29	-54.5	-56.6	6.2	0.00e+00	0	49	104	34972106752	79	19567
2026-01-17 21:07:48.58	331.41	4.23	-54.5	-56.6	6.2	0.00e+00	0	49	104	34972106752	79	19696
2026-01-17 21:07:49.59	331.54	4.17	-54.5	-56.6	6.2	0.00e+00	0	49	104	34972106752	79	19655
2026-01-17 21:07:50.60	331.67	4.12	-54.5	-56.6	6.2	0.00e+00	0	49	104	34972106752	79	19660
2026-01-17 21:07:51.60	331.80	4.06	-54.5	-56.6	6.2	0.00e+00	0	50	104	34972106752	79	19690
2026-01-17 21:07:52.61	331.93	4.00	-54.5	-56.7	6.2	0.00e+00	0	49	104	34972106752	79	19786
2026-01-17 21:07:53.62	332.06	3.94	-54.5	-56.7	6.2	0.00e+00	0	49	104	34972106752	79	19747
2026-01-17 21:07:54.63	332.18	3.88	-54.5	-56.6	6.2	0.00e+00	0	49	104	34972106752	79	19698
2026-01-17 21:07:55.64	332.31	3.82	-54.5	-56.6	6.2	0.00e+00	0	49	104	34972106752	79	19657
2026-01-17 21:07:56.64	332.43	3.76	-54.5	-56.7	6.2	0.00e+00	0	49	104	34972106752	79	19732
2026-01-17 21:07:57.65	332.56	3.70	-54.5	-56.6	6.2	0.00e+00	0	49	104	34972106752	79	19689
2026-01-17 21:07:58.66	332.68	3.64	-54.5	-56.6	6.2	0.00e+00	0	49	104	34972106752	79	19607
2026-01-17 21:07:59.67	332.81	3.59	-54.5	-56.6	6.2	0.00e+00	0	49	104	34972106752	79	19611
2026-01-17 21:08:00.68	332.93	3.53	-54.5	-56.6	6.2	0.00e+00	0	49	104	34972106752	79	19620
2026-01-17 21:08:01.68	333.05	3.47	-54.5	-56.6	6.2	0.00e+00	0	49	104	34972106752	79	19558
2026-01-17 21:08:02.70	333.18	3.41	-54.5	-56.6	6.2	0.00e+00	0	49	104	34972106752	79	19553
2026-01-17 21:08:03.70	333.30	3.35	-54.4	-56.6	6.2	0.00e+00	0	49	104	34972106752	79	19556
2026-01-17 21:08:04.71	333.42	3.29	-54.4	-56.6	6.2	0.00e+00	0	49	104	34972106752	79	19536
2026-01-17 21:08:05.72	333.54	3.24	-54.4	-56.6	6.2	0.00e+00	0	49	104	34972106752	79	19524
2026-01-17 21:08:06.73	333.66	3.18	-54.4	-56.6	6.2	0.00e+00	0	49	104	34972106752	79	19571
2026-01-17 21:08:07.74	333.78	3.12	-54.4	-56.5	6.2	0.00e+00	0	49	104	34972106752	79	19458
2026-01-17 21:08:08.75	333.90	3.06	-54.4	-56.6	6.2	0.00e+00	0	49	104	34972106752	79	19509
2026-01-17 21:08:09.76	334.01	3.00	-54.4	-56.5	6.2	0.00e+00	0	49	104	34972106752	79	19464
2026-01-17 21:08:10.76	334.13	2.95	-54.4	-56.6	6.2	0.00e+00	0	49	104	34972106752	79	19529
2026-01-17 21:08:11.77	334.25	2.89	-54.4	-56.6	6.2	0.00e+00	0	49	104	34972106752	79	19511
2026-01-17 21:08:12.78	334.36	2.83	-54.4	-56.6	6.2	0.00e+00	0	49	104	34972106752	79	19527
2026-01-17 21:08:13.79	334.48	2.77	-54.4	-56.5	6.2	0.00e+00	0	49	104	34972106752	79	19436
2026-01-17 21:08:14.80	334.60	2.71	-54.4	-56.5	6.2	0.00e+00	0	49	104	34972106752	79	19449
2026-01-17 21:08:15.81	334.71	2.66	-54.4	-56.5	6.2	0.00e+00	0	49	104	34972106752	79	19459
2026-01-17 21:08:16.81	334.82	2.60	-54.4	-56.6	6.2	0.00e+00	0	49	104	34972106752	79	19494
2026-01-17 21:08:17.82	334.94	2.54	-54.4	-56.5	6.2	0.00e+00	0	49	104	34972106752	79	19433
2026-01-17 21:08:18.82	335.05	2.49	-54.4	-56.5	6.2	0.00e+00	0	49	104	34972106752	79	19443
2026-01-17 21:08:19.83	335.16	2.43	-54.4	-56.5	6.2	0.00e+00	0	49	104	34972106752	79	19412
2026-01-17 21:08:20.84	335.27	2.37	-54.4	-56.5	6.2	0.00e+00	0	49	104	34972106752	79	19453
2026-01-17 21:08:21.85	335.39	2.31	-54.4	-56.6	6.2	0.00e+00	0	48	104	34972106752	79	19486
2026-01-17 21:08:22.86	335.50	2.26	-54.4	-56.5	6.2	0.00e+00	0	48	104	34972106752	79	19466
2026-01-17 21:08:23.86	335.61	2.20	-54.4	-56.5	6.2	0.00e+00	0	49	104	34972106752	79	19416
2026-01-17 21:08:24.87	335.72	2.14	-54.4	-56.5	6.2	0.00e+00	0	49	104	34972106752	79	19413
2026-01-17 21:08:25.88	335.83	2.09	-54.4	-56.5	6.2	0.00e+00	0	49	104	34972106752	79	19388
2026-01-17 21:08:26.89	335.93	2.03	-54.4	-56.5	6.2	0.00e+00	0	48	104	34972106752	79	19380
2026-01-17 21:08:27.90	336.04	1.97	-54.4	-56.5	6.2	0.00e+00	0	48	104	34972106752	79	19368
2026-01-17 21:08:28.90	336.15	1.92	-54.4	-56.5	6.2	0.00e+00	0	48	104	34972106752	79	19425

#Closed at: 2026-01-17 21:08:29
#Recorded file [34972 MB]: D:/lorett/data/31041_260117_235930.dat