passes_logs/2026/01/17/R3.2S_Murmansk/R3.2S_Murmansk__20260117_031257_FENGYUN_3D_rec.log

#Pass ID: 20260117_031257_FENGYUN 3D
#Satellite: FENGYUN 3D
#Configuration: FENGYUN 3D
#almurnet v.1.7.20251203
#Start time: 2026-01-17 03:12:57

#Version: 2.2.20231116
#Station: R3.2S_Murmansk
#Location: 33.079688 lon 68.888172 lat
#TLE: 1 43010U 17072A   26015.99024095 -.00000189  00000+0 -67463-4 0  9996
#TLE: 2 43010  98.9932 347.8215 0002366 106.5594 253.5841 14.19694691423396

#Time	Az	El	Level	Level2	SNR	BER	BlckErr	Temp	State	Recorded	gain1	gain2
2026-01-17 03:12:57.33	26.94	2.00	-51.0	-62.9	3.8	8.47e-01	0	32	0	0	74	13500
2026-01-17 03:12:58.32	26.93	2.07	-51.0	-62.9	3.8	8.45e-01	0	32	104	0	72	15177
2026-01-17 03:12:59.33	26.92	2.13	-51.0	-62.9	3.8	8.46e-01	0	32	104	0	72	15138
2026-01-17 03:13:00.34	26.91	2.20	-51.0	-62.9	3.8	8.45e-01	0	32	104	0	72	15116
2026-01-17 03:13:01.35	26.91	2.26	-51.0	-62.9	3.8	8.46e-01	0	32	104	0	72	15067
2026-01-17 03:13:02.36	26.90	2.33	-51.0	-62.8	3.8	8.46e-01	0	32	104	0	72	15019
2026-01-17 03:13:03.37	26.89	2.39	-51.0	-62.7	3.8	8.45e-01	0	32	104	0	72	14845
2026-01-17 03:13:04.37	26.88	2.46	-51.0	-62.5	3.8	8.45e-01	0	32	104	0	72	14512
2026-01-17 03:13:05.38	26.88	2.52	-50.9	-62.4	3.8	8.46e-01	0	32	104	0	72	14265
2026-01-17 03:13:06.39	26.87	2.59	-50.9	-62.3	3.8	8.46e-01	0	32	104	0	72	14177
2026-01-17 03:13:07.40	26.86	2.65	-50.9	-62.1	3.8	8.46e-01	0	32	104	0	72	13778
2026-01-17 03:13:08.41	26.85	2.72	-50.9	-62.0	3.8	8.46e-01	0	32	104	0	72	13596
2026-01-17 03:13:09.42	26.85	2.78	-50.9	-61.8	3.8	8.46e-01	0	32	104	0	72	13382
2026-01-17 03:13:10.43	26.84	2.85	-50.8	-61.3	3.8	8.46e-01	0	32	104	0	72	12614
2026-01-17 03:13:11.44	26.83	2.92	-50.8	-61.4	3.8	8.46e-01	0	32	104	0	72	12675
2026-01-17 03:13:12.45	26.82	2.98	-50.9	-61.7	3.8	8.46e-01	0	33	104	0	72	13155
2026-01-17 03:13:13.46	26.81	3.05	-50.9	-61.8	3.8	8.46e-01	0	32	104	0	72	13295
2026-01-17 03:13:14.47	26.81	3.12	-50.9	-62.4	3.8	8.46e-01	0	33	104	0	72	14286
2026-01-17 03:13:15.47	26.80	3.18	-51.0	-62.9	3.8	8.47e-01	0	33	104	0	72	15103
2026-01-17 03:13:16.48	26.79	3.25	-51.0	-62.7	3.8	8.46e-01	0	33	104	0	72	14778
2026-01-17 03:13:17.49	26.78	3.32	-50.8	-61.4	3.8	8.46e-01	0	33	104	0	72	12730
2026-01-17 03:13:18.50	26.77	3.39	-50.5	-58.9	4.3	8.38e-01	0	33	0	0	72	9586
2026-01-17 03:13:19.50	26.76	3.45	-50.2	-56.9	5.2	7.89e-01	0	33	0	0	72	7580
2026-01-17 03:13:20.51	26.76	3.52	-49.5	-54.6	7.2	1.69e-01	0	33	0	4194304	71	6139
2026-01-17 03:13:21.52	26.75	3.59	-48.8	-52.8	8.9	7.03e-02	0	33	0	9437184	69	5599
2026-01-17 03:13:22.53	26.74	3.66	-47.7	-50.6	11.1	6.99e-03	0	33	0	15728640	67	4912
2026-01-17 03:13:23.54	26.73	3.73	-47.4	-50.0	11.7	1.45e-03	0	33	0	22020096	66	4869
2026-01-17 03:13:24.54	26.72	3.79	-47.1	-49.6	12.1	4.45e-04	0	33	0	27262976	65	4923
2026-01-17 03:13:25.55	26.71	3.86	-45.8	-47.7	14.2	2.17e-05	0	33	0	32505856	63	4437
2026-01-17 03:13:26.56	26.70	3.93	-45.6	-47.4	14.5	0.00e+00	0	33	0	38797312	62	4514
2026-01-17 03:13:27.57	26.69	4.00	-45.5	-47.3	14.7	1.10e-06	0	33	0	44040192	62	4468
2026-01-17 03:13:28.57	26.69	4.07	-45.0	-46.7	15.3	0.00e+00	0	33	0	49283072	61	4416
2026-01-17 03:13:29.59	26.68	4.14	-45.2	-46.9	15.1	0.00e+00	0	33	0	55574528	60	4779
2026-01-17 03:13:30.59	26.67	4.21	-44.7	-46.2	15.7	0.00e+00	0	33	0	60817408	61	4187
2026-01-17 03:13:31.60	26.66	4.28	-45.1	-46.8	15.2	0.00e+00	0	33	0	67108864	61	4452
2026-01-17 03:13:32.61	26.65	4.35	-45.2	-47.0	15.0	1.10e-06	0	33	0	72351744	61	4557
2026-01-17 03:13:33.62	26.64	4.42	-45.3	-47.0	15.0	0.00e+00	0	33	0	77594624	62	4322
2026-01-17 03:13:34.63	26.63	4.49	-44.7	-46.3	15.7	1.10e-06	0	33	0	83886080	61	4208
2026-01-17 03:13:35.64	26.62	4.56	-45.6	-47.4	14.6	2.20e-06	0	33	0	90177536	62	4516
2026-01-17 03:13:36.65	26.61	4.63	-46.7	-49.0	12.8	1.75e-04	0	33	0	95420416	64	4839
2026-01-17 03:13:37.66	26.60	4.70	-47.1	-49.6	12.2	1.76e-04	0	33	0	100663296	64	5206
2026-01-17 03:13:38.67	26.59	4.77	-47.6	-50.4	11.4	8.11e-04	0	33	0	106954752	65	5387
2026-01-17 03:13:39.68	26.58	4.84	-47.8	-50.8	10.9	4.62e-03	0	33	0	112197632	66	5332
2026-01-17 03:13:40.69	26.57	4.91	-48.2	-51.5	10.2	4.30e-03	0	33	0	117440512	66	5758
2026-01-17 03:13:41.69	26.56	4.98	-48.7	-52.6	9.1	1.14e-02	0	33	0	123731968	67	6140
2026-01-17 03:13:42.70	26.55	5.06	-47.6	-50.1	12.1	9.29e-03	0	33	0	128974848	67	4630
2026-01-17 03:13:43.71	26.54	5.13	-48.3	-51.5	10.7	2.04e-04	0	33	0	134217728	67	5446
2026-01-17 03:13:44.72	26.53	5.20	-48.9	-52.8	9.2	3.37e-02	0	33	0	140509184	69	5601
2026-01-17 03:13:45.73	26.52	5.27	-46.5	-48.4	14.0	1.16e-03	0	33	0	146800640	65	4269
2026-01-17 03:13:46.74	26.51	5.35	-50.4	-58.2	4.7	6.22e-02	0	33	0	152043520	71	9386
2026-01-17 03:13:47.75	26.50	5.42	-46.4	-48.3	14.0	5.16e-01	0	33	0	152043520	64	4460
2026-01-17 03:13:48.76	26.49	5.49	-46.2	-48.0	14.7	0.00e+00	0	33	0	158334976	63	4568
2026-01-17 03:13:49.77	26.48	5.56	-45.8	-47.4	15.4	0.00e+00	0	33	0	163577856	62	4522
2026-01-17 03:13:50.78	26.47	5.64	-45.6	-47.1	15.6	0.00e+00	0	33	0	168820736	62	4390
2026-01-17 03:13:51.78	26.46	5.71	-45.2	-46.8	16.1	0.00e+00	0	33	0	175112192	62	4195
2026-01-17 03:13:52.79	26.45	5.78	-44.3	-45.6	17.3	0.00e+00	0	33	0	180355072	60	4124
2026-01-17 03:13:53.80	26.44	5.86	-44.3	-45.6	17.3	0.00e+00	0	33	0	185597952	60	4107
2026-01-17 03:13:54.81	26.43	5.93	-44.3	-45.6	17.7	0.00e+00	0	33	0	191889408	59	4353
2026-01-17 03:13:55.82	26.42	6.01	-44.2	-45.5	17.8	0.00e+00	0	33	0	197132288	59	4308
2026-01-17 03:13:56.82	26.41	6.08	-43.7	-44.8	18.4	0.00e+00	0	33	0	203423744	59	4000
2026-01-17 03:13:57.83	26.40	6.16	-43.9	-45.1	18.3	0.00e+00	0	33	0	208666624	59	4119
2026-01-17 03:13:58.84	26.39	6.23	-43.9	-45.0	18.3	0.00e+00	0	33	0	214958080	59	4082
2026-01-17 03:13:59.85	26.38	6.31	-43.8	-45.0	18.4	0.00e+00	0	33	0	220200960	59	4058
2026-01-17 03:14:00.86	26.36	6.38	-43.7	-44.9	18.5	0.00e+00	0	33	0	226492416	59	4012
2026-01-17 03:14:01.86	26.35	6.46	-44.0	-45.2	18.2	0.00e+00	0	33	0	231735296	59	4173
2026-01-17 03:14:02.87	26.34	6.53	-43.6	-44.8	18.6	0.00e+00	0	34	0	236978176	59	3969
2026-01-17 03:14:03.88	26.33	6.61	-44.4	-45.7	17.7	0.00e+00	0	33	0	243269632	59	4425
2026-01-17 03:14:04.89	26.32	6.69	-43.7	-44.8	18.6	0.00e+00	0	33	0	248512512	58	4224
2026-01-17 03:14:05.90	26.31	6.76	-43.8	-45.0	18.5	0.00e+00	0	34	0	253755392	58	4295
2026-01-17 03:14:06.91	26.30	6.84	-43.8	-44.9	18.5	0.00e+00	0	34	0	260046848	58	4285
2026-01-17 03:14:07.91	26.28	6.92	-43.9	-45.0	18.4	0.00e+00	0	34	0	265289728	58	4330
2026-01-17 03:14:08.92	26.27	6.99	-43.7	-44.9	18.6	0.00e+00	0	33	0	270532608	58	4249
2026-01-17 03:14:09.93	26.26	7.07	-44.2	-45.5	18.0	0.00e+00	0	34	0	276824064	58	4547
2026-01-17 03:14:10.94	26.25	7.15	-44.1	-45.3	18.2	0.00e+00	0	34	0	283115520	59	4202
2026-01-17 03:14:11.95	26.24	7.23	-44.1	-45.2	18.2	0.00e+00	0	34	0	288358400	59	4192
2026-01-17 03:14:12.96	26.22	7.30	-43.9	-45.1	18.4	0.00e+00	0	34	0	293601280	59	4099
2026-01-17 03:14:13.96	26.21	7.38	-43.6	-44.7	18.8	0.00e+00	0	33	0	299892736	59	3915
2026-01-17 03:14:14.97	26.20	7.46	-43.3	-44.3	19.1	0.00e+00	0	34	0	305135616	58	3993
2026-01-17 03:14:15.98	26.19	7.54	-43.5	-44.6	18.9	0.00e+00	0	34	0	311427072	58	4128
2026-01-17 03:14:16.99	26.17	7.62	-43.4	-44.5	19.0	0.00e+00	0	34	0	316669952	58	4064
2026-01-17 03:14:18.00	26.16	7.70	-43.5	-44.6	18.9	0.00e+00	0	33	0	321912832	58	4118
2026-01-17 03:14:19.01	26.15	7.78	-43.2	-44.3	19.2	0.00e+00	0	33	0	328204288	58	3965
2026-01-17 03:14:20.02	26.14	7.86	-43.2	-44.3	19.2	0.00e+00	0	34	0	333447168	58	3981
2026-01-17 03:14:21.03	26.12	7.94	-43.4	-44.4	19.1	0.00e+00	0	34	0	339738624	58	4051
2026-01-17 03:14:22.04	26.11	8.02	-43.1	-44.1	19.4	0.00e+00	0	34	0	344981504	58	3897
2026-01-17 03:14:23.05	26.10	8.10	-43.3	-44.3	19.2	0.00e+00	0	34	0	351272960	58	3997
2026-01-17 03:14:24.06	26.08	8.18	-43.3	-44.4	19.1	0.00e+00	0	34	0	356515840	57	4281
2026-01-17 03:14:25.06	26.07	8.26	-43.1	-44.2	19.4	0.00e+00	0	34	0	361758720	57	4151
2026-01-17 03:14:26.07	26.06	8.34	-43.1	-44.2	19.4	0.00e+00	0	34	0	368050176	57	4150
2026-01-17 03:14:27.08	26.04	8.42	-43.5	-44.6	19.0	0.00e+00	0	34	0	373293056	58	4122
2026-01-17 03:14:28.09	26.03	8.51	-43.3	-44.4	19.2	0.00e+00	0	33	0	378535936	58	4019
2026-01-17 03:14:29.10	26.02	8.59	-42.9	-43.9	19.6	0.00e+00	0	34	0	384827392	57	4039
2026-01-17 03:14:30.11	26.00	8.67	-43.1	-44.2	19.4	0.00e+00	0	34	0	390070272	57	4149
2026-01-17 03:14:31.12	25.99	8.75	-42.9	-43.9	19.7	0.00e+00	0	34	0	396361728	57	4028
2026-01-17 03:14:32.13	25.97	8.84	-42.9	-43.9	19.7	0.00e+00	0	34	0	401604608	57	4050
2026-01-17 03:14:33.14	25.96	8.92	-42.7	-43.7	19.9	0.00e+00	0	34	0	407896064	57	3927
2026-01-17 03:14:34.14	25.95	9.00	-42.8	-43.9	19.8	0.00e+00	0	34	0	413138944	57	4005
2026-01-17 03:14:35.15	25.93	9.09	-42.8	-43.8	19.9	0.00e+00	0	34	0	419430400	57	3977
2026-01-17 03:14:36.16	25.92	9.17	-42.6	-43.6	20.0	0.00e+00	0	34	0	424673280	56	4116
2026-01-17 03:14:37.17	25.90	9.25	-42.8	-43.8	19.9	0.00e+00	0	34	0	429916160	56	4195
2026-01-17 03:14:38.18	25.89	9.34	-42.6	-43.6	20.0	0.00e+00	0	34	0	436207616	56	4141
2026-01-17 03:14:39.19	25.87	9.42	-42.8	-43.9	19.8	0.00e+00	0	34	0	441450496	56	4244
2026-01-17 03:14:40.20	25.86	9.51	-42.5	-43.5	20.2	0.00e+00	0	34	0	446693376	56	4066
2026-01-17 03:14:41.21	25.84	9.60	-42.6	-43.6	20.1	0.00e+00	0	34	0	452984832	56	4103
2026-01-17 03:14:42.22	25.83	9.68	-42.8	-43.9	19.9	0.00e+00	0	34	0	458227712	56	4248
2026-01-17 03:14:43.23	25.81	9.77	-42.8	-43.8	19.9	0.00e+00	0	34	0	463470592	56	4239
2026-01-17 03:14:44.24	25.80	9.85	-42.6	-43.6	20.1	0.00e+00	0	34	0	469762048	56	4139
2026-01-17 03:14:45.24	25.78	9.94	-42.5	-43.5	20.2	0.00e+00	0	34	0	476053504	56	4088
2026-01-17 03:14:46.25	25.77	10.03	-42.5	-43.5	20.2	0.00e+00	0	34	0	481296384	56	4074
2026-01-17 03:14:47.26	25.75	10.11	-42.7	-43.6	20.1	0.00e+00	0	34	0	486539264	56	4142
2026-01-17 03:14:48.27	25.73	10.20	-42.5	-43.5	20.2	0.00e+00	0	34	0	492830720	56	4080
2026-01-17 03:14:49.28	25.72	10.29	-42.5	-43.5	20.3	0.00e+00	0	34	0	498073600	56	4065
2026-01-17 03:14:50.28	25.70	10.38	-42.6	-43.6	20.1	0.00e+00	0	34	0	504365056	56	4114
2026-01-17 03:14:51.29	25.69	10.47	-42.5	-43.5	20.3	0.00e+00	0	34	0	509607936	56	4058
2026-01-17 03:14:52.30	25.67	10.56	-42.4	-43.4	20.4	0.00e+00	0	34	0	514850816	56	4023
2026-01-17 03:14:53.31	25.65	10.64	-42.4	-43.3	20.4	0.00e+00	0	34	0	521142272	56	3994
2026-01-17 03:14:54.32	25.64	10.73	-42.4	-43.4	20.4	0.00e+00	0	34	0	526385152	56	4034
2026-01-17 03:14:55.33	25.62	10.82	-42.1	-43.0	20.7	0.00e+00	0	34	0	532676608	56	3864
2026-01-17 03:14:56.34	25.60	10.91	-42.3	-43.3	20.5	0.00e+00	0	34	0	537919488	56	3975
2026-01-17 03:14:57.35	25.59	11.01	-42.4	-43.4	20.4	0.00e+00	0	34	0	544210944	56	4016
2026-01-17 03:14:58.36	25.57	11.10	-42.3	-43.2	20.6	0.00e+00	0	34	0	549453824	56	3933
2026-01-17 03:14:59.36	25.55	11.19	-42.2	-43.1	20.7	0.00e+00	0	34	0	554696704	56	3899
2026-01-17 03:15:00.37	25.53	11.28	-42.4	-43.4	20.5	0.00e+00	0	34	0	560988160	56	4021
2026-01-17 03:15:01.39	25.52	11.37	-42.1	-43.1	20.7	0.00e+00	0	34	0	566231040	56	3872
2026-01-17 03:15:02.39	25.50	11.46	-42.2	-43.2	20.7	0.00e+00	0	34	0	571473920	56	3914
2026-01-17 03:15:03.40	25.48	11.56	-42.2	-43.2	20.7	0.00e+00	0	34	0	577765376	56	3920
2026-01-17 03:15:04.41	25.46	11.65	-42.3	-43.3	20.6	0.00e+00	0	34	0	583008256	56	3962
2026-01-17 03:15:05.42	25.44	11.74	-42.1	-43.0	20.8	0.00e+00	0	34	0	589299712	56	3866
2026-01-17 03:15:06.43	25.43	11.84	-42.1	-43.1	20.8	0.00e+00	0	34	0	594542592	56	3873
2026-01-17 03:15:07.43	25.41	11.93	-42.1	-43.0	20.8	0.00e+00	0	34	0	600834048	56	3856
2026-01-17 03:15:08.44	25.39	12.02	-42.1	-43.0	20.8	0.00e+00	0	34	0	606076928	56	3847
2026-01-17 03:15:09.45	25.37	12.12	-42.3	-43.2	20.6	0.00e+00	0	34	0	612368384	56	3937
2026-01-17 03:15:10.46	25.35	12.21	-42.1	-43.1	20.8	0.00e+00	0	34	0	617611264	56	3880
2026-01-17 03:15:11.46	25.33	12.31	-42.1	-43.1	20.8	0.00e+00	0	34	0	622854144	56	3869
2026-01-17 03:15:12.47	25.31	12.40	-41.9	-42.8	21.0	0.00e+00	0	34	0	629145600	55	3966
2026-01-17 03:15:13.48	25.30	12.50	-42.0	-42.9	20.9	0.00e+00	0	34	0	634388480	55	4029
2026-01-17 03:15:14.49	25.28	12.60	-41.7	-42.6	21.1	0.00e+00	0	34	0	639631360	55	3904
2026-01-17 03:15:15.50	25.26	12.69	-41.8	-42.8	21.0	0.00e+00	0	34	0	645922816	55	3962
2026-01-17 03:15:16.51	25.24	12.79	-41.8	-42.7	21.1	0.00e+00	0	34	0	651165696	55	3921
2026-01-17 03:15:17.52	25.22	12.89	-41.8	-42.7	21.1	0.00e+00	0	34	0	656408576	55	3928
2026-01-17 03:15:18.53	25.20	12.99	-41.7	-42.6	21.1	0.00e+00	0	34	0	662700032	55	3911
2026-01-17 03:15:19.54	25.18	13.08	-41.9	-42.8	21.0	0.00e+00	0	34	0	668991488	55	3965
2026-01-17 03:15:20.55	25.16	13.18	-41.9	-42.8	21.0	0.00e+00	0	34	0	674234368	55	3966
2026-01-17 03:15:21.55	25.14	13.28	-41.9	-42.8	21.0	0.00e+00	0	34	0	679477248	55	3991
2026-01-17 03:15:22.56	25.12	13.38	-41.7	-42.5	21.2	0.00e+00	0	34	0	685768704	55	3868
2026-01-17 03:15:23.57	25.09	13.48	-41.7	-42.6	21.2	0.00e+00	0	34	0	691011584	55	3897
2026-01-17 03:15:24.58	25.07	13.58	-41.9	-42.8	21.0	0.00e+00	0	34	0	697303040	55	3977
2026-01-17 03:15:25.59	25.05	13.68	-41.6	-42.5	21.3	0.00e+00	0	34	0	702545920	55	3837
2026-01-17 03:15:26.59	25.03	13.78	-41.6	-42.5	21.4	0.00e+00	0	34	0	707788800	55	3826
2026-01-17 03:15:27.60	25.01	13.89	-41.7	-42.6	21.3	0.00e+00	0	34	0	714080256	55	3875
2026-01-17 03:15:28.61	24.99	13.99	-41.6	-42.5	21.3	0.00e+00	0	34	0	719323136	55	3854
2026-01-17 03:15:29.62	24.97	14.09	-41.6	-42.5	21.4	0.00e+00	0	34	0	724566016	55	3825
2026-01-17 03:15:30.63	24.94	14.19	-41.7	-42.6	21.3	0.00e+00	0	34	0	730857472	55	3878
2026-01-17 03:15:31.64	24.92	14.30	-41.6	-42.4	21.4	0.00e+00	0	34	0	737148928	55	3815
2026-01-17 03:15:32.65	24.90	14.40	-41.7	-42.6	21.3	0.00e+00	0	34	0	742391808	55	3877
2026-01-17 03:15:33.66	24.88	14.51	-41.7	-42.6	21.2	0.00e+00	0	34	0	747634688	55	3884
2026-01-17 03:15:34.67	24.85	14.61	-41.8	-42.7	21.2	0.00e+00	0	34	0	753926144	55	3928
2026-01-17 03:15:35.68	24.83	14.72	-41.7	-42.6	21.3	0.00e+00	0	34	0	759169024	55	3894
2026-01-17 03:15:36.69	24.81	14.82	-41.5	-42.4	21.4	0.00e+00	0	34	0	764411904	55	3804
2026-01-17 03:15:37.69	24.78	14.93	-41.6	-42.5	21.3	0.00e+00	0	34	0	770703360	55	3840
2026-01-17 03:15:38.70	24.76	15.03	-41.5	-42.4	21.4	0.00e+00	0	34	0	775946240	55	3806
2026-01-17 03:15:39.71	24.74	15.14	-41.4	-42.3	21.5	0.00e+00	0	34	0	782237696	54	3991
2026-01-17 03:15:40.72	24.71	15.25	-41.4	-42.3	21.6	0.00e+00	0	34	0	787480576	54	3977
2026-01-17 03:15:41.73	24.69	15.36	-41.4	-42.3	21.6	0.00e+00	0	34	0	793772032	54	3966
2026-01-17 03:15:42.74	24.66	15.46	-41.4	-42.3	21.6	0.00e+00	0	34	0	799014912	54	3973
2026-01-17 03:15:43.74	24.64	15.57	-41.4	-42.3	21.6	0.00e+00	0	34	0	805306368	54	3979
2026-01-17 03:15:44.75	24.61	15.68	-41.4	-42.3	21.6	0.00e+00	0	34	0	810549248	54	3984
2026-01-17 03:15:45.76	24.59	15.79	-41.3	-42.1	21.8	0.00e+00	0	34	0	815792128	54	3907
2026-01-17 03:15:46.77	24.56	15.90	-41.3	-42.2	21.7	0.00e+00	0	34	0	822083584	54	3942
2026-01-17 03:15:47.78	24.54	16.01	-41.3	-42.2	21.7	0.00e+00	0	34	0	827326464	54	3939
2026-01-17 03:15:48.79	24.51	16.12	-41.2	-42.1	21.8	0.00e+00	0	34	0	832569344	54	3883
2026-01-17 03:15:49.80	24.49	16.24	-41.0	-41.8	22.0	0.00e+00	0	34	0	838860800	54	3768
2026-01-17 03:15:50.81	24.46	16.35	-40.9	-41.7	22.1	0.00e+00	0	34	0	844103680	53	3956
2026-01-17 03:15:51.82	24.43	16.46	-40.8	-41.6	22.3	0.00e+00	0	34	0	849346560	53	3878
2026-01-17 03:15:52.82	24.41	16.57	-40.9	-41.7	22.1	0.00e+00	0	34	0	855638016	53	3956
2026-01-17 03:15:53.83	24.38	16.69	-40.8	-41.6	22.2	0.00e+00	0	34	0	861929472	53	3900
2026-01-17 03:15:54.84	24.35	16.80	-40.7	-41.6	22.3	0.00e+00	0	34	0	867172352	53	3870
2026-01-17 03:15:55.85	24.33	16.92	-40.8	-41.6	22.2	0.00e+00	0	34	0	872415232	53	3907
2026-01-17 03:15:56.86	24.30	17.03	-40.7	-41.6	22.3	0.00e+00	0	34	0	878706688	53	3869
2026-01-17 03:15:57.87	24.27	17.15	-40.6	-41.5	22.4	0.00e+00	0	34	0	883949568	53	3828
2026-01-17 03:15:58.87	24.24	17.27	-40.7	-41.5	22.4	0.00e+00	0	34	0	890241024	53	3849
2026-01-17 03:15:59.88	24.21	17.38	-40.6	-41.4	22.4	0.00e+00	0	34	0	895483904	53	3822
2026-01-17 03:16:00.89	24.19	17.50	-40.7	-41.5	22.4	0.00e+00	0	34	0	900726784	53	3865
2026-01-17 03:16:01.90	24.16	17.62	-40.7	-41.5	22.4	0.00e+00	0	34	0	907018240	53	3864
2026-01-17 03:16:02.91	24.13	17.74	-40.6	-41.4	22.5	0.00e+00	0	34	0	912261120	53	3792
2026-01-17 03:16:03.92	24.10	17.86	-40.4	-41.2	22.7	0.00e+00	0	34	0	917504000	52	3925
2026-01-17 03:16:04.93	24.07	17.98	-40.4	-41.2	22.7	0.00e+00	0	34	0	923795456	52	3924
2026-01-17 03:16:05.94	24.04	18.10	-40.4	-41.2	22.7	0.00e+00	0	34	0	930086912	52	3952
2026-01-17 03:16:06.95	24.01	18.22	-40.4	-41.2	22.7	0.00e+00	0	34	0	935329792	52	3943
2026-01-17 03:16:07.96	23.98	18.34	-40.5	-41.3	22.6	0.00e+00	0	34	0	940572672	52	3965
2026-01-17 03:16:08.97	23.95	18.46	-40.4	-41.2	22.7	0.00e+00	0	34	0	946864128	52	3930
2026-01-17 03:16:09.98	23.92	18.59	-40.3	-41.0	22.8	0.00e+00	0	34	0	952107008	52	3864
2026-01-17 03:16:10.99	23.89	18.71	-40.2	-41.0	22.9	0.00e+00	0	34	0	957349888	52	3841
2026-01-17 03:16:11.99	23.85	18.83	-40.3	-41.1	22.8	0.00e+00	0	34	0	963641344	52	3875
2026-01-17 03:16:13.00	23.82	18.96	-40.4	-41.2	22.7	0.00e+00	0	34	0	968884224	52	3943
2026-01-17 03:16:14.01	23.79	19.08	-40.3	-41.0	22.8	0.00e+00	0	34	0	975175680	52	3865
2026-01-17 03:16:15.02	23.76	19.21	-40.2	-41.0	22.9	0.00e+00	0	34	0	980418560	52	3844
2026-01-17 03:16:16.02	23.73	19.34	-40.2	-41.0	22.9	0.00e+00	0	34	0	985661440	52	3843
2026-01-17 03:16:17.03	23.69	19.46	-40.3	-41.1	22.8	0.00e+00	0	34	0	991952896	52	3876
2026-01-17 03:16:18.04	23.66	19.59	-40.2	-41.0	22.9	0.00e+00	0	34	0	998244352	52	3860
2026-01-17 03:16:19.05	23.63	19.72	-40.2	-41.0	22.9	0.00e+00	0	34	0	1003487232	52	3858
2026-01-17 03:16:20.06	23.59	19.85	-40.3	-41.1	22.9	0.00e+00	0	34	0	1008730112	52	3877
2026-01-17 03:16:21.07	23.56	19.98	-40.3	-41.0	22.9	0.00e+00	0	34	0	1015021568	52	3863
2026-01-17 03:16:22.07	23.52	20.11	-40.2	-41.0	22.9	0.00e+00	0	34	0	1020264448	52	3845
2026-01-17 03:16:23.08	23.49	20.24	-40.1	-40.9	23.0	0.00e+00	0	34	0	1025507328	52	3794
2026-01-17 03:16:24.09	23.45	20.37	-40.1	-40.8	23.1	0.00e+00	0	34	0	1031798784	52	3776
2026-01-17 03:16:25.10	23.42	20.51	-40.1	-40.9	23.1	0.00e+00	0	34	0	1037041664	51	4005
2026-01-17 03:16:26.11	23.38	20.64	-40.1	-40.8	23.1	0.00e+00	0	34	0	1042284544	51	3992
2026-01-17 03:16:27.12	23.34	20.77	-40.2	-40.9	23.1	0.00e+00	0	34	0	1048576000	51	4042
2026-01-17 03:16:28.13	23.31	20.91	-40.1	-40.9	23.1	0.00e+00	0	34	0	1054867456	51	4014
2026-01-17 03:16:29.14	23.27	21.04	-40.0	-40.8	23.2	0.00e+00	0	34	0	1060110336	51	3980
2026-01-17 03:16:30.15	23.23	21.18	-40.0	-40.8	23.2	0.00e+00	0	34	0	1065353216	51	3974
2026-01-17 03:16:31.15	23.20	21.32	-40.0	-40.8	23.2	0.00e+00	0	34	0	1071644672	51	3959
2026-01-17 03:16:32.16	23.16	21.45	-40.0	-40.8	23.2	0.00e+00	0	34	0	1076887552	51	3959
2026-01-17 03:16:33.17	23.12	21.59	-39.8	-40.5	23.5	0.00e+00	0	34	0	1083179008	51	3846
2026-01-17 03:16:34.18	23.08	21.73	-39.7	-40.4	23.6	0.00e+00	0	34	0	1088421888	51	3801
2026-01-17 03:16:35.19	23.04	21.87	-39.6	-40.4	23.6	0.00e+00	0	34	0	1093664768	51	3799
2026-01-17 03:16:36.20	23.00	22.01	-39.6	-40.3	23.7	0.00e+00	0	34	0	1099956224	51	3772
2026-01-17 03:16:37.21	22.96	22.15	-39.5	-40.2	23.8	0.00e+00	0	34	0	1105199104	51	3722
2026-01-17 03:16:38.22	22.92	22.30	-39.5	-40.2	23.8	0.00e+00	0	34	0	1110441984	50	3929
2026-01-17 03:16:39.23	22.88	22.44	-39.4	-40.1	23.8	0.00e+00	0	34	0	1116733440	50	3910
2026-01-17 03:16:40.24	22.84	22.58	-39.4	-40.1	23.9	0.00e+00	0	34	0	1123024896	50	3884
2026-01-17 03:16:41.25	22.80	22.73	-39.3	-40.0	24.0	0.00e+00	0	34	0	1128267776	50	3844
2026-01-17 03:16:42.26	22.75	22.87	-39.3	-40.0	24.0	0.00e+00	0	34	0	1133510656	50	3856
2026-01-17 03:16:43.27	22.71	23.02	-39.4	-40.1	23.9	0.00e+00	0	34	0	1139802112	50	3890
2026-01-17 03:16:44.27	22.67	23.17	-39.2	-40.0	24.0	0.00e+00	0	34	0	1145044992	50	3837
2026-01-17 03:16:45.28	22.62	23.31	-39.3	-40.0	23.9	0.00e+00	0	34	0	1150287872	50	3855
2026-01-17 03:16:46.29	22.58	23.46	-39.3	-40.0	23.9	0.00e+00	0	34	0	1156579328	50	3867
2026-01-17 03:16:47.30	22.54	23.61	-39.3	-40.1	23.9	0.00e+00	0	34	0	1161822208	50	3873
2026-01-17 03:16:48.31	22.49	23.76	-39.3	-40.1	23.9	0.00e+00	0	34	0	1168113664	50	3879
2026-01-17 03:16:49.31	22.45	23.91	-39.3	-40.1	23.9	0.00e+00	0	34	0	1173356544	50	3874
2026-01-17 03:16:50.32	22.40	24.06	-39.4	-40.1	23.9	0.00e+00	0	34	0	1178599424	50	3891
2026-01-17 03:16:51.33	22.35	24.22	-39.4	-40.2	23.8	0.00e+00	0	34	0	1184890880	50	3928
2026-01-17 03:16:52.34	22.31	24.37	-39.5	-40.2	23.8	0.00e+00	0	34	0	1191182336	50	3935
2026-01-17 03:16:53.35	22.26	24.53	-39.6	-40.3	23.8	0.00e+00	0	34	0	1196425216	50	3987
2026-01-17 03:16:54.36	22.21	24.68	-39.6	-40.3	23.7	0.00e+00	0	34	0	1201668096	50	3998
2026-01-17 03:16:55.37	22.16	24.84	-39.8	-40.5	23.5	0.00e+00	0	34	0	1207959552	50	4078
2026-01-17 03:16:56.38	22.11	25.00	-39.7	-40.4	23.7	0.00e+00	0	34	0	1213202432	50	4032
2026-01-17 03:16:57.38	22.07	25.15	-39.6	-40.4	23.7	0.00e+00	0	34	0	1218445312	50	4021
2026-01-17 03:16:58.39	22.02	25.31	-39.6	-40.3	23.7	0.00e+00	0	34	0	1224736768	50	3997
2026-01-17 03:16:59.40	21.97	25.47	-39.6	-40.3	23.7	0.00e+00	0	34	0	1229979648	50	4002
2026-01-17 03:17:00.41	21.91	25.63	-39.5	-40.2	23.8	0.00e+00	0	34	0	1235222528	50	3946
2026-01-17 03:17:01.42	21.86	25.80	-39.4	-40.2	23.9	0.00e+00	0	34	0	1241513984	50	3923
2026-01-17 03:17:02.42	21.81	25.96	-39.3	-40.1	24.0	0.00e+00	0	34	0	1246756864	50	3871
2026-01-17 03:17:03.43	21.76	26.12	-39.3	-40.0	24.0	0.00e+00	0	34	0	1253048320	50	3864
2026-01-17 03:17:04.44	21.70	26.29	-39.2	-40.0	24.1	0.00e+00	0	34	0	1258291200	50	3838
2026-01-17 03:17:05.45	21.65	26.45	-39.1	-39.9	24.2	0.00e+00	0	34	0	1264582656	50	3793
2026-01-17 03:17:06.46	21.60	26.62	-39.2	-39.9	24.1	0.00e+00	0	34	0	1269825536	50	3813
2026-01-17 03:17:07.47	21.54	26.79	-39.2	-39.9	24.2	0.00e+00	0	34	0	1276116992	50	3799
2026-01-17 03:17:08.47	21.49	26.96	-39.1	-39.9	24.2	0.00e+00	0	34	0	1281359872	50	3791
2026-01-17 03:17:09.48	21.43	27.13	-39.2	-40.0	24.1	0.00e+00	0	34	0	1286602752	50	3829
2026-01-17 03:17:10.49	21.37	27.30	-39.3	-40.1	24.0	0.00e+00	0	34	0	1292894208	50	3872
2026-01-17 03:17:11.50	21.31	27.47	-39.4	-40.1	24.0	0.00e+00	0	34	0	1298137088	50	3891
2026-01-17 03:17:12.50	21.26	27.64	-39.3	-40.1	24.0	0.00e+00	0	34	0	1303379968	50	3873
2026-01-17 03:17:13.51	21.20	27.82	-39.4	-40.1	24.0	0.00e+00	0	34	0	1309671424	50	3909
2026-01-17 03:17:14.52	21.14	27.99	-39.5	-40.2	23.9	0.00e+00	0	34	0	1314914304	50	3947
2026-01-17 03:17:15.53	21.08	28.17	-39.5	-40.3	23.9	0.00e+00	0	34	0	1321205760	50	3967
2026-01-17 03:17:16.54	21.02	28.34	-39.3	-40.0	24.1	0.00e+00	0	34	0	1326448640	50	3865
2026-01-17 03:17:17.54	20.95	28.52	-39.3	-40.0	24.0	0.00e+00	0	34	0	1332740096	50	3867
2026-01-17 03:17:18.55	20.89	28.70	-39.2	-40.0	24.1	0.00e+00	0	34	0	1337982976	50	3837
2026-01-17 03:17:19.56	20.83	28.88	-39.2	-39.9	24.2	0.00e+00	0	34	0	1343225856	50	3821
2026-01-17 03:17:20.57	20.76	29.06	-39.2	-39.9	24.2	0.00e+00	0	34	0	1349517312	50	3816
2026-01-17 03:17:21.58	20.70	29.25	-39.1	-39.8	24.3	0.00e+00	0	34	0	1354760192	50	3768
2026-01-17 03:17:22.59	20.63	29.43	-39.1	-39.8	24.3	0.00e+00	0	34	0	1361051648	50	3761
2026-01-17 03:17:23.60	20.57	29.62	-39.1	-39.8	24.3	0.00e+00	0	34	0	1366294528	50	3769
2026-01-17 03:17:24.61	20.50	29.80	-38.9	-39.6	24.5	0.00e+00	0	34	0	1371537408	49	3894
2026-01-17 03:17:25.62	20.43	29.99	-38.8	-39.5	24.5	0.00e+00	0	34	0	1377828864	49	3851
2026-01-17 03:17:26.62	20.36	30.18	-38.8	-39.5	24.6	0.00e+00	0	34	0	1383071744	49	3833
2026-01-17 03:17:27.63	20.29	30.37	-38.8	-39.5	24.5	0.00e+00	0	34	0	1389363200	49	3858
2026-01-17 03:17:28.64	20.22	30.56	-38.8	-39.5	24.6	0.00e+00	0	34	0	1394606080	49	3853
2026-01-17 03:17:29.65	20.15	30.75	-38.7	-39.4	24.6	0.00e+00	0	34	0	1400897536	49	3824
2026-01-17 03:17:30.66	20.08	30.95	-38.7	-39.5	24.6	0.00e+00	0	34	0	1406140416	49	3831
2026-01-17 03:17:31.67	20.00	31.14	-38.9	-39.6	24.5	0.00e+00	0	34	0	1411383296	49	3885
2026-01-17 03:17:32.67	19.93	31.34	-38.7	-39.4	24.6	0.00e+00	0	34	0	1417674752	49	3822
2026-01-17 03:17:33.68	19.85	31.54	-38.7	-39.5	24.6	0.00e+00	0	34	0	1422917632	49	3837
2026-01-17 03:17:34.69	19.78	31.73	-38.8	-39.5	24.6	0.00e+00	0	34	0	1428160512	49	3857
2026-01-17 03:17:35.70	19.70	31.93	-38.6	-39.3	24.7	0.00e+00	0	34	0	1434451968	49	3774
2026-01-17 03:17:36.71	19.62	32.14	-38.6	-39.3	24.7	0.00e+00	0	34	0	1439694848	49	3775
2026-01-17 03:17:37.72	19.54	32.34	-38.5	-39.3	24.8	0.00e+00	0	34	0	1445986304	49	3740
2026-01-17 03:17:38.73	19.46	32.54	-38.5	-39.2	24.8	0.00e+00	0	34	0	1451229184	48	3946
2026-01-17 03:17:39.74	19.38	32.75	-38.5	-39.2	24.8	0.00e+00	0	34	0	1457520640	48	3953
2026-01-17 03:17:40.74	19.30	32.95	-38.4	-39.1	24.9	0.00e+00	0	34	0	1462763520	48	3895
2026-01-17 03:17:41.76	19.21	33.16	-38.5	-39.2	24.9	0.00e+00	0	34	0	1469054976	48	3924
2026-01-17 03:17:42.76	19.13	33.37	-38.5	-39.2	24.9	0.00e+00	0	34	0	1474297856	48	3929
2026-01-17 03:17:43.77	19.04	33.58	-38.4	-39.1	25.0	0.00e+00	0	34	0	1479540736	48	3876
2026-01-17 03:17:44.78	18.96	33.80	-38.5	-39.2	24.9	0.00e+00	0	34	0	1485832192	48	3919
2026-01-17 03:17:45.79	18.87	34.01	-38.5	-39.2	24.9	0.00e+00	0	34	0	1491075072	48	3925
2026-01-17 03:17:46.80	18.78	34.22	-38.6	-39.3	24.8	0.00e+00	0	34	0	1496317952	48	3988
2026-01-17 03:17:47.81	18.69	34.44	-38.4	-39.1	25.0	0.00e+00	0	34	0	1502609408	48	3882
2026-01-17 03:17:48.82	18.60	34.66	-38.3	-39.0	25.1	0.00e+00	0	34	0	1507852288	48	3828
2026-01-17 03:17:49.83	18.50	34.88	-38.2	-38.9	25.1	0.00e+00	0	34	0	1514143744	48	3802
2026-01-17 03:17:50.84	18.41	35.10	-38.2	-38.9	25.2	0.00e+00	0	34	0	1519386624	48	3781
2026-01-17 03:17:51.85	18.31	35.32	-38.2	-38.9	25.2	0.00e+00	0	34	0	1525678080	48	3788
2026-01-17 03:17:52.85	18.21	35.54	-38.3	-39.0	25.1	0.00e+00	0	34	0	1530920960	48	3842
2026-01-17 03:17:53.87	18.11	35.77	-38.3	-39.0	25.0	0.00e+00	0	34	0	1536163840	48	3860
2026-01-17 03:17:54.87	18.01	36.00	-38.4	-39.1	24.9	0.00e+00	0	34	0	1542455296	48	3896
2026-01-17 03:17:55.88	17.91	36.23	-38.6	-39.3	24.8	0.00e+00	0	34	0	1547698176	48	3967
2026-01-17 03:17:56.89	17.81	36.45	-38.4	-39.1	25.0	0.00e+00	0	34	0	1553989632	48	3899
2026-01-17 03:17:57.90	17.70	36.69	-38.6	-39.3	24.9	0.00e+00	0	34	0	1559232512	48	3960
2026-01-17 03:17:58.91	17.60	36.92	-38.5	-39.2	24.9	0.00e+00	0	34	0	1564475392	48	3940
2026-01-17 03:17:59.92	17.49	37.15	-38.5	-39.2	24.9	0.00e+00	0	34	0	1570766848	48	3952
2026-01-17 03:18:00.93	17.38	37.39	-38.5	-39.2	24.9	0.00e+00	0	34	0	1577058304	48	3943
2026-01-17 03:18:01.94	17.27	37.63	-38.5	-39.2	24.9	0.00e+00	0	34	0	1582301184	48	3918
2026-01-17 03:18:02.95	17.16	37.87	-38.6	-39.3	24.8	0.00e+00	0	34	0	1587544064	48	3963
2026-01-17 03:18:03.96	17.04	38.11	-38.5	-39.2	24.9	0.00e+00	0	34	0	1593835520	48	3937
2026-01-17 03:18:04.97	16.92	38.35	-38.6	-39.3	24.8	0.00e+00	0	34	0	1599078400	48	3986
2026-01-17 03:18:05.97	16.81	38.59	-38.6	-39.4	24.8	0.00e+00	0	34	0	1604321280	48	4008
2026-01-17 03:18:06.98	16.69	38.84	-38.7	-39.5	24.7	0.00e+00	0	34	0	1610612736	48	4052
2026-01-17 03:18:07.99	16.57	39.08	-38.6	-39.3	24.8	0.00e+00	0	34	0	1615855616	48	3991
2026-01-17 03:18:09.00	16.44	39.33	-38.5	-39.2	24.9	0.00e+00	0	34	0	1621098496	48	3952
2026-01-17 03:18:10.00	16.32	39.58	-38.5	-39.2	24.9	0.00e+00	0	34	0	1627389952	48	3932
2026-01-17 03:18:11.01	16.19	39.83	-38.6	-39.3	24.8	0.00e+00	0	34	0	1632632832	48	3997
2026-01-17 03:18:12.02	16.06	40.09	-38.4	-39.1	25.0	0.00e+00	0	34	0	1638924288	48	3904
2026-01-17 03:18:13.03	15.93	40.34	-38.4	-39.1	25.0	0.00e+00	0	34	0	1644167168	48	3876
2026-01-17 03:18:14.04	15.79	40.60	-38.4	-39.1	25.0	0.00e+00	0	34	0	1650458624	48	3908
2026-01-17 03:18:15.04	15.66	40.86	-38.4	-39.1	25.0	0.00e+00	0	34	0	1655701504	48	3897
2026-01-17 03:18:16.05	15.52	41.12	-38.6	-39.3	24.8	0.00e+00	0	34	0	1661992960	48	3978
2026-01-17 03:18:17.06	15.38	41.38	-38.8	-39.5	24.6	0.00e+00	0	34	0	1667235840	48	4085
2026-01-17 03:18:18.07	15.23	41.64	-39.1	-39.8	24.4	0.00e+00	0	34	0	1672478720	48	4208
2026-01-17 03:18:19.08	15.09	41.91	-39.3	-40.0	24.2	0.00e+00	0	34	0	1678770176	49	4086
2026-01-17 03:18:20.09	14.94	42.18	-39.3	-40.1	24.2	0.00e+00	0	34	0	1684013056	49	4118
2026-01-17 03:18:21.09	14.79	42.44	-39.5	-40.2	24.1	0.00e+00	0	34	0	1689255936	49	4177
2026-01-17 03:18:22.10	14.64	42.71	-39.4	-40.1	24.1	0.00e+00	0	34	0	1695547392	49	4137
2026-01-17 03:18:23.11	14.48	42.99	-39.2	-40.0	24.3	0.00e+00	0	34	0	1700790272	49	4062
2026-01-17 03:18:24.12	14.32	43.26	-39.3	-40.0	24.3	0.00e+00	0	34	0	1706033152	49	4080
2026-01-17 03:18:25.13	14.16	43.54	-39.2	-40.0	24.3	0.00e+00	0	34	0	1712324608	49	4060
2026-01-17 03:18:26.13	14.00	43.81	-39.2	-39.9	24.3	0.00e+00	0	34	0	1718616064	49	4038
2026-01-17 03:18:27.14	13.83	44.09	-39.2	-40.0	24.3	0.00e+00	0	34	0	1723858944	49	4054
2026-01-17 03:18:28.15	13.66	44.37	-39.1	-39.8	24.4	0.00e+00	0	34	0	1729101824	49	3994
2026-01-17 03:18:29.16	13.48	44.66	-39.2	-39.9	24.4	0.00e+00	0	34	0	1735393280	49	4026
2026-01-17 03:18:30.17	13.31	44.94	-39.2	-39.9	24.4	0.00e+00	0	34	0	1740636160	49	4026
2026-01-17 03:18:31.18	13.13	45.23	-39.1	-39.8	24.4	0.00e+00	0	34	0	1746927616	49	3986
2026-01-17 03:18:32.19	12.94	45.51	-39.0	-39.7	24.5	0.00e+00	0	34	0	1752170496	49	3958
2026-01-17 03:18:33.20	12.76	45.80	-39.2	-39.9	24.3	0.00e+00	0	34	0	1757413376	49	4034
2026-01-17 03:18:34.21	12.56	46.10	-39.3	-40.0	24.3	0.00e+00	0	34	0	1763704832	49	4063
2026-01-17 03:18:35.22	12.37	46.39	-39.1	-39.8	24.4	0.00e+00	0	34	0	1768947712	49	3986
2026-01-17 03:18:36.22	12.17	46.68	-39.1	-39.8	24.4	0.00e+00	0	34	0	1774190592	49	3982
2026-01-17 03:18:37.23	11.97	46.98	-38.9	-39.7	24.6	0.00e+00	0	34	0	1780482048	49	3916
2026-01-17 03:18:38.24	11.77	47.28	-39.1	-39.8	24.5	0.00e+00	0	34	0	1786773504	49	3975
2026-01-17 03:18:39.25	11.56	47.58	-39.1	-39.8	24.4	0.00e+00	0	34	0	1792016384	49	3995
2026-01-17 03:18:40.26	11.34	47.88	-39.2	-39.9	24.4	0.00e+00	0	34	0	1797259264	49	4016
2026-01-17 03:18:41.27	11.12	48.18	-39.1	-39.8	24.4	0.00e+00	0	34	0	1803550720	49	3989
2026-01-17 03:18:42.28	10.90	48.49	-39.2	-39.9	24.4	0.00e+00	0	34	0	1808793600	49	4021
2026-01-17 03:18:43.28	10.68	48.79	-39.1	-39.8	24.5	0.00e+00	0	34	0	1814036480	49	3984
2026-01-17 03:18:44.29	10.44	49.10	-39.4	-40.1	24.2	0.00e+00	0	34	0	1820327936	49	4125
2026-01-17 03:18:45.30	10.21	49.41	-39.6	-40.3	24.0	0.00e+00	0	34	0	1825570816	49	4236
2026-01-17 03:18:46.31	9.97	49.72	-39.6	-40.3	24.0	0.00e+00	0	34	0	1831862272	49	4227
2026-01-17 03:18:47.32	9.72	50.04	-39.7	-40.4	23.9	0.00e+00	0	34	0	1837105152	49	4260
2026-01-17 03:18:48.33	9.47	50.35	-39.8	-40.5	23.9	0.00e+00	0	34	0	1843396608	50	4088
2026-01-17 03:18:49.34	9.21	50.67	-39.9	-40.7	23.7	0.00e+00	0	34	0	1848639488	50	4151
2026-01-17 03:18:50.34	8.95	50.98	-39.9	-40.6	23.7	0.00e+00	0	34	0	1854930944	50	4141
2026-01-17 03:18:51.35	8.68	51.30	-40.1	-40.9	23.5	0.00e+00	0	34	0	1860173824	50	4243
2026-01-17 03:18:52.36	8.41	51.62	-40.3	-41.0	23.4	0.00e+00	0	34	0	1865416704	51	4089
2026-01-17 03:18:53.37	8.13	51.95	-40.2	-41.0	23.4	0.00e+00	0	34	0	1871708160	51	4054
2026-01-17 03:18:54.38	7.84	52.27	-40.1	-40.9	23.5	0.00e+00	0	34	0	1876951040	51	4011
2026-01-17 03:18:55.39	7.55	52.59	-40.2	-40.9	23.5	0.00e+00	0	34	0	1882193920	51	4044
2026-01-17 03:18:56.40	7.25	52.92	-40.1	-40.9	23.5	0.00e+00	0	34	0	1888485376	51	4028
2026-01-17 03:18:57.41	6.94	53.25	-40.3	-41.1	23.4	0.00e+00	0	34	0	1893728256	51	4115
2026-01-17 03:18:58.42	6.62	53.58	-40.2	-40.9	23.5	0.00e+00	0	34	0	1898971136	51	4038
2026-01-17 03:18:59.42	6.31	53.91	-40.1	-40.8	23.6	0.00e+00	0	34	0	1905262592	51	3999
2026-01-17 03:19:00.43	5.98	54.24	-40.1	-40.9	23.5	0.00e+00	0	34	0	1911554048	51	4017
2026-01-17 03:19:01.44	5.64	54.57	-40.0	-40.7	23.7	0.00e+00	0	34	0	1916796928	51	3941
2026-01-17 03:19:02.45	5.30	54.90	-40.0	-40.8	23.6	0.00e+00	0	34	0	1922039808	51	3987
2026-01-17 03:19:03.46	4.94	55.24	-40.1	-40.9	23.5	0.00e+00	0	34	0	1928331264	51	4025
2026-01-17 03:19:04.47	4.58	55.58	-40.2	-41.0	23.5	0.00e+00	0	34	0	1933574144	51	4054
2026-01-17 03:19:05.48	4.21	55.91	-39.9	-40.7	23.8	0.00e+00	0	34	0	1939865600	51	3928
2026-01-17 03:19:06.48	3.84	56.25	-39.7	-40.5	23.9	0.00e+00	0	34	0	1945108480	51	3835
2026-01-17 03:19:07.49	3.45	56.59	-39.5	-40.2	24.2	0.00e+00	0	34	0	1950351360	51	3731
2026-01-17 03:19:08.50	3.05	56.93	-39.7	-40.4	24.0	0.00e+00	0	34	0	1956642816	50	4031
2026-01-17 03:19:09.51	2.64	57.27	-39.9	-40.7	23.8	0.00e+00	0	34	0	1961885696	50	4147
2026-01-17 03:19:10.52	2.22	57.61	-39.8	-40.5	23.9	0.00e+00	0	34	0	1967128576	50	4081
2026-01-17 03:19:11.53	1.79	57.95	-39.5	-40.3	24.1	0.00e+00	0	34	0	1973420032	50	3963
2026-01-17 03:19:12.54	1.35	58.29	-39.4	-40.1	24.3	0.00e+00	0	34	0	1979711488	50	3887
2026-01-17 03:19:13.55	0.90	58.63	-39.2	-39.9	24.4	0.00e+00	0	34	0	1984954368	50	3824
2026-01-17 03:19:14.56	0.43	58.97	-39.3	-40.0	24.4	0.00e+00	0	34	0	1990197248	50	3840
2026-01-17 03:19:15.57	359.96	59.32	-39.3	-40.0	24.4	0.00e+00	0	34	0	1996488704	50	3850
2026-01-17 03:19:16.58	359.47	59.66	-39.1	-39.7	24.6	0.00e+00	0	34	0	2001731584	50	3736
2026-01-17 03:19:17.58	358.97	60.00	-39.0	-39.7	24.7	0.00e+00	0	34	0	2006974464	49	3915
2026-01-17 03:19:18.59	358.45	60.34	-39.2	-39.9	24.4	0.00e+00	0	34	0	2013265920	49	4028
2026-01-17 03:19:19.60	357.92	60.68	-39.3	-40.0	24.3	0.00e+00	0	34	0	2018508800	49	4088
2026-01-17 03:19:20.61	357.38	61.02	-39.2	-39.9	24.4	0.00e+00	0	34	0	2024800256	49	4051
2026-01-17 03:19:21.62	356.82	61.36	-39.2	-39.9	24.4	0.00e+00	0	34	0	2030043136	49	4025
2026-01-17 03:19:22.63	356.24	61.70	-39.1	-39.8	24.6	0.00e+00	0	34	0	2035286016	49	3981
2026-01-17 03:19:23.64	355.65	62.04	-39.0	-39.7	24.6	0.00e+00	0	34	0	2041577472	49	3950
2026-01-17 03:19:24.64	355.05	62.38	-39.1	-39.8	24.6	0.00e+00	0	34	0	2047868928	49	3963
2026-01-17 03:19:25.65	354.42	62.72	-38.8	-39.5	24.8	0.00e+00	0	34	0	2053111808	49	3853
2026-01-17 03:19:26.66	353.78	63.05	-38.8	-39.5	24.9	0.00e+00	0	34	0	2058354688	49	3836
2026-01-17 03:19:27.67	353.11	63.39	-39.0	-39.8	24.6	0.00e+00	0	34	0	2064646144	49	3961
2026-01-17 03:19:28.68	352.43	63.72	-39.1	-39.8	24.5	0.00e+00	0	34	0	2069889024	49	3997
2026-01-17 03:19:29.68	351.74	64.05	-39.1	-39.8	24.6	0.00e+00	0	34	0	2075131904	49	3986
2026-01-17 03:19:30.69	351.02	64.37	-39.0	-39.7	24.6	0.00e+00	0	34	0	2081423360	49	3957
2026-01-17 03:19:31.70	350.28	64.70	-39.2	-39.9	24.5	0.00e+00	0	34	0	2086666240	49	4028
2026-01-17 03:19:32.71	349.51	65.02	-38.9	-39.6	24.8	0.00e+00	0	34	0	2091909120	49	3895
2026-01-17 03:19:33.72	348.72	65.34	-38.2	-38.9	25.3	0.00e+00	0	34	0	2098200576	48	3798
2026-01-17 03:19:34.72	347.92	65.66	-38.2	-38.8	25.4	0.00e+00	0	34	0	2103443456	48	3774
2026-01-17 03:19:35.73	347.09	65.97	-38.1	-38.8	25.4	0.00e+00	0	34	0	2109734912	48	3767
2026-01-17 03:19:36.74	346.23	66.29	-38.1	-38.7	25.5	0.00e+00	0	34	0	2114977792	48	3718
2026-01-17 03:19:37.75	345.35	66.59	-37.7	-38.4	25.3	0.00e+00	0	34	0	2121269248	47	3810
2026-01-17 03:19:38.76	344.44	66.90	-37.8	-38.5	25.2	0.00e+00	0	34	0	2126512128	47	3859
2026-01-17 03:19:39.76	343.52	67.19	-37.6	-38.3	25.4	0.00e+00	0	34	0	2132803584	47	3761
2026-01-17 03:19:40.77	342.56	67.49	-37.0	-37.7	25.9	0.00e+00	0	34	0	2138046464	46	3716
2026-01-17 03:19:41.78	341.57	67.78	-37.2	-37.9	25.7	0.00e+00	0	34	0	2143289344	46	3799
2026-01-17 03:19:42.79	340.55	68.06	-37.5	-38.2	25.5	0.00e+00	0	34	0	2149580800	46	3950
2026-01-17 03:19:43.80	339.50	68.34	-37.5	-38.2	25.5	0.00e+00	0	34	0	2154823680	46	3920
2026-01-17 03:19:44.80	338.44	68.61	-37.6	-38.2	25.4	0.00e+00	0	34	0	2160066560	46	3956
2026-01-17 03:19:45.81	337.33	68.87	-37.5	-38.1	25.5	0.00e+00	0	34	0	2166358016	46	3909
2026-01-17 03:19:46.82	336.20	69.13	-37.6	-38.3	25.4	0.00e+00	0	34	0	2171600896	46	3980
2026-01-17 03:19:47.83	335.03	69.38	-37.2	-37.9	25.7	0.00e+00	0	34	0	2177892352	46	3816
2026-01-17 03:19:48.84	333.84	69.63	-37.5	-38.2	25.5	0.00e+00	0	34	0	2183135232	46	3922
2026-01-17 03:19:49.84	332.62	69.86	-37.8	-38.5	25.3	0.00e+00	0	34	0	2189426688	46	4059
2026-01-17 03:19:50.85	331.37	70.09	-37.5	-38.2	25.5	0.00e+00	0	34	0	2194669568	46	3935
2026-01-17 03:19:51.86	330.08	70.31	-37.8	-38.5	25.3	0.00e+00	0	34	0	2199912448	46	4056
2026-01-17 03:19:52.87	328.76	70.52	-37.8	-38.5	25.2	0.00e+00	0	34	0	2206203904	46	4098
2026-01-17 03:19:53.88	327.41	70.72	-37.8	-38.5	25.2	0.00e+00	0	34	0	2211446784	46	4093
2026-01-17 03:19:54.88	326.05	70.91	-37.9	-38.6	25.2	0.00e+00	0	34	0	2217738240	46	4103
2026-01-17 03:19:55.89	324.64	71.09	-37.9	-38.6	25.1	0.00e+00	0	34	0	2222981120	46	4134
2026-01-17 03:19:56.90	323.21	71.26	-37.7	-38.4	25.3	0.00e+00	0	34	0	2228224000	46	4028
2026-01-17 03:19:57.91	321.75	71.42	-38.0	-38.7	25.0	0.00e+00	0	34	0	2234515456	46	4187
2026-01-17 03:19:58.92	320.26	71.57	-38.0	-38.8	24.9	0.00e+00	0	34	0	2239758336	47	3964
2026-01-17 03:19:59.93	318.75	71.70	-37.8	-38.5	25.2	0.00e+00	0	34	0	2246049792	47	3840
2026-01-17 03:20:00.94	317.21	71.83	-37.9	-38.6	25.1	0.00e+00	0	34	0	2251292672	47	3908
2026-01-17 03:20:01.95	315.65	71.94	-38.0	-38.7	25.0	0.00e+00	0	34	0	2257584128	47	3942
2026-01-17 03:20:02.96	314.08	72.04	-37.9	-38.6	25.2	0.00e+00	0	34	0	2262827008	47	3888
2026-01-17 03:20:03.97	312.49	72.12	-38.0	-38.6	25.1	0.00e+00	0	34	0	2268069888	47	3908
2026-01-17 03:20:04.97	310.89	72.19	-38.2	-38.9	24.8	0.00e+00	0	34	0	2274361344	47	4026
2026-01-17 03:20:05.98	309.27	72.25	-38.5	-39.3	24.5	0.00e+00	0	34	0	2279604224	47	4204
2026-01-17 03:20:06.99	307.64	72.30	-38.1	-38.8	25.0	0.00e+00	0	34	0	2284847104	47	3979
2026-01-17 03:20:08.00	306.00	72.33	-37.5	-38.2	25.5	0.00e+00	0	34	0	2291138560	47	3721
2026-01-17 03:20:09.01	304.36	72.35	-37.8	-38.5	25.3	0.00e+00	0	34	0	2296381440	47	3848
2026-01-17 03:20:10.02	302.72	72.35	-37.9	-38.7	25.1	0.00e+00	0	34	0	2302672896	47	3916
2026-01-17 03:20:11.03	301.07	72.34	-37.8	-38.5	25.3	0.00e+00	0	34	0	2307915776	47	3837
2026-01-17 03:20:12.04	299.43	72.32	-37.8	-38.5	25.3	0.00e+00	0	34	0	2314207232	47	3840
2026-01-17 03:20:13.05	297.80	72.28	-37.7	-38.4	25.4	0.00e+00	0	34	0	2319450112	47	3795
2026-01-17 03:20:14.06	296.17	72.23	-37.9	-38.6	25.1	0.00e+00	0	34	0	2325741568	47	3902
2026-01-17 03:20:15.07	294.55	72.16	-37.8	-38.5	25.2	0.00e+00	0	34	0	2330984448	47	3853
2026-01-17 03:20:16.08	292.95	72.09	-38.0	-38.7	25.0	0.00e+00	0	34	0	2336227328	47	3927
2026-01-17 03:20:17.08	291.38	72.00	-38.1	-38.9	24.9	0.00e+00	0	34	0	2342518784	47	4009
2026-01-17 03:20:18.09	289.81	71.89	-38.0	-38.7	25.0	0.00e+00	0	34	0	2347761664	47	3951
2026-01-17 03:20:19.10	288.26	71.78	-38.1	-38.8	25.0	0.00e+00	0	34	0	2353004544	47	3975
2026-01-17 03:20:20.11	286.74	71.65	-37.7	-38.4	25.4	0.00e+00	0	34	0	2359296000	47	3783
2026-01-17 03:20:21.12	285.23	71.51	-37.7	-38.4	25.4	0.00e+00	0	34	0	2364538880	47	3799
2026-01-17 03:20:22.13	283.75	71.35	-37.6	-38.3	25.4	0.00e+00	0	34	0	2370830336	47	3753
2026-01-17 03:20:23.14	282.30	71.19	-37.7	-38.4	25.3	0.00e+00	0	34	0	2376073216	47	3819
2026-01-17 03:20:24.14	280.89	71.02	-38.1	-38.8	25.0	0.00e+00	0	34	0	2382364672	47	3989
2026-01-17 03:20:25.15	279.50	70.83	-37.9	-38.6	25.1	0.00e+00	0	34	0	2387607552	47	3886
2026-01-17 03:20:26.16	278.13	70.64	-38.0	-38.7	25.1	0.00e+00	0	34	0	2392850432	47	3938
2026-01-17 03:20:27.17	276.79	70.43	-38.1	-38.8	25.0	0.00e+00	0	34	0	2399141888	47	4003
2026-01-17 03:20:28.19	275.47	70.22	-38.3	-39.1	24.8	0.00e+00	0	34	0	2404384768	47	4113
2026-01-17 03:20:29.19	274.21	70.00	-37.8	-38.5	25.3	0.00e+00	0	34	0	2410676224	47	3844
2026-01-17 03:20:30.20	272.96	69.76	-37.5	-38.2	25.5	0.00e+00	0	34	0	2415919104	47	3718
2026-01-17 03:20:31.21	271.75	69.52	-37.7	-38.4	25.4	0.00e+00	0	34	0	2421161984	47	3791
2026-01-17 03:20:32.22	270.57	69.28	-37.7	-38.4	25.4	0.00e+00	0	34	0	2427453440	47	3805
2026-01-17 03:20:33.22	269.42	69.02	-37.7	-38.4	25.3	0.00e+00	0	34	0	2432696320	47	3821
2026-01-17 03:20:34.23	268.30	68.76	-37.6	-38.3	25.4	0.00e+00	0	34	0	2438987776	47	3770
2026-01-17 03:20:35.24	267.21	68.49	-37.8	-38.5	25.2	0.00e+00	0	34	0	2444230656	47	3861
2026-01-17 03:20:36.25	266.14	68.22	-37.7	-38.5	25.3	0.00e+00	0	34	0	2450522112	47	3830
2026-01-17 03:20:37.26	265.11	67.94	-37.7	-38.4	25.4	0.00e+00	0	34	0	2455764992	47	3792
2026-01-17 03:20:38.27	264.10	67.65	-37.7	-38.4	25.3	0.00e+00	0	34	0	2461007872	47	3817
2026-01-17 03:20:39.28	263.13	67.36	-38.0	-38.8	25.0	0.00e+00	0	34	0	2467299328	47	3972
2026-01-17 03:20:40.28	262.18	67.07	-37.7	-38.5	25.3	0.00e+00	0	34	0	2472542208	47	3830
2026-01-17 03:20:41.29	261.26	66.76	-37.6	-38.3	25.4	0.00e+00	0	34	0	2477785088	47	3755
2026-01-17 03:20:42.30	260.36	66.46	-37.7	-38.4	25.4	0.00e+00	0	34	0	2484076544	47	3783
2026-01-17 03:20:43.31	259.49	66.15	-37.8	-38.5	25.3	0.00e+00	0	34	0	2489319424	47	3842
2026-01-17 03:20:44.32	258.64	65.84	-37.9	-38.7	25.1	0.00e+00	0	34	0	2495610880	47	3919
2026-01-17 03:20:45.33	257.82	65.52	-37.8	-38.5	25.3	0.00e+00	0	34	0	2500853760	47	3838
2026-01-17 03:20:46.34	257.02	65.20	-37.9	-38.6	25.1	0.00e+00	0	34	0	2507145216	47	3910
2026-01-17 03:20:47.35	256.24	64.88	-38.2	-38.9	24.9	0.00e+00	0	34	0	2512388096	47	4051
2026-01-17 03:20:48.36	255.49	64.55	-38.2	-39.0	24.9	0.00e+00	0	34	0	2518679552	47	4055
2026-01-17 03:20:49.36	254.76	64.23	-38.1	-38.8	25.0	0.00e+00	0	34	0	2523922432	47	3978
2026-01-17 03:20:50.37	254.05	63.90	-38.2	-38.9	24.9	0.00e+00	0	34	0	2529165312	47	4007
2026-01-17 03:20:51.38	253.35	63.57	-38.5	-39.3	24.6	0.00e+00	0	34	0	2535456768	47	4210
2026-01-17 03:20:52.39	252.68	63.23	-38.2	-39.0	24.8	0.00e+00	0	34	0	2540699648	47	4058
2026-01-17 03:20:53.40	252.02	62.90	-38.1	-38.8	25.0	0.00e+00	0	34	0	2545942528	47	3995
2026-01-17 03:20:54.41	251.39	62.56	-38.3	-39.0	24.8	0.00e+00	0	34	0	2552233984	47	4060
2026-01-17 03:20:55.42	250.77	62.22	-38.4	-39.1	24.7	0.00e+00	0	34	0	2557476864	47	4117
2026-01-17 03:20:56.43	250.17	61.88	-38.2	-38.9	24.9	0.00e+00	0	34	0	2562719744	47	4024
2026-01-17 03:20:57.44	249.58	61.54	-38.3	-39.0	24.8	0.00e+00	0	34	0	2569011200	47	4070
2026-01-17 03:20:58.45	249.01	61.20	-38.3	-39.0	24.8	0.00e+00	0	34	0	2575302656	47	4081
2026-01-17 03:20:59.46	248.46	60.86	-38.5	-39.2	24.6	0.00e+00	0	34	0	2580545536	47	4174
2026-01-17 03:21:00.46	247.92	60.52	-38.6	-39.3	24.6	0.00e+00	0	34	0	2585788416	47	4212
2026-01-17 03:21:01.47	247.40	60.18	-38.7	-39.4	24.4	0.00e+00	0	34	0	2592079872	47	4263
2026-01-17 03:21:02.48	246.89	59.83	-39.3	-40.0	24.4	0.00e+00	0	34	0	2597322752	49	4077
2026-01-17 03:21:03.49	246.39	59.49	-39.3	-40.1	24.3	0.00e+00	0	34	0	2603614208	49	4120
2026-01-17 03:21:04.50	245.91	59.15	-39.3	-40.1	24.3	0.00e+00	0	34	0	2608857088	49	4108
2026-01-17 03:21:05.51	245.43	58.80	-39.3	-40.0	24.4	0.00e+00	0	34	0	2614099968	49	4096
2026-01-17 03:21:06.52	244.97	58.46	-39.3	-40.1	24.3	0.00e+00	0	34	0	2620391424	49	4111
2026-01-17 03:21:07.52	244.53	58.12	-39.4	-40.1	24.3	0.00e+00	0	34	0	2625634304	49	4120
2026-01-17 03:21:08.53	244.09	57.78	-39.1	-39.8	24.6	0.00e+00	0	34	0	2631925760	49	4003
2026-01-17 03:21:09.54	243.67	57.44	-39.2	-39.9	24.5	0.00e+00	0	34	0	2637168640	49	4016
2026-01-17 03:21:10.55	243.25	57.10	-39.1	-39.8	24.6	0.00e+00	0	34	0	2643460096	49	3998
2026-01-17 03:21:11.56	242.85	56.76	-39.2	-39.9	24.5	0.00e+00	0	34	0	2648702976	49	4019
2026-01-17 03:21:12.57	242.45	56.42	-39.3	-40.0	24.4	0.00e+00	0	34	0	2653945856	49	4070
2026-01-17 03:21:13.58	242.07	56.08	-39.5	-40.2	24.2	0.00e+00	0	34	0	2660237312	49	4149
2026-01-17 03:21:14.59	241.69	55.74	-39.7	-40.5	24.0	0.00e+00	0	34	0	2665480192	50	4056
2026-01-17 03:21:15.60	241.33	55.40	-39.9	-40.7	23.8	0.00e+00	0	34	0	2670723072	50	4166
2026-01-17 03:21:16.61	240.97	55.07	-40.0	-40.8	23.7	0.00e+00	0	34	0	2677014528	50	4217
2026-01-17 03:21:17.61	240.62	54.73	-39.9	-40.7	23.8	0.00e+00	0	34	0	2682257408	50	4168
2026-01-17 03:21:18.63	240.28	54.40	-40.0	-40.8	23.7	0.00e+00	0	34	0	2688548864	50	4201
2026-01-17 03:21:19.63	239.95	54.07	-39.7	-40.5	24.0	0.00e+00	0	34	0	2693791744	50	4064
2026-01-17 03:21:20.64	239.62	53.73	-39.7	-40.4	24.0	0.00e+00	0	34	0	2700083200	50	4041
2026-01-17 03:21:21.65	239.30	53.40	-39.6	-40.4	24.1	0.00e+00	0	34	0	2705326080	50	4015
2026-01-17 03:21:22.66	238.99	53.07	-39.7	-40.4	24.0	0.00e+00	0	34	0	2711617536	50	4037
2026-01-17 03:21:23.67	238.69	52.74	-39.4	-40.1	24.3	0.00e+00	0	34	0	2716860416	50	3909
2026-01-17 03:21:24.68	238.39	52.42	-39.5	-40.3	24.2	0.00e+00	0	34	0	2722103296	50	3961
2026-01-17 03:21:25.69	238.10	52.09	-39.4	-40.2	24.2	0.00e+00	0	34	0	2728394752	50	3922
2026-01-17 03:21:26.70	237.82	51.77	-39.4	-40.2	24.3	0.00e+00	0	34	0	2733637632	50	3927
2026-01-17 03:21:27.71	237.54	51.45	-39.4	-40.1	24.3	0.00e+00	0	34	0	2738880512	50	3894
2026-01-17 03:21:28.72	237.27	51.12	-39.3	-40.0	24.4	0.00e+00	0	34	0	2745171968	50	3861
2026-01-17 03:21:29.72	237.00	50.81	-39.4	-40.1	24.3	0.00e+00	0	34	0	2750414848	50	3885
2026-01-17 03:21:30.73	236.74	50.49	-39.3	-40.0	24.4	0.00e+00	0	34	0	2756706304	50	3858
2026-01-17 03:21:31.74	236.49	50.17	-38.9	-39.6	24.7	0.00e+00	0	34	0	2761949184	49	3912
2026-01-17 03:21:32.75	236.24	49.86	-38.9	-39.6	24.7	0.00e+00	0	34	0	2768240640	49	3906
2026-01-17 03:21:33.76	235.99	49.54	-38.9	-39.6	24.7	0.00e+00	0	34	0	2773483520	49	3891
2026-01-17 03:21:34.77	235.75	49.23	-39.0	-39.7	24.6	0.00e+00	0	34	0	2778726400	49	3953
2026-01-17 03:21:35.78	235.52	48.92	-39.1	-39.9	24.5	0.00e+00	0	34	0	2785017856	49	4008
2026-01-17 03:21:36.79	235.29	48.61	-39.0	-39.7	24.7	0.00e+00	0	34	0	2790260736	49	3938
2026-01-17 03:21:37.80	235.06	48.31	-38.9	-39.6	24.7	0.00e+00	0	34	0	2796552192	49	3884
2026-01-17 03:21:38.80	234.84	48.00	-38.9	-39.6	24.7	0.00e+00	0	34	0	2801795072	49	3904
2026-01-17 03:21:39.81	234.62	47.70	-38.9	-39.6	24.7	0.00e+00	0	34	0	2807037952	49	3903
2026-01-17 03:21:40.82	234.41	47.40	-38.9	-39.6	24.7	0.00e+00	0	34	0	2813329408	49	3899
2026-01-17 03:21:41.83	234.20	47.10	-39.0	-39.7	24.6	0.00e+00	0	34	0	2819620864	49	3931
2026-01-17 03:21:42.84	234.00	46.80	-38.9	-39.6	24.7	0.00e+00	0	34	0	2824863744	49	3887
2026-01-17 03:21:43.85	233.80	46.50	-39.0	-39.7	24.6	0.00e+00	0	35	0	2830106624	49	3935
2026-01-17 03:21:44.86	233.60	46.21	-39.0	-39.7	24.7	0.00e+00	0	34	0	2836398080	49	3922
2026-01-17 03:21:45.87	233.41	45.92	-38.9	-39.6	24.7	0.00e+00	0	34	0	2841640960	49	3900
2026-01-17 03:21:46.88	233.22	45.62	-39.0	-39.7	24.6	0.00e+00	0	34	0	2846883840	49	3935
2026-01-17 03:21:47.88	233.04	45.34	-38.9	-39.6	24.7	0.00e+00	0	34	0	2853175296	49	3883
2026-01-17 03:21:48.89	232.85	45.05	-38.6	-39.3	24.9	0.00e+00	0	34	0	2858418176	49	3763
2026-01-17 03:21:49.90	232.67	44.76	-38.7	-39.4	24.9	0.00e+00	0	34	0	2863661056	49	3787
2026-01-17 03:21:50.91	232.50	44.48	-38.6	-39.3	25.0	0.00e+00	0	34	0	2869952512	49	3761
2026-01-17 03:21:51.92	232.33	44.20	-38.7	-39.4	24.9	0.00e+00	0	34	0	2875195392	49	3796
2026-01-17 03:21:52.93	232.16	43.91	-38.7	-39.4	24.8	0.00e+00	0	34	0	2881486848	49	3811
2026-01-17 03:21:53.93	231.99	43.64	-38.6	-39.3	24.9	0.00e+00	0	34	0	2886729728	49	3776
2026-01-17 03:21:54.94	231.83	43.36	-38.5	-39.2	25.0	0.00e+00	0	34	0	2893021184	49	3717
2026-01-17 03:21:55.95	231.67	43.08	-38.5	-39.2	25.0	0.00e+00	0	34	0	2898264064	49	3724
2026-01-17 03:21:56.96	231.51	42.81	-38.6	-39.3	25.0	0.00e+00	0	34	0	2904555520	49	3742
2026-01-17 03:21:57.97	231.35	42.54	-38.7	-39.4	24.8	0.00e+00	0	34	0	2909798400	49	3817
2026-01-17 03:21:58.98	231.20	42.27	-38.7	-39.4	24.8	0.00e+00	0	34	0	2915041280	49	3821
2026-01-17 03:21:59.99	231.05	42.00	-38.7	-39.4	24.9	0.00e+00	0	34	0	2921332736	49	3802
2026-01-17 03:22:01.00	230.90	41.73	-38.6	-39.4	24.9	0.00e+00	0	34	0	2926575616	49	3782
2026-01-17 03:22:02.01	230.76	41.46	-38.4	-39.1	25.1	0.00e+00	0	34	0	2931818496	48	3909
2026-01-17 03:22:03.02	230.61	41.20	-38.3	-38.9	25.2	0.00e+00	0	34	0	2938109952	48	3823
2026-01-17 03:22:04.03	230.47	40.94	-38.1	-38.8	25.3	0.00e+00	0	34	0	2944401408	48	3760
2026-01-17 03:22:05.04	230.34	40.68	-38.0	-38.7	25.4	0.00e+00	0	34	0	2949644288	48	3719
2026-01-17 03:22:06.05	230.20	40.42	-38.1	-38.8	25.3	0.00e+00	0	34	0	2954887168	48	3742
2026-01-17 03:22:07.05	230.07	40.16	-38.0	-38.6	25.5	0.00e+00	0	34	0	2961178624	48	3683
2026-01-17 03:22:08.07	229.94	39.91	-37.7	-38.4	25.2	0.00e+00	0	34	0	2966421504	47	3781
2026-01-17 03:22:09.08	229.81	39.65	-37.8	-38.5	25.2	0.00e+00	0	34	0	2971664384	47	3826
2026-01-17 03:22:10.08	229.68	39.40	-37.8	-38.5	25.1	0.00e+00	0	34	0	2977955840	47	3863
2026-01-17 03:22:11.09	229.55	39.15	-37.9	-38.7	25.0	0.00e+00	0	34	0	2983198720	47	3928
2026-01-17 03:22:12.10	229.43	38.90	-38.0	-38.7	24.9	0.00e+00	0	34	0	2989490176	47	3955
2026-01-17 03:22:13.11	229.31	38.66	-37.9	-38.6	25.0	0.00e+00	0	34	0	2994733056	47	3906
2026-01-17 03:22:14.12	229.19	38.41	-37.9	-38.6	25.0	0.00e+00	0	34	0	2999975936	47	3903
2026-01-17 03:22:15.13	229.07	38.17	-37.9	-38.6	25.0	0.00e+00	0	34	0	3006267392	47	3888
2026-01-17 03:22:16.14	228.96	37.93	-37.7	-38.4	25.2	0.00e+00	0	34	0	3012558848	47	3801
2026-01-17 03:22:17.15	228.84	37.68	-37.7	-38.4	25.2	0.00e+00	0	34	0	3017801728	47	3810
2026-01-17 03:22:18.15	228.73	37.45	-37.7	-38.4	25.2	0.00e+00	0	34	0	3023044608	47	3798
2026-01-17 03:22:19.16	228.62	37.21	-37.7	-38.4	25.2	0.00e+00	0	34	0	3029336064	47	3801
2026-01-17 03:22:20.17	228.51	36.97	-37.8	-38.5	25.1	0.00e+00	0	34	0	3034578944	47	3849
2026-01-17 03:22:21.18	228.40	36.74	-37.8	-38.5	25.1	0.00e+00	0	34	0	3039821824	47	3860
2026-01-17 03:22:22.19	228.30	36.51	-37.8	-38.5	25.1	0.00e+00	0	34	0	3046113280	47	3861
2026-01-17 03:22:23.20	228.19	36.28	-37.8	-38.6	25.1	0.00e+00	0	34	0	3051356160	47	3870
2026-01-17 03:22:24.21	228.09	36.05	-37.9	-38.6	25.0	0.00e+00	0	34	0	3056599040	47	3902
2026-01-17 03:22:25.22	227.99	35.82	-37.9	-38.6	25.0	0.00e+00	0	34	0	3062890496	47	3892
2026-01-17 03:22:26.22	227.89	35.59	-38.1	-38.8	24.8	0.00e+00	0	34	0	3068133376	47	3965
2026-01-17 03:22:27.23	227.79	35.37	-38.1	-38.8	24.8	0.00e+00	0	34	0	3074424832	47	3985
2026-01-17 03:22:28.24	227.69	35.14	-38.3	-39.0	24.7	0.00e+00	0	34	0	3079667712	47	4065
2026-01-17 03:22:29.25	227.60	34.92	-38.3	-39.0	24.6	0.00e+00	0	34	0	3085959168	47	4092
2026-01-17 03:22:30.26	227.50	34.70	-38.3	-39.0	24.6	0.00e+00	0	34	0	3091202048	47	4075
2026-01-17 03:22:31.27	227.41	34.48	-38.4	-39.1	24.5	0.00e+00	0	34	0	3097493504	47	4117
2026-01-17 03:22:32.28	227.32	34.26	-38.3	-39.1	24.6	0.00e+00	0	34	0	3102736384	47	4103
2026-01-17 03:22:33.29	227.23	34.05	-38.4	-39.1	24.5	0.00e+00	0	34	0	3107979264	47	4130
2026-01-17 03:22:34.30	227.14	33.83	-38.3	-39.0	24.6	0.00e+00	0	34	0	3114270720	47	4087
2026-01-17 03:22:35.31	227.05	33.62	-38.3	-39.0	24.6	0.00e+00	0	34	0	3119513600	47	4076
2026-01-17 03:22:36.32	226.96	33.41	-38.3	-39.0	24.6	0.00e+00	0	34	0	3124756480	47	4085
2026-01-17 03:22:37.32	226.88	33.20	-38.2	-39.0	24.6	0.00e+00	0	34	0	3131047936	47	4058
2026-01-17 03:22:38.33	226.79	32.99	-38.2	-38.9	24.7	0.00e+00	0	34	0	3137339392	47	4035
2026-01-17 03:22:39.34	226.71	32.78	-38.2	-39.0	24.6	0.00e+00	0	34	0	3142582272	47	4052
2026-01-17 03:22:40.35	226.63	32.57	-38.2	-38.9	24.7	0.00e+00	0	34	0	3147825152	47	4017
2026-01-17 03:22:41.36	226.55	32.37	-38.1	-38.9	24.7	0.00e+00	0	34	0	3154116608	47	4014
2026-01-17 03:22:42.37	226.47	32.16	-38.2	-38.9	24.7	0.00e+00	0	34	0	3159359488	47	4014
2026-01-17 03:22:43.37	226.39	31.96	-38.3	-39.0	24.6	0.00e+00	0	34	0	3164602368	47	4075
2026-01-17 03:22:44.38	226.31	31.76	-38.3	-39.0	24.6	0.00e+00	0	34	0	3170893824	47	4092
2026-01-17 03:22:45.39	226.23	31.56	-38.3	-39.0	24.6	0.00e+00	0	34	0	3176136704	47	4071
2026-01-17 03:22:46.40	226.16	31.36	-38.3	-39.0	24.5	0.00e+00	0	34	0	3182428160	47	4092
2026-01-17 03:22:47.41	226.08	31.16	-38.4	-39.1	24.5	0.00e+00	0	34	0	3187671040	47	4136
2026-01-17 03:22:48.42	226.01	30.97	-38.3	-39.1	24.5	0.00e+00	0	34	0	3192913920	47	4108
2026-01-17 03:22:49.43	225.93	30.77	-38.4	-39.2	24.4	0.00e+00	0	34	0	3199205376	47	4156
2026-01-17 03:22:50.44	225.86	30.58	-38.5	-39.3	24.3	0.00e+00	0	34	0	3205496832	47	4214
2026-01-17 03:22:51.44	225.79	30.39	-38.4	-39.1	24.5	0.00e+00	0	34	0	3210739712	47	4113
2026-01-17 03:22:52.45	225.72	30.20	-38.3	-39.0	24.6	0.00e+00	0	34	0	3215982592	47	4083
2026-01-17 03:22:53.46	225.65	30.01	-38.4	-39.1	24.4	0.00e+00	0	34	0	3222274048	47	4140
2026-01-17 03:22:54.47	225.58	29.82	-38.3	-39.0	24.6	0.00e+00	0	34	0	3227516928	47	4061
2026-01-17 03:22:55.48	225.51	29.63	-38.2	-39.0	24.6	0.00e+00	0	34	0	3232759808	47	4056
2026-01-17 03:22:56.49	225.44	29.44	-38.4	-39.1	24.5	0.00e+00	0	34	0	3239051264	47	4113
2026-01-17 03:22:57.50	225.38	29.26	-38.4	-39.2	24.4	0.00e+00	0	34	0	3244294144	47	4150
2026-01-17 03:22:58.50	225.31	29.07	-38.4	-39.2	24.4	0.00e+00	0	34	0	3249537024	47	4153
2026-01-17 03:22:59.51	225.25	28.89	-38.4	-39.1	24.4	0.00e+00	0	34	0	3255828480	47	4132
2026-01-17 03:23:00.53	225.18	28.71	-38.4	-39.2	24.4	0.00e+00	0	34	0	3261071360	47	4159
2026-01-17 03:23:01.53	225.12	28.53	-38.5	-39.2	24.3	0.00e+00	0	34	0	3267362816	47	4180
2026-01-17 03:23:02.54	225.06	28.35	-38.6	-39.3	24.3	0.00e+00	0	34	0	3272605696	47	4229
2026-01-17 03:23:03.55	224.99	28.17	-38.6	-39.3	24.2	0.00e+00	0	34	0	3278897152	47	4231
2026-01-17 03:23:04.56	224.93	27.99	-38.5	-39.2	24.3	0.00e+00	0	34	0	3284140032	47	4182
2026-01-17 03:23:05.56	224.87	27.82	-38.4	-39.2	24.4	0.00e+00	0	34	0	3290431488	47	4148
2026-01-17 03:23:06.57	224.81	27.64	-38.4	-39.2	24.4	0.00e+00	0	34	0	3295674368	47	4162
2026-01-17 03:23:07.58	224.75	27.47	-38.5	-39.2	24.3	0.00e+00	0	34	0	3300917248	47	4191
2026-01-17 03:23:08.59	224.70	27.30	-38.5	-39.2	24.3	0.00e+00	0	34	0	3307208704	47	4179
2026-01-17 03:23:09.60	224.64	27.12	-38.2	-39.0	24.6	0.00e+00	0	34	0	3312451584	47	4059
2026-01-17 03:23:10.61	224.58	26.95	-38.3	-39.0	24.5	0.00e+00	0	34	0	3317694464	47	4098
2026-01-17 03:23:11.62	224.52	26.78	-38.4	-39.1	24.4	0.00e+00	0	34	0	3323985920	47	4121
2026-01-17 03:23:12.63	224.47	26.61	-38.3	-39.0	24.5	0.00e+00	0	34	0	3329228800	47	4093
2026-01-17 03:23:13.64	224.41	26.45	-38.3	-39.0	24.5	0.00e+00	0	34	0	3335520256	47	4081
2026-01-17 03:23:14.64	224.36	26.28	-38.3	-39.0	24.5	0.00e+00	0	34	0	3340763136	47	4084
2026-01-17 03:23:15.65	224.30	26.11	-38.3	-39.0	24.5	0.00e+00	0	34	0	3347054592	47	4095
2026-01-17 03:23:16.66	224.25	25.95	-38.4	-39.1	24.4	0.00e+00	0	34	0	3352297472	47	4129
2026-01-17 03:23:17.67	224.20	25.78	-38.4	-39.2	24.3	0.00e+00	0	34	0	3357540352	47	4157
2026-01-17 03:23:18.68	224.15	25.62	-38.6	-39.4	24.2	0.00e+00	0	34	0	3363831808	47	4244
2026-01-17 03:23:19.69	224.09	25.46	-38.6	-39.3	24.2	0.00e+00	0	34	0	3369074688	47	4239
2026-01-17 03:23:20.70	224.04	25.30	-38.6	-39.4	24.2	0.00e+00	0	34	0	3375366144	47	4263
2026-01-17 03:23:21.71	223.99	25.14	-39.0	-39.8	24.3	0.00e+00	0	34	0	3380609024	48	4195
2026-01-17 03:23:22.72	223.94	24.98	-39.0	-39.8	24.3	0.00e+00	0	34	0	3385851904	48	4202
2026-01-17 03:23:23.72	223.89	24.82	-39.1	-39.9	24.2	0.00e+00	0	34	0	3392143360	48	4244
2026-01-17 03:23:24.73	223.84	24.66	-39.1	-39.8	24.2	0.00e+00	0	34	0	3398434816	48	4236
2026-01-17 03:23:25.74	223.80	24.51	-39.1	-39.8	24.2	0.00e+00	0	34	0	3403677696	48	4227
2026-01-17 03:23:26.75	223.75	24.35	-39.1	-39.8	24.2	0.00e+00	0	34	0	3408920576	48	4234
2026-01-17 03:23:27.76	223.70	24.20	-39.1	-39.8	24.2	0.00e+00	0	34	0	3415212032	48	4218
2026-01-17 03:23:28.77	223.65	24.04	-39.1	-39.8	24.2	0.00e+00	0	34	0	3420454912	48	4240
2026-01-17 03:23:29.78	223.61	23.89	-39.0	-39.8	24.3	0.00e+00	0	34	0	3425697792	48	4199
2026-01-17 03:23:30.79	223.56	23.74	-39.1	-39.8	24.2	0.00e+00	0	34	0	3431989248	48	4230
2026-01-17 03:23:31.80	223.52	23.59	-39.1	-39.8	24.2	0.00e+00	0	34	0	3437232128	48	4230
2026-01-17 03:23:32.80	223.47	23.44	-39.1	-39.8	24.2	0.00e+00	0	34	0	3442475008	48	4240
2026-01-17 03:23:33.81	223.43	23.29	-39.0	-39.8	24.2	0.00e+00	0	34	0	3448766464	48	4197
2026-01-17 03:23:34.82	223.38	23.14	-39.1	-39.9	24.2	0.00e+00	0	34	0	3454009344	48	4249
2026-01-17 03:23:35.83	223.34	22.99	-39.2	-40.0	24.1	0.00e+00	0	34	0	3460300800	49	4052
2026-01-17 03:23:36.84	223.30	22.85	-39.2	-39.9	24.2	0.00e+00	0	34	0	3465543680	49	4017
2026-01-17 03:23:37.85	223.25	22.70	-39.2	-39.9	24.1	0.00e+00	0	34	0	3471835136	49	4049
2026-01-17 03:23:38.86	223.21	22.55	-39.2	-39.9	24.1	0.00e+00	0	34	0	3477078016	49	4026
2026-01-17 03:23:39.87	223.17	22.41	-39.2	-40.0	24.0	0.00e+00	0	34	0	3483369472	49	4064
2026-01-17 03:23:40.88	223.13	22.27	-39.2	-39.9	24.1	0.00e+00	0	34	0	3488612352	49	4029
2026-01-17 03:23:41.88	223.09	22.12	-39.2	-40.0	24.0	0.00e+00	0	34	0	3493855232	49	4062
2026-01-17 03:23:42.89	223.04	21.98	-39.3	-40.0	24.0	0.00e+00	0	34	0	3500146688	49	4098
2026-01-17 03:23:43.90	223.00	21.84	-39.3	-40.0	24.0	0.00e+00	0	34	0	3505389568	49	4092
2026-01-17 03:23:44.91	222.96	21.70	-39.4	-40.1	23.9	0.00e+00	0	34	0	3510632448	49	4120
2026-01-17 03:23:45.92	222.93	21.56	-39.4	-40.1	23.9	0.00e+00	0	34	0	3516923904	49	4122
2026-01-17 03:23:46.93	222.89	21.42	-39.5	-40.2	23.8	0.00e+00	0	34	0	3522166784	49	4167
2026-01-17 03:23:47.94	222.85	21.28	-39.4	-40.2	23.8	0.00e+00	0	34	0	3528458240	49	4152
2026-01-17 03:23:48.95	222.81	21.14	-39.4	-40.2	23.8	0.00e+00	0	34	0	3533701120	49	4162
2026-01-17 03:23:49.96	222.77	21.01	-39.6	-40.3	23.7	0.00e+00	0	34	0	3539992576	49	4230
2026-01-17 03:23:50.96	222.73	20.87	-39.6	-40.3	23.7	0.00e+00	0	34	0	3545235456	49	4223
2026-01-17 03:23:51.97	222.70	20.74	-39.6	-40.3	23.7	0.00e+00	0	34	0	3550478336	49	4220
2026-01-17 03:23:52.98	222.66	20.60	-39.7	-40.4	23.6	0.00e+00	0	34	0	3556769792	49	4280
2026-01-17 03:23:53.99	222.62	20.47	-39.7	-40.5	23.5	0.00e+00	0	34	0	3562012672	49	4304
2026-01-17 03:23:55.00	222.59	20.34	-39.8	-40.5	23.5	0.00e+00	0	34	0	3568304128	50	4073
2026-01-17 03:23:56.00	222.55	20.20	-39.8	-40.6	23.5	0.00e+00	0	34	0	3573547008	50	4109
2026-01-17 03:23:57.01	222.51	20.07	-39.8	-40.6	23.4	0.00e+00	0	34	0	3578789888	50	4123
2026-01-17 03:23:58.02	222.48	19.94	-39.9	-40.7	23.4	0.00e+00	0	34	0	3585081344	50	4151
2026-01-17 03:23:59.03	222.44	19.81	-40.0	-40.7	23.3	0.00e+00	0	34	0	3591372800	50	4184
2026-01-17 03:24:00.04	222.41	19.68	-40.0	-40.8	23.2	0.00e+00	0	34	0	3596615680	50	4216
2026-01-17 03:24:01.05	222.38	19.55	-40.0	-40.8	23.2	0.00e+00	0	34	0	3601858560	50	4218
2026-01-17 03:24:02.06	222.34	19.42	-40.1	-40.9	23.2	0.00e+00	0	34	0	3608150016	50	4246
2026-01-17 03:24:03.06	222.31	19.29	-40.2	-40.9	23.1	0.00e+00	0	34	0	3613392896	50	4278
2026-01-17 03:24:04.07	222.28	19.17	-40.1	-40.9	23.1	0.00e+00	0	34	0	3618635776	50	4263
2026-01-17 03:24:05.08	222.24	19.04	-40.2	-41.0	23.1	0.00e+00	0	34	0	3624927232	50	4293
2026-01-17 03:24:06.09	222.21	18.91	-40.2	-41.0	23.0	0.00e+00	0	34	0	3630170112	50	4303
2026-01-17 03:24:07.10	222.18	18.79	-40.2	-41.0	23.0	0.00e+00	0	34	0	3635412992	50	4318
2026-01-17 03:24:08.11	222.14	18.66	-40.3	-41.1	22.9	0.00e+00	0	34	0	3641704448	51	4135
2026-01-17 03:24:09.12	222.11	18.54	-40.3	-41.1	22.9	0.00e+00	0	34	0	3646947328	51	4105
2026-01-17 03:24:10.13	222.08	18.42	-40.3	-41.0	23.0	0.00e+00	0	34	0	3653238784	51	4094
2026-01-17 03:24:11.14	222.05	18.29	-40.3	-41.1	22.9	0.00e+00	0	34	0	3658481664	51	4134
2026-01-17 03:24:12.15	222.02	18.17	-40.3	-41.1	22.9	0.00e+00	0	34	0	3664773120	51	4131
2026-01-17 03:24:13.15	221.99	18.05	-40.4	-41.2	22.9	0.00e+00	0	34	0	3670016000	51	4150
2026-01-17 03:24:14.16	221.96	17.93	-40.5	-41.3	22.8	0.00e+00	0	34	0	3676307456	51	4196
2026-01-17 03:24:15.17	221.93	17.81	-40.4	-41.2	22.8	0.00e+00	0	34	0	3681550336	51	4172
2026-01-17 03:24:16.18	221.90	17.69	-40.4	-41.2	22.8	0.00e+00	0	34	0	3686793216	51	4177
2026-01-17 03:24:17.19	221.87	17.57	-40.5	-41.3	22.7	0.00e+00	0	34	0	3693084672	51	4219
2026-01-17 03:24:18.20	221.84	17.45	-40.6	-41.4	22.7	0.00e+00	0	34	0	3698327552	51	4243
2026-01-17 03:24:19.21	221.81	17.33	-40.5	-41.3	22.7	0.00e+00	0	34	0	3703570432	51	4230
2026-01-17 03:24:20.22	221.78	17.21	-40.6	-41.4	22.6	0.00e+00	0	34	0	3709861888	51	4288
2026-01-17 03:24:21.23	221.75	17.10	-40.6	-41.4	22.6	0.00e+00	0	34	0	3715104768	51	4286
2026-01-17 03:24:22.24	221.72	16.98	-40.6	-41.4	22.6	0.00e+00	0	34	0	3721396224	51	4283
2026-01-17 03:24:23.24	221.70	16.86	-40.6	-41.5	22.6	0.00e+00	0	34	0	3726639104	51	4292
2026-01-17 03:24:24.25	221.67	16.75	-40.6	-41.5	22.6	0.00e+00	0	34	0	3732930560	51	4295
2026-01-17 03:24:25.26	221.64	16.63	-40.7	-41.5	22.5	0.00e+00	0	34	0	3738173440	52	4069
2026-01-17 03:24:26.27	221.61	16.52	-40.8	-41.6	22.4	0.00e+00	0	34	0	3743416320	52	4113
2026-01-17 03:24:27.28	221.59	16.41	-40.7	-41.5	22.5	0.00e+00	0	34	0	3749707776	52	4068
2026-01-17 03:24:28.29	221.56	16.29	-40.7	-41.6	22.3	0.00e+00	0	34	0	3754950656	52	4104
