passes_logs/2026/01/17/R3.2S_Murmansk/R3.2S_Murmansk__20260117_003353_SUOMI_NPP_rec.log

#Pass ID: 20260117_003353_SUOMI NPP
#Satellite: SUOMI NPP
#Configuration: NPP
#almurnet v.1.7.20251203
#Start time: 2026-01-17 00:33:53

#Version: 2.2.20231116
#Station: R3.2S_Murmansk
#Location: 33.079688 lon 68.888172 lat
#TLE: 1 37849U 11061A   26015.94982489  .00000054  00000+0  46705-4 0  9991
#TLE: 2 37849  98.7812 317.9902 0002438  62.0366 298.1057 14.19525452736847

#Time	Az	El	Level	Level2	SNR	BER	BlckErr	Temp	State	Recorded	gain1	gain2
2026-01-17 00:33:53.81	23.84	2.05	-51.3	-66.3	3.8	1.49e+00	0	34	0	0	74	19943
2026-01-17 00:33:54.82	23.85	2.12	-51.3	-66.3	3.8	1.49e+00	0	34	104	0	73	21018
2026-01-17 00:33:55.83	23.85	2.18	-51.3	-66.1	3.8	1.49e+00	0	34	104	0	73	20688
2026-01-17 00:33:56.84	23.86	2.24	-51.3	-66.0	3.8	1.49e+00	0	34	104	0	73	20376
2026-01-17 00:33:57.85	23.87	2.31	-51.3	-66.1	3.8	1.49e+00	0	34	104	0	73	20545
2026-01-17 00:33:58.86	23.88	2.37	-51.3	-66.0	3.8	1.49e+00	0	34	104	0	73	20517
2026-01-17 00:33:59.86	23.89	2.44	-51.3	-66.0	3.8	1.49e+00	0	34	104	0	73	20334
2026-01-17 00:34:00.87	23.90	2.50	-51.3	-65.9	3.8	1.49e+00	0	34	104	0	73	20125
2026-01-17 00:34:01.88	23.91	2.57	-51.3	-65.6	3.8	1.49e+00	0	34	104	0	73	19574
2026-01-17 00:34:02.89	23.92	2.64	-51.3	-65.8	3.8	1.49e+00	0	34	104	0	73	19877
2026-01-17 00:34:03.90	23.93	2.70	-51.3	-65.5	3.8	1.49e+00	0	34	104	0	73	19361
2026-01-17 00:34:04.91	23.94	2.77	-51.3	-65.5	3.8	1.49e+00	0	34	104	0	73	19290
2026-01-17 00:34:05.91	23.95	2.83	-51.2	-65.0	3.8	1.49e+00	0	34	104	0	73	18184
2026-01-17 00:34:06.92	23.96	2.90	-51.3	-65.0	3.8	1.49e+00	0	34	104	0	73	18139
2026-01-17 00:34:07.93	23.97	2.97	-51.2	-63.8	4.0	1.49e+00	0	34	104	0	73	15918
2026-01-17 00:34:08.94	23.98	3.03	-51.2	-64.1	3.9	1.49e+00	0	34	104	0	73	16464
2026-01-17 00:34:09.95	23.99	3.10	-51.2	-63.4	4.0	1.49e+00	0	34	104	0	73	15216
2026-01-17 00:34:10.96	24.00	3.17	-51.1	-62.6	4.2	1.47e+00	0	34	0	0	73	13794
2026-01-17 00:34:11.96	24.01	3.23	-51.1	-62.2	4.3	1.29e+00	16	34	0	1048576	73	13165
2026-01-17 00:34:12.97	24.01	3.30	-50.9	-60.3	5.3	6.98e-01	0	34	0	3145728	73	10555
2026-01-17 00:34:13.98	24.02	3.37	-50.7	-58.9	6.2	4.47e-01	0	34	0	4194304	73	9004
2026-01-17 00:34:14.99	24.03	3.44	-50.6	-58.6	6.4	2.47e-01	0	34	0	6291456	73	8760
2026-01-17 00:34:16.00	24.04	3.50	-50.3	-56.9	8.0	1.23e-01	0	34	0	8388608	72	7575
2026-01-17 00:34:17.00	24.05	3.57	-50.1	-56.3	8.6	5.69e-02	0	34	0	10485760	72	7108
2026-01-17 00:34:18.01	24.06	3.64	-49.6	-54.6	10.6	4.92e-03	0	34	0	12582912	71	6185
2026-01-17 00:34:19.02	24.07	3.71	-49.8	-55.0	10.0	2.48e-02	0	34	0	13631488	71	6478
2026-01-17 00:34:20.03	24.08	3.78	-49.5	-54.1	10.9	3.00e-03	0	34	0	15728640	70	6184
2026-01-17 00:34:21.03	24.09	3.84	-49.1	-53.4	11.8	1.08e-03	0	34	0	17825792	70	5664
2026-01-17 00:34:22.04	24.10	3.91	-48.9	-52.8	12.4	1.66e-04	0	34	0	19922944	69	5620
2026-01-17 00:34:23.05	24.11	3.98	-48.6	-52.2	13.0	1.64e-04	0	34	0	22020096	69	5237
2026-01-17 00:34:24.06	24.12	4.05	-48.7	-52.4	12.8	3.50e-05	0	34	0	23068672	68	5697
2026-01-17 00:34:25.07	24.13	4.12	-48.7	-52.4	12.9	5.95e-05	0	34	0	25165824	68	5668
2026-01-17 00:34:26.08	24.14	4.19	-48.6	-52.2	13.0	6.86e-05	0	34	0	27262976	68	5583
2026-01-17 00:34:27.09	24.15	4.26	-48.6	-52.2	12.9	3.96e-05	0	34	0	29360128	68	5584
2026-01-17 00:34:28.09	24.16	4.33	-48.7	-52.4	12.8	1.23e-04	0	34	0	31457280	68	5693
2026-01-17 00:34:29.10	24.17	4.40	-48.9	-52.8	12.4	1.11e-04	0	34	0	32505856	68	5965
2026-01-17 00:34:30.11	24.18	4.47	-49.2	-53.6	11.5	4.01e-04	0	34	0	34603008	69	6193
2026-01-17 00:34:31.12	24.19	4.54	-49.3	-53.7	11.5	6.93e-04	0	34	0	36700160	69	6227
2026-01-17 00:34:32.13	24.20	4.61	-49.5	-54.3	10.8	1.11e-03	0	34	0	38797312	69	6678
2026-01-17 00:34:33.14	24.21	4.68	-49.8	-55.0	10.2	3.86e-03	0	34	0	40894464	70	6850
2026-01-17 00:34:34.15	24.22	4.75	-49.9	-55.5	9.6	1.91e-02	0	34	0	41943040	70	7227
2026-01-17 00:34:35.16	24.23	4.82	-50.3	-56.8	8.2	5.87e-02	0	34	0	44040192	71	7988
2026-01-17 00:34:36.17	24.24	4.89	-50.4	-57.2	7.8	6.34e-02	0	34	0	46137344	71	8319
2026-01-17 00:34:37.18	24.25	4.96	-50.6	-58.4	6.7	8.80e-02	0	34	0	48234496	71	9580
2026-01-17 00:34:38.18	24.26	5.04	-50.7	-58.8	6.3	2.21e-01	0	34	0	50331648	71	10029
2026-01-17 00:34:39.19	24.27	5.11	-50.4	-57.0	8.1	5.48e-02	0	34	0	51380224	71	8139
2026-01-17 00:34:40.20	24.28	5.18	-50.9	-61.1	4.8	4.73e-01	0	34	0	53477376	72	12310
2026-01-17 00:34:41.21	24.29	5.25	-50.9	-59.4	5.9	3.08e-01	0	34	0	55574528	72	10124
2026-01-17 00:34:42.22	24.30	5.32	-50.3	-56.0	9.4	1.32e-02	0	34	0	57671680	72	6809
2026-01-17 00:34:43.22	24.31	5.40	-51.2	-63.6	3.9	9.16e-01	0	34	104	58720256	72	16376
2026-01-17 00:34:44.23	24.33	5.47	-50.0	-55.1	10.3	7.82e-03	0	34	0	59768832	72	6142
2026-01-17 00:34:45.24	24.34	5.54	-50.0	-54.8	10.8	2.80e-03	0	34	0	60817408	71	6284
2026-01-17 00:34:46.25	24.35	5.62	-50.1	-55.1	10.5	2.85e-03	0	34	0	62914560	71	6538
2026-01-17 00:34:47.26	24.36	5.69	-49.9	-54.6	11.0	1.70e-03	0	34	0	65011712	71	6183
2026-01-17 00:34:48.26	24.37	5.76	-50.1	-55.1	10.5	4.60e-03	0	34	0	67108864	71	6502
2026-01-17 00:34:49.27	24.38	5.84	-49.9	-54.4	11.2	1.43e-03	0	34	0	69206016	71	6033
2026-01-17 00:34:50.28	24.39	5.91	-49.9	-54.4	11.4	6.35e-04	0	34	0	70254592	71	6011
2026-01-17 00:34:51.29	24.40	5.98	-49.9	-54.5	11.1	1.38e-03	0	34	0	72351744	71	6095
2026-01-17 00:34:52.30	24.41	6.06	-50.0	-54.8	10.8	1.27e-03	0	34	0	74448896	71	6318
2026-01-17 00:34:53.30	24.42	6.13	-49.6	-53.7	12.0	5.89e-04	0	34	0	76546048	71	5567
2026-01-17 00:34:54.32	24.43	6.21	-49.4	-53.3	12.5	1.18e-04	0	34	0	78643200	70	5612
2026-01-17 00:34:55.32	24.44	6.28	-49.2	-52.9	12.9	5.56e-05	0	34	0	79691776	70	5380
2026-01-17 00:34:56.33	24.45	6.36	-49.2	-52.8	12.9	8.54e-05	0	34	0	81788928	70	5323
2026-01-17 00:34:57.34	24.46	6.43	-48.9	-52.2	13.6	5.30e-06	0	34	0	83886080	69	5256
2026-01-17 00:34:58.35	24.47	6.51	-48.8	-51.9	13.9	3.80e-06	0	34	0	85983232	69	5088
2026-01-17 00:34:59.36	24.49	6.59	-48.5	-51.5	14.4	3.80e-06	0	34	0	88080384	69	4815
2026-01-17 00:35:00.37	24.50	6.66	-48.2	-50.9	15.0	7.00e-07	0	34	0	89128960	68	4796
2026-01-17 00:35:01.38	24.51	6.74	-48.5	-51.5	14.5	7.00e-07	0	34	0	91226112	68	5113
2026-01-17 00:35:02.38	24.52	6.82	-48.2	-51.0	14.9	7.00e-07	0	34	0	93323264	68	4850
2026-01-17 00:35:03.39	24.53	6.89	-48.3	-51.2	14.8	0.00e+00	0	34	0	95420416	68	4943
2026-01-17 00:35:04.40	24.54	6.97	-48.2	-51.0	14.9	0.00e+00	0	34	0	97517568	68	4838
2026-01-17 00:35:05.41	24.55	7.05	-48.2	-51.0	15.1	0.00e+00	0	34	0	99614720	68	4827
2026-01-17 00:35:06.42	24.56	7.12	-48.3	-51.0	15.0	0.00e+00	0	34	0	100663296	68	4836
2026-01-17 00:35:07.43	24.57	7.20	-47.8	-50.2	15.6	0.00e+00	0	34	0	102760448	67	4705
2026-01-17 00:35:08.44	24.58	7.28	-47.7	-50.1	15.7	0.00e+00	0	34	0	104857600	67	4650
2026-01-17 00:35:09.44	24.60	7.36	-48.0	-50.7	15.2	0.00e+00	0	34	0	106954752	67	4932
2026-01-17 00:35:10.45	24.61	7.44	-47.4	-49.9	16.0	0.00e+00	0	34	0	108003328	66	4771
2026-01-17 00:35:11.46	24.62	7.52	-47.1	-50.0	15.9	0.00e+00	0	34	0	110100480	66	4835
2026-01-17 00:35:12.47	24.63	7.60	-46.7	-50.1	15.7	0.00e+00	0	34	0	112197632	65	5206
2026-01-17 00:35:13.48	24.64	7.67	-46.2	-49.9	15.9	0.00e+00	0	34	0	114294784	64	5373
2026-01-17 00:35:14.48	24.65	7.75	-45.9	-49.9	15.9	0.00e+00	0	34	0	116391936	63	5709
2026-01-17 00:35:15.49	24.66	7.83	-46.0	-49.9	15.9	0.00e+00	0	34	0	117440512	63	5663
2026-01-17 00:35:16.50	24.68	7.91	-46.3	-50.0	15.8	0.00e+00	0	34	0	119537664	63	5764
2026-01-17 00:35:17.50	24.69	7.99	-46.9	-49.8	16.0	0.00e+00	0	34	0	121634816	64	5289
2026-01-17 00:35:18.51	24.70	8.07	-47.0	-49.5	16.3	0.00e+00	0	34	0	123731968	64	5121
2026-01-17 00:35:19.52	24.71	8.15	-47.2	-49.6	16.2	0.00e+00	0	34	0	125829120	64	5208
2026-01-17 00:35:20.53	24.72	8.24	-47.2	-49.5	16.5	0.00e+00	0	34	0	127926272	65	4843
2026-01-17 00:35:21.54	24.73	8.32	-47.2	-49.5	16.4	0.00e+00	0	34	0	128974848	65	4850
2026-01-17 00:35:22.55	24.75	8.40	-47.2	-49.4	16.5	0.00e+00	0	34	0	131072000	65	4810
2026-01-17 00:35:23.56	24.76	8.48	-47.2	-49.4	16.6	0.00e+00	0	34	0	133169152	65	4773
2026-01-17 00:35:24.57	24.77	8.56	-47.2	-49.3	16.7	0.00e+00	0	34	0	135266304	65	4758
2026-01-17 00:35:25.57	24.78	8.64	-47.2	-49.3	16.7	0.00e+00	0	34	0	136314880	65	4743
2026-01-17 00:35:26.58	24.79	8.73	-47.3	-49.5	16.5	0.00e+00	0	34	0	138412032	65	4857
2026-01-17 00:35:27.59	24.80	8.81	-47.1	-49.1	16.9	0.00e+00	0	34	0	140509184	65	4642
2026-01-17 00:35:28.60	24.82	8.89	-47.3	-49.5	16.5	0.00e+00	0	34	0	142606336	65	4848
2026-01-17 00:35:29.60	24.83	8.98	-47.4	-49.6	16.4	0.00e+00	0	34	0	144703488	65	4923
2026-01-17 00:35:30.61	24.84	9.06	-47.3	-49.5	16.5	0.00e+00	0	34	0	146800640	65	4864
2026-01-17 00:35:31.62	24.85	9.14	-47.3	-49.5	16.6	0.00e+00	0	34	0	147849216	65	4837
2026-01-17 00:35:32.62	24.86	9.23	-47.4	-49.6	16.4	0.00e+00	0	34	0	149946368	65	4883
2026-01-17 00:35:33.63	24.88	9.31	-47.2	-49.3	16.8	0.00e+00	0	34	0	152043520	65	4711
2026-01-17 00:35:34.64	24.89	9.40	-47.0	-48.9	17.1	0.00e+00	0	34	0	154140672	65	4545
2026-01-17 00:35:35.65	24.90	9.48	-47.0	-49.0	17.0	0.00e+00	0	34	0	156237824	65	4580
2026-01-17 00:35:36.66	24.91	9.57	-46.8	-48.8	17.3	0.00e+00	0	34	0	157286400	65	4451
2026-01-17 00:35:37.67	24.93	9.65	-46.7	-48.7	17.4	0.00e+00	0	34	0	159383552	65	4396
2026-01-17 00:35:38.68	24.94	9.74	-46.7	-48.6	17.5	0.00e+00	0	34	0	161480704	65	4366
2026-01-17 00:35:39.68	24.95	9.83	-46.7	-48.6	17.5	0.00e+00	0	34	0	163577856	65	4354
2026-01-17 00:35:40.69	24.96	9.91	-46.6	-48.6	17.5	0.00e+00	0	34	0	164626432	65	4349
2026-01-17 00:35:41.70	24.98	10.00	-46.5	-48.4	17.7	0.00e+00	0	34	0	166723584	65	4276
2026-01-17 00:35:42.71	24.99	10.09	-46.6	-48.6	17.5	0.00e+00	0	34	0	168820736	65	4351
2026-01-17 00:35:43.72	25.00	10.18	-46.7	-48.7	17.5	0.00e+00	0	34	0	170917888	64	4652
2026-01-17 00:35:44.72	25.01	10.26	-46.4	-48.2	17.9	0.00e+00	0	34	0	173015040	64	4397
2026-01-17 00:35:45.73	25.03	10.35	-46.4	-48.3	17.8	0.00e+00	0	34	0	175112192	64	4460
2026-01-17 00:35:46.74	25.04	10.44	-46.4	-48.3	17.8	0.00e+00	0	34	0	176160768	64	4462
2026-01-17 00:35:47.74	25.05	10.53	-46.5	-48.4	17.8	0.00e+00	0	34	0	178257920	64	4495
2026-01-17 00:35:48.75	25.07	10.62	-46.4	-48.2	18.0	0.00e+00	0	34	0	180355072	64	4398
2026-01-17 00:35:49.76	25.08	10.71	-46.4	-48.2	18.0	0.00e+00	0	34	0	182452224	64	4399
2026-01-17 00:35:50.77	25.09	10.80	-46.4	-48.1	18.0	0.00e+00	0	34	0	184549376	64	4391
2026-01-17 00:35:51.78	25.10	10.89	-46.4	-48.2	18.0	0.00e+00	0	34	0	185597952	64	4418
2026-01-17 00:35:52.79	25.12	10.98	-46.3	-48.1	18.0	0.00e+00	0	34	0	187695104	64	4361
2026-01-17 00:35:53.80	25.13	11.07	-46.4	-48.2	18.0	0.00e+00	0	34	0	189792256	64	4397
2026-01-17 00:35:54.81	25.14	11.16	-46.3	-48.0	18.2	0.00e+00	0	34	0	191889408	64	4318
2026-01-17 00:35:55.82	25.16	11.25	-46.3	-48.0	18.2	0.00e+00	0	34	0	193986560	64	4334
2026-01-17 00:35:56.82	25.17	11.34	-46.3	-48.0	18.2	0.00e+00	0	34	0	195035136	64	4323
2026-01-17 00:35:57.83	25.18	11.43	-46.1	-47.8	18.4	0.00e+00	0	34	0	197132288	64	4220
2026-01-17 00:35:58.84	25.20	11.53	-46.1	-47.8	18.4	0.00e+00	0	34	0	199229440	64	4196
2026-01-17 00:35:59.85	25.21	11.62	-46.3	-48.1	18.1	0.00e+00	0	34	0	201326592	64	4352
2026-01-17 00:36:00.86	25.22	11.71	-46.0	-47.7	18.6	0.00e+00	0	34	0	203423744	63	4407
2026-01-17 00:36:01.87	25.24	11.81	-46.1	-47.8	18.4	0.00e+00	0	34	0	204472320	63	4486
2026-01-17 00:36:02.88	25.25	11.90	-46.0	-47.7	18.6	0.00e+00	0	34	0	206569472	63	4418
2026-01-17 00:36:03.88	25.27	11.99	-46.0	-47.7	18.6	0.00e+00	0	34	0	208666624	63	4400
2026-01-17 00:36:04.89	25.28	12.09	-46.1	-47.7	18.6	0.00e+00	0	34	0	210763776	63	4437
2026-01-17 00:36:05.90	25.29	12.18	-46.0	-47.6	18.7	0.00e+00	0	34	0	212860928	63	4381
2026-01-17 00:36:06.91	25.31	12.28	-46.0	-47.6	18.7	0.00e+00	0	34	0	213909504	63	4357
2026-01-17 00:36:07.92	25.32	12.38	-46.0	-47.6	18.7	0.00e+00	0	34	0	216006656	63	4373
2026-01-17 00:36:08.92	25.33	12.47	-46.0	-47.6	18.7	0.00e+00	0	34	0	218103808	63	4349
2026-01-17 00:36:09.93	25.35	12.57	-45.9	-47.4	18.9	0.00e+00	0	34	0	220200960	63	4282
2026-01-17 00:36:10.94	25.36	12.67	-45.9	-47.4	18.9	0.00e+00	0	34	0	222298112	63	4276
2026-01-17 00:36:11.95	25.38	12.76	-46.0	-47.7	18.7	0.00e+00	0	34	0	223346688	63	4395
2026-01-17 00:36:12.96	25.39	12.86	-45.9	-47.5	18.9	0.00e+00	0	34	0	225443840	63	4304
2026-01-17 00:36:13.96	25.41	12.96	-45.7	-47.2	19.1	0.00e+00	0	34	0	227540992	63	4188
2026-01-17 00:36:14.97	25.42	13.06	-45.7	-47.3	19.1	0.00e+00	0	34	0	229638144	63	4196
2026-01-17 00:36:15.98	25.44	13.16	-45.6	-47.1	19.2	0.00e+00	0	34	0	231735296	63	4120
2026-01-17 00:36:16.99	25.45	13.26	-45.7	-47.2	19.1	0.00e+00	0	34	0	232783872	63	4182
2026-01-17 00:36:18.00	25.46	13.35	-45.6	-47.1	19.2	0.00e+00	0	34	0	234881024	63	4128
2026-01-17 00:36:19.01	25.48	13.46	-45.4	-46.8	19.5	0.00e+00	0	34	0	236978176	62	4222
2026-01-17 00:36:20.02	25.49	13.56	-45.5	-47.0	19.3	0.00e+00	0	34	0	239075328	62	4324
2026-01-17 00:36:21.02	25.51	13.66	-45.6	-47.0	19.3	0.00e+00	0	34	0	241172480	62	4326
2026-01-17 00:36:22.03	25.52	13.76	-45.6	-47.1	19.3	0.00e+00	0	34	0	243269632	62	4345
2026-01-17 00:36:23.04	25.54	13.86	-45.5	-46.9	19.5	0.00e+00	0	34	0	244318208	62	4273
2026-01-17 00:36:24.05	25.55	13.96	-45.3	-46.7	19.6	0.00e+00	0	34	0	246415360	62	4181
2026-01-17 00:36:25.06	25.57	14.06	-45.6	-47.1	19.3	0.00e+00	0	34	0	248512512	62	4350
2026-01-17 00:36:26.07	25.58	14.17	-45.5	-46.9	19.4	0.00e+00	0	34	0	250609664	62	4269
2026-01-17 00:36:27.08	25.60	14.27	-45.4	-46.8	19.5	0.00e+00	0	34	0	251658240	62	4232
2026-01-17 00:36:28.08	25.61	14.37	-45.4	-46.9	19.5	0.00e+00	0	34	0	253755392	62	4252
2026-01-17 00:36:29.09	25.63	14.48	-45.5	-46.9	19.5	0.00e+00	0	34	0	255852544	62	4254
2026-01-17 00:36:30.10	25.65	14.58	-45.6	-47.0	19.4	0.00e+00	0	34	0	257949696	62	4335
2026-01-17 00:36:31.11	25.66	14.69	-45.6	-47.1	19.3	0.00e+00	0	34	0	260046848	62	4353
2026-01-17 00:36:32.12	25.68	14.80	-45.5	-46.9	19.5	0.00e+00	0	34	0	262144000	62	4255
2026-01-17 00:36:33.12	25.69	14.90	-45.6	-47.1	19.3	0.00e+00	0	34	0	263192576	62	4341
2026-01-17 00:36:34.13	25.71	15.01	-45.5	-46.9	19.5	0.00e+00	0	34	0	265289728	62	4272
2026-01-17 00:36:35.14	25.72	15.11	-45.6	-47.1	19.3	0.00e+00	0	34	0	267386880	62	4353
2026-01-17 00:36:36.15	25.74	15.22	-45.3	-46.7	19.7	0.00e+00	0	34	0	269484032	62	4149
2026-01-17 00:36:37.16	25.76	15.33	-45.5	-46.9	19.5	0.00e+00	0	34	0	271581184	62	4261
2026-01-17 00:36:38.16	25.77	15.44	-45.4	-46.8	19.6	0.00e+00	0	34	0	272629760	62	4240
2026-01-17 00:36:39.17	25.79	15.55	-45.4	-46.9	19.5	0.00e+00	0	34	0	274726912	62	4246
2026-01-17 00:36:40.18	25.81	15.66	-45.3	-46.7	19.7	0.00e+00	0	34	0	276824064	62	4148
2026-01-17 00:36:41.19	25.82	15.77	-45.4	-46.8	19.6	0.00e+00	0	34	0	278921216	62	4225
2026-01-17 00:36:42.20	25.84	15.88	-45.3	-46.7	19.7	0.00e+00	0	34	0	279969792	62	4166
2026-01-17 00:36:43.21	25.85	15.99	-45.3	-46.7	19.7	0.00e+00	0	34	0	282066944	62	4180
2026-01-17 00:36:44.21	25.87	16.10	-45.3	-46.6	19.8	0.00e+00	0	34	0	284164096	62	4129
2026-01-17 00:36:45.22	25.89	16.21	-45.3	-46.7	19.7	0.00e+00	0	34	0	286261248	62	4186
2026-01-17 00:36:46.23	25.91	16.33	-45.4	-46.8	19.6	0.00e+00	0	34	0	288358400	62	4210
2026-01-17 00:36:47.24	25.92	16.44	-45.3	-46.7	19.7	0.00e+00	0	34	0	290455552	62	4160
2026-01-17 00:36:48.25	25.94	16.55	-45.3	-46.6	19.8	0.00e+00	0	34	0	291504128	62	4137
2026-01-17 00:36:49.26	25.96	16.67	-45.3	-46.6	19.8	0.00e+00	0	34	0	293601280	62	4135
2026-01-17 00:36:50.26	25.97	16.78	-45.2	-46.6	19.8	0.00e+00	0	34	0	295698432	62	4123
2026-01-17 00:36:51.27	25.99	16.90	-45.3	-46.7	19.7	0.00e+00	0	34	0	297795584	62	4187
2026-01-17 00:36:52.28	26.01	17.01	-45.4	-46.7	19.7	0.00e+00	0	34	0	299892736	62	4185
2026-01-17 00:36:53.29	26.03	17.13	-45.3	-46.7	19.7	0.00e+00	0	34	0	300941312	62	4176
2026-01-17 00:36:54.30	26.04	17.25	-45.4	-46.8	19.7	0.00e+00	0	34	0	303038464	62	4219
2026-01-17 00:36:55.30	26.06	17.36	-45.5	-46.9	19.6	0.00e+00	0	34	0	305135616	62	4249
2026-01-17 00:36:56.31	26.08	17.48	-45.6	-47.0	19.5	0.00e+00	0	34	0	307232768	62	4312
2026-01-17 00:36:57.32	26.10	17.60	-45.6	-47.0	19.5	0.00e+00	0	34	0	309329920	62	4329
2026-01-17 00:36:58.33	26.12	17.72	-45.7	-47.1	19.4	0.00e+00	0	34	0	310378496	62	4374
2026-01-17 00:36:59.34	26.13	17.84	-45.8	-47.3	19.3	0.00e+00	0	34	0	312475648	62	4450
2026-01-17 00:37:00.35	26.15	17.96	-45.7	-47.2	19.3	0.00e+00	0	34	0	314572800	62	4402
2026-01-17 00:37:01.36	26.17	18.08	-45.8	-47.3	19.3	0.00e+00	0	34	0	316669952	62	4463
2026-01-17 00:37:02.37	26.19	18.20	-45.9	-47.4	19.1	0.00e+00	0	34	0	318767104	62	4536
2026-01-17 00:37:03.37	26.21	18.32	-46.1	-47.6	19.0	0.00e+00	0	34	0	319815680	62	4624
2026-01-17 00:37:04.38	26.23	18.45	-46.0	-47.6	19.0	0.00e+00	0	34	0	321912832	62	4611
2026-01-17 00:37:05.39	26.25	18.57	-46.0	-47.5	19.1	0.00e+00	0	34	0	324009984	62	4554
2026-01-17 00:37:06.40	26.26	18.69	-46.0	-47.5	19.1	0.00e+00	0	34	0	326107136	62	4590
2026-01-17 00:37:07.41	26.28	18.82	-46.1	-47.6	19.0	0.00e+00	0	34	0	328204288	62	4643
2026-01-17 00:37:08.42	26.30	18.94	-46.0	-47.6	19.0	0.00e+00	0	34	0	329252864	62	4605
2026-01-17 00:37:09.43	26.32	19.07	-46.1	-47.7	18.8	0.00e+00	0	34	0	331350016	62	4680
2026-01-17 00:37:10.44	26.34	19.20	-46.1	-47.7	19.0	0.00e+00	0	34	0	333447168	62	4656
2026-01-17 00:37:11.44	26.36	19.32	-46.2	-47.7	18.9	0.00e+00	0	34	0	335544320	62	4694
2026-01-17 00:37:12.45	26.38	19.45	-46.1	-47.6	19.0	0.00e+00	0	34	0	337641472	63	4386
2026-01-17 00:37:13.46	26.40	19.58	-46.2	-47.7	18.9	0.00e+00	0	34	0	338690048	63	4439
2026-01-17 00:37:14.47	26.42	19.71	-46.3	-47.9	18.8	0.00e+00	0	34	0	340787200	63	4508
2026-01-17 00:37:15.48	26.44	19.84	-46.4	-48.1	18.6	0.00e+00	0	34	0	342884352	63	4604
2026-01-17 00:37:16.49	26.46	19.97	-46.7	-48.4	18.3	0.00e+00	0	34	0	344981504	63	4771
2026-01-17 00:37:17.49	26.48	20.10	-46.6	-48.3	18.3	0.00e+00	0	34	0	347078656	63	4758
2026-01-17 00:37:18.50	26.50	20.23	-46.7	-48.4	18.2	0.00e+00	0	34	0	348127232	64	4529
2026-01-17 00:37:19.51	26.52	20.36	-46.7	-48.5	18.1	0.00e+00	0	34	0	350224384	64	4561
2026-01-17 00:37:20.52	26.54	20.50	-46.7	-48.4	18.2	0.00e+00	0	34	0	352321536	64	4516
2026-01-17 00:37:21.53	26.57	20.63	-46.8	-48.5	18.1	0.00e+00	0	34	0	354418688	64	4590
2026-01-17 00:37:22.54	26.59	20.77	-46.9	-48.7	17.8	0.00e+00	0	34	0	356515840	64	4693
2026-01-17 00:37:23.54	26.61	20.90	-46.9	-48.6	18.0	0.00e+00	0	34	0	358612992	64	4646
2026-01-17 00:37:24.55	26.63	21.04	-46.9	-48.7	17.9	0.00e+00	0	34	0	359661568	64	4686
2026-01-17 00:37:25.56	26.65	21.18	-47.1	-49.0	17.7	0.00e+00	0	34	0	361758720	65	4556
2026-01-17 00:37:26.57	26.67	21.31	-47.0	-48.8	17.8	0.00e+00	0	34	0	363855872	65	4461
2026-01-17 00:37:27.58	26.69	21.45	-47.0	-48.8	17.9	0.00e+00	0	34	0	365953024	65	4484
2026-01-17 00:37:28.58	26.72	21.59	-46.9	-48.7	17.9	0.00e+00	0	34	0	367001600	65	4419
2026-01-17 00:37:29.59	26.74	21.73	-46.9	-48.6	18.0	0.00e+00	0	34	0	369098752	65	4376
2026-01-17 00:37:30.60	26.76	21.87	-47.0	-48.8	17.9	0.00e+00	0	34	0	371195904	65	4458
2026-01-17 00:37:31.61	26.78	22.01	-47.0	-48.9	17.8	0.00e+00	0	34	0	373293056	65	4504
2026-01-17 00:37:32.61	26.81	22.15	-46.9	-48.7	17.9	0.00e+00	0	34	0	375390208	65	4436
2026-01-17 00:37:33.62	26.83	22.30	-47.1	-48.9	17.8	0.00e+00	0	34	0	377487360	65	4512
2026-01-17 00:37:34.63	26.85	22.44	-47.1	-48.9	17.7	0.00e+00	0	34	0	378535936	65	4519
2026-01-17 00:37:35.64	26.88	22.59	-47.3	-49.3	17.4	0.00e+00	0	34	0	380633088	65	4718
2026-01-17 00:37:36.65	26.90	22.73	-47.0	-48.8	17.8	0.00e+00	0	34	0	382730240	65	4489
2026-01-17 00:37:37.66	26.92	22.88	-47.1	-48.9	17.8	0.00e+00	0	34	0	384827392	65	4528
2026-01-17 00:37:38.66	26.95	23.02	-47.2	-49.1	17.6	0.00e+00	0	34	0	386924544	65	4627
2026-01-17 00:37:39.67	26.97	23.17	-47.1	-48.9	17.7	0.00e+00	0	34	0	387973120	65	4540
2026-01-17 00:37:40.68	26.99	23.32	-47.1	-48.9	17.7	0.00e+00	0	34	0	390070272	65	4525
2026-01-17 00:37:41.69	27.02	23.47	-47.2	-49.1	17.5	0.00e+00	0	34	0	392167424	65	4608
2026-01-17 00:37:42.70	27.04	23.62	-47.1	-48.9	17.8	0.00e+00	0	34	0	394264576	65	4526
2026-01-17 00:37:43.70	27.07	23.77	-47.2	-49.1	17.7	0.00e+00	0	34	0	395313152	65	4618
2026-01-17 00:37:44.71	27.09	23.93	-46.7	-48.5	18.2	0.00e+00	0	34	0	397410304	65	4295
2026-01-17 00:37:45.72	27.12	24.08	-46.8	-48.5	18.2	0.00e+00	0	34	0	399507456	65	4301
2026-01-17 00:37:46.73	27.14	24.23	-46.9	-48.6	18.0	0.00e+00	0	34	0	401604608	65	4386
2026-01-17 00:37:47.74	27.17	24.39	-46.8	-48.5	18.2	0.00e+00	0	34	0	403701760	65	4313
2026-01-17 00:37:48.75	27.19	24.54	-46.7	-48.4	18.3	0.00e+00	0	34	0	405798912	65	4256
2026-01-17 00:37:49.76	27.22	24.70	-46.8	-48.5	18.2	0.00e+00	0	34	0	406847488	65	4315
2026-01-17 00:37:50.76	27.25	24.86	-46.7	-48.4	18.3	0.00e+00	0	34	0	408944640	65	4266
2026-01-17 00:37:51.77	27.27	25.02	-46.7	-48.4	18.3	0.00e+00	0	34	0	411041792	65	4253
2026-01-17 00:37:52.78	27.30	25.18	-46.8	-48.6	18.1	0.00e+00	0	34	0	413138944	65	4350
2026-01-17 00:37:53.78	27.33	25.34	-46.9	-48.6	18.1	0.00e+00	0	34	0	415236096	65	4366
2026-01-17 00:37:54.79	27.35	25.50	-46.8	-48.5	18.2	0.00e+00	0	34	0	416284672	65	4319
2026-01-17 00:37:55.80	27.38	25.66	-46.8	-48.5	18.2	0.00e+00	0	34	0	418381824	65	4339
2026-01-17 00:37:56.81	27.41	25.83	-46.7	-48.4	18.3	0.00e+00	0	34	0	420478976	65	4255
2026-01-17 00:37:57.82	27.44	25.99	-46.5	-48.1	18.6	0.00e+00	0	34	0	422576128	64	4358
2026-01-17 00:37:58.82	27.46	26.16	-46.5	-48.2	18.5	0.00e+00	0	34	0	424673280	64	4413
2026-01-17 00:37:59.83	27.49	26.32	-46.3	-47.9	18.8	0.00e+00	0	34	0	425721856	64	4243
2026-01-17 00:38:00.84	27.52	26.49	-46.4	-48.1	18.7	0.00e+00	0	34	0	427819008	64	4347
2026-01-17 00:38:01.85	27.55	26.66	-46.5	-48.1	18.6	0.00e+00	0	34	0	429916160	64	4365
2026-01-17 00:38:02.86	27.58	26.83	-46.3	-47.9	18.8	0.00e+00	0	34	0	432013312	64	4268
2026-01-17 00:38:03.86	27.61	27.00	-46.7	-48.4	18.4	0.00e+00	0	34	0	434110464	64	4516
2026-01-17 00:38:04.87	27.64	27.17	-46.9	-48.6	18.2	0.00e+00	0	34	0	435159040	64	4649
2026-01-17 00:38:05.88	27.67	27.35	-46.7	-48.4	18.4	0.00e+00	0	34	0	437256192	64	4505
2026-01-17 00:38:06.89	27.70	27.52	-47.0	-48.7	18.0	0.00e+00	0	34	0	439353344	64	4705
2026-01-17 00:38:07.90	27.73	27.70	-46.7	-48.4	18.3	0.00e+00	0	34	0	441450496	64	4517
2026-01-17 00:38:08.91	27.76	27.87	-46.9	-48.7	18.1	0.00e+00	0	34	0	443547648	64	4669
2026-01-17 00:38:09.91	27.79	28.05	-46.9	-48.6	18.2	0.00e+00	0	34	0	444596224	64	4627
2026-01-17 00:38:10.92	27.82	28.23	-46.6	-48.3	18.5	0.00e+00	0	34	0	446693376	64	4479
2026-01-17 00:38:11.93	27.85	28.41	-46.6	-48.3	18.5	0.00e+00	0	34	0	448790528	64	4462
2026-01-17 00:38:12.94	27.88	28.59	-46.6	-48.2	18.6	0.00e+00	0	34	0	450887680	64	4434
2026-01-17 00:38:13.94	27.92	28.77	-46.4	-48.0	18.7	0.00e+00	0	34	0	452984832	64	4321
2026-01-17 00:38:14.95	27.95	28.95	-46.5	-48.1	18.7	0.00e+00	0	34	0	454033408	64	4353
2026-01-17 00:38:15.96	27.98	29.14	-46.7	-48.4	18.4	0.00e+00	0	34	0	456130560	64	4504
2026-01-17 00:38:16.97	28.01	29.32	-46.7	-48.3	18.3	0.00e+00	0	34	0	458227712	64	4478
2026-01-17 00:38:17.98	28.05	29.51	-46.6	-48.2	18.5	0.00e+00	0	34	0	460324864	64	4431
2026-01-17 00:38:18.99	28.08	29.70	-47.0	-48.7	18.1	0.00e+00	0	34	0	462422016	64	4698
2026-01-17 00:38:20.00	28.12	29.89	-46.9	-48.7	18.2	0.00e+00	0	34	0	463470592	64	4662
2026-01-17 00:38:21.00	28.15	30.08	-47.3	-49.1	17.7	0.00e+00	0	34	0	465567744	65	4650
2026-01-17 00:38:22.01	28.19	30.27	-47.1	-48.9	17.9	0.00e+00	0	34	0	467664896	65	4508
2026-01-17 00:38:23.02	28.22	30.47	-47.1	-48.9	17.9	0.00e+00	0	34	0	469762048	65	4537
2026-01-17 00:38:24.03	28.26	30.66	-47.5	-49.5	17.4	0.00e+00	0	34	0	471859200	65	4856
2026-01-17 00:38:25.04	28.29	30.86	-47.4	-49.3	17.5	0.00e+00	0	34	0	472907776	65	4708
2026-01-17 00:38:26.05	28.33	31.06	-47.6	-49.5	17.4	0.00e+00	0	34	0	475004928	65	4849
2026-01-17 00:38:27.06	28.37	31.25	-48.0	-50.1	16.8	0.00e+00	0	34	0	477102080	66	4878
2026-01-17 00:38:28.06	28.40	31.45	-48.1	-50.3	16.6	0.00e+00	0	34	0	479199232	67	4728
2026-01-17 00:38:29.07	28.44	31.65	-48.6	-51.0	15.9	0.00e+00	0	34	0	481296384	67	5152
2026-01-17 00:38:30.08	28.48	31.86	-48.7	-51.2	15.9	0.00e+00	0	34	0	482344960	68	4930
2026-01-17 00:38:31.09	28.52	32.06	-49.3	-52.2	14.9	0.00e+00	0	34	0	484442112	69	5219
2026-01-17 00:38:32.10	28.56	32.27	-49.5	-52.4	14.6	0.00e+00	0	34	0	486539264	69	5362
2026-01-17 00:38:33.11	28.60	32.47	-49.3	-52.2	14.9	0.00e+00	0	34	0	488636416	69	5238
2026-01-17 00:38:34.11	28.64	32.68	-49.2	-52.0	15.1	0.00e+00	0	34	0	490733568	69	5143
2026-01-17 00:38:35.12	28.68	32.89	-49.4	-52.2	14.7	0.00e+00	0	34	0	492830720	69	5279
2026-01-17 00:38:36.13	28.72	33.10	-49.3	-52.0	15.1	7.00e-07	0	34	0	493879296	69	5150
2026-01-17 00:38:37.14	28.76	33.32	-49.5	-52.4	14.7	0.00e+00	0	34	0	495976448	69	5376
2026-01-17 00:38:38.15	28.80	33.53	-49.3	-52.1	15.1	0.00e+00	0	34	0	498073600	69	5178
2026-01-17 00:38:39.16	28.84	33.75	-49.2	-51.8	15.2	0.00e+00	0	34	0	500170752	69	5030
2026-01-17 00:38:40.17	28.89	33.97	-48.6	-50.9	16.1	0.00e+00	0	34	0	501219328	69	4544
2026-01-17 00:38:41.18	28.93	34.18	-48.4	-50.7	16.4	0.00e+00	0	34	0	503316480	68	4658
2026-01-17 00:38:42.18	28.97	34.40	-48.2	-50.3	16.7	0.00e+00	0	34	0	505413632	68	4491
2026-01-17 00:38:43.19	29.02	34.63	-47.6	-49.5	17.4	0.00e+00	0	34	0	507510784	66	4596
2026-01-17 00:38:44.20	29.06	34.85	-47.1	-48.9	18.0	0.00e+00	0	34	0	509607936	66	4290
2026-01-17 00:38:45.21	29.11	35.07	-46.7	-48.4	18.5	0.00e+00	0	34	0	511705088	65	4248
2026-01-17 00:38:46.22	29.15	35.30	-46.7	-48.3	18.6	0.00e+00	0	34	0	512753664	64	4478
2026-01-17 00:38:47.23	29.20	35.53	-46.5	-48.0	18.8	0.00e+00	0	34	0	514850816	64	4334
2026-01-17 00:38:48.24	29.25	35.76	-45.9	-47.4	19.5	0.00e+00	0	34	0	516947968	63	4244
2026-01-17 00:38:49.25	29.30	35.99	-46.3	-47.8	19.2	0.00e+00	0	34	0	519045120	63	4467
2026-01-17 00:38:50.26	29.34	36.23	-46.0	-47.4	19.3	0.00e+00	0	34	0	521142272	63	4267
2026-01-17 00:38:51.26	29.39	36.46	-45.6	-47.0	19.8	0.00e+00	0	34	0	522190848	62	4308
2026-01-17 00:38:52.27	29.44	36.70	-45.6	-47.0	19.9	0.00e+00	0	34	0	524288000	62	4293
2026-01-17 00:38:53.28	29.49	36.94	-45.6	-46.9	19.9	0.00e+00	0	34	0	526385152	62	4290
2026-01-17 00:38:54.29	29.54	37.18	-45.6	-46.9	20.0	0.00e+00	0	34	0	528482304	62	4269
2026-01-17 00:38:55.30	29.60	37.42	-45.5	-46.8	20.1	0.00e+00	0	34	0	529530880	62	4195
2026-01-17 00:38:56.31	29.65	37.66	-45.9	-47.3	19.6	0.00e+00	0	34	0	531628032	62	4472
2026-01-17 00:38:57.32	29.70	37.91	-46.1	-47.6	19.3	0.00e+00	0	34	0	533725184	62	4624
2026-01-17 00:38:58.33	29.76	38.16	-46.1	-47.6	19.3	0.00e+00	0	34	0	535822336	63	4344
2026-01-17 00:38:59.33	29.81	38.40	-46.3	-47.9	19.1	0.00e+00	0	34	0	537919488	63	4498
2026-01-17 00:39:00.34	29.87	38.65	-46.3	-47.8	19.1	0.00e+00	0	34	0	540016640	63	4464
2026-01-17 00:39:01.35	29.92	38.91	-46.3	-47.8	19.1	0.00e+00	0	34	0	541065216	63	4468
2026-01-17 00:39:02.36	29.98	39.16	-46.1	-47.5	19.4	0.00e+00	0	34	0	543162368	63	4331
2026-01-17 00:39:03.37	30.04	39.42	-45.9	-47.3	19.7	0.00e+00	0	34	0	545259520	63	4208
2026-01-17 00:39:04.38	30.10	39.68	-46.1	-47.6	19.4	0.00e+00	0	34	0	547356672	63	4352
2026-01-17 00:39:05.39	30.16	39.94	-46.2	-47.6	19.4	0.00e+00	0	34	0	549453824	63	4377
2026-01-17 00:39:06.39	30.22	40.20	-46.3	-47.8	19.2	0.00e+00	0	34	0	550502400	63	4448
2026-01-17 00:39:07.40	30.28	40.46	-46.6	-48.1	18.9	0.00e+00	0	34	0	552599552	63	4634
2026-01-17 00:39:08.41	30.34	40.73	-46.5	-48.0	18.9	0.00e+00	0	34	0	554696704	63	4586
2026-01-17 00:39:09.42	30.41	41.00	-46.2	-47.6	19.2	0.00e+00	0	34	0	556793856	63	4381
2026-01-17 00:39:10.42	30.47	41.26	-46.7	-48.3	18.7	0.00e+00	0	34	0	558891008	63	4712
2026-01-17 00:39:11.43	30.54	41.54	-46.7	-48.3	18.6	0.00e+00	0	34	0	559939584	64	4463
2026-01-17 00:39:12.44	30.60	41.81	-46.6	-48.2	18.7	0.00e+00	0	34	0	562036736	64	4411
2026-01-17 00:39:13.45	30.67	42.09	-46.6	-48.1	18.8	0.00e+00	0	34	0	564133888	64	4390
2026-01-17 00:39:14.46	30.74	42.37	-46.3	-47.7	19.2	0.00e+00	0	34	0	566231040	63	4439
2026-01-17 00:39:15.47	30.81	42.65	-46.1	-47.6	19.4	0.00e+00	0	34	0	568328192	63	4355
2026-01-17 00:39:16.48	30.88	42.93	-45.6	-47.0	19.9	0.00e+00	0	34	0	569376768	63	4060
2026-01-17 00:39:17.48	30.95	43.21	-45.5	-46.9	20.1	0.00e+00	0	34	0	571473920	62	4246
2026-01-17 00:39:18.49	31.02	43.50	-45.2	-46.5	20.4	0.00e+00	0	34	0	573571072	62	4064
2026-01-17 00:39:19.50	31.10	43.79	-45.2	-46.5	20.4	0.00e+00	0	34	0	575668224	62	4058
2026-01-17 00:39:20.51	31.18	44.08	-45.3	-46.5	20.4	0.00e+00	0	34	0	577765376	62	4090
2026-01-17 00:39:21.52	31.25	44.37	-45.3	-46.5	20.3	0.00e+00	0	34	0	579862528	62	4093
2026-01-17 00:39:22.52	31.33	44.66	-45.6	-46.9	20.0	0.00e+00	0	34	0	580911104	62	4284
2026-01-17 00:39:23.53	31.41	44.96	-46.0	-47.4	19.6	0.00e+00	0	34	0	583008256	62	4525
2026-01-17 00:39:24.54	31.49	45.26	-46.5	-48.0	18.9	0.00e+00	0	34	0	585105408	64	4322
2026-01-17 00:39:25.55	31.58	45.56	-47.3	-49.1	17.9	0.00e+00	0	34	0	587202560	65	4649
2026-01-17 00:39:26.56	31.66	45.87	-47.8	-49.8	17.2	0.00e+00	0	34	0	588251136	66	4739
2026-01-17 00:39:27.57	31.75	46.17	-48.1	-50.3	16.9	0.00e+00	0	34	0	590348288	67	4723
2026-01-17 00:39:28.57	31.83	46.48	-48.4	-50.7	16.4	0.00e+00	0	34	0	592445440	67	4942
2026-01-17 00:39:29.58	31.92	46.79	-48.6	-50.9	16.2	0.00e+00	0	34	0	594542592	67	5075
2026-01-17 00:39:30.59	32.01	47.10	-48.9	-51.3	15.9	0.00e+00	0	34	0	596639744	68	5024
2026-01-17 00:39:31.60	32.11	47.42	-48.8	-51.3	15.9	0.00e+00	0	34	0	597688320	68	4993
2026-01-17 00:39:32.60	32.20	47.73	-48.6	-50.9	16.2	0.00e+00	0	34	0	599785472	68	4778
2026-01-17 00:39:33.61	32.30	48.05	-48.5	-50.7	16.4	0.00e+00	0	34	0	601882624	68	4690
2026-01-17 00:39:34.62	32.40	48.37	-48.5	-50.8	16.3	0.00e+00	0	34	0	603979776	68	4740
2026-01-17 00:39:35.63	32.50	48.70	-47.7	-49.6	17.3	0.00e+00	0	34	0	606076928	67	4381
2026-01-17 00:39:36.64	32.60	49.03	-46.8	-48.5	18.5	0.00e+00	0	34	0	608174080	65	4309
2026-01-17 00:39:37.65	32.70	49.35	-46.2	-47.6	19.3	0.00e+00	0	34	0	609222656	64	4132
2026-01-17 00:39:38.66	32.81	49.69	-45.8	-47.1	19.9	0.00e+00	0	34	0	611319808	63	4120
2026-01-17 00:39:39.67	32.92	50.02	-45.3	-46.6	20.3	0.00e+00	0	34	0	613416960	62	4115
2026-01-17 00:39:40.68	33.03	50.36	-45.1	-46.3	20.6	0.00e+00	0	34	0	615514112	62	3973
2026-01-17 00:39:41.68	33.14	50.69	-45.1	-46.4	20.5	0.00e+00	0	34	0	616562688	62	4024
2026-01-17 00:39:42.69	33.26	51.03	-45.3	-46.6	20.4	0.00e+00	0	34	0	618659840	62	4119
2026-01-17 00:39:43.70	33.38	51.38	-45.7	-47.1	20.0	0.00e+00	0	34	0	620756992	62	4377
2026-01-17 00:39:44.71	33.50	51.72	-45.2	-46.5	20.4	0.00e+00	0	34	0	622854144	62	4081
2026-01-17 00:39:45.72	33.63	52.07	-45.2	-46.5	20.5	0.00e+00	0	34	0	624951296	62	4069
2026-01-17 00:39:46.72	33.75	52.42	-44.3	-45.5	21.3	0.00e+00	0	34	0	627048448	60	4055
2026-01-17 00:39:47.73	33.88	52.77	-44.4	-45.5	21.3	0.00e+00	0	34	0	628097024	60	4069
2026-01-17 00:39:48.74	34.02	53.13	-44.3	-45.4	21.4	0.00e+00	0	34	0	630194176	60	4048
2026-01-17 00:39:49.75	34.15	53.48	-44.4	-45.5	21.3	0.00e+00	0	34	0	632291328	60	4079
2026-01-17 00:39:50.76	34.29	53.84	-44.1	-45.2	21.6	0.00e+00	0	34	0	634388480	60	3926
2026-01-17 00:39:51.76	34.43	54.20	-44.2	-45.3	21.5	0.00e+00	0	34	0	636485632	60	3972
2026-01-17 00:39:52.77	34.58	54.57	-44.4	-45.5	21.4	0.00e+00	0	34	0	637534208	60	4082
2026-01-17 00:39:53.78	34.73	54.93	-44.2	-45.4	21.4	0.00e+00	0	34	0	639631360	60	4013
2026-01-17 00:39:54.79	34.89	55.30	-44.1	-45.2	21.8	0.00e+00	0	34	0	641728512	59	4179
2026-01-17 00:39:55.80	35.04	55.68	-43.5	-44.6	22.4	0.00e+00	0	34	0	643825664	59	3871
2026-01-17 00:39:56.81	35.21	56.05	-43.7	-44.8	22.3	0.00e+00	0	34	0	645922816	58	4194
2026-01-17 00:39:57.82	35.37	56.43	-43.6	-44.7	22.3	0.00e+00	0	34	0	646971392	58	4161
2026-01-17 00:39:58.83	35.55	56.81	-44.2	-45.4	21.7	0.00e+00	0	34	0	649068544	59	4281
2026-01-17 00:39:59.83	35.72	57.18	-44.4	-45.6	21.2	0.00e+00	0	34	0	651165696	60	4133
2026-01-17 00:40:00.84	35.90	57.57	-44.3	-45.4	21.4	0.00e+00	0	34	0	653262848	60	4040
2026-01-17 00:40:01.85	36.09	57.95	-44.1	-45.2	21.8	0.00e+00	0	34	0	655360000	59	4170
2026-01-17 00:40:02.86	36.28	58.34	-44.1	-45.1	21.9	0.00e+00	0	34	0	656408576	59	4135
2026-01-17 00:40:03.86	36.47	58.73	-44.0	-45.1	22.0	0.00e+00	0	34	0	658505728	59	4115
2026-01-17 00:40:04.87	36.68	59.12	-44.2	-45.3	21.8	0.00e+00	0	34	0	660602880	59	4221
2026-01-17 00:40:05.88	36.88	59.52	-44.4	-45.6	21.3	0.00e+00	0	34	0	662700032	60	4115
2026-01-17 00:40:06.89	37.10	59.92	-44.9	-46.1	20.8	0.00e+00	0	34	0	664797184	60	4362
2026-01-17 00:40:07.90	37.32	60.32	-44.4	-45.6	21.3	0.00e+00	0	34	0	665845760	60	4114
2026-01-17 00:40:08.91	37.55	60.72	-44.4	-45.5	21.4	0.00e+00	0	34	0	667942912	60	4094
2026-01-17 00:40:09.92	37.79	61.12	-44.4	-45.5	21.6	0.00e+00	0	34	0	670040064	59	4333
2026-01-17 00:40:10.92	38.03	61.52	-43.9	-45.0	22.1	0.00e+00	0	34	0	672137216	59	4054
2026-01-17 00:40:11.93	38.28	61.93	-43.9	-45.0	22.1	0.00e+00	0	34	0	674234368	59	4060
2026-01-17 00:40:12.94	38.54	62.34	-43.6	-44.6	22.5	0.00e+00	0	34	0	675282944	58	4116
2026-01-17 00:40:13.95	38.81	62.75	-43.6	-44.6	22.4	0.00e+00	0	34	0	677380096	58	4117
2026-01-17 00:40:14.96	39.08	63.17	-44.2	-45.3	21.7	0.00e+00	0	34	0	679477248	59	4240
2026-01-17 00:40:15.96	39.37	63.58	-44.3	-45.5	21.3	0.00e+00	0	34	0	681574400	60	4075
2026-01-17 00:40:16.97	39.67	64.00	-44.7	-45.9	21.0	0.00e+00	0	34	0	683671552	60	4270
2026-01-17 00:40:17.98	39.97	64.42	-45.0	-46.2	20.8	0.00e+00	0	34	0	684720128	60	4416
2026-01-17 00:40:18.99	40.29	64.84	-45.2	-46.5	20.5	0.00e+00	0	34	0	686817280	61	4308
2026-01-17 00:40:20.00	40.63	65.26	-45.0	-46.2	20.7	0.00e+00	0	34	0	688914432	61	4170
2026-01-17 00:40:21.00	40.97	65.68	-44.6	-45.8	21.2	0.00e+00	0	34	0	691011584	60	4207
2026-01-17 00:40:22.01	41.33	66.11	-44.5	-45.6	21.2	0.00e+00	0	34	0	693108736	60	4118
2026-01-17 00:40:23.02	41.70	66.53	-44.8	-46.0	20.9	0.00e+00	0	34	0	694157312	60	4301
2026-01-17 00:40:24.03	42.09	66.96	-45.7	-47.1	20.1	0.00e+00	0	34	0	696254464	61	4615
2026-01-17 00:40:25.04	42.49	67.39	-46.5	-48.1	19.1	0.00e+00	0	34	0	698351616	63	4619
2026-01-17 00:40:26.05	42.91	67.82	-47.4	-49.2	17.8	0.00e+00	0	34	0	700448768	65	4694
2026-01-17 00:40:27.06	43.35	68.25	-47.8	-49.8	17.4	0.00e+00	0	34	0	702545920	66	4737
2026-01-17 00:40:28.06	43.80	68.68	-47.0	-48.6	18.5	0.00e+00	0	34	0	703594496	65	4375
2026-01-17 00:40:29.07	44.28	69.12	-46.5	-48.1	18.9	0.00e+00	0	34	0	705691648	64	4355
2026-01-17 00:40:30.08	44.78	69.55	-46.5	-48.1	19.0	0.00e+00	0	34	0	707788800	64	4351
2026-01-17 00:40:31.09	45.30	69.99	-47.0	-48.7	18.4	0.00e+00	0	34	0	709885952	65	4392
2026-01-17 00:40:32.10	45.84	70.42	-48.2	-50.4	16.9	0.00e+00	0	34	0	711983104	66	5080
2026-01-17 00:40:33.11	46.42	70.86	-48.5	-50.7	16.5	0.00e+00	0	34	0	714080256	67	4970
2026-01-17 00:40:34.12	47.02	71.29	-48.7	-51.1	16.1	0.00e+00	0	34	0	715128832	67	5160
2026-01-17 00:40:35.12	47.64	71.72	-48.3	-50.5	16.7	0.00e+00	0	34	0	717225984	67	4825
2026-01-17 00:40:36.13	48.31	72.16	-47.9	-50.0	17.2	0.00e+00	0	34	0	719323136	67	4549
2026-01-17 00:40:37.14	49.01	72.59	-46.9	-48.6	18.4	0.00e+00	0	34	0	721420288	65	4341
2026-01-17 00:40:38.15	49.74	73.03	-45.5	-46.8	20.2	0.00e+00	0	34	0	722468864	62	4199
2026-01-17 00:40:39.16	50.52	73.46	-45.7	-47.0	20.0	0.00e+00	0	34	0	724566016	62	4326
2026-01-17 00:40:40.16	51.33	73.88	-47.6	-49.5	17.6	0.00e+00	0	34	0	726663168	65	4863
2026-01-17 00:40:41.17	52.20	74.31	-48.4	-50.7	16.4	0.00e+00	0	34	0	728760320	67	4931
2026-01-17 00:40:42.18	53.11	74.74	-47.7	-49.6	17.5	0.00e+00	0	34	0	730857472	67	4374
2026-01-17 00:40:43.19	54.08	75.17	-47.3	-49.1	18.0	0.00e+00	0	34	0	731906048	66	4341
2026-01-17 00:40:44.20	55.11	75.59	-47.9	-49.8	17.4	0.00e+00	0	34	0	734003200	66	4741
2026-01-17 00:40:45.20	56.20	76.00	-48.3	-50.5	16.7	0.00e+00	0	34	0	736100352	67	4830
2026-01-17 00:40:46.21	57.36	76.41	-49.5	-52.3	15.0	0.00e+00	0	34	0	738197504	70	5013
2026-01-17 00:40:47.22	58.60	76.82	-49.9	-52.8	14.3	7.00e-07	0	34	0	740294656	70	5322
2026-01-17 00:40:48.23	59.91	77.23	-49.4	-52.1	15.2	1.50e-06	0	34	0	742391808	70	4879
2026-01-17 00:40:49.24	61.32	77.63	-49.7	-52.6	14.7	0.00e+00	0	34	0	743440384	70	5167
2026-01-17 00:40:50.25	62.82	78.02	-48.9	-51.3	16.1	0.00e+00	0	34	0	745537536	69	4733
2026-01-17 00:40:51.26	64.42	78.40	-49.2	-51.7	15.5	0.00e+00	0	34	0	747634688	69	4949
2026-01-17 00:40:52.27	66.14	78.78	-49.8	-52.9	14.5	0.00e+00	0	34	0	749731840	70	5341
2026-01-17 00:40:53.28	67.97	79.15	-50.2	-53.5	13.9	2.20e-06	0	34	0	750780416	71	5418
2026-01-17 00:40:54.28	69.92	79.50	-49.9	-52.9	14.4	7.60e-06	0	34	0	752877568	71	5096
2026-01-17 00:40:55.29	72.01	79.84	-49.5	-52.1	15.2	0.00e+00	0	34	0	754974720	70	4912
2026-01-17 00:40:56.30	74.26	80.17	-49.4	-52.0	15.4	0.00e+00	0	34	0	757071872	70	4851
2026-01-17 00:40:57.31	76.66	80.48	-49.1	-51.7	15.8	0.00e+00	0	34	0	759169024	69	4939
2026-01-17 00:40:58.32	79.22	80.78	-47.9	-49.8	17.5	0.00e+00	0	34	0	761266176	67	4478
2026-01-17 00:40:59.32	81.92	81.06	-47.7	-49.6	17.5	0.00e+00	0	34	0	762314752	67	4376
2026-01-17 00:41:00.33	84.81	81.31	-48.6	-51.0	16.2	0.00e+00	0	34	0	764411904	67	5135
2026-01-17 00:41:01.34	87.88	81.55	-47.9	-50.0	17.1	0.00e+00	0	34	0	766509056	67	4554
2026-01-17 00:41:02.35	91.12	81.76	-47.0	-48.8	18.3	0.00e+00	0	34	0	768606208	66	4194
2026-01-17 00:41:03.36	94.51	81.94	-47.5	-49.4	17.8	0.00e+00	0	34	0	770703360	66	4508
2026-01-17 00:41:04.36	98.01	82.09	-47.8	-49.9	17.4	0.00e+00	0	34	0	771751936	66	4763
2026-01-17 00:41:05.37	101.68	82.22	-47.4	-49.2	17.9	0.00e+00	0	34	0	773849088	66	4409
2026-01-17 00:41:06.38	105.45	82.31	-47.1	-48.9	18.3	0.00e+00	0	34	0	775946240	65	4525
2026-01-17 00:41:07.39	109.29	82.36	-46.5	-48.1	18.9	0.00e+00	0	34	0	778043392	64	4376
2026-01-17 00:41:08.40	113.17	82.39	-46.2	-47.7	19.3	0.00e+00	0	34	0	779091968	64	4171
2026-01-17 00:41:09.41	117.06	82.37	-45.4	-46.7	20.3	0.00e+00	0	34	0	781189120	62	4183
2026-01-17 00:41:10.42	120.92	82.33	-44.5	-45.6	21.2	0.00e+00	0	34	0	783286272	60	4130
2026-01-17 00:41:11.43	124.71	82.25	-46.5	-48.0	19.1	0.00e+00	0	34	0	785383424	63	4593
2026-01-17 00:41:12.44	128.41	82.13	-49.0	-51.5	15.8	0.00e+00	0	34	0	787480576	68	5145
2026-01-17 00:41:13.45	131.99	81.99	-48.8	-51.3	16.0	0.00e+00	0	34	0	789577728	69	4712
2026-01-17 00:41:14.45	135.40	81.82	-48.3	-50.5	16.7	0.00e+00	0	34	0	790626304	68	4573
2026-01-17 00:41:15.46	138.69	81.62	-48.2	-50.3	17.0	0.00e+00	0	34	0	792723456	68	4444
2026-01-17 00:41:16.47	141.81	81.39	-47.1	-48.8	18.3	0.00e+00	0	34	0	794820608	66	4242
2026-01-17 00:41:17.48	144.76	81.14	-47.2	-48.9	18.2	0.00e+00	0	34	0	796917760	65	4515
2026-01-17 00:41:18.49	147.54	80.87	-48.6	-51.0	16.2	0.00e+00	0	34	0	799014912	67	5111
2026-01-17 00:41:19.50	150.15	80.58	-47.8	-49.7	17.3	0.00e+00	0	34	0	800063488	67	4422
2026-01-17 00:41:20.50	152.57	80.27	-47.6	-49.5	17.6	0.00e+00	0	34	0	802160640	67	4301
2026-01-17 00:41:21.51	154.87	79.94	-49.9	-53.1	14.3	0.00e+00	0	34	0	804257792	70	5469
2026-01-17 00:41:22.52	157.01	79.60	-48.6	-50.9	16.4	1.50e-06	0	34	0	806354944	69	4517
2026-01-17 00:41:23.53	159.02	79.25	-47.6	-49.4	17.6	0.00e+00	0	34	0	808452096	67	4284
2026-01-17 00:41:24.54	160.89	78.89	-47.7	-49.6	17.4	0.00e+00	0	34	0	809500672	66	4629
2026-01-17 00:41:25.55	162.64	78.52	-48.0	-50.1	17.2	0.00e+00	0	34	0	811597824	66	4879
2026-01-17 00:41:26.56	164.28	78.13	-47.7	-49.7	17.5	0.00e+00	0	34	0	813694976	67	4404
2026-01-17 00:41:27.57	165.81	77.74	-47.5	-49.3	17.9	0.00e+00	0	34	0	815792128	66	4466
2026-01-17 00:41:28.57	167.23	77.35	-46.6	-48.1	19.0	0.00e+00	0	34	0	817889280	65	4112
2026-01-17 00:41:29.58	168.57	76.95	-48.2	-50.3	16.9	0.00e+00	0	34	0	818937856	67	4757
2026-01-17 00:41:30.59	169.84	76.54	-48.7	-51.0	16.2	0.00e+00	0	34	0	821035008	68	4858
2026-01-17 00:41:31.60	171.02	76.13	-47.4	-49.2	17.9	0.00e+00	0	34	0	823132160	66	4403
2026-01-17 00:41:32.60	172.13	75.71	-47.1	-48.8	18.2	0.00e+00	0	34	0	825229312	65	4459
2026-01-17 00:41:33.61	173.18	75.29	-46.4	-47.9	19.1	0.00e+00	0	34	0	827326464	64	4249
2026-01-17 00:41:34.62	174.16	74.87	-45.2	-46.4	20.6	0.00e+00	0	34	0	829423616	62	4047
2026-01-17 00:41:35.63	175.10	74.44	-46.1	-47.5	19.6	0.00e+00	0	34	0	830472192	62	4589
2026-01-17 00:41:36.64	175.98	74.01	-46.9	-48.6	18.4	0.00e+00	0	34	0	832569344	64	4617
2026-01-17 00:41:37.64	176.81	73.59	-47.1	-48.8	18.2	0.00e+00	0	34	0	834666496	65	4486
2026-01-17 00:41:38.65	177.59	73.15	-48.1	-50.2	17.0	0.00e+00	0	34	0	836763648	66	4942
2026-01-17 00:41:39.67	178.35	72.72	-47.4	-49.2	18.0	0.00e+00	0	34	0	837812224	66	4431
2026-01-17 00:41:40.67	179.05	72.29	-47.2	-49.0	18.3	0.00e+00	0	34	0	839909376	66	4293
2026-01-17 00:41:41.68	179.73	71.85	-48.6	-50.8	16.3	0.00e+00	0	34	0	842006528	67	5024
2026-01-17 00:41:42.69	180.37	71.41	-50.1	-53.3	14.1	0.00e+00	0	34	0	844103680	70	5597
2026-01-17 00:41:43.70	180.98	70.98	-49.5	-52.3	15.1	1.50e-06	0	34	0	846200832	70	5021
2026-01-17 00:41:44.71	181.56	70.54	-47.7	-49.5	17.6	0.00e+00	0	34	0	848297984	67	4335
2026-01-17 00:41:45.72	182.12	70.11	-47.1	-48.7	18.4	0.00e+00	0	34	0	849346560	65	4432
2026-01-17 00:41:46.73	182.65	69.67	-49.2	-51.7	15.7	0.00e+00	0	34	0	851443712	68	5234
2026-01-17 00:41:47.74	183.15	69.24	-50.7	-54.6	12.7	4.50e-06	0	34	0	853540864	71	6144
2026-01-17 00:41:48.75	183.63	68.80	-50.3	-53.9	13.4	1.36e-04	0	34	0	855638016	72	5379
2026-01-17 00:41:49.76	184.10	68.37	-48.1	-50.1	17.0	7.00e-07	0	34	0	857735168	68	4385
2026-01-17 00:41:50.76	184.54	67.94	-46.3	-47.7	19.2	0.00e+00	0	34	0	858783744	64	4181
2026-01-17 00:41:51.78	184.97	67.50	-46.0	-47.5	19.6	0.00e+00	0	34	0	860880896	63	4292
2026-01-17 00:41:52.78	185.37	67.08	-46.2	-47.6	19.5	0.00e+00	0	34	0	862978048	63	4386
2026-01-17 00:41:53.79	185.76	66.65	-45.8	-47.1	20.0	0.00e+00	0	34	0	865075200	63	4125
2026-01-17 00:41:54.80	186.14	66.22	-45.6	-46.8	20.2	0.00e+00	0	34	0	866123776	63	4003
2026-01-17 00:41:55.81	186.50	65.79	-44.9	-46.0	20.8	0.00e+00	0	34	0	868220928	61	4096
2026-01-17 00:41:56.82	186.85	65.37	-44.5	-45.6	21.2	0.00e+00	0	34	0	870318080	60	4100
2026-01-17 00:41:57.83	187.19	64.94	-46.1	-47.6	19.5	0.00e+00	0	34	0	872415232	62	4599
2026-01-17 00:41:58.83	187.51	64.52	-46.1	-47.7	19.2	0.00e+00	0	34	0	874512384	64	4150
2026-01-17 00:41:59.84	187.82	64.10	-45.3	-46.6	20.4	0.00e+00	0	34	0	876609536	62	4109
2026-01-17 00:42:00.85	188.12	63.68	-44.9	-46.1	20.9	0.00e+00	0	34	0	877658112	61	4120
2026-01-17 00:42:01.86	188.41	63.27	-46.4	-47.9	19.2	0.00e+00	0	34	0	879755264	63	4509
2026-01-17 00:42:02.87	188.69	62.85	-46.5	-48.1	19.1	0.00e+00	0	34	0	881852416	64	4355
2026-01-17 00:42:03.88	188.96	62.44	-45.8	-47.1	20.0	0.00e+00	0	34	0	883949568	63	4125
2026-01-17 00:42:04.89	189.22	62.03	-45.9	-47.3	19.8	0.00e+00	0	34	0	886046720	63	4202
2026-01-17 00:42:05.90	189.48	61.62	-46.8	-48.4	18.7	0.00e+00	0	34	0	887095296	64	4504
2026-01-17 00:42:06.90	189.72	61.21	-46.2	-47.6	19.4	0.00e+00	0	34	0	889192448	63	4391
2026-01-17 00:42:07.91	189.96	60.81	-45.7	-47.0	20.0	0.00e+00	0	34	0	891289600	63	4089
2026-01-17 00:42:08.92	190.19	60.41	-46.6	-48.1	19.1	0.00e+00	0	34	0	893386752	63	4635
2026-01-17 00:42:09.93	190.41	60.00	-47.1	-48.8	18.3	0.00e+00	0	34	0	895483904	65	4449
2026-01-17 00:42:10.94	190.63	59.61	-46.6	-48.1	18.9	0.00e+00	0	34	0	896532480	65	4133
2026-01-17 00:42:11.94	190.84	59.21	-45.7	-47.0	20.0	0.00e+00	0	34	0	898629632	63	4073
2026-01-17 00:42:12.95	191.04	58.82	-45.6	-46.9	20.2	0.00e+00	0	34	0	900726784	62	4290
2026-01-17 00:42:13.96	191.24	58.43	-46.3	-47.8	19.1	0.00e+00	0	34	0	902823936	64	4234
2026-01-17 00:42:14.97	191.43	58.04	-46.2	-47.7	19.3	0.00e+00	0	34	0	904921088	64	4193
2026-01-17 00:42:15.98	191.62	57.65	-44.4	-45.5	21.3	0.00e+00	0	34	0	905969664	60	4068
2026-01-17 00:42:16.99	191.80	57.26	-44.2	-45.2	21.8	0.00e+00	0	34	0	908066816	59	4192
2026-01-17 00:42:18.00	191.98	56.88	-44.8	-46.0	21.0	0.00e+00	0	34	0	910163968	60	4298
2026-01-17 00:42:19.01	192.15	56.50	-45.3	-46.6	20.5	0.00e+00	0	34	0	912261120	61	4341
2026-01-17 00:42:20.02	192.32	56.12	-45.0	-46.2	20.7	0.00e+00	0	34	0	914358272	61	4164
2026-01-17 00:42:21.03	192.48	55.75	-45.3	-46.6	20.4	0.00e+00	0	34	0	915406848	61	4384
2026-01-17 00:42:22.04	192.64	55.37	-46.7	-48.3	18.9	0.00e+00	0	34	0	917504000	63	4733
2026-01-17 00:42:23.04	192.80	55.00	-47.2	-48.9	18.2	0.00e+00	0	34	0	919601152	65	4532
2026-01-17 00:42:24.05	192.95	54.64	-46.2	-47.6	19.3	0.00e+00	0	34	0	921698304	64	4132
2026-01-17 00:42:25.06	193.10	54.27	-45.7	-47.1	19.9	0.00e+00	0	34	0	923795456	63	4114
2026-01-17 00:42:26.07	193.24	53.91	-46.9	-48.6	18.5	0.00e+00	0	34	0	924844032	64	4643
2026-01-17 00:42:27.08	193.38	53.54	-48.9	-51.5	15.8	0.00e+00	0	34	0	926941184	68	5105
2026-01-17 00:42:28.08	193.52	53.19	-49.6	-52.5	14.8	0.00e+00	0	34	0	929038336	70	5137
2026-01-17 00:42:29.09	193.65	52.83	-48.5	-50.8	16.4	0.00e+00	0	34	0	931135488	68	4715
2026-01-17 00:42:30.10	193.78	52.48	-47.5	-49.3	17.8	0.00e+00	0	34	0	933232640	66	4469
2026-01-17 00:42:31.11	193.91	52.12	-47.4	-49.1	18.0	0.00e+00	0	34	0	935329792	66	4389
2026-01-17 00:42:32.12	194.04	51.78	-47.6	-49.4	17.7	0.00e+00	0	34	0	936378368	66	4522
2026-01-17 00:42:33.12	194.16	51.43	-47.5	-49.3	17.8	0.00e+00	0	34	0	938475520	66	4454
2026-01-17 00:42:34.13	194.28	51.09	-47.2	-48.9	18.1	0.00e+00	0	34	0	940572672	66	4262
2026-01-17 00:42:35.14	194.39	50.74	-47.8	-49.7	17.3	0.00e+00	0	34	0	942669824	66	4686
2026-01-17 00:42:36.15	194.51	50.40	-47.6	-49.5	17.6	0.00e+00	0	34	0	943718400	66	4553
2026-01-17 00:42:37.16	194.62	50.07	-47.1	-48.7	18.3	0.00e+00	0	34	0	945815552	66	4188
2026-01-17 00:42:38.17	194.73	49.73	-46.5	-48.1	19.0	0.00e+00	0	34	0	947912704	64	4343
2026-01-17 00:42:39.18	194.84	49.40	-46.2	-47.7	19.3	0.00e+00	0	34	0	950009856	64	4149
2026-01-17 00:42:40.19	194.94	49.07	-46.1	-47.5	19.4	0.00e+00	0	34	0	952107008	64	4094
2026-01-17 00:42:41.20	195.05	48.74	-46.8	-48.5	18.5	0.00e+00	0	34	0	953155584	64	4555
2026-01-17 00:42:42.20	195.15	48.42	-48.0	-50.1	17.0	0.00e+00	0	34	0	955252736	66	4878
2026-01-17 00:42:43.21	195.25	48.09	-49.8	-53.1	14.3	0.00e+00	0	34	0	957349888	70	5483
2026-01-17 00:42:44.22	195.34	47.77	-49.6	-52.8	14.4	4.50e-06	0	34	0	959447040	70	5283
2026-01-17 00:42:45.23	195.44	47.45	-49.4	-52.5	14.6	0.00e+00	0	34	0	961544192	70	5101
2026-01-17 00:42:46.24	195.53	47.14	-48.8	-51.4	15.6	0.00e+00	0	34	0	963641344	69	4797
2026-01-17 00:42:47.25	195.62	46.82	-47.7	-49.7	17.3	0.00e+00	0	34	0	964689920	67	4402
2026-01-17 00:42:48.26	195.71	46.51	-47.1	-48.8	18.1	0.00e+00	0	34	0	966787072	66	4230
2026-01-17 00:42:49.27	195.80	46.20	-46.1	-47.5	19.5	0.00e+00	0	34	0	968884224	63	4332
2026-01-17 00:42:50.28	195.89	45.89	-46.4	-47.9	19.2	0.00e+00	0	34	0	970981376	63	4503
2026-01-17 00:42:51.28	195.97	45.59	-46.5	-48.1	19.0	0.00e+00	0	34	0	972029952	63	4600
2026-01-17 00:42:52.29	196.05	45.29	-47.9	-50.0	17.1	0.00e+00	0	34	0	974127104	66	4857
2026-01-17 00:42:53.30	196.14	44.99	-48.3	-50.6	16.5	0.00e+00	0	34	0	976224256	67	4881
2026-01-17 00:42:54.31	196.22	44.69	-48.3	-50.6	16.5	0.00e+00	0	34	0	978321408	67	4903
2026-01-17 00:42:55.32	196.29	44.39	-47.8	-49.9	17.1	0.00e+00	0	34	0	980418560	67	4511
2026-01-17 00:42:56.32	196.37	44.10	-47.0	-48.7	18.2	0.00e+00	0	34	0	982515712	65	4432
2026-01-17 00:42:57.33	196.45	43.81	-45.5	-46.9	20.0	0.00e+00	0	34	0	983564288	63	4011
2026-01-17 00:42:58.34	196.52	43.52	-45.2	-46.5	20.3	0.00e+00	0	34	0	985661440	61	4322
2026-01-17 00:42:59.35	196.60	43.23	-44.6	-45.8	21.1	0.00e+00	0	34	0	987758592	61	3971
2026-01-17 00:43:00.36	196.67	42.94	-44.4	-45.5	21.3	0.00e+00	0	34	0	989855744	60	4078
2026-01-17 00:43:01.37	196.74	42.66	-45.1	-46.3	20.6	0.00e+00	0	34	0	991952896	60	4453
2026-01-17 00:43:02.38	196.81	42.38	-46.3	-47.9	19.2	0.00e+00	0	34	0	993001472	63	4496
2026-01-17 00:43:03.38	196.88	42.10	-47.1	-48.9	18.0	0.00e+00	0	34	0	995098624	64	4811
2026-01-17 00:43:04.39	196.95	41.82	-47.2	-49.0	17.9	0.00e+00	0	34	0	997195776	65	4572
2026-01-17 00:43:05.40	197.01	41.55	-47.7	-49.8	17.2	0.00e+00	0	34	0	999292928	66	4713
2026-01-17 00:43:06.41	197.08	41.27	-47.7	-49.7	17.3	0.00e+00	0	34	0	1001390080	66	4689
2026-01-17 00:43:07.42	197.14	41.00	-47.4	-49.3	17.6	0.00e+00	0	34	0	1002438656	66	4463
2026-01-17 00:43:08.43	197.21	40.73	-47.1	-48.9	18.1	0.00e+00	0	34	0	1004535808	66	4262
2026-01-17 00:43:09.44	197.27	40.46	-46.9	-48.6	18.4	0.00e+00	0	34	0	1006632960	65	4354
2026-01-17 00:43:10.45	197.33	40.20	-45.8	-47.2	19.7	0.00e+00	0	34	0	1008730112	63	4149
2026-01-17 00:43:11.46	197.39	39.94	-45.1	-46.4	20.5	0.00e+00	0	34	0	1010827264	62	4020
2026-01-17 00:43:12.46	197.45	39.68	-45.3	-46.6	20.3	0.00e+00	0	34	0	1011875840	62	4120
2026-01-17 00:43:13.47	197.51	39.42	-45.3	-46.6	20.3	0.00e+00	0	34	0	1013972992	61	4343
2026-01-17 00:43:14.48	197.57	39.16	-46.2	-47.7	19.2	0.00e+00	0	34	0	1016070144	63	4434
2026-01-17 00:43:15.49	197.63	38.90	-47.0	-48.7	18.2	0.00e+00	0	34	0	1018167296	64	4693
2026-01-17 00:43:16.50	197.68	38.65	-48.2	-50.5	16.4	0.00e+00	0	34	0	1020264448	67	4852
2026-01-17 00:43:17.50	197.74	38.40	-49.6	-52.7	14.4	0.00e+00	0	34	0	1021313024	69	5547
2026-01-17 00:43:18.51	197.79	38.15	-51.1	-56.2	10.7	8.42e-04	0	34	0	1023410176	72	6970
2026-01-17 00:43:19.53	197.85	37.90	-51.8	-59.2	7.6	3.14e-02	0	34	0	1025507328	74	8769
2026-01-17 00:43:20.54	197.90	37.65	-51.5	-58.2	8.1	4.86e-02	0	34	0	1027604480	74	7843
2026-01-17 00:43:21.54	197.95	37.41	-51.4	-57.7	8.5	7.16e-02	0	34	0	1029701632	74	7440
2026-01-17 00:43:22.55	198.00	37.16	-51.0	-56.4	10.2	5.32e-02	0	34	0	1030750208	73	6761
2026-01-17 00:43:23.56	198.06	36.92	-50.9	-55.7	10.9	3.35e-03	0	34	0	1032847360	73	6274
2026-01-17 00:43:24.57	198.11	36.68	-49.9	-53.4	13.5	3.39e-04	0	34	0	1034944512	71	5381
2026-01-17 00:43:25.58	198.16	36.44	-48.5	-51.0	15.9	0.00e+00	0	34	0	1037041664	69	4588
2026-01-17 00:43:26.59	198.20	36.21	-47.5	-49.6	17.2	0.00e+00	0	34	0	1039138816	67	4371
2026-01-17 00:43:27.60	198.25	35.97	-47.1	-49.1	17.7	0.00e+00	0	34	0	1040187392	66	4375
2026-01-17 00:43:28.60	198.30	35.74	-47.4	-49.5	17.4	0.00e+00	0	34	0	1042284544	66	4556
2026-01-17 00:43:29.61	198.35	35.51	-47.5	-49.6	17.3	0.00e+00	0	34	0	1044381696	66	4649
2026-01-17 00:43:30.62	198.39	35.28	-48.0	-50.4	16.5	0.00e+00	0	34	0	1046478848	67	4805
2026-01-17 00:43:31.63	198.44	35.05	-48.9	-51.9	15.3	0.00e+00	0	34	0	1048576000	68	5349
2026-01-17 00:43:32.64	198.49	34.83	-49.6	-53.2	13.8	0.00e+00	0	34	0	1050673152	69	5914
2026-01-17 00:43:33.65	198.53	34.60	-50.3	-54.9	12.1	1.75e-05	0	34	0	1051721728	71	6411
2026-01-17 00:43:34.66	198.57	34.38	-50.7	-55.9	11.0	1.77e-03	0	34	0	1053818880	72	6739
2026-01-17 00:43:35.66	198.62	34.16	-50.9	-56.6	10.1	6.54e-03	0	34	0	1055916032	72	7298
2026-01-17 00:43:36.67	198.66	33.94	-50.7	-56.2	10.5	8.18e-03	0	34	0	1058013184	72	6972
2026-01-17 00:43:37.68	198.70	33.72	-50.5	-55.6	11.0	5.27e-03	0	34	0	1059061760	72	6565
2026-01-17 00:43:38.69	198.75	33.50	-50.3	-54.8	11.9	1.45e-03	0	34	0	1061158912	72	5943
2026-01-17 00:43:39.70	198.79	33.29	-50.4	-55.1	11.4	1.26e-03	0	34	0	1063256064	72	6202
2026-01-17 00:43:40.71	198.83	33.07	-50.4	-55.3	11.3	1.33e-03	0	34	0	1065353216	72	6329
2026-01-17 00:43:41.72	198.87	32.86	-49.9	-54.0	12.7	1.36e-04	0	34	0	1067450368	71	5768
2026-01-17 00:43:42.73	198.91	32.65	-49.8	-53.7	13.1	8.31e-05	0	34	0	1069547520	71	5565
2026-01-17 00:43:43.73	198.95	32.44	-49.3	-52.5	14.4	7.60e-06	0	34	0	1070596096	70	5148
2026-01-17 00:43:44.74	198.99	32.24	-49.0	-52.0	14.9	0.00e+00	0	34	0	1072693248	69	5129
2026-01-17 00:43:45.75	199.03	32.03	-47.6	-49.9	16.9	0.00e+00	0	34	0	1074790400	67	4502
2026-01-17 00:43:46.76	199.07	31.82	-47.6	-49.9	16.8	0.00e+00	0	34	0	1076887552	67	4506
2026-01-17 00:43:47.77	199.10	31.62	-47.2	-49.3	17.5	0.00e+00	0	34	0	1078984704	66	4460
2026-01-17 00:43:48.78	199.14	31.42	-47.2	-49.2	17.6	0.00e+00	0	34	0	1080033280	66	4428
2026-01-17 00:43:49.78	199.18	31.22	-47.2	-49.2	17.6	0.00e+00	0	34	0	1082130432	66	4433
2026-01-17 00:43:50.79	199.22	31.02	-47.4	-49.6	17.2	0.00e+00	0	34	0	1084227584	66	4611
2026-01-17 00:43:51.80	199.25	30.82	-47.8	-50.2	16.6	0.00e+00	0	34	0	1086324736	66	4956
2026-01-17 00:43:52.81	199.29	30.62	-48.1	-50.7	16.1	0.00e+00	0	34	0	1088421888	67	4954
2026-01-17 00:43:53.82	199.32	30.43	-48.9	-51.9	15.0	0.00e+00	0	34	0	1089470464	68	5392
2026-01-17 00:43:54.83	199.36	30.23	-49.4	-52.9	14.1	7.00e-07	0	34	0	1091567616	69	5684
2026-01-17 00:43:55.84	199.39	30.04	-49.4	-53.0	13.9	3.00e-06	0	34	0	1093664768	69	5763
2026-01-17 00:43:56.85	199.43	29.85	-49.5	-53.1	13.7	7.60e-06	0	34	0	1095761920	69	5817
2026-01-17 00:43:57.85	199.46	29.66	-49.2	-52.7	14.2	7.00e-07	0	34	0	1097859072	69	5542
2026-01-17 00:43:58.86	199.49	29.47	-49.1	-52.5	14.5	1.50e-06	0	34	0	1098907648	69	5408
2026-01-17 00:43:59.87	199.53	29.28	-48.5	-51.3	15.4	0.00e+00	0	34	0	1101004800	69	4741
2026-01-17 00:44:00.88	199.56	29.09	-48.4	-51.2	15.8	0.00e+00	0	34	0	1103101952	68	4937
2026-01-17 00:44:01.89	199.59	28.91	-48.1	-50.5	16.3	0.00e+00	0	34	0	1105199104	68	4596
2026-01-17 00:44:02.90	199.63	28.72	-47.7	-50.0	16.8	0.00e+00	0	34	0	1107296256	67	4571
2026-01-17 00:44:03.90	199.66	28.54	-47.3	-49.5	17.2	0.00e+00	0	34	0	1108344832	66	4581
2026-01-17 00:44:04.91	199.69	28.36	-46.9	-49.0	17.6	0.00e+00	0	34	0	1110441984	66	4301
2026-01-17 00:44:05.92	199.72	28.18	-47.0	-49.0	17.7	0.00e+00	0	34	0	1112539136	65	4585
2026-01-17 00:44:06.93	199.75	28.00	-46.8	-48.6	18.1	0.00e+00	0	34	0	1114636288	65	4380
2026-01-17 00:44:07.94	199.78	27.82	-46.4	-48.2	18.5	0.00e+00	0	34	0	1116733440	64	4403
2026-01-17 00:44:08.94	199.81	27.65	-46.3	-47.9	18.8	0.00e+00	0	34	0	1117782016	64	4263
2026-01-17 00:44:09.95	199.84	27.47	-46.2	-47.7	19.0	0.00e+00	0	34	0	1119879168	64	4177
2026-01-17 00:44:10.96	199.87	27.29	-45.9	-47.3	19.4	0.00e+00	0	34	0	1121976320	63	4220
2026-01-17 00:44:11.97	199.90	27.12	-45.9	-47.3	19.5	0.00e+00	0	34	0	1124073472	63	4220
2026-01-17 00:44:12.98	199.93	26.95	-45.9	-47.3	19.4	0.00e+00	0	34	0	1126170624	63	4216
2026-01-17 00:44:13.99	199.96	26.78	-45.9	-47.3	19.3	0.00e+00	0	34	0	1127219200	63	4222
2026-01-17 00:44:15.00	199.99	26.60	-45.6	-47.1	19.7	0.00e+00	0	34	0	1129316352	63	4101
2026-01-17 00:44:16.01	200.02	26.43	-45.5	-46.9	19.7	0.00e+00	0	34	0	1131413504	62	4267
2026-01-17 00:44:17.02	200.05	26.27	-45.3	-46.7	20.0	0.00e+00	0	34	0	1133510656	62	4172
2026-01-17 00:44:18.03	200.08	26.10	-45.4	-46.8	19.9	0.00e+00	0	34	0	1135607808	62	4210
2026-01-17 00:44:19.03	200.10	25.93	-45.0	-46.3	20.3	0.00e+00	0	34	0	1136656384	61	4215
2026-01-17 00:44:20.04	200.13	25.77	-44.9	-46.2	20.4	0.00e+00	0	34	0	1138753536	61	4159
2026-01-17 00:44:21.05	200.16	25.60	-44.8	-46.1	20.5	0.00e+00	0	34	0	1140850688	61	4124
2026-01-17 00:44:22.06	200.18	25.44	-44.7	-46.1	20.6	0.00e+00	0	34	0	1142947840	61	4100
2026-01-17 00:44:23.07	200.21	25.28	-44.9	-46.3	20.3	0.00e+00	0	34	0	1145044992	61	4196
2026-01-17 00:44:24.07	200.24	25.12	-44.9	-46.3	20.3	0.00e+00	0	34	0	1146093568	61	4214
2026-01-17 00:44:25.08	200.26	24.96	-45.1	-46.5	20.1	0.00e+00	0	34	0	1148190720	61	4306
2026-01-17 00:44:26.09	200.29	24.80	-45.3	-46.8	19.9	0.00e+00	0	34	0	1150287872	61	4460
2026-01-17 00:44:27.10	200.32	24.64	-45.6	-47.1	19.6	0.00e+00	0	34	0	1152385024	61	4599
2026-01-17 00:44:28.11	200.34	24.48	-45.6	-47.1	19.5	0.00e+00	0	34	0	1154482176	61	4628
2026-01-17 00:44:29.12	200.37	24.32	-45.6	-47.1	19.6	0.00e+00	0	34	0	1156579328	62	4355
2026-01-17 00:44:30.13	200.39	24.17	-45.8	-47.4	19.3	0.00e+00	0	34	0	1157627904	62	4498
2026-01-17 00:44:31.14	200.42	24.01	-45.7	-47.2	19.4	0.00e+00	0	34	0	1159725056	62	4414
2026-01-17 00:44:32.15	200.44	23.86	-45.5	-46.9	19.7	0.00e+00	0	34	0	1161822208	62	4268
2026-01-17 00:44:33.15	200.47	23.71	-45.1	-46.5	20.1	0.00e+00	0	34	0	1163919360	62	4081
2026-01-17 00:44:34.16	200.49	23.55	-45.1	-46.5	20.2	0.00e+00	0	34	0	1164967936	62	4064
2026-01-17 00:44:35.17	200.51	23.40	-45.1	-46.5	20.1	0.00e+00	0	34	0	1167065088	62	4059
2026-01-17 00:44:36.18	200.54	23.25	-45.0	-46.4	20.2	0.00e+00	0	34	0	1169162240	62	4033
2026-01-17 00:44:37.19	200.56	23.10	-44.7	-46.0	20.5	0.00e+00	0	34	0	1171259392	61	4094
2026-01-17 00:44:38.20	200.59	22.95	-44.7	-46.0	20.4	0.00e+00	0	34	0	1173356544	61	4077
2026-01-17 00:44:39.21	200.61	22.81	-44.4	-45.7	20.9	0.00e+00	0	34	0	1174405120	60	4148
2026-01-17 00:44:40.21	200.63	22.66	-44.4	-45.7	20.8	0.00e+00	0	34	0	1176502272	60	4170
2026-01-17 00:44:41.22	200.66	22.51	-44.3	-45.6	20.9	0.00e+00	0	34	0	1178599424	60	4103
2026-01-17 00:44:42.23	200.68	22.37	-44.4	-45.6	20.8	0.00e+00	0	34	0	1180696576	60	4138
2026-01-17 00:44:43.24	200.70	22.22	-44.5	-45.8	20.7	0.00e+00	0	34	0	1182793728	60	4196
2026-01-17 00:44:44.25	200.72	22.08	-44.4	-45.7	20.8	0.00e+00	0	34	0	1184890880	60	4175
2026-01-17 00:44:45.26	200.75	21.94	-44.5	-45.8	20.7	0.00e+00	0	34	0	1185939456	60	4195
2026-01-17 00:44:46.27	200.77	21.80	-44.6	-45.9	20.6	0.00e+00	0	34	0	1188036608	60	4282
2026-01-17 00:44:47.28	200.79	21.65	-44.5	-45.8	20.6	0.00e+00	0	34	0	1190133760	60	4226
2026-01-17 00:44:48.28	200.81	21.52	-44.6	-45.9	20.6	0.00e+00	0	34	0	1192230912	60	4285
2026-01-17 00:44:49.29	200.83	21.38	-44.7	-46.1	20.4	0.00e+00	0	34	0	1193279488	60	4370
2026-01-17 00:44:50.30	200.86	21.24	-44.8	-46.3	20.2	0.00e+00	0	34	0	1195376640	60	4451
2026-01-17 00:44:51.31	200.88	21.10	-44.8	-46.2	20.3	0.00e+00	0	34	0	1197473792	60	4411
2026-01-17 00:44:52.32	200.90	20.96	-45.0	-46.5	20.0	0.00e+00	0	34	0	1199570944	60	4561
2026-01-17 00:44:53.33	200.92	20.82	-45.0	-46.5	20.0	0.00e+00	0	34	0	1201668096	60	4570
2026-01-17 00:44:54.34	200.94	20.69	-45.1	-46.6	19.9	0.00e+00	0	34	0	1203765248	60	4624
2026-01-17 00:44:55.35	200.96	20.55	-45.3	-46.9	19.6	0.00e+00	0	34	0	1204813824	61	4532
2026-01-17 00:44:56.36	200.98	20.42	-45.3	-46.9	19.6	0.00e+00	0	34	0	1206910976	61	4500
2026-01-17 00:44:57.37	201.00	20.28	-45.5	-47.1	19.5	0.00e+00	0	34	0	1209008128	61	4600
2026-01-17 00:44:58.38	201.02	20.15	-45.3	-46.9	19.6	0.00e+00	0	34	0	1211105280	61	4508
2026-01-17 00:44:59.39	201.04	20.02	-45.6	-47.1	19.4	0.00e+00	0	34	0	1213202432	61	4648
2026-01-17 00:45:00.37	201.06	19.89	-45.5	-47.1	19.4	0.00e+00	0	34	0	1214251008	61	4645
2026-01-17 00:45:01.36	201.08	19.76	-45.5	-47.1	19.4	0.00e+00	0	34	0	1216348160	61	4624
2026-01-17 00:45:02.37	201.10	19.63	-45.4	-47.0	19.5	0.00e+00	0	34	0	1218445312	61	4552
2026-01-17 00:45:03.38	201.12	19.50	-45.4	-47.0	19.5	0.00e+00	0	34	0	1220542464	61	4577
2026-01-17 00:45:04.39	201.14	19.37	-45.3	-46.9	19.5	0.00e+00	0	34	0	1221591040	61	4507
2026-01-17 00:45:05.40	201.16	19.24	-45.2	-46.8	19.6	0.00e+00	0	34	0	1223688192	61	4485
2026-01-17 00:45:06.40	201.18	19.12	-45.1	-46.6	19.8	0.00e+00	0	34	0	1225785344	61	4388
2026-01-17 00:45:07.41	201.20	18.99	-45.1	-46.6	19.9	0.00e+00	0	34	0	1227882496	61	4375
2026-01-17 00:45:08.42	201.22	18.86	-45.2	-46.8	19.7	0.00e+00	0	34	0	1229979648	61	4460
2026-01-17 00:45:09.43	201.24	18.74	-45.1	-46.7	19.8	0.00e+00	0	34	0	1232076800	61	4404
2026-01-17 00:45:10.43	201.25	18.61	-45.1	-46.7	19.7	0.00e+00	0	34	0	1233125376	61	4412
2026-01-17 00:45:11.43	201.27	18.49	-45.2	-46.7	19.7	0.00e+00	0	34	0	1235222528	61	4439
2026-01-17 00:45:12.44	201.29	18.37	-45.1	-46.7	19.8	0.00e+00	0	34	0	1237319680	61	4410
2026-01-17 00:45:13.45	201.31	18.24	-45.3	-46.9	19.5	0.00e+00	0	34	0	1239416832	61	4512
2026-01-17 00:45:14.46	201.33	18.12	-45.3	-46.9	19.5	0.00e+00	0	34	0	1241513984	61	4529
2026-01-17 00:45:15.46	201.35	18.00	-45.3	-46.9	19.6	0.00e+00	0	34	0	1242562560	61	4516
2026-01-17 00:45:16.47	201.36	17.88	-45.4	-47.1	19.3	0.00e+00	0	34	0	1244659712	61	4638
2026-01-17 00:45:17.48	201.38	17.76	-45.6	-47.2	19.2	0.00e+00	0	34	0	1246756864	61	4690
2026-01-17 00:45:18.49	201.40	17.64	-45.6	-47.2	19.2	0.00e+00	0	34	0	1248854016	61	4683
2026-01-17 00:45:19.49	201.42	17.52	-45.7	-47.3	19.1	0.00e+00	0	34	0	1249902592	62	4493
2026-01-17 00:45:20.50	201.43	17.40	-45.8	-47.5	19.0	0.00e+00	0	34	0	1251999744	62	4586
2026-01-17 00:45:21.51	201.45	17.28	-45.9	-47.5	19.0	0.00e+00	0	34	0	1254096896	62	4576
2026-01-17 00:45:22.52	201.47	17.16	-45.9	-47.6	18.9	0.00e+00	0	34	0	1256194048	62	4630
2026-01-17 00:45:23.53	201.49	17.05	-45.9	-47.6	18.9	0.00e+00	0	34	0	1258291200	62	4627
2026-01-17 00:45:24.54	201.50	16.93	-45.9	-47.5	18.9	0.00e+00	0	34	0	1260388352	62	4596
2026-01-17 00:45:25.54	201.52	16.81	-45.9	-47.6	18.9	0.00e+00	0	34	0	1261436928	62	4650
2026-01-17 00:45:26.55	201.54	16.70	-45.9	-47.7	18.9	0.00e+00	0	34	0	1263534080	62	4654
2026-01-17 00:45:27.56	201.55	16.58	-45.9	-47.6	18.9	0.00e+00	0	34	0	1265631232	62	4613
2026-01-17 00:45:28.57	201.57	16.47	-46.0	-47.7	18.8	0.00e+00	0	34	0	1267728384	62	4696
2026-01-17 00:45:29.58	201.59	16.35	-46.0	-47.7	18.7	0.00e+00	0	34	0	1269825536	62	4700
