passes_logs/2026/01/17/R3.2S_Murmansk/R3.2S_Murmansk__20260117_100138_NOAA_21_JPSS-2_rec.log

#Pass ID: 20260117_100138_NOAA 21 (JPSS-2)
#Satellite: NOAA 21 (JPSS-2)
#Configuration: NOAA-21
#almurnet v.1.7.20251203
#Start time: 2026-01-17 10:04:17

#Version: 2.2.20231116
#Station: R3.2S_Murmansk
#Location: 33.079688 lon 68.888172 lat
#TLE: 1 54234U 22150A   26016.56338662  .00000024  00000+0  32257-4 0  9990
#TLE: 2 54234  98.7500 317.4442 0000622 279.9774  80.1332 14.19534942165033

#Time	Az	El	Level	Level2	SNR	BER	BlckErr	Temp	State	Recorded	gain1	gain2
2026-01-17 10:04:17.18	167.65	14.73	-53.6	-65.6	3.8	8.45e-01	0	33	0	0	78	14684
2026-01-17 10:04:18.19	167.68	14.83	-53.7	-66.5	3.8	1.49e+00	0	34	104	0	77	17220
2026-01-17 10:04:19.20	167.72	14.94	-53.7	-66.5	3.8	1.49e+00	0	34	104	0	77	17146
2026-01-17 10:04:20.20	167.75	15.04	-53.6	-66.5	3.8	1.49e+00	0	34	104	0	77	17109
2026-01-17 10:04:21.21	167.79	15.15	-53.6	-66.4	3.8	1.49e+00	0	34	104	0	77	16987
2026-01-17 10:04:22.22	167.83	15.26	-53.6	-66.4	3.8	1.49e+00	0	34	104	0	77	16919
2026-01-17 10:04:23.23	167.86	15.37	-53.6	-66.4	3.8	1.49e+00	0	34	104	0	77	16909
2026-01-17 10:04:24.24	167.90	15.47	-53.5	-66.3	3.8	1.49e+00	0	34	104	0	77	16854
2026-01-17 10:04:25.24	167.94	15.58	-53.5	-66.3	3.8	1.49e+00	0	34	104	0	77	16795
2026-01-17 10:04:26.25	167.97	15.69	-53.5	-66.3	3.8	1.49e+00	0	34	104	0	77	16707
2026-01-17 10:04:27.26	168.01	15.80	-53.4	-66.2	3.8	1.49e+00	0	34	104	0	77	16665
2026-01-17 10:04:28.27	168.05	15.91	-53.4	-66.2	3.8	1.49e+00	0	34	104	0	77	16506
2026-01-17 10:04:29.28	168.09	16.02	-53.3	-66.0	3.8	1.49e+00	0	34	104	0	77	16290
2026-01-17 10:04:30.29	168.12	16.13	-53.2	-65.9	3.8	1.49e+00	0	34	104	0	77	16109
2026-01-17 10:04:31.30	168.16	16.24	-53.2	-65.6	3.8	1.49e+00	0	34	104	0	77	15484
2026-01-17 10:04:32.30	168.20	16.36	-53.1	-65.4	3.8	1.49e+00	0	34	104	0	77	15222
2026-01-17 10:04:33.31	168.24	16.47	-53.1	-65.3	3.8	1.49e+00	0	34	104	0	77	15008
2026-01-17 10:04:34.32	168.28	16.58	-53.1	-65.4	3.8	1.49e+00	0	34	104	0	77	15130
2026-01-17 10:04:35.33	168.32	16.70	-53.1	-65.5	3.8	1.49e+00	0	34	104	0	77	15232
2026-01-17 10:04:36.34	168.36	16.81	-53.2	-65.5	3.8	1.49e+00	0	34	104	0	77	15328
2026-01-17 10:04:37.34	168.40	16.92	-53.1	-65.4	3.8	1.49e+00	0	34	104	0	77	15197
2026-01-17 10:04:38.35	168.44	17.04	-53.1	-65.4	3.8	1.49e+00	0	34	104	0	77	15091
2026-01-17 10:04:39.36	168.48	17.15	-53.2	-65.5	3.8	1.49e+00	0	34	104	0	77	15264
2026-01-17 10:04:40.37	168.52	17.27	-53.2	-65.7	3.8	1.49e+00	0	34	104	0	77	15615
2026-01-17 10:04:41.38	168.56	17.39	-53.2	-65.9	3.8	1.49e+00	0	34	104	0	77	16029
2026-01-17 10:04:42.39	168.60	17.51	-53.2	-65.9	3.8	1.49e+00	0	34	104	0	77	16092
2026-01-17 10:04:43.40	168.64	17.62	-53.2	-65.7	3.8	1.49e+00	0	34	104	0	77	15699
2026-01-17 10:04:44.41	168.68	17.74	-53.1	-65.5	3.8	1.49e+00	0	34	104	0	77	15265
2026-01-17 10:04:45.42	168.73	17.86	-53.1	-65.4	3.8	1.49e+00	0	34	104	0	77	15072
2026-01-17 10:04:46.42	168.77	17.98	-53.1	-65.6	3.8	1.49e+00	0	34	104	0	77	15454
2026-01-17 10:04:47.43	168.81	18.10	-53.2	-65.8	3.8	1.49e+00	0	34	104	0	77	15874
2026-01-17 10:04:48.44	168.85	18.22	-53.2	-65.9	3.8	1.49e+00	0	34	104	0	77	15963
2026-01-17 10:04:49.45	168.90	18.34	-53.1	-65.5	3.8	1.49e+00	0	34	104	0	77	15384
2026-01-17 10:04:50.46	168.94	18.46	-53.1	-65.0	3.8	1.49e+00	0	34	104	0	77	14538
2026-01-17 10:04:51.47	168.99	18.59	-53.1	-64.7	3.8	1.49e+00	0	34	104	0	77	14014
2026-01-17 10:04:52.48	169.03	18.71	-53.0	-64.7	3.8	1.49e+00	0	34	104	0	77	13898
2026-01-17 10:04:53.49	169.08	18.83	-53.0	-64.6	3.8	1.49e+00	0	34	104	0	77	13818
2026-01-17 10:04:54.49	169.12	18.96	-53.0	-64.5	3.8	1.49e+00	0	34	104	0	77	13582
2026-01-17 10:04:55.50	169.17	19.08	-53.0	-63.9	3.9	1.49e+00	0	34	104	0	77	12741
2026-01-17 10:04:56.51	169.21	19.21	-53.0	-64.3	3.8	1.49e+00	0	34	104	0	77	13356
2026-01-17 10:04:57.52	169.26	19.34	-53.1	-65.2	3.8	1.49e+00	0	34	104	0	77	14758
2026-01-17 10:04:58.53	169.30	19.46	-53.1	-65.9	3.8	1.49e+00	0	34	104	0	77	16098
2026-01-17 10:04:59.54	169.35	19.59	-53.0	-64.5	3.8	1.49e+00	0	34	104	0	77	13698
2026-01-17 10:05:00.54	169.40	19.72	-52.6	-60.6	4.9	1.40e+00	0	34	104	0	77	8692
2026-01-17 10:05:01.55	169.45	19.85	-51.9	-57.6	7.1	2.50e-01	0	34	0	2097152	75	6893
2026-01-17 10:05:02.56	169.49	19.97	-51.2	-55.5	9.2	3.55e-02	0	34	0	5242880	74	5735
2026-01-17 10:05:03.57	169.54	20.11	-50.4	-53.9	10.8	4.39e-03	0	34	0	8388608	72	5355
2026-01-17 10:05:04.58	169.59	20.24	-49.7	-52.5	12.4	3.91e-04	0	34	0	12582912	71	4837
2026-01-17 10:05:05.58	169.64	20.37	-48.8	-51.0	13.9	8.30e-06	0	34	0	15728640	69	4566
2026-01-17 10:05:06.59	169.69	20.50	-47.4	-49.1	15.7	0.00e+00	0	34	0	18874368	66	4361
2026-01-17 10:05:07.60	169.74	20.63	-46.0	-47.4	17.4	0.00e+00	0	34	0	20971520	64	4007
2026-01-17 10:05:08.61	169.79	20.76	-44.9	-46.1	18.6	0.00e+00	0	34	0	24117248	61	4105
2026-01-17 10:05:09.62	169.84	20.90	-44.1	-45.2	19.5	0.00e+00	0	34	0	27262976	60	3922
2026-01-17 10:05:10.63	169.89	21.03	-44.0	-45.1	19.9	0.00e+00	0	34	0	30408704	59	4104
2026-01-17 10:05:11.63	169.94	21.17	-53.2	-65.2	3.8	3.05e-01	0	34	104	33554432	77	14875
2026-01-17 10:05:12.64	169.99	21.30	-53.1	-64.4	3.9	1.49e+00	0	34	104	33554432	77	13458
2026-01-17 10:05:13.65	170.05	21.44	-44.2	-45.2	19.7	0.00e+00	0	34	0	35651584	59	4180
2026-01-17 10:05:14.66	170.10	21.58	-44.8	-45.9	18.8	0.00e+00	0	34	0	38797312	61	4036
2026-01-17 10:05:15.66	170.15	21.72	-44.9	-46.0	18.9	0.00e+00	0	34	0	41943040	60	4339
2026-01-17 10:05:16.67	170.20	21.86	-45.1	-46.2	18.4	2.20e-06	0	34	0	45088768	62	3946
2026-01-17 10:05:17.68	170.26	22.00	-43.6	-44.6	20.3	0.00e+00	0	34	0	48234496	59	3869
2026-01-17 10:05:18.69	170.31	22.14	-43.4	-44.3	20.5	0.00e+00	0	34	0	51380224	58	3999
2026-01-17 10:05:19.70	170.37	22.28	-43.3	-44.3	20.6	0.00e+00	0	34	0	54525952	58	3973
2026-01-17 10:05:20.70	170.42	22.42	-43.5	-44.4	20.5	0.00e+00	0	34	0	57671680	58	4044
2026-01-17 10:05:21.71	170.48	22.56	-43.0	-43.9	20.9	0.00e+00	0	34	0	60817408	58	3790
2026-01-17 10:05:22.72	170.54	22.71	-42.6	-43.4	21.4	0.00e+00	0	34	0	63963136	57	3810
2026-01-17 10:05:23.73	170.59	22.85	-42.4	-43.2	21.5	0.00e+00	0	34	0	67108864	56	3937
2026-01-17 10:05:24.74	170.65	23.00	-42.4	-43.2	21.5	0.00e+00	0	34	0	70254592	56	3951
2026-01-17 10:05:25.74	170.71	23.14	-42.3	-43.1	21.6	0.00e+00	0	34	0	73400320	56	3913
2026-01-17 10:05:26.75	170.77	23.29	-42.2	-43.0	21.7	0.00e+00	0	34	0	76546048	56	3861
2026-01-17 10:05:27.76	170.82	23.44	-42.3	-43.1	21.7	0.00e+00	0	34	0	79691776	56	3889
2026-01-17 10:05:28.77	170.88	23.58	-42.3	-43.2	21.6	0.00e+00	0	34	0	82837504	56	3919
2026-01-17 10:05:29.78	170.94	23.73	-42.1	-43.0	21.8	0.00e+00	0	34	0	85983232	56	3833
2026-01-17 10:05:30.78	171.00	23.88	-42.2	-43.0	21.8	0.00e+00	0	34	0	89128960	56	3856
2026-01-17 10:05:31.79	171.06	24.03	-42.3	-43.1	21.6	0.00e+00	0	34	0	92274688	56	3904
2026-01-17 10:05:32.80	171.13	24.19	-42.2	-43.0	21.8	0.00e+00	0	34	0	95420416	56	3859
2026-01-17 10:05:33.81	171.19	24.34	-42.3	-43.1	21.7	0.00e+00	0	34	0	98566144	56	3888
2026-01-17 10:05:34.82	171.25	24.49	-42.3	-43.1	21.7	0.00e+00	0	34	0	101711872	56	3902
2026-01-17 10:05:35.82	171.31	24.65	-42.3	-43.1	21.7	0.00e+00	0	34	0	104857600	56	3906
2026-01-17 10:05:36.83	171.38	24.80	-42.4	-43.3	21.6	0.00e+00	0	34	0	108003328	56	3959
2026-01-17 10:05:37.84	171.44	24.96	-42.4	-43.2	21.6	0.00e+00	0	34	0	111149056	56	3955
2026-01-17 10:05:38.85	171.51	25.11	-42.5	-43.3	21.5	0.00e+00	0	34	0	114294784	56	4001
2026-01-17 10:05:39.86	171.57	25.27	-42.6	-43.4	21.4	0.00e+00	0	34	0	117440512	56	4049
2026-01-17 10:05:40.86	171.64	25.43	-42.6	-43.4	21.5	0.00e+00	0	34	0	120586240	56	4031
2026-01-17 10:05:41.87	171.71	25.59	-42.8	-43.6	21.2	0.00e+00	0	34	0	123731968	56	4139
2026-01-17 10:05:42.88	171.77	25.75	-42.8	-43.7	21.2	0.00e+00	0	34	0	126877696	56	4149
2026-01-17 10:05:43.89	171.84	25.91	-42.9	-43.8	21.1	0.00e+00	0	34	0	130023424	56	4213
2026-01-17 10:05:44.90	171.91	26.08	-43.0	-43.9	21.0	0.00e+00	0	34	0	133169152	56	4262
2026-01-17 10:05:45.90	171.98	26.24	-43.1	-43.9	21.0	0.00e+00	0	34	0	136314880	56	4291
2026-01-17 10:05:46.91	172.05	26.40	-43.2	-44.1	20.9	0.00e+00	0	34	0	139460608	56	4369
2026-01-17 10:05:47.92	172.12	26.57	-43.3	-44.3	20.7	0.00e+00	0	34	0	142606336	57	4210
2026-01-17 10:05:48.93	172.19	26.73	-43.4	-44.3	20.7	0.00e+00	0	34	0	145752064	57	4217
2026-01-17 10:05:49.94	172.26	26.90	-43.6	-44.5	20.5	0.00e+00	0	34	0	148897792	57	4327
2026-01-17 10:05:50.94	172.34	27.07	-43.6	-44.6	20.4	0.00e+00	0	34	0	152043520	57	4358
2026-01-17 10:05:51.95	172.41	27.24	-43.7	-44.7	20.4	0.00e+00	0	34	0	155189248	57	4400
2026-01-17 10:05:52.96	172.49	27.41	-43.8	-44.8	20.3	0.00e+00	0	34	0	158334976	58	4216
2026-01-17 10:05:53.97	172.56	27.58	-43.9	-44.9	20.1	0.00e+00	0	34	0	161480704	58	4257
2026-01-17 10:05:54.98	172.64	27.75	-43.9	-44.9	20.2	0.00e+00	0	34	0	164626432	58	4255
2026-01-17 10:05:55.98	172.71	27.93	-44.1	-45.1	20.0	0.00e+00	0	34	0	167772160	58	4369
2026-01-17 10:05:56.99	172.79	28.10	-44.0	-45.0	20.0	0.00e+00	0	34	0	170917888	58	4334
2026-01-17 10:05:58.01	172.87	28.28	-44.1	-45.2	19.9	0.00e+00	0	34	0	174063616	58	4396
2026-01-17 10:05:59.01	172.95	28.45	-44.1	-45.1	20.0	0.00e+00	0	34	0	177209344	58	4366
2026-01-17 10:06:00.02	173.03	28.63	-43.9	-44.9	20.1	0.00e+00	0	34	0	180355072	58	4271
2026-01-17 10:06:01.03	173.11	28.81	-44.0	-45.0	20.0	0.00e+00	0	34	0	183500800	58	4325
2026-01-17 10:06:02.04	173.19	28.99	-43.9	-44.8	20.2	0.00e+00	0	34	0	186646528	58	4235
2026-01-17 10:06:03.05	173.27	29.17	-43.7	-44.6	20.4	0.00e+00	0	34	0	189792256	58	4136
2026-01-17 10:06:04.05	173.36	29.35	-43.8	-44.8	20.2	0.00e+00	0	34	0	192937984	58	4198
2026-01-17 10:06:05.06	173.44	29.53	-43.7	-44.6	20.4	0.00e+00	0	34	0	196083712	58	4130
2026-01-17 10:06:06.07	173.53	29.72	-43.6	-44.5	20.5	0.00e+00	0	34	0	199229440	58	4096
2026-01-17 10:06:07.08	173.61	29.90	-43.7	-44.6	20.4	0.00e+00	0	34	0	202375168	58	4140
2026-01-17 10:06:08.09	173.70	30.09	-43.6	-44.5	20.5	0.00e+00	0	34	0	205520896	58	4093
2026-01-17 10:06:09.09	173.79	30.28	-43.4	-44.4	20.6	0.00e+00	0	34	0	208666624	58	4012
2026-01-17 10:06:10.10	173.88	30.47	-43.5	-44.4	20.6	0.00e+00	0	34	0	211812352	58	4034
2026-01-17 10:06:11.11	173.97	30.66	-43.6	-44.5	20.5	0.00e+00	0	34	0	214958080	58	4073
2026-01-17 10:06:12.12	174.06	30.85	-43.6	-44.5	20.5	0.00e+00	0	34	0	218103808	58	4096
2026-01-17 10:06:13.13	174.15	31.04	-43.5	-44.4	20.5	0.00e+00	0	34	0	221249536	58	4033
2026-01-17 10:06:14.14	174.24	31.24	-43.5	-44.5	20.5	0.00e+00	0	34	0	224395264	58	4058
2026-01-17 10:06:15.15	174.34	31.43	-43.5	-44.5	20.5	0.00e+00	0	34	0	227540992	58	4069
2026-01-17 10:06:16.15	174.43	31.62	-43.6	-44.6	20.4	0.00e+00	0	34	0	230686720	58	4120
2026-01-17 10:06:17.16	174.53	31.82	-43.6	-44.6	20.4	0.00e+00	0	34	0	233832448	58	4099
2026-01-17 10:06:18.17	174.63	32.02	-43.7	-44.7	20.3	0.00e+00	0	34	0	236978176	58	4151
2026-01-17 10:06:19.18	174.73	32.22	-43.7	-44.7	20.3	0.00e+00	0	34	0	241172480	58	4167
2026-01-17 10:06:20.18	174.83	32.42	-43.7	-44.7	20.3	0.00e+00	0	34	0	243269632	58	4159
2026-01-17 10:06:21.19	174.93	32.62	-43.7	-44.6	20.4	0.00e+00	0	34	0	246415360	58	4125
2026-01-17 10:06:22.21	175.03	32.83	-43.6	-44.5	20.5	0.00e+00	0	34	0	249561088	58	4085
2026-01-17 10:06:23.21	175.13	33.03	-43.6	-44.6	20.4	0.00e+00	0	34	0	252706816	58	4100
2026-01-17 10:06:24.22	175.24	33.24	-43.6	-44.6	20.4	0.00e+00	0	34	0	255852544	58	4104
2026-01-17 10:06:25.23	175.34	33.45	-43.6	-44.6	20.4	0.00e+00	0	34	0	258998272	58	4107
2026-01-17 10:06:26.24	175.45	33.66	-43.8	-44.7	20.3	0.00e+00	0	34	0	262144000	58	4189
2026-01-17 10:06:27.25	175.56	33.87	-43.8	-44.7	20.3	0.00e+00	0	34	0	265289728	58	4172
2026-01-17 10:06:28.26	175.67	34.08	-44.0	-45.0	20.1	0.00e+00	0	34	0	268435456	58	4312
2026-01-17 10:06:29.26	175.78	34.29	-44.1	-45.1	20.0	0.00e+00	0	34	0	271581184	58	4365
2026-01-17 10:06:30.27	175.89	34.50	-44.2	-45.2	20.0	0.00e+00	0	34	0	274726912	58	4395
2026-01-17 10:06:31.28	176.01	34.72	-44.4	-45.5	19.7	0.00e+00	0	34	0	278921216	59	4313
2026-01-17 10:06:32.29	176.13	34.94	-44.6	-45.7	19.5	0.00e+00	0	34	0	282066944	59	4400
2026-01-17 10:06:33.30	176.24	35.15	-44.4	-45.4	19.4	0.00e+00	0	34	0	285212672	60	4051
2026-01-17 10:06:34.30	176.36	35.37	-44.5	-45.6	19.3	0.00e+00	0	34	0	288358400	60	4129
2026-01-17 10:06:35.31	176.48	35.59	-44.5	-45.6	19.3	0.00e+00	0	34	0	290455552	60	4116
2026-01-17 10:06:36.33	176.60	35.82	-44.6	-45.7	19.2	0.00e+00	0	34	0	293601280	60	4178
2026-01-17 10:06:37.33	176.73	36.04	-44.8	-45.9	19.1	0.00e+00	0	34	0	296747008	60	4260
2026-01-17 10:06:38.34	176.85	36.27	-44.9	-46.0	19.0	0.00e+00	0	34	0	299892736	60	4301
2026-01-17 10:06:39.35	176.98	36.49	-45.0	-46.1	18.8	0.00e+00	0	34	0	303038464	60	4385
2026-01-17 10:06:40.36	177.11	36.72	-45.1	-46.2	18.8	0.00e+00	0	34	0	306184192	60	4439
2026-01-17 10:06:41.36	177.24	36.95	-45.0	-46.2	18.8	0.00e+00	0	34	0	309329920	60	4394
2026-01-17 10:06:42.37	177.37	37.18	-44.9	-46.1	19.0	0.00e+00	0	34	0	312475648	60	4352
2026-01-17 10:06:43.38	177.51	37.41	-45.0	-46.1	18.9	0.00e+00	0	34	0	316669952	60	4361
2026-01-17 10:06:44.39	177.64	37.65	-44.6	-45.7	19.2	0.00e+00	0	34	0	319815680	60	4172
2026-01-17 10:06:45.40	177.78	37.88	-44.5	-45.6	19.4	0.00e+00	0	34	0	322961408	60	4108
2026-01-17 10:06:46.41	177.92	38.12	-44.5	-45.5	19.5	0.00e+00	0	34	0	326107136	60	4085
2026-01-17 10:06:47.41	178.06	38.36	-44.5	-45.5	19.4	0.00e+00	0	34	0	329252864	60	4085
2026-01-17 10:06:48.42	178.20	38.60	-44.6	-45.7	19.3	0.00e+00	0	34	0	332398592	60	4149
2026-01-17 10:06:49.43	178.35	38.84	-44.5	-45.5	19.4	0.00e+00	0	34	0	335544320	60	4097
2026-01-17 10:06:50.44	178.50	39.08	-44.5	-45.5	19.4	0.00e+00	0	34	0	338690048	60	4086
2026-01-17 10:06:51.45	178.65	39.33	-44.5	-45.6	19.4	0.00e+00	0	34	0	340787200	60	4116
2026-01-17 10:06:52.46	178.80	39.57	-44.4	-45.5	19.5	0.00e+00	0	34	0	343932928	60	4053
2026-01-17 10:06:53.47	178.96	39.82	-44.4	-45.5	19.5	0.00e+00	0	34	0	347078656	60	4072
2026-01-17 10:06:54.48	179.11	40.07	-44.6	-45.7	19.4	0.00e+00	0	34	0	351272960	60	4146
2026-01-17 10:06:55.48	179.27	40.32	-44.7	-45.7	19.3	0.00e+00	0	34	0	354418688	60	4176
2026-01-17 10:06:56.49	179.43	40.57	-44.8	-45.9	19.1	0.00e+00	0	34	0	357564416	60	4281
2026-01-17 10:06:57.50	179.60	40.82	-45.1	-46.3	18.8	0.00e+00	0	34	0	360710144	60	4458
2026-01-17 10:06:58.51	179.77	41.08	-45.1	-46.3	18.8	0.00e+00	0	34	0	363855872	60	4444
2026-01-17 10:06:59.52	179.93	41.34	-45.3	-46.4	18.6	0.00e+00	0	34	0	367001600	61	4272
2026-01-17 10:07:00.53	180.11	41.59	-45.3	-46.5	18.6	0.00e+00	0	34	0	370147328	61	4317
2026-01-17 10:07:01.54	180.28	41.85	-45.6	-46.8	18.3	0.00e+00	0	34	0	373293056	61	4458
2026-01-17 10:07:02.55	180.46	42.12	-45.7	-46.9	18.2	0.00e+00	0	34	0	376438784	61	4525
2026-01-17 10:07:03.55	180.64	42.38	-45.7	-47.0	18.1	0.00e+00	0	34	0	379584512	62	4292
2026-01-17 10:07:04.56	180.82	42.64	-45.7	-46.9	18.2	0.00e+00	0	34	0	382730240	62	4283
2026-01-17 10:07:05.57	181.01	42.91	-45.8	-47.1	18.0	0.00e+00	0	34	0	385875968	62	4367
2026-01-17 10:07:06.58	181.20	43.18	-45.8	-47.1	18.0	0.00e+00	0	34	0	389021696	62	4369
2026-01-17 10:07:07.59	181.39	43.45	-45.8	-47.1	18.0	0.00e+00	0	34	0	392167424	62	4358
2026-01-17 10:07:08.60	181.59	43.72	-46.0	-47.2	17.9	0.00e+00	0	34	0	395313152	62	4439
2026-01-17 10:07:09.61	181.79	43.99	-46.2	-47.5	17.6	0.00e+00	0	34	0	398458880	62	4563
2026-01-17 10:07:10.62	181.99	44.26	-46.3	-47.7	17.4	0.00e+00	0	34	0	401604608	63	4415
2026-01-17 10:07:11.63	182.19	44.54	-46.5	-48.0	17.1	0.00e+00	0	34	0	404750336	63	4557
2026-01-17 10:07:12.63	182.40	44.81	-46.6	-48.1	16.9	0.00e+00	0	34	0	407896064	64	4388
2026-01-17 10:07:13.64	182.61	45.09	-46.8	-48.4	16.7	0.00e+00	0	34	0	411041792	64	4511
2026-01-17 10:07:14.65	182.83	45.37	-46.7	-48.2	16.9	0.00e+00	0	34	0	414187520	64	4396
2026-01-17 10:07:15.66	183.05	45.65	-46.3	-47.7	17.2	0.00e+00	0	34	0	417333248	64	4188
2026-01-17 10:07:16.67	183.28	45.94	-46.2	-47.6	17.3	0.00e+00	0	34	0	420478976	64	4128
2026-01-17 10:07:17.68	183.50	46.22	-46.2	-47.6	17.3	0.00e+00	0	34	0	423624704	64	4123
2026-01-17 10:07:18.68	183.74	46.51	-46.1	-47.4	17.6	0.00e+00	0	34	0	426770432	63	4277
2026-01-17 10:07:19.69	183.97	46.79	-45.8	-47.1	17.9	0.00e+00	0	34	0	429916160	63	4133
2026-01-17 10:07:20.70	184.21	47.08	-45.8	-47.0	18.0	0.00e+00	0	34	0	433061888	63	4082
2026-01-17 10:07:21.71	184.46	47.37	-45.4	-46.6	18.5	0.00e+00	0	34	0	436207616	62	4107
2026-01-17 10:07:22.72	184.71	47.66	-45.3	-46.5	18.6	0.00e+00	0	34	0	439353344	62	4059
2026-01-17 10:07:23.73	184.96	47.96	-45.1	-46.2	18.8	0.00e+00	0	34	0	442499072	62	3956
2026-01-17 10:07:24.74	185.22	48.25	-45.2	-46.4	18.7	0.00e+00	0	34	0	445644800	62	4025
2026-01-17 10:07:25.74	185.48	48.55	-45.0	-46.2	18.9	0.00e+00	0	34	0	448790528	61	4152
2026-01-17 10:07:26.75	185.75	48.84	-45.2	-46.3	18.8	0.00e+00	0	34	0	451936256	61	4225
2026-01-17 10:07:27.76	186.03	49.14	-45.1	-46.2	18.8	0.00e+00	0	34	0	455081984	61	4173
2026-01-17 10:07:28.77	186.31	49.44	-44.9	-46.0	19.0	0.00e+00	0	34	0	458227712	61	4096
2026-01-17 10:07:29.78	186.59	49.75	-44.9	-46.1	19.0	0.00e+00	0	34	0	461373440	61	4100
2026-01-17 10:07:30.79	186.88	50.05	-45.1	-46.2	18.8	0.00e+00	0	34	0	464519168	61	4172
2026-01-17 10:07:31.80	187.18	50.35	-45.3	-46.4	18.6	0.00e+00	0	34	0	467664896	61	4281
2026-01-17 10:07:32.81	187.48	50.66	-45.2	-46.4	18.6	0.00e+00	0	34	0	470810624	61	4273
2026-01-17 10:07:33.82	187.79	50.96	-45.1	-46.2	18.7	0.00e+00	0	34	0	473956352	61	4190
2026-01-17 10:07:34.83	188.11	51.27	-44.9	-46.0	19.0	0.00e+00	0	34	0	477102080	61	4087
2026-01-17 10:07:35.84	188.43	51.58	-44.7	-45.8	19.3	0.00e+00	0	34	0	480247808	61	3967
2026-01-17 10:07:36.85	188.76	51.89	-44.7	-45.8	19.2	0.00e+00	0	34	0	483393536	61	3996
2026-01-17 10:07:37.85	189.09	52.20	-44.9	-46.0	19.1	0.00e+00	0	34	0	486539264	61	4060
2026-01-17 10:07:38.86	189.43	52.51	-44.9	-46.0	19.0	0.00e+00	0	34	0	489684992	61	4095
2026-01-17 10:07:39.87	189.78	52.82	-44.8	-46.0	19.0	0.00e+00	0	34	0	492830720	61	4053
2026-01-17 10:07:40.88	190.14	53.14	-44.5	-45.6	19.5	0.00e+00	0	34	0	495976448	60	4106
2026-01-17 10:07:41.89	190.50	53.45	-44.4	-45.4	19.6	0.00e+00	0	34	0	499122176	60	4032
2026-01-17 10:07:42.90	190.87	53.77	-44.2	-45.2	19.8	0.00e+00	0	34	0	502267904	60	3946
2026-01-17 10:07:43.90	191.25	54.08	-44.5	-45.5	19.5	0.00e+00	0	34	0	505413632	60	4085
2026-01-17 10:07:44.91	191.64	54.40	-44.6	-45.7	19.4	0.00e+00	0	34	0	508559360	60	4177
2026-01-17 10:07:45.92	192.03	54.71	-44.6	-45.7	19.4	0.00e+00	0	34	0	511705088	60	4151
2026-01-17 10:07:46.93	192.44	55.03	-44.4	-45.4	19.6	0.00e+00	0	34	0	514850816	60	4043
2026-01-17 10:07:47.94	192.86	55.35	-44.1	-45.2	19.9	0.00e+00	0	34	0	517996544	60	3915
2026-01-17 10:07:48.95	193.28	55.67	-44.1	-45.1	20.0	0.00e+00	0	34	0	521142272	60	3882
2026-01-17 10:07:49.96	193.71	55.99	-44.1	-45.0	20.3	0.00e+00	0	34	0	524288000	59	4094
2026-01-17 10:07:50.97	194.16	56.31	-43.8	-44.7	20.6	0.00e+00	0	34	0	527433728	59	3949
2026-01-17 10:07:51.98	194.61	56.63	-43.8	-44.8	20.5	0.00e+00	0	34	0	530579456	59	3980
2026-01-17 10:07:52.98	195.07	56.94	-43.6	-44.6	20.7	0.00e+00	0	34	0	533725184	59	3873
2026-01-17 10:07:53.99	195.55	57.26	-43.6	-44.6	20.7	0.00e+00	0	34	0	536870912	59	3886
2026-01-17 10:07:55.00	196.03	57.58	-43.8	-44.8	20.5	0.00e+00	0	34	0	540016640	59	3990
2026-01-17 10:07:56.01	196.53	57.90	-43.7	-44.6	20.6	0.00e+00	0	34	0	543162368	59	3907
2026-01-17 10:07:57.02	197.04	58.22	-43.5	-44.5	20.8	0.00e+00	0	34	0	546308096	59	3833
2026-01-17 10:07:58.03	197.56	58.54	-43.4	-44.3	21.0	0.00e+00	0	34	0	549453824	58	3986
2026-01-17 10:07:59.04	198.10	58.86	-43.4	-44.3	20.9	0.00e+00	0	34	0	552599552	58	3978
2026-01-17 10:08:00.04	198.64	59.17	-43.3	-44.2	21.0	0.00e+00	0	34	0	555745280	58	3946
2026-01-17 10:08:01.05	199.20	59.49	-43.1	-44.0	21.1	0.00e+00	0	34	0	558891008	58	3830
2026-01-17 10:08:02.06	199.78	59.80	-42.9	-43.7	21.5	0.00e+00	0	34	0	562036736	57	3941
2026-01-17 10:08:03.07	200.37	60.12	-42.7	-43.6	21.4	0.00e+00	0	34	0	565182464	57	3875
2026-01-17 10:08:04.08	200.97	60.43	-42.6	-43.5	21.4	0.00e+00	0	34	0	568328192	57	3834
2026-01-17 10:08:05.09	201.59	60.74	-42.4	-43.2	21.8	0.00e+00	0	34	0	571473920	56	3937
2026-01-17 10:08:06.10	202.22	61.05	-42.3	-43.1	21.9	0.00e+00	0	34	0	574619648	56	3909
2026-01-17 10:08:07.11	202.87	61.36	-42.4	-43.2	21.7	0.00e+00	0	34	0	577765376	56	3956
2026-01-17 10:08:08.12	203.53	61.67	-42.5	-43.4	21.7	0.00e+00	0	34	0	580911104	56	4026
2026-01-17 10:08:09.13	204.21	61.98	-42.5	-43.3	21.8	0.00e+00	0	34	0	584056832	56	3986
2026-01-17 10:08:10.13	204.91	62.28	-42.5	-43.3	21.8	0.00e+00	0	34	0	587202560	56	3995
2026-01-17 10:08:11.14	205.62	62.58	-42.6	-43.4	21.8	0.00e+00	0	34	0	590348288	56	4019
2026-01-17 10:08:12.15	206.36	62.87	-42.2	-43.0	22.1	0.00e+00	0	34	0	593494016	56	3826
2026-01-17 10:08:13.16	207.11	63.17	-42.5	-43.3	21.9	0.00e+00	0	34	0	596639744	56	3977
2026-01-17 10:08:14.17	207.88	63.46	-42.3	-43.1	22.0	0.00e+00	0	34	0	599785472	56	3894
2026-01-17 10:08:15.18	208.67	63.75	-42.1	-42.8	22.3	0.00e+00	0	34	0	602931200	56	3769
2026-01-17 10:08:16.19	209.48	64.04	-42.1	-42.9	22.2	0.00e+00	0	34	0	606076928	56	3799
2026-01-17 10:08:17.19	210.30	64.32	-42.0	-42.8	22.0	0.00e+00	0	34	0	609222656	56	3756
2026-01-17 10:08:18.20	211.15	64.60	-41.8	-42.5	22.0	0.00e+00	0	34	0	612368384	55	3864
2026-01-17 10:08:19.21	212.02	64.87	-41.4	-42.2	22.5	0.00e+00	0	34	0	615514112	54	3927
2026-01-17 10:08:20.22	212.91	65.14	-41.7	-42.5	22.2	0.00e+00	0	34	0	618659840	54	4074
2026-01-17 10:08:21.23	213.82	65.41	-42.1	-42.9	21.8	0.00e+00	0	34	0	621805568	54	4261
2026-01-17 10:08:22.23	214.75	65.67	-42.2	-43.0	21.8	0.00e+00	0	34	0	624951296	55	4076
2026-01-17 10:08:23.24	215.71	65.92	-42.3	-43.1	21.8	0.00e+00	0	34	0	628097024	55	4114
2026-01-17 10:08:24.25	216.68	66.17	-42.3	-43.1	21.8	0.00e+00	0	34	0	631242752	55	4128
2026-01-17 10:08:25.26	217.69	66.42	-42.2	-42.9	22.0	0.00e+00	0	34	0	634388480	55	4050
2026-01-17 10:08:26.26	218.70	66.66	-42.0	-42.8	22.1	0.00e+00	0	34	0	637534208	55	3994
2026-01-17 10:08:27.27	219.75	66.89	-42.2	-43.0	22.0	0.00e+00	0	34	0	640679936	55	4066
2026-01-17 10:08:28.28	220.82	67.12	-42.2	-43.0	21.9	0.00e+00	0	34	0	643825664	55	4094
2026-01-17 10:08:29.29	221.91	67.34	-42.2	-43.0	22.1	0.00e+00	0	34	0	646971392	55	4062
2026-01-17 10:08:30.30	223.03	67.55	-41.9	-42.7	22.3	0.00e+00	0	34	0	650117120	55	3942
2026-01-17 10:08:31.30	224.15	67.75	-41.8	-42.6	22.4	0.00e+00	0	34	0	653262848	55	3908
2026-01-17 10:08:32.31	225.32	67.95	-42.0	-42.8	22.1	0.00e+00	0	34	0	656408576	55	3982
2026-01-17 10:08:33.32	226.50	68.14	-42.0	-42.7	22.3	0.00e+00	0	34	0	659554304	55	3958
2026-01-17 10:08:34.33	227.70	68.32	-41.7	-42.5	22.4	0.00e+00	0	34	0	662700032	55	3850
2026-01-17 10:08:35.34	228.93	68.49	-41.8	-42.6	22.3	0.00e+00	0	34	0	665845760	55	3893
2026-01-17 10:08:36.34	230.17	68.65	-42.0	-42.8	22.1	0.00e+00	0	34	0	668991488	55	3968
2026-01-17 10:08:37.35	231.43	68.81	-41.9	-42.8	22.2	0.00e+00	0	34	0	672137216	55	3961
2026-01-17 10:08:38.36	232.72	68.96	-41.7	-42.5	22.5	0.00e+00	0	34	0	675282944	55	3844
2026-01-17 10:08:39.37	234.02	69.09	-41.8	-42.5	22.3	0.00e+00	0	34	0	678428672	55	3863
2026-01-17 10:08:40.38	235.35	69.22	-42.1	-42.9	22.0	0.00e+00	0	34	0	681574400	55	4040
2026-01-17 10:08:41.38	236.67	69.33	-42.0	-42.8	22.1	0.00e+00	0	34	0	684720128	55	3991
2026-01-17 10:08:42.39	238.03	69.44	-41.8	-42.6	22.4	0.00e+00	0	34	0	687865856	55	3879
2026-01-17 10:08:43.40	239.40	69.53	-41.5	-42.3	22.5	0.00e+00	0	34	0	691011584	55	3750
2026-01-17 10:08:44.41	240.78	69.61	-41.5	-42.3	22.3	0.00e+00	0	34	0	694157312	54	3980
2026-01-17 10:08:45.42	242.17	69.69	-41.8	-42.6	22.2	0.00e+00	0	34	0	697303040	54	4140
2026-01-17 10:08:46.43	243.57	69.75	-41.8	-42.6	22.4	0.00e+00	0	34	0	700448768	54	4099
2026-01-17 10:08:47.44	244.98	69.80	-42.0	-42.8	22.2	0.00e+00	0	34	0	703594496	54	4195
2026-01-17 10:08:48.45	246.40	69.84	-42.2	-43.0	21.9	0.00e+00	0	34	0	706740224	54	4309
2026-01-17 10:08:49.46	247.82	69.86	-42.0	-42.8	22.1	0.00e+00	0	34	0	709885952	54	4236
2026-01-17 10:08:50.46	249.24	69.88	-41.9	-42.7	22.2	0.00e+00	0	34	0	713031680	54	4168
2026-01-17 10:08:51.47	250.66	69.88	-42.1	-42.9	21.8	0.00e+00	0	34	0	716177408	54	4265
2026-01-17 10:08:52.48	252.09	69.88	-42.7	-43.6	21.3	0.00e+00	0	34	0	719323136	55	4352
2026-01-17 10:08:53.49	253.51	69.86	-42.9	-43.9	21.3	0.00e+00	0	34	0	722468864	56	4244
2026-01-17 10:08:54.50	254.94	69.83	-42.5	-43.4	21.7	0.00e+00	0	34	0	725614592	56	4009
2026-01-17 10:08:55.51	256.35	69.79	-42.7	-43.5	21.6	0.00e+00	0	34	0	728760320	56	4096
2026-01-17 10:08:56.52	257.76	69.73	-42.5	-43.4	21.8	0.00e+00	0	34	0	731906048	56	4018
2026-01-17 10:08:57.53	259.16	69.67	-42.5	-43.3	21.8	0.00e+00	0	34	0	735051776	56	3998
2026-01-17 10:08:58.54	260.55	69.59	-42.8	-43.6	21.6	0.00e+00	0	34	0	738197504	56	4139
2026-01-17 10:08:59.54	261.91	69.51	-42.4	-43.3	21.9	0.00e+00	0	34	0	741343232	56	3960
2026-01-17 10:09:00.55	263.28	69.41	-42.0	-42.8	22.3	0.00e+00	0	34	0	744488960	56	3757
2026-01-17 10:09:01.56	264.63	69.30	-42.1	-42.9	22.3	0.00e+00	0	34	0	747634688	56	3784
2026-01-17 10:09:02.57	265.96	69.19	-42.3	-43.1	22.1	0.00e+00	0	34	0	750780416	56	3893
2026-01-17 10:09:03.58	267.28	69.06	-42.5	-43.3	21.8	0.00e+00	0	34	0	753926144	56	3970
2026-01-17 10:09:04.58	268.57	68.92	-42.7	-43.6	21.5	0.00e+00	0	34	0	757071872	56	4125
2026-01-17 10:09:05.59	269.85	68.77	-43.1	-44.0	21.1	0.00e+00	0	34	0	760217600	56	4320
2026-01-17 10:09:06.60	271.11	68.62	-42.7	-43.6	21.6	0.00e+00	0	34	0	763363328	56	4118
2026-01-17 10:09:07.61	272.35	68.45	-42.5	-43.3	21.9	0.00e+00	0	34	0	766509056	56	3963
2026-01-17 10:09:08.62	273.57	68.28	-42.4	-43.2	22.0	0.00e+00	0	34	0	769654784	56	3916
2026-01-17 10:09:09.62	274.76	68.10	-42.4	-43.3	21.8	0.00e+00	0	34	0	772800512	56	3971
2026-01-17 10:09:10.63	275.94	67.90	-42.2	-43.0	22.1	0.00e+00	0	34	0	775946240	56	3857
2026-01-17 10:09:11.64	277.09	67.71	-41.9	-42.7	22.2	0.00e+00	0	34	0	779091968	55	3947
2026-01-17 10:09:12.65	278.22	67.50	-42.1	-42.9	22.0	0.00e+00	0	34	0	782237696	55	4042
2026-01-17 10:09:13.66	279.33	67.28	-42.0	-42.8	22.2	0.00e+00	0	34	0	785383424	55	3967
2026-01-17 10:09:14.66	280.41	67.07	-41.8	-42.6	22.4	0.00e+00	0	34	0	788529152	55	3887
2026-01-17 10:09:15.67	281.47	66.84	-41.6	-42.3	22.7	0.00e+00	0	34	0	791674880	55	3757
2026-01-17 10:09:16.68	282.51	66.60	-42.0	-42.8	22.3	0.00e+00	0	34	0	795869184	55	3992
2026-01-17 10:09:17.69	283.53	66.36	-42.4	-43.2	21.9	0.00e+00	0	34	0	797966336	55	4172
2026-01-17 10:09:18.70	284.53	66.12	-42.4	-43.2	21.8	0.00e+00	0	34	0	801112064	55	4170
2026-01-17 10:09:19.70	285.49	65.87	-42.3	-43.1	21.9	0.00e+00	0	34	0	804257792	55	4112
2026-01-17 10:09:20.71	286.44	65.61	-42.0	-42.8	22.2	0.00e+00	0	34	0	807403520	55	4001
2026-01-17 10:09:21.72	287.37	65.35	-41.9	-42.8	22.3	0.00e+00	0	34	0	810549248	55	3959
2026-01-17 10:09:22.73	288.28	65.08	-42.0	-42.8	22.2	0.00e+00	0	34	0	813694976	55	3995
2026-01-17 10:09:23.74	289.16	64.81	-42.5	-43.4	21.8	0.00e+00	0	34	0	816840704	55	4255
2026-01-17 10:09:24.74	290.02	64.54	-42.5	-43.4	21.8	0.00e+00	0	34	0	819986432	55	4249
2026-01-17 10:09:25.75	290.86	64.26	-42.3	-43.1	21.9	0.00e+00	0	34	0	823132160	55	4115
2026-01-17 10:09:26.76	291.69	63.98	-41.9	-42.6	22.3	0.00e+00	0	34	0	826277888	55	3912
2026-01-17 10:09:27.77	292.49	63.69	-41.7	-42.5	22.5	0.00e+00	0	34	0	829423616	55	3830
2026-01-17 10:09:28.78	293.27	63.40	-42.0	-42.8	22.2	0.00e+00	0	34	0	833617920	55	3988
2026-01-17 10:09:29.78	294.03	63.11	-42.7	-43.5	21.7	0.00e+00	0	34	0	836763648	55	4323
2026-01-17 10:09:30.79	294.78	62.81	-43.5	-44.4	20.8	0.00e+00	0	34	0	839909376	57	4288
2026-01-17 10:09:31.80	295.51	62.52	-43.4	-44.3	20.9	0.00e+00	0	34	0	843055104	57	4239
2026-01-17 10:09:32.81	296.22	62.22	-42.9	-43.7	21.2	0.00e+00	0	34	0	845152256	57	3950
2026-01-17 10:09:33.82	296.91	61.91	-42.8	-43.6	21.5	0.00e+00	0	34	0	848297984	57	3898
2026-01-17 10:09:34.83	297.59	61.61	-42.6	-43.4	21.7	0.00e+00	0	34	0	851443712	57	3804
2026-01-17 10:09:35.84	298.25	61.30	-42.9	-43.7	21.5	0.00e+00	0	34	0	854589440	57	3951
2026-01-17 10:09:36.85	298.89	60.99	-43.2	-44.1	21.1	0.00e+00	0	34	0	857735168	57	4124
2026-01-17 10:09:37.86	299.52	60.68	-43.8	-44.7	20.7	0.00e+00	0	34	0	860880896	58	4169
2026-01-17 10:09:38.86	300.13	60.37	-43.7	-44.6	20.7	0.00e+00	0	34	0	864026624	58	4126
2026-01-17 10:09:39.87	300.73	60.06	-43.1	-43.9	21.0	0.00e+00	0	34	0	867172352	58	3822
2026-01-17 10:09:40.88	301.31	59.74	-42.9	-43.8	21.3	0.00e+00	0	34	0	871366656	57	3960
2026-01-17 10:09:41.89	301.88	59.43	-42.9	-43.8	21.4	0.00e+00	0	34	0	874512384	57	3972
2026-01-17 10:09:42.90	302.44	59.11	-43.2	-44.1	21.3	0.00e+00	0	34	0	877658112	57	4110
2026-01-17 10:09:43.90	302.98	58.80	-43.9	-44.9	20.6	0.00e+00	0	34	0	880803840	58	4258
2026-01-17 10:09:44.91	303.51	58.48	-44.5	-45.5	19.7	0.00e+00	0	34	0	883949568	60	4095
2026-01-17 10:09:45.92	304.03	58.16	-44.6	-45.7	19.6	0.00e+00	0	34	0	887095296	60	4150
2026-01-17 10:09:46.93	304.54	57.85	-44.0	-44.9	20.1	0.00e+00	0	34	0	890241024	59	4040
2026-01-17 10:09:47.94	305.03	57.53	-43.1	-44.0	20.5	0.00e+00	0	34	0	892338176	58	3830
2026-01-17 10:09:48.95	305.51	57.21	-42.7	-43.6	21.2	0.00e+00	0	34	0	895483904	57	3874
2026-01-17 10:09:49.96	305.99	56.89	-42.5	-43.3	21.7	0.00e+00	0	34	0	898629632	56	3977
2026-01-17 10:09:50.97	306.45	56.57	-42.8	-43.6	21.6	0.00e+00	0	34	0	901775360	56	4136
2026-01-17 10:09:51.98	306.90	56.25	-43.5	-44.4	20.9	0.00e+00	0	34	0	904921088	57	4252
2026-01-17 10:09:52.98	307.34	55.94	-44.3	-45.3	20.2	0.00e+00	0	34	0	909115392	59	4203
2026-01-17 10:09:53.99	307.77	55.62	-44.4	-45.5	19.6	0.00e+00	0	34	0	912261120	60	4059
2026-01-17 10:09:55.00	308.19	55.30	-44.8	-45.8	18.7	0.00e+00	0	34	0	915406848	60	4237
2026-01-17 10:09:56.01	308.60	54.99	-44.3	-45.3	18.7	0.00e+00	0	34	0	918552576	60	3987
2026-01-17 10:09:57.02	309.01	54.67	-44.1	-45.0	19.5	0.00e+00	0	34	0	921698304	59	4098
2026-01-17 10:09:58.03	309.40	54.35	-43.3	-44.1	20.6	0.00e+00	0	34	0	924844032	58	3908
2026-01-17 10:09:59.03	309.78	54.04	-43.1	-43.9	21.1	0.00e+00	0	34	0	927989760	58	3803
2026-01-17 10:10:00.04	310.16	53.72	-43.6	-44.5	20.6	0.00e+00	0	34	0	931135488	58	4059
2026-01-17 10:10:01.05	310.53	53.41	-44.1	-45.0	19.9	0.00e+00	0	34	0	934281216	58	4332
2026-01-17 10:10:02.06	310.89	53.10	-44.4	-45.5	19.7	0.00e+00	0	34	0	937426944	60	4052
2026-01-17 10:10:03.07	311.25	52.78	-45.0	-46.2	18.9	0.00e+00	0	34	0	939524096	60	4400
2026-01-17 10:10:04.08	311.60	52.47	-45.4	-46.6	18.0	0.00e+00	0	34	0	942669824	61	4363
2026-01-17 10:10:05.08	311.93	52.17	-45.1	-46.3	18.5	0.00e+00	0	34	0	946864128	61	4200
2026-01-17 10:10:06.09	312.27	51.86	-44.5	-45.6	19.4	0.00e+00	0	34	0	950009856	61	3879
2026-01-17 10:10:07.10	312.59	51.55	-44.2	-45.2	19.7	0.00e+00	0	34	0	953155584	60	3937
2026-01-17 10:10:08.11	312.91	51.24	-44.2	-45.2	19.8	0.00e+00	0	34	0	956301312	60	3940
2026-01-17 10:10:09.12	313.23	50.93	-44.1	-45.0	20.0	0.00e+00	0	34	0	959447040	60	3853
2026-01-17 10:10:10.13	313.53	50.63	-44.6	-45.5	19.9	0.00e+00	0	34	0	962592768	59	4331
2026-01-17 10:10:11.14	313.83	50.32	-45.0	-46.0	19.3	0.00e+00	0	34	0	965738496	60	4325
2026-01-17 10:10:12.14	314.13	50.02	-46.1	-47.4	17.9	0.00e+00	0	34	0	968884224	62	4545
2026-01-17 10:10:13.15	314.42	49.72	-46.9	-48.5	16.9	0.00e+00	0	34	0	972029952	64	4548
2026-01-17 10:10:14.16	314.70	49.42	-47.1	-48.7	16.7	0.00e+00	0	34	0	975175680	64	4656
2026-01-17 10:10:15.17	314.98	49.12	-46.6	-48.0	17.0	0.00e+00	0	34	0	978321408	64	4331
2026-01-17 10:10:16.18	315.25	48.83	-45.8	-47.0	18.0	0.00e+00	0	34	0	981467136	63	4080
2026-01-17 10:10:17.19	315.52	48.53	-45.3	-46.4	18.5	0.00e+00	0	34	0	984612864	62	4024
2026-01-17 10:10:18.20	315.78	48.23	-45.1	-46.2	18.7	0.00e+00	0	34	0	987758592	62	3928
2026-01-17 10:10:19.21	316.04	47.94	-45.2	-46.3	18.7	0.00e+00	0	34	0	990904320	62	3995
2026-01-17 10:10:20.22	316.30	47.65	-45.4	-46.6	18.6	0.00e+00	0	34	0	994050048	62	4111
2026-01-17 10:10:21.22	316.54	47.36	-45.2	-46.3	18.8	0.00e+00	0	34	0	997195776	62	3993
2026-01-17 10:10:22.23	316.79	47.07	-45.2	-46.3	19.0	0.00e+00	0	34	0	1000341504	62	3989
2026-01-17 10:10:23.24	317.03	46.78	-45.5	-46.6	18.7	0.00e+00	0	34	0	1003487232	62	4138
2026-01-17 10:10:24.25	317.26	46.50	-45.9	-47.1	18.3	0.00e+00	0	34	0	1006632960	62	4385
2026-01-17 10:10:25.26	317.49	46.21	-46.3	-47.7	17.7	0.00e+00	0	34	0	1009778688	63	4414
2026-01-17 10:10:26.27	317.72	45.93	-46.4	-47.7	17.7	0.00e+00	0	34	0	1012924416	63	4421
2026-01-17 10:10:27.28	317.94	45.65	-46.5	-47.9	17.5	0.00e+00	0	34	0	1016070144	63	4502
2026-01-17 10:10:28.29	318.16	45.37	-46.5	-47.8	17.6	0.00e+00	0	34	0	1019215872	63	4489
2026-01-17 10:10:29.30	318.38	45.09	-46.4	-47.7	17.7	0.00e+00	0	34	0	1022361600	63	4420
2026-01-17 10:10:30.30	318.59	44.81	-45.9	-47.1	18.2	0.00e+00	0	34	0	1025507328	63	4137
2026-01-17 10:10:31.31	318.80	44.54	-45.8	-47.0	18.4	0.00e+00	0	34	0	1028653056	63	4073
2026-01-17 10:10:32.32	319.00	44.26	-45.9	-47.1	18.3	0.00e+00	0	34	0	1031798784	63	4106
2026-01-17 10:10:33.33	319.21	43.99	-46.1	-47.4	18.0	0.00e+00	0	34	0	1034944512	63	4256
2026-01-17 10:10:34.34	319.40	43.72	-46.7	-48.2	17.3	0.00e+00	0	34	0	1038090240	63	4659
2026-01-17 10:10:35.35	319.60	43.45	-46.6	-48.0	17.3	0.00e+00	0	34	0	1041235968	64	4293
2026-01-17 10:10:36.35	319.79	43.18	-46.2	-47.5	17.7	0.00e+00	0	34	0	1044381696	64	4083
2026-01-17 10:10:37.36	319.98	42.91	-45.9	-47.1	18.2	0.00e+00	0	34	0	1047527424	63	4136
2026-01-17 10:10:38.37	320.16	42.65	-45.5	-46.6	18.7	0.00e+00	0	34	0	1050673152	62	4108
2026-01-17 10:10:39.37	320.35	42.39	-44.9	-45.9	19.3	0.00e+00	0	34	0	1053818880	61	4042
2026-01-17 10:10:40.38	320.53	42.13	-45.0	-46.1	19.2	0.00e+00	0	34	0	1056964608	61	4119
2026-01-17 10:10:41.39	320.70	41.87	-45.6	-46.8	18.6	0.00e+00	0	34	0	1060110336	61	4455
2026-01-17 10:10:42.40	320.88	41.61	-45.6	-46.8	18.5	0.00e+00	0	34	0	1063256064	61	4483
2026-01-17 10:10:43.41	321.05	41.35	-45.3	-46.5	18.8	0.00e+00	0	34	0	1066401792	61	4292
2026-01-17 10:10:44.42	321.22	41.09	-45.2	-46.3	19.0	0.00e+00	0	34	0	1069547520	61	4219
2026-01-17 10:10:45.43	321.38	40.84	-45.3	-46.4	18.7	0.00e+00	0	34	0	1072693248	61	4283
2026-01-17 10:10:46.44	321.55	40.59	-45.4	-46.6	18.6	0.00e+00	0	34	0	1075838976	61	4344
2026-01-17 10:10:47.44	321.71	40.34	-45.6	-46.8	18.5	0.00e+00	0	34	0	1078984704	61	4451
2026-01-17 10:10:48.45	321.87	40.09	-45.6	-46.8	18.5	0.00e+00	0	34	0	1082130432	61	4483
2026-01-17 10:10:49.46	322.02	39.84	-45.7	-46.9	18.5	0.00e+00	0	34	0	1085276160	62	4259
2026-01-17 10:10:50.46	322.18	39.60	-45.7	-46.9	18.5	0.00e+00	0	34	0	1088421888	62	4246
2026-01-17 10:10:51.47	322.33	39.35	-45.8	-47.0	18.4	0.00e+00	0	34	0	1091567616	62	4313
2026-01-17 10:10:52.48	322.48	39.11	-45.7	-46.9	18.2	0.00e+00	0	34	0	1094713344	62	4261
2026-01-17 10:10:53.49	322.63	38.87	-45.7	-46.9	18.2	0.00e+00	0	34	0	1097859072	62	4257
2026-01-17 10:10:54.50	322.77	38.63	-45.5	-46.6	18.5	0.00e+00	0	34	0	1101004800	62	4135
2026-01-17 10:10:55.51	322.92	38.39	-45.1	-46.2	19.0	0.00e+00	0	34	0	1104150528	62	3953
2026-01-17 10:10:56.52	323.06	38.15	-45.1	-46.2	19.1	0.00e+00	0	34	0	1107296256	62	3919
2026-01-17 10:10:57.53	323.20	37.91	-44.6	-45.6	19.5	0.00e+00	0	34	0	1110441984	61	3902
2026-01-17 10:10:58.54	323.34	37.68	-44.1	-45.1	20.1	0.00e+00	0	34	0	1113587712	60	3882
2026-01-17 10:10:59.55	323.47	37.44	-44.2	-45.2	20.0	0.00e+00	0	34	0	1116733440	60	3924
2026-01-17 10:11:00.56	323.61	37.21	-44.3	-45.3	19.9	0.00e+00	0	34	0	1119879168	60	3982
2026-01-17 10:11:01.57	323.74	36.98	-44.4	-45.4	19.8	0.00e+00	0	34	0	1123024896	60	4024
2026-01-17 10:11:02.58	323.87	36.75	-44.4	-45.4	19.8	0.00e+00	0	34	0	1126170624	60	4031
2026-01-17 10:11:03.58	324.00	36.53	-44.3	-45.3	19.9	0.00e+00	0	34	0	1129316352	60	3960
2026-01-17 10:11:04.59	324.12	36.30	-44.1	-45.0	20.1	0.00e+00	0	34	0	1132462080	60	3866
2026-01-17 10:11:05.60	324.25	36.08	-44.0	-45.0	20.1	0.00e+00	0	34	0	1135607808	60	3844
2026-01-17 10:11:06.61	324.37	35.86	-44.2	-45.2	20.0	0.00e+00	0	34	0	1138753536	60	3924
2026-01-17 10:11:07.62	324.49	35.63	-44.2	-45.2	20.0	0.00e+00	0	34	0	1141899264	60	3914
2026-01-17 10:11:08.63	324.62	35.41	-44.3	-45.3	19.9	0.00e+00	0	34	0	1145044992	60	3979
2026-01-17 10:11:09.63	324.73	35.20	-44.4	-45.5	19.7	0.00e+00	0	34	0	1148190720	60	4063
2026-01-17 10:11:10.64	324.85	34.98	-44.7	-45.7	19.5	0.00e+00	0	34	0	1151336448	60	4189
2026-01-17 10:11:11.65	324.97	34.76	-45.1	-46.2	19.0	0.00e+00	0	34	0	1154482176	60	4431
2026-01-17 10:11:12.66	325.08	34.55	-45.5	-46.7	18.5	0.00e+00	0	34	0	1157627904	61	4425
2026-01-17 10:11:13.66	325.19	34.34	-45.7	-47.0	18.2	0.00e+00	0	34	0	1160773632	62	4335
2026-01-17 10:11:14.67	325.30	34.12	-45.7	-46.9	18.3	0.00e+00	0	34	0	1163919360	62	4287
2026-01-17 10:11:15.68	325.41	33.91	-45.6	-46.8	18.4	0.00e+00	0	34	0	1167065088	62	4220
2026-01-17 10:11:16.69	325.52	33.70	-45.5	-46.8	18.3	0.00e+00	0	34	0	1170210816	62	4200
2026-01-17 10:11:17.70	325.63	33.50	-45.2	-46.4	18.7	0.00e+00	0	34	0	1173356544	62	4005
2026-01-17 10:11:18.70	325.74	33.29	-44.4	-45.4	19.5	0.00e+00	0	34	0	1176502272	60	4049
2026-01-17 10:11:19.71	325.84	33.09	-44.3	-45.3	19.9	0.00e+00	0	34	0	1179648000	59	4206
2026-01-17 10:11:20.72	325.95	32.88	-43.8	-44.8	20.4	0.00e+00	0	34	0	1182793728	59	3965
2026-01-17 10:11:21.73	326.05	32.68	-43.7	-44.6	20.6	0.00e+00	0	34	0	1185939456	59	3905
2026-01-17 10:11:22.74	326.15	32.48	-43.7	-44.6	20.6	0.00e+00	0	34	0	1189085184	59	3888
2026-01-17 10:11:23.74	326.25	32.28	-43.5	-44.4	20.8	0.00e+00	0	34	0	1192230912	59	3808
2026-01-17 10:11:24.75	326.35	32.08	-43.5	-44.4	20.8	0.00e+00	0	34	0	1195376640	58	4039
2026-01-17 10:11:25.76	326.44	31.88	-43.4	-44.3	20.9	0.00e+00	0	34	0	1198522368	58	3980
2026-01-17 10:11:26.77	326.54	31.69	-43.3	-44.2	21.0	0.00e+00	0	34	0	1201668096	58	3922
2026-01-17 10:11:27.77	326.64	31.49	-43.3	-44.2	21.0	0.00e+00	0	34	0	1204813824	58	3925
2026-01-17 10:11:28.78	326.73	31.30	-43.2	-44.0	21.2	0.00e+00	0	34	0	1207959552	58	3856
2026-01-17 10:11:29.79	326.82	31.10	-43.1	-44.0	21.2	0.00e+00	0	34	0	1211105280	58	3845
2026-01-17 10:11:30.80	326.92	30.91	-43.3	-44.1	21.1	0.00e+00	0	34	0	1214251008	58	3911
2026-01-17 10:11:31.81	327.01	30.72	-43.4	-44.3	21.0	0.00e+00	0	34	0	1217396736	58	3968
2026-01-17 10:11:32.82	327.10	30.53	-43.5	-44.4	20.9	0.00e+00	0	34	0	1220542464	58	4028
2026-01-17 10:11:33.82	327.19	30.35	-43.7	-44.6	20.7	0.00e+00	0	34	0	1223688192	58	4127
2026-01-17 10:11:34.83	327.27	30.16	-43.8	-44.7	20.6	0.00e+00	0	34	0	1226833920	58	4189
2026-01-17 10:11:35.84	327.36	29.97	-44.0	-45.0	20.3	0.00e+00	0	34	0	1229979648	58	4304
2026-01-17 10:11:36.85	327.45	29.79	-44.1	-45.1	20.2	0.00e+00	0	34	0	1233125376	58	4376
2026-01-17 10:11:37.86	327.53	29.60	-44.2	-45.2	20.2	0.00e+00	0	34	0	1236271104	58	4397
2026-01-17 10:11:38.87	327.62	29.42	-44.2	-45.2	20.1	0.00e+00	0	34	0	1239416832	58	4405
2026-01-17 10:11:39.88	327.70	29.24	-44.3	-45.3	20.0	0.00e+00	0	34	0	1242562560	59	4224
2026-01-17 10:11:40.89	327.78	29.06	-44.4	-45.4	19.9	0.00e+00	0	34	0	1245708288	59	4256
2026-01-17 10:11:41.90	327.87	28.88	-44.2	-45.2	20.1	0.00e+00	0	34	0	1248854016	59	4162
2026-01-17 10:11:42.91	327.95	28.70	-44.1	-45.1	20.1	0.00e+00	0	34	0	1251999744	59	4144
2026-01-17 10:11:43.92	328.03	28.53	-44.2	-45.2	20.0	0.00e+00	0	34	0	1255145472	59	4192
2026-01-17 10:11:44.93	328.11	28.35	-44.1	-45.1	20.2	0.00e+00	0	34	0	1258291200	59	4110
2026-01-17 10:11:45.94	328.19	28.17	-44.1	-45.2	20.1	0.00e+00	0	34	0	1261436928	59	4148
2026-01-17 10:11:46.94	328.26	28.00	-44.2	-45.2	20.1	0.00e+00	0	34	0	1264582656	59	4158
2026-01-17 10:11:47.95	328.34	27.83	-44.0	-45.0	20.2	0.00e+00	0	34	0	1267728384	59	4077
2026-01-17 10:11:48.96	328.42	27.66	-44.0	-45.0	20.2	0.00e+00	0	34	0	1270874112	59	4061
2026-01-17 10:11:49.97	328.49	27.49	-43.8	-44.8	20.4	0.00e+00	0	34	0	1274019840	59	3976
2026-01-17 10:11:50.98	328.57	27.32	-43.8	-44.8	20.4	0.00e+00	0	34	0	1277165568	59	3978
2026-01-17 10:11:51.98	328.64	27.15	-43.7	-44.7	20.5	0.00e+00	0	34	0	1280311296	59	3926
2026-01-17 10:11:52.99	328.71	26.98	-43.7	-44.7	20.5	0.00e+00	0	34	0	1283457024	59	3914
2026-01-17 10:11:53.99	328.78	26.82	-43.5	-44.4	20.7	0.00e+00	0	34	0	1286602752	59	3822
2026-01-17 10:11:55.00	328.86	26.65	-43.3	-44.2	20.9	0.00e+00	0	34	0	1289748480	58	3926
2026-01-17 10:11:56.01	328.93	26.48	-43.3	-44.2	21.0	0.00e+00	0	34	0	1292894208	58	3920
2026-01-17 10:11:57.02	329.00	26.32	-43.2	-44.1	21.0	0.00e+00	0	34	0	1296039936	58	3899
2026-01-17 10:11:58.03	329.07	26.16	-43.1	-43.9	21.2	0.00e+00	0	34	0	1299185664	58	3823
2026-01-17 10:11:59.04	329.14	26.00	-42.8	-43.7	21.4	0.00e+00	0	34	0	1302331392	57	3925
2026-01-17 10:12:00.05	329.21	25.83	-42.6	-43.4	21.6	0.00e+00	0	34	0	1305477120	57	3820
2026-01-17 10:12:01.06	329.27	25.67	-42.4	-43.2	21.7	0.00e+00	0	34	0	1308622848	56	3952
2026-01-17 10:12:02.07	329.34	25.52	-42.4	-43.2	21.8	0.00e+00	0	34	0	1311768576	56	3930
2026-01-17 10:12:03.07	329.41	25.36	-42.4	-43.2	21.7	0.00e+00	0	34	0	1314914304	56	3951
2026-01-17 10:12:04.08	329.47	25.20	-42.5	-43.3	21.6	0.00e+00	0	34	0	1318060032	56	3992
2026-01-17 10:12:05.09	329.54	25.04	-42.6	-43.4	21.5	0.00e+00	0	34	0	1321205760	56	4041
2026-01-17 10:12:06.10	329.60	24.89	-42.8	-43.6	21.4	0.00e+00	0	34	0	1324351488	56	4118
2026-01-17 10:12:07.11	329.67	24.73	-42.8	-43.6	21.4	0.00e+00	0	34	0	1327497216	56	4135
2026-01-17 10:12:08.12	329.73	24.58	-42.8	-43.7	21.3	0.00e+00	0	34	0	1330642944	56	4163
2026-01-17 10:12:09.12	329.79	24.43	-42.9	-43.7	21.3	0.00e+00	0	34	0	1333788672	56	4190
2026-01-17 10:12:10.13	329.85	24.28	-42.9	-43.8	21.3	0.00e+00	0	34	0	1336934400	56	4199
2026-01-17 10:12:11.14	329.92	24.12	-43.0	-43.9	21.2	0.00e+00	0	34	0	1340080128	56	4246
2026-01-17 10:12:12.15	329.98	23.97	-43.1	-43.9	21.1	0.00e+00	0	34	0	1343225856	56	4289
2026-01-17 10:12:13.15	330.04	23.83	-43.1	-43.9	21.1	0.00e+00	0	34	0	1346371584	56	4282
2026-01-17 10:12:14.16	330.10	23.68	-43.1	-44.0	21.1	0.00e+00	0	34	0	1349517312	56	4301
2026-01-17 10:12:15.17	330.16	23.53	-43.2	-44.1	21.0	0.00e+00	0	34	0	1352663040	56	4343
2026-01-17 10:12:16.18	330.22	23.38	-43.3	-44.2	20.9	0.00e+00	0	34	0	1355808768	57	4185
2026-01-17 10:12:17.18	330.28	23.24	-43.2	-44.1	21.0	0.00e+00	0	34	0	1358954496	57	4134
2026-01-17 10:12:18.19	330.33	23.09	-43.3	-44.2	20.9	0.00e+00	0	34	0	1362100224	57	4156
2026-01-17 10:12:19.20	330.39	22.95	-43.3	-44.3	20.8	0.00e+00	0	34	0	1365245952	57	4196
2026-01-17 10:12:20.21	330.45	22.80	-43.4	-44.3	20.7	0.00e+00	0	34	0	1368391680	57	4212
2026-01-17 10:12:21.22	330.50	22.66	-43.2	-44.1	20.9	0.00e+00	0	34	0	1371537408	57	4140
2026-01-17 10:12:22.23	330.56	22.52	-43.3	-44.3	20.8	0.00e+00	0	34	0	1374683136	57	4195
2026-01-17 10:12:23.23	330.62	22.38	-43.2	-44.1	20.9	0.00e+00	0	34	0	1377828864	57	4145
2026-01-17 10:12:24.24	330.67	22.24	-43.2	-44.1	20.9	0.00e+00	0	34	0	1380974592	57	4105
2026-01-17 10:12:25.25	330.73	22.09	-43.3	-44.2	20.8	0.00e+00	0	34	0	1384120320	57	4161
2026-01-17 10:12:26.26	330.78	21.96	-43.4	-44.3	20.7	0.00e+00	0	34	0	1387266048	57	4227
2026-01-17 10:12:27.26	330.83	21.82	-43.4	-44.4	20.6	0.00e+00	0	34	0	1390411776	57	4250
2026-01-17 10:12:28.27	330.89	21.68	-43.4	-44.3	20.7	0.00e+00	0	34	0	1393557504	57	4229
2026-01-17 10:12:29.28	330.94	21.54	-43.4	-44.4	20.7	0.00e+00	0	34	0	1396703232	57	4247
2026-01-17 10:12:30.29	330.99	21.41	-43.4	-44.3	20.7	0.00e+00	0	34	0	1399848960	57	4241
2026-01-17 10:12:31.30	331.05	21.27	-43.4	-44.4	20.6	0.00e+00	0	34	0	1402994688	57	4247
2026-01-17 10:12:32.31	331.10	21.14	-43.4	-44.3	20.6	0.00e+00	0	34	0	1406140416	57	4238
2026-01-17 10:12:33.32	331.15	21.00	-43.4	-44.4	20.6	0.00e+00	0	34	0	1409286144	57	4257
2026-01-17 10:12:34.33	331.20	20.87	-43.5	-44.4	20.6	0.00e+00	0	34	0	1412431872	57	4278
2026-01-17 10:12:35.34	331.25	20.73	-43.5	-44.4	20.6	0.00e+00	0	34	0	1415577600	57	4285
2026-01-17 10:12:36.35	331.30	20.60	-43.4	-44.3	20.7	0.00e+00	0	34	0	1418723328	57	4221
2026-01-17 10:12:37.35	331.35	20.47	-43.5	-44.4	20.6	0.00e+00	0	34	0	1421869056	57	4270
2026-01-17 10:12:38.36	331.40	20.34	-43.4	-44.4	20.6	0.00e+00	0	34	0	1425014784	57	4249
2026-01-17 10:12:39.37	331.45	20.21	-43.5	-44.4	20.6	0.00e+00	0	34	0	1428160512	57	4270
2026-01-17 10:12:40.38	331.50	20.08	-43.6	-44.6	20.4	0.00e+00	0	34	0	1432354816	57	4350
2026-01-17 10:12:41.38	331.55	19.95	-43.5	-44.4	20.5	0.00e+00	0	34	0	1435500544	57	4279
2026-01-17 10:12:42.39	331.59	19.82	-43.5	-44.4	20.5	0.00e+00	0	34	0	1438646272	57	4282
2026-01-17 10:12:43.40	331.64	19.70	-43.5	-44.4	20.5	0.00e+00	0	34	0	1441792000	57	4288
2026-01-17 10:12:44.41	331.69	19.57	-43.5	-44.5	20.5	0.00e+00	0	34	0	1443889152	57	4317
2026-01-17 10:12:45.42	331.73	19.44	-43.6	-44.6	20.4	0.00e+00	0	34	0	1447034880	57	4345
2026-01-17 10:12:46.43	331.78	19.32	-43.6	-44.5	20.4	0.00e+00	0	34	0	1450180608	57	4336
2026-01-17 10:12:47.44	331.83	19.19	-43.5	-44.5	20.5	0.00e+00	0	34	0	1453326336	57	4300
2026-01-17 10:12:48.45	331.87	19.07	-43.4	-44.3	20.6	0.00e+00	0	34	0	1456472064	57	4236
2026-01-17 10:12:49.45	331.92	18.94	-43.5	-44.5	20.5	0.00e+00	0	34	0	1459617792	57	4301
2026-01-17 10:12:50.46	331.96	18.82	-43.5	-44.5	20.4	0.00e+00	0	34	0	1462763520	57	4312
2026-01-17 10:12:51.47	332.01	18.70	-43.4	-44.4	20.6	0.00e+00	0	34	0	1465909248	57	4251
2026-01-17 10:12:52.48	332.05	18.58	-43.5	-44.4	20.5	0.00e+00	0	34	0	1470103552	57	4283
2026-01-17 10:12:53.49	332.10	18.45	-43.4	-44.4	20.5	0.00e+00	0	34	0	1473249280	57	4243
2026-01-17 10:12:54.49	332.14	18.33	-43.5	-44.4	20.4	0.00e+00	0	34	0	1476395008	57	4271
2026-01-17 10:12:55.50	332.18	18.21	-43.4	-44.4	20.5	0.00e+00	0	34	0	1479540736	57	4248
2026-01-17 10:12:56.51	332.23	18.09	-43.3	-44.2	20.6	0.00e+00	0	34	0	1482686464	57	4192
2026-01-17 10:12:57.52	332.27	17.97	-43.5	-44.4	20.4	0.00e+00	0	34	0	1485832192	57	4281
2026-01-17 10:12:58.53	332.31	17.86	-43.6	-44.5	20.3	0.00e+00	0	34	0	1488977920	57	4332
2026-01-17 10:12:59.54	332.36	17.74	-43.4	-44.3	20.5	0.00e+00	0	34	0	1491075072	57	4225
2026-01-17 10:13:00.55	332.40	17.62	-43.5	-44.4	20.3	0.00e+00	0	34	0	1494220800	57	4289
2026-01-17 10:13:01.55	332.44	17.50	-43.5	-44.5	20.3	0.00e+00	0	34	0	1497366528	57	4315
2026-01-17 10:13:02.56	332.48	17.39	-43.6	-44.5	20.2	0.00e+00	0	34	0	1500512256	57	4329
2026-01-17 10:13:03.57	332.52	17.27	-43.6	-44.6	20.2	0.00e+00	0	34	0	1503657984	57	4346
2026-01-17 10:13:04.58	332.56	17.16	-43.7	-44.7	20.1	0.00e+00	0	34	0	1507852288	58	4165
2026-01-17 10:13:05.59	332.60	17.04	-43.8	-44.8	20.0	0.00e+00	0	34	0	1510998016	58	4202
2026-01-17 10:13:06.59	332.64	16.93	-43.8	-44.8	20.1	0.00e+00	0	34	0	1514143744	58	4198
2026-01-17 10:13:07.60	332.68	16.81	-43.6	-44.6	20.2	0.00e+00	0	34	0	1517289472	58	4135
2026-01-17 10:13:08.61	332.72	16.70	-43.8	-44.8	20.1	0.00e+00	0	34	0	1520435200	58	4201
2026-01-17 10:13:09.62	332.76	16.59	-43.8	-44.8	20.0	0.00e+00	0	34	0	1523580928	58	4208
2026-01-17 10:13:10.63	332.80	16.47	-43.8	-44.8	20.0	0.00e+00	0	34	0	1526726656	58	4222
2026-01-17 10:13:11.63	332.84	16.36	-44.0	-45.0	19.8	0.00e+00	0	34	0	1529872384	58	4309
2026-01-17 10:13:12.65	332.88	16.25	-43.8	-44.8	20.0	0.00e+00	0	34	0	1533018112	58	4226
2026-01-17 10:13:13.65	332.92	16.14	-43.8	-44.8	20.0	0.00e+00	0	34	0	1536163840	58	4231
2026-01-17 10:13:14.66	332.96	16.03	-43.9	-44.9	20.0	0.00e+00	0	34	0	1538260992	58	4258
2026-01-17 10:13:15.67	332.99	15.92	-43.9	-44.9	20.0	0.00e+00	0	34	0	1541406720	58	4249
2026-01-17 10:13:16.68	333.03	15.81	-44.0	-45.0	19.9	0.00e+00	0	34	0	1545601024	58	4316
2026-01-17 10:13:17.69	333.07	15.70	-43.9	-44.8	20.0	0.00e+00	0	34	0	1548746752	58	4242
2026-01-17 10:13:18.70	333.11	15.59	-43.9	-44.9	20.0	0.00e+00	0	34	0	1551892480	58	4258
2026-01-17 10:13:19.71	333.14	15.49	-44.0	-45.0	19.9	0.00e+00	0	34	0	1555038208	58	4299
2026-01-17 10:13:20.72	333.18	15.38	-44.0	-45.0	19.9	0.00e+00	0	34	0	1558183936	58	4319
2026-01-17 10:13:21.72	333.22	15.27	-44.0	-45.0	19.9	0.00e+00	0	34	0	1561329664	58	4301
2026-01-17 10:13:22.73	333.25	15.17	-43.9	-44.9	19.9	0.00e+00	0	34	0	1564475392	58	4279
2026-01-17 10:13:23.74	333.29	15.06	-44.0	-45.0	19.9	0.00e+00	0	34	0	1567621120	58	4318
2026-01-17 10:13:24.75	333.33	14.96	-43.9	-45.0	19.9	0.00e+00	0	34	0	1570766848	58	4297
2026-01-17 10:13:25.76	333.36	14.85	-43.9	-44.9	19.9	0.00e+00	0	34	0	1573912576	58	4268
2026-01-17 10:13:26.77	333.40	14.75	-43.8	-44.8	20.0	0.00e+00	0	34	0	1577058304	58	4235
2026-01-17 10:13:27.78	333.43	14.64	-44.0	-45.0	19.9	0.00e+00	0	34	0	1580204032	58	4295
2026-01-17 10:13:28.78	333.47	14.54	-44.0	-45.0	19.8	0.00e+00	0	34	0	1583349760	58	4340
2026-01-17 10:13:29.79	333.50	14.43	-43.9	-44.9	19.9	0.00e+00	0	34	0	1586495488	58	4276
2026-01-17 10:13:30.80	333.54	14.33	-43.8	-44.8	20.0	0.00e+00	0	34	0	1589641216	58	4207
2026-01-17 10:13:31.81	333.57	14.23	-43.9	-44.9	19.9	0.00e+00	0	34	0	1592786944	58	4283
2026-01-17 10:13:32.82	333.61	14.13	-43.9	-44.9	19.9	0.00e+00	0	34	0	1595932672	58	4262
2026-01-17 10:13:33.82	333.64	14.03	-43.9	-44.9	19.9	0.00e+00	0	34	0	1599078400	58	4250
2026-01-17 10:13:34.83	333.67	13.92	-44.0	-45.0	19.8	0.00e+00	0	34	0	1602224128	58	4308
2026-01-17 10:13:35.84	333.71	13.82	-44.0	-45.0	19.8	0.00e+00	0	34	0	1605369856	58	4336
2026-01-17 10:13:36.85	333.74	13.72	-44.1	-45.1	19.7	0.00e+00	0	34	0	1608515584	58	4360
2026-01-17 10:13:37.86	333.77	13.62	-44.2	-45.3	19.6	0.00e+00	0	34	0	1611661312	58	4445
2026-01-17 10:13:38.86	333.81	13.52	-44.1	-45.1	19.7	0.00e+00	0	34	0	1614807040	59	4137
2026-01-17 10:13:39.87	333.84	13.42	-44.2	-45.2	19.6	0.00e+00	0	34	0	1617952768	59	4188
2026-01-17 10:13:40.88	333.87	13.33	-44.2	-45.2	19.6	0.00e+00	0	34	0	1621098496	59	4178
2026-01-17 10:13:41.89	333.90	13.23	-44.2	-45.3	19.5	0.00e+00	0	34	0	1624244224	59	4215
2026-01-17 10:13:42.90	333.94	13.13	-44.3	-45.4	19.5	0.00e+00	0	34	0	1627389952	59	4250
2026-01-17 10:13:43.90	333.97	13.03	-44.4	-45.5	19.3	0.00e+00	0	34	0	1630535680	59	4313
2026-01-17 10:13:44.91	334.00	12.94	-44.4	-45.5	19.3	0.00e+00	0	34	0	1633681408	59	4310
2026-01-17 10:13:45.92	334.03	12.84	-44.4	-45.5	19.3	0.00e+00	0	34	0	1636827136	59	4307
2026-01-17 10:13:46.93	334.06	12.74	-44.4	-45.5	19.3	0.00e+00	0	34	0	1639972864	59	4318
2026-01-17 10:13:47.94	334.10	12.65	-44.5	-45.6	19.2	0.00e+00	0	34	0	1643118592	59	4372
2026-01-17 10:13:48.94	334.13	12.55	-44.5	-45.7	19.1	0.00e+00	0	34	0	1646264320	59	4404
2026-01-17 10:13:49.96	334.16	12.45	-44.5	-45.7	19.2	0.00e+00	0	34	0	1649410048	59	4392
2026-01-17 10:13:50.96	334.19	12.36	-44.6	-45.7	19.1	0.00e+00	0	34	0	1652555776	59	4421
2026-01-17 10:13:51.97	334.22	12.26	-44.4	-45.5	19.0	0.00e+00	0	34	0	1655701504	60	4096
2026-01-17 10:13:52.98	334.25	12.17	-44.3	-45.4	19.1	6.80e-06	0	34	0	1658847232	60	4014
2026-01-17 10:13:53.99	334.28	12.08	-44.3	-45.4	19.1	0.00e+00	0	34	0	1661992960	60	4039
2026-01-17 10:13:55.00	334.31	11.98	-44.4	-45.5	19.0	0.00e+00	0	34	0	1665138688	60	4074
2026-01-17 10:13:56.01	334.34	11.89	-44.3	-45.4	19.1	0.00e+00	0	34	0	1668284416	60	4014
2026-01-17 10:13:57.02	334.37	11.80	-44.3	-45.4	19.1	0.00e+00	0	34	0	1671430144	60	4031
2026-01-17 10:13:58.03	334.40	11.70	-44.4	-45.5	18.9	0.00e+00	0	34	0	1674575872	60	4091
2026-01-17 10:13:59.04	334.43	11.61	-44.4	-45.5	19.0	0.00e+00	0	34	0	1677721600	60	4074
2026-01-17 10:14:00.05	334.46	11.52	-44.4	-45.5	19.0	0.00e+00	0	34	0	1680867328	60	4070
2026-01-17 10:14:01.05	334.49	11.43	-44.4	-45.5	19.0	0.00e+00	0	34	0	1684013056	60	4071
2026-01-17 10:14:02.06	334.52	11.34	-44.4	-45.5	18.9	0.00e+00	0	34	0	1687158784	60	4087
2026-01-17 10:14:03.07	334.55	11.25	-44.5	-45.6	18.9	0.00e+00	0	34	0	1690304512	60	4127
2026-01-17 10:14:04.08	334.58	11.16	-44.4	-45.5	18.9	0.00e+00	0	34	0	1693450240	60	4091
2026-01-17 10:14:05.09	334.60	11.07	-44.4	-45.5	18.9	0.00e+00	0	34	0	1696595968	60	4090
2026-01-17 10:14:06.10	334.63	10.98	-44.5	-45.7	18.8	0.00e+00	0	34	0	1699741696	60	4148
2026-01-17 10:14:07.10	334.66	10.89	-44.4	-45.6	18.8	0.00e+00	0	34	0	1702887424	60	4111
2026-01-17 10:14:08.11	334.69	10.80	-44.6	-45.7	18.7	0.00e+00	0	34	0	1706033152	60	4185
2026-01-17 10:14:09.12	334.72	10.71	-44.6	-45.8	18.6	0.00e+00	0	34	0	1709178880	60	4225
2026-01-17 10:14:10.13	334.74	10.62	-44.3	-45.5	18.9	0.00e+00	0	34	0	1712324608	60	4057
2026-01-17 10:14:11.14	334.77	10.53	-44.9	-46.1	18.3	0.00e+00	0	34	0	1715470336	60	4386
2026-01-17 10:14:12.14	334.80	10.44	-44.6	-45.8	18.6	0.00e+00	0	34	0	1718616064	60	4215
2026-01-17 10:14:13.15	334.83	10.36	-44.7	-45.9	18.5	0.00e+00	0	34	0	1721761792	60	4255
2026-01-17 10:14:14.16	334.85	10.27	-44.5	-45.7	18.7	0.00e+00	0	34	0	1724907520	60	4161
2026-01-17 10:14:15.17	334.88	10.18	-44.5	-45.7	18.7	0.00e+00	0	34	0	1728053248	60	4173
2026-01-17 10:14:16.17	334.91	10.10	-44.6	-45.8	18.6	0.00e+00	0	34	0	1731198976	60	4197
2026-01-17 10:14:17.18	334.94	10.01	-44.6	-45.8	18.6	0.00e+00	0	34	0	1734344704	60	4215
2026-01-17 10:14:18.19	334.96	9.92	-45.0	-46.2	18.2	0.00e+00	0	34	0	1737490432	60	4417
2026-01-17 10:14:19.20	334.99	9.84	-44.8	-46.1	18.4	0.00e+00	0	34	0	1740636160	60	4342
2026-01-17 10:14:20.21	335.02	9.75	-44.8	-46.0	18.4	0.00e+00	0	34	0	1743781888	60	4303
2026-01-17 10:14:21.22	335.04	9.67	-45.0	-46.2	18.2	0.00e+00	0	34	0	1746927616	60	4432
2026-01-17 10:14:22.23	335.07	9.58	-44.7	-45.9	18.5	0.00e+00	0	34	0	1750073344	60	4246
2026-01-17 10:14:23.24	335.10	9.50	-44.7	-45.9	18.4	0.00e+00	0	34	0	1753219072	60	4268
2026-01-17 10:14:24.25	335.12	9.41	-44.8	-46.1	18.3	0.00e+00	0	34	0	1756364800	60	4347
2026-01-17 10:14:25.26	335.15	9.33	-44.8	-46.0	18.3	0.00e+00	0	34	0	1759510528	60	4322
2026-01-17 10:14:26.26	335.17	9.24	-44.6	-45.8	18.5	0.00e+00	0	34	0	1762656256	60	4226
2026-01-17 10:14:27.27	335.20	9.16	-44.9	-46.1	18.2	0.00e+00	0	34	0	1765801984	60	4367
2026-01-17 10:14:28.28	335.22	9.08	-44.9	-46.1	18.2	0.00e+00	0	34	0	1768947712	60	4378
2026-01-17 10:14:29.29	335.25	8.99	-44.9	-46.2	18.2	0.00e+00	0	34	0	1772093440	60	4392
2026-01-17 10:14:30.30	335.28	8.91	-45.0	-46.2	18.1	0.00e+00	0	34	0	1775239168	60	4431
2026-01-17 10:14:31.30	335.30	8.83	-45.1	-46.3	18.0	0.00e+00	0	34	0	1778384896	60	4485
2026-01-17 10:14:32.31	335.33	8.75	-45.1	-46.4	17.9	0.00e+00	0	34	0	1781530624	60	4494
2026-01-17 10:14:33.32	335.35	8.67	-44.9	-46.1	18.2	0.00e+00	0	34	0	1784676352	60	4377
2026-01-17 10:14:34.33	335.38	8.58	-45.1	-46.4	17.9	0.00e+00	0	34	0	1787822080	60	4497
2026-01-17 10:14:35.34	335.40	8.50	-44.9	-46.2	18.1	0.00e+00	0	34	0	1790967808	60	4404
2026-01-17 10:14:36.34	335.42	8.42	-45.2	-46.5	17.8	0.00e+00	0	34	0	1794113536	60	4576
2026-01-17 10:14:37.35	335.45	8.34	-45.2	-46.4	17.8	0.00e+00	0	34	0	1797259264	60	4539
2026-01-17 10:14:38.36	335.47	8.26	-45.0	-46.3	18.0	0.00e+00	0	34	0	1800404992	61	4212
2026-01-17 10:14:39.37	335.50	8.18	-45.2	-46.5	17.8	0.00e+00	0	34	0	1803550720	61	4301
2026-01-17 10:14:40.38	335.52	8.10	-45.3	-46.6	17.7	0.00e+00	0	34	0	1806696448	61	4370
2026-01-17 10:14:41.38	335.55	8.02	-45.3	-46.6	17.7	0.00e+00	0	34	0	1809842176	61	4352
2026-01-17 10:14:42.39	335.57	7.94	-45.4	-46.7	17.5	0.00e+00	0	34	0	1812987904	61	4439
2026-01-17 10:14:43.40	335.59	7.86	-45.4	-46.8	17.5	0.00e+00	0	34	0	1816133632	61	4450
2026-01-17 10:14:44.41	335.62	7.78	-45.3	-46.6	17.6	0.00e+00	0	34	0	1819279360	61	4377
2026-01-17 10:14:45.42	335.64	7.70	-45.2	-46.4	17.8	0.00e+00	0	34	0	1822425088	61	4287
2026-01-17 10:14:46.42	335.66	7.62	-45.1	-46.5	17.8	0.00e+00	0	34	0	1825570816	61	4292
2026-01-17 10:14:47.43	335.69	7.55	-45.3	-46.7	17.5	0.00e+00	0	34	0	1828716544	61	4413
2026-01-17 10:14:48.44	335.71	7.47	-45.5	-46.9	17.3	0.00e+00	0	34	0	1831862272	61	4500
2026-01-17 10:14:49.45	335.74	7.39	-45.1	-46.3	17.8	0.00e+00	0	34	0	1835008000	61	4228
2026-01-17 10:14:50.46	335.76	7.31	-45.3	-46.6	17.5	0.00e+00	0	34	0	1838153728	61	4379
2026-01-17 10:14:51.46	335.78	7.24	-45.2	-46.6	17.6	0.00e+00	0	34	0	1841299456	61	4350
2026-01-17 10:14:52.47	335.80	7.16	-45.4	-46.8	17.4	0.00e+00	0	34	0	1844445184	61	4458
2026-01-17 10:14:53.49	335.83	7.08	-45.5	-46.9	17.3	0.00e+00	0	34	0	1847590912	61	4501
2026-01-17 10:14:54.50	335.85	7.00	-45.4	-46.8	17.4	0.00e+00	0	34	0	1850736640	61	4456
2026-01-17 10:14:55.50	335.87	6.93	-45.4	-46.8	17.3	0.00e+00	0	34	0	1853882368	61	4459
2026-01-17 10:14:56.51	335.90	6.85	-45.5	-46.9	17.2	0.00e+00	0	34	0	1857028096	61	4510
2026-01-17 10:14:57.52	335.92	6.77	-45.6	-47.0	17.1	0.00e+00	0	34	0	1860173824	61	4580
2026-01-17 10:14:58.53	335.94	6.70	-45.4	-46.8	17.3	0.00e+00	0	34	0	1863319552	61	4478
2026-01-17 10:14:59.54	335.96	6.62	-45.5	-46.8	17.3	0.00e+00	0	34	0	1866465280	61	4487
2026-01-17 10:15:00.55	335.99	6.55	-45.6	-47.1	17.0	0.00e+00	0	34	0	1869611008	61	4612
2026-01-17 10:15:01.55	336.01	6.47	-45.6	-47.0	17.1	0.00e+00	0	34	0	1872756736	62	4304
2026-01-17 10:15:02.56	336.03	6.40	-45.6	-47.1	17.0	0.00e+00	0	34	0	1875902464	62	4354
2026-01-17 10:15:03.57	336.05	6.32	-45.8	-47.3	16.8	0.00e+00	0	34	0	1879048192	62	4446
2026-01-17 10:15:04.58	336.07	6.25	-45.5	-46.9	17.1	0.00e+00	0	34	0	1882193920	62	4279
2026-01-17 10:15:05.58	336.09	6.17	-45.9	-47.4	16.6	0.00e+00	0	34	0	1885339648	62	4543
2026-01-17 10:15:06.59	336.12	6.10	-45.8	-47.3	16.7	4.50e-06	0	34	0	1888485376	62	4474
2026-01-17 10:15:07.60	336.14	6.03	-45.7	-47.2	16.8	0.00e+00	0	34	0	1891631104	62	4420
2026-01-17 10:15:08.61	336.16	5.95	-45.7	-47.2	16.8	2.20e-06	0	34	0	1894776832	62	4411
2026-01-17 10:15:09.62	336.18	5.88	-46.2	-47.9	16.2	0.00e+00	0	34	0	1897922560	63	4495
2026-01-17 10:15:10.63	336.20	5.81	-45.8	-47.3	16.7	0.00e+00	0	34	0	1901068288	63	4196
2026-01-17 10:15:11.63	336.22	5.73	-45.8	-47.2	16.8	0.00e+00	0	34	0	1904214016	63	4181
2026-01-17 10:15:12.64	336.24	5.66	-46.2	-47.8	16.2	0.00e+00	0	34	0	1907359744	63	4465
2026-01-17 10:15:13.65	336.27	5.59	-46.2	-47.8	16.2	0.00e+00	0	34	0	1910505472	63	4465
2026-01-17 10:15:14.66	336.29	5.51	-46.2	-47.8	16.2	0.00e+00	0	34	0	1913651200	63	4478
2026-01-17 10:15:15.66	336.31	5.44	-46.0	-47.6	16.3	0.00e+00	0	34	0	1916796928	63	4370
2026-01-17 10:15:16.67	336.33	5.37	-46.2	-47.9	16.1	0.00e+00	0	34	0	1919942656	63	4501
2026-01-17 10:15:17.68	336.35	5.30	-46.1	-47.7	16.2	0.00e+00	0	34	0	1923088384	63	4410
2026-01-17 10:15:18.69	336.37	5.23	-46.2	-47.8	16.1	0.00e+00	0	34	0	1926234112	63	4462
2026-01-17 10:15:19.70	336.39	5.15	-46.2	-47.8	16.1	7.00e-07	0	34	0	1929379840	63	4488
2026-01-17 10:15:20.71	336.41	5.08	-46.0	-47.5	16.4	0.00e+00	0	34	0	1932525568	63	4327
2026-01-17 10:15:21.72	336.43	5.01	-50.7	-55.8	8.4	8.30e-06	0	34	0	1935671296	72	6698
2026-01-17 10:15:22.72	336.45	4.94	-52.7	-65.5	3.8	1.49e+00	0	34	104	1936719872	75	17222
2026-01-17 10:15:23.73	336.47	4.87	-53.0	-65.8	3.8	1.49e+00	0	34	104	1936719872	76	16771
2026-01-17 10:15:24.74	336.49	4.80	-53.1	-65.9	3.8	1.49e+00	0	34	104	1936719872	76	17018
2026-01-17 10:15:25.75	336.51	4.73	-53.3	-66.1	3.8	1.49e+00	0	34	104	1936719872	77	16385
2026-01-17 10:15:26.76	336.53	4.66	-53.4	-66.2	3.8	1.49e+00	0	34	104	1936719872	77	16602
2026-01-17 10:15:27.77	336.55	4.59	-53.5	-66.3	3.8	1.49e+00	0	34	104	1936719872	77	16765
2026-01-17 10:15:28.78	336.57	4.52	-53.6	-66.4	3.8	1.49e+00	0	34	104	1936719872	77	16956
2026-01-17 10:15:29.78	336.59	4.45	-53.7	-66.4	3.8	1.49e+00	0	34	104	1936719872	77	17063
2026-01-17 10:15:30.79	336.61	4.38	-53.7	-66.5	3.8	1.49e+00	0	34	104	1936719872	77	17200
2026-01-17 10:15:31.80	336.63	4.31	-53.8	-66.5	3.8	1.49e+00	0	34	104	1936719872	78	16309
2026-01-17 10:15:32.81	336.65	4.24	-53.8	-66.6	3.8	1.49e+00	0	34	104	1936719872	78	16342
2026-01-17 10:15:33.82	336.67	4.17	-53.8	-66.6	3.8	1.49e+00	0	34	104	1936719872	78	16407
2026-01-17 10:15:34.83	336.69	4.10	-53.8	-66.6	3.8	1.49e+00	0	34	104	1936719872	78	16453
2026-01-17 10:15:35.84	336.71	4.03	-53.8	-66.6	3.8	1.49e+00	0	34	104	1936719872	78	16457
2026-01-17 10:15:36.85	336.73	3.97	-53.8	-66.6	3.8	1.49e+00	0	34	104	1936719872	78	16457
2026-01-17 10:15:37.86	336.75	3.90	-53.8	-66.7	3.8	1.49e+00	0	34	104	1936719872	78	16513
2026-01-17 10:15:38.86	336.77	3.83	-53.8	-66.6	3.8	1.49e+00	0	34	104	1936719872	78	16499
2026-01-17 10:15:39.87	336.79	3.76	-53.9	-66.7	3.8	1.49e+00	0	34	104	1936719872	78	16530
2026-01-17 10:15:40.88	336.81	3.69	-53.8	-66.6	3.8	1.49e+00	0	34	104	1936719872	78	16467
2026-01-17 10:15:41.89	336.83	3.63	-53.8	-66.7	3.8	1.49e+00	0	34	104	1936719872	78	16534
2026-01-17 10:15:42.90	336.84	3.56	-53.8	-66.7	3.8	1.49e+00	0	34	104	1936719872	78	16508
2026-01-17 10:15:43.91	336.86	3.49	-53.8	-66.6	3.8	1.49e+00	0	34	104	1936719872	78	16489
2026-01-17 10:15:44.92	336.88	3.42	-53.8	-66.6	3.8	1.49e+00	0	34	104	1936719872	78	16431
2026-01-17 10:15:45.93	336.90	3.36	-53.8	-66.6	3.8	1.49e+00	0	34	104	1936719872	78	16461
