passes_logs/2026/01/17/R3.2S_Murmansk/R3.2S_Murmansk__20260117_095020_FENGYUN_3D_rec.log

#Pass ID: 20260117_095020_FENGYUN 3D
#Satellite: FENGYUN 3D
#Configuration: FENGYUN 3D
#almurnet v.1.7.20251203
#Start time: 2026-01-17 09:50:22

#Version: 2.2.20231116
#Station: R3.2S_Murmansk
#Location: 33.079688 lon 68.888172 lat
#TLE: 1 43010U 17072A   26016.62453405 -.00000112  00000+0 -31355-4 0  9995
#TLE: 2 43010  98.9932 348.4654 0002369 105.3910 254.7528 14.19694900423480

#Time	Az	El	Level	Level2	SNR	BER	BlckErr	Temp	State	Recorded	gain1	gain2
2026-01-17 09:50:22.64	111.75	2.11	-51.9	-63.8	3.8	8.45e-01	0	32	0	0	75	14170
2026-01-17 09:50:23.64	111.72	2.17	-51.9	-63.7	3.8	8.46e-01	0	32	104	0	74	14852
2026-01-17 09:50:24.65	111.68	2.23	-51.9	-63.7	3.8	8.46e-01	0	32	104	0	74	14853
2026-01-17 09:50:25.66	111.64	2.29	-51.9	-63.7	3.8	8.47e-01	0	32	104	0	74	14727
2026-01-17 09:50:26.66	111.61	2.36	-51.9	-63.7	3.8	8.46e-01	0	32	104	0	74	14716
2026-01-17 09:50:27.67	111.57	2.42	-51.9	-63.7	3.8	8.46e-01	0	32	104	0	74	14771
2026-01-17 09:50:28.68	111.53	2.48	-51.9	-63.6	3.8	8.47e-01	0	32	104	0	74	14591
2026-01-17 09:50:29.69	111.49	2.55	-51.9	-63.6	3.8	8.47e-01	0	32	104	0	74	14547
2026-01-17 09:50:30.70	111.45	2.61	-51.9	-63.5	3.8	8.46e-01	0	32	104	0	74	14536
2026-01-17 09:50:31.71	111.41	2.67	-51.9	-63.5	3.8	8.46e-01	0	32	104	0	74	14536
2026-01-17 09:50:32.72	111.37	2.74	-51.9	-63.6	3.8	8.45e-01	0	32	104	0	74	14572
2026-01-17 09:50:33.73	111.33	2.80	-51.9	-63.5	3.8	8.46e-01	0	32	104	0	74	14527
2026-01-17 09:50:34.74	111.30	2.87	-51.9	-63.5	3.8	8.46e-01	0	32	104	0	74	14513
2026-01-17 09:50:35.75	111.26	2.93	-51.9	-63.6	3.8	8.45e-01	0	32	104	0	74	14641
2026-01-17 09:50:36.75	111.22	2.99	-51.9	-63.7	3.8	8.46e-01	0	32	104	0	74	14730
2026-01-17 09:50:37.76	111.18	3.06	-51.9	-63.6	3.8	8.47e-01	0	32	104	0	74	14659
2026-01-17 09:50:38.77	111.14	3.12	-51.9	-63.5	3.8	8.44e-01	0	32	104	0	74	14416
2026-01-17 09:50:39.78	111.10	3.19	-51.9	-63.4	3.8	8.46e-01	0	32	104	0	74	14260
2026-01-17 09:50:40.78	111.06	3.25	-51.9	-63.3	3.8	8.46e-01	0	32	104	0	74	14179
2026-01-17 09:50:41.79	111.02	3.32	-51.8	-63.4	3.8	8.46e-01	0	32	104	0	74	14235
2026-01-17 09:50:42.80	110.97	3.38	-51.9	-63.5	3.8	8.45e-01	0	32	104	0	74	14428
2026-01-17 09:50:43.81	110.93	3.45	-51.9	-63.6	3.8	8.46e-01	0	32	104	0	74	14665
2026-01-17 09:50:44.82	110.89	3.51	-51.9	-63.8	3.8	8.46e-01	0	33	104	0	74	14934
2026-01-17 09:50:45.83	110.85	3.58	-51.9	-63.9	3.8	8.46e-01	0	33	104	0	74	15057
2026-01-17 09:50:46.83	110.81	3.64	-51.9	-63.5	3.8	8.45e-01	0	32	104	0	74	14510
2026-01-17 09:50:47.85	110.77	3.71	-51.8	-62.8	3.8	8.46e-01	0	33	104	0	74	13398
2026-01-17 09:50:48.85	110.73	3.78	-51.7	-61.6	3.8	8.46e-01	0	32	104	0	74	11612
2026-01-17 09:50:49.86	110.68	3.84	-51.6	-60.7	4.1	8.42e-01	0	32	0	0	74	10509
2026-01-17 09:50:50.87	110.64	3.91	-51.3	-58.9	4.7	8.26e-01	0	32	0	0	74	8465
2026-01-17 09:50:51.88	110.60	3.98	-51.1	-57.9	5.2	7.53e-01	0	33	0	0	74	7618
2026-01-17 09:50:52.89	110.56	4.04	-50.9	-57.2	5.7	4.79e-01	0	32	0	2097152	73	7405
2026-01-17 09:50:53.89	110.51	4.11	-50.7	-56.5	6.2	2.95e-01	0	33	0	8388608	73	6815
2026-01-17 09:50:54.90	110.47	4.18	-50.3	-55.2	7.3	1.36e-01	0	33	0	13631488	72	6259
2026-01-17 09:50:55.91	110.43	4.24	-50.3	-55.2	7.4	1.21e-01	0	33	0	18874368	72	6220
2026-01-17 09:50:56.92	110.38	4.31	-50.0	-54.3	8.3	7.07e-02	0	33	0	25165824	71	5958
2026-01-17 09:50:57.93	110.34	4.38	-50.0	-54.3	8.3	7.20e-02	0	32	0	30408704	71	5972
2026-01-17 09:50:58.94	110.29	4.44	-49.8	-53.9	8.8	3.90e-02	0	33	0	35651584	71	5659
2026-01-17 09:50:59.95	110.25	4.51	-49.6	-53.4	9.3	3.83e-02	0	33	0	41943040	71	5356
2026-01-17 09:51:00.96	110.20	4.58	-49.5	-53.3	9.3	2.00e-02	0	33	0	48234496	71	5321
2026-01-17 09:51:01.96	110.16	4.65	-49.5	-53.2	9.5	2.23e-02	0	33	0	53477376	71	5239
2026-01-17 09:51:02.97	110.12	4.72	-49.5	-53.1	9.5	1.57e-02	0	33	0	58720256	70	5528
2026-01-17 09:51:03.98	110.07	4.78	-49.2	-52.7	10.0	1.10e-02	0	33	0	65011712	70	5263
2026-01-17 09:51:04.99	110.02	4.85	-49.3	-52.8	9.9	1.23e-02	0	33	0	70254592	70	5306
2026-01-17 09:51:06.00	109.98	4.92	-49.4	-52.9	9.8	1.06e-02	0	33	0	76546048	70	5387
2026-01-17 09:51:07.01	109.93	4.99	-49.6	-53.5	9.1	2.62e-02	0	33	0	81788928	70	5778
2026-01-17 09:51:08.02	109.89	5.06	-49.8	-53.9	8.8	2.80e-02	0	33	0	87031808	70	6005
2026-01-17 09:51:09.02	109.84	5.13	-47.2	-49.4	13.4	5.18e-04	0	33	0	93323264	66	4513
2026-01-17 09:51:10.03	109.79	5.20	-49.3	-52.6	10.3	4.95e-03	0	33	0	98566144	69	5517
2026-01-17 09:51:11.04	109.75	5.27	-51.6	-61.3	4.0	3.63e-01	0	33	0	102760448	73	11924
2026-01-17 09:51:12.05	109.70	5.34	-46.2	-47.9	15.1	0.00e+00	0	33	0	103809024	63	4540
2026-01-17 09:51:13.06	109.65	5.41	-51.5	-59.7	4.4	4.34e-01	0	33	0	108003328	73	9856
2026-01-17 09:51:14.06	109.61	5.47	-46.3	-48.1	14.9	8.00e-06	0	33	0	112197632	64	4355
2026-01-17 09:51:15.07	109.56	5.54	-46.6	-48.4	14.6	0.00e+00	0	33	0	117440512	64	4530
2026-01-17 09:51:16.08	109.51	5.62	-46.2	-48.0	15.0	2.20e-06	0	33	0	122683392	64	4311
2026-01-17 09:51:17.09	109.46	5.69	-45.6	-47.1	16.0	0.00e+00	0	33	0	128974848	63	4134
2026-01-17 09:51:18.10	109.41	5.76	-45.3	-46.8	16.3	0.00e+00	0	33	0	134217728	62	4235
2026-01-17 09:51:19.11	109.36	5.83	-45.1	-46.6	16.5	0.00e+00	0	33	0	139460608	62	4121
2026-01-17 09:51:20.12	109.31	5.90	-44.8	-46.2	16.9	0.00e+00	0	33	0	145752064	61	4160
2026-01-17 09:51:21.13	109.26	5.97	-44.4	-45.7	17.4	0.00e+00	0	33	0	150994944	60	4167
2026-01-17 09:51:22.14	109.21	6.04	-44.2	-45.5	17.6	0.00e+00	0	33	0	156237824	60	4075
2026-01-17 09:51:23.15	109.17	6.11	-44.1	-45.4	17.8	0.00e+00	0	33	0	162529280	60	4020
2026-01-17 09:51:24.15	109.12	6.18	-44.2	-45.5	17.7	0.00e+00	0	33	0	168820736	60	4078
2026-01-17 09:51:25.16	109.06	6.25	-44.2	-45.4	17.8	0.00e+00	0	33	0	174063616	60	4044
2026-01-17 09:51:26.17	109.01	6.33	-44.1	-45.4	17.8	0.00e+00	0	33	0	179306496	60	4033
2026-01-17 09:51:27.18	108.96	6.40	-44.2	-45.5	17.7	0.00e+00	0	33	0	185597952	60	4069
2026-01-17 09:51:28.18	108.91	6.47	-44.1	-45.3	18.2	0.00e+00	0	33	0	190840832	59	4211
2026-01-17 09:51:29.19	108.86	6.54	-44.4	-45.6	17.9	0.00e+00	0	33	0	197132288	59	4383
2026-01-17 09:51:30.20	108.81	6.62	-44.2	-45.4	18.1	0.00e+00	0	33	0	202375168	59	4287
2026-01-17 09:51:31.21	108.76	6.69	-44.4	-45.7	17.9	0.00e+00	0	33	0	207618048	59	4392
2026-01-17 09:51:32.22	108.70	6.76	-44.5	-45.8	17.7	0.00e+00	0	33	0	213909504	59	4474
2026-01-17 09:51:33.23	108.65	6.84	-44.1	-45.3	18.2	0.00e+00	0	33	0	219152384	59	4234
2026-01-17 09:51:34.24	108.60	6.91	-44.1	-45.4	18.2	0.00e+00	0	33	0	224395264	59	4247
2026-01-17 09:51:35.24	108.55	6.98	-44.1	-45.3	18.3	0.00e+00	0	33	0	230686720	59	4220
2026-01-17 09:51:36.25	108.49	7.06	-44.0	-45.3	18.3	0.00e+00	0	33	0	236978176	59	4203
2026-01-17 09:51:37.26	108.44	7.13	-44.2	-45.4	18.1	0.00e+00	0	33	0	242221056	59	4264
2026-01-17 09:51:38.27	108.39	7.20	-44.3	-45.5	18.0	0.00e+00	0	33	0	247463936	59	4337
2026-01-17 09:51:39.28	108.33	7.28	-44.3	-45.5	18.0	0.00e+00	0	33	0	253755392	59	4338
2026-01-17 09:51:40.29	108.28	7.35	-44.0	-45.2	18.4	0.00e+00	0	33	0	258998272	59	4150
2026-01-17 09:51:41.30	108.22	7.43	-43.9	-45.1	18.4	0.00e+00	0	33	0	264241152	59	4137
2026-01-17 09:51:42.30	108.17	7.50	-44.0	-45.2	18.4	0.00e+00	0	33	0	270532608	59	4146
2026-01-17 09:51:43.31	108.11	7.58	-44.0	-45.2	18.4	0.00e+00	0	33	0	275775488	59	4175
2026-01-17 09:51:44.32	108.06	7.65	-44.1	-45.4	18.2	0.00e+00	0	33	0	282066944	59	4247
2026-01-17 09:51:45.33	108.00	7.73	-43.8	-45.0	18.6	0.00e+00	0	33	0	287309824	59	4075
2026-01-17 09:51:46.34	107.94	7.80	-44.0	-45.2	18.4	0.00e+00	0	33	0	292552704	59	4151
2026-01-17 09:51:47.35	107.89	7.88	-43.7	-44.9	18.7	0.00e+00	0	33	0	298844160	59	4042
2026-01-17 09:51:48.36	107.83	7.96	-43.6	-44.8	18.8	0.00e+00	0	33	0	305135616	59	3987
2026-01-17 09:51:49.36	107.77	8.03	-43.6	-44.8	18.8	0.00e+00	0	33	0	310378496	59	3962
2026-01-17 09:51:50.37	107.71	8.11	-43.5	-44.6	19.0	0.00e+00	0	33	0	315621376	59	3900
2026-01-17 09:51:51.38	107.66	8.18	-43.5	-44.6	19.0	0.00e+00	0	33	0	321912832	58	4121
2026-01-17 09:51:52.39	107.60	8.26	-43.6	-44.7	18.9	0.00e+00	0	33	0	327155712	58	4169
2026-01-17 09:51:53.40	107.54	8.34	-43.3	-44.5	19.1	0.00e+00	0	33	0	332398592	58	4056
2026-01-17 09:51:54.40	107.48	8.42	-43.4	-44.5	19.1	0.00e+00	0	33	0	338690048	58	4069
2026-01-17 09:51:55.41	107.42	8.49	-43.4	-44.5	19.1	0.00e+00	0	33	0	343932928	58	4067
2026-01-17 09:51:56.42	107.36	8.57	-43.3	-44.4	19.2	0.00e+00	0	33	0	349175808	58	4038
2026-01-17 09:51:57.43	107.30	8.65	-43.2	-44.4	19.3	0.00e+00	0	33	0	355467264	58	4006
2026-01-17 09:51:58.44	107.24	8.73	-43.2	-44.3	19.3	0.00e+00	0	33	0	360710144	58	3982
2026-01-17 09:51:59.45	107.18	8.81	-43.1	-44.2	19.4	0.00e+00	0	33	0	367001600	58	3942
2026-01-17 09:52:00.44	107.12	8.88	-43.2	-44.3	19.3	0.00e+00	0	33	0	372244480	58	3969
2026-01-17 09:52:01.45	107.06	8.96	-43.2	-44.3	19.3	0.00e+00	0	33	0	378535936	58	4002
2026-01-17 09:52:02.46	107.00	9.04	-43.4	-44.5	19.1	0.00e+00	0	33	0	383778816	58	4096
2026-01-17 09:52:03.46	106.94	9.12	-43.1	-44.1	19.5	0.00e+00	0	33	0	390070272	58	3911
2026-01-17 09:52:04.47	106.87	9.20	-43.1	-44.2	19.4	0.00e+00	0	33	0	395313152	58	3947
2026-01-17 09:52:05.48	106.81	9.28	-43.2	-44.3	19.4	0.00e+00	0	33	0	400556032	58	3979
2026-01-17 09:52:06.49	106.75	9.36	-43.1	-44.2	19.4	0.00e+00	0	33	0	406847488	58	3933
2026-01-17 09:52:07.50	106.68	9.44	-43.1	-44.2	19.4	0.00e+00	0	33	0	412090368	58	3942
2026-01-17 09:52:08.51	106.62	9.52	-43.2	-44.3	19.4	0.00e+00	0	33	0	417333248	58	3967
2026-01-17 09:52:09.52	106.56	9.60	-43.1	-44.2	19.5	0.00e+00	0	33	0	423624704	58	3938
2026-01-17 09:52:10.53	106.49	9.68	-43.1	-44.1	19.5	0.00e+00	0	34	0	428867584	58	3905
2026-01-17 09:52:11.54	106.43	9.76	-43.1	-44.2	19.5	0.00e+00	0	33	0	434110464	58	3930
2026-01-17 09:52:12.55	106.36	9.84	-43.0	-44.1	19.6	0.00e+00	0	33	0	440401920	58	3884
2026-01-17 09:52:13.55	106.30	9.92	-43.0	-44.1	19.6	0.00e+00	0	33	0	446693376	58	3893
2026-01-17 09:52:14.56	106.23	10.01	-43.1	-44.2	19.5	0.00e+00	0	33	0	451936256	58	3929
2026-01-17 09:52:15.57	106.16	10.09	-43.0	-44.0	19.6	0.00e+00	0	33	0	457179136	58	3862
2026-01-17 09:52:16.58	106.10	10.17	-43.2	-44.2	19.4	0.00e+00	0	33	0	463470592	58	3954
2026-01-17 09:52:17.58	106.03	10.25	-43.0	-44.1	19.5	0.00e+00	0	33	0	468713472	57	4119
2026-01-17 09:52:18.59	105.96	10.33	-42.9	-44.0	19.7	0.00e+00	0	34	0	475004928	57	4073
2026-01-17 09:52:19.60	105.89	10.42	-42.9	-44.0	19.7	0.00e+00	0	34	0	480247808	57	4064
2026-01-17 09:52:20.61	105.83	10.50	-42.9	-43.9	19.8	0.00e+00	0	33	0	485490688	57	4024
2026-01-17 09:52:21.62	105.76	10.58	-42.8	-43.9	19.8	0.00e+00	0	34	0	491782144	57	4014
2026-01-17 09:52:22.63	105.69	10.67	-42.9	-43.9	19.7	0.00e+00	0	33	0	497025024	57	4051
2026-01-17 09:52:23.64	105.62	10.75	-42.9	-43.9	19.7	0.00e+00	0	34	0	502267904	57	4047
2026-01-17 09:52:24.64	105.55	10.83	-42.6	-43.7	20.0	0.00e+00	0	33	0	508559360	57	3917
2026-01-17 09:52:25.65	105.48	10.92	-42.7	-43.7	20.0	0.00e+00	0	34	0	514850816	57	3941
2026-01-17 09:52:26.66	105.41	11.00	-42.8	-43.8	19.9	0.00e+00	0	33	0	520093696	57	3978
2026-01-17 09:52:27.67	105.33	11.09	-42.4	-43.4	20.2	0.00e+00	0	33	0	525336576	56	4051
2026-01-17 09:52:28.68	105.26	11.17	-42.6	-43.6	20.1	0.00e+00	0	33	0	531628032	56	4111
2026-01-17 09:52:29.68	105.19	11.26	-42.5	-43.5	20.2	0.00e+00	0	34	0	536870912	56	4059
2026-01-17 09:52:30.69	105.12	11.34	-42.5	-43.5	20.2	0.00e+00	0	33	0	542113792	56	4060
2026-01-17 09:52:31.70	105.05	11.43	-42.5	-43.6	20.1	0.00e+00	0	33	0	548405248	56	4103
2026-01-17 09:52:32.71	104.97	11.52	-42.7	-43.7	20.0	0.00e+00	0	34	0	553648128	56	4170
2026-01-17 09:52:33.72	104.90	11.60	-42.5	-43.5	20.2	0.00e+00	0	34	0	559939584	56	4092
2026-01-17 09:52:34.73	104.82	11.69	-42.3	-43.3	20.4	0.00e+00	0	34	0	565182464	56	3993
2026-01-17 09:52:35.74	104.75	11.78	-42.3	-43.3	20.4	0.00e+00	0	34	0	570425344	56	3994
2026-01-17 09:52:36.74	104.67	11.86	-42.4	-43.4	20.4	0.00e+00	0	34	0	576716800	56	4009
2026-01-17 09:52:37.75	104.60	11.95	-42.4	-43.4	20.3	0.00e+00	0	33	0	583008256	56	4007
2026-01-17 09:52:38.76	104.52	12.04	-42.3	-43.3	20.4	0.00e+00	0	34	0	588251136	56	3971
2026-01-17 09:52:39.77	104.44	12.12	-42.3	-43.3	20.4	0.00e+00	0	34	0	593494016	56	3969
2026-01-17 09:52:40.78	104.37	12.21	-42.3	-43.3	20.4	0.00e+00	0	33	0	599785472	56	3991
2026-01-17 09:52:41.79	104.29	12.30	-42.2	-43.2	20.5	0.00e+00	0	33	0	605028352	56	3915
2026-01-17 09:52:42.80	104.21	12.39	-42.3	-43.3	20.5	0.00e+00	0	33	0	610271232	56	3968
2026-01-17 09:52:43.80	104.13	12.48	-42.3	-43.3	20.4	0.00e+00	0	33	0	616562688	56	3980
2026-01-17 09:52:44.81	104.05	12.57	-42.1	-43.0	20.7	0.00e+00	0	34	0	621805568	56	3867
2026-01-17 09:52:45.82	103.97	12.66	-42.1	-43.0	20.7	0.00e+00	0	33	0	627048448	56	3860
2026-01-17 09:52:46.83	103.89	12.75	-42.0	-42.9	20.8	0.00e+00	0	34	0	633339904	56	3824
2026-01-17 09:52:47.84	103.81	12.84	-42.1	-43.0	20.7	0.00e+00	0	33	0	638582784	56	3862
2026-01-17 09:52:48.85	103.73	12.93	-41.9	-42.8	20.8	0.00e+00	0	34	0	644874240	55	3985
2026-01-17 09:52:49.85	103.65	13.02	-42.0	-42.9	20.7	0.00e+00	0	34	0	650117120	55	4048
2026-01-17 09:52:50.86	103.57	13.11	-41.9	-42.9	20.7	0.00e+00	0	34	0	656408576	55	4020
2026-01-17 09:52:51.87	103.48	13.20	-41.9	-42.8	20.8	0.00e+00	0	34	0	661651456	55	3986
2026-01-17 09:52:52.88	103.40	13.29	-41.9	-42.8	20.8	0.00e+00	0	34	0	667942912	55	3993
2026-01-17 09:52:53.88	103.32	13.38	-41.9	-42.9	20.8	0.00e+00	0	34	0	673185792	55	4019
2026-01-17 09:52:54.89	103.23	13.47	-42.0	-42.9	20.7	0.00e+00	0	34	0	678428672	55	4049
2026-01-17 09:52:55.90	103.15	13.57	-41.9	-42.8	20.8	0.00e+00	0	34	0	684720128	55	3984
2026-01-17 09:52:56.91	103.06	13.66	-42.0	-43.0	20.7	0.00e+00	0	34	0	689963008	55	4065
2026-01-17 09:52:57.91	102.98	13.75	-41.9	-42.9	20.8	0.00e+00	0	34	0	695205888	55	4026
2026-01-17 09:52:58.92	102.89	13.84	-42.0	-42.9	20.7	0.00e+00	0	34	0	701497344	55	4036
2026-01-17 09:52:59.93	102.80	13.94	-41.9	-42.8	20.8	0.00e+00	0	34	0	706740224	55	3989
2026-01-17 09:53:00.94	102.71	14.03	-41.9	-42.9	20.8	0.00e+00	0	34	0	711983104	55	4028
2026-01-17 09:53:01.95	102.63	14.12	-42.0	-42.9	20.8	0.00e+00	0	34	0	718274560	55	4040
2026-01-17 09:53:02.96	102.54	14.22	-41.9	-42.8	20.9	0.00e+00	0	33	0	724566016	55	3984
2026-01-17 09:53:03.97	102.45	14.31	-42.0	-42.9	20.8	0.00e+00	0	34	0	729808896	55	4044
2026-01-17 09:53:04.98	102.36	14.41	-41.9	-42.9	20.8	0.00e+00	0	33	0	735051776	55	4009
2026-01-17 09:53:05.98	102.27	14.50	-41.8	-42.8	20.9	0.00e+00	0	34	0	741343232	55	3989
2026-01-17 09:53:06.99	102.18	14.60	-41.9	-42.8	20.8	0.00e+00	0	33	0	746586112	55	3996
2026-01-17 09:53:08.00	102.08	14.69	-41.9	-42.8	20.8	0.00e+00	0	33	0	752877568	55	4004
2026-01-17 09:53:09.01	101.99	14.79	-41.9	-42.8	20.9	0.00e+00	0	34	0	758120448	55	3998
2026-01-17 09:53:10.02	101.90	14.89	-41.8	-42.8	20.9	0.00e+00	0	33	0	763363328	55	3970
2026-01-17 09:53:11.03	101.80	14.98	-41.7	-42.7	21.0	0.00e+00	0	34	0	769654784	55	3938
2026-01-17 09:53:12.03	101.71	15.08	-41.7	-42.7	21.0	0.00e+00	0	34	0	774897664	55	3924
2026-01-17 09:53:13.04	101.61	15.18	-41.7	-42.6	21.1	0.00e+00	0	34	0	780140544	55	3900
2026-01-17 09:53:14.05	101.52	15.27	-41.7	-42.7	21.1	0.00e+00	0	34	0	786432000	55	3915
2026-01-17 09:53:15.06	101.42	15.37	-41.6	-42.5	21.2	0.00e+00	0	34	0	792723456	55	3847
2026-01-17 09:53:16.06	101.33	15.47	-41.6	-42.5	21.1	0.00e+00	0	34	0	797966336	55	3868
2026-01-17 09:53:17.07	101.23	15.57	-41.7	-42.6	21.1	0.00e+00	0	34	0	803209216	55	3900
2026-01-17 09:53:18.08	101.13	15.67	-41.8	-42.7	21.0	0.00e+00	0	34	0	809500672	55	3938
2026-01-17 09:53:19.09	101.03	15.77	-41.4	-42.4	21.3	0.00e+00	0	34	0	814743552	54	4013
2026-01-17 09:53:20.10	100.93	15.87	-41.5	-42.4	21.3	0.00e+00	0	34	0	819986432	54	4027
2026-01-17 09:53:21.11	100.83	15.97	-41.4	-42.3	21.4	0.00e+00	0	34	0	826277888	54	3995
2026-01-17 09:53:22.11	100.73	16.07	-41.4	-42.3	21.4	0.00e+00	0	34	0	831520768	54	4000
2026-01-17 09:53:23.12	100.63	16.17	-41.3	-42.2	21.5	0.00e+00	0	33	0	837812224	54	3924
2026-01-17 09:53:24.13	100.53	16.27	-41.3	-42.2	21.5	0.00e+00	0	34	0	843055104	54	3927
2026-01-17 09:53:25.14	100.42	16.37	-41.2	-42.1	21.6	0.00e+00	0	34	0	848297984	54	3893
2026-01-17 09:53:26.14	100.32	16.47	-41.3	-42.2	21.5	0.00e+00	0	34	0	854589440	54	3922
2026-01-17 09:53:27.15	100.22	16.57	-41.1	-42.0	21.7	0.00e+00	0	34	0	860880896	54	3860
2026-01-17 09:53:28.16	100.11	16.67	-41.2	-42.1	21.6	0.00e+00	0	34	0	866123776	54	3876
2026-01-17 09:53:29.17	100.00	16.77	-41.3	-42.1	21.8	0.00e+00	0	34	0	871366656	54	3912
2026-01-17 09:53:30.18	99.90	16.88	-41.1	-41.9	21.9	0.00e+00	0	34	0	877658112	54	3822
2026-01-17 09:53:31.18	99.79	16.98	-40.9	-41.8	22.1	0.00e+00	0	34	0	882900992	53	3970
2026-01-17 09:53:32.19	99.68	17.08	-41.0	-41.8	22.1	0.00e+00	0	33	0	888143872	53	3997
2026-01-17 09:53:33.20	99.57	17.19	-40.9	-41.8	22.1	0.00e+00	0	34	0	894435328	53	3976
2026-01-17 09:53:34.21	99.46	17.29	-41.0	-41.9	22.0	0.00e+00	0	34	0	899678208	53	4008
2026-01-17 09:53:35.22	99.35	17.39	-41.0	-41.8	22.1	0.00e+00	0	33	0	904921088	53	3983
2026-01-17 09:53:36.23	99.24	17.50	-41.0	-41.8	22.1	0.00e+00	0	34	0	911212544	53	3992
2026-01-17 09:53:37.23	99.13	17.60	-41.1	-41.9	22.0	0.00e+00	0	34	0	916455424	53	4023
2026-01-17 09:53:38.24	99.02	17.71	-41.1	-41.9	22.0	0.00e+00	0	34	0	922746880	53	4035
2026-01-17 09:53:39.25	98.90	17.81	-41.0	-41.8	22.1	0.00e+00	0	34	0	927989760	53	3986
2026-01-17 09:53:40.26	98.79	17.92	-41.0	-41.9	22.1	0.00e+00	0	34	0	934281216	53	4007
2026-01-17 09:53:41.26	98.67	18.03	-41.0	-41.8	22.1	0.00e+00	0	34	0	939524096	53	3993
2026-01-17 09:53:42.27	98.56	18.13	-41.0	-41.8	22.1	0.00e+00	0	34	0	944766976	53	3991
2026-01-17 09:53:43.28	98.44	18.24	-40.9	-41.7	22.2	0.00e+00	0	34	0	951058432	53	3951
2026-01-17 09:53:44.29	98.32	18.35	-40.7	-41.5	22.4	0.00e+00	0	34	0	956301312	53	3848
2026-01-17 09:53:45.30	98.20	18.46	-40.8	-41.6	22.3	0.00e+00	0	34	0	962592768	53	3879
2026-01-17 09:53:46.30	98.08	18.56	-40.8	-41.6	22.3	0.00e+00	0	34	0	967835648	53	3898
2026-01-17 09:53:47.31	97.96	18.67	-40.7	-41.5	22.4	0.00e+00	0	34	0	973078528	53	3850
2026-01-17 09:53:48.32	97.84	18.78	-40.7	-41.5	22.4	0.00e+00	0	34	0	979369984	53	3857
2026-01-17 09:53:49.33	97.72	18.89	-40.7	-41.5	22.4	0.00e+00	0	34	0	984612864	53	3852
2026-01-17 09:53:50.34	97.59	19.00	-40.7	-41.5	22.4	0.00e+00	0	34	0	989855744	53	3859
2026-01-17 09:53:51.35	97.47	19.11	-40.7	-41.5	22.5	0.00e+00	0	34	0	996147200	53	3833
2026-01-17 09:53:52.35	97.35	19.22	-40.7	-41.5	22.5	0.00e+00	0	34	0	1002438656	53	3844
2026-01-17 09:53:53.36	97.22	19.33	-40.6	-41.4	22.5	0.00e+00	0	34	0	1007681536	53	3794
2026-01-17 09:53:54.37	97.09	19.44	-40.5	-41.4	22.6	0.00e+00	0	34	0	1012924416	53	3783
2026-01-17 09:53:55.38	96.96	19.55	-40.4	-41.2	22.7	0.00e+00	0	34	0	1019215872	52	3933
2026-01-17 09:53:56.39	96.84	19.66	-40.4	-41.2	22.7	0.00e+00	0	33	0	1024458752	52	3950
2026-01-17 09:53:57.40	96.71	19.77	-40.5	-41.3	22.6	0.00e+00	0	34	0	1030750208	52	3997
2026-01-17 09:53:58.41	96.57	19.88	-40.3	-41.1	22.8	0.00e+00	0	34	0	1035993088	52	3907
2026-01-17 09:53:59.42	96.44	20.00	-40.2	-41.0	23.0	0.00e+00	0	34	0	1041235968	52	3830
2026-01-17 09:54:00.42	96.31	20.11	-40.1	-40.9	23.0	0.00e+00	0	34	0	1047527424	52	3814
2026-01-17 09:54:01.42	96.18	20.22	-40.1	-40.9	23.0	0.00e+00	0	34	0	1052770304	52	3805
2026-01-17 09:54:02.43	96.04	20.33	-40.2	-40.9	23.0	0.00e+00	0	34	0	1058013184	52	3814
2026-01-17 09:54:03.44	95.91	20.45	-40.0	-40.8	23.1	0.00e+00	0	34	0	1064304640	52	3761
2026-01-17 09:54:04.45	95.77	20.56	-40.1	-40.9	23.0	0.00e+00	0	33	0	1070596096	52	3808
2026-01-17 09:54:05.46	95.63	20.68	-40.2	-41.0	23.0	0.00e+00	0	33	0	1075838976	52	3825
2026-01-17 09:54:06.46	95.49	20.79	-40.3	-41.1	22.9	0.00e+00	0	34	0	1081081856	52	3884
2026-01-17 09:54:07.47	95.35	20.91	-40.3	-41.1	22.9	0.00e+00	0	34	0	1087373312	52	3880
2026-01-17 09:54:08.48	95.21	21.02	-40.4	-41.2	22.7	0.00e+00	0	34	0	1092616192	52	3946
2026-01-17 09:54:09.49	95.07	21.14	-40.5	-41.3	22.7	0.00e+00	0	34	0	1097859072	52	3973
2026-01-17 09:54:10.49	94.93	21.25	-40.3	-41.1	22.9	0.00e+00	0	33	0	1104150528	52	3870
2026-01-17 09:54:11.50	94.78	21.37	-40.2	-41.0	23.0	0.00e+00	0	34	0	1109393408	52	3836
2026-01-17 09:54:12.51	94.64	21.49	-40.2	-41.0	22.9	0.00e+00	0	34	0	1115684864	52	3857
2026-01-17 09:54:13.52	94.49	21.60	-40.0	-40.8	23.2	0.00e+00	0	34	0	1120927744	52	3745
2026-01-17 09:54:14.53	94.34	21.72	-39.9	-40.6	23.4	0.00e+00	0	34	0	1126170624	51	3908
2026-01-17 09:54:15.54	94.19	21.84	-39.8	-40.5	23.5	0.00e+00	0	33	0	1132462080	51	3858
2026-01-17 09:54:16.54	94.05	21.96	-39.7	-40.5	23.5	0.00e+00	0	34	0	1138753536	51	3829
2026-01-17 09:54:17.55	93.89	22.08	-39.6	-40.4	23.6	0.00e+00	0	34	0	1143996416	51	3787
2026-01-17 09:54:18.56	93.74	22.19	-39.7	-40.5	23.6	0.00e+00	0	34	0	1149239296	51	3828
2026-01-17 09:54:19.57	93.59	22.31	-39.7	-40.4	23.6	0.00e+00	0	34	0	1155530752	51	3815
2026-01-17 09:54:20.58	93.43	22.43	-39.8	-40.6	23.5	0.00e+00	0	34	0	1160773632	51	3881
2026-01-17 09:54:21.59	93.28	22.55	-39.7	-40.4	23.6	0.00e+00	0	34	0	1166016512	51	3817
2026-01-17 09:54:22.60	93.12	22.67	-39.6	-40.4	23.6	0.00e+00	0	34	0	1172307968	51	3803
2026-01-17 09:54:23.60	92.96	22.79	-39.8	-40.5	23.5	0.00e+00	0	34	0	1177550848	51	3857
2026-01-17 09:54:24.61	92.80	22.91	-39.7	-40.5	23.6	0.00e+00	0	34	0	1182793728	51	3834
2026-01-17 09:54:25.62	92.64	23.04	-39.7	-40.5	23.5	0.00e+00	0	34	0	1189085184	51	3855
2026-01-17 09:54:26.62	92.48	23.16	-39.7	-40.5	23.5	0.00e+00	0	34	0	1194328064	51	3841
2026-01-17 09:54:27.63	92.32	23.28	-39.7	-40.4	23.6	0.00e+00	0	34	0	1200619520	51	3813
2026-01-17 09:54:28.64	92.15	23.40	-39.6	-40.3	23.7	0.00e+00	0	34	0	1205862400	51	3766
2026-01-17 09:54:29.65	91.99	23.52	-39.6	-40.4	23.6	0.00e+00	0	34	0	1212153856	51	3807
2026-01-17 09:54:30.66	91.82	23.65	-39.7	-40.5	23.6	0.00e+00	0	34	0	1217396736	51	3836
2026-01-17 09:54:31.66	91.65	23.77	-39.7	-40.5	23.6	0.00e+00	0	34	0	1223688192	51	3829
2026-01-17 09:54:32.67	91.48	23.89	-39.7	-40.5	23.6	0.00e+00	0	34	0	1228931072	51	3846
2026-01-17 09:54:33.68	91.31	24.01	-39.8	-40.5	23.5	0.00e+00	0	34	0	1234173952	51	3868
2026-01-17 09:54:34.69	91.14	24.14	-39.7	-40.5	23.6	0.00e+00	0	34	0	1240465408	51	3846
2026-01-17 09:54:35.70	90.96	24.26	-39.7	-40.5	23.5	0.00e+00	0	34	0	1245708288	51	3847
2026-01-17 09:54:36.70	90.79	24.39	-39.6	-40.4	23.7	0.00e+00	0	34	0	1250951168	51	3787
2026-01-17 09:54:37.71	90.61	24.51	-39.7	-40.5	23.6	0.00e+00	0	34	0	1257242624	51	3829
2026-01-17 09:54:38.72	90.43	24.64	-39.7	-40.4	23.7	0.00e+00	0	33	0	1262485504	51	3819
2026-01-17 09:54:39.73	90.25	24.76	-39.5	-40.2	23.9	0.00e+00	0	34	0	1267728384	51	3725
2026-01-17 09:54:40.74	90.07	24.89	-39.5	-40.2	23.8	0.00e+00	0	34	0	1274019840	50	3942
2026-01-17 09:54:41.74	89.89	25.01	-39.6	-40.3	23.7	0.00e+00	0	34	0	1280311296	50	4002
2026-01-17 09:54:42.75	89.70	25.14	-39.5	-40.3	23.8	0.00e+00	0	34	0	1285554176	50	3961
2026-01-17 09:54:43.76	89.52	25.27	-39.4	-40.2	23.9	0.00e+00	0	34	0	1290797056	50	3918
2026-01-17 09:54:44.77	89.33	25.39	-39.6	-40.3	23.8	0.00e+00	0	34	0	1297088512	50	3977
2026-01-17 09:54:45.78	89.14	25.52	-39.5	-40.3	23.8	0.00e+00	0	34	0	1302331392	50	3962
2026-01-17 09:54:46.79	88.95	25.65	-39.5	-40.3	23.8	0.00e+00	0	34	0	1308622848	50	3960
2026-01-17 09:54:47.80	88.76	25.78	-39.6	-40.3	23.8	0.00e+00	0	34	0	1313865728	50	4001
2026-01-17 09:54:48.81	88.56	25.90	-39.6	-40.3	23.8	0.00e+00	0	34	0	1319108608	50	3975
2026-01-17 09:54:49.81	88.37	26.03	-39.6	-40.3	23.7	0.00e+00	0	34	0	1325400064	50	3994
2026-01-17 09:54:50.82	88.17	26.16	-39.5	-40.3	23.8	0.00e+00	0	34	0	1330642944	50	3966
2026-01-17 09:54:51.83	87.97	26.29	-39.7	-40.4	23.7	0.00e+00	0	33	0	1335885824	50	4042
2026-01-17 09:54:52.84	87.77	26.42	-39.4	-40.2	23.9	0.00e+00	0	34	0	1342177280	50	3927
2026-01-17 09:54:53.84	87.57	26.55	-39.4	-40.1	23.9	0.00e+00	0	34	0	1348468736	50	3910
2026-01-17 09:54:54.85	87.37	26.67	-39.4	-40.2	23.9	0.00e+00	0	34	0	1353711616	50	3933
2026-01-17 09:54:55.86	87.17	26.80	-39.5	-40.2	23.9	0.00e+00	0	34	0	1358954496	50	3952
2026-01-17 09:54:56.87	86.96	26.93	-39.4	-40.2	23.9	0.00e+00	0	34	0	1365245952	50	3917
2026-01-17 09:54:57.88	86.75	27.06	-39.5	-40.2	23.9	0.00e+00	0	34	0	1370488832	50	3955
2026-01-17 09:54:58.89	86.54	27.19	-39.6	-40.4	23.7	0.00e+00	0	34	0	1375731712	50	4019
2026-01-17 09:54:59.90	86.33	27.32	-39.6	-40.3	23.8	0.00e+00	0	34	0	1382023168	50	3985
2026-01-17 09:55:00.90	86.12	27.45	-39.4	-40.2	23.9	0.00e+00	0	34	0	1387266048	50	3924
2026-01-17 09:55:01.91	85.90	27.58	-39.4	-40.1	24.0	0.00e+00	0	34	0	1393557504	50	3909
2026-01-17 09:55:02.92	85.68	27.72	-39.5	-40.2	23.9	0.00e+00	0	34	0	1398800384	50	3951
2026-01-17 09:55:03.93	85.46	27.85	-39.3	-40.0	24.1	0.00e+00	0	34	0	1404043264	50	3854
2026-01-17 09:55:04.94	85.24	27.98	-39.3	-40.0	24.0	0.00e+00	0	34	0	1410334720	50	3867
2026-01-17 09:55:05.94	85.02	28.11	-39.4	-40.1	24.0	0.00e+00	0	34	0	1416626176	50	3912
2026-01-17 09:55:06.95	84.80	28.24	-39.4	-40.1	24.0	0.00e+00	0	34	0	1421869056	50	3893
2026-01-17 09:55:07.96	84.57	28.37	-39.5	-40.2	23.9	0.00e+00	0	34	0	1427111936	50	3933
2026-01-17 09:55:08.97	84.34	28.50	-39.5	-40.3	23.9	0.00e+00	0	34	0	1433403392	50	3962
2026-01-17 09:55:09.98	84.11	28.63	-39.7	-40.4	23.7	0.00e+00	0	34	0	1438646272	50	4038
2026-01-17 09:55:10.98	83.88	28.77	-39.5	-40.3	23.9	0.00e+00	0	34	0	1443889152	50	3974
2026-01-17 09:55:11.99	83.65	28.90	-39.5	-40.3	23.9	0.00e+00	0	34	0	1450180608	50	3983
2026-01-17 09:55:13.00	83.41	29.03	-39.6	-40.3	23.8	0.00e+00	0	34	0	1455423488	50	3988
2026-01-17 09:55:14.01	83.17	29.16	-39.4	-40.1	24.0	0.00e+00	0	34	0	1460666368	50	3894
2026-01-17 09:55:15.02	82.93	29.29	-39.1	-39.8	24.3	0.00e+00	0	34	0	1466957824	50	3764
2026-01-17 09:55:16.03	82.69	29.43	-39.2	-39.9	24.2	0.00e+00	0	34	0	1472200704	50	3812
2026-01-17 09:55:17.03	82.45	29.56	-39.2	-39.9	24.2	0.00e+00	0	34	0	1478492160	50	3815
2026-01-17 09:55:18.04	82.20	29.69	-39.0	-39.7	24.4	0.00e+00	0	34	0	1483735040	50	3726
2026-01-17 09:55:19.05	81.95	29.82	-39.1	-39.8	24.3	0.00e+00	0	34	0	1490026496	50	3750
2026-01-17 09:55:20.06	81.70	29.95	-39.1	-39.8	24.3	0.00e+00	0	34	0	1495269376	50	3758
2026-01-17 09:55:21.07	81.45	30.09	-39.2	-39.9	24.2	0.00e+00	0	34	0	1501560832	50	3815
2026-01-17 09:55:22.07	81.20	30.22	-39.2	-39.9	24.2	0.00e+00	0	34	0	1506803712	50	3824
2026-01-17 09:55:23.08	80.94	30.35	-39.2	-39.9	24.2	0.00e+00	0	34	0	1512046592	50	3797
2026-01-17 09:55:24.09	80.68	30.48	-39.3	-40.0	24.2	0.00e+00	0	34	0	1518338048	50	3838
2026-01-17 09:55:25.10	80.42	30.61	-39.0	-39.7	24.4	0.00e+00	0	34	0	1523580928	50	3726
2026-01-17 09:55:26.11	80.16	30.75	-38.9	-39.6	24.5	0.00e+00	0	34	0	1528823808	49	3892
2026-01-17 09:55:27.12	79.89	30.88	-39.1	-39.8	24.3	0.00e+00	0	34	0	1535115264	49	3981
2026-01-17 09:55:28.13	79.63	31.01	-38.9	-39.7	24.4	0.00e+00	0	34	0	1540358144	49	3920
2026-01-17 09:55:29.14	79.36	31.14	-39.0	-39.8	24.3	0.00e+00	0	34	0	1545601024	49	3968
2026-01-17 09:55:30.15	79.08	31.27	-39.1	-39.9	24.3	0.00e+00	0	34	0	1551892480	49	4010
2026-01-17 09:55:31.15	78.81	31.40	-38.9	-39.7	24.4	0.00e+00	0	34	0	1558183936	49	3916
2026-01-17 09:55:32.16	78.54	31.53	-39.0	-39.7	24.4	0.00e+00	0	34	0	1563426816	49	3955
2026-01-17 09:55:33.17	78.26	31.67	-39.1	-39.8	24.3	0.00e+00	0	34	0	1568669696	49	3974
2026-01-17 09:55:34.18	77.98	31.80	-39.0	-39.7	24.4	0.00e+00	0	34	0	1574961152	49	3940
2026-01-17 09:55:35.18	77.70	31.93	-38.9	-39.6	24.5	0.00e+00	0	34	0	1580204032	49	3886
2026-01-17 09:55:36.19	77.41	32.06	-39.0	-39.7	24.4	0.00e+00	0	34	0	1586495488	49	3936
2026-01-17 09:55:37.20	77.12	32.19	-39.0	-39.7	24.4	0.00e+00	0	34	0	1591738368	49	3957
2026-01-17 09:55:38.21	76.83	32.32	-38.9	-39.6	24.5	0.00e+00	0	34	0	1596981248	49	3913
2026-01-17 09:55:39.22	76.54	32.45	-38.9	-39.6	24.5	0.00e+00	0	34	0	1603272704	49	3906
2026-01-17 09:55:40.22	76.25	32.57	-38.9	-39.6	24.5	0.00e+00	0	34	0	1608515584	49	3892
2026-01-17 09:55:41.23	75.95	32.70	-38.6	-39.3	24.7	0.00e+00	0	34	0	1613758464	49	3775
2026-01-17 09:55:42.24	75.65	32.83	-38.6	-39.3	24.7	0.00e+00	0	34	0	1620049920	49	3776
2026-01-17 09:55:43.25	75.35	32.96	-38.6	-39.3	24.8	0.00e+00	0	34	0	1626341376	49	3740
2026-01-17 09:55:44.26	75.05	33.09	-38.7	-39.4	24.7	0.00e+00	0	34	0	1631584256	49	3793
2026-01-17 09:55:45.26	74.74	33.22	-38.7	-39.4	24.7	0.00e+00	0	34	0	1636827136	49	3811
2026-01-17 09:55:46.27	74.43	33.34	-38.7	-39.5	24.6	0.00e+00	0	33	0	1643118592	49	3830
2026-01-17 09:55:47.28	74.12	33.47	-38.7	-39.5	24.7	0.00e+00	0	34	0	1648361472	49	3827
2026-01-17 09:55:48.29	73.81	33.60	-38.5	-39.2	24.9	0.00e+00	0	34	0	1653604352	49	3696
2026-01-17 09:55:49.30	73.49	33.72	-38.4	-39.1	24.9	0.00e+00	0	34	0	1659895808	48	3902
2026-01-17 09:55:50.30	73.18	33.85	-38.5	-39.2	24.9	0.00e+00	0	34	0	1665138688	48	3941
2026-01-17 09:55:51.31	72.85	33.97	-38.6	-39.3	24.8	0.00e+00	0	34	0	1671430144	48	3998
2026-01-17 09:55:52.32	72.53	34.09	-38.6	-39.3	24.8	0.00e+00	0	34	0	1676673024	48	3991
2026-01-17 09:55:53.33	72.20	34.22	-38.6	-39.3	24.8	0.00e+00	0	34	0	1681915904	48	3973
2026-01-17 09:55:54.34	71.87	34.34	-38.6	-39.3	24.8	0.00e+00	0	34	0	1688207360	48	3988
2026-01-17 09:55:55.34	71.55	34.46	-38.5	-39.2	24.9	0.00e+00	0	34	0	1694498816	48	3938
2026-01-17 09:55:56.35	71.21	34.59	-38.7	-39.4	24.7	0.00e+00	0	34	0	1699741696	48	4037
2026-01-17 09:55:57.36	70.88	34.71	-38.8	-39.5	24.6	0.00e+00	0	34	0	1704984576	48	4066
2026-01-17 09:55:58.37	70.54	34.83	-38.5	-39.2	24.9	0.00e+00	0	34	0	1711276032	48	3951
2026-01-17 09:55:59.38	70.20	34.95	-38.7	-39.4	24.7	0.00e+00	0	34	0	1716518912	48	4020
2026-01-17 09:56:00.38	69.86	35.07	-38.8	-39.5	24.7	0.00e+00	0	34	0	1721761792	48	4065
2026-01-17 09:56:01.39	69.51	35.18	-39.0	-39.7	24.5	0.00e+00	0	34	0	1728053248	48	4169
2026-01-17 09:56:02.40	69.16	35.30	-39.1	-39.9	24.3	0.00e+00	0	34	0	1733296128	48	4255
2026-01-17 09:56:03.41	68.81	35.42	-39.1	-39.8	24.3	0.00e+00	0	34	0	1738539008	48	4227
2026-01-17 09:56:04.42	68.45	35.53	-39.1	-39.8	24.3	0.00e+00	0	34	0	1744830464	48	4211
2026-01-17 09:56:05.42	68.10	35.65	-39.1	-39.8	24.4	0.00e+00	0	34	0	1750073344	48	4218
2026-01-17 09:56:06.43	67.74	35.76	-39.0	-39.7	24.5	0.00e+00	0	34	0	1756364800	48	4174
2026-01-17 09:56:07.44	67.38	35.88	-38.8	-39.5	24.6	0.00e+00	0	34	0	1761607680	48	4083
2026-01-17 09:56:08.45	67.02	35.99	-38.7	-39.4	24.7	0.00e+00	0	34	0	1767899136	48	4048
2026-01-17 09:56:09.46	66.65	36.10	-38.7	-39.4	24.7	0.00e+00	0	34	0	1773142016	48	4040
2026-01-17 09:56:10.46	66.28	36.21	-38.6	-39.3	24.8	0.00e+00	0	34	0	1779433472	48	4001
2026-01-17 09:56:11.47	65.91	36.32	-38.3	-39.0	25.0	0.00e+00	0	34	0	1784676352	48	3862
2026-01-17 09:56:12.48	65.54	36.43	-38.6	-39.3	24.8	0.00e+00	0	34	0	1789919232	48	3989
2026-01-17 09:56:13.49	65.16	36.54	-38.8	-39.5	24.7	0.00e+00	0	34	0	1796210688	48	4064
2026-01-17 09:56:14.50	64.78	36.64	-38.9	-39.6	24.6	0.00e+00	0	34	0	1801453568	48	4114
2026-01-17 09:56:15.50	64.40	36.75	-38.8	-39.5	24.7	0.00e+00	0	34	0	1806696448	48	4065
2026-01-17 09:56:16.51	64.02	36.85	-38.8	-39.5	24.6	0.00e+00	0	34	0	1812987904	48	4098
2026-01-17 09:56:17.52	63.63	36.96	-38.7	-39.4	24.7	0.00e+00	0	34	0	1818230784	48	4025
2026-01-17 09:56:18.53	63.24	37.06	-38.7	-39.4	24.7	0.00e+00	0	34	0	1823473664	48	4036
2026-01-17 09:56:19.54	62.85	37.16	-38.7	-39.4	24.8	0.00e+00	0	34	0	1829765120	48	4026
2026-01-17 09:56:20.55	62.46	37.26	-38.9	-39.6	24.6	0.00e+00	0	34	0	1836056576	48	4123
2026-01-17 09:56:21.56	62.06	37.36	-39.1	-39.9	24.3	0.00e+00	0	34	0	1841299456	48	4258
2026-01-17 09:56:22.56	61.67	37.45	-39.1	-39.9	24.4	0.00e+00	0	34	0	1846542336	48	4243
2026-01-17 09:56:23.57	61.27	37.55	-38.9	-39.6	24.6	0.00e+00	0	34	0	1852833792	48	4118
2026-01-17 09:56:24.58	60.86	37.64	-38.7	-39.4	24.7	0.00e+00	0	34	0	1858076672	48	4034
2026-01-17 09:56:25.59	60.46	37.74	-38.7	-39.4	24.8	0.00e+00	0	34	0	1864368128	48	4025
2026-01-17 09:56:26.60	60.05	37.83	-38.6	-39.3	24.9	0.00e+00	0	34	0	1869611008	48	3959
2026-01-17 09:56:27.60	59.64	37.92	-38.6	-39.3	24.8	0.00e+00	0	34	0	1874853888	48	3996
2026-01-17 09:56:28.61	59.23	38.01	-38.5	-39.2	24.9	0.00e+00	0	34	0	1881145344	48	3955
2026-01-17 09:56:29.62	58.81	38.09	-38.6	-39.3	24.8	0.00e+00	0	34	0	1886388224	48	3979
2026-01-17 09:56:30.63	58.40	38.18	-38.5	-39.2	24.9	0.00e+00	0	34	0	1891631104	48	3950
2026-01-17 09:56:31.64	57.98	38.26	-38.5	-39.2	24.9	0.00e+00	0	34	0	1897922560	48	3954
2026-01-17 09:56:32.65	57.56	38.35	-38.8	-39.5	24.7	0.00e+00	0	34	0	1904214016	48	4066
2026-01-17 09:56:33.66	57.13	38.43	-38.9	-39.6	24.6	0.00e+00	0	34	0	1909456896	48	4119
2026-01-17 09:56:34.67	56.71	38.51	-38.8	-39.5	24.7	0.00e+00	0	34	0	1914699776	48	4074
2026-01-17 09:56:35.68	56.28	38.58	-38.8	-39.5	24.6	0.00e+00	0	34	0	1920991232	48	4097
2026-01-17 09:56:36.69	55.85	38.66	-38.6	-39.3	24.8	0.00e+00	0	34	0	1926234112	48	3997
2026-01-17 09:56:37.69	55.42	38.73	-38.7	-39.4	24.8	0.00e+00	0	34	0	1931476992	48	4029
2026-01-17 09:56:38.70	54.99	38.81	-38.7	-39.4	24.8	0.00e+00	0	34	0	1937768448	48	4041
2026-01-17 09:56:39.71	54.55	38.88	-38.7	-39.4	24.8	0.00e+00	0	34	0	1943011328	48	4027
2026-01-17 09:56:40.72	54.11	38.95	-38.6	-39.3	24.9	0.00e+00	0	34	0	1949302784	48	3992
2026-01-17 09:56:41.73	53.67	39.02	-38.5	-39.2	24.9	0.00e+00	0	34	0	1954545664	48	3944
2026-01-17 09:56:42.74	53.23	39.08	-38.7	-39.4	24.8	0.00e+00	0	34	0	1959788544	48	4017
2026-01-17 09:56:43.74	52.79	39.14	-38.9	-39.6	24.6	0.00e+00	0	34	0	1966080000	48	4108
2026-01-17 09:56:44.75	52.35	39.21	-38.9	-39.6	24.6	0.00e+00	0	34	0	1972371456	48	4120
2026-01-17 09:56:45.76	51.90	39.27	-38.8	-39.5	24.7	0.00e+00	0	34	0	1977614336	48	4066
2026-01-17 09:56:46.77	51.46	39.33	-38.8	-39.5	24.7	0.00e+00	0	34	0	1982857216	48	4098
2026-01-17 09:56:47.78	51.01	39.38	-38.7	-39.4	24.8	0.00e+00	0	34	0	1989148672	48	4012
2026-01-17 09:56:48.78	50.56	39.44	-38.6	-39.3	24.9	0.00e+00	0	34	0	1994391552	48	3983
2026-01-17 09:56:49.79	50.11	39.49	-38.6	-39.3	24.9	0.00e+00	0	34	0	1999634432	48	3970
2026-01-17 09:56:50.80	49.65	39.54	-38.6	-39.3	24.9	0.00e+00	0	34	0	2005925888	48	3962
2026-01-17 09:56:51.81	49.20	39.59	-38.6	-39.3	24.9	0.00e+00	0	34	0	2011168768	48	3982
2026-01-17 09:56:52.82	48.74	39.63	-38.8	-39.5	24.7	0.00e+00	0	34	0	2016411648	48	4068
2026-01-17 09:56:53.82	48.29	39.68	-39.0	-39.7	24.5	0.00e+00	0	34	0	2022703104	48	4166
2026-01-17 09:56:54.83	47.83	39.72	-39.0	-39.7	24.6	0.00e+00	0	34	0	2027945984	48	4167
2026-01-17 09:56:55.84	47.37	39.76	-39.0	-39.8	24.5	0.00e+00	0	34	0	2034237440	48	4200
2026-01-17 09:56:56.85	46.90	39.80	-39.1	-39.8	24.4	0.00e+00	0	34	0	2039480320	48	4215
2026-01-17 09:56:57.86	46.44	39.84	-39.0	-39.7	24.5	0.00e+00	0	34	0	2045771776	48	4173
2026-01-17 09:56:58.87	45.98	39.87	-39.0	-39.7	24.5	0.00e+00	0	34	0	2051014656	48	4170
2026-01-17 09:56:59.88	45.51	39.90	-38.9	-39.7	24.5	0.00e+00	0	34	0	2057306112	48	4158
2026-01-17 09:57:00.88	45.05	39.93	-38.7	-39.4	24.8	0.00e+00	0	34	0	2062548992	48	4019
2026-01-17 09:57:01.89	44.59	39.96	-38.6	-39.3	24.9	0.00e+00	0	34	0	2067791872	48	3993
2026-01-17 09:57:02.90	44.12	39.99	-38.8	-39.6	24.7	0.00e+00	0	34	0	2074083328	48	4104
2026-01-17 09:57:03.91	43.65	40.01	-38.8	-39.5	24.7	0.00e+00	0	33	0	2079326208	48	4075
2026-01-17 09:57:04.92	43.18	40.03	-38.8	-39.5	24.7	0.00e+00	0	34	0	2084569088	48	4080
2026-01-17 09:57:05.92	42.72	40.05	-38.7	-39.4	24.8	0.00e+00	0	34	0	2090860544	48	4037
2026-01-17 09:57:06.93	42.25	40.07	-38.8	-39.5	24.7	0.00e+00	0	34	0	2096103424	48	4080
2026-01-17 09:57:07.94	41.78	40.08	-38.7	-39.4	24.8	0.00e+00	0	34	0	2101346304	48	4050
2026-01-17 09:57:08.95	41.31	40.10	-38.7	-39.4	24.8	0.00e+00	0	34	0	2107637760	48	4037
2026-01-17 09:57:09.96	40.84	40.11	-38.6	-39.3	24.9	0.00e+00	0	34	0	2113929216	48	3983
2026-01-17 09:57:10.96	40.37	40.12	-38.5	-39.2	25.0	0.00e+00	0	34	0	2119172096	48	3954
2026-01-17 09:57:11.97	39.90	40.12	-38.4	-39.1	25.1	0.00e+00	0	34	0	2124414976	48	3875
2026-01-17 09:57:12.98	39.43	40.13	-38.3	-39.0	25.2	0.00e+00	0	34	0	2130706432	48	3854
2026-01-17 09:57:13.99	38.96	40.13	-38.4	-39.1	25.1	0.00e+00	0	34	0	2135949312	48	3884
2026-01-17 09:57:15.00	38.48	40.13	-38.5	-39.2	25.0	0.00e+00	0	34	0	2142240768	48	3950
2026-01-17 09:57:16.00	38.02	40.13	-38.6	-39.3	24.9	0.00e+00	0	34	0	2147483648	48	3997
2026-01-17 09:57:17.01	37.55	40.12	-38.4	-39.1	25.1	0.00e+00	0	34	0	2152726528	48	3885
2026-01-17 09:57:18.02	37.07	40.11	-38.5	-39.2	25.0	0.00e+00	0	34	0	2159017984	48	3929
2026-01-17 09:57:19.03	36.60	40.10	-38.5	-39.2	25.0	0.00e+00	0	34	0	2164260864	48	3945
2026-01-17 09:57:20.04	36.13	40.09	-38.6	-39.3	24.9	0.00e+00	0	34	0	2169503744	48	3988
2026-01-17 09:57:21.05	35.66	40.08	-38.8	-39.5	24.8	0.00e+00	0	34	0	2175795200	48	4064
2026-01-17 09:57:22.06	35.19	40.06	-38.5	-39.2	25.0	0.00e+00	0	34	0	2182086656	48	3932
2026-01-17 09:57:23.06	34.73	40.05	-38.5	-39.2	25.0	0.00e+00	0	34	0	2187329536	48	3932
2026-01-17 09:57:24.07	34.26	40.03	-38.5	-39.2	25.0	0.00e+00	0	34	0	2192572416	48	3936
2026-01-17 09:57:25.08	33.79	40.00	-38.5	-39.2	25.0	0.00e+00	0	34	0	2198863872	48	3947
2026-01-17 09:57:26.09	33.32	39.98	-38.4	-39.1	25.0	0.00e+00	0	34	0	2204106752	48	3900
2026-01-17 09:57:27.10	32.86	39.95	-38.5	-39.1	25.0	0.00e+00	0	34	0	2209349632	48	3909
2026-01-17 09:57:28.11	32.39	39.92	-38.5	-39.1	25.0	0.00e+00	0	34	0	2215641088	48	3912
2026-01-17 09:57:29.11	31.93	39.89	-38.3	-39.0	25.2	0.00e+00	0	34	0	2220883968	48	3848
2026-01-17 09:57:30.12	31.47	39.86	-38.4	-39.1	25.1	0.00e+00	0	34	0	2227175424	48	3890
2026-01-17 09:57:31.13	31.00	39.83	-38.4	-39.1	25.0	0.00e+00	0	34	0	2232418304	48	3885
2026-01-17 09:57:32.14	30.54	39.79	-38.4	-39.1	25.1	0.00e+00	0	34	0	2237661184	48	3872
2026-01-17 09:57:33.15	30.08	39.75	-38.4	-39.0	25.1	0.00e+00	0	34	0	2243952640	48	3867
2026-01-17 09:57:34.16	29.62	39.71	-38.4	-39.1	25.1	0.00e+00	0	34	0	2250244096	48	3873
2026-01-17 09:57:35.16	29.17	39.67	-38.4	-39.2	25.0	0.00e+00	0	34	0	2255486976	48	3915
2026-01-17 09:57:36.17	28.71	39.62	-38.4	-39.1	25.1	0.00e+00	0	34	0	2260729856	48	3887
2026-01-17 09:57:37.18	28.25	39.57	-38.5	-39.2	25.0	0.00e+00	0	34	0	2267021312	48	3941
2026-01-17 09:57:38.19	27.80	39.52	-38.5	-39.2	25.0	0.00e+00	0	34	0	2272264192	48	3948
2026-01-17 09:57:39.20	27.34	39.47	-38.5	-39.2	25.0	0.00e+00	0	34	0	2277507072	48	3928
2026-01-17 09:57:40.21	26.89	39.42	-38.6	-39.3	24.9	0.00e+00	0	34	0	2283798528	48	3984
2026-01-17 09:57:41.22	26.44	39.36	-38.7	-39.4	24.8	0.00e+00	0	34	0	2289041408	48	4021
2026-01-17 09:57:42.23	25.99	39.31	-38.5	-39.2	25.0	0.00e+00	0	34	0	2294284288	48	3929
2026-01-17 09:57:43.24	25.55	39.25	-38.3	-39.0	25.2	0.00e+00	0	34	0	2300575744	48	3863
2026-01-17 09:57:44.25	25.10	39.19	-38.4	-39.0	25.1	0.00e+00	0	34	0	2306867200	48	3867
2026-01-17 09:57:45.25	24.66	39.12	-38.3	-39.0	25.2	0.00e+00	0	34	0	2312110080	48	3860
2026-01-17 09:57:46.26	24.22	39.06	-38.3	-39.0	25.2	0.00e+00	0	34	0	2317352960	48	3847
2026-01-17 09:57:47.27	23.78	38.99	-38.2	-38.9	25.3	0.00e+00	0	34	0	2323644416	48	3809
2026-01-17 09:57:48.28	23.34	38.93	-38.3	-39.0	25.2	0.00e+00	0	34	0	2328887296	48	3827
2026-01-17 09:57:49.29	22.90	38.86	-38.0	-38.7	25.4	0.00e+00	0	34	0	2335178752	48	3726
2026-01-17 09:57:50.30	22.47	38.78	-38.1	-38.8	25.3	0.00e+00	0	34	0	2340421632	48	3768
2026-01-17 09:57:51.31	22.03	38.71	-38.3	-39.0	25.2	0.00e+00	0	34	0	2345664512	48	3849
2026-01-17 09:57:52.32	21.60	38.64	-38.3	-39.0	25.2	0.00e+00	0	34	0	2351955968	48	3859
2026-01-17 09:57:53.32	21.18	38.56	-38.4	-39.1	25.1	0.00e+00	0	34	0	2357198848	48	3881
2026-01-17 09:57:54.33	20.75	38.48	-38.6	-39.3	25.0	0.00e+00	0	34	0	2362441728	48	3973
2026-01-17 09:57:55.34	20.33	38.40	-38.6	-39.3	24.9	0.00e+00	0	34	0	2368733184	48	4004
2026-01-17 09:57:56.35	19.91	38.32	-38.4	-39.1	25.1	0.00e+00	0	34	0	2375024640	48	3897
2026-01-17 09:57:57.36	19.49	38.24	-38.3	-39.0	25.2	0.00e+00	0	34	0	2380267520	48	3835
2026-01-17 09:57:58.37	19.07	38.15	-38.2	-38.9	25.3	0.00e+00	0	34	0	2385510400	48	3792
2026-01-17 09:57:59.38	18.65	38.07	-37.7	-38.4	25.3	0.00e+00	0	34	0	2391801856	47	3791
2026-01-17 09:58:00.39	18.24	37.98	-37.8	-38.5	25.1	0.00e+00	0	34	0	2397044736	47	3848
2026-01-17 09:58:01.40	17.83	37.89	-37.8	-38.5	25.1	0.00e+00	0	34	0	2402287616	47	3858
2026-01-17 09:58:02.40	17.42	37.80	-37.8	-38.5	25.1	0.00e+00	0	34	0	2408579072	47	3866
2026-01-17 09:58:03.41	17.01	37.71	-38.0	-38.7	25.0	0.00e+00	0	34	0	2413821952	47	3925
2026-01-17 09:58:04.42	16.61	37.61	-37.8	-38.5	25.2	0.00e+00	0	34	0	2420113408	47	3825
2026-01-17 09:58:05.43	16.21	37.52	-37.8	-38.5	25.1	0.00e+00	0	34	0	2425356288	47	3848
2026-01-17 09:58:06.43	15.81	37.42	-38.0	-38.7	25.0	0.00e+00	0	34	0	2430599168	47	3940
2026-01-17 09:58:07.44	15.41	37.33	-38.1	-38.8	24.9	0.00e+00	0	34	0	2436890624	47	3983
2026-01-17 09:58:08.45	15.02	37.23	-38.1	-38.9	24.8	0.00e+00	0	34	0	2443182080	47	4007
2026-01-17 09:58:09.46	14.63	37.13	-38.1	-38.8	24.9	0.00e+00	0	34	0	2448424960	47	4003
2026-01-17 09:58:10.47	14.24	37.03	-38.3	-39.0	24.7	0.00e+00	0	34	0	2453667840	47	4062
2026-01-17 09:58:11.48	13.85	36.93	-38.1	-38.8	24.9	0.00e+00	0	34	0	2459959296	47	3975
2026-01-17 09:58:12.48	13.47	36.82	-37.9	-38.6	25.0	0.00e+00	0	34	0	2465202176	47	3907
2026-01-17 09:58:13.49	13.08	36.72	-37.9	-38.6	25.0	0.00e+00	0	34	0	2470445056	47	3898
2026-01-17 09:58:14.50	12.70	36.61	-37.8	-38.5	25.1	0.00e+00	0	34	0	2476736512	47	3861
2026-01-17 09:58:15.51	12.32	36.51	-37.8	-38.5	25.1	0.00e+00	0	34	0	2481979392	47	3855
2026-01-17 09:58:16.51	11.95	36.40	-37.7	-38.4	25.2	0.00e+00	0	34	0	2487222272	47	3817
2026-01-17 09:58:17.52	11.58	36.29	-37.8	-38.5	25.2	0.00e+00	0	34	0	2493513728	47	3844
2026-01-17 09:58:18.53	11.21	36.18	-37.9	-38.6	25.1	0.00e+00	0	34	0	2498756608	47	3873
2026-01-17 09:58:19.54	10.84	36.07	-37.8	-38.5	25.1	0.00e+00	0	34	0	2505048064	47	3865
2026-01-17 09:58:20.55	10.48	35.96	-37.9	-38.7	25.0	0.00e+00	0	34	0	2510290944	47	3918
2026-01-17 09:58:21.56	10.11	35.84	-38.0	-38.7	25.0	0.00e+00	0	34	0	2516582400	47	3920
2026-01-17 09:58:22.57	9.75	35.73	-37.9	-38.6	25.1	0.00e+00	0	34	0	2521825280	47	3885
2026-01-17 09:58:23.58	9.40	35.62	-38.0	-38.7	24.9	0.00e+00	0	34	0	2528116736	47	3940
2026-01-17 09:58:24.58	9.04	35.50	-38.0	-38.7	24.9	0.00e+00	0	34	0	2533359616	47	3929
2026-01-17 09:58:25.59	8.69	35.39	-38.0	-38.7	24.9	0.00e+00	0	34	0	2538602496	47	3956
2026-01-17 09:58:26.60	8.34	35.27	-37.9	-38.6	25.0	0.00e+00	0	34	0	2544893952	47	3905
2026-01-17 09:58:27.60	8.00	35.15	-37.9	-38.6	25.1	0.00e+00	0	34	0	2550136832	47	3871
2026-01-17 09:58:28.61	7.65	35.03	-37.8	-38.5	25.1	0.00e+00	0	34	0	2555379712	47	3862
2026-01-17 09:58:29.62	7.31	34.91	-37.8	-38.5	25.1	0.00e+00	0	34	0	2561671168	47	3865
2026-01-17 09:58:30.63	6.97	34.79	-37.8	-38.5	25.1	0.00e+00	0	34	0	2566914048	47	3845
2026-01-17 09:58:31.64	6.63	34.67	-37.9	-38.6	25.0	0.00e+00	0	34	0	2572156928	47	3877
2026-01-17 09:58:32.65	6.30	34.55	-37.9	-38.6	25.1	0.00e+00	0	34	0	2578448384	47	3872
2026-01-17 09:58:33.66	5.96	34.43	-37.8	-38.5	25.1	0.00e+00	0	34	0	2584739840	47	3840
2026-01-17 09:58:34.67	5.63	34.31	-37.8	-38.6	25.1	0.00e+00	0	34	0	2589982720	47	3869
2026-01-17 09:58:35.68	5.31	34.18	-37.8	-38.5	25.1	0.00e+00	0	34	0	2595225600	47	3837
2026-01-17 09:58:36.69	4.98	34.06	-37.8	-38.6	25.1	0.00e+00	0	34	0	2601517056	47	3872
2026-01-17 09:58:37.70	4.66	33.94	-37.9	-38.7	25.0	0.00e+00	0	34	0	2606759936	47	3917
2026-01-17 09:58:38.70	4.34	33.81	-37.7	-38.5	25.2	0.00e+00	0	34	0	2613051392	47	3826
2026-01-17 09:58:39.71	4.02	33.69	-37.7	-38.4	25.2	0.00e+00	0	34	0	2618294272	47	3820
2026-01-17 09:58:40.72	3.71	33.56	-37.8	-38.5	25.2	0.00e+00	0	34	0	2623537152	47	3827
2026-01-17 09:58:41.73	3.40	33.44	-37.6	-38.3	25.3	0.00e+00	0	34	0	2629828608	47	3745
2026-01-17 09:58:42.74	3.09	33.31	-37.7	-38.4	25.2	0.00e+00	0	34	0	2635071488	47	3801
2026-01-17 09:58:43.75	2.78	33.18	-37.9	-38.6	25.1	0.00e+00	0	34	0	2641362944	47	3877
2026-01-17 09:58:44.76	2.47	33.05	-38.0	-38.7	24.9	0.00e+00	0	34	0	2646605824	47	3953
2026-01-17 09:58:45.77	2.17	32.93	-38.1	-38.8	24.8	0.00e+00	0	34	0	2652897280	47	4003
2026-01-17 09:58:46.78	1.87	32.80	-38.1	-38.9	24.8	0.00e+00	0	34	0	2658140160	47	4014
2026-01-17 09:58:47.79	1.57	32.67	-38.2	-38.9	24.7	0.00e+00	0	34	0	2663383040	47	4041
2026-01-17 09:58:48.80	1.27	32.54	-38.1	-38.8	24.8	0.00e+00	0	34	0	2669674496	47	4003
2026-01-17 09:58:49.80	0.98	32.41	-38.1	-38.9	24.8	0.00e+00	0	34	0	2674917376	47	4017
2026-01-17 09:58:50.81	0.69	32.28	-38.1	-38.8	24.9	0.00e+00	0	34	0	2680160256	47	3969
2026-01-17 09:58:51.82	0.40	32.15	-38.1	-38.8	24.9	0.00e+00	0	34	0	2686451712	47	3971
2026-01-17 09:58:52.83	0.12	32.02	-38.1	-38.8	24.9	0.00e+00	0	34	0	2691694592	47	3967
2026-01-17 09:58:53.84	359.83	31.89	-38.1	-38.8	24.8	0.00e+00	0	34	0	2697986048	47	3996
2026-01-17 09:58:54.85	359.55	31.76	-38.2	-38.9	24.7	0.00e+00	0	34	0	2703228928	47	4032
2026-01-17 09:58:55.86	359.27	31.63	-38.2	-38.9	24.7	0.00e+00	0	34	0	2709520384	47	4025
2026-01-17 09:58:56.86	359.00	31.50	-38.1	-38.8	24.8	0.00e+00	0	34	0	2714763264	47	3982
2026-01-17 09:58:57.87	358.72	31.37	-38.1	-38.8	24.8	0.00e+00	0	34	0	2721054720	47	3985
2026-01-17 09:58:58.88	358.45	31.24	-38.1	-38.8	24.8	0.00e+00	0	34	0	2726297600	47	3973
2026-01-17 09:58:59.89	358.18	31.11	-38.1	-38.8	24.8	0.00e+00	0	34	0	2731540480	47	4001
2026-01-17 09:59:00.89	357.91	30.98	-38.2	-38.9	24.7	0.00e+00	0	34	0	2737831936	47	4022
2026-01-17 09:59:01.90	357.65	30.85	-38.2	-38.9	24.7	0.00e+00	0	34	0	2743074816	47	4033
2026-01-17 09:59:02.91	357.38	30.71	-38.2	-39.0	24.7	0.00e+00	0	34	0	2748317696	47	4061
2026-01-17 09:59:03.92	357.12	30.58	-38.2	-38.9	24.7	0.00e+00	0	34	0	2754609152	47	4028
2026-01-17 09:59:04.93	356.86	30.45	-38.2	-39.0	24.7	0.00e+00	0	34	0	2759852032	47	4061
2026-01-17 09:59:05.94	356.60	30.32	-38.3	-39.0	24.6	0.00e+00	0	34	0	2765094912	47	4097
2026-01-17 09:59:06.94	356.35	30.19	-38.4	-39.1	24.5	0.00e+00	0	34	0	2771386368	47	4142
2026-01-17 09:59:07.95	356.10	30.06	-38.5	-39.2	24.4	0.00e+00	0	34	0	2777677824	47	4189
2026-01-17 09:59:08.96	355.85	29.92	-38.6	-39.4	24.3	0.00e+00	0	34	0	2782920704	47	4250
2026-01-17 09:59:09.97	355.60	29.79	-38.6	-39.3	24.3	0.00e+00	0	34	0	2788163584	47	4232
2026-01-17 09:59:10.98	355.35	29.66	-38.5	-39.2	24.4	0.00e+00	0	34	0	2794455040	47	4182
2026-01-17 09:59:11.98	355.11	29.53	-38.5	-39.2	24.4	0.00e+00	0	34	0	2799697920	47	4168
2026-01-17 09:59:12.99	354.87	29.40	-38.6	-39.3	24.4	0.00e+00	0	34	0	2805989376	47	4214
2026-01-17 09:59:14.00	354.62	29.27	-38.3	-39.1	24.5	0.00e+00	0	34	0	2811232256	47	4113
2026-01-17 09:59:15.01	354.39	29.13	-38.4	-39.2	24.5	0.00e+00	0	34	0	2816475136	47	4149
2026-01-17 09:59:16.02	354.15	29.00	-38.3	-39.1	24.6	0.00e+00	0	34	0	2822766592	47	4105
2026-01-17 09:59:17.03	353.91	28.87	-38.4	-39.1	24.5	0.00e+00	0	34	0	2828009472	47	4121
2026-01-17 09:59:18.03	353.68	28.74	-38.4	-39.1	24.5	0.00e+00	0	34	0	2833252352	47	4124
2026-01-17 09:59:19.04	353.45	28.61	-38.3	-39.0	24.6	0.00e+00	0	34	0	2839543808	47	4098
2026-01-17 09:59:20.05	353.22	28.48	-38.3	-39.0	24.6	0.00e+00	0	34	0	2845835264	47	4085
2026-01-17 09:59:21.06	352.99	28.35	-38.4	-39.1	24.5	0.00e+00	0	34	0	2851078144	47	4123
2026-01-17 09:59:22.06	352.77	28.22	-38.4	-39.1	24.5	0.00e+00	0	34	0	2856321024	47	4141
2026-01-17 09:59:23.07	352.55	28.08	-38.2	-39.0	24.6	0.00e+00	0	34	0	2862612480	47	4054
2026-01-17 09:59:24.08	352.33	27.95	-38.3	-39.0	24.6	0.00e+00	0	34	0	2867855360	47	4068
2026-01-17 09:59:25.08	352.11	27.82	-38.4	-39.1	24.5	0.00e+00	0	34	0	2873098240	47	4135
2026-01-17 09:59:26.09	351.89	27.69	-38.5	-39.2	24.4	0.00e+00	0	34	0	2879389696	47	4183
2026-01-17 09:59:27.10	351.67	27.56	-38.5	-39.2	24.4	0.00e+00	0	34	0	2884632576	47	4191
2026-01-17 09:59:28.11	351.46	27.43	-38.5	-39.3	24.3	0.00e+00	0	34	0	2890924032	47	4215
2026-01-17 09:59:29.12	351.25	27.30	-38.7	-39.4	24.2	0.00e+00	0	34	0	2896166912	47	4275
2026-01-17 09:59:30.13	351.03	27.17	-39.1	-39.8	24.4	0.00e+00	0	34	0	2901409792	48	4209
2026-01-17 09:59:31.14	350.83	27.04	-39.0	-39.7	24.5	0.00e+00	0	34	0	2907701248	48	4167
2026-01-17 09:59:32.15	350.62	26.91	-38.8	-39.5	24.6	0.00e+00	0	34	0	2913992704	48	4088
2026-01-17 09:59:33.15	350.41	26.78	-39.0	-39.7	24.5	0.00e+00	0	34	0	2919235584	48	4155
2026-01-17 09:59:34.16	350.21	26.66	-39.0	-39.7	24.4	0.00e+00	0	34	0	2924478464	48	4193
2026-01-17 09:59:35.17	350.01	26.53	-39.0	-39.7	24.4	0.00e+00	0	34	0	2930769920	48	4189
2026-01-17 09:59:36.18	349.81	26.40	-39.1	-39.8	24.3	0.00e+00	0	34	0	2936012800	48	4231
2026-01-17 09:59:37.19	349.61	26.27	-39.1	-39.8	24.3	0.00e+00	0	34	0	2941255680	48	4238
2026-01-17 09:59:38.19	349.41	26.14	-39.0	-39.8	24.4	0.00e+00	0	34	0	2947547136	48	4194
2026-01-17 09:59:39.20	349.21	26.01	-38.9	-39.7	24.5	0.00e+00	0	34	0	2952790016	48	4148
2026-01-17 09:59:40.21	349.02	25.89	-39.2	-39.9	24.2	0.00e+00	0	34	0	2958032896	48	4266
2026-01-17 09:59:41.22	348.83	25.76	-39.1	-39.9	24.3	0.00e+00	0	34	0	2964324352	48	4249
2026-01-17 09:59:42.23	348.64	25.63	-39.2	-39.9	24.3	0.00e+00	0	34	0	2969567232	48	4253
2026-01-17 09:59:43.24	348.45	25.50	-39.3	-40.0	24.2	0.00e+00	0	34	0	2975858688	49	4069
2026-01-17 09:59:44.24	348.26	25.38	-39.2	-39.9	24.2	0.00e+00	0	34	0	2981101568	49	4028
2026-01-17 09:59:45.25	348.07	25.25	-39.2	-39.9	24.3	0.00e+00	0	34	0	2987393024	49	4017
2026-01-17 09:59:46.26	347.89	25.12	-39.2	-39.9	24.3	0.00e+00	0	34	0	2992635904	49	4015
2026-01-17 09:59:47.27	347.71	25.00	-39.1	-39.8	24.3	0.00e+00	0	34	0	2998927360	49	3996
2026-01-17 09:59:48.28	347.52	24.87	-39.1	-39.8	24.3	0.00e+00	0	34	0	3004170240	49	4003
2026-01-17 09:59:49.29	347.34	24.75	-39.3	-40.0	24.1	0.00e+00	0	34	0	3009413120	49	4077
2026-01-17 09:59:50.30	347.16	24.62	-39.3	-40.0	24.1	0.00e+00	0	34	0	3015704576	49	4084
2026-01-17 09:59:51.31	346.99	24.50	-39.3	-40.0	24.2	0.00e+00	0	34	0	3020947456	49	4070
2026-01-17 09:59:52.31	346.81	24.37	-39.3	-40.0	24.1	0.00e+00	0	34	0	3026190336	49	4086
2026-01-17 09:59:53.32	346.64	24.25	-39.3	-40.0	24.2	0.00e+00	0	34	0	3032481792	49	4068
2026-01-17 09:59:54.33	346.46	24.13	-39.2	-39.9	24.2	0.00e+00	0	34	0	3037724672	49	4048
2026-01-17 09:59:55.34	346.29	24.00	-39.2	-39.9	24.3	0.00e+00	0	34	0	3042967552	49	4020
2026-01-17 09:59:56.34	346.12	23.88	-39.2	-39.9	24.2	0.00e+00	0	34	0	3049259008	49	4044
2026-01-17 09:59:57.35	345.95	23.76	-39.1	-39.8	24.3	0.00e+00	0	34	0	3055550464	49	4001
2026-01-17 09:59:58.36	345.78	23.63	-39.1	-39.8	24.3	0.00e+00	0	34	0	3060793344	49	3984
2026-01-17 09:59:59.37	345.62	23.51	-39.1	-39.8	24.3	0.00e+00	0	34	0	3066036224	49	4000
2026-01-17 10:00:00.38	345.45	23.39	-39.1	-39.9	24.3	0.00e+00	0	34	0	3072327680	49	4012
2026-01-17 10:00:01.39	345.29	23.27	-39.1	-39.8	24.3	0.00e+00	0	34	0	3077570560	49	3990
2026-01-17 10:00:02.39	345.13	23.15	-39.3	-40.0	24.1	0.00e+00	0	34	0	3083862016	49	4069
2026-01-17 10:00:03.41	344.96	23.02	-39.1	-39.9	24.2	0.00e+00	0	34	0	3089104896	49	4011
2026-01-17 10:00:04.42	344.80	22.90	-39.2	-39.9	24.2	0.00e+00	0	34	0	3094347776	49	4042
2026-01-17 10:00:05.42	344.65	22.78	-39.3	-40.0	24.1	0.00e+00	0	34	0	3100639232	49	4064
2026-01-17 10:00:06.43	344.49	22.66	-39.3	-40.0	24.1	0.00e+00	0	34	0	3105882112	49	4066
2026-01-17 10:00:07.44	344.33	22.54	-39.4	-40.1	24.0	0.00e+00	0	34	0	3111124992	49	4118
2026-01-17 10:00:08.45	344.18	22.42	-39.4	-40.1	24.0	0.00e+00	0	34	0	3117416448	49	4126
2026-01-17 10:00:09.46	344.02	22.30	-39.5	-40.2	23.9	0.00e+00	0	34	0	3123707904	49	4191
2026-01-17 10:00:10.47	343.87	22.19	-39.6	-40.3	23.8	0.00e+00	0	34	0	3128950784	49	4232
2026-01-17 10:00:11.47	343.72	22.07	-39.6	-40.3	23.8	0.00e+00	0	34	0	3134193664	49	4220
2026-01-17 10:00:12.48	343.57	21.95	-39.6	-40.4	23.8	0.00e+00	0	34	0	3140485120	49	4258
2026-01-17 10:00:13.49	343.42	21.83	-39.7	-40.5	23.7	0.00e+00	0	34	0	3145728000	50	4064
2026-01-17 10:00:14.50	343.27	21.71	-39.6	-40.3	23.8	0.00e+00	0	34	0	3150970880	50	4000
2026-01-17 10:00:15.51	343.12	21.60	-39.5	-40.2	23.9	0.00e+00	0	34	0	3157262336	50	3953
2026-01-17 10:00:16.51	342.98	21.48	-39.5	-40.2	23.9	0.00e+00	0	34	0	3162505216	50	3958
2026-01-17 10:00:17.53	342.83	21.36	-39.6	-40.3	23.8	0.00e+00	0	34	0	3168796672	50	3990
2026-01-17 10:00:18.53	342.69	21.25	-39.7	-40.4	23.7	0.00e+00	0	34	0	3174039552	50	4030
2026-01-17 10:00:19.54	342.55	21.13	-39.6	-40.4	23.8	0.00e+00	0	34	0	3179282432	50	4022
2026-01-17 10:00:20.55	342.41	21.02	-39.7	-40.4	23.7	0.00e+00	0	34	0	3185573888	50	4035
2026-01-17 10:00:21.56	342.27	20.90	-39.7	-40.4	23.7	0.00e+00	0	34	0	3191865344	50	4031
2026-01-17 10:00:22.57	342.13	20.79	-39.8	-40.5	23.6	0.00e+00	0	34	0	3197108224	50	4077
2026-01-17 10:00:23.58	341.99	20.67	-39.8	-40.5	23.6	0.00e+00	0	34	0	3202351104	50	4083
2026-01-17 10:00:24.59	341.85	20.56	-39.8	-40.5	23.6	0.00e+00	0	34	0	3208642560	50	4083
2026-01-17 10:00:25.59	341.72	20.45	-39.8	-40.6	23.6	0.00e+00	0	34	0	3213885440	50	4106
2026-01-17 10:00:26.60	341.58	20.33	-39.8	-40.6	23.5	0.00e+00	0	34	0	3219128320	50	4118
2026-01-17 10:00:27.61	341.45	20.22	-39.9	-40.7	23.5	0.00e+00	0	34	0	3225419776	50	4165
2026-01-17 10:00:28.62	341.31	20.11	-40.0	-40.8	23.4	0.00e+00	0	34	0	3230662656	50	4204
2026-01-17 10:00:29.63	341.18	19.99	-40.0	-40.7	23.4	0.00e+00	0	34	0	3235905536	50	4192
2026-01-17 10:00:30.64	341.05	19.88	-40.0	-40.7	23.4	0.00e+00	0	34	0	3242196992	50	4186
2026-01-17 10:00:31.65	340.92	19.77	-40.1	-40.9	23.3	0.00e+00	0	34	0	3248488448	50	4248
2026-01-17 10:00:32.66	340.79	19.66	-40.2	-40.9	23.2	0.00e+00	0	34	0	3253731328	50	4291
2026-01-17 10:00:33.67	340.66	19.55	-40.1	-40.9	23.2	0.00e+00	0	34	0	3258974208	50	4265
2026-01-17 10:00:34.67	340.54	19.44	-40.2	-41.0	23.2	0.00e+00	0	34	0	3265265664	51	4057
2026-01-17 10:00:35.68	340.41	19.33	-40.0	-40.7	23.4	0.00e+00	0	34	0	3270508544	51	3955
2026-01-17 10:00:36.69	340.29	19.22	-39.9	-40.6	23.5	0.00e+00	0	34	0	3276800000	51	3903
2026-01-17 10:00:37.70	340.16	19.11	-39.9	-40.6	23.5	0.00e+00	0	34	0	3282042880	51	3891
2026-01-17 10:00:38.71	340.04	19.00	-39.9	-40.7	23.5	0.00e+00	0	34	0	3287285760	51	3915
2026-01-17 10:00:39.72	339.91	18.89	-39.9	-40.7	23.5	0.00e+00	0	34	0	3293577216	51	3916
2026-01-17 10:00:40.72	339.79	18.78	-40.0	-40.8	23.4	0.00e+00	0	34	0	3298820096	51	3970
2026-01-17 10:00:41.73	339.67	18.67	-40.1	-40.9	23.2	0.00e+00	0	34	0	3304062976	51	4021
2026-01-17 10:00:42.74	339.55	18.56	-40.2	-41.0	23.2	0.00e+00	0	34	0	3310354432	51	4061
2026-01-17 10:00:43.75	339.43	18.46	-40.3	-41.1	23.1	0.00e+00	0	34	0	3316645888	51	4122
2026-01-17 10:00:44.75	339.32	18.35	-40.3	-41.1	23.0	0.00e+00	0	34	0	3321888768	51	4115
2026-01-17 10:00:45.76	339.20	18.24	-40.4	-41.2	22.9	0.00e+00	0	34	0	3327131648	51	4184
2026-01-17 10:00:46.77	339.08	18.14	-40.4	-41.2	22.9	0.00e+00	0	34	0	3333423104	51	4188
2026-01-17 10:00:47.78	338.97	18.03	-40.6	-41.4	22.8	0.00e+00	0	34	0	3338665984	51	4252
2026-01-17 10:00:48.79	338.85	17.92	-40.6	-41.4	22.8	0.00e+00	0	34	0	3343908864	51	4255
2026-01-17 10:00:49.80	338.74	17.82	-40.7	-41.5	22.6	0.00e+00	0	34	0	3350200320	51	4314
2026-01-17 10:00:50.81	338.62	17.71	-40.7	-41.5	22.6	0.00e+00	0	34	0	3355443200	52	4066
2026-01-17 10:00:51.81	338.51	17.61	-40.6	-41.4	22.7	0.00e+00	0	34	0	3361734656	52	4024
2026-01-17 10:00:52.82	338.40	17.50	-40.6	-41.4	22.7	0.00e+00	0	34	0	3366977536	52	4013
2026-01-17 10:00:53.83	338.29	17.40	-40.6	-41.4	22.7	2.20e-06	0	34	0	3372220416	52	4022
2026-01-17 10:00:54.84	338.18	17.30	-40.7	-41.5	22.6	0.00e+00	0	34	0	3378511872	52	4062
2026-01-17 10:00:55.85	338.07	17.19	-40.7	-41.5	22.5	0.00e+00	0	34	0	3384803328	52	4088
2026-01-17 10:00:56.86	337.96	17.09	-40.7	-41.5	22.5	0.00e+00	0	34	0	3390046208	52	4087
2026-01-17 10:00:57.86	337.86	16.99	-40.6	-41.4	22.7	0.00e+00	0	34	0	3395289088	52	4014
2026-01-17 10:00:58.87	337.75	16.88	-40.6	-41.4	22.6	0.00e+00	0	34	0	3401580544	52	4033
2026-01-17 10:00:59.88	337.64	16.78	-40.7	-41.4	22.6	0.00e+00	0	34	0	3406823424	52	4042
2026-01-17 10:01:00.89	337.54	16.68	-40.7	-41.5	22.6	0.00e+00	0	34	0	3412066304	52	4061
2026-01-17 10:01:01.90	337.43	16.58	-40.7	-41.5	22.5	0.00e+00	0	34	0	3418357760	52	4086
2026-01-17 10:01:02.90	337.33	16.48	-40.7	-41.5	22.5	0.00e+00	0	34	0	3423600640	52	4087
2026-01-17 10:01:03.91	337.23	16.38	-40.8	-41.6	22.4	0.00e+00	0	34	0	3428843520	52	4106
2026-01-17 10:01:04.92	337.12	16.27	-40.9	-41.7	22.3	0.00e+00	0	34	0	3435134976	52	4169
2026-01-17 10:01:05.93	337.02	16.17	-40.9	-41.7	22.3	0.00e+00	0	34	0	3440377856	52	4178
2026-01-17 10:01:06.94	336.92	16.07	-40.9	-41.7	22.3	0.00e+00	0	34	0	3446669312	52	4171
2026-01-17 10:01:07.94	336.82	15.98	-40.9	-41.8	22.2	0.00e+00	0	34	0	3451912192	52	4198
2026-01-17 10:01:08.95	336.72	15.88	-41.1	-41.9	22.1	0.00e+00	0	34	0	3458203648	52	4264
2026-01-17 10:01:09.96	336.62	15.78	-41.1	-41.9	22.1	0.00e+00	0	34	0	3463446528	52	4273
2026-01-17 10:01:10.97	336.52	15.68	-41.1	-41.9	22.0	0.00e+00	0	34	0	3469737984	52	4287
2026-01-17 10:01:11.98	336.43	15.58	-41.2	-42.1	22.0	0.00e+00	0	34	0	3474980864	53	4105
2026-01-17 10:01:12.99	336.33	15.48	-41.2	-42.1	22.0	0.00e+00	0	34	0	3480223744	53	4112
2026-01-17 10:01:14.00	336.23	15.38	-41.2	-42.0	22.0	0.00e+00	0	34	0	3486515200	53	4089
2026-01-17 10:01:15.01	336.14	15.29	-41.0	-41.9	22.2	0.00e+00	0	34	0	3491758080	53	4006
2026-01-17 10:01:16.01	336.04	15.19	-41.1	-41.9	22.1	0.00e+00	0	34	0	3497000960	53	4048
2026-01-17 10:01:17.02	335.95	15.09	-41.1	-41.9	22.1	0.00e+00	0	34	0	3503292416	53	4032
2026-01-17 10:01:18.03	335.85	14.99	-41.1	-41.9	22.1	0.00e+00	0	34	0	3508535296	53	4051
2026-01-17 10:01:19.04	335.76	14.90	-41.2	-42.1	21.9	0.00e+00	0	34	0	3513778176	53	4110
2026-01-17 10:01:20.05	335.67	14.80	-41.3	-42.1	21.9	0.00e+00	0	34	0	3520069632	53	4135
2026-01-17 10:01:21.06	335.58	14.71	-41.3	-42.1	21.9	0.00e+00	0	34	0	3526361088	53	4136
2026-01-17 10:01:22.06	335.49	14.61	-41.4	-42.2	21.8	0.00e+00	0	34	0	3531603968	53	4177
2026-01-17 10:01:23.07	335.40	14.52	-41.2	-42.0	21.9	0.00e+00	0	34	0	3536846848	53	4090
2026-01-17 10:01:24.08	335.30	14.42	-41.2	-42.0	22.0	0.00e+00	0	34	0	3543138304	53	4081
2026-01-17 10:01:25.09	335.22	14.33	-41.2	-42.0	22.0	0.00e+00	0	34	0	3548381184	53	4067
2026-01-17 10:01:26.10	335.13	14.23	-41.2	-42.1	21.9	0.00e+00	0	34	0	3554672640	53	4109
2026-01-17 10:01:27.11	335.04	14.14	-41.3	-42.1	21.8	0.00e+00	0	34	0	3559915520	53	4138
2026-01-17 10:01:28.12	334.95	14.04	-41.3	-42.2	21.8	0.00e+00	0	34	0	3565158400	53	4161
2026-01-17 10:01:29.13	334.86	13.95	-41.3	-42.2	21.8	0.00e+00	0	34	0	3571449856	53	4164
2026-01-17 10:01:30.14	334.78	13.86	-41.4	-42.2	21.7	0.00e+00	0	34	0	3576692736	53	4184
2026-01-17 10:01:31.14	334.69	13.77	-41.4	-42.2	21.7	0.00e+00	0	34	0	3582984192	53	4186
2026-01-17 10:01:32.15	334.61	13.67	-41.5	-42.4	21.6	0.00e+00	0	34	0	3588227072	53	4249
2026-01-17 10:01:33.16	334.52	13.58	-41.5	-42.3	21.7	0.00e+00	0	34	0	3594518528	53	4224
2026-01-17 10:01:34.17	334.44	13.49	-41.5	-42.3	21.6	0.00e+00	0	34	0	3599761408	53	4237
2026-01-17 10:01:35.18	334.35	13.40	-41.6	-42.5	21.5	0.00e+00	0	34	0	3605004288	53	4312
2026-01-17 10:01:36.19	334.27	13.31	-41.6	-42.5	21.5	0.00e+00	0	34	0	3611295744	53	4317
2026-01-17 10:01:37.19	334.19	13.22	-41.8	-42.7	21.3	0.00e+00	0	34	0	3616538624	54	4149
2026-01-17 10:01:38.20	334.10	13.12	-41.7	-42.6	21.4	0.00e+00	0	34	0	3621781504	54	4105
2026-01-17 10:01:39.21	334.02	13.03	-41.8	-42.7	21.3	0.00e+00	0	34	0	3628072960	54	4173
2026-01-17 10:01:40.22	333.94	12.94	-41.9	-42.8	21.2	0.00e+00	0	34	0	3633315840	54	4205
2026-01-17 10:01:41.23	333.86	12.85	-41.8	-42.7	21.3	0.00e+00	0	34	0	3639607296	54	4157
2026-01-17 10:01:42.23	333.78	12.76	-41.7	-42.6	21.3	0.00e+00	0	34	0	3644850176	54	4121
2026-01-17 10:01:43.24	333.70	12.67	-41.7	-42.6	21.4	0.00e+00	0	34	0	3650093056	54	4113
2026-01-17 10:01:44.25	333.62	12.59	-41.8	-42.7	21.2	0.00e+00	0	34	0	3656384512	54	4168
2026-01-17 10:01:45.26	333.54	12.50	-41.9	-42.8	21.2	0.00e+00	0	34	0	3662675968	54	4195
2026-01-17 10:01:46.27	333.47	12.41	-41.8	-42.6	21.3	0.00e+00	0	34	0	3667918848	54	4132
2026-01-17 10:01:47.28	333.39	12.32	-41.8	-42.7	21.2	0.00e+00	0	34	0	3673161728	54	4146
2026-01-17 10:01:48.29	333.31	12.23	-41.8	-42.6	21.3	0.00e+00	0	34	0	3679453184	54	4134
2026-01-17 10:01:49.30	333.23	12.14	-41.7	-42.6	21.3	0.00e+00	0	34	0	3684696064	54	4118
2026-01-17 10:01:50.31	333.16	12.06	-41.7	-42.6	21.3	0.00e+00	0	34	0	3689938944	54	4105
2026-01-17 10:01:51.31	333.08	11.97	-41.9	-42.8	21.1	0.00e+00	0	34	0	3696230400	54	4218
2026-01-17 10:01:52.32	333.01	11.88	-41.9	-42.8	21.1	0.00e+00	0	34	0	3701473280	54	4209
2026-01-17 10:01:53.33	332.93	11.79	-42.0	-42.9	21.0	0.00e+00	0	34	0	3706716160	54	4245
