passes_logs/2026/01/17/R3.2S_Murmansk/R3.2S_Murmansk__20260117_081132_FENGYUN_3D_rec.log

#Pass ID: 20260117_081132_FENGYUN 3D
#Satellite: FENGYUN 3D
#Configuration: FENGYUN 3D
#almurnet v.1.7.20251203
#Start time: 2026-01-17 08:11:35

#Version: 2.2.20231116
#Station: R3.2S_Murmansk
#Location: 33.079688 lon 68.888172 lat
#TLE: 1 43010U 17072A   26016.62453405 -.00000112  00000+0 -31355-4 0  9995
#TLE: 2 43010  98.9932 348.4654 0002369 105.3910 254.7528 14.19694900423480

#Time	Az	El	Level	Level2	SNR	BER	BlckErr	Temp	State	Recorded	gain1	gain2
2026-01-17 08:11:35.00	78.52	2.13	-51.8	-63.6	3.8	8.47e-01	0	32	0	0	75	13880
2026-01-17 08:11:36.01	78.46	2.18	-51.8	-63.7	3.8	8.46e-01	0	32	104	0	74	14790
2026-01-17 08:11:37.01	78.40	2.24	-51.8	-63.7	3.8	8.45e-01	0	32	104	0	74	14766
2026-01-17 08:11:38.02	78.34	2.30	-51.8	-63.7	3.8	8.46e-01	0	32	104	0	74	14724
2026-01-17 08:11:39.03	78.28	2.36	-51.8	-63.7	3.8	8.46e-01	0	32	104	0	74	14755
2026-01-17 08:11:40.04	78.21	2.42	-51.8	-63.7	3.8	8.46e-01	0	32	104	0	74	14750
2026-01-17 08:11:41.05	78.15	2.48	-51.8	-63.7	3.8	8.46e-01	0	32	104	0	74	14811
2026-01-17 08:11:42.05	78.09	2.54	-51.8	-63.7	3.8	8.47e-01	0	32	104	0	74	14786
2026-01-17 08:11:43.07	78.03	2.60	-51.8	-63.7	3.8	8.47e-01	0	32	104	0	74	14790
2026-01-17 08:11:44.08	77.97	2.66	-51.8	-63.7	3.8	8.47e-01	0	32	104	0	74	14853
2026-01-17 08:11:45.09	77.90	2.72	-51.8	-63.7	3.8	8.46e-01	0	32	104	0	74	14818
2026-01-17 08:11:46.09	77.84	2.77	-51.8	-63.7	3.8	8.47e-01	0	32	104	0	74	14740
2026-01-17 08:11:47.10	77.78	2.83	-51.8	-63.6	3.8	8.46e-01	0	32	104	0	74	14684
2026-01-17 08:11:48.11	77.72	2.89	-51.8	-63.6	3.8	8.46e-01	0	33	104	0	74	14620
2026-01-17 08:11:49.12	77.65	2.95	-51.8	-63.6	3.8	8.47e-01	0	33	104	0	74	14571
2026-01-17 08:11:50.13	77.59	3.01	-51.8	-63.5	3.8	8.46e-01	0	32	104	0	74	14484
2026-01-17 08:11:51.14	77.52	3.07	-51.8	-63.6	3.8	8.46e-01	0	33	104	0	74	14625
2026-01-17 08:11:52.14	77.46	3.13	-51.8	-63.6	3.8	8.46e-01	0	33	104	0	74	14664
2026-01-17 08:11:53.15	77.40	3.19	-51.8	-63.7	3.8	8.47e-01	0	32	104	0	74	14734
2026-01-17 08:11:54.16	77.33	3.25	-51.8	-63.7	3.8	8.47e-01	0	33	104	0	74	14748
2026-01-17 08:11:55.17	77.27	3.31	-51.7	-63.6	3.8	8.44e-01	0	33	104	0	74	14691
2026-01-17 08:11:56.18	77.20	3.37	-51.8	-63.6	3.8	8.45e-01	0	33	104	0	74	14616
2026-01-17 08:11:57.19	77.14	3.43	-51.8	-63.6	3.8	8.47e-01	0	33	104	0	74	14626
2026-01-17 08:11:58.20	77.07	3.50	-51.7	-63.6	3.8	8.46e-01	0	33	104	0	74	14586
2026-01-17 08:11:59.21	77.00	3.56	-51.8	-63.6	3.8	8.47e-01	0	33	104	0	74	14693
2026-01-17 08:12:00.22	76.94	3.62	-51.8	-63.7	3.8	8.46e-01	0	33	104	0	74	14742
2026-01-17 08:12:01.23	76.87	3.68	-51.8	-63.7	3.8	8.46e-01	0	33	104	0	74	14757
2026-01-17 08:12:02.24	76.80	3.74	-51.8	-63.7	3.8	8.47e-01	0	33	104	0	74	14775
2026-01-17 08:12:03.25	76.73	3.80	-51.7	-63.5	3.8	8.45e-01	0	33	104	0	74	14440
2026-01-17 08:12:04.26	76.67	3.86	-51.7	-63.1	3.8	8.46e-01	0	33	104	0	74	13753
2026-01-17 08:12:05.27	76.60	3.92	-51.7	-62.6	3.8	8.46e-01	0	33	104	0	74	12961
2026-01-17 08:12:06.28	76.53	3.98	-51.6	-62.0	3.8	8.45e-01	0	33	104	0	74	12108
2026-01-17 08:12:07.29	76.46	4.05	-51.5	-61.2	4.0	8.43e-01	0	33	104	0	74	11115
2026-01-17 08:12:08.29	76.39	4.11	-51.4	-60.3	4.2	8.40e-01	0	33	0	0	74	9951
2026-01-17 08:12:09.30	76.32	4.17	-51.3	-59.5	4.4	8.31e-01	0	33	0	0	74	9077
2026-01-17 08:12:10.31	76.25	4.23	-51.0	-57.9	5.1	7.68e-01	0	33	0	0	74	7589
2026-01-17 08:12:11.32	76.18	4.29	-50.6	-56.4	6.2	5.82e-01	0	33	0	1048576	73	6767
2026-01-17 08:12:12.33	76.11	4.36	-50.2	-55.0	7.3	1.89e-01	0	33	0	6291456	72	6129
2026-01-17 08:12:13.34	76.04	4.42	-49.8	-54.0	8.4	6.49e-02	0	33	0	12582912	71	5774
2026-01-17 08:12:14.34	75.97	4.48	-48.9	-52.2	10.3	1.95e-02	0	33	0	17825792	69	5276
2026-01-17 08:12:15.35	75.90	4.54	-48.7	-51.8	10.7	5.37e-03	0	33	0	23068672	69	5040
2026-01-17 08:12:16.36	75.83	4.60	-48.0	-50.7	12.0	8.57e-04	0	33	0	29360128	68	4669
2026-01-17 08:12:17.37	75.76	4.67	-48.0	-50.7	11.8	4.94e-04	0	33	0	34603008	67	4943
2026-01-17 08:12:18.38	75.69	4.73	-47.7	-50.2	12.4	4.57e-04	0	33	0	39845888	67	4688
2026-01-17 08:12:19.39	75.61	4.79	-47.7	-50.3	12.3	2.95e-04	0	33	0	46137344	67	4719
2026-01-17 08:12:20.40	75.54	4.85	-48.4	-51.4	11.0	2.05e-03	0	33	0	52428800	67	5393
2026-01-17 08:12:21.41	75.47	4.92	-49.0	-52.3	10.2	6.43e-03	0	33	0	57671680	68	5641
2026-01-17 08:12:22.42	75.40	4.98	-49.2	-52.7	9.8	4.62e-03	0	33	0	62914560	68	5923
2026-01-17 08:12:23.43	75.32	5.04	-48.7	-51.8	10.7	2.18e-02	0	33	0	69206016	69	5012
2026-01-17 08:12:24.44	75.25	5.11	-47.1	-49.2	13.4	8.56e-04	0	33	0	74448896	66	4398
2026-01-17 08:12:25.45	75.17	5.17	-48.1	-50.8	12.1	0.00e+00	0	33	0	80740352	66	5323
2026-01-17 08:12:26.46	75.10	5.23	-49.7	-53.7	8.7	5.51e-01	0	33	0	83886080	71	5578
2026-01-17 08:12:27.46	75.02	5.30	-44.5	-45.8	17.1	0.00e+00	0	33	0	89128960	60	4232
2026-01-17 08:12:28.47	74.95	5.36	-48.1	-50.7	11.8	1.29e-01	0	33	0	95420416	68	4683
2026-01-17 08:12:29.48	74.87	5.43	-44.3	-45.7	17.2	0.00e+00	0	33	0	100663296	60	4148
2026-01-17 08:12:30.49	74.80	5.49	-44.0	-45.3	17.6	0.00e+00	0	33	0	105906176	60	3974
2026-01-17 08:12:31.50	74.72	5.55	-44.3	-45.6	17.7	0.00e+00	0	33	0	112197632	59	4361
2026-01-17 08:12:32.51	74.64	5.62	-44.3	-45.6	17.7	0.00e+00	0	33	0	118489088	59	4370
2026-01-17 08:12:33.52	74.57	5.68	-44.6	-45.9	17.4	0.00e+00	0	34	0	123731968	59	4525
2026-01-17 08:12:34.53	74.49	5.75	-44.2	-45.5	17.8	0.00e+00	0	33	0	128974848	59	4305
2026-01-17 08:12:35.54	74.41	5.81	-44.3	-45.6	17.7	0.00e+00	0	33	0	135266304	59	4388
2026-01-17 08:12:36.55	74.33	5.88	-44.2	-45.5	17.9	0.00e+00	0	33	0	140509184	59	4298
2026-01-17 08:12:37.56	74.25	5.94	-44.4	-45.8	17.6	0.00e+00	0	34	0	146800640	59	4461
2026-01-17 08:12:38.57	74.17	6.00	-44.2	-45.5	17.9	0.00e+00	0	33	0	152043520	59	4302
2026-01-17 08:12:39.58	74.10	6.07	-43.7	-44.9	18.4	0.00e+00	0	33	0	157286400	59	4048
2026-01-17 08:12:40.58	74.02	6.13	-44.4	-45.7	17.7	0.00e+00	0	33	0	163577856	59	4401
2026-01-17 08:12:41.59	73.94	6.20	-44.3	-45.6	17.8	0.00e+00	0	33	0	168820736	59	4360
2026-01-17 08:12:42.60	73.86	6.26	-44.2	-45.5	17.9	0.00e+00	0	33	0	175112192	59	4292
2026-01-17 08:12:43.61	73.78	6.33	-43.8	-45.0	18.4	0.00e+00	0	33	0	180355072	59	4076
2026-01-17 08:12:44.62	73.69	6.40	-43.7	-44.9	18.5	0.00e+00	0	34	0	186646528	59	4035
2026-01-17 08:12:45.63	73.61	6.46	-44.2	-45.5	18.0	0.00e+00	0	34	0	191889408	59	4306
2026-01-17 08:12:46.64	73.53	6.53	-43.8	-45.1	18.4	0.00e+00	0	34	0	197132288	59	4110
2026-01-17 08:12:47.65	73.45	6.59	-43.7	-44.9	18.5	0.00e+00	0	33	0	203423744	59	4022
2026-01-17 08:12:48.66	73.37	6.66	-43.9	-45.1	18.3	0.00e+00	0	33	0	208666624	59	4125
2026-01-17 08:12:49.67	73.28	6.72	-43.7	-44.9	18.5	0.00e+00	0	33	0	213909504	59	4022
2026-01-17 08:12:50.67	73.20	6.79	-43.7	-44.8	18.6	0.00e+00	0	34	0	220200960	59	4000
2026-01-17 08:12:51.68	73.12	6.86	-43.7	-44.9	18.6	0.00e+00	0	34	0	225443840	59	4005
2026-01-17 08:12:52.69	73.03	6.92	-43.7	-44.9	18.6	0.00e+00	0	34	0	231735296	59	4034
2026-01-17 08:12:53.70	72.95	6.99	-43.5	-44.7	18.8	0.00e+00	0	34	0	236978176	59	3933
2026-01-17 08:12:54.71	72.86	7.06	-43.7	-44.9	18.6	0.00e+00	0	34	0	243269632	59	4017
2026-01-17 08:12:55.72	72.78	7.12	-43.8	-45.0	18.5	0.00e+00	0	34	0	248512512	59	4068
2026-01-17 08:12:56.73	72.69	7.19	-43.4	-44.5	18.9	0.00e+00	0	34	0	254803968	58	4083
2026-01-17 08:12:57.74	72.60	7.26	-43.7	-44.9	18.7	0.00e+00	0	34	0	260046848	58	4243
2026-01-17 08:12:58.75	72.52	7.32	-43.7	-44.9	18.6	0.00e+00	0	34	0	265289728	58	4275
2026-01-17 08:12:59.75	72.43	7.39	-43.6	-44.8	18.8	0.00e+00	0	34	0	271581184	58	4197
2026-01-17 08:13:00.76	72.34	7.46	-43.5	-44.6	18.9	0.00e+00	0	34	0	276824064	58	4134
2026-01-17 08:13:01.77	72.25	7.52	-43.6	-44.7	18.8	0.00e+00	0	34	0	282066944	58	4182
2026-01-17 08:13:02.78	72.17	7.59	-43.6	-44.8	18.8	0.00e+00	0	34	0	288358400	58	4198
2026-01-17 08:13:03.79	72.08	7.66	-43.4	-44.6	19.0	0.00e+00	0	34	0	293601280	58	4100
2026-01-17 08:13:04.80	71.99	7.73	-43.4	-44.6	19.0	0.00e+00	0	34	0	299892736	58	4116
2026-01-17 08:13:05.81	71.90	7.79	-43.3	-44.4	19.1	0.00e+00	0	34	0	305135616	58	4046
2026-01-17 08:13:06.82	71.81	7.86	-43.6	-44.7	19.0	0.00e+00	0	34	0	311427072	58	4164
2026-01-17 08:13:07.83	71.72	7.93	-43.8	-44.9	18.8	0.00e+00	0	33	0	316669952	58	4266
2026-01-17 08:13:08.84	71.63	8.00	-43.4	-44.5	19.2	0.00e+00	0	34	0	321912832	58	4057
2026-01-17 08:13:09.84	71.54	8.07	-43.4	-44.5	19.1	0.00e+00	0	34	0	328204288	58	4090
2026-01-17 08:13:10.85	71.44	8.13	-43.5	-44.6	19.1	0.00e+00	0	34	0	333447168	58	4127
2026-01-17 08:13:11.86	71.35	8.20	-43.5	-44.6	19.1	0.00e+00	0	34	0	339738624	58	4114
2026-01-17 08:13:12.87	71.26	8.27	-43.6	-44.7	19.0	0.00e+00	0	34	0	344981504	58	4165
2026-01-17 08:13:13.88	71.17	8.34	-43.6	-44.7	19.0	0.00e+00	0	34	0	350224384	58	4155
2026-01-17 08:13:14.89	71.07	8.41	-43.5	-44.6	19.1	0.00e+00	0	34	0	356515840	58	4129
2026-01-17 08:13:15.90	70.98	8.48	-43.5	-44.5	19.2	0.00e+00	0	34	0	362807296	58	4098
2026-01-17 08:13:16.91	70.88	8.55	-43.4	-44.5	19.3	0.00e+00	0	34	0	368050176	58	4075
2026-01-17 08:13:17.92	70.79	8.62	-43.3	-44.3	19.4	0.00e+00	0	34	0	373293056	58	3983
2026-01-17 08:13:18.92	70.69	8.69	-43.4	-44.4	19.3	0.00e+00	0	34	0	379584512	58	4044
2026-01-17 08:13:19.93	70.60	8.75	-43.4	-44.5	19.3	0.00e+00	0	34	0	384827392	58	4055
2026-01-17 08:13:20.94	70.50	8.82	-43.2	-44.3	19.5	0.00e+00	0	34	0	390070272	58	3975
2026-01-17 08:13:21.95	70.40	8.89	-43.1	-44.1	19.7	0.00e+00	0	34	0	396361728	58	3885
2026-01-17 08:13:22.96	70.31	8.96	-43.3	-44.4	19.4	0.00e+00	0	34	0	401604608	58	4032
2026-01-17 08:13:23.97	70.21	9.03	-43.0	-44.0	19.8	0.00e+00	0	34	0	406847488	57	4071
2026-01-17 08:13:24.98	70.11	9.10	-43.3	-44.3	19.4	0.00e+00	0	34	0	413138944	57	4234
2026-01-17 08:13:25.98	70.01	9.17	-43.0	-44.0	19.8	0.00e+00	0	34	0	418381824	57	4063
2026-01-17 08:13:26.99	69.91	9.24	-43.1	-44.1	19.7	0.00e+00	0	34	0	424673280	57	4125
2026-01-17 08:13:28.00	69.81	9.31	-43.0	-44.0	19.8	0.00e+00	0	34	0	429916160	57	4062
2026-01-17 08:13:29.01	69.71	9.38	-43.1	-44.2	19.6	0.00e+00	0	34	0	436207616	57	4149
2026-01-17 08:13:30.02	69.61	9.45	-42.8	-43.8	19.9	0.00e+00	0	34	0	441450496	57	4003
2026-01-17 08:13:31.03	69.51	9.52	-43.0	-44.1	19.7	0.00e+00	0	34	0	447741952	57	4105
2026-01-17 08:13:32.04	69.41	9.60	-42.9	-43.9	19.9	0.00e+00	0	34	0	452984832	57	4045
2026-01-17 08:13:33.05	69.30	9.67	-42.9	-43.9	19.9	0.00e+00	0	34	0	458227712	57	4050
2026-01-17 08:13:34.06	69.20	9.74	-43.0	-44.0	19.8	0.00e+00	0	34	0	464519168	57	4059
2026-01-17 08:13:35.07	69.10	9.81	-42.8	-43.8	20.0	0.00e+00	0	34	0	469762048	57	3960
2026-01-17 08:13:36.08	68.99	9.88	-42.8	-43.8	20.0	0.00e+00	0	34	0	475004928	57	3996
2026-01-17 08:13:37.09	68.89	9.95	-42.8	-43.8	20.1	0.00e+00	0	34	0	481296384	57	3969
2026-01-17 08:13:38.10	68.78	10.02	-42.7	-43.7	20.1	0.00e+00	0	34	0	487587840	57	3940
2026-01-17 08:13:39.11	68.68	10.09	-43.0	-44.0	19.9	0.00e+00	0	34	0	492830720	57	4060
2026-01-17 08:13:40.12	68.57	10.17	-43.0	-44.0	19.8	0.00e+00	0	34	0	498073600	57	4069
2026-01-17 08:13:41.12	68.47	10.24	-43.1	-44.1	19.7	0.00e+00	0	34	0	504365056	57	4136
2026-01-17 08:13:42.13	68.36	10.31	-43.0	-44.0	19.9	0.00e+00	0	34	0	509607936	57	4067
2026-01-17 08:13:43.15	68.25	10.38	-42.8	-43.8	20.0	0.00e+00	0	34	0	514850816	57	4000
2026-01-17 08:13:44.15	68.14	10.45	-42.9	-43.9	20.0	0.00e+00	0	34	0	521142272	57	4029
2026-01-17 08:13:45.16	68.04	10.52	-43.0	-44.0	19.9	0.00e+00	0	34	0	526385152	57	4072
2026-01-17 08:13:46.17	67.93	10.60	-42.8	-43.8	20.1	0.00e+00	0	34	0	532676608	57	3984
2026-01-17 08:13:47.18	67.82	10.67	-42.9	-43.9	20.0	0.00e+00	0	34	0	537919488	57	4040
2026-01-17 08:13:48.19	67.71	10.74	-42.8	-43.8	20.1	0.00e+00	0	34	0	543162368	57	3971
2026-01-17 08:13:49.20	67.59	10.81	-42.8	-43.8	20.1	0.00e+00	0	34	0	549453824	57	3994
2026-01-17 08:13:50.20	67.48	10.89	-42.8	-43.7	20.2	0.00e+00	0	34	0	555745280	57	3951
2026-01-17 08:13:51.21	67.37	10.96	-42.6	-43.6	20.3	0.00e+00	0	34	0	560988160	57	3895
2026-01-17 08:13:52.22	67.26	11.03	-42.7	-43.7	20.2	0.00e+00	0	34	0	566231040	57	3945
2026-01-17 08:13:53.23	67.15	11.11	-42.8	-43.8	20.1	0.00e+00	0	34	0	572522496	57	3975
2026-01-17 08:13:54.24	67.03	11.18	-42.9	-43.9	20.0	0.00e+00	0	34	0	577765376	57	4011
2026-01-17 08:13:55.24	66.92	11.25	-43.0	-44.0	19.9	0.00e+00	0	34	0	583008256	57	4079
2026-01-17 08:13:56.25	66.80	11.32	-42.9	-43.9	20.1	0.00e+00	0	34	0	589299712	57	4007
2026-01-17 08:13:57.26	66.69	11.40	-42.8	-43.8	20.1	0.00e+00	0	34	0	594542592	57	3979
2026-01-17 08:13:58.27	66.57	11.47	-42.8	-43.8	20.1	0.00e+00	0	34	0	599785472	57	3972
2026-01-17 08:13:59.27	66.45	11.54	-42.8	-43.7	20.2	0.00e+00	0	34	0	606076928	57	3957
2026-01-17 08:14:00.28	66.34	11.62	-42.6	-43.6	20.4	0.00e+00	0	34	0	611319808	57	3874
2026-01-17 08:14:01.29	66.22	11.69	-42.7	-43.7	20.2	0.00e+00	0	34	0	617611264	57	3939
2026-01-17 08:14:02.30	66.10	11.77	-42.7	-43.6	20.3	0.00e+00	0	34	0	622854144	57	3903
2026-01-17 08:14:03.31	65.98	11.84	-42.5	-43.5	20.4	0.00e+00	0	34	0	629145600	57	3836
2026-01-17 08:14:04.31	65.86	11.91	-42.6	-43.5	20.4	0.00e+00	0	34	0	634388480	57	3852
2026-01-17 08:14:05.32	65.74	11.99	-42.5	-43.4	20.5	0.00e+00	0	34	0	640679936	57	3818
2026-01-17 08:14:06.33	65.62	12.06	-42.3	-43.3	20.6	0.00e+00	0	34	0	645922816	56	3974
2026-01-17 08:14:07.34	65.50	12.14	-42.2	-43.2	20.8	0.00e+00	0	34	0	651165696	56	3925
2026-01-17 08:14:08.35	65.38	12.21	-42.3	-43.2	20.7	0.00e+00	0	34	0	657457152	56	3947
2026-01-17 08:14:09.35	65.25	12.29	-42.2	-43.1	20.8	0.00e+00	0	34	0	662700032	56	3906
2026-01-17 08:14:10.36	65.13	12.36	-42.2	-43.1	20.8	0.00e+00	0	34	0	667942912	56	3907
2026-01-17 08:14:11.37	65.01	12.43	-42.0	-43.0	21.0	0.00e+00	0	34	0	674234368	56	3830
2026-01-17 08:14:12.38	64.88	12.51	-42.2	-43.1	20.9	0.00e+00	0	34	0	679477248	56	3885
2026-01-17 08:14:13.39	64.76	12.58	-42.3	-43.2	20.8	0.00e+00	0	34	0	684720128	56	3940
2026-01-17 08:14:14.40	64.63	12.66	-42.2	-43.2	20.8	0.00e+00	0	34	0	691011584	56	3916
2026-01-17 08:14:15.40	64.50	12.73	-42.2	-43.2	20.8	0.00e+00	0	34	0	697303040	56	3923
2026-01-17 08:14:16.41	64.38	12.81	-42.3	-43.2	20.8	0.00e+00	0	34	0	702545920	56	3941
2026-01-17 08:14:17.42	64.25	12.89	-42.1	-43.1	20.9	0.00e+00	0	34	0	707788800	56	3869
2026-01-17 08:14:18.43	64.12	12.96	-42.0	-42.9	21.0	0.00e+00	0	34	0	714080256	56	3821
2026-01-17 08:14:19.44	63.99	13.04	-42.2	-43.1	20.9	0.00e+00	0	34	0	719323136	56	3903
2026-01-17 08:14:20.44	63.86	13.11	-42.1	-43.0	21.0	0.00e+00	0	34	0	725614592	56	3827
2026-01-17 08:14:21.45	63.73	13.19	-42.2	-43.1	20.9	0.00e+00	0	34	0	730857472	56	3877
2026-01-17 08:14:22.46	63.60	13.26	-42.1	-43.0	21.0	0.00e+00	0	34	0	736100352	56	3850
2026-01-17 08:14:23.47	63.46	13.34	-42.1	-43.0	21.0	0.00e+00	0	34	0	742391808	56	3860
2026-01-17 08:14:24.47	63.33	13.41	-42.0	-42.9	21.1	0.00e+00	0	34	0	747634688	56	3822
2026-01-17 08:14:25.48	63.20	13.49	-41.7	-42.6	21.3	0.00e+00	0	34	0	752877568	55	3897
2026-01-17 08:14:26.49	63.06	13.57	-41.9	-42.8	21.1	0.00e+00	0	34	0	759169024	55	3985
2026-01-17 08:14:27.50	62.93	13.64	-41.8	-42.7	21.2	0.00e+00	0	34	0	765460480	55	3924
2026-01-17 08:14:28.51	62.79	13.72	-41.7	-42.6	21.3	0.00e+00	0	34	0	770703360	55	3885
2026-01-17 08:14:29.52	62.66	13.80	-41.7	-42.6	21.3	0.00e+00	0	34	0	775946240	55	3896
2026-01-17 08:14:30.53	62.52	13.87	-41.8	-42.7	21.2	0.00e+00	0	34	0	782237696	55	3955
2026-01-17 08:14:31.54	62.38	13.95	-41.7	-42.6	21.3	0.00e+00	0	34	0	787480576	55	3909
2026-01-17 08:14:32.55	62.24	14.03	-41.7	-42.6	21.3	0.00e+00	0	34	0	792723456	55	3886
2026-01-17 08:14:33.55	62.10	14.10	-41.7	-42.6	21.3	0.00e+00	0	34	0	799014912	55	3890
2026-01-17 08:14:34.56	61.96	14.18	-41.7	-42.6	21.3	0.00e+00	0	34	0	804257792	55	3900
2026-01-17 08:14:35.57	61.82	14.25	-41.8	-42.7	21.3	0.00e+00	0	34	0	810549248	55	3914
2026-01-17 08:14:36.58	61.68	14.33	-41.7	-42.5	21.4	0.00e+00	0	34	0	815792128	55	3861
2026-01-17 08:14:37.59	61.54	14.41	-41.7	-42.5	21.4	0.00e+00	0	34	0	821035008	55	3860
2026-01-17 08:14:38.59	61.40	14.48	-41.8	-42.7	21.3	0.00e+00	0	34	0	827326464	55	3914
2026-01-17 08:14:39.60	61.25	14.56	-41.6	-42.5	21.4	0.00e+00	0	34	0	833617920	55	3855
2026-01-17 08:14:40.61	61.11	14.64	-41.6	-42.4	21.5	0.00e+00	0	34	0	838860800	55	3815
2026-01-17 08:14:41.62	60.96	14.72	-41.5	-42.4	21.5	0.00e+00	0	34	0	844103680	55	3803
2026-01-17 08:14:42.62	60.82	14.79	-41.6	-42.4	21.5	0.00e+00	0	34	0	850395136	55	3822
2026-01-17 08:14:43.63	60.67	14.87	-41.6	-42.4	21.5	0.00e+00	0	34	0	855638016	55	3814
2026-01-17 08:14:44.64	60.52	14.95	-41.5	-42.4	21.5	0.00e+00	0	34	0	860880896	55	3802
2026-01-17 08:14:45.65	60.37	15.02	-41.6	-42.5	21.4	0.00e+00	0	34	0	867172352	55	3859
2026-01-17 08:14:46.65	60.23	15.10	-41.5	-42.4	21.6	0.00e+00	0	34	0	872415232	55	3781
2026-01-17 08:14:47.66	60.07	15.18	-41.5	-42.4	21.6	0.00e+00	0	34	0	877658112	54	4009
2026-01-17 08:14:48.67	59.92	15.26	-41.6	-42.4	21.5	0.00e+00	0	34	0	883949568	54	4050
2026-01-17 08:14:49.68	59.77	15.33	-41.4	-42.2	21.7	0.00e+00	0	34	0	889192448	54	3936
2026-01-17 08:14:50.69	59.62	15.41	-41.1	-42.0	22.0	0.00e+00	0	34	0	895483904	54	3837
2026-01-17 08:14:51.70	59.47	15.49	-41.3	-42.1	21.8	0.00e+00	0	34	0	900726784	54	3897
2026-01-17 08:14:52.70	59.31	15.57	-41.2	-42.1	21.9	0.00e+00	0	34	0	907018240	54	3878
2026-01-17 08:14:53.71	59.16	15.64	-41.2	-42.1	21.9	0.00e+00	0	34	0	912261120	54	3884
2026-01-17 08:14:54.72	59.00	15.72	-41.3	-42.2	21.8	0.00e+00	0	34	0	918552576	54	3931
2026-01-17 08:14:55.73	58.85	15.80	-41.1	-41.9	22.0	0.00e+00	0	34	0	923795456	54	3811
2026-01-17 08:14:56.74	58.69	15.88	-41.0	-41.9	22.1	0.00e+00	0	34	0	929038336	54	3789
2026-01-17 08:14:57.75	58.53	15.96	-41.2	-42.0	21.9	0.00e+00	0	34	0	935329792	54	3865
2026-01-17 08:14:58.75	58.37	16.03	-41.1	-41.9	22.0	0.00e+00	0	34	0	940572672	54	3817
2026-01-17 08:14:59.76	58.21	16.11	-41.1	-41.9	22.0	0.00e+00	0	34	0	945815552	54	3824
2026-01-17 08:15:00.77	58.05	16.19	-41.1	-41.9	22.0	0.00e+00	0	34	0	952107008	54	3808
2026-01-17 08:15:01.78	57.89	16.27	-41.1	-42.0	22.0	0.00e+00	0	34	0	957349888	54	3844
2026-01-17 08:15:02.79	57.73	16.34	-41.1	-41.9	22.0	0.00e+00	0	34	0	962592768	54	3814
2026-01-17 08:15:03.80	57.56	16.42	-41.0	-41.8	22.1	0.00e+00	0	34	0	968884224	53	3990
2026-01-17 08:15:04.80	57.40	16.50	-41.0	-41.8	22.1	0.00e+00	0	34	0	975175680	53	3996
2026-01-17 08:15:05.81	57.23	16.58	-40.9	-41.8	22.2	0.00e+00	0	34	0	980418560	53	3970
2026-01-17 08:15:06.82	57.07	16.66	-41.0	-41.9	22.1	0.00e+00	0	34	0	985661440	53	4023
2026-01-17 08:15:07.83	56.90	16.73	-41.1	-41.9	22.0	0.00e+00	0	34	0	991952896	53	4037
2026-01-17 08:15:08.84	56.73	16.81	-41.1	-41.9	22.0	0.00e+00	0	34	0	997195776	53	4039
2026-01-17 08:15:09.84	56.57	16.89	-41.1	-41.9	22.1	0.00e+00	0	34	0	1003487232	53	4027
2026-01-17 08:15:10.85	56.40	16.97	-41.1	-41.9	22.0	0.00e+00	0	34	0	1008730112	53	4045
2026-01-17 08:15:11.86	56.23	17.04	-41.1	-42.0	22.0	0.00e+00	0	34	0	1013972992	53	4070
2026-01-17 08:15:12.87	56.05	17.12	-41.1	-41.9	22.1	0.00e+00	0	34	0	1020264448	53	4034
2026-01-17 08:15:13.88	55.88	17.20	-41.2	-42.0	22.0	0.00e+00	0	34	0	1025507328	53	4092
2026-01-17 08:15:14.89	55.71	17.28	-41.1	-41.9	22.1	0.00e+00	0	34	0	1030750208	53	4021
2026-01-17 08:15:15.90	55.53	17.36	-40.9	-41.7	22.2	0.00e+00	0	34	0	1037041664	53	3944
2026-01-17 08:15:16.90	55.36	17.43	-40.9	-41.7	22.2	0.00e+00	0	34	0	1043333120	53	3958
2026-01-17 08:15:17.91	55.19	17.51	-40.7	-41.5	22.4	0.00e+00	0	34	0	1048576000	53	3861
2026-01-17 08:15:18.92	55.01	17.59	-40.7	-41.6	22.4	0.00e+00	0	34	0	1053818880	53	3875
2026-01-17 08:15:19.93	54.83	17.67	-40.8	-41.6	22.4	0.00e+00	0	34	0	1060110336	53	3889
2026-01-17 08:15:20.94	54.65	17.74	-40.8	-41.6	22.4	0.00e+00	0	34	0	1065353216	53	3908
2026-01-17 08:15:21.94	54.47	17.82	-40.7	-41.6	22.4	0.00e+00	0	34	0	1070596096	53	3870
2026-01-17 08:15:22.95	54.29	17.90	-40.6	-41.5	22.5	0.00e+00	0	34	0	1076887552	53	3826
2026-01-17 08:15:23.96	54.11	17.98	-40.7	-41.5	22.5	0.00e+00	0	34	0	1082130432	53	3835
2026-01-17 08:15:24.97	53.93	18.05	-40.6	-41.4	22.6	0.00e+00	0	34	0	1088421888	53	3810
2026-01-17 08:15:25.98	53.75	18.13	-40.6	-41.4	22.6	0.00e+00	0	34	0	1093664768	53	3819
2026-01-17 08:15:26.98	53.56	18.21	-40.5	-41.3	22.6	0.00e+00	0	34	0	1098907648	53	3780
2026-01-17 08:15:27.99	53.38	18.29	-40.6	-41.4	22.6	0.00e+00	0	34	0	1105199104	53	3796
2026-01-17 08:15:29.00	53.19	18.36	-40.6	-41.5	22.5	0.00e+00	0	34	0	1111490560	53	3827
2026-01-17 08:15:30.01	53.00	18.44	-40.6	-41.4	22.6	0.00e+00	0	34	0	1116733440	53	3788
2026-01-17 08:15:31.02	52.82	18.52	-40.6	-41.4	22.6	0.00e+00	0	34	0	1121976320	53	3796
2026-01-17 08:15:32.02	52.63	18.59	-40.6	-41.4	22.6	0.00e+00	0	34	0	1128267776	53	3797
2026-01-17 08:15:33.03	52.44	18.67	-40.6	-41.4	22.6	0.00e+00	0	34	0	1133510656	53	3808
2026-01-17 08:15:34.04	52.25	18.75	-40.6	-41.4	22.6	0.00e+00	0	34	0	1138753536	53	3811
2026-01-17 08:15:35.05	52.06	18.82	-40.6	-41.4	22.6	0.00e+00	0	34	0	1145044992	53	3790
2026-01-17 08:15:36.06	51.86	18.90	-40.5	-41.3	22.7	0.00e+00	0	34	0	1150287872	53	3771
2026-01-17 08:15:37.07	51.67	18.98	-40.5	-41.3	22.7	0.00e+00	0	34	0	1155530752	53	3775
2026-01-17 08:15:38.08	51.47	19.05	-40.4	-41.2	22.8	0.00e+00	0	34	0	1161822208	52	3947
2026-01-17 08:15:39.09	51.28	19.13	-40.4	-41.2	22.8	0.00e+00	0	34	0	1167065088	52	3916
2026-01-17 08:15:40.10	51.08	19.21	-40.5	-41.3	22.7	0.00e+00	0	34	0	1173356544	52	3994
2026-01-17 08:15:41.11	50.88	19.28	-40.6	-41.4	22.6	0.00e+00	0	34	0	1178599424	52	4032
2026-01-17 08:15:42.11	50.68	19.36	-40.5	-41.3	22.7	0.00e+00	0	34	0	1184890880	52	3971
2026-01-17 08:15:43.13	50.48	19.43	-40.4	-41.2	22.8	0.00e+00	0	34	0	1190133760	52	3925
2026-01-17 08:15:44.13	50.28	19.51	-40.4	-41.2	22.8	0.00e+00	0	34	0	1196425216	52	3933
2026-01-17 08:15:45.14	50.08	19.58	-40.3	-41.1	22.9	0.00e+00	0	34	0	1201668096	52	3882
2026-01-17 08:15:46.15	49.88	19.66	-40.1	-40.9	23.1	0.00e+00	0	34	0	1206910976	52	3782
2026-01-17 08:15:47.16	49.67	19.73	-40.0	-40.8	23.2	0.00e+00	0	34	0	1213202432	52	3768
2026-01-17 08:15:48.17	49.47	19.81	-40.1	-40.8	23.2	0.00e+00	0	34	0	1218445312	51	3996
2026-01-17 08:15:49.18	49.26	19.88	-40.0	-40.8	23.3	0.00e+00	0	34	0	1223688192	51	3986
2026-01-17 08:15:50.19	49.06	19.96	-40.0	-40.7	23.3	0.00e+00	0	34	0	1229979648	51	3948
2026-01-17 08:15:51.20	48.85	20.03	-39.8	-40.6	23.5	0.00e+00	0	34	0	1236271104	51	3885
2026-01-17 08:15:52.20	48.64	20.11	-39.8	-40.5	23.5	0.00e+00	0	34	0	1241513984	51	3863
2026-01-17 08:15:53.21	48.43	20.18	-39.7	-40.5	23.5	0.00e+00	0	34	0	1246756864	51	3843
2026-01-17 08:15:54.22	48.22	20.25	-39.8	-40.5	23.5	0.00e+00	0	34	0	1253048320	51	3856
2026-01-17 08:15:55.23	48.01	20.33	-39.8	-40.6	23.5	0.00e+00	0	34	0	1258291200	51	3886
2026-01-17 08:15:56.24	47.79	20.40	-39.8	-40.6	23.5	0.00e+00	0	34	0	1263534080	51	3879
2026-01-17 08:15:57.25	47.58	20.48	-39.8	-40.6	23.5	0.00e+00	0	34	0	1269825536	51	3900
2026-01-17 08:15:58.26	47.36	20.55	-39.9	-40.7	23.4	0.00e+00	0	34	0	1275068416	51	3917
2026-01-17 08:15:59.27	47.15	20.62	-39.8	-40.6	23.5	0.00e+00	0	34	0	1281359872	51	3885
2026-01-17 08:16:00.28	46.93	20.69	-39.8	-40.6	23.4	0.00e+00	0	34	0	1286602752	51	3894
2026-01-17 08:16:01.28	46.71	20.77	-39.9	-40.6	23.4	0.00e+00	0	34	0	1291845632	51	3910
2026-01-17 08:16:02.29	46.49	20.84	-39.9	-40.7	23.4	0.00e+00	0	34	0	1298137088	51	3929
2026-01-17 08:16:03.30	46.27	20.91	-39.9	-40.7	23.4	0.00e+00	0	34	0	1304428544	51	3946
2026-01-17 08:16:04.31	46.05	20.98	-40.1	-40.8	23.2	0.00e+00	0	34	0	1309671424	51	4001
2026-01-17 08:16:05.32	45.83	21.05	-40.1	-40.9	23.2	0.00e+00	0	34	0	1314914304	51	4009
2026-01-17 08:16:06.33	45.60	21.12	-40.1	-40.9	23.2	0.00e+00	0	34	0	1321205760	51	4034
2026-01-17 08:16:07.33	45.38	21.19	-40.1	-40.9	23.2	0.00e+00	0	34	0	1326448640	51	4020
2026-01-17 08:16:08.34	45.16	21.27	-40.0	-40.8	23.3	0.00e+00	0	34	0	1331691520	51	3970
2026-01-17 08:16:09.35	44.93	21.34	-40.0	-40.7	23.4	0.00e+00	0	34	0	1337982976	51	3956
2026-01-17 08:16:10.36	44.70	21.41	-39.9	-40.7	23.4	0.00e+00	0	34	0	1343225856	51	3939
2026-01-17 08:16:11.37	44.47	21.48	-39.8	-40.6	23.5	0.00e+00	0	34	0	1348468736	51	3874
2026-01-17 08:16:12.37	44.25	21.54	-39.8	-40.5	23.5	0.00e+00	0	34	0	1354760192	51	3865
2026-01-17 08:16:13.38	44.01	21.61	-39.6	-40.3	23.8	0.00e+00	0	34	0	1360003072	51	3757
2026-01-17 08:16:14.39	43.78	21.68	-39.6	-40.3	23.7	0.00e+00	0	34	0	1366294528	51	3775
2026-01-17 08:16:15.40	43.55	21.75	-39.7	-40.4	23.6	0.00e+00	0	34	0	1371537408	51	3820
2026-01-17 08:16:16.41	43.32	21.82	-39.7	-40.5	23.6	0.00e+00	0	34	0	1377828864	51	3826
2026-01-17 08:16:17.42	43.08	21.89	-39.9	-40.7	23.5	0.00e+00	0	34	0	1383071744	51	3914
2026-01-17 08:16:18.43	42.84	21.96	-39.9	-40.7	23.4	0.00e+00	0	34	0	1389363200	51	3928
2026-01-17 08:16:19.44	42.61	22.02	-39.8	-40.6	23.5	0.00e+00	0	34	0	1394606080	51	3891
2026-01-17 08:16:20.45	42.37	22.09	-39.8	-40.5	23.5	0.00e+00	0	34	0	1399848960	51	3866
2026-01-17 08:16:21.46	42.13	22.16	-39.7	-40.5	23.6	0.00e+00	0	34	0	1406140416	51	3829
2026-01-17 08:16:22.46	41.89	22.22	-39.7	-40.4	23.7	0.00e+00	0	34	0	1411383296	51	3820
2026-01-17 08:16:23.47	41.65	22.29	-39.6	-40.3	23.8	0.00e+00	0	34	0	1416626176	51	3763
2026-01-17 08:16:24.48	41.41	22.35	-39.6	-40.3	23.8	0.00e+00	0	34	0	1422917632	51	3768
2026-01-17 08:16:25.49	41.16	22.42	-39.6	-40.4	23.7	0.00e+00	0	34	0	1428160512	51	3792
2026-01-17 08:16:26.50	40.92	22.48	-39.6	-40.3	23.8	0.00e+00	0	34	0	1434451968	51	3778
2026-01-17 08:16:27.51	40.67	22.55	-39.6	-40.3	23.8	0.00e+00	0	34	0	1439694848	51	3779
2026-01-17 08:16:28.52	40.43	22.61	-39.6	-40.4	23.7	0.00e+00	0	34	0	1445986304	51	3790
2026-01-17 08:16:29.53	40.18	22.67	-39.7	-40.4	23.7	0.00e+00	0	34	0	1451229184	51	3808
2026-01-17 08:16:30.53	39.93	22.74	-39.6	-40.4	23.7	0.00e+00	0	34	0	1456472064	51	3804
2026-01-17 08:16:31.54	39.68	22.80	-39.7	-40.4	23.7	0.00e+00	0	34	0	1462763520	51	3807
2026-01-17 08:16:32.55	39.43	22.86	-39.8	-40.5	23.6	0.00e+00	0	34	0	1468006400	51	3866
2026-01-17 08:16:33.56	39.18	22.92	-39.6	-40.4	23.7	0.00e+00	0	34	0	1474297856	51	3798
2026-01-17 08:16:34.57	38.93	22.98	-39.6	-40.3	23.8	0.00e+00	0	34	0	1479540736	51	3774
2026-01-17 08:16:35.58	38.68	23.04	-39.5	-40.2	23.9	0.00e+00	0	34	0	1484783616	50	3929
2026-01-17 08:16:36.59	38.42	23.10	-39.5	-40.2	23.9	0.00e+00	0	34	0	1491075072	50	3942
2026-01-17 08:16:37.60	38.17	23.16	-39.5	-40.3	23.8	0.00e+00	0	34	0	1497366528	50	3969
2026-01-17 08:16:38.60	37.91	23.22	-39.6	-40.4	23.7	0.00e+00	0	34	0	1502609408	50	4028
2026-01-17 08:16:39.61	37.65	23.28	-39.6	-40.4	23.7	0.00e+00	0	34	0	1507852288	50	4011
2026-01-17 08:16:40.62	37.40	23.34	-39.5	-40.3	23.8	0.00e+00	0	34	0	1514143744	50	3974
2026-01-17 08:16:41.63	37.14	23.40	-39.5	-40.3	23.9	0.00e+00	0	34	0	1519386624	50	3964
2026-01-17 08:16:42.64	36.88	23.46	-39.6	-40.4	23.7	0.00e+00	0	34	0	1524629504	50	4024
2026-01-17 08:16:43.65	36.61	23.51	-39.6	-40.3	23.8	0.00e+00	0	34	0	1530920960	50	4002
2026-01-17 08:16:44.66	36.35	23.57	-39.6	-40.4	23.7	0.00e+00	0	34	0	1536163840	50	4012
2026-01-17 08:16:45.67	36.09	23.63	-39.6	-40.4	23.8	0.00e+00	0	34	0	1541406720	50	4005
2026-01-17 08:16:46.68	35.83	23.68	-39.6	-40.3	23.8	0.00e+00	0	35	0	1547698176	50	3986
2026-01-17 08:16:47.68	35.56	23.73	-39.5	-40.2	23.9	0.00e+00	0	34	0	1552941056	50	3952
2026-01-17 08:16:48.69	35.30	23.79	-39.4	-40.1	24.0	0.00e+00	0	34	0	1559232512	50	3890
2026-01-17 08:16:49.70	35.03	23.84	-39.2	-39.9	24.1	0.00e+00	0	34	0	1564475392	50	3820
2026-01-17 08:16:50.71	34.76	23.90	-39.1	-39.9	24.2	0.00e+00	0	34	0	1570766848	50	3784
2026-01-17 08:16:51.72	34.49	23.95	-39.2	-40.0	24.1	0.00e+00	0	34	0	1576009728	50	3837
2026-01-17 08:16:52.73	34.22	24.00	-39.2	-39.9	24.2	0.00e+00	0	34	0	1582301184	50	3816
2026-01-17 08:16:53.73	33.96	24.05	-39.3	-40.0	24.1	0.00e+00	0	34	0	1587544064	50	3850
2026-01-17 08:16:54.74	33.68	24.10	-39.3	-40.1	24.0	0.00e+00	0	34	0	1592786944	50	3873
2026-01-17 08:16:55.75	33.41	24.15	-39.3	-40.0	24.1	0.00e+00	0	34	0	1599078400	50	3864
2026-01-17 08:16:56.76	33.14	24.20	-39.4	-40.1	24.0	0.00e+00	0	34	0	1604321280	50	3909
2026-01-17 08:16:57.77	32.86	24.25	-39.4	-40.1	24.0	0.00e+00	0	34	0	1609564160	50	3909
2026-01-17 08:16:58.78	32.59	24.30	-39.3	-40.0	24.1	0.00e+00	0	35	0	1615855616	50	3864
2026-01-17 08:16:59.79	32.31	24.35	-39.2	-39.9	24.2	0.00e+00	0	34	0	1621098496	50	3822
2026-01-17 08:17:00.80	32.04	24.39	-39.1	-39.8	24.3	0.00e+00	0	34	0	1627389952	50	3770
2026-01-17 08:17:01.81	31.76	24.44	-39.1	-39.8	24.3	0.00e+00	0	34	0	1632632832	50	3752
2026-01-17 08:17:02.81	31.48	24.48	-38.9	-39.7	24.4	0.00e+00	0	34	0	1638924288	49	3914
2026-01-17 08:17:03.82	31.20	24.53	-38.9	-39.6	24.4	0.00e+00	0	34	0	1644167168	49	3904
2026-01-17 08:17:04.83	30.92	24.57	-38.8	-39.6	24.5	0.00e+00	0	34	0	1649410048	49	3869
2026-01-17 08:17:05.84	30.64	24.62	-38.9	-39.7	24.4	0.00e+00	0	34	0	1655701504	49	3918
2026-01-17 08:17:06.85	30.36	24.66	-39.0	-39.8	24.3	0.00e+00	0	34	0	1660944384	49	3974
2026-01-17 08:17:07.86	30.08	24.70	-39.2	-39.9	24.2	0.00e+00	0	35	0	1667235840	49	4025
2026-01-17 08:17:08.86	29.80	24.74	-39.3	-40.0	24.0	0.00e+00	0	34	0	1672478720	49	4097
2026-01-17 08:17:09.87	29.52	24.78	-39.4	-40.2	23.9	0.00e+00	0	34	0	1677721600	49	4156
2026-01-17 08:17:10.88	29.23	24.82	-39.4	-40.2	23.9	0.00e+00	0	35	0	1684013056	49	4166
2026-01-17 08:17:11.89	28.95	24.86	-39.5	-40.2	23.9	0.00e+00	0	34	0	1689255936	49	4176
2026-01-17 08:17:12.90	28.66	24.90	-39.5	-40.2	23.9	0.00e+00	0	35	0	1695547392	49	4191
2026-01-17 08:17:13.90	28.38	24.94	-39.4	-40.1	24.0	0.00e+00	0	34	0	1700790272	49	4118
2026-01-17 08:17:14.91	28.09	24.98	-39.3	-40.0	24.1	0.00e+00	0	34	0	1707081728	49	4072
2026-01-17 08:17:15.92	27.80	25.01	-39.2	-40.0	24.1	0.00e+00	0	34	0	1712324608	49	4063
2026-01-17 08:17:16.93	27.51	25.05	-39.2	-39.9	24.2	0.00e+00	0	34	0	1717567488	49	4031
2026-01-17 08:17:17.94	27.22	25.09	-39.2	-39.9	24.2	0.00e+00	0	34	0	1723858944	49	4047
2026-01-17 08:17:18.95	26.93	25.12	-39.3	-40.0	24.1	0.00e+00	0	34	0	1729101824	49	4077
2026-01-17 08:17:19.96	26.64	25.15	-39.2	-39.9	24.2	0.00e+00	0	34	0	1734344704	49	4031
2026-01-17 08:17:20.97	26.35	25.19	-39.2	-39.9	24.2	0.00e+00	0	34	0	1740636160	49	4027
2026-01-17 08:17:21.98	26.06	25.22	-39.2	-39.9	24.2	0.00e+00	0	34	0	1745879040	49	4020
2026-01-17 08:17:22.98	25.77	25.25	-39.3	-40.1	24.0	0.00e+00	0	34	0	1752170496	49	4104
2026-01-17 08:17:23.99	25.48	25.28	-39.2	-39.9	24.2	0.00e+00	0	34	0	1757413376	49	4036
2026-01-17 08:17:25.00	25.18	25.31	-39.2	-39.9	24.2	0.00e+00	0	35	0	1763704832	49	4034
2026-01-17 08:17:26.01	24.89	25.34	-39.2	-39.9	24.2	0.00e+00	0	34	0	1768947712	49	4041
2026-01-17 08:17:27.02	24.60	25.37	-39.1	-39.8	24.3	0.00e+00	0	34	0	1775239168	49	3987
2026-01-17 08:17:28.02	24.30	25.39	-39.1	-39.8	24.3	0.00e+00	0	34	0	1780482048	49	3996
2026-01-17 08:17:29.03	24.01	25.42	-39.0	-39.7	24.4	0.00e+00	0	34	0	1785724928	49	3949
2026-01-17 08:17:30.04	23.71	25.45	-39.0	-39.7	24.3	0.00e+00	0	34	0	1792016384	49	3957
2026-01-17 08:17:31.05	23.42	25.47	-39.1	-39.8	24.3	0.00e+00	0	34	0	1797259264	49	3989
2026-01-17 08:17:32.06	23.12	25.49	-39.0	-39.8	24.3	0.00e+00	0	34	0	1802502144	49	3962
2026-01-17 08:17:33.07	22.82	25.52	-39.1	-39.9	24.2	0.00e+00	0	34	0	1808793600	49	4012
2026-01-17 08:17:34.07	22.53	25.54	-39.2	-39.9	24.2	0.00e+00	0	34	0	1814036480	49	4045
2026-01-17 08:17:35.09	22.23	25.56	-39.3	-40.1	24.0	0.00e+00	0	34	0	1819279360	49	4108
2026-01-17 08:17:36.09	21.93	25.58	-39.4	-40.2	24.0	0.00e+00	0	34	0	1825570816	49	4146
2026-01-17 08:17:37.10	21.63	25.60	-39.5	-40.2	23.9	0.00e+00	0	34	0	1831862272	49	4191
2026-01-17 08:17:38.11	21.33	25.62	-39.5	-40.2	23.9	0.00e+00	0	34	0	1837105152	49	4172
2026-01-17 08:17:39.12	21.03	25.64	-39.5	-40.2	23.9	0.00e+00	0	34	0	1842348032	49	4191
2026-01-17 08:17:40.13	20.73	25.66	-39.5	-40.2	23.9	0.00e+00	0	34	0	1848639488	49	4180
2026-01-17 08:17:41.13	20.43	25.67	-39.3	-40.0	24.1	0.00e+00	0	34	0	1853882368	49	4087
2026-01-17 08:17:42.14	20.13	25.69	-39.3	-40.0	24.1	0.00e+00	0	34	0	1860173824	49	4092
2026-01-17 08:17:43.15	19.83	25.70	-39.2	-40.0	24.2	0.00e+00	0	34	0	1865416704	49	4053
2026-01-17 08:17:44.16	19.53	25.72	-39.0	-39.7	24.4	0.00e+00	0	34	0	1870659584	49	3937
2026-01-17 08:17:45.16	19.23	25.73	-38.9	-39.6	24.5	0.00e+00	0	34	0	1876951040	49	3893
2026-01-17 08:17:46.17	18.93	25.74	-38.8	-39.5	24.5	0.00e+00	0	34	0	1882193920	49	3854
2026-01-17 08:17:47.18	18.63	25.75	-38.8	-39.5	24.5	0.00e+00	0	34	0	1887436800	49	3859
2026-01-17 08:17:48.19	18.33	25.76	-38.7	-39.4	24.7	0.00e+00	0	34	0	1893728256	49	3819
2026-01-17 08:17:49.20	18.02	25.77	-38.7	-39.4	24.7	0.00e+00	0	34	0	1900019712	49	3795
2026-01-17 08:17:50.20	17.72	25.78	-38.8	-39.5	24.6	0.00e+00	0	34	0	1905262592	49	3858
2026-01-17 08:17:51.21	17.42	25.79	-38.9	-39.6	24.5	0.00e+00	0	34	0	1910505472	49	3906
2026-01-17 08:17:52.22	17.12	25.80	-39.0	-39.7	24.4	0.00e+00	0	34	0	1916796928	49	3936
2026-01-17 08:17:53.23	16.82	25.80	-38.9	-39.6	24.5	0.00e+00	0	34	0	1922039808	49	3902
2026-01-17 08:17:54.24	16.51	25.81	-39.1	-39.8	24.3	0.00e+00	0	34	0	1927282688	49	3971
2026-01-17 08:17:55.24	16.21	25.81	-39.2	-39.9	24.2	0.00e+00	0	34	0	1933574144	49	4029
2026-01-17 08:17:56.25	15.91	25.82	-39.3	-40.0	24.1	0.00e+00	0	34	0	1938817024	49	4097
2026-01-17 08:17:57.26	15.61	25.82	-39.2	-39.9	24.2	0.00e+00	0	34	0	1945108480	49	4034
2026-01-17 08:17:58.27	15.30	25.82	-39.2	-39.9	24.2	0.00e+00	0	34	0	1950351360	49	4041
2026-01-17 08:17:59.28	15.00	25.82	-39.2	-39.9	24.2	0.00e+00	0	34	0	1955594240	49	4044
2026-01-17 08:18:00.28	14.70	25.82	-39.1	-39.8	24.3	0.00e+00	0	34	0	1961885696	49	3971
2026-01-17 08:18:01.29	14.39	25.82	-39.0	-39.8	24.4	0.00e+00	0	34	0	1967128576	49	3962
2026-01-17 08:18:02.30	14.09	25.82	-39.0	-39.7	24.4	0.00e+00	0	34	0	1973420032	49	3931
2026-01-17 08:18:03.31	13.79	25.82	-39.0	-39.7	24.4	0.00e+00	0	34	0	1978662912	49	3954
2026-01-17 08:18:04.32	13.48	25.81	-39.1	-39.8	24.3	0.00e+00	0	34	0	1984954368	49	3979
2026-01-17 08:18:05.32	13.18	25.81	-39.0	-39.7	24.4	0.00e+00	0	34	0	1990197248	49	3952
2026-01-17 08:18:06.33	12.88	25.80	-38.8	-39.5	24.6	0.00e+00	0	35	0	1995440128	49	3858
2026-01-17 08:18:07.34	12.58	25.80	-38.7	-39.5	24.6	0.00e+00	0	34	0	2001731584	49	3829
2026-01-17 08:18:08.35	12.27	25.79	-38.8	-39.5	24.6	0.00e+00	0	34	0	2006974464	49	3864
2026-01-17 08:18:09.36	11.97	25.78	-39.0	-39.7	24.4	0.00e+00	0	34	0	2012217344	49	3930
2026-01-17 08:18:10.36	11.67	25.77	-39.2	-39.9	24.2	0.00e+00	0	34	0	2018508800	49	4031
2026-01-17 08:18:11.37	11.37	25.76	-39.3	-40.0	24.1	0.00e+00	0	34	0	2023751680	49	4093
2026-01-17 08:18:12.38	11.07	25.75	-39.2	-40.0	24.1	0.00e+00	0	34	0	2030043136	49	4063
2026-01-17 08:18:13.39	10.77	25.74	-39.2	-39.9	24.2	0.00e+00	0	34	0	2035286016	49	4027
2026-01-17 08:18:14.40	10.46	25.73	-39.1	-39.8	24.3	0.00e+00	0	34	0	2041577472	49	4000
2026-01-17 08:18:15.41	10.16	25.72	-39.2	-39.9	24.2	0.00e+00	0	34	0	2046820352	49	4020
2026-01-17 08:18:16.41	9.86	25.70	-39.2	-39.9	24.2	0.00e+00	0	34	0	2053111808	49	4049
2026-01-17 08:18:17.42	9.56	25.69	-39.2	-39.9	24.2	0.00e+00	0	34	0	2058354688	49	4029
2026-01-17 08:18:18.43	9.26	25.67	-39.1	-39.8	24.3	0.00e+00	0	34	0	2063597568	49	3976
2026-01-17 08:18:19.44	8.96	25.65	-39.1	-39.8	24.3	0.00e+00	0	34	0	2069889024	49	3991
2026-01-17 08:18:20.45	8.66	25.64	-39.0	-39.7	24.4	0.00e+00	0	34	0	2075131904	49	3926
2026-01-17 08:18:21.46	8.36	25.62	-38.9	-39.6	24.5	0.00e+00	0	34	0	2080374784	49	3906
2026-01-17 08:18:22.46	8.07	25.60	-39.1	-39.9	24.3	0.00e+00	0	34	0	2086666240	49	4005
2026-01-17 08:18:23.47	7.77	25.58	-38.9	-39.7	24.5	0.00e+00	0	34	0	2091909120	49	3915
2026-01-17 08:18:24.48	7.47	25.56	-38.7	-39.5	24.6	0.00e+00	0	34	0	2097152000	49	3826
2026-01-17 08:18:25.49	7.17	25.54	-38.7	-39.5	24.6	0.00e+00	0	34	0	2103443456	49	3826
2026-01-17 08:18:26.50	6.87	25.51	-38.5	-39.2	24.8	0.00e+00	0	34	0	2109734912	49	3733
2026-01-17 08:18:27.51	6.58	25.49	-38.5	-39.2	24.8	0.00e+00	0	34	0	2114977792	49	3719
2026-01-17 08:18:28.52	6.28	25.47	-38.7	-39.4	24.7	0.00e+00	0	35	0	2120220672	48	4022
2026-01-17 08:18:29.53	5.98	25.44	-38.8	-39.5	24.6	0.00e+00	0	34	0	2126512128	48	4062
2026-01-17 08:18:30.54	5.69	25.42	-38.9	-39.7	24.4	0.00e+00	0	35	0	2131755008	48	4159
2026-01-17 08:18:31.55	5.39	25.39	-39.1	-39.8	24.3	0.00e+00	0	34	0	2138046464	48	4214
2026-01-17 08:18:32.56	5.10	25.36	-39.1	-39.8	24.3	0.00e+00	0	34	0	2143289344	48	4233
2026-01-17 08:18:33.57	4.80	25.33	-39.1	-39.8	24.3	0.00e+00	0	34	0	2148532224	48	4237
2026-01-17 08:18:34.57	4.51	25.31	-39.1	-39.8	24.3	0.00e+00	0	34	0	2154823680	48	4209
2026-01-17 08:18:35.58	4.22	25.28	-39.1	-39.8	24.3	0.00e+00	0	34	0	2160066560	48	4217
2026-01-17 08:18:36.59	3.92	25.24	-39.1	-39.8	24.3	0.00e+00	0	34	0	2165309440	48	4237
2026-01-17 08:18:37.60	3.63	25.21	-39.0	-39.7	24.4	0.00e+00	0	34	0	2171600896	48	4174
2026-01-17 08:18:38.61	3.34	25.18	-39.0	-39.7	24.4	0.00e+00	0	35	0	2177892352	48	4192
2026-01-17 08:18:39.62	3.05	25.15	-39.1	-39.8	24.3	0.00e+00	0	34	0	2183135232	48	4226
2026-01-17 08:18:40.63	2.76	25.11	-39.0	-39.7	24.4	0.00e+00	0	34	0	2188378112	48	4180
2026-01-17 08:18:41.64	2.47	25.08	-38.8	-39.5	24.6	0.00e+00	0	34	0	2194669568	48	4080
2026-01-17 08:18:42.64	2.18	25.05	-38.8	-39.5	24.6	0.00e+00	0	34	0	2199912448	48	4089
2026-01-17 08:18:43.65	1.90	25.01	-38.9	-39.7	24.4	0.00e+00	0	34	0	2205155328	48	4156
2026-01-17 08:18:44.66	1.61	24.97	-38.9	-39.6	24.5	0.00e+00	0	34	0	2211446784	48	4115
2026-01-17 08:18:45.67	1.32	24.94	-38.8	-39.5	24.6	0.00e+00	0	34	0	2216689664	48	4081
2026-01-17 08:18:46.68	1.03	24.90	-38.8	-39.5	24.6	0.00e+00	0	34	0	2222981120	48	4065
2026-01-17 08:18:47.69	0.75	24.86	-38.9	-39.6	24.5	0.00e+00	0	34	0	2228224000	48	4127
2026-01-17 08:18:48.69	0.47	24.82	-39.0	-39.7	24.4	0.00e+00	0	34	0	2233466880	48	4186
2026-01-17 08:18:49.70	0.18	24.78	-39.2	-39.9	24.2	0.00e+00	0	34	0	2239758336	48	4283
2026-01-17 08:18:50.71	359.90	24.74	-39.2	-39.9	24.2	0.00e+00	0	34	0	2246049792	49	4046
2026-01-17 08:18:51.72	359.62	24.70	-39.1	-39.9	24.3	0.00e+00	0	34	0	2251292672	49	4006
2026-01-17 08:18:52.72	359.34	24.65	-39.2	-39.9	24.2	0.00e+00	0	34	0	2256535552	49	4049
2026-01-17 08:18:53.73	359.06	24.61	-39.3	-40.1	24.1	0.00e+00	0	34	0	2262827008	49	4102
2026-01-17 08:18:54.74	358.78	24.57	-39.2	-39.9	24.2	0.00e+00	0	35	0	2268069888	49	4040
2026-01-17 08:18:55.75	358.50	24.52	-39.2	-39.9	24.2	0.00e+00	0	34	0	2273312768	49	4048
2026-01-17 08:18:56.76	358.22	24.48	-39.1	-39.9	24.3	0.00e+00	0	34	0	2279604224	49	4016
2026-01-17 08:18:57.76	357.94	24.43	-39.1	-39.8	24.3	0.00e+00	0	34	0	2284847104	49	3984
2026-01-17 08:18:58.77	357.66	24.39	-38.8	-39.5	24.5	0.00e+00	0	34	0	2290089984	49	3866
2026-01-17 08:18:59.78	357.39	24.34	-38.8	-39.5	24.6	0.00e+00	0	34	0	2296381440	49	3833
2026-01-17 08:19:00.79	357.11	24.29	-38.8	-39.5	24.6	0.00e+00	0	34	0	2301624320	49	3852
2026-01-17 08:19:01.80	356.84	24.24	-38.7	-39.4	24.6	0.00e+00	0	35	0	2307915776	49	3823
2026-01-17 08:19:02.81	356.56	24.19	-38.8	-39.5	24.6	0.00e+00	0	34	0	2313158656	49	3836
2026-01-17 08:19:03.82	356.29	24.14	-38.8	-39.6	24.5	0.00e+00	0	34	0	2319450112	49	3879
2026-01-17 08:19:04.82	356.02	24.10	-38.9	-39.7	24.5	0.00e+00	0	34	0	2324692992	49	3915
2026-01-17 08:19:05.83	355.75	24.04	-38.9	-39.6	24.5	0.00e+00	0	34	0	2330984448	49	3892
2026-01-17 08:19:06.84	355.48	23.99	-38.9	-39.6	24.5	0.00e+00	0	34	0	2336227328	49	3891
2026-01-17 08:19:07.85	355.21	23.94	-38.9	-39.7	24.4	0.00e+00	0	34	0	2341470208	49	3924
2026-01-17 08:19:08.86	354.94	23.89	-38.9	-39.6	24.5	0.00e+00	0	34	0	2347761664	49	3910
2026-01-17 08:19:09.87	354.67	23.84	-38.9	-39.6	24.5	0.00e+00	0	34	0	2353004544	49	3897
2026-01-17 08:19:10.88	354.41	23.78	-38.9	-39.6	24.5	0.00e+00	0	34	0	2358247424	49	3911
2026-01-17 08:19:11.89	354.14	23.73	-39.0	-39.7	24.4	0.00e+00	0	34	0	2364538880	49	3929
2026-01-17 08:19:12.90	353.88	23.67	-39.0	-39.7	24.4	0.00e+00	0	34	0	2370830336	49	3956
2026-01-17 08:19:13.90	353.62	23.62	-39.0	-39.8	24.3	0.00e+00	0	34	0	2376073216	49	3961
2026-01-17 08:19:14.91	353.35	23.56	-39.0	-39.8	24.3	0.00e+00	0	34	0	2381316096	49	3968
2026-01-17 08:19:15.92	353.09	23.51	-39.1	-39.9	24.3	0.00e+00	0	34	0	2387607552	49	4010
2026-01-17 08:19:16.93	352.83	23.45	-39.2	-40.0	24.2	0.00e+00	0	34	0	2392850432	49	4059
2026-01-17 08:19:17.94	352.57	23.39	-39.2	-39.9	24.2	0.00e+00	0	34	0	2398093312	49	4028
2026-01-17 08:19:18.94	352.31	23.33	-39.2	-39.9	24.2	0.00e+00	0	34	0	2404384768	49	4025
2026-01-17 08:19:19.95	352.05	23.28	-39.1	-39.8	24.3	0.00e+00	0	34	0	2409627648	49	3980
2026-01-17 08:19:20.96	351.80	23.22	-39.0	-39.8	24.3	0.00e+00	0	34	0	2415919104	49	3967
2026-01-17 08:19:21.97	351.54	23.16	-39.1	-39.8	24.3	0.00e+00	0	34	0	2421161984	49	3994
2026-01-17 08:19:22.98	351.29	23.10	-39.1	-39.8	24.3	0.00e+00	0	34	0	2426404864	49	3970
2026-01-17 08:19:23.99	351.03	23.04	-39.0	-39.8	24.3	0.00e+00	0	34	0	2432696320	49	3960
2026-01-17 08:19:25.00	350.78	22.98	-38.9	-39.6	24.4	0.00e+00	0	34	0	2438987776	49	3912
2026-01-17 08:19:26.00	350.53	22.92	-38.9	-39.6	24.5	0.00e+00	0	34	0	2444230656	49	3905
2026-01-17 08:19:27.01	350.28	22.85	-39.1	-39.8	24.3	0.00e+00	0	34	0	2449473536	49	3982
2026-01-17 08:19:28.02	350.03	22.79	-39.1	-39.9	24.2	0.00e+00	0	34	0	2455764992	49	4006
2026-01-17 08:19:29.03	349.78	22.73	-39.2	-40.0	24.1	0.00e+00	0	34	0	2461007872	49	4054
2026-01-17 08:19:30.04	349.53	22.67	-39.2	-39.9	24.2	0.00e+00	0	34	0	2466250752	49	4032
2026-01-17 08:19:31.05	349.28	22.60	-39.2	-39.9	24.2	0.00e+00	0	34	0	2472542208	49	4011
2026-01-17 08:19:32.06	349.04	22.54	-39.2	-39.9	24.2	0.00e+00	0	34	0	2477785088	49	4017
2026-01-17 08:19:33.07	348.79	22.48	-39.3	-40.0	24.1	0.00e+00	0	34	0	2483027968	49	4076
2026-01-17 08:19:34.07	348.55	22.41	-39.4	-40.2	24.0	0.00e+00	0	34	0	2489319424	49	4148
2026-01-17 08:19:35.08	348.31	22.35	-39.4	-40.2	23.9	0.00e+00	0	34	0	2494562304	49	4163
2026-01-17 08:19:36.09	348.06	22.28	-39.4	-40.1	24.0	0.00e+00	0	34	0	2500853760	49	4139
2026-01-17 08:19:37.10	347.82	22.21	-39.4	-40.1	24.0	0.00e+00	0	34	0	2506096640	49	4121
2026-01-17 08:19:38.10	347.59	22.15	-39.2	-40.0	24.1	0.00e+00	0	34	0	2512388096	49	4053
2026-01-17 08:19:39.11	347.35	22.08	-39.3	-40.1	24.1	0.00e+00	0	34	0	2517630976	49	4102
2026-01-17 08:19:40.12	347.11	22.02	-39.3	-40.1	24.1	0.00e+00	0	34	0	2523922432	49	4102
2026-01-17 08:19:41.13	346.87	21.95	-39.1	-39.8	24.3	0.00e+00	0	34	0	2529165312	49	4000
2026-01-17 08:19:42.14	346.64	21.88	-39.1	-39.9	24.2	0.00e+00	0	34	0	2534408192	49	4016
2026-01-17 08:19:43.14	346.40	21.81	-39.1	-39.8	24.2	0.00e+00	0	34	0	2540699648	49	4004
2026-01-17 08:19:44.15	346.17	21.75	-39.2	-39.9	24.2	0.00e+00	0	34	0	2545942528	49	4034
2026-01-17 08:19:45.16	345.94	21.68	-39.4	-40.1	24.0	0.00e+00	0	34	0	2551185408	49	4120
2026-01-17 08:19:46.17	345.71	21.61	-39.4	-40.2	23.9	0.00e+00	0	34	0	2557476864	49	4155
2026-01-17 08:19:47.18	345.47	21.54	-39.5	-40.2	23.9	0.00e+00	0	34	0	2562719744	49	4180
2026-01-17 08:19:48.18	345.25	21.47	-39.5	-40.3	23.8	0.00e+00	0	34	0	2567962624	49	4206
2026-01-17 08:19:49.19	345.02	21.40	-39.6	-40.3	23.8	0.00e+00	0	34	0	2574254080	49	4235
2026-01-17 08:19:50.20	344.79	21.33	-39.5	-40.2	23.9	0.00e+00	0	34	0	2580545536	49	4183
2026-01-17 08:19:51.21	344.56	21.26	-39.5	-40.2	23.9	0.00e+00	0	34	0	2585788416	49	4181
2026-01-17 08:19:52.22	344.34	21.19	-39.5	-40.3	23.8	0.00e+00	0	35	0	2591031296	49	4199
2026-01-17 08:19:53.23	344.11	21.12	-39.4	-40.1	23.9	0.00e+00	0	34	0	2597322752	49	4136
2026-01-17 08:19:54.24	343.89	21.05	-39.4	-40.1	23.9	0.00e+00	0	34	0	2602565632	49	4139
2026-01-17 08:19:55.24	343.67	20.98	-39.5	-40.2	23.9	0.00e+00	0	34	0	2608857088	49	4156
2026-01-17 08:19:56.25	343.45	20.90	-39.5	-40.2	23.9	0.00e+00	0	34	0	2614099968	49	4178
2026-01-17 08:19:57.27	343.23	20.83	-39.7	-40.4	23.7	0.00e+00	0	34	0	2619342848	49	4285
2026-01-17 08:19:58.27	343.01	20.76	-39.8	-40.6	23.5	0.00e+00	0	35	0	2625634304	50	4116
2026-01-17 08:19:59.28	342.79	20.69	-39.9	-40.6	23.5	0.00e+00	0	34	0	2630877184	50	4134
2026-01-17 08:20:00.29	342.57	20.62	-39.8	-40.5	23.6	0.00e+00	0	34	0	2636120064	50	4087
2026-01-17 08:20:01.30	342.36	20.54	-39.8	-40.5	23.6	0.00e+00	0	35	0	2642411520	50	4093
2026-01-17 08:20:02.30	342.15	20.47	-39.7	-40.5	23.6	0.00e+00	0	34	0	2648702976	50	4057
2026-01-17 08:20:03.31	341.93	20.40	-39.8	-40.6	23.5	0.00e+00	0	34	0	2653945856	50	4115
2026-01-17 08:20:04.32	341.72	20.32	-39.9	-40.7	23.4	0.00e+00	0	34	0	2659188736	50	4173
2026-01-17 08:20:05.33	341.51	20.25	-40.1	-40.8	23.3	0.00e+00	0	34	0	2665480192	50	4240
2026-01-17 08:20:06.34	341.30	20.18	-40.0	-40.8	23.3	0.00e+00	0	34	0	2670723072	50	4206
2026-01-17 08:20:07.34	341.09	20.10	-40.0	-40.7	23.4	0.00e+00	0	34	0	2675965952	50	4188
2026-01-17 08:20:08.35	340.88	20.03	-39.9	-40.7	23.4	0.00e+00	0	34	0	2682257408	50	4165
2026-01-17 08:20:09.36	340.67	19.95	-40.0	-40.7	23.4	0.00e+00	0	34	0	2687500288	50	4178
2026-01-17 08:20:10.37	340.46	19.88	-40.0	-40.8	23.3	0.00e+00	0	34	0	2693791744	50	4209
2026-01-17 08:20:11.38	340.26	19.80	-40.1	-40.9	23.3	0.00e+00	0	34	0	2699034624	50	4260
2026-01-17 08:20:12.38	340.06	19.73	-40.2	-41.0	23.1	0.00e+00	0	34	0	2704277504	51	4084
2026-01-17 08:20:13.39	339.85	19.65	-40.2	-41.0	23.1	0.00e+00	0	34	0	2710568960	51	4072
2026-01-17 08:20:14.40	339.65	19.58	-40.1	-40.8	23.3	0.00e+00	0	34	0	2716860416	51	4000
2026-01-17 08:20:15.41	339.45	19.50	-40.0	-40.8	23.3	0.00e+00	0	34	0	2722103296	51	3974
2026-01-17 08:20:16.42	339.25	19.43	-40.1	-40.8	23.3	0.00e+00	0	34	0	2727346176	51	4003
2026-01-17 08:20:17.43	339.05	19.35	-39.9	-40.7	23.4	0.00e+00	0	35	0	2733637632	51	3924
2026-01-17 08:20:18.44	338.85	19.28	-40.0	-40.7	23.4	0.00e+00	0	34	0	2738880512	51	3946
2026-01-17 08:20:19.44	338.65	19.20	-40.1	-40.9	23.3	0.00e+00	0	34	0	2744123392	51	4017
2026-01-17 08:20:20.45	338.46	19.13	-40.0	-40.8	23.4	0.00e+00	0	34	0	2750414848	51	3961
2026-01-17 08:20:21.46	338.26	19.05	-40.1	-40.8	23.3	0.00e+00	0	34	0	2755657728	51	3999
2026-01-17 08:20:22.47	338.06	18.97	-40.0	-40.7	23.4	0.00e+00	0	35	0	2760900608	51	3951
2026-01-17 08:20:23.48	337.87	18.90	-40.0	-40.7	23.4	0.00e+00	0	34	0	2767192064	51	3951
2026-01-17 08:20:24.49	337.68	18.82	-40.0	-40.8	23.3	0.00e+00	0	34	0	2772434944	51	3992
2026-01-17 08:20:25.49	337.49	18.74	-40.1	-40.9	23.2	0.00e+00	0	34	0	2778726400	51	4032
2026-01-17 08:20:26.50	337.30	18.67	-40.1	-40.8	23.3	0.00e+00	0	34	0	2783969280	51	4004
2026-01-17 08:20:27.51	337.11	18.59	-40.0	-40.7	23.4	0.00e+00	0	34	0	2790260736	51	3940
2026-01-17 08:20:28.52	336.92	18.51	-39.9	-40.7	23.4	0.00e+00	0	35	0	2795503616	51	3927
2026-01-17 08:20:29.53	336.73	18.44	-39.9	-40.7	23.4	0.00e+00	0	34	0	2801795072	51	3917
2026-01-17 08:20:30.54	336.54	18.36	-39.9	-40.7	23.4	0.00e+00	0	35	0	2807037952	51	3914
2026-01-17 08:20:31.54	336.36	18.28	-40.1	-40.9	23.2	0.00e+00	0	34	0	2812280832	51	4014
2026-01-17 08:20:32.55	336.17	18.21	-40.2	-41.0	23.1	0.00e+00	0	34	0	2818572288	51	4059
2026-01-17 08:20:33.56	335.99	18.13	-40.3	-41.0	23.1	0.00e+00	0	34	0	2823815168	51	4095
2026-01-17 08:20:34.57	335.81	18.05	-40.3	-41.0	23.1	0.00e+00	0	35	0	2829058048	51	4094
2026-01-17 08:20:35.58	335.62	17.97	-40.3	-41.1	23.0	0.00e+00	0	34	0	2835349504	51	4142
2026-01-17 08:20:36.58	335.45	17.90	-40.3	-41.1	23.0	0.00e+00	0	34	0	2840592384	51	4122
2026-01-17 08:20:37.59	335.26	17.82	-40.4	-41.2	22.9	0.00e+00	0	34	0	2845835264	51	4166
2026-01-17 08:20:38.60	335.09	17.74	-40.4	-41.2	22.9	0.00e+00	0	35	0	2852126720	51	4192
2026-01-17 08:20:39.61	334.91	17.66	-40.4	-41.2	22.9	0.00e+00	0	34	0	2858418176	51	4182
2026-01-17 08:20:40.62	334.73	17.59	-40.4	-41.2	22.9	0.00e+00	0	35	0	2863661056	51	4147
2026-01-17 08:20:41.62	334.55	17.51	-40.4	-41.2	22.9	0.00e+00	0	34	0	2868903936	51	4176
2026-01-17 08:20:42.63	334.38	17.43	-40.4	-41.1	22.9	0.00e+00	0	35	0	2875195392	51	4144
2026-01-17 08:20:43.64	334.20	17.35	-40.4	-41.2	22.9	0.00e+00	0	34	0	2880438272	51	4156
2026-01-17 08:20:44.65	334.03	17.28	-40.4	-41.2	22.9	0.00e+00	0	34	0	2886729728	51	4177
2026-01-17 08:20:45.66	333.86	17.20	-40.4	-41.2	22.9	0.00e+00	0	34	0	2891972608	51	4168
2026-01-17 08:20:46.66	333.69	17.12	-40.5	-41.3	22.8	0.00e+00	0	35	0	2897215488	51	4206
2026-01-17 08:20:47.67	333.52	17.04	-40.4	-41.2	22.9	0.00e+00	0	34	0	2903506944	51	4158
2026-01-17 08:20:48.68	333.35	16.96	-40.6	-41.4	22.8	0.00e+00	0	34	0	2908749824	51	4244
2026-01-17 08:20:49.69	333.18	16.89	-40.5	-41.3	22.8	0.00e+00	0	34	0	2913992704	51	4229
2026-01-17 08:20:50.70	333.01	16.81	-40.6	-41.4	22.7	0.00e+00	0	34	0	2920284160	51	4258
2026-01-17 08:20:51.71	332.84	16.73	-40.6	-41.4	22.7	0.00e+00	0	34	0	2926575616	51	4280
2026-01-17 08:20:52.72	332.67	16.65	-40.7	-41.5	22.6	0.00e+00	0	34	0	2931818496	51	4302
2026-01-17 08:20:53.73	332.51	16.58	-40.6	-41.4	22.7	0.00e+00	0	34	0	2937061376	52	4017
2026-01-17 08:20:54.74	332.34	16.50	-40.7	-41.5	22.5	0.00e+00	0	34	0	2943352832	52	4090
2026-01-17 08:20:55.74	332.18	16.42	-40.8	-41.6	22.4	0.00e+00	0	34	0	2948595712	52	4121
2026-01-17 08:20:56.75	332.02	16.34	-40.8	-41.6	22.4	0.00e+00	0	34	0	2953838592	52	4115
2026-01-17 08:20:57.76	331.85	16.26	-40.8	-41.6	22.4	0.00e+00	0	34	0	2960130048	52	4112
2026-01-17 08:20:58.77	331.69	16.19	-40.7	-41.5	22.5	0.00e+00	0	34	0	2965372928	52	4081
2026-01-17 08:20:59.78	331.53	16.11	-40.8	-41.6	22.4	0.00e+00	0	34	0	2971664384	52	4120
2026-01-17 08:21:00.78	331.37	16.03	-40.8	-41.6	22.4	0.00e+00	0	34	0	2976907264	52	4137
2026-01-17 08:21:01.79	331.22	15.95	-40.7	-41.5	22.5	0.00e+00	0	35	0	2982150144	52	4097
2026-01-17 08:21:02.80	331.06	15.88	-40.9	-41.7	22.3	0.00e+00	0	34	0	2988441600	52	4180
2026-01-17 08:21:03.81	330.90	15.80	-41.0	-41.8	22.2	0.00e+00	0	34	0	2994733056	52	4214
2026-01-17 08:21:04.82	330.74	15.72	-41.0	-41.8	22.2	0.00e+00	0	34	0	2999975936	52	4222
2026-01-17 08:21:05.82	330.59	15.64	-41.0	-41.8	22.2	0.00e+00	0	34	0	3005218816	52	4218
2026-01-17 08:21:06.83	330.43	15.57	-41.1	-41.9	22.1	0.00e+00	0	34	0	3011510272	52	4260
2026-01-17 08:21:07.84	330.28	15.49	-40.9	-41.7	22.3	0.00e+00	0	34	0	3016753152	52	4156
2026-01-17 08:21:08.85	330.13	15.41	-40.9	-41.7	22.3	0.00e+00	0	34	0	3021996032	52	4190
2026-01-17 08:21:09.86	329.97	15.33	-40.9	-41.7	22.2	0.00e+00	0	34	0	3028287488	52	4185
2026-01-17 08:21:10.86	329.82	15.26	-41.0	-41.8	22.1	0.00e+00	0	34	0	3033530368	52	4241
2026-01-17 08:21:11.87	329.67	15.18	-41.1	-41.9	22.1	0.00e+00	0	34	0	3038773248	52	4290
2026-01-17 08:21:12.88	329.52	15.10	-41.0	-41.8	22.2	0.00e+00	0	34	0	3045064704	52	4233
2026-01-17 08:21:13.89	329.37	15.02	-41.1	-41.9	22.1	0.00e+00	0	34	0	3050307584	52	4274
2026-01-17 08:21:14.90	329.23	14.95	-41.0	-41.9	22.1	0.00e+00	0	34	0	3056599040	52	4252
2026-01-17 08:21:15.90	329.08	14.87	-41.0	-41.8	22.2	0.00e+00	0	35	0	3061841920	52	4221
2026-01-17 08:21:16.91	328.93	14.79	-41.0	-41.8	22.1	0.00e+00	0	35	0	3068133376	52	4242
2026-01-17 08:21:17.92	328.79	14.72	-40.9	-41.8	22.2	0.00e+00	0	34	0	3073376256	52	4204
2026-01-17 08:21:18.93	328.64	14.64	-41.0	-41.8	22.1	0.00e+00	0	34	0	3079667712	52	4221
2026-01-17 08:21:19.94	328.50	14.56	-41.0	-41.8	22.1	0.00e+00	0	35	0	3084910592	52	4228
2026-01-17 08:21:20.94	328.35	14.49	-41.0	-41.8	22.1	0.00e+00	0	34	0	3090153472	52	4236
2026-01-17 08:21:21.95	328.21	14.41	-41.0	-41.9	22.1	0.00e+00	0	35	0	3096444928	52	4248
2026-01-17 08:21:22.96	328.07	14.33	-41.1	-42.0	22.0	0.00e+00	0	34	0	3101687808	52	4311
2026-01-17 08:21:23.97	327.93	14.25	-41.2	-42.1	21.9	0.00e+00	0	34	0	3106930688	53	4109
2026-01-17 08:21:24.98	327.79	14.18	-41.5	-42.3	21.7	0.00e+00	0	34	0	3113222144	53	4231
2026-01-17 08:21:25.99	327.65	14.10	-41.5	-42.3	21.6	0.00e+00	0	35	0	3118465024	53	4237
2026-01-17 08:21:27.00	327.51	14.02	-41.3	-42.2	21.8	0.00e+00	0	34	0	3124756480	53	4159
2026-01-17 08:21:28.01	327.37	13.95	-41.3	-42.2	21.8	0.00e+00	0	35	0	3129999360	53	4162
2026-01-17 08:21:29.02	327.23	13.87	-41.4	-42.2	21.7	0.00e+00	0	34	0	3136290816	53	4174
2026-01-17 08:21:30.03	327.09	13.79	-41.3	-42.2	21.8	0.00e+00	0	34	0	3141533696	53	4155
2026-01-17 08:21:31.03	326.96	13.72	-41.4	-42.3	21.7	0.00e+00	0	35	0	3146776576	53	4194
2026-01-17 08:21:32.04	326.82	13.64	-41.4	-42.2	21.7	0.00e+00	0	34	0	3153068032	53	4171
2026-01-17 08:21:33.05	326.69	13.57	-41.4	-42.2	21.7	0.00e+00	0	34	0	3158310912	53	4182
2026-01-17 08:21:34.06	326.55	13.49	-41.5	-42.3	21.6	0.00e+00	0	35	0	3164602368	53	4232
2026-01-17 08:21:35.07	326.42	13.41	-41.5	-42.4	21.6	0.00e+00	0	35	0	3169845248	53	4251
2026-01-17 08:21:36.08	326.29	13.34	-41.6	-42.4	21.5	0.00e+00	0	34	0	3175088128	53	4274
2026-01-17 08:21:37.09	326.16	13.26	-41.4	-42.3	21.6	0.00e+00	0	34	0	3181379584	53	4212
2026-01-17 08:21:38.10	326.02	13.19	-41.6	-42.4	21.5	0.00e+00	0	34	0	3187671040	53	4285
2026-01-17 08:21:39.11	325.89	13.11	-41.6	-42.4	21.5	0.00e+00	0	34	0	3192913920	53	4273
2026-01-17 08:21:40.12	325.76	13.04	-41.6	-42.5	21.4	0.00e+00	0	34	0	3198156800	53	4315
2026-01-17 08:21:41.13	325.63	12.96	-41.7	-42.6	21.3	0.00e+00	0	34	0	3204448256	54	4121
2026-01-17 08:21:42.14	325.51	12.88	-41.8	-42.7	21.2	0.00e+00	0	34	0	3209691136	54	4185
2026-01-17 08:21:43.15	325.38	12.81	-42.0	-42.9	21.1	0.00e+00	0	34	0	3214934016	54	4246
2026-01-17 08:21:44.16	325.25	12.73	-41.9	-42.9	21.1	0.00e+00	0	35	0	3221225472	54	4245
2026-01-17 08:21:45.17	325.12	12.66	-41.9	-42.8	21.2	0.00e+00	0	34	0	3226468352	54	4204
2026-01-17 08:21:46.18	325.00	12.58	-41.9	-42.8	21.1	0.00e+00	0	35	0	3231711232	54	4236
2026-01-17 08:21:47.18	324.87	12.51	-41.9	-42.8	21.2	0.00e+00	0	34	0	3238002688	54	4200
2026-01-17 08:21:48.19	324.75	12.43	-41.9	-42.8	21.1	0.00e+00	0	34	0	3243245568	54	4213
2026-01-17 08:21:49.20	324.62	12.36	-42.1	-43.0	20.9	0.00e+00	0	34	0	3249537024	54	4306
2026-01-17 08:21:50.21	324.50	12.29	-42.0	-42.9	21.0	0.00e+00	0	34	0	3254779904	54	4279
2026-01-17 08:21:51.22	324.38	12.21	-41.8	-42.7	21.2	0.00e+00	0	34	0	3261071360	54	4150
2026-01-17 08:21:52.23	324.26	12.14	-41.9	-42.8	21.1	0.00e+00	0	34	0	3266314240	54	4228
2026-01-17 08:21:53.24	324.13	12.06	-42.0	-42.9	21.0	0.00e+00	0	35	0	3272605696	54	4253
2026-01-17 08:21:54.25	324.01	11.99	-41.9	-42.8	21.1	0.00e+00	0	34	0	3277848576	54	4226
2026-01-17 08:21:55.26	323.89	11.91	-42.0	-42.9	21.0	0.00e+00	0	34	0	3283091456	54	4289
2026-01-17 08:21:56.27	323.77	11.84	-41.9	-42.8	21.1	0.00e+00	0	34	0	3289382912	54	4228
2026-01-17 08:21:57.28	323.65	11.76	-41.8	-42.7	21.2	0.00e+00	0	35	0	3294625792	54	4151
2026-01-17 08:21:58.29	323.54	11.69	-41.9	-42.8	21.1	0.00e+00	0	34	0	3299868672	54	4196
2026-01-17 08:21:59.30	323.42	11.62	-41.9	-42.8	21.1	0.00e+00	0	34	0	3306160128	54	4199
2026-01-17 08:22:00.30	323.30	11.54	-41.9	-42.8	21.1	0.00e+00	0	34	0	3312451584	54	4228
2026-01-17 08:22:01.31	323.19	11.47	-41.9	-42.8	21.0	0.00e+00	0	35	0	3317694464	54	4234
2026-01-17 08:22:02.32	323.07	11.40	-41.9	-42.8	21.0	0.00e+00	0	34	0	3322937344	54	4224
2026-01-17 08:22:03.33	322.95	11.32	-42.0	-42.9	21.0	0.00e+00	0	34	0	3329228800	54	4245
2026-01-17 08:22:04.34	322.84	11.25	-42.2	-43.1	20.7	0.00e+00	0	34	0	3334471680	54	4391
2026-01-17 08:22:05.35	322.73	11.18	-42.0	-43.0	20.9	0.00e+00	0	34	0	3339714560	55	4054
2026-01-17 08:22:06.36	322.61	11.10	-42.2	-43.1	20.7	0.00e+00	0	34	0	3346006016	55	4132
2026-01-17 08:22:07.37	322.50	11.03	-42.3	-43.2	20.6	0.00e+00	0	34	0	3351248896	55	4188
2026-01-17 08:22:08.38	322.39	10.96	-42.3	-43.3	20.6	0.00e+00	0	34	0	3357540352	55	4197
2026-01-17 08:22:09.39	322.27	10.89	-42.2	-43.2	20.7	0.00e+00	0	35	0	3362783232	55	4159
2026-01-17 08:22:10.39	322.16	10.81	-42.2	-43.2	20.7	0.00e+00	0	34	0	3368026112	55	4159
2026-01-17 08:22:11.40	322.05	10.74	-42.3	-43.2	20.7	0.00e+00	0	34	0	3374317568	55	4166
2026-01-17 08:22:12.41	321.94	10.67	-42.2	-43.1	20.7	0.00e+00	0	34	0	3380609024	55	4133
2026-01-17 08:22:13.42	321.83	10.60	-42.4	-43.4	20.5	0.00e+00	0	34	0	3385851904	55	4252
2026-01-17 08:22:14.43	321.72	10.52	-42.3	-43.3	20.6	0.00e+00	0	35	0	3391094784	55	4205
2026-01-17 08:22:15.43	321.62	10.45	-42.3	-43.2	20.7	0.00e+00	0	35	0	3397386240	55	4169
2026-01-17 08:22:16.45	321.51	10.38	-42.5	-43.4	20.4	0.00e+00	0	34	0	3402629120	55	4276
2026-01-17 08:22:17.45	321.40	10.31	-42.4	-43.4	20.5	0.00e+00	0	34	0	3407872000	55	4253
2026-01-17 08:22:18.46	321.29	10.24	-42.3	-43.3	20.5	0.00e+00	0	34	0	3414163456	55	4215
2026-01-17 08:22:19.47	321.19	10.17	-42.6	-43.6	20.2	0.00e+00	0	34	0	3419406336	55	4369
2026-01-17 08:22:20.48	321.08	10.09	-42.6	-43.6	20.2	0.00e+00	0	34	0	3424649216	55	4359
2026-01-17 08:22:21.49	320.98	10.02	-42.6	-43.6	20.2	0.00e+00	0	34	0	3430940672	55	4348
2026-01-17 08:22:22.50	320.87	9.95	-42.6	-43.6	20.2	0.00e+00	0	34	0	3437232128	55	4373
2026-01-17 08:22:23.51	320.77	9.88	-42.5	-43.4	20.4	0.00e+00	0	34	0	3442475008	55	4274
2026-01-17 08:22:24.52	320.66	9.81	-42.5	-43.5	20.4	0.00e+00	0	35	0	3447717888	55	4295
2026-01-17 08:22:25.52	320.56	9.74	-42.8	-43.8	20.1	0.00e+00	0	34	0	3454009344	56	4237
2026-01-17 08:22:26.53	320.46	9.67	-43.0	-44.0	20.0	0.00e+00	0	34	0	3459252224	56	4294
2026-01-17 08:22:27.54	320.36	9.60	-42.8	-43.8	20.1	0.00e+00	0	34	0	3465543680	56	4194
2026-01-17 08:22:28.56	320.25	9.52	-42.7	-43.7	20.2	0.00e+00	0	34	0	3470786560	56	4178
2026-01-17 08:22:29.56	320.15	9.45	-42.7	-43.6	20.3	0.00e+00	0	34	0	3476029440	56	4136
2026-01-17 08:22:30.57	320.05	9.38	-42.8	-43.8	20.1	0.00e+00	0	34	0	3482320896	56	4222
2026-01-17 08:22:31.58	319.95	9.31	-42.9	-43.8	20.0	0.00e+00	0	35	0	3487563776	56	4242
2026-01-17 08:22:32.59	319.85	9.24	-42.8	-43.8	20.0	0.00e+00	0	34	0	3492806656	56	4236
2026-01-17 08:22:33.60	319.75	9.17	-43.0	-44.0	19.9	0.00e+00	0	34	0	3499098112	56	4333
2026-01-17 08:22:34.61	319.66	9.10	-43.0	-44.0	19.9	0.00e+00	0	35	0	3505389568	56	4296
2026-01-17 08:22:35.62	319.56	9.03	-42.9	-43.9	20.0	0.00e+00	0	35	0	3510632448	56	4260
2026-01-17 08:22:36.62	319.46	8.96	-43.0	-44.1	19.8	0.00e+00	0	34	0	3515875328	56	4352
2026-01-17 08:22:37.63	319.36	8.90	-43.1	-44.2	19.7	0.00e+00	0	34	0	3522166784	56	4408
2026-01-17 08:22:38.64	319.27	8.83	-43.0	-44.0	19.9	0.00e+00	0	34	0	3527409664	56	4306
2026-01-17 08:22:39.65	319.17	8.76	-43.0	-44.1	19.8	0.00e+00	0	35	0	3532652544	56	4341
2026-01-17 08:22:40.66	319.07	8.69	-43.1	-44.1	19.7	0.00e+00	0	35	0	3538944000	56	4366
2026-01-17 08:22:41.67	318.98	8.62	-43.1	-44.1	19.7	0.00e+00	0	34	0	3544186880	56	4377
2026-01-17 08:22:42.68	318.88	8.55	-43.0	-44.0	19.8	0.00e+00	0	34	0	3550478336	56	4340
2026-01-17 08:22:43.69	318.79	8.48	-43.0	-44.0	19.8	0.00e+00	0	34	0	3555721216	56	4323
2026-01-17 08:22:44.70	318.70	8.41	-43.0	-44.0	19.8	0.00e+00	0	35	0	3562012672	56	4305
2026-01-17 08:22:45.70	318.60	8.34	-43.0	-44.0	19.8	0.00e+00	0	34	0	3567255552	56	4332
2026-01-17 08:22:46.71	318.51	8.27	-43.0	-44.1	19.7	0.00e+00	0	34	0	3573547008	56	4346
2026-01-17 08:22:47.72	318.42	8.21	-43.1	-44.1	19.7	0.00e+00	0	34	0	3578789888	56	4357
2026-01-17 08:22:48.73	318.33	8.14	-43.0	-44.0	19.8	0.00e+00	0	34	0	3584032768	56	4298
2026-01-17 08:22:49.74	318.23	8.07	-43.0	-44.0	19.8	0.00e+00	0	34	0	3590324224	56	4328
2026-01-17 08:22:50.75	318.14	8.00	-43.0	-44.0	19.8	0.00e+00	0	35	0	3595567104	56	4324
2026-01-17 08:22:51.76	318.05	7.93	-43.1	-44.1	19.7	0.00e+00	0	34	0	3600809984	56	4359
2026-01-17 08:22:52.77	317.96	7.86	-43.1	-44.2	19.6	0.00e+00	0	35	0	3607101440	57	4164
2026-01-17 08:22:53.78	317.87	7.80	-43.5	-44.6	19.2	0.00e+00	0	35	0	3612344320	57	4346
2026-01-17 08:22:54.78	317.78	7.73	-43.2	-44.2	19.5	0.00e+00	0	34	0	3617587200	57	4175
2026-01-17 08:22:55.80	317.69	7.66	-43.2	-44.3	19.4	0.00e+00	0	34	0	3623878656	57	4219
2026-01-17 08:22:56.80	317.61	7.59	-43.2	-44.2	19.5	0.00e+00	0	34	0	3630170112	57	4182
2026-01-17 08:22:57.81	317.52	7.53	-43.1	-44.2	19.6	0.00e+00	0	35	0	3635412992	57	4153
2026-01-17 08:22:58.82	317.43	7.46	-43.5	-44.6	19.2	0.00e+00	0	34	0	3640655872	57	4361
2026-01-17 08:22:59.83	317.34	7.39	-43.4	-44.5	19.2	0.00e+00	0	34	0	3646947328	57	4304
2026-01-17 08:23:00.84	317.26	7.33	-43.1	-44.2	19.6	0.00e+00	0	34	0	3652190208	57	4150
2026-01-17 08:23:01.85	317.17	7.26	-43.3	-44.4	19.3	0.00e+00	0	34	0	3658481664	57	4273
2026-01-17 08:23:02.86	317.08	7.19	-43.2	-44.3	19.5	0.00e+00	0	34	0	3663724544	57	4202
2026-01-17 08:23:03.86	317.00	7.13	-43.3	-44.3	19.4	0.00e+00	0	34	0	3668967424	57	4229
2026-01-17 08:23:04.87	316.91	7.06	-43.4	-44.4	19.3	0.00e+00	0	34	0	3675258880	57	4274
2026-01-17 08:23:05.88	316.83	6.99	-43.2	-44.3	19.4	0.00e+00	0	35	0	3680501760	57	4210
2026-01-17 08:23:06.89	316.74	6.93	-43.3	-44.3	19.4	0.00e+00	0	34	0	3685744640	57	4223
2026-01-17 08:23:07.90	316.66	6.86	-43.5	-44.6	19.1	0.00e+00	0	35	0	3692036096	57	4369
2026-01-17 08:23:08.91	316.58	6.79	-43.4	-44.5	19.2	0.00e+00	0	34	0	3698327552	57	4292
