passes_logs/2026/01/17/R3.2S_Murmansk/R3.2S_Murmansk__20260117_073213_NOAA_20_JPSS-1_rec.log

#Pass ID: 20260117_073213_NOAA 20 (JPSS-1)
#Satellite: NOAA 20 (JPSS-1)
#Configuration: NOAA 20
#almurnet v.1.7.20251203
#Start time: 2026-01-17 07:32:13

#Version: 2.2.20231116
#Station: R3.2S_Murmansk
#Location: 33.079688 lon 68.888172 lat
#TLE: 1 43013U 17073A   26016.52825843  .00000039  00000+0  39346-4 0  9991
#TLE: 2 43013  98.7637 317.4515 0001446  37.2648 322.8628 14.19536276422951

#Time	Az	El	Level	Level2	SNR	BER	BlckErr	Temp	State	Recorded	gain1	gain2
2026-01-17 07:32:13.06	106.20	1.99	-51.8	-66.8	3.8	1.49e+00	0	32	0	0	75	19910
2026-01-17 07:32:14.07	106.15	2.06	-51.8	-66.7	3.8	1.49e+00	0	32	104	0	74	21000
2026-01-17 07:32:15.08	106.11	2.12	-51.8	-66.7	3.8	1.49e+00	0	32	104	0	74	20935
2026-01-17 07:32:16.09	106.07	2.18	-51.8	-66.7	3.8	1.49e+00	0	32	104	0	74	20907
2026-01-17 07:32:17.10	106.02	2.24	-51.8	-66.7	3.8	1.49e+00	0	32	104	0	74	20804
2026-01-17 07:32:18.10	105.98	2.30	-51.8	-66.7	3.8	1.49e+00	0	32	104	0	74	20869
2026-01-17 07:32:19.11	105.94	2.37	-51.8	-66.7	3.8	1.49e+00	0	32	104	0	74	20909
2026-01-17 07:32:20.12	105.89	2.43	-51.8	-66.7	3.8	1.49e+00	0	32	104	0	74	20871
2026-01-17 07:32:21.13	105.85	2.49	-51.8	-66.7	3.8	1.49e+00	0	33	104	0	74	20851
2026-01-17 07:32:22.14	105.81	2.55	-51.8	-66.7	3.8	1.49e+00	0	32	104	0	74	20873
2026-01-17 07:32:23.14	105.76	2.62	-51.8	-66.7	3.8	1.49e+00	0	33	104	0	74	20824
2026-01-17 07:32:24.15	105.72	2.68	-51.8	-66.7	3.8	1.49e+00	0	33	104	0	74	20832
2026-01-17 07:32:25.16	105.67	2.74	-51.8	-66.7	3.8	1.49e+00	0	33	104	0	74	20789
2026-01-17 07:32:26.17	105.63	2.80	-51.8	-66.7	3.8	1.49e+00	0	33	104	0	74	20799
2026-01-17 07:32:27.18	105.58	2.87	-51.8	-66.7	3.8	1.49e+00	0	33	104	0	74	20822
2026-01-17 07:32:28.19	105.54	2.93	-51.8	-66.6	3.8	1.49e+00	0	33	104	0	74	20757
2026-01-17 07:32:29.20	105.49	3.00	-51.8	-66.6	3.8	1.49e+00	0	33	104	0	74	20649
2026-01-17 07:32:30.21	105.44	3.06	-51.8	-66.6	3.8	1.49e+00	0	33	104	0	74	20667
2026-01-17 07:32:31.22	105.40	3.12	-51.8	-66.5	3.8	1.49e+00	0	33	104	0	74	20421
2026-01-17 07:32:32.23	105.35	3.19	-51.8	-66.5	3.8	1.49e+00	0	33	104	0	74	20490
2026-01-17 07:32:33.23	105.31	3.25	-51.8	-66.5	3.8	1.49e+00	0	33	104	0	74	20438
2026-01-17 07:32:34.24	105.26	3.31	-51.8	-66.6	3.8	1.49e+00	0	33	104	0	74	20620
2026-01-17 07:32:35.25	105.21	3.38	-51.8	-66.6	3.8	1.49e+00	0	33	104	0	74	20755
2026-01-17 07:32:36.26	105.17	3.44	-51.8	-66.7	3.8	1.49e+00	0	33	104	0	74	20989
2026-01-17 07:32:37.27	105.12	3.51	-51.8	-66.7	3.8	1.49e+00	0	33	104	0	74	20980
2026-01-17 07:32:38.28	105.07	3.57	-51.8	-66.7	3.8	1.49e+00	0	33	104	0	74	20865
2026-01-17 07:32:39.29	105.02	3.64	-51.8	-66.4	3.8	1.49e+00	0	33	104	0	74	20297
2026-01-17 07:32:40.30	104.97	3.70	-51.7	-66.0	3.8	1.49e+00	0	33	104	0	74	19262
2026-01-17 07:32:41.31	104.93	3.77	-51.7	-65.3	3.8	1.49e+00	0	33	104	0	74	17871
2026-01-17 07:32:42.32	104.88	3.83	-51.7	-64.6	3.8	1.49e+00	0	33	104	0	74	16404
2026-01-17 07:32:43.32	104.83	3.90	-51.6	-63.8	3.9	1.47e+00	0	33	104	0	74	15051
2026-01-17 07:32:44.33	104.78	3.96	-51.6	-62.9	4.3	1.36e+00	0	33	0	0	74	13448
2026-01-17 07:32:45.34	104.73	4.03	-51.5	-62.3	4.5	1.17e+00	16	33	0	1048576	74	12524
2026-01-17 07:32:46.35	104.68	4.09	-51.4	-61.4	4.9	9.17e-01	0	33	0	3145728	74	11359
2026-01-17 07:32:47.36	104.63	4.16	-51.4	-60.8	5.2	5.96e-01	0	33	0	5242880	74	10591
2026-01-17 07:32:48.37	104.58	4.23	-51.3	-60.1	5.7	4.78e-01	0	33	0	6291456	74	9757
2026-01-17 07:32:49.38	104.53	4.29	-51.1	-59.0	6.5	3.53e-01	0	33	0	8388608	74	8657
2026-01-17 07:32:50.38	104.48	4.36	-51.0	-58.6	6.9	1.85e-01	0	33	0	10485760	74	8248
2026-01-17 07:32:51.39	104.43	4.42	-50.9	-58.0	7.5	1.14e-01	0	33	0	12582912	73	8108
2026-01-17 07:32:52.41	104.38	4.49	-50.7	-57.2	8.3	6.75e-02	0	33	0	13631488	73	7384
2026-01-17 07:32:53.41	104.33	4.56	-50.6	-57.0	8.4	4.85e-02	0	33	0	15728640	73	7244
2026-01-17 07:32:54.42	104.28	4.62	-50.5	-56.5	9.0	3.62e-02	0	33	0	17825792	73	6824
2026-01-17 07:32:55.43	104.23	4.69	-50.5	-56.4	9.0	2.85e-02	0	33	0	19922944	73	6792
2026-01-17 07:32:56.44	104.17	4.76	-50.5	-56.5	9.0	2.36e-02	0	33	0	22020096	73	6865
2026-01-17 07:32:57.45	104.12	4.83	-50.7	-57.1	8.3	5.23e-02	0	33	0	23068672	73	7371
2026-01-17 07:32:58.46	104.07	4.89	-50.8	-57.8	7.7	6.77e-02	0	34	0	25165824	73	7936
2026-01-17 07:32:59.47	104.02	4.96	-51.0	-58.4	7.2	1.06e-01	0	34	0	27262976	73	8465
2026-01-17 07:33:00.48	103.96	5.03	-51.2	-59.6	6.1	2.59e-01	0	34	0	29360128	73	9750
2026-01-17 07:33:01.49	103.91	5.10	-50.9	-57.9	7.4	3.94e-01	0	34	0	31457280	73	8059
2026-01-17 07:33:02.49	103.86	5.16	-49.8	-54.1	11.6	1.71e-02	0	34	0	33554432	71	5800
2026-01-17 07:33:03.50	103.80	5.23	-51.2	-58.8	7.4	9.41e-03	0	34	0	34603008	72	9418
2026-01-17 07:33:04.51	103.75	5.30	-51.2	-59.0	6.3	1.47e+00	1	34	104	35651584	73	9120
2026-01-17 07:33:05.52	103.70	5.37	-48.9	-52.0	14.1	3.89e-05	0	34	0	36700160	69	5155
2026-01-17 07:33:06.53	103.64	5.44	-50.0	-54.2	11.1	1.86e-01	0	33	0	38797312	71	5897
2026-01-17 07:33:07.54	103.59	5.51	-48.6	-51.6	14.5	7.00e-07	0	34	0	39845888	69	4890
2026-01-17 07:33:08.55	103.53	5.58	-48.5	-51.3	14.8	0.00e+00	0	33	0	41943040	68	5005
2026-01-17 07:33:09.56	103.48	5.64	-48.4	-51.1	15.0	0.00e+00	0	34	0	44040192	68	4898
2026-01-17 07:33:10.57	103.42	5.71	-48.3	-51.0	15.2	0.00e+00	0	34	0	46137344	68	4835
2026-01-17 07:33:11.58	103.36	5.78	-48.2	-50.9	15.2	0.00e+00	0	33	0	48234496	68	4788
2026-01-17 07:33:12.58	103.31	5.85	-48.1	-50.6	15.5	0.00e+00	0	34	0	50331648	68	4647
2026-01-17 07:33:13.59	103.25	5.92	-48.1	-50.7	15.4	0.00e+00	0	33	0	51380224	68	4680
2026-01-17 07:33:14.60	103.19	5.99	-47.9	-50.4	15.7	0.00e+00	0	34	0	53477376	67	4791
2026-01-17 07:33:15.61	103.14	6.06	-48.0	-50.6	15.5	0.00e+00	0	34	0	55574528	67	4888
2026-01-17 07:33:16.62	103.08	6.13	-47.9	-50.4	15.7	0.00e+00	0	34	0	57671680	67	4770
2026-01-17 07:33:17.63	103.02	6.20	-48.0	-50.5	15.6	0.00e+00	0	34	0	58720256	67	4843
2026-01-17 07:33:18.64	102.96	6.27	-48.0	-50.6	15.5	0.00e+00	0	34	0	60817408	67	4887
2026-01-17 07:33:19.64	102.91	6.34	-47.9	-50.4	15.7	0.00e+00	0	34	0	62914560	67	4791
2026-01-17 07:33:20.65	102.85	6.41	-47.8	-50.2	15.9	0.00e+00	0	34	0	65011712	67	4698
2026-01-17 07:33:21.66	102.79	6.49	-47.9	-50.4	15.7	0.00e+00	0	34	0	67108864	67	4787
2026-01-17 07:33:22.67	102.73	6.56	-47.9	-50.3	15.8	0.00e+00	0	34	0	69206016	67	4717
2026-01-17 07:33:23.68	102.67	6.63	-48.0	-50.5	15.6	0.00e+00	0	34	0	70254592	67	4861
2026-01-17 07:33:24.68	102.61	6.70	-47.9	-50.4	15.7	0.00e+00	0	34	0	72351744	67	4771
2026-01-17 07:33:25.69	102.55	6.77	-47.9	-50.3	15.8	0.00e+00	0	34	0	74448896	67	4745
2026-01-17 07:33:26.71	102.49	6.84	-47.9	-50.3	15.8	0.00e+00	0	34	0	76546048	67	4753
2026-01-17 07:33:27.71	102.43	6.91	-47.8	-50.2	15.9	0.00e+00	0	34	0	78643200	67	4704
2026-01-17 07:33:28.72	102.37	6.99	-47.8	-50.3	15.9	0.00e+00	0	34	0	79691776	67	4711
2026-01-17 07:33:29.73	102.31	7.06	-47.8	-50.2	16.0	0.00e+00	0	34	0	81788928	67	4655
2026-01-17 07:33:30.74	102.25	7.13	-47.8	-50.1	16.0	0.00e+00	0	34	0	83886080	67	4648
2026-01-17 07:33:31.75	102.18	7.20	-47.8	-50.1	16.1	0.00e+00	0	34	0	85983232	67	4630
2026-01-17 07:33:32.76	102.12	7.28	-47.8	-50.2	16.0	0.00e+00	0	34	0	87031808	67	4678
2026-01-17 07:33:33.76	102.06	7.35	-47.7	-50.0	16.2	0.00e+00	0	34	0	89128960	67	4559
2026-01-17 07:33:34.77	102.00	7.42	-47.7	-50.0	16.2	0.00e+00	0	34	0	91226112	67	4570
2026-01-17 07:33:35.78	101.93	7.50	-47.7	-50.0	16.2	0.00e+00	0	34	0	93323264	67	4595
2026-01-17 07:33:36.79	101.87	7.57	-47.7	-50.0	16.2	0.00e+00	0	34	0	95420416	67	4563
2026-01-17 07:33:37.80	101.81	7.64	-47.7	-50.1	16.2	0.00e+00	0	34	0	97517568	67	4599
2026-01-17 07:33:38.80	101.74	7.72	-47.7	-50.0	16.2	0.00e+00	0	34	0	98566144	67	4578
2026-01-17 07:33:39.81	101.68	7.79	-47.7	-50.0	16.2	0.00e+00	0	34	0	100663296	67	4590
2026-01-17 07:33:40.82	101.61	7.87	-47.7	-50.1	16.2	0.00e+00	0	34	0	102760448	67	4609
2026-01-17 07:33:41.83	101.55	7.94	-47.6	-49.9	16.3	0.00e+00	0	34	0	104857600	67	4530
2026-01-17 07:33:42.84	101.48	8.01	-47.6	-49.9	16.4	0.00e+00	0	34	0	106954752	67	4508
2026-01-17 07:33:43.85	101.42	8.09	-47.7	-50.0	16.3	0.00e+00	0	34	0	108003328	67	4575
2026-01-17 07:33:44.85	101.35	8.16	-47.7	-50.0	16.3	0.00e+00	0	34	0	110100480	67	4548
2026-01-17 07:33:45.86	101.28	8.24	-47.6	-49.8	16.5	0.00e+00	0	34	0	112197632	67	4466
2026-01-17 07:33:46.87	101.22	8.31	-47.5	-49.7	16.6	0.00e+00	0	34	0	114294784	67	4411
2026-01-17 07:33:47.88	101.15	8.39	-47.5	-49.7	16.6	0.00e+00	0	34	0	116391936	66	4691
2026-01-17 07:33:48.89	101.08	8.47	-47.5	-49.6	16.7	0.00e+00	0	34	0	117440512	66	4633
2026-01-17 07:33:49.89	101.01	8.54	-47.5	-49.7	16.6	0.00e+00	0	34	0	119537664	66	4675
2026-01-17 07:33:50.90	100.94	8.62	-47.6	-49.8	16.5	0.00e+00	0	34	0	121634816	66	4712
2026-01-17 07:33:51.91	100.88	8.69	-47.5	-49.7	16.6	0.00e+00	0	34	0	123731968	66	4674
2026-01-17 07:33:52.92	100.81	8.77	-47.6	-49.9	16.4	0.00e+00	0	34	0	125829120	66	4765
2026-01-17 07:33:53.93	100.74	8.85	-47.6	-49.7	16.6	0.00e+00	0	34	0	126877696	66	4705
2026-01-17 07:33:54.94	100.67	8.92	-47.6	-49.8	16.5	0.00e+00	0	34	0	128974848	66	4738
2026-01-17 07:33:55.94	100.60	9.00	-47.5	-49.7	16.6	0.00e+00	0	34	0	131072000	66	4687
2026-01-17 07:33:56.95	100.53	9.08	-47.5	-49.7	16.7	0.00e+00	0	34	0	133169152	66	4676
2026-01-17 07:33:57.96	100.45	9.16	-47.4	-49.6	16.8	0.00e+00	0	34	0	135266304	66	4603
2026-01-17 07:33:58.97	100.38	9.23	-47.5	-49.6	16.7	0.00e+00	0	34	0	136314880	66	4651
2026-01-17 07:33:59.98	100.31	9.31	-47.5	-49.6	16.7	0.00e+00	0	34	0	138412032	66	4630
2026-01-17 07:34:00.99	100.24	9.39	-47.6	-49.7	16.6	0.00e+00	0	34	0	140509184	66	4705
2026-01-17 07:34:01.99	100.17	9.47	-47.5	-49.7	16.7	0.00e+00	0	34	0	142606336	66	4678
2026-01-17 07:34:03.00	100.09	9.55	-47.5	-49.7	16.7	0.00e+00	0	34	0	144703488	66	4659
2026-01-17 07:34:04.01	100.02	9.62	-47.6	-49.8	16.6	0.00e+00	0	34	0	145752064	66	4732
2026-01-17 07:34:05.02	99.94	9.70	-47.5	-49.7	16.7	0.00e+00	0	34	0	147849216	66	4679
2026-01-17 07:34:06.03	99.87	9.78	-47.4	-49.5	16.9	0.00e+00	0	34	0	149946368	66	4586
2026-01-17 07:34:07.03	99.80	9.86	-47.5	-49.6	16.7	0.00e+00	0	34	0	152043520	66	4641
2026-01-17 07:34:08.04	99.72	9.94	-47.5	-49.6	16.7	0.00e+00	0	34	0	154140672	66	4651
2026-01-17 07:34:09.05	99.64	10.02	-47.5	-49.6	16.8	0.00e+00	0	34	0	155189248	66	4621
2026-01-17 07:34:10.06	99.57	10.10	-47.4	-49.5	16.8	0.00e+00	0	34	0	157286400	66	4587
2026-01-17 07:34:11.07	99.49	10.18	-47.4	-49.5	16.9	0.00e+00	0	34	0	159383552	66	4569
2026-01-17 07:34:12.07	99.42	10.26	-47.4	-49.5	16.9	0.00e+00	0	34	0	161480704	66	4594
2026-01-17 07:34:13.08	99.34	10.34	-47.5	-49.6	16.8	0.00e+00	0	34	0	163577856	66	4610
2026-01-17 07:34:14.09	99.26	10.42	-47.4	-49.5	16.9	0.00e+00	0	34	0	164626432	66	4579
2026-01-17 07:34:15.10	99.18	10.50	-47.4	-49.4	17.0	0.00e+00	0	34	0	166723584	66	4538
2026-01-17 07:34:16.10	99.10	10.58	-47.4	-49.4	17.0	0.00e+00	0	34	0	168820736	66	4545
2026-01-17 07:34:17.11	99.02	10.66	-47.4	-49.5	17.0	0.00e+00	0	34	0	170917888	66	4560
2026-01-17 07:34:18.12	98.94	10.75	-47.4	-49.4	17.0	0.00e+00	0	34	0	173015040	66	4526
2026-01-17 07:34:19.13	98.86	10.83	-47.4	-49.5	17.0	0.00e+00	0	34	0	174063616	66	4549
2026-01-17 07:34:20.14	98.78	10.91	-47.3	-49.4	17.1	0.00e+00	0	34	0	176160768	66	4499
2026-01-17 07:34:21.15	98.70	10.99	-47.4	-49.4	17.1	0.00e+00	0	34	0	178257920	66	4525
2026-01-17 07:34:22.15	98.62	11.07	-47.2	-49.2	17.2	0.00e+00	0	34	0	180355072	66	4431
2026-01-17 07:34:23.16	98.54	11.16	-47.1	-49.1	17.4	0.00e+00	0	34	0	182452224	66	4359
2026-01-17 07:34:24.17	98.46	11.24	-47.2	-49.2	17.2	0.00e+00	0	34	0	184549376	66	4436
2026-01-17 07:34:25.18	98.37	11.32	-47.1	-49.1	17.4	0.00e+00	0	34	0	185597952	66	4349
2026-01-17 07:34:26.19	98.29	11.41	-47.1	-49.0	17.5	0.00e+00	0	34	0	187695104	66	4329
2026-01-17 07:34:27.20	98.20	11.49	-47.1	-49.0	17.4	0.00e+00	0	34	0	189792256	66	4326
2026-01-17 07:34:28.21	98.12	11.57	-47.1	-49.0	17.4	0.00e+00	0	34	0	191889408	66	4327
2026-01-17 07:34:29.22	98.04	11.66	-47.1	-49.1	17.4	0.00e+00	0	34	0	192937984	66	4360
2026-01-17 07:34:30.23	97.95	11.74	-47.0	-48.9	17.6	0.00e+00	0	34	0	195035136	66	4280
2026-01-17 07:34:31.23	97.86	11.83	-47.0	-49.0	17.5	0.00e+00	0	34	0	197132288	66	4295
2026-01-17 07:34:32.24	97.78	11.91	-46.9	-48.8	17.7	0.00e+00	0	34	0	199229440	65	4473
2026-01-17 07:34:33.25	97.69	11.99	-47.0	-48.8	17.7	0.00e+00	0	34	0	201326592	65	4487
2026-01-17 07:34:34.26	97.60	12.08	-46.9	-48.7	17.8	0.00e+00	0	34	0	202375168	65	4441
2026-01-17 07:34:35.27	97.51	12.17	-46.9	-48.8	17.7	0.00e+00	0	34	0	204472320	65	4463
2026-01-17 07:34:36.27	97.43	12.25	-46.8	-48.7	17.8	0.00e+00	0	34	0	206569472	65	4398
2026-01-17 07:34:37.28	97.34	12.34	-46.8	-48.7	17.8	0.00e+00	0	34	0	208666624	65	4413
2026-01-17 07:34:38.29	97.25	12.42	-46.8	-48.6	17.9	0.00e+00	0	34	0	210763776	65	4388
2026-01-17 07:34:39.30	97.16	12.51	-46.8	-48.6	17.9	0.00e+00	0	34	0	212860928	65	4376
2026-01-17 07:34:40.31	97.07	12.60	-46.8	-48.6	18.0	0.00e+00	0	34	0	213909504	65	4348
2026-01-17 07:34:41.32	96.97	12.68	-46.9	-48.7	17.8	0.00e+00	0	34	0	216006656	65	4424
2026-01-17 07:34:42.33	96.88	12.77	-46.8	-48.6	18.0	0.00e+00	0	34	0	218103808	65	4350
2026-01-17 07:34:43.33	96.79	12.86	-46.7	-48.5	18.1	0.00e+00	0	34	0	220200960	65	4302
2026-01-17 07:34:44.34	96.70	12.94	-46.7	-48.5	18.1	0.00e+00	0	34	0	221249536	65	4301
2026-01-17 07:34:45.35	96.60	13.03	-46.7	-48.5	18.0	0.00e+00	0	34	0	223346688	65	4320
2026-01-17 07:34:46.36	96.51	13.12	-46.8	-48.6	18.0	0.00e+00	0	34	0	225443840	65	4343
2026-01-17 07:34:47.37	96.41	13.21	-46.8	-48.6	17.9	0.00e+00	0	34	0	227540992	65	4378
2026-01-17 07:34:48.38	96.32	13.30	-46.7	-48.5	18.0	0.00e+00	0	34	0	229638144	65	4325
2026-01-17 07:34:49.39	96.22	13.38	-46.8	-48.6	18.0	0.00e+00	0	34	0	231735296	65	4345
2026-01-17 07:34:50.40	96.13	13.47	-46.7	-48.5	18.0	0.00e+00	0	34	0	232783872	65	4330
2026-01-17 07:34:51.40	96.03	13.56	-46.7	-48.5	18.1	0.00e+00	0	34	0	234881024	65	4300
2026-01-17 07:34:52.41	95.93	13.65	-46.7	-48.5	18.1	0.00e+00	0	34	0	236978176	65	4320
2026-01-17 07:34:53.42	95.83	13.74	-46.7	-48.5	18.1	0.00e+00	0	35	0	239075328	65	4302
2026-01-17 07:34:54.43	95.73	13.83	-46.7	-48.4	18.1	0.00e+00	0	34	0	241172480	65	4288
2026-01-17 07:34:55.44	95.63	13.92	-46.8	-48.6	18.0	0.00e+00	0	34	0	242221056	65	4363
2026-01-17 07:34:56.44	95.54	14.01	-46.7	-48.5	18.1	0.00e+00	0	34	0	244318208	65	4326
2026-01-17 07:34:57.45	95.43	14.10	-46.7	-48.5	18.1	0.00e+00	0	34	0	246415360	65	4311
2026-01-17 07:34:58.46	95.33	14.19	-46.7	-48.5	18.2	0.00e+00	0	34	0	248512512	65	4292
2026-01-17 07:34:59.47	95.23	14.28	-46.6	-48.3	18.3	0.00e+00	0	34	0	250609664	65	4217
2026-01-17 07:35:00.48	95.13	14.37	-46.7	-48.4	18.2	0.00e+00	0	34	0	251658240	65	4260
2026-01-17 07:35:01.48	95.03	14.46	-46.6	-48.3	18.3	0.00e+00	0	34	0	253755392	65	4225
2026-01-17 07:35:02.49	94.92	14.56	-46.7	-48.4	18.2	0.00e+00	0	34	0	255852544	65	4256
2026-01-17 07:35:03.50	94.82	14.65	-46.5	-48.2	18.4	0.00e+00	0	34	0	257949696	65	4178
2026-01-17 07:35:04.51	94.71	14.74	-46.6	-48.3	18.3	0.00e+00	0	34	0	260046848	65	4219
2026-01-17 07:35:05.52	94.60	14.83	-46.5	-48.1	18.5	0.00e+00	0	34	0	261095424	65	4145
2026-01-17 07:35:06.53	94.50	14.93	-46.4	-48.0	18.6	0.00e+00	0	34	0	263192576	64	4324
2026-01-17 07:35:07.53	94.39	15.02	-46.4	-48.0	18.6	0.00e+00	0	34	0	265289728	64	4328
2026-01-17 07:35:08.54	94.28	15.11	-46.4	-48.1	18.5	0.00e+00	0	34	0	267386880	64	4363
2026-01-17 07:35:09.55	94.17	15.21	-46.4	-48.1	18.5	0.00e+00	0	34	0	269484032	64	4359
2026-01-17 07:35:10.56	94.06	15.30	-46.4	-48.1	18.6	0.00e+00	0	34	0	270532608	64	4359
2026-01-17 07:35:11.56	93.95	15.39	-46.5	-48.2	18.5	0.00e+00	0	35	0	272629760	64	4411
2026-01-17 07:35:12.57	93.84	15.49	-46.5	-48.2	18.5	0.00e+00	0	34	0	274726912	64	4393
2026-01-17 07:35:13.58	93.73	15.58	-46.4	-48.0	18.6	0.00e+00	0	34	0	276824064	64	4328
2026-01-17 07:35:14.59	93.62	15.68	-46.5	-48.2	18.5	0.00e+00	0	34	0	278921216	64	4407
2026-01-17 07:35:15.60	93.51	15.77	-46.6	-48.3	18.4	0.00e+00	0	34	0	279969792	64	4450
2026-01-17 07:35:16.61	93.39	15.87	-46.6	-48.3	18.4	0.00e+00	0	34	0	282066944	64	4482
2026-01-17 07:35:17.62	93.28	15.96	-46.7	-48.4	18.3	0.00e+00	0	34	0	284164096	64	4521
2026-01-17 07:35:18.62	93.16	16.06	-46.6	-48.3	18.4	0.00e+00	0	34	0	286261248	64	4454
2026-01-17 07:35:19.63	93.05	16.15	-46.5	-48.2	18.5	0.00e+00	0	34	0	288358400	64	4428
2026-01-17 07:35:20.64	92.93	16.25	-46.7	-48.4	18.3	0.00e+00	0	34	0	289406976	64	4512
2026-01-17 07:35:21.65	92.81	16.35	-46.6	-48.2	18.5	0.00e+00	0	34	0	291504128	64	4438
2026-01-17 07:35:22.66	92.69	16.44	-46.6	-48.3	18.4	0.00e+00	0	35	0	293601280	64	4471
2026-01-17 07:35:23.67	92.57	16.54	-46.6	-48.3	18.4	0.00e+00	0	34	0	295698432	64	4476
2026-01-17 07:35:24.67	92.45	16.64	-46.8	-48.5	18.2	0.00e+00	0	34	0	297795584	64	4572
2026-01-17 07:35:25.68	92.33	16.74	-46.7	-48.5	18.3	0.00e+00	0	34	0	299892736	64	4556
2026-01-17 07:35:26.69	92.21	16.83	-46.8	-48.5	18.2	0.00e+00	0	35	0	300941312	64	4588
2026-01-17 07:35:27.70	92.09	16.93	-46.8	-48.5	18.2	0.00e+00	0	34	0	303038464	64	4574
2026-01-17 07:35:28.70	91.97	17.03	-46.8	-48.6	18.1	0.00e+00	0	34	0	305135616	64	4613
2026-01-17 07:35:29.71	91.84	17.13	-46.8	-48.5	18.2	0.00e+00	0	34	0	307232768	64	4595
2026-01-17 07:35:30.72	91.72	17.23	-46.9	-48.6	18.1	0.00e+00	0	34	0	308281344	64	4637
2026-01-17 07:35:31.73	91.59	17.33	-46.8	-48.5	18.2	0.00e+00	0	34	0	310378496	64	4594
2026-01-17 07:35:32.74	91.47	17.43	-46.7	-48.5	18.3	0.00e+00	0	34	0	312475648	64	4558
2026-01-17 07:35:33.74	91.34	17.53	-46.8	-48.5	18.2	0.00e+00	0	34	0	314572800	64	4585
2026-01-17 07:35:34.75	91.21	17.63	-46.8	-48.5	18.2	0.00e+00	0	34	0	316669952	64	4562
2026-01-17 07:35:35.76	91.08	17.73	-46.7	-48.4	18.3	0.00e+00	0	34	0	318767104	64	4544
2026-01-17 07:35:36.77	90.95	17.83	-46.7	-48.4	18.4	0.00e+00	0	34	0	319815680	64	4527
2026-01-17 07:35:37.78	90.82	17.93	-46.8	-48.5	18.3	0.00e+00	0	34	0	321912832	64	4569
2026-01-17 07:35:38.79	90.69	18.03	-47.0	-48.8	18.0	0.00e+00	0	34	0	324009984	64	4725
2026-01-17 07:35:39.79	90.56	18.13	-47.0	-48.8	18.0	0.00e+00	0	34	0	326107136	64	4714
2026-01-17 07:35:40.80	90.42	18.23	-46.9	-48.7	18.0	0.00e+00	0	34	0	328204288	64	4687
2026-01-17 07:35:41.81	90.29	18.33	-47.0	-48.8	18.0	0.00e+00	0	34	0	329252864	64	4716
2026-01-17 07:35:42.82	90.15	18.43	-47.0	-48.8	18.0	0.00e+00	0	34	0	331350016	64	4749
2026-01-17 07:35:43.82	90.02	18.53	-47.1	-48.9	17.9	0.00e+00	0	34	0	333447168	64	4792
2026-01-17 07:35:44.83	89.88	18.64	-47.0	-48.8	18.0	0.00e+00	0	34	0	335544320	64	4744
2026-01-17 07:35:45.84	89.74	18.74	-47.0	-48.8	18.0	0.00e+00	0	35	0	336592896	64	4755
2026-01-17 07:35:46.85	89.60	18.84	-47.2	-49.1	17.7	0.00e+00	0	34	0	338690048	64	4898
2026-01-17 07:35:47.86	89.46	18.95	-47.3	-49.2	17.6	0.00e+00	0	34	0	340787200	65	4666
2026-01-17 07:35:48.86	89.32	19.05	-47.2	-49.0	17.8	0.00e+00	0	34	0	342884352	65	4592
2026-01-17 07:35:49.87	89.18	19.15	-47.2	-49.1	17.7	0.00e+00	0	34	0	344981504	65	4614
2026-01-17 07:35:50.88	89.04	19.26	-47.1	-48.9	17.9	0.00e+00	0	35	0	347078656	65	4541
2026-01-17 07:35:51.89	88.89	19.36	-47.0	-48.9	18.0	0.00e+00	0	35	0	348127232	65	4496
2026-01-17 07:35:52.90	88.75	19.47	-47.0	-48.7	18.1	0.00e+00	0	34	0	350224384	65	4436
2026-01-17 07:35:53.90	88.60	19.57	-47.0	-48.8	18.0	0.00e+00	0	34	0	352321536	65	4453
2026-01-17 07:35:54.91	88.45	19.67	-47.0	-48.8	18.1	0.00e+00	0	34	0	354418688	65	4445
2026-01-17 07:35:55.92	88.30	19.78	-46.9	-48.7	18.1	0.00e+00	0	34	0	356515840	65	4402
2026-01-17 07:35:56.93	88.16	19.89	-46.9	-48.6	18.2	0.00e+00	0	34	0	357564416	65	4371
2026-01-17 07:35:57.94	88.00	19.99	-46.9	-48.6	18.1	0.00e+00	0	35	0	359661568	65	4390
2026-01-17 07:35:58.95	87.85	20.10	-46.8	-48.5	18.3	0.00e+00	0	34	0	361758720	65	4311
2026-01-17 07:35:59.95	87.70	20.20	-46.7	-48.4	18.4	0.00e+00	0	34	0	363855872	65	4266
2026-01-17 07:36:00.96	87.55	20.31	-46.7	-48.4	18.4	0.00e+00	0	34	0	365953024	65	4260
2026-01-17 07:36:01.97	87.39	20.42	-46.7	-48.4	18.4	0.00e+00	0	34	0	367001600	65	4273
2026-01-17 07:36:02.98	87.24	20.52	-46.7	-48.4	18.5	0.00e+00	0	34	0	369098752	65	4259
2026-01-17 07:36:03.98	87.08	20.63	-46.6	-48.3	18.6	0.00e+00	0	34	0	371195904	65	4208
2026-01-17 07:36:04.99	86.92	20.74	-46.6	-48.3	18.5	0.00e+00	0	34	0	373293056	65	4223
2026-01-17 07:36:06.00	86.77	20.84	-46.6	-48.3	18.6	0.00e+00	0	35	0	375390208	65	4209
2026-01-17 07:36:07.00	86.61	20.95	-46.6	-48.2	18.6	0.00e+00	0	35	0	376438784	65	4167
2026-01-17 07:36:08.01	86.44	21.06	-46.6	-48.3	18.6	0.00e+00	0	35	0	378535936	65	4211
2026-01-17 07:36:09.02	86.28	21.17	-46.6	-48.3	18.6	0.00e+00	0	34	0	380633088	65	4208
2026-01-17 07:36:10.03	86.12	21.27	-46.7	-48.3	18.6	0.00e+00	0	34	0	382730240	65	4233
2026-01-17 07:36:11.04	85.95	21.38	-46.7	-48.4	18.5	0.00e+00	0	34	0	384827392	65	4259
2026-01-17 07:36:12.04	85.79	21.49	-46.6	-48.2	18.6	0.00e+00	0	34	0	385875968	65	4187
2026-01-17 07:36:13.05	85.62	21.60	-46.6	-48.3	18.6	0.00e+00	0	35	0	387973120	65	4207
2026-01-17 07:36:14.06	85.45	21.71	-46.5	-48.1	18.7	0.00e+00	0	34	0	390070272	65	4137
2026-01-17 07:36:15.07	85.28	21.82	-46.6	-48.2	18.7	0.00e+00	0	34	0	392167424	65	4173
2026-01-17 07:36:16.08	85.11	21.93	-46.5	-48.1	18.8	0.00e+00	0	34	0	394264576	65	4130
2026-01-17 07:36:17.09	84.94	22.04	-46.5	-48.1	18.8	0.00e+00	0	34	0	395313152	65	4119
2026-01-17 07:36:18.10	84.77	22.15	-46.5	-48.1	18.8	0.00e+00	0	35	0	397410304	65	4134
2026-01-17 07:36:19.10	84.59	22.26	-46.6	-48.2	18.7	0.00e+00	0	35	0	399507456	65	4163
2026-01-17 07:36:20.11	84.42	22.37	-46.5	-48.1	18.8	0.00e+00	0	34	0	401604608	64	4347
2026-01-17 07:36:21.12	84.24	22.48	-46.5	-48.1	18.8	0.00e+00	0	34	0	403701760	64	4349
2026-01-17 07:36:22.13	84.06	22.59	-46.4	-48.0	18.9	0.00e+00	0	35	0	404750336	64	4316
2026-01-17 07:36:23.14	83.88	22.70	-46.5	-48.2	18.7	0.00e+00	0	34	0	406847488	64	4395
2026-01-17 07:36:24.14	83.70	22.81	-46.4	-48.0	18.8	0.00e+00	0	34	0	408944640	64	4331
2026-01-17 07:36:25.15	83.52	22.92	-46.5	-48.1	18.7	0.00e+00	0	34	0	411041792	64	4386
2026-01-17 07:36:26.16	83.34	23.03	-46.6	-48.3	18.7	0.00e+00	0	34	0	413138944	64	4445
2026-01-17 07:36:27.17	83.15	23.14	-46.8	-48.5	18.4	0.00e+00	0	34	0	415236096	64	4557
2026-01-17 07:36:28.18	82.97	23.26	-46.8	-48.5	18.4	0.00e+00	0	35	0	416284672	64	4569
2026-01-17 07:36:29.18	82.78	23.37	-46.9	-48.7	18.2	0.00e+00	0	35	0	418381824	64	4658
2026-01-17 07:36:30.19	82.59	23.48	-47.0	-48.8	18.1	0.00e+00	0	35	0	420478976	64	4747
2026-01-17 07:36:31.20	82.40	23.59	-47.1	-48.9	18.1	0.00e+00	0	35	0	422576128	64	4765
2026-01-17 07:36:32.21	82.21	23.70	-47.1	-48.9	18.0	0.00e+00	0	35	0	423624704	64	4769
2026-01-17 07:36:33.22	82.02	23.82	-47.3	-49.1	17.9	0.00e+00	0	35	0	425721856	65	4620
2026-01-17 07:36:34.22	81.82	23.93	-47.2	-49.1	17.9	0.00e+00	0	34	0	427819008	65	4610
2026-01-17 07:36:35.23	81.63	24.04	-47.4	-49.3	17.6	0.00e+00	0	35	0	429916160	65	4737
2026-01-17 07:36:36.24	81.43	24.15	-47.4	-49.3	17.7	0.00e+00	0	34	0	432013312	65	4719
2026-01-17 07:36:37.25	81.23	24.27	-47.5	-49.4	17.6	0.00e+00	0	34	0	433061888	65	4767
2026-01-17 07:36:38.26	81.03	24.38	-47.4	-49.3	17.7	0.00e+00	0	34	0	435159040	65	4722
2026-01-17 07:36:39.26	80.83	24.49	-47.4	-49.2	17.7	0.00e+00	0	34	0	437256192	65	4696
2026-01-17 07:36:40.27	80.63	24.60	-47.5	-49.4	17.6	0.00e+00	0	35	0	439353344	65	4774
2026-01-17 07:36:41.28	80.42	24.72	-47.6	-49.5	17.5	0.00e+00	0	35	0	441450496	65	4832
2026-01-17 07:36:42.29	80.22	24.83	-47.6	-49.5	17.4	0.00e+00	0	35	0	443547648	65	4868
2026-01-17 07:36:43.30	80.01	24.95	-47.6	-49.5	17.4	0.00e+00	0	34	0	444596224	65	4857
2026-01-17 07:36:44.30	79.80	25.06	-47.7	-49.6	17.3	0.00e+00	0	34	0	446693376	65	4925
2026-01-17 07:36:45.31	79.59	25.17	-47.7	-49.6	17.4	0.00e+00	0	34	0	448790528	65	4914
2026-01-17 07:36:46.32	79.38	25.28	-47.7	-49.6	17.3	0.00e+00	0	34	0	450887680	65	4913
2026-01-17 07:36:47.33	79.16	25.40	-47.6	-49.5	17.5	0.00e+00	0	34	0	451936256	65	4855
2026-01-17 07:36:48.34	78.95	25.51	-47.5	-49.4	17.6	0.00e+00	0	35	0	454033408	65	4768
2026-01-17 07:36:49.35	78.73	25.63	-47.4	-49.3	17.7	0.00e+00	0	34	0	456130560	65	4725
2026-01-17 07:36:50.35	78.51	25.74	-47.5	-49.3	17.6	0.00e+00	0	35	0	458227712	65	4755
2026-01-17 07:36:51.36	78.29	25.85	-47.5	-49.4	17.6	0.00e+00	0	34	0	460324864	65	4802
2026-01-17 07:36:52.37	78.07	25.97	-47.5	-49.4	17.6	0.00e+00	0	34	0	462422016	65	4798
2026-01-17 07:36:53.38	77.85	26.08	-47.5	-49.4	17.5	0.00e+00	0	34	0	463470592	65	4801
2026-01-17 07:36:54.39	77.62	26.19	-47.6	-49.5	17.5	0.00e+00	0	35	0	465567744	65	4832
2026-01-17 07:36:55.39	77.40	26.31	-47.5	-49.5	17.5	0.00e+00	0	34	0	467664896	65	4819
2026-01-17 07:36:56.40	77.17	26.42	-47.5	-49.4	17.6	0.00e+00	0	34	0	469762048	65	4795
2026-01-17 07:36:57.41	76.94	26.53	-47.4	-49.3	17.7	0.00e+00	0	35	0	471859200	65	4735
2026-01-17 07:36:58.42	76.71	26.65	-47.3	-49.0	17.9	0.00e+00	0	35	0	472907776	65	4596
2026-01-17 07:36:59.42	76.48	26.76	-47.1	-48.9	18.1	0.00e+00	0	35	0	475004928	65	4529
2026-01-17 07:37:00.43	76.24	26.87	-47.1	-48.9	18.1	0.00e+00	0	34	0	477102080	65	4507
2026-01-17 07:37:01.44	76.01	26.99	-47.1	-48.8	18.1	0.00e+00	0	34	0	479199232	65	4483
2026-01-17 07:37:02.45	75.77	27.10	-47.1	-48.9	18.1	0.00e+00	0	34	0	480247808	65	4521
2026-01-17 07:37:03.46	75.53	27.22	-47.3	-49.1	17.9	0.00e+00	0	34	0	482344960	65	4617
2026-01-17 07:37:04.47	75.29	27.33	-47.3	-49.1	17.9	0.00e+00	0	35	0	484442112	65	4641
2026-01-17 07:37:05.48	75.04	27.44	-47.4	-49.3	17.7	0.00e+00	0	35	0	486539264	65	4736
2026-01-17 07:37:06.48	74.80	27.55	-47.5	-49.3	17.7	0.00e+00	0	34	0	488636416	65	4755
2026-01-17 07:37:07.49	74.55	27.67	-47.5	-49.4	17.6	0.00e+00	0	34	0	490733568	65	4790
2026-01-17 07:37:08.50	74.30	27.78	-47.5	-49.4	17.7	0.00e+00	0	34	0	491782144	65	4762
2026-01-17 07:37:09.51	74.05	27.89	-47.2	-49.0	18.0	0.00e+00	0	35	0	493879296	65	4558
2026-01-17 07:37:10.52	73.80	28.01	-47.2	-48.9	18.1	0.00e+00	0	34	0	495976448	65	4545
2026-01-17 07:37:11.53	73.55	28.12	-47.2	-48.9	18.1	0.00e+00	0	34	0	498073600	65	4528
2026-01-17 07:37:12.54	73.29	28.23	-47.2	-49.0	18.0	0.00e+00	0	35	0	500170752	65	4589
2026-01-17 07:37:13.54	73.04	28.34	-47.2	-49.0	18.0	0.00e+00	0	35	0	501219328	65	4593
2026-01-17 07:37:14.55	72.78	28.45	-47.2	-49.0	18.0	0.00e+00	0	34	0	503316480	65	4567
2026-01-17 07:37:15.56	72.51	28.56	-47.0	-48.8	18.3	0.00e+00	0	34	0	505413632	65	4456
2026-01-17 07:37:16.57	72.25	28.68	-47.0	-48.7	18.3	0.00e+00	0	34	0	507510784	65	4434
2026-01-17 07:37:17.58	71.99	28.79	-47.1	-48.9	18.1	0.00e+00	0	35	0	509607936	65	4517
2026-01-17 07:37:18.59	71.72	28.90	-47.4	-49.2	17.9	0.00e+00	0	35	0	510656512	65	4687
2026-01-17 07:37:19.60	71.45	29.01	-47.4	-49.3	17.8	0.00e+00	0	34	0	512753664	65	4743
2026-01-17 07:37:20.60	71.18	29.12	-47.5	-49.4	17.7	0.00e+00	0	35	0	514850816	65	4776
2026-01-17 07:37:21.61	70.91	29.23	-47.5	-49.4	17.6	0.00e+00	0	34	0	516947968	65	4794
2026-01-17 07:37:22.62	70.64	29.34	-47.6	-49.5	17.5	0.00e+00	0	35	0	519045120	65	4860
2026-01-17 07:37:23.63	70.36	29.45	-47.8	-49.7	17.3	0.00e+00	0	35	0	520093696	66	4697
2026-01-17 07:37:24.64	70.08	29.56	-47.9	-50.0	17.1	0.00e+00	0	35	0	522190848	66	4817
2026-01-17 07:37:25.64	69.80	29.66	-48.1	-50.2	16.8	0.00e+00	0	34	0	524288000	66	4976
2026-01-17 07:37:26.65	69.52	29.77	-48.4	-50.7	16.4	0.00e+00	0	34	0	526385152	67	4960
2026-01-17 07:37:27.66	69.24	29.88	-48.7	-51.1	16.0	0.00e+00	0	35	0	528482304	67	5199
2026-01-17 07:37:28.67	68.95	29.99	-49.0	-51.5	15.7	0.00e+00	0	35	0	529530880	68	5135
2026-01-17 07:37:29.68	68.66	30.09	-49.1	-51.7	15.5	0.00e+00	0	34	0	531628032	68	5254
2026-01-17 07:37:30.68	68.38	30.20	-49.2	-51.8	15.3	0.00e+00	0	35	0	533725184	69	5034
2026-01-17 07:37:31.69	68.09	30.31	-49.3	-51.9	15.3	0.00e+00	0	35	0	535822336	69	5095
2026-01-17 07:37:32.70	67.79	30.41	-49.4	-52.2	15.0	0.00e+00	0	34	0	537919488	69	5233
2026-01-17 07:37:33.71	67.50	30.52	-49.7	-52.7	14.6	7.00e-07	0	35	0	538968064	69	5554
2026-01-17 07:37:34.72	67.20	30.62	-49.7	-52.7	14.5	2.20e-06	0	35	0	541065216	70	5273
2026-01-17 07:37:35.72	66.90	30.73	-49.7	-52.7	14.5	7.00e-07	0	35	0	543162368	70	5236
2026-01-17 07:37:36.73	66.60	30.83	-49.7	-52.8	14.4	0.00e+00	0	35	0	545259520	70	5295
2026-01-17 07:37:37.74	66.30	30.93	-49.5	-52.6	14.5	0.00e+00	0	34	0	547356672	70	5208
2026-01-17 07:37:38.75	65.99	31.04	-49.6	-52.7	14.5	7.00e-07	0	34	0	548405248	70	5256
2026-01-17 07:37:39.76	65.69	31.14	-49.6	-52.6	14.6	0.00e+00	0	35	0	550502400	70	5200
2026-01-17 07:37:40.77	65.38	31.24	-49.7	-52.8	14.4	7.00e-07	0	35	0	552599552	70	5294
2026-01-17 07:37:41.78	65.07	31.34	-49.9	-53.2	14.0	1.50e-06	0	35	0	554696704	70	5540
2026-01-17 07:37:42.78	64.76	31.44	-50.2	-53.6	13.5	3.00e-06	0	34	0	556793856	70	5855
2026-01-17 07:37:43.79	64.44	31.54	-50.3	-53.8	13.3	7.60e-06	0	35	0	557842432	71	5631
2026-01-17 07:37:44.80	64.13	31.64	-50.3	-53.8	13.3	1.98e-05	0	34	0	559939584	71	5651
2026-01-17 07:37:45.81	63.81	31.74	-50.3	-53.8	13.3	1.75e-05	0	34	0	562036736	71	5609
2026-01-17 07:37:46.82	63.49	31.84	-50.4	-54.0	13.0	1.83e-05	0	34	0	564133888	71	5751
2026-01-17 07:37:47.83	63.16	31.93	-50.4	-54.0	13.0	4.27e-05	0	35	0	566231040	71	5773
2026-01-17 07:37:48.84	62.84	32.03	-50.5	-54.1	12.9	3.96e-05	0	35	0	567279616	71	5814
2026-01-17 07:37:49.85	62.51	32.13	-50.3	-53.7	13.3	2.44e-05	0	34	0	569376768	71	5576
2026-01-17 07:37:50.86	62.18	32.22	-50.0	-53.2	13.9	9.10e-06	0	35	0	571473920	71	5257
2026-01-17 07:37:51.87	61.85	32.31	-49.8	-52.8	14.3	4.50e-06	0	35	0	573571072	71	5008
2026-01-17 07:37:52.88	61.52	32.41	-49.7	-52.7	14.5	0.00e+00	0	35	0	575668224	71	4939
2026-01-17 07:37:53.88	61.19	32.50	-49.6	-52.6	14.6	0.00e+00	0	35	0	577765376	71	4873
2026-01-17 07:37:54.89	60.85	32.59	-49.4	-52.2	14.9	0.00e+00	0	35	0	578813952	70	4947
2026-01-17 07:37:55.90	60.52	32.68	-49.4	-52.2	14.9	0.00e+00	0	35	0	580911104	70	4950
2026-01-17 07:37:56.91	60.18	32.77	-49.3	-52.0	15.2	0.00e+00	0	35	0	583008256	70	4825
2026-01-17 07:37:57.92	59.83	32.86	-49.4	-52.1	15.1	0.00e+00	0	35	0	585105408	70	4906
2026-01-17 07:37:58.93	59.49	32.95	-49.2	-51.9	15.1	0.00e+00	0	35	0	586153984	70	4771
2026-01-17 07:37:59.94	59.14	33.04	-49.1	-51.7	15.4	0.00e+00	0	34	0	588251136	70	4666
2026-01-17 07:38:00.94	58.80	33.12	-48.9	-51.3	15.9	0.00e+00	0	35	0	590348288	69	4742
2026-01-17 07:38:01.95	58.45	33.21	-49.0	-51.5	15.6	0.00e+00	0	34	0	592445440	69	4866
2026-01-17 07:38:02.96	58.10	33.29	-49.1	-51.7	15.3	0.00e+00	0	35	0	594542592	69	4942
2026-01-17 07:38:03.97	57.75	33.37	-48.7	-51.0	16.1	0.00e+00	0	35	0	596639744	69	4574
2026-01-17 07:38:04.98	57.39	33.46	-48.7	-51.0	16.0	0.00e+00	0	35	0	597688320	69	4549
2026-01-17 07:38:05.98	57.04	33.54	-48.6	-51.0	15.7	0.00e+00	0	35	0	599785472	69	4564
2026-01-17 07:38:06.99	56.68	33.62	-48.6	-51.0	15.8	0.00e+00	0	34	0	601882624	69	4550
2026-01-17 07:38:08.00	56.32	33.70	-48.6	-50.9	15.9	0.00e+00	0	35	0	603979776	69	4538
2026-01-17 07:38:09.01	55.96	33.77	-48.2	-50.4	16.5	0.00e+00	0	34	0	606076928	68	4503
2026-01-17 07:38:10.02	55.60	33.85	-48.1	-50.1	17.1	0.00e+00	0	35	0	607125504	68	4376
2026-01-17 07:38:11.03	55.23	33.93	-47.5	-49.4	17.3	0.00e+00	0	35	0	609222656	67	4252
2026-01-17 07:38:12.03	54.87	34.00	-47.7	-49.6	17.3	0.00e+00	0	35	0	611319808	66	4641
2026-01-17 07:38:13.04	54.50	34.08	-47.5	-49.3	17.7	0.00e+00	0	35	0	613416960	66	4491
2026-01-17 07:38:14.05	54.13	34.15	-47.6	-49.5	17.6	0.00e+00	0	35	0	614465536	66	4560
2026-01-17 07:38:15.06	53.76	34.22	-47.5	-49.3	17.8	0.00e+00	0	35	0	616562688	66	4492
2026-01-17 07:38:16.06	53.39	34.29	-47.5	-49.3	17.7	0.00e+00	0	34	0	618659840	66	4492
2026-01-17 07:38:17.07	53.01	34.36	-47.3	-49.1	18.1	0.00e+00	0	35	0	620756992	66	4343
2026-01-17 07:38:18.08	52.64	34.42	-47.4	-49.2	18.0	0.00e+00	0	34	0	622854144	66	4415
2026-01-17 07:38:19.09	52.26	34.49	-47.5	-49.4	17.8	0.00e+00	0	35	0	624951296	66	4524
2026-01-17 07:38:20.10	51.88	34.56	-47.3	-49.1	18.1	0.00e+00	0	35	0	625999872	66	4359
2026-01-17 07:38:21.10	51.50	34.62	-47.2	-48.9	18.2	0.00e+00	0	35	0	628097024	66	4286
2026-01-17 07:38:22.11	51.12	34.68	-46.9	-48.6	18.6	0.00e+00	0	35	0	630194176	65	4351
2026-01-17 07:38:23.12	50.73	34.74	-46.9	-48.6	18.5	0.00e+00	0	34	0	632291328	65	4353
2026-01-17 07:38:24.13	50.35	34.80	-46.9	-48.6	18.6	0.00e+00	0	35	0	634388480	65	4352
2026-01-17 07:38:25.14	49.96	34.86	-47.0	-48.7	18.4	0.00e+00	0	35	0	635437056	65	4417
2026-01-17 07:38:26.14	49.58	34.92	-46.9	-48.6	18.5	0.00e+00	0	35	0	637534208	65	4359
2026-01-17 07:38:27.15	49.19	34.97	-46.8	-48.4	18.7	0.00e+00	0	34	0	639631360	65	4282
2026-01-17 07:38:28.16	48.80	35.02	-46.7	-48.3	18.9	0.00e+00	0	35	0	641728512	65	4197
2026-01-17 07:38:29.17	48.40	35.08	-46.3	-47.8	19.3	0.00e+00	0	34	0	643825664	64	4209
2026-01-17 07:38:30.18	48.01	35.13	-46.2	-47.7	19.5	0.00e+00	0	35	0	644874240	64	4148
2026-01-17 07:38:31.18	47.62	35.18	-46.0	-47.4	19.7	0.00e+00	0	35	0	646971392	63	4270
2026-01-17 07:38:32.19	47.22	35.23	-45.9	-47.3	19.9	0.00e+00	0	34	0	649068544	63	4207
2026-01-17 07:38:33.20	46.83	35.27	-46.1	-47.5	19.7	0.00e+00	0	35	0	651165696	63	4320
2026-01-17 07:38:34.21	46.43	35.32	-46.2	-47.6	19.6	0.00e+00	0	34	0	653262848	63	4388
2026-01-17 07:38:35.22	46.03	35.36	-46.1	-47.6	19.7	0.00e+00	0	35	0	654311424	63	4343
2026-01-17 07:38:36.22	45.63	35.40	-46.0	-47.5	19.7	0.00e+00	0	35	0	656408576	63	4293
2026-01-17 07:38:37.23	45.23	35.44	-46.1	-47.5	19.7	0.00e+00	0	34	0	658505728	63	4334
2026-01-17 07:38:38.24	44.83	35.48	-46.2	-47.6	19.6	0.00e+00	0	35	0	660602880	63	4379
2026-01-17 07:38:39.25	44.43	35.52	-46.2	-47.6	19.6	0.00e+00	0	35	0	662700032	63	4375
2026-01-17 07:38:40.26	44.02	35.56	-46.1	-47.5	19.7	0.00e+00	0	35	0	663748608	63	4317
2026-01-17 07:38:41.27	43.62	35.59	-45.7	-47.1	20.1	0.00e+00	0	35	0	665845760	63	4126
2026-01-17 07:38:42.28	43.21	35.62	-45.4	-46.7	20.4	0.00e+00	0	34	0	667942912	62	4192
2026-01-17 07:38:43.28	42.81	35.65	-45.6	-46.9	20.2	0.00e+00	0	35	0	670040064	62	4275
2026-01-17 07:38:44.29	42.40	35.68	-45.6	-47.0	20.2	0.00e+00	0	35	0	672137216	62	4301
2026-01-17 07:38:45.30	41.99	35.71	-45.8	-47.1	20.0	0.00e+00	0	34	0	673185792	62	4383
2026-01-17 07:38:46.31	41.58	35.74	-45.9	-47.3	19.9	0.00e+00	0	35	0	675282944	62	4488
2026-01-17 07:38:47.32	41.17	35.76	-46.1	-47.6	19.7	0.00e+00	0	34	0	677380096	62	4606
2026-01-17 07:38:48.33	40.76	35.78	-46.4	-47.9	19.4	0.00e+00	0	34	0	679477248	63	4506
2026-01-17 07:38:49.34	40.35	35.80	-46.5	-48.0	19.3	0.00e+00	0	35	0	681574400	63	4572
2026-01-17 07:38:50.35	39.94	35.82	-46.6	-48.1	19.2	0.00e+00	0	35	0	682622976	63	4617
2026-01-17 07:38:51.36	39.53	35.84	-46.4	-47.8	19.4	0.00e+00	0	35	0	684720128	63	4493
2026-01-17 07:38:52.36	39.12	35.86	-46.5	-48.0	19.2	0.00e+00	0	35	0	686817280	63	4588
2026-01-17 07:38:53.37	38.71	35.87	-46.6	-48.1	19.1	0.00e+00	0	34	0	688914432	63	4637
2026-01-17 07:38:54.38	38.30	35.89	-46.6	-48.1	19.2	0.00e+00	0	35	0	691011584	63	4613
2026-01-17 07:38:55.39	37.89	35.90	-46.5	-48.1	19.2	0.00e+00	0	34	0	693108736	63	4603
2026-01-17 07:38:56.40	37.47	35.91	-46.6	-48.2	19.1	0.00e+00	0	34	0	694157312	63	4674
2026-01-17 07:38:57.40	37.06	35.91	-46.7	-48.3	19.0	0.00e+00	0	34	0	696254464	63	4714
2026-01-17 07:38:58.41	36.65	35.92	-46.7	-48.3	18.8	0.00e+00	0	34	0	698351616	64	4481
2026-01-17 07:38:59.42	36.24	35.92	-46.8	-48.4	18.8	0.00e+00	0	35	0	700448768	64	4520
2026-01-17 07:39:00.43	35.82	35.93	-46.8	-48.4	18.7	0.00e+00	0	34	0	701497344	64	4537
2026-01-17 07:39:01.44	35.41	35.93	-46.7	-48.3	18.8	0.00e+00	0	35	0	703594496	64	4478
2026-01-17 07:39:02.44	35.00	35.93	-46.5	-48.0	19.1	0.00e+00	0	35	0	705691648	64	4307
2026-01-17 07:39:03.45	34.58	35.92	-46.4	-47.9	19.2	0.00e+00	0	35	0	707788800	64	4258
2026-01-17 07:39:04.46	34.17	35.92	-46.5	-48.0	19.2	0.00e+00	0	35	0	709885952	64	4336
2026-01-17 07:39:05.47	33.76	35.91	-46.6	-48.1	19.0	0.00e+00	0	34	0	711983104	64	4383
2026-01-17 07:39:06.48	33.34	35.91	-46.8	-48.5	18.8	0.00e+00	0	34	0	713031680	64	4547
2026-01-17 07:39:07.49	32.93	35.90	-47.1	-48.8	18.4	0.00e+00	0	35	0	715128832	64	4732
2026-01-17 07:39:08.50	32.52	35.89	-47.4	-49.2	18.1	0.00e+00	0	35	0	717225984	65	4658
2026-01-17 07:39:09.51	32.10	35.87	-47.4	-49.2	18.0	0.00e+00	0	35	0	719323136	65	4671
2026-01-17 07:39:10.52	31.69	35.86	-47.3	-49.1	18.1	0.00e+00	0	35	0	721420288	65	4632
2026-01-17 07:39:11.53	31.28	35.84	-47.1	-48.8	18.4	0.00e+00	0	34	0	722468864	65	4458
2026-01-17 07:39:12.54	30.87	35.83	-47.1	-48.8	18.4	0.00e+00	0	34	0	724566016	65	4456
2026-01-17 07:39:13.54	30.46	35.81	-47.4	-49.2	18.0	0.00e+00	0	35	0	726663168	65	4660
2026-01-17 07:39:14.55	30.05	35.79	-47.7	-49.6	17.6	0.00e+00	0	34	0	728760320	65	4880
2026-01-17 07:39:15.56	29.64	35.76	-47.8	-49.8	17.5	0.00e+00	0	34	0	730857472	66	4706
2026-01-17 07:39:16.57	29.23	35.74	-47.8	-49.7	17.5	0.00e+00	0	34	0	731906048	66	4694
2026-01-17 07:39:17.58	28.82	35.71	-48.1	-50.2	17.1	0.00e+00	0	35	0	734003200	66	4944
2026-01-17 07:39:18.58	28.42	35.69	-48.3	-50.4	16.8	0.00e+00	0	35	0	736100352	67	4805
2026-01-17 07:39:19.59	28.01	35.66	-48.4	-50.6	16.7	0.00e+00	0	35	0	738197504	67	4874
2026-01-17 07:39:20.60	27.61	35.62	-48.3	-50.4	16.8	0.00e+00	0	35	0	740294656	67	4789
2026-01-17 07:39:21.61	27.20	35.59	-48.2	-50.3	17.0	0.00e+00	0	35	0	741343232	67	4722
2026-01-17 07:39:22.62	26.80	35.56	-48.0	-50.0	17.2	0.00e+00	0	34	0	743440384	67	4589
2026-01-17 07:39:23.63	26.39	35.52	-47.8	-49.7	17.5	0.00e+00	0	35	0	745537536	67	4406
2026-01-17 07:39:24.63	25.99	35.49	-47.8	-49.6	17.6	0.00e+00	0	35	0	747634688	67	4388
2026-01-17 07:39:25.64	25.59	35.45	-48.0	-50.0	17.3	0.00e+00	0	34	0	749731840	67	4570
2026-01-17 07:39:26.65	25.19	35.41	-48.3	-50.5	16.8	0.00e+00	0	35	0	750780416	67	4825
2026-01-17 07:39:27.66	24.79	35.36	-48.4	-50.5	16.7	0.00e+00	0	35	0	752877568	67	4849
2026-01-17 07:39:28.67	24.39	35.32	-48.4	-50.5	16.7	0.00e+00	0	35	0	754974720	67	4858
2026-01-17 07:39:29.67	24.00	35.28	-48.3	-50.4	16.7	0.00e+00	0	35	0	757071872	67	4801
2026-01-17 07:39:30.68	23.60	35.23	-48.1	-50.2	17.0	0.00e+00	0	35	0	759169024	67	4692
2026-01-17 07:39:31.69	23.20	35.18	-48.2	-50.2	17.0	0.00e+00	0	35	0	760217600	67	4692
2026-01-17 07:39:32.70	22.81	35.13	-48.1	-50.1	17.1	0.00e+00	0	35	0	762314752	67	4632
2026-01-17 07:39:33.71	22.42	35.08	-48.1	-50.2	17.1	0.00e+00	0	35	0	764411904	67	4656
2026-01-17 07:39:34.72	22.02	35.03	-48.2	-50.4	16.9	0.00e+00	0	35	0	766509056	67	4763
2026-01-17 07:39:35.72	21.64	34.98	-48.1	-50.1	17.1	0.00e+00	0	35	0	768606208	67	4627
2026-01-17 07:39:36.73	21.25	34.92	-48.2	-50.2	17.0	0.00e+00	0	35	0	769654784	67	4704
2026-01-17 07:39:37.74	20.86	34.86	-48.2	-50.2	17.0	0.00e+00	0	35	0	771751936	67	4690
2026-01-17 07:39:38.75	20.47	34.81	-48.1	-50.1	17.0	0.00e+00	0	35	0	773849088	67	4641
2026-01-17 07:39:39.76	20.09	34.75	-47.8	-49.8	17.5	0.00e+00	0	35	0	775946240	67	4454
2026-01-17 07:39:40.77	19.70	34.69	-47.5	-49.3	17.9	0.00e+00	0	35	0	778043392	67	4233
2026-01-17 07:39:41.78	19.32	34.62	-47.2	-48.9	18.3	0.00e+00	0	35	0	779091968	66	4270
2026-01-17 07:39:42.79	18.94	34.56	-47.1	-48.8	18.4	0.00e+00	0	35	0	781189120	66	4233
2026-01-17 07:39:43.80	18.56	34.50	-47.0	-48.7	18.5	0.00e+00	0	35	0	783286272	65	4410
2026-01-17 07:39:44.80	18.19	34.43	-47.2	-49.0	18.2	0.00e+00	0	35	0	785383424	65	4550
2026-01-17 07:39:45.81	17.81	34.36	-47.4	-49.2	18.0	0.00e+00	0	35	0	787480576	65	4660
2026-01-17 07:39:46.82	17.44	34.30	-47.5	-49.3	17.9	0.00e+00	0	35	0	788529152	65	4720
2026-01-17 07:39:47.83	17.06	34.23	-47.2	-48.9	18.2	0.00e+00	0	35	0	790626304	65	4534
2026-01-17 07:39:48.84	16.69	34.15	-47.2	-48.9	18.3	0.00e+00	0	35	0	792723456	65	4526
2026-01-17 07:39:49.84	16.33	34.08	-47.0	-48.7	18.5	0.00e+00	0	35	0	794820608	65	4402
2026-01-17 07:39:50.85	15.96	34.01	-47.0	-48.6	18.5	0.00e+00	0	35	0	796917760	65	4387
2026-01-17 07:39:51.86	15.59	33.94	-47.0	-48.7	18.5	0.00e+00	0	35	0	799014912	65	4422
2026-01-17 07:39:52.87	15.23	33.86	-47.1	-48.7	18.5	0.00e+00	0	34	0	800063488	65	4437
2026-01-17 07:39:53.88	14.86	33.78	-47.3	-49.1	18.1	0.00e+00	0	35	0	802160640	65	4641
2026-01-17 07:39:54.89	14.50	33.71	-47.4	-49.2	18.0	0.00e+00	0	35	0	804257792	65	4703
2026-01-17 07:39:55.90	14.14	33.63	-47.7	-49.6	17.6	0.00e+00	0	35	0	806354944	65	4881
2026-01-17 07:39:56.90	13.79	33.55	-47.8	-49.8	17.4	0.00e+00	0	35	0	807403520	66	4717
2026-01-17 07:39:57.91	13.43	33.47	-47.9	-49.9	17.3	0.00e+00	0	35	0	809500672	66	4805
2026-01-17 07:39:58.92	13.08	33.38	-48.0	-50.1	17.2	0.00e+00	0	35	0	811597824	66	4880
2026-01-17 07:39:59.93	12.72	33.30	-48.0	-50.0	17.2	0.00e+00	0	35	0	813694976	66	4823
2026-01-17 07:40:00.94	12.37	33.22	-47.9	-49.9	17.3	0.00e+00	0	35	0	815792128	66	4806
2026-01-17 07:40:01.95	12.02	33.13	-48.1	-50.2	17.1	0.00e+00	0	35	0	816840704	66	4939
2026-01-17 07:40:02.96	11.68	33.05	-48.2	-50.3	16.9	0.00e+00	0	35	0	818937856	66	5021
2026-01-17 07:40:03.96	11.34	32.96	-48.4	-50.6	16.6	0.00e+00	0	35	0	821035008	67	4894
2026-01-17 07:40:04.97	10.99	32.87	-48.5	-50.8	16.4	0.00e+00	0	35	0	823132160	67	5015
2026-01-17 07:40:05.98	10.65	32.78	-48.5	-50.7	16.5	0.00e+00	0	35	0	825229312	67	4936
2026-01-17 07:40:06.99	10.31	32.69	-48.5	-50.8	16.4	0.00e+00	0	35	0	827326464	67	5008
2026-01-17 07:40:08.00	9.97	32.60	-48.5	-50.8	16.4	0.00e+00	0	35	0	828375040	67	4993
2026-01-17 07:40:09.00	9.64	32.51	-48.5	-50.7	16.5	0.00e+00	0	35	0	830472192	67	4951
2026-01-17 07:40:10.01	9.31	32.42	-48.3	-50.4	16.7	0.00e+00	0	35	0	832569344	67	4813
2026-01-17 07:40:11.02	8.98	32.33	-48.3	-50.4	16.8	0.00e+00	0	35	0	834666496	67	4800
2026-01-17 07:40:12.03	8.65	32.23	-48.2	-50.2	17.0	0.00e+00	0	35	0	835715072	67	4690
2026-01-17 07:40:13.04	8.32	32.14	-48.2	-50.3	16.9	0.00e+00	0	35	0	837812224	67	4738
2026-01-17 07:40:14.05	7.99	32.04	-48.3	-50.4	16.8	0.00e+00	0	35	0	839909376	67	4786
2026-01-17 07:40:15.06	7.67	31.95	-48.4	-50.6	16.6	0.00e+00	0	35	0	842006528	67	4872
2026-01-17 07:40:16.06	7.35	31.85	-48.3	-50.5	16.7	0.00e+00	0	35	0	844103680	67	4845
2026-01-17 07:40:17.07	7.03	31.75	-48.4	-50.6	16.7	0.00e+00	0	34	0	846200832	67	4877
2026-01-17 07:40:18.08	6.71	31.65	-48.4	-50.6	16.6	0.00e+00	0	35	0	847249408	67	4905
2026-01-17 07:40:19.09	6.39	31.56	-48.5	-50.7	16.5	0.00e+00	0	34	0	849346560	67	4973
2026-01-17 07:40:20.10	6.08	31.46	-48.3	-50.5	16.8	0.00e+00	0	35	0	851443712	67	4826
2026-01-17 07:40:21.11	5.77	31.36	-48.3	-50.4	16.8	0.00e+00	0	35	0	853540864	67	4784
2026-01-17 07:40:22.12	5.46	31.26	-48.1	-50.2	17.1	0.00e+00	0	35	0	855638016	67	4661
2026-01-17 07:40:23.13	5.15	31.15	-48.1	-50.2	17.0	0.00e+00	0	35	0	856686592	67	4689
2026-01-17 07:40:24.13	4.84	31.05	-48.2	-50.2	16.9	0.00e+00	0	35	0	858783744	67	4704
2026-01-17 07:40:25.14	4.54	30.95	-48.3	-50.4	16.9	0.00e+00	0	35	0	860880896	67	4780
2026-01-17 07:40:26.15	4.24	30.85	-48.3	-50.4	16.7	0.00e+00	0	35	0	862978048	67	4799
2026-01-17 07:40:27.16	3.94	30.74	-48.4	-50.6	16.6	0.00e+00	0	34	0	865075200	67	4886
2026-01-17 07:40:28.17	3.64	30.64	-48.2	-50.3	16.9	0.00e+00	0	35	0	866123776	67	4747
2026-01-17 07:40:29.18	3.34	30.53	-48.1	-50.2	17.0	0.00e+00	0	35	0	868220928	67	4682
2026-01-17 07:40:30.18	3.05	30.43	-48.1	-50.2	17.0	0.00e+00	0	35	0	870318080	67	4664
2026-01-17 07:40:31.19	2.76	30.33	-48.1	-50.2	17.0	0.00e+00	0	35	0	872415232	67	4672
2026-01-17 07:40:32.20	2.46	30.22	-48.1	-50.2	16.9	0.00e+00	0	35	0	874512384	67	4685
2026-01-17 07:40:33.21	2.17	30.11	-48.2	-50.3	16.9	0.00e+00	0	35	0	875560960	67	4719
2026-01-17 07:40:34.22	1.89	30.01	-48.2	-50.3	16.9	0.00e+00	0	35	0	877658112	67	4710
2026-01-17 07:40:35.23	1.60	29.90	-48.3	-50.4	16.7	0.00e+00	0	35	0	879755264	67	4814
2026-01-17 07:40:36.23	1.32	29.79	-48.2	-50.3	16.9	0.00e+00	0	35	0	881852416	67	4717
2026-01-17 07:40:37.24	1.04	29.68	-48.2	-50.3	16.9	0.00e+00	0	35	0	883949568	67	4734
2026-01-17 07:40:38.25	0.76	29.58	-48.3	-50.4	16.7	0.00e+00	0	35	0	884998144	67	4809
2026-01-17 07:40:39.26	0.48	29.47	-48.3	-50.4	16.8	0.00e+00	0	35	0	887095296	67	4798
2026-01-17 07:40:40.27	0.21	29.36	-48.1	-50.1	17.1	0.00e+00	0	35	0	889192448	67	4618
2026-01-17 07:40:41.28	359.93	29.25	-47.8	-49.8	17.4	0.00e+00	0	35	0	891289600	67	4471
2026-01-17 07:40:42.29	359.66	29.14	-47.8	-49.7	17.4	0.00e+00	0	35	0	893386752	67	4427
2026-01-17 07:40:43.30	359.39	29.03	-47.8	-49.8	17.4	0.00e+00	0	35	0	894435328	67	4446
2026-01-17 07:40:44.31	359.12	28.92	-47.5	-49.3	17.8	0.00e+00	0	35	0	896532480	66	4466
2026-01-17 07:40:45.31	358.86	28.81	-47.4	-49.3	17.9	0.00e+00	0	35	0	898629632	66	4459
2026-01-17 07:40:46.32	358.59	28.70	-47.4	-49.2	18.0	0.00e+00	0	34	0	900726784	66	4396
2026-01-17 07:40:47.33	358.33	28.59	-47.3	-49.0	18.2	0.00e+00	0	35	0	902823936	66	4322
2026-01-17 07:40:48.34	358.07	28.48	-47.2	-49.0	18.2	0.00e+00	0	35	0	903872512	66	4304
2026-01-17 07:40:49.34	357.81	28.37	-47.1	-48.8	18.4	0.00e+00	0	35	0	905969664	66	4210
2026-01-17 07:40:50.35	357.56	28.25	-47.0	-48.6	18.5	0.00e+00	0	35	0	908066816	65	4375
2026-01-17 07:40:51.36	357.30	28.14	-46.7	-48.2	18.9	0.00e+00	0	35	0	910163968	65	4190
2026-01-17 07:40:52.37	357.05	28.03	-46.8	-48.4	18.7	0.00e+00	0	35	0	912261120	65	4254
2026-01-17 07:40:53.37	356.80	27.92	-46.5	-48.1	19.0	0.00e+00	0	35	0	914358272	65	4124
2026-01-17 07:40:54.38	356.55	27.81	-46.6	-48.2	18.9	0.00e+00	0	35	0	915406848	65	4172
2026-01-17 07:40:55.39	356.30	27.69	-46.4	-47.9	19.2	0.00e+00	0	35	0	917504000	64	4265
2026-01-17 07:40:56.40	356.05	27.58	-46.2	-47.7	19.4	0.00e+00	0	34	0	919601152	64	4182
2026-01-17 07:40:57.41	355.81	27.47	-46.1	-47.5	19.6	0.00e+00	0	35	0	921698304	64	4079
2026-01-17 07:40:58.42	355.56	27.35	-46.0	-47.5	19.7	0.00e+00	0	35	0	922746880	63	4296
2026-01-17 07:40:59.43	355.32	27.24	-45.9	-47.3	19.8	0.00e+00	0	35	0	924844032	63	4229
2026-01-17 07:41:00.43	355.09	27.13	-45.8	-47.2	20.0	0.00e+00	0	34	0	926941184	63	4155
2026-01-17 07:41:01.44	354.85	27.02	-45.8	-47.2	20.0	0.00e+00	0	34	0	929038336	63	4156
2026-01-17 07:41:02.45	354.61	26.90	-45.8	-47.2	19.9	0.00e+00	0	34	0	931135488	63	4180
2026-01-17 07:41:03.46	354.38	26.79	-45.9	-47.4	19.8	0.00e+00	0	35	0	933232640	63	4254
2026-01-17 07:41:04.47	354.14	26.68	-45.9	-47.4	19.8	0.00e+00	0	35	0	934281216	63	4253
2026-01-17 07:41:05.48	353.91	26.56	-45.9	-47.3	19.8	0.00e+00	0	35	0	936378368	63	4234
2026-01-17 07:41:06.48	353.69	26.45	-45.8	-47.2	20.0	0.00e+00	0	35	0	938475520	63	4155
2026-01-17 07:41:07.49	353.46	26.34	-45.7	-47.0	20.1	0.00e+00	0	35	0	940572672	63	4091
2026-01-17 07:41:08.50	353.23	26.22	-45.5	-46.8	20.3	0.00e+00	0	34	0	942669824	62	4227
2026-01-17 07:41:09.51	353.01	26.11	-45.4	-46.7	20.4	0.00e+00	0	34	0	943718400	62	4175
2026-01-17 07:41:10.52	352.78	26.00	-45.5	-46.8	20.3	0.00e+00	0	35	0	945815552	62	4211
2026-01-17 07:41:11.53	352.56	25.88	-45.4	-46.8	20.4	0.00e+00	0	35	0	947912704	62	4194
2026-01-17 07:41:12.54	352.34	25.77	-45.4	-46.7	20.4	0.00e+00	0	35	0	950009856	62	4185
2026-01-17 07:41:13.55	352.12	25.66	-45.4	-46.7	20.4	0.00e+00	0	34	0	951058432	62	4192
2026-01-17 07:41:14.56	351.91	25.54	-45.3	-46.6	20.5	0.00e+00	0	35	0	953155584	62	4118
2026-01-17 07:41:15.57	351.69	25.43	-45.2	-46.5	20.6	0.00e+00	0	34	0	955252736	62	4066
2026-01-17 07:41:16.58	351.48	25.32	-45.4	-46.7	20.4	0.00e+00	0	34	0	957349888	62	4153
2026-01-17 07:41:17.59	351.27	25.20	-45.3	-46.6	20.5	0.00e+00	0	35	0	959447040	62	4131
2026-01-17 07:41:18.59	351.06	25.09	-45.3	-46.6	20.5	0.00e+00	0	35	0	961544192	62	4130
2026-01-17 07:41:19.60	350.85	24.98	-45.4	-46.7	20.4	0.00e+00	0	34	0	962592768	62	4172
2026-01-17 07:41:20.61	350.64	24.86	-45.5	-46.8	20.3	0.00e+00	0	34	0	964689920	62	4230
2026-01-17 07:41:21.62	350.44	24.75	-45.6	-47.0	20.1	0.00e+00	0	34	0	966787072	62	4319
2026-01-17 07:41:22.63	350.23	24.64	-45.7	-47.0	20.1	0.00e+00	0	34	0	968884224	62	4325
2026-01-17 07:41:23.64	350.03	24.52	-45.7	-47.1	20.0	0.00e+00	0	34	0	970981376	62	4370
2026-01-17 07:41:24.65	349.83	24.41	-45.8	-47.2	20.0	0.00e+00	0	34	0	972029952	62	4392
2026-01-17 07:41:25.66	349.63	24.30	-45.7	-47.1	20.0	0.00e+00	0	35	0	974127104	62	4376
2026-01-17 07:41:26.66	349.43	24.19	-45.8	-47.2	19.9	0.00e+00	0	34	0	976224256	62	4407
2026-01-17 07:41:27.67	349.24	24.07	-45.8	-47.2	19.9	0.00e+00	0	35	0	978321408	62	4419
2026-01-17 07:41:28.68	349.04	23.96	-45.8	-47.2	19.9	0.00e+00	0	34	0	980418560	62	4435
2026-01-17 07:41:29.69	348.85	23.85	-45.9	-47.4	19.7	0.00e+00	0	35	0	981467136	62	4507
2026-01-17 07:41:30.70	348.65	23.74	-46.0	-47.4	19.7	0.00e+00	0	35	0	983564288	62	4534
2026-01-17 07:41:31.70	348.46	23.63	-46.1	-47.5	19.6	0.00e+00	0	35	0	985661440	62	4584
2026-01-17 07:41:32.71	348.27	23.52	-46.0	-47.4	19.7	0.00e+00	0	34	0	987758592	62	4525
2026-01-17 07:41:33.72	348.08	23.40	-46.1	-47.5	19.6	0.00e+00	0	35	0	989855744	62	4577
2026-01-17 07:41:34.73	347.90	23.29	-46.1	-47.5	19.6	0.00e+00	0	35	0	990904320	62	4590
2026-01-17 07:41:35.74	347.71	23.18	-46.0	-47.4	19.7	0.00e+00	0	35	0	993001472	62	4509
2026-01-17 07:41:36.74	347.53	23.07	-45.8	-47.2	19.8	0.00e+00	0	35	0	995098624	62	4432
2026-01-17 07:41:37.75	347.35	22.96	-46.0	-47.4	19.7	0.00e+00	0	35	0	997195776	62	4517
2026-01-17 07:41:38.76	347.16	22.85	-45.8	-47.2	19.8	0.00e+00	0	35	0	999292928	62	4418
2026-01-17 07:41:39.77	346.98	22.74	-45.9	-47.3	19.8	0.00e+00	0	35	0	1000341504	62	4473
2026-01-17 07:41:40.78	346.80	22.63	-45.9	-47.3	19.8	0.00e+00	0	34	0	1002438656	62	4443
2026-01-17 07:41:41.78	346.63	22.52	-46.0	-47.4	19.7	0.00e+00	0	34	0	1004535808	62	4512
2026-01-17 07:41:42.79	346.45	22.41	-45.9	-47.3	19.7	0.00e+00	0	35	0	1006632960	62	4490
2026-01-17 07:41:43.80	346.28	22.30	-45.9	-47.3	19.7	0.00e+00	0	35	0	1008730112	62	4489
2026-01-17 07:41:44.81	346.10	22.19	-46.1	-47.5	19.5	0.00e+00	0	34	0	1009778688	62	4586
2026-01-17 07:41:45.82	345.93	22.08	-46.0	-47.5	19.6	0.00e+00	0	35	0	1011875840	62	4561
2026-01-17 07:41:46.83	345.76	21.97	-46.2	-47.6	19.5	0.00e+00	0	35	0	1013972992	62	4645
2026-01-17 07:41:47.83	345.59	21.86	-46.1	-47.6	19.5	0.00e+00	0	35	0	1016070144	62	4628
2026-01-17 07:41:48.84	345.42	21.75	-46.2	-47.7	19.4	0.00e+00	0	35	0	1018167296	62	4655
2026-01-17 07:41:49.85	345.25	21.64	-46.3	-47.7	19.3	0.00e+00	0	35	0	1019215872	63	4441
2026-01-17 07:41:50.86	345.08	21.53	-46.3	-47.8	19.3	0.00e+00	0	35	0	1021313024	63	4464
2026-01-17 07:41:51.87	344.92	21.42	-46.3	-47.8	19.2	0.00e+00	0	35	0	1023410176	63	4486
2026-01-17 07:41:52.88	344.75	21.32	-46.3	-47.9	19.2	0.00e+00	0	34	0	1025507328	63	4496
2026-01-17 07:41:53.89	344.59	21.21	-46.4	-47.9	19.2	0.00e+00	0	35	0	1027604480	63	4526
2026-01-17 07:41:54.89	344.43	21.10	-46.5	-48.0	19.1	0.00e+00	0	35	0	1028653056	63	4584
2026-01-17 07:41:55.90	344.27	20.99	-46.5	-48.1	18.9	0.00e+00	0	34	0	1030750208	63	4634
2026-01-17 07:41:56.91	344.11	20.88	-46.7	-48.3	18.8	0.00e+00	0	34	0	1032847360	63	4715
2026-01-17 07:41:57.92	343.95	20.78	-46.7	-48.3	18.7	0.00e+00	0	35	0	1034944512	63	4745
2026-01-17 07:41:58.93	343.79	20.67	-46.7	-48.3	18.7	0.00e+00	0	35	0	1037041664	64	4469
2026-01-17 07:41:59.93	343.64	20.56	-46.8	-48.5	18.5	0.00e+00	0	35	0	1038090240	64	4557
2026-01-17 07:42:00.95	343.48	20.46	-46.8	-48.5	18.4	0.00e+00	0	35	0	1040187392	64	4583
2026-01-17 07:42:01.95	343.33	20.35	-46.9	-48.6	18.4	0.00e+00	0	35	0	1042284544	64	4632
2026-01-17 07:42:02.96	343.17	20.25	-47.0	-48.8	18.2	0.00e+00	0	35	0	1044381696	64	4720
2026-01-17 07:42:03.97	343.02	20.14	-47.0	-48.7	18.3	0.00e+00	0	34	0	1046478848	64	4689
2026-01-17 07:42:04.98	342.87	20.03	-47.0	-48.7	18.3	0.00e+00	0	35	0	1048576000	64	4676
2026-01-17 07:42:05.98	342.72	19.93	-46.8	-48.5	18.4	0.00e+00	0	34	0	1049624576	64	4579
2026-01-17 07:42:06.99	342.57	19.82	-46.9	-48.6	18.4	0.00e+00	0	34	0	1051721728	64	4635
2026-01-17 07:42:08.00	342.43	19.72	-46.8	-48.5	18.4	0.00e+00	0	34	0	1053818880	64	4577
2026-01-17 07:42:09.01	342.28	19.61	-46.7	-48.4	18.6	0.00e+00	0	35	0	1055916032	64	4511
2026-01-17 07:42:10.02	342.13	19.51	-46.7	-48.4	18.6	0.00e+00	0	35	0	1056964608	64	4501
2026-01-17 07:42:11.02	341.99	19.41	-46.8	-48.5	18.5	0.00e+00	0	35	0	1059061760	64	4565
2026-01-17 07:42:12.03	341.85	19.30	-46.7	-48.3	18.6	0.00e+00	0	34	0	1061158912	64	4489
2026-01-17 07:42:13.04	341.70	19.20	-46.7	-48.4	18.6	0.00e+00	0	35	0	1063256064	64	4495
2026-01-17 07:42:14.05	341.56	19.10	-46.8	-48.4	18.5	0.00e+00	0	35	0	1065353216	64	4532
2026-01-17 07:42:15.06	341.42	18.99	-46.9	-48.5	18.4	0.00e+00	0	34	0	1066401792	64	4598
2026-01-17 07:42:16.06	341.28	18.89	-46.9	-48.6	18.3	0.00e+00	0	35	0	1068498944	64	4636
2026-01-17 07:42:17.07	341.14	18.79	-47.0	-48.7	18.2	0.00e+00	0	35	0	1070596096	64	4695
2026-01-17 07:42:18.08	341.00	18.68	-47.0	-48.7	18.2	0.00e+00	0	34	0	1072693248	64	4697
2026-01-17 07:42:19.09	340.87	18.58	-46.9	-48.7	18.2	0.00e+00	0	35	0	1074790400	64	4663
2026-01-17 07:42:20.10	340.73	18.48	-47.0	-48.8	18.1	0.00e+00	0	35	0	1076887552	64	4729
2026-01-17 07:42:21.10	340.60	18.38	-47.1	-48.9	18.0	0.00e+00	0	34	0	1077936128	64	4788
2026-01-17 07:42:22.11	340.46	18.28	-47.1	-48.9	18.0	0.00e+00	0	35	0	1080033280	64	4783
2026-01-17 07:42:23.12	340.33	18.18	-47.0	-48.8	18.1	0.00e+00	0	35	0	1082130432	64	4730
2026-01-17 07:42:24.13	340.20	18.08	-46.9	-48.6	18.3	0.00e+00	0	35	0	1084227584	64	4637
2026-01-17 07:42:25.13	340.07	17.98	-46.8	-48.5	18.4	0.00e+00	0	35	0	1085276160	64	4591
2026-01-17 07:42:26.14	339.94	17.88	-46.8	-48.5	18.4	0.00e+00	0	35	0	1087373312	64	4586
2026-01-17 07:42:27.15	339.81	17.78	-46.8	-48.5	18.4	0.00e+00	0	35	0	1089470464	64	4580
2026-01-17 07:42:28.16	339.68	17.68	-46.8	-48.5	18.4	0.00e+00	0	34	0	1091567616	64	4588
2026-01-17 07:42:29.17	339.55	17.58	-46.9	-48.6	18.3	0.00e+00	0	35	0	1093664768	64	4611
2026-01-17 07:42:30.18	339.42	17.48	-46.8	-48.5	18.4	0.00e+00	0	35	0	1095761920	64	4576
2026-01-17 07:42:31.19	339.30	17.38	-46.9	-48.6	18.2	0.00e+00	0	35	0	1096810496	64	4641
2026-01-17 07:42:32.19	339.17	17.28	-46.9	-48.6	18.3	0.00e+00	0	35	0	1098907648	64	4614
2026-01-17 07:42:33.20	339.05	17.18	-46.9	-48.6	18.3	0.00e+00	0	35	0	1101004800	64	4626
2026-01-17 07:42:34.21	338.92	17.08	-46.9	-48.6	18.3	0.00e+00	0	35	0	1103101952	64	4610
2026-01-17 07:42:35.22	338.80	16.98	-46.8	-48.5	18.4	0.00e+00	0	35	0	1105199104	64	4554
2026-01-17 07:42:36.22	338.68	16.89	-46.9	-48.6	18.3	0.00e+00	0	34	0	1106247680	64	4614
2026-01-17 07:42:37.23	338.56	16.79	-46.7	-48.4	18.5	0.00e+00	0	34	0	1108344832	64	4518
2026-01-17 07:42:38.24	338.44	16.69	-46.7	-48.4	18.4	0.00e+00	0	35	0	1110441984	64	4520
2026-01-17 07:42:39.25	338.32	16.59	-46.8	-48.5	18.3	0.00e+00	0	35	0	1112539136	64	4579
2026-01-17 07:42:40.26	338.20	16.50	-47.1	-48.8	18.0	0.00e+00	0	35	0	1114636288	64	4751
2026-01-17 07:42:41.27	338.08	16.40	-46.8	-48.6	18.3	0.00e+00	0	35	0	1115684864	64	4611
2026-01-17 07:42:42.28	337.96	16.30	-47.0	-48.7	18.1	0.00e+00	0	34	0	1117782016	64	4680
2026-01-17 07:42:43.28	337.85	16.21	-46.9	-48.7	18.2	0.00e+00	0	35	0	1119879168	64	4658
2026-01-17 07:42:44.29	337.73	16.11	-47.0	-48.7	18.1	0.00e+00	0	34	0	1121976320	64	4705
2026-01-17 07:42:45.30	337.62	16.02	-47.0	-48.8	18.0	0.00e+00	0	34	0	1124073472	64	4745
2026-01-17 07:42:46.31	337.50	15.92	-47.0	-48.8	18.0	0.00e+00	0	35	0	1125122048	64	4756
2026-01-17 07:42:47.32	337.39	15.83	-47.1	-48.9	18.0	0.00e+00	0	35	0	1127219200	64	4769
2026-01-17 07:42:48.32	337.28	15.73	-47.1	-49.0	17.9	0.00e+00	0	34	0	1129316352	64	4823
2026-01-17 07:42:49.33	337.16	15.64	-47.2	-49.1	17.8	0.00e+00	0	34	0	1131413504	64	4872
2026-01-17 07:42:50.34	337.05	15.54	-47.0	-48.8	18.0	0.00e+00	0	34	0	1133510656	65	4489
2026-01-17 07:42:51.35	336.94	15.45	-47.1	-48.9	17.9	0.00e+00	0	35	0	1134559232	65	4522
2026-01-17 07:42:52.36	336.83	15.35	-47.0	-48.9	17.9	0.00e+00	0	34	0	1136656384	65	4499
2026-01-17 07:42:53.37	336.72	15.26	-47.1	-48.9	17.9	0.00e+00	0	35	0	1138753536	65	4517
2026-01-17 07:42:54.38	336.61	15.17	-47.0	-48.8	18.0	0.00e+00	0	35	0	1140850688	65	4491
2026-01-17 07:42:55.39	336.51	15.07	-47.0	-48.9	17.9	0.00e+00	0	35	0	1142947840	65	4496
2026-01-17 07:42:56.40	336.40	14.98	-47.0	-48.8	18.0	0.00e+00	0	35	0	1143996416	65	4478
2026-01-17 07:42:57.41	336.29	14.89	-46.9	-48.7	18.1	0.00e+00	0	35	0	1146093568	65	4418
2026-01-17 07:42:58.41	336.19	14.80	-46.9	-48.6	18.1	0.00e+00	0	35	0	1148190720	65	4385
2026-01-17 07:42:59.42	336.08	14.71	-46.9	-48.6	18.2	0.00e+00	0	35	0	1150287872	65	4369
2026-01-17 07:43:00.43	335.98	14.61	-46.9	-48.6	18.1	0.00e+00	0	35	0	1152385024	65	4387
2026-01-17 07:43:01.44	335.87	14.52	-46.8	-48.6	18.2	0.00e+00	0	35	0	1153433600	65	4351
2026-01-17 07:43:02.45	335.77	14.43	-46.7	-48.4	18.3	0.00e+00	0	35	0	1155530752	65	4288
2026-01-17 07:43:03.46	335.67	14.34	-46.9	-48.7	18.1	0.00e+00	0	35	0	1157627904	65	4404
2026-01-17 07:43:04.47	335.57	14.25	-46.9	-48.7	18.0	0.00e+00	0	34	0	1159725056	65	4421
2026-01-17 07:43:05.48	335.47	14.16	-46.9	-48.7	18.0	0.00e+00	0	34	0	1161822208	65	4410
2026-01-17 07:43:06.49	335.37	14.07	-47.0	-48.7	18.0	0.00e+00	0	35	0	1163919360	65	4439
2026-01-17 07:43:07.50	335.27	13.98	-47.1	-48.9	17.8	0.00e+00	0	34	0	1164967936	65	4543
2026-01-17 07:43:08.50	335.17	13.89	-47.1	-48.9	17.8	0.00e+00	0	35	0	1167065088	65	4544
2026-01-17 07:43:09.51	335.07	13.80	-47.2	-49.1	17.7	0.00e+00	0	34	0	1169162240	65	4616
2026-01-17 07:43:10.52	334.97	13.71	-47.1	-49.0	17.8	0.00e+00	0	35	0	1171259392	65	4552
2026-01-17 07:43:11.53	334.87	13.62	-47.1	-49.0	17.7	0.00e+00	0	35	0	1172307968	65	4584
2026-01-17 07:43:12.54	334.78	13.53	-47.3	-49.2	17.5	0.00e+00	0	34	0	1174405120	65	4687
2026-01-17 07:43:13.55	334.68	13.44	-47.4	-49.4	17.3	0.00e+00	0	35	0	1176502272	65	4764
2026-01-17 07:43:14.56	334.58	13.35	-47.3	-49.2	17.5	0.00e+00	0	35	0	1178599424	65	4681
2026-01-17 07:43:15.57	334.49	13.26	-47.4	-49.4	17.4	0.00e+00	0	35	0	1180696576	65	4767
2026-01-17 07:43:16.58	334.40	13.18	-47.4	-49.4	17.3	0.00e+00	0	35	0	1182793728	65	4798
2026-01-17 07:43:17.58	334.30	13.09	-47.4	-49.4	17.3	0.00e+00	0	35	0	1183842304	65	4780
2026-01-17 07:43:18.59	334.21	13.00	-47.5	-49.5	17.3	0.00e+00	0	35	0	1185939456	65	4823
2026-01-17 07:43:19.60	334.12	12.91	-47.5	-49.5	17.2	0.00e+00	0	35	0	1188036608	65	4829
2026-01-17 07:43:20.61	334.02	12.83	-47.5	-49.5	17.2	0.00e+00	0	34	0	1190133760	65	4854
2026-01-17 07:43:21.62	333.93	12.74	-47.6	-49.6	17.0	0.00e+00	0	35	0	1192230912	65	4919
2026-01-17 07:43:22.63	333.84	12.65	-47.6	-49.6	17.1	0.00e+00	0	35	0	1193279488	65	4902
2026-01-17 07:43:23.64	333.75	12.57	-47.7	-49.8	16.9	0.00e+00	0	35	0	1195376640	65	4985
2026-01-17 07:43:24.65	333.66	12.48	-47.6	-49.7	16.9	0.00e+00	0	35	0	1197473792	65	4979
2026-01-17 07:43:25.66	333.57	12.40	-47.5	-49.5	17.2	0.00e+00	0	35	0	1199570944	65	4836
2026-01-17 07:43:26.66	333.48	12.31	-47.5	-49.6	17.0	0.00e+00	0	34	0	1201668096	65	4898
2026-01-17 07:43:27.67	333.40	12.23	-47.7	-49.8	16.9	0.00e+00	0	35	0	1202716672	65	4986
2026-01-17 07:43:28.68	333.31	12.14	-47.7	-49.8	16.8	0.00e+00	0	35	0	1204813824	65	5022
2026-01-17 07:43:29.69	333.22	12.06	-47.6	-49.7	16.9	0.00e+00	0	35	0	1206910976	66	4688
2026-01-17 07:43:30.70	333.13	11.97	-47.6	-49.7	16.9	0.00e+00	0	35	0	1209008128	66	4692
2026-01-17 07:43:31.71	333.05	11.89	-47.6	-49.6	17.0	0.00e+00	0	35	0	1211105280	66	4642
2026-01-17 07:43:32.72	332.96	11.80	-47.6	-49.7	17.0	0.00e+00	0	35	0	1212153856	66	4658
2026-01-17 07:43:33.73	332.88	11.72	-47.6	-49.7	16.9	0.00e+00	0	35	0	1214251008	66	4701
2026-01-17 07:43:34.73	332.79	11.63	-47.7	-49.8	16.8	0.00e+00	0	35	0	1216348160	66	4750
2026-01-17 07:43:35.74	332.71	11.55	-47.6	-49.7	16.9	0.00e+00	0	35	0	1218445312	66	4704
2026-01-17 07:43:36.75	332.62	11.47	-47.8	-50.0	16.6	0.00e+00	0	35	0	1220542464	66	4859
2026-01-17 07:43:37.76	332.54	11.38	-48.0	-50.2	16.4	0.00e+00	0	35	0	1221591040	66	4971
2026-01-17 07:43:38.76	332.46	11.30	-47.8	-49.9	16.7	0.00e+00	0	35	0	1223688192	66	4814
2026-01-17 07:43:39.77	332.38	11.22	-47.9	-50.0	16.5	0.00e+00	0	35	0	1225785344	66	4868
2026-01-17 07:43:40.78	332.30	11.14	-48.0	-50.3	16.4	0.00e+00	0	35	0	1227882496	66	4989
2026-01-17 07:43:41.79	332.21	11.05	-47.9	-50.1	16.5	0.00e+00	0	35	0	1229979648	66	4896
2026-01-17 07:43:42.80	332.13	10.97	-48.0	-50.3	16.3	0.00e+00	0	35	0	1231028224	66	5017
2026-01-17 07:43:43.80	332.05	10.89	-48.1	-50.5	16.1	0.00e+00	0	35	0	1233125376	66	5103
2026-01-17 07:43:44.81	331.97	10.81	-48.0	-50.3	16.3	0.00e+00	0	35	0	1235222528	66	5017
2026-01-17 07:43:45.82	331.90	10.73	-48.2	-50.5	16.0	0.00e+00	0	35	0	1237319680	66	5153
2026-01-17 07:43:46.83	331.82	10.65	-48.2	-50.6	15.9	0.00e+00	0	34	0	1239416832	67	4926
2026-01-17 07:43:47.83	331.74	10.57	-48.1	-50.5	16.1	0.00e+00	0	35	0	1240465408	67	4827
2026-01-17 07:43:48.84	331.66	10.49	-48.4	-50.9	15.7	0.00e+00	0	35	0	1242562560	67	5054
2026-01-17 07:43:49.85	331.58	10.40	-48.2	-50.6	16.0	0.00e+00	0	35	0	1244659712	67	4880
