passes_logs/2026/01/17/R3.2S_Murmansk/R3.2S_Murmansk__20260117_220446_NOAA_21_JPSS-2_rec.log

#Pass ID: 20260117_220446_NOAA 21 (JPSS-2)
#Satellite: NOAA 21 (JPSS-2)
#Configuration: NOAA-21
#almurnet v.1.7.20251203
#Start time: 2026-01-17 22:04:47

#Version: 2.2.20231116
#Station: R3.2S_Murmansk
#Location: 33.079688 lon 68.888172 lat
#TLE: 1 54234U 22150A   26017.62066529  .00000042  00000+0  40984-4 0  9994
#TLE: 2 54234  98.7502 318.4887 0000613 271.5460  88.5645 14.19535234165189

#Time	Az	El	Level	Level2	SNR	BER	BlckErr	Temp	State	Recorded	gain1	gain2
2026-01-17 22:04:47.36	18.54	2.03	-52.0	-64.6	3.8	1.49e+00	0	33	0	0	75	15564
2026-01-17 22:04:48.36	18.62	2.08	-52.0	-64.7	3.8	1.49e+00	0	33	104	0	74	16653
2026-01-17 22:04:49.37	18.70	2.14	-51.9	-64.7	3.8	1.49e+00	0	33	104	0	74	16613
2026-01-17 22:04:50.38	18.77	2.19	-52.0	-64.7	3.8	1.49e+00	0	33	104	0	74	16613
2026-01-17 22:04:51.39	18.85	2.24	-52.0	-64.7	3.8	1.49e+00	0	33	104	0	74	16598
2026-01-17 22:04:52.39	18.93	2.30	-51.9	-64.7	3.8	1.49e+00	0	33	104	0	74	16596
2026-01-17 22:04:53.40	19.01	2.35	-52.0	-64.7	3.8	1.49e+00	0	33	104	0	74	16637
2026-01-17 22:04:54.41	19.09	2.40	-52.0	-64.7	3.8	1.49e+00	0	33	104	0	74	16577
2026-01-17 22:04:55.42	19.17	2.46	-51.9	-64.7	3.8	1.49e+00	0	33	104	0	74	16560
2026-01-17 22:04:56.42	19.25	2.51	-51.9	-64.7	3.8	1.49e+00	0	33	104	0	74	16515
2026-01-17 22:04:57.43	19.33	2.56	-51.9	-64.6	3.8	1.49e+00	0	33	104	0	74	16459
2026-01-17 22:04:58.44	19.41	2.62	-51.9	-64.6	3.8	1.49e+00	0	33	104	0	74	16477
2026-01-17 22:04:59.44	19.49	2.67	-51.9	-64.6	3.8	1.49e+00	0	34	104	0	74	16409
2026-01-17 22:05:00.45	19.57	2.73	-51.9	-64.6	3.8	1.49e+00	0	33	104	0	74	16339
2026-01-17 22:05:01.46	19.65	2.78	-51.9	-64.6	3.8	1.49e+00	0	33	104	0	74	16375
2026-01-17 22:05:02.47	19.73	2.83	-51.9	-64.6	3.8	1.49e+00	0	33	104	0	74	16433
2026-01-17 22:05:03.48	19.81	2.89	-51.9	-64.6	3.8	1.49e+00	0	34	104	0	74	16482
2026-01-17 22:05:04.48	19.89	2.94	-51.9	-64.6	3.8	1.49e+00	0	34	104	0	74	16471
2026-01-17 22:05:05.49	19.98	3.00	-52.0	-64.6	3.8	1.49e+00	0	33	104	0	74	16453
2026-01-17 22:05:06.50	20.06	3.05	-51.9	-64.6	3.8	1.49e+00	0	34	104	0	74	16369
2026-01-17 22:05:07.51	20.14	3.10	-51.9	-64.6	3.8	1.49e+00	0	34	104	0	74	16477
2026-01-17 22:05:08.52	20.23	3.16	-51.9	-64.6	3.8	1.49e+00	0	34	104	0	74	16350
2026-01-17 22:05:09.52	20.31	3.21	-51.9	-64.6	3.8	1.49e+00	0	34	104	0	74	16421
2026-01-17 22:05:10.53	20.39	3.27	-51.9	-64.6	3.8	1.49e+00	0	34	104	0	74	16503
2026-01-17 22:05:11.54	20.48	3.32	-51.9	-64.7	3.8	1.49e+00	0	34	104	0	74	16520
2026-01-17 22:05:12.54	20.56	3.38	-52.0	-64.7	3.8	1.49e+00	0	34	104	0	74	16586
2026-01-17 22:05:13.55	20.64	3.43	-51.9	-64.7	3.8	1.49e+00	0	34	104	0	74	16580
2026-01-17 22:05:14.56	20.73	3.49	-51.9	-64.6	3.8	1.49e+00	0	34	104	0	74	16494
2026-01-17 22:05:15.57	20.81	3.54	-51.9	-64.6	3.8	1.49e+00	0	34	104	0	74	16456
2026-01-17 22:05:16.57	20.90	3.60	-51.9	-64.5	3.8	1.49e+00	0	34	104	0	74	16297
2026-01-17 22:05:17.58	20.98	3.65	-51.9	-64.5	3.8	1.49e+00	0	34	104	0	74	16191
2026-01-17 22:05:18.59	21.07	3.70	-51.9	-64.5	3.8	1.49e+00	0	34	104	0	74	16203
2026-01-17 22:05:19.60	21.16	3.76	-51.9	-64.5	3.8	1.49e+00	0	34	104	0	74	16299
2026-01-17 22:05:20.61	21.24	3.82	-51.9	-64.6	3.8	1.49e+00	0	34	104	0	74	16382
2026-01-17 22:05:21.62	21.33	3.87	-51.9	-64.7	3.8	1.49e+00	0	34	104	0	74	16540
2026-01-17 22:05:22.62	21.42	3.93	-51.9	-64.7	3.8	1.49e+00	0	34	104	0	74	16530
2026-01-17 22:05:23.63	21.51	3.98	-51.9	-64.6	3.8	1.49e+00	0	34	104	0	74	16403
2026-01-17 22:05:24.64	21.59	4.04	-51.9	-64.5	3.8	1.49e+00	0	34	104	0	74	16180
2026-01-17 22:05:25.65	21.68	4.09	-51.9	-64.3	3.8	1.49e+00	0	34	104	0	74	15939
2026-01-17 22:05:26.66	21.77	4.15	-51.9	-64.1	3.8	1.49e+00	0	34	104	0	74	15551
2026-01-17 22:05:27.66	21.86	4.20	-51.9	-64.0	3.8	1.49e+00	0	34	104	0	74	15242
2026-01-17 22:05:28.67	21.95	4.26	-51.9	-64.0	3.8	1.49e+00	0	34	104	0	74	15339
2026-01-17 22:05:29.68	22.04	4.31	-51.9	-64.1	3.8	1.49e+00	0	34	104	0	74	15465
2026-01-17 22:05:30.69	22.13	4.37	-51.9	-64.3	3.8	1.49e+00	0	34	104	0	74	15784
2026-01-17 22:05:31.69	22.22	4.42	-51.9	-64.4	3.8	1.49e+00	0	34	104	0	74	15969
2026-01-17 22:05:32.70	22.31	4.48	-51.9	-64.3	3.8	1.49e+00	0	35	104	0	74	15935
2026-01-17 22:05:33.71	22.40	4.54	-51.9	-64.1	3.8	1.49e+00	0	34	104	0	74	15458
2026-01-17 22:05:34.72	22.49	4.59	-51.9	-63.9	3.8	1.49e+00	0	34	104	0	74	15115
2026-01-17 22:05:35.72	22.58	4.65	-51.8	-63.1	3.8	1.49e+00	0	34	104	0	74	13739
2026-01-17 22:05:36.73	22.67	4.70	-51.7	-61.6	4.1	1.48e+00	0	34	104	0	74	11561
2026-01-17 22:05:37.74	22.76	4.76	-51.6	-60.7	4.3	1.45e+00	0	34	104	0	74	10455
2026-01-17 22:05:38.75	22.86	4.82	-51.5	-60.1	4.5	1.26e+00	8	35	104	0	74	9818
2026-01-17 22:05:39.76	22.95	4.87	-51.4	-59.8	4.7	9.26e-01	0	34	104	0	74	9453
2026-01-17 22:05:40.76	23.04	4.93	-51.3	-58.7	5.2	6.28e-01	0	34	0	1048576	74	8310
2026-01-17 22:05:41.77	23.14	4.98	-51.2	-58.5	5.4	5.31e-01	0	35	0	4194304	74	8145
2026-01-17 22:05:42.78	23.23	5.04	-51.3	-58.7	5.3	5.70e-01	0	35	0	7340032	74	8326
2026-01-17 22:05:43.79	23.32	5.10	-51.3	-58.4	5.5	4.86e-01	0	34	0	10485760	74	8077
2026-01-17 22:05:44.80	23.42	5.15	-51.5	-60.6	4.0	6.74e-01	2	35	104	13631488	74	10302
2026-01-17 22:05:45.80	23.51	5.21	-51.4	-59.3	4.9	5.00e-01	0	34	0	14680064	74	8961
2026-01-17 22:05:46.81	23.61	5.27	-51.6	-63.5	3.8	1.48e+00	0	35	104	14680064	74	14451
2026-01-17 22:05:47.82	23.70	5.32	-49.5	-52.9	10.5	1.30e+00	2	35	104	14680064	71	5099
2026-01-17 22:05:48.83	23.80	5.38	-48.7	-51.4	12.5	1.39e-04	0	34	0	16777216	69	4767
2026-01-17 22:05:49.84	23.90	5.44	-48.3	-50.7	13.3	4.88e-05	0	34	0	19922944	68	4674
2026-01-17 22:05:50.85	23.99	5.49	-47.5	-49.6	14.4	4.50e-06	0	35	0	23068672	67	4356
2026-01-17 22:05:51.86	24.09	5.55	-47.4	-49.4	14.6	0.00e+00	0	34	0	26214400	66	4498
2026-01-17 22:05:52.86	24.19	5.61	-47.1	-49.0	15.0	7.00e-07	0	34	0	29360128	66	4305
2026-01-17 22:05:53.87	24.28	5.66	-46.9	-48.7	15.3	0.00e+00	0	35	0	32505856	65	4407
2026-01-17 22:05:54.88	24.38	5.72	-47.1	-49.0	15.1	7.00e-07	0	35	0	35651584	65	4552
2026-01-17 22:05:55.88	24.48	5.78	-46.9	-48.8	15.2	0.00e+00	0	35	0	38797312	65	4467
2026-01-17 22:05:56.89	24.58	5.84	-46.6	-48.3	15.7	0.00e+00	0	35	0	41943040	65	4222
2026-01-17 22:05:57.90	24.68	5.89	-46.3	-48.0	16.1	0.00e+00	0	35	0	45088768	64	4302
2026-01-17 22:05:58.90	24.78	5.95	-46.3	-47.9	16.1	0.00e+00	0	35	0	48234496	64	4286
2026-01-17 22:05:59.91	24.88	6.01	-46.4	-48.0	16.0	0.00e+00	0	35	0	51380224	64	4313
2026-01-17 22:06:00.92	24.98	6.07	-46.2	-47.8	16.2	0.00e+00	0	35	0	54525952	64	4236
2026-01-17 22:06:01.93	25.08	6.12	-46.2	-47.8	16.2	0.00e+00	0	35	0	57671680	64	4213
2026-01-17 22:06:02.94	25.18	6.18	-46.3	-47.8	16.2	0.00e+00	0	35	0	60817408	64	4242
2026-01-17 22:06:03.94	25.28	6.24	-46.2	-47.8	16.3	0.00e+00	0	35	0	63963136	64	4198
2026-01-17 22:06:04.95	25.38	6.30	-46.0	-47.5	16.6	0.00e+00	0	35	0	67108864	63	4339
2026-01-17 22:06:05.96	25.48	6.35	-46.2	-47.8	16.4	0.00e+00	0	35	0	70254592	63	4466
2026-01-17 22:06:06.97	25.59	6.41	-46.2	-47.8	16.4	0.00e+00	0	35	0	73400320	63	4446
2026-01-17 22:06:07.98	25.69	6.47	-46.4	-48.0	16.2	0.00e+00	0	35	0	76546048	63	4564
2026-01-17 22:06:08.98	25.79	6.53	-46.2	-47.8	16.4	0.00e+00	0	35	0	79691776	63	4453
2026-01-17 22:06:09.99	25.89	6.58	-46.2	-47.8	16.5	0.00e+00	0	35	0	82837504	63	4457
2026-01-17 22:06:11.00	26.00	6.64	-46.3	-47.8	16.4	0.00e+00	0	35	0	85983232	63	4487
2026-01-17 22:06:12.01	26.10	6.70	-46.2	-47.7	16.5	0.00e+00	0	35	0	89128960	63	4441
2026-01-17 22:06:13.02	26.21	6.76	-46.0	-47.5	16.7	0.00e+00	0	35	0	92274688	63	4339
2026-01-17 22:06:14.02	26.31	6.82	-46.0	-47.5	16.7	0.00e+00	0	35	0	95420416	63	4331
2026-01-17 22:06:15.03	26.42	6.87	-45.9	-47.4	16.8	0.00e+00	0	35	0	98566144	63	4271
2026-01-17 22:06:16.04	26.52	6.93	-45.8	-47.2	17.0	0.00e+00	0	35	0	101711872	63	4168
2026-01-17 22:06:17.05	26.63	6.99	-45.9	-47.3	16.9	0.00e+00	0	35	0	104857600	63	4233
2026-01-17 22:06:18.06	26.74	7.05	-46.0	-47.5	16.7	0.00e+00	0	35	0	108003328	63	4333
2026-01-17 22:06:19.06	26.84	7.11	-46.1	-47.7	16.6	0.00e+00	0	35	0	111149056	63	4395
2026-01-17 22:06:20.07	26.95	7.17	-46.0	-47.4	16.8	0.00e+00	0	35	0	114294784	63	4288
2026-01-17 22:06:21.08	27.06	7.22	-45.9	-47.4	16.9	0.00e+00	0	35	0	117440512	63	4256
2026-01-17 22:06:22.09	27.17	7.28	-45.8	-47.2	17.0	0.00e+00	0	35	0	120586240	63	4192
2026-01-17 22:06:23.10	27.28	7.34	-46.0	-47.5	16.8	0.00e+00	0	35	0	123731968	63	4324
2026-01-17 22:06:24.10	27.39	7.40	-46.0	-47.5	16.7	0.00e+00	0	35	0	126877696	63	4326
2026-01-17 22:06:25.11	27.50	7.46	-46.0	-47.5	16.8	0.00e+00	0	35	0	130023424	63	4305
2026-01-17 22:06:26.12	27.61	7.52	-45.8	-47.2	17.0	0.00e+00	0	35	0	133169152	63	4183
2026-01-17 22:06:27.13	27.72	7.58	-45.9	-47.4	16.9	0.00e+00	0	35	0	136314880	63	4254
2026-01-17 22:06:28.14	27.83	7.64	-46.0	-47.4	16.9	0.00e+00	0	35	0	139460608	63	4271
2026-01-17 22:06:29.14	27.94	7.69	-46.0	-47.4	16.8	0.00e+00	0	35	0	142606336	63	4291
2026-01-17 22:06:30.15	28.05	7.75	-45.8	-47.3	17.0	0.00e+00	0	35	0	145752064	63	4206
2026-01-17 22:06:31.16	28.16	7.81	-45.8	-47.3	17.0	0.00e+00	0	35	0	148897792	63	4201
2026-01-17 22:06:32.17	28.28	7.87	-45.6	-47.0	17.3	0.00e+00	0	35	0	152043520	63	4062
2026-01-17 22:06:33.17	28.39	7.93	-45.5	-46.8	17.5	0.00e+00	0	35	0	155189248	63	3996
2026-01-17 22:06:34.18	28.50	7.99	-45.7	-47.1	17.3	0.00e+00	0	35	0	158334976	62	4342
2026-01-17 22:06:35.19	28.62	8.05	-45.6	-47.0	17.4	0.00e+00	0	35	0	161480704	62	4304
2026-01-17 22:06:36.20	28.73	8.11	-45.6	-46.9	17.4	0.00e+00	0	35	0	164626432	62	4269
2026-01-17 22:06:37.21	28.85	8.17	-45.5	-46.8	17.5	0.00e+00	0	35	0	167772160	62	4237
2026-01-17 22:06:38.22	28.96	8.23	-45.4	-46.8	17.6	0.00e+00	0	35	0	170917888	62	4202
2026-01-17 22:06:39.22	29.08	8.29	-45.5	-46.8	17.5	0.00e+00	0	35	0	174063616	62	4240
2026-01-17 22:06:40.23	29.19	8.34	-45.4	-46.8	17.6	0.00e+00	0	35	0	177209344	62	4196
2026-01-17 22:06:41.24	29.31	8.40	-45.5	-46.8	17.6	0.00e+00	0	35	0	180355072	62	4225
2026-01-17 22:06:42.24	29.43	8.46	-45.4	-46.7	17.7	0.00e+00	0	35	0	183500800	62	4187
2026-01-17 22:06:43.25	29.54	8.52	-45.5	-46.8	17.6	0.00e+00	0	35	0	186646528	62	4221
2026-01-17 22:06:44.26	29.66	8.58	-45.4	-46.7	17.7	0.00e+00	0	35	0	189792256	62	4152
2026-01-17 22:06:45.27	29.78	8.64	-45.4	-46.7	17.7	0.00e+00	0	35	0	192937984	62	4164
2026-01-17 22:06:46.28	29.90	8.70	-45.4	-46.7	17.7	0.00e+00	0	35	0	196083712	62	4167
2026-01-17 22:06:47.28	30.02	8.76	-45.3	-46.6	17.8	0.00e+00	0	35	0	199229440	62	4109
2026-01-17 22:06:48.29	30.14	8.82	-45.2	-46.5	17.9	0.00e+00	0	35	0	202375168	62	4067
2026-01-17 22:06:49.30	30.26	8.88	-45.3	-46.6	17.8	0.00e+00	0	35	0	205520896	62	4117
2026-01-17 22:06:50.31	30.38	8.94	-45.2	-46.5	17.9	0.00e+00	0	35	0	208666624	62	4059
2026-01-17 22:06:51.32	30.50	9.00	-45.2	-46.5	17.9	0.00e+00	0	35	0	211812352	62	4067
2026-01-17 22:06:52.32	30.62	9.06	-45.1	-46.4	18.0	0.00e+00	0	35	0	214958080	62	4005
2026-01-17 22:06:53.33	30.75	9.12	-45.0	-46.2	18.2	0.00e+00	0	35	0	218103808	61	4155
2026-01-17 22:06:54.34	30.87	9.18	-45.0	-46.2	18.1	0.00e+00	0	35	0	221249536	61	4188
2026-01-17 22:06:55.35	30.99	9.24	-44.9	-46.1	18.3	0.00e+00	0	35	0	224395264	61	4137
2026-01-17 22:06:56.36	31.12	9.30	-44.8	-46.0	18.4	0.00e+00	0	35	0	227540992	61	4089
2026-01-17 22:06:57.37	31.24	9.36	-44.9	-46.1	18.3	0.00e+00	0	35	0	230686720	61	4140
2026-01-17 22:06:58.38	31.37	9.42	-45.0	-46.2	18.2	0.00e+00	0	35	0	233832448	61	4166
2026-01-17 22:06:59.38	31.49	9.48	-45.1	-46.3	18.1	0.00e+00	0	35	0	236978176	61	4232
2026-01-17 22:07:00.39	31.62	9.54	-45.0	-46.3	18.2	0.00e+00	0	35	0	240123904	61	4202
2026-01-17 22:07:01.40	31.74	9.60	-45.2	-46.4	18.1	0.00e+00	0	35	0	243269632	61	4269
2026-01-17 22:07:02.41	31.87	9.66	-45.0	-46.2	18.2	0.00e+00	0	35	0	246415360	61	4178
2026-01-17 22:07:03.42	32.00	9.72	-45.1	-46.4	18.0	0.00e+00	0	35	0	249561088	61	4256
2026-01-17 22:07:04.42	32.12	9.78	-45.1	-46.3	18.1	0.00e+00	0	35	0	252706816	61	4229
2026-01-17 22:07:05.43	32.25	9.84	-45.1	-46.3	18.1	0.00e+00	0	35	0	255852544	61	4242
2026-01-17 22:07:06.44	32.38	9.90	-44.8	-46.0	18.4	0.00e+00	0	35	0	258998272	61	4092
2026-01-17 22:07:07.45	32.51	9.96	-44.8	-46.0	18.4	0.00e+00	0	35	0	262144000	61	4060
2026-01-17 22:07:08.46	32.64	10.02	-44.8	-45.9	18.5	0.00e+00	0	35	0	265289728	61	4040
2026-01-17 22:07:09.47	32.77	10.08	-44.8	-45.9	18.5	0.00e+00	0	35	0	268435456	61	4051
2026-01-17 22:07:10.47	32.90	10.14	-44.7	-45.9	18.6	0.00e+00	0	35	0	271581184	61	4027
2026-01-17 22:07:11.48	33.03	10.20	-44.6	-45.7	18.7	0.00e+00	0	35	0	274726912	61	3943
2026-01-17 22:07:12.49	33.16	10.26	-44.7	-45.8	18.6	0.00e+00	0	35	0	277872640	61	3994
2026-01-17 22:07:13.49	33.29	10.32	-44.7	-45.8	18.7	0.00e+00	0	35	0	281018368	61	3987
2026-01-17 22:07:14.50	33.43	10.38	-44.6	-45.8	18.7	0.00e+00	0	35	0	284164096	61	3986
2026-01-17 22:07:15.51	33.56	10.44	-44.8	-46.0	18.5	0.00e+00	0	35	0	287309824	61	4055
2026-01-17 22:07:16.52	33.70	10.50	-44.8	-46.0	18.5	0.00e+00	0	35	0	290455552	61	4076
2026-01-17 22:07:17.53	33.83	10.56	-44.8	-46.0	18.5	0.00e+00	0	35	0	293601280	61	4079
2026-01-17 22:07:18.54	33.97	10.63	-44.9	-46.1	18.4	0.00e+00	0	35	0	296747008	61	4115
2026-01-17 22:07:19.54	34.10	10.69	-45.1	-46.3	18.2	0.00e+00	0	35	0	299892736	61	4222
2026-01-17 22:07:20.55	34.24	10.75	-44.9	-46.0	18.5	0.00e+00	0	35	0	303038464	61	4094
2026-01-17 22:07:21.56	34.37	10.81	-44.8	-45.9	18.6	0.00e+00	0	35	0	306184192	61	4051
2026-01-17 22:07:22.57	34.51	10.87	-44.8	-46.0	18.5	0.00e+00	0	35	0	309329920	61	4081
2026-01-17 22:07:23.58	34.65	10.93	-44.9	-46.1	18.4	0.00e+00	0	35	0	312475648	61	4114
2026-01-17 22:07:24.58	34.79	10.99	-44.8	-46.0	18.6	0.00e+00	0	35	0	315621376	61	4052
2026-01-17 22:07:25.59	34.92	11.05	-44.6	-45.7	18.8	0.00e+00	0	35	0	318767104	61	3933
2026-01-17 22:07:26.60	35.06	11.11	-44.7	-45.8	18.7	0.00e+00	0	35	0	321912832	61	3988
2026-01-17 22:07:27.60	35.20	11.17	-44.6	-45.7	18.8	0.00e+00	0	35	0	325058560	61	3938
2026-01-17 22:07:28.61	35.34	11.23	-44.5	-45.7	18.8	0.00e+00	0	35	0	328204288	61	3917
2026-01-17 22:07:29.62	35.49	11.29	-44.4	-45.5	19.0	0.00e+00	0	35	0	331350016	60	4072
2026-01-17 22:07:30.63	35.63	11.35	-44.5	-45.6	18.9	0.00e+00	0	35	0	334495744	60	4131
2026-01-17 22:07:31.64	35.77	11.41	-44.5	-45.7	18.9	0.00e+00	0	35	0	337641472	60	4152
2026-01-17 22:07:32.64	35.91	11.47	-44.7	-45.8	18.7	0.00e+00	0	35	0	340787200	60	4219
2026-01-17 22:07:33.65	36.05	11.53	-44.7	-45.8	18.7	0.00e+00	0	35	0	343932928	60	4217
2026-01-17 22:07:34.66	36.20	11.59	-44.7	-45.9	18.6	0.00e+00	0	35	0	347078656	60	4278
2026-01-17 22:07:35.67	36.34	11.65	-44.6	-45.8	18.7	0.00e+00	0	36	0	350224384	60	4216
2026-01-17 22:07:36.68	36.49	11.71	-44.7	-45.9	18.6	0.00e+00	0	35	0	353370112	60	4273
2026-01-17 22:07:37.68	36.63	11.77	-44.7	-45.8	18.7	0.00e+00	0	35	0	356515840	60	4241
2026-01-17 22:07:38.69	36.78	11.83	-44.7	-45.9	18.7	0.00e+00	0	35	0	359661568	60	4250
2026-01-17 22:07:39.70	36.93	11.89	-44.7	-45.9	18.7	0.00e+00	0	35	0	362807296	60	4252
2026-01-17 22:07:40.71	37.07	11.96	-44.5	-45.6	19.0	0.00e+00	0	35	0	365953024	60	4113
2026-01-17 22:07:41.72	37.22	12.02	-44.4	-45.5	19.0	0.00e+00	0	35	0	369098752	60	4085
2026-01-17 22:07:42.72	37.37	12.08	-44.2	-45.3	19.2	0.00e+00	0	35	0	372244480	60	3988
2026-01-17 22:07:43.73	37.52	12.14	-44.3	-45.4	19.2	0.00e+00	0	35	0	375390208	60	4021
2026-01-17 22:07:44.74	37.67	12.20	-44.2	-45.3	19.3	0.00e+00	0	35	0	378535936	60	3973
2026-01-17 22:07:45.75	37.82	12.26	-44.2	-45.3	19.3	0.00e+00	0	35	0	381681664	60	3976
2026-01-17 22:07:46.76	37.97	12.32	-44.2	-45.2	19.3	0.00e+00	0	35	0	384827392	60	3948
2026-01-17 22:07:47.76	38.12	12.38	-44.3	-45.4	19.1	0.00e+00	0	35	0	387973120	60	4027
2026-01-17 22:07:48.77	38.27	12.44	-44.3	-45.4	19.1	0.00e+00	0	35	0	391118848	60	4039
2026-01-17 22:07:49.78	38.43	12.50	-44.4	-45.5	19.1	0.00e+00	0	35	0	394264576	60	4082
2026-01-17 22:07:50.79	38.58	12.56	-44.5	-45.6	18.9	0.00e+00	0	35	0	397410304	60	4143
2026-01-17 22:07:51.80	38.73	12.62	-44.5	-45.6	19.0	0.00e+00	0	35	0	400556032	60	4140
2026-01-17 22:07:52.80	38.89	12.68	-44.5	-45.6	19.0	0.00e+00	0	35	0	403701760	60	4103
2026-01-17 22:07:53.81	39.04	12.74	-44.5	-45.7	18.9	0.00e+00	0	35	0	406847488	60	4147
2026-01-17 22:07:54.82	39.20	12.80	-44.4	-45.5	19.0	0.00e+00	0	35	0	409993216	60	4089
2026-01-17 22:07:55.83	39.35	12.86	-44.3	-45.4	19.1	0.00e+00	0	35	0	413138944	60	4026
2026-01-17 22:07:56.84	39.51	12.92	-44.3	-45.3	19.2	0.00e+00	0	35	0	416284672	60	3993
2026-01-17 22:07:57.85	39.67	12.98	-44.2	-45.3	19.3	0.00e+00	0	36	0	419430400	60	3975
2026-01-17 22:07:58.86	39.83	13.04	-44.2	-45.3	19.2	0.00e+00	0	35	0	422576128	60	3986
2026-01-17 22:07:59.86	39.99	13.10	-44.2	-45.3	19.3	0.00e+00	0	35	0	425721856	60	3975
2026-01-17 22:08:00.87	40.15	13.16	-44.3	-45.4	19.2	0.00e+00	0	35	0	428867584	60	4028
2026-01-17 22:08:01.88	40.31	13.22	-44.4	-45.5	19.1	0.00e+00	0	35	0	432013312	60	4080
2026-01-17 22:08:02.89	40.47	13.28	-44.4	-45.5	19.1	0.00e+00	0	35	0	435159040	60	4097
2026-01-17 22:08:03.90	40.63	13.34	-44.5	-45.7	19.0	0.00e+00	0	35	0	438304768	60	4154
2026-01-17 22:08:04.90	40.79	13.40	-44.5	-45.7	18.9	0.00e+00	0	35	0	441450496	60	4161
2026-01-17 22:08:05.91	40.95	13.45	-44.5	-45.7	19.0	0.00e+00	0	36	0	444596224	60	4147
2026-01-17 22:08:06.92	41.12	13.51	-44.6	-45.7	18.9	0.00e+00	0	35	0	447741952	60	4183
2026-01-17 22:08:07.93	41.28	13.57	-44.6	-45.7	18.9	0.00e+00	0	35	0	450887680	60	4187
2026-01-17 22:08:08.93	41.44	13.63	-44.5	-45.6	19.0	0.00e+00	0	36	0	454033408	60	4140
2026-01-17 22:08:09.95	41.61	13.69	-44.4	-45.5	19.1	0.00e+00	0	35	0	457179136	60	4060
2026-01-17 22:08:10.95	41.77	13.75	-44.4	-45.5	19.1	0.00e+00	0	35	0	460324864	60	4070
2026-01-17 22:08:11.96	41.94	13.81	-44.2	-45.3	19.3	0.00e+00	0	36	0	463470592	60	3983
2026-01-17 22:08:12.97	42.11	13.87	-44.3	-45.3	19.3	0.00e+00	0	35	0	466616320	60	3991
2026-01-17 22:08:13.97	42.27	13.93	-44.1	-45.1	19.5	0.00e+00	0	35	0	469762048	60	3912
2026-01-17 22:08:14.98	42.44	13.99	-44.2	-45.3	19.4	0.00e+00	0	35	0	472907776	60	3963
2026-01-17 22:08:15.99	42.61	14.05	-44.2	-45.2	19.4	0.00e+00	0	35	0	476053504	60	3944
2026-01-17 22:08:17.00	42.78	14.10	-44.3	-45.3	19.3	0.00e+00	0	35	0	479199232	60	3994
2026-01-17 22:08:18.01	42.95	14.16	-44.2	-45.2	19.4	0.00e+00	0	35	0	482344960	60	3957
2026-01-17 22:08:19.02	43.12	14.22	-44.3	-45.4	19.2	0.00e+00	0	35	0	485490688	60	4013
2026-01-17 22:08:20.03	43.30	14.28	-44.3	-45.3	19.3	0.00e+00	0	35	0	488636416	60	4001
2026-01-17 22:08:21.04	43.47	14.34	-44.2	-45.3	19.3	0.00e+00	0	35	0	491782144	60	3964
2026-01-17 22:08:22.04	43.64	14.40	-44.4	-45.5	19.2	0.00e+00	0	35	0	494927872	60	4059
2026-01-17 22:08:23.05	43.81	14.45	-44.3	-45.4	19.2	0.00e+00	0	35	0	498073600	60	4042
2026-01-17 22:08:24.06	43.99	14.51	-44.3	-45.4	19.3	0.00e+00	0	35	0	501219328	60	4007
2026-01-17 22:08:25.07	44.16	14.57	-44.2	-45.3	19.4	0.00e+00	0	35	0	505413632	60	3971
2026-01-17 22:08:26.08	44.34	14.63	-44.3	-45.4	19.3	0.00e+00	0	35	0	508559360	60	4008
2026-01-17 22:08:27.08	44.51	14.68	-44.4	-45.4	19.2	0.00e+00	0	35	0	510656512	60	4049
2026-01-17 22:08:28.09	44.69	14.74	-44.3	-45.3	19.3	0.00e+00	0	36	0	513802240	60	3996
2026-01-17 22:08:29.10	44.87	14.80	-44.2	-45.3	19.4	0.00e+00	0	35	0	516947968	60	3963
2026-01-17 22:08:30.10	45.05	14.86	-44.3	-45.4	19.3	0.00e+00	0	35	0	520093696	60	4040
2026-01-17 22:08:31.11	45.22	14.91	-44.3	-45.4	19.3	0.00e+00	0	36	0	523239424	60	4017
2026-01-17 22:08:32.12	45.40	14.97	-44.2	-45.2	19.4	0.00e+00	0	35	0	526385152	60	3953
2026-01-17 22:08:33.13	45.58	15.03	-44.2	-45.3	19.4	0.00e+00	0	35	0	529530880	60	3974
2026-01-17 22:08:34.14	45.77	15.09	-44.2	-45.3	19.4	0.00e+00	0	35	0	532676608	60	3961
2026-01-17 22:08:35.14	45.95	15.14	-44.2	-45.3	19.4	0.00e+00	0	35	0	535822336	60	3959
2026-01-17 22:08:36.15	46.13	15.20	-44.1	-45.2	19.5	0.00e+00	0	35	0	538968064	60	3921
2026-01-17 22:08:37.16	46.31	15.25	-44.2	-45.2	19.5	0.00e+00	0	35	0	542113792	60	3951
2026-01-17 22:08:38.16	46.49	15.31	-44.1	-45.1	19.5	0.00e+00	0	35	0	546308096	60	3912
2026-01-17 22:08:39.17	46.68	15.37	-44.2	-45.2	19.4	0.00e+00	0	35	0	549453824	60	3942
2026-01-17 22:08:40.18	46.86	15.42	-44.2	-45.2	19.4	0.00e+00	0	35	0	552599552	60	3940
2026-01-17 22:08:41.19	47.05	15.48	-44.1	-45.1	19.5	0.00e+00	0	35	0	555745280	60	3897
2026-01-17 22:08:42.20	47.24	15.53	-44.2	-45.2	19.3	0.00e+00	0	35	0	557842432	60	3958
2026-01-17 22:08:43.20	47.42	15.59	-44.2	-45.3	19.3	0.00e+00	0	36	0	560988160	60	3988
2026-01-17 22:08:44.21	47.61	15.64	-44.2	-45.3	19.4	0.00e+00	0	35	0	564133888	60	3966
2026-01-17 22:08:45.22	47.80	15.70	-44.3	-45.4	19.3	0.00e+00	0	36	0	567279616	60	4009
2026-01-17 22:08:46.23	47.99	15.76	-44.1	-45.2	19.4	0.00e+00	0	35	0	570425344	60	3939
2026-01-17 22:08:47.24	48.18	15.81	-44.2	-45.3	19.4	0.00e+00	0	35	0	573571072	60	3986
2026-01-17 22:08:48.24	48.37	15.86	-44.2	-45.3	19.4	0.00e+00	0	35	0	576716800	60	3972
2026-01-17 22:08:49.25	48.56	15.92	-44.1	-45.2	19.5	0.00e+00	0	36	0	579862528	60	3923
2026-01-17 22:08:50.26	48.75	15.97	-44.0	-45.1	19.5	0.00e+00	0	35	0	583008256	60	3877
2026-01-17 22:08:51.27	48.94	16.03	-44.0	-45.0	19.7	0.00e+00	0	35	0	587202560	60	3867
2026-01-17 22:08:52.28	49.13	16.08	-44.4	-45.5	19.5	0.00e+00	0	35	0	590348288	59	4301
2026-01-17 22:08:53.28	49.33	16.14	-44.3	-45.4	19.5	0.00e+00	0	35	0	593494016	59	4266
2026-01-17 22:08:54.29	49.52	16.19	-44.5	-45.5	19.4	0.00e+00	0	35	0	596639744	59	4338
2026-01-17 22:08:55.30	49.72	16.24	-44.4	-45.4	19.5	0.00e+00	0	35	0	599785472	59	4284
2026-01-17 22:08:56.31	49.91	16.30	-44.4	-45.4	19.4	0.00e+00	0	35	0	602931200	59	4275
2026-01-17 22:08:57.32	50.11	16.35	-44.3	-45.4	19.5	0.00e+00	0	36	0	605028352	59	4271
2026-01-17 22:08:58.32	50.31	16.40	-44.2	-45.3	19.6	0.00e+00	0	35	0	608174080	59	4217
2026-01-17 22:08:59.33	50.50	16.45	-44.2	-45.3	19.7	0.00e+00	0	35	0	611319808	59	4207
2026-01-17 22:09:00.34	50.70	16.51	-44.3	-45.3	19.6	0.00e+00	0	35	0	614465536	59	4215
2026-01-17 22:09:01.35	50.90	16.56	-44.3	-45.3	19.6	0.00e+00	0	36	0	617611264	59	4240
2026-01-17 22:09:02.36	51.10	16.61	-44.2	-45.2	19.7	0.00e+00	0	35	0	620756992	59	4186
2026-01-17 22:09:03.36	51.30	16.66	-44.2	-45.3	19.7	0.00e+00	0	35	0	623902720	59	4207
2026-01-17 22:09:04.37	51.50	16.71	-44.3	-45.4	19.6	0.00e+00	0	35	0	628097024	59	4252
2026-01-17 22:09:05.37	51.70	16.76	-44.3	-45.4	19.7	0.00e+00	0	35	0	631242752	59	4243
2026-01-17 22:09:06.38	51.90	16.82	-44.2	-45.2	19.8	0.00e+00	0	35	0	634388480	59	4162
2026-01-17 22:09:07.39	52.11	16.87	-44.1	-45.2	19.8	0.00e+00	0	35	0	637534208	59	4163
2026-01-17 22:09:08.40	52.31	16.92	-44.0	-45.1	19.9	0.00e+00	0	35	0	640679936	59	4108
2026-01-17 22:09:09.40	52.52	16.97	-44.0	-45.0	19.9	0.00e+00	0	36	0	643825664	59	4097
2026-01-17 22:09:10.41	52.72	17.02	-44.0	-45.0	19.8	0.00e+00	0	35	0	646971392	59	4096
2026-01-17 22:09:11.42	52.93	17.07	-44.1	-45.1	19.8	0.00e+00	0	36	0	650117120	59	4133
2026-01-17 22:09:12.43	53.13	17.12	-44.0	-45.0	19.9	0.00e+00	0	35	0	652214272	59	4082
2026-01-17 22:09:13.43	53.34	17.17	-43.9	-45.0	20.0	0.00e+00	0	35	0	655360000	59	4055
2026-01-17 22:09:14.44	53.55	17.22	-44.0	-45.0	19.9	0.00e+00	0	35	0	658505728	59	4096
2026-01-17 22:09:15.45	53.76	17.26	-44.0	-45.0	19.9	0.00e+00	0	35	0	661651456	59	4084
2026-01-17 22:09:16.46	53.97	17.31	-44.1	-45.2	19.8	0.00e+00	0	35	0	664797184	59	4152
2026-01-17 22:09:17.47	54.18	17.36	-44.0	-45.0	19.9	0.00e+00	0	35	0	668991488	59	4086
2026-01-17 22:09:18.47	54.38	17.41	-44.0	-45.0	19.9	0.00e+00	0	35	0	672137216	59	4092
2026-01-17 22:09:19.48	54.60	17.46	-44.1	-45.1	19.9	0.00e+00	0	35	0	675282944	59	4127
2026-01-17 22:09:20.49	54.81	17.51	-44.2	-45.2	19.8	0.00e+00	0	36	0	678428672	59	4176
2026-01-17 22:09:21.49	55.02	17.55	-44.1	-45.1	19.8	0.00e+00	0	35	0	681574400	59	4121
2026-01-17 22:09:22.50	55.23	17.60	-43.9	-44.9	19.9	0.00e+00	0	36	0	684720128	59	4043
2026-01-17 22:09:23.51	55.45	17.65	-44.0	-45.0	19.8	0.00e+00	0	35	0	687865856	59	4080
2026-01-17 22:09:24.52	55.66	17.69	-43.9	-44.9	19.9	0.00e+00	0	36	0	691011584	59	4009
2026-01-17 22:09:25.52	55.87	17.74	-43.8	-44.8	20.0	0.00e+00	0	35	0	694157312	59	3988
2026-01-17 22:09:26.53	56.09	17.78	-43.8	-44.8	20.1	0.00e+00	0	35	0	697303040	59	3981
2026-01-17 22:09:27.53	56.30	17.83	-43.8	-44.8	20.1	0.00e+00	0	36	0	700448768	59	3994
2026-01-17 22:09:28.54	56.52	17.87	-43.7	-44.7	20.2	0.00e+00	0	35	0	702545920	59	3924
2026-01-17 22:09:29.55	56.74	17.92	-43.7	-44.7	20.2	0.00e+00	0	35	0	705691648	59	3922
2026-01-17 22:09:30.56	56.96	17.96	-43.8	-44.8	20.2	0.00e+00	0	36	0	708837376	59	3972
2026-01-17 22:09:31.56	57.17	18.01	-43.8	-44.8	20.2	0.00e+00	0	35	0	713031680	59	3972
2026-01-17 22:09:32.57	57.39	18.05	-43.9	-44.9	20.1	0.00e+00	0	36	0	716177408	59	4008
2026-01-17 22:09:33.58	57.61	18.10	-43.8	-44.8	20.1	0.00e+00	0	36	0	719323136	59	3998
2026-01-17 22:09:34.59	57.84	18.14	-43.8	-44.8	20.1	0.00e+00	0	35	0	722468864	59	3990
2026-01-17 22:09:35.60	58.06	18.18	-43.8	-44.8	20.1	0.00e+00	0	35	0	725614592	59	3966
2026-01-17 22:09:36.60	58.28	18.22	-43.6	-44.6	20.2	0.00e+00	0	35	0	728760320	59	3901
2026-01-17 22:09:37.61	58.50	18.27	-43.7	-44.6	20.3	0.00e+00	0	35	0	731906048	59	3901
2026-01-17 22:09:38.62	58.72	18.31	-43.7	-44.7	20.2	0.00e+00	0	35	0	735051776	59	3929
2026-01-17 22:09:39.63	58.95	18.35	-43.4	-44.4	20.5	0.00e+00	0	35	0	738197504	58	4013
2026-01-17 22:09:40.63	59.17	18.39	-43.5	-44.4	20.5	0.00e+00	0	35	0	741343232	58	4033
2026-01-17 22:09:41.64	59.39	18.43	-43.6	-44.5	20.4	0.00e+00	0	35	0	744488960	58	4088
2026-01-17 22:09:42.65	59.62	18.47	-43.6	-44.5	20.4	0.00e+00	0	35	0	746586112	58	4082
2026-01-17 22:09:43.65	59.84	18.51	-43.6	-44.6	20.4	0.00e+00	0	35	0	749731840	58	4106
2026-01-17 22:09:44.66	60.07	18.55	-43.6	-44.6	20.3	0.00e+00	0	35	0	753926144	58	4126
2026-01-17 22:09:45.67	60.30	18.59	-43.7	-44.6	20.3	0.00e+00	0	35	0	757071872	58	4134
2026-01-17 22:09:46.68	60.53	18.63	-43.6	-44.6	20.3	0.00e+00	0	35	0	760217600	58	4121
2026-01-17 22:09:47.69	60.76	18.67	-43.6	-44.6	20.4	0.00e+00	0	35	0	763363328	58	4103
2026-01-17 22:09:48.70	60.99	18.71	-43.5	-44.5	20.5	0.00e+00	0	36	0	766509056	58	4053
2026-01-17 22:09:49.71	61.22	18.75	-43.4	-44.3	20.6	0.00e+00	0	35	0	769654784	58	3994
2026-01-17 22:09:50.71	61.44	18.78	-43.3	-44.3	20.7	0.00e+00	0	35	0	772800512	58	3963
2026-01-17 22:09:51.72	61.67	18.82	-43.3	-44.2	20.7	0.00e+00	0	35	0	775946240	58	3930
2026-01-17 22:09:52.72	61.90	18.86	-43.3	-44.2	20.6	0.00e+00	0	35	0	779091968	58	3957
2026-01-17 22:09:53.73	62.14	18.89	-43.3	-44.2	20.7	0.00e+00	0	35	0	782237696	58	3951
2026-01-17 22:09:54.74	62.37	18.93	-43.4	-44.3	20.6	0.00e+00	0	36	0	785383424	58	3976
2026-01-17 22:09:55.75	62.60	18.96	-43.4	-44.3	20.6	0.00e+00	0	35	0	788529152	58	4002
2026-01-17 22:09:56.76	62.84	19.00	-43.4	-44.3	20.6	0.00e+00	0	35	0	791674880	58	3986
2026-01-17 22:09:57.77	63.07	19.03	-43.3	-44.2	20.7	0.00e+00	0	36	0	794820608	58	3958
2026-01-17 22:09:58.77	63.30	19.07	-43.3	-44.2	20.7	0.00e+00	0	35	0	797966336	58	3946
2026-01-17 22:09:59.78	63.54	19.10	-43.3	-44.2	20.8	0.00e+00	0	35	0	801112064	58	3922
2026-01-17 22:10:00.79	63.77	19.13	-43.3	-44.2	20.7	0.00e+00	0	35	0	804257792	58	3944
2026-01-17 22:10:01.80	64.01	19.17	-43.2	-44.2	20.7	0.00e+00	0	35	0	807403520	58	3918
2026-01-17 22:10:02.80	64.24	19.20	-43.3	-44.3	20.6	0.00e+00	0	35	0	810549248	58	3961
2026-01-17 22:10:03.81	64.48	19.23	-43.4	-44.4	20.6	0.00e+00	0	35	0	813694976	58	4014
2026-01-17 22:10:04.82	64.72	19.26	-43.5	-44.4	20.5	0.00e+00	0	35	0	816840704	58	4036
2026-01-17 22:10:05.83	64.96	19.30	-43.4	-44.4	20.5	0.00e+00	0	35	0	819986432	58	4029
2026-01-17 22:10:06.84	65.19	19.33	-43.4	-44.3	20.7	0.00e+00	0	35	0	823132160	58	3981
2026-01-17 22:10:07.85	65.43	19.36	-43.4	-44.3	20.7	0.00e+00	0	35	0	826277888	58	3976
2026-01-17 22:10:08.86	65.67	19.39	-43.3	-44.2	20.7	0.00e+00	0	35	0	829423616	58	3954
2026-01-17 22:10:09.87	65.91	19.42	-43.2	-44.2	20.8	0.00e+00	0	35	0	832569344	58	3916
2026-01-17 22:10:10.87	66.15	19.44	-43.2	-44.1	20.8	0.00e+00	0	35	0	835715072	58	3913
2026-01-17 22:10:11.88	66.39	19.47	-43.3	-44.2	20.7	0.00e+00	0	35	0	838860800	58	3956
2026-01-17 22:10:12.89	66.63	19.50	-43.4	-44.3	20.6	0.00e+00	0	35	0	842006528	58	3985
2026-01-17 22:10:13.89	66.87	19.53	-43.4	-44.3	20.6	0.00e+00	0	35	0	845152256	58	3991
2026-01-17 22:10:14.90	67.12	19.56	-43.4	-44.4	20.6	0.00e+00	0	35	0	848297984	58	4017
2026-01-17 22:10:15.91	67.36	19.58	-43.4	-44.3	20.6	0.00e+00	0	35	0	851443712	58	3992
2026-01-17 22:10:16.92	67.60	19.61	-43.3	-44.2	20.7	0.00e+00	0	35	0	854589440	58	3945
2026-01-17 22:10:17.92	67.84	19.63	-43.3	-44.2	20.7	0.00e+00	0	35	0	857735168	58	3943
2026-01-17 22:10:18.93	68.09	19.66	-43.3	-44.2	20.8	0.00e+00	0	35	0	860880896	58	3935
2026-01-17 22:10:19.94	68.33	19.68	-43.3	-44.2	20.8	0.00e+00	0	35	0	864026624	58	3933
2026-01-17 22:10:20.95	68.58	19.71	-43.4	-44.3	20.7	0.00e+00	0	35	0	867172352	58	3990
2026-01-17 22:10:21.95	68.82	19.73	-43.4	-44.4	20.6	0.00e+00	0	35	0	870318080	58	4009
2026-01-17 22:10:22.96	69.06	19.76	-43.4	-44.4	20.6	0.00e+00	0	35	0	873463808	58	4015
2026-01-17 22:10:23.97	69.31	19.78	-43.4	-44.3	20.6	0.00e+00	0	35	0	876609536	58	3994
2026-01-17 22:10:24.98	69.56	19.80	-43.5	-44.4	20.6	0.00e+00	0	35	0	879755264	58	4030
2026-01-17 22:10:25.98	69.80	19.82	-43.5	-44.5	20.5	0.00e+00	0	35	0	882900992	58	4059
2026-01-17 22:10:26.99	70.05	19.84	-43.6	-44.5	20.5	0.00e+00	0	35	0	886046720	58	4088
2026-01-17 22:10:28.00	70.29	19.86	-43.6	-44.6	20.5	0.00e+00	0	35	0	889192448	58	4106
2026-01-17 22:10:29.00	70.54	19.88	-43.5	-44.4	20.5	0.00e+00	0	36	0	892338176	58	4048
2026-01-17 22:10:30.01	70.79	19.90	-43.5	-44.5	20.5	0.00e+00	0	35	0	895483904	58	4071
2026-01-17 22:10:31.02	71.03	19.92	-43.6	-44.5	20.4	0.00e+00	0	35	0	898629632	58	4094
2026-01-17 22:10:32.03	71.28	19.94	-43.7	-44.7	20.3	0.00e+00	0	35	0	901775360	58	4176
2026-01-17 22:10:33.03	71.53	19.96	-43.6	-44.6	20.4	0.00e+00	0	35	0	904921088	58	4115
2026-01-17 22:10:34.04	71.78	19.98	-43.4	-44.4	20.6	0.00e+00	0	35	0	908066816	58	4015
2026-01-17 22:10:35.05	72.03	20.00	-43.5	-44.5	20.5	0.00e+00	0	35	0	911212544	58	4058
2026-01-17 22:10:36.06	72.28	20.01	-43.5	-44.5	20.5	0.00e+00	0	35	0	914358272	58	4058
2026-01-17 22:10:37.07	72.53	20.03	-43.5	-44.4	20.6	0.00e+00	0	35	0	917504000	58	4025
2026-01-17 22:10:38.08	72.78	20.04	-43.5	-44.4	20.6	0.00e+00	0	35	0	920649728	58	4042
2026-01-17 22:10:39.08	73.03	20.06	-43.5	-44.5	20.5	0.00e+00	0	35	0	923795456	58	4059
2026-01-17 22:10:40.09	73.28	20.07	-43.5	-44.5	20.5	0.00e+00	0	35	0	926941184	58	4067
2026-01-17 22:10:41.10	73.53	20.09	-43.5	-44.4	20.5	0.00e+00	0	35	0	930086912	58	4050
2026-01-17 22:10:42.11	73.78	20.10	-43.6	-44.5	20.5	0.00e+00	0	35	0	933232640	58	4076
2026-01-17 22:10:43.12	74.03	20.11	-43.6	-44.6	20.4	0.00e+00	0	35	0	936378368	58	4114
2026-01-17 22:10:44.13	74.28	20.13	-43.5	-44.5	20.5	0.00e+00	0	35	0	939524096	58	4053
2026-01-17 22:10:45.13	74.53	20.14	-43.6	-44.5	20.5	0.00e+00	0	35	0	942669824	58	4085
2026-01-17 22:10:46.14	74.78	20.15	-43.5	-44.5	20.5	0.00e+00	0	35	0	945815552	58	4071
2026-01-17 22:10:47.15	75.03	20.16	-43.5	-44.5	20.5	0.00e+00	0	35	0	948961280	58	4070
2026-01-17 22:10:48.16	75.29	20.17	-43.6	-44.5	20.5	0.00e+00	0	35	0	952107008	58	4086
2026-01-17 22:10:49.16	75.54	20.18	-43.5	-44.5	20.5	0.00e+00	0	35	0	955252736	58	4064
2026-01-17 22:10:50.17	75.79	20.19	-43.5	-44.4	20.5	0.00e+00	0	36	0	958398464	58	4044
2026-01-17 22:10:51.18	76.04	20.20	-43.5	-44.4	20.5	0.00e+00	0	35	0	961544192	58	4051
2026-01-17 22:10:52.19	76.29	20.21	-43.6	-44.6	20.4	0.00e+00	0	35	0	964689920	58	4116
2026-01-17 22:10:53.19	76.54	20.22	-43.6	-44.6	20.4	0.00e+00	0	35	0	967835648	58	4137
2026-01-17 22:10:54.20	76.80	20.22	-43.6	-44.6	20.4	0.00e+00	0	35	0	970981376	58	4104
2026-01-17 22:10:55.21	77.05	20.23	-43.6	-44.5	20.5	0.00e+00	0	35	0	974127104	58	4089
2026-01-17 22:10:56.22	77.30	20.23	-43.6	-44.6	20.4	0.00e+00	0	35	0	977272832	58	4101
2026-01-17 22:10:57.23	77.56	20.24	-43.5	-44.5	20.5	0.00e+00	0	35	0	980418560	58	4077
2026-01-17 22:10:58.24	77.81	20.24	-43.6	-44.6	20.4	0.00e+00	0	35	0	983564288	58	4110
2026-01-17 22:10:59.24	78.06	20.25	-43.6	-44.5	20.5	0.00e+00	0	35	0	986710016	58	4077
2026-01-17 22:11:00.25	78.32	20.25	-43.5	-44.5	20.5	0.00e+00	0	35	0	989855744	58	4066
2026-01-17 22:11:01.26	78.57	20.26	-43.6	-44.5	20.4	0.00e+00	0	35	0	993001472	58	4084
2026-01-17 22:11:02.27	78.82	20.26	-43.6	-44.5	20.5	0.00e+00	0	35	0	996147200	58	4085
2026-01-17 22:11:03.27	79.07	20.26	-43.6	-44.6	20.4	0.00e+00	0	35	0	999292928	58	4103
2026-01-17 22:11:04.28	79.33	20.26	-43.6	-44.5	20.4	0.00e+00	0	35	0	1002438656	58	4083
2026-01-17 22:11:05.29	79.58	20.26	-43.7	-44.6	20.3	0.00e+00	0	35	0	1005584384	58	4143
2026-01-17 22:11:06.30	79.84	20.26	-43.7	-44.7	20.3	0.00e+00	0	35	0	1008730112	58	4157
2026-01-17 22:11:07.31	80.09	20.26	-43.6	-44.6	20.4	0.00e+00	0	35	0	1011875840	58	4103
2026-01-17 22:11:08.31	80.34	20.26	-43.6	-44.6	20.3	0.00e+00	0	35	0	1015021568	58	4118
2026-01-17 22:11:09.32	80.60	20.26	-43.7	-44.7	20.3	0.00e+00	0	35	0	1018167296	58	4157
2026-01-17 22:11:10.33	80.85	20.26	-43.7	-44.7	20.3	0.00e+00	0	35	0	1021313024	58	4166
2026-01-17 22:11:11.34	81.10	20.26	-43.5	-44.4	20.6	0.00e+00	0	35	0	1024458752	58	4035
2026-01-17 22:11:12.34	81.35	20.25	-43.5	-44.4	20.5	0.00e+00	0	35	0	1027604480	58	4051
2026-01-17 22:11:13.35	81.61	20.25	-43.4	-44.4	20.6	0.00e+00	0	35	0	1030750208	58	4019
2026-01-17 22:11:14.36	81.86	20.25	-43.5	-44.4	20.6	0.00e+00	0	35	0	1033895936	58	4036
2026-01-17 22:11:15.36	82.11	20.24	-43.6	-44.5	20.5	0.00e+00	0	35	0	1037041664	58	4092
2026-01-17 22:11:16.38	82.37	20.24	-43.7	-44.6	20.3	0.00e+00	0	35	0	1040187392	58	4139
2026-01-17 22:11:17.38	82.62	20.23	-43.6	-44.6	20.4	0.00e+00	0	35	0	1043333120	58	4125
2026-01-17 22:11:18.39	82.87	20.23	-43.6	-44.6	20.4	0.00e+00	0	35	0	1046478848	58	4105
2026-01-17 22:11:19.40	83.13	20.22	-43.5	-44.4	20.6	0.00e+00	0	35	0	1049624576	58	4025
2026-01-17 22:11:20.41	83.38	20.21	-43.4	-44.3	20.7	0.00e+00	0	35	0	1052770304	58	3991
2026-01-17 22:11:21.42	83.63	20.20	-43.4	-44.4	20.6	0.00e+00	0	35	0	1055916032	58	4018
2026-01-17 22:11:22.43	83.89	20.20	-43.4	-44.4	20.6	0.00e+00	0	35	0	1059061760	58	4011
2026-01-17 22:11:23.44	84.14	20.19	-43.4	-44.4	20.6	0.00e+00	0	35	0	1062207488	58	4022
2026-01-17 22:11:24.45	84.39	20.18	-43.5	-44.5	20.5	0.00e+00	0	35	0	1065353216	58	4060
2026-01-17 22:11:25.45	84.64	20.17	-43.6	-44.5	20.5	0.00e+00	0	35	0	1068498944	58	4081
2026-01-17 22:11:26.46	84.89	20.16	-43.7	-44.6	20.4	0.00e+00	0	35	0	1071644672	58	4143
2026-01-17 22:11:27.47	85.15	20.15	-43.6	-44.5	20.4	0.00e+00	0	35	0	1074790400	58	4087
2026-01-17 22:11:28.48	85.40	20.13	-43.5	-44.5	20.4	0.00e+00	0	35	0	1077936128	58	4068
2026-01-17 22:11:29.49	85.65	20.12	-43.5	-44.4	20.5	0.00e+00	0	35	0	1081081856	58	4041
2026-01-17 22:11:30.49	85.90	20.11	-43.6	-44.5	20.4	0.00e+00	0	35	0	1084227584	58	4092
2026-01-17 22:11:31.50	86.15	20.10	-43.6	-44.5	20.4	0.00e+00	0	35	0	1087373312	58	4079
2026-01-17 22:11:32.51	86.40	20.08	-43.6	-44.6	20.4	0.00e+00	0	35	0	1090519040	58	4101
2026-01-17 22:11:33.52	86.65	20.07	-43.5	-44.4	20.5	0.00e+00	0	35	0	1093664768	58	4028
2026-01-17 22:11:34.53	86.90	20.05	-43.3	-44.3	20.6	0.00e+00	0	35	0	1096810496	58	3970
2026-01-17 22:11:35.54	87.15	20.04	-43.2	-44.2	20.7	0.00e+00	0	35	0	1099956224	58	3916
2026-01-17 22:11:36.54	87.40	20.02	-43.2	-44.1	20.8	0.00e+00	0	35	0	1103101952	58	3909
2026-01-17 22:11:37.55	87.65	20.00	-43.2	-44.1	20.8	0.00e+00	0	35	0	1106247680	58	3886
2026-01-17 22:11:38.56	87.90	19.99	-43.2	-44.1	20.8	0.00e+00	0	35	0	1109393408	58	3908
2026-01-17 22:11:39.57	88.15	19.97	-43.3	-44.2	20.7	0.00e+00	0	35	0	1112539136	58	3950
2026-01-17 22:11:40.57	88.40	19.95	-43.3	-44.2	20.7	0.00e+00	0	36	0	1115684864	58	3946
2026-01-17 22:11:41.58	88.65	19.93	-43.3	-44.2	20.7	0.00e+00	0	35	0	1118830592	58	3937
2026-01-17 22:11:42.59	88.90	19.91	-43.3	-44.2	20.7	0.00e+00	0	35	0	1121976320	58	3939
2026-01-17 22:11:43.60	89.14	19.89	-43.3	-44.3	20.6	0.00e+00	0	35	0	1125122048	58	3967
2026-01-17 22:11:44.61	89.39	19.87	-43.3	-44.3	20.6	0.00e+00	0	35	0	1128267776	58	3974
2026-01-17 22:11:45.62	89.64	19.85	-43.3	-44.2	20.7	0.00e+00	0	35	0	1131413504	58	3949
2026-01-17 22:11:46.62	89.88	19.83	-43.2	-44.1	20.8	0.00e+00	0	35	0	1134559232	58	3911
2026-01-17 22:11:47.63	90.13	19.81	-43.2	-44.1	20.8	0.00e+00	0	35	0	1137704960	58	3880
2026-01-17 22:11:48.64	90.38	19.79	-43.2	-44.1	20.8	0.00e+00	0	35	0	1140850688	58	3878
2026-01-17 22:11:49.65	90.63	19.77	-43.1	-44.0	20.9	0.00e+00	0	35	0	1143996416	58	3851
2026-01-17 22:11:50.65	90.87	19.74	-43.3	-44.2	20.7	0.00e+00	0	35	0	1147142144	58	3942
2026-01-17 22:11:51.66	91.11	19.72	-43.3	-44.2	20.7	0.00e+00	0	35	0	1150287872	58	3936
2026-01-17 22:11:52.67	91.36	19.70	-43.4	-44.4	20.6	0.00e+00	0	35	0	1153433600	58	4025
2026-01-17 22:11:53.68	91.60	19.67	-43.3	-44.3	20.7	0.00e+00	0	35	0	1156579328	58	3974
2026-01-17 22:11:54.68	91.85	19.65	-43.3	-44.3	20.7	0.00e+00	0	35	0	1159725056	58	3964
2026-01-17 22:11:55.69	92.09	19.62	-43.3	-44.2	20.6	0.00e+00	0	35	0	1162870784	58	3950
2026-01-17 22:11:56.70	92.33	19.59	-43.3	-44.2	20.7	0.00e+00	0	35	0	1166016512	58	3931
2026-01-17 22:11:57.71	92.58	19.57	-43.3	-44.3	20.6	0.00e+00	0	35	0	1169162240	58	3975
2026-01-17 22:11:58.72	92.82	19.54	-43.4	-44.4	20.5	0.00e+00	0	35	0	1172307968	58	4029
2026-01-17 22:11:59.72	93.06	19.51	-43.5	-44.4	20.5	0.00e+00	0	35	0	1175453696	58	4050
2026-01-17 22:12:00.73	93.30	19.49	-43.6	-44.5	20.4	0.00e+00	0	35	0	1178599424	58	4093
2026-01-17 22:12:01.74	93.54	19.46	-43.6	-44.6	20.4	0.00e+00	0	35	0	1181745152	58	4105
2026-01-17 22:12:02.75	93.79	19.43	-43.6	-44.5	20.4	0.00e+00	0	35	0	1184890880	58	4084
2026-01-17 22:12:03.76	94.03	19.40	-43.5	-44.4	20.5	0.00e+00	0	35	0	1188036608	58	4047
2026-01-17 22:12:04.76	94.26	19.37	-43.6	-44.5	20.4	0.00e+00	0	35	0	1191182336	58	4089
2026-01-17 22:12:05.77	94.50	19.34	-43.5	-44.4	20.5	0.00e+00	0	36	0	1194328064	58	4049
2026-01-17 22:12:06.78	94.74	19.31	-43.3	-44.3	20.6	0.00e+00	0	35	0	1197473792	58	3971
2026-01-17 22:12:07.79	94.98	19.28	-43.4	-44.3	20.5	0.00e+00	0	35	0	1200619520	58	3987
2026-01-17 22:12:08.80	95.22	19.25	-43.4	-44.3	20.6	0.00e+00	0	35	0	1203765248	58	3991
2026-01-17 22:12:09.80	95.46	19.21	-43.4	-44.3	20.6	0.00e+00	0	35	0	1206910976	58	3978
2026-01-17 22:12:10.81	95.69	19.18	-43.3	-44.3	20.6	0.00e+00	0	35	0	1210056704	58	3969
2026-01-17 22:12:11.82	95.93	19.15	-43.3	-44.3	20.6	0.00e+00	0	35	0	1213202432	58	3961
2026-01-17 22:12:12.83	96.17	19.12	-43.3	-44.2	20.7	0.00e+00	0	35	0	1216348160	58	3933
2026-01-17 22:12:13.83	96.40	19.08	-43.4	-44.3	20.6	0.00e+00	0	35	0	1219493888	58	3977
2026-01-17 22:12:14.84	96.64	19.05	-43.4	-44.3	20.6	0.00e+00	0	35	0	1222639616	58	3997
2026-01-17 22:12:15.85	96.87	19.01	-43.5	-44.4	20.5	0.00e+00	0	35	0	1225785344	58	4050
2026-01-17 22:12:16.86	97.11	18.98	-43.3	-44.2	20.7	0.00e+00	0	35	0	1228931072	58	3947
2026-01-17 22:12:17.86	97.34	18.94	-43.3	-44.2	20.7	0.00e+00	0	36	0	1232076800	58	3932
2026-01-17 22:12:18.87	97.57	18.91	-43.5	-44.4	20.5	0.00e+00	0	35	0	1235222528	58	4029
2026-01-17 22:12:19.88	97.81	18.87	-43.4	-44.3	20.6	0.00e+00	0	35	0	1238368256	58	3987
2026-01-17 22:12:20.89	98.04	18.83	-43.4	-44.4	20.5	0.00e+00	0	35	0	1241513984	58	4010
2026-01-17 22:12:21.90	98.27	18.80	-43.3	-44.2	20.7	0.00e+00	0	35	0	1244659712	58	3934
2026-01-17 22:12:22.90	98.50	18.76	-43.4	-44.3	20.6	0.00e+00	0	35	0	1247805440	58	3985
2026-01-17 22:12:23.91	98.73	18.72	-43.4	-44.3	20.6	0.00e+00	0	35	0	1250951168	58	3989
2026-01-17 22:12:24.92	98.96	18.68	-43.4	-44.3	20.5	0.00e+00	0	35	0	1254096896	58	3989
2026-01-17 22:12:25.93	99.19	18.65	-43.4	-44.3	20.6	0.00e+00	0	35	0	1257242624	58	3977
2026-01-17 22:12:26.94	99.42	18.61	-43.3	-44.2	20.7	0.00e+00	0	36	0	1260388352	58	3933
2026-01-17 22:12:27.95	99.65	18.57	-43.4	-44.3	20.6	0.00e+00	0	35	0	1263534080	58	3977
2026-01-17 22:12:28.95	99.87	18.53	-43.3	-44.3	20.6	0.00e+00	0	35	0	1266679808	58	3970
2026-01-17 22:12:29.96	100.10	18.49	-43.5	-44.4	20.5	0.00e+00	0	35	0	1269825536	58	4048
2026-01-17 22:12:30.97	100.33	18.45	-43.5	-44.4	20.5	0.00e+00	0	35	0	1272971264	58	4029
2026-01-17 22:12:31.98	100.55	18.41	-43.3	-44.3	20.6	0.00e+00	0	35	0	1276116992	58	3977
2026-01-17 22:12:32.98	100.78	18.36	-43.3	-44.3	20.5	0.00e+00	0	35	0	1279262720	58	3965
2026-01-17 22:12:33.99	101.00	18.32	-43.4	-44.3	20.5	0.00e+00	0	35	0	1282408448	58	4000
2026-01-17 22:12:35.00	101.22	18.28	-43.4	-44.4	20.5	0.00e+00	0	35	0	1285554176	58	4027
2026-01-17 22:12:36.01	101.45	18.24	-43.5	-44.4	20.4	0.00e+00	0	35	0	1288699904	58	4051
2026-01-17 22:12:37.02	101.67	18.20	-43.5	-44.4	20.5	0.00e+00	0	35	0	1291845632	58	4044
2026-01-17 22:12:38.02	101.89	18.15	-43.5	-44.5	20.4	0.00e+00	0	35	0	1294991360	58	4071
2026-01-17 22:12:39.03	102.11	18.11	-43.5	-44.5	20.3	0.00e+00	0	35	0	1298137088	58	4077
2026-01-17 22:12:40.04	102.34	18.07	-43.7	-44.7	20.2	0.00e+00	0	35	0	1301282816	58	4160
2026-01-17 22:12:41.05	102.56	18.02	-43.7	-44.7	20.1	0.00e+00	0	35	0	1304428544	58	4188
2026-01-17 22:12:42.05	102.77	17.98	-43.7	-44.7	20.1	0.00e+00	0	35	0	1307574272	58	4159
2026-01-17 22:12:43.06	102.99	17.93	-43.7	-44.7	20.1	0.00e+00	0	36	0	1310720000	58	4181
2026-01-17 22:12:44.07	103.21	17.89	-43.8	-44.8	20.0	0.00e+00	0	35	0	1313865728	58	4228
2026-01-17 22:12:45.08	103.43	17.84	-43.7	-44.7	20.2	0.00e+00	0	35	0	1317011456	58	4175
2026-01-17 22:12:46.08	103.65	17.80	-43.8	-44.8	20.1	0.00e+00	0	35	0	1320157184	58	4224
2026-01-17 22:12:47.09	103.86	17.75	-43.8	-44.8	20.1	0.00e+00	0	35	0	1323302912	58	4206
2026-01-17 22:12:48.10	104.08	17.71	-43.8	-44.8	20.1	0.00e+00	0	35	0	1326448640	58	4203
2026-01-17 22:12:49.11	104.30	17.66	-43.9	-44.9	20.0	0.00e+00	0	36	0	1329594368	58	4254
2026-01-17 22:12:50.12	104.51	17.61	-43.9	-44.9	20.0	0.00e+00	0	35	0	1332740096	58	4280
2026-01-17 22:12:51.12	104.72	17.57	-43.9	-44.9	20.0	0.00e+00	0	35	0	1335885824	58	4270
2026-01-17 22:12:52.13	104.94	17.52	-43.9	-44.9	19.9	0.00e+00	0	35	0	1339031552	58	4281
2026-01-17 22:12:53.14	105.15	17.47	-43.9	-44.9	19.9	0.00e+00	0	35	0	1342177280	58	4276
2026-01-17 22:12:54.15	105.36	17.42	-44.0	-45.0	19.8	0.00e+00	0	35	0	1345323008	58	4298
2026-01-17 22:12:55.15	105.57	17.37	-44.1	-45.1	19.7	0.00e+00	0	35	0	1348468736	58	4368
2026-01-17 22:12:56.16	105.78	17.33	-43.9	-44.9	19.9	0.00e+00	0	35	0	1351614464	58	4267
2026-01-17 22:12:57.17	105.99	17.28	-43.9	-44.9	19.9	0.00e+00	0	35	0	1354760192	58	4281
2026-01-17 22:12:58.18	106.20	17.23	-43.7	-44.7	20.1	0.00e+00	0	35	0	1357905920	58	4168
2026-01-17 22:12:59.18	106.41	17.18	-43.6	-44.6	20.3	0.00e+00	0	35	0	1361051648	58	4106
2026-01-17 22:13:00.19	106.62	17.13	-43.5	-44.4	20.4	0.00e+00	0	35	0	1364197376	58	4032
2026-01-17 22:13:01.20	106.83	17.08	-43.5	-44.5	20.4	0.00e+00	0	35	0	1367343104	58	4062
2026-01-17 22:13:02.21	107.03	17.03	-43.7	-44.7	20.2	0.00e+00	0	35	0	1370488832	58	4159
2026-01-17 22:13:03.22	107.24	16.98	-43.8	-44.8	20.1	0.00e+00	0	35	0	1373634560	58	4224
2026-01-17 22:13:04.22	107.44	16.93	-43.9	-44.9	20.0	0.00e+00	0	35	0	1376780288	58	4266
2026-01-17 22:13:05.23	107.65	16.88	-44.0	-45.1	19.8	0.00e+00	0	35	0	1379926016	58	4350
2026-01-17 22:13:06.24	107.85	16.83	-44.1	-45.2	19.7	0.00e+00	0	35	0	1383071744	58	4404
2026-01-17 22:13:07.25	108.06	16.78	-44.3	-45.3	19.6	0.00e+00	0	35	0	1386217472	59	4226
2026-01-17 22:13:08.25	108.26	16.72	-44.3	-45.3	19.6	0.00e+00	0	35	0	1389363200	59	4241
2026-01-17 22:13:09.26	108.46	16.67	-44.2	-45.3	19.6	0.00e+00	0	36	0	1392508928	59	4194
2026-01-17 22:13:10.27	108.66	16.62	-44.1	-45.2	19.7	0.00e+00	0	35	0	1395654656	59	4152
2026-01-17 22:13:11.28	108.86	16.57	-44.1	-45.2	19.7	0.00e+00	0	35	0	1398800384	59	4151
2026-01-17 22:13:12.28	109.06	16.52	-44.2	-45.3	19.7	0.00e+00	0	35	0	1401946112	59	4198
2026-01-17 22:13:13.29	109.26	16.46	-44.0	-45.0	19.9	0.00e+00	0	35	0	1405091840	59	4092
2026-01-17 22:13:14.30	109.46	16.41	-44.0	-45.0	19.9	0.00e+00	0	35	0	1408237568	59	4066
2026-01-17 22:13:15.31	109.66	16.36	-44.0	-45.1	19.9	0.00e+00	0	35	0	1411383296	59	4104
2026-01-17 22:13:16.32	109.86	16.30	-44.0	-45.0	19.9	0.00e+00	0	35	0	1414529024	59	4073
2026-01-17 22:13:17.32	110.05	16.25	-44.0	-45.1	19.9	0.00e+00	0	35	0	1417674752	59	4099
2026-01-17 22:13:18.33	110.25	16.20	-44.0	-45.0	19.9	0.00e+00	0	35	0	1420820480	59	4083
2026-01-17 22:13:19.34	110.44	16.14	-44.2	-45.2	19.8	0.00e+00	0	35	0	1423966208	59	4169
2026-01-17 22:13:20.35	110.64	16.09	-44.3	-45.3	19.6	0.00e+00	0	35	0	1427111936	59	4234
2026-01-17 22:13:21.36	110.83	16.03	-44.4	-45.5	19.5	0.00e+00	0	35	0	1430257664	59	4321
2026-01-17 22:13:22.36	111.03	15.98	-44.5	-45.6	19.4	0.00e+00	0	35	0	1434451968	59	4344
2026-01-17 22:13:23.37	111.22	15.93	-44.4	-45.5	19.5	0.00e+00	0	35	0	1437597696	59	4317
2026-01-17 22:13:24.38	111.41	15.87	-44.4	-45.5	19.5	0.00e+00	0	35	0	1440743424	59	4307
2026-01-17 22:13:25.39	111.60	15.82	-44.4	-45.5	19.5	0.00e+00	0	35	0	1442840576	59	4294
2026-01-17 22:13:26.40	111.79	15.76	-44.2	-45.3	19.7	0.00e+00	0	35	0	1445986304	59	4198
2026-01-17 22:13:27.41	111.98	15.71	-44.2	-45.2	19.7	0.00e+00	0	35	0	1449132032	59	4191
2026-01-17 22:13:28.41	112.17	15.65	-44.2	-45.2	19.7	0.00e+00	0	35	0	1452277760	59	4180
2026-01-17 22:13:29.42	112.36	15.59	-44.2	-45.2	19.7	0.00e+00	0	35	0	1455423488	59	4171
2026-01-17 22:13:30.43	112.55	15.54	-44.2	-45.3	19.6	0.00e+00	0	35	0	1458569216	59	4217
2026-01-17 22:13:31.44	112.74	15.48	-44.3	-45.4	19.6	0.00e+00	0	35	0	1461714944	59	4251
2026-01-17 22:13:32.44	112.92	15.43	-44.3	-45.4	19.6	0.00e+00	0	35	0	1464860672	59	4261
2026-01-17 22:13:33.45	113.11	15.37	-44.3	-45.4	19.6	0.00e+00	0	35	0	1468006400	59	4267
2026-01-17 22:13:34.46	113.29	15.31	-44.4	-45.5	19.5	0.00e+00	0	35	0	1472200704	59	4309
2026-01-17 22:13:35.47	113.48	15.26	-44.5	-45.5	19.4	0.00e+00	0	35	0	1475346432	59	4337
2026-01-17 22:13:36.48	113.66	15.20	-44.5	-45.6	19.4	0.00e+00	0	35	0	1478492160	59	4353
2026-01-17 22:13:37.49	113.84	15.14	-44.5	-45.5	19.4	0.00e+00	0	35	0	1481637888	59	4334
2026-01-17 22:13:38.50	114.03	15.09	-44.4	-45.5	19.5	0.00e+00	0	35	0	1484783616	59	4301
2026-01-17 22:13:39.50	114.21	15.03	-44.5	-45.6	19.4	0.00e+00	0	35	0	1487929344	59	4344
2026-01-17 22:13:40.51	114.39	14.97	-44.5	-45.6	19.4	0.00e+00	0	35	0	1490026496	59	4344
2026-01-17 22:13:41.52	114.57	14.91	-44.4	-45.5	19.5	0.00e+00	0	35	0	1493172224	59	4315
2026-01-17 22:13:42.53	114.75	14.86	-44.4	-45.5	19.4	0.00e+00	0	35	0	1496317952	59	4321
2026-01-17 22:13:43.54	114.93	14.80	-44.4	-45.5	19.4	0.00e+00	0	35	0	1499463680	59	4322
2026-01-17 22:13:44.55	115.11	14.74	-44.5	-45.5	19.4	0.00e+00	0	35	0	1502609408	59	4338
2026-01-17 22:13:45.56	115.29	14.68	-44.6	-45.7	19.2	0.00e+00	0	35	0	1505755136	59	4394
2026-01-17 22:13:46.56	115.46	14.63	-44.5	-45.6	19.3	0.00e+00	0	35	0	1509949440	59	4346
2026-01-17 22:13:47.57	115.64	14.57	-44.5	-45.6	19.3	0.00e+00	0	35	0	1513095168	59	4364
2026-01-17 22:13:48.58	115.81	14.51	-44.4	-45.5	19.4	0.00e+00	0	35	0	1516240896	59	4317
2026-01-17 22:13:49.59	115.99	14.45	-44.4	-45.5	19.4	0.00e+00	0	35	0	1519386624	59	4299
2026-01-17 22:13:50.59	116.16	14.39	-44.3	-45.4	19.5	0.00e+00	0	36	0	1522532352	59	4251
2026-01-17 22:13:51.60	116.34	14.33	-44.3	-45.4	19.5	0.00e+00	0	35	0	1525678080	59	4273
2026-01-17 22:13:52.61	116.51	14.28	-44.3	-45.3	19.5	0.00e+00	0	35	0	1528823808	59	4236
2026-01-17 22:13:53.62	116.68	14.22	-44.2	-45.3	19.6	0.00e+00	0	35	0	1531969536	59	4196
2026-01-17 22:13:54.62	116.85	14.16	-44.4	-45.4	19.4	0.00e+00	0	35	0	1535115264	59	4289
2026-01-17 22:13:55.63	117.02	14.10	-44.4	-45.5	19.4	0.00e+00	0	35	0	1537212416	59	4304
2026-01-17 22:13:56.64	117.20	14.04	-44.4	-45.5	19.4	0.00e+00	0	35	0	1540358144	59	4308
2026-01-17 22:13:57.65	117.37	13.98	-44.5	-45.6	19.3	0.00e+00	0	35	0	1543503872	59	4350
2026-01-17 22:13:58.66	117.54	13.92	-44.4	-45.5	19.4	0.00e+00	0	35	0	1546649600	59	4339
2026-01-17 22:13:59.67	117.70	13.86	-44.4	-45.5	19.4	0.00e+00	0	35	0	1550843904	59	4292
2026-01-17 22:14:00.68	117.87	13.80	-44.3	-45.4	19.5	0.00e+00	0	35	0	1553989632	59	4258
2026-01-17 22:14:01.68	118.04	13.74	-44.3	-45.4	19.5	0.00e+00	0	35	0	1557135360	59	4274
2026-01-17 22:14:02.69	118.21	13.68	-44.4	-45.5	19.4	0.00e+00	0	35	0	1560281088	59	4307
2026-01-17 22:14:03.70	118.37	13.62	-44.3	-45.4	19.5	0.00e+00	0	35	0	1563426816	59	4259
2026-01-17 22:14:04.70	118.54	13.57	-44.2	-45.3	19.5	0.00e+00	0	35	0	1566572544	59	4224
2026-01-17 22:14:05.71	118.70	13.51	-44.2	-45.3	19.5	0.00e+00	0	35	0	1569718272	59	4225
2026-01-17 22:14:06.72	118.86	13.45	-44.3	-45.4	19.5	0.00e+00	0	35	0	1572864000	59	4255
2026-01-17 22:14:07.73	119.03	13.39	-44.1	-45.2	19.6	0.00e+00	0	35	0	1576009728	59	4151
2026-01-17 22:14:08.74	119.19	13.33	-44.1	-45.1	19.7	0.00e+00	0	36	0	1579155456	59	4136
2026-01-17 22:14:09.74	119.35	13.27	-44.0	-45.0	19.8	0.00e+00	0	35	0	1582301184	59	4081
2026-01-17 22:14:10.75	119.51	13.21	-44.0	-45.0	19.7	0.00e+00	0	35	0	1584398336	59	4090
2026-01-17 22:14:11.76	119.67	13.15	-44.0	-45.1	19.7	0.00e+00	0	35	0	1587544064	59	4101
2026-01-17 22:14:12.76	119.83	13.09	-44.0	-45.0	19.7	0.00e+00	0	35	0	1591738368	59	4071
2026-01-17 22:14:13.77	119.99	13.03	-44.0	-45.0	19.7	0.00e+00	0	35	0	1594884096	59	4088
2026-01-17 22:14:14.78	120.15	12.97	-44.0	-45.0	19.7	0.00e+00	0	35	0	1598029824	59	4090
2026-01-17 22:14:15.79	120.31	12.90	-44.0	-45.0	19.7	0.00e+00	0	35	0	1601175552	59	4066
2026-01-17 22:14:16.80	120.47	12.84	-43.9	-45.0	19.7	0.00e+00	0	35	0	1604321280	59	4059
2026-01-17 22:14:17.80	120.63	12.78	-44.1	-45.2	19.6	0.00e+00	0	35	0	1607467008	59	4161
2026-01-17 22:14:18.81	120.78	12.72	-44.2	-45.3	19.4	0.00e+00	0	35	0	1610612736	59	4226
2026-01-17 22:14:19.82	120.94	12.66	-44.3	-45.3	19.4	0.00e+00	0	35	0	1613758464	59	4241
2026-01-17 22:14:20.83	121.09	12.60	-44.3	-45.4	19.3	0.00e+00	0	35	0	1616904192	59	4281
2026-01-17 22:14:21.84	121.25	12.54	-44.5	-45.6	19.1	0.00e+00	0	35	0	1620049920	59	4387
2026-01-17 22:14:22.84	121.40	12.48	-44.5	-45.6	19.1	0.00e+00	0	35	0	1623195648	59	4380
2026-01-17 22:14:23.85	121.55	12.42	-44.5	-45.6	19.1	0.00e+00	0	35	0	1626341376	59	4359
2026-01-17 22:14:24.86	121.71	12.36	-44.5	-45.7	19.0	0.00e+00	0	35	0	1629487104	59	4392
2026-01-17 22:14:25.87	121.86	12.30	-44.6	-45.7	19.0	0.00e+00	0	35	0	1632632832	59	4418
2026-01-17 22:14:26.88	122.01	12.24	-44.6	-45.7	19.0	0.00e+00	0	35	0	1635778560	59	4437
2026-01-17 22:14:27.89	122.16	12.18	-44.7	-45.8	18.9	0.00e+00	0	35	0	1638924288	59	4484
2026-01-17 22:14:28.90	122.31	12.12	-44.3	-45.5	19.0	0.00e+00	0	35	0	1642070016	60	4057
2026-01-17 22:14:29.90	122.46	12.06	-44.3	-45.4	19.0	0.00e+00	0	35	0	1645215744	60	4016
2026-01-17 22:14:30.91	122.61	12.00	-44.4	-45.6	18.8	0.00e+00	0	35	0	1648361472	60	4101
2026-01-17 22:14:31.92	122.76	11.93	-44.4	-45.5	18.9	0.00e+00	0	35	0	1651507200	60	4088
2026-01-17 22:14:32.93	122.91	11.87	-44.4	-45.6	18.8	0.00e+00	0	35	0	1654652928	60	4111
2026-01-17 22:14:33.94	123.06	11.81	-44.5	-45.6	18.7	0.00e+00	0	35	0	1657798656	60	4138
2026-01-17 22:14:34.94	123.20	11.75	-44.4	-45.6	18.8	0.00e+00	0	35	0	1660944384	60	4115
2026-01-17 22:14:35.95	123.35	11.69	-44.5	-45.7	18.6	0.00e+00	0	35	0	1664090112	60	4171
2026-01-17 22:14:36.96	123.49	11.63	-44.6	-45.7	18.6	0.00e+00	0	35	0	1667235840	60	4176
2026-01-17 22:14:37.97	123.64	11.57	-44.6	-45.8	18.6	0.00e+00	0	35	0	1670381568	60	4210
2026-01-17 22:14:38.98	123.78	11.51	-44.6	-45.8	18.6	0.00e+00	0	35	0	1673527296	60	4208
2026-01-17 22:14:39.98	123.93	11.45	-44.6	-45.8	18.6	0.00e+00	0	35	0	1676673024	60	4220
2026-01-17 22:14:40.99	124.07	11.39	-44.5	-45.7	18.7	0.00e+00	0	35	0	1679818752	60	4157
2026-01-17 22:14:42.00	124.21	11.33	-44.4	-45.5	18.8	0.00e+00	0	35	0	1682964480	60	4071
2026-01-17 22:14:43.01	124.36	11.26	-44.4	-45.5	18.8	0.00e+00	0	35	0	1686110208	60	4086
2026-01-17 22:14:44.02	124.50	11.20	-44.4	-45.5	18.8	0.00e+00	0	35	0	1689255936	60	4074
2026-01-17 22:14:45.02	124.64	11.14	-44.3	-45.4	18.9	0.00e+00	0	35	0	1692401664	60	4044
2026-01-17 22:14:46.03	124.78	11.08	-44.3	-45.4	18.9	0.00e+00	0	35	0	1695547392	60	4032
2026-01-17 22:14:47.04	124.92	11.02	-44.3	-45.5	18.9	0.00e+00	0	36	0	1698693120	60	4056
2026-01-17 22:14:48.05	125.06	10.96	-44.5	-45.6	18.7	0.00e+00	0	36	0	1701838848	60	4120
2026-01-17 22:14:49.05	125.20	10.90	-44.5	-45.6	18.7	0.00e+00	0	35	0	1704984576	60	4130
2026-01-17 22:14:50.06	125.34	10.84	-44.5	-45.6	18.7	0.00e+00	0	35	0	1708130304	60	4120
2026-01-17 22:14:51.07	125.47	10.78	-44.5	-45.6	18.7	0.00e+00	0	35	0	1711276032	60	4122
2026-01-17 22:14:52.08	125.61	10.72	-44.4	-45.6	18.8	0.00e+00	0	35	0	1714421760	60	4100
2026-01-17 22:14:53.08	125.75	10.66	-44.5	-45.7	18.6	0.00e+00	0	35	0	1717567488	60	4170
2026-01-17 22:14:54.09	125.88	10.59	-44.6	-45.7	18.6	0.00e+00	0	35	0	1720713216	60	4189
2026-01-17 22:14:55.10	126.02	10.53	-44.7	-45.9	18.5	0.00e+00	0	35	0	1723858944	60	4246
2026-01-17 22:14:56.11	126.15	10.47	-44.7	-45.9	18.4	0.00e+00	0	35	0	1727004672	60	4245
2026-01-17 22:14:57.11	126.29	10.41	-44.7	-45.9	18.4	0.00e+00	0	35	0	1730150400	60	4269
2026-01-17 22:14:58.12	126.42	10.35	-44.8	-46.0	18.3	0.00e+00	0	35	0	1733296128	60	4293
2026-01-17 22:14:59.13	126.55	10.29	-44.8	-46.0	18.3	0.00e+00	0	35	0	1736441856	60	4318
2026-01-17 22:15:00.14	126.69	10.23	-44.8	-46.0	18.3	0.00e+00	0	35	0	1739587584	60	4306
2026-01-17 22:15:01.14	126.82	10.17	-44.7	-45.9	18.4	0.00e+00	0	35	0	1742733312	60	4243
2026-01-17 22:15:02.15	126.95	10.11	-44.7	-45.9	18.3	0.00e+00	0	35	0	1745879040	60	4285
2026-01-17 22:15:03.16	127.08	10.05	-44.8	-46.0	18.3	0.00e+00	0	35	0	1749024768	60	4308
2026-01-17 22:15:04.17	127.21	9.99	-44.8	-46.0	18.2	0.00e+00	0	35	0	1752170496	60	4321
2026-01-17 22:15:05.17	127.34	9.93	-44.8	-46.1	18.1	0.00e+00	0	35	0	1755316224	60	4348
2026-01-17 22:15:06.18	127.47	9.87	-44.6	-45.8	18.4	0.00e+00	0	35	0	1758461952	60	4205
2026-01-17 22:15:07.19	127.60	9.80	-44.6	-45.8	18.4	0.00e+00	0	36	0	1761607680	60	4203
2026-01-17 22:15:08.20	127.73	9.74	-44.7	-45.9	18.3	0.00e+00	0	35	0	1764753408	60	4270
2026-01-17 22:15:09.21	127.86	9.68	-44.8	-46.0	18.2	0.00e+00	0	35	0	1767899136	60	4308
2026-01-17 22:15:10.22	127.99	9.62	-44.8	-46.1	18.1	0.00e+00	0	35	0	1771044864	60	4347
2026-01-17 22:15:11.22	128.11	9.56	-44.9	-46.2	18.0	0.00e+00	0	36	0	1774190592	60	4408
2026-01-17 22:15:12.23	128.24	9.50	-45.0	-46.3	17.9	0.00e+00	0	35	0	1777336320	60	4452
2026-01-17 22:15:13.24	128.37	9.44	-45.0	-46.3	18.0	0.00e+00	0	35	0	1780482048	60	4442
2026-01-17 22:15:14.24	128.49	9.38	-45.0	-46.2	18.0	0.00e+00	0	35	0	1783627776	60	4441
2026-01-17 22:15:15.25	128.62	9.32	-45.0	-46.2	18.0	0.00e+00	0	35	0	1786773504	60	4441
2026-01-17 22:15:16.26	128.74	9.26	-44.9	-46.1	18.1	0.00e+00	0	35	0	1789919232	60	4383
2026-01-17 22:15:17.27	128.87	9.20	-44.9	-46.2	18.0	0.00e+00	0	35	0	1793064960	60	4409
2026-01-17 22:15:18.28	128.99	9.14	-45.0	-46.3	17.9	0.00e+00	0	35	0	1796210688	60	4473
2026-01-17 22:15:19.28	129.11	9.08	-44.9	-46.2	18.0	0.00e+00	0	35	0	1799356416	60	4398
2026-01-17 22:15:20.29	129.23	9.02	-45.0	-46.2	18.0	0.00e+00	0	35	0	1802502144	60	4434
2026-01-17 22:15:21.30	129.36	8.96	-44.9	-46.2	17.9	0.00e+00	0	35	0	1805647872	60	4422
2026-01-17 22:15:22.31	129.48	8.90	-45.0	-46.3	17.9	0.00e+00	0	35	0	1808793600	60	4453
2026-01-17 22:15:23.32	129.60	8.84	-45.0	-46.3	17.8	0.00e+00	0	36	0	1811939328	60	4476
2026-01-17 22:15:24.32	129.72	8.78	-45.1	-46.4	17.7	0.00e+00	0	35	0	1815085056	60	4540
2026-01-17 22:15:25.33	129.84	8.72	-45.3	-46.6	17.6	0.00e+00	0	35	0	1818230784	61	4360
2026-01-17 22:15:26.34	129.96	8.66	-45.1	-46.4	17.7	0.00e+00	0	35	0	1821376512	61	4283
2026-01-17 22:15:27.35	130.08	8.60	-45.1	-46.4	17.7	0.00e+00	0	35	0	1824522240	61	4289
2026-01-17 22:15:28.36	130.20	8.54	-45.2	-46.6	17.6	0.00e+00	0	35	0	1827667968	61	4354
2026-01-17 22:15:29.36	130.32	8.48	-45.1	-46.5	17.6	0.00e+00	0	36	0	1830813696	61	4297
2026-01-17 22:15:30.37	130.43	8.42	-45.1	-46.5	17.6	0.00e+00	0	35	0	1833959424	61	4292
2026-01-17 22:15:31.38	130.55	8.36	-45.2	-46.6	17.5	0.00e+00	0	36	0	1837105152	61	4349
2026-01-17 22:15:32.38	130.67	8.30	-45.3	-46.6	17.4	0.00e+00	0	35	0	1840250880	61	4391
2026-01-17 22:15:33.39	130.79	8.24	-45.2	-46.5	17.6	0.00e+00	0	35	0	1843396608	61	4334
2026-01-17 22:15:34.40	130.90	8.18	-45.2	-46.5	17.6	0.00e+00	0	35	0	1846542336	61	4314
2026-01-17 22:15:35.41	131.02	8.12	-45.1	-46.4	17.6	0.00e+00	0	36	0	1849688064	61	4281
2026-01-17 22:15:36.42	131.13	8.06	-45.0	-46.3	17.7	0.00e+00	0	35	0	1852833792	61	4230
2026-01-17 22:15:37.42	131.25	8.00	-45.0	-46.3	17.8	0.00e+00	0	35	0	1855979520	61	4223
2026-01-17 22:15:38.43	131.36	7.94	-45.0	-46.3	17.8	0.00e+00	0	35	0	1859125248	61	4198
2026-01-17 22:15:39.44	131.48	7.88	-45.0	-46.3	17.7	0.00e+00	0	35	0	1862270976	61	4221
2026-01-17 22:15:40.45	131.59	7.82	-45.0	-46.3	17.7	0.00e+00	0	35	0	1865416704	61	4217
2026-01-17 22:15:41.46	131.70	7.76	-45.1	-46.4	17.6	0.00e+00	0	35	0	1868562432	61	4282
2026-01-17 22:15:42.46	131.81	7.70	-45.0	-46.3	17.7	0.00e+00	0	35	0	1871708160	61	4229
2026-01-17 22:15:43.47	131.93	7.64	-45.1	-46.4	17.6	0.00e+00	0	35	0	1874853888	61	4287
2026-01-17 22:15:44.48	132.04	7.58	-45.2	-46.6	17.4	0.00e+00	0	35	0	1877999616	61	4352
2026-01-17 22:15:45.49	132.15	7.52	-45.3	-46.6	17.3	0.00e+00	0	35	0	1881145344	61	4385
2026-01-17 22:15:46.49	132.26	7.46	-45.2	-46.6	17.4	0.00e+00	0	35	0	1884291072	61	4365
2026-01-17 22:15:47.50	132.37	7.40	-45.3	-46.7	17.2	0.00e+00	0	35	0	1887436800	61	4427
2026-01-17 22:15:48.51	132.48	7.34	-45.3	-46.7	17.2	0.00e+00	0	35	0	1890582528	61	4430
2026-01-17 22:15:49.52	132.59	7.28	-45.4	-46.8	17.2	0.00e+00	0	35	0	1893728256	61	4463
2026-01-17 22:15:50.52	132.70	7.23	-45.3	-46.7	17.2	0.00e+00	0	36	0	1896873984	61	4439
2026-01-17 22:15:51.53	132.81	7.17	-45.3	-46.6	17.3	0.00e+00	0	36	0	1900019712	61	4389
2026-01-17 22:15:52.54	132.91	7.11	-45.4	-46.8	17.2	0.00e+00	0	35	0	1903165440	61	4453
2026-01-17 22:15:53.55	133.02	7.05	-45.4	-46.8	17.1	0.00e+00	0	36	0	1906311168	61	4470
2026-01-17 22:15:54.56	133.13	6.99	-45.2	-46.6	17.3	0.00e+00	0	35	0	1909456896	61	4368
2026-01-17 22:15:55.56	133.24	6.93	-45.3	-46.7	17.2	0.00e+00	0	35	0	1912602624	61	4427
2026-01-17 22:15:56.57	133.34	6.87	-45.2	-46.6	17.3	0.00e+00	0	36	0	1915748352	61	4366
2026-01-17 22:15:57.58	133.45	6.81	-45.2	-46.6	17.3	0.00e+00	0	35	0	1918894080	61	4364
2026-01-17 22:15:58.59	133.56	6.76	-45.1	-46.5	17.4	0.00e+00	0	35	0	1922039808	61	4314
2026-01-17 22:15:59.60	133.66	6.70	-45.2	-46.5	17.4	0.00e+00	0	35	0	1925185536	61	4326
2026-01-17 22:16:00.60	133.76	6.64	-45.3	-46.7	17.2	0.00e+00	0	35	0	1928331264	61	4402
2026-01-17 22:16:01.61	133.87	6.58	-45.3	-46.8	17.1	0.00e+00	0	35	0	1931476992	61	4449
2026-01-17 22:16:02.62	133.97	6.52	-45.2	-46.6	17.2	0.00e+00	0	35	0	1934622720	61	4382
2026-01-17 22:16:03.63	134.08	6.46	-45.4	-46.9	17.0	0.00e+00	0	35	0	1937768448	61	4498
2026-01-17 22:16:04.64	134.18	6.40	-45.3	-46.8	17.0	0.00e+00	0	35	0	1940914176	61	4454
2026-01-17 22:16:05.64	134.28	6.35	-45.4	-46.9	16.9	0.00e+00	0	35	0	1944059904	61	4513
2026-01-17 22:16:06.65	134.39	6.29	-45.3	-46.8	17.0	0.00e+00	0	35	0	1947205632	61	4448
2026-01-17 22:16:07.66	134.49	6.23	-45.5	-47.0	16.8	0.00e+00	0	35	0	1950351360	61	4564
2026-01-17 22:16:08.67	134.59	6.17	-45.1	-46.5	17.2	0.00e+00	0	36	0	1953497088	61	4328
2026-01-17 22:16:09.68	134.69	6.11	-45.3	-46.8	16.9	0.00e+00	0	35	0	1956642816	61	4469
2026-01-17 22:16:10.69	134.79	6.06	-45.2	-46.7	17.1	0.00e+00	0	35	0	1959788544	61	4394
2026-01-17 22:16:11.70	134.89	6.00	-45.6	-47.1	16.6	0.00e+00	0	35	0	1962934272	61	4648
2026-01-17 22:16:12.70	134.99	5.94	-45.3	-46.8	16.9	0.00e+00	0	35	0	1966080000	61	4459
2026-01-17 22:16:13.71	135.09	5.88	-45.5	-47.0	16.7	0.00e+00	0	35	0	1969225728	61	4564
2026-01-17 22:16:14.72	135.19	5.82	-45.5	-47.0	16.7	0.00e+00	0	35	0	1972371456	61	4597
2026-01-17 22:16:15.73	135.29	5.77	-45.4	-46.9	16.8	0.00e+00	0	35	0	1975517184	61	4517
2026-01-17 22:16:16.74	135.39	5.71	-45.6	-47.1	16.6	0.00e+00	0	36	0	1978662912	62	4363
2026-01-17 22:16:17.74	135.49	5.65	-45.5	-47.0	16.6	0.00e+00	0	35	0	1981808640	62	4323
2026-01-17 22:16:18.75	135.59	5.59	-45.7	-47.2	16.4	0.00e+00	0	35	0	1984954368	62	4434
2026-01-17 22:16:19.76	135.68	5.54	-45.6	-47.1	16.6	0.00e+00	0	35	0	1988100096	62	4361
2026-01-17 22:16:20.77	135.78	5.48	-45.7	-47.2	16.4	0.00e+00	0	35	0	1991245824	62	4426
2026-01-17 22:16:21.77	135.88	5.42	-45.9	-47.5	16.1	0.00e+00	0	36	0	1994391552	62	4593
2026-01-17 22:16:22.78	135.97	5.36	-45.9	-47.5	16.0	0.00e+00	0	36	0	1997537280	62	4590
2026-01-17 22:16:23.79	136.07	5.31	-45.7	-47.3	16.3	0.00e+00	0	35	0	2000683008	62	4486
