passes_logs/2026/01/17/R3.2S_Murmansk/R3.2S_Murmansk__20260117_103129_SUOMI_NPP_rec.log

#Pass ID: 20260117_103129_SUOMI NPP
#Satellite: SUOMI NPP
#Configuration: NPP
#almurnet v.1.7.20251203
#Start time: 2026-01-17 10:31:31

#Version: 2.2.20231116
#Station: R3.2S_Murmansk
#Location: 33.079688 lon 68.888172 lat
#TLE: 1 37849U 11061A   26016.58419598  .00000058  00000+0  48257-4 0  9996
#TLE: 2 37849  98.7812 318.6192 0002422  60.8544 299.2874 14.19525580736934

#Time	Az	El	Level	Level2	SNR	BER	BlckErr	Temp	State	Recorded	gain1	gain2
2026-01-17 10:31:31.29	174.36	2.09	-52.1	-67.0	3.8	1.49e+00	0	32	0	0	76	19345
2026-01-17 10:31:32.29	174.39	2.15	-52.1	-67.0	3.8	1.49e+00	0	32	104	0	74	21714
2026-01-17 10:31:33.30	174.42	2.21	-52.1	-67.0	3.8	1.49e+00	0	32	104	0	74	21557
2026-01-17 10:31:34.30	174.45	2.28	-52.1	-66.9	3.8	1.49e+00	0	32	104	0	74	21346
2026-01-17 10:31:35.31	174.48	2.34	-52.1	-66.8	3.8	1.49e+00	0	32	104	0	74	21047
2026-01-17 10:31:36.32	174.51	2.41	-52.1	-66.7	3.8	1.49e+00	0	32	104	0	74	20961
2026-01-17 10:31:37.33	174.54	2.47	-52.1	-66.6	3.8	1.49e+00	0	32	104	0	74	20680
2026-01-17 10:31:38.34	174.57	2.54	-52.1	-66.7	3.8	1.49e+00	0	32	104	0	74	20802
2026-01-17 10:31:39.34	174.60	2.60	-52.0	-66.7	3.8	1.49e+00	0	33	104	0	74	20805
2026-01-17 10:31:40.35	174.63	2.66	-52.1	-66.8	3.8	1.49e+00	0	32	104	0	74	21025
2026-01-17 10:31:41.36	174.66	2.73	-52.1	-66.6	3.8	1.49e+00	0	32	104	0	74	20774
2026-01-17 10:31:42.37	174.69	2.79	-52.1	-66.7	3.8	1.49e+00	0	33	104	0	74	20971
2026-01-17 10:31:43.38	174.72	2.86	-52.1	-66.6	3.8	1.49e+00	0	33	104	0	74	20761
2026-01-17 10:31:44.38	174.75	2.92	-52.1	-66.5	3.8	1.49e+00	0	33	104	0	74	20533
2026-01-17 10:31:45.39	174.78	2.99	-52.1	-66.6	3.8	1.49e+00	0	33	104	0	74	20615
2026-01-17 10:31:46.40	174.81	3.06	-52.1	-66.6	3.8	1.49e+00	0	33	104	0	74	20568
2026-01-17 10:31:47.41	174.84	3.12	-52.1	-66.6	3.8	1.49e+00	0	33	104	0	74	20646
2026-01-17 10:31:48.42	174.87	3.19	-52.1	-66.7	3.8	1.49e+00	0	33	104	0	74	20959
2026-01-17 10:31:49.42	174.90	3.25	-52.1	-66.9	3.8	1.49e+00	0	33	104	0	74	21398
2026-01-17 10:31:50.43	174.93	3.32	-52.1	-67.1	3.8	1.49e+00	0	33	104	0	74	21760
2026-01-17 10:31:51.44	174.96	3.39	-52.1	-67.0	3.8	1.49e+00	0	33	104	0	74	21708
2026-01-17 10:31:52.45	175.00	3.45	-52.1	-66.7	3.8	1.49e+00	0	33	104	0	74	20952
2026-01-17 10:31:53.46	175.03	3.52	-52.0	-66.1	3.8	1.49e+00	0	33	104	0	74	19557
2026-01-17 10:31:54.46	175.06	3.59	-52.0	-65.1	3.8	1.49e+00	0	33	104	0	74	17342
2026-01-17 10:31:55.47	175.09	3.65	-51.9	-63.9	3.9	1.49e+00	0	33	104	0	74	15140
2026-01-17 10:31:56.48	175.12	3.72	-51.8	-62.8	4.4	1.34e+00	152	33	0	0	74	13305
2026-01-17 10:31:57.49	175.16	3.79	-51.8	-62.3	4.6	9.81e-01	0	33	0	2097152	74	12555
2026-01-17 10:31:58.50	175.19	3.86	-51.6	-61.1	5.2	7.35e-01	0	33	0	3145728	74	10943
2026-01-17 10:31:59.51	175.22	3.92	-51.6	-60.4	5.7	4.59e-01	0	33	0	5242880	74	10113
2026-01-17 10:32:00.52	175.25	3.99	-51.5	-59.9	6.1	2.50e-01	0	33	0	7340032	74	9558
2026-01-17 10:32:01.52	175.29	4.06	-51.3	-58.9	6.8	2.94e-01	0	33	0	9437184	74	8540
2026-01-17 10:32:02.53	175.32	4.13	-51.1	-58.0	7.7	1.30e-01	0	33	0	11534336	74	7717
2026-01-17 10:32:03.54	175.35	4.20	-51.0	-57.4	8.4	7.56e-02	0	33	0	12582912	74	7135
2026-01-17 10:32:04.55	175.38	4.26	-50.7	-56.4	9.3	3.66e-02	0	33	0	14680064	73	6763
2026-01-17 10:32:05.56	175.42	4.33	-50.4	-55.4	10.4	5.96e-03	0	33	0	16777216	72	6419
2026-01-17 10:32:06.56	175.45	4.40	-50.1	-54.8	11.1	2.75e-03	0	33	0	18874368	72	5940
2026-01-17 10:32:07.57	175.49	4.47	-49.9	-54.0	11.8	1.60e-03	0	33	0	20971520	71	5779
2026-01-17 10:32:08.58	175.52	4.54	-49.4	-53.1	12.9	9.46e-05	0	33	0	22020096	70	5484
2026-01-17 10:32:09.59	175.55	4.61	-49.1	-52.4	13.6	2.89e-05	0	33	0	24117248	70	5053
2026-01-17 10:32:10.60	175.59	4.68	-48.6	-51.5	14.5	1.50e-06	0	33	0	26214400	69	4825
2026-01-17 10:32:11.60	175.62	4.75	-48.5	-51.4	14.6	7.00e-07	0	33	0	28311552	69	4795
2026-01-17 10:32:12.61	175.66	4.82	-48.2	-50.9	15.1	0.00e+00	0	33	0	30408704	68	4778
2026-01-17 10:32:13.62	175.69	4.89	-48.1	-50.8	15.3	0.00e+00	0	33	0	31457280	68	4724
2026-01-17 10:32:14.63	175.72	4.96	-48.2	-50.9	15.1	0.00e+00	0	33	0	33554432	68	4771
2026-01-17 10:32:15.64	175.76	5.03	-48.3	-51.1	14.9	0.00e+00	0	33	0	35651584	68	4900
2026-01-17 10:32:16.65	175.79	5.10	-48.2	-50.9	15.2	0.00e+00	0	33	0	37748736	68	4798
2026-01-17 10:32:17.66	175.83	5.17	-49.1	-52.5	13.6	0.00e+00	0	33	0	39845888	68	5727
2026-01-17 10:32:18.66	175.86	5.24	-48.8	-51.8	14.4	6.44e-04	0	33	0	40894464	69	4994
2026-01-17 10:32:19.67	175.90	5.31	-49.6	-53.3	12.8	1.32e-03	0	33	0	42991616	71	5327
2026-01-17 10:32:20.68	175.93	5.38	-49.2	-52.7	13.5	4.95e-05	0	33	0	45088768	69	5545
2026-01-17 10:32:21.69	175.97	5.45	-49.1	-52.4	13.4	1.21e-02	0	33	0	47185920	70	5095
2026-01-17 10:32:22.70	176.01	5.53	-48.6	-51.5	14.6	7.00e-07	0	33	0	49283072	69	4844
2026-01-17 10:32:23.70	176.04	5.60	-48.6	-51.5	14.6	7.00e-07	0	33	0	51380224	69	4818
2026-01-17 10:32:24.71	176.08	5.67	-48.4	-51.2	14.9	7.00e-07	0	33	0	52428800	68	4946
2026-01-17 10:32:25.72	176.11	5.74	-48.3	-51.0	15.1	7.00e-07	0	33	0	54525952	68	4849
2026-01-17 10:32:26.73	176.15	5.82	-48.5	-51.3	14.9	0.00e+00	0	33	0	56623104	68	4994
2026-01-17 10:32:27.73	176.19	5.89	-48.1	-50.7	15.4	0.00e+00	0	34	0	58720256	68	4662
2026-01-17 10:32:28.74	176.22	5.96	-48.5	-51.3	14.8	0.00e+00	0	34	0	59768832	68	5002
2026-01-17 10:32:29.75	176.26	6.03	-48.1	-50.7	15.4	0.00e+00	0	33	0	61865984	68	4659
2026-01-17 10:32:30.76	176.30	6.11	-48.2	-50.8	15.4	0.00e+00	0	34	0	63963136	68	4739
2026-01-17 10:32:31.77	176.34	6.18	-47.9	-50.3	15.8	0.00e+00	0	33	0	66060288	67	4734
2026-01-17 10:32:32.78	176.37	6.25	-47.8	-50.3	15.8	0.00e+00	0	34	0	68157440	67	4719
2026-01-17 10:32:33.79	176.41	6.33	-47.9	-50.4	15.7	0.00e+00	0	34	0	69206016	67	4774
2026-01-17 10:32:34.79	176.45	6.40	-48.0	-50.6	15.5	0.00e+00	0	34	0	71303168	67	4875
2026-01-17 10:32:35.80	176.49	6.48	-48.0	-50.5	15.6	0.00e+00	0	34	0	73400320	67	4832
2026-01-17 10:32:36.80	176.52	6.55	-47.9	-50.3	15.8	0.00e+00	0	34	0	75497472	67	4750
2026-01-17 10:32:37.81	176.56	6.62	-47.7	-50.0	16.1	0.00e+00	0	34	0	77594624	67	4596
2026-01-17 10:32:38.82	176.60	6.70	-48.0	-50.4	15.7	0.00e+00	0	34	0	79691776	67	4796
2026-01-17 10:32:39.83	176.64	6.77	-47.9	-50.3	16.0	0.00e+00	0	34	0	80740352	67	4710
2026-01-17 10:32:40.84	176.68	6.85	-48.1	-50.6	15.6	0.00e+00	0	34	0	82837504	67	4912
2026-01-17 10:32:41.84	176.72	6.92	-48.0	-50.4	15.8	0.00e+00	0	34	0	84934656	67	4811
2026-01-17 10:32:42.85	176.76	7.00	-47.9	-50.3	15.9	0.00e+00	0	34	0	87031808	67	4708
2026-01-17 10:32:43.86	176.80	7.08	-48.0	-50.4	15.8	0.00e+00	0	34	0	88080384	67	4799
2026-01-17 10:32:44.87	176.84	7.15	-47.9	-50.3	15.9	0.00e+00	0	34	0	90177536	67	4740
2026-01-17 10:32:45.88	176.88	7.23	-47.6	-49.9	16.3	0.00e+00	0	34	0	92274688	67	4513
2026-01-17 10:32:46.89	176.92	7.31	-47.7	-50.0	16.3	0.00e+00	0	34	0	94371840	67	4581
2026-01-17 10:32:47.90	176.96	7.38	-47.7	-49.9	16.3	0.00e+00	0	34	0	96468992	67	4534
2026-01-17 10:32:48.91	177.00	7.46	-47.6	-49.8	16.4	0.00e+00	0	34	0	98566144	67	4470
2026-01-17 10:32:49.92	177.04	7.54	-47.8	-50.1	16.3	0.00e+00	0	34	0	99614720	67	4603
2026-01-17 10:32:50.93	177.08	7.61	-47.6	-49.8	16.5	0.00e+00	0	34	0	101711872	66	4728
2026-01-17 10:32:51.93	177.12	7.69	-47.5	-49.6	16.6	0.00e+00	0	34	0	103809024	66	4646
2026-01-17 10:32:52.94	177.16	7.77	-47.4	-49.5	16.8	0.00e+00	0	34	0	105906176	66	4593
2026-01-17 10:32:53.95	177.20	7.85	-47.3	-49.4	16.9	0.00e+00	0	34	0	108003328	66	4514
2026-01-17 10:32:54.96	177.24	7.93	-47.4	-49.4	16.9	0.00e+00	0	34	0	109051904	66	4529
2026-01-17 10:32:55.97	177.29	8.01	-47.5	-49.6	16.7	0.00e+00	0	34	0	111149056	66	4622
2026-01-17 10:32:56.98	177.33	8.08	-47.2	-49.2	17.1	0.00e+00	0	34	0	113246208	66	4431
2026-01-17 10:32:57.99	177.37	8.16	-47.1	-49.1	17.2	0.00e+00	0	34	0	115343360	66	4371
2026-01-17 10:32:58.99	177.41	8.24	-47.3	-49.3	17.1	0.00e+00	0	34	0	117440512	66	4443
2026-01-17 10:33:00.00	177.45	8.32	-47.3	-49.3	17.1	0.00e+00	0	34	0	118489088	66	4482
2026-01-17 10:33:01.01	177.50	8.40	-47.2	-49.2	17.1	0.00e+00	0	34	0	120586240	66	4438
2026-01-17 10:33:02.02	177.54	8.48	-47.0	-48.9	17.4	0.00e+00	0	34	0	122683392	65	4510
2026-01-17 10:33:03.03	177.58	8.56	-47.1	-49.0	17.3	0.00e+00	0	34	0	124780544	65	4592
2026-01-17 10:33:04.03	177.63	8.64	-46.9	-48.8	17.6	0.00e+00	0	34	0	126877696	65	4449
2026-01-17 10:33:05.04	177.67	8.72	-47.1	-49.1	17.3	0.00e+00	0	34	0	127926272	65	4599
2026-01-17 10:33:06.05	177.71	8.80	-47.2	-49.1	17.3	0.00e+00	0	34	0	130023424	65	4627
2026-01-17 10:33:07.06	177.76	8.89	-47.0	-48.9	17.4	0.00e+00	0	34	0	132120576	65	4539
2026-01-17 10:33:08.07	177.80	8.97	-47.0	-48.9	17.4	0.00e+00	0	34	0	134217728	65	4527
2026-01-17 10:33:09.08	177.85	9.05	-46.8	-48.7	17.7	0.00e+00	0	34	0	136314880	65	4407
2026-01-17 10:33:10.08	177.89	9.13	-47.0	-48.9	17.6	0.00e+00	0	34	0	137363456	65	4497
2026-01-17 10:33:11.09	177.94	9.21	-46.8	-48.7	17.8	0.00e+00	0	34	0	139460608	65	4401
2026-01-17 10:33:12.10	177.98	9.30	-47.0	-48.8	17.6	0.00e+00	0	34	0	141557760	65	4488
2026-01-17 10:33:13.11	178.03	9.38	-47.0	-48.9	17.6	0.00e+00	0	34	0	143654912	65	4503
2026-01-17 10:33:14.12	178.07	9.46	-47.0	-48.8	17.6	0.00e+00	0	34	0	145752064	65	4493
2026-01-17 10:33:15.13	178.12	9.55	-47.0	-48.9	17.5	0.00e+00	0	34	0	146800640	65	4523
2026-01-17 10:33:16.14	178.17	9.63	-47.0	-48.9	17.6	0.00e+00	0	34	0	148897792	65	4502
2026-01-17 10:33:17.14	178.21	9.71	-46.9	-48.7	17.7	0.00e+00	0	34	0	150994944	65	4436
2026-01-17 10:33:18.15	178.26	9.80	-46.8	-48.7	17.8	0.00e+00	0	34	0	153092096	65	4392
2026-01-17 10:33:19.16	178.31	9.88	-46.9	-48.8	17.7	0.00e+00	0	34	0	155189248	65	4455
2026-01-17 10:33:20.17	178.35	9.97	-46.8	-48.6	17.9	0.00e+00	0	34	0	156237824	65	4381
2026-01-17 10:33:21.18	178.40	10.05	-46.7	-48.5	18.0	0.00e+00	0	34	0	158334976	65	4296
2026-01-17 10:33:22.19	178.45	10.14	-46.7	-48.5	18.0	0.00e+00	0	34	0	160432128	65	4334
2026-01-17 10:33:23.19	178.50	10.22	-46.7	-48.5	18.0	0.00e+00	0	34	0	162529280	65	4317
2026-01-17 10:33:24.20	178.55	10.31	-46.6	-48.3	18.1	0.00e+00	0	34	0	164626432	65	4241
2026-01-17 10:33:25.21	178.59	10.39	-46.7	-48.4	18.1	0.00e+00	0	34	0	166723584	65	4275
2026-01-17 10:33:26.22	178.64	10.48	-46.6	-48.4	18.1	0.00e+00	0	34	0	167772160	65	4259
2026-01-17 10:33:27.22	178.69	10.57	-46.4	-48.1	18.4	0.00e+00	0	34	0	169869312	64	4377
2026-01-17 10:33:28.23	178.74	10.65	-46.3	-47.9	18.5	0.00e+00	0	34	0	171966464	64	4280
2026-01-17 10:33:29.24	178.79	10.74	-46.5	-48.2	18.3	0.00e+00	0	34	0	174063616	64	4422
2026-01-17 10:33:30.25	178.84	10.83	-46.4	-48.1	18.3	0.00e+00	0	34	0	175112192	64	4385
2026-01-17 10:33:31.26	178.89	10.92	-46.4	-48.0	18.5	0.00e+00	0	34	0	177209344	64	4325
2026-01-17 10:33:32.27	178.94	11.00	-46.4	-48.1	18.4	0.00e+00	0	34	0	179306496	64	4364
2026-01-17 10:33:33.27	178.99	11.09	-46.4	-48.1	18.4	0.00e+00	0	34	0	181403648	64	4361
2026-01-17 10:33:34.28	179.04	11.18	-46.5	-48.2	18.3	0.00e+00	0	34	0	183500800	64	4411
2026-01-17 10:33:35.29	179.09	11.27	-46.3	-48.0	18.5	0.00e+00	0	34	0	184549376	64	4308
2026-01-17 10:33:36.30	179.15	11.36	-46.2	-47.8	18.7	0.00e+00	0	34	0	186646528	64	4221
2026-01-17 10:33:37.31	179.20	11.45	-46.4	-48.1	18.4	0.00e+00	0	34	0	188743680	64	4356
2026-01-17 10:33:38.31	179.25	11.54	-46.4	-48.1	18.5	0.00e+00	0	34	0	190840832	64	4348
2026-01-17 10:33:39.32	179.30	11.63	-46.5	-48.1	18.4	0.00e+00	0	34	0	192937984	64	4391
2026-01-17 10:33:40.33	179.36	11.72	-46.3	-48.0	18.6	0.00e+00	0	34	0	195035136	64	4292
2026-01-17 10:33:41.34	179.41	11.81	-46.2	-47.8	18.7	0.00e+00	0	34	0	196083712	64	4234
2026-01-17 10:33:42.35	179.46	11.90	-46.3	-47.9	18.6	0.00e+00	0	34	0	198180864	64	4286
2026-01-17 10:33:43.35	179.51	11.99	-46.4	-48.1	18.5	0.00e+00	0	34	0	200278016	64	4359
2026-01-17 10:33:44.36	179.57	12.08	-46.3	-48.0	18.6	0.00e+00	0	34	0	202375168	64	4294
2026-01-17 10:33:45.37	179.62	12.18	-46.4	-48.1	18.5	0.00e+00	0	34	0	203423744	64	4367
2026-01-17 10:33:46.38	179.68	12.27	-46.4	-48.0	18.5	0.00e+00	0	34	0	205520896	64	4326
2026-01-17 10:33:47.39	179.73	12.36	-46.4	-48.0	18.6	0.00e+00	0	34	0	207618048	64	4306
2026-01-17 10:33:48.40	179.79	12.46	-46.2	-47.8	18.8	0.00e+00	0	34	0	209715200	64	4225
2026-01-17 10:33:49.41	179.84	12.55	-46.4	-48.1	18.5	0.00e+00	0	34	0	211812352	64	4349
2026-01-17 10:33:50.42	179.90	12.64	-46.4	-48.1	18.5	0.00e+00	0	34	0	213909504	64	4367
2026-01-17 10:33:51.43	179.96	12.74	-46.4	-48.1	18.5	0.00e+00	0	34	0	214958080	64	4364
2026-01-17 10:33:52.43	180.01	12.83	-46.4	-48.0	18.5	0.00e+00	0	34	0	217055232	64	4340
2026-01-17 10:33:53.44	180.07	12.93	-46.2	-47.8	18.8	0.00e+00	0	34	0	219152384	64	4198
2026-01-17 10:33:54.45	180.13	13.02	-46.3	-47.9	18.7	0.00e+00	0	34	0	221249536	64	4272
2026-01-17 10:33:55.46	180.18	13.12	-46.2	-47.7	18.9	0.00e+00	0	34	0	223346688	64	4182
2026-01-17 10:33:56.46	180.24	13.21	-46.2	-47.7	18.9	0.00e+00	0	34	0	224395264	64	4193
2026-01-17 10:33:57.47	180.30	13.31	-46.3	-47.8	18.8	0.00e+00	0	34	0	226492416	64	4236
2026-01-17 10:33:58.48	180.36	13.41	-46.3	-48.0	18.7	0.00e+00	0	34	0	228589568	64	4293
2026-01-17 10:33:59.49	180.42	13.50	-46.1	-47.7	18.9	0.00e+00	0	34	0	230686720	64	4170
2026-01-17 10:34:00.50	180.48	13.60	-46.2	-47.8	18.8	0.00e+00	0	34	0	232783872	64	4201
2026-01-17 10:34:01.50	180.54	13.70	-46.2	-47.8	18.8	0.00e+00	0	34	0	233832448	64	4213
2026-01-17 10:34:02.51	180.60	13.80	-46.3	-47.9	18.7	0.00e+00	0	34	0	235929600	64	4249
2026-01-17 10:34:03.52	180.66	13.90	-46.2	-47.7	18.9	0.00e+00	0	34	0	238026752	64	4190
2026-01-17 10:34:04.53	180.72	13.99	-46.2	-47.8	18.8	0.00e+00	0	34	0	240123904	64	4231
2026-01-17 10:34:05.53	180.78	14.09	-46.2	-47.8	18.8	0.00e+00	0	34	0	242221056	64	4225
2026-01-17 10:34:06.55	180.84	14.19	-46.4	-48.0	18.7	0.00e+00	0	34	0	243269632	64	4318
2026-01-17 10:34:07.55	180.90	14.29	-46.4	-48.0	18.6	0.00e+00	0	34	0	245366784	64	4323
2026-01-17 10:34:08.56	180.97	14.39	-46.5	-48.2	18.5	0.00e+00	0	34	0	247463936	64	4417
2026-01-17 10:34:09.57	181.03	14.49	-46.5	-48.1	18.5	0.00e+00	0	34	0	249561088	64	4378
2026-01-17 10:34:10.58	181.09	14.60	-46.4	-48.0	18.6	0.00e+00	0	34	0	251658240	64	4331
2026-01-17 10:34:11.59	181.16	14.70	-46.3	-47.9	18.8	0.00e+00	0	34	0	252706816	64	4255
2026-01-17 10:34:12.59	181.22	14.80	-46.4	-48.0	18.6	0.00e+00	0	34	0	254803968	64	4336
2026-01-17 10:34:13.60	181.28	14.90	-46.3	-47.8	18.8	0.00e+00	0	34	0	256901120	64	4235
2026-01-17 10:34:14.61	181.35	15.00	-46.5	-48.1	18.6	0.00e+00	0	34	0	258998272	64	4357
2026-01-17 10:34:15.62	181.41	15.11	-46.3	-47.9	18.8	0.00e+00	0	34	0	261095424	64	4268
2026-01-17 10:34:16.62	181.48	15.21	-46.3	-47.9	18.8	0.00e+00	0	34	0	262144000	64	4256
2026-01-17 10:34:17.63	181.55	15.31	-46.3	-47.9	18.8	0.00e+00	0	34	0	264241152	64	4258
2026-01-17 10:34:18.64	181.61	15.42	-46.1	-47.7	19.0	0.00e+00	0	34	0	266338304	64	4157
2026-01-17 10:34:19.65	181.68	15.52	-46.0	-47.5	19.2	0.00e+00	0	34	0	268435456	64	4086
2026-01-17 10:34:20.66	181.75	15.63	-46.1	-47.7	19.0	0.00e+00	0	34	0	270532608	64	4159
2026-01-17 10:34:21.66	181.81	15.73	-46.1	-47.7	19.0	0.00e+00	0	34	0	271581184	64	4148
2026-01-17 10:34:22.67	181.88	15.84	-46.0	-47.5	19.2	0.00e+00	0	34	0	273678336	64	4052
2026-01-17 10:34:23.68	181.95	15.95	-46.1	-47.6	19.1	0.00e+00	0	34	0	275775488	63	4387
2026-01-17 10:34:24.69	182.02	16.05	-45.9	-47.3	19.4	0.00e+00	0	34	0	277872640	63	4230
2026-01-17 10:34:25.70	182.09	16.16	-45.9	-47.3	19.5	0.00e+00	0	34	0	279969792	63	4206
2026-01-17 10:34:26.70	182.16	16.27	-45.7	-47.1	19.6	0.00e+00	0	34	0	281018368	63	4129
2026-01-17 10:34:27.71	182.23	16.38	-45.9	-47.4	19.4	0.00e+00	0	34	0	283115520	63	4262
2026-01-17 10:34:28.72	182.30	16.49	-46.0	-47.5	19.3	0.00e+00	0	34	0	285212672	63	4316
2026-01-17 10:34:29.73	182.38	16.59	-45.9	-47.3	19.5	0.00e+00	0	34	0	287309824	63	4226
2026-01-17 10:34:30.74	182.45	16.70	-45.9	-47.3	19.4	0.00e+00	0	34	0	289406976	63	4239
2026-01-17 10:34:31.75	182.52	16.81	-46.0	-47.5	19.3	0.00e+00	0	34	0	290455552	63	4297
2026-01-17 10:34:32.75	182.59	16.92	-46.0	-47.4	19.4	0.00e+00	0	34	0	292552704	63	4274
2026-01-17 10:34:33.76	182.67	17.04	-45.9	-47.4	19.4	0.00e+00	0	34	0	294649856	63	4255
2026-01-17 10:34:34.77	182.74	17.15	-46.2	-47.8	19.1	0.00e+00	0	34	0	296747008	63	4446
2026-01-17 10:34:35.77	182.82	17.26	-46.0	-47.5	19.3	0.00e+00	0	34	0	298844160	63	4313
2026-01-17 10:34:36.78	182.89	17.37	-46.0	-47.5	19.3	0.00e+00	0	34	0	299892736	63	4306
2026-01-17 10:34:37.79	182.97	17.48	-46.0	-47.4	19.4	0.00e+00	0	34	0	301989888	63	4278
2026-01-17 10:34:38.80	183.04	17.60	-46.0	-47.4	19.4	0.00e+00	0	34	0	304087040	63	4275
2026-01-17 10:34:39.81	183.12	17.71	-45.7	-47.1	19.7	0.00e+00	0	34	0	306184192	63	4131
2026-01-17 10:34:40.82	183.20	17.83	-45.9	-47.3	19.5	0.00e+00	0	34	0	308281344	63	4215
2026-01-17 10:34:41.82	183.27	17.94	-45.8	-47.2	19.6	0.00e+00	0	34	0	309329920	63	4159
2026-01-17 10:34:42.83	183.35	18.05	-45.7	-47.0	19.8	0.00e+00	0	34	0	311427072	63	4094
2026-01-17 10:34:43.84	183.43	18.17	-45.7	-47.0	19.7	0.00e+00	0	34	0	313524224	63	4096
2026-01-17 10:34:44.85	183.51	18.29	-45.7	-47.0	19.8	0.00e+00	0	34	0	315621376	63	4093
2026-01-17 10:34:45.86	183.59	18.40	-45.6	-46.9	19.9	0.00e+00	0	34	0	317718528	63	4047
2026-01-17 10:34:46.86	183.67	18.52	-45.6	-47.0	19.8	0.00e+00	0	34	0	318767104	63	4060
2026-01-17 10:34:47.87	183.75	18.64	-45.6	-47.0	19.8	0.00e+00	0	34	0	320864256	63	4062
2026-01-17 10:34:48.88	183.84	18.76	-45.4	-46.8	20.0	0.00e+00	0	34	0	322961408	62	4206
2026-01-17 10:34:49.89	183.92	18.88	-45.6	-46.9	19.9	0.00e+00	0	34	0	325058560	62	4290
2026-01-17 10:34:50.90	184.00	18.99	-45.4	-46.7	20.1	0.00e+00	0	34	0	327155712	62	4154
2026-01-17 10:34:51.91	184.09	19.11	-45.2	-46.5	20.3	0.00e+00	0	34	0	329252864	62	4072
2026-01-17 10:34:52.92	184.17	19.24	-45.1	-46.4	20.4	0.00e+00	0	34	0	330301440	62	4007
2026-01-17 10:34:53.92	184.26	19.35	-45.0	-46.2	20.5	0.00e+00	0	34	0	332398592	61	4175
2026-01-17 10:34:54.93	184.34	19.48	-44.8	-46.0	20.7	0.00e+00	0	34	0	334495744	61	4094
2026-01-17 10:34:55.94	184.43	19.60	-44.8	-46.0	20.7	0.00e+00	0	34	0	336592896	61	4094
2026-01-17 10:34:56.95	184.52	19.72	-44.8	-46.0	20.8	0.00e+00	0	34	0	338690048	61	4052
2026-01-17 10:34:57.96	184.60	19.84	-44.7	-45.9	20.9	0.00e+00	0	34	0	339738624	61	4011
2026-01-17 10:34:58.97	184.69	19.97	-44.5	-45.7	21.0	0.00e+00	0	34	0	341835776	61	3945
2026-01-17 10:34:59.98	184.78	20.09	-44.6	-45.8	20.9	0.00e+00	0	34	0	343932928	61	3982
2026-01-17 10:35:00.98	184.87	20.22	-44.6	-45.8	20.9	0.00e+00	0	34	0	346030080	61	3994
2026-01-17 10:35:01.99	184.96	20.34	-44.8	-46.0	20.8	0.00e+00	0	34	0	348127232	61	4070
2026-01-17 10:35:03.00	185.05	20.47	-44.9	-46.2	20.6	0.00e+00	0	34	0	349175808	61	4161
2026-01-17 10:35:04.01	185.14	20.59	-45.0	-46.3	20.5	0.00e+00	0	34	0	351272960	61	4217
2026-01-17 10:35:05.02	185.24	20.72	-45.1	-46.4	20.4	0.00e+00	0	34	0	353370112	61	4260
2026-01-17 10:35:06.02	185.33	20.85	-45.1	-46.4	20.4	0.00e+00	0	34	0	355467264	61	4283
2026-01-17 10:35:07.03	185.42	20.98	-45.4	-46.7	20.0	0.00e+00	0	34	0	357564416	61	4426
2026-01-17 10:35:08.04	185.52	21.10	-45.4	-46.8	20.1	0.00e+00	0	34	0	358612992	61	4462
2026-01-17 10:35:09.05	185.62	21.23	-45.3	-46.6	20.2	0.00e+00	0	34	0	360710144	61	4358
2026-01-17 10:35:10.06	185.71	21.36	-45.2	-46.5	20.3	0.00e+00	0	34	0	362807296	61	4314
2026-01-17 10:35:11.07	185.81	21.49	-45.3	-46.6	20.2	0.00e+00	0	34	0	364904448	61	4369
2026-01-17 10:35:12.07	185.91	21.62	-45.2	-46.5	20.3	0.00e+00	0	34	0	367001600	61	4330
2026-01-17 10:35:13.08	186.01	21.76	-45.2	-46.5	20.4	0.00e+00	0	34	0	368050176	61	4306
2026-01-17 10:35:14.09	186.10	21.89	-45.3	-46.6	20.2	0.00e+00	0	34	0	370147328	61	4366
2026-01-17 10:35:15.10	186.21	22.02	-45.2	-46.5	20.3	0.00e+00	0	34	0	372244480	61	4340
2026-01-17 10:35:16.11	186.31	22.16	-45.3	-46.6	20.2	0.00e+00	0	34	0	374341632	61	4355
2026-01-17 10:35:17.12	186.41	22.29	-45.1	-46.4	20.5	0.00e+00	0	34	0	376438784	61	4243
2026-01-17 10:35:18.12	186.51	22.42	-45.0	-46.3	20.6	0.00e+00	0	34	0	377487360	61	4213
2026-01-17 10:35:19.13	186.61	22.56	-45.0	-46.3	20.6	0.00e+00	0	34	0	379584512	61	4196
2026-01-17 10:35:20.14	186.72	22.70	-44.9	-46.2	20.6	0.00e+00	0	34	0	381681664	61	4174
2026-01-17 10:35:21.15	186.83	22.83	-45.0	-46.3	20.5	0.00e+00	0	34	0	383778816	61	4220
2026-01-17 10:35:22.16	186.93	22.97	-44.9	-46.2	20.6	0.00e+00	0	34	0	385875968	61	4170
2026-01-17 10:35:23.17	187.04	23.11	-44.8	-46.0	20.8	0.00e+00	0	34	0	386924544	61	4090
2026-01-17 10:35:24.18	187.15	23.25	-44.7	-45.9	20.9	0.00e+00	0	34	0	389021696	61	4019
2026-01-17 10:35:25.18	187.26	23.38	-44.8	-46.1	20.7	0.00e+00	0	34	0	391118848	61	4107
2026-01-17 10:35:26.19	187.37	23.52	-44.6	-45.8	21.0	0.00e+00	0	34	0	393216000	61	3979
2026-01-17 10:35:27.20	187.48	23.66	-44.5	-45.7	21.1	0.00e+00	0	34	0	395313152	61	3944
2026-01-17 10:35:28.21	187.59	23.81	-44.5	-45.7	21.1	0.00e+00	0	34	0	396361728	61	3938
2026-01-17 10:35:29.22	187.70	23.95	-44.4	-45.6	21.2	0.00e+00	0	34	0	398458880	60	4106
2026-01-17 10:35:30.23	187.82	24.09	-44.4	-45.5	21.2	0.00e+00	0	34	0	400556032	60	4080
2026-01-17 10:35:31.24	187.93	24.23	-44.4	-45.6	21.1	0.00e+00	0	34	0	402653184	60	4128
2026-01-17 10:35:32.24	188.05	24.38	-44.3	-45.5	21.3	0.00e+00	0	34	0	404750336	60	4068
2026-01-17 10:35:33.25	188.16	24.52	-44.4	-45.5	21.3	0.00e+00	0	34	0	405798912	60	4075
2026-01-17 10:35:34.26	188.28	24.67	-44.2	-45.4	21.4	0.00e+00	0	34	0	407896064	60	4008
2026-01-17 10:35:35.27	188.40	24.81	-44.2	-45.4	21.4	0.00e+00	0	34	0	409993216	60	4010
2026-01-17 10:35:36.28	188.52	24.96	-44.2	-45.3	21.4	0.00e+00	0	34	0	412090368	60	3974
2026-01-17 10:35:37.29	188.64	25.11	-44.2	-45.3	21.4	0.00e+00	0	34	0	414187520	60	4000
2026-01-17 10:35:38.29	188.77	25.25	-44.2	-45.3	21.5	0.00e+00	0	34	0	416284672	60	3981
2026-01-17 10:35:39.30	188.89	25.40	-44.4	-45.6	21.2	0.00e+00	0	34	0	417333248	60	4119
2026-01-17 10:35:40.31	189.01	25.55	-44.3	-45.5	21.3	0.00e+00	0	35	0	419430400	60	4057
2026-01-17 10:35:41.32	189.14	25.70	-44.2	-45.3	21.4	0.00e+00	0	34	0	421527552	60	3983
2026-01-17 10:35:42.32	189.27	25.85	-44.5	-45.6	21.1	0.00e+00	0	34	0	423624704	60	4136
2026-01-17 10:35:43.33	189.39	26.00	-44.4	-45.5	21.3	0.00e+00	0	34	0	424673280	60	4068
2026-01-17 10:35:44.34	189.52	26.15	-44.3	-45.4	21.3	0.00e+00	0	34	0	426770432	60	4037
2026-01-17 10:35:45.35	189.65	26.31	-44.5	-45.6	21.2	0.00e+00	0	34	0	428867584	60	4144
2026-01-17 10:35:46.36	189.79	26.46	-44.4	-45.6	21.2	0.00e+00	0	34	0	430964736	60	4114
2026-01-17 10:35:47.36	189.92	26.61	-44.6	-45.7	21.1	0.00e+00	0	34	0	433061888	60	4183
2026-01-17 10:35:48.37	190.05	26.77	-44.7	-45.9	21.0	0.00e+00	0	34	0	434110464	60	4253
2026-01-17 10:35:49.38	190.19	26.93	-44.9	-46.1	20.8	0.00e+00	0	34	0	436207616	60	4351
2026-01-17 10:35:50.39	190.32	27.08	-45.0	-46.3	20.6	0.00e+00	0	34	0	438304768	60	4466
2026-01-17 10:35:51.40	190.46	27.24	-45.2	-46.4	20.5	0.00e+00	0	34	0	440401920	61	4289
2026-01-17 10:35:52.40	190.60	27.40	-45.5	-46.8	20.1	0.00e+00	0	34	0	442499072	61	4478
2026-01-17 10:35:53.41	190.74	27.55	-45.5	-46.9	20.1	0.00e+00	0	34	0	444596224	61	4512
2026-01-17 10:35:54.42	190.88	27.71	-45.7	-47.1	19.9	0.00e+00	0	34	0	445644800	62	4372
2026-01-17 10:35:55.43	191.03	27.87	-45.4	-46.7	20.3	0.00e+00	0	34	0	447741952	62	4158
2026-01-17 10:35:56.44	191.17	28.04	-45.5	-46.8	20.1	0.00e+00	0	34	0	449839104	62	4238
2026-01-17 10:35:57.45	191.32	28.20	-45.6	-46.9	20.1	0.00e+00	0	34	0	451936256	62	4273
2026-01-17 10:35:58.46	191.47	28.36	-45.7	-47.1	19.8	0.00e+00	0	34	0	452984832	62	4344
2026-01-17 10:35:59.46	191.61	28.52	-45.9	-47.3	19.7	0.00e+00	0	34	0	455081984	62	4452
2026-01-17 10:36:00.47	191.77	28.69	-45.9	-47.3	19.7	0.00e+00	0	34	0	457179136	62	4479
2026-01-17 10:36:01.48	191.92	28.85	-46.3	-47.8	19.3	0.00e+00	0	34	0	459276288	63	4453
2026-01-17 10:36:02.49	192.07	29.02	-46.3	-47.8	19.3	0.00e+00	0	34	0	461373440	63	4450
2026-01-17 10:36:03.50	192.23	29.18	-46.7	-48.3	18.8	0.00e+00	0	34	0	463470592	63	4711
2026-01-17 10:36:04.51	192.38	29.35	-46.7	-48.3	18.7	0.00e+00	0	34	0	464519168	64	4493
2026-01-17 10:36:05.52	192.54	29.52	-46.8	-48.4	18.6	0.00e+00	0	34	0	466616320	64	4525
2026-01-17 10:36:06.53	192.70	29.69	-46.7	-48.3	18.7	0.00e+00	0	34	0	468713472	64	4453
2026-01-17 10:36:07.54	192.86	29.86	-46.7	-48.3	18.7	0.00e+00	0	34	0	470810624	64	4480
2026-01-17 10:36:08.54	193.03	30.02	-47.3	-49.0	18.0	0.00e+00	0	34	0	472907776	65	4598
2026-01-17 10:36:09.55	193.19	30.20	-47.2	-49.0	18.1	0.00e+00	0	34	0	473956352	65	4557
2026-01-17 10:36:10.56	193.36	30.37	-47.4	-49.2	17.8	0.00e+00	0	34	0	476053504	65	4698
2026-01-17 10:36:11.57	193.53	30.54	-47.7	-49.5	17.5	0.00e+00	0	34	0	478150656	66	4592
2026-01-17 10:36:12.58	193.70	30.71	-48.1	-50.2	16.9	0.00e+00	0	34	0	480247808	67	4691
2026-01-17 10:36:13.59	193.87	30.89	-48.3	-50.5	16.7	0.00e+00	0	34	0	481296384	67	4838
2026-01-17 10:36:14.60	194.04	31.06	-48.5	-50.8	16.3	0.00e+00	0	34	0	483393536	67	5032
2026-01-17 10:36:15.61	194.22	31.24	-48.9	-51.4	16.0	0.00e+00	0	34	0	485490688	68	5059
2026-01-17 10:36:16.61	194.40	31.41	-48.6	-50.8	16.5	0.00e+00	0	34	0	487587840	68	4746
2026-01-17 10:36:17.62	194.58	31.59	-48.4	-50.6	16.7	0.00e+00	0	35	0	489684992	68	4648
2026-01-17 10:36:18.63	194.76	31.77	-48.3	-50.4	16.9	0.00e+00	0	34	0	491782144	68	4512
2026-01-17 10:36:19.64	194.94	31.95	-48.2	-50.4	16.9	0.00e+00	0	34	0	492830720	68	4494
2026-01-17 10:36:20.65	195.13	32.13	-47.9	-49.8	17.2	0.00e+00	0	35	0	494927872	67	4487
2026-01-17 10:36:21.66	195.31	32.31	-47.5	-49.3	17.9	0.00e+00	0	34	0	497025024	66	4447
2026-01-17 10:36:22.66	195.50	32.48	-47.4	-49.2	17.9	0.00e+00	0	34	0	499122176	66	4394
2026-01-17 10:36:23.67	195.69	32.67	-47.4	-49.1	17.9	0.00e+00	0	34	0	501219328	66	4391
2026-01-17 10:36:24.68	195.89	32.85	-47.6	-49.4	17.7	0.00e+00	0	34	0	502267904	66	4512
2026-01-17 10:36:25.69	196.08	33.03	-47.5	-49.2	17.9	0.00e+00	0	34	0	504365056	66	4439
2026-01-17 10:36:26.70	196.28	33.22	-47.5	-49.3	17.8	0.00e+00	0	34	0	506462208	66	4478
2026-01-17 10:36:27.70	196.48	33.40	-47.1	-48.8	18.3	0.00e+00	0	34	0	508559360	66	4206
2026-01-17 10:36:28.71	196.68	33.58	-46.9	-48.6	18.5	0.00e+00	0	34	0	510656512	65	4351
2026-01-17 10:36:29.72	196.88	33.77	-46.8	-48.4	18.7	0.00e+00	0	34	0	511705088	65	4266
2026-01-17 10:36:30.73	197.09	33.96	-46.8	-48.4	18.6	0.00e+00	0	34	0	513802240	65	4278
2026-01-17 10:36:31.74	197.30	34.15	-47.0	-48.7	18.4	0.00e+00	0	34	0	515899392	65	4396
2026-01-17 10:36:32.75	197.51	34.33	-47.1	-48.7	18.3	0.00e+00	0	34	0	517996544	65	4430
2026-01-17 10:36:33.76	197.73	34.52	-47.4	-49.2	17.8	0.00e+00	0	34	0	520093696	65	4665
2026-01-17 10:36:34.76	197.94	34.71	-47.4	-49.2	18.0	0.00e+00	0	34	0	521142272	65	4676
2026-01-17 10:36:35.77	198.16	34.90	-47.6	-49.5	17.7	0.00e+00	0	34	0	523239424	66	4548
2026-01-17 10:36:36.78	198.38	35.09	-47.9	-49.9	17.3	0.00e+00	0	34	0	525336576	66	4771
2026-01-17 10:36:37.79	198.61	35.28	-47.6	-49.5	17.6	0.00e+00	0	34	0	527433728	66	4574
2026-01-17 10:36:38.80	198.83	35.48	-47.6	-49.4	17.8	0.00e+00	0	34	0	529530880	66	4527
2026-01-17 10:36:39.81	199.06	35.67	-47.3	-49.0	18.1	0.00e+00	0	35	0	531628032	66	4323
2026-01-17 10:36:40.82	199.29	35.86	-47.1	-48.8	18.4	0.00e+00	0	34	0	532676608	66	4206
2026-01-17 10:36:41.83	199.53	36.06	-46.5	-48.0	19.1	0.00e+00	0	35	0	534773760	65	4091
2026-01-17 10:36:42.84	199.76	36.25	-46.4	-47.9	19.2	0.00e+00	0	34	0	536870912	64	4247
2026-01-17 10:36:43.84	200.00	36.45	-46.3	-47.7	19.3	0.00e+00	0	35	0	538968064	64	4183
2026-01-17 10:36:44.85	200.25	36.64	-46.3	-47.8	19.3	0.00e+00	0	34	0	540016640	64	4207
2026-01-17 10:36:45.86	200.49	36.84	-46.3	-47.8	19.3	0.00e+00	0	34	0	542113792	64	4199
2026-01-17 10:36:46.87	200.74	37.04	-46.7	-48.3	18.8	0.00e+00	0	34	0	544210944	64	4464
2026-01-17 10:36:47.88	200.99	37.24	-47.2	-49.0	18.2	0.00e+00	0	34	0	546308096	65	4565
2026-01-17 10:36:48.89	201.25	37.44	-47.3	-49.1	18.1	0.00e+00	0	34	0	548405248	65	4604
2026-01-17 10:36:49.90	201.51	37.64	-47.5	-49.3	17.9	0.00e+00	0	34	0	550502400	66	4486
2026-01-17 10:36:50.90	201.76	37.83	-47.7	-49.5	17.7	0.00e+00	0	34	0	551550976	66	4593
2026-01-17 10:36:51.91	202.03	38.03	-47.4	-49.2	18.0	0.00e+00	0	34	0	553648128	66	4435
2026-01-17 10:36:52.92	202.30	38.24	-47.1	-48.8	18.4	0.00e+00	0	34	0	555745280	66	4194
2026-01-17 10:36:53.93	202.57	38.44	-46.9	-48.5	18.6	0.00e+00	0	34	0	557842432	65	4336
2026-01-17 10:36:54.94	202.84	38.64	-46.8	-48.5	18.7	0.00e+00	0	34	0	559939584	65	4315
2026-01-17 10:36:55.94	203.11	38.84	-46.3	-47.8	19.3	0.00e+00	0	34	0	560988160	64	4237
2026-01-17 10:36:56.95	203.40	39.04	-46.1	-47.5	19.5	0.00e+00	0	34	0	563085312	64	4095
2026-01-17 10:36:57.96	203.68	39.25	-45.9	-47.3	19.8	0.00e+00	0	34	0	565182464	63	4209
2026-01-17 10:36:58.97	203.97	39.45	-45.7	-47.0	20.1	0.00e+00	0	34	0	567279616	63	4069
2026-01-17 10:36:59.98	204.26	39.66	-45.4	-46.6	20.5	0.00e+00	0	35	0	568328192	62	4123
2026-01-17 10:37:00.98	204.55	39.86	-45.6	-46.9	20.2	0.00e+00	0	34	0	570425344	62	4246
2026-01-17 10:37:01.99	204.85	40.06	-45.8	-47.1	20.0	0.00e+00	0	34	0	572522496	62	4388
2026-01-17 10:37:03.00	205.15	40.27	-46.4	-48.0	19.3	0.00e+00	0	34	0	574619648	63	4547
2026-01-17 10:37:04.01	205.46	40.47	-46.8	-48.4	18.8	0.00e+00	0	34	0	576716800	64	4527
2026-01-17 10:37:05.02	205.77	40.68	-46.7	-48.3	18.8	0.00e+00	0	34	0	578813952	64	4493
2026-01-17 10:37:06.03	206.08	40.89	-46.5	-48.1	19.0	0.00e+00	0	34	0	579862528	64	4376
2026-01-17 10:37:07.03	206.40	41.09	-46.1	-47.6	19.5	0.00e+00	0	34	0	581959680	64	4105
2026-01-17 10:37:08.04	206.72	41.30	-46.2	-47.6	19.5	0.00e+00	0	34	0	584056832	63	4390
2026-01-17 10:37:09.05	207.04	41.50	-46.2	-47.6	19.6	0.00e+00	0	34	0	586153984	63	4357
2026-01-17 10:37:10.06	207.37	41.71	-46.3	-47.7	19.5	0.00e+00	0	34	0	588251136	63	4407
2026-01-17 10:37:11.07	207.71	41.92	-47.0	-48.6	18.6	0.00e+00	0	34	0	589299712	64	4638
2026-01-17 10:37:12.08	208.05	42.13	-47.1	-48.8	18.5	0.00e+00	0	34	0	591396864	64	4708
2026-01-17 10:37:13.08	208.38	42.33	-47.4	-49.2	18.1	0.00e+00	0	34	0	593494016	66	4411
2026-01-17 10:37:14.09	208.73	42.54	-47.4	-49.2	18.1	0.00e+00	0	34	0	595591168	66	4430
2026-01-17 10:37:15.10	209.08	42.75	-47.6	-49.4	17.8	0.00e+00	0	35	0	597688320	66	4521
2026-01-17 10:37:16.11	209.44	42.95	-47.9	-49.9	17.5	0.00e+00	0	34	0	598736896	66	4764
2026-01-17 10:37:17.12	209.80	43.16	-48.0	-49.9	17.4	0.00e+00	0	35	0	600834048	66	4812
2026-01-17 10:37:18.13	210.16	43.37	-47.7	-49.6	17.6	0.00e+00	0	35	0	602931200	66	4625
2026-01-17 10:37:19.13	210.53	43.57	-48.0	-49.9	17.3	0.00e+00	0	34	0	605028352	66	4779
2026-01-17 10:37:20.14	210.91	43.78	-48.0	-50.0	17.2	0.00e+00	0	35	0	607125504	67	4573
2026-01-17 10:37:21.15	211.28	43.98	-48.3	-50.4	17.0	0.00e+00	0	34	0	608174080	67	4768
2026-01-17 10:37:22.16	211.67	44.19	-47.6	-49.5	17.7	0.00e+00	0	34	0	610271232	67	4292
2026-01-17 10:37:23.17	212.06	44.40	-47.7	-49.5	17.8	0.00e+00	0	34	0	612368384	67	4318
2026-01-17 10:37:24.18	212.45	44.60	-47.5	-49.2	18.1	0.00e+00	0	35	0	614465536	66	4440
2026-01-17 10:37:25.19	212.85	44.81	-47.7	-49.5	17.8	0.00e+00	0	35	0	616562688	66	4579
2026-01-17 10:37:26.19	213.25	45.01	-48.3	-50.4	17.0	0.00e+00	0	34	0	617611264	67	4799
2026-01-17 10:37:27.20	213.66	45.21	-48.9	-51.3	16.3	0.00e+00	0	34	0	619708416	68	5028
2026-01-17 10:37:28.21	214.07	45.42	-49.0	-51.4	16.0	0.00e+00	0	34	0	621805568	69	4786
2026-01-17 10:37:29.22	214.49	45.62	-48.9	-51.3	16.1	0.00e+00	0	34	0	623902720	69	4706
2026-01-17 10:37:30.23	214.92	45.82	-48.6	-50.7	16.8	0.00e+00	0	34	0	625999872	68	4696
2026-01-17 10:37:31.23	215.35	46.02	-48.5	-50.5	16.9	0.00e+00	0	35	0	627048448	68	4578
2026-01-17 10:37:32.25	215.79	46.23	-48.4	-50.4	17.0	0.00e+00	0	34	0	629145600	68	4516
2026-01-17 10:37:33.25	216.22	46.42	-48.6	-50.8	16.5	0.00e+00	0	34	0	631242752	68	4728
2026-01-17 10:37:34.26	216.67	46.62	-48.9	-51.2	16.1	0.00e+00	0	34	0	633339904	69	4694
2026-01-17 10:37:35.27	217.12	46.82	-49.0	-51.3	16.3	0.00e+00	0	34	0	635437056	69	4716
2026-01-17 10:37:36.28	217.58	47.02	-49.1	-51.5	16.0	0.00e+00	0	34	0	636485632	69	4826
2026-01-17 10:37:37.29	218.05	47.21	-48.7	-50.9	16.5	0.00e+00	0	35	0	638582784	69	4531
2026-01-17 10:37:38.29	218.51	47.41	-47.7	-49.4	17.8	0.00e+00	0	34	0	640679936	67	4285
2026-01-17 10:37:39.30	218.99	47.60	-47.1	-48.6	18.6	0.00e+00	0	35	0	642777088	66	4144
2026-01-17 10:37:40.31	219.47	47.79	-47.0	-48.6	18.7	0.00e+00	0	34	0	644874240	65	4391
2026-01-17 10:37:41.32	219.96	47.98	-47.3	-49.0	18.2	0.00e+00	0	34	0	645922816	65	4593
2026-01-17 10:37:42.33	220.45	48.17	-47.4	-49.2	18.1	0.00e+00	0	34	0	648019968	66	4406
2026-01-17 10:37:43.34	220.95	48.36	-47.1	-48.7	18.6	0.00e+00	0	34	0	650117120	66	4158
2026-01-17 10:37:44.35	221.45	48.55	-46.8	-48.4	18.8	0.00e+00	0	34	0	652214272	65	4265
2026-01-17 10:37:45.35	221.96	48.73	-46.8	-48.4	18.9	0.00e+00	0	34	0	654311424	65	4276
2026-01-17 10:37:46.36	222.48	48.92	-47.1	-48.7	18.7	0.00e+00	0	34	0	655360000	65	4418
2026-01-17 10:37:47.37	223.00	49.10	-47.3	-49.0	18.3	0.00e+00	0	34	0	657457152	65	4572
2026-01-17 10:37:48.38	223.53	49.28	-47.3	-49.0	18.4	0.00e+00	0	35	0	659554304	65	4550
2026-01-17 10:37:49.39	224.07	49.46	-47.3	-49.0	18.3	0.00e+00	0	34	0	661651456	65	4588
2026-01-17 10:37:50.39	224.60	49.63	-47.2	-48.9	18.3	0.00e+00	0	34	0	663748608	65	4512
2026-01-17 10:37:51.40	225.15	49.81	-46.5	-48.0	19.1	0.00e+00	0	34	0	665845760	65	4074
2026-01-17 10:37:52.41	225.71	49.98	-46.3	-47.7	19.5	0.00e+00	0	35	0	666894336	64	4191
2026-01-17 10:37:53.42	226.27	50.15	-46.2	-47.6	19.6	0.00e+00	0	35	0	668991488	64	4110
2026-01-17 10:37:54.42	226.83	50.32	-46.6	-48.1	19.2	0.00e+00	0	34	0	671088640	64	4358
2026-01-17 10:37:55.43	227.40	50.48	-46.4	-47.8	19.4	0.00e+00	0	35	0	673185792	64	4223
2026-01-17 10:37:56.44	227.98	50.64	-46.1	-47.5	19.8	0.00e+00	0	34	0	674234368	63	4301
2026-01-17 10:37:57.45	228.57	50.80	-45.9	-47.2	20.1	0.00e+00	0	35	0	676331520	63	4164
2026-01-17 10:37:58.46	229.16	50.96	-45.6	-46.9	20.4	0.00e+00	0	34	0	678428672	63	4012
2026-01-17 10:37:59.46	229.75	51.12	-45.6	-46.9	20.3	0.00e+00	0	34	0	680525824	63	4032
2026-01-17 10:38:00.47	230.35	51.27	-45.4	-46.7	20.5	0.00e+00	0	34	0	682622976	62	4164
2026-01-17 10:38:01.48	230.96	51.42	-45.6	-46.9	20.4	0.00e+00	0	34	0	683671552	62	4258
2026-01-17 10:38:02.49	231.58	51.57	-46.2	-47.6	19.7	0.00e+00	0	35	0	685768704	62	4608
2026-01-17 10:38:03.50	232.20	51.71	-45.7	-47.0	20.2	0.00e+00	0	34	0	687865856	63	4064
2026-01-17 10:38:04.50	232.82	51.85	-45.3	-46.5	20.7	0.00e+00	0	34	0	689963008	62	4076
2026-01-17 10:38:05.51	233.46	51.99	-45.6	-46.9	20.4	0.00e+00	0	35	0	692060160	62	4243
2026-01-17 10:38:06.52	234.10	52.12	-45.9	-47.2	20.1	0.00e+00	0	34	0	694157312	62	4440
2026-01-17 10:38:07.52	234.74	52.25	-45.5	-46.7	20.5	0.00e+00	0	34	0	695205888	62	4176
2026-01-17 10:38:08.53	235.39	52.38	-44.8	-46.0	21.1	0.00e+00	0	34	0	697303040	61	4075
2026-01-17 10:38:09.54	236.04	52.50	-44.7	-45.9	21.2	0.00e+00	0	35	0	699400192	60	4251
2026-01-17 10:38:10.55	236.70	52.62	-45.8	-47.1	20.0	0.00e+00	0	34	0	701497344	62	4387
2026-01-17 10:38:11.56	237.37	52.74	-46.2	-47.6	19.7	0.00e+00	0	35	0	702545920	62	4621
2026-01-17 10:38:12.56	238.04	52.85	-45.9	-47.3	20.0	0.00e+00	0	34	0	704643072	63	4216
2026-01-17 10:38:13.57	238.71	52.96	-45.8	-47.1	20.1	0.00e+00	0	34	0	706740224	63	4130
2026-01-17 10:38:14.58	239.40	53.07	-46.1	-47.5	19.8	0.00e+00	0	34	0	708837376	63	4303
2026-01-17 10:38:15.59	240.08	53.17	-45.4	-46.6	20.6	0.00e+00	0	34	0	710934528	62	4145
2026-01-17 10:38:16.60	240.77	53.27	-44.7	-45.8	21.3	0.00e+00	0	34	0	713031680	61	3994
2026-01-17 10:38:17.60	241.46	53.37	-45.2	-46.4	20.9	0.00e+00	0	34	0	714080256	61	4257
2026-01-17 10:38:18.61	242.16	53.46	-46.5	-47.9	19.5	0.00e+00	0	34	0	716177408	63	4538
2026-01-17 10:38:19.62	242.87	53.54	-46.8	-48.4	18.9	0.00e+00	0	34	0	718274560	64	4517
2026-01-17 10:38:20.63	243.58	53.62	-46.3	-47.7	19.5	0.00e+00	0	34	0	720371712	64	4172
2026-01-17 10:38:21.64	244.29	53.70	-46.3	-47.8	19.5	0.00e+00	0	34	0	722468864	64	4198
2026-01-17 10:38:22.65	245.01	53.77	-47.1	-48.7	18.6	0.00e+00	0	34	0	723517440	64	4682
2026-01-17 10:38:23.66	245.73	53.84	-46.5	-48.0	19.3	0.00e+00	0	34	0	725614592	64	4317
2026-01-17 10:38:24.66	246.44	53.91	-46.1	-47.5	19.9	0.00e+00	0	34	0	727711744	63	4309
2026-01-17 10:38:25.67	247.17	53.97	-46.1	-47.5	19.8	0.00e+00	0	35	0	729808896	63	4297
2026-01-17 10:38:26.68	247.90	54.02	-46.8	-48.3	19.0	0.00e+00	0	34	0	730857472	64	4471
2026-01-17 10:38:27.69	248.63	54.07	-47.4	-49.2	18.2	0.00e+00	0	34	0	732954624	65	4657
2026-01-17 10:38:28.70	249.36	54.12	-47.2	-49.0	18.4	0.00e+00	0	34	0	735051776	65	4557
2026-01-17 10:38:29.71	250.10	54.16	-46.5	-48.0	19.3	0.00e+00	0	34	0	737148928	64	4320
2026-01-17 10:38:30.72	250.84	54.20	-46.2	-47.6	19.7	0.00e+00	0	34	0	739246080	64	4104
2026-01-17 10:38:31.72	251.57	54.23	-46.4	-47.8	19.6	0.00e+00	0	34	0	741343232	63	4466
2026-01-17 10:38:32.73	252.31	54.26	-46.7	-48.2	19.1	0.00e+00	0	35	0	742391808	64	4401
2026-01-17 10:38:33.74	253.06	54.28	-46.9	-48.5	18.8	0.00e+00	0	34	0	744488960	64	4585
2026-01-17 10:38:34.75	253.80	54.30	-47.2	-48.9	18.4	0.00e+00	0	34	0	746586112	65	4494
2026-01-17 10:38:35.76	254.55	54.31	-47.5	-49.2	18.2	0.00e+00	0	34	0	748683264	65	4691
2026-01-17 10:38:36.77	255.29	54.32	-47.6	-49.4	18.0	0.00e+00	0	34	0	750780416	66	4518
2026-01-17 10:38:37.78	256.04	54.33	-46.8	-48.4	18.9	0.00e+00	0	34	0	751828992	65	4248
2026-01-17 10:38:38.78	256.78	54.33	-46.4	-47.8	19.5	0.00e+00	0	34	0	753926144	64	4223
2026-01-17 10:38:39.79	257.52	54.32	-46.6	-48.1	19.2	0.00e+00	0	34	0	756023296	64	4384
2026-01-17 10:38:40.80	258.27	54.31	-46.4	-47.9	19.4	0.00e+00	0	34	0	758120448	64	4250
2026-01-17 10:38:41.81	259.01	54.30	-46.1	-47.4	19.8	0.00e+00	0	35	0	760217600	64	4038
2026-01-17 10:38:42.82	259.75	54.28	-45.7	-46.9	20.3	0.00e+00	0	34	0	761266176	63	4041
2026-01-17 10:38:43.83	260.50	54.25	-46.0	-47.4	19.9	0.00e+00	0	34	0	763363328	63	4255
2026-01-17 10:38:44.84	261.24	54.22	-46.4	-47.8	19.5	0.00e+00	0	34	0	765460480	63	4489
2026-01-17 10:38:45.85	261.98	54.19	-46.6	-48.0	19.4	0.00e+00	0	34	0	767557632	63	4576
2026-01-17 10:38:46.85	262.71	54.15	-46.1	-47.5	19.9	0.00e+00	0	34	0	769654784	63	4305
2026-01-17 10:38:47.86	263.44	54.11	-46.7	-48.3	19.1	0.00e+00	0	35	0	770703360	64	4459
2026-01-17 10:38:48.87	264.18	54.06	-46.6	-48.2	19.2	0.00e+00	0	34	0	772800512	64	4393
2026-01-17 10:38:49.88	264.91	54.01	-46.2	-47.6	19.6	0.00e+00	0	34	0	774897664	64	4128
2026-01-17 10:38:50.89	265.63	53.95	-45.6	-46.9	20.5	0.00e+00	0	34	0	776994816	63	4016
2026-01-17 10:38:51.89	266.35	53.89	-45.4	-46.6	20.7	0.00e+00	0	34	0	779091968	62	4123
2026-01-17 10:38:52.90	267.07	53.82	-45.4	-46.7	20.6	0.00e+00	0	34	0	781189120	62	4148
2026-01-17 10:38:53.91	267.79	53.75	-45.6	-46.9	20.3	0.00e+00	0	34	0	782237696	62	4288
2026-01-17 10:38:54.92	268.51	53.68	-45.9	-47.2	20.2	0.00e+00	0	34	0	784334848	62	4429
2026-01-17 10:38:55.92	269.21	53.60	-46.2	-47.5	19.9	0.00e+00	0	34	0	786432000	63	4336
2026-01-17 10:38:56.93	269.92	53.52	-45.9	-47.3	20.0	0.00e+00	0	34	0	788529152	63	4210
2026-01-17 10:38:57.94	270.62	53.43	-46.1	-47.5	19.9	0.00e+00	0	34	0	789577728	63	4306
2026-01-17 10:38:58.95	271.32	53.34	-46.3	-47.7	19.8	0.00e+00	0	34	0	791674880	63	4424
2026-01-17 10:38:59.96	272.01	53.24	-46.6	-48.1	19.2	0.00e+00	0	34	0	793772032	64	4391
2026-01-17 10:39:00.97	272.70	53.14	-46.6	-48.1	19.3	0.00e+00	0	35	0	795869184	64	4377
2026-01-17 10:39:01.97	273.38	53.04	-46.4	-47.9	19.4	0.00e+00	0	35	0	797966336	64	4263
2026-01-17 10:39:02.98	274.06	52.93	-46.8	-48.4	19.0	0.00e+00	0	35	0	799014912	64	4517
2026-01-17 10:39:03.99	274.74	52.82	-46.3	-47.8	19.6	0.00e+00	0	34	0	801112064	64	4215
2026-01-17 10:39:05.00	275.41	52.71	-45.6	-46.9	20.4	0.00e+00	0	35	0	803209216	63	4042
2026-01-17 10:39:06.00	276.06	52.59	-46.0	-47.4	20.0	0.00e+00	0	35	0	805306368	62	4520
2026-01-17 10:39:07.01	276.72	52.47	-46.7	-48.2	19.1	0.00e+00	0	34	0	807403520	64	4419
2026-01-17 10:39:08.02	277.38	52.34	-47.0	-48.6	18.8	0.00e+00	0	34	0	809500672	64	4610
2026-01-17 10:39:09.03	278.02	52.21	-46.9	-48.5	18.8	0.00e+00	0	34	0	810549248	64	4596
2026-01-17 10:39:10.04	278.67	52.08	-46.8	-48.3	19.1	0.00e+00	0	34	0	812646400	64	4474
2026-01-17 10:39:11.05	279.30	51.95	-46.2	-47.5	19.7	0.00e+00	0	35	0	814743552	64	4090
2026-01-17 10:39:12.05	279.93	51.81	-45.6	-46.8	20.5	0.00e+00	0	35	0	816840704	63	3986
2026-01-17 10:39:13.06	280.55	51.67	-45.8	-47.1	20.2	0.00e+00	0	34	0	817889280	62	4385
2026-01-17 10:39:14.07	281.17	51.52	-46.2	-47.5	19.9	0.00e+00	0	35	0	819986432	63	4334
2026-01-17 10:39:15.08	281.79	51.38	-46.5	-48.0	19.4	0.00e+00	0	35	0	822083584	64	4300
2026-01-17 10:39:16.08	282.39	51.23	-45.9	-47.3	20.1	0.00e+00	0	35	0	824180736	63	4197
2026-01-17 10:39:17.09	282.99	51.07	-45.3	-46.5	20.9	0.00e+00	0	34	0	826277888	62	4063
2026-01-17 10:39:18.10	283.58	50.92	-45.5	-46.7	20.6	0.00e+00	0	34	0	828375040	62	4183
2026-01-17 10:39:19.11	284.17	50.76	-45.5	-46.7	20.6	0.00e+00	0	35	0	829423616	62	4188
2026-01-17 10:39:20.12	284.75	50.60	-44.8	-45.9	21.2	0.00e+00	0	34	0	831520768	61	4043
2026-01-17 10:39:21.13	285.33	50.44	-44.8	-45.9	21.3	0.00e+00	0	34	0	833617920	61	4038
2026-01-17 10:39:22.13	285.90	50.27	-44.9	-46.1	21.1	0.00e+00	0	34	0	835715072	61	4123
2026-01-17 10:39:23.14	286.46	50.10	-45.4	-46.6	20.7	0.00e+00	0	34	0	837812224	61	4379
2026-01-17 10:39:24.15	287.02	49.93	-45.9	-47.2	20.2	0.00e+00	0	34	0	838860800	62	4406
2026-01-17 10:39:25.16	287.57	49.76	-46.3	-47.7	19.7	0.00e+00	0	34	0	840957952	63	4431
2026-01-17 10:39:26.17	288.11	49.59	-46.5	-47.9	19.5	0.00e+00	0	35	0	843055104	64	4279
2026-01-17 10:39:27.18	288.65	49.41	-45.8	-47.1	20.2	0.00e+00	0	34	0	845152256	63	4131
2026-01-17 10:39:28.18	289.18	49.23	-44.7	-45.8	21.4	0.00e+00	0	34	0	846200832	61	3976
2026-01-17 10:39:29.19	289.71	49.05	-44.9	-46.1	21.2	0.00e+00	0	35	0	848297984	61	4099
2026-01-17 10:39:30.20	290.23	48.87	-46.0	-47.3	20.1	0.00e+00	0	35	0	850395136	62	4473
2026-01-17 10:39:31.21	290.74	48.69	-46.9	-48.6	18.9	0.00e+00	0	34	0	852492288	64	4600
2026-01-17 10:39:32.22	291.25	48.50	-46.7	-48.3	19.1	0.00e+00	0	35	0	854589440	64	4457
2026-01-17 10:39:33.23	291.76	48.32	-46.7	-48.2	19.2	0.00e+00	0	34	0	856686592	64	4400
2026-01-17 10:39:34.23	292.25	48.13	-47.4	-49.1	18.4	0.00e+00	0	34	0	857735168	65	4610
2026-01-17 10:39:35.24	292.74	47.94	-48.1	-50.0	17.5	0.00e+00	0	34	0	859832320	66	4830
2026-01-17 10:39:36.25	293.22	47.75	-48.4	-50.4	17.0	0.00e+00	0	34	0	861929472	67	4803
2026-01-17 10:39:37.26	293.70	47.56	-48.6	-50.6	17.0	0.00e+00	0	34	0	864026624	68	4617
2026-01-17 10:39:38.26	294.17	47.36	-48.7	-50.9	16.8	0.00e+00	0	34	0	866123776	68	4771
2026-01-17 10:39:39.27	294.64	47.17	-48.8	-50.9	16.7	0.00e+00	0	34	0	867172352	68	4808
2026-01-17 10:39:40.28	295.10	46.97	-49.1	-51.4	16.3	0.00e+00	0	34	0	869269504	68	5046
2026-01-17 10:39:41.29	295.56	46.78	-49.3	-51.7	16.0	0.00e+00	0	34	0	871366656	69	4960
2026-01-17 10:39:42.30	296.01	46.58	-49.8	-52.5	15.1	0.00e+00	0	34	0	873463808	70	5158
2026-01-17 10:39:43.30	296.45	46.38	-48.4	-50.5	17.1	0.00e+00	0	35	0	875560960	68	4547
2026-01-17 10:39:44.31	296.88	46.18	-48.0	-49.9	17.7	0.00e+00	0	34	0	876609536	68	4249
2026-01-17 10:39:45.32	297.32	45.98	-48.2	-50.1	17.4	0.00e+00	0	34	0	878706688	67	4650
2026-01-17 10:39:46.33	297.75	45.78	-49.2	-51.6	16.1	0.00e+00	0	34	0	880803840	68	5162
2026-01-17 10:39:47.34	298.17	45.58	-50.3	-53.3	14.4	0.00e+00	0	34	0	882900992	71	5314
2026-01-17 10:39:48.35	298.59	45.38	-50.3	-53.4	14.3	0.00e+00	0	34	0	884998144	71	5350
2026-01-17 10:39:49.36	299.00	45.17	-50.1	-53.0	14.8	0.00e+00	0	35	0	886046720	71	5109
2026-01-17 10:39:50.36	299.40	44.97	-49.9	-52.6	15.2	0.00e+00	0	35	0	888143872	71	4915
2026-01-17 10:39:51.37	299.80	44.77	-49.7	-52.3	15.4	0.00e+00	0	34	0	890241024	71	4721
2026-01-17 10:39:52.38	300.20	44.56	-50.1	-53.0	14.7	0.00e+00	0	34	0	892338176	71	5104
2026-01-17 10:39:53.39	300.59	44.36	-50.7	-54.1	13.7	0.00e+00	0	34	0	894435328	71	5802
2026-01-17 10:39:54.40	300.98	44.15	-50.8	-54.2	13.3	3.12e-05	0	34	0	895483904	72	5579
2026-01-17 10:39:55.41	301.36	43.95	-50.4	-53.5	14.0	6.10e-06	0	34	0	897581056	72	5134
2026-01-17 10:39:56.41	301.73	43.75	-50.6	-53.8	13.9	1.50e-06	0	34	0	899678208	72	5318
2026-01-17 10:39:57.42	302.11	43.54	-51.2	-55.2	12.4	3.96e-05	0	35	0	901775360	73	5867
2026-01-17 10:39:58.43	302.47	43.33	-51.9	-57.1	10.4	3.86e-03	0	34	0	903872512	74	6899
2026-01-17 10:39:59.44	302.84	43.13	-52.4	-58.7	8.6	1.78e-02	0	35	0	904921088	75	7832
2026-01-17 10:40:00.45	303.20	42.92	-51.9	-57.0	10.3	2.84e-02	0	35	0	907018240	75	6463
2026-01-17 10:40:01.46	303.55	42.71	-50.3	-53.4	14.1	3.05e-05	0	34	0	909115392	72	5060
2026-01-17 10:40:02.46	303.90	42.51	-49.5	-51.9	15.7	0.00e+00	0	34	0	911212544	70	4813
2026-01-17 10:40:03.47	304.24	42.30	-48.8	-51.0	16.6	0.00e+00	0	35	0	913309696	69	4573
2026-01-17 10:40:04.48	304.58	42.10	-50.0	-52.9	14.7	0.00e+00	0	34	0	914358272	70	5346
2026-01-17 10:40:05.49	304.92	41.89	-50.5	-53.7	14.0	4.50e-06	0	34	0	916455424	71	5560
2026-01-17 10:40:06.50	305.25	41.68	-50.7	-54.1	13.4	5.30e-06	0	34	0	918552576	72	5511
2026-01-17 10:40:07.50	305.58	41.48	-49.7	-52.4	15.2	0.00e+00	0	35	0	920649728	71	4762
2026-01-17 10:40:08.51	305.90	41.27	-48.2	-50.1	17.4	0.00e+00	0	34	0	922746880	68	4386
2026-01-17 10:40:09.52	306.22	41.07	-47.4	-49.1	18.3	0.00e+00	0	34	0	923795456	66	4360
2026-01-17 10:40:10.53	306.54	40.86	-47.0	-48.5	18.9	0.00e+00	0	34	0	925892608	65	4309
2026-01-17 10:40:11.54	306.85	40.66	-47.4	-49.1	18.3	0.00e+00	0	34	0	927989760	65	4623
2026-01-17 10:40:12.54	307.15	40.45	-48.9	-51.1	16.5	0.00e+00	0	34	0	930086912	68	4926
2026-01-17 10:40:13.55	307.46	40.25	-49.6	-52.2	15.5	0.00e+00	0	34	0	932184064	70	4935
2026-01-17 10:40:14.56	307.76	40.05	-48.0	-49.9	17.7	0.00e+00	0	35	0	933232640	68	4255
2026-01-17 10:40:15.57	308.06	39.84	-46.6	-48.1	19.2	0.00e+00	0	35	0	935329792	65	4121
2026-01-17 10:40:16.58	308.35	39.64	-46.0	-47.3	20.0	0.00e+00	0	34	0	937426944	63	4232
2026-01-17 10:40:17.59	308.64	39.43	-46.6	-48.1	19.3	0.00e+00	0	34	0	939524096	63	4612
2026-01-17 10:40:18.60	308.93	39.23	-47.6	-49.3	18.1	0.00e+00	0	34	0	941621248	65	4746
2026-01-17 10:40:19.61	309.21	39.03	-49.1	-51.4	16.3	0.00e+00	0	35	0	943718400	68	5094
2026-01-17 10:40:20.62	309.49	38.83	-49.6	-52.2	15.2	0.00e+00	0	34	0	944766976	70	4980
2026-01-17 10:40:21.62	309.76	38.63	-48.4	-50.4	17.1	0.00e+00	0	35	0	946864128	68	4540
2026-01-17 10:40:22.63	310.03	38.43	-47.7	-49.5	17.9	0.00e+00	0	34	0	948961280	67	4321
2026-01-17 10:40:23.64	310.30	38.23	-47.1	-48.6	18.7	0.00e+00	0	34	0	951058432	66	4134
2026-01-17 10:40:24.65	310.57	38.03	-46.6	-48.0	19.3	0.00e+00	0	34	0	952107008	65	4089
2026-01-17 10:40:25.66	310.83	37.83	-46.5	-48.0	19.4	0.00e+00	0	34	0	954204160	64	4311
2026-01-17 10:40:26.66	311.09	37.63	-47.1	-48.7	18.7	0.00e+00	0	34	0	956301312	64	4656
2026-01-17 10:40:27.67	311.35	37.43	-48.1	-50.1	17.4	0.00e+00	0	35	0	958398464	66	4906
2026-01-17 10:40:28.68	311.60	37.23	-49.0	-51.4	16.2	0.00e+00	0	34	0	960495616	68	5079
2026-01-17 10:40:29.69	311.85	37.03	-48.7	-50.9	16.7	0.00e+00	0	35	0	961544192	68	4781
2026-01-17 10:40:30.70	312.10	36.84	-47.4	-49.1	18.3	0.00e+00	0	34	0	963641344	66	4375
2026-01-17 10:40:31.70	312.34	36.64	-46.6	-48.1	19.3	0.00e+00	0	34	0	965738496	65	4133
2026-01-17 10:40:32.71	312.58	36.45	-46.0	-47.4	19.9	0.00e+00	0	34	0	967835648	64	4014
2026-01-17 10:40:33.72	312.82	36.25	-45.6	-46.8	20.5	0.00e+00	0	35	0	969932800	63	3983
2026-01-17 10:40:34.73	313.06	36.06	-45.6	-46.8	20.5	0.00e+00	0	34	0	972029952	62	4213
2026-01-17 10:40:35.74	313.29	35.87	-46.3	-47.7	19.8	0.00e+00	0	34	0	973078528	63	4407
2026-01-17 10:40:36.74	313.52	35.67	-47.2	-48.9	18.6	0.00e+00	0	34	0	975175680	64	4763
2026-01-17 10:40:37.75	313.75	35.48	-47.7	-49.6	17.8	0.00e+00	0	35	0	977272832	66	4617
2026-01-17 10:40:38.76	313.97	35.29	-47.6	-49.4	18.1	0.00e+00	0	35	0	979369984	66	4504
2026-01-17 10:40:39.77	314.20	35.10	-47.2	-48.9	18.5	0.00e+00	0	35	0	980418560	66	4259
2026-01-17 10:40:40.77	314.41	34.91	-47.1	-48.7	18.7	0.00e+00	0	35	0	982515712	66	4157
2026-01-17 10:40:41.78	314.63	34.72	-47.0	-48.6	18.8	0.00e+00	0	34	0	984612864	66	4100
2026-01-17 10:40:42.79	314.85	34.53	-47.3	-49.0	18.4	0.00e+00	0	34	0	986710016	65	4565
2026-01-17 10:40:43.80	315.06	34.35	-47.4	-49.1	18.3	0.00e+00	0	34	0	988807168	65	4618
2026-01-17 10:40:44.81	315.27	34.16	-47.9	-49.8	17.7	0.00e+00	0	34	0	990904320	66	4739
2026-01-17 10:40:45.82	315.48	33.97	-48.8	-51.0	16.5	0.00e+00	0	34	0	991952896	68	4868
2026-01-17 10:40:46.82	315.68	33.79	-49.2	-51.5	16.1	0.00e+00	0	34	0	994050048	69	4870
2026-01-17 10:40:47.83	315.89	33.60	-49.5	-52.1	15.5	0.00e+00	0	35	0	996147200	69	5173
2026-01-17 10:40:48.84	316.09	33.42	-50.0	-52.9	14.7	0.00e+00	0	34	0	998244352	70	5380
2026-01-17 10:40:49.85	316.29	33.23	-49.6	-52.2	15.4	0.00e+00	0	34	0	1000341504	70	4968
2026-01-17 10:40:50.86	316.49	33.05	-48.8	-50.9	16.6	0.00e+00	0	35	0	1001390080	69	4518
2026-01-17 10:40:51.86	316.68	32.87	-47.9	-49.8	17.7	0.00e+00	0	35	0	1003487232	67	4443
2026-01-17 10:40:52.87	316.87	32.69	-47.3	-49.0	18.4	0.00e+00	0	35	0	1005584384	66	4302
2026-01-17 10:40:53.88	317.06	32.51	-46.9	-48.5	18.8	0.00e+00	0	34	0	1007681536	65	4312
2026-01-17 10:40:54.89	317.25	32.33	-47.3	-48.9	18.5	0.00e+00	0	35	0	1008730112	65	4533
2026-01-17 10:40:55.90	317.44	32.15	-47.8	-49.7	17.8	0.00e+00	0	35	0	1010827264	66	4652
2026-01-17 10:40:56.90	317.62	31.97	-48.2	-50.2	17.3	0.00e+00	0	35	0	1012924416	66	4930
2026-01-17 10:40:57.91	317.81	31.79	-49.3	-51.7	16.0	0.00e+00	0	35	0	1015021568	69	4940
2026-01-17 10:40:58.92	317.99	31.62	-49.7	-52.3	15.3	0.00e+00	0	34	0	1017118720	69	5316
2026-01-17 10:40:59.93	318.17	31.44	-49.8	-52.5	15.1	0.00e+00	0	35	0	1019215872	70	5109
2026-01-17 10:41:00.93	318.34	31.27	-49.6	-52.3	15.3	0.00e+00	0	34	0	1020264448	70	4989
2026-01-17 10:41:01.94	318.52	31.09	-49.0	-51.3	16.3	0.00e+00	0	35	0	1022361600	70	4470
2026-01-17 10:41:02.95	318.69	30.92	-48.8	-51.0	16.5	0.00e+00	0	34	0	1024458752	69	4589
2026-01-17 10:41:03.96	318.86	30.75	-48.1	-50.1	17.6	0.00e+00	0	35	0	1026555904	68	4344
2026-01-17 10:41:04.97	319.03	30.57	-47.9	-49.8	17.7	0.00e+00	0	35	0	1028653056	67	4442
2026-01-17 10:41:05.98	319.20	30.40	-47.3	-49.0	18.3	0.00e+00	0	35	0	1029701632	66	4306
2026-01-17 10:41:06.98	319.36	30.23	-47.2	-48.8	18.5	0.00e+00	0	34	0	1031798784	66	4234
2026-01-17 10:41:07.99	319.53	30.06	-47.1	-48.7	18.7	0.00e+00	0	34	0	1033895936	66	4157
2026-01-17 10:41:09.00	319.69	29.89	-47.7	-49.4	18.0	0.00e+00	0	34	0	1035993088	66	4540
2026-01-17 10:41:10.01	319.85	29.73	-48.3	-50.3	17.2	0.00e+00	0	35	0	1038090240	67	4716
2026-01-17 10:41:11.02	320.01	29.56	-48.7	-50.8	16.6	0.00e+00	0	34	0	1039138816	67	5041
2026-01-17 10:41:12.02	320.17	29.39	-49.2	-51.6	15.9	0.00e+00	0	34	0	1041235968	68	5185
2026-01-17 10:41:13.03	320.33	29.23	-49.2	-51.7	15.9	0.00e+00	0	34	0	1043333120	69	4935
2026-01-17 10:41:14.04	320.48	29.06	-49.0	-51.4	16.2	0.00e+00	0	35	0	1045430272	69	4772
2026-01-17 10:41:15.05	320.63	28.90	-49.1	-51.4	16.1	0.00e+00	0	35	0	1047527424	69	4784
2026-01-17 10:41:16.06	320.79	28.73	-48.5	-50.7	16.8	0.00e+00	0	35	0	1048576000	69	4399
2026-01-17 10:41:17.06	320.94	28.57	-48.4	-50.4	17.1	0.00e+00	0	34	0	1050673152	68	4507
2026-01-17 10:41:18.07	321.08	28.41	-47.6	-49.4	18.0	0.00e+00	0	35	0	1052770304	67	4249
2026-01-17 10:41:19.08	321.23	28.25	-47.4	-49.2	18.1	0.00e+00	0	35	0	1054867456	66	4394
2026-01-17 10:41:20.09	321.38	28.08	-46.5	-48.0	19.2	0.00e+00	0	34	0	1056964608	65	4066
2026-01-17 10:41:21.10	321.52	27.92	-46.3	-47.7	19.5	0.00e+00	0	34	0	1059061760	64	4184
2026-01-17 10:41:22.11	321.67	27.77	-46.1	-47.5	19.7	0.00e+00	0	34	0	1060110336	64	4073
2026-01-17 10:41:23.12	321.81	27.61	-46.1	-47.5	19.8	0.00e+00	0	35	0	1062207488	63	4301
2026-01-17 10:41:24.13	321.95	27.45	-46.1	-47.4	19.8	0.00e+00	0	34	0	1064304640	63	4267
2026-01-17 10:41:25.14	322.09	27.29	-46.5	-48.0	19.3	0.00e+00	0	34	0	1066401792	63	4553
2026-01-17 10:41:26.14	322.22	27.14	-46.8	-48.4	18.9	0.00e+00	0	35	0	1067450368	64	4523
2026-01-17 10:41:27.15	322.36	26.98	-47.5	-49.3	18.0	0.00e+00	0	34	0	1069547520	65	4759
2026-01-17 10:41:28.16	322.50	26.83	-47.8	-49.7	17.6	0.00e+00	0	35	0	1071644672	66	4676
2026-01-17 10:41:29.17	322.63	26.67	-48.4	-50.6	16.8	0.00e+00	0	34	0	1073741824	67	4908
2026-01-17 10:41:30.18	322.76	26.52	-48.5	-50.8	16.6	0.00e+00	0	34	0	1075838976	67	5005
2026-01-17 10:41:31.18	322.89	26.37	-48.3	-50.4	17.0	0.00e+00	0	34	0	1076887552	68	4533
2026-01-17 10:41:32.19	323.02	26.21	-48.3	-50.5	17.0	0.00e+00	0	34	0	1078984704	68	4549
2026-01-17 10:41:33.20	323.15	26.06	-47.5	-49.3	18.0	0.00e+00	0	34	0	1081081856	67	4226
2026-01-17 10:41:34.21	323.28	25.91	-46.8	-48.4	18.8	0.00e+00	0	35	0	1083179008	65	4288
2026-01-17 10:41:35.22	323.41	25.76	-46.5	-48.0	19.1	0.00e+00	0	34	0	1085276160	65	4089
2026-01-17 10:41:36.22	323.53	25.61	-46.1	-47.4	19.8	0.00e+00	0	34	0	1087373312	63	4278
2026-01-17 10:41:37.23	323.66	25.46	-46.1	-47.4	19.8	0.00e+00	0	34	0	1088421888	63	4291
2026-01-17 10:41:38.24	323.78	25.32	-46.3	-47.7	19.6	0.00e+00	0	34	0	1090519040	63	4400
2026-01-17 10:41:39.25	323.90	25.17	-46.2	-47.6	19.7	0.00e+00	0	35	0	1092616192	63	4362
2026-01-17 10:41:40.26	324.03	25.02	-46.1	-47.4	19.7	0.00e+00	0	35	0	1094713344	63	4290
2026-01-17 10:41:41.26	324.14	24.88	-46.5	-48.0	19.3	0.00e+00	0	35	0	1095761920	63	4559
2026-01-17 10:41:42.27	324.26	24.73	-46.8	-48.3	18.9	0.00e+00	0	34	0	1097859072	64	4475
2026-01-17 10:41:43.28	324.38	24.59	-46.9	-48.5	18.7	0.00e+00	0	34	0	1099956224	64	4579
2026-01-17 10:41:44.29	324.50	24.44	-47.5	-49.2	18.1	0.00e+00	0	34	0	1102053376	65	4678
2026-01-17 10:41:45.30	324.62	24.30	-47.4	-49.1	18.1	0.00e+00	0	35	0	1104150528	65	4638
2026-01-17 10:41:46.30	324.73	24.16	-47.7	-49.5	17.8	0.00e+00	0	34	0	1106247680	66	4578
2026-01-17 10:41:47.31	324.84	24.02	-47.9	-49.8	17.5	0.00e+00	0	35	0	1107296256	66	4744
2026-01-17 10:41:48.32	324.96	23.88	-47.7	-49.6	17.7	0.00e+00	0	34	0	1109393408	66	4621
2026-01-17 10:41:49.33	325.07	23.74	-48.0	-50.0	17.3	0.00e+00	0	34	0	1111490560	66	4821
2026-01-17 10:41:50.34	325.18	23.60	-47.8	-49.7	17.6	0.00e+00	0	34	0	1113587712	66	4667
2026-01-17 10:41:51.34	325.29	23.46	-47.5	-49.3	17.9	0.00e+00	0	35	0	1115684864	66	4482
2026-01-17 10:41:52.35	325.40	23.32	-47.6	-49.4	17.8	0.00e+00	0	34	0	1116733440	66	4513
2026-01-17 10:41:53.36	325.51	23.18	-47.0	-48.7	18.5	0.00e+00	0	35	0	1118830592	66	4160
2026-01-17 10:41:54.37	325.61	23.05	-47.0	-48.6	18.5	0.00e+00	0	34	0	1120927744	65	4361
2026-01-17 10:41:55.38	325.72	22.91	-46.7	-48.3	18.8	0.00e+00	0	34	0	1123024896	65	4228
2026-01-17 10:41:56.38	325.83	22.77	-46.3	-47.7	19.3	0.00e+00	0	34	0	1124073472	64	4192
2026-01-17 10:41:57.39	325.93	22.64	-46.4	-47.9	19.2	0.00e+00	0	35	0	1126170624	64	4266
2026-01-17 10:41:58.40	326.03	22.50	-46.2	-47.6	19.5	0.00e+00	0	34	0	1128267776	64	4112
2026-01-17 10:41:59.41	326.14	22.37	-46.2	-47.6	19.5	0.00e+00	0	35	0	1130364928	64	4110
2026-01-17 10:42:00.42	326.24	22.24	-46.2	-47.6	19.5	0.00e+00	0	34	0	1132462080	64	4131
2026-01-17 10:42:01.42	326.34	22.10	-46.1	-47.5	19.5	0.00e+00	0	34	0	1134559232	64	4072
2026-01-17 10:42:02.43	326.44	21.97	-46.1	-47.5	19.6	0.00e+00	0	35	0	1135607808	64	4075
2026-01-17 10:42:03.44	326.54	21.84	-46.4	-47.9	19.2	0.00e+00	0	35	0	1137704960	64	4282
2026-01-17 10:42:04.45	326.64	21.71	-46.5	-48.1	19.0	0.00e+00	0	34	0	1139802112	64	4363
2026-01-17 10:42:05.46	326.74	21.58	-46.7	-48.3	18.8	0.00e+00	0	35	0	1141899264	64	4455
2026-01-17 10:42:06.46	326.83	21.45	-46.7	-48.3	18.9	0.00e+00	0	35	0	1143996416	64	4450
2026-01-17 10:42:07.47	326.93	21.32	-46.9	-48.5	18.6	0.00e+00	0	34	0	1145044992	64	4598
2026-01-17 10:42:08.48	327.03	21.19	-47.0	-48.7	18.4	0.00e+00	0	34	0	1147142144	64	4697
2026-01-17 10:42:09.49	327.12	21.06	-47.1	-48.8	18.3	0.00e+00	0	34	0	1149239296	64	4749
2026-01-17 10:42:10.50	327.22	20.94	-47.0	-48.7	18.4	0.00e+00	0	34	0	1151336448	65	4435
2026-01-17 10:42:11.51	327.31	20.81	-47.1	-48.8	18.3	0.00e+00	0	34	0	1153433600	65	4474
2026-01-17 10:42:12.52	327.40	20.68	-47.2	-49.0	18.0	0.00e+00	0	34	0	1154482176	65	4560
2026-01-17 10:42:13.52	327.49	20.56	-47.3	-49.1	18.0	0.00e+00	0	34	0	1156579328	65	4624
2026-01-17 10:42:14.53	327.59	20.43	-47.2	-48.9	18.2	0.00e+00	0	34	0	1158676480	65	4544
2026-01-17 10:42:15.54	327.68	20.31	-47.1	-48.8	18.3	0.00e+00	0	34	0	1160773632	65	4455
2026-01-17 10:42:16.55	327.77	20.18	-46.8	-48.4	18.6	0.00e+00	0	34	0	1162870784	65	4250
2026-01-17 10:42:17.56	327.86	20.06	-46.7	-48.3	18.8	0.00e+00	0	34	0	1163919360	65	4199
2026-01-17 10:42:18.57	327.94	19.94	-46.2	-47.7	19.3	0.00e+00	0	34	0	1166016512	64	4180
2026-01-17 10:42:19.57	328.03	19.81	-46.1	-47.5	19.5	0.00e+00	0	34	0	1168113664	64	4090
2026-01-17 10:42:20.58	328.12	19.69	-46.1	-47.5	19.5	0.00e+00	0	34	0	1170210816	64	4069
2026-01-17 10:42:21.59	328.21	19.57	-46.2	-47.6	19.5	0.00e+00	0	34	0	1172307968	63	4370
2026-01-17 10:42:22.60	328.29	19.45	-46.2	-47.6	19.5	0.00e+00	0	34	0	1173356544	63	4357
2026-01-17 10:42:23.61	328.38	19.33	-46.1	-47.5	19.6	0.00e+00	0	35	0	1175453696	63	4322
2026-01-17 10:42:24.61	328.46	19.21	-46.1	-47.5	19.6	0.00e+00	0	35	0	1177550848	63	4315
2026-01-17 10:42:25.62	328.55	19.09	-46.2	-47.6	19.4	0.00e+00	0	34	0	1179648000	63	4380
2026-01-17 10:42:26.63	328.63	18.97	-46.0	-47.5	19.6	0.00e+00	0	35	0	1181745152	63	4302
2026-01-17 10:42:27.64	328.71	18.85	-46.5	-48.0	19.1	0.00e+00	0	34	0	1182793728	63	4563
2026-01-17 10:42:28.65	328.79	18.74	-46.6	-48.2	18.9	0.00e+00	0	34	0	1184890880	63	4680
2026-01-17 10:42:29.65	328.88	18.62	-46.5	-48.1	18.8	0.00e+00	0	34	0	1186988032	64	4383
2026-01-17 10:42:30.66	328.96	18.50	-46.7	-48.3	18.7	0.00e+00	0	34	0	1189085184	64	4474
2026-01-17 10:42:31.67	329.04	18.39	-46.6	-48.2	18.8	0.00e+00	0	34	0	1191182336	64	4425
2026-01-17 10:42:32.68	329.12	18.27	-46.7	-48.3	18.7	0.00e+00	0	34	0	1192230912	64	4483
2026-01-17 10:42:33.69	329.20	18.16	-46.7	-48.3	18.7	0.00e+00	0	34	0	1194328064	64	4481
2026-01-17 10:42:34.70	329.28	18.04	-46.5	-48.0	18.9	0.00e+00	0	34	0	1196425216	64	4326
2026-01-17 10:42:35.70	329.35	17.93	-46.4	-48.0	18.9	0.00e+00	0	34	0	1198522368	64	4310
2026-01-17 10:42:36.71	329.43	17.81	-46.2	-47.7	19.1	0.00e+00	0	35	0	1200619520	64	4168
2026-01-17 10:42:37.72	329.51	17.70	-46.1	-47.5	19.5	0.00e+00	0	35	0	1201668096	63	4315
2026-01-17 10:42:38.73	329.58	17.59	-45.9	-47.3	19.7	0.00e+00	0	35	0	1203765248	63	4205
2026-01-17 10:42:39.74	329.66	17.47	-45.7	-47.0	19.9	0.00e+00	0	35	0	1205862400	63	4094
2026-01-17 10:42:40.74	329.74	17.36	-45.6	-46.9	20.0	0.00e+00	0	34	0	1207959552	62	4260
2026-01-17 10:42:41.75	329.81	17.25	-45.3	-46.6	20.3	0.00e+00	0	34	0	1210056704	62	4104
2026-01-17 10:42:42.77	329.89	17.14	-44.9	-46.1	20.7	0.00e+00	0	34	0	1211105280	61	4128
2026-01-17 10:42:43.77	329.96	17.03	-45.0	-46.2	20.6	0.00e+00	0	34	0	1213202432	61	4173
2026-01-17 10:42:44.78	330.03	16.92	-45.1	-46.3	20.5	0.00e+00	0	34	0	1215299584	61	4209
2026-01-17 10:42:45.79	330.11	16.81	-44.8	-45.9	20.9	0.00e+00	0	34	0	1217396736	61	4048
2026-01-17 10:42:46.80	330.18	16.70	-44.8	-46.0	20.8	0.00e+00	0	34	0	1219493888	61	4061
2026-01-17 10:42:47.80	330.25	16.59	-44.8	-45.9	20.9	0.00e+00	0	34	0	1221591040	61	4043
2026-01-17 10:42:48.81	330.32	16.49	-44.8	-46.0	20.8	0.00e+00	0	34	0	1222639616	61	4076
2026-01-17 10:42:49.82	330.39	16.38	-44.9	-46.1	20.7	0.00e+00	0	35	0	1224736768	61	4108
2026-01-17 10:42:50.83	330.46	16.27	-44.8	-46.0	20.8	0.00e+00	0	35	0	1226833920	61	4065
2026-01-17 10:42:51.84	330.53	16.16	-45.0	-46.2	20.6	0.00e+00	0	35	0	1228931072	61	4187
2026-01-17 10:42:52.85	330.60	16.06	-45.2	-46.5	20.3	0.00e+00	0	34	0	1229979648	61	4314
2026-01-17 10:42:53.86	330.67	15.95	-45.3	-46.6	20.2	7.00e-07	0	35	0	1232076800	61	4371
2026-01-17 10:42:54.87	330.74	15.84	-45.6	-46.9	19.9	0.00e+00	0	35	0	1234173952	61	4528
2026-01-17 10:42:55.88	330.81	15.74	-45.7	-47.0	19.8	0.00e+00	0	35	0	1236271104	61	4573
2026-01-17 10:42:56.89	330.88	15.63	-45.9	-47.3	19.5	0.00e+00	0	35	0	1238368256	62	4485
2026-01-17 10:42:57.89	330.94	15.53	-46.2	-47.6	19.3	0.00e+00	0	34	0	1240465408	62	4651
2026-01-17 10:42:58.90	331.01	15.43	-46.5	-48.0	18.9	0.00e+00	0	34	0	1241513984	63	4583
2026-01-17 10:42:59.91	331.08	15.32	-46.6	-48.2	18.8	0.00e+00	0	34	0	1243611136	63	4661
2026-01-17 10:43:00.92	331.14	15.22	-46.7	-48.3	18.6	0.00e+00	0	35	0	1245708288	64	4476
2026-01-17 10:43:01.92	331.21	15.12	-46.8	-48.5	18.3	0.00e+00	0	34	0	1247805440	64	4589
