passes_logs/2026/01/17/R3.2S_Murmansk/R3.2S_Murmansk__20260117_071156_SUOMI_NPP_rec.log

#Pass ID: 20260117_071156_SUOMI NPP
#Satellite: SUOMI NPP
#Configuration: NPP
#almurnet v.1.7.20251203
#Start time: 2026-01-17 07:11:57

#Version: 2.2.20231116
#Station: R3.2S_Murmansk
#Location: 33.079688 lon 68.888172 lat
#TLE: 1 37849U 11061A   26016.58419598  .00000058  00000+0  48257-4 0  9996
#TLE: 2 37849  98.7812 318.6192 0002422  60.8544 299.2874 14.19525580736934

#Time	Az	El	Level	Level2	SNR	BER	BlckErr	Temp	State	Recorded	gain1	gain2
2026-01-17 07:11:57.88	97.44	2.10	-51.8	-66.8	3.8	1.49e+00	0	31	0	0	74	21047
2026-01-17 07:11:58.89	97.39	2.16	-51.8	-66.8	3.8	1.49e+00	0	31	104	0	74	21103
2026-01-17 07:11:59.90	97.34	2.22	-51.8	-66.8	3.8	1.49e+00	0	32	104	0	74	21117
2026-01-17 07:12:00.91	97.29	2.28	-51.8	-66.8	3.8	1.49e+00	0	32	104	0	74	21173
2026-01-17 07:12:01.92	97.24	2.34	-51.8	-66.8	3.8	1.49e+00	0	32	104	0	74	21112
2026-01-17 07:12:02.93	97.19	2.40	-51.8	-66.8	3.8	1.49e+00	0	32	104	0	74	21059
2026-01-17 07:12:03.94	97.14	2.46	-51.8	-66.8	3.8	1.49e+00	0	32	104	0	74	21091
2026-01-17 07:12:04.95	97.09	2.52	-51.8	-66.8	3.8	1.49e+00	0	31	104	0	74	21074
2026-01-17 07:12:05.96	97.04	2.59	-51.8	-66.8	3.8	1.49e+00	0	32	104	0	74	21039
2026-01-17 07:12:06.97	96.99	2.65	-51.8	-66.7	3.8	1.49e+00	0	32	104	0	74	20986
2026-01-17 07:12:07.98	96.94	2.71	-51.8	-66.7	3.8	1.49e+00	0	32	104	0	74	20918
2026-01-17 07:12:08.99	96.88	2.77	-51.8	-66.7	3.8	1.49e+00	0	32	104	0	74	20940
2026-01-17 07:12:10.00	96.83	2.83	-51.8	-66.8	3.8	1.49e+00	0	32	104	0	74	21023
2026-01-17 07:12:11.00	96.78	2.89	-51.8	-66.7	3.8	1.49e+00	0	32	104	0	74	21017
2026-01-17 07:12:12.01	96.73	2.96	-51.8	-66.8	3.8	1.49e+00	0	32	104	0	74	21023
2026-01-17 07:12:13.02	96.68	3.02	-51.8	-66.7	3.8	1.49e+00	0	32	104	0	74	20978
2026-01-17 07:12:14.03	96.62	3.08	-51.8	-66.7	3.8	1.49e+00	0	32	104	0	74	21001
2026-01-17 07:12:15.04	96.57	3.14	-51.8	-66.7	3.8	1.49e+00	0	32	104	0	74	20951
2026-01-17 07:12:16.05	96.51	3.21	-51.8	-66.7	3.8	1.49e+00	0	32	104	0	74	20922
2026-01-17 07:12:17.05	96.46	3.27	-51.8	-66.7	3.8	1.49e+00	0	32	104	0	74	20902
2026-01-17 07:12:18.06	96.41	3.33	-51.8	-66.7	3.8	1.49e+00	0	32	104	0	74	20870
2026-01-17 07:12:19.07	96.35	3.39	-51.8	-66.7	3.8	1.49e+00	0	32	104	0	74	20879
2026-01-17 07:12:20.08	96.30	3.46	-51.8	-66.7	3.8	1.49e+00	0	32	104	0	74	20976
2026-01-17 07:12:21.09	96.24	3.52	-51.8	-66.8	3.8	1.49e+00	0	32	104	0	74	21074
2026-01-17 07:12:22.10	96.19	3.58	-51.8	-66.8	3.8	1.49e+00	0	32	104	0	74	21051
2026-01-17 07:12:23.11	96.13	3.65	-51.8	-66.7	3.8	1.49e+00	0	32	104	0	74	20805
2026-01-17 07:12:24.12	96.08	3.71	-51.8	-66.4	3.8	1.49e+00	0	32	104	0	74	20184
2026-01-17 07:12:25.12	96.02	3.77	-51.8	-66.2	3.8	1.49e+00	0	32	104	0	74	19650
2026-01-17 07:12:26.13	95.97	3.84	-51.7	-65.7	3.8	1.49e+00	0	33	104	0	74	18644
2026-01-17 07:12:27.14	95.91	3.90	-51.7	-65.2	3.8	1.49e+00	0	32	104	0	74	17668
2026-01-17 07:12:28.15	95.85	3.97	-51.7	-65.0	3.8	1.49e+00	0	32	104	0	74	17110
2026-01-17 07:12:29.16	95.80	4.03	-51.7	-64.3	4.0	1.48e+00	0	32	104	0	74	15860
2026-01-17 07:12:30.16	95.74	4.09	-51.6	-63.8	4.1	1.47e+00	0	32	104	0	74	14890
2026-01-17 07:12:31.17	95.68	4.16	-51.6	-63.0	4.2	1.41e+00	0	32	0	0	74	13706
2026-01-17 07:12:32.18	95.62	4.22	-51.5	-61.8	4.7	9.67e-01	0	32	0	1048576	74	11918
2026-01-17 07:12:33.19	95.57	4.29	-51.4	-60.8	5.2	7.17e-01	0	32	0	3145728	74	10610
2026-01-17 07:12:34.20	95.51	4.35	-51.2	-59.7	6.0	4.42e-01	0	33	0	5242880	74	9338
2026-01-17 07:12:35.20	95.45	4.42	-51.1	-58.9	6.6	2.48e-01	0	32	0	6291456	74	8490
2026-01-17 07:12:36.21	95.39	4.48	-50.9	-58.2	7.3	1.50e-01	0	32	0	8388608	73	8341
2026-01-17 07:12:37.22	95.33	4.55	-50.7	-57.2	8.3	8.97e-02	0	33	0	10485760	73	7399
2026-01-17 07:12:38.23	95.27	4.61	-50.6	-56.8	8.7	5.94e-02	0	33	0	12582912	73	7069
2026-01-17 07:12:39.24	95.21	4.68	-50.6	-56.7	8.7	3.37e-02	0	32	0	14680064	73	7040
2026-01-17 07:12:40.25	95.15	4.74	-50.6	-56.9	8.6	3.15e-02	0	32	0	15728640	73	7153
2026-01-17 07:12:41.25	95.09	4.81	-50.7	-57.0	8.5	3.64e-02	0	33	0	17825792	73	7285
2026-01-17 07:12:42.26	95.03	4.88	-50.8	-57.6	7.9	6.27e-02	0	33	0	19922944	73	7776
2026-01-17 07:12:43.27	94.97	4.94	-50.9	-58.2	7.3	9.90e-02	0	33	0	22020096	73	8277
2026-01-17 07:12:44.28	94.91	5.01	-51.1	-59.1	6.5	1.80e-01	0	33	0	24117248	73	9197
2026-01-17 07:12:45.29	94.85	5.07	-51.2	-59.4	6.1	3.45e-01	0	33	0	25165824	73	9587
2026-01-17 07:12:46.30	94.79	5.14	-50.4	-55.9	9.6	2.91e-02	0	33	0	27262976	72	6742
2026-01-17 07:12:47.30	94.73	5.21	-50.3	-55.3	10.7	2.08e-04	0	33	0	29360128	71	6710
2026-01-17 07:12:48.31	94.66	5.27	-51.5	-61.7	4.7	1.35e+00	39	33	0	30408704	73	12419
2026-01-17 07:12:49.32	94.60	5.34	-48.8	-51.9	14.0	3.50e-05	0	33	0	32505856	69	5084
2026-01-17 07:12:50.33	94.54	5.41	-51.1	-58.7	6.7	2.89e-01	0	33	0	34603008	73	8796
2026-01-17 07:12:51.34	94.48	5.47	-48.7	-51.7	14.3	4.98e-04	0	33	0	35651584	69	4943
2026-01-17 07:12:52.35	94.41	5.54	-48.7	-51.7	14.3	7.00e-07	0	33	0	37748736	69	4934
2026-01-17 07:12:53.36	94.35	5.61	-48.7	-51.7	14.3	1.50e-06	0	33	0	39845888	68	5266
2026-01-17 07:12:54.37	94.28	5.68	-48.6	-51.6	14.4	7.00e-07	0	33	0	41943040	68	5173
2026-01-17 07:12:55.38	94.22	5.74	-48.5	-51.4	14.6	7.00e-07	0	33	0	44040192	68	5094
2026-01-17 07:12:56.38	94.16	5.81	-48.4	-51.2	14.9	0.00e+00	0	33	0	46137344	68	4946
2026-01-17 07:12:57.39	94.09	5.88	-48.3	-51.0	15.0	0.00e+00	0	33	0	47185920	68	4870
2026-01-17 07:12:58.40	94.03	5.95	-48.3	-51.0	15.0	0.00e+00	0	33	0	49283072	68	4846
2026-01-17 07:12:59.41	93.96	6.02	-48.2	-50.9	15.2	0.00e+00	0	33	0	51380224	68	4778
2026-01-17 07:13:00.42	93.89	6.08	-48.2	-50.9	15.2	0.00e+00	0	33	0	53477376	68	4787
2026-01-17 07:13:01.43	93.83	6.15	-48.0	-50.6	15.5	0.00e+00	0	33	0	55574528	68	4607
2026-01-17 07:13:02.44	93.76	6.22	-47.9	-50.4	15.6	0.00e+00	0	33	0	56623104	67	4796
2026-01-17 07:13:03.44	93.70	6.29	-47.9	-50.3	15.6	0.00e+00	0	33	0	58720256	67	4746
2026-01-17 07:13:04.45	93.63	6.36	-47.8	-50.2	15.8	0.00e+00	0	33	0	60817408	67	4661
2026-01-17 07:13:05.46	93.56	6.43	-47.9	-50.4	15.7	0.00e+00	0	33	0	62914560	67	4767
2026-01-17 07:13:06.47	93.49	6.50	-48.0	-50.5	15.5	0.00e+00	0	33	0	63963136	67	4824
2026-01-17 07:13:07.48	93.42	6.57	-47.9	-50.3	15.7	0.00e+00	0	33	0	66060288	67	4756
2026-01-17 07:13:08.49	93.36	6.63	-47.8	-50.2	15.9	0.00e+00	0	33	0	68157440	67	4652
2026-01-17 07:13:09.50	93.29	6.70	-47.7	-50.1	15.9	0.00e+00	0	33	0	70254592	67	4639
2026-01-17 07:13:10.51	93.22	6.77	-47.8	-50.2	15.9	0.00e+00	0	33	0	72351744	67	4668
2026-01-17 07:13:11.52	93.15	6.84	-47.8	-50.2	15.9	0.00e+00	0	33	0	74448896	67	4690
2026-01-17 07:13:12.52	93.08	6.91	-47.7	-50.0	16.1	0.00e+00	0	33	0	75497472	67	4566
2026-01-17 07:13:13.53	93.01	6.98	-47.8	-50.2	15.8	0.00e+00	0	33	0	77594624	67	4702
2026-01-17 07:13:14.54	92.94	7.05	-47.8	-50.2	15.9	0.00e+00	0	33	0	79691776	67	4654
2026-01-17 07:13:15.55	92.87	7.12	-47.7	-50.1	16.1	0.00e+00	0	33	0	81788928	67	4604
2026-01-17 07:13:16.56	92.79	7.20	-47.8	-50.2	15.9	0.00e+00	0	33	0	83886080	67	4660
2026-01-17 07:13:17.56	92.72	7.27	-47.7	-50.0	16.1	0.00e+00	0	33	0	84934656	67	4582
2026-01-17 07:13:18.57	92.65	7.34	-48.0	-50.5	15.7	0.00e+00	0	33	0	87031808	67	4819
2026-01-17 07:13:19.58	92.58	7.41	-48.2	-50.8	15.4	0.00e+00	0	33	0	89128960	67	4992
2026-01-17 07:13:20.59	92.51	7.48	-48.2	-50.7	15.4	0.00e+00	0	33	0	91226112	67	4967
2026-01-17 07:13:21.60	92.43	7.55	-48.1	-50.6	15.5	0.00e+00	0	33	0	93323264	67	4908
2026-01-17 07:13:22.61	92.36	7.62	-48.1	-50.6	15.5	0.00e+00	0	33	0	94371840	67	4925
2026-01-17 07:13:23.62	92.28	7.69	-48.0	-50.5	15.7	0.00e+00	0	33	0	96468992	67	4833
2026-01-17 07:13:24.63	92.21	7.77	-47.9	-50.4	15.8	0.00e+00	0	33	0	98566144	67	4776
2026-01-17 07:13:25.64	92.13	7.84	-47.7	-50.1	16.1	0.00e+00	0	33	0	100663296	67	4605
2026-01-17 07:13:26.65	92.06	7.91	-47.8	-50.2	16.0	0.00e+00	0	33	0	102760448	67	4658
2026-01-17 07:13:27.65	91.98	7.98	-47.8	-50.2	16.0	0.00e+00	0	33	0	103809024	67	4690
2026-01-17 07:13:28.66	91.91	8.05	-47.6	-49.8	16.4	0.00e+00	0	33	0	105906176	67	4460
2026-01-17 07:13:29.67	91.83	8.13	-47.6	-49.9	16.2	0.00e+00	0	33	0	108003328	67	4535
2026-01-17 07:13:30.68	91.76	8.20	-47.6	-50.0	16.1	0.00e+00	0	33	0	110100480	66	4827
2026-01-17 07:13:31.69	91.68	8.27	-47.7	-50.2	15.9	0.00e+00	0	33	0	112197632	66	4939
2026-01-17 07:13:32.70	91.60	8.35	-47.8	-50.3	15.7	0.00e+00	0	33	0	114294784	66	5039
2026-01-17 07:13:33.70	91.52	8.42	-48.0	-50.7	15.4	0.00e+00	0	33	0	115343360	66	5257
2026-01-17 07:13:34.71	91.45	8.49	-48.0	-50.6	15.4	0.00e+00	0	33	0	117440512	66	5201
2026-01-17 07:13:35.72	91.37	8.57	-48.2	-51.0	15.1	0.00e+00	0	33	0	119537664	66	5456
2026-01-17 07:13:36.73	91.29	8.64	-47.8	-50.2	15.9	0.00e+00	0	33	0	121634816	66	4982
2026-01-17 07:13:37.74	91.21	8.71	-47.6	-50.1	16.1	0.00e+00	0	33	0	122683392	66	4881
2026-01-17 07:13:38.75	91.13	8.79	-47.7	-50.2	15.9	0.00e+00	0	33	0	124780544	66	4963
2026-01-17 07:13:39.76	91.05	8.86	-47.6	-49.9	16.2	0.00e+00	0	33	0	126877696	66	4811
2026-01-17 07:13:40.77	90.97	8.94	-47.5	-49.8	16.3	0.00e+00	0	33	0	128974848	66	4759
2026-01-17 07:13:41.78	90.88	9.01	-47.4	-49.7	16.5	0.00e+00	0	33	0	131072000	66	4670
2026-01-17 07:13:42.79	90.80	9.09	-47.5	-49.8	16.4	0.00e+00	0	33	0	133169152	66	4717
2026-01-17 07:13:43.80	90.72	9.16	-47.7	-50.1	16.1	0.00e+00	0	33	0	134217728	66	4909
2026-01-17 07:13:44.81	90.64	9.24	-47.5	-49.8	16.4	0.00e+00	0	33	0	136314880	66	4737
2026-01-17 07:13:45.82	90.56	9.31	-47.4	-49.7	16.5	0.00e+00	0	33	0	138412032	66	4692
2026-01-17 07:13:46.83	90.47	9.39	-47.4	-49.6	16.5	0.00e+00	0	33	0	140509184	66	4647
2026-01-17 07:13:47.83	90.39	9.46	-47.6	-50.0	16.2	0.00e+00	0	33	0	142606336	66	4846
2026-01-17 07:13:48.84	90.30	9.54	-47.6	-50.0	16.3	0.00e+00	0	33	0	143654912	66	4848
2026-01-17 07:13:49.85	90.22	9.61	-47.3	-49.5	16.7	0.00e+00	0	33	0	145752064	66	4573
2026-01-17 07:13:50.86	90.13	9.69	-47.4	-49.6	16.5	0.00e+00	0	33	0	147849216	66	4643
2026-01-17 07:13:51.87	90.05	9.77	-47.4	-49.7	16.5	0.00e+00	0	33	0	149946368	66	4652
2026-01-17 07:13:52.88	89.96	9.84	-47.3	-49.4	16.8	0.00e+00	0	33	0	150994944	66	4534
2026-01-17 07:13:53.88	89.88	9.92	-47.3	-49.5	16.7	0.00e+00	0	33	0	153092096	66	4570
2026-01-17 07:13:54.89	89.79	10.00	-47.4	-49.6	16.7	0.00e+00	0	33	0	155189248	66	4609
2026-01-17 07:13:55.90	89.70	10.07	-47.3	-49.4	16.8	0.00e+00	0	33	0	157286400	66	4536
2026-01-17 07:13:56.91	89.61	10.15	-47.3	-49.5	16.7	0.00e+00	0	33	0	159383552	66	4578
2026-01-17 07:13:57.92	89.52	10.23	-47.2	-49.3	16.9	0.00e+00	0	33	0	161480704	66	4469
2026-01-17 07:13:58.93	89.43	10.31	-47.1	-49.2	17.0	0.00e+00	0	33	0	162529280	66	4416
2026-01-17 07:13:59.94	89.34	10.38	-47.2	-49.4	16.9	0.00e+00	0	33	0	164626432	66	4518
2026-01-17 07:14:00.95	89.25	10.46	-47.1	-49.2	17.0	0.00e+00	0	33	0	166723584	66	4422
2026-01-17 07:14:01.95	89.16	10.54	-47.2	-49.4	16.9	0.00e+00	0	33	0	168820736	66	4499
2026-01-17 07:14:02.96	89.07	10.62	-47.1	-49.2	17.0	0.00e+00	0	33	0	170917888	66	4415
2026-01-17 07:14:03.97	88.98	10.70	-47.2	-49.3	16.9	0.00e+00	0	33	0	171966464	66	4489
2026-01-17 07:14:04.98	88.89	10.77	-47.1	-49.2	17.1	0.00e+00	0	33	0	174063616	66	4399
2026-01-17 07:14:05.99	88.80	10.85	-47.1	-49.2	17.1	0.00e+00	0	33	0	176160768	66	4427
2026-01-17 07:14:07.00	88.70	10.93	-47.2	-49.3	17.0	0.00e+00	0	33	0	178257920	66	4471
2026-01-17 07:14:08.01	88.61	11.01	-47.1	-49.2	17.1	0.00e+00	0	33	0	180355072	66	4409
2026-01-17 07:14:09.01	88.52	11.09	-47.2	-49.2	17.1	0.00e+00	0	33	0	181403648	66	4441
2026-01-17 07:14:10.02	88.42	11.17	-47.3	-49.4	16.9	0.00e+00	0	33	0	183500800	66	4518
2026-01-17 07:14:11.03	88.33	11.25	-47.0	-49.0	17.3	0.00e+00	0	33	0	185597952	66	4332
2026-01-17 07:14:12.04	88.23	11.33	-47.0	-49.1	17.2	0.00e+00	0	33	0	187695104	65	4622
2026-01-17 07:14:13.05	88.13	11.41	-46.9	-49.0	17.3	0.00e+00	0	33	0	189792256	65	4561
2026-01-17 07:14:14.05	88.04	11.49	-46.7	-48.7	17.6	0.00e+00	0	33	0	190840832	65	4413
2026-01-17 07:14:15.06	87.94	11.57	-46.8	-48.8	17.5	0.00e+00	0	33	0	192937984	65	4447
2026-01-17 07:14:16.07	87.84	11.65	-47.0	-49.0	17.3	0.00e+00	0	33	0	195035136	65	4565
2026-01-17 07:14:17.08	87.74	11.73	-46.7	-48.7	17.6	0.00e+00	0	33	0	197132288	65	4410
2026-01-17 07:14:18.09	87.65	11.81	-46.9	-48.8	17.5	0.00e+00	0	33	0	199229440	65	4479
2026-01-17 07:14:19.10	87.55	11.89	-46.9	-48.9	17.4	0.00e+00	0	33	0	200278016	65	4508
2026-01-17 07:14:20.10	87.45	11.97	-46.9	-48.9	17.4	0.00e+00	0	33	0	202375168	65	4503
2026-01-17 07:14:21.11	87.35	12.05	-46.8	-48.7	17.6	0.00e+00	0	33	0	204472320	65	4409
2026-01-17 07:14:22.12	87.24	12.14	-46.6	-48.4	17.9	0.00e+00	0	33	0	206569472	65	4283
2026-01-17 07:14:23.13	87.14	12.22	-46.7	-48.6	17.8	0.00e+00	0	33	0	208666624	65	4355
2026-01-17 07:14:24.14	87.04	12.30	-46.6	-48.4	17.9	0.00e+00	0	33	0	209715200	65	4281
2026-01-17 07:14:25.15	86.94	12.38	-46.6	-48.4	17.9	0.00e+00	0	33	0	211812352	65	4257
2026-01-17 07:14:26.16	86.83	12.46	-46.7	-48.5	17.8	0.00e+00	0	33	0	213909504	65	4331
2026-01-17 07:14:27.16	86.73	12.55	-46.6	-48.4	17.9	0.00e+00	0	33	0	216006656	65	4267
2026-01-17 07:14:28.17	86.62	12.63	-46.6	-48.4	17.7	0.00e+00	0	33	0	218103808	65	4272
2026-01-17 07:14:29.18	86.52	12.71	-46.6	-48.4	17.9	0.00e+00	0	33	0	220200960	65	4289
2026-01-17 07:14:30.19	86.41	12.79	-46.7	-48.6	17.7	0.00e+00	0	33	0	221249536	65	4390
2026-01-17 07:14:31.20	86.31	12.88	-46.8	-48.8	17.6	0.00e+00	0	33	0	223346688	65	4447
2026-01-17 07:14:32.20	86.20	12.96	-47.0	-49.0	17.4	0.00e+00	0	33	0	225443840	65	4564
2026-01-17 07:14:33.21	86.09	13.04	-46.9	-48.8	17.5	0.00e+00	0	33	0	227540992	65	4493
2026-01-17 07:14:34.22	85.98	13.13	-46.9	-48.9	17.5	0.00e+00	0	33	0	229638144	65	4534
2026-01-17 07:14:35.23	85.87	13.21	-46.8	-48.7	17.7	0.00e+00	0	33	0	230686720	65	4410
2026-01-17 07:14:36.24	85.76	13.30	-46.8	-48.7	17.7	0.00e+00	0	33	0	232783872	65	4413
2026-01-17 07:14:37.25	85.65	13.38	-46.9	-48.9	17.6	0.00e+00	0	33	0	234881024	65	4494
2026-01-17 07:14:38.25	85.54	13.46	-47.1	-49.1	17.3	0.00e+00	0	33	0	236978176	65	4623
2026-01-17 07:14:39.26	85.43	13.55	-47.0	-49.0	17.3	0.00e+00	0	33	0	238026752	65	4572
2026-01-17 07:14:40.27	85.32	13.63	-47.0	-49.1	17.3	0.00e+00	0	33	0	240123904	65	4611
2026-01-17 07:14:41.28	85.21	13.72	-47.1	-49.1	17.2	0.00e+00	0	33	0	242221056	65	4639
2026-01-17 07:14:42.29	85.09	13.80	-46.8	-48.7	17.6	0.00e+00	0	33	0	244318208	65	4425
2026-01-17 07:14:43.30	84.98	13.89	-46.9	-48.8	17.5	0.00e+00	0	33	0	246415360	65	4485
2026-01-17 07:14:44.30	84.86	13.97	-46.8	-48.7	17.6	0.00e+00	0	33	0	248512512	65	4427
2026-01-17 07:14:45.31	84.75	14.06	-46.6	-48.5	17.8	0.00e+00	0	33	0	249561088	64	4579
2026-01-17 07:14:46.32	84.63	14.15	-46.8	-48.7	17.6	0.00e+00	0	33	0	251658240	64	4682
2026-01-17 07:14:47.32	84.51	14.23	-46.9	-48.9	17.5	0.00e+00	0	33	0	253755392	64	4783
2026-01-17 07:14:48.33	84.40	14.32	-47.1	-49.2	17.2	0.00e+00	0	33	0	255852544	64	4972
2026-01-17 07:14:49.34	84.28	14.41	-47.0	-49.0	17.4	0.00e+00	0	33	0	257949696	64	4861
2026-01-17 07:14:50.34	84.16	14.49	-46.8	-48.7	17.7	0.00e+00	0	33	0	258998272	64	4691
2026-01-17 07:14:51.35	84.04	14.58	-46.8	-48.8	17.6	0.00e+00	0	33	0	261095424	64	4737
2026-01-17 07:14:52.36	83.92	14.67	-46.6	-48.5	17.9	0.00e+00	0	33	0	263192576	64	4559
2026-01-17 07:14:53.37	83.80	14.75	-46.5	-48.3	18.1	0.00e+00	0	33	0	265289728	64	4461
2026-01-17 07:14:54.38	83.68	14.84	-46.7	-48.6	17.9	0.00e+00	0	33	0	267386880	64	4607
2026-01-17 07:14:55.39	83.55	14.93	-46.4	-48.2	18.2	0.00e+00	0	33	0	268435456	64	4409
2026-01-17 07:14:56.40	83.43	15.02	-46.5	-48.3	18.2	0.00e+00	0	33	0	270532608	64	4443
2026-01-17 07:14:57.41	83.30	15.10	-46.6	-48.4	18.0	0.00e+00	0	33	0	272629760	64	4538
2026-01-17 07:14:58.42	83.18	15.19	-46.2	-47.9	18.4	0.00e+00	0	33	0	274726912	64	4286
2026-01-17 07:14:59.43	83.05	15.28	-46.6	-48.4	18.1	0.00e+00	0	33	0	276824064	64	4522
2026-01-17 07:15:00.43	82.93	15.37	-46.6	-48.4	18.1	0.00e+00	0	33	0	277872640	64	4513
2026-01-17 07:15:01.44	82.80	15.46	-46.4	-48.2	18.3	0.00e+00	0	33	0	279969792	64	4411
2026-01-17 07:15:02.45	82.67	15.55	-46.4	-48.2	18.2	0.00e+00	0	33	0	282066944	64	4418
2026-01-17 07:15:03.46	82.54	15.64	-46.5	-48.3	18.1	0.00e+00	0	33	0	284164096	64	4467
2026-01-17 07:15:04.46	82.41	15.72	-46.4	-48.2	18.2	0.00e+00	0	33	0	286261248	64	4408
2026-01-17 07:15:05.47	82.28	15.81	-46.7	-48.6	17.8	0.00e+00	0	33	0	287309824	64	4647
2026-01-17 07:15:06.48	82.15	15.90	-46.6	-48.4	18.1	0.00e+00	0	33	0	289406976	64	4525
2026-01-17 07:15:07.49	82.02	15.99	-46.9	-48.9	17.6	0.00e+00	0	33	0	291504128	64	4763
2026-01-17 07:15:08.50	81.89	16.08	-47.0	-49.0	17.4	0.00e+00	0	33	0	293601280	64	4852
2026-01-17 07:15:09.51	81.75	16.17	-47.0	-49.0	17.5	0.00e+00	0	33	0	295698432	64	4836
2026-01-17 07:15:10.51	81.62	16.26	-47.1	-49.1	17.4	0.00e+00	0	33	0	296747008	64	4892
2026-01-17 07:15:11.52	81.48	16.35	-47.2	-49.2	17.3	0.00e+00	0	34	0	298844160	65	4680
2026-01-17 07:15:12.53	81.35	16.44	-47.3	-49.5	17.0	0.00e+00	0	33	0	300941312	65	4824
2026-01-17 07:15:13.53	81.21	16.53	-47.4	-49.5	17.0	0.00e+00	0	33	0	303038464	65	4863
2026-01-17 07:15:14.54	81.07	16.62	-47.1	-49.0	17.5	0.00e+00	0	34	0	305135616	65	4592
2026-01-17 07:15:15.55	80.93	16.72	-47.3	-49.4	17.1	0.00e+00	0	33	0	306184192	65	4797
2026-01-17 07:15:16.56	80.79	16.81	-47.3	-49.4	17.0	0.00e+00	0	34	0	308281344	65	4802
2026-01-17 07:15:17.57	80.65	16.90	-47.3	-49.3	17.2	0.00e+00	0	33	0	310378496	65	4743
2026-01-17 07:15:18.58	80.51	16.99	-47.2	-49.3	17.2	0.00e+00	0	33	0	312475648	65	4720
2026-01-17 07:15:19.59	80.37	17.08	-46.8	-48.7	17.8	0.00e+00	0	33	0	314572800	65	4395
2026-01-17 07:15:20.60	80.23	17.17	-47.1	-49.2	17.3	0.00e+00	0	33	0	315621376	65	4662
2026-01-17 07:15:21.61	80.08	17.27	-47.1	-49.1	17.4	0.00e+00	0	34	0	317718528	65	4614
2026-01-17 07:15:22.62	79.94	17.36	-47.0	-49.0	17.6	0.00e+00	0	34	0	319815680	65	4549
2026-01-17 07:15:23.63	79.79	17.45	-47.1	-49.1	17.4	0.00e+00	0	34	0	321912832	65	4644
2026-01-17 07:15:24.63	79.64	17.54	-46.9	-48.9	17.6	0.00e+00	0	33	0	324009984	65	4496
2026-01-17 07:15:25.64	79.50	17.64	-46.7	-48.5	17.9	0.00e+00	0	33	0	325058560	64	4598
2026-01-17 07:15:26.65	79.35	17.73	-46.8	-48.7	17.8	0.00e+00	0	34	0	327155712	64	4696
2026-01-17 07:15:27.66	79.20	17.82	-46.5	-48.4	18.1	0.00e+00	0	33	0	329252864	64	4503
2026-01-17 07:15:28.66	79.05	17.91	-46.5	-48.4	18.1	0.00e+00	0	33	0	331350016	64	4498
2026-01-17 07:15:29.67	78.90	18.01	-46.6	-48.5	18.0	0.00e+00	0	33	0	333447168	64	4575
2026-01-17 07:15:30.68	78.74	18.10	-46.4	-48.2	18.3	0.00e+00	0	33	0	335544320	64	4417
2026-01-17 07:15:31.69	78.59	18.19	-46.4	-48.2	18.3	0.00e+00	0	33	0	336592896	64	4419
2026-01-17 07:15:32.70	78.44	18.29	-46.3	-48.1	18.4	0.00e+00	0	34	0	338690048	64	4346
2026-01-17 07:15:33.71	78.28	18.38	-46.2	-48.0	18.5	0.00e+00	0	33	0	340787200	64	4299
2026-01-17 07:15:34.72	78.12	18.48	-46.2	-47.9	18.6	0.00e+00	0	33	0	342884352	64	4255
2026-01-17 07:15:35.73	77.97	18.57	-46.1	-47.7	18.9	0.00e+00	0	34	0	343932928	63	4402
2026-01-17 07:15:36.73	77.81	18.66	-46.2	-47.9	18.7	0.00e+00	0	34	0	346030080	63	4508
2026-01-17 07:15:37.74	77.65	18.76	-46.3	-47.9	18.6	0.00e+00	0	33	0	348127232	63	4539
2026-01-17 07:15:38.75	77.49	18.85	-46.4	-48.2	18.4	0.00e+00	0	34	0	350224384	63	4653
2026-01-17 07:15:39.76	77.33	18.95	-46.3	-47.9	18.7	0.00e+00	0	33	0	352321536	63	4540
2026-01-17 07:15:40.76	77.17	19.04	-46.3	-48.0	18.6	0.00e+00	0	33	0	353370112	63	4573
2026-01-17 07:15:41.77	77.00	19.14	-46.4	-48.1	18.5	0.00e+00	0	34	0	355467264	63	4620
2026-01-17 07:15:42.78	76.84	19.23	-46.3	-48.0	18.6	0.00e+00	0	33	0	357564416	63	4570
2026-01-17 07:15:43.79	76.67	19.33	-46.4	-48.1	18.5	0.00e+00	0	33	0	359661568	63	4645
2026-01-17 07:15:44.80	76.51	19.42	-46.7	-48.5	18.1	0.00e+00	0	33	0	361758720	63	4859
2026-01-17 07:15:45.81	76.34	19.52	-46.8	-48.6	17.9	0.00e+00	0	33	0	363855872	64	4646
2026-01-17 07:15:46.82	76.17	19.61	-46.8	-48.7	17.9	0.00e+00	0	33	0	364904448	64	4689
2026-01-17 07:15:47.82	76.00	19.71	-46.7	-48.6	18.0	0.00e+00	0	33	0	367001600	64	4599
2026-01-17 07:15:48.83	75.83	19.80	-46.7	-48.5	18.0	0.00e+00	0	33	0	369098752	64	4598
2026-01-17 07:15:49.84	75.66	19.90	-46.7	-48.5	18.0	0.00e+00	0	34	0	371195904	64	4567
2026-01-17 07:15:50.85	75.49	19.99	-46.6	-48.5	18.1	0.00e+00	0	33	0	372244480	64	4556
2026-01-17 07:15:51.86	75.31	20.09	-46.5	-48.3	18.3	0.00e+00	0	34	0	374341632	64	4449
2026-01-17 07:15:52.86	75.14	20.19	-46.4	-48.1	18.4	0.00e+00	0	34	0	376438784	64	4385
2026-01-17 07:15:53.87	74.96	20.28	-46.3	-48.0	18.4	0.00e+00	0	33	0	378535936	64	4340
2026-01-17 07:15:54.88	74.79	20.38	-46.1	-47.7	18.8	0.00e+00	0	34	0	380633088	64	4187
2026-01-17 07:15:55.89	74.61	20.47	-46.1	-47.7	18.9	0.00e+00	0	33	0	382730240	63	4419
2026-01-17 07:15:56.90	74.43	20.57	-46.1	-47.7	18.9	0.00e+00	0	34	0	383778816	63	4396
2026-01-17 07:15:57.90	74.25	20.67	-45.8	-47.4	19.2	0.00e+00	0	34	0	385875968	63	4254
2026-01-17 07:15:58.91	74.07	20.76	-45.8	-47.3	19.3	0.00e+00	0	33	0	387973120	63	4213
2026-01-17 07:15:59.92	73.88	20.86	-45.8	-47.4	19.2	0.00e+00	0	33	0	390070272	63	4250
2026-01-17 07:16:00.93	73.70	20.96	-45.9	-47.5	19.1	0.00e+00	0	33	0	392167424	63	4327
2026-01-17 07:16:01.94	73.51	21.05	-46.0	-47.6	19.0	0.00e+00	0	33	0	393216000	63	4389
2026-01-17 07:16:02.95	73.33	21.15	-46.2	-47.8	18.9	0.00e+00	0	34	0	395313152	63	4463
2026-01-17 07:16:03.96	73.14	21.25	-46.4	-48.1	18.6	0.00e+00	0	33	0	397410304	63	4601
2026-01-17 07:16:04.96	72.95	21.34	-46.4	-48.1	18.4	0.00e+00	0	33	0	399507456	63	4641
2026-01-17 07:16:05.97	72.76	21.44	-46.6	-48.4	18.2	0.00e+00	0	33	0	400556032	64	4527
2026-01-17 07:16:06.98	72.57	21.53	-46.5	-48.2	18.4	0.00e+00	0	33	0	402653184	64	4439
2026-01-17 07:16:07.99	72.38	21.63	-46.5	-48.2	18.4	0.00e+00	0	34	0	404750336	64	4432
2026-01-17 07:16:09.00	72.18	21.73	-46.3	-48.0	18.6	0.00e+00	0	34	0	406847488	64	4314
2026-01-17 07:16:10.00	71.99	21.82	-46.3	-48.0	18.7	0.00e+00	0	33	0	408944640	64	4296
2026-01-17 07:16:11.01	71.79	21.92	-46.4	-48.1	18.4	0.00e+00	0	33	0	411041792	64	4385
2026-01-17 07:16:12.02	71.60	22.02	-46.4	-48.1	18.5	0.00e+00	0	34	0	412090368	64	4360
2026-01-17 07:16:13.03	71.40	22.12	-46.4	-48.1	18.6	0.00e+00	0	34	0	414187520	64	4369
2026-01-17 07:16:14.04	71.20	22.21	-46.2	-47.9	18.7	0.00e+00	0	34	0	416284672	64	4254
2026-01-17 07:16:15.05	70.99	22.31	-46.4	-48.1	18.5	0.00e+00	0	34	0	418381824	64	4342
2026-01-17 07:16:16.06	70.79	22.41	-46.4	-48.1	18.6	0.00e+00	0	33	0	420478976	64	4342
2026-01-17 07:16:17.07	70.59	22.50	-46.5	-48.2	18.4	0.00e+00	0	34	0	421527552	64	4420
2026-01-17 07:16:18.07	70.38	22.60	-46.3	-47.9	18.7	0.00e+00	0	33	0	423624704	64	4260
2026-01-17 07:16:19.08	70.18	22.70	-46.3	-48.0	18.6	0.00e+00	0	33	0	425721856	64	4314
2026-01-17 07:16:20.09	69.97	22.79	-46.5	-48.3	18.4	0.00e+00	0	33	0	427819008	64	4450
2026-01-17 07:16:21.10	69.76	22.89	-46.9	-48.7	18.0	0.00e+00	0	34	0	429916160	64	4688
2026-01-17 07:16:22.10	69.55	22.98	-46.8	-48.7	18.0	0.00e+00	0	34	0	430964736	64	4683
2026-01-17 07:16:23.11	69.34	23.08	-46.8	-48.7	18.0	0.00e+00	0	34	0	433061888	64	4653
2026-01-17 07:16:24.12	69.13	23.18	-46.7	-48.5	18.2	0.00e+00	0	34	0	435159040	64	4560
2026-01-17 07:16:25.13	68.91	23.27	-46.5	-48.3	18.4	0.00e+00	0	33	0	437256192	64	4444
2026-01-17 07:16:26.14	68.70	23.37	-46.4	-48.1	18.5	0.00e+00	0	34	0	439353344	64	4368
2026-01-17 07:16:27.15	68.48	23.47	-46.5	-48.2	18.4	0.00e+00	0	33	0	440401920	64	4436
2026-01-17 07:16:28.16	68.26	23.56	-46.5	-48.3	18.4	0.00e+00	0	34	0	442499072	64	4454
2026-01-17 07:16:29.17	68.04	23.66	-46.6	-48.3	18.4	0.00e+00	0	33	0	444596224	64	4477
2026-01-17 07:16:30.18	67.82	23.76	-46.7	-48.5	18.2	0.00e+00	0	34	0	446693376	64	4563
2026-01-17 07:16:31.18	67.60	23.85	-47.2	-49.1	17.7	0.00e+00	0	33	0	448790528	64	4913
2026-01-17 07:16:32.19	67.38	23.95	-47.3	-49.3	17.5	0.00e+00	0	34	0	450887680	65	4714
2026-01-17 07:16:33.20	67.15	24.04	-47.0	-48.9	17.8	0.00e+00	0	34	0	451936256	65	4537
2026-01-17 07:16:34.21	66.92	24.14	-46.7	-48.5	18.2	0.00e+00	0	34	0	454033408	65	4300
2026-01-17 07:16:35.22	66.70	24.23	-46.6	-48.3	18.4	0.00e+00	0	34	0	456130560	65	4205
2026-01-17 07:16:36.23	66.47	24.33	-46.4	-48.1	18.6	0.00e+00	0	34	0	458227712	64	4373
2026-01-17 07:16:37.23	66.24	24.42	-46.0	-47.5	19.1	0.00e+00	0	34	0	459276288	64	4085
2026-01-17 07:16:38.24	66.01	24.52	-46.1	-47.7	19.0	0.00e+00	0	34	0	461373440	63	4414
2026-01-17 07:16:39.25	65.77	24.61	-46.0	-47.5	19.2	0.00e+00	0	34	0	463470592	63	4332
2026-01-17 07:16:40.26	65.54	24.71	-45.7	-47.2	19.5	0.00e+00	0	33	0	465567744	63	4160
2026-01-17 07:16:41.27	65.30	24.80	-45.6	-47.1	19.6	0.00e+00	0	34	0	467664896	63	4109
2026-01-17 07:16:42.28	65.06	24.89	-45.5	-47.0	19.7	0.00e+00	0	33	0	468713472	62	4297
2026-01-17 07:16:43.28	64.83	24.99	-45.2	-46.5	20.1	0.00e+00	0	33	0	470810624	62	4096
2026-01-17 07:16:44.29	64.58	25.08	-44.9	-46.2	20.4	0.00e+00	0	33	0	472907776	61	4184
2026-01-17 07:16:45.30	64.34	25.17	-45.2	-46.6	20.1	0.00e+00	0	33	0	475004928	61	4346
2026-01-17 07:16:46.31	64.10	25.27	-45.0	-46.3	20.3	0.00e+00	0	34	0	477102080	61	4218
2026-01-17 07:16:47.32	63.85	25.36	-45.0	-46.3	20.3	0.00e+00	0	34	0	479199232	61	4219
2026-01-17 07:16:48.33	63.61	25.45	-45.0	-46.4	20.2	0.00e+00	0	33	0	480247808	61	4268
2026-01-17 07:16:49.33	63.36	25.54	-45.1	-46.5	20.1	0.00e+00	0	33	0	482344960	61	4292
2026-01-17 07:16:50.34	63.11	25.64	-45.3	-46.7	20.0	0.00e+00	0	34	0	484442112	61	4393
2026-01-17 07:16:51.35	62.86	25.73	-45.5	-47.0	19.7	0.00e+00	0	33	0	486539264	61	4560
2026-01-17 07:16:52.36	62.61	25.82	-45.6	-47.1	19.6	0.00e+00	0	34	0	487587840	61	4642
2026-01-17 07:16:53.37	62.35	25.91	-46.0	-47.6	19.2	0.00e+00	0	34	0	489684992	62	4608
2026-01-17 07:16:54.38	62.10	26.00	-46.3	-48.0	18.7	0.00e+00	0	34	0	491782144	63	4589
2026-01-17 07:16:55.39	61.84	26.09	-46.7	-48.5	18.3	0.00e+00	0	33	0	493879296	63	4822
2026-01-17 07:16:56.39	61.59	26.18	-46.7	-48.5	18.4	0.00e+00	0	33	0	495976448	63	4831
2026-01-17 07:16:57.40	61.33	26.27	-46.6	-48.4	18.3	0.00e+00	0	34	0	498073600	64	4524
2026-01-17 07:16:58.41	61.06	26.36	-46.1	-47.8	18.9	0.00e+00	0	33	0	499122176	64	4199
2026-01-17 07:16:59.42	60.80	26.45	-46.1	-47.8	18.9	0.00e+00	0	33	0	501219328	64	4194
2026-01-17 07:17:00.43	60.54	26.54	-46.1	-47.6	19.0	0.00e+00	0	33	0	503316480	64	4138
2026-01-17 07:17:01.43	60.27	26.63	-46.4	-48.0	18.8	0.00e+00	0	33	0	505413632	63	4570
2026-01-17 07:17:02.44	60.01	26.72	-46.4	-48.1	18.7	0.00e+00	0	33	0	507510784	63	4602
2026-01-17 07:17:03.45	59.74	26.80	-46.4	-48.0	18.8	0.00e+00	0	33	0	508559360	63	4598
2026-01-17 07:17:04.46	59.47	26.89	-46.3	-48.0	18.8	0.00e+00	0	34	0	510656512	63	4549
2026-01-17 07:17:05.47	59.20	26.98	-46.4	-48.1	18.7	0.00e+00	0	33	0	512753664	63	4629
2026-01-17 07:17:06.48	58.92	27.06	-46.4	-48.0	18.7	0.00e+00	0	33	0	514850816	63	4594
2026-01-17 07:17:07.49	58.65	27.15	-46.4	-48.0	18.8	0.00e+00	0	33	0	516947968	63	4567
2026-01-17 07:17:08.49	58.37	27.23	-46.2	-47.7	19.1	0.00e+00	0	34	0	517996544	63	4419
2026-01-17 07:17:09.50	58.10	27.32	-45.7	-47.1	19.6	0.00e+00	0	34	0	520093696	63	4127
2026-01-17 07:17:10.51	57.82	27.40	-45.9	-47.4	19.3	0.00e+00	0	33	0	522190848	63	4284
2026-01-17 07:17:11.52	57.54	27.49	-45.9	-47.4	19.4	0.00e+00	0	34	0	524288000	63	4253
2026-01-17 07:17:12.53	57.25	27.57	-46.0	-47.5	19.2	0.00e+00	0	34	0	526385152	63	4317
2026-01-17 07:17:13.54	56.97	27.65	-46.4	-48.0	18.8	0.00e+00	0	33	0	527433728	63	4587
2026-01-17 07:17:14.55	56.69	27.74	-46.6	-48.3	18.6	0.00e+00	0	33	0	529530880	63	4721
2026-01-17 07:17:15.55	56.40	27.82	-47.1	-49.1	17.6	0.00e+00	0	34	0	531628032	64	4908
2026-01-17 07:17:16.56	56.11	27.90	-47.5	-49.6	17.3	0.00e+00	0	33	0	533725184	65	4885
2026-01-17 07:17:17.57	55.82	27.98	-47.5	-49.6	17.2	0.00e+00	0	33	0	535822336	65	4905
2026-01-17 07:17:18.58	55.53	28.06	-47.5	-49.6	17.1	0.00e+00	0	34	0	536870912	65	4918
2026-01-17 07:17:19.59	55.24	28.14	-47.8	-50.0	16.8	0.00e+00	0	34	0	538968064	66	4867
2026-01-17 07:17:20.59	54.95	28.22	-47.6	-49.7	17.1	0.00e+00	0	34	0	541065216	66	4671
2026-01-17 07:17:21.60	54.65	28.29	-47.5	-49.5	17.2	0.00e+00	0	34	0	543162368	66	4597
2026-01-17 07:17:22.61	54.36	28.37	-47.5	-49.5	17.3	0.00e+00	0	34	0	545259520	66	4571
2026-01-17 07:17:23.62	54.06	28.45	-47.2	-49.2	17.6	0.00e+00	0	33	0	546308096	66	4408
2026-01-17 07:17:24.63	53.76	28.53	-47.1	-48.9	17.9	0.00e+00	0	33	0	548405248	66	4288
2026-01-17 07:17:25.63	53.46	28.60	-46.7	-48.5	18.3	0.00e+00	0	34	0	550502400	65	4322
2026-01-17 07:17:26.64	53.16	28.68	-46.5	-48.2	18.5	0.00e+00	0	33	0	552599552	65	4188
2026-01-17 07:17:27.65	52.85	28.75	-46.2	-47.9	18.8	0.00e+00	0	34	0	554696704	64	4246
2026-01-17 07:17:28.66	52.55	28.82	-46.2	-47.8	18.8	0.00e+00	0	34	0	555745280	64	4230
2026-01-17 07:17:29.66	52.25	28.90	-46.2	-47.8	18.8	0.00e+00	0	33	0	557842432	64	4232
2026-01-17 07:17:30.67	51.94	28.97	-46.3	-48.0	18.7	0.00e+00	0	34	0	559939584	64	4292
2026-01-17 07:17:31.68	51.63	29.04	-46.4	-48.0	18.6	0.00e+00	0	34	0	562036736	64	4337
2026-01-17 07:17:32.69	51.32	29.11	-46.6	-48.4	18.3	0.00e+00	0	34	0	564133888	64	4541
2026-01-17 07:17:33.69	51.01	29.18	-46.8	-48.7	18.0	0.00e+00	0	34	0	565182464	64	4689
2026-01-17 07:17:34.70	50.69	29.25	-47.1	-49.1	17.6	0.00e+00	0	33	0	567279616	65	4628
2026-01-17 07:17:35.71	50.38	29.32	-47.3	-49.4	17.4	0.00e+00	0	34	0	569376768	65	4769
2026-01-17 07:17:36.72	50.06	29.38	-47.1	-49.1	17.7	0.00e+00	0	34	0	571473920	65	4624
2026-01-17 07:17:37.73	49.74	29.45	-46.8	-48.7	18.0	0.00e+00	0	34	0	573571072	65	4408
2026-01-17 07:17:38.73	49.43	29.52	-46.7	-48.5	18.1	0.00e+00	0	34	0	574619648	65	4329
2026-01-17 07:17:39.74	49.11	29.58	-46.7	-48.5	18.2	0.00e+00	0	33	0	576716800	65	4337
2026-01-17 07:17:40.75	48.79	29.64	-46.8	-48.6	18.1	0.00e+00	0	34	0	578813952	65	4391
2026-01-17 07:17:41.76	48.46	29.71	-46.8	-48.6	18.1	0.00e+00	0	33	0	580911104	65	4355
2026-01-17 07:17:42.77	48.14	29.77	-46.4	-48.0	18.7	0.00e+00	0	34	0	583008256	64	4328
2026-01-17 07:17:43.77	47.82	29.83	-46.4	-48.1	18.6	0.00e+00	0	33	0	584056832	64	4356
2026-01-17 07:17:44.78	47.49	29.89	-46.3	-47.9	18.8	0.00e+00	0	34	0	586153984	64	4274
2026-01-17 07:17:45.79	47.16	29.95	-46.2	-47.8	18.9	0.00e+00	0	34	0	588251136	64	4239
2026-01-17 07:17:46.80	46.83	30.01	-46.1	-47.6	19.2	0.00e+00	0	33	0	590348288	63	4356
2026-01-17 07:17:47.81	46.50	30.07	-46.4	-48.0	18.8	0.00e+00	0	33	0	592445440	63	4573
2026-01-17 07:17:48.82	46.17	30.12	-46.7	-48.5	18.3	0.00e+00	0	33	0	593494016	64	4553
2026-01-17 07:17:49.83	45.84	30.18	-47.1	-49.0	17.7	0.00e+00	0	34	0	595591168	64	4844
2026-01-17 07:17:50.84	45.51	30.23	-46.7	-48.5	18.2	0.00e+00	0	34	0	597688320	64	4579
2026-01-17 07:17:51.85	45.17	30.29	-46.4	-48.0	18.7	0.00e+00	0	34	0	599785472	64	4339
2026-01-17 07:17:52.86	44.84	30.34	-45.8	-47.2	19.5	0.00e+00	0	34	0	601882624	63	4172
2026-01-17 07:17:53.87	44.50	30.39	-45.8	-47.3	19.5	0.00e+00	0	34	0	602931200	63	4211
2026-01-17 07:17:54.88	44.16	30.44	-46.2	-47.7	19.1	0.00e+00	0	33	0	605028352	63	4441
2026-01-17 07:17:55.88	43.83	30.49	-46.3	-47.9	19.0	0.00e+00	0	34	0	607125504	63	4494
2026-01-17 07:17:56.89	43.49	30.54	-46.3	-47.9	18.9	0.00e+00	0	33	0	609222656	63	4540
2026-01-17 07:17:57.90	43.14	30.59	-46.1	-47.6	19.2	0.00e+00	0	34	0	611319808	63	4372
2026-01-17 07:17:58.91	42.80	30.63	-46.3	-47.9	19.0	0.00e+00	0	33	0	613416960	63	4519
2026-01-17 07:17:59.92	42.46	30.68	-46.5	-48.2	18.7	0.00e+00	0	33	0	614465536	63	4655
2026-01-17 07:18:00.93	42.11	30.72	-46.6	-48.4	18.4	0.00e+00	0	34	0	616562688	64	4523
2026-01-17 07:18:01.93	41.77	30.77	-47.1	-49.0	17.8	0.00e+00	0	34	0	618659840	64	4862
2026-01-17 07:18:02.94	41.43	30.81	-47.5	-49.6	17.2	0.00e+00	0	34	0	620756992	65	4916
2026-01-17 07:18:03.95	41.08	30.85	-47.8	-50.0	16.8	0.00e+00	0	34	0	621805568	66	4868
2026-01-17 07:18:04.96	40.73	30.89	-47.7	-50.0	16.9	0.00e+00	0	34	0	623902720	66	4840
2026-01-17 07:18:05.96	40.39	30.93	-48.0	-50.4	16.5	0.00e+00	0	34	0	625999872	66	5047
2026-01-17 07:18:06.97	40.04	30.97	-47.7	-49.9	16.8	0.00e+00	0	33	0	628097024	66	4806
2026-01-17 07:18:07.98	39.69	31.00	-47.3	-49.2	17.6	0.00e+00	0	34	0	630194176	66	4438
2026-01-17 07:18:08.99	39.34	31.04	-47.1	-49.1	17.8	0.00e+00	0	33	0	632291328	66	4343
2026-01-17 07:18:10.00	38.99	31.07	-47.1	-49.1	17.7	0.00e+00	0	34	0	633339904	66	4348
2026-01-17 07:18:11.00	38.64	31.10	-47.5	-49.6	17.3	0.00e+00	0	34	0	635437056	66	4637
2026-01-17 07:18:12.01	38.28	31.14	-47.4	-49.5	17.4	0.00e+00	0	34	0	637534208	66	4550
2026-01-17 07:18:13.02	37.93	31.17	-47.0	-48.9	17.9	0.00e+00	0	33	0	639631360	66	4247
2026-01-17 07:18:14.03	37.58	31.20	-46.7	-48.4	18.3	0.00e+00	0	34	0	641728512	65	4271
2026-01-17 07:18:15.04	37.22	31.22	-46.4	-48.0	18.7	0.00e+00	0	34	0	642777088	64	4340
2026-01-17 07:18:16.05	36.86	31.25	-46.3	-47.9	18.9	0.00e+00	0	34	0	644874240	64	4267
2026-01-17 07:18:17.05	36.51	31.28	-46.5	-48.2	18.5	0.00e+00	0	34	0	646971392	64	4423
2026-01-17 07:18:18.06	36.15	31.30	-47.0	-48.8	18.0	0.00e+00	0	34	0	649068544	64	4728
2026-01-17 07:18:19.07	35.80	31.32	-47.2	-49.1	17.6	0.00e+00	0	33	0	650117120	65	4642
2026-01-17 07:18:20.08	35.44	31.35	-47.6	-49.7	17.1	0.00e+00	0	33	0	652214272	65	4960
2026-01-17 07:18:21.09	35.08	31.37	-47.4	-49.4	17.3	0.00e+00	0	34	0	654311424	65	4795
2026-01-17 07:18:22.09	34.73	31.39	-47.4	-49.4	17.4	0.00e+00	0	34	0	656408576	65	4775
2026-01-17 07:18:23.10	34.37	31.40	-47.0	-48.9	17.9	0.00e+00	0	34	0	658505728	65	4495
2026-01-17 07:18:24.11	34.01	31.42	-46.8	-48.6	18.2	0.00e+00	0	33	0	660602880	65	4362
2026-01-17 07:18:25.12	33.65	31.44	-47.0	-48.9	17.9	0.00e+00	0	34	0	661651456	65	4494
2026-01-17 07:18:26.13	33.29	31.45	-47.4	-49.5	17.4	0.00e+00	0	34	0	663748608	65	4854
2026-01-17 07:18:27.13	32.93	31.46	-47.8	-50.0	16.8	0.00e+00	0	34	0	665845760	66	4823
2026-01-17 07:18:28.14	32.57	31.48	-47.4	-49.4	17.4	0.00e+00	0	34	0	667942912	66	4519
2026-01-17 07:18:29.15	32.21	31.49	-46.9	-48.7	18.0	0.00e+00	0	34	0	670040064	65	4415
2026-01-17 07:18:30.16	31.85	31.50	-46.8	-48.6	18.2	0.00e+00	0	33	0	671088640	65	4348
2026-01-17 07:18:31.17	31.49	31.50	-46.9	-48.7	18.1	0.00e+00	0	34	0	673185792	65	4415
2026-01-17 07:18:32.17	31.13	31.51	-47.5	-49.5	17.3	0.00e+00	0	34	0	675282944	65	4841
2026-01-17 07:18:33.18	30.77	31.52	-47.8	-50.0	16.9	0.00e+00	0	34	0	677380096	66	4828
2026-01-17 07:18:34.19	30.40	31.52	-47.8	-50.0	16.7	0.00e+00	0	34	0	679477248	66	4864
2026-01-17 07:18:35.20	30.04	31.52	-47.8	-50.1	16.8	0.00e+00	0	34	0	680525824	66	4874
2026-01-17 07:18:36.21	29.68	31.52	-47.8	-50.1	16.8	0.00e+00	0	34	0	682622976	66	4883
2026-01-17 07:18:37.22	29.32	31.52	-47.6	-49.7	17.1	0.00e+00	0	34	0	684720128	66	4697
2026-01-17 07:18:38.23	28.96	31.52	-47.7	-49.8	17.1	0.00e+00	0	34	0	686817280	66	4724
2026-01-17 07:18:39.24	28.59	31.52	-47.5	-49.6	17.2	0.00e+00	0	33	0	688914432	66	4641
2026-01-17 07:18:40.25	28.23	31.52	-47.0	-48.8	17.9	0.00e+00	0	34	0	689963008	66	4235
2026-01-17 07:18:41.26	27.87	31.51	-46.4	-48.0	18.7	0.00e+00	0	34	0	692060160	64	4310
2026-01-17 07:18:42.27	27.51	31.51	-46.0	-47.5	19.3	0.00e+00	0	34	0	694157312	63	4327
2026-01-17 07:18:43.28	27.15	31.50	-46.1	-47.7	19.1	0.00e+00	0	34	0	696254464	63	4397
2026-01-17 07:18:44.28	26.79	31.49	-46.6	-48.2	18.7	0.00e+00	0	34	0	698351616	63	4686
2026-01-17 07:18:45.29	26.43	31.48	-46.9	-48.7	18.1	0.00e+00	0	33	0	700448768	64	4687
2026-01-17 07:18:46.30	26.07	31.47	-47.4	-49.4	17.5	0.00e+00	0	34	0	701497344	65	4764
2026-01-17 07:18:47.31	25.71	31.46	-47.3	-49.3	17.6	0.00e+00	0	34	0	703594496	65	4725
2026-01-17 07:18:48.32	25.35	31.44	-47.3	-49.2	17.6	0.00e+00	0	34	0	705691648	65	4673
2026-01-17 07:18:49.32	24.99	31.43	-47.2	-49.1	17.7	0.00e+00	0	33	0	707788800	65	4645
2026-01-17 07:18:50.33	24.63	31.41	-47.6	-49.6	17.3	0.00e+00	0	34	0	708837376	65	4911
2026-01-17 07:18:51.34	24.27	31.39	-47.4	-49.3	17.5	0.00e+00	0	34	0	710934528	65	4756
2026-01-17 07:18:52.35	23.91	31.37	-47.2	-49.1	17.8	0.00e+00	0	34	0	713031680	65	4619
2026-01-17 07:18:53.36	23.56	31.35	-47.1	-48.9	18.0	0.00e+00	0	34	0	715128832	65	4538
2026-01-17 07:18:54.37	23.20	31.33	-47.3	-49.3	17.7	0.00e+00	0	34	0	717225984	65	4717
2026-01-17 07:18:55.37	22.84	31.31	-47.5	-49.6	17.3	0.00e+00	0	34	0	718274560	65	4884
2026-01-17 07:18:56.38	22.49	31.29	-47.3	-49.3	17.6	0.00e+00	0	34	0	720371712	65	4734
2026-01-17 07:18:57.39	22.13	31.26	-47.0	-48.9	18.0	0.00e+00	0	34	0	722468864	65	4504
2026-01-17 07:18:58.40	21.77	31.24	-46.8	-48.6	18.2	0.00e+00	0	33	0	724566016	65	4345
2026-01-17 07:18:59.40	21.42	31.21	-46.5	-48.2	18.6	0.00e+00	0	34	0	726663168	65	4166
2026-01-17 07:19:00.41	21.07	31.18	-46.8	-48.6	18.2	0.00e+00	0	34	0	728760320	65	4383
2026-01-17 07:19:01.42	20.71	31.15	-47.6	-49.7	17.2	0.00e+00	0	33	0	729808896	66	4656
2026-01-17 07:19:02.43	20.36	31.12	-47.8	-50.1	16.7	0.00e+00	0	34	0	731906048	66	4890
2026-01-17 07:19:03.44	20.01	31.09	-47.9	-50.1	16.7	0.00e+00	0	34	0	734003200	66	4915
2026-01-17 07:19:04.44	19.66	31.05	-47.3	-49.4	17.5	0.00e+00	0	34	0	736100352	66	4514
2026-01-17 07:19:05.45	19.31	31.02	-46.6	-48.3	18.4	0.00e+00	0	34	0	737148928	65	4216
2026-01-17 07:19:06.46	18.96	30.98	-46.1	-47.7	19.0	0.00e+00	0	34	0	739246080	64	4178
2026-01-17 07:19:07.47	18.61	30.94	-45.8	-47.4	19.4	0.00e+00	0	34	0	741343232	63	4243
2026-01-17 07:19:08.48	18.26	30.91	-46.2	-47.9	19.0	0.00e+00	0	34	0	743440384	63	4499
2026-01-17 07:19:09.48	17.92	30.87	-46.8	-48.7	18.1	0.00e+00	0	34	0	745537536	64	4665
2026-01-17 07:19:10.49	17.57	30.83	-47.0	-48.9	17.9	0.00e+00	0	33	0	747634688	64	4763
2026-01-17 07:19:11.50	17.22	30.79	-46.9	-48.7	18.0	0.00e+00	0	33	0	748683264	64	4691
2026-01-17 07:19:12.51	16.88	30.74	-46.8	-48.6	18.2	0.00e+00	0	34	0	750780416	64	4634
2026-01-17 07:19:13.52	16.53	30.70	-46.9	-48.7	18.1	0.00e+00	0	34	0	752877568	64	4678
2026-01-17 07:19:14.53	16.19	30.65	-47.2	-49.2	17.6	0.00e+00	0	34	0	754974720	65	4685
2026-01-17 07:19:15.54	15.85	30.61	-47.6	-49.7	17.1	0.00e+00	0	34	0	757071872	65	4977
2026-01-17 07:19:16.54	15.51	30.56	-47.7	-49.9	17.0	0.00e+00	0	33	0	758120448	66	4765
2026-01-17 07:19:17.55	15.17	30.51	-48.0	-50.2	16.7	0.00e+00	0	33	0	760217600	66	4976
2026-01-17 07:19:18.56	14.83	30.46	-47.2	-49.1	17.7	0.00e+00	0	34	0	762314752	66	4368
2026-01-17 07:19:19.57	14.49	30.41	-47.0	-48.8	17.9	0.00e+00	0	33	0	764411904	65	4484
2026-01-17 07:19:20.58	14.16	30.36	-47.0	-48.8	18.0	0.00e+00	0	33	0	765460480	65	4473
2026-01-17 07:19:21.59	13.82	30.31	-46.8	-48.6	18.1	0.00e+00	0	34	0	767557632	65	4380
2026-01-17 07:19:22.60	13.49	30.26	-46.8	-48.6	18.2	0.00e+00	0	34	0	769654784	65	4374
2026-01-17 07:19:23.60	13.16	30.20	-46.7	-48.4	18.3	0.00e+00	0	34	0	771751936	65	4290
2026-01-17 07:19:24.61	12.82	30.15	-46.7	-48.4	18.4	0.00e+00	0	34	0	773849088	65	4273
2026-01-17 07:19:25.62	12.49	30.09	-46.8	-48.6	18.2	0.00e+00	0	34	0	775946240	65	4365
2026-01-17 07:19:26.63	12.16	30.03	-46.8	-48.6	18.2	0.00e+00	0	33	0	776994816	65	4351
2026-01-17 07:19:27.64	11.83	29.98	-47.0	-48.8	18.0	0.00e+00	0	33	0	779091968	65	4477
2026-01-17 07:19:28.64	11.51	29.92	-46.8	-48.6	18.3	0.00e+00	0	33	0	781189120	65	4355
2026-01-17 07:19:29.65	11.18	29.86	-47.0	-48.9	17.9	0.00e+00	0	33	0	783286272	65	4516
2026-01-17 07:19:30.66	10.85	29.80	-47.6	-49.7	17.2	0.00e+00	0	34	0	785383424	65	4945
2026-01-17 07:19:31.67	10.53	29.74	-47.8	-50.0	16.9	0.00e+00	0	34	0	786432000	66	4834
2026-01-17 07:19:32.68	10.21	29.67	-47.9	-50.1	16.7	0.00e+00	0	34	0	788529152	66	4913
2026-01-17 07:19:33.69	9.89	29.61	-47.9	-50.1	16.8	0.00e+00	0	34	0	790626304	66	4892
2026-01-17 07:19:34.69	9.57	29.55	-48.0	-50.2	16.6	0.00e+00	0	34	0	792723456	66	4968
2026-01-17 07:19:35.70	9.25	29.48	-48.2	-50.6	16.2	0.00e+00	0	34	0	794820608	67	4883
2026-01-17 07:19:36.71	8.93	29.41	-48.3	-50.7	16.1	0.00e+00	0	34	0	795869184	67	4954
2026-01-17 07:19:37.71	8.62	29.35	-48.3	-50.7	16.1	0.00e+00	0	33	0	797966336	67	4956
2026-01-17 07:19:38.72	8.30	29.28	-48.3	-50.8	16.1	0.00e+00	0	34	0	800063488	67	5003
2026-01-17 07:19:39.73	7.99	29.21	-48.3	-50.8	16.1	0.00e+00	0	34	0	802160640	67	5012
2026-01-17 07:19:40.74	7.68	29.14	-48.2	-50.5	16.4	0.00e+00	0	34	0	804257792	67	4848
2026-01-17 07:19:41.75	7.37	29.07	-48.1	-50.4	16.4	0.00e+00	0	33	0	805306368	67	4808
2026-01-17 07:19:42.76	7.06	29.00	-48.2	-50.5	16.4	0.00e+00	0	34	0	807403520	67	4826
2026-01-17 07:19:43.76	6.75	28.93	-48.1	-50.3	16.5	0.00e+00	0	34	0	809500672	67	4744
2026-01-17 07:19:44.77	6.44	28.86	-48.2	-50.6	16.2	0.00e+00	0	34	0	811597824	67	4925
2026-01-17 07:19:45.78	6.14	28.78	-48.2	-50.6	16.3	0.00e+00	0	34	0	813694976	67	4896
2026-01-17 07:19:46.79	5.83	28.71	-48.0	-50.3	16.5	0.00e+00	0	34	0	814743552	67	4723
2026-01-17 07:19:47.80	5.53	28.64	-47.4	-49.5	17.3	0.00e+00	0	34	0	816840704	66	4557
2026-01-17 07:19:48.80	5.23	28.56	-47.1	-49.0	17.8	0.00e+00	0	34	0	818937856	66	4296
2026-01-17 07:19:49.81	4.93	28.49	-46.8	-48.6	18.1	0.00e+00	0	34	0	821035008	65	4391
2026-01-17 07:19:50.82	4.64	28.41	-46.6	-48.4	18.4	0.00e+00	0	34	0	823132160	65	4261
2026-01-17 07:19:51.83	4.34	28.33	-46.2	-47.8	18.9	0.00e+00	0	34	0	824180736	64	4219
2026-01-17 07:19:52.84	4.04	28.25	-46.2	-47.8	19.0	0.00e+00	0	34	0	826277888	64	4214
2026-01-17 07:19:53.84	3.75	28.18	-45.8	-47.3	19.5	0.00e+00	0	33	0	828375040	63	4211
2026-01-17 07:19:54.85	3.46	28.10	-46.0	-47.5	19.3	0.00e+00	0	34	0	830472192	63	4332
2026-01-17 07:19:55.86	3.17	28.02	-46.0	-47.5	19.3	0.00e+00	0	34	0	832569344	63	4315
2026-01-17 07:19:56.87	2.88	27.94	-45.4	-46.8	19.7	0.00e+00	0	34	0	833617920	63	3995
2026-01-17 07:19:57.88	2.59	27.86	-45.5	-47.0	19.7	0.00e+00	0	33	0	835715072	62	4293
2026-01-17 07:19:58.88	2.31	27.78	-45.8	-47.3	19.4	0.00e+00	0	34	0	837812224	62	4484
2026-01-17 07:19:59.89	2.02	27.69	-46.5	-48.2	18.6	0.00e+00	0	34	0	839909376	63	4695
2026-01-17 07:20:00.90	1.74	27.61	-46.9	-48.7	18.1	0.00e+00	0	34	0	842006528	64	4683
2026-01-17 07:20:01.91	1.45	27.53	-46.7	-48.4	18.3	0.00e+00	0	34	0	843055104	64	4529
2026-01-17 07:20:02.92	1.17	27.44	-46.0	-47.5	19.1	0.00e+00	0	34	0	845152256	64	4083
2026-01-17 07:20:03.92	0.90	27.36	-45.9	-47.4	19.4	0.00e+00	0	33	0	847249408	63	4258
2026-01-17 07:20:04.93	0.62	27.28	-45.9	-47.4	19.2	0.00e+00	0	34	0	849346560	63	4270
2026-01-17 07:20:05.94	0.34	27.19	-46.6	-48.3	18.5	0.00e+00	0	34	0	851443712	64	4482
2026-01-17 07:20:06.95	0.07	27.11	-47.3	-49.4	17.5	0.00e+00	0	34	0	852492288	65	4780
2026-01-17 07:20:07.96	359.79	27.02	-48.3	-50.9	16.1	0.00e+00	0	34	0	854589440	67	5057
2026-01-17 07:20:08.97	359.52	26.93	-48.3	-50.8	16.0	0.00e+00	0	33	0	856686592	67	5026
2026-01-17 07:20:09.98	359.25	26.85	-48.2	-50.6	16.3	0.00e+00	0	34	0	858783744	67	4893
2026-01-17 07:20:10.98	358.99	26.76	-47.7	-49.8	17.1	0.00e+00	0	34	0	860880896	67	4447
2026-01-17 07:20:11.99	358.72	26.67	-47.5	-49.5	17.3	0.00e+00	0	34	0	862978048	67	4334
2026-01-17 07:20:13.00	358.45	26.58	-46.9	-48.7	18.1	0.00e+00	0	33	0	864026624	65	4439
2026-01-17 07:20:14.01	358.19	26.50	-46.5	-48.2	18.5	0.00e+00	0	33	0	866123776	65	4172
2026-01-17 07:20:15.02	357.93	26.41	-46.2	-47.8	18.9	0.00e+00	0	33	0	868220928	64	4237
2026-01-17 07:20:16.03	357.66	26.32	-46.5	-48.1	18.6	0.00e+00	0	34	0	870318080	64	4389
2026-01-17 07:20:17.03	357.41	26.23	-46.4	-48.0	18.7	0.00e+00	0	34	0	871366656	64	4332
2026-01-17 07:20:18.04	357.15	26.14	-46.3	-47.9	18.9	0.00e+00	0	34	0	873463808	64	4259
2026-01-17 07:20:19.05	356.89	26.05	-46.1	-47.6	19.2	0.00e+00	0	34	0	875560960	63	4353
2026-01-17 07:20:20.06	356.64	25.96	-45.6	-47.0	19.7	0.00e+00	0	33	0	877658112	63	4080
2026-01-17 07:20:21.07	356.38	25.87	-45.2	-46.5	20.1	0.00e+00	0	34	0	879755264	62	4097
2026-01-17 07:20:22.08	356.13	25.78	-45.1	-46.4	20.2	0.00e+00	0	34	0	880803840	62	4048
2026-01-17 07:20:23.08	355.88	25.69	-45.3	-46.7	20.1	0.00e+00	0	33	0	882900992	62	4167
2026-01-17 07:20:24.09	355.63	25.59	-45.3	-46.6	20.1	0.00e+00	0	33	0	884998144	62	4136
2026-01-17 07:20:25.10	355.38	25.50	-45.3	-46.6	20.1	0.00e+00	0	34	0	887095296	62	4143
2026-01-17 07:20:26.11	355.14	25.41	-45.3	-46.7	20.1	0.00e+00	0	33	0	889192448	62	4152
2026-01-17 07:20:27.12	354.89	25.32	-45.3	-46.7	20.0	0.00e+00	0	34	0	891289600	62	4157
2026-01-17 07:20:28.12	354.65	25.22	-45.4	-46.8	19.9	0.00e+00	0	33	0	892338176	62	4223
2026-01-17 07:20:29.13	354.41	25.13	-45.5	-47.0	19.7	0.00e+00	0	34	0	894435328	62	4299
2026-01-17 07:20:30.14	354.17	25.04	-45.7	-47.2	19.6	0.00e+00	0	34	0	896532480	62	4399
2026-01-17 07:20:31.15	353.93	24.94	-45.9	-47.4	19.3	0.00e+00	0	34	0	898629632	62	4522
2026-01-17 07:20:32.16	353.69	24.85	-45.9	-47.5	19.3	0.00e+00	0	34	0	899678208	62	4559
2026-01-17 07:20:33.17	353.45	24.76	-46.0	-47.6	19.2	0.00e+00	0	34	0	901775360	62	4612
2026-01-17 07:20:34.17	353.22	24.66	-46.0	-47.6	19.1	0.00e+00	0	34	0	903872512	62	4626
2026-01-17 07:20:35.18	352.98	24.57	-45.9	-47.4	19.3	0.00e+00	0	34	0	905969664	62	4536
2026-01-17 07:20:36.19	352.75	24.47	-45.8	-47.4	19.4	0.00e+00	0	34	0	908066816	62	4495
2026-01-17 07:20:37.20	352.52	24.38	-45.7	-47.1	19.6	0.00e+00	0	34	0	910163968	62	4389
2026-01-17 07:20:38.20	352.29	24.29	-45.7	-47.1	19.6	0.00e+00	0	34	0	911212544	62	4385
2026-01-17 07:20:39.21	352.06	24.19	-45.5	-47.0	19.8	0.00e+00	0	34	0	913309696	62	4305
2026-01-17 07:20:40.22	351.84	24.10	-45.6	-47.1	19.6	0.00e+00	0	34	0	915406848	62	4380
2026-01-17 07:20:41.23	351.61	24.00	-45.3	-46.7	19.9	0.00e+00	0	34	0	917504000	62	4191
2026-01-17 07:20:42.24	351.39	23.90	-45.1	-46.5	20.1	0.00e+00	0	34	0	919601152	62	4068
2026-01-17 07:20:43.24	351.17	23.81	-44.9	-46.2	20.4	0.00e+00	0	33	0	920649728	61	4177
2026-01-17 07:20:44.25	350.95	23.71	-44.7	-46.0	20.6	0.00e+00	0	34	0	922746880	61	4061
2026-01-17 07:20:45.26	350.73	23.62	-44.3	-45.5	21.1	0.00e+00	0	34	0	924844032	60	4073
2026-01-17 07:20:46.27	350.51	23.52	-44.1	-45.3	21.2	0.00e+00	0	34	0	926941184	60	3961
2026-01-17 07:20:47.28	350.29	23.43	-44.3	-45.5	21.3	0.00e+00	0	34	0	927989760	59	4319
2026-01-17 07:20:48.28	350.08	23.33	-44.4	-45.6	21.3	0.00e+00	0	34	0	930086912	59	4347
2026-01-17 07:20:49.29	349.86	23.24	-44.6	-45.9	21.0	0.00e+00	0	34	0	932184064	59	4514
2026-01-17 07:20:50.30	349.65	23.14	-44.8	-46.1	20.5	0.00e+00	0	34	0	934281216	60	4390
2026-01-17 07:20:51.31	349.44	23.04	-45.1	-46.5	20.2	0.00e+00	0	34	0	936378368	61	4327
2026-01-17 07:20:52.32	349.23	22.95	-45.4	-46.9	19.8	0.00e+00	0	34	0	938475520	61	4511
2026-01-17 07:20:53.32	349.02	22.85	-45.5	-46.9	19.7	0.00e+00	0	34	0	939524096	61	4542
2026-01-17 07:20:54.33	348.81	22.75	-45.3	-46.6	20.0	0.00e+00	0	34	0	941621248	61	4387
2026-01-17 07:20:55.34	348.61	22.66	-45.1	-46.5	20.2	0.00e+00	0	34	0	943718400	61	4304
2026-01-17 07:20:56.35	348.40	22.56	-44.8	-46.1	20.5	0.00e+00	0	34	0	945815552	61	4124
2026-01-17 07:20:57.36	348.20	22.46	-44.9	-46.2	20.5	0.00e+00	0	34	0	947912704	61	4161
2026-01-17 07:20:58.37	347.99	22.37	-44.8	-46.2	20.5	0.00e+00	0	34	0	948961280	61	4147
2026-01-17 07:20:59.38	347.79	22.27	-45.0	-46.3	20.4	0.00e+00	0	34	0	951058432	61	4204
2026-01-17 07:21:00.38	347.59	22.18	-44.8	-46.1	20.5	0.00e+00	0	34	0	953155584	61	4134
2026-01-17 07:21:01.39	347.39	22.08	-45.1	-46.4	20.2	0.00e+00	0	33	0	955252736	61	4270
2026-01-17 07:21:02.40	347.20	21.98	-44.9	-46.2	20.4	0.00e+00	0	33	0	957349888	61	4178
2026-01-17 07:21:03.41	347.00	21.89	-44.9	-46.2	20.4	0.00e+00	0	34	0	958398464	61	4171
2026-01-17 07:21:04.42	346.81	21.79	-45.2	-46.6	20.1	0.00e+00	0	34	0	960495616	61	4373
2026-01-17 07:21:05.43	346.61	21.69	-45.2	-46.5	20.1	0.00e+00	0	34	0	962592768	61	4326
2026-01-17 07:21:06.43	346.42	21.60	-45.3	-46.7	20.0	0.00e+00	0	34	0	964689920	61	4421
2026-01-17 07:21:07.45	346.23	21.50	-45.2	-46.6	20.0	0.00e+00	0	33	0	966787072	61	4381
2026-01-17 07:21:08.46	346.04	21.40	-45.1	-46.4	20.2	0.00e+00	0	34	0	967835648	61	4281
2026-01-17 07:21:09.46	345.85	21.31	-44.8	-46.1	20.5	0.00e+00	0	34	0	969932800	61	4127
2026-01-17 07:21:10.47	345.66	21.21	-44.8	-46.1	20.5	0.00e+00	0	34	0	972029952	61	4141
2026-01-17 07:21:11.48	345.47	21.11	-44.9	-46.2	20.5	0.00e+00	0	34	0	974127104	61	4165
2026-01-17 07:21:12.49	345.29	21.02	-44.9	-46.2	20.4	0.00e+00	0	34	0	976224256	61	4177
2026-01-17 07:21:13.50	345.10	20.92	-45.1	-46.5	20.2	0.00e+00	0	34	0	978321408	61	4295
2026-01-17 07:21:14.51	344.92	20.82	-45.5	-46.9	19.8	0.00e+00	0	34	0	979369984	61	4527
2026-01-17 07:21:15.52	344.74	20.73	-45.5	-46.9	19.6	0.00e+00	0	34	0	981467136	61	4528
2026-01-17 07:21:16.53	344.56	20.63	-45.7	-47.1	19.5	0.00e+00	0	34	0	983564288	61	4642
2026-01-17 07:21:17.54	344.38	20.54	-45.8	-47.3	19.3	0.00e+00	0	34	0	985661440	62	4493
2026-01-17 07:21:18.54	344.20	20.44	-45.8	-47.3	19.4	0.00e+00	0	34	0	986710016	62	4473
2026-01-17 07:21:19.55	344.02	20.35	-45.7	-47.2	19.5	0.00e+00	0	34	0	988807168	62	4396
2026-01-17 07:21:20.56	343.85	20.25	-45.4	-46.8	19.9	0.00e+00	0	34	0	990904320	62	4213
2026-01-17 07:21:21.57	343.67	20.15	-45.4	-46.8	19.9	0.00e+00	0	34	0	993001472	62	4228
2026-01-17 07:21:22.58	343.50	20.06	-44.8	-46.1	20.5	0.00e+00	0	33	0	995098624	61	4129
2026-01-17 07:21:23.58	343.33	19.96	-44.9	-46.1	20.4	0.00e+00	0	34	0	997195776	61	4136
2026-01-17 07:21:24.59	343.16	19.87	-44.8	-46.1	20.5	0.00e+00	0	33	0	998244352	61	4100
2026-01-17 07:21:25.60	342.98	19.77	-44.7	-46.0	20.6	0.00e+00	0	34	0	1000341504	61	4066
2026-01-17 07:21:26.61	342.81	19.68	-44.8	-46.0	20.5	0.00e+00	0	34	0	1002438656	61	4097
2026-01-17 07:21:27.62	342.65	19.58	-45.1	-46.5	20.1	0.00e+00	0	33	0	1004535808	61	4302
2026-01-17 07:21:28.62	342.48	19.49	-45.1	-46.4	20.2	0.00e+00	0	34	0	1006632960	61	4255
2026-01-17 07:21:29.63	342.31	19.39	-45.4	-46.8	19.8	0.00e+00	0	34	0	1007681536	61	4474
2026-01-17 07:21:30.64	342.15	19.30	-45.9	-47.4	19.2	0.00e+00	0	34	0	1009778688	62	4543
2026-01-17 07:21:31.65	341.98	19.20	-46.1	-47.7	19.0	0.00e+00	0	34	0	1011875840	62	4655
2026-01-17 07:21:32.66	341.82	19.11	-46.4	-48.1	18.6	0.00e+00	0	33	0	1013972992	63	4623
2026-01-17 07:21:33.66	341.66	19.01	-46.5	-48.2	18.6	0.00e+00	0	34	0	1015021568	63	4670
2026-01-17 07:21:34.67	341.50	18.92	-46.4	-48.1	18.7	0.00e+00	0	33	0	1017118720	63	4599
2026-01-17 07:21:35.68	341.34	18.82	-46.2	-47.8	18.9	0.00e+00	0	34	0	1019215872	63	4462
2026-01-17 07:21:36.69	341.18	18.73	-46.0	-47.6	19.2	0.00e+00	0	34	0	1021313024	63	4342
2026-01-17 07:21:37.70	341.02	18.64	-45.7	-47.2	19.5	0.00e+00	0	34	0	1023410176	63	4148
2026-01-17 07:21:38.71	340.86	18.54	-45.6	-47.0	19.6	0.00e+00	0	34	0	1025507328	63	4084
2026-01-17 07:21:39.72	340.71	18.45	-45.3	-46.7	19.9	0.00e+00	0	34	0	1026555904	62	4163
2026-01-17 07:21:40.73	340.55	18.35	-45.4	-46.8	19.8	0.00e+00	0	33	0	1028653056	62	4199
2026-01-17 07:21:41.74	340.40	18.26	-45.6	-47.0	19.5	0.00e+00	0	33	0	1030750208	62	4339
2026-01-17 07:21:42.75	340.24	18.17	-45.7	-47.2	19.5	0.00e+00	0	34	0	1032847360	62	4417
2026-01-17 07:21:43.75	340.09	18.07	-46.0	-47.6	19.1	0.00e+00	0	33	0	1034944512	62	4614
2026-01-17 07:21:44.76	339.94	17.98	-46.2	-47.8	18.8	0.00e+00	0	34	0	1035993088	62	4743
2026-01-17 07:21:45.77	339.79	17.89	-46.3	-48.0	18.7	0.00e+00	0	34	0	1038090240	63	4552
2026-01-17 07:21:46.78	339.64	17.80	-46.2	-47.8	18.9	0.00e+00	0	34	0	1040187392	63	4475
2026-01-17 07:21:47.79	339.49	17.70	-46.5	-48.2	18.5	0.00e+00	0	34	0	1042284544	63	4672
2026-01-17 07:21:48.80	339.34	17.61	-46.4	-48.0	18.7	0.00e+00	0	34	0	1044381696	63	4583
2026-01-17 07:21:49.81	339.20	17.52	-45.9	-47.4	19.3	0.00e+00	0	34	0	1045430272	63	4256
2026-01-17 07:21:50.82	339.05	17.43	-45.9	-47.4	19.2	0.00e+00	0	34	0	1047527424	63	4281
2026-01-17 07:21:51.82	338.91	17.33	-45.7	-47.1	19.5	0.00e+00	0	33	0	1049624576	63	4134
2026-01-17 07:21:52.83	338.76	17.24	-45.6	-47.0	19.6	0.00e+00	0	34	0	1051721728	63	4087
2026-01-17 07:21:53.84	338.62	17.15	-45.6	-47.0	19.6	0.00e+00	0	34	0	1053818880	63	4073
2026-01-17 07:21:54.85	338.48	17.06	-45.6	-47.1	19.5	0.00e+00	0	34	0	1054867456	62	4372
2026-01-17 07:21:55.86	338.33	16.97	-45.5	-47.0	19.6	0.00e+00	0	34	0	1056964608	62	4311
2026-01-17 07:21:56.86	338.20	16.88	-45.6	-47.0	19.5	0.00e+00	0	33	0	1059061760	62	4332
2026-01-17 07:21:57.87	338.06	16.79	-45.8	-47.2	19.4	0.00e+00	0	34	0	1061158912	62	4430
2026-01-17 07:21:58.88	337.92	16.69	-46.0	-47.5	19.1	0.00e+00	0	34	0	1063256064	62	4588
2026-01-17 07:21:59.89	337.78	16.60	-46.2	-47.8	18.9	0.00e+00	0	34	0	1064304640	62	4731
2026-01-17 07:22:00.90	337.64	16.51	-46.1	-47.6	19.0	0.00e+00	0	33	0	1066401792	63	4374
2026-01-17 07:22:01.91	337.51	16.42	-46.2	-47.7	18.9	0.00e+00	0	34	0	1068498944	63	4424
2026-01-17 07:22:02.92	337.37	16.33	-46.1	-47.7	19.0	0.00e+00	0	34	0	1070596096	63	4413
2026-01-17 07:22:03.92	337.24	16.24	-46.1	-47.7	19.0	0.00e+00	0	34	0	1072693248	63	4398
2026-01-17 07:22:04.93	337.10	16.15	-45.6	-47.1	19.4	0.00e+00	0	34	0	1073741824	63	4109
2026-01-17 07:22:05.94	336.97	16.06	-45.9	-47.4	19.3	0.00e+00	0	34	0	1075838976	63	4264
2026-01-17 07:22:06.95	336.84	15.97	-45.8	-47.3	19.3	0.00e+00	0	33	0	1077936128	63	4222
2026-01-17 07:22:07.96	336.71	15.88	-45.7	-47.2	19.4	0.00e+00	0	34	0	1080033280	63	4161
2026-01-17 07:22:08.97	336.58	15.79	-45.5	-47.0	19.6	0.00e+00	0	34	0	1082130432	63	4062
2026-01-17 07:22:09.98	336.45	15.71	-45.7	-47.2	19.3	0.00e+00	0	34	0	1083179008	63	4179
2026-01-17 07:22:10.98	336.32	15.62	-45.9	-47.4	19.2	0.00e+00	0	34	0	1085276160	63	4265
2026-01-17 07:22:11.99	336.19	15.53	-46.1	-47.7	18.9	0.00e+00	0	34	0	1087373312	63	4406
2026-01-17 07:22:13.00	336.06	15.44	-46.7	-48.4	18.2	0.00e+00	0	34	0	1089470464	63	4798
2026-01-17 07:22:14.01	335.94	15.35	-46.9	-48.7	17.8	0.00e+00	0	34	0	1091567616	64	4705
2026-01-17 07:22:15.02	335.81	15.26	-47.4	-49.4	17.2	0.00e+00	0	34	0	1092616192	65	4805
2026-01-17 07:22:16.03	335.68	15.17	-47.5	-49.7	16.9	0.00e+00	0	34	0	1094713344	65	4954
2026-01-17 07:22:17.04	335.56	15.09	-47.6	-49.8	16.8	0.00e+00	0	34	0	1096810496	66	4734
2026-01-17 07:22:18.04	335.44	15.00	-47.7	-49.9	16.7	0.00e+00	0	33	0	1098907648	66	4773
2026-01-17 07:22:19.05	335.31	14.91	-47.2	-49.2	17.3	0.00e+00	0	34	0	1101004800	66	4399
2026-01-17 07:22:20.06	335.19	14.82	-46.9	-48.7	17.9	0.00e+00	0	34	0	1102053376	65	4417
2026-01-17 07:22:21.07	335.07	14.74	-46.5	-48.2	18.3	0.00e+00	0	34	0	1104150528	65	4158
2026-01-17 07:22:22.08	334.95	14.65	-46.0	-47.5	18.9	0.00e+00	0	34	0	1106247680	64	4082
2026-01-17 07:22:23.09	334.83	14.56	-45.6	-47.1	19.5	0.00e+00	0	34	0	1108344832	63	4107
2026-01-17 07:22:24.09	334.71	14.48	-45.3	-46.7	19.8	0.00e+00	0	33	0	1110441984	62	4181
2026-01-17 07:22:25.10	334.59	14.39	-45.2	-46.6	19.9	0.00e+00	0	33	0	1112539136	62	4117
2026-01-17 07:22:26.11	334.48	14.30	-45.3	-46.7	19.8	0.00e+00	0	34	0	1113587712	62	4185
2026-01-17 07:22:27.12	334.36	14.22	-45.3	-46.7	19.8	0.00e+00	0	34	0	1115684864	62	4178
2026-01-17 07:22:28.13	334.24	14.13	-45.6	-47.1	19.5	0.00e+00	0	33	0	1117782016	62	4345
2026-01-17 07:22:29.14	334.13	14.05	-45.8	-47.4	19.1	0.00e+00	0	33	0	1119879168	62	4521
2026-01-17 07:22:30.14	334.01	13.96	-46.2	-47.8	18.7	0.00e+00	0	34	0	1120927744	62	4738
2026-01-17 07:22:31.15	333.90	13.88	-46.4	-48.1	18.4	0.00e+00	0	34	0	1123024896	63	4646
2026-01-17 07:22:32.16	333.78	13.79	-46.6	-48.4	18.0	0.00e+00	0	34	0	1125122048	64	4537
2026-01-17 07:22:33.17	333.67	13.71	-46.8	-48.7	17.8	0.00e+00	0	34	0	1127219200	64	4669
2026-01-17 07:22:34.18	333.56	13.62	-46.8	-48.6	17.9	0.00e+00	0	34	0	1129316352	64	4632
2026-01-17 07:22:35.19	333.45	13.54	-47.1	-49.0	17.5	0.00e+00	0	34	0	1131413504	64	4855
2026-01-17 07:22:36.20	333.34	13.45	-47.1	-49.1	17.4	0.00e+00	0	34	0	1132462080	65	4634
2026-01-17 07:22:37.20	333.23	13.37	-47.2	-49.2	17.4	0.00e+00	0	33	0	1134559232	65	4677
2026-01-17 07:22:38.21	333.12	13.28	-47.3	-49.3	17.2	0.00e+00	0	34	0	1136656384	65	4746
2026-01-17 07:22:39.22	333.01	13.20	-47.1	-49.1	17.5	0.00e+00	0	34	0	1138753536	65	4602
2026-01-17 07:22:40.23	332.90	13.12	-47.1	-49.1	17.5	0.00e+00	0	34	0	1140850688	65	4603
2026-01-17 07:22:41.24	332.79	13.03	-47.0	-48.9	17.6	0.00e+00	0	34	0	1141899264	65	4544
2026-01-17 07:22:42.24	332.69	12.95	-47.1	-49.1	17.4	0.00e+00	0	34	0	1143996416	65	4615
2026-01-17 07:22:43.25	332.58	12.87	-47.1	-49.0	17.5	0.00e+00	0	33	0	1146093568	65	4597
2026-01-17 07:22:44.26	332.47	12.78	-47.0	-49.0	17.4	0.00e+00	0	34	0	1148190720	65	4547
2026-01-17 07:22:45.27	332.37	12.70	-47.1	-49.0	17.4	0.00e+00	0	34	0	1149239296	65	4594
2026-01-17 07:22:46.28	332.26	12.62	-47.1	-49.1	17.4	0.00e+00	0	34	0	1151336448	65	4607
2026-01-17 07:22:47.29	332.16	12.54	-47.0	-48.9	17.6	0.00e+00	0	34	0	1153433600	65	4536
2026-01-17 07:22:48.30	332.06	12.45	-47.1	-49.1	17.4	0.00e+00	0	33	0	1155530752	65	4647
2026-01-17 07:22:49.31	331.95	12.37	-47.3	-49.3	17.2	0.00e+00	0	34	0	1157627904	65	4722
2026-01-17 07:22:50.32	331.85	12.29	-47.2	-49.2	17.3	0.00e+00	0	34	0	1159725056	65	4679
2026-01-17 07:22:51.33	331.75	12.21	-47.3	-49.3	17.1	0.00e+00	0	33	0	1160773632	65	4759
2026-01-17 07:22:52.34	331.65	12.13	-47.5	-49.6	16.8	0.00e+00	0	34	0	1162870784	65	4925
2026-01-17 07:22:53.35	331.55	12.05	-47.5	-49.7	16.8	0.00e+00	0	34	0	1164967936	65	4936
2026-01-17 07:22:54.36	331.45	11.96	-47.5	-49.7	16.8	0.00e+00	0	34	0	1167065088	65	4933
2026-01-17 07:22:55.37	331.35	11.88	-47.4	-49.6	16.9	0.00e+00	0	34	0	1169162240	65	4881
2026-01-17 07:22:56.38	331.25	11.80	-47.6	-49.8	16.7	0.00e+00	0	34	0	1170210816	65	5000
2026-01-17 07:22:57.39	331.15	11.72	-47.3	-49.4	17.1	0.00e+00	0	34	0	1172307968	65	4779
2026-01-17 07:22:58.39	331.05	11.64	-47.4	-49.5	17.0	0.00e+00	0	34	0	1174405120	65	4816
2026-01-17 07:22:59.40	330.96	11.56	-47.0	-49.0	17.4	0.00e+00	0	34	0	1176502272	65	4584
2026-01-17 07:23:00.40	330.86	11.48	-47.2	-49.2	17.2	0.00e+00	0	34	0	1178599424	65	4697
2026-01-17 07:23:01.41	330.76	11.40	-47.0	-48.9	17.5	0.00e+00	0	33	0	1179648000	65	4529
2026-01-17 07:23:02.43	330.67	11.32	-46.7	-48.5	17.9	0.00e+00	0	34	0	1181745152	65	4311
2026-01-17 07:23:03.43	330.57	11.24	-46.5	-48.3	18.1	0.00e+00	0	34	0	1183842304	65	4198
2026-01-17 07:23:04.44	330.48	11.16	-46.4	-48.2	18.1	0.00e+00	0	34	0	1185939456	64	4402
2026-01-17 07:23:05.45	330.38	11.08	-46.4	-48.1	18.3	0.00e+00	0	34	0	1188036608	64	4370
2026-01-17 07:23:06.46	330.29	11.01	-46.4	-48.1	18.3	0.00e+00	0	34	0	1189085184	64	4353
2026-01-17 07:23:07.47	330.20	10.93	-46.3	-48.0	18.3	0.00e+00	0	34	0	1191182336	64	4340
2026-01-17 07:23:08.48	330.11	10.85	-46.3	-48.0	18.3	0.00e+00	0	34	0	1193279488	64	4327
2026-01-17 07:23:09.48	330.01	10.77	-46.4	-48.2	18.1	0.00e+00	0	34	0	1195376640	64	4405
2026-01-17 07:23:10.49	329.92	10.69	-46.4	-48.1	18.2	0.00e+00	0	34	0	1197473792	64	4380
2026-01-17 07:23:11.50	329.83	10.61	-46.4	-48.1	18.0	0.00e+00	0	34	0	1198522368	64	4390
2026-01-17 07:23:12.51	329.74	10.54	-46.9	-48.9	17.5	0.00e+00	0	34	0	1200619520	64	4760
2026-01-17 07:23:13.52	329.65	10.46	-47.0	-48.9	17.4	0.00e+00	0	34	0	1202716672	64	4806
2026-01-17 07:23:14.53	329.56	10.38	-47.3	-49.4	16.9	0.00e+00	0	34	0	1204813824	65	4798
2026-01-17 07:23:15.54	329.47	10.30	-47.3	-49.4	17.0	0.00e+00	0	34	0	1206910976	65	4765
2026-01-17 07:23:16.54	329.39	10.23	-47.8	-50.1	16.3	0.00e+00	0	34	0	1207959552	66	4899
2026-01-17 07:23:17.55	329.30	10.15	-47.9	-50.3	16.1	0.00e+00	0	34	0	1210056704	66	5032
2026-01-17 07:23:18.56	329.21	10.07	-48.3	-50.8	15.6	0.00e+00	0	34	0	1212153856	67	5041
2026-01-17 07:23:19.57	329.12	10.00	-48.3	-51.0	15.5	0.00e+00	0	34	0	1214251008	67	5129
2026-01-17 07:23:20.58	329.04	9.92	-48.3	-50.9	15.5	0.00e+00	0	34	0	1216348160	67	5080
2026-01-17 07:23:21.58	328.95	9.84	-48.5	-51.2	15.2	0.00e+00	0	34	0	1218445312	67	5261
2026-01-17 07:23:22.59	328.87	9.77	-48.6	-51.4	15.1	0.00e+00	0	34	0	1219493888	68	5055
2026-01-17 07:23:23.60	328.78	9.69	-48.7	-51.5	14.9	0.00e+00	0	34	0	1221591040	68	5150
2026-01-17 07:23:24.61	328.70	9.61	-48.7	-51.5	15.0	0.00e+00	0	34	0	1223688192	68	5132
2026-01-17 07:23:25.62	328.61	9.54	-48.5	-51.3	15.2	0.00e+00	0	33	0	1225785344	68	5001
2026-01-17 07:23:26.62	328.53	9.46	-48.6	-51.4	15.1	7.00e-07	0	34	0	1226833920	68	5084
2026-01-17 07:23:27.63	328.45	9.39	-48.4	-51.1	15.4	0.00e+00	0	34	0	1228931072	68	4878
2026-01-17 07:23:28.64	328.36	9.31	-48.5	-51.3	15.2	0.00e+00	0	34	0	1231028224	68	5004
2026-01-17 07:23:29.65	328.28	9.24	-48.3	-50.9	15.5	0.00e+00	0	34	0	1233125376	68	4769
2026-01-17 07:23:30.66	328.20	9.16	-48.3	-50.9	15.5	0.00e+00	0	34	0	1235222528	68	4787
2026-01-17 07:23:31.67	328.12	9.09	-48.1	-50.7	15.8	0.00e+00	0	34	0	1236271104	68	4657
2026-01-17 07:23:32.68	328.04	9.01	-48.3	-50.8	15.6	0.00e+00	0	34	0	1238368256	68	4745
2026-01-17 07:23:33.68	327.96	8.94	-48.0	-50.4	15.9	0.00e+00	0	34	0	1240465408	67	4809
2026-01-17 07:23:34.69	327.88	8.87	-47.8	-50.2	16.1	0.00e+00	0	34	0	1242562560	67	4703
2026-01-17 07:23:35.70	327.80	8.79	-47.8	-50.1	16.2	0.00e+00	0	34	0	1244659712	67	4633
