passes_logs/2026/01/17/R3.2S_Murmansk/R3.2S_Murmansk__20260117_114323_NOAA_21_JPSS-2_rec.log

#Pass ID: 20260117_114323_NOAA 21 (JPSS-2)
#Satellite: NOAA 21 (JPSS-2)
#Configuration: NOAA-21
#almurnet v.1.7.20251203
#Start time: 2026-01-17 11:44:31

#Version: 2.2.20231116
#Station: R3.2S_Murmansk
#Location: 33.079688 lon 68.888172 lat
#TLE: 1 54234U 22150A   26016.56338662  .00000024  00000+0  32257-4 0  9990
#TLE: 2 54234  98.7500 317.4442 0000622 279.9774  80.1332 14.19534942165033

#Time	Az	El	Level	Level2	SNR	BER	BlckErr	Temp	State	Recorded	gain1	gain2
2026-01-17 11:44:31.98	212.08	6.08	-53.7	-65.8	3.8	8.46e-01	0	34	0	0	78	14890
2026-01-17 11:44:32.99	212.17	6.15	-53.9	-66.8	3.8	1.49e+00	0	35	104	0	78	16763
2026-01-17 11:44:34.00	212.25	6.21	-53.9	-66.8	3.8	1.49e+00	0	35	104	0	78	16734
2026-01-17 11:44:35.00	212.34	6.27	-53.9	-66.7	3.8	1.49e+00	0	35	104	0	78	16607
2026-01-17 11:44:36.01	212.43	6.34	-53.9	-66.7	3.8	1.49e+00	0	35	104	0	78	16581
2026-01-17 11:44:37.02	212.51	6.40	-53.9	-66.7	3.8	1.49e+00	0	35	104	0	78	16542
2026-01-17 11:44:38.03	212.60	6.47	-53.8	-66.6	3.8	1.49e+00	0	35	104	0	78	16498
2026-01-17 11:44:39.04	212.69	6.53	-53.8	-66.6	3.8	1.49e+00	0	35	104	0	78	16486
2026-01-17 11:44:40.05	212.78	6.59	-53.8	-66.6	3.8	1.49e+00	0	35	104	0	78	16352
2026-01-17 11:44:41.06	212.86	6.66	-53.8	-66.6	3.8	1.49e+00	0	35	104	0	78	16362
2026-01-17 11:44:42.07	212.95	6.72	-53.7	-66.5	3.8	1.49e+00	0	35	104	0	78	16211
2026-01-17 11:44:43.08	213.04	6.79	-53.7	-66.5	3.8	1.49e+00	0	35	104	0	78	16168
2026-01-17 11:44:44.08	213.13	6.85	-53.6	-66.4	3.8	1.49e+00	0	35	104	0	78	16064
2026-01-17 11:44:45.09	213.22	6.92	-53.5	-66.3	3.8	1.49e+00	0	35	104	0	78	15924
2026-01-17 11:44:46.10	213.31	6.98	-53.4	-66.2	3.8	1.49e+00	0	35	104	0	78	15718
2026-01-17 11:44:47.11	213.40	7.05	-53.3	-66.1	3.8	1.49e+00	0	35	104	0	78	15504
2026-01-17 11:44:48.12	213.49	7.11	-53.2	-65.9	3.8	1.49e+00	0	35	104	0	78	15201
2026-01-17 11:44:49.13	213.58	7.18	-53.0	-65.7	3.8	1.49e+00	0	35	104	0	78	14818
2026-01-17 11:44:50.14	213.68	7.24	-52.9	-65.6	3.8	1.49e+00	0	34	104	0	77	15456
2026-01-17 11:44:51.14	213.77	7.31	-52.9	-65.5	3.8	1.49e+00	0	35	104	0	77	15374
2026-01-17 11:44:52.15	213.86	7.37	-52.9	-65.5	3.8	1.49e+00	0	35	104	0	77	15233
2026-01-17 11:44:53.16	213.95	7.44	-52.9	-65.5	3.8	1.49e+00	0	35	104	0	77	15236
2026-01-17 11:44:54.17	214.05	7.51	-52.9	-65.5	3.8	1.49e+00	0	35	104	0	77	15333
2026-01-17 11:44:55.18	214.14	7.57	-52.9	-65.5	3.8	1.49e+00	0	35	104	0	77	15356
2026-01-17 11:44:56.18	214.23	7.64	-52.9	-65.5	3.8	1.49e+00	0	35	104	0	77	15398
2026-01-17 11:44:57.19	214.33	7.70	-52.9	-65.5	3.8	1.49e+00	0	35	104	0	77	15311
2026-01-17 11:44:58.21	214.42	7.77	-52.9	-65.4	3.8	1.49e+00	0	35	104	0	77	15205
2026-01-17 11:44:59.21	214.52	7.84	-52.9	-65.4	3.8	1.49e+00	0	35	104	0	77	15215
2026-01-17 11:45:00.22	214.61	7.90	-52.9	-65.5	3.8	1.49e+00	0	35	104	0	77	15258
2026-01-17 11:45:01.23	214.71	7.97	-52.9	-65.4	3.8	1.49e+00	0	35	104	0	77	15203
2026-01-17 11:45:02.24	214.81	8.04	-52.9	-65.3	3.8	1.49e+00	0	35	104	0	77	15015
2026-01-17 11:45:03.25	214.90	8.10	-52.9	-65.2	3.8	1.49e+00	0	35	104	0	77	14806
2026-01-17 11:45:04.26	215.00	8.17	-52.9	-65.3	3.8	1.49e+00	0	35	104	0	77	14935
2026-01-17 11:45:05.26	215.10	8.24	-52.9	-65.4	3.8	1.49e+00	0	35	104	0	77	15108
2026-01-17 11:45:06.27	215.20	8.30	-52.9	-65.5	3.8	1.49e+00	0	35	104	0	77	15385
2026-01-17 11:45:07.28	215.30	8.37	-52.9	-65.5	3.8	1.49e+00	0	35	104	0	77	15359
2026-01-17 11:45:08.29	215.39	8.44	-52.8	-65.3	3.8	1.49e+00	0	35	104	0	77	15010
2026-01-17 11:45:09.30	215.49	8.51	-52.8	-65.1	3.8	1.49e+00	0	35	104	0	77	14669
2026-01-17 11:45:10.30	215.59	8.57	-52.8	-65.1	3.8	1.49e+00	0	35	104	0	77	14639
2026-01-17 11:45:11.31	215.69	8.64	-52.9	-65.4	3.8	1.49e+00	0	35	104	0	77	15208
2026-01-17 11:45:12.32	215.79	8.71	-52.9	-65.6	3.8	1.49e+00	0	35	104	0	77	15556
2026-01-17 11:45:13.33	215.90	8.78	-52.8	-64.8	3.8	1.49e+00	0	35	104	0	77	14190
2026-01-17 11:45:14.34	216.00	8.85	-52.6	-62.8	3.9	1.49e+00	0	35	104	0	77	11201
2026-01-17 11:45:15.34	216.10	8.91	-52.2	-59.9	5.1	1.16e+00	0	35	104	0	76	8519
2026-01-17 11:45:16.35	216.20	8.98	-51.7	-57.7	6.7	2.83e-01	0	35	0	3145728	75	6965
2026-01-17 11:45:17.36	216.31	9.05	-51.3	-56.2	8.1	9.10e-02	0	35	0	6291456	74	6228
2026-01-17 11:45:18.37	216.41	9.12	-50.8	-55.1	9.3	2.45e-02	0	35	0	9437184	73	5798
2026-01-17 11:45:19.38	216.51	9.19	-50.2	-53.7	10.7	4.21e-03	0	35	0	12582912	72	5227
2026-01-17 11:45:20.38	216.62	9.25	-49.3	-52.0	12.6	2.14e-04	0	35	0	15728640	70	4820
2026-01-17 11:45:21.39	216.72	9.32	-48.2	-50.4	14.2	5.30e-06	0	35	0	18874368	68	4500
2026-01-17 11:45:22.40	216.83	9.39	-46.9	-48.5	15.9	0.00e+00	0	35	0	22020096	65	4333
2026-01-17 11:45:23.41	216.93	9.46	-46.0	-47.4	17.2	0.00e+00	0	35	0	25165824	63	4263
2026-01-17 11:45:24.42	217.04	9.53	-45.1	-46.3	18.2	0.00e+00	0	35	0	28311552	62	3991
2026-01-17 11:45:25.43	217.15	9.60	-44.6	-45.8	18.7	0.00e+00	0	35	0	31457280	61	3966
2026-01-17 11:45:26.44	217.26	9.67	-45.3	-46.6	18.0	0.00e+00	0	35	0	34603008	61	4356
2026-01-17 11:45:27.45	217.36	9.74	-48.7	-51.1	13.5	3.07e-04	0	35	0	37748736	69	4603
2026-01-17 11:45:28.46	217.47	9.81	-44.9	-46.1	18.3	0.00e+00	0	35	0	40894464	61	4104
2026-01-17 11:45:29.46	217.58	9.88	-45.9	-47.3	17.2	0.00e+00	0	35	0	44040192	63	4234
2026-01-17 11:45:30.47	217.69	9.95	-44.6	-45.7	18.7	0.00e+00	0	35	0	47185920	61	3934
2026-01-17 11:45:31.48	217.80	10.02	-47.4	-49.2	15.3	3.57e-04	0	34	0	50331648	66	4408
2026-01-17 11:45:32.49	217.91	10.09	-45.3	-46.6	17.9	0.00e+00	0	35	0	53477376	62	4121
2026-01-17 11:45:33.50	218.02	10.16	-44.8	-45.9	18.6	0.00e+00	0	35	0	56623104	61	4049
2026-01-17 11:45:34.51	218.13	10.23	-44.4	-45.6	18.9	0.00e+00	0	35	0	59768832	60	4103
2026-01-17 11:45:35.52	218.24	10.30	-44.3	-45.4	19.1	0.00e+00	0	35	0	62914560	60	4020
2026-01-17 11:45:36.52	218.36	10.37	-44.3	-45.4	19.0	0.00e+00	0	35	0	66060288	60	4037
2026-01-17 11:45:37.53	218.47	10.44	-44.1	-45.2	19.3	0.00e+00	0	35	0	69206016	60	3923
2026-01-17 11:45:38.55	218.58	10.51	-44.0	-45.1	19.4	0.00e+00	0	35	0	72351744	60	3878
2026-01-17 11:45:39.55	218.70	10.58	-44.1	-45.2	19.3	0.00e+00	0	35	0	75497472	60	3944
2026-01-17 11:45:40.56	218.81	10.65	-44.1	-45.2	19.3	0.00e+00	0	34	0	78643200	60	3933
2026-01-17 11:45:41.57	218.93	10.72	-44.3	-45.3	19.4	0.00e+00	0	35	0	81788928	59	4234
2026-01-17 11:45:42.58	219.04	10.79	-44.3	-45.4	19.4	0.00e+00	0	35	0	84934656	59	4274
2026-01-17 11:45:43.58	219.16	10.86	-44.4	-45.5	19.3	0.00e+00	0	35	0	88080384	59	4307
2026-01-17 11:45:44.59	219.27	10.93	-44.3	-45.4	19.4	0.00e+00	0	35	0	91226112	59	4254
2026-01-17 11:45:45.60	219.39	11.01	-44.2	-45.3	19.4	0.00e+00	0	35	0	94371840	59	4224
2026-01-17 11:45:46.61	219.51	11.08	-44.2	-45.3	19.5	0.00e+00	0	35	0	97517568	59	4202
2026-01-17 11:45:47.62	219.63	11.15	-44.1	-45.1	19.6	0.00e+00	0	35	0	100663296	59	4133
2026-01-17 11:45:48.62	219.75	11.22	-44.1	-45.1	19.6	0.00e+00	0	35	0	103809024	59	4137
2026-01-17 11:45:49.63	219.87	11.29	-44.1	-45.1	19.7	0.00e+00	0	35	0	106954752	59	4124
2026-01-17 11:45:50.64	219.99	11.36	-44.1	-45.2	19.6	0.00e+00	0	35	0	110100480	59	4151
2026-01-17 11:45:51.65	220.11	11.44	-44.1	-45.1	19.7	0.00e+00	0	35	0	113246208	59	4140
2026-01-17 11:45:52.66	220.23	11.51	-44.1	-45.1	19.7	0.00e+00	0	35	0	116391936	59	4118
2026-01-17 11:45:53.66	220.35	11.58	-44.1	-45.2	19.6	0.00e+00	0	35	0	119537664	59	4159
2026-01-17 11:45:54.67	220.47	11.65	-44.1	-45.2	19.6	0.00e+00	0	35	0	122683392	59	4163
2026-01-17 11:45:55.68	220.59	11.72	-44.0	-45.0	19.8	0.00e+00	0	35	0	125829120	59	4078
2026-01-17 11:45:56.69	220.72	11.80	-44.0	-45.0	19.8	0.00e+00	0	35	0	128974848	59	4086
2026-01-17 11:45:57.69	220.84	11.87	-44.0	-45.1	19.7	0.00e+00	0	35	0	132120576	59	4101
2026-01-17 11:45:58.70	220.97	11.94	-44.0	-45.0	19.8	0.00e+00	0	35	0	135266304	59	4061
2026-01-17 11:45:59.71	221.09	12.01	-44.0	-45.1	19.7	0.00e+00	0	35	0	138412032	59	4111
2026-01-17 11:46:00.72	221.22	12.09	-43.9	-45.0	19.8	0.00e+00	0	35	0	141557760	59	4063
2026-01-17 11:46:01.73	221.34	12.16	-43.9	-44.9	19.9	0.00e+00	0	35	0	144703488	59	4022
2026-01-17 11:46:02.74	221.47	12.23	-43.9	-44.9	19.9	0.00e+00	0	35	0	147849216	59	4028
2026-01-17 11:46:03.75	221.60	12.31	-43.9	-45.0	19.8	0.00e+00	0	35	0	150994944	59	4057
2026-01-17 11:46:04.76	221.73	12.38	-43.9	-44.9	19.9	0.00e+00	0	35	0	154140672	59	4025
2026-01-17 11:46:05.77	221.86	12.45	-44.0	-45.0	19.8	0.00e+00	0	35	0	157286400	59	4068
2026-01-17 11:46:06.78	221.99	12.53	-43.9	-44.9	19.9	0.00e+00	0	35	0	160432128	59	4038
2026-01-17 11:46:07.79	222.12	12.60	-43.8	-44.9	20.0	0.00e+00	0	35	0	163577856	59	4009
2026-01-17 11:46:08.79	222.24	12.67	-43.9	-45.0	19.9	0.00e+00	0	35	0	166723584	59	4063
2026-01-17 11:46:09.80	222.38	12.75	-43.9	-44.9	19.9	0.00e+00	0	35	0	169869312	59	4022
2026-01-17 11:46:10.81	222.51	12.82	-44.0	-45.0	19.9	0.00e+00	0	35	0	173015040	59	4066
2026-01-17 11:46:11.82	222.64	12.89	-44.0	-45.1	19.8	0.00e+00	0	35	0	176160768	59	4110
2026-01-17 11:46:12.83	222.77	12.97	-43.9	-45.0	19.9	0.00e+00	0	35	0	179306496	59	4055
2026-01-17 11:46:13.84	222.91	13.04	-44.1	-45.1	19.8	0.00e+00	0	35	0	182452224	59	4133
2026-01-17 11:46:14.85	223.04	13.11	-44.0	-45.0	19.8	0.00e+00	0	35	0	185597952	59	4092
2026-01-17 11:46:15.85	223.18	13.19	-44.0	-45.0	19.9	0.00e+00	0	35	0	188743680	59	4068
2026-01-17 11:46:16.86	223.31	13.26	-43.9	-44.9	20.0	0.00e+00	0	35	0	191889408	59	4028
2026-01-17 11:46:17.87	223.45	13.34	-44.0	-45.0	19.9	0.00e+00	0	35	0	195035136	59	4071
2026-01-17 11:46:18.88	223.59	13.41	-43.8	-44.8	20.0	0.00e+00	0	35	0	198180864	59	4002
2026-01-17 11:46:19.89	223.73	13.49	-43.9	-44.9	20.0	0.00e+00	0	35	0	201326592	59	4010
2026-01-17 11:46:20.90	223.86	13.56	-43.9	-44.9	19.9	0.00e+00	0	35	0	204472320	59	4048
2026-01-17 11:46:21.91	224.00	13.64	-43.9	-44.9	20.0	0.00e+00	0	35	0	207618048	59	4013
2026-01-17 11:46:22.91	224.14	13.71	-43.8	-44.9	20.0	0.00e+00	0	35	0	210763776	59	4011
2026-01-17 11:46:23.92	224.28	13.78	-44.0	-45.0	19.9	0.00e+00	0	35	0	213909504	59	4065
2026-01-17 11:46:24.93	224.42	13.86	-43.9	-44.9	20.0	0.00e+00	0	35	0	217055232	59	4012
2026-01-17 11:46:25.93	224.56	13.93	-43.9	-44.9	20.0	0.00e+00	0	34	0	220200960	59	4028
2026-01-17 11:46:26.95	224.71	14.01	-43.9	-44.9	20.0	0.00e+00	0	35	0	223346688	59	4036
2026-01-17 11:46:27.95	224.85	14.08	-43.9	-44.9	20.0	0.00e+00	0	35	0	226492416	59	4013
2026-01-17 11:46:28.96	225.00	14.16	-43.9	-44.9	20.0	0.00e+00	0	34	0	229638144	59	4008
2026-01-17 11:46:29.97	225.14	14.23	-43.9	-44.9	20.0	0.00e+00	0	35	0	232783872	59	4022
2026-01-17 11:46:30.98	225.29	14.31	-43.8	-44.8	20.1	0.00e+00	0	35	0	235929600	59	3993
2026-01-17 11:46:31.99	225.43	14.38	-43.9	-44.9	20.0	0.00e+00	0	34	0	239075328	59	4033
2026-01-17 11:46:33.00	225.58	14.46	-44.0	-45.0	19.9	0.00e+00	0	35	0	242221056	59	4083
2026-01-17 11:46:34.00	225.73	14.53	-44.0	-45.0	19.9	0.00e+00	0	35	0	245366784	59	4090
2026-01-17 11:46:35.01	225.87	14.61	-44.0	-45.0	19.9	0.00e+00	0	35	0	248512512	59	4060
2026-01-17 11:46:36.02	226.02	14.69	-43.9	-44.9	20.0	0.00e+00	0	35	0	251658240	59	4017
2026-01-17 11:46:37.03	226.17	14.76	-43.9	-44.9	20.0	0.00e+00	0	35	0	254803968	59	4048
2026-01-17 11:46:38.04	226.32	14.84	-43.9	-44.9	20.0	0.00e+00	0	35	0	257949696	59	4035
2026-01-17 11:46:39.05	226.47	14.91	-43.9	-44.9	20.0	0.00e+00	0	35	0	261095424	59	4045
2026-01-17 11:46:40.06	226.63	14.99	-43.9	-44.9	20.1	0.00e+00	0	35	0	264241152	59	4008
2026-01-17 11:46:41.07	226.78	15.06	-44.0	-45.0	20.0	0.00e+00	0	35	0	267386880	59	4057
2026-01-17 11:46:42.08	226.93	15.14	-44.1	-45.1	19.8	0.00e+00	0	35	0	270532608	59	4138
2026-01-17 11:46:43.09	227.09	15.22	-44.0	-45.0	19.9	0.00e+00	0	35	0	273678336	59	4083
2026-01-17 11:46:44.10	227.24	15.29	-44.1	-45.1	19.8	0.00e+00	0	35	0	276824064	59	4125
2026-01-17 11:46:45.11	227.40	15.37	-44.2	-45.3	19.7	0.00e+00	0	35	0	279969792	59	4196
2026-01-17 11:46:46.12	227.56	15.44	-44.2	-45.2	19.7	0.00e+00	0	35	0	283115520	59	4185
2026-01-17 11:46:47.12	227.71	15.52	-44.3	-45.3	19.7	0.00e+00	0	34	0	286261248	59	4225
2026-01-17 11:46:48.13	227.87	15.60	-44.2	-45.2	19.8	0.00e+00	0	35	0	289406976	59	4165
2026-01-17 11:46:49.14	228.03	15.67	-44.2	-45.3	19.7	0.00e+00	0	35	0	292552704	59	4198
2026-01-17 11:46:50.15	228.19	15.75	-44.3	-45.3	19.6	0.00e+00	0	35	0	295698432	59	4242
2026-01-17 11:46:51.16	228.35	15.82	-44.3	-45.3	19.7	0.00e+00	0	35	0	298844160	59	4215
2026-01-17 11:46:52.17	228.51	15.90	-44.2	-45.2	19.8	0.00e+00	0	35	0	301989888	59	4162
2026-01-17 11:46:53.18	228.67	15.98	-44.3	-45.3	19.7	0.00e+00	0	35	0	305135616	59	4230
2026-01-17 11:46:54.18	228.83	16.05	-44.3	-45.4	19.6	0.00e+00	0	35	0	308281344	59	4269
2026-01-17 11:46:55.19	229.00	16.13	-44.4	-45.4	19.6	0.00e+00	0	35	0	311427072	59	4285
2026-01-17 11:46:56.20	229.16	16.21	-44.3	-45.4	19.6	0.00e+00	0	35	0	314572800	59	4248
2026-01-17 11:46:57.21	229.33	16.28	-44.3	-45.3	19.7	0.00e+00	0	35	0	317718528	59	4232
2026-01-17 11:46:58.22	229.49	16.36	-44.3	-45.3	19.7	0.00e+00	0	35	0	320864256	59	4238
2026-01-17 11:46:59.23	229.66	16.43	-44.4	-45.4	19.6	0.00e+00	0	35	0	324009984	59	4277
2026-01-17 11:47:00.24	229.83	16.51	-44.3	-45.3	19.7	0.00e+00	0	35	0	327155712	59	4223
2026-01-17 11:47:01.24	230.00	16.59	-44.3	-45.4	19.7	0.00e+00	0	35	0	330301440	59	4247
2026-01-17 11:47:02.25	230.17	16.66	-44.2	-45.2	19.8	0.00e+00	0	35	0	333447168	59	4191
2026-01-17 11:47:03.26	230.34	16.74	-44.3	-45.3	19.7	0.00e+00	0	35	0	336592896	59	4234
2026-01-17 11:47:04.27	230.51	16.82	-44.3	-45.3	19.6	0.00e+00	0	35	0	339738624	59	4241
2026-01-17 11:47:05.28	230.68	16.89	-44.3	-45.3	19.7	0.00e+00	0	35	0	342884352	59	4225
2026-01-17 11:47:06.29	230.85	16.97	-44.3	-45.3	19.7	0.00e+00	0	35	0	346030080	59	4221
2026-01-17 11:47:07.29	231.02	17.04	-44.3	-45.3	19.7	0.00e+00	0	35	0	349175808	59	4222
2026-01-17 11:47:08.30	231.20	17.12	-44.3	-45.3	19.7	0.00e+00	0	35	0	352321536	59	4242
2026-01-17 11:47:09.31	231.37	17.20	-44.4	-45.5	19.5	0.00e+00	0	35	0	355467264	59	4294
2026-01-17 11:47:10.32	231.55	17.27	-44.5	-45.5	19.5	0.00e+00	0	35	0	358612992	59	4334
2026-01-17 11:47:11.33	231.73	17.35	-44.4	-45.5	19.5	0.00e+00	0	34	0	361758720	59	4313
2026-01-17 11:47:12.34	231.90	17.43	-44.4	-45.4	19.6	0.00e+00	0	35	0	364904448	59	4286
2026-01-17 11:47:13.34	232.08	17.50	-44.5	-45.6	19.5	0.00e+00	0	35	0	368050176	59	4341
2026-01-17 11:47:14.35	232.26	17.58	-44.3	-45.4	19.6	0.00e+00	0	35	0	371195904	59	4247
2026-01-17 11:47:15.36	232.44	17.65	-44.3	-45.3	19.6	0.00e+00	0	35	0	374341632	59	4236
2026-01-17 11:47:16.37	232.62	17.73	-44.2	-45.2	19.7	0.00e+00	0	35	0	377487360	59	4180
2026-01-17 11:47:17.38	232.81	17.81	-44.3	-45.3	19.7	0.00e+00	0	35	0	381681664	59	4226
2026-01-17 11:47:18.39	232.99	17.88	-44.3	-45.3	19.6	0.00e+00	0	35	0	383778816	59	4242
2026-01-17 11:47:19.40	233.17	17.96	-44.3	-45.4	19.6	0.00e+00	0	35	0	386924544	59	4251
2026-01-17 11:47:20.40	233.36	18.03	-44.3	-45.4	19.6	0.00e+00	0	35	0	390070272	59	4262
2026-01-17 11:47:21.41	233.54	18.11	-44.3	-45.4	19.6	0.00e+00	0	35	0	393216000	59	4253
2026-01-17 11:47:22.42	233.73	18.19	-44.4	-45.4	19.5	0.00e+00	0	35	0	396361728	59	4278
2026-01-17 11:47:23.43	233.92	18.26	-44.3	-45.4	19.6	0.00e+00	0	35	0	399507456	59	4258
2026-01-17 11:47:24.44	234.11	18.34	-44.3	-45.3	19.6	0.00e+00	0	35	0	402653184	59	4242
2026-01-17 11:47:25.44	234.29	18.41	-44.1	-45.2	19.8	0.00e+00	0	35	0	405798912	59	4157
2026-01-17 11:47:26.45	234.48	18.49	-44.1	-45.1	19.9	0.00e+00	0	35	0	408944640	59	4114
2026-01-17 11:47:27.46	234.68	18.56	-44.0	-45.0	20.0	0.00e+00	0	35	0	412090368	59	4075
2026-01-17 11:47:28.47	234.87	18.64	-44.2	-45.2	19.8	0.00e+00	0	35	0	415236096	59	4160
2026-01-17 11:47:29.48	235.06	18.72	-44.0	-45.1	19.9	0.00e+00	0	35	0	419430400	59	4101
2026-01-17 11:47:30.49	235.26	18.79	-44.1	-45.1	19.9	0.00e+00	0	35	0	422576128	59	4143
2026-01-17 11:47:31.50	235.45	18.87	-44.1	-45.1	19.9	0.00e+00	0	35	0	425721856	59	4120
2026-01-17 11:47:32.51	235.65	18.94	-44.1	-45.1	19.9	0.00e+00	0	35	0	428867584	59	4141
2026-01-17 11:47:33.52	235.84	19.02	-44.1	-45.1	19.9	0.00e+00	0	35	0	430964736	59	4117
2026-01-17 11:47:34.53	236.04	19.09	-44.2	-45.2	19.8	0.00e+00	0	35	0	434110464	59	4164
2026-01-17 11:47:35.54	236.24	19.17	-44.2	-45.2	19.8	0.00e+00	0	35	0	437256192	59	4171
2026-01-17 11:47:36.54	236.44	19.24	-44.1	-45.1	19.9	0.00e+00	0	35	0	440401920	59	4120
2026-01-17 11:47:37.55	236.64	19.31	-44.0	-45.0	20.1	0.00e+00	0	35	0	443547648	59	4060
2026-01-17 11:47:38.56	236.84	19.39	-43.9	-44.9	20.1	0.00e+00	0	35	0	446693376	59	4030
2026-01-17 11:47:39.57	237.04	19.46	-43.9	-44.9	20.2	0.00e+00	0	35	0	449839104	59	4005
2026-01-17 11:47:40.58	237.25	19.54	-43.7	-44.7	20.3	0.00e+00	0	35	0	452984832	59	3937
2026-01-17 11:47:41.59	237.45	19.61	-43.7	-44.6	20.3	0.00e+00	0	35	0	457179136	59	3913
2026-01-17 11:47:42.59	237.66	19.68	-43.7	-44.6	20.3	0.00e+00	0	35	0	460324864	59	3908
2026-01-17 11:47:43.60	237.86	19.76	-43.6	-44.5	20.4	0.00e+00	0	35	0	463470592	59	3858
2026-01-17 11:47:44.61	238.07	19.83	-43.4	-44.4	20.6	0.00e+00	0	35	0	466616320	58	4010
2026-01-17 11:47:45.62	238.28	19.91	-43.4	-44.3	20.6	0.00e+00	0	35	0	469762048	58	3982
2026-01-17 11:47:46.63	238.49	19.98	-43.4	-44.3	20.7	0.00e+00	0	35	0	472907776	58	3973
2026-01-17 11:47:47.64	238.70	20.05	-43.3	-44.2	20.7	0.00e+00	0	35	0	475004928	58	3934
2026-01-17 11:47:48.65	238.91	20.13	-43.2	-44.1	20.8	0.00e+00	0	35	0	478150656	58	3889
2026-01-17 11:47:49.66	239.12	20.20	-43.1	-44.0	21.0	0.00e+00	0	35	0	481296384	58	3845
2026-01-17 11:47:50.66	239.33	20.27	-43.1	-44.0	20.9	0.00e+00	0	35	0	484442112	58	3865
2026-01-17 11:47:51.67	239.55	20.34	-43.1	-44.0	20.9	0.00e+00	0	35	0	487587840	58	3867
2026-01-17 11:47:52.68	239.76	20.41	-43.2	-44.1	20.8	0.00e+00	0	35	0	491782144	58	3906
2026-01-17 11:47:53.69	239.98	20.49	-43.2	-44.1	20.8	0.00e+00	0	35	0	494927872	58	3913
2026-01-17 11:47:54.70	240.20	20.56	-43.3	-44.2	20.7	0.00e+00	0	35	0	498073600	58	3952
2026-01-17 11:47:55.70	240.41	20.63	-43.3	-44.2	20.7	0.00e+00	0	35	0	501219328	58	3943
2026-01-17 11:47:56.71	240.63	20.70	-43.3	-44.2	20.7	0.00e+00	0	35	0	504365056	58	3947
2026-01-17 11:47:57.72	240.85	20.77	-43.3	-44.3	20.7	0.00e+00	0	35	0	507510784	58	3961
2026-01-17 11:47:58.73	241.07	20.84	-43.4	-44.3	20.7	0.00e+00	0	35	0	510656512	58	3981
2026-01-17 11:47:59.74	241.30	20.91	-43.3	-44.2	20.8	0.00e+00	0	35	0	513802240	58	3940
2026-01-17 11:48:00.74	241.52	20.98	-43.3	-44.3	20.7	0.00e+00	0	35	0	516947968	58	3970
2026-01-17 11:48:01.75	241.74	21.05	-43.4	-44.3	20.6	0.00e+00	0	35	0	520093696	58	4001
2026-01-17 11:48:02.76	241.97	21.13	-43.4	-44.3	20.7	0.00e+00	0	34	0	523239424	58	3990
2026-01-17 11:48:03.77	242.19	21.19	-43.3	-44.2	20.7	0.00e+00	0	35	0	525336576	58	3957
2026-01-17 11:48:04.78	242.42	21.26	-43.3	-44.3	20.7	0.00e+00	0	35	0	529530880	58	3969
2026-01-17 11:48:05.79	242.65	21.33	-43.3	-44.3	20.7	0.00e+00	0	35	0	532676608	58	3966
2026-01-17 11:48:06.80	242.88	21.40	-43.3	-44.2	20.7	0.00e+00	0	35	0	535822336	58	3952
2026-01-17 11:48:07.80	243.11	21.47	-43.4	-44.3	20.6	0.00e+00	0	35	0	538968064	58	4000
2026-01-17 11:48:08.81	243.34	21.54	-43.3	-44.2	20.8	0.00e+00	0	35	0	542113792	58	3928
2026-01-17 11:48:09.82	243.57	21.61	-43.2	-44.2	20.8	0.00e+00	0	35	0	545259520	58	3920
2026-01-17 11:48:10.83	243.80	21.68	-43.2	-44.1	20.9	0.00e+00	0	35	0	548405248	58	3889
2026-01-17 11:48:11.84	244.04	21.74	-43.0	-43.9	21.0	0.00e+00	0	35	0	551550976	58	3822
2026-01-17 11:48:12.85	244.27	21.81	-42.9	-43.8	21.1	0.00e+00	0	35	0	554696704	57	3984
2026-01-17 11:48:13.86	244.51	21.88	-43.0	-43.9	21.0	0.00e+00	0	35	0	557842432	57	4019
2026-01-17 11:48:14.86	244.74	21.94	-43.0	-43.9	21.0	0.00e+00	0	35	0	560988160	57	4012
2026-01-17 11:48:15.87	244.98	22.01	-43.0	-43.9	20.9	0.00e+00	0	35	0	564133888	57	4049
2026-01-17 11:48:16.88	245.22	22.08	-43.1	-44.0	20.9	0.00e+00	0	35	0	567279616	57	4066
2026-01-17 11:48:17.89	245.46	22.14	-43.0	-44.0	20.9	0.00e+00	0	35	0	570425344	57	4054
2026-01-17 11:48:18.90	245.70	22.21	-43.0	-43.9	21.0	0.00e+00	0	35	0	573571072	57	4028
2026-01-17 11:48:19.91	245.94	22.27	-43.0	-43.9	20.9	0.00e+00	0	35	0	576716800	57	4051
2026-01-17 11:48:20.91	246.18	22.34	-43.0	-44.0	21.0	0.00e+00	0	35	0	579862528	57	4054
2026-01-17 11:48:21.92	246.43	22.40	-43.0	-43.9	21.1	0.00e+00	0	35	0	583008256	57	4009
2026-01-17 11:48:22.93	246.67	22.47	-42.9	-43.8	21.1	0.00e+00	0	35	0	586153984	57	3977
2026-01-17 11:48:23.94	246.92	22.53	-42.9	-43.7	21.2	0.00e+00	0	35	0	589299712	57	3958
2026-01-17 11:48:24.95	247.17	22.59	-42.8	-43.6	21.3	0.00e+00	0	35	0	592445440	57	3912
2026-01-17 11:48:25.96	247.41	22.66	-42.8	-43.7	21.1	0.00e+00	0	35	0	595591168	57	3930
2026-01-17 11:48:26.97	247.66	22.72	-42.8	-43.6	21.2	0.00e+00	0	35	0	598736896	57	3911
2026-01-17 11:48:27.98	247.91	22.78	-42.7	-43.6	21.2	0.00e+00	0	35	0	601882624	57	3879
2026-01-17 11:48:28.99	248.16	22.84	-42.7	-43.5	21.3	0.00e+00	0	35	0	605028352	57	3858
2026-01-17 11:48:30.00	248.42	22.90	-42.8	-43.6	21.2	0.00e+00	0	35	0	608174080	57	3912
2026-01-17 11:48:31.01	248.67	22.96	-42.8	-43.7	21.2	0.00e+00	0	35	0	611319808	57	3952
2026-01-17 11:48:32.02	248.92	23.02	-42.9	-43.8	21.2	0.00e+00	0	35	0	614465536	57	3966
2026-01-17 11:48:33.03	249.18	23.08	-43.0	-43.9	21.0	0.00e+00	0	35	0	617611264	57	4035
2026-01-17 11:48:34.03	249.43	23.14	-43.0	-43.9	21.0	0.00e+00	0	35	0	620756992	57	4051
2026-01-17 11:48:35.04	249.69	23.20	-43.0	-43.9	21.0	0.00e+00	0	35	0	623902720	57	4021
2026-01-17 11:48:36.05	249.94	23.26	-43.1	-44.0	21.0	0.00e+00	0	35	0	627048448	57	4074
2026-01-17 11:48:37.06	250.20	23.32	-43.2	-44.1	20.8	0.00e+00	0	35	0	630194176	57	4133
2026-01-17 11:48:38.06	250.46	23.38	-43.1	-44.1	20.9	0.00e+00	0	35	0	633339904	57	4099
2026-01-17 11:48:39.07	250.72	23.43	-43.2	-44.1	20.9	0.00e+00	0	35	0	636485632	57	4133
2026-01-17 11:48:40.08	250.98	23.49	-43.2	-44.2	20.8	0.00e+00	0	35	0	639631360	57	4154
2026-01-17 11:48:41.09	251.24	23.55	-43.2	-44.1	20.8	0.00e+00	0	35	0	642777088	57	4145
2026-01-17 11:48:42.10	251.51	23.60	-43.2	-44.1	20.8	0.00e+00	0	35	0	645922816	57	4141
2026-01-17 11:48:43.11	251.77	23.66	-43.3	-44.2	20.8	0.00e+00	0	35	0	649068544	57	4183
2026-01-17 11:48:44.12	252.03	23.71	-43.3	-44.2	20.8	0.00e+00	0	35	0	652214272	57	4174
2026-01-17 11:48:45.13	252.30	23.77	-43.3	-44.2	20.8	0.00e+00	0	34	0	655360000	57	4185
2026-01-17 11:48:46.14	252.57	23.82	-43.3	-44.2	20.8	0.00e+00	0	35	0	658505728	57	4183
2026-01-17 11:48:47.15	252.83	23.87	-43.3	-44.3	20.8	0.00e+00	0	35	0	661651456	57	4196
2026-01-17 11:48:48.15	253.10	23.93	-43.4	-44.3	20.7	0.00e+00	0	35	0	664797184	57	4220
2026-01-17 11:48:49.16	253.37	23.98	-43.4	-44.4	20.7	0.00e+00	0	35	0	667942912	57	4243
2026-01-17 11:48:50.17	253.64	24.03	-43.5	-44.4	20.6	0.00e+00	0	35	0	671088640	57	4289
2026-01-17 11:48:51.18	253.91	24.08	-43.5	-44.5	20.6	0.00e+00	0	35	0	674234368	57	4298
2026-01-17 11:48:52.19	254.18	24.13	-43.3	-44.2	20.8	0.00e+00	0	35	0	677380096	57	4189
2026-01-17 11:48:53.20	254.46	24.18	-43.3	-44.2	20.8	0.00e+00	0	35	0	680525824	57	4190
2026-01-17 11:48:54.21	254.73	24.23	-43.3	-44.2	20.8	0.00e+00	0	35	0	683671552	57	4154
2026-01-17 11:48:55.21	255.00	24.28	-43.4	-44.3	20.7	0.00e+00	0	35	0	686817280	57	4210
2026-01-17 11:48:56.22	255.28	24.33	-43.4	-44.3	20.7	0.00e+00	0	35	0	689963008	57	4221
2026-01-17 11:48:57.23	255.55	24.38	-43.3	-44.3	20.8	0.00e+00	0	35	0	693108736	57	4196
2026-01-17 11:48:58.24	255.83	24.42	-43.3	-44.3	20.8	0.00e+00	0	35	0	696254464	57	4197
2026-01-17 11:48:59.25	256.11	24.47	-43.5	-44.5	20.6	0.00e+00	0	34	0	699400192	57	4293
2026-01-17 11:49:00.26	256.39	24.51	-43.6	-44.6	20.5	0.00e+00	0	35	0	702545920	57	4373
2026-01-17 11:49:01.27	256.67	24.56	-43.7	-44.7	20.4	0.00e+00	0	35	0	705691648	58	4155
2026-01-17 11:49:02.27	256.94	24.60	-43.4	-44.4	20.7	0.00e+00	0	35	0	708837376	58	4008
2026-01-17 11:49:03.28	257.22	24.65	-43.4	-44.3	20.8	0.00e+00	0	34	0	711983104	58	3973
2026-01-17 11:49:04.29	257.50	24.69	-43.3	-44.2	20.8	0.00e+00	0	35	0	715128832	58	3937
2026-01-17 11:49:05.30	257.79	24.73	-43.3	-44.2	20.8	0.00e+00	0	35	0	718274560	58	3951
2026-01-17 11:49:06.30	258.07	24.78	-43.4	-44.3	20.7	0.00e+00	0	35	0	721420288	58	3981
2026-01-17 11:49:07.32	258.35	24.82	-43.4	-44.3	20.7	0.00e+00	0	35	0	724566016	58	4002
2026-01-17 11:49:08.33	258.64	24.86	-43.4	-44.4	20.7	0.00e+00	0	35	0	727711744	58	4011
2026-01-17 11:49:09.33	258.92	24.90	-43.2	-44.1	20.9	0.00e+00	0	35	0	730857472	58	3902
2026-01-17 11:49:10.34	259.21	24.94	-43.2	-44.1	20.9	0.00e+00	0	35	0	734003200	58	3906
2026-01-17 11:49:11.35	259.49	24.98	-43.2	-44.2	20.9	0.00e+00	0	35	0	737148928	58	3915
2026-01-17 11:49:12.36	259.78	25.01	-43.0	-43.9	21.1	0.00e+00	0	35	0	740294656	58	3812
2026-01-17 11:49:13.37	260.07	25.05	-43.1	-44.0	20.9	0.00e+00	0	35	0	743440384	58	3852
2026-01-17 11:49:14.37	260.35	25.09	-43.1	-44.0	20.9	0.00e+00	0	35	0	746586112	58	3851
2026-01-17 11:49:15.38	260.64	25.12	-43.2	-44.1	20.8	0.00e+00	0	35	0	749731840	58	3898
2026-01-17 11:49:16.39	260.93	25.16	-43.2	-44.1	20.8	0.00e+00	0	35	0	752877568	58	3901
2026-01-17 11:49:17.40	261.22	25.19	-43.2	-44.1	20.8	0.00e+00	0	35	0	756023296	58	3896
2026-01-17 11:49:18.41	261.51	25.23	-43.2	-44.2	20.8	0.00e+00	0	35	0	759169024	58	3920
2026-01-17 11:49:19.41	261.80	25.26	-43.2	-44.1	20.9	0.00e+00	0	35	0	762314752	58	3886
2026-01-17 11:49:20.42	262.10	25.29	-43.1	-44.1	20.9	0.00e+00	0	35	0	765460480	58	3874
2026-01-17 11:49:21.43	262.39	25.32	-43.3	-44.2	20.8	0.00e+00	0	35	0	768606208	58	3932
2026-01-17 11:49:22.44	262.68	25.35	-43.3	-44.2	20.8	0.00e+00	0	35	0	771751936	58	3950
2026-01-17 11:49:23.45	262.98	25.38	-43.5	-44.4	20.6	0.00e+00	0	35	0	774897664	58	4035
2026-01-17 11:49:24.46	263.27	25.41	-43.3	-44.3	20.7	0.00e+00	0	35	0	778043392	58	3975
2026-01-17 11:49:25.46	263.56	25.44	-43.1	-44.0	21.0	0.00e+00	0	35	0	781189120	58	3863
2026-01-17 11:49:26.47	263.86	25.47	-43.2	-44.1	21.0	0.00e+00	0	35	0	784334848	58	3881
2026-01-17 11:49:27.48	264.15	25.50	-43.0	-43.9	21.1	0.00e+00	0	35	0	787480576	58	3789
2026-01-17 11:49:28.49	264.45	25.52	-43.0	-43.9	21.1	0.00e+00	0	35	0	790626304	57	4032
2026-01-17 11:49:29.50	264.75	25.55	-43.2	-44.1	20.9	0.00e+00	0	35	0	793772032	57	4110
2026-01-17 11:49:30.50	265.04	25.57	-43.2	-44.1	20.9	0.00e+00	0	35	0	796917760	57	4135
2026-01-17 11:49:31.51	265.34	25.60	-43.1	-44.0	21.0	0.00e+00	0	35	0	800063488	57	4064
2026-01-17 11:49:32.52	265.64	25.62	-42.9	-43.8	21.2	0.00e+00	0	35	0	803209216	57	3987
2026-01-17 11:49:33.53	265.94	25.64	-43.0	-43.8	21.1	0.00e+00	0	35	0	806354944	57	4002
2026-01-17 11:49:34.54	266.24	25.66	-42.8	-43.7	21.3	0.00e+00	0	35	0	809500672	57	3936
2026-01-17 11:49:35.54	266.53	25.68	-42.8	-43.7	21.3	0.00e+00	0	35	0	812646400	57	3928
2026-01-17 11:49:36.55	266.83	25.70	-42.9	-43.8	21.2	0.00e+00	0	35	0	815792128	57	3975
2026-01-17 11:49:37.56	267.13	25.72	-43.0	-43.8	21.2	0.00e+00	0	35	0	818937856	57	4002
2026-01-17 11:49:38.57	267.43	25.74	-42.9	-43.7	21.3	0.00e+00	0	35	0	822083584	57	3950
2026-01-17 11:49:39.58	267.73	25.76	-42.8	-43.7	21.3	0.00e+00	0	35	0	825229312	57	3943
2026-01-17 11:49:40.58	268.03	25.78	-42.8	-43.7	21.3	0.00e+00	0	35	0	828375040	57	3917
2026-01-17 11:49:41.59	268.33	25.79	-42.8	-43.7	21.3	0.00e+00	0	35	0	831520768	57	3935
2026-01-17 11:49:42.60	268.63	25.81	-42.8	-43.7	21.2	0.00e+00	0	35	0	834666496	57	3945
2026-01-17 11:49:43.61	268.94	25.82	-42.8	-43.7	21.3	0.00e+00	0	35	0	837812224	57	3932
2026-01-17 11:49:44.61	269.24	25.83	-42.9	-43.8	21.2	0.00e+00	0	35	0	840957952	57	3974
2026-01-17 11:49:45.62	269.54	25.85	-42.7	-43.6	21.4	0.00e+00	0	35	0	844103680	57	3876
2026-01-17 11:49:46.63	269.84	25.86	-42.7	-43.6	21.4	0.00e+00	0	35	0	847249408	57	3891
2026-01-17 11:49:47.64	270.14	25.87	-42.9	-43.8	21.2	0.00e+00	0	35	0	850395136	57	3963
2026-01-17 11:49:48.65	270.45	25.88	-42.8	-43.7	21.3	0.00e+00	0	35	0	853540864	57	3924
2026-01-17 11:49:49.66	270.75	25.89	-42.9	-43.8	21.1	0.00e+00	0	35	0	856686592	57	3994
2026-01-17 11:49:50.67	271.05	25.90	-43.0	-43.9	21.1	0.00e+00	0	35	0	859832320	57	4015
2026-01-17 11:49:51.67	271.35	25.91	-43.1	-44.0	21.0	0.00e+00	0	35	0	862978048	57	4090
2026-01-17 11:49:52.68	271.66	25.91	-43.0	-43.9	21.1	0.00e+00	0	35	0	866123776	57	4046
2026-01-17 11:49:53.69	271.96	25.92	-43.0	-43.9	21.1	0.00e+00	0	35	0	869269504	57	4027
2026-01-17 11:49:54.70	272.27	25.92	-42.9	-43.7	21.2	0.00e+00	0	35	0	872415232	57	3950
2026-01-17 11:49:55.70	272.57	25.93	-43.0	-43.9	21.0	0.00e+00	0	35	0	875560960	57	4034
2026-01-17 11:49:56.71	272.87	25.93	-43.0	-43.9	21.1	0.00e+00	0	35	0	878706688	57	4015
2026-01-17 11:49:57.72	273.17	25.93	-43.0	-43.9	21.2	0.00e+00	0	35	0	881852416	57	4019
2026-01-17 11:49:58.73	273.48	25.94	-42.9	-43.8	21.2	0.00e+00	0	35	0	884998144	57	3982
2026-01-17 11:49:59.74	273.78	25.94	-42.8	-43.7	21.4	0.00e+00	0	35	0	888143872	57	3917
2026-01-17 11:50:00.75	274.09	25.94	-42.6	-43.4	21.5	0.00e+00	0	35	0	891289600	57	3822
2026-01-17 11:50:01.76	274.39	25.94	-42.6	-43.5	21.5	0.00e+00	0	35	0	894435328	57	3839
2026-01-17 11:50:02.77	274.70	25.93	-42.6	-43.4	21.5	0.00e+00	0	35	0	897581056	57	3823
2026-01-17 11:50:03.78	275.00	25.93	-42.6	-43.4	21.6	0.00e+00	0	35	0	900726784	57	3815
2026-01-17 11:50:04.78	275.30	25.93	-42.7	-43.5	21.5	0.00e+00	0	35	0	903872512	57	3856
2026-01-17 11:50:05.79	275.60	25.92	-42.8	-43.6	21.4	0.00e+00	0	35	0	907018240	57	3911
2026-01-17 11:50:06.80	275.91	25.92	-42.8	-43.7	21.3	0.00e+00	0	35	0	910163968	57	3943
2026-01-17 11:50:07.81	276.21	25.91	-42.9	-43.7	21.3	0.00e+00	0	35	0	913309696	57	3942
2026-01-17 11:50:08.82	276.52	25.91	-42.9	-43.7	21.2	0.00e+00	0	35	0	916455424	57	3946
2026-01-17 11:50:09.82	276.82	25.90	-42.8	-43.7	21.3	0.00e+00	0	35	0	919601152	57	3925
2026-01-17 11:50:10.83	277.12	25.89	-42.8	-43.7	21.3	0.00e+00	0	35	0	922746880	57	3921
2026-01-17 11:50:11.84	277.42	25.88	-42.6	-43.5	21.5	0.00e+00	0	35	0	925892608	57	3838
2026-01-17 11:50:12.85	277.73	25.87	-42.6	-43.5	21.5	0.00e+00	0	35	0	929038336	57	3844
2026-01-17 11:50:13.86	278.03	25.86	-42.7	-43.5	21.5	0.00e+00	0	35	0	932184064	57	3848
2026-01-17 11:50:14.86	278.33	25.85	-42.7	-43.6	21.4	0.00e+00	0	35	0	935329792	57	3882
2026-01-17 11:50:15.87	278.63	25.84	-42.7	-43.6	21.4	0.00e+00	0	35	0	938475520	57	3898
2026-01-17 11:50:16.88	278.93	25.83	-42.8	-43.7	21.3	0.00e+00	0	35	0	941621248	57	3929
2026-01-17 11:50:17.89	279.24	25.81	-42.9	-43.8	21.3	0.00e+00	0	34	0	944766976	57	3979
2026-01-17 11:50:18.90	279.54	25.80	-42.8	-43.6	21.4	0.00e+00	0	35	0	947912704	57	3901
2026-01-17 11:50:19.90	279.84	25.78	-42.7	-43.6	21.5	0.00e+00	0	35	0	951058432	57	3872
2026-01-17 11:50:20.91	280.14	25.76	-42.6	-43.5	21.6	0.00e+00	0	35	0	954204160	57	3828
2026-01-17 11:50:21.92	280.44	25.75	-42.7	-43.6	21.5	0.00e+00	0	35	0	957349888	57	3874
2026-01-17 11:50:22.93	280.74	25.73	-42.7	-43.5	21.5	0.00e+00	0	35	0	960495616	57	3864
2026-01-17 11:50:23.94	281.04	25.71	-42.8	-43.6	21.4	0.00e+00	0	35	0	963641344	57	3906
2026-01-17 11:50:24.94	281.33	25.69	-42.9	-43.7	21.3	0.00e+00	0	35	0	966787072	57	3956
2026-01-17 11:50:25.95	281.63	25.67	-42.9	-43.8	21.3	0.00e+00	0	35	0	969932800	57	3985
2026-01-17 11:50:26.96	281.93	25.65	-43.0	-43.9	21.2	0.00e+00	0	35	0	973078528	57	4025
2026-01-17 11:50:27.97	282.23	25.63	-43.0	-43.8	21.3	0.00e+00	0	35	0	976224256	57	3997
2026-01-17 11:50:28.98	282.53	25.60	-43.0	-43.9	21.2	0.00e+00	0	35	0	979369984	57	4021
2026-01-17 11:50:29.99	282.83	25.58	-43.2	-44.1	20.9	0.00e+00	0	34	0	983564288	57	4129
2026-01-17 11:50:30.99	283.12	25.56	-43.1	-44.0	21.1	0.00e+00	0	35	0	985661440	57	4090
2026-01-17 11:50:32.00	283.42	25.53	-43.0	-43.9	21.2	0.00e+00	0	35	0	988807168	57	4025
2026-01-17 11:50:33.01	283.71	25.50	-42.9	-43.8	21.3	0.00e+00	0	35	0	991952896	57	3988
2026-01-17 11:50:34.02	284.01	25.48	-42.9	-43.8	21.3	0.00e+00	0	35	0	995098624	57	3984
2026-01-17 11:50:35.03	284.30	25.45	-42.9	-43.7	21.3	0.00e+00	0	35	0	998244352	57	3947
2026-01-17 11:50:36.03	284.60	25.42	-42.9	-43.8	21.3	0.00e+00	0	35	0	1001390080	57	3989
2026-01-17 11:50:37.04	284.89	25.39	-42.8	-43.6	21.4	0.00e+00	0	35	0	1004535808	57	3893
2026-01-17 11:50:38.05	285.18	25.36	-42.8	-43.6	21.4	0.00e+00	0	35	0	1007681536	57	3898
2026-01-17 11:50:39.06	285.48	25.33	-42.8	-43.7	21.4	0.00e+00	0	35	0	1010827264	57	3928
2026-01-17 11:50:40.07	285.77	25.30	-42.8	-43.7	21.4	0.00e+00	0	35	0	1013972992	57	3920
2026-01-17 11:50:41.08	286.06	25.27	-42.9	-43.8	21.3	0.00e+00	0	35	0	1018167296	57	3974
2026-01-17 11:50:42.09	286.35	25.24	-43.0	-43.9	21.2	0.00e+00	0	35	0	1021313024	57	4018
2026-01-17 11:50:43.10	286.64	25.20	-42.9	-43.8	21.2	0.00e+00	0	35	0	1024458752	57	3994
2026-01-17 11:50:44.10	286.93	25.17	-43.0	-43.9	21.2	0.00e+00	0	35	0	1027604480	57	4012
2026-01-17 11:50:45.11	287.22	25.14	-42.8	-43.7	21.3	0.00e+00	0	35	0	1030750208	57	3928
2026-01-17 11:50:46.12	287.51	25.10	-42.8	-43.6	21.4	0.00e+00	0	35	0	1032847360	57	3903
2026-01-17 11:50:47.13	287.80	25.06	-42.8	-43.7	21.4	0.00e+00	0	35	0	1035993088	57	3929
2026-01-17 11:50:48.14	288.08	25.03	-42.9	-43.7	21.4	0.00e+00	0	35	0	1039138816	57	3944
2026-01-17 11:50:49.14	288.37	24.99	-43.0	-43.8	21.3	0.00e+00	0	35	0	1042284544	57	3993
2026-01-17 11:50:50.15	288.65	24.95	-43.1	-44.0	21.1	0.00e+00	0	35	0	1045430272	57	4071
2026-01-17 11:50:51.16	288.94	24.91	-43.1	-44.0	21.2	0.00e+00	0	35	0	1048576000	57	4062
2026-01-17 11:50:52.17	289.22	24.87	-43.1	-44.0	21.1	0.00e+00	0	34	0	1051721728	57	4093
2026-01-17 11:50:53.18	289.51	24.83	-43.2	-44.1	21.1	0.00e+00	0	35	0	1055916032	57	4102
2026-01-17 11:50:54.19	289.79	24.79	-43.2	-44.1	21.0	0.00e+00	0	35	0	1059061760	57	4100
2026-01-17 11:50:55.20	290.08	24.75	-43.1	-44.0	21.2	0.00e+00	0	35	0	1062207488	57	4062
2026-01-17 11:50:56.21	290.36	24.71	-43.2	-44.1	21.1	0.00e+00	0	35	0	1065353216	57	4107
2026-01-17 11:50:57.22	290.64	24.66	-43.2	-44.1	21.1	0.00e+00	0	35	0	1068498944	57	4108
2026-01-17 11:50:58.23	290.92	24.62	-43.1	-44.0	21.2	0.00e+00	0	35	0	1071644672	57	4091
2026-01-17 11:50:59.23	291.20	24.58	-43.1	-44.0	21.2	0.00e+00	0	35	0	1074790400	57	4061
2026-01-17 11:51:00.24	291.47	24.53	-43.1	-44.0	21.2	0.00e+00	0	35	0	1077936128	57	4062
2026-01-17 11:51:01.25	291.75	24.49	-43.2	-44.1	21.1	0.00e+00	0	35	0	1080033280	57	4105
2026-01-17 11:51:02.26	292.03	24.44	-43.2	-44.2	21.1	0.00e+00	0	35	0	1083179008	57	4147
2026-01-17 11:51:03.26	292.30	24.39	-43.4	-44.3	20.9	0.00e+00	0	35	0	1086324736	57	4233
2026-01-17 11:51:04.27	292.58	24.35	-43.4	-44.3	20.9	0.00e+00	0	35	0	1089470464	57	4230
2026-01-17 11:51:05.28	292.85	24.30	-43.4	-44.4	20.9	0.00e+00	0	35	0	1093664768	57	4249
2026-01-17 11:51:06.29	293.13	24.25	-43.5	-44.4	20.8	0.00e+00	0	35	0	1096810496	57	4270
2026-01-17 11:51:07.30	293.40	24.20	-43.3	-44.3	21.0	0.00e+00	0	35	0	1099956224	57	4203
2026-01-17 11:51:08.31	293.67	24.15	-43.4	-44.3	21.0	0.00e+00	0	35	0	1103101952	57	4203
2026-01-17 11:51:09.32	293.94	24.10	-43.4	-44.3	20.9	0.00e+00	0	35	0	1106247680	57	4233
2026-01-17 11:51:10.33	294.22	24.05	-43.3	-44.2	21.0	0.00e+00	0	35	0	1109393408	57	4187
2026-01-17 11:51:11.33	294.48	24.00	-43.3	-44.2	21.0	0.00e+00	0	35	0	1112539136	57	4180
2026-01-17 11:51:12.34	294.75	23.95	-43.3	-44.2	21.0	0.00e+00	0	35	0	1115684864	57	4174
2026-01-17 11:51:13.35	295.02	23.90	-43.3	-44.2	21.0	0.00e+00	0	35	0	1118830592	57	4169
2026-01-17 11:51:14.36	295.29	23.84	-43.2	-44.1	21.1	0.00e+00	0	35	0	1121976320	57	4134
2026-01-17 11:51:15.37	295.55	23.79	-43.3	-44.2	21.0	0.00e+00	0	35	0	1125122048	57	4168
2026-01-17 11:51:16.38	295.82	23.74	-43.3	-44.2	21.0	0.00e+00	0	35	0	1127219200	57	4189
2026-01-17 11:51:17.38	296.08	23.68	-43.4	-44.3	21.0	0.00e+00	0	35	0	1131413504	57	4210
2026-01-17 11:51:18.39	296.34	23.63	-43.4	-44.3	20.9	0.00e+00	0	35	0	1134559232	57	4239
2026-01-17 11:51:19.40	296.61	23.57	-43.3	-44.3	20.9	0.00e+00	0	35	0	1137704960	57	4199
2026-01-17 11:51:20.41	296.87	23.52	-43.3	-44.2	21.0	0.00e+00	0	35	0	1140850688	57	4187
2026-01-17 11:51:21.42	297.13	23.46	-43.4	-44.3	20.9	0.00e+00	0	35	0	1143996416	57	4221
2026-01-17 11:51:22.43	297.39	23.40	-43.4	-44.3	20.9	0.00e+00	0	35	0	1147142144	57	4222
2026-01-17 11:51:23.44	297.65	23.35	-43.4	-44.4	20.9	0.00e+00	0	35	0	1150287872	57	4246
2026-01-17 11:51:24.44	297.90	23.29	-43.5	-44.4	20.8	0.00e+00	0	35	0	1153433600	57	4272
2026-01-17 11:51:25.45	298.16	23.23	-43.6	-44.5	20.7	0.00e+00	0	35	0	1156579328	57	4329
2026-01-17 11:51:26.46	298.42	23.17	-43.6	-44.5	20.7	0.00e+00	0	35	0	1159725056	57	4311
2026-01-17 11:51:27.47	298.67	23.11	-43.5	-44.4	20.8	0.00e+00	0	35	0	1162870784	57	4291
2026-01-17 11:51:28.48	298.93	23.05	-43.4	-44.3	20.9	0.00e+00	0	35	0	1166016512	57	4205
2026-01-17 11:51:29.48	299.18	22.99	-43.4	-44.3	20.8	0.00e+00	0	35	0	1169162240	57	4228
2026-01-17 11:51:30.49	299.43	22.93	-43.5	-44.4	20.8	0.00e+00	0	35	0	1172307968	57	4258
2026-01-17 11:51:31.50	299.68	22.87	-43.5	-44.4	20.8	0.00e+00	0	35	0	1175453696	57	4252
2026-01-17 11:51:32.51	299.93	22.81	-43.4	-44.3	20.8	0.00e+00	0	35	0	1178599424	57	4232
2026-01-17 11:51:33.52	300.18	22.75	-43.2	-44.1	21.1	0.00e+00	0	35	0	1181745152	57	4115
2026-01-17 11:51:34.53	300.43	22.69	-43.2	-44.1	21.0	0.00e+00	0	35	0	1184890880	57	4123
2026-01-17 11:51:35.54	300.68	22.62	-43.2	-44.1	21.1	0.00e+00	0	35	0	1188036608	57	4112
2026-01-17 11:51:36.54	300.92	22.56	-43.1	-44.0	21.1	0.00e+00	0	35	0	1191182336	57	4066
2026-01-17 11:51:37.55	301.17	22.50	-43.2	-44.1	21.1	0.00e+00	0	35	0	1194328064	57	4108
2026-01-17 11:51:38.56	301.41	22.44	-43.2	-44.1	21.0	0.00e+00	0	35	0	1197473792	57	4130
2026-01-17 11:51:39.57	301.65	22.37	-43.2	-44.1	21.0	0.00e+00	0	35	0	1200619520	57	4140
2026-01-17 11:51:40.58	301.90	22.31	-43.3	-44.2	21.0	0.00e+00	0	35	0	1203765248	57	4150
2026-01-17 11:51:41.59	302.14	22.24	-43.4	-44.3	20.9	0.00e+00	0	35	0	1206910976	57	4228
2026-01-17 11:51:42.60	302.38	22.18	-43.4	-44.3	20.9	0.00e+00	0	35	0	1210056704	57	4198
2026-01-17 11:51:43.60	302.62	22.11	-43.4	-44.3	20.9	0.00e+00	0	34	0	1213202432	57	4224
2026-01-17 11:51:44.61	302.85	22.05	-43.5	-44.4	20.8	0.00e+00	0	35	0	1216348160	57	4259
2026-01-17 11:51:45.62	303.09	21.98	-43.5	-44.5	20.8	0.00e+00	0	35	0	1219493888	57	4296
2026-01-17 11:51:46.63	303.33	21.91	-43.5	-44.4	20.8	0.00e+00	0	35	0	1222639616	57	4263
2026-01-17 11:51:47.64	303.57	21.85	-43.5	-44.5	20.7	0.00e+00	0	35	0	1225785344	57	4295
2026-01-17 11:51:48.64	303.80	21.78	-43.5	-44.5	20.7	0.00e+00	0	35	0	1228931072	57	4298
2026-01-17 11:51:49.65	304.03	21.71	-43.6	-44.5	20.6	0.00e+00	0	35	0	1232076800	57	4339
2026-01-17 11:51:50.66	304.26	21.65	-43.6	-44.6	20.6	0.00e+00	0	35	0	1235222528	57	4348
2026-01-17 11:51:51.67	304.50	21.58	-43.4	-44.3	20.8	0.00e+00	0	35	0	1238368256	57	4234
2026-01-17 11:51:52.68	304.73	21.51	-43.4	-44.3	20.8	0.00e+00	0	35	0	1241513984	57	4210
2026-01-17 11:51:53.69	304.96	21.44	-43.3	-44.2	21.0	0.00e+00	0	35	0	1244659712	57	4147
2026-01-17 11:51:54.70	305.19	21.37	-43.1	-44.0	21.1	0.00e+00	0	35	0	1247805440	57	4078
2026-01-17 11:51:55.70	305.41	21.31	-43.2	-44.1	21.1	0.00e+00	0	35	0	1250951168	57	4103
2026-01-17 11:51:56.71	305.64	21.24	-43.3	-44.2	20.9	0.00e+00	0	35	0	1254096896	57	4186
2026-01-17 11:51:57.72	305.86	21.17	-43.4	-44.3	20.9	0.00e+00	0	35	0	1257242624	57	4217
2026-01-17 11:51:58.73	306.09	21.10	-43.6	-44.5	20.8	0.00e+00	0	35	0	1260388352	57	4311
2026-01-17 11:51:59.74	306.31	21.03	-43.5	-44.4	20.7	0.00e+00	0	35	0	1263534080	57	4289
2026-01-17 11:52:00.75	306.53	20.96	-43.6	-44.6	20.6	0.00e+00	0	35	0	1266679808	57	4356
2026-01-17 11:52:01.76	306.76	20.89	-43.7	-44.7	20.5	0.00e+00	0	35	0	1269825536	58	4169
2026-01-17 11:52:02.76	306.98	20.82	-43.7	-44.7	20.5	0.00e+00	0	35	0	1272971264	58	4164
2026-01-17 11:52:03.77	307.19	20.75	-43.7	-44.7	20.6	0.00e+00	0	35	0	1276116992	58	4147
2026-01-17 11:52:04.78	307.41	20.68	-43.5	-44.4	20.8	0.00e+00	0	35	0	1279262720	58	4025
2026-01-17 11:52:05.79	307.63	20.60	-43.6	-44.5	20.7	0.00e+00	0	35	0	1282408448	58	4062
2026-01-17 11:52:06.80	307.85	20.53	-43.2	-44.1	20.9	0.00e+00	0	35	0	1285554176	58	3894
2026-01-17 11:52:07.80	308.06	20.46	-43.2	-44.1	20.9	0.00e+00	0	35	0	1288699904	58	3902
2026-01-17 11:52:08.81	308.28	20.39	-43.2	-44.0	21.0	0.00e+00	0	35	0	1291845632	58	3863
2026-01-17 11:52:09.82	308.49	20.32	-43.1	-44.0	21.1	0.00e+00	0	35	0	1294991360	58	3846
2026-01-17 11:52:10.83	308.70	20.25	-43.2	-44.0	21.1	0.00e+00	0	35	0	1298137088	58	3865
2026-01-17 11:52:11.84	308.92	20.17	-43.1	-44.0	21.1	0.00e+00	0	35	0	1301282816	58	3862
2026-01-17 11:52:12.85	309.13	20.10	-43.3	-44.2	21.0	0.00e+00	0	35	0	1304428544	58	3920
2026-01-17 11:52:13.86	309.34	20.03	-43.3	-44.2	20.9	0.00e+00	0	35	0	1307574272	58	3957
2026-01-17 11:52:14.86	309.54	19.96	-43.3	-44.2	20.9	0.00e+00	0	35	0	1310720000	58	3957
2026-01-17 11:52:15.87	309.75	19.88	-43.3	-44.2	20.9	0.00e+00	0	35	0	1313865728	58	3955
2026-01-17 11:52:16.88	309.96	19.81	-43.5	-44.4	20.8	0.00e+00	0	35	0	1317011456	58	4015
2026-01-17 11:52:17.89	310.17	19.74	-43.4	-44.3	20.9	0.00e+00	0	35	0	1320157184	58	3981
2026-01-17 11:52:18.90	310.37	19.66	-43.5	-44.4	20.7	0.00e+00	0	35	0	1323302912	58	4026
2026-01-17 11:52:19.90	310.57	19.59	-43.5	-44.4	20.7	0.00e+00	0	35	0	1326448640	58	4045
2026-01-17 11:52:20.91	310.78	19.52	-43.4	-44.3	20.8	0.00e+00	0	35	0	1329594368	58	3986
2026-01-17 11:52:21.92	310.98	19.44	-43.3	-44.2	20.9	0.00e+00	0	35	0	1332740096	58	3931
2026-01-17 11:52:22.93	311.18	19.37	-43.3	-44.2	20.9	0.00e+00	0	35	0	1335885824	58	3953
2026-01-17 11:52:23.94	311.38	19.30	-43.3	-44.2	21.0	0.00e+00	0	35	0	1339031552	58	3918
2026-01-17 11:52:24.94	311.58	19.22	-43.3	-44.2	20.9	0.00e+00	0	35	0	1342177280	58	3938
2026-01-17 11:52:25.95	311.78	19.15	-43.1	-44.0	21.1	0.00e+00	0	35	0	1345323008	58	3847
2026-01-17 11:52:26.96	311.98	19.07	-43.1	-44.0	21.2	0.00e+00	0	35	0	1348468736	58	3837
2026-01-17 11:52:27.97	312.17	19.00	-43.1	-44.0	21.1	0.00e+00	0	35	0	1351614464	58	3840
2026-01-17 11:52:28.98	312.37	18.92	-43.1	-44.0	21.1	0.00e+00	0	35	0	1354760192	58	3853
2026-01-17 11:52:29.98	312.56	18.85	-43.2	-44.1	21.0	0.00e+00	0	35	0	1357905920	58	3895
2026-01-17 11:52:30.99	312.75	18.78	-43.3	-44.2	20.9	0.00e+00	0	34	0	1361051648	58	3930
2026-01-17 11:52:32.00	312.95	18.70	-43.4	-44.3	20.8	0.00e+00	0	35	0	1364197376	58	3980
2026-01-17 11:52:33.01	313.14	18.63	-43.5	-44.4	20.8	0.00e+00	0	35	0	1367343104	58	4027
2026-01-17 11:52:34.02	313.33	18.55	-43.6	-44.6	20.6	0.00e+00	0	34	0	1370488832	58	4120
2026-01-17 11:52:35.03	313.52	18.48	-43.5	-44.5	20.6	0.00e+00	0	35	0	1373634560	58	4066
2026-01-17 11:52:36.04	313.71	18.40	-43.6	-44.5	20.6	0.00e+00	0	34	0	1376780288	58	4084
2026-01-17 11:52:37.05	313.90	18.33	-43.7	-44.6	20.5	0.00e+00	0	35	0	1379926016	58	4131
2026-01-17 11:52:38.05	314.08	18.25	-43.6	-44.6	20.6	0.00e+00	0	34	0	1383071744	58	4108
2026-01-17 11:52:39.06	314.27	18.18	-43.6	-44.5	20.6	0.00e+00	0	34	0	1386217472	58	4074
2026-01-17 11:52:40.07	314.46	18.10	-43.5	-44.5	20.7	0.00e+00	0	35	0	1389363200	58	4054
2026-01-17 11:52:41.08	314.64	18.02	-43.3	-44.2	20.9	0.00e+00	0	35	0	1392508928	58	3939
2026-01-17 11:52:42.08	314.82	17.95	-43.3	-44.2	20.9	0.00e+00	0	35	0	1395654656	58	3931
2026-01-17 11:52:43.09	315.01	17.87	-43.3	-44.2	20.8	0.00e+00	0	34	0	1398800384	58	3957
2026-01-17 11:52:44.10	315.19	17.80	-43.3	-44.2	20.8	0.00e+00	0	35	0	1401946112	58	3931
2026-01-17 11:52:45.11	315.37	17.72	-43.3	-44.2	20.8	0.00e+00	0	35	0	1405091840	58	3951
2026-01-17 11:52:46.12	315.55	17.65	-43.4	-44.3	20.7	0.00e+00	0	35	0	1408237568	58	3987
2026-01-17 11:52:47.12	315.73	17.57	-43.5	-44.4	20.6	0.00e+00	0	35	0	1411383296	58	4047
2026-01-17 11:52:48.13	315.91	17.50	-43.5	-44.4	20.6	0.00e+00	0	35	0	1414529024	58	4021
2026-01-17 11:52:49.14	316.09	17.42	-43.6	-44.6	20.5	0.00e+00	0	35	0	1417674752	58	4117
2026-01-17 11:52:50.15	316.26	17.34	-43.7	-44.7	20.4	0.00e+00	0	35	0	1420820480	58	4147
2026-01-17 11:52:51.16	316.44	17.27	-43.7	-44.7	20.4	0.00e+00	0	35	0	1423966208	58	4172
2026-01-17 11:52:52.16	316.61	17.19	-43.8	-44.8	20.3	0.00e+00	0	35	0	1427111936	58	4201
2026-01-17 11:52:53.17	316.79	17.12	-43.9	-44.9	20.2	0.00e+00	0	35	0	1430257664	58	4265
2026-01-17 11:52:54.18	316.96	17.04	-44.0	-45.0	20.1	0.00e+00	0	35	0	1433403392	58	4311
2026-01-17 11:52:55.19	317.13	16.97	-43.8	-44.8	20.3	0.00e+00	0	35	0	1436549120	58	4205
2026-01-17 11:52:56.20	317.30	16.89	-43.7	-44.6	20.5	0.00e+00	0	35	0	1439694848	58	4140
2026-01-17 11:52:57.21	317.47	16.81	-43.7	-44.7	20.4	0.00e+00	0	34	0	1442840576	58	4151
2026-01-17 11:52:58.22	317.65	16.74	-43.7	-44.7	20.4	0.00e+00	0	35	0	1445986304	58	4154
2026-01-17 11:52:59.23	317.81	16.66	-43.7	-44.6	20.4	0.00e+00	0	35	0	1449132032	58	4136
2026-01-17 11:53:00.22	317.98	16.59	-43.7	-44.7	20.3	0.00e+00	0	35	0	1452277760	58	4158
2026-01-17 11:53:01.22	318.15	16.51	-43.8	-44.8	20.2	0.00e+00	0	35	0	1455423488	58	4202
2026-01-17 11:53:02.23	318.31	16.44	-43.9	-44.9	20.1	0.00e+00	0	35	0	1458569216	58	4249
2026-01-17 11:53:03.24	318.48	16.36	-43.9	-44.9	20.1	0.00e+00	0	35	0	1461714944	58	4276
2026-01-17 11:53:04.24	318.64	16.29	-44.0	-45.1	19.9	0.00e+00	0	35	0	1464860672	58	4345
2026-01-17 11:53:05.25	318.81	16.21	-44.2	-45.2	19.8	0.00e+00	0	35	0	1468006400	58	4417
2026-01-17 11:53:06.26	318.97	16.13	-44.3	-45.3	19.7	0.00e+00	0	34	0	1471152128	59	4237
2026-01-17 11:53:07.26	319.13	16.06	-44.4	-45.5	19.5	0.00e+00	0	35	0	1474297856	59	4321
2026-01-17 11:53:08.27	319.29	15.98	-44.4	-45.5	19.5	0.00e+00	0	35	0	1477443584	59	4308
2026-01-17 11:53:09.28	319.45	15.91	-44.4	-45.4	19.6	0.00e+00	0	35	0	1480589312	59	4286
2026-01-17 11:53:10.29	319.62	15.83	-44.4	-45.4	19.6	0.00e+00	0	35	0	1483735040	59	4278
2026-01-17 11:53:11.30	319.78	15.76	-44.4	-45.4	19.6	0.00e+00	0	35	0	1486880768	59	4291
2026-01-17 11:53:12.31	319.93	15.68	-44.3	-45.3	19.8	0.00e+00	0	35	0	1490026496	59	4216
2026-01-17 11:53:13.32	320.09	15.61	-44.1	-45.1	19.9	0.00e+00	0	35	0	1493172224	59	4144
2026-01-17 11:53:14.33	320.25	15.53	-44.1	-45.1	20.0	0.00e+00	0	35	0	1496317952	59	4111
2026-01-17 11:53:15.33	320.40	15.45	-44.0	-45.0	20.0	0.00e+00	0	35	0	1499463680	59	4098
2026-01-17 11:53:16.34	320.56	15.38	-44.1	-45.1	19.9	0.00e+00	0	35	0	1502609408	59	4105
2026-01-17 11:53:17.35	320.72	15.30	-44.1	-45.1	19.8	0.00e+00	0	35	0	1505755136	59	4138
2026-01-17 11:53:18.36	320.87	15.23	-44.1	-45.2	19.8	0.00e+00	0	35	0	1508900864	59	4148
2026-01-17 11:53:19.36	321.02	15.15	-44.1	-45.2	19.8	0.00e+00	0	35	0	1512046592	59	4159
2026-01-17 11:53:20.37	321.17	15.08	-44.2	-45.2	19.8	0.00e+00	0	34	0	1515192320	59	4170
2026-01-17 11:53:21.38	321.33	15.00	-44.1	-45.1	19.9	0.00e+00	0	35	0	1518338048	59	4104
2026-01-17 11:53:22.39	321.48	14.93	-44.0	-45.0	19.9	0.00e+00	0	35	0	1521483776	59	4069
2026-01-17 11:53:23.40	321.63	14.85	-44.1	-45.1	19.9	0.00e+00	0	34	0	1524629504	59	4111
2026-01-17 11:53:24.40	321.78	14.78	-44.1	-45.1	19.8	0.00e+00	0	35	0	1527775232	59	4145
2026-01-17 11:53:25.41	321.93	14.70	-44.1	-45.1	19.8	0.00e+00	0	35	0	1530920960	59	4109
2026-01-17 11:53:26.42	322.07	14.63	-44.1	-45.2	19.8	0.00e+00	0	34	0	1534066688	59	4156
2026-01-17 11:53:27.43	322.22	14.55	-44.3	-45.3	19.6	0.00e+00	0	35	0	1537212416	59	4223
2026-01-17 11:53:28.44	322.37	14.48	-44.3	-45.3	19.6	0.00e+00	0	35	0	1540358144	59	4223
2026-01-17 11:53:29.45	322.52	14.40	-44.3	-45.4	19.6	0.00e+00	0	35	0	1543503872	59	4250
2026-01-17 11:53:30.46	322.66	14.33	-44.4	-45.5	19.4	0.00e+00	0	35	0	1546649600	59	4335
2026-01-17 11:53:31.47	322.81	14.25	-44.5	-45.5	19.4	0.00e+00	0	35	0	1549795328	59	4339
2026-01-17 11:53:32.48	322.95	14.18	-44.5	-45.5	19.4	0.00e+00	0	35	0	1552941056	59	4332
2026-01-17 11:53:33.49	323.09	14.10	-44.5	-45.5	19.4	0.00e+00	0	35	0	1556086784	59	4331
2026-01-17 11:53:34.49	323.24	14.03	-44.5	-45.6	19.4	0.00e+00	0	35	0	1559232512	59	4361
2026-01-17 11:53:35.50	323.38	13.96	-44.5	-45.6	19.3	0.00e+00	0	35	0	1562378240	59	4377
2026-01-17 11:53:36.51	323.52	13.88	-44.5	-45.6	19.3	0.00e+00	0	35	0	1565523968	59	4376
2026-01-17 11:53:37.52	323.66	13.81	-44.4	-45.5	19.4	0.00e+00	0	35	0	1568669696	59	4323
2026-01-17 11:53:38.53	323.80	13.73	-44.5	-45.6	19.3	0.00e+00	0	35	0	1571815424	59	4366
2026-01-17 11:53:39.53	323.94	13.66	-44.5	-45.6	19.3	0.00e+00	0	35	0	1574961152	59	4349
2026-01-17 11:53:40.54	324.08	13.59	-44.4	-45.4	19.4	0.00e+00	0	35	0	1578106880	59	4290
2026-01-17 11:53:41.55	324.21	13.51	-44.4	-45.5	19.4	0.00e+00	0	35	0	1581252608	59	4295
2026-01-17 11:53:42.56	324.35	13.44	-44.4	-45.5	19.4	0.00e+00	0	35	0	1584398336	59	4314
2026-01-17 11:53:43.56	324.49	13.36	-44.5	-45.6	19.3	0.00e+00	0	35	0	1587544064	59	4360
2026-01-17 11:53:44.57	324.62	13.29	-44.4	-45.5	19.4	0.00e+00	0	35	0	1590689792	59	4308
2026-01-17 11:53:45.58	324.76	13.22	-44.3	-45.4	19.5	0.00e+00	0	35	0	1593835520	59	4263
2026-01-17 11:53:46.58	324.89	13.14	-44.4	-45.4	19.4	0.00e+00	0	35	0	1596981248	59	4284
2026-01-17 11:53:47.59	325.03	13.07	-44.4	-45.5	19.4	0.00e+00	0	35	0	1600126976	59	4302
2026-01-17 11:53:48.60	325.16	13.00	-44.4	-45.5	19.4	0.00e+00	0	35	0	1603272704	59	4316
2026-01-17 11:53:49.61	325.29	12.92	-44.6	-45.7	19.2	0.00e+00	0	35	0	1606418432	59	4395
2026-01-17 11:53:50.62	325.43	12.85	-44.6	-45.7	19.3	0.00e+00	0	35	0	1609564160	59	4400
2026-01-17 11:53:51.62	325.56	12.78	-44.6	-45.7	19.2	0.00e+00	0	35	0	1612709888	59	4413
2026-01-17 11:53:52.63	325.69	12.71	-44.7	-45.8	19.1	0.00e+00	0	35	0	1615855616	59	4473
2026-01-17 11:53:53.64	325.82	12.63	-44.4	-45.5	19.1	0.00e+00	0	35	0	1619001344	60	4080
2026-01-17 11:53:54.65	325.95	12.56	-44.4	-45.5	19.1	0.00e+00	0	35	0	1622147072	60	4078
2026-01-17 11:53:55.66	326.08	12.49	-44.5	-45.6	19.0	0.00e+00	0	35	0	1625292800	60	4120
2026-01-17 11:53:56.67	326.20	12.41	-44.3	-45.3	19.3	0.00e+00	0	35	0	1628438528	60	4002
2026-01-17 11:53:57.68	326.33	12.34	-44.3	-45.3	19.3	0.00e+00	0	35	0	1631584256	60	3994
2026-01-17 11:53:58.68	326.46	12.27	-44.2	-45.3	19.2	0.00e+00	0	35	0	1634729984	60	3999
2026-01-17 11:53:59.69	326.58	12.20	-44.3	-45.4	19.1	0.00e+00	0	35	0	1637875712	60	4040
2026-01-17 11:54:00.70	326.71	12.12	-44.4	-45.5	19.1	0.00e+00	0	35	0	1641021440	60	4065
2026-01-17 11:54:01.71	326.84	12.05	-44.3	-45.4	19.1	0.00e+00	0	35	0	1644167168	60	4038
2026-01-17 11:54:02.72	326.96	11.98	-44.4	-45.5	19.0	0.00e+00	0	35	0	1647312896	60	4076
2026-01-17 11:54:03.73	327.09	11.91	-44.5	-45.7	18.9	0.00e+00	0	35	0	1650458624	60	4157
2026-01-17 11:54:04.74	327.21	11.84	-44.4	-45.5	19.0	0.00e+00	0	35	0	1653604352	60	4096
2026-01-17 11:54:05.75	327.33	11.76	-44.5	-45.6	18.9	0.00e+00	0	35	0	1656750080	60	4128
2026-01-17 11:54:06.76	327.46	11.69	-44.4	-45.5	19.0	0.00e+00	0	35	0	1659895808	60	4093
2026-01-17 11:54:07.76	327.58	11.62	-44.3	-45.4	19.1	0.00e+00	0	35	0	1663041536	60	4038
2026-01-17 11:54:08.77	327.70	11.55	-44.5	-45.6	18.9	0.00e+00	0	35	0	1666187264	60	4123
2026-01-17 11:54:09.78	327.82	11.48	-44.4	-45.5	19.0	0.00e+00	0	35	0	1670381568	60	4098
2026-01-17 11:54:10.79	327.94	11.41	-44.4	-45.6	18.9	0.00e+00	0	34	0	1673527296	60	4111
2026-01-17 11:54:11.80	328.06	11.34	-44.5	-45.6	18.9	0.00e+00	0	34	0	1676673024	60	4123
2026-01-17 11:54:12.81	328.18	11.26	-44.5	-45.6	18.9	0.00e+00	0	35	0	1678770176	60	4121
2026-01-17 11:54:13.82	328.30	11.19	-44.4	-45.5	19.0	0.00e+00	0	35	0	1681915904	60	4079
2026-01-17 11:54:14.82	328.41	11.12	-44.4	-45.5	19.0	0.00e+00	0	35	0	1685061632	60	4083
2026-01-17 11:54:15.83	328.53	11.05	-44.6	-45.7	18.8	0.00e+00	0	34	0	1688207360	60	4177
2026-01-17 11:54:16.84	328.65	10.98	-44.5	-45.6	18.9	0.00e+00	0	35	0	1691353088	60	4117
2026-01-17 11:54:17.85	328.76	10.91	-44.4	-45.6	18.9	0.00e+00	0	35	0	1694498816	60	4100
2026-01-17 11:54:18.86	328.88	10.84	-44.5	-45.6	18.9	0.00e+00	0	35	0	1697644544	60	4120
2026-01-17 11:54:19.86	328.99	10.77	-44.5	-45.7	18.8	0.00e+00	0	35	0	1700790272	60	4146
2026-01-17 11:54:20.87	329.11	10.70	-44.5	-45.6	18.8	0.00e+00	0	35	0	1703936000	60	4144
2026-01-17 11:54:21.88	329.22	10.63	-44.5	-45.7	18.8	0.00e+00	0	35	0	1708130304	60	4152
2026-01-17 11:54:22.89	329.34	10.56	-44.6	-45.7	18.8	0.00e+00	0	35	0	1711276032	60	4171
2026-01-17 11:54:23.90	329.45	10.49	-44.6	-45.7	18.7	0.00e+00	0	35	0	1714421760	60	4184
2026-01-17 11:54:24.90	329.56	10.42	-44.6	-45.7	18.7	0.00e+00	0	35	0	1717567488	60	4183
2026-01-17 11:54:25.91	329.68	10.35	-44.5	-45.6	18.8	0.00e+00	0	35	0	1720713216	60	4141
2026-01-17 11:54:26.92	329.79	10.28	-44.5	-45.7	18.8	0.00e+00	0	35	0	1723858944	60	4154
2026-01-17 11:54:27.93	329.90	10.21	-44.5	-45.6	18.8	0.00e+00	0	35	0	1727004672	60	4130
2026-01-17 11:54:28.94	330.01	10.14	-44.5	-45.6	18.8	0.00e+00	0	35	0	1729101824	60	4136
2026-01-17 11:54:29.95	330.12	10.07	-44.4	-45.5	18.9	0.00e+00	0	35	0	1732247552	60	4077
2026-01-17 11:54:30.96	330.23	10.00	-44.4	-45.6	18.9	0.00e+00	0	35	0	1735393280	60	4113
2026-01-17 11:54:31.96	330.34	9.93	-44.3	-45.5	19.0	0.00e+00	0	35	0	1738539008	60	4057
2026-01-17 11:54:32.97	330.45	9.86	-44.5	-45.6	18.8	0.00e+00	0	35	0	1741684736	60	4135
2026-01-17 11:54:33.98	330.55	9.79	-44.5	-45.6	18.8	0.00e+00	0	35	0	1745879040	60	4131
2026-01-17 11:54:34.99	330.66	9.73	-44.5	-45.6	18.8	0.00e+00	0	35	0	1749024768	60	4109
2026-01-17 11:54:36.00	330.77	9.66	-44.4	-45.5	18.9	0.00e+00	0	35	0	1752170496	60	4097
2026-01-17 11:54:37.01	330.88	9.59	-44.5	-45.7	18.7	0.00e+00	0	35	0	1755316224	60	4147
2026-01-17 11:54:38.02	330.98	9.52	-44.6	-45.8	18.6	0.00e+00	0	35	0	1758461952	60	4197
2026-01-17 11:54:39.03	331.09	9.45	-44.7	-45.9	18.5	0.00e+00	0	35	0	1761607680	60	4267
2026-01-17 11:54:40.04	331.19	9.38	-44.5	-45.7	18.7	0.00e+00	0	35	0	1764753408	60	4164
2026-01-17 11:54:41.04	331.30	9.32	-44.7	-45.9	18.5	0.00e+00	0	35	0	1767899136	60	4263
2026-01-17 11:54:42.05	331.40	9.25	-44.9	-46.1	18.3	0.00e+00	0	35	0	1771044864	60	4361
2026-01-17 11:54:43.06	331.51	9.18	-45.0	-46.2	18.2	0.00e+00	0	35	0	1773142016	60	4419
2026-01-17 11:54:44.07	331.61	9.11	-44.9	-46.1	18.3	0.00e+00	0	35	0	1776287744	60	4373
2026-01-17 11:54:45.08	331.71	9.04	-44.8	-46.1	18.3	0.00e+00	0	35	0	1780482048	60	4343
2026-01-17 11:54:46.09	331.82	8.98	-44.8	-46.0	18.4	0.00e+00	0	35	0	1783627776	60	4332
2026-01-17 11:54:47.10	331.92	8.91	-44.8	-46.0	18.4	0.00e+00	0	35	0	1786773504	60	4330
2026-01-17 11:54:48.11	332.02	8.84	-44.9	-46.1	18.3	0.00e+00	0	35	0	1789919232	60	4377
2026-01-17 11:54:49.12	332.12	8.77	-44.9	-46.2	18.2	0.00e+00	0	35	0	1793064960	60	4404
2026-01-17 11:54:50.13	332.22	8.71	-44.9	-46.2	18.2	0.00e+00	0	35	0	1796210688	60	4394
2026-01-17 11:54:51.13	332.32	8.64	-44.9	-46.2	18.2	0.00e+00	0	35	0	1799356416	60	4395
2026-01-17 11:54:52.14	332.42	8.57	-44.9	-46.1	18.3	0.00e+00	0	35	0	1802502144	60	4356
2026-01-17 11:54:53.15	332.52	8.50	-45.0	-46.2	18.1	0.00e+00	0	35	0	1805647872	60	4427
2026-01-17 11:54:54.16	332.62	8.44	-45.2	-46.5	17.8	0.00e+00	0	35	0	1808793600	60	4558
2026-01-17 11:54:55.17	332.72	8.37	-45.3	-46.6	17.7	0.00e+00	0	35	0	1811939328	61	4372
2026-01-17 11:54:56.17	332.82	8.31	-45.3	-46.7	17.7	0.00e+00	0	35	0	1815085056	61	4404
2026-01-17 11:54:57.18	332.91	8.24	-45.3	-46.6	17.8	0.00e+00	0	35	0	1818230784	61	4349
2026-01-17 11:54:58.19	333.01	8.17	-45.2	-46.5	17.8	0.00e+00	0	35	0	1821376512	61	4313
2026-01-17 11:54:59.20	333.11	8.11	-45.1	-46.4	18.0	0.00e+00	0	35	0	1824522240	61	4243
2026-01-17 11:55:00.21	333.21	8.04	-45.1	-46.4	17.9	0.00e+00	0	35	0	1827667968	61	4277
2026-01-17 11:55:01.21	333.30	7.97	-45.1	-46.4	17.9	0.00e+00	0	35	0	1830813696	61	4265
2026-01-17 11:55:02.22	333.40	7.91	-45.2	-46.5	17.8	0.00e+00	0	34	0	1833959424	61	4295
2026-01-17 11:55:03.23	333.49	7.84	-45.1	-46.4	17.9	0.00e+00	0	35	0	1837105152	61	4272
2026-01-17 11:55:04.24	333.59	7.78	-45.3	-46.6	17.7	0.00e+00	0	34	0	1840250880	61	4349
2026-01-17 11:55:05.25	333.68	7.71	-45.2	-46.5	17.8	0.00e+00	0	35	0	1843396608	61	4314
2026-01-17 11:55:06.26	333.78	7.64	-45.1	-46.4	17.8	0.00e+00	0	35	0	1846542336	61	4278
2026-01-17 11:55:07.27	333.87	7.58	-45.2	-46.4	17.8	0.00e+00	0	35	0	1849688064	61	4289
2026-01-17 11:55:08.28	333.96	7.51	-45.2	-46.5	17.8	0.00e+00	0	35	0	1852833792	61	4296
2026-01-17 11:55:09.28	334.06	7.45	-45.4	-46.7	17.6	0.00e+00	0	35	0	1855979520	61	4411
2026-01-17 11:55:10.29	334.15	7.38	-45.4	-46.7	17.5	0.00e+00	0	35	0	1859125248	61	4414
2026-01-17 11:55:11.30	334.24	7.32	-45.4	-46.7	17.5	0.00e+00	0	35	0	1862270976	61	4441
2026-01-17 11:55:12.31	334.33	7.25	-45.6	-47.0	17.3	0.00e+00	0	35	0	1865416704	61	4551
2026-01-17 11:55:13.32	334.42	7.19	-45.7	-47.1	17.2	0.00e+00	0	34	0	1868562432	61	4615
2026-01-17 11:55:14.33	334.51	7.12	-45.8	-47.2	17.0	0.00e+00	0	35	0	1871708160	62	4418
2026-01-17 11:55:15.34	334.61	7.06	-45.9	-47.4	16.8	0.00e+00	0	35	0	1874853888	62	4521
2026-01-17 11:55:16.34	334.69	7.00	-45.7	-47.2	17.0	0.00e+00	0	35	0	1877999616	62	4401
2026-01-17 11:55:17.35	334.78	6.93	-45.8	-47.3	16.9	0.00e+00	0	35	0	1881145344	62	4460
2026-01-17 11:55:18.36	334.87	6.87	-45.5	-46.9	17.3	0.00e+00	0	35	0	1884291072	62	4277
2026-01-17 11:55:19.37	334.96	6.80	-45.9	-47.3	16.9	0.00e+00	0	35	0	1887436800	62	4493
2026-01-17 11:55:20.38	335.05	6.74	-45.8	-47.3	16.9	0.00e+00	0	35	0	1890582528	62	4463
2026-01-17 11:55:21.38	335.14	6.68	-46.0	-47.5	16.7	0.00e+00	0	35	0	1893728256	62	4575
2026-01-17 11:55:22.39	335.23	6.61	-46.0	-47.6	16.6	0.00e+00	0	35	0	1896873984	62	4605
2026-01-17 11:55:23.40	335.32	6.55	-46.0	-47.5	16.6	0.00e+00	0	35	0	1900019712	62	4572
2026-01-17 11:55:24.41	335.40	6.48	-46.1	-47.6	16.5	0.00e+00	0	35	0	1903165440	62	4627
2026-01-17 11:55:25.42	335.49	6.42	-46.0	-47.5	16.6	0.00e+00	0	35	0	1906311168	63	4318
2026-01-17 11:55:26.43	335.58	6.36	-45.8	-47.2	16.9	0.00e+00	0	35	0	1909456896	63	4174
2026-01-17 11:55:27.44	335.66	6.29	-45.7	-47.2	16.9	0.00e+00	0	35	0	1912602624	63	4168
2026-01-17 11:55:28.45	335.75	6.23	-46.2	-47.8	16.3	0.00e+00	0	35	0	1915748352	63	4442
2026-01-17 11:55:29.46	335.83	6.17	-45.8	-47.3	16.8	0.00e+00	0	35	0	1918894080	63	4194
2026-01-17 11:55:30.47	335.92	6.10	-45.8	-47.3	16.7	0.00e+00	0	35	0	1922039808	63	4219
2026-01-17 11:55:31.48	336.00	6.04	-45.8	-47.3	16.8	0.00e+00	0	35	0	1925185536	63	4195
2026-01-17 11:55:32.48	336.09	5.98	-45.9	-47.4	16.6	0.00e+00	0	35	0	1928331264	63	4272
2026-01-17 11:55:33.49	336.17	5.92	-45.9	-47.4	16.6	0.00e+00	0	35	0	1931476992	63	4285
2026-01-17 11:55:34.50	336.26	5.85	-45.9	-47.4	16.6	0.00e+00	0	35	0	1934622720	63	4274
2026-01-17 11:55:35.51	336.34	5.79	-45.8	-47.3	16.7	0.00e+00	0	35	0	1937768448	63	4206
2026-01-17 11:55:36.52	336.42	5.73	-45.8	-47.3	16.7	0.00e+00	0	35	0	1940914176	63	4238
2026-01-17 11:55:37.53	336.51	5.67	-45.9	-47.4	16.6	0.00e+00	0	35	0	1944059904	63	4274
2026-01-17 11:55:38.54	336.59	5.60	-46.0	-47.5	16.5	0.00e+00	0	35	0	1947205632	63	4328
2026-01-17 11:55:39.55	336.67	5.54	-46.1	-47.6	16.4	0.00e+00	0	35	0	1950351360	63	4383
2026-01-17 11:55:40.56	336.75	5.48	-46.2	-47.8	16.2	0.00e+00	0	35	0	1953497088	63	4447
2026-01-17 11:55:41.57	336.83	5.42	-46.3	-48.0	16.1	0.00e+00	0	35	0	1956642816	63	4548
2026-01-17 11:55:42.58	336.91	5.36	-46.3	-47.9	16.1	0.00e+00	0	35	0	1959788544	63	4522
2026-01-17 11:55:43.59	337.00	5.29	-45.7	-47.2	16.8	0.00e+00	0	35	0	1962934272	63	4150
2026-01-17 11:55:44.60	337.08	5.23	-46.1	-47.7	16.3	0.00e+00	0	35	0	1966080000	63	4401
2026-01-17 11:55:45.60	337.16	5.17	-46.0	-47.6	16.4	0.00e+00	0	35	0	1969225728	63	4359
2026-01-17 11:55:46.61	337.24	5.11	-45.8	-47.3	16.7	0.00e+00	0	35	0	1972371456	63	4220
2026-01-17 11:55:47.62	337.32	5.05	-46.0	-47.5	16.4	0.00e+00	0	35	0	1975517184	63	4340
2026-01-17 11:55:48.63	337.39	4.99	-49.2	-52.3	12.1	0.00e+00	0	35	0	1978662912	68	5615
2026-01-17 11:55:49.64	337.47	4.93	-52.7	-65.5	3.8	1.49e+00	0	35	104	1979711488	75	17139
2026-01-17 11:55:50.65	337.55	4.86	-53.0	-65.8	3.8	1.49e+00	0	35	104	1979711488	76	16768
2026-01-17 11:55:51.66	337.63	4.80	-53.2	-66.0	3.8	1.49e+00	0	35	104	1979711488	76	17103
2026-01-17 11:55:52.67	337.71	4.74	-53.3	-66.1	3.8	1.49e+00	0	35	104	1979711488	77	16456
2026-01-17 11:55:53.68	337.79	4.68	-53.4	-66.2	3.8	1.49e+00	0	35	104	1979711488	77	16645
2026-01-17 11:55:54.69	337.86	4.62	-53.5	-66.3	3.8	1.49e+00	0	35	104	1979711488	77	16816
2026-01-17 11:55:55.70	337.94	4.56	-53.6	-66.4	3.8	1.49e+00	0	35	104	1979711488	77	16987
2026-01-17 11:55:56.70	338.02	4.50	-53.7	-66.5	3.8	1.49e+00	0	35	104	1979711488	77	17202
2026-01-17 11:55:57.71	338.09	4.44	-53.8	-66.6	3.8	1.49e+00	0	35	104	1979711488	78	16424
2026-01-17 11:55:58.72	338.17	4.38	-53.8	-66.6	3.8	1.49e+00	0	35	104	1979711488	78	16469
2026-01-17 11:55:59.73	338.25	4.32	-53.8	-66.6	3.8	1.49e+00	0	35	104	1979711488	78	16477
2026-01-17 11:56:00.74	338.32	4.26	-53.9	-66.7	3.8	1.49e+00	0	35	104	1979711488	78	16538
2026-01-17 11:56:01.75	338.40	4.20	-53.9	-66.7	3.8	1.49e+00	0	35	104	1979711488	78	16561
