passes_logs/2026/01/17/R3.2S_Murmansk/R3.2S_Murmansk__20260117_035401_SUOMI_NPP_rec.log

#Pass ID: 20260117_035401_SUOMI NPP
#Satellite: SUOMI NPP
#Configuration: NPP
#almurnet v.1.7.20251203
#Start time: 2026-01-17 03:54:03

#Version: 2.2.20231116
#Station: R3.2S_Murmansk
#Location: 33.079688 lon 68.888172 lat
#TLE: 1 37849U 11061A   26015.94982489  .00000054  00000+0  46705-4 0  9991
#TLE: 2 37849  98.7812 317.9902 0002438  62.0366 298.1057 14.19525452736847

#Time	Az	El	Level	Level2	SNR	BER	BlckErr	Temp	State	Recorded	gain1	gain2
2026-01-17 03:54:03.25	45.18	2.09	-51.5	-66.4	3.8	1.49e+00	0	32	0	0	74	20280
2026-01-17 03:54:04.25	45.13	2.15	-51.4	-66.4	3.8	1.49e+00	0	32	104	0	73	21450
2026-01-17 03:54:05.26	45.07	2.21	-51.4	-66.4	3.8	1.49e+00	0	32	104	0	73	21400
2026-01-17 03:54:06.27	45.01	2.27	-51.4	-66.4	3.8	1.49e+00	0	32	104	0	73	21402
2026-01-17 03:54:07.28	44.95	2.32	-51.4	-66.4	3.8	1.49e+00	0	32	104	0	73	21324
2026-01-17 03:54:08.29	44.89	2.38	-51.4	-66.4	3.8	1.49e+00	0	32	104	0	73	21332
2026-01-17 03:54:09.30	44.83	2.44	-51.4	-66.4	3.8	1.49e+00	0	32	104	0	73	21351
2026-01-17 03:54:10.30	44.77	2.50	-51.4	-66.4	3.8	1.49e+00	0	32	104	0	73	21357
2026-01-17 03:54:11.31	44.71	2.56	-51.4	-66.4	3.8	1.49e+00	0	32	104	0	73	21406
2026-01-17 03:54:12.32	44.65	2.62	-51.4	-66.4	3.8	1.49e+00	0	32	104	0	73	21378
2026-01-17 03:54:13.33	44.59	2.68	-51.4	-66.4	3.8	1.49e+00	0	32	104	0	73	21424
2026-01-17 03:54:14.34	44.53	2.74	-51.4	-66.4	3.8	1.49e+00	0	32	104	0	73	21372
2026-01-17 03:54:15.35	44.47	2.80	-51.4	-66.4	3.8	1.49e+00	0	32	104	0	73	21387
2026-01-17 03:54:16.36	44.41	2.86	-51.4	-66.4	3.8	1.49e+00	0	32	104	0	73	21283
2026-01-17 03:54:17.37	44.35	2.92	-51.4	-66.3	3.8	1.49e+00	0	32	104	0	73	21180
2026-01-17 03:54:18.38	44.29	2.98	-51.4	-66.4	3.8	1.49e+00	0	33	104	0	73	21262
2026-01-17 03:54:19.39	44.22	3.04	-51.4	-66.4	3.8	1.49e+00	0	32	104	0	73	21264
2026-01-17 03:54:20.40	44.16	3.10	-51.4	-66.4	3.8	1.49e+00	0	32	104	0	73	21387
2026-01-17 03:54:21.40	44.10	3.16	-51.4	-66.4	3.8	1.49e+00	0	33	104	0	73	21376
2026-01-17 03:54:22.41	44.04	3.22	-51.4	-66.4	3.8	1.49e+00	0	33	104	0	73	21392
2026-01-17 03:54:23.42	43.97	3.28	-51.4	-66.4	3.8	1.49e+00	0	32	104	0	73	21376
2026-01-17 03:54:24.43	43.91	3.34	-51.4	-66.4	3.8	1.49e+00	0	33	104	0	73	21356
2026-01-17 03:54:25.44	43.85	3.40	-51.4	-66.4	3.8	1.49e+00	0	33	104	0	73	21285
2026-01-17 03:54:26.45	43.78	3.46	-51.4	-66.4	3.8	1.49e+00	0	33	104	0	73	21262
2026-01-17 03:54:27.46	43.72	3.53	-51.4	-66.4	3.8	1.49e+00	0	33	104	0	73	21303
2026-01-17 03:54:28.47	43.65	3.59	-51.4	-66.4	3.8	1.49e+00	0	33	104	0	73	21327
2026-01-17 03:54:29.48	43.59	3.65	-51.4	-66.4	3.8	1.49e+00	0	33	104	0	73	21322
2026-01-17 03:54:30.48	43.52	3.71	-51.4	-66.3	3.8	1.49e+00	0	33	104	0	73	21209
2026-01-17 03:54:31.49	43.46	3.77	-51.4	-66.2	3.8	1.49e+00	0	33	104	0	73	21003
2026-01-17 03:54:32.50	43.39	3.83	-51.4	-66.1	3.8	1.49e+00	0	33	104	0	73	20560
2026-01-17 03:54:33.51	43.33	3.89	-51.4	-65.7	3.8	1.49e+00	0	33	104	0	73	19679
2026-01-17 03:54:34.52	43.26	3.95	-51.4	-65.4	3.8	1.49e+00	0	33	104	0	73	18978
2026-01-17 03:54:35.53	43.19	4.02	-51.4	-65.4	3.8	1.49e+00	0	33	104	0	73	18957
2026-01-17 03:54:36.54	43.13	4.08	-51.4	-65.0	3.8	1.49e+00	0	33	104	0	73	18291
2026-01-17 03:54:37.55	43.06	4.14	-51.3	-64.8	3.8	1.49e+00	0	33	104	0	73	17864
2026-01-17 03:54:38.56	42.99	4.20	-51.3	-64.2	3.8	1.49e+00	0	33	104	0	73	16667
2026-01-17 03:54:39.56	42.93	4.26	-51.2	-63.3	4.1	1.48e+00	0	33	104	0	73	14937
2026-01-17 03:54:40.57	42.86	4.33	-51.2	-62.3	4.3	1.38e+00	14	33	0	0	73	13276
2026-01-17 03:54:41.58	42.79	4.39	-51.1	-61.3	4.7	9.28e-01	0	33	0	1048576	73	11857
2026-01-17 03:54:42.59	42.72	4.45	-51.0	-60.6	5.1	6.70e-01	0	33	0	3145728	73	10960
2026-01-17 03:54:43.61	42.65	4.52	-50.7	-58.6	6.6	5.22e-01	0	33	0	5242880	73	8724
2026-01-17 03:54:44.61	42.58	4.58	-50.6	-58.0	7.0	2.19e-01	0	33	0	7340032	73	8142
2026-01-17 03:54:45.62	42.51	4.64	-50.5	-57.4	7.6	1.60e-01	0	33	0	8388608	72	8064
2026-01-17 03:54:46.63	42.44	4.70	-50.5	-57.7	7.4	1.44e-01	0	33	0	10485760	72	8291
2026-01-17 03:54:47.64	42.37	4.77	-50.5	-57.7	7.5	7.46e-02	0	33	0	12582912	72	8298
2026-01-17 03:54:48.64	42.30	4.83	-50.4	-57.3	7.8	7.73e-02	0	33	0	14680064	72	7911
2026-01-17 03:54:49.65	42.23	4.89	-50.5	-57.8	7.3	9.55e-02	0	33	0	16777216	72	8386
2026-01-17 03:54:50.66	42.16	4.96	-50.7	-58.8	6.3	2.38e-01	0	33	0	18874368	72	9476
2026-01-17 03:54:51.67	42.09	5.02	-50.7	-58.9	6.4	1.86e-01	0	33	0	19922944	72	9508
2026-01-17 03:54:52.68	42.02	5.08	-49.7	-54.5	10.9	3.55e-01	0	33	0	22020096	71	6096
2026-01-17 03:54:53.69	41.95	5.15	-49.3	-53.4	12.1	4.00e-04	0	33	0	24117248	70	5691
2026-01-17 03:54:54.70	41.87	5.21	-51.1	-61.5	4.8	8.13e-02	0	33	0	26214400	72	12831
2026-01-17 03:54:55.70	41.80	5.27	-50.0	-55.4	9.7	1.33e+00	0	33	0	26214400	72	6375
2026-01-17 03:54:56.71	41.73	5.34	-50.5	-56.9	8.8	1.65e-04	0	33	0	28311552	71	8083
2026-01-17 03:54:57.72	41.65	5.40	-49.4	-53.6	11.8	2.46e-01	0	33	0	29360128	70	5808
2026-01-17 03:54:58.73	41.58	5.47	-49.0	-52.8	12.9	5.79e-05	0	33	0	31457280	69	5599
2026-01-17 03:54:59.74	41.51	5.53	-48.6	-51.9	13.7	4.65e-05	0	33	0	33554432	68	5401
2026-01-17 03:55:00.75	41.43	5.60	-48.7	-52.2	13.4	1.83e-05	0	33	0	35651584	68	5547
2026-01-17 03:55:01.76	41.36	5.66	-48.8	-52.4	13.3	9.10e-06	0	33	0	37748736	68	5660
2026-01-17 03:55:02.77	41.28	5.72	-48.4	-51.5	14.3	1.29e-05	0	33	0	38797312	68	5109
2026-01-17 03:55:03.77	41.21	5.79	-48.9	-52.4	13.3	9.10e-06	0	33	0	40894464	68	5703
2026-01-17 03:55:04.78	41.13	5.85	-48.8	-52.2	13.6	1.22e-05	0	33	0	42991616	68	5536
2026-01-17 03:55:05.79	41.05	5.92	-48.8	-52.3	13.4	7.00e-07	0	33	0	45088768	68	5636
2026-01-17 03:55:06.80	40.98	5.98	-48.8	-52.1	13.6	6.10e-06	0	33	0	47185920	68	5515
2026-01-17 03:55:07.80	40.90	6.05	-48.7	-52.0	13.8	0.00e+00	0	33	0	48234496	68	5405
2026-01-17 03:55:08.81	40.82	6.11	-48.4	-51.6	14.3	1.50e-06	0	33	0	50331648	68	5164
2026-01-17 03:55:09.82	40.75	6.18	-48.4	-51.5	14.3	3.00e-06	0	33	0	52428800	68	5140
2026-01-17 03:55:10.83	40.67	6.25	-48.4	-51.4	14.4	7.00e-07	0	33	0	54525952	68	5096
2026-01-17 03:55:11.84	40.59	6.31	-48.3	-51.3	14.6	1.50e-06	0	34	0	56623104	68	5004
2026-01-17 03:55:12.85	40.51	6.38	-48.1	-50.9	15.0	0.00e+00	0	33	0	57671680	68	4796
2026-01-17 03:55:13.86	40.43	6.44	-47.8	-50.5	15.4	0.00e+00	0	33	0	59768832	67	4825
2026-01-17 03:55:14.86	40.35	6.51	-47.7	-50.3	15.5	0.00e+00	0	33	0	61865984	67	4738
2026-01-17 03:55:15.87	40.27	6.57	-48.0	-50.8	15.1	0.00e+00	0	33	0	63963136	67	4997
2026-01-17 03:55:16.88	40.19	6.64	-48.0	-50.7	15.2	0.00e+00	0	33	0	66060288	67	4937
2026-01-17 03:55:17.89	40.11	6.71	-47.5	-49.9	16.0	0.00e+00	0	34	0	67108864	66	4785
2026-01-17 03:55:18.90	40.03	6.77	-47.9	-50.5	15.4	0.00e+00	0	34	0	69206016	66	5115
2026-01-17 03:55:19.91	39.95	6.84	-47.6	-50.0	15.9	0.00e+00	0	33	0	71303168	66	4841
2026-01-17 03:55:20.92	39.87	6.91	-47.7	-50.2	15.7	0.00e+00	0	34	0	73400320	66	4933
2026-01-17 03:55:21.93	39.78	6.97	-47.7	-50.2	15.7	0.00e+00	0	33	0	75497472	66	4957
2026-01-17 03:55:22.93	39.70	7.04	-48.0	-50.7	15.2	0.00e+00	0	33	0	76546048	66	5271
2026-01-17 03:55:23.94	39.62	7.11	-47.6	-50.1	15.8	0.00e+00	0	33	0	78643200	66	4887
2026-01-17 03:55:24.95	39.54	7.18	-47.8	-50.4	15.6	0.00e+00	0	33	0	80740352	66	5061
2026-01-17 03:55:25.96	39.45	7.24	-47.8	-50.4	15.5	0.00e+00	0	34	0	82837504	66	5092
2026-01-17 03:55:26.96	39.37	7.31	-47.3	-49.6	16.4	0.00e+00	0	33	0	84934656	66	4610
2026-01-17 03:55:27.97	39.28	7.38	-47.7	-50.2	15.7	0.00e+00	0	34	0	87031808	66	4983
2026-01-17 03:55:28.98	39.20	7.44	-47.6	-50.0	16.0	0.00e+00	0	34	0	88080384	66	4844
2026-01-17 03:55:29.99	39.11	7.51	-47.6	-50.0	15.9	0.00e+00	0	33	0	90177536	66	4852
2026-01-17 03:55:31.00	39.03	7.58	-47.6	-50.1	16.0	0.00e+00	0	34	0	92274688	66	4889
2026-01-17 03:55:32.01	38.94	7.65	-47.7	-50.3	15.7	0.00e+00	0	33	0	94371840	66	4987
2026-01-17 03:55:33.02	38.85	7.72	-48.0	-50.6	15.4	0.00e+00	0	34	0	95420416	66	5209
2026-01-17 03:55:34.03	38.77	7.79	-47.7	-50.2	15.8	0.00e+00	0	34	0	97517568	66	4968
2026-01-17 03:55:35.03	38.68	7.85	-47.8	-50.4	15.7	0.00e+00	0	34	0	99614720	66	5060
2026-01-17 03:55:36.04	38.59	7.92	-48.1	-50.8	15.3	0.00e+00	0	34	0	101711872	66	5280
2026-01-17 03:55:37.05	38.50	7.99	-47.9	-50.4	15.6	0.00e+00	0	34	0	103809024	66	5082
2026-01-17 03:55:38.06	38.41	8.06	-47.9	-50.4	15.7	0.00e+00	0	34	0	105906176	66	5073
2026-01-17 03:55:39.07	38.32	8.13	-47.6	-50.0	16.1	0.00e+00	0	34	0	106954752	66	4830
2026-01-17 03:55:40.08	38.24	8.20	-47.7	-50.2	15.9	0.00e+00	0	34	0	109051904	66	4963
2026-01-17 03:55:41.08	38.15	8.27	-47.7	-50.1	16.0	0.00e+00	0	34	0	111149056	66	4904
2026-01-17 03:55:42.09	38.05	8.33	-47.6	-49.9	16.2	0.00e+00	0	34	0	113246208	66	4791
2026-01-17 03:55:43.10	37.96	8.40	-47.8	-50.2	16.0	0.00e+00	0	34	0	115343360	66	4970
2026-01-17 03:55:44.11	37.87	8.47	-47.8	-50.3	15.9	7.00e-07	0	34	0	116391936	66	4996
2026-01-17 03:55:45.11	37.78	8.54	-47.5	-49.9	16.3	0.00e+00	0	34	0	118489088	66	4778
2026-01-17 03:55:46.12	37.69	8.61	-47.8	-50.3	15.9	0.00e+00	0	34	0	120586240	66	5009
2026-01-17 03:55:47.13	37.60	8.68	-47.7	-50.1	16.1	0.00e+00	0	34	0	122683392	66	4877
2026-01-17 03:55:48.14	37.50	8.75	-47.8	-50.2	16.0	0.00e+00	0	34	0	123731968	66	4981
2026-01-17 03:55:49.15	37.41	8.82	-47.4	-49.6	16.6	0.00e+00	0	34	0	125829120	66	4618
2026-01-17 03:55:50.16	37.31	8.89	-47.5	-49.8	16.4	0.00e+00	0	34	0	127926272	66	4729
2026-01-17 03:55:51.17	37.22	8.96	-47.6	-49.9	16.3	0.00e+00	0	34	0	130023424	66	4801
2026-01-17 03:55:52.18	37.12	9.03	-47.7	-50.1	16.1	0.00e+00	0	34	0	132120576	66	4873
2026-01-17 03:55:53.19	37.03	9.10	-47.7	-50.1	16.1	0.00e+00	0	34	0	134217728	66	4892
2026-01-17 03:55:54.20	36.93	9.17	-47.7	-50.2	16.1	0.00e+00	0	34	0	135266304	66	4932
2026-01-17 03:55:55.20	36.84	9.24	-47.7	-50.0	16.2	0.00e+00	0	34	0	137363456	66	4854
2026-01-17 03:55:56.21	36.74	9.32	-47.6	-49.9	16.4	0.00e+00	0	34	0	139460608	66	4771
2026-01-17 03:55:57.22	36.64	9.39	-47.6	-50.0	16.2	0.00e+00	0	34	0	141557760	66	4845
2026-01-17 03:55:58.23	36.54	9.46	-47.6	-49.9	16.3	0.00e+00	0	34	0	143654912	66	4811
2026-01-17 03:55:59.24	36.44	9.53	-47.8	-50.2	16.0	0.00e+00	0	34	0	144703488	66	4950
2026-01-17 03:56:00.25	36.34	9.60	-47.7	-50.1	16.1	0.00e+00	0	34	0	146800640	66	4904
2026-01-17 03:56:01.26	36.24	9.67	-47.8	-50.2	16.1	0.00e+00	0	34	0	148897792	66	4940
2026-01-17 03:56:02.27	36.14	9.74	-47.6	-49.9	16.3	0.00e+00	0	34	0	150994944	66	4805
2026-01-17 03:56:03.27	36.04	9.81	-47.8	-50.3	16.0	0.00e+00	0	34	0	153092096	66	5003
2026-01-17 03:56:04.28	35.94	9.89	-47.9	-50.4	15.9	0.00e+00	0	34	0	154140672	66	5061
2026-01-17 03:56:05.29	35.84	9.96	-47.9	-50.4	15.9	0.00e+00	0	34	0	156237824	66	5064
2026-01-17 03:56:06.30	35.74	10.03	-47.7	-50.1	16.2	0.00e+00	0	34	0	158334976	66	4924
2026-01-17 03:56:07.31	35.64	10.10	-47.7	-50.2	16.1	0.00e+00	0	34	0	160432128	66	4929
2026-01-17 03:56:08.31	35.53	10.17	-47.8	-50.3	16.0	0.00e+00	0	34	0	162529280	66	5005
2026-01-17 03:56:09.32	35.43	10.25	-47.7	-50.2	16.1	0.00e+00	0	34	0	163577856	66	4943
2026-01-17 03:56:10.33	35.33	10.32	-47.8	-50.3	16.1	0.00e+00	0	34	0	165675008	66	4986
2026-01-17 03:56:11.34	35.22	10.39	-47.8	-50.2	16.1	0.00e+00	0	34	0	167772160	66	4943
2026-01-17 03:56:12.34	35.12	10.46	-47.5	-49.8	16.5	0.00e+00	0	34	0	169869312	66	4730
2026-01-17 03:56:13.35	35.01	10.54	-47.6	-50.0	16.3	0.00e+00	0	34	0	171966464	66	4841
2026-01-17 03:56:14.36	34.90	10.61	-47.6	-49.9	16.4	0.00e+00	0	34	0	173015040	66	4799
2026-01-17 03:56:15.37	34.80	10.68	-47.6	-50.0	16.3	0.00e+00	0	34	0	175112192	66	4838
2026-01-17 03:56:16.38	34.69	10.76	-47.4	-49.6	16.6	0.00e+00	0	34	0	177209344	66	4646
2026-01-17 03:56:17.39	34.58	10.83	-47.5	-49.8	16.5	0.00e+00	0	34	0	179306496	66	4746
2026-01-17 03:56:18.40	34.47	10.90	-47.4	-49.6	16.7	0.00e+00	0	34	0	181403648	66	4641
2026-01-17 03:56:19.41	34.36	10.98	-47.4	-49.7	16.6	0.00e+00	0	34	0	182452224	66	4676
2026-01-17 03:56:20.42	34.25	11.05	-47.4	-49.7	16.7	0.00e+00	0	34	0	184549376	66	4679
2026-01-17 03:56:21.42	34.14	11.13	-47.7	-50.1	16.3	0.00e+00	0	34	0	186646528	66	4891
2026-01-17 03:56:22.43	34.03	11.20	-47.6	-50.0	16.4	0.00e+00	0	34	0	188743680	66	4829
2026-01-17 03:56:23.44	33.92	11.27	-47.7	-50.0	16.3	0.00e+00	0	34	0	190840832	66	4865
2026-01-17 03:56:24.45	33.81	11.35	-47.7	-50.0	16.3	0.00e+00	0	34	0	191889408	66	4846
2026-01-17 03:56:25.46	33.70	11.42	-47.5	-49.7	16.6	0.00e+00	0	34	0	193986560	66	4693
2026-01-17 03:56:26.47	33.58	11.50	-47.3	-49.4	16.9	0.00e+00	0	34	0	196083712	66	4537
2026-01-17 03:56:27.48	33.47	11.57	-47.4	-49.5	16.8	0.00e+00	0	34	0	198180864	66	4591
2026-01-17 03:56:28.48	33.35	11.64	-47.5	-49.7	16.6	0.00e+00	0	34	0	200278016	66	4699
2026-01-17 03:56:29.49	33.24	11.72	-47.6	-49.9	16.5	0.00e+00	0	34	0	201326592	66	4768
2026-01-17 03:56:30.50	33.12	11.79	-47.7	-49.9	16.4	0.00e+00	0	34	0	203423744	66	4804
2026-01-17 03:56:31.51	33.01	11.87	-47.3	-49.3	17.0	0.00e+00	0	34	0	205520896	66	4493
2026-01-17 03:56:32.52	32.89	11.94	-47.4	-49.5	16.9	0.00e+00	0	34	0	207618048	66	4565
2026-01-17 03:56:33.53	32.77	12.02	-47.3	-49.3	17.0	0.00e+00	0	34	0	209715200	66	4484
2026-01-17 03:56:34.54	32.65	12.10	-47.0	-49.0	17.4	0.00e+00	0	34	0	210763776	66	4321
2026-01-17 03:56:35.54	32.54	12.17	-47.1	-49.1	17.3	0.00e+00	0	34	0	212860928	66	4352
2026-01-17 03:56:36.55	32.42	12.25	-47.1	-49.1	17.2	0.00e+00	0	34	0	214958080	66	4383
2026-01-17 03:56:37.56	32.30	12.32	-47.1	-49.1	17.3	0.00e+00	0	34	0	217055232	66	4364
2026-01-17 03:56:38.57	32.18	12.40	-47.1	-49.0	17.4	0.00e+00	0	34	0	219152384	66	4340
2026-01-17 03:56:39.58	32.05	12.47	-47.3	-49.3	17.1	0.00e+00	0	34	0	221249536	66	4478
2026-01-17 03:56:40.59	31.93	12.55	-47.3	-49.3	17.1	0.00e+00	0	34	0	222298112	66	4480
2026-01-17 03:56:41.60	31.81	12.63	-47.3	-49.4	17.0	0.00e+00	0	34	0	224395264	66	4531
2026-01-17 03:56:42.61	31.69	12.70	-47.3	-49.4	17.1	0.00e+00	0	34	0	226492416	66	4521
2026-01-17 03:56:43.62	31.56	12.78	-47.3	-49.4	17.1	0.00e+00	0	34	0	228589568	66	4513
2026-01-17 03:56:44.62	31.44	12.85	-47.5	-49.7	16.7	0.00e+00	0	34	0	229638144	66	4704
2026-01-17 03:56:45.63	31.31	12.93	-47.5	-49.6	16.8	0.00e+00	0	34	0	231735296	66	4640
2026-01-17 03:56:46.64	31.19	13.01	-47.6	-49.9	16.6	0.00e+00	0	34	0	233832448	66	4781
2026-01-17 03:56:47.65	31.06	13.08	-47.4	-49.6	16.9	0.00e+00	0	34	0	235929600	66	4610
2026-01-17 03:56:48.66	30.93	13.16	-47.4	-49.5	16.9	0.00e+00	0	34	0	238026752	66	4592
2026-01-17 03:56:49.67	30.80	13.24	-47.4	-49.6	16.9	0.00e+00	0	34	0	240123904	66	4607
2026-01-17 03:56:50.68	30.68	13.31	-47.6	-49.8	16.7	0.00e+00	0	34	0	241172480	66	4715
2026-01-17 03:56:51.69	30.55	13.39	-47.4	-49.6	16.8	0.00e+00	0	34	0	243269632	66	4601
2026-01-17 03:56:52.70	30.42	13.47	-47.5	-49.6	16.8	0.00e+00	0	34	0	245366784	66	4646
2026-01-17 03:56:53.70	30.29	13.55	-47.3	-49.4	17.0	0.00e+00	0	34	0	247463936	66	4544
2026-01-17 03:56:54.71	30.16	13.62	-47.2	-49.2	17.2	0.00e+00	0	34	0	249561088	66	4402
2026-01-17 03:56:55.72	30.02	13.70	-47.0	-48.9	17.4	0.00e+00	0	34	0	250609664	66	4278
2026-01-17 03:56:56.73	29.89	13.78	-47.0	-49.0	17.4	0.00e+00	0	34	0	252706816	65	4574
2026-01-17 03:56:57.74	29.76	13.86	-47.0	-48.9	17.5	0.00e+00	0	34	0	254803968	65	4536
2026-01-17 03:56:58.75	29.62	13.93	-46.8	-48.7	17.7	0.00e+00	0	34	0	256901120	65	4421
2026-01-17 03:56:59.76	29.49	14.01	-46.6	-48.4	18.0	0.00e+00	0	34	0	258998272	65	4250
2026-01-17 03:57:00.77	29.35	14.09	-46.6	-48.4	18.0	0.00e+00	0	34	0	260046848	65	4260
2026-01-17 03:57:01.77	29.22	14.17	-46.6	-48.4	18.0	0.00e+00	0	34	0	262144000	65	4261
2026-01-17 03:57:02.78	29.08	14.25	-46.5	-48.3	18.1	0.00e+00	0	34	0	264241152	64	4444
2026-01-17 03:57:03.79	28.94	14.32	-46.4	-48.2	18.2	0.00e+00	0	34	0	266338304	64	4401
2026-01-17 03:57:04.80	28.80	14.40	-46.4	-48.1	18.3	0.00e+00	0	34	0	268435456	64	4391
2026-01-17 03:57:05.81	28.66	14.48	-46.4	-48.2	18.2	0.00e+00	0	34	0	269484032	64	4416
2026-01-17 03:57:06.82	28.52	14.56	-46.4	-48.2	18.2	0.00e+00	0	34	0	271581184	64	4403
2026-01-17 03:57:07.82	28.38	14.64	-46.4	-48.1	18.3	0.00e+00	0	34	0	273678336	64	4367
2026-01-17 03:57:08.83	28.24	14.71	-46.4	-48.1	18.3	0.00e+00	0	34	0	275775488	64	4380
2026-01-17 03:57:09.84	28.10	14.79	-46.3	-48.0	18.4	0.00e+00	0	34	0	277872640	64	4299
2026-01-17 03:57:10.85	27.95	14.87	-46.3	-48.0	18.4	0.00e+00	0	34	0	278921216	64	4303
2026-01-17 03:57:11.86	27.81	14.95	-46.3	-48.0	18.4	0.00e+00	0	34	0	281018368	64	4319
2026-01-17 03:57:12.87	27.66	15.03	-46.4	-48.2	18.2	0.00e+00	0	34	0	283115520	64	4399
2026-01-17 03:57:13.88	27.52	15.11	-46.3	-48.0	18.3	0.00e+00	0	34	0	285212672	64	4336
2026-01-17 03:57:14.89	27.37	15.19	-46.2	-47.9	18.5	0.00e+00	0	34	0	287309824	64	4254
2026-01-17 03:57:15.90	27.23	15.27	-46.3	-48.1	18.3	0.00e+00	0	34	0	288358400	64	4350
2026-01-17 03:57:16.91	27.08	15.35	-46.3	-48.1	18.4	0.00e+00	0	34	0	290455552	64	4347
2026-01-17 03:57:17.91	26.93	15.42	-46.3	-48.1	18.4	0.00e+00	0	34	0	292552704	64	4355
2026-01-17 03:57:18.92	26.78	15.50	-46.5	-48.3	18.1	0.00e+00	0	34	0	294649856	64	4490
2026-01-17 03:57:19.93	26.63	15.58	-46.4	-48.2	18.3	0.00e+00	0	34	0	296747008	64	4401
2026-01-17 03:57:20.94	26.48	15.66	-46.5	-48.2	18.2	0.00e+00	0	34	0	297795584	64	4426
2026-01-17 03:57:21.94	26.33	15.74	-46.4	-48.1	18.3	0.00e+00	0	34	0	299892736	64	4367
2026-01-17 03:57:22.95	26.17	15.82	-46.4	-48.1	18.3	0.00e+00	0	34	0	301989888	64	4385
2026-01-17 03:57:23.96	26.02	15.90	-46.2	-47.9	18.5	0.00e+00	0	34	0	304087040	64	4261
2026-01-17 03:57:24.97	25.87	15.98	-46.3	-48.0	18.4	0.00e+00	0	34	0	306184192	64	4296
2026-01-17 03:57:25.98	25.71	16.06	-46.4	-48.2	18.3	0.00e+00	0	34	0	308281344	64	4393
2026-01-17 03:57:26.99	25.55	16.14	-46.5	-48.4	18.1	0.00e+00	0	34	0	309329920	64	4500
2026-01-17 03:57:28.00	25.40	16.22	-46.6	-48.4	18.1	0.00e+00	0	34	0	311427072	64	4523
2026-01-17 03:57:29.01	25.24	16.30	-46.5	-48.3	18.1	0.00e+00	0	34	0	313524224	64	4491
2026-01-17 03:57:30.01	25.08	16.38	-46.5	-48.3	18.1	0.00e+00	0	34	0	315621376	64	4472
2026-01-17 03:57:31.02	24.92	16.46	-46.4	-48.2	18.2	0.00e+00	0	34	0	316669952	64	4425
2026-01-17 03:57:32.03	24.76	16.54	-46.4	-48.1	18.3	0.00e+00	0	34	0	318767104	64	4388
2026-01-17 03:57:33.04	24.60	16.62	-46.4	-48.1	18.2	0.00e+00	0	34	0	320864256	64	4391
2026-01-17 03:57:34.05	24.44	16.70	-46.8	-48.7	17.8	0.00e+00	0	34	0	322961408	64	4663
2026-01-17 03:57:35.06	24.27	16.78	-47.0	-49.0	17.6	0.00e+00	0	34	0	325058560	64	4832
2026-01-17 03:57:36.07	24.11	16.86	-47.1	-49.1	17.4	0.00e+00	0	34	0	327155712	64	4918
2026-01-17 03:57:37.08	23.95	16.94	-47.2	-49.3	17.2	0.00e+00	0	34	0	328204288	65	4742
2026-01-17 03:57:38.08	23.78	17.02	-47.0	-49.0	17.5	0.00e+00	0	34	0	330301440	65	4581
2026-01-17 03:57:39.09	23.61	17.10	-46.9	-48.9	17.6	0.00e+00	0	34	0	332398592	65	4505
2026-01-17 03:57:40.10	23.45	17.18	-46.9	-48.8	17.7	0.00e+00	0	34	0	334495744	65	4450
2026-01-17 03:57:41.11	23.28	17.26	-46.9	-48.9	17.7	0.00e+00	0	34	0	336592896	65	4496
2026-01-17 03:57:42.12	23.11	17.34	-47.1	-49.2	17.4	0.00e+00	0	34	0	337641472	65	4662
2026-01-17 03:57:43.12	22.94	17.42	-47.2	-49.3	17.3	0.00e+00	0	34	0	339738624	65	4722
2026-01-17 03:57:44.13	22.77	17.50	-47.2	-49.2	17.3	0.00e+00	0	34	0	341835776	65	4693
2026-01-17 03:57:45.14	22.60	17.58	-47.3	-49.3	17.3	0.00e+00	0	34	0	343932928	65	4743
2026-01-17 03:57:46.15	22.42	17.66	-47.3	-49.3	17.3	0.00e+00	0	34	0	344981504	65	4728
2026-01-17 03:57:47.16	22.25	17.74	-47.1	-49.1	17.5	0.00e+00	0	34	0	347078656	65	4603
2026-01-17 03:57:48.17	22.07	17.82	-47.1	-49.0	17.5	0.00e+00	0	34	0	349175808	65	4598
2026-01-17 03:57:49.17	21.90	17.89	-47.0	-48.9	17.7	0.00e+00	0	34	0	351272960	65	4541
2026-01-17 03:57:50.18	21.72	17.97	-47.0	-49.0	17.6	0.00e+00	0	34	0	353370112	65	4546
2026-01-17 03:57:51.19	21.54	18.05	-47.1	-49.1	17.5	0.00e+00	0	34	0	355467264	65	4609
2026-01-17 03:57:52.20	21.37	18.13	-47.2	-49.1	17.5	0.00e+00	0	34	0	356515840	65	4651
2026-01-17 03:57:53.21	21.19	18.21	-47.3	-49.3	17.3	0.00e+00	0	34	0	358612992	65	4738
2026-01-17 03:57:54.22	21.00	18.29	-47.3	-49.4	17.1	0.00e+00	0	34	0	360710144	65	4782
2026-01-17 03:57:55.23	20.82	18.37	-47.3	-49.3	17.3	0.00e+00	0	34	0	362807296	65	4732
2026-01-17 03:57:56.24	20.64	18.45	-47.2	-49.2	17.4	0.00e+00	0	34	0	364904448	65	4656
2026-01-17 03:57:57.24	20.46	18.53	-46.8	-48.7	17.9	0.00e+00	0	34	0	365953024	65	4418
2026-01-17 03:57:58.25	20.27	18.61	-46.6	-48.4	18.1	0.00e+00	0	34	0	368050176	65	4274
2026-01-17 03:57:59.26	20.09	18.69	-46.7	-48.5	18.1	0.00e+00	0	34	0	370147328	65	4305
2026-01-17 03:58:00.27	19.90	18.77	-46.7	-48.6	18.0	0.00e+00	0	34	0	372244480	65	4348
2026-01-17 03:58:01.28	19.71	18.85	-46.9	-48.8	17.8	0.00e+00	0	34	0	374341632	65	4461
2026-01-17 03:58:02.29	19.52	18.93	-46.7	-48.5	17.9	0.00e+00	0	34	0	375390208	65	4323
2026-01-17 03:58:03.29	19.34	19.01	-47.1	-49.0	17.5	0.00e+00	0	34	0	377487360	65	4583
2026-01-17 03:58:04.30	19.15	19.09	-47.0	-49.0	17.6	0.00e+00	0	34	0	379584512	65	4578
2026-01-17 03:58:05.31	18.95	19.17	-46.9	-48.8	17.8	0.00e+00	0	34	0	381681664	65	4458
2026-01-17 03:58:06.32	18.76	19.25	-47.0	-48.9	17.7	0.00e+00	0	34	0	383778816	65	4524
2026-01-17 03:58:07.32	18.57	19.32	-46.8	-48.6	18.0	0.00e+00	0	34	0	384827392	65	4391
2026-01-17 03:58:08.33	18.38	19.40	-46.7	-48.5	18.1	0.00e+00	0	34	0	386924544	65	4330
2026-01-17 03:58:09.34	18.18	19.48	-46.4	-48.2	18.4	0.00e+00	0	34	0	389021696	64	4393
2026-01-17 03:58:10.35	17.98	19.56	-46.1	-47.7	18.8	0.00e+00	0	34	0	391118848	64	4192
2026-01-17 03:58:11.36	17.79	19.64	-46.1	-47.8	18.8	0.00e+00	0	34	0	393216000	64	4203
2026-01-17 03:58:12.37	17.59	19.72	-46.1	-47.7	18.8	0.00e+00	0	34	0	394264576	64	4193
2026-01-17 03:58:13.37	17.39	19.79	-46.2	-47.8	18.8	0.00e+00	0	34	0	396361728	64	4206
2026-01-17 03:58:14.38	17.19	19.87	-46.2	-47.8	18.8	0.00e+00	0	34	0	398458880	64	4232
2026-01-17 03:58:15.39	16.99	19.95	-46.5	-48.2	18.4	0.00e+00	0	34	0	400556032	64	4419
2026-01-17 03:58:16.40	16.78	20.03	-46.7	-48.5	18.2	0.00e+00	0	34	0	402653184	64	4546
2026-01-17 03:58:17.41	16.58	20.11	-46.4	-48.2	18.4	0.00e+00	0	34	0	403701760	64	4397
2026-01-17 03:58:18.41	16.38	20.18	-46.9	-48.8	17.9	0.00e+00	0	34	0	405798912	64	4717
2026-01-17 03:58:19.42	16.17	20.26	-46.8	-48.6	18.0	0.00e+00	0	34	0	407896064	64	4636
2026-01-17 03:58:20.43	15.96	20.34	-46.8	-48.7	18.0	0.00e+00	0	34	0	409993216	64	4682
2026-01-17 03:58:21.44	15.75	20.41	-46.9	-48.9	17.8	0.00e+00	0	34	0	412090368	65	4502
2026-01-17 03:58:22.45	15.55	20.49	-47.1	-49.0	17.7	0.00e+00	0	34	0	413138944	65	4592
2026-01-17 03:58:23.45	15.34	20.57	-46.9	-48.8	17.8	0.00e+00	0	34	0	415236096	65	4467
2026-01-17 03:58:24.46	15.13	20.64	-46.5	-48.2	18.4	0.00e+00	0	34	0	417333248	65	4182
2026-01-17 03:58:25.47	14.91	20.72	-46.2	-47.8	18.7	0.00e+00	0	34	0	419430400	64	4236
2026-01-17 03:58:26.48	14.70	20.80	-46.0	-47.5	19.1	0.00e+00	0	34	0	421527552	63	4340
2026-01-17 03:58:27.48	14.49	20.87	-45.8	-47.3	19.3	0.00e+00	0	34	0	422576128	63	4238
2026-01-17 03:58:28.49	14.27	20.95	-46.0	-47.6	19.1	0.00e+00	0	34	0	424673280	63	4356
2026-01-17 03:58:29.50	14.06	21.02	-45.9	-47.6	19.0	0.00e+00	0	34	0	426770432	63	4349
2026-01-17 03:58:30.51	13.84	21.10	-46.0	-47.6	19.0	0.00e+00	0	34	0	428867584	63	4372
2026-01-17 03:58:31.52	13.62	21.17	-45.8	-47.4	19.2	0.00e+00	0	34	0	430964736	63	4284
2026-01-17 03:58:32.53	13.40	21.25	-45.6	-47.1	19.5	0.00e+00	0	34	0	432013312	63	4127
2026-01-17 03:58:33.54	13.18	21.32	-45.5	-47.0	19.6	0.00e+00	0	34	0	434110464	63	4096
2026-01-17 03:58:34.54	12.96	21.40	-45.5	-47.0	19.6	0.00e+00	0	34	0	436207616	62	4338
2026-01-17 03:58:35.55	12.73	21.47	-45.7	-47.3	19.3	0.00e+00	0	34	0	438304768	62	4469
2026-01-17 03:58:36.56	12.51	21.55	-45.8	-47.4	19.2	0.00e+00	0	34	0	440401920	62	4524
2026-01-17 03:58:37.57	12.29	21.62	-45.7	-47.3	19.3	0.00e+00	0	34	0	442499072	62	4463
2026-01-17 03:58:38.58	12.06	21.69	-45.5	-47.0	19.6	0.00e+00	0	34	0	443547648	62	4328
2026-01-17 03:58:39.59	11.83	21.77	-45.6	-47.1	19.6	0.00e+00	0	34	0	445644800	62	4365
2026-01-17 03:58:40.60	11.60	21.84	-45.1	-46.4	20.1	0.00e+00	0	34	0	447741952	62	4050
2026-01-17 03:58:41.60	11.37	21.91	-44.9	-46.3	20.2	0.00e+00	0	34	0	449839104	61	4215
2026-01-17 03:58:42.61	11.14	21.98	-45.1	-46.5	20.1	0.00e+00	0	34	0	450887680	61	4307
2026-01-17 03:58:43.62	10.91	22.06	-45.1	-46.5	20.0	0.00e+00	0	34	0	452984832	61	4337
2026-01-17 03:58:44.63	10.68	22.13	-45.3	-46.7	19.9	0.00e+00	0	34	0	455081984	61	4404
2026-01-17 03:58:45.64	10.45	22.20	-45.3	-46.7	19.9	0.00e+00	0	34	0	457179136	61	4402
2026-01-17 03:58:46.64	10.21	22.27	-45.3	-46.7	19.9	0.00e+00	0	34	0	459276288	61	4411
2026-01-17 03:58:47.65	9.98	22.34	-45.1	-46.5	20.1	0.00e+00	0	34	0	461373440	61	4303
2026-01-17 03:58:48.66	9.74	22.41	-45.0	-46.4	20.2	0.00e+00	0	34	0	462422016	61	4262
2026-01-17 03:58:49.67	9.50	22.48	-45.0	-46.3	20.3	0.00e+00	0	34	0	464519168	61	4232
2026-01-17 03:58:50.68	9.26	22.55	-45.0	-46.3	20.2	0.00e+00	0	34	0	466616320	61	4229
2026-01-17 03:58:51.69	9.02	22.62	-44.7	-46.0	20.5	0.00e+00	0	34	0	468713472	61	4067
2026-01-17 03:58:52.70	8.78	22.69	-44.6	-45.8	20.7	0.00e+00	0	34	0	470810624	61	3988
2026-01-17 03:58:53.70	8.54	22.76	-44.4	-45.7	20.8	0.00e+00	0	34	0	471859200	60	4156
2026-01-17 03:58:54.71	8.29	22.83	-44.4	-45.7	20.8	0.00e+00	0	34	0	473956352	60	4175
2026-01-17 03:58:55.72	8.05	22.89	-44.6	-45.9	20.6	0.00e+00	0	34	0	476053504	60	4277
2026-01-17 03:58:56.73	7.80	22.96	-45.0	-46.4	20.2	0.00e+00	0	34	0	478150656	60	4528
2026-01-17 03:58:57.74	7.56	23.03	-45.2	-46.6	20.0	0.00e+00	0	34	0	479199232	60	4609
2026-01-17 03:58:58.74	7.31	23.10	-45.1	-46.5	20.1	0.00e+00	0	34	0	481296384	61	4327
2026-01-17 03:58:59.75	7.06	23.16	-44.9	-46.3	20.3	0.00e+00	0	34	0	483393536	61	4214
2026-01-17 03:59:00.76	6.81	23.23	-44.8	-46.1	20.4	0.00e+00	0	34	0	485490688	61	4117
2026-01-17 03:59:01.77	6.56	23.29	-44.6	-45.9	20.6	0.00e+00	0	34	0	487587840	61	4018
2026-01-17 03:59:02.78	6.31	23.36	-44.8	-46.1	20.5	0.00e+00	0	34	0	489684992	61	4119
2026-01-17 03:59:03.79	6.05	23.42	-45.1	-46.5	20.2	0.00e+00	0	34	0	490733568	61	4301
2026-01-17 03:59:04.80	5.80	23.49	-45.1	-46.4	20.2	0.00e+00	0	34	0	492830720	61	4276
2026-01-17 03:59:05.80	5.55	23.55	-45.2	-46.5	20.1	0.00e+00	0	34	0	494927872	61	4329
2026-01-17 03:59:06.81	5.29	23.61	-45.1	-46.5	20.1	0.00e+00	0	34	0	497025024	61	4304
2026-01-17 03:59:07.82	5.03	23.68	-45.1	-46.5	20.3	0.00e+00	0	34	0	499122176	61	4293
2026-01-17 03:59:08.83	4.77	23.74	-45.1	-46.5	20.2	0.00e+00	0	34	0	500170752	61	4292
2026-01-17 03:59:09.84	4.51	23.80	-45.3	-46.8	19.9	0.00e+00	0	34	0	502267904	61	4445
2026-01-17 03:59:10.85	4.25	23.86	-45.2	-46.6	20.1	0.00e+00	0	34	0	504365056	61	4367
2026-01-17 03:59:11.86	3.99	23.92	-45.2	-46.6	20.1	0.00e+00	0	34	0	506462208	61	4341
2026-01-17 03:59:12.87	3.73	23.98	-44.9	-46.2	20.5	0.00e+00	0	34	0	508559360	61	4151
2026-01-17 03:59:13.87	3.47	24.04	-45.0	-46.3	20.3	0.00e+00	0	34	0	509607936	61	4239
2026-01-17 03:59:14.88	3.20	24.10	-45.0	-46.3	20.3	0.00e+00	0	34	0	511705088	61	4240
2026-01-17 03:59:15.89	2.94	24.16	-44.9	-46.3	20.4	0.00e+00	0	34	0	513802240	61	4205
2026-01-17 03:59:16.90	2.67	24.22	-45.0	-46.3	20.3	0.00e+00	0	34	0	515899392	61	4229
2026-01-17 03:59:17.90	2.40	24.28	-45.0	-46.4	20.2	0.00e+00	0	34	0	517996544	61	4268
2026-01-17 03:59:18.91	2.14	24.33	-45.1	-46.4	20.2	0.00e+00	0	34	0	519045120	61	4273
2026-01-17 03:59:19.92	1.87	24.39	-44.9	-46.2	20.5	0.00e+00	0	34	0	521142272	61	4148
2026-01-17 03:59:20.93	1.59	24.45	-44.9	-46.3	20.4	0.00e+00	0	34	0	523239424	61	4208
2026-01-17 03:59:21.94	1.32	24.50	-45.0	-46.4	20.2	0.00e+00	0	34	0	525336576	61	4260
2026-01-17 03:59:22.94	1.05	24.56	-45.3	-46.7	20.1	0.00e+00	0	34	0	527433728	61	4422
2026-01-17 03:59:23.95	0.78	24.61	-45.3	-46.7	20.1	0.00e+00	0	34	0	528482304	61	4413
2026-01-17 03:59:24.96	0.50	24.66	-45.2	-46.6	20.1	0.00e+00	0	34	0	530579456	61	4362
2026-01-17 03:59:25.97	0.23	24.72	-44.8	-46.1	20.5	0.00e+00	0	34	0	532676608	61	4133
2026-01-17 03:59:26.98	359.95	24.77	-44.9	-46.2	20.4	0.00e+00	0	34	0	534773760	61	4186
2026-01-17 03:59:27.98	359.68	24.82	-44.9	-46.2	20.5	0.00e+00	0	34	0	536870912	61	4147
2026-01-17 03:59:28.99	359.40	24.87	-45.0	-46.3	20.4	0.00e+00	0	34	0	537919488	61	4212
2026-01-17 03:59:30.00	359.12	24.92	-44.9	-46.2	20.4	0.00e+00	0	34	0	540016640	61	4166
2026-01-17 03:59:31.01	358.84	24.97	-45.0	-46.4	20.3	0.00e+00	0	34	0	542113792	61	4244
2026-01-17 03:59:32.02	358.56	25.02	-45.0	-46.3	20.4	0.00e+00	0	34	0	544210944	61	4215
2026-01-17 03:59:33.03	358.28	25.07	-44.6	-45.8	20.8	0.00e+00	0	34	0	546308096	61	3983
2026-01-17 03:59:34.04	357.99	25.12	-44.6	-45.8	20.8	0.00e+00	0	34	0	547356672	61	3997
2026-01-17 03:59:35.04	357.71	25.16	-44.5	-45.7	20.9	0.00e+00	0	34	0	549453824	61	3955
2026-01-17 03:59:36.05	357.43	25.21	-44.8	-46.0	20.6	0.00e+00	0	34	0	551550976	61	4097
2026-01-17 03:59:37.06	357.14	25.26	-44.9	-46.2	20.5	0.00e+00	0	34	0	553648128	61	4166
2026-01-17 03:59:38.07	356.86	25.30	-44.9	-46.2	20.5	0.00e+00	0	34	0	555745280	61	4158
2026-01-17 03:59:39.08	356.57	25.35	-44.7	-46.0	20.6	0.00e+00	0	34	0	557842432	61	4071
2026-01-17 03:59:40.09	356.28	25.39	-44.6	-45.8	20.9	0.00e+00	0	34	0	558891008	61	3983
2026-01-17 03:59:41.10	355.99	25.43	-44.8	-46.0	20.6	0.00e+00	0	34	0	560988160	61	4096
2026-01-17 03:59:42.10	355.71	25.47	-44.8	-46.1	20.6	0.00e+00	0	34	0	563085312	61	4127
2026-01-17 03:59:43.11	355.42	25.52	-45.4	-46.8	20.0	0.00e+00	0	34	0	565182464	61	4466
2026-01-17 03:59:44.12	355.13	25.56	-45.9	-47.4	19.4	0.00e+00	0	34	0	566231040	62	4505
2026-01-17 03:59:45.13	354.84	25.60	-46.0	-47.6	19.2	0.00e+00	0	34	0	568328192	62	4635
2026-01-17 03:59:46.14	354.54	25.64	-45.9	-47.4	19.4	0.00e+00	0	34	0	570425344	62	4505
2026-01-17 03:59:47.14	354.25	25.67	-46.1	-47.7	19.2	0.00e+00	0	34	0	572522496	62	4659
2026-01-17 03:59:48.15	353.96	25.71	-46.3	-47.9	18.9	0.00e+00	0	34	0	574619648	63	4516
2026-01-17 03:59:49.16	353.66	25.75	-46.7	-48.4	18.4	0.00e+00	0	34	0	576716800	64	4543
2026-01-17 03:59:50.17	353.37	25.78	-47.2	-49.1	17.7	0.00e+00	0	34	0	577765376	65	4632
2026-01-17 03:59:51.18	353.07	25.82	-47.1	-49.1	17.8	0.00e+00	0	34	0	579862528	65	4609
2026-01-17 03:59:52.18	352.78	25.85	-46.8	-48.6	18.2	0.00e+00	0	34	0	581959680	65	4364
2026-01-17 03:59:53.19	352.48	25.89	-46.0	-47.6	19.0	0.00e+00	0	34	0	584056832	64	4119
2026-01-17 03:59:54.20	352.18	25.92	-46.0	-47.6	19.2	0.00e+00	0	34	0	586153984	63	4358
2026-01-17 03:59:55.21	351.89	25.95	-46.1	-47.7	19.1	0.00e+00	0	34	0	587202560	63	4431
2026-01-17 03:59:56.22	351.59	25.98	-46.5	-48.2	18.7	0.00e+00	0	34	0	589299712	63	4690
2026-01-17 03:59:57.23	351.29	26.01	-46.6	-48.4	18.5	0.00e+00	0	34	0	591396864	63	4792
2026-01-17 03:59:58.24	350.99	26.04	-46.5	-48.3	18.6	0.00e+00	0	34	0	593494016	63	4714
2026-01-17 03:59:59.24	350.69	26.07	-46.5	-48.2	18.6	0.00e+00	0	34	0	594542592	63	4684
2026-01-17 04:00:00.25	350.39	26.10	-46.6	-48.4	18.5	0.00e+00	0	34	0	596639744	63	4792
2026-01-17 04:00:01.26	350.09	26.13	-46.7	-48.4	18.4	0.00e+00	0	34	0	598736896	63	4799
2026-01-17 04:00:02.27	349.78	26.15	-46.6	-48.4	18.4	0.00e+00	0	34	0	600834048	64	4522
2026-01-17 04:00:03.28	349.48	26.18	-47.1	-49.0	17.8	0.00e+00	0	34	0	602931200	64	4836
2026-01-17 04:00:04.29	349.18	26.20	-46.8	-48.6	18.2	0.00e+00	0	34	0	605028352	64	4604
2026-01-17 04:00:05.30	348.87	26.23	-46.6	-48.4	18.4	0.00e+00	0	34	0	606076928	64	4507
2026-01-17 04:00:06.31	348.57	26.25	-46.6	-48.4	18.4	0.00e+00	0	34	0	608174080	64	4505
2026-01-17 04:00:07.31	348.27	26.27	-46.8	-48.6	18.2	0.00e+00	0	34	0	610271232	64	4623
2026-01-17 04:00:08.32	347.96	26.29	-46.8	-48.7	18.1	0.00e+00	0	34	0	612368384	64	4674
2026-01-17 04:00:09.33	347.66	26.31	-47.0	-48.9	17.8	0.00e+00	0	34	0	614465536	64	4814
2026-01-17 04:00:10.34	347.35	26.33	-47.3	-49.3	17.5	0.00e+00	0	34	0	615514112	65	4709
2026-01-17 04:00:11.35	347.05	26.35	-46.9	-48.7	18.0	0.00e+00	0	34	0	617611264	65	4428
2026-01-17 04:00:12.36	346.74	26.37	-46.4	-48.1	18.6	0.00e+00	0	34	0	619708416	64	4384
2026-01-17 04:00:13.36	346.44	26.39	-46.2	-47.9	18.8	0.00e+00	0	34	0	621805568	64	4254
2026-01-17 04:00:14.37	346.13	26.40	-46.1	-47.6	19.1	0.00e+00	0	34	0	623902720	63	4380
2026-01-17 04:00:15.38	345.82	26.42	-46.0	-47.6	19.3	0.00e+00	0	34	0	624951296	63	4346
2026-01-17 04:00:16.39	345.51	26.43	-46.3	-48.0	18.9	0.00e+00	0	34	0	627048448	63	4566
2026-01-17 04:00:17.40	345.20	26.44	-46.4	-48.0	18.8	0.00e+00	0	34	0	629145600	63	4588
2026-01-17 04:00:18.41	344.90	26.46	-46.5	-48.2	18.6	0.00e+00	0	34	0	631242752	63	4670
2026-01-17 04:00:19.42	344.59	26.47	-46.7	-48.5	18.2	0.00e+00	0	34	0	633339904	64	4567
2026-01-17 04:00:20.42	344.28	26.48	-46.9	-48.8	18.0	0.00e+00	0	34	0	634388480	64	4717
2026-01-17 04:00:21.43	343.97	26.49	-47.0	-48.9	17.8	0.00e+00	0	34	0	636485632	64	4813
2026-01-17 04:00:22.44	343.66	26.49	-46.8	-48.6	18.2	0.00e+00	0	34	0	638582784	64	4605
2026-01-17 04:00:23.45	343.35	26.50	-46.9	-48.7	18.1	0.00e+00	0	34	0	640679936	64	4673
2026-01-17 04:00:24.46	343.05	26.51	-46.9	-48.8	18.0	0.00e+00	0	34	0	642777088	64	4707
2026-01-17 04:00:25.47	342.74	26.51	-47.0	-48.9	17.9	0.00e+00	0	34	0	643825664	64	4770
2026-01-17 04:00:26.48	342.43	26.52	-47.1	-48.9	17.9	0.00e+00	0	34	0	645922816	64	4812
2026-01-17 04:00:27.48	342.12	26.52	-46.6	-48.3	18.5	0.00e+00	0	34	0	648019968	64	4466
2026-01-17 04:00:28.49	341.81	26.53	-46.1	-47.6	19.1	0.00e+00	0	34	0	650117120	64	4137
2026-01-17 04:00:29.50	341.50	26.53	-45.8	-47.3	19.5	0.00e+00	0	34	0	652214272	63	4206
2026-01-17 04:00:30.51	341.19	26.53	-46.0	-47.5	19.3	0.00e+00	0	34	0	653262848	63	4330
2026-01-17 04:00:31.52	340.88	26.53	-46.0	-47.6	19.2	0.00e+00	0	34	0	655360000	63	4342
2026-01-17 04:00:32.53	340.57	26.53	-46.6	-48.3	18.6	0.00e+00	0	34	0	657457152	63	4746
2026-01-17 04:00:33.54	340.26	26.53	-46.9	-48.8	18.0	0.00e+00	0	34	0	659554304	64	4713
2026-01-17 04:00:34.54	339.95	26.52	-47.5	-49.5	17.3	0.00e+00	0	34	0	661651456	65	4867
2026-01-17 04:00:35.55	339.64	26.52	-47.4	-49.4	17.5	0.00e+00	0	34	0	663748608	65	4765
2026-01-17 04:00:36.56	339.33	26.52	-47.1	-49.0	17.8	0.00e+00	0	34	0	664797184	65	4584
2026-01-17 04:00:37.57	339.02	26.51	-46.6	-48.3	18.5	0.00e+00	0	34	0	666894336	65	4231
2026-01-17 04:00:38.58	338.71	26.51	-46.4	-48.1	18.7	0.00e+00	0	34	0	668991488	64	4342
2026-01-17 04:00:39.59	338.41	26.50	-46.3	-48.0	18.9	0.00e+00	0	34	0	671088640	64	4308
2026-01-17 04:00:40.60	338.10	26.49	-46.3	-47.9	18.8	0.00e+00	0	34	0	672137216	64	4281
2026-01-17 04:00:41.61	337.79	26.48	-46.2	-47.8	18.9	0.00e+00	0	34	0	674234368	64	4226
2026-01-17 04:00:42.61	337.48	26.47	-46.2	-47.9	19.0	0.00e+00	0	34	0	676331520	63	4506
2026-01-17 04:00:43.62	337.17	26.46	-45.8	-47.3	19.5	0.00e+00	0	34	0	678428672	63	4203
2026-01-17 04:00:44.63	336.86	26.45	-45.6	-47.1	19.7	0.00e+00	0	34	0	680525824	63	4105
2026-01-17 04:00:45.64	336.56	26.44	-45.5	-46.9	19.9	0.00e+00	0	34	0	681574400	63	4029
2026-01-17 04:00:46.65	336.25	26.42	-45.5	-46.9	19.9	0.00e+00	0	34	0	683671552	62	4249
2026-01-17 04:00:47.66	335.94	26.41	-45.7	-47.1	19.7	0.00e+00	0	34	0	685768704	62	4388
2026-01-17 04:00:48.66	335.64	26.39	-45.8	-47.3	19.5	0.00e+00	0	34	0	687865856	62	4489
2026-01-17 04:00:49.67	335.33	26.38	-45.8	-47.3	19.5	0.00e+00	0	34	0	689963008	62	4469
2026-01-17 04:00:50.68	335.02	26.36	-45.8	-47.2	19.6	0.00e+00	0	34	0	692060160	62	4436
2026-01-17 04:00:51.69	334.72	26.34	-45.4	-46.8	20.0	0.00e+00	0	34	0	693108736	62	4216
2026-01-17 04:00:52.70	334.41	26.32	-45.0	-46.3	20.4	0.00e+00	0	34	0	695205888	62	3982
2026-01-17 04:00:53.71	334.10	26.30	-44.7	-45.9	20.8	0.00e+00	0	34	0	697303040	61	4030
2026-01-17 04:00:54.72	333.80	26.28	-44.6	-45.8	20.9	0.00e+00	0	34	0	699400192	61	3993
2026-01-17 04:00:55.73	333.49	26.26	-44.4	-45.6	21.1	0.00e+00	0	34	0	700448768	60	4119
2026-01-17 04:00:56.74	333.19	26.24	-44.4	-45.6	21.1	0.00e+00	0	34	0	702545920	60	4124
2026-01-17 04:00:57.75	332.88	26.21	-44.4	-45.6	21.1	0.00e+00	0	34	0	704643072	60	4108
2026-01-17 04:00:58.76	332.58	26.19	-44.7	-45.9	20.8	0.00e+00	0	34	0	706740224	60	4288
2026-01-17 04:00:59.77	332.28	26.17	-44.5	-45.7	21.0	0.00e+00	0	34	0	708837376	60	4189
2026-01-17 04:01:00.77	331.98	26.14	-44.6	-45.8	20.9	0.00e+00	0	34	0	710934528	60	4220
2026-01-17 04:01:01.78	331.68	26.11	-44.7	-45.9	20.8	0.00e+00	0	34	0	711983104	60	4261
2026-01-17 04:01:02.79	331.37	26.08	-44.9	-46.2	20.5	0.00e+00	0	34	0	714080256	60	4433
2026-01-17 04:01:03.80	331.07	26.06	-45.3	-46.7	20.1	0.00e+00	0	34	0	716177408	61	4421
2026-01-17 04:01:04.80	330.78	26.03	-45.1	-46.4	20.4	0.00e+00	0	34	0	718274560	61	4287
2026-01-17 04:01:05.81	330.48	26.00	-45.0	-46.3	20.5	0.00e+00	0	34	0	720371712	61	4207
2026-01-17 04:01:06.82	330.18	25.97	-44.9	-46.2	20.5	0.00e+00	0	34	0	721420288	61	4184
2026-01-17 04:01:07.83	329.88	25.93	-45.1	-46.4	20.4	0.00e+00	0	34	0	723517440	61	4283
2026-01-17 04:01:08.84	329.58	25.90	-45.0	-46.3	20.4	0.00e+00	0	34	0	725614592	61	4233
2026-01-17 04:01:09.84	329.29	25.87	-44.8	-46.1	20.7	0.00e+00	0	34	0	727711744	61	4119
2026-01-17 04:01:10.85	328.99	25.83	-44.9	-46.1	20.6	0.00e+00	0	34	0	729808896	61	4139
2026-01-17 04:01:11.86	328.69	25.80	-45.0	-46.3	20.5	0.00e+00	0	34	0	730857472	61	4223
2026-01-17 04:01:12.87	328.40	25.76	-45.4	-46.8	20.1	0.00e+00	0	34	0	732954624	61	4442
2026-01-17 04:01:13.88	328.10	25.73	-45.6	-47.0	19.8	0.00e+00	0	34	0	735051776	61	4593
2026-01-17 04:01:14.89	327.81	25.69	-45.9	-47.3	19.5	0.00e+00	0	34	0	737148928	62	4478
2026-01-17 04:01:15.90	327.51	25.65	-45.6	-46.9	19.9	0.00e+00	0	34	0	739246080	62	4271
2026-01-17 04:01:16.91	327.22	25.61	-45.6	-46.9	19.9	0.00e+00	0	34	0	740294656	62	4285
2026-01-17 04:01:17.92	326.93	25.57	-45.8	-47.2	19.6	0.00e+00	0	34	0	742391808	62	4417
2026-01-17 04:01:18.92	326.64	25.53	-45.8	-47.3	19.6	0.00e+00	0	34	0	744488960	62	4446
2026-01-17 04:01:19.93	326.35	25.49	-45.7	-47.2	19.7	0.00e+00	0	34	0	746586112	62	4392
2026-01-17 04:01:20.94	326.06	25.45	-45.5	-46.9	20.0	0.00e+00	0	34	0	748683264	62	4249
2026-01-17 04:01:21.95	325.77	25.41	-45.3	-46.7	20.2	0.00e+00	0	34	0	749731840	62	4155
2026-01-17 04:01:22.96	325.48	25.36	-45.3	-46.6	20.2	0.00e+00	0	34	0	751828992	62	4135
2026-01-17 04:01:23.97	325.20	25.32	-45.5	-46.9	20.0	0.00e+00	0	34	0	753926144	62	4256
2026-01-17 04:01:24.98	324.91	25.28	-45.9	-47.3	19.7	0.00e+00	0	34	0	756023296	62	4476
2026-01-17 04:01:25.99	324.62	25.23	-46.1	-47.6	19.3	0.00e+00	0	34	0	758120448	63	4364
2026-01-17 04:01:27.00	324.34	25.18	-46.3	-47.8	19.1	0.00e+00	0	34	0	759169024	63	4483
2026-01-17 04:01:28.01	324.05	25.14	-46.5	-48.1	18.9	0.00e+00	0	34	0	761266176	63	4620
2026-01-17 04:01:29.01	323.77	25.09	-46.5	-48.1	18.9	0.00e+00	0	34	0	763363328	63	4608
2026-01-17 04:01:30.02	323.49	25.04	-46.5	-48.1	18.8	0.00e+00	0	34	0	765460480	63	4634
2026-01-17 04:01:31.03	323.21	24.99	-46.4	-48.0	19.0	0.00e+00	0	34	0	767557632	63	4557
2026-01-17 04:01:32.04	322.93	24.94	-46.3	-47.9	19.0	0.00e+00	0	34	0	768606208	63	4503
2026-01-17 04:01:33.05	322.65	24.89	-46.4	-48.0	18.9	0.00e+00	0	34	0	770703360	63	4570
2026-01-17 04:01:34.05	322.37	24.84	-46.6	-48.4	18.5	0.00e+00	0	34	0	772800512	64	4503
2026-01-17 04:01:35.06	322.09	24.79	-46.9	-48.8	18.1	0.00e+00	0	34	0	774897664	64	4731
2026-01-17 04:01:36.07	321.82	24.74	-47.1	-49.0	18.0	0.00e+00	0	34	0	776994816	65	4568
2026-01-17 04:01:37.08	321.54	24.69	-47.0	-48.9	18.0	0.00e+00	0	34	0	779091968	65	4523
2026-01-17 04:01:38.08	321.27	24.63	-46.9	-48.8	18.1	0.00e+00	0	34	0	780140544	65	4448
2026-01-17 04:01:39.09	320.99	24.58	-47.0	-48.9	18.0	0.00e+00	0	34	0	782237696	65	4494
2026-01-17 04:01:40.10	320.72	24.52	-47.0	-48.9	18.0	0.00e+00	0	34	0	784334848	65	4515
2026-01-17 04:01:41.11	320.45	24.47	-47.1	-49.0	17.9	0.00e+00	0	34	0	786432000	65	4558
2026-01-17 04:01:42.12	320.18	24.41	-47.3	-49.3	17.5	0.00e+00	0	34	0	787480576	65	4757
2026-01-17 04:01:43.12	319.91	24.36	-47.4	-49.5	17.5	0.00e+00	0	34	0	789577728	65	4830
2026-01-17 04:01:44.13	319.64	24.30	-47.5	-49.5	17.4	0.00e+00	0	34	0	791674880	65	4860
2026-01-17 04:01:45.14	319.37	24.24	-47.3	-49.3	17.6	0.00e+00	0	34	0	793772032	65	4726
2026-01-17 04:01:46.15	319.10	24.18	-47.1	-49.0	17.8	0.00e+00	0	34	0	795869184	65	4570
2026-01-17 04:01:47.16	318.84	24.13	-46.8	-48.6	18.2	0.00e+00	0	34	0	797966336	65	4382
2026-01-17 04:01:48.17	318.57	24.07	-46.6	-48.3	18.4	0.00e+00	0	34	0	799014912	65	4242
2026-01-17 04:01:49.18	318.31	24.01	-46.5	-48.1	18.6	0.00e+00	0	34	0	801112064	64	4388
2026-01-17 04:01:50.19	318.05	23.95	-46.2	-47.8	19.0	0.00e+00	0	34	0	803209216	64	4206
2026-01-17 04:01:51.20	317.78	23.89	-46.2	-47.9	18.9	0.00e+00	0	34	0	805306368	64	4248
2026-01-17 04:01:52.21	317.52	23.83	-46.2	-47.8	18.9	0.00e+00	0	34	0	807403520	64	4206
2026-01-17 04:01:53.22	317.26	23.76	-46.4	-48.1	18.6	0.00e+00	0	34	0	808452096	64	4365
2026-01-17 04:01:54.22	317.00	23.70	-46.9	-48.7	18.2	0.00e+00	0	34	0	810549248	64	4683
2026-01-17 04:01:55.23	316.75	23.64	-47.0	-48.9	18.0	0.00e+00	0	34	0	812646400	64	4768
2026-01-17 04:01:56.24	316.49	23.58	-47.3	-49.3	17.5	0.00e+00	0	34	0	814743552	65	4730
2026-01-17 04:01:57.25	316.23	23.51	-47.2	-49.2	17.6	0.00e+00	0	34	0	815792128	65	4672
2026-01-17 04:01:58.26	315.98	23.45	-46.7	-48.4	18.3	0.00e+00	0	34	0	817889280	65	4289
2026-01-17 04:01:59.27	315.72	23.38	-46.5	-48.2	18.5	0.00e+00	0	34	0	819986432	64	4406
2026-01-17 04:02:00.28	315.47	23.32	-46.5	-48.2	18.5	0.00e+00	0	34	0	822083584	64	4408
2026-01-17 04:02:01.28	315.22	23.25	-46.4	-48.1	18.7	0.00e+00	0	34	0	824180736	64	4347
2026-01-17 04:02:02.29	314.97	23.19	-46.7	-48.5	18.4	0.00e+00	0	34	0	826277888	64	4562
2026-01-17 04:02:03.30	314.72	23.12	-46.9	-48.8	18.0	0.00e+00	0	34	0	827326464	64	4713
2026-01-17 04:02:04.31	314.47	23.05	-47.1	-49.1	17.7	0.00e+00	0	34	0	829423616	64	4893
2026-01-17 04:02:05.32	314.22	22.99	-47.2	-49.2	17.6	0.00e+00	0	34	0	831520768	65	4702
2026-01-17 04:02:06.32	313.98	22.92	-47.3	-49.4	17.5	0.00e+00	0	34	0	833617920	65	4762
2026-01-17 04:02:07.33	313.73	22.85	-47.2	-49.3	17.5	0.00e+00	0	34	0	835715072	65	4719
2026-01-17 04:02:08.34	313.49	22.78	-46.8	-48.7	18.0	0.00e+00	0	34	0	836763648	65	4433
2026-01-17 04:02:09.35	313.25	22.72	-46.4	-48.1	18.6	0.00e+00	0	34	0	838860800	64	4362
2026-01-17 04:02:10.35	313.01	22.65	-46.3	-48.0	18.8	0.00e+00	0	34	0	840957952	64	4310
2026-01-17 04:02:11.37	312.76	22.58	-45.6	-47.1	19.7	0.00e+00	0	34	0	843055104	63	4128
2026-01-17 04:02:12.37	312.52	22.51	-45.5	-46.9	19.9	0.00e+00	0	34	0	845152256	62	4267
2026-01-17 04:02:13.38	312.29	22.44	-45.4	-46.8	19.9	0.00e+00	0	34	0	846200832	62	4214
2026-01-17 04:02:14.39	312.05	22.37	-45.6	-47.1	19.7	0.00e+00	0	34	0	848297984	62	4348
2026-01-17 04:02:15.40	311.81	22.30	-46.0	-47.6	19.3	0.00e+00	0	34	0	850395136	62	4599
2026-01-17 04:02:16.41	311.57	22.23	-46.2	-47.8	19.0	0.00e+00	0	34	0	852492288	62	4749
2026-01-17 04:02:17.41	311.34	22.16	-46.5	-48.3	18.6	0.00e+00	0	34	0	854589440	63	4729
2026-01-17 04:02:18.42	311.11	22.08	-46.7	-48.5	18.4	0.00e+00	0	34	0	855638016	63	4841
2026-01-17 04:02:19.43	310.88	22.01	-46.6	-48.4	18.4	0.00e+00	0	34	0	857735168	64	4508
2026-01-17 04:02:20.44	310.64	21.94	-46.5	-48.3	18.5	0.00e+00	0	34	0	859832320	64	4478
2026-01-17 04:02:21.45	310.41	21.87	-46.3	-48.0	18.6	0.00e+00	0	34	0	861929472	64	4332
2026-01-17 04:02:22.46	310.19	21.79	-46.0	-47.5	19.2	0.00e+00	0	34	0	864026624	63	4338
2026-01-17 04:02:23.47	309.96	21.72	-46.0	-47.5	19.2	0.00e+00	0	34	0	865075200	63	4310
2026-01-17 04:02:24.47	309.73	21.65	-45.5	-46.9	19.9	0.00e+00	0	34	0	867172352	62	4257
2026-01-17 04:02:25.48	309.51	21.57	-45.3	-46.7	20.0	0.00e+00	0	34	0	869269504	62	4169
2026-01-17 04:02:26.49	309.28	21.50	-45.3	-46.7	20.1	0.00e+00	0	34	0	871366656	62	4165
2026-01-17 04:02:27.50	309.06	21.43	-45.3	-46.7	19.9	0.00e+00	0	34	0	873463808	62	4180
2026-01-17 04:02:28.50	308.84	21.35	-45.5	-46.9	19.8	0.00e+00	0	34	0	874512384	62	4281
2026-01-17 04:02:29.51	308.61	21.28	-45.8	-47.3	19.5	0.00e+00	0	34	0	876609536	62	4458
2026-01-17 04:02:30.52	308.39	21.20	-45.7	-47.2	19.6	0.00e+00	0	34	0	878706688	62	4399
2026-01-17 04:02:31.53	308.17	21.13	-45.5	-47.0	19.8	0.00e+00	0	34	0	880803840	62	4293
2026-01-17 04:02:32.54	307.96	21.05	-45.6	-47.1	19.7	0.00e+00	0	34	0	882900992	62	4353
2026-01-17 04:02:33.54	307.74	20.98	-45.4	-46.8	19.9	0.00e+00	0	34	0	883949568	62	4221
2026-01-17 04:02:34.55	307.52	20.90	-45.6	-47.1	19.6	0.00e+00	0	34	0	886046720	62	4377
2026-01-17 04:02:35.56	307.31	20.83	-45.6	-47.1	19.6	0.00e+00	0	34	0	888143872	62	4351
2026-01-17 04:02:36.57	307.10	20.75	-45.5	-47.0	19.7	0.00e+00	0	34	0	890241024	62	4314
2026-01-17 04:02:37.58	306.88	20.67	-45.4	-46.8	19.9	0.00e+00	0	34	0	892338176	62	4220
2026-01-17 04:02:38.59	306.67	20.60	-45.4	-46.8	19.9	0.00e+00	0	34	0	893386752	62	4222
2026-01-17 04:02:39.60	306.46	20.52	-45.3	-46.7	20.1	0.00e+00	0	34	0	895483904	62	4167
2026-01-17 04:02:40.61	306.25	20.44	-45.3	-46.8	19.9	0.00e+00	0	34	0	897581056	62	4205
2026-01-17 04:02:41.61	306.04	20.37	-45.4	-46.9	19.8	0.00e+00	0	34	0	899678208	62	4244
2026-01-17 04:02:42.62	305.83	20.29	-45.3	-46.8	19.9	0.00e+00	0	34	0	901775360	62	4209
2026-01-17 04:02:43.63	305.63	20.21	-45.3	-46.8	19.9	0.00e+00	0	34	0	902823936	62	4195
2026-01-17 04:02:44.65	305.42	20.13	-45.3	-46.8	19.9	0.00e+00	0	34	0	904921088	62	4210
2026-01-17 04:02:45.65	305.22	20.06	-45.4	-46.9	19.8	0.00e+00	0	34	0	907018240	62	4246
2026-01-17 04:02:46.66	305.01	19.98	-45.5	-47.0	19.7	0.00e+00	0	34	0	909115392	62	4316
2026-01-17 04:02:47.67	304.81	19.90	-45.8	-47.4	19.4	0.00e+00	0	34	0	911212544	62	4499
2026-01-17 04:02:48.68	304.61	19.82	-46.0	-47.6	19.1	0.00e+00	0	34	0	913309696	62	4651
2026-01-17 04:02:49.69	304.41	19.74	-46.1	-47.8	18.9	0.00e+00	0	34	0	914358272	62	4730
2026-01-17 04:02:50.70	304.21	19.67	-45.8	-47.4	19.3	0.00e+00	0	34	0	916455424	62	4513
2026-01-17 04:02:51.71	304.01	19.59	-45.6	-47.1	19.6	0.00e+00	0	34	0	918552576	62	4387
2026-01-17 04:02:52.72	303.81	19.51	-45.4	-46.8	19.9	0.00e+00	0	34	0	920649728	62	4225
2026-01-17 04:02:53.73	303.62	19.43	-45.2	-46.6	20.1	0.00e+00	0	34	0	921698304	62	4120
2026-01-17 04:02:54.74	303.42	19.35	-45.5	-46.9	19.8	0.00e+00	0	34	0	923795456	62	4290
2026-01-17 04:02:55.74	303.23	19.27	-45.7	-47.2	19.6	0.00e+00	0	34	0	925892608	62	4399
2026-01-17 04:02:56.75	303.04	19.19	-45.8	-47.4	19.4	0.00e+00	0	34	0	927989760	62	4509
2026-01-17 04:02:57.76	302.85	19.11	-45.8	-47.4	19.3	0.00e+00	0	34	0	930086912	62	4510
2026-01-17 04:02:58.77	302.65	19.03	-45.7	-47.2	19.5	0.00e+00	0	34	0	932184064	62	4421
2026-01-17 04:02:59.78	302.46	18.96	-45.5	-47.0	19.7	0.00e+00	0	34	0	933232640	62	4310
2026-01-17 04:03:00.78	302.28	18.88	-45.3	-46.7	20.0	0.00e+00	0	34	0	935329792	62	4167
2026-01-17 04:03:01.79	302.09	18.80	-44.8	-46.1	20.5	0.00e+00	0	34	0	937426944	61	4120
2026-01-17 04:03:02.80	301.90	18.72	-44.8	-46.1	20.5	0.00e+00	0	34	0	939524096	61	4107
2026-01-17 04:03:03.81	301.71	18.64	-44.8	-46.1	20.5	0.00e+00	0	34	0	941621248	61	4110
2026-01-17 04:03:04.81	301.53	18.56	-44.7	-46.0	20.6	0.00e+00	0	34	0	942669824	61	4070
2026-01-17 04:03:05.82	301.35	18.48	-44.9	-46.2	20.4	0.00e+00	0	34	0	944766976	61	4152
2026-01-17 04:03:06.83	301.16	18.40	-44.7	-46.0	20.6	0.00e+00	0	34	0	946864128	61	4077
2026-01-17 04:03:07.83	300.98	18.32	-44.8	-46.1	20.6	0.00e+00	0	34	0	948961280	61	4112
2026-01-17 04:03:08.84	300.80	18.24	-45.0	-46.4	20.3	0.00e+00	0	34	0	950009856	61	4259
2026-01-17 04:03:09.85	300.62	18.16	-45.2	-46.5	20.2	0.00e+00	0	34	0	952107008	61	4321
2026-01-17 04:03:10.86	300.44	18.08	-45.4	-46.8	19.9	0.00e+00	0	34	0	954204160	61	4467
2026-01-17 04:03:11.86	300.26	18.00	-45.5	-47.0	19.8	0.00e+00	0	34	0	956301312	61	4570
2026-01-17 04:03:12.87	300.09	17.92	-45.4	-46.8	19.9	0.00e+00	0	34	0	958398464	61	4480
2026-01-17 04:03:13.88	299.91	17.84	-45.3	-46.7	20.0	0.00e+00	0	34	0	960495616	61	4407
2026-01-17 04:03:14.89	299.73	17.76	-45.1	-46.4	20.3	0.00e+00	0	34	0	961544192	61	4270
2026-01-17 04:03:15.90	299.56	17.68	-45.0	-46.3	20.4	0.00e+00	0	34	0	963641344	61	4220
2026-01-17 04:03:16.90	299.39	17.60	-44.8	-46.1	20.5	0.00e+00	0	34	0	965738496	61	4110
2026-01-17 04:03:17.91	299.21	17.52	-44.8	-46.1	20.5	0.00e+00	0	34	0	967835648	61	4127
2026-01-17 04:03:18.92	299.04	17.44	-45.0	-46.3	20.4	0.00e+00	0	34	0	969932800	61	4220
2026-01-17 04:03:19.93	298.87	17.36	-45.0	-46.3	20.4	0.00e+00	0	34	0	970981376	61	4203
2026-01-17 04:03:20.94	298.70	17.28	-45.2	-46.5	20.2	0.00e+00	0	34	0	973078528	61	4335
2026-01-17 04:03:21.94	298.53	17.20	-45.2	-46.5	20.2	0.00e+00	0	34	0	975175680	61	4333
2026-01-17 04:03:22.95	298.37	17.12	-45.2	-46.6	20.1	0.00e+00	0	34	0	977272832	61	4357
2026-01-17 04:03:23.96	298.20	17.04	-45.4	-46.8	19.9	0.00e+00	0	34	0	979369984	61	4488
2026-01-17 04:03:24.97	298.03	16.96	-45.6	-47.0	19.7	0.00e+00	0	34	0	980418560	61	4568
2026-01-17 04:03:25.98	297.87	16.88	-45.6	-47.0	19.7	0.00e+00	0	34	0	982515712	62	4335
2026-01-17 04:03:26.98	297.70	16.80	-45.5	-46.9	19.8	0.00e+00	0	34	0	984612864	62	4272
2026-01-17 04:03:27.99	297.54	16.72	-45.4	-46.9	19.9	0.00e+00	0	34	0	986710016	62	4244
2026-01-17 04:03:29.00	297.38	16.64	-45.2	-46.6	20.1	0.00e+00	0	34	0	988807168	62	4124
2026-01-17 04:03:30.01	297.21	16.56	-44.9	-46.2	20.4	0.00e+00	0	34	0	989855744	61	4185
2026-01-17 04:03:31.02	297.05	16.48	-44.7	-45.9	20.7	0.00e+00	0	34	0	991952896	61	4044
2026-01-17 04:03:32.03	296.89	16.40	-44.7	-45.9	20.7	0.00e+00	0	34	0	994050048	61	4038
2026-01-17 04:03:33.04	296.73	16.32	-44.7	-46.0	20.7	0.00e+00	0	34	0	996147200	61	4067
2026-01-17 04:03:34.05	296.57	16.24	-44.8	-46.1	20.6	0.00e+00	0	34	0	998244352	61	4114
2026-01-17 04:03:35.05	296.42	16.17	-45.2	-46.5	20.2	0.00e+00	0	34	0	1000341504	61	4318
2026-01-17 04:03:36.07	296.26	16.08	-45.4	-46.8	19.9	0.00e+00	0	34	0	1001390080	61	4471
2026-01-17 04:03:37.07	296.11	16.01	-45.8	-47.3	19.5	0.00e+00	0	34	0	1003487232	62	4453
2026-01-17 04:03:38.08	295.95	15.93	-46.0	-47.5	19.3	0.00e+00	0	34	0	1005584384	62	4573
2026-01-17 04:03:39.09	295.80	15.85	-46.2	-47.8	19.0	0.00e+00	0	34	0	1007681536	63	4466
2026-01-17 04:03:40.10	295.64	15.77	-46.1	-47.6	19.2	0.00e+00	0	34	0	1008730112	63	4380
2026-01-17 04:03:41.11	295.49	15.69	-46.0	-47.5	19.2	0.00e+00	0	34	0	1010827264	63	4332
2026-01-17 04:03:42.12	295.34	15.61	-45.7	-47.2	19.5	0.00e+00	0	34	0	1012924416	63	4158
2026-01-17 04:03:43.12	295.19	15.53	-45.6	-47.1	19.7	0.00e+00	0	34	0	1015021568	63	4100
2026-01-17 04:03:44.13	295.04	15.45	-45.6	-47.1	19.7	0.00e+00	0	34	0	1017118720	63	4118
2026-01-17 04:03:45.14	294.89	15.37	-45.5	-46.9	19.8	0.00e+00	0	34	0	1018167296	62	4276
2026-01-17 04:03:46.15	294.74	15.29	-45.6	-47.0	19.7	0.00e+00	0	34	0	1020264448	62	4328
2026-01-17 04:03:47.16	294.59	15.21	-45.5	-46.9	19.8	0.00e+00	0	34	0	1022361600	62	4260
2026-01-17 04:03:48.17	294.44	15.13	-45.5	-47.0	19.7	0.00e+00	0	34	0	1024458752	62	4307
2026-01-17 04:03:49.18	294.30	15.05	-45.5	-46.9	19.8	0.00e+00	0	34	0	1026555904	62	4287
2026-01-17 04:03:50.19	294.15	14.97	-45.7	-47.2	19.5	0.00e+00	0	34	0	1028653056	62	4415
2026-01-17 04:03:51.20	294.01	14.90	-45.7	-47.2	19.5	0.00e+00	0	34	0	1029701632	62	4430
2026-01-17 04:03:52.21	293.86	14.82	-45.9	-47.4	19.4	0.00e+00	0	34	0	1031798784	62	4504
2026-01-17 04:03:53.21	293.72	14.74	-46.1	-47.6	19.1	0.00e+00	0	34	0	1033895936	62	4649
2026-01-17 04:03:54.22	293.58	14.66	-46.4	-48.0	18.8	0.00e+00	0	34	0	1035993088	63	4570
2026-01-17 04:03:55.23	293.44	14.58	-46.7	-48.4	18.4	0.00e+00	0	34	0	1037041664	63	4802
2026-01-17 04:03:56.24	293.30	14.50	-46.7	-48.5	18.2	0.00e+00	0	34	0	1039138816	64	4590
2026-01-17 04:03:57.24	293.16	14.43	-47.1	-49.0	17.7	0.00e+00	0	34	0	1041235968	64	4864
2026-01-17 04:03:58.25	293.02	14.35	-46.9	-48.7	18.0	0.00e+00	0	34	0	1043333120	64	4687
2026-01-17 04:03:59.26	292.88	14.27	-46.7	-48.5	18.2	0.00e+00	0	34	0	1045430272	64	4578
2026-01-17 04:04:00.27	292.74	14.19	-46.5	-48.2	18.5	0.00e+00	0	34	0	1047527424	64	4413
2026-01-17 04:04:01.28	292.61	14.11	-46.4	-48.1	18.6	0.00e+00	0	34	0	1048576000	64	4350
2026-01-17 04:04:02.28	292.47	14.04	-46.0	-47.5	19.2	0.00e+00	0	34	0	1050673152	63	4306
2026-01-17 04:04:03.29	292.34	13.96	-46.0	-47.5	19.3	0.00e+00	0	34	0	1052770304	63	4311
2026-01-17 04:04:04.30	292.20	13.88	-45.6	-47.1	19.6	0.00e+00	0	34	0	1054867456	63	4109
2026-01-17 04:04:05.31	292.07	13.80	-45.5	-46.9	19.7	0.00e+00	0	34	0	1056964608	63	4046
2026-01-17 04:04:06.32	291.93	13.72	-45.8	-47.3	19.4	0.00e+00	0	34	0	1058013184	63	4223
2026-01-17 04:04:07.32	291.80	13.65	-45.8	-47.3	19.5	0.00e+00	0	34	0	1060110336	63	4202
2026-01-17 04:04:08.33	291.67	13.57	-46.0	-47.5	19.2	0.00e+00	0	34	0	1062207488	63	4332
2026-01-17 04:04:09.34	291.54	13.49	-46.0	-47.5	19.2	0.00e+00	0	34	0	1064304640	63	4334
2026-01-17 04:04:10.35	291.41	13.41	-46.2	-47.8	19.0	0.00e+00	0	34	0	1065353216	63	4447
2026-01-17 04:04:11.36	291.28	13.34	-46.1	-47.6	19.1	0.00e+00	0	34	0	1067450368	63	4383
2026-01-17 04:04:12.37	291.15	13.26	-46.0	-47.6	19.1	0.00e+00	0	34	0	1069547520	63	4352
2026-01-17 04:04:13.38	291.02	13.18	-46.2	-47.7	19.0	0.00e+00	0	34	0	1071644672	63	4424
2026-01-17 04:04:14.39	290.89	13.11	-46.1	-47.6	19.1	0.00e+00	0	34	0	1073741824	63	4385
2026-01-17 04:04:15.39	290.77	13.03	-45.9	-47.4	19.2	0.00e+00	0	34	0	1075838976	63	4290
2026-01-17 04:04:16.40	290.64	12.95	-46.1	-47.6	19.1	0.00e+00	0	34	0	1076887552	63	4387
2026-01-17 04:04:17.41	290.51	12.88	-46.2	-47.8	19.0	0.00e+00	0	34	0	1078984704	63	4446
2026-01-17 04:04:18.42	290.39	12.80	-46.2	-47.8	19.0	0.00e+00	0	34	0	1081081856	63	4474
2026-01-17 04:04:19.43	290.26	12.72	-46.4	-48.1	18.7	0.00e+00	0	34	0	1083179008	63	4607
2026-01-17 04:04:20.44	290.14	12.65	-46.5	-48.2	18.5	0.00e+00	0	34	0	1085276160	63	4681
2026-01-17 04:04:21.44	290.02	12.57	-46.3	-47.9	18.7	0.00e+00	0	34	0	1086324736	63	4537
2026-01-17 04:04:22.45	289.89	12.50	-46.7	-48.4	18.3	0.00e+00	0	34	0	1088421888	63	4798
2026-01-17 04:04:23.46	289.77	12.42	-46.6	-48.4	18.4	0.00e+00	0	34	0	1090519040	63	4774
2026-01-17 04:04:24.47	289.65	12.34	-46.6	-48.3	18.4	0.00e+00	0	34	0	1092616192	63	4752
2026-01-17 04:04:25.48	289.53	12.27	-46.7	-48.5	18.2	0.00e+00	0	34	0	1094713344	63	4823
2026-01-17 04:04:26.49	289.41	12.19	-46.7	-48.5	18.1	0.00e+00	0	34	0	1095761920	64	4585
2026-01-17 04:04:27.50	289.29	12.12	-46.7	-48.5	18.1	0.00e+00	0	34	0	1097859072	64	4566
2026-01-17 04:04:28.51	289.17	12.04	-46.8	-48.6	18.0	0.00e+00	0	34	0	1099956224	64	4636
2026-01-17 04:04:29.51	289.06	11.97	-47.3	-49.3	17.3	0.00e+00	0	34	0	1102053376	65	4755
2026-01-17 04:04:30.52	288.94	11.89	-47.1	-49.1	17.6	0.00e+00	0	34	0	1104150528	65	4604
2026-01-17 04:04:31.53	288.82	11.82	-47.2	-49.1	17.5	0.00e+00	0	34	0	1105199104	65	4623
2026-01-17 04:04:32.54	288.70	11.74	-47.4	-49.4	17.2	0.00e+00	0	34	0	1107296256	65	4790
2026-01-17 04:04:33.55	288.59	11.67	-47.3	-49.3	17.4	0.00e+00	0	34	0	1109393408	65	4711
2026-01-17 04:04:34.56	288.47	11.59	-47.3	-49.4	17.3	0.00e+00	0	34	0	1111490560	65	4775
2026-01-17 04:04:35.56	288.36	11.52	-47.2	-49.1	17.5	0.00e+00	0	34	0	1113587712	65	4630
2026-01-17 04:04:36.57	288.25	11.44	-46.9	-48.8	17.8	0.00e+00	0	34	0	1114636288	65	4475
2026-01-17 04:04:37.58	288.13	11.37	-46.8	-48.6	18.0	0.00e+00	0	34	0	1116733440	65	4364
2026-01-17 04:04:38.59	288.02	11.29	-46.8	-48.5	18.1	0.00e+00	0	34	0	1118830592	65	4333
2026-01-17 04:04:39.60	287.91	11.22	-46.5	-48.3	18.2	0.00e+00	0	34	0	1120927744	65	4195
2026-01-17 04:04:40.60	287.80	11.15	-46.6	-48.4	18.2	0.00e+00	0	34	0	1123024896	64	4498
2026-01-17 04:04:41.61	287.69	11.07	-46.7	-48.4	18.1	0.00e+00	0	34	0	1124073472	64	4532
2026-01-17 04:04:42.62	287.58	11.00	-46.4	-48.1	18.5	0.00e+00	0	34	0	1126170624	64	4346
2026-01-17 04:04:43.63	287.47	10.92	-46.6	-48.3	18.2	0.00e+00	0	34	0	1128267776	64	4489
2026-01-17 04:04:44.64	287.36	10.85	-46.7	-48.5	18.1	0.00e+00	0	34	0	1130364928	64	4578
2026-01-17 04:04:45.65	287.25	10.78	-46.9	-48.7	17.9	0.00e+00	0	34	0	1132462080	64	4692
2026-01-17 04:04:46.66	287.14	10.70	-47.0	-48.9	17.7	0.00e+00	0	34	0	1134559232	64	4795
2026-01-17 04:04:47.66	287.03	10.63	-47.3	-49.3	17.3	0.00e+00	0	34	0	1135607808	65	4733
2026-01-17 04:04:48.67	286.93	10.56	-47.3	-49.3	17.3	0.00e+00	0	34	0	1137704960	65	4713
2026-01-17 04:04:49.68	286.82	10.49	-47.3	-49.3	17.2	0.00e+00	0	34	0	1139802112	65	4748
2026-01-17 04:04:50.69	286.71	10.41	-47.4	-49.5	17.1	0.00e+00	0	34	0	1141899264	65	4828
2026-01-17 04:04:51.70	286.61	10.34	-47.3	-49.3	17.2	0.00e+00	0	34	0	1142947840	65	4755
2026-01-17 04:04:52.71	286.50	10.27	-47.1	-49.1	17.5	0.00e+00	0	34	0	1145044992	65	4620
2026-01-17 04:04:53.72	286.40	10.19	-47.0	-48.8	17.7	0.00e+00	0	34	0	1147142144	65	4492
2026-01-17 04:04:54.73	286.30	10.12	-46.9	-48.8	17.7	0.00e+00	0	34	0	1149239296	65	4470
2026-01-17 04:04:55.74	286.19	10.05	-46.7	-48.5	18.0	0.00e+00	0	34	0	1151336448	65	4326
2026-01-17 04:04:56.75	286.09	9.98	-46.7	-48.5	18.0	0.00e+00	0	34	0	1152385024	65	4314
2026-01-17 04:04:57.75	285.99	9.91	-46.7	-48.4	18.1	0.00e+00	0	34	0	1154482176	65	4284
2026-01-17 04:04:58.76	285.89	9.83	-46.5	-48.2	18.3	0.00e+00	0	34	0	1156579328	64	4398
2026-01-17 04:04:59.77	285.78	9.76	-46.5	-48.3	18.2	0.00e+00	0	34	0	1158676480	64	4466
2026-01-17 04:05:00.78	285.68	9.69	-46.5	-48.3	18.2	0.00e+00	0	34	0	1160773632	64	4467
2026-01-17 04:05:01.79	285.58	9.62	-46.6	-48.4	18.1	0.00e+00	0	34	0	1162870784	64	4523
2026-01-17 04:05:02.79	285.49	9.55	-46.7	-48.5	17.9	0.00e+00	0	34	0	1163919360	64	4595
2026-01-17 04:05:03.80	285.39	9.48	-46.8	-48.7	17.8	0.00e+00	0	34	0	1166016512	64	4687
2026-01-17 04:05:04.81	285.29	9.40	-46.9	-48.8	17.6	0.00e+00	0	34	0	1168113664	64	4756
2026-01-17 04:05:05.82	285.19	9.33	-47.1	-49.1	17.4	0.00e+00	0	34	0	1170210816	64	4890
2026-01-17 04:05:06.82	285.09	9.26	-47.3	-49.4	17.1	0.00e+00	0	34	0	1171259392	65	4766
2026-01-17 04:05:07.83	285.00	9.19	-47.4	-49.4	17.0	0.00e+00	0	34	0	1173356544	65	4809
2026-01-17 04:05:08.84	284.90	9.12	-47.6	-49.8	16.8	0.00e+00	0	34	0	1175453696	65	4988
2026-01-17 04:05:09.85	284.80	9.05	-47.8	-50.1	16.4	0.00e+00	0	34	0	1177550848	66	4893
2026-01-17 04:05:10.86	284.71	8.98	-47.9	-50.2	16.2	0.00e+00	0	34	0	1179648000	66	4976
2026-01-17 04:05:11.87	284.61	8.91	-47.9	-50.2	16.3	0.00e+00	0	34	0	1181745152	66	4980
2026-01-17 04:05:12.88	284.52	8.84	-48.2	-50.6	15.9	0.00e+00	0	34	0	1182793728	66	5214
2026-01-17 04:05:13.89	284.42	8.77	-48.3	-50.8	15.7	0.00e+00	0	34	0	1184890880	67	5005
2026-01-17 04:05:14.90	284.33	8.70	-48.2	-50.6	15.8	0.00e+00	0	34	0	1186988032	67	4921
2026-01-17 04:05:15.90	284.24	8.63	-48.3	-50.8	15.7	0.00e+00	0	34	0	1189085184	67	5000
2026-01-17 04:05:16.91	284.14	8.56	-48.6	-51.2	15.2	0.00e+00	0	34	0	1191182336	67	5275
2026-01-17 04:05:17.92	284.05	8.49	-48.3	-50.9	15.5	0.00e+00	0	34	0	1192230912	67	5074
2026-01-17 04:05:18.93	283.96	8.42	-48.4	-51.0	15.4	0.00e+00	0	34	0	1194328064	67	5137
2026-01-17 04:05:19.94	283.87	8.35	-48.3	-50.8	15.6	0.00e+00	0	34	0	1196425216	67	5040
2026-01-17 04:05:20.95	283.78	8.28	-48.3	-50.8	15.6	0.00e+00	0	34	0	1198522368	67	5022
2026-01-17 04:05:21.96	283.68	8.21	-48.2	-50.8	15.7	0.00e+00	0	34	0	1200619520	67	4999
2026-01-17 04:05:22.97	283.59	8.14	-48.2	-50.8	15.6	0.00e+00	0	34	0	1201668096	67	4987
2026-01-17 04:05:23.97	283.51	8.08	-48.2	-50.8	15.7	0.00e+00	0	34	0	1203765248	67	5004
2026-01-17 04:05:24.98	283.42	8.01	-48.3	-50.9	15.6	0.00e+00	0	34	0	1205862400	67	5071
2026-01-17 04:05:25.99	283.33	7.94	-48.2	-50.7	15.7	0.00e+00	0	34	0	1207959552	67	4954
2026-01-17 04:05:27.00	283.24	7.87	-48.3	-50.9	15.5	0.00e+00	0	34	0	1210056704	67	5073
2026-01-17 04:05:28.00	283.15	7.80	-48.2	-50.7	15.7	0.00e+00	0	34	0	1211105280	67	4941
2026-01-17 04:05:29.01	283.06	7.73	-48.2	-50.8	15.6	0.00e+00	0	34	0	1213202432	67	4990
2026-01-17 04:05:30.02	282.98	7.66	-48.2	-50.8	15.6	0.00e+00	0	34	0	1215299584	67	5000
2026-01-17 04:05:31.03	282.89	7.60	-48.7	-51.5	14.9	0.00e+00	0	34	0	1217396736	68	5147
2026-01-17 04:05:32.04	282.80	7.53	-48.7	-51.5	15.0	0.00e+00	0	34	0	1219493888	68	5121
2026-01-17 04:05:33.05	282.72	7.46	-48.6	-51.4	15.2	0.00e+00	0	34	0	1220542464	68	5044
2026-01-17 04:05:34.06	282.63	7.39	-48.9	-51.9	14.6	1.50e-06	0	34	0	1222639616	68	5352
2026-01-17 04:05:35.07	282.55	7.32	-49.1	-52.1	14.2	0.00e+00	0	34	0	1224736768	68	5521
2026-01-17 04:05:36.07	282.46	7.26	-49.0	-52.1	14.3	7.00e-07	0	34	0	1226833920	68	5510
2026-01-17 04:05:37.08	282.38	7.19	-49.1	-52.2	14.2	0.00e+00	0	34	0	1228931072	68	5590
2026-01-17 04:05:38.09	282.29	7.12	-49.0	-52.0	14.4	2.20e-06	0	34	0	1229979648	69	5144
2026-01-17 04:05:39.10	282.21	7.06	-49.1	-52.2	14.2	5.30e-06	0	34	0	1232076800	69	5253
2026-01-17 04:05:40.10	282.13	6.99	-48.8	-51.7	14.7	0.00e+00	0	34	0	1234173952	69	4981
