passes_logs/2026/01/17/R3.2S_Murmansk/R3.2S_Murmansk__20260117_041427_NOAA_20_JPSS-1_rec.log

#Pass ID: 20260117_041427_NOAA 20 (JPSS-1)
#Satellite: NOAA 20 (JPSS-1)
#Configuration: NOAA 20
#almurnet v.1.7.20251203
#Start time: 2026-01-17 04:14:26

#Version: 2.2.20231116
#Station: R3.2S_Murmansk
#Location: 33.079688 lon 68.888172 lat
#TLE: 1 43013U 17073A   26015.89389188  .00000026  00000+0  33113-4 0  9999
#TLE: 2 43013  98.7636 316.8238 0001460  37.8997 322.2282 14.19536128422860

#Time	Az	El	Level	Level2	SNR	BER	BlckErr	Temp	State	Recorded	gain1	gain2
2026-01-17 04:14:26.97	49.84	2.00	-51.4	-66.3	3.8	1.49e+00	0	32	0	0	74	20015
2026-01-17 04:14:27.97	49.78	2.05	-51.4	-66.3	3.8	1.49e+00	0	32	104	0	73	21258
2026-01-17 04:14:28.98	49.72	2.11	-51.4	-66.3	3.8	1.49e+00	0	32	104	0	73	21081
2026-01-17 04:14:29.99	49.66	2.17	-51.3	-66.3	3.8	1.49e+00	0	32	104	0	73	21150
2026-01-17 04:14:31.00	49.59	2.23	-51.3	-66.3	3.8	1.49e+00	0	32	104	0	73	21153
2026-01-17 04:14:32.01	49.53	2.29	-51.3	-66.3	3.8	1.49e+00	0	32	104	0	73	21167
2026-01-17 04:14:33.02	49.47	2.34	-51.4	-66.3	3.8	1.49e+00	0	32	104	0	73	21158
2026-01-17 04:14:34.03	49.41	2.40	-51.4	-66.3	3.8	1.49e+00	0	32	104	0	73	21148
2026-01-17 04:14:35.04	49.34	2.46	-51.4	-66.3	3.8	1.49e+00	0	32	104	0	73	21174
2026-01-17 04:14:36.04	49.28	2.52	-51.3	-66.3	3.8	1.49e+00	0	32	104	0	73	21147
2026-01-17 04:14:37.05	49.22	2.58	-51.4	-66.3	3.8	1.49e+00	0	32	104	0	73	21152
2026-01-17 04:14:38.06	49.15	2.64	-51.3	-66.3	3.8	1.49e+00	0	32	104	0	73	21163
2026-01-17 04:14:39.07	49.09	2.70	-51.3	-66.3	3.8	1.49e+00	0	32	104	0	73	21071
2026-01-17 04:14:40.08	49.02	2.75	-51.3	-66.2	3.8	1.49e+00	0	32	104	0	73	20991
2026-01-17 04:14:41.09	48.96	2.81	-51.3	-66.2	3.8	1.49e+00	0	33	104	0	73	20898
2026-01-17 04:14:42.10	48.89	2.87	-51.3	-66.2	3.8	1.49e+00	0	32	104	0	73	20836
2026-01-17 04:14:43.11	48.83	2.93	-51.3	-66.2	3.8	1.49e+00	0	33	104	0	73	20861
2026-01-17 04:14:44.11	48.76	2.99	-51.3	-66.3	3.8	1.49e+00	0	32	104	0	73	21032
2026-01-17 04:14:45.12	48.70	3.05	-51.3	-66.3	3.8	1.49e+00	0	32	104	0	73	21034
2026-01-17 04:14:46.13	48.63	3.11	-51.3	-66.2	3.8	1.49e+00	0	33	104	0	73	21017
2026-01-17 04:14:47.14	48.56	3.17	-51.3	-66.2	3.8	1.49e+00	0	33	104	0	73	20988
2026-01-17 04:14:48.14	48.50	3.23	-51.3	-66.2	3.8	1.49e+00	0	33	104	0	73	20900
2026-01-17 04:14:49.15	48.43	3.29	-51.3	-66.1	3.8	1.49e+00	0	33	104	0	73	20728
2026-01-17 04:14:50.16	48.36	3.35	-51.3	-66.1	3.8	1.49e+00	0	33	104	0	73	20624
2026-01-17 04:14:51.17	48.30	3.41	-51.3	-66.1	3.8	1.49e+00	0	32	104	0	73	20603
2026-01-17 04:14:52.18	48.23	3.47	-51.3	-66.1	3.8	1.49e+00	0	33	104	0	73	20722
2026-01-17 04:14:53.19	48.16	3.53	-51.3	-66.2	3.8	1.49e+00	0	33	104	0	73	20906
2026-01-17 04:14:54.20	48.09	3.59	-51.3	-66.3	3.8	1.49e+00	0	33	104	0	73	21054
2026-01-17 04:14:55.21	48.02	3.65	-51.3	-66.2	3.8	1.49e+00	0	33	104	0	73	20950
2026-01-17 04:14:56.21	47.96	3.71	-51.3	-66.2	3.8	1.49e+00	0	33	104	0	73	20787
2026-01-17 04:14:57.22	47.89	3.77	-51.3	-66.1	3.8	1.49e+00	0	33	104	0	73	20568
2026-01-17 04:14:58.23	47.82	3.83	-51.3	-65.9	3.8	1.49e+00	0	33	104	0	73	20247
2026-01-17 04:14:59.24	47.75	3.89	-51.3	-65.8	3.8	1.49e+00	0	33	104	0	73	20016
2026-01-17 04:15:00.25	47.68	3.95	-51.3	-65.8	3.8	1.49e+00	0	33	104	0	73	19942
2026-01-17 04:15:01.26	47.61	4.01	-51.3	-65.5	3.8	1.49e+00	0	33	104	0	73	19235
2026-01-17 04:15:02.26	47.53	4.07	-51.2	-65.6	3.8	1.49e+00	0	33	104	0	73	19430
2026-01-17 04:15:03.27	47.46	4.13	-51.2	-65.1	3.8	1.49e+00	0	33	104	0	73	18425
2026-01-17 04:15:04.28	47.39	4.19	-51.1	-64.4	3.8	1.49e+00	0	33	104	0	73	16996
2026-01-17 04:15:05.29	47.32	4.25	-50.9	-63.3	3.8	1.49e+00	0	33	104	0	73	14887
2026-01-17 04:15:06.30	47.25	4.32	-50.4	-61.5	3.9	1.49e+00	0	33	104	0	72	12908
2026-01-17 04:15:07.31	47.18	4.38	-50.3	-60.9	3.9	1.48e+00	0	33	104	0	72	12022
2026-01-17 04:15:08.32	47.10	4.44	-50.0	-60.0	3.9	1.48e+00	0	33	104	0	72	10828
2026-01-17 04:15:09.32	47.03	4.50	-50.1	-60.1	3.8	1.48e+00	0	33	104	0	71	11567
2026-01-17 04:15:10.33	46.96	4.56	-50.1	-60.2	3.8	1.48e+00	0	33	104	0	71	11762
2026-01-17 04:15:11.34	46.88	4.62	-50.3	-61.2	3.8	1.48e+00	0	33	104	0	71	13140
2026-01-17 04:15:12.35	46.81	4.68	-50.6	-62.1	3.8	1.49e+00	0	33	104	0	71	14544
2026-01-17 04:15:13.36	46.74	4.75	-50.7	-62.9	3.9	1.49e+00	0	33	104	0	72	15188
2026-01-17 04:15:14.37	46.66	4.81	-51.0	-64.5	3.8	1.49e+00	0	33	104	0	72	18096
2026-01-17 04:15:15.38	46.59	4.87	-51.2	-65.7	3.8	1.49e+00	0	33	104	0	72	20809
2026-01-17 04:15:16.39	46.51	4.93	-51.2	-66.3	3.8	1.49e+00	0	33	104	0	72	22271
2026-01-17 04:15:17.40	46.43	5.00	-51.2	-66.3	3.8	1.49e+00	0	33	104	0	73	21058
2026-01-17 04:15:18.41	46.36	5.06	-51.2	-66.0	3.8	1.49e+00	0	33	104	0	73	20492
2026-01-17 04:15:19.42	46.28	5.12	-51.4	-66.2	3.8	1.49e+00	0	33	104	0	73	20914
2026-01-17 04:15:20.42	46.21	5.18	-51.3	-66.2	3.8	1.49e+00	0	33	104	0	73	20845
2026-01-17 04:15:21.43	46.13	5.25	-51.2	-66.2	3.8	1.49e+00	0	33	104	0	73	20779
2026-01-17 04:15:22.44	46.05	5.31	-51.0	-60.4	4.3	1.49e+00	0	33	104	0	73	10698
2026-01-17 04:15:23.45	45.97	5.37	-51.2	-64.5	3.8	1.49e+00	0	33	104	0	73	17126
2026-01-17 04:15:24.46	45.90	5.43	-51.0	-59.3	6.0	2.47e-01	0	33	0	0	73	9473
2026-01-17 04:15:25.46	45.82	5.50	-51.0	-59.2	6.1	2.51e-01	0	33	0	2097152	73	9359
2026-01-17 04:15:26.47	45.74	5.56	-51.2	-60.2	5.5	3.41e-01	0	33	0	4194304	73	10451
2026-01-17 04:15:27.48	45.66	5.62	-51.0	-58.7	6.7	2.78e-01	0	33	0	6291456	73	8793
2026-01-17 04:15:28.49	45.58	5.69	-50.9	-58.6	6.7	1.76e-01	0	33	0	8388608	73	8700
2026-01-17 04:15:29.50	45.50	5.75	-49.7	-53.8	11.4	1.81e-01	0	33	0	9437184	71	5620
2026-01-17 04:15:30.51	45.42	5.81	-49.1	-52.6	13.4	3.00e-06	0	33	0	11534336	68	5806
2026-01-17 04:15:31.51	45.34	5.88	-51.3	-61.1	5.1	9.71e-02	0	33	0	13631488	73	11635
2026-01-17 04:15:32.52	45.26	5.94	-51.2	-60.7	4.3	1.49e+00	0	33	104	13631488	73	11051
2026-01-17 04:15:33.53	45.18	6.00	-50.5	-56.1	9.9	5.33e-03	0	33	0	14680064	71	7320
2026-01-17 04:15:34.54	45.10	6.07	-51.0	-58.3	6.8	1.20e+00	0	33	0	15728640	73	8392
2026-01-17 04:15:35.55	45.01	6.13	-49.8	-54.1	11.7	5.26e-04	0	33	0	16777216	71	5797
2026-01-17 04:15:36.56	44.93	6.20	-49.9	-54.3	11.5	7.91e-04	0	33	0	18874368	71	5952
2026-01-17 04:15:37.56	44.85	6.26	-49.6	-53.5	12.4	1.59e-04	0	34	0	20971520	71	5409
2026-01-17 04:15:38.57	44.77	6.33	-49.8	-53.9	12.1	2.62e-04	0	33	0	23068672	71	5685
2026-01-17 04:15:39.58	44.68	6.39	-49.9	-54.1	11.9	3.08e-04	0	33	0	25165824	71	5805
2026-01-17 04:15:40.59	44.60	6.45	-49.7	-53.8	12.2	3.49e-04	0	33	0	27262976	71	5609
2026-01-17 04:15:41.60	44.51	6.52	-49.8	-53.8	12.1	3.02e-04	0	33	0	28311552	71	5654
2026-01-17 04:15:42.61	44.43	6.58	-49.3	-52.9	13.2	1.75e-04	0	33	0	30408704	70	5342
2026-01-17 04:15:43.61	44.34	6.65	-49.1	-52.4	13.7	2.13e-05	0	33	0	32505856	70	5052
2026-01-17 04:15:44.62	44.26	6.71	-49.0	-52.2	13.9	7.00e-07	0	33	0	34603008	69	5256
2026-01-17 04:15:45.63	44.17	6.78	-48.9	-52.0	14.2	7.00e-07	0	33	0	36700160	69	5112
2026-01-17 04:15:46.64	44.09	6.84	-48.8	-51.9	14.4	1.50e-06	0	33	0	37748736	69	5043
2026-01-17 04:15:47.65	44.00	6.91	-48.8	-51.8	14.3	1.50e-06	0	33	0	39845888	69	5015
2026-01-17 04:15:48.66	43.91	6.97	-48.3	-51.0	15.2	0.00e+00	0	34	0	41943040	68	4850
2026-01-17 04:15:49.67	43.82	7.04	-48.3	-50.9	15.3	0.00e+00	0	34	0	44040192	68	4813
2026-01-17 04:15:50.68	43.74	7.11	-48.1	-50.6	15.6	0.00e+00	0	34	0	46137344	68	4637
2026-01-17 04:15:51.68	43.65	7.17	-48.4	-51.1	15.2	0.00e+00	0	34	0	47185920	68	4880
2026-01-17 04:15:52.69	43.56	7.24	-48.5	-51.3	15.0	0.00e+00	0	33	0	49283072	68	5016
2026-01-17 04:15:53.70	43.47	7.30	-48.3	-50.9	15.4	0.00e+00	0	34	0	51380224	68	4797
2026-01-17 04:15:54.71	43.38	7.37	-48.2	-50.7	15.6	0.00e+00	0	34	0	53477376	68	4701
2026-01-17 04:15:55.72	43.29	7.43	-48.2	-50.8	15.5	0.00e+00	0	33	0	55574528	68	4724
2026-01-17 04:15:56.72	43.20	7.50	-48.2	-50.7	15.6	0.00e+00	0	33	0	56623104	68	4682
2026-01-17 04:15:57.73	43.11	7.57	-48.3	-50.8	15.5	0.00e+00	0	34	0	58720256	68	4756
2026-01-17 04:15:58.74	43.02	7.63	-48.3	-50.9	15.5	0.00e+00	0	33	0	60817408	68	4769
2026-01-17 04:15:59.75	42.93	7.70	-48.2	-50.7	15.7	0.00e+00	0	33	0	62914560	68	4666
2026-01-17 04:16:00.76	42.83	7.77	-48.2	-50.7	15.6	0.00e+00	0	33	0	65011712	68	4673
2026-01-17 04:16:01.77	42.74	7.83	-48.1	-50.5	15.8	0.00e+00	0	34	0	66060288	68	4596
2026-01-17 04:16:02.77	42.65	7.90	-48.2	-50.7	15.6	0.00e+00	0	34	0	68157440	68	4687
2026-01-17 04:16:03.78	42.55	7.97	-48.3	-50.8	15.5	0.00e+00	0	34	0	70254592	68	4738
2026-01-17 04:16:04.79	42.46	8.03	-48.2	-50.7	15.6	0.00e+00	0	34	0	72351744	68	4702
2026-01-17 04:16:05.80	42.37	8.10	-48.1	-50.6	15.8	0.00e+00	0	34	0	74448896	68	4625
2026-01-17 04:16:06.81	42.27	8.17	-48.2	-50.7	15.7	0.00e+00	0	34	0	75497472	68	4676
2026-01-17 04:16:07.81	42.18	8.23	-48.1	-50.6	15.8	0.00e+00	0	34	0	77594624	68	4621
2026-01-17 04:16:08.82	42.08	8.30	-48.2	-50.7	15.7	0.00e+00	0	33	0	79691776	68	4689
2026-01-17 04:16:09.83	41.98	8.37	-48.1	-50.6	15.8	0.00e+00	0	33	0	81788928	68	4615
2026-01-17 04:16:10.84	41.89	8.44	-48.2	-50.6	15.8	0.00e+00	0	33	0	83886080	68	4649
2026-01-17 04:16:11.85	41.79	8.51	-48.1	-50.5	15.9	0.00e+00	0	34	0	84934656	68	4589
2026-01-17 04:16:12.85	41.69	8.57	-48.1	-50.6	15.9	0.00e+00	0	34	0	87031808	68	4602
2026-01-17 04:16:13.86	41.60	8.64	-48.1	-50.6	15.9	0.00e+00	0	34	0	89128960	68	4609
2026-01-17 04:16:14.87	41.50	8.71	-48.2	-50.7	15.8	0.00e+00	0	34	0	91226112	68	4681
2026-01-17 04:16:15.88	41.40	8.78	-48.2	-50.7	15.8	0.00e+00	0	34	0	93323264	68	4677
2026-01-17 04:16:16.89	41.30	8.85	-48.3	-50.8	15.7	0.00e+00	0	34	0	95420416	68	4718
2026-01-17 04:16:17.90	41.20	8.91	-48.3	-50.8	15.7	0.00e+00	0	34	0	96468992	68	4753
2026-01-17 04:16:18.90	41.10	8.98	-48.2	-50.6	15.8	0.00e+00	0	34	0	98566144	68	4639
2026-01-17 04:16:19.91	41.00	9.05	-48.2	-50.7	15.8	0.00e+00	0	34	0	100663296	68	4694
2026-01-17 04:16:20.92	40.90	9.12	-48.3	-50.8	15.7	0.00e+00	0	34	0	102760448	68	4725
2026-01-17 04:16:21.93	40.79	9.19	-48.2	-50.6	15.9	0.00e+00	0	34	0	103809024	68	4617
2026-01-17 04:16:22.94	40.69	9.26	-48.2	-50.6	15.9	0.00e+00	0	34	0	105906176	68	4638
2026-01-17 04:16:23.95	40.59	9.33	-48.1	-50.4	16.1	0.00e+00	0	34	0	108003328	68	4522
2026-01-17 04:16:24.96	40.48	9.39	-48.0	-50.3	16.2	0.00e+00	0	34	0	110100480	68	4453
2026-01-17 04:16:25.97	40.38	9.46	-47.9	-50.1	16.3	0.00e+00	0	34	0	112197632	67	4643
2026-01-17 04:16:26.98	40.28	9.53	-47.8	-50.1	16.3	0.00e+00	0	34	0	114294784	67	4607
2026-01-17 04:16:27.98	40.17	9.60	-47.8	-50.0	16.4	0.00e+00	0	34	0	115343360	67	4593
2026-01-17 04:16:28.99	40.07	9.67	-47.7	-49.9	16.5	0.00e+00	0	34	0	117440512	67	4519
2026-01-17 04:16:30.00	39.96	9.74	-47.7	-49.9	16.5	0.00e+00	0	34	0	119537664	67	4521
2026-01-17 04:16:31.01	39.85	9.81	-47.7	-50.0	16.5	0.00e+00	0	34	0	121634816	67	4548
2026-01-17 04:16:32.02	39.75	9.88	-47.5	-49.7	16.8	0.00e+00	0	34	0	123731968	67	4392
2026-01-17 04:16:33.03	39.64	9.95	-47.7	-49.9	16.6	0.00e+00	0	34	0	124780544	67	4501
2026-01-17 04:16:34.04	39.53	10.02	-47.5	-49.6	16.8	0.00e+00	0	34	0	126877696	66	4645
2026-01-17 04:16:35.05	39.42	10.09	-47.6	-49.7	16.7	0.00e+00	0	34	0	128974848	66	4698
2026-01-17 04:16:36.06	39.31	10.16	-47.6	-49.8	16.7	0.00e+00	0	34	0	131072000	66	4736
2026-01-17 04:16:37.06	39.20	10.23	-47.6	-49.7	16.8	0.00e+00	0	34	0	132120576	66	4669
2026-01-17 04:16:38.07	39.09	10.30	-47.6	-49.7	16.8	0.00e+00	0	34	0	134217728	66	4693
2026-01-17 04:16:39.08	38.98	10.37	-47.5	-49.6	16.8	0.00e+00	0	34	0	136314880	66	4645
2026-01-17 04:16:40.09	38.87	10.44	-47.5	-49.7	16.8	0.00e+00	0	34	0	138412032	66	4676
2026-01-17 04:16:41.10	38.76	10.51	-47.6	-49.7	16.8	0.00e+00	0	34	0	140509184	66	4671
2026-01-17 04:16:42.10	38.65	10.58	-47.6	-49.7	16.8	0.00e+00	0	34	0	142606336	66	4676
2026-01-17 04:16:43.11	38.53	10.65	-47.6	-49.7	16.8	0.00e+00	0	34	0	143654912	66	4672
2026-01-17 04:16:44.12	38.42	10.72	-47.7	-49.9	16.6	0.00e+00	0	34	0	145752064	66	4798
2026-01-17 04:16:45.13	38.30	10.80	-47.6	-49.7	16.8	0.00e+00	0	34	0	147849216	66	4691
2026-01-17 04:16:46.14	38.19	10.87	-47.7	-49.9	16.5	0.00e+00	0	34	0	149946368	66	4798
2026-01-17 04:16:47.15	38.07	10.94	-47.7	-49.9	16.6	0.00e+00	0	34	0	152043520	66	4791
2026-01-17 04:16:48.16	37.96	11.01	-47.8	-50.0	16.5	0.00e+00	0	34	0	153092096	66	4851
2026-01-17 04:16:49.17	37.84	11.08	-47.8	-50.1	16.5	0.00e+00	0	34	0	155189248	66	4873
2026-01-17 04:16:50.18	37.72	11.15	-47.8	-50.0	16.6	0.00e+00	0	34	0	157286400	66	4847
2026-01-17 04:16:51.18	37.61	11.22	-47.9	-50.1	16.5	0.00e+00	0	34	0	159383552	66	4890
2026-01-17 04:16:52.19	37.49	11.29	-47.8	-50.0	16.6	0.00e+00	0	34	0	161480704	66	4848
2026-01-17 04:16:53.20	37.37	11.37	-47.7	-49.8	16.7	0.00e+00	0	34	0	162529280	66	4752
2026-01-17 04:16:54.22	37.25	11.44	-47.8	-50.0	16.5	0.00e+00	0	34	0	164626432	66	4864
2026-01-17 04:16:55.22	37.13	11.51	-47.8	-49.9	16.6	0.00e+00	0	34	0	166723584	66	4796
2026-01-17 04:16:56.23	37.01	11.58	-47.8	-49.9	16.6	0.00e+00	0	34	0	168820736	66	4807
2026-01-17 04:16:57.24	36.89	11.65	-47.7	-49.8	16.7	0.00e+00	0	34	0	170917888	66	4743
2026-01-17 04:16:58.25	36.77	11.73	-47.7	-49.8	16.8	0.00e+00	0	34	0	171966464	66	4745
2026-01-17 04:16:59.26	36.64	11.80	-47.6	-49.7	16.9	0.00e+00	0	34	0	174063616	66	4681
2026-01-17 04:17:00.26	36.52	11.87	-47.5	-49.6	17.0	0.00e+00	0	34	0	176160768	66	4607
2026-01-17 04:17:01.27	36.40	11.94	-47.6	-49.6	16.9	0.00e+00	0	34	0	178257920	66	4648
2026-01-17 04:17:02.28	36.27	12.01	-47.5	-49.5	17.1	0.00e+00	0	34	0	180355072	66	4594
2026-01-17 04:17:03.29	36.15	12.09	-47.6	-49.6	17.0	0.00e+00	0	34	0	181403648	66	4643
2026-01-17 04:17:04.30	36.02	12.16	-47.5	-49.6	17.0	0.00e+00	0	34	0	183500800	66	4611
2026-01-17 04:17:05.30	35.90	12.23	-47.6	-49.6	17.0	0.00e+00	0	34	0	185597952	66	4640
2026-01-17 04:17:06.31	35.77	12.30	-47.5	-49.6	17.0	0.00e+00	0	34	0	187695104	66	4603
2026-01-17 04:17:07.32	35.64	12.38	-47.4	-49.5	17.1	0.00e+00	0	34	0	189792256	66	4561
2026-01-17 04:17:08.33	35.51	12.45	-47.5	-49.6	17.1	0.00e+00	0	34	0	190840832	66	4611
2026-01-17 04:17:09.34	35.38	12.52	-47.6	-49.7	17.0	0.00e+00	0	34	0	192937984	66	4655
2026-01-17 04:17:10.34	35.26	12.60	-47.4	-49.4	17.3	0.00e+00	0	34	0	195035136	66	4496
2026-01-17 04:17:11.35	35.13	12.67	-47.4	-49.4	17.2	0.00e+00	0	34	0	197132288	66	4542
2026-01-17 04:17:12.36	34.99	12.74	-47.3	-49.2	17.4	0.00e+00	0	34	0	199229440	66	4438
2026-01-17 04:17:13.37	34.86	12.82	-47.2	-49.1	17.5	0.00e+00	0	34	0	200278016	66	4382
2026-01-17 04:17:14.37	34.73	12.89	-47.1	-49.0	17.6	0.00e+00	0	34	0	202375168	66	4324
2026-01-17 04:17:15.38	34.60	12.96	-47.2	-49.1	17.6	0.00e+00	0	34	0	204472320	66	4358
2026-01-17 04:17:16.39	34.46	13.04	-47.2	-49.1	17.5	0.00e+00	0	34	0	206569472	66	4370
2026-01-17 04:17:17.40	34.33	13.11	-47.2	-49.1	17.6	0.00e+00	0	34	0	208666624	66	4351
2026-01-17 04:17:18.41	34.20	13.18	-47.1	-48.9	17.7	0.00e+00	0	34	0	209715200	66	4286
2026-01-17 04:17:19.42	34.06	13.26	-47.2	-49.1	17.5	0.00e+00	0	34	0	211812352	66	4391
2026-01-17 04:17:20.42	33.92	13.33	-47.2	-49.1	17.5	0.00e+00	0	34	0	213909504	66	4369
2026-01-17 04:17:21.43	33.79	13.40	-47.2	-49.1	17.5	0.00e+00	0	34	0	216006656	66	4375
2026-01-17 04:17:22.44	33.65	13.48	-47.2	-49.1	17.6	0.00e+00	0	34	0	218103808	66	4369
2026-01-17 04:17:23.45	33.51	13.55	-47.1	-48.9	17.8	0.00e+00	0	34	0	219152384	66	4278
2026-01-17 04:17:24.46	33.37	13.62	-47.1	-49.0	17.6	0.00e+00	0	34	0	221249536	66	4332
2026-01-17 04:17:25.47	33.23	13.70	-47.0	-48.9	17.8	0.00e+00	0	34	0	223346688	66	4257
2026-01-17 04:17:26.48	33.09	13.77	-47.1	-49.0	17.7	0.00e+00	0	34	0	225443840	65	4566
2026-01-17 04:17:27.49	32.95	13.85	-47.1	-48.9	17.8	0.00e+00	0	34	0	227540992	65	4533
2026-01-17 04:17:28.49	32.81	13.92	-47.1	-49.0	17.6	0.00e+00	0	34	0	229638144	65	4583
2026-01-17 04:17:29.50	32.67	13.99	-47.1	-48.9	17.7	0.00e+00	0	34	0	230686720	65	4521
2026-01-17 04:17:30.51	32.52	14.07	-47.0	-48.9	17.8	0.00e+00	0	34	0	232783872	65	4499
2026-01-17 04:17:31.52	32.38	14.14	-47.0	-48.8	17.9	0.00e+00	0	34	0	234881024	65	4468
2026-01-17 04:17:32.53	32.23	14.22	-46.9	-48.7	17.9	0.00e+00	0	34	0	236978176	65	4431
2026-01-17 04:17:33.54	32.09	14.29	-46.8	-48.6	18.1	0.00e+00	0	34	0	238026752	65	4368
2026-01-17 04:17:34.55	31.94	14.37	-46.8	-48.6	18.1	0.00e+00	0	34	0	240123904	65	4379
2026-01-17 04:17:35.56	31.79	14.44	-46.8	-48.6	18.1	0.00e+00	0	34	0	242221056	65	4363
2026-01-17 04:17:36.56	31.65	14.51	-46.8	-48.6	18.1	0.00e+00	0	34	0	244318208	65	4369
2026-01-17 04:17:37.57	31.50	14.59	-46.7	-48.4	18.2	0.00e+00	0	34	0	246415360	65	4269
2026-01-17 04:17:38.58	31.35	14.66	-46.7	-48.5	18.2	0.00e+00	0	34	0	248512512	65	4300
2026-01-17 04:17:39.59	31.20	14.74	-46.7	-48.4	18.3	0.00e+00	0	34	0	249561088	65	4273
2026-01-17 04:17:40.60	31.05	14.81	-46.6	-48.2	18.4	0.00e+00	0	34	0	251658240	65	4184
2026-01-17 04:17:41.61	30.90	14.89	-46.6	-48.3	18.4	0.00e+00	0	34	0	253755392	65	4215
2026-01-17 04:17:42.61	30.74	14.96	-46.7	-48.5	18.2	0.00e+00	0	34	0	255852544	65	4310
2026-01-17 04:17:43.62	30.59	15.04	-46.7	-48.5	18.2	0.00e+00	0	34	0	257949696	65	4299
2026-01-17 04:17:44.63	30.44	15.11	-46.8	-48.6	18.1	0.00e+00	0	34	0	258998272	65	4373
2026-01-17 04:17:45.64	30.28	15.19	-46.8	-48.6	18.1	0.00e+00	0	34	0	261095424	65	4373
2026-01-17 04:17:46.64	30.13	15.26	-46.9	-48.7	18.0	0.00e+00	0	34	0	263192576	65	4402
2026-01-17 04:17:47.65	29.97	15.33	-46.9	-48.7	18.0	0.00e+00	0	34	0	265289728	65	4419
2026-01-17 04:17:48.66	29.81	15.41	-47.0	-48.8	17.9	0.00e+00	0	34	0	266338304	65	4457
2026-01-17 04:17:49.67	29.65	15.48	-46.9	-48.7	18.1	0.00e+00	0	34	0	268435456	65	4399
2026-01-17 04:17:50.68	29.50	15.56	-47.0	-48.8	17.9	0.00e+00	0	34	0	270532608	65	4482
2026-01-17 04:17:51.69	29.34	15.63	-47.1	-49.0	17.8	0.00e+00	0	34	0	272629760	65	4546
2026-01-17 04:17:52.70	29.18	15.71	-47.1	-48.9	17.8	0.00e+00	0	34	0	274726912	65	4528
2026-01-17 04:17:53.71	29.01	15.78	-47.0	-48.9	17.8	0.00e+00	0	34	0	276824064	65	4512
2026-01-17 04:17:54.72	28.85	15.86	-47.0	-48.8	17.9	0.00e+00	0	34	0	277872640	65	4467
2026-01-17 04:17:55.72	28.69	15.93	-47.0	-48.9	17.8	0.00e+00	0	34	0	279969792	65	4508
2026-01-17 04:17:56.73	28.53	16.01	-47.1	-48.9	17.9	0.00e+00	0	34	0	282066944	65	4507
2026-01-17 04:17:57.74	28.36	16.08	-47.1	-48.9	17.8	0.00e+00	0	34	0	284164096	65	4533
2026-01-17 04:17:58.75	28.20	16.16	-47.0	-48.9	17.8	0.00e+00	0	34	0	286261248	65	4497
2026-01-17 04:17:59.76	28.03	16.23	-47.1	-49.0	17.7	0.00e+00	0	34	0	287309824	65	4566
2026-01-17 04:18:00.77	27.86	16.31	-47.2	-49.1	17.6	0.00e+00	0	34	0	289406976	65	4650
2026-01-17 04:18:01.78	27.69	16.38	-47.3	-49.2	17.5	0.00e+00	0	34	0	291504128	65	4695
2026-01-17 04:18:02.78	27.53	16.45	-47.3	-49.2	17.6	0.00e+00	0	34	0	293601280	65	4653
2026-01-17 04:18:03.79	27.36	16.53	-47.2	-49.1	17.7	0.00e+00	0	34	0	295698432	65	4599
2026-01-17 04:18:04.80	27.19	16.60	-47.2	-49.1	17.7	0.00e+00	0	34	0	296747008	65	4620
2026-01-17 04:18:05.81	27.01	16.68	-47.2	-49.1	17.6	0.00e+00	0	34	0	298844160	65	4645
2026-01-17 04:18:06.82	26.84	16.75	-47.2	-49.1	17.7	0.00e+00	0	34	0	300941312	65	4608
2026-01-17 04:18:07.83	26.67	16.83	-47.2	-49.1	17.7	0.00e+00	0	34	0	303038464	65	4600
2026-01-17 04:18:08.84	26.49	16.90	-47.2	-49.0	17.7	0.00e+00	0	34	0	305135616	65	4597
2026-01-17 04:18:09.84	26.32	16.97	-47.3	-49.2	17.5	0.00e+00	0	34	0	306184192	65	4699
2026-01-17 04:18:10.85	26.15	17.05	-47.4	-49.3	17.5	0.00e+00	0	34	0	308281344	65	4728
2026-01-17 04:18:11.86	25.97	17.12	-47.3	-49.2	17.5	0.00e+00	0	34	0	310378496	65	4687
2026-01-17 04:18:12.87	25.79	17.20	-47.4	-49.4	17.4	0.00e+00	0	34	0	312475648	65	4777
2026-01-17 04:18:13.88	25.61	17.27	-47.3	-49.2	17.5	0.00e+00	0	34	0	314572800	65	4704
2026-01-17 04:18:14.88	25.43	17.34	-47.4	-49.4	17.4	0.00e+00	0	34	0	316669952	65	4761
2026-01-17 04:18:15.89	25.25	17.42	-47.5	-49.4	17.3	0.00e+00	0	34	0	317718528	65	4814
2026-01-17 04:18:16.90	25.07	17.49	-47.3	-49.2	17.5	0.00e+00	0	34	0	319815680	65	4694
2026-01-17 04:18:17.91	24.89	17.57	-47.4	-49.4	17.4	0.00e+00	0	34	0	321912832	65	4763
2026-01-17 04:18:18.92	24.71	17.64	-47.5	-49.5	17.2	0.00e+00	0	34	0	324009984	65	4861
2026-01-17 04:18:19.92	24.53	17.71	-47.4	-49.4	17.4	0.00e+00	0	34	0	325058560	65	4769
2026-01-17 04:18:20.94	24.34	17.79	-47.3	-49.2	17.6	0.00e+00	0	34	0	327155712	65	4680
2026-01-17 04:18:21.94	24.16	17.86	-47.4	-49.3	17.5	0.00e+00	0	34	0	329252864	65	4733
2026-01-17 04:18:22.95	23.97	17.93	-47.3	-49.2	17.6	0.00e+00	0	34	0	331350016	65	4663
2026-01-17 04:18:23.96	23.78	18.01	-47.2	-49.1	17.6	0.00e+00	0	34	0	333447168	65	4631
2026-01-17 04:18:24.97	23.59	18.08	-47.3	-49.2	17.6	0.00e+00	0	34	0	334495744	65	4684
2026-01-17 04:18:25.98	23.40	18.15	-47.2	-49.0	17.8	0.00e+00	0	34	0	336592896	65	4588
2026-01-17 04:18:26.98	23.21	18.23	-47.2	-49.1	17.7	0.00e+00	0	34	0	338690048	65	4632
2026-01-17 04:18:27.99	23.02	18.30	-47.3	-49.1	17.7	0.00e+00	0	34	0	340787200	65	4643
2026-01-17 04:18:29.00	22.83	18.37	-47.2	-49.1	17.7	0.00e+00	0	34	0	342884352	65	4632
2026-01-17 04:18:30.01	22.64	18.44	-47.2	-49.1	17.7	0.00e+00	0	34	0	344981504	65	4618
2026-01-17 04:18:31.02	22.44	18.52	-47.2	-49.0	17.8	0.00e+00	0	34	0	346030080	65	4573
2026-01-17 04:18:32.02	22.25	18.59	-47.1	-49.0	17.8	0.00e+00	0	34	0	348127232	65	4566
2026-01-17 04:18:33.03	22.05	18.66	-47.1	-48.9	17.9	0.00e+00	0	34	0	350224384	65	4531
2026-01-17 04:18:34.04	21.86	18.73	-47.0	-48.8	18.0	0.00e+00	0	34	0	352321536	65	4473
2026-01-17 04:18:35.05	21.66	18.80	-47.0	-48.7	18.1	0.00e+00	0	34	0	353370112	65	4433
2026-01-17 04:18:36.06	21.46	18.88	-46.9	-48.7	18.1	0.00e+00	0	34	0	355467264	65	4401
2026-01-17 04:18:37.06	21.26	18.95	-46.9	-48.7	18.2	0.00e+00	0	34	0	357564416	65	4398
2026-01-17 04:18:38.07	21.06	19.02	-46.7	-48.4	18.4	0.00e+00	0	34	0	359661568	65	4289
2026-01-17 04:18:39.08	20.86	19.09	-46.7	-48.4	18.4	0.00e+00	0	34	0	361758720	65	4280
2026-01-17 04:18:40.09	20.66	19.16	-46.7	-48.4	18.5	0.00e+00	0	34	0	363855872	65	4247
2026-01-17 04:18:41.10	20.45	19.23	-46.4	-48.0	18.9	0.00e+00	0	34	0	364904448	64	4295
2026-01-17 04:18:42.10	20.25	19.30	-46.3	-47.9	19.0	0.00e+00	0	34	0	367001600	64	4248
2026-01-17 04:18:43.11	20.05	19.37	-46.3	-47.9	18.9	0.00e+00	0	34	0	369098752	64	4270
2026-01-17 04:18:44.12	19.84	19.44	-46.1	-47.6	19.2	0.00e+00	0	34	0	371195904	64	4145
2026-01-17 04:18:45.13	19.63	19.51	-46.1	-47.6	19.2	0.00e+00	0	34	0	373293056	64	4121
2026-01-17 04:18:46.14	19.42	19.58	-46.0	-47.5	19.4	0.00e+00	0	34	0	374341632	63	4328
2026-01-17 04:18:47.14	19.22	19.65	-45.8	-47.2	19.7	0.00e+00	0	34	0	376438784	63	4191
2026-01-17 04:18:48.15	19.01	19.72	-45.7	-47.1	19.8	0.00e+00	0	34	0	378535936	63	4120
2026-01-17 04:18:49.16	18.80	19.79	-45.7	-47.1	19.7	0.00e+00	0	34	0	380633088	63	4145
2026-01-17 04:18:50.17	18.58	19.86	-45.6	-47.0	20.0	0.00e+00	0	34	0	381681664	63	4057
2026-01-17 04:18:51.18	18.37	19.93	-45.6	-47.0	19.9	0.00e+00	0	34	0	383778816	63	4095
2026-01-17 04:18:52.18	18.16	20.00	-45.6	-47.0	19.9	0.00e+00	0	34	0	385875968	63	4069
2026-01-17 04:18:53.19	17.94	20.07	-45.6	-47.0	19.9	0.00e+00	0	34	0	387973120	63	4080
2026-01-17 04:18:54.20	17.73	20.13	-45.6	-47.0	19.9	0.00e+00	0	34	0	390070272	63	4054
2026-01-17 04:18:55.21	17.51	20.20	-45.4	-46.8	20.1	0.00e+00	0	34	0	392167424	62	4206
2026-01-17 04:18:56.22	17.29	20.27	-45.5	-46.9	20.0	0.00e+00	0	34	0	393216000	62	4252
2026-01-17 04:18:57.23	17.07	20.34	-45.5	-46.8	20.1	0.00e+00	0	34	0	395313152	62	4221
2026-01-17 04:18:58.24	16.85	20.40	-45.5	-46.9	20.1	0.00e+00	0	34	0	397410304	62	4252
2026-01-17 04:18:59.24	16.63	20.47	-45.4	-46.8	20.1	0.00e+00	0	34	0	399507456	62	4219
2026-01-17 04:19:00.25	16.41	20.54	-45.4	-46.7	20.3	0.00e+00	0	34	0	401604608	62	4159
2026-01-17 04:19:01.26	16.19	20.60	-45.3	-46.6	20.3	0.00e+00	0	34	0	402653184	62	4126
2026-01-17 04:19:02.27	15.96	20.67	-45.3	-46.6	20.3	0.00e+00	0	34	0	404750336	62	4129
2026-01-17 04:19:03.28	15.74	20.74	-45.3	-46.6	20.3	0.00e+00	0	34	0	406847488	62	4111
2026-01-17 04:19:04.29	15.51	20.80	-45.2	-46.5	20.4	0.00e+00	0	34	0	408944640	62	4075
2026-01-17 04:19:05.29	15.29	20.87	-45.2	-46.5	20.4	0.00e+00	0	34	0	411041792	62	4088
2026-01-17 04:19:06.30	15.06	20.93	-45.2	-46.4	20.5	0.00e+00	0	34	0	412090368	62	4043
2026-01-17 04:19:07.31	14.83	20.99	-45.1	-46.4	20.5	0.00e+00	0	34	0	414187520	62	4028
2026-01-17 04:19:08.32	14.60	21.06	-45.1	-46.3	20.6	0.00e+00	0	34	0	416284672	62	4000
2026-01-17 04:19:09.32	14.37	21.12	-45.0	-46.3	20.6	0.00e+00	0	34	0	418381824	61	4216
2026-01-17 04:19:10.33	14.14	21.19	-45.0	-46.2	20.7	0.00e+00	0	34	0	420478976	61	4193
2026-01-17 04:19:11.34	13.91	21.25	-45.0	-46.3	20.6	0.00e+00	0	34	0	421527552	61	4205
2026-01-17 04:19:12.35	13.68	21.31	-45.1	-46.4	20.5	0.00e+00	0	34	0	423624704	61	4284
2026-01-17 04:19:13.36	13.44	21.37	-45.1	-46.4	20.5	0.00e+00	0	34	0	425721856	61	4261
2026-01-17 04:19:14.36	13.21	21.44	-45.0	-46.3	20.6	0.00e+00	0	34	0	427819008	61	4205
2026-01-17 04:19:15.37	12.97	21.50	-45.1	-46.3	20.6	0.00e+00	0	34	0	429916160	61	4229
2026-01-17 04:19:16.38	12.73	21.56	-45.1	-46.4	20.6	0.00e+00	0	34	0	432013312	61	4249
2026-01-17 04:19:17.39	12.50	21.62	-45.2	-46.5	20.5	0.00e+00	0	34	0	433061888	61	4294
2026-01-17 04:19:18.40	12.26	21.68	-45.3	-46.7	20.3	0.00e+00	0	34	0	435159040	61	4402
2026-01-17 04:19:19.41	12.02	21.74	-45.5	-46.8	20.2	0.00e+00	0	34	0	437256192	61	4464
2026-01-17 04:19:20.42	11.78	21.80	-45.4	-46.7	20.2	0.00e+00	0	34	0	439353344	61	4441
2026-01-17 04:19:21.43	11.53	21.86	-45.2	-46.5	20.4	0.00e+00	0	34	0	440401920	61	4327
2026-01-17 04:19:22.44	11.29	21.92	-45.1	-46.4	20.5	0.00e+00	0	34	0	442499072	61	4271
2026-01-17 04:19:23.44	11.05	21.98	-45.1	-46.4	20.5	0.00e+00	0	34	0	444596224	61	4277
2026-01-17 04:19:24.45	10.80	22.04	-45.3	-46.6	20.4	0.00e+00	0	34	0	446693376	61	4358
2026-01-17 04:19:25.46	10.56	22.09	-45.4	-46.7	20.3	0.00e+00	0	34	0	448790528	61	4408
2026-01-17 04:19:26.47	10.31	22.15	-45.4	-46.7	20.3	0.00e+00	0	34	0	449839104	61	4399
2026-01-17 04:19:27.48	10.06	22.21	-45.3	-46.6	20.4	0.00e+00	0	34	0	451936256	61	4355
2026-01-17 04:19:28.49	9.82	22.26	-45.5	-46.8	20.2	0.00e+00	0	34	0	454033408	61	4468
2026-01-17 04:19:29.50	9.57	22.32	-45.3	-46.6	20.3	0.00e+00	0	34	0	456130560	61	4365
2026-01-17 04:19:30.51	9.32	22.38	-45.3	-46.6	20.3	0.00e+00	0	34	0	458227712	61	4388
2026-01-17 04:19:31.51	9.07	22.43	-45.2	-46.5	20.4	0.00e+00	0	34	0	460324864	61	4330
2026-01-17 04:19:32.52	8.81	22.49	-45.0	-46.2	20.7	0.00e+00	0	34	0	461373440	61	4167
2026-01-17 04:19:33.53	8.56	22.54	-44.9	-46.1	20.8	0.00e+00	0	34	0	463470592	61	4133
2026-01-17 04:19:34.54	8.31	22.59	-44.9	-46.1	20.9	0.00e+00	0	34	0	465567744	61	4126
2026-01-17 04:19:35.54	8.05	22.65	-44.9	-46.1	20.8	0.00e+00	0	34	0	467664896	61	4119
2026-01-17 04:19:36.55	7.80	22.70	-45.0	-46.3	20.7	0.00e+00	0	34	0	468713472	61	4203
2026-01-17 04:19:37.56	7.54	22.75	-45.1	-46.4	20.6	0.00e+00	0	34	0	470810624	61	4249
2026-01-17 04:19:38.57	7.28	22.80	-45.0	-46.2	20.7	0.00e+00	0	34	0	472907776	61	4178
2026-01-17 04:19:39.58	7.03	22.85	-45.0	-46.2	20.7	0.00e+00	0	34	0	475004928	61	4190
2026-01-17 04:19:40.59	6.77	22.90	-44.9	-46.2	20.8	0.00e+00	0	34	0	477102080	61	4154
2026-01-17 04:19:41.60	6.51	22.95	-44.9	-46.1	20.9	0.00e+00	0	34	0	479199232	61	4122
2026-01-17 04:19:42.60	6.25	23.00	-44.9	-46.2	20.8	0.00e+00	0	34	0	480247808	61	4154
2026-01-17 04:19:43.61	5.99	23.05	-44.8	-46.1	20.9	0.00e+00	0	34	0	482344960	61	4104
2026-01-17 04:19:44.62	5.72	23.10	-44.7	-45.9	21.0	0.00e+00	0	34	0	484442112	61	4043
2026-01-17 04:19:45.63	5.46	23.15	-44.6	-45.8	21.1	0.00e+00	0	34	0	486539264	61	4000
2026-01-17 04:19:46.64	5.20	23.19	-44.5	-45.7	21.3	0.00e+00	0	34	0	488636416	61	3916
2026-01-17 04:19:47.64	4.94	23.24	-44.5	-45.6	21.3	0.00e+00	0	34	0	489684992	60	4142
2026-01-17 04:19:48.65	4.67	23.29	-44.6	-45.8	21.2	0.00e+00	0	34	0	491782144	60	4203
2026-01-17 04:19:49.66	4.40	23.33	-44.6	-45.8	21.1	0.00e+00	0	34	0	493879296	60	4226
2026-01-17 04:19:50.67	4.14	23.38	-44.6	-45.8	21.2	0.00e+00	0	34	0	495976448	60	4198
2026-01-17 04:19:51.68	3.87	23.42	-44.8	-46.0	21.0	0.00e+00	0	34	0	498073600	60	4307
2026-01-17 04:19:52.69	3.60	23.47	-44.7	-45.9	21.0	0.00e+00	0	34	0	499122176	60	4271
2026-01-17 04:19:53.70	3.33	23.51	-44.8	-46.1	20.9	0.00e+00	0	34	0	501219328	60	4351
2026-01-17 04:19:54.71	3.06	23.55	-44.9	-46.2	20.8	0.00e+00	0	34	0	503316480	60	4405
2026-01-17 04:19:55.71	2.79	23.59	-45.2	-46.5	20.5	0.00e+00	0	34	0	505413632	60	4551
2026-01-17 04:19:56.72	2.52	23.63	-45.2	-46.5	20.4	0.00e+00	0	34	0	507510784	61	4334
2026-01-17 04:19:57.73	2.25	23.67	-45.2	-46.5	20.5	0.00e+00	0	34	0	508559360	61	4327
2026-01-17 04:19:58.74	1.97	23.71	-45.2	-46.4	20.5	0.00e+00	0	34	0	510656512	61	4284
2026-01-17 04:19:59.74	1.70	23.75	-45.1	-46.3	20.6	0.00e+00	0	34	0	512753664	61	4241
2026-01-17 04:20:00.75	1.43	23.79	-45.1	-46.4	20.6	0.00e+00	0	34	0	514850816	61	4264
2026-01-17 04:20:01.76	1.15	23.83	-45.3	-46.6	20.4	0.00e+00	0	34	0	516947968	61	4355
2026-01-17 04:20:02.77	0.88	23.87	-45.4	-46.7	20.2	0.00e+00	0	34	0	517996544	61	4418
2026-01-17 04:20:03.77	0.60	23.90	-45.5	-46.9	20.2	0.00e+00	0	34	0	520093696	61	4507
2026-01-17 04:20:04.78	0.32	23.94	-45.5	-46.9	20.2	0.00e+00	0	34	0	522190848	61	4508
2026-01-17 04:20:05.79	0.05	23.97	-45.6	-47.0	20.0	0.00e+00	0	34	0	524288000	61	4577
2026-01-17 04:20:06.80	359.77	24.01	-45.6	-46.9	20.1	0.00e+00	0	34	0	526385152	61	4543
2026-01-17 04:20:07.80	359.49	24.04	-45.8	-47.2	19.8	0.00e+00	0	34	0	527433728	62	4433
2026-01-17 04:20:08.81	359.21	24.08	-46.1	-47.5	19.5	0.00e+00	0	34	0	529530880	62	4590
2026-01-17 04:20:09.82	358.93	24.11	-46.2	-47.7	19.4	0.00e+00	0	34	0	531628032	62	4678
2026-01-17 04:20:10.83	358.65	24.14	-46.3	-47.8	19.3	0.00e+00	0	34	0	533725184	63	4466
2026-01-17 04:20:11.84	358.37	24.17	-46.1	-47.6	19.5	0.00e+00	0	34	0	535822336	63	4354
2026-01-17 04:20:12.84	358.09	24.20	-46.2	-47.6	19.4	0.00e+00	0	34	0	536870912	63	4388
2026-01-17 04:20:13.85	357.81	24.23	-46.1	-47.5	19.5	0.00e+00	0	34	0	538968064	63	4331
2026-01-17 04:20:14.86	357.53	24.26	-46.3	-47.8	19.3	0.00e+00	0	34	0	541065216	63	4444
2026-01-17 04:20:15.87	357.24	24.29	-46.4	-48.0	19.1	0.00e+00	0	34	0	543162368	63	4576
2026-01-17 04:20:16.88	356.96	24.32	-46.6	-48.2	18.9	0.00e+00	0	34	0	545259520	63	4653
2026-01-17 04:20:17.88	356.68	24.34	-46.6	-48.1	18.9	0.00e+00	0	34	0	546308096	63	4646
2026-01-17 04:20:18.89	356.39	24.37	-46.4	-48.0	19.1	0.00e+00	0	34	0	548405248	63	4550
2026-01-17 04:20:19.90	356.11	24.39	-46.4	-48.0	19.1	0.00e+00	0	34	0	550502400	63	4550
2026-01-17 04:20:20.91	355.82	24.42	-46.4	-47.9	19.1	0.00e+00	0	34	0	552599552	63	4540
2026-01-17 04:20:21.92	355.53	24.44	-46.6	-48.2	18.9	0.00e+00	0	34	0	554696704	63	4674
2026-01-17 04:20:22.92	355.25	24.46	-46.7	-48.3	18.7	0.00e+00	0	34	0	555745280	64	4474
2026-01-17 04:20:23.94	354.96	24.49	-46.7	-48.4	18.6	0.00e+00	0	34	0	557842432	64	4523
2026-01-17 04:20:24.94	354.67	24.51	-46.7	-48.4	18.6	0.00e+00	0	34	0	559939584	64	4512
2026-01-17 04:20:25.95	354.39	24.53	-46.6	-48.2	18.8	0.00e+00	0	34	0	562036736	64	4410
2026-01-17 04:20:26.96	354.10	24.55	-46.7	-48.3	18.7	0.00e+00	0	34	0	564133888	64	4471
2026-01-17 04:20:27.97	353.81	24.57	-46.8	-48.5	18.5	0.00e+00	0	34	0	566231040	64	4561
2026-01-17 04:20:28.98	353.52	24.59	-46.9	-48.6	18.4	0.00e+00	0	34	0	567279616	64	4607
2026-01-17 04:20:29.99	353.23	24.60	-47.0	-48.8	18.3	0.00e+00	0	34	0	569376768	64	4708
2026-01-17 04:20:31.00	352.94	24.62	-46.9	-48.6	18.4	0.00e+00	0	34	0	571473920	64	4628
2026-01-17 04:20:32.01	352.65	24.64	-46.8	-48.5	18.5	0.00e+00	0	34	0	573571072	64	4573
2026-01-17 04:20:33.01	352.36	24.65	-46.7	-48.3	18.7	0.00e+00	0	34	0	574619648	64	4492
2026-01-17 04:20:34.02	352.07	24.67	-46.6	-48.1	18.9	0.00e+00	0	34	0	576716800	64	4389
2026-01-17 04:20:35.03	351.78	24.68	-46.5	-48.1	18.9	0.00e+00	0	34	0	578813952	64	4355
2026-01-17 04:20:36.04	351.49	24.69	-46.4	-48.0	19.0	0.00e+00	0	34	0	580911104	64	4297
2026-01-17 04:20:37.05	351.20	24.70	-46.5	-48.0	19.0	0.00e+00	0	34	0	583008256	64	4326
2026-01-17 04:20:38.06	350.91	24.72	-46.5	-48.1	18.9	0.00e+00	0	34	0	584056832	64	4353
2026-01-17 04:20:39.06	350.62	24.73	-46.6	-48.2	18.8	0.00e+00	0	34	0	586153984	64	4435
2026-01-17 04:20:40.07	350.33	24.74	-46.7	-48.4	18.7	0.00e+00	0	34	0	588251136	64	4513
2026-01-17 04:20:41.08	350.03	24.74	-46.7	-48.4	18.7	0.00e+00	0	34	0	590348288	64	4507
2026-01-17 04:20:42.09	349.74	24.75	-46.8	-48.4	18.6	0.00e+00	0	34	0	592445440	64	4523
2026-01-17 04:20:43.10	349.45	24.76	-46.8	-48.5	18.6	0.00e+00	0	34	0	594542592	64	4549
2026-01-17 04:20:44.10	349.16	24.77	-46.8	-48.4	18.6	0.00e+00	0	34	0	595591168	64	4534
2026-01-17 04:20:45.11	348.87	24.77	-46.8	-48.5	18.5	0.00e+00	0	34	0	597688320	64	4574
2026-01-17 04:20:46.12	348.57	24.78	-46.7	-48.3	18.7	0.00e+00	0	34	0	599785472	64	4466
2026-01-17 04:20:47.13	348.28	24.78	-46.6	-48.2	18.9	0.00e+00	0	34	0	601882624	64	4404
2026-01-17 04:20:48.14	347.99	24.78	-46.6	-48.2	18.9	0.00e+00	0	34	0	602931200	64	4397
2026-01-17 04:20:49.15	347.69	24.79	-46.5	-48.1	19.0	0.00e+00	0	34	0	605028352	64	4342
2026-01-17 04:20:50.16	347.40	24.79	-46.2	-47.7	19.3	0.00e+00	0	34	0	607125504	64	4189
2026-01-17 04:20:51.16	347.11	24.79	-46.2	-47.7	19.3	0.00e+00	0	34	0	609222656	64	4190
2026-01-17 04:20:52.17	346.82	24.79	-46.2	-47.7	19.3	0.00e+00	0	34	0	611319808	64	4166
2026-01-17 04:20:53.18	346.53	24.79	-46.3	-47.8	19.2	0.00e+00	0	34	0	613416960	64	4236
2026-01-17 04:20:54.19	346.23	24.78	-46.3	-47.8	19.2	0.00e+00	0	34	0	614465536	64	4219
2026-01-17 04:20:55.20	345.94	24.78	-46.1	-47.5	19.5	0.00e+00	0	34	0	616562688	64	4086
2026-01-17 04:20:56.21	345.65	24.78	-46.1	-47.5	19.6	0.00e+00	0	34	0	618659840	63	4320
2026-01-17 04:20:57.21	345.36	24.77	-45.9	-47.3	19.8	0.00e+00	0	34	0	620756992	63	4220
2026-01-17 04:20:58.22	345.06	24.77	-45.9	-47.4	19.7	0.00e+00	0	34	0	622854144	63	4254
2026-01-17 04:20:59.23	344.77	24.76	-45.7	-47.1	20.0	0.00e+00	0	34	0	623902720	63	4112
2026-01-17 04:21:00.24	344.48	24.76	-45.8	-47.2	19.9	0.00e+00	0	34	0	625999872	63	4180
2026-01-17 04:21:01.24	344.19	24.75	-45.8	-47.2	19.9	0.00e+00	0	34	0	628097024	63	4149
2026-01-17 04:21:02.25	343.90	24.74	-45.7	-47.1	20.0	0.00e+00	0	34	0	630194176	63	4109
2026-01-17 04:21:03.26	343.60	24.73	-45.7	-47.0	20.1	0.00e+00	0	34	0	631242752	63	4083
2026-01-17 04:21:04.27	343.31	24.72	-45.7	-47.1	20.0	0.00e+00	0	34	0	633339904	63	4104
2026-01-17 04:21:05.28	343.02	24.71	-45.3	-46.6	20.5	0.00e+00	0	34	0	635437056	62	4123
2026-01-17 04:21:06.29	342.73	24.70	-45.2	-46.4	20.6	0.00e+00	0	34	0	637534208	62	4043
2026-01-17 04:21:07.30	342.44	24.69	-45.2	-46.5	20.6	0.00e+00	0	34	0	639631360	62	4058
2026-01-17 04:21:08.31	342.15	24.67	-45.1	-46.4	20.7	0.00e+00	0	34	0	641728512	62	4010
2026-01-17 04:21:09.31	341.86	24.66	-45.0	-46.2	20.8	0.00e+00	0	34	0	642777088	62	3956
2026-01-17 04:21:10.32	341.57	24.65	-44.9	-46.2	20.9	0.00e+00	0	34	0	644874240	61	4152
2026-01-17 04:21:11.33	341.28	24.63	-44.9	-46.1	20.9	0.00e+00	0	34	0	646971392	61	4110
2026-01-17 04:21:12.34	340.99	24.61	-44.7	-45.9	21.1	0.00e+00	0	34	0	649068544	61	4038
2026-01-17 04:21:13.35	340.70	24.60	-44.7	-45.9	21.1	0.00e+00	0	34	0	651165696	61	4017
2026-01-17 04:21:14.36	340.41	24.58	-44.8	-46.0	21.0	0.00e+00	0	34	0	652214272	61	4075
2026-01-17 04:21:15.37	340.12	24.56	-44.8	-46.0	21.0	0.00e+00	0	34	0	654311424	61	4063
2026-01-17 04:21:16.38	339.83	24.54	-44.7	-45.9	21.1	0.00e+00	0	34	0	656408576	61	4042
2026-01-17 04:21:17.39	339.54	24.52	-44.7	-45.9	21.1	0.00e+00	0	34	0	658505728	61	4030
2026-01-17 04:21:18.40	339.25	24.50	-44.6	-45.7	21.3	0.00e+00	0	34	0	660602880	61	3946
2026-01-17 04:21:19.41	338.97	24.48	-44.5	-45.6	21.3	0.00e+00	0	34	0	661651456	60	4128
2026-01-17 04:21:20.42	338.68	24.45	-44.4	-45.6	21.4	0.00e+00	0	34	0	663748608	60	4109
2026-01-17 04:21:21.43	338.39	24.43	-44.5	-45.7	21.4	0.00e+00	0	34	0	665845760	60	4148
2026-01-17 04:21:22.44	338.11	24.41	-44.4	-45.6	21.4	0.00e+00	0	34	0	667942912	60	4103
2026-01-17 04:21:23.45	337.82	24.38	-44.4	-45.6	21.4	0.00e+00	0	34	0	670040064	60	4116
2026-01-17 04:21:24.46	337.54	24.36	-44.3	-45.5	21.5	0.00e+00	0	34	0	671088640	60	4057
2026-01-17 04:21:25.46	337.25	24.33	-44.3	-45.5	21.5	0.00e+00	0	34	0	673185792	60	4066
2026-01-17 04:21:26.47	336.97	24.30	-44.5	-45.6	21.2	0.00e+00	0	34	0	675282944	60	4143
2026-01-17 04:21:27.48	336.69	24.28	-44.5	-45.7	21.3	0.00e+00	0	34	0	677380096	60	4158
2026-01-17 04:21:28.49	336.40	24.25	-44.6	-45.7	21.2	0.00e+00	0	34	0	679477248	60	4189
2026-01-17 04:21:29.50	336.12	24.22	-44.6	-45.8	21.2	0.00e+00	0	34	0	681574400	60	4212
2026-01-17 04:21:30.51	335.84	24.19	-44.7	-45.9	21.2	0.00e+00	0	34	0	682622976	60	4253
2026-01-17 04:21:31.52	335.55	24.16	-44.6	-45.8	21.2	0.00e+00	0	34	0	684720128	60	4226
2026-01-17 04:21:32.52	335.28	24.13	-44.7	-45.9	21.1	0.00e+00	0	34	0	686817280	60	4285
2026-01-17 04:21:33.53	335.00	24.09	-44.8	-46.0	21.0	0.00e+00	0	34	0	688914432	60	4302
2026-01-17 04:21:34.54	334.72	24.06	-44.9	-46.1	20.9	0.00e+00	0	34	0	689963008	60	4376
2026-01-17 04:21:35.55	334.44	24.03	-44.8	-46.1	21.0	0.00e+00	0	34	0	692060160	60	4351
2026-01-17 04:21:36.56	334.16	23.99	-44.9	-46.2	20.8	0.00e+00	0	34	0	694157312	60	4400
2026-01-17 04:21:37.56	333.88	23.96	-45.1	-46.3	20.7	0.00e+00	0	34	0	696254464	60	4489
2026-01-17 04:21:38.57	333.60	23.92	-45.1	-46.4	20.6	0.00e+00	0	34	0	698351616	60	4517
2026-01-17 04:21:39.58	333.33	23.89	-45.2	-46.5	20.5	0.00e+00	0	34	0	700448768	61	4321
2026-01-17 04:21:40.59	333.05	23.85	-45.2	-46.5	20.5	0.00e+00	0	34	0	701497344	61	4313
2026-01-17 04:21:41.60	332.77	23.81	-45.2	-46.5	20.5	0.00e+00	0	34	0	703594496	61	4297
2026-01-17 04:21:42.61	332.50	23.77	-45.3	-46.6	20.4	0.00e+00	0	34	0	705691648	61	4374
2026-01-17 04:21:43.62	332.23	23.74	-45.4	-46.8	20.3	0.00e+00	0	34	0	707788800	61	4444
2026-01-17 04:21:44.63	331.95	23.70	-45.5	-46.8	20.2	0.00e+00	0	34	0	709885952	61	4473
2026-01-17 04:21:45.64	331.68	23.66	-45.6	-46.9	20.2	0.00e+00	0	34	0	710934528	61	4521
2026-01-17 04:21:46.64	331.41	23.61	-45.7	-47.0	20.0	0.00e+00	0	34	0	713031680	61	4591
2026-01-17 04:21:47.65	331.14	23.57	-45.7	-47.0	20.1	0.00e+00	0	34	0	715128832	61	4580
2026-01-17 04:21:48.66	330.87	23.53	-45.6	-47.0	20.1	0.00e+00	0	34	0	717225984	62	4305
2026-01-17 04:21:49.67	330.60	23.49	-45.8	-47.2	19.9	0.00e+00	0	34	0	719323136	62	4398
2026-01-17 04:21:50.68	330.33	23.45	-45.9	-47.3	19.8	0.00e+00	0	34	0	720371712	62	4465
2026-01-17 04:21:51.69	330.06	23.40	-45.9	-47.3	19.8	0.00e+00	0	34	0	722468864	62	4446
2026-01-17 04:21:52.70	329.79	23.36	-45.9	-47.3	19.8	0.00e+00	0	34	0	724566016	62	4464
2026-01-17 04:21:53.70	329.53	23.31	-46.0	-47.4	19.7	0.00e+00	0	34	0	726663168	62	4538
2026-01-17 04:21:54.71	329.26	23.27	-46.1	-47.6	19.5	0.00e+00	0	34	0	728760320	62	4603
2026-01-17 04:21:55.72	329.00	23.22	-46.1	-47.6	19.5	0.00e+00	0	34	0	729808896	62	4615
2026-01-17 04:21:56.73	328.73	23.17	-46.3	-47.8	19.4	0.00e+00	0	34	0	731906048	63	4450
2026-01-17 04:21:57.74	328.47	23.13	-46.2	-47.7	19.4	0.00e+00	0	34	0	734003200	63	4412
2026-01-17 04:21:58.75	328.20	23.08	-46.2	-47.7	19.4	0.00e+00	0	34	0	736100352	63	4392
2026-01-17 04:21:59.76	327.94	23.03	-46.2	-47.7	19.4	0.00e+00	0	34	0	738197504	63	4403
2026-01-17 04:22:00.76	327.68	22.98	-46.1	-47.6	19.5	0.00e+00	0	34	0	739246080	63	4365
2026-01-17 04:22:01.77	327.42	22.93	-46.2	-47.6	19.5	0.00e+00	0	34	0	741343232	63	4372
2026-01-17 04:22:02.78	327.16	22.88	-46.2	-47.7	19.4	0.00e+00	0	34	0	743440384	63	4417
2026-01-17 04:22:03.79	326.90	22.83	-46.3	-47.8	19.3	0.00e+00	0	34	0	745537536	63	4455
2026-01-17 04:22:04.80	326.65	22.78	-46.4	-48.0	19.1	0.00e+00	0	34	0	747634688	63	4553
2026-01-17 04:22:05.80	326.39	22.73	-46.6	-48.2	19.0	0.00e+00	0	34	0	748683264	63	4655
2026-01-17 04:22:06.81	326.13	22.67	-46.7	-48.3	18.8	0.00e+00	0	34	0	750780416	63	4739
2026-01-17 04:22:07.82	325.88	22.62	-46.7	-48.3	18.7	0.00e+00	0	34	0	752877568	64	4468
2026-01-17 04:22:08.83	325.62	22.57	-46.7	-48.3	18.7	0.00e+00	0	34	0	754974720	64	4459
2026-01-17 04:22:09.84	325.37	22.51	-46.7	-48.4	18.6	0.00e+00	0	34	0	757071872	64	4518
2026-01-17 04:22:10.85	325.12	22.46	-46.7	-48.4	18.6	0.00e+00	0	34	0	758120448	64	4505
2026-01-17 04:22:11.86	324.87	22.40	-46.6	-48.2	18.8	0.00e+00	0	34	0	760217600	64	4416
2026-01-17 04:22:12.86	324.62	22.35	-46.4	-48.0	19.0	0.00e+00	0	34	0	762314752	64	4298
2026-01-17 04:22:13.87	324.37	22.29	-46.3	-47.9	19.1	0.00e+00	0	34	0	764411904	64	4260
2026-01-17 04:22:14.88	324.12	22.24	-46.3	-47.8	19.3	0.00e+00	0	34	0	766509056	64	4204
2026-01-17 04:22:15.89	323.87	22.18	-46.3	-47.8	19.3	0.00e+00	0	34	0	767557632	64	4209
2026-01-17 04:22:16.90	323.62	22.12	-46.4	-48.0	19.0	0.00e+00	0	34	0	769654784	64	4311
2026-01-17 04:22:17.91	323.38	22.07	-46.7	-48.3	18.7	0.00e+00	0	34	0	771751936	64	4458
2026-01-17 04:22:18.92	323.13	22.01	-46.7	-48.4	18.6	0.00e+00	0	34	0	773849088	64	4523
2026-01-17 04:22:19.93	322.89	21.95	-46.8	-48.5	18.5	0.00e+00	0	34	0	775946240	64	4549
2026-01-17 04:22:20.93	322.64	21.89	-46.8	-48.4	18.6	0.00e+00	0	34	0	776994816	64	4525
2026-01-17 04:22:21.94	322.40	21.83	-46.6	-48.3	18.7	0.00e+00	0	34	0	779091968	64	4447
2026-01-17 04:22:22.95	322.16	21.77	-46.4	-48.0	19.0	0.00e+00	0	34	0	781189120	64	4300
2026-01-17 04:22:23.96	321.92	21.71	-46.4	-48.0	19.1	0.00e+00	0	34	0	783286272	64	4295
2026-01-17 04:22:24.97	321.68	21.65	-46.4	-48.0	19.0	0.00e+00	0	34	0	785383424	64	4319
2026-01-17 04:22:25.97	321.44	21.59	-46.4	-48.0	19.0	0.00e+00	0	34	0	787480576	64	4316
2026-01-17 04:22:26.98	321.20	21.53	-46.5	-48.0	19.0	0.00e+00	0	34	0	788529152	64	4330
2026-01-17 04:22:27.99	320.97	21.47	-46.4	-48.0	19.0	0.00e+00	0	34	0	790626304	64	4327
2026-01-17 04:22:29.00	320.73	21.41	-46.5	-48.0	19.0	0.00e+00	0	34	0	792723456	64	4329
2026-01-17 04:22:30.01	320.50	21.35	-46.4	-48.0	19.0	0.00e+00	0	34	0	794820608	64	4309
2026-01-17 04:22:31.02	320.26	21.28	-46.3	-47.9	19.1	0.00e+00	0	34	0	795869184	64	4244
2026-01-17 04:22:32.02	320.03	21.22	-46.3	-47.8	19.2	0.00e+00	0	34	0	797966336	64	4233
2026-01-17 04:22:33.03	319.80	21.16	-46.2	-47.7	19.3	0.00e+00	0	34	0	800063488	64	4155
2026-01-17 04:22:34.04	319.57	21.09	-46.1	-47.5	19.5	0.00e+00	0	34	0	802160640	64	4080
2026-01-17 04:22:35.05	319.34	21.03	-46.1	-47.6	19.4	0.00e+00	0	34	0	804257792	64	4137
2026-01-17 04:22:36.06	319.11	20.96	-46.1	-47.5	19.4	0.00e+00	0	34	0	805306368	64	4088
2026-01-17 04:22:37.07	318.88	20.90	-46.0	-47.4	19.6	0.00e+00	0	34	0	807403520	63	4288
2026-01-17 04:22:38.08	318.65	20.83	-45.9	-47.4	19.7	0.00e+00	0	34	0	809500672	63	4245
2026-01-17 04:22:39.09	318.42	20.77	-45.9	-47.3	19.7	0.00e+00	0	34	0	811597824	63	4234
2026-01-17 04:22:40.10	318.20	20.70	-45.8	-47.2	19.9	0.00e+00	0	34	0	813694976	63	4171
2026-01-17 04:22:41.11	317.97	20.64	-45.8	-47.2	19.8	0.00e+00	0	34	0	815792128	63	4178
2026-01-17 04:22:42.12	317.75	20.57	-45.8	-47.2	19.9	0.00e+00	0	34	0	816840704	63	4165
2026-01-17 04:22:43.13	317.53	20.50	-45.9	-47.3	19.8	0.00e+00	0	34	0	818937856	63	4221
2026-01-17 04:22:44.14	317.31	20.44	-45.9	-47.4	19.7	0.00e+00	0	34	0	821035008	63	4250
2026-01-17 04:22:45.14	317.09	20.37	-46.0	-47.4	19.7	0.00e+00	0	34	0	823132160	63	4271
2026-01-17 04:22:46.15	316.87	20.30	-46.0	-47.5	19.6	0.00e+00	0	34	0	824180736	63	4302
2026-01-17 04:22:47.16	316.65	20.24	-46.0	-47.4	19.7	0.00e+00	0	34	0	826277888	63	4260
2026-01-17 04:22:48.17	316.43	20.17	-45.9	-47.3	19.7	0.00e+00	0	34	0	828375040	63	4234
2026-01-17 04:22:49.18	316.22	20.10	-45.9	-47.3	19.7	0.00e+00	0	34	0	830472192	63	4223
2026-01-17 04:22:50.18	316.00	20.03	-45.9	-47.3	19.7	0.00e+00	0	34	0	832569344	63	4231
2026-01-17 04:22:51.19	315.79	19.96	-45.9	-47.3	19.7	0.00e+00	0	34	0	834666496	63	4228
2026-01-17 04:22:52.20	315.57	19.90	-45.9	-47.4	19.7	0.00e+00	0	34	0	835715072	63	4255
2026-01-17 04:22:53.21	315.36	19.83	-45.9	-47.3	19.8	0.00e+00	0	34	0	837812224	63	4202
2026-01-17 04:22:54.22	315.15	19.76	-45.9	-47.3	19.7	0.00e+00	0	34	0	839909376	63	4229
2026-01-17 04:22:55.22	314.94	19.69	-45.9	-47.3	19.7	0.00e+00	0	34	0	842006528	63	4221
2026-01-17 04:22:56.23	314.73	19.62	-45.9	-47.4	19.7	0.00e+00	0	34	0	844103680	63	4258
2026-01-17 04:22:57.24	314.52	19.55	-46.1	-47.5	19.5	0.00e+00	0	34	0	845152256	63	4327
2026-01-17 04:22:58.25	314.31	19.48	-46.0	-47.5	19.6	0.00e+00	0	34	0	847249408	63	4313
2026-01-17 04:22:59.26	314.10	19.41	-46.1	-47.5	19.5	0.00e+00	0	34	0	849346560	63	4329
2026-01-17 04:23:00.27	313.90	19.34	-46.1	-47.5	19.6	0.00e+00	0	34	0	851443712	63	4319
2026-01-17 04:23:01.28	313.69	19.27	-46.1	-47.5	19.5	0.00e+00	0	34	0	853540864	63	4324
2026-01-17 04:23:02.28	313.49	19.20	-46.0	-47.5	19.5	0.00e+00	0	34	0	854589440	63	4318
2026-01-17 04:23:03.29	313.29	19.13	-46.1	-47.6	19.5	0.00e+00	0	34	0	856686592	63	4341
2026-01-17 04:23:04.30	313.09	19.05	-46.1	-47.5	19.5	0.00e+00	0	34	0	858783744	63	4334
2026-01-17 04:23:05.31	312.88	18.98	-46.1	-47.5	19.5	0.00e+00	0	34	0	860880896	63	4320
2026-01-17 04:23:06.32	312.68	18.91	-46.0	-47.5	19.5	0.00e+00	0	34	0	862978048	63	4315
2026-01-17 04:23:07.32	312.49	18.84	-46.1	-47.6	19.5	0.00e+00	0	34	0	864026624	63	4357
2026-01-17 04:23:08.33	312.29	18.77	-46.0	-47.4	19.7	0.00e+00	0	34	0	866123776	63	4263
2026-01-17 04:23:09.34	312.09	18.70	-46.0	-47.5	19.6	0.00e+00	0	34	0	868220928	63	4306
2026-01-17 04:23:10.35	311.89	18.62	-45.9	-47.3	19.7	0.00e+00	0	34	0	870318080	63	4226
2026-01-17 04:23:11.36	311.70	18.55	-45.9	-47.3	19.7	0.00e+00	0	34	0	872415232	63	4203
2026-01-17 04:23:12.37	311.50	18.48	-45.9	-47.4	19.6	0.00e+00	0	34	0	873463808	63	4245
2026-01-17 04:23:13.38	311.31	18.41	-45.9	-47.3	19.7	0.00e+00	0	34	0	875560960	63	4224
2026-01-17 04:23:14.38	311.12	18.33	-45.8	-47.2	19.8	0.00e+00	0	34	0	877658112	63	4191
2026-01-17 04:23:15.39	310.93	18.26	-45.9	-47.3	19.7	0.00e+00	0	34	0	879755264	63	4219
2026-01-17 04:23:16.40	310.74	18.19	-45.7	-47.1	20.0	0.00e+00	0	34	0	881852416	63	4106
2026-01-17 04:23:17.41	310.55	18.12	-45.7	-47.1	19.9	0.00e+00	0	34	0	882900992	63	4124
2026-01-17 04:23:18.42	310.36	18.04	-45.7	-47.1	19.9	0.00e+00	0	34	0	884998144	63	4106
2026-01-17 04:23:19.43	310.17	17.97	-45.7	-47.1	19.9	0.00e+00	0	34	0	887095296	63	4136
2026-01-17 04:23:20.43	309.98	17.90	-45.7	-47.1	19.9	0.00e+00	0	34	0	889192448	63	4100
2026-01-17 04:23:21.44	309.80	17.82	-45.6	-47.0	20.0	0.00e+00	0	34	0	891289600	63	4074
2026-01-17 04:23:22.45	309.61	17.75	-45.7	-47.1	19.9	0.00e+00	0	34	0	892338176	63	4099
2026-01-17 04:23:23.46	309.43	17.68	-45.6	-46.9	20.1	0.00e+00	0	34	0	894435328	63	4038
2026-01-17 04:23:24.47	309.24	17.60	-45.6	-46.9	20.1	0.00e+00	0	34	0	896532480	63	4035
2026-01-17 04:23:25.48	309.06	17.53	-45.3	-46.6	20.3	0.00e+00	0	34	0	898629632	62	4138
2026-01-17 04:23:26.49	308.88	17.45	-45.3	-46.6	20.4	0.00e+00	0	34	0	900726784	62	4126
2026-01-17 04:23:27.50	308.70	17.38	-45.2	-46.5	20.5	0.00e+00	0	34	0	902823936	62	4073
2026-01-17 04:23:28.50	308.52	17.31	-45.3	-46.6	20.4	0.00e+00	0	34	0	903872512	62	4100
2026-01-17 04:23:29.51	308.34	17.23	-45.3	-46.6	20.4	0.00e+00	0	34	0	905969664	62	4107
2026-01-17 04:23:30.52	308.16	17.16	-45.4	-46.7	20.2	0.00e+00	0	34	0	908066816	62	4185
2026-01-17 04:23:31.53	307.98	17.08	-45.3	-46.6	20.3	0.00e+00	0	34	0	910163968	62	4135
2026-01-17 04:23:32.53	307.81	17.01	-45.4	-46.7	20.3	0.00e+00	0	34	0	911212544	62	4170
2026-01-17 04:23:33.54	307.63	16.94	-45.4	-46.7	20.3	0.00e+00	0	34	0	913309696	62	4180
2026-01-17 04:23:34.55	307.46	16.86	-45.3	-46.7	20.3	0.00e+00	0	34	0	915406848	62	4158
2026-01-17 04:23:35.56	307.28	16.79	-45.4	-46.7	20.2	0.00e+00	0	34	0	917504000	62	4186
2026-01-17 04:23:36.57	307.11	16.71	-45.3	-46.6	20.4	0.00e+00	0	34	0	919601152	62	4100
2026-01-17 04:23:37.58	306.94	16.64	-45.2	-46.5	20.5	0.00e+00	0	34	0	921698304	62	4056
2026-01-17 04:23:38.58	306.77	16.57	-45.1	-46.3	20.6	0.00e+00	0	34	0	922746880	62	4002
2026-01-17 04:23:39.59	306.60	16.49	-45.0	-46.3	20.6	0.00e+00	0	34	0	924844032	62	3983
2026-01-17 04:23:40.60	306.43	16.42	-45.1	-46.4	20.5	0.00e+00	0	34	0	926941184	62	4016
2026-01-17 04:23:41.61	306.26	16.34	-45.1	-46.3	20.6	0.00e+00	0	34	0	929038336	62	3996
2026-01-17 04:23:42.62	306.09	16.27	-45.1	-46.4	20.6	0.00e+00	0	34	0	931135488	62	4016
2026-01-17 04:23:43.63	305.93	16.19	-45.2	-46.5	20.4	0.00e+00	0	34	0	932184064	62	4077
2026-01-17 04:23:44.64	305.76	16.12	-45.3	-46.6	20.3	0.00e+00	0	34	0	934281216	62	4139
2026-01-17 04:23:45.65	305.59	16.04	-45.4	-46.7	20.3	0.00e+00	0	34	0	936378368	62	4157
2026-01-17 04:23:46.65	305.43	15.97	-45.5	-46.8	20.2	0.00e+00	0	34	0	938475520	62	4220
2026-01-17 04:23:47.66	305.27	15.89	-45.4	-46.7	20.3	0.00e+00	0	34	0	939524096	62	4156
2026-01-17 04:23:48.67	305.11	15.82	-45.3	-46.6	20.3	0.00e+00	0	34	0	941621248	62	4138
2026-01-17 04:23:49.68	304.94	15.74	-45.2	-46.5	20.4	0.00e+00	0	34	0	943718400	62	4077
2026-01-17 04:23:50.69	304.78	15.67	-45.2	-46.5	20.4	0.00e+00	0	34	0	945815552	62	4093
2026-01-17 04:23:51.70	304.62	15.59	-45.1	-46.4	20.5	0.00e+00	0	34	0	947912704	62	4050
2026-01-17 04:23:52.71	304.46	15.52	-45.1	-46.4	20.5	0.00e+00	0	34	0	950009856	62	4031
2026-01-17 04:23:53.72	304.30	15.44	-45.1	-46.4	20.5	0.00e+00	0	34	0	951058432	62	4030
2026-01-17 04:23:54.72	304.15	15.37	-45.2	-46.5	20.4	0.00e+00	0	34	0	953155584	62	4061
2026-01-17 04:23:55.73	303.99	15.30	-45.2	-46.5	20.4	0.00e+00	0	34	0	955252736	62	4098
2026-01-17 04:23:56.74	303.83	15.22	-45.2	-46.5	20.4	0.00e+00	0	34	0	957349888	62	4075
2026-01-17 04:23:57.75	303.68	15.15	-45.3	-46.6	20.3	0.00e+00	0	34	0	959447040	62	4137
2026-01-17 04:23:58.76	303.52	15.07	-45.3	-46.6	20.3	0.00e+00	0	34	0	960495616	62	4134
2026-01-17 04:23:59.76	303.37	15.00	-45.4	-46.8	20.1	0.00e+00	0	34	0	962592768	62	4200
2026-01-17 04:24:00.77	303.22	14.92	-45.4	-46.7	20.1	0.00e+00	0	34	0	964689920	62	4192
2026-01-17 04:24:01.78	303.06	14.85	-45.5	-46.8	20.1	0.00e+00	0	34	0	966787072	62	4229
2026-01-17 04:24:02.79	302.91	14.77	-45.5	-46.8	20.1	0.00e+00	0	34	0	968884224	62	4232
2026-01-17 04:24:03.80	302.76	14.70	-45.5	-46.9	20.0	0.00e+00	0	34	0	969932800	62	4268
2026-01-17 04:24:04.80	302.61	14.62	-45.7	-47.1	19.8	0.00e+00	0	34	0	972029952	62	4348
2026-01-17 04:24:05.81	302.46	14.55	-45.7	-47.1	19.8	0.00e+00	0	34	0	974127104	62	4351
2026-01-17 04:24:06.82	302.32	14.48	-45.8	-47.2	19.7	0.00e+00	0	34	0	976224256	62	4420
2026-01-17 04:24:07.83	302.17	14.40	-45.9	-47.3	19.6	0.00e+00	0	34	0	978321408	62	4480
2026-01-17 04:24:08.84	302.02	14.33	-46.0	-47.5	19.4	0.00e+00	0	34	0	979369984	62	4578
2026-01-17 04:24:09.84	301.88	14.25	-46.1	-47.6	19.3	0.00e+00	0	34	0	981467136	62	4624
2026-01-17 04:24:10.85	301.73	14.18	-46.2	-47.7	19.2	0.00e+00	0	34	0	983564288	62	4685
2026-01-17 04:24:11.86	301.59	14.10	-46.2	-47.7	19.2	0.00e+00	0	34	0	985661440	63	4422
2026-01-17 04:24:12.87	301.44	14.03	-46.2	-47.8	19.1	0.00e+00	0	34	0	987758592	63	4447
2026-01-17 04:24:13.88	301.30	13.96	-46.2	-47.8	19.1	0.00e+00	0	34	0	988807168	63	4447
2026-01-17 04:24:14.89	301.15	13.88	-46.2	-47.7	19.2	0.00e+00	0	34	0	990904320	63	4412
2026-01-17 04:24:15.90	301.01	13.81	-46.1	-47.6	19.2	0.00e+00	0	34	0	993001472	63	4390
2026-01-17 04:24:16.91	300.87	13.73	-45.9	-47.4	19.5	0.00e+00	0	34	0	995098624	63	4271
2026-01-17 04:24:17.91	300.73	13.66	-46.0	-47.5	19.4	0.00e+00	0	34	0	997195776	63	4297
2026-01-17 04:24:18.92	300.59	13.59	-45.9	-47.4	19.5	0.00e+00	0	34	0	998244352	63	4274
2026-01-17 04:24:19.93	300.45	13.51	-45.9	-47.4	19.5	0.00e+00	0	34	0	1000341504	63	4255
2026-01-17 04:24:20.94	300.32	13.44	-46.0	-47.4	19.5	0.00e+00	0	34	0	1002438656	63	4285
2026-01-17 04:24:21.94	300.18	13.36	-46.1	-47.6	19.3	0.00e+00	0	34	0	1004535808	63	4369
2026-01-17 04:24:22.95	300.04	13.29	-46.2	-47.8	19.1	0.00e+00	0	34	0	1006632960	63	4451
2026-01-17 04:24:23.96	299.91	13.22	-46.3	-47.8	19.1	0.00e+00	0	34	0	1007681536	63	4479
2026-01-17 04:24:24.97	299.77	13.14	-46.4	-48.0	18.9	0.00e+00	0	34	0	1009778688	63	4576
2026-01-17 04:24:25.98	299.64	13.07	-46.4	-48.0	18.8	0.00e+00	0	34	0	1011875840	63	4594
2026-01-17 04:24:26.98	299.50	13.00	-46.5	-48.1	18.8	0.00e+00	0	34	0	1013972992	63	4635
2026-01-17 04:24:27.99	299.37	12.92	-46.4	-48.0	18.9	0.00e+00	0	34	0	1016070144	63	4587
2026-01-17 04:24:29.00	299.24	12.85	-46.4	-47.9	18.9	0.00e+00	0	34	0	1017118720	63	4536
2026-01-17 04:24:30.01	299.10	12.78	-46.5	-48.1	18.8	0.00e+00	0	34	0	1019215872	63	4603
2026-01-17 04:24:31.02	298.97	12.70	-46.5	-48.1	18.8	0.00e+00	0	34	0	1021313024	63	4613
2026-01-17 04:24:32.03	298.84	12.63	-46.4	-47.9	18.9	0.00e+00	0	34	0	1023410176	63	4543
2026-01-17 04:24:33.03	298.71	12.56	-46.4	-47.9	19.0	0.00e+00	0	34	0	1025507328	63	4538
2026-01-17 04:24:34.04	298.58	12.48	-46.4	-48.0	18.8	0.00e+00	0	34	0	1026555904	63	4585
2026-01-17 04:24:35.05	298.45	12.41	-46.3	-47.9	18.9	0.00e+00	0	34	0	1028653056	63	4528
2026-01-17 04:24:36.06	298.33	12.34	-46.4	-48.0	18.8	0.00e+00	0	34	0	1030750208	63	4598
2026-01-17 04:24:37.07	298.20	12.27	-46.5	-48.1	18.7	0.00e+00	0	34	0	1032847360	63	4642
2026-01-17 04:24:38.08	298.07	12.19	-46.6	-48.2	18.6	0.00e+00	0	34	0	1034944512	63	4699
2026-01-17 04:24:39.08	297.95	12.12	-46.6	-48.2	18.6	0.00e+00	0	34	0	1037041664	63	4693
2026-01-17 04:24:40.09	297.82	12.05	-46.7	-48.3	18.5	0.00e+00	0	34	0	1038090240	63	4742
2026-01-17 04:24:41.10	297.70	11.98	-46.6	-48.2	18.5	0.00e+00	0	34	0	1040187392	64	4431
2026-01-17 04:24:42.11	297.57	11.90	-46.5	-48.2	18.6	0.00e+00	0	34	0	1042284544	64	4415
2026-01-17 04:24:43.12	297.45	11.83	-46.6	-48.3	18.4	0.00e+00	0	34	0	1044381696	64	4476
2026-01-17 04:24:44.13	297.32	11.76	-46.6	-48.3	18.4	0.00e+00	0	34	0	1045430272	64	4491
2026-01-17 04:24:45.13	297.20	11.69	-46.7	-48.4	18.4	0.00e+00	0	34	0	1047527424	64	4503
2026-01-17 04:24:46.14	297.08	11.61	-46.7	-48.4	18.3	0.00e+00	0	34	0	1049624576	64	4539
2026-01-17 04:24:47.15	296.96	11.54	-46.8	-48.5	18.2	0.00e+00	0	34	0	1051721728	64	4583
2026-01-17 04:24:48.15	296.84	11.47	-46.7	-48.4	18.3	0.00e+00	0	34	0	1053818880	64	4516
2026-01-17 04:24:49.16	296.72	11.40	-46.8	-48.6	18.2	0.00e+00	0	34	0	1054867456	64	4623
2026-01-17 04:24:50.17	296.60	11.33	-46.8	-48.5	18.2	0.00e+00	0	34	0	1056964608	64	4582
2026-01-17 04:24:51.18	296.48	11.26	-46.9	-48.6	18.1	0.00e+00	0	34	0	1059061760	64	4647
2026-01-17 04:24:52.19	296.36	11.18	-46.9	-48.7	18.1	0.00e+00	0	34	0	1061158912	64	4675
2026-01-17 04:24:53.20	296.25	11.11	-47.0	-48.9	17.9	0.00e+00	0	34	0	1063256064	64	4762
2026-01-17 04:24:54.21	296.13	11.04	-47.0	-48.8	18.0	0.00e+00	0	34	0	1065353216	64	4720
2026-01-17 04:24:55.21	296.01	10.97	-47.1	-48.9	17.8	0.00e+00	0	34	0	1066401792	64	4810
2026-01-17 04:24:56.22	295.90	10.90	-47.0	-48.9	17.9	0.00e+00	0	34	0	1068498944	64	4764
2026-01-17 04:24:57.23	295.78	10.83	-47.0	-48.8	17.9	0.00e+00	0	34	0	1070596096	64	4721
2026-01-17 04:24:58.24	295.67	10.76	-47.0	-48.9	17.9	0.00e+00	0	34	0	1072693248	64	4766
2026-01-17 04:24:59.25	295.55	10.69	-46.9	-48.7	18.0	0.00e+00	0	34	0	1073741824	64	4693
2026-01-17 04:25:00.26	295.44	10.62	-46.9	-48.6	18.1	0.00e+00	0	34	0	1075838976	64	4630
2026-01-17 04:25:01.27	295.33	10.54	-46.9	-48.7	18.1	0.00e+00	0	34	0	1077936128	64	4655
2026-01-17 04:25:02.28	295.21	10.47	-46.9	-48.6	18.1	0.00e+00	0	34	0	1080033280	64	4640
2026-01-17 04:25:03.28	295.10	10.40	-46.9	-48.7	18.0	0.00e+00	0	34	0	1082130432	64	4676
2026-01-17 04:25:04.29	294.99	10.33	-46.9	-48.7	18.0	0.00e+00	0	34	0	1084227584	64	4694
2026-01-17 04:25:05.30	294.88	10.26	-47.0	-48.8	17.8	0.00e+00	0	34	0	1085276160	64	4758
2026-01-17 04:25:06.31	294.77	10.19	-47.3	-49.2	17.5	0.00e+00	0	34	0	1087373312	65	4670
2026-01-17 04:25:07.32	294.66	10.12	-47.2	-49.2	17.6	0.00e+00	0	34	0	1089470464	65	4652
2026-01-17 04:25:08.32	294.55	10.05	-47.4	-49.3	17.3	0.00e+00	0	34	0	1091567616	65	4755
2026-01-17 04:25:09.33	294.44	9.98	-47.4	-49.4	17.3	0.00e+00	0	34	0	1093664768	65	4810
2026-01-17 04:25:10.34	294.33	9.91	-47.6	-49.6	17.1	0.00e+00	0	34	0	1094713344	65	4894
2026-01-17 04:25:11.35	294.23	9.84	-47.6	-49.6	17.0	0.00e+00	0	34	0	1096810496	65	4923
2026-01-17 04:25:12.36	294.12	9.77	-47.6	-49.7	17.0	0.00e+00	0	34	0	1098907648	65	4938
2026-01-17 04:25:13.37	294.01	9.70	-47.6	-49.7	17.0	0.00e+00	0	34	0	1101004800	65	4952
2026-01-17 04:25:14.38	293.91	9.63	-47.6	-49.6	17.1	0.00e+00	0	34	0	1103101952	65	4901
2026-01-17 04:25:15.38	293.80	9.57	-47.5	-49.6	17.1	0.00e+00	0	34	0	1104150528	65	4874
2026-01-17 04:25:16.39	293.70	9.50	-47.5	-49.6	17.1	0.00e+00	0	34	0	1106247680	65	4880
2026-01-17 04:25:17.40	293.59	9.43	-47.7	-49.8	16.9	0.00e+00	0	34	0	1108344832	65	5013
2026-01-17 04:25:18.41	293.49	9.36	-47.5	-49.6	17.0	0.00e+00	0	34	0	1110441984	66	4623
2026-01-17 04:25:19.42	293.39	9.29	-47.6	-49.7	17.0	0.00e+00	0	34	0	1112539136	66	4688
2026-01-17 04:25:20.43	293.28	9.22	-47.7	-49.8	16.8	0.00e+00	0	34	0	1113587712	66	4758
2026-01-17 04:25:21.44	293.18	9.15	-47.8	-49.9	16.7	0.00e+00	0	34	0	1115684864	66	4808
2026-01-17 04:25:22.44	293.08	9.08	-47.9	-50.1	16.6	0.00e+00	0	34	0	1117782016	66	4904
2026-01-17 04:25:23.45	292.98	9.01	-47.9	-50.2	16.5	0.00e+00	0	34	0	1119879168	66	4935
2026-01-17 04:25:24.46	292.88	8.94	-48.1	-50.4	16.2	0.00e+00	0	34	0	1121976320	66	5090
2026-01-17 04:25:25.47	292.78	8.88	-48.0	-50.2	16.4	0.00e+00	0	34	0	1123024896	66	4967
2026-01-17 04:25:26.48	292.68	8.81	-48.0	-50.3	16.3	0.00e+00	0	34	0	1125122048	66	5009
2026-01-17 04:25:27.48	292.58	8.74	-48.0	-50.2	16.3	0.00e+00	0	34	0	1127219200	66	4983
2026-01-17 04:25:28.49	292.48	8.67	-48.0	-50.3	16.3	0.00e+00	0	34	0	1129316352	66	5028
2026-01-17 04:25:29.50	292.38	8.60	-47.9	-50.1	16.5	0.00e+00	0	34	0	1131413504	66	4907
2026-01-17 04:25:30.51	292.28	8.54	-47.9	-50.2	16.4	0.00e+00	0	34	0	1132462080	66	4959
2026-01-17 04:25:31.52	292.18	8.47	-47.9	-50.1	16.5	0.00e+00	0	34	0	1134559232	66	4923
2026-01-17 04:25:32.53	292.09	8.40	-47.9	-50.1	16.5	0.00e+00	0	34	0	1136656384	66	4909
2026-01-17 04:25:33.54	291.99	8.33	-48.0	-50.3	16.2	0.00e+00	0	34	0	1138753536	67	4737
2026-01-17 04:25:34.55	291.89	8.27	-48.0	-50.2	16.4	0.00e+00	0	34	0	1140850688	67	4698
2026-01-17 04:25:35.56	291.80	8.20	-47.8	-50.0	16.6	0.00e+00	0	34	0	1141899264	67	4575
2026-01-17 04:25:36.56	291.70	8.13	-48.0	-50.2	16.4	0.00e+00	0	34	0	1143996416	67	4692
2026-01-17 04:25:37.57	291.61	8.06	-48.0	-50.3	16.3	0.00e+00	0	34	0	1146093568	67	4706
2026-01-17 04:25:38.58	291.51	8.00	-48.0	-50.3	16.3	0.00e+00	0	34	0	1148190720	67	4735
2026-01-17 04:25:39.59	291.42	7.93	-48.1	-50.4	16.2	0.00e+00	0	34	0	1150287872	67	4783
2026-01-17 04:25:40.60	291.33	7.86	-48.2	-50.6	15.9	0.00e+00	0	34	0	1152385024	67	4922
2026-01-17 04:25:41.60	291.23	7.80	-48.2	-50.7	15.9	0.00e+00	0	34	0	1153433600	67	4935
2026-01-17 04:25:42.61	291.14	7.73	-48.3	-50.7	15.8	0.00e+00	0	34	0	1155530752	67	4940
2026-01-17 04:25:43.62	291.05	7.66	-48.3	-50.7	15.8	0.00e+00	0	34	0	1157627904	67	4977
2026-01-17 04:25:44.63	290.96	7.60	-48.2	-50.6	16.0	0.00e+00	0	34	0	1159725056	67	4895
2026-01-17 04:25:45.64	290.86	7.53	-48.4	-51.0	15.6	0.00e+00	0	34	0	1160773632	67	5111
2026-01-17 04:25:46.65	290.77	7.46	-48.1	-50.5	16.0	0.00e+00	0	34	0	1162870784	67	4856
2026-01-17 04:25:47.66	290.68	7.40	-48.3	-50.7	15.8	0.00e+00	0	34	0	1164967936	67	4970
2026-01-17 04:25:48.66	290.59	7.33	-48.4	-50.9	15.6	0.00e+00	0	34	0	1167065088	67	5080
2026-01-17 04:25:49.67	290.50	7.27	-48.3	-50.8	15.7	0.00e+00	0	34	0	1169162240	67	5024
2026-01-17 04:25:50.68	290.41	7.20	-48.4	-50.9	15.6	0.00e+00	0	34	0	1171259392	67	5070
2026-01-17 04:25:51.69	290.33	7.13	-48.4	-50.9	15.6	0.00e+00	0	34	0	1172307968	67	5057
2026-01-17 04:25:52.70	290.24	7.07	-48.2	-50.6	15.9	0.00e+00	0	34	0	1174405120	67	4912
2026-01-17 04:25:53.70	290.15	7.00	-48.4	-50.9	15.6	0.00e+00	0	34	0	1176502272	67	5058
2026-01-17 04:25:54.71	290.06	6.94	-48.5	-51.1	15.4	0.00e+00	0	34	0	1178599424	67	5187
2026-01-17 04:25:55.72	289.98	6.87	-48.5	-51.1	15.4	0.00e+00	0	34	0	1180696576	67	5175
2026-01-17 04:25:56.73	289.89	6.81	-48.4	-51.0	15.4	0.00e+00	0	34	0	1181745152	67	5154
2026-01-17 04:25:57.74	289.80	6.74	-48.7	-51.4	15.0	0.00e+00	0	34	0	1183842304	67	5399
2026-01-17 04:25:58.75	289.72	6.68	-48.9	-51.7	14.9	7.00e-07	0	34	0	1185939456	68	5222
2026-01-17 04:25:59.76	289.63	6.61	-48.8	-51.5	15.0	0.00e+00	0	34	0	1188036608	68	5151
2026-01-17 04:26:00.77	289.55	6.55	-49.1	-52.1	14.4	7.00e-07	0	34	0	1189085184	68	5495
2026-01-17 04:26:01.78	289.46	6.48	-48.8	-51.6	14.9	0.00e+00	0	34	0	1191182336	68	5208
2026-01-17 04:26:02.79	289.38	6.42	-49.0	-51.9	14.6	0.00e+00	0	34	0	1193279488	68	5355
2026-01-17 04:26:03.80	289.29	6.35	-48.9	-51.8	14.7	7.00e-07	0	34	0	1195376640	68	5302
2026-01-17 04:26:04.80	289.21	6.29	-49.1	-52.1	14.4	0.00e+00	0	34	0	1197473792	68	5495
2026-01-17 04:26:05.81	289.13	6.22	-48.9	-51.8	14.7	1.50e-06	0	34	0	1199570944	69	5006
