passes_logs/2026/01/17/R3.2S_Murmansk/R3.2S_Murmansk__20260117_051328_AQUA_rec.log

#Pass ID: 20260117_051328_AQUA
#Satellite: AQUA
#Configuration: AQUA
#almurnet v.1.7.20251203
#Start time: 2026-01-17 05:13:28

#Version: 2.2.20231116
#Station: R3.2S_Murmansk
#Location: 33.079688 lon 68.888172 lat
#TLE: 1 27424U 02022A   26016.59833233  .00000670  00000+0  14410-3 0  9991
#TLE: 2 27424  98.4084 343.0525 0002018  76.3524 343.9424 14.61823666261128

#Time	Az	El	Level	Level2	SNR	BER	BlckErr	Temp	State	Recorded	gain1	gain2
2026-01-17 05:13:28.74	38.72	2.02	-53.0	-70.8	3.8	7.43e-01	0	32	0	0	77	28043
2026-01-17 05:13:29.74	38.65	2.08	-52.9	-70.7	3.8	7.44e-01	0	32	104	0	76	29658
2026-01-17 05:13:30.75	38.58	2.14	-52.9	-70.7	3.8	7.47e-01	0	32	104	0	76	29422
2026-01-17 05:13:31.76	38.51	2.20	-52.9	-70.6	3.8	7.44e-01	0	32	104	0	76	29271
2026-01-17 05:13:32.77	38.44	2.26	-53.0	-70.7	3.8	7.46e-01	0	32	104	0	76	29615
2026-01-17 05:13:33.78	38.37	2.32	-52.9	-70.8	3.8	7.44e-01	0	32	104	0	76	29717
2026-01-17 05:13:34.78	38.30	2.38	-52.9	-70.7	3.8	7.43e-01	0	32	104	0	76	29559
2026-01-17 05:13:35.79	38.22	2.44	-52.9	-70.7	3.8	7.42e-01	0	32	104	0	76	29604
2026-01-17 05:13:36.80	38.15	2.50	-52.9	-70.7	3.8	7.46e-01	0	32	104	0	76	29542
2026-01-17 05:13:37.81	38.08	2.56	-53.0	-70.7	3.8	7.42e-01	0	32	104	0	76	29602
2026-01-17 05:13:38.82	38.01	2.62	-52.9	-70.7	3.8	7.47e-01	0	32	104	0	76	29654
2026-01-17 05:13:39.82	37.94	2.68	-53.0	-70.8	3.8	7.48e-01	0	32	104	0	76	29730
2026-01-17 05:13:40.83	37.86	2.75	-52.9	-70.7	3.8	7.46e-01	0	32	104	0	76	29616
2026-01-17 05:13:41.84	37.79	2.81	-53.0	-70.8	3.8	7.44e-01	0	32	104	0	76	29734
2026-01-17 05:13:42.85	37.72	2.87	-52.9	-70.8	3.8	7.49e-01	0	32	104	0	76	29694
2026-01-17 05:13:43.86	37.64	2.93	-52.9	-70.8	3.8	7.44e-01	0	32	104	0	76	29700
2026-01-17 05:13:44.87	37.57	2.99	-53.0	-70.7	3.8	7.45e-01	0	32	104	0	76	29628
2026-01-17 05:13:45.87	37.49	3.05	-52.9	-70.7	3.8	7.44e-01	0	32	104	0	76	29598
2026-01-17 05:13:46.88	37.42	3.11	-52.9	-70.7	3.8	7.47e-01	0	32	104	0	76	29660
2026-01-17 05:13:47.89	37.34	3.17	-52.9	-70.7	3.8	7.45e-01	0	33	104	0	76	29441
2026-01-17 05:13:48.90	37.27	3.24	-52.9	-70.7	3.8	7.46e-01	0	32	104	0	76	29604
2026-01-17 05:13:49.91	37.19	3.30	-52.9	-70.7	3.8	7.46e-01	0	32	104	0	76	29515
2026-01-17 05:13:50.92	37.11	3.36	-52.9	-70.7	3.8	7.44e-01	0	33	104	0	76	29544
2026-01-17 05:13:51.93	37.04	3.42	-52.9	-70.7	3.8	7.46e-01	0	32	104	0	76	29561
2026-01-17 05:13:52.94	36.96	3.48	-52.9	-70.7	3.8	7.45e-01	0	33	104	0	76	29558
2026-01-17 05:13:53.95	36.88	3.55	-52.9	-70.7	3.8	7.46e-01	0	32	104	0	76	29367
2026-01-17 05:13:54.96	36.80	3.61	-52.9	-70.6	3.8	7.45e-01	0	33	104	0	76	29318
2026-01-17 05:13:55.97	36.72	3.67	-52.9	-70.6	3.8	7.46e-01	0	33	104	0	76	29267
2026-01-17 05:13:56.98	36.65	3.73	-52.9	-70.6	3.8	7.46e-01	0	33	104	0	76	29106
2026-01-17 05:13:57.98	36.57	3.80	-52.9	-70.6	3.8	7.44e-01	0	33	104	0	76	29215
2026-01-17 05:13:58.99	36.49	3.86	-52.9	-70.6	3.8	7.43e-01	0	33	104	0	76	29312
2026-01-17 05:14:00.00	36.41	3.92	-52.9	-70.7	3.8	7.45e-01	0	33	104	0	76	29650
2026-01-17 05:14:01.01	36.33	3.99	-52.9	-70.7	3.8	7.45e-01	0	33	104	0	76	29645
2026-01-17 05:14:02.02	36.25	4.05	-52.9	-70.7	3.8	7.47e-01	0	33	104	0	76	29397
2026-01-17 05:14:03.03	36.16	4.11	-52.9	-70.4	3.8	7.43e-01	0	33	104	0	76	28400
2026-01-17 05:14:04.04	36.08	4.18	-52.8	-69.9	3.8	7.47e-01	0	33	104	0	76	26998
2026-01-17 05:14:05.04	36.00	4.24	-52.6	-69.1	3.8	7.45e-01	0	33	104	0	76	24679
2026-01-17 05:14:06.05	35.92	4.30	-52.4	-68.4	3.8	7.43e-01	0	33	104	0	76	22650
2026-01-17 05:14:07.06	35.84	4.37	-52.2	-67.7	3.8	7.47e-01	0	33	104	0	76	20965
2026-01-17 05:14:08.07	35.75	4.43	-52.2	-67.6	3.8	7.45e-01	0	33	104	0	76	20575
2026-01-17 05:14:09.08	35.67	4.49	-51.9	-66.7	3.8	7.45e-01	0	33	104	0	75	19690
2026-01-17 05:14:10.09	35.58	4.56	-51.4	-65.6	3.8	7.46e-01	0	33	104	0	74	18312
2026-01-17 05:14:11.10	35.50	4.62	-51.6	-65.9	3.8	7.49e-01	0	33	104	0	74	19020
2026-01-17 05:14:12.11	35.41	4.69	-51.6	-66.0	3.8	7.45e-01	0	33	104	0	74	19247
2026-01-17 05:14:13.11	35.33	4.75	-51.4	-65.4	3.8	7.47e-01	0	33	104	0	74	17970
2026-01-17 05:14:14.12	35.24	4.82	-51.4	-65.5	3.8	7.45e-01	0	33	104	0	74	18123
2026-01-17 05:14:15.13	35.16	4.88	-51.7	-66.0	3.8	7.43e-01	0	33	104	0	74	19386
2026-01-17 05:14:16.14	35.07	4.95	-51.9	-66.7	3.8	7.46e-01	0	33	104	0	74	20861
2026-01-17 05:14:17.15	34.98	5.01	-52.0	-67.2	3.8	7.46e-01	0	33	104	0	74	22100
2026-01-17 05:14:18.16	34.90	5.08	-52.2	-67.5	3.8	7.44e-01	0	33	104	0	74	23001
2026-01-17 05:14:19.16	34.81	5.14	-51.1	-64.3	3.8	7.47e-01	0	33	104	0	74	15814
2026-01-17 05:14:20.17	34.72	5.21	-51.0	-64.1	3.8	7.44e-01	0	33	104	0	72	17468
2026-01-17 05:14:21.18	34.63	5.27	-52.7	-70.5	3.8	7.44e-01	0	33	104	0	75	30464
2026-01-17 05:14:22.19	34.54	5.34	-49.1	-60.9	3.8	7.44e-01	0	33	104	0	70	13479
2026-01-17 05:14:23.20	34.45	5.40	-52.8	-69.0	3.8	7.43e-01	0	33	104	0	76	24250
2026-01-17 05:14:24.21	34.36	5.47	-49.6	-61.6	3.8	7.45e-01	0	33	104	0	70	14687
2026-01-17 05:14:25.21	34.27	5.53	-49.5	-61.6	3.8	7.43e-01	0	33	104	0	70	14563
2026-01-17 05:14:26.22	34.18	5.60	-49.3	-61.2	3.8	7.43e-01	0	33	104	0	70	13967
2026-01-17 05:14:27.23	34.09	5.66	-50.6	-63.4	3.8	7.42e-01	0	33	104	0	72	16078
2026-01-17 05:14:28.24	34.00	5.73	-51.1	-64.1	3.8	7.49e-01	0	33	104	0	72	17365
2026-01-17 05:14:29.24	33.90	5.80	-53.1	-70.8	3.8	7.43e-01	0	33	104	0	76	29735
2026-01-17 05:14:30.25	33.81	5.86	-49.1	-61.0	3.8	7.46e-01	0	33	104	0	70	13582
2026-01-17 05:14:31.26	33.72	5.93	-52.7	-68.2	3.8	7.44e-01	0	33	104	0	76	22262
2026-01-17 05:14:32.27	33.62	6.00	-49.3	-61.1	3.8	7.44e-01	0	33	104	0	70	13818
2026-01-17 05:14:33.28	33.53	6.06	-48.6	-60.2	3.8	7.45e-01	0	33	104	0	69	13154
2026-01-17 05:14:34.29	33.43	6.13	-48.2	-59.7	3.8	7.43e-01	0	33	104	0	68	13213
2026-01-17 05:14:35.30	33.34	6.20	-52.1	-66.3	3.9	7.44e-01	0	33	104	0	76	17826
2026-01-17 05:14:36.31	33.24	6.26	-51.4	-64.7	3.8	7.46e-01	0	33	104	0	73	17554
2026-01-17 05:14:37.31	33.15	6.33	-53.3	-70.9	3.8	7.45e-01	0	33	104	0	77	28530
2026-01-17 05:14:38.32	33.05	6.40	-49.1	-60.9	3.8	7.47e-01	0	34	104	0	70	13482
2026-01-17 05:14:39.33	32.95	6.47	-52.8	-68.2	3.8	7.45e-01	0	33	104	0	76	22129
2026-01-17 05:14:40.34	32.85	6.53	-49.3	-61.1	3.8	7.44e-01	0	33	104	0	70	13806
2026-01-17 05:14:41.35	32.75	6.60	-48.5	-60.1	3.8	7.43e-01	0	33	104	0	69	12976
2026-01-17 05:14:42.36	32.65	6.67	-47.9	-59.3	3.8	7.44e-01	0	33	104	0	67	13370
2026-01-17 05:14:43.37	32.56	6.74	-48.8	-60.5	3.8	7.41e-01	0	33	104	0	69	13585
2026-01-17 05:14:44.38	32.45	6.81	-51.9	-65.7	3.8	7.43e-01	0	33	104	0	74	18607
2026-01-17 05:14:45.39	32.35	6.87	-53.1	-69.8	3.9	7.44e-01	0	34	104	0	77	25097
2026-01-17 05:14:46.40	32.25	6.94	-49.3	-61.0	3.8	7.43e-01	0	33	104	0	69	14538
2026-01-17 05:14:47.41	32.15	7.01	-52.2	-66.5	3.8	7.41e-01	0	34	104	0	76	18118
2026-01-17 05:14:48.41	32.05	7.08	-49.0	-60.7	3.8	7.42e-01	0	33	104	0	70	13166
2026-01-17 05:14:49.42	31.95	7.15	-48.7	-60.2	3.8	7.44e-01	0	33	104	0	68	14044
2026-01-17 05:14:50.43	31.84	7.22	-49.0	-60.6	3.8	7.47e-01	0	33	104	0	68	14651
2026-01-17 05:14:51.44	31.74	7.29	-50.7	-63.3	3.9	7.45e-01	0	34	104	0	73	14987
2026-01-17 05:14:52.45	31.63	7.36	-52.2	-66.1	3.8	7.46e-01	0	33	104	0	74	19590
2026-01-17 05:14:53.46	31.53	7.42	-52.5	-67.3	4.0	7.41e-01	0	33	104	0	77	18933
2026-01-17 05:14:54.46	31.42	7.49	-49.8	-62.0	3.8	7.45e-01	0	33	104	0	70	15377
2026-01-17 05:14:55.47	31.32	7.56	-51.2	-64.3	3.8	7.44e-01	0	34	104	0	74	15847
2026-01-17 05:14:56.48	31.21	7.63	-48.8	-60.5	3.8	7.47e-01	0	33	104	0	69	13574
2026-01-17 05:14:57.49	31.10	7.70	-48.1	-59.5	3.8	7.43e-01	0	34	104	0	68	12911
2026-01-17 05:14:58.50	31.00	7.77	-49.8	-61.7	3.8	7.46e-01	0	34	104	0	69	15634
2026-01-17 05:14:59.50	30.89	7.84	-49.2	-61.0	3.8	7.44e-01	0	33	104	0	70	13617
2026-01-17 05:15:00.51	30.78	7.91	-52.1	-66.0	3.9	7.44e-01	0	34	104	0	74	19278
2026-01-17 05:15:01.52	30.67	7.98	-52.4	-67.1	3.9	7.42e-01	0	33	104	0	77	18345
2026-01-17 05:15:02.53	30.56	8.05	-49.7	-61.6	3.8	7.45e-01	0	34	104	0	69	15426
2026-01-17 05:15:03.54	30.45	8.12	-51.6	-64.9	3.9	7.43e-01	0	34	104	0	75	16106
2026-01-17 05:15:04.54	30.34	8.19	-49.0	-60.6	3.8	7.47e-01	0	34	104	0	69	13858
2026-01-17 05:15:05.55	30.23	8.26	-48.3	-59.7	3.8	7.44e-01	0	34	104	0	68	13259
2026-01-17 05:15:06.56	30.11	8.33	-49.2	-60.9	3.8	7.44e-01	0	34	104	0	68	15157
2026-01-17 05:15:07.57	30.00	8.41	-48.0	-59.4	3.8	7.45e-01	0	34	104	0	68	12715
2026-01-17 05:15:08.57	29.89	8.48	-52.9	-68.0	3.8	7.48e-01	0	34	104	0	76	21728
2026-01-17 05:15:09.58	29.77	8.55	-51.3	-64.3	3.9	7.46e-01	0	34	104	0	74	15908
2026-01-17 05:15:10.59	29.66	8.62	-51.3	-63.7	3.8	7.43e-01	0	34	104	0	72	16602
2026-01-17 05:15:11.60	29.54	8.69	-50.0	-62.3	3.9	7.46e-01	0	34	104	0	72	14152
2026-01-17 05:15:12.61	29.42	8.76	-48.3	-59.8	3.8	7.42e-01	0	34	104	0	68	13359
2026-01-17 05:15:13.62	29.31	8.83	-47.8	-59.2	3.8	7.42e-01	0	34	104	0	67	13114
2026-01-17 05:15:14.63	29.19	8.90	-48.9	-60.6	3.8	7.47e-01	0	34	104	0	68	14634
2026-01-17 05:15:15.64	29.07	8.98	-47.7	-59.0	3.8	7.45e-01	0	34	104	0	67	12847
2026-01-17 05:15:16.64	28.95	9.05	-52.3	-69.6	3.7	7.48e-01	0	34	104	0	75	27458
2026-01-17 05:15:17.65	28.83	9.12	-50.3	-62.5	3.9	7.44e-01	0	34	104	0	72	14515
2026-01-17 05:15:18.66	28.71	9.19	-51.6	-64.9	3.8	7.48e-01	0	34	104	0	73	17998
2026-01-17 05:15:19.67	28.59	9.26	-49.4	-61.0	3.8	7.42e-01	0	34	104	0	70	13691
2026-01-17 05:15:20.68	28.47	9.34	-48.6	-60.1	3.8	7.46e-01	0	34	104	0	69	13028
2026-01-17 05:15:21.68	28.35	9.41	-47.9	-59.3	3.8	7.46e-01	0	34	104	0	67	13279
2026-01-17 05:15:22.69	28.22	9.48	-50.3	-62.1	3.8	7.46e-01	0	34	104	0	70	15558
2026-01-17 05:15:23.70	28.10	9.55	-48.3	-59.7	3.8	7.42e-01	0	34	104	0	68	13220
2026-01-17 05:15:24.71	27.98	9.63	-53.5	-69.8	3.7	7.48e-01	0	34	104	0	77	25009
2026-01-17 05:15:25.72	27.85	9.70	-50.4	-62.3	3.9	7.45e-01	0	34	104	0	72	14140
2026-01-17 05:15:26.73	27.73	9.77	-51.7	-64.8	3.8	7.45e-01	0	34	104	0	73	17749
2026-01-17 05:15:27.74	27.60	9.85	-48.8	-60.4	3.8	7.45e-01	0	34	104	0	69	13499
2026-01-17 05:15:28.75	27.47	9.92	-48.3	-59.7	3.8	7.42e-01	0	34	104	0	68	13235
2026-01-17 05:15:29.76	27.34	9.99	-48.1	-59.4	3.8	7.47e-01	0	34	104	0	67	13559
2026-01-17 05:15:30.77	27.21	10.07	-50.7	-63.1	3.8	7.46e-01	0	34	104	0	71	16450
2026-01-17 05:15:31.77	27.09	10.14	-48.5	-60.0	3.8	7.44e-01	0	34	104	0	67	14392
2026-01-17 05:15:32.78	26.96	10.21	-53.8	-71.1	3.7	7.45e-01	0	34	104	0	78	27526
2026-01-17 05:15:33.79	26.83	10.29	-49.4	-61.0	3.8	7.47e-01	0	34	104	0	70	13581
2026-01-17 05:15:34.80	26.69	10.36	-52.3	-66.3	3.8	7.48e-01	0	34	104	0	75	18914
2026-01-17 05:15:35.81	26.56	10.44	-48.6	-60.1	3.8	7.45e-01	0	34	104	0	69	12997
2026-01-17 05:15:36.81	26.43	10.51	-48.1	-59.5	3.8	7.45e-01	0	34	104	0	68	12936
2026-01-17 05:15:37.82	26.30	10.59	-47.4	-58.5	3.8	7.48e-01	0	34	104	0	66	12929
2026-01-17 05:15:38.83	26.16	10.66	-51.8	-64.5	3.8	7.46e-01	0	34	104	0	73	17224
2026-01-17 05:15:39.84	26.03	10.73	-48.2	-59.5	3.8	7.44e-01	0	34	104	0	67	13637
2026-01-17 05:15:40.84	25.89	10.81	-53.9	-71.6	3.8	7.42e-01	0	34	104	0	78	29205
2026-01-17 05:15:41.85	25.75	10.88	-48.6	-60.1	3.8	7.44e-01	0	34	104	0	69	13026
2026-01-17 05:15:42.86	25.62	10.96	-52.8	-67.4	3.8	7.46e-01	0	34	104	0	76	20150
2026-01-17 05:15:43.87	25.48	11.03	-48.1	-59.4	3.8	7.44e-01	0	34	104	0	68	12775
2026-01-17 05:15:44.88	25.34	11.11	-47.7	-58.9	3.8	7.48e-01	0	34	104	0	67	12749
2026-01-17 05:15:45.88	25.20	11.18	-46.9	-58.0	3.8	7.40e-01	0	34	104	0	65	12879
2026-01-17 05:15:46.89	25.06	11.26	-51.7	-64.7	3.8	7.46e-01	0	34	104	0	73	17625
2026-01-17 05:15:47.90	24.92	11.33	-48.5	-59.9	3.8	7.47e-01	0	34	104	0	67	14307
2026-01-17 05:15:48.91	24.77	11.41	-53.9	-71.7	3.8	7.47e-01	0	34	104	0	78	29365
2026-01-17 05:15:49.92	24.63	11.48	-48.6	-60.1	3.8	7.45e-01	0	34	104	0	69	13027
2026-01-17 05:15:50.93	24.49	11.56	-52.9	-67.5	3.8	7.43e-01	0	34	104	0	76	20394
2026-01-17 05:15:51.93	24.34	11.63	-48.1	-59.5	3.9	7.44e-01	0	34	104	0	68	12887
2026-01-17 05:15:52.94	24.20	11.71	-48.0	-59.4	3.8	7.44e-01	0	34	104	0	67	13422
2026-01-17 05:15:53.95	24.05	11.79	-48.1	-59.4	3.8	7.42e-01	0	34	104	0	67	13505
2026-01-17 05:15:54.96	23.90	11.86	-51.9	-65.3	3.9	7.45e-01	0	34	104	0	74	17691
2026-01-17 05:15:55.97	23.76	11.94	-48.9	-60.5	3.8	7.45e-01	0	34	104	0	68	14376
2026-01-17 05:15:56.97	23.61	12.01	-54.0	-71.9	3.8	7.45e-01	0	34	104	0	78	30075
2026-01-17 05:15:57.99	23.46	12.09	-48.4	-59.7	3.9	7.43e-01	0	34	104	0	68	13202
2026-01-17 05:15:58.99	23.31	12.17	-53.2	-68.3	3.8	7.43e-01	0	34	104	0	76	22302
2026-01-17 05:16:00.00	23.16	12.24	-48.0	-58.8	3.8	7.46e-01	0	34	104	0	67	12659
2026-01-17 05:16:01.01	23.00	12.32	-47.4	-58.5	3.8	7.43e-01	0	34	104	0	66	12863
2026-01-17 05:16:02.02	22.85	12.40	-46.6	-57.6	3.8	7.43e-01	0	34	104	0	65	12323
2026-01-17 05:16:03.03	22.70	12.47	-52.1	-65.5	3.8	7.45e-01	0	34	104	0	74	18275
2026-01-17 05:16:04.04	22.54	12.55	-48.7	-60.2	3.8	7.45e-01	0	34	104	0	67	14782
2026-01-17 05:16:05.04	22.39	12.63	-54.0	-71.9	3.8	7.46e-01	0	34	104	0	78	30075
2026-01-17 05:16:06.05	22.23	12.70	-48.1	-59.4	3.8	7.41e-01	0	34	104	0	68	12719
2026-01-17 05:16:07.06	22.07	12.78	-53.2	-68.1	3.8	7.45e-01	0	34	104	0	76	21982
2026-01-17 05:16:08.07	21.91	12.86	-48.0	-59.2	3.8	7.47e-01	0	34	104	0	68	12503
2026-01-17 05:16:09.08	21.75	12.93	-47.5	-58.8	3.8	7.47e-01	0	34	104	0	67	12531
2026-01-17 05:16:10.09	21.59	13.01	-46.6	-57.6	3.8	7.44e-01	0	34	104	0	65	12350
2026-01-17 05:16:11.09	21.43	13.09	-52.3	-66.0	3.8	7.44e-01	0	34	104	0	75	18297
2026-01-17 05:16:12.10	21.27	13.16	-48.8	-60.3	3.8	7.46e-01	0	34	104	0	68	14200
2026-01-17 05:16:13.11	21.11	13.24	-54.1	-71.9	3.8	7.43e-01	0	34	104	0	78	30253
2026-01-17 05:16:14.12	20.94	13.32	-48.1	-59.4	3.8	7.41e-01	0	34	104	0	68	12736
2026-01-17 05:16:15.12	20.78	13.40	-53.2	-68.1	3.8	7.44e-01	0	34	104	0	76	22003
2026-01-17 05:16:16.13	20.61	13.47	-47.9	-59.1	3.8	7.43e-01	0	34	104	0	67	13109
2026-01-17 05:16:17.14	20.45	13.55	-48.1	-59.4	3.8	7.44e-01	0	34	104	0	67	13557
2026-01-17 05:16:18.15	20.28	13.63	-47.6	-58.9	3.8	7.45e-01	0	34	104	0	67	12670
2026-01-17 05:16:19.16	20.11	13.71	-50.5	-63.0	3.8	7.42e-01	0	34	104	0	73	14379
2026-01-17 05:16:20.17	19.94	13.78	-49.4	-61.1	3.9	7.49e-01	0	34	104	0	69	14693
2026-01-17 05:16:21.18	19.77	13.86	-54.1	-71.7	3.8	7.42e-01	0	34	104	0	78	29549
2026-01-17 05:16:22.18	19.60	13.94	-47.9	-59.2	3.8	7.44e-01	0	34	104	0	67	13134
2026-01-17 05:16:23.19	19.43	14.01	-53.0	-67.5	3.8	7.45e-01	0	34	104	0	76	20466
2026-01-17 05:16:24.20	19.25	14.09	-47.8	-59.0	3.8	7.47e-01	0	34	104	0	67	12903
2026-01-17 05:16:25.21	19.08	14.17	-48.0	-59.3	3.8	7.44e-01	0	34	104	0	67	13311
2026-01-17 05:16:26.21	18.90	14.25	-47.6	-58.7	3.8	7.42e-01	0	34	104	0	66	13203
2026-01-17 05:16:27.22	18.73	14.33	-51.3	-64.1	3.8	7.46e-01	0	34	104	0	74	15466
2026-01-17 05:16:28.23	18.55	14.40	-49.5	-61.1	3.8	7.47e-01	0	34	104	0	69	14660
2026-01-17 05:16:29.24	18.37	14.48	-53.9	-70.9	3.8	7.44e-01	0	34	104	0	78	27050
2026-01-17 05:16:30.25	18.19	14.56	-47.9	-59.1	3.8	7.44e-01	0	34	104	0	67	13088
2026-01-17 05:16:31.26	18.01	14.64	-52.6	-66.5	3.9	7.46e-01	0	34	104	0	76	18248
2026-01-17 05:16:32.26	17.83	14.71	-47.7	-58.9	3.8	7.41e-01	0	34	104	0	67	12729
2026-01-17 05:16:33.27	17.65	14.79	-47.6	-58.7	3.8	7.45e-01	0	34	104	0	66	13194
2026-01-17 05:16:34.28	17.46	14.87	-47.3	-58.4	3.8	7.42e-01	0	34	104	0	66	12672
2026-01-17 05:16:35.29	17.28	14.95	-50.1	-62.2	3.8	7.47e-01	0	34	104	0	72	13940
2026-01-17 05:16:36.30	17.09	15.02	-50.1	-61.9	3.8	7.44e-01	0	34	104	0	70	15133
2026-01-17 05:16:37.31	16.90	15.10	-54.0	-70.9	3.8	7.40e-01	0	34	104	0	79	25442
2026-01-17 05:16:38.31	16.72	15.18	-47.6	-58.8	3.9	7.47e-01	0	34	104	0	67	12627
2026-01-17 05:16:39.32	16.53	15.26	-52.2	-65.7	3.9	7.43e-01	0	34	104	0	76	16560
2026-01-17 05:16:40.33	16.34	15.33	-47.5	-58.7	3.8	7.45e-01	0	34	104	0	67	12416
2026-01-17 05:16:41.34	16.15	15.41	-46.8	-57.8	3.8	7.46e-01	0	34	104	0	65	12634
2026-01-17 05:16:42.34	15.96	15.49	-47.1	-58.2	3.8	7.44e-01	0	34	104	0	64	13904
2026-01-17 05:16:43.35	15.76	15.57	-48.9	-60.6	3.9	7.45e-01	0	34	104	0	70	12976
2026-01-17 05:16:44.36	15.57	15.64	-51.1	-63.5	3.8	7.47e-01	0	34	104	0	72	16314
2026-01-17 05:16:45.37	15.37	15.72	-53.2	-68.3	3.9	7.43e-01	0	34	104	0	78	19846
2026-01-17 05:16:46.38	15.17	15.80	-47.7	-58.9	3.8	7.43e-01	0	34	104	0	67	12780
2026-01-17 05:16:47.39	14.98	15.88	-51.5	-64.4	3.9	7.46e-01	0	34	104	0	75	15198
2026-01-17 05:16:48.40	14.78	15.95	-47.6	-58.8	3.8	7.44e-01	0	34	104	0	67	12537
2026-01-17 05:16:49.41	14.58	16.03	-46.8	-57.9	3.8	7.43e-01	0	34	104	0	65	12759
2026-01-17 05:16:50.42	14.38	16.11	-46.2	-57.1	3.8	7.45e-01	0	34	104	0	64	12358
2026-01-17 05:16:51.42	14.18	16.18	-47.7	-58.9	3.9	7.40e-01	0	34	104	0	67	12775
2026-01-17 05:16:52.43	13.97	16.26	-51.0	-63.3	3.8	7.44e-01	0	34	104	0	72	15883
2026-01-17 05:16:53.44	13.77	16.34	-52.0	-65.2	3.9	7.44e-01	0	34	104	0	76	15754
2026-01-17 05:16:54.45	13.56	16.41	-48.1	-59.4	3.8	7.44e-01	0	34	104	0	67	13416
2026-01-17 05:16:55.46	13.36	16.49	-49.8	-61.5	3.8	7.44e-01	0	34	104	0	71	13673
2026-01-17 05:16:56.46	13.15	16.57	-47.5	-58.7	3.8	7.41e-01	0	34	104	0	67	12423
2026-01-17 05:16:57.47	12.94	16.64	-46.6	-57.6	3.8	7.45e-01	0	34	104	0	65	12277
2026-01-17 05:16:58.48	12.73	16.72	-48.6	-59.9	3.8	7.44e-01	0	34	104	0	67	14317
2026-01-17 05:16:59.49	12.52	16.80	-47.9	-58.9	3.8	7.48e-01	0	34	104	0	67	12694
2026-01-17 05:17:00.50	12.31	16.87	-51.6	-64.2	3.8	7.47e-01	0	34	104	0	73	16638
2026-01-17 05:17:01.51	12.09	16.95	-51.8	-64.6	3.9	7.43e-01	0	34	104	0	75	15577
2026-01-17 05:17:02.52	11.88	17.02	-48.1	-59.2	3.8	7.43e-01	0	34	104	0	67	13258
2026-01-17 05:17:03.53	11.66	17.10	-49.7	-61.6	3.8	7.42e-01	0	34	104	0	71	13732
2026-01-17 05:17:04.54	11.44	17.17	-47.5	-58.6	3.8	7.41e-01	0	34	104	0	67	12305
2026-01-17 05:17:05.54	11.23	17.25	-46.6	-57.6	3.8	7.45e-01	0	34	104	0	65	12316
2026-01-17 05:17:06.55	11.01	17.32	-50.2	-62.1	3.8	7.46e-01	0	34	104	0	70	15506
2026-01-17 05:17:07.56	10.79	17.40	-47.0	-58.1	3.9	7.42e-01	0	34	104	0	66	12248
2026-01-17 05:17:08.57	10.56	17.47	-52.6	-66.2	3.8	7.44e-01	0	34	104	0	75	18621
2026-01-17 05:17:09.58	10.34	17.55	-50.4	-62.6	3.9	7.45e-01	0	34	104	0	73	13733
2026-01-17 05:17:10.59	10.12	17.62	-49.1	-60.6	3.8	7.46e-01	0	34	104	0	68	14597
2026-01-17 05:17:11.60	9.89	17.70	-48.2	-59.6	3.9	7.42e-01	0	34	104	0	68	12990
2026-01-17 05:17:12.61	9.66	17.77	-47.7	-58.8	3.8	7.44e-01	0	34	104	0	67	12585
2026-01-17 05:17:13.62	9.44	17.85	-47.5	-58.6	3.8	7.44e-01	0	34	104	0	66	13090
2026-01-17 05:17:14.62	9.21	17.92	-51.0	-63.3	3.8	7.43e-01	0	34	104	0	72	15907
2026-01-17 05:17:15.63	8.98	17.99	-48.0	-58.9	3.8	7.43e-01	0	34	104	0	67	12791
2026-01-17 05:17:16.64	8.75	18.07	-53.5	-68.6	3.8	7.44e-01	0	34	104	0	77	21882
2026-01-17 05:17:17.65	8.51	18.14	-49.6	-61.2	3.8	7.48e-01	0	34	104	0	71	13252
2026-01-17 05:17:18.66	8.28	18.21	-50.2	-62.1	3.8	7.43e-01	0	34	104	0	70	15513
2026-01-17 05:17:19.67	8.05	18.29	-47.7	-58.9	3.8	7.45e-01	0	34	104	0	67	12723
2026-01-17 05:17:20.67	7.81	18.36	-47.7	-58.9	3.8	7.43e-01	0	34	104	0	67	12688
2026-01-17 05:17:21.68	7.57	18.43	-47.0	-58.0	3.8	7.44e-01	0	34	104	0	66	12164
2026-01-17 05:17:22.69	7.34	18.50	-52.4	-65.9	3.8	7.48e-01	0	34	104	0	75	18066
2026-01-17 05:17:23.70	7.10	18.57	-46.7	-57.7	3.8	7.46e-01	0	34	104	0	65	12455
2026-01-17 05:17:24.71	6.85	18.64	-53.5	-68.5	3.8	7.43e-01	0	34	104	0	77	21529
2026-01-17 05:17:25.72	6.61	18.72	-49.7	-61.3	3.8	7.43e-01	0	34	104	0	71	13396
2026-01-17 05:17:26.72	6.37	18.79	-50.1	-61.9	3.8	7.45e-01	0	34	104	0	70	15225
2026-01-17 05:17:27.73	6.13	18.86	-48.0	-59.1	3.8	7.46e-01	0	34	104	0	67	12965
2026-01-17 05:17:28.74	5.88	18.93	-47.7	-58.9	3.8	7.47e-01	0	34	104	0	67	12672
2026-01-17 05:17:29.75	5.63	19.00	-46.8	-57.8	3.8	7.44e-01	0	34	104	0	65	12590
2026-01-17 05:17:30.76	5.38	19.07	-50.1	-62.0	3.8	7.48e-01	0	34	104	0	70	15348
2026-01-17 05:17:31.77	5.13	19.13	-47.1	-58.1	3.8	7.46e-01	0	34	104	0	65	13057
2026-01-17 05:17:32.77	4.89	19.20	-54.1	-70.4	3.8	7.48e-01	0	34	104	0	78	25541
2026-01-17 05:17:33.78	4.63	19.27	-49.0	-60.4	3.8	7.43e-01	0	34	104	0	70	12773
2026-01-17 05:17:34.79	4.38	19.34	-51.3	-64.1	3.8	7.47e-01	0	34	104	0	73	16495
2026-01-17 05:17:35.80	4.13	19.41	-48.1	-59.5	3.8	7.44e-01	0	34	104	0	68	12812
2026-01-17 05:17:36.80	3.87	19.47	-47.7	-58.8	3.8	7.43e-01	0	34	104	0	67	12633
2026-01-17 05:17:37.81	3.62	19.54	-47.2	-58.2	3.8	7.42e-01	0	34	104	0	66	12452
2026-01-17 05:17:38.82	3.36	19.61	-48.7	-60.1	3.9	7.45e-01	0	34	104	0	67	14543
2026-01-17 05:17:39.83	3.10	19.67	-47.1	-58.2	3.8	7.45e-01	0	34	104	0	65	13199
2026-01-17 05:17:40.84	2.84	19.74	-54.1	-70.3	3.8	7.52e-01	0	34	104	0	78	25202
2026-01-17 05:17:41.85	2.58	19.81	-48.7	-60.1	3.8	7.44e-01	0	34	104	0	69	12978
2026-01-17 05:17:42.86	2.31	19.87	-52.1	-65.3	3.8	7.47e-01	0	34	104	0	74	17695
2026-01-17 05:17:43.86	2.05	19.93	-48.0	-59.2	3.8	7.43e-01	0	34	104	0	67	13207
2026-01-17 05:17:44.87	1.79	20.00	-47.6	-58.7	3.9	7.42e-01	0	34	104	0	67	12481
2026-01-17 05:17:45.88	1.52	20.06	-46.6	-57.6	3.8	7.45e-01	0	34	104	0	65	12349
2026-01-17 05:17:46.89	1.25	20.13	-47.7	-58.9	3.8	7.43e-01	0	34	104	0	65	14345
2026-01-17 05:17:47.90	0.98	20.19	-47.2	-58.3	3.8	7.40e-01	0	34	104	0	64	14124
2026-01-17 05:17:48.91	0.71	20.25	-54.3	-71.5	3.7	7.45e-01	0	34	104	0	79	27113
2026-01-17 05:17:49.92	0.44	20.31	-48.6	-60.0	3.8	7.42e-01	0	34	104	0	69	12912
2026-01-17 05:17:50.93	0.17	20.38	-51.9	-65.0	3.8	7.45e-01	0	34	104	0	74	17091
2026-01-17 05:17:51.93	359.90	20.44	-47.8	-59.0	3.8	7.43e-01	0	34	104	0	67	12854
2026-01-17 05:17:52.94	359.63	20.50	-47.5	-58.6	3.8	7.48e-01	0	34	104	0	66	12987
2026-01-17 05:17:53.95	359.35	20.56	-47.3	-58.4	3.8	7.47e-01	0	34	104	0	66	12788
2026-01-17 05:17:54.96	359.07	20.62	-51.3	-63.8	3.9	7.42e-01	0	34	104	0	73	15881
2026-01-17 05:17:55.96	358.80	20.67	-47.3	-58.4	3.8	7.45e-01	0	34	104	0	66	12799
2026-01-17 05:17:56.97	358.52	20.73	-54.4	-71.7	3.8	7.44e-01	0	34	104	0	79	27911
2026-01-17 05:17:57.98	358.24	20.79	-48.5	-59.8	3.9	7.45e-01	0	34	104	0	69	12612
2026-01-17 05:17:58.99	357.96	20.85	-52.4	-65.9	3.8	7.42e-01	0	34	104	0	75	18063
2026-01-17 05:18:00.00	357.67	20.90	-47.7	-58.8	3.8	7.45e-01	0	34	104	0	67	12628
2026-01-17 05:18:01.01	357.39	20.96	-47.3	-58.3	3.8	7.46e-01	0	34	104	0	66	12626
2026-01-17 05:18:02.02	357.11	21.02	-46.5	-57.4	3.8	7.45e-01	0	34	104	0	65	12059
2026-01-17 05:18:03.03	356.82	21.07	-48.8	-60.3	3.8	7.45e-01	0	34	104	0	68	14072
2026-01-17 05:18:04.04	356.53	21.12	-47.3	-58.4	3.8	7.46e-01	0	34	104	0	65	13423
2026-01-17 05:18:05.05	356.25	21.18	-54.4	-71.7	3.8	7.43e-01	0	34	104	0	79	27848
2026-01-17 05:18:06.05	355.96	21.23	-48.3	-59.6	3.8	7.48e-01	0	34	104	0	68	13032
2026-01-17 05:18:07.06	355.67	21.28	-52.7	-66.4	3.8	7.45e-01	0	34	104	0	75	19139
2026-01-17 05:18:08.07	355.38	21.34	-47.6	-58.7	3.8	7.43e-01	0	34	104	0	67	12394
2026-01-17 05:18:09.08	355.09	21.39	-47.2	-58.3	3.8	7.44e-01	0	34	104	0	66	12546
2026-01-17 05:18:10.09	354.79	21.44	-47.3	-58.5	3.8	7.47e-01	0	34	104	0	66	12811
2026-01-17 05:18:11.09	354.50	21.49	-50.3	-62.2	3.8	7.44e-01	0	34	104	0	71	14870
2026-01-17 05:18:12.10	354.21	21.54	-47.6	-58.7	3.9	7.43e-01	0	34	104	0	66	13227
2026-01-17 05:18:13.11	353.91	21.58	-54.3	-71.5	3.8	7.45e-01	0	34	104	0	79	27372
2026-01-17 05:18:14.12	353.61	21.63	-48.2	-59.4	3.8	7.44e-01	0	34	104	0	68	12725
2026-01-17 05:18:15.12	353.32	21.68	-52.7	-66.4	3.8	7.48e-01	0	34	104	0	75	19106
2026-01-17 05:18:16.13	353.02	21.73	-47.6	-58.7	3.8	7.45e-01	0	34	104	0	67	12428
2026-01-17 05:18:17.14	352.72	21.77	-47.3	-58.4	3.8	7.46e-01	0	34	104	0	66	12761
2026-01-17 05:18:18.15	352.42	21.82	-46.5	-57.4	3.8	7.45e-01	0	34	104	0	65	12076
2026-01-17 05:18:19.16	352.12	21.86	-48.0	-59.3	3.8	7.42e-01	0	34	104	0	68	12541
2026-01-17 05:18:20.17	351.81	21.91	-48.2	-59.4	3.8	7.44e-01	0	34	104	0	66	14226
2026-01-17 05:18:21.18	351.51	21.95	-54.1	-70.4	3.9	7.41e-01	0	34	104	0	79	24122
2026-01-17 05:18:22.19	351.21	21.99	-47.7	-58.9	3.8	7.40e-01	0	34	104	0	67	12755
2026-01-17 05:18:23.19	350.90	22.03	-52.2	-65.4	3.8	7.42e-01	0	34	104	0	75	16990
2026-01-17 05:18:24.20	350.60	22.07	-47.4	-58.6	3.8	7.43e-01	0	34	104	0	66	12974
2026-01-17 05:18:25.21	350.29	22.11	-46.9	-57.9	3.8	7.45e-01	0	34	104	0	65	12799
2026-01-17 05:18:26.22	349.98	22.15	-46.7	-57.7	3.8	7.44e-01	0	34	104	0	65	12458
2026-01-17 05:18:27.23	349.67	22.19	-49.4	-60.8	3.9	7.46e-01	0	34	104	0	70	13264
2026-01-17 05:18:28.24	349.37	22.23	-48.9	-60.3	3.8	7.48e-01	0	34	104	0	68	14131
2026-01-17 05:18:29.25	349.05	22.26	-53.5	-68.5	3.9	7.46e-01	0	34	104	0	79	19222
2026-01-17 05:18:30.26	348.74	22.30	-47.2	-58.2	3.8	7.46e-01	0	34	104	0	66	12516
2026-01-17 05:18:31.27	348.43	22.33	-51.7	-64.6	3.8	7.44e-01	0	34	104	0	75	15555
2026-01-17 05:18:32.27	348.12	22.37	-47.2	-58.4	3.8	7.41e-01	0	34	104	0	66	12683
2026-01-17 05:18:33.28	347.81	22.40	-47.0	-58.1	3.8	7.43e-01	0	34	104	0	66	12235
2026-01-17 05:18:34.29	347.50	22.43	-46.9	-57.9	3.8	7.44e-01	0	34	104	0	65	12705
2026-01-17 05:18:35.30	347.18	22.47	-48.2	-59.5	3.8	7.42e-01	0	34	104	0	68	12845
2026-01-17 05:18:36.31	346.87	22.50	-48.9	-60.3	3.8	7.41e-01	0	34	104	0	68	14169
2026-01-17 05:18:37.32	346.55	22.53	-53.4	-67.9	3.9	7.42e-01	0	34	104	0	78	18958
2026-01-17 05:18:38.32	346.24	22.56	-47.2	-58.3	3.9	7.41e-01	0	34	104	0	66	12560
2026-01-17 05:18:39.33	345.92	22.58	-50.9	-63.6	3.8	7.41e-01	0	34	104	0	74	14668
2026-01-17 05:18:40.34	345.60	22.61	-47.3	-58.3	3.8	7.42e-01	0	34	104	0	66	12566
2026-01-17 05:18:41.35	345.28	22.64	-46.6	-57.6	3.8	7.43e-01	0	34	104	0	65	12359
2026-01-17 05:18:42.36	344.96	22.66	-46.1	-57.0	3.9	7.45e-01	0	34	104	0	63	12909
2026-01-17 05:18:43.36	344.65	22.69	-46.9	-57.8	3.9	7.43e-01	0	34	104	0	65	12577
2026-01-17 05:18:44.37	344.33	22.71	-50.1	-61.7	3.8	7.42e-01	0	34	104	0	70	14843
2026-01-17 05:18:45.38	344.01	22.74	-52.2	-65.4	3.9	7.46e-01	0	34	104	0	76	16097
2026-01-17 05:18:46.39	343.69	22.76	-46.8	-57.7	3.8	7.43e-01	0	34	104	0	65	12475
2026-01-17 05:18:47.40	343.36	22.78	-50.3	-62.2	3.9	7.45e-01	0	34	104	0	72	14045
2026-01-17 05:18:48.41	343.04	22.80	-46.9	-57.9	3.8	7.44e-01	0	34	104	0	65	12716
2026-01-17 05:18:49.42	342.72	22.82	-46.8	-57.7	3.8	7.44e-01	0	34	104	0	65	12490
2026-01-17 05:18:50.42	342.40	22.84	-47.6	-58.7	3.8	7.45e-01	0	34	104	0	65	13952
2026-01-17 05:18:51.43	342.08	22.85	-49.0	-60.6	3.8	7.42e-01	0	34	104	0	70	13049
2026-01-17 05:18:52.44	341.75	22.87	-51.1	-63.3	3.8	7.43e-01	0	34	104	0	72	15797
2026-01-17 05:18:53.45	341.43	22.89	-51.0	-63.2	3.8	7.46e-01	0	34	104	0	74	13976
2026-01-17 05:18:54.46	341.11	22.90	-46.8	-57.8	3.8	7.43e-01	0	34	104	0	65	12557
2026-01-17 05:18:55.47	340.78	22.91	-48.8	-60.1	3.8	7.47e-01	0	34	104	0	69	12966
2026-01-17 05:18:56.47	340.46	22.93	-46.8	-57.9	3.8	7.40e-01	0	34	104	0	65	12668
2026-01-17 05:18:57.48	340.13	22.94	-46.7	-57.7	3.8	7.44e-01	0	34	104	0	65	12509
2026-01-17 05:18:58.49	339.81	22.95	-47.1	-58.1	3.8	7.43e-01	0	34	104	0	64	13821
2026-01-17 05:18:59.50	339.48	22.96	-47.0	-58.0	3.8	7.45e-01	0	34	104	0	66	12153
2026-01-17 05:19:00.50	339.16	22.97	-51.0	-63.1	3.8	7.45e-01	0	34	104	0	72	15443
2026-01-17 05:19:01.51	338.83	22.98	-50.9	-63.3	3.8	7.44e-01	0	34	104	0	74	14056
2026-01-17 05:19:02.52	338.51	22.98	-46.9	-57.9	3.8	7.50e-01	0	34	104	0	65	12686
2026-01-17 05:19:03.53	338.18	22.99	-48.8	-60.1	3.9	7.45e-01	0	34	104	0	69	13104
2026-01-17 05:19:04.54	337.86	22.99	-46.9	-57.9	3.8	7.48e-01	0	34	104	0	65	12781
2026-01-17 05:19:05.54	337.53	23.00	-46.3	-57.2	3.8	7.42e-01	0	34	104	0	64	12413
2026-01-17 05:19:06.55	337.21	23.00	-47.0	-58.0	3.8	7.46e-01	0	34	104	0	64	13712
2026-01-17 05:19:07.56	336.88	23.00	-46.3	-57.4	3.8	7.43e-01	0	34	104	0	64	12670
2026-01-17 05:19:08.57	336.55	23.01	-52.0	-64.8	3.8	7.44e-01	0	34	104	0	74	16699
2026-01-17 05:19:09.58	336.23	23.01	-49.8	-61.5	3.8	7.45e-01	0	34	104	0	71	13578
2026-01-17 05:19:10.59	335.90	23.01	-47.5	-58.5	3.8	7.47e-01	0	34	104	0	65	13622
2026-01-17 05:19:11.59	335.57	23.00	-47.7	-58.8	3.8	7.45e-01	0	34	104	0	67	12632
2026-01-17 05:19:12.60	335.25	23.00	-46.5	-57.6	3.8	7.45e-01	0	34	104	0	65	12363
2026-01-17 05:19:13.61	334.92	23.00	-46.2	-57.2	3.8	7.44e-01	0	34	104	0	64	12400
2026-01-17 05:19:14.61	334.60	22.99	-47.1	-58.1	3.8	7.44e-01	0	34	104	0	64	13836
2026-01-17 05:19:15.62	334.27	22.99	-46.2	-57.1	3.8	7.44e-01	0	34	104	0	64	12254
2026-01-17 05:19:16.63	333.95	22.98	-51.8	-64.7	3.8	7.46e-01	0	34	104	0	74	16636
2026-01-17 05:19:17.64	333.62	22.97	-49.2	-60.7	3.9	7.42e-01	0	34	104	0	70	13175
2026-01-17 05:19:18.65	333.29	22.97	-48.5	-59.9	3.8	7.44e-01	0	34	104	0	67	14214
2026-01-17 05:19:19.66	332.97	22.96	-47.0	-58.1	3.8	7.42e-01	0	34	104	0	66	12276
2026-01-17 05:19:20.67	332.64	22.95	-46.5	-57.5	3.8	7.46e-01	0	34	104	0	65	12220
2026-01-17 05:19:21.67	332.32	22.94	-46.2	-57.1	3.8	7.43e-01	0	34	104	0	64	12274
2026-01-17 05:19:22.68	331.99	22.92	-47.9	-59.2	3.8	7.44e-01	0	34	104	0	66	13906
2026-01-17 05:19:23.69	331.67	22.91	-46.1	-57.1	3.8	7.45e-01	0	34	104	0	64	12284
2026-01-17 05:19:24.70	331.34	22.90	-52.6	-66.0	3.8	7.50e-01	0	34	104	0	75	18209
2026-01-17 05:19:25.71	331.02	22.88	-49.1	-60.5	3.8	7.43e-01	0	34	104	0	70	12870
2026-01-17 05:19:26.72	330.70	22.87	-48.5	-59.8	3.8	7.47e-01	0	34	104	0	67	14080
2026-01-17 05:19:27.73	330.37	22.85	-46.9	-57.8	3.8	7.45e-01	0	34	104	0	65	12564
2026-01-17 05:19:28.74	330.05	22.83	-46.4	-57.4	3.8	7.45e-01	0	34	104	0	64	12717
2026-01-17 05:19:29.75	329.73	22.81	-46.1	-57.2	3.8	7.47e-01	0	34	104	0	64	12423
2026-01-17 05:19:30.76	329.40	22.79	-47.9	-59.1	3.8	7.45e-01	0	34	104	0	66	13759
2026-01-17 05:19:31.76	329.09	22.77	-46.2	-57.1	3.8	7.43e-01	0	34	104	0	64	12258
2026-01-17 05:19:32.77	328.76	22.75	-53.2	-67.5	3.8	7.47e-01	0	34	104	0	76	20342
2026-01-17 05:19:33.78	328.44	22.73	-48.7	-60.1	3.8	7.45e-01	0	34	104	0	69	12980
2026-01-17 05:19:34.79	328.12	22.71	-49.7	-61.3	3.8	7.45e-01	0	34	104	0	69	15005
2026-01-17 05:19:35.80	327.80	22.68	-46.7	-57.7	3.8	7.42e-01	0	34	104	0	65	12486
2026-01-17 05:19:36.81	327.48	22.66	-46.4	-57.4	3.8	7.44e-01	0	34	104	0	64	12713
2026-01-17 05:19:37.82	327.16	22.63	-46.1	-57.1	3.8	7.46e-01	0	34	104	0	64	12269
2026-01-17 05:19:38.82	326.85	22.60	-50.8	-62.7	3.8	7.46e-01	0	34	104	0	71	15583
2026-01-17 05:19:39.83	326.53	22.58	-46.1	-56.9	3.8	7.43e-01	0	34	104	0	64	12094
2026-01-17 05:19:40.84	326.21	22.55	-53.5	-68.3	3.8	7.47e-01	0	34	104	0	77	21118
2026-01-17 05:19:41.85	325.90	22.52	-48.6	-60.0	3.8	7.44e-01	0	34	104	0	69	12825
2026-01-17 05:19:42.86	325.58	22.49	-50.6	-62.6	3.8	7.43e-01	0	34	104	0	71	15429
2026-01-17 05:19:43.86	325.27	22.46	-46.4	-57.3	3.8	7.43e-01	0	34	104	0	64	12644
2026-01-17 05:19:44.87	324.95	22.43	-46.5	-57.4	3.8	7.44e-01	0	34	104	0	64	12681
2026-01-17 05:19:45.88	324.64	22.39	-46.6	-57.7	3.8	7.46e-01	0	34	104	0	64	13210
2026-01-17 05:19:46.89	324.33	22.36	-48.2	-59.8	3.8	7.46e-01	0	34	104	0	67	14141
2026-01-17 05:19:47.90	324.01	22.32	-46.2	-57.1	3.8	7.45e-01	0	34	104	0	64	12247
2026-01-17 05:19:48.90	323.71	22.29	-53.5	-68.1	3.8	7.47e-01	0	34	104	0	77	20770
2026-01-17 05:19:49.91	323.39	22.25	-48.6	-59.9	3.8	7.47e-01	0	34	104	0	69	12795
2026-01-17 05:19:50.92	323.08	22.22	-50.6	-62.3	3.8	7.43e-01	0	34	104	0	71	14947
2026-01-17 05:19:51.93	322.78	22.18	-47.2	-58.2	3.8	7.45e-01	0	34	104	0	66	12497
2026-01-17 05:19:52.94	322.47	22.14	-47.3	-58.7	3.8	7.44e-01	0	34	104	0	66	13181
2026-01-17 05:19:53.94	322.16	22.10	-46.9	-58.0	3.8	7.43e-01	0	34	104	0	65	12848
2026-01-17 05:19:54.95	321.85	22.06	-46.4	-56.9	3.8	7.43e-01	0	34	104	0	64	12039
2026-01-17 05:19:55.96	321.55	22.02	-46.4	-57.6	3.8	7.44e-01	0	34	104	0	64	13064
2026-01-17 05:19:56.97	321.24	21.98	-53.4	-68.4	3.8	7.46e-01	0	34	104	0	77	21473
2026-01-17 05:19:57.98	320.94	21.94	-48.4	-59.4	3.8	7.44e-01	0	34	104	0	68	12666
2026-01-17 05:19:58.98	320.64	21.89	-51.4	-63.7	3.8	7.44e-01	0	34	104	0	73	15743
2026-01-17 05:19:59.99	320.33	21.85	-46.6	-58.1	3.8	7.42e-01	0	34	104	0	65	12973
2026-01-17 05:20:01.00	320.03	21.81	-46.6	-57.5	3.8	7.46e-01	0	34	104	0	65	12164
2026-01-17 05:20:02.01	319.73	21.76	-46.5	-56.8	3.8	7.40e-01	0	34	104	0	65	11282
2026-01-17 05:20:03.02	319.43	21.71	-50.4	-63.0	3.8	7.44e-01	0	34	104	0	71	16160
2026-01-17 05:20:04.02	319.14	21.67	-46.2	-57.9	3.8	7.44e-01	0	34	104	0	64	13559
2026-01-17 05:20:05.03	318.84	21.62	-53.4	-67.3	3.8	7.44e-01	0	34	104	0	77	18845
2026-01-17 05:20:06.04	318.54	21.57	-47.7	-58.7	3.8	7.47e-01	0	34	104	0	67	12475
2026-01-17 05:20:07.05	318.24	21.52	-51.3	-64.1	3.8	7.44e-01	0	34	104	0	73	16378
2026-01-17 05:20:08.06	317.95	21.47	-46.3	-56.8	3.8	7.48e-01	0	34	104	0	64	11893
2026-01-17 05:20:09.06	317.66	21.42	-46.2	-48.3	5.3	7.02e-01	20	34	104	0	64	4464
2026-01-17 05:20:10.07	317.37	21.37	-46.4	-48.0	23.1	6.01e-01	0	34	0	524288	63	4550
2026-01-17 05:20:11.08	317.07	21.32	-45.3	-46.5	24.9	6.03e-01	0	34	0	2097152	62	4081
2026-01-17 05:20:12.09	316.78	21.27	-45.3	-46.5	24.6	6.02e-01	0	34	0	4194304	62	4083
2026-01-17 05:20:13.10	316.49	21.22	-46.1	-47.6	23.9	6.01e-01	0	34	0	5767168	63	4350
2026-01-17 05:20:14.10	316.21	21.16	-45.7	-47.0	24.5	6.03e-01	0	34	0	7864320	63	4071
2026-01-17 05:20:15.11	315.92	21.11	-46.2	-47.7	23.9	6.02e-01	0	34	0	9961472	63	4392
2026-01-17 05:20:16.12	315.63	21.06	-46.4	-47.8	23.7	6.03e-01	0	34	0	11534336	63	4491
2026-01-17 05:20:17.13	315.35	21.00	-45.8	-47.0	24.4	6.04e-01	0	34	0	13631488	63	4095
2026-01-17 05:20:18.14	315.06	20.95	-45.8	-47.1	24.3	6.05e-01	0	34	0	15728640	63	4126
2026-01-17 05:20:19.15	314.78	20.89	-46.1	-47.5	24.0	6.03e-01	0	34	0	17301504	63	4325
2026-01-17 05:20:20.16	314.49	20.83	-46.6	-48.1	23.4	6.05e-01	0	34	0	19398656	63	4650
2026-01-17 05:20:21.17	314.21	20.77	-46.2	-47.6	24.0	6.03e-01	0	34	0	20971520	63	4386
2026-01-17 05:20:22.17	313.94	20.72	-45.4	-46.6	24.7	6.05e-01	0	34	0	23068672	62	4139
2026-01-17 05:20:23.18	313.66	20.66	-45.9	-47.3	24.1	6.01e-01	0	34	0	25165824	62	4461
2026-01-17 05:20:24.19	313.38	20.60	-45.6	-46.9	24.6	6.04e-01	0	34	0	26738688	62	4260
2026-01-17 05:20:25.20	313.10	20.54	-45.5	-46.7	24.6	6.03e-01	0	34	0	28835840	62	4190
2026-01-17 05:20:26.21	312.83	20.48	-45.9	-47.3	24.2	6.02e-01	0	34	0	30408704	62	4460
2026-01-17 05:20:27.22	312.55	20.42	-45.5	-46.8	24.8	6.02e-01	0	34	0	32505856	62	4199
2026-01-17 05:20:28.22	312.28	20.36	-45.7	-47.0	24.5	6.02e-01	0	34	0	34078720	62	4327
2026-01-17 05:20:29.23	312.01	20.30	-45.6	-46.9	24.6	6.04e-01	0	34	0	36175872	62	4286
2026-01-17 05:20:30.24	311.74	20.23	-45.6	-47.0	24.5	6.03e-01	0	34	0	38273024	62	4303
2026-01-17 05:20:31.25	311.47	20.17	-45.7	-47.0	24.5	6.05e-01	0	34	0	40370176	62	4323
2026-01-17 05:20:32.26	311.20	20.11	-45.2	-46.4	25.0	6.02e-01	0	34	0	41943040	62	4043
2026-01-17 05:20:33.27	310.93	20.05	-46.0	-47.4	24.1	6.05e-01	0	34	0	44040192	62	4515
2026-01-17 05:20:34.28	310.66	19.98	-45.4	-46.7	24.8	6.04e-01	0	34	0	45613056	62	4173
2026-01-17 05:20:35.29	310.40	19.92	-45.5	-46.8	24.4	6.02e-01	0	34	0	47710208	62	4195
2026-01-17 05:20:36.29	310.14	19.85	-46.0	-47.4	24.1	6.06e-01	0	34	0	49283072	62	4543
2026-01-17 05:20:37.30	309.87	19.79	-45.4	-46.7	24.9	5.99e-01	0	34	0	51380224	62	4156
2026-01-17 05:20:38.31	309.61	19.72	-45.7	-47.1	24.4	6.02e-01	0	34	0	53477376	62	4353
2026-01-17 05:20:39.32	309.35	19.66	-45.6	-46.9	24.6	6.04e-01	0	34	0	55050240	62	4269
2026-01-17 05:20:40.32	309.09	19.59	-45.2	-46.4	25.1	6.04e-01	0	34	0	57147392	62	4044
2026-01-17 05:20:41.33	308.84	19.52	-45.3	-46.6	24.8	6.04e-01	0	34	0	58720256	62	4128
2026-01-17 05:20:42.34	308.58	19.46	-45.8	-47.2	24.2	6.03e-01	0	34	0	60817408	62	4437
2026-01-17 05:20:43.35	308.32	19.39	-45.2	-46.4	25.0	6.03e-01	0	34	0	62914560	62	4019
2026-01-17 05:20:44.36	308.07	19.32	-46.6	-48.2	23.3	6.03e-01	0	34	0	64487424	63	4686
2026-01-17 05:20:45.37	307.82	19.25	-45.4	-46.6	24.8	6.02e-01	0	34	0	66584576	62	4122
2026-01-17 05:20:46.38	307.56	19.18	-46.2	-47.7	23.4	6.00e-01	0	34	0	68681728	64	4176
2026-01-17 05:20:47.38	307.32	19.11	-46.3	-47.7	23.7	6.03e-01	0	34	0	70254592	63	4413
2026-01-17 05:20:48.39	307.07	19.04	-45.8	-47.1	24.2	6.06e-01	0	34	0	72351744	63	4115
2026-01-17 05:20:49.40	306.82	18.98	-46.3	-47.7	23.8	6.02e-01	0	34	0	73924608	63	4436
2026-01-17 05:20:50.41	306.57	18.90	-45.7	-47.0	24.6	6.03e-01	0	34	0	76021760	63	4073
2026-01-17 05:20:51.42	306.32	18.83	-46.2	-47.7	23.7	6.05e-01	0	34	0	77594624	63	4422
2026-01-17 05:20:52.43	306.08	18.76	-45.4	-46.7	24.7	6.03e-01	0	34	0	79691776	62	4155
2026-01-17 05:20:53.44	305.83	18.69	-45.6	-47.0	24.2	6.03e-01	0	34	0	81788928	62	4305
2026-01-17 05:20:54.44	305.59	18.62	-45.7	-47.1	24.4	6.04e-01	0	34	0	83886080	62	4370
2026-01-17 05:20:55.45	305.35	18.55	-45.1	-46.4	25.1	6.01e-01	0	34	0	85458944	62	4007
2026-01-17 05:20:56.46	305.11	18.48	-46.0	-47.4	24.1	6.03e-01	0	34	0	87556096	62	4517
2026-01-17 05:20:57.47	304.87	18.41	-45.0	-46.2	25.2	6.03e-01	0	34	0	89128960	62	3940
2026-01-17 05:20:58.48	304.64	18.33	-46.0	-47.4	24.1	6.03e-01	0	34	0	91226112	62	4541
2026-01-17 05:20:59.49	304.40	18.26	-45.1	-46.4	25.1	6.04e-01	0	34	0	92798976	62	4007
2026-01-17 05:21:00.50	304.17	18.19	-46.1	-47.6	23.9	6.04e-01	0	34	0	94896128	62	4624
2026-01-17 05:21:01.51	303.93	18.12	-45.4	-46.7	24.8	6.01e-01	0	34	0	96993280	62	4146
2026-01-17 05:21:02.52	303.70	18.04	-45.8	-47.2	24.4	6.03e-01	0	34	0	98566144	62	4396
2026-01-17 05:21:03.52	303.47	17.97	-45.6	-46.9	24.6	6.01e-01	0	34	0	100663296	62	4255
2026-01-17 05:21:04.53	303.24	17.90	-45.6	-46.9	24.6	6.04e-01	0	34	0	102236160	62	4264
2026-01-17 05:21:05.54	303.01	17.82	-45.4	-46.7	24.7	6.04e-01	0	34	0	104333312	62	4192
2026-01-17 05:21:06.55	302.78	17.75	-45.5	-46.8	24.7	6.06e-01	0	34	0	106430464	62	4200
2026-01-17 05:21:07.56	302.55	17.67	-45.8	-47.2	24.2	6.03e-01	0	34	0	108003328	62	4422
2026-01-17 05:21:08.57	302.33	17.60	-45.9	-47.2	24.1	6.02e-01	0	34	0	110100480	62	4427
2026-01-17 05:21:09.57	302.11	17.53	-45.9	-47.3	24.1	6.06e-01	0	34	0	112197632	62	4454
2026-01-17 05:21:10.58	301.88	17.45	-45.7	-47.1	24.4	6.02e-01	0	34	0	113770496	62	4366
2026-01-17 05:21:11.59	301.66	17.38	-45.9	-47.2	24.3	6.02e-01	0	34	0	115867648	62	4430
2026-01-17 05:21:12.60	301.44	17.30	-46.2	-47.7	23.9	6.02e-01	0	34	0	117440512	63	4403
2026-01-17 05:21:13.61	301.22	17.22	-45.5	-46.8	24.6	6.04e-01	0	34	0	119537664	63	3992
2026-01-17 05:21:14.62	301.00	17.15	-46.0	-47.4	24.1	6.02e-01	0	34	0	121110528	63	4262
2026-01-17 05:21:15.62	300.79	17.07	-45.1	-46.4	25.0	6.03e-01	0	34	0	123207680	62	4020
2026-01-17 05:21:16.63	300.57	17.00	-45.6	-46.9	24.5	6.00e-01	0	34	0	125304832	62	4281
2026-01-17 05:21:17.64	300.36	16.92	-45.3	-46.6	24.6	6.05e-01	0	34	0	126877696	62	4120
2026-01-17 05:21:18.65	300.14	16.85	-45.2	-46.5	24.9	6.03e-01	0	34	0	128974848	62	4072
2026-01-17 05:21:19.66	299.93	16.77	-45.5	-46.8	24.7	6.04e-01	0	34	0	131072000	62	4206
2026-01-17 05:21:20.66	299.72	16.69	-45.6	-46.9	24.5	6.02e-01	0	34	0	132644864	62	4283
2026-01-17 05:21:21.67	299.51	16.62	-45.5	-46.8	24.7	6.04e-01	0	34	0	134742016	62	4210
2026-01-17 05:21:22.68	299.30	16.54	-45.7	-47.1	24.4	6.03e-01	0	34	0	136314880	62	4360
2026-01-17 05:21:23.69	299.09	16.46	-45.4	-46.6	24.8	6.05e-01	0	34	0	138412032	62	4140
2026-01-17 05:21:24.70	298.88	16.39	-45.5	-46.8	24.7	6.04e-01	0	34	0	140509184	62	4210
2026-01-17 05:21:25.71	298.68	16.31	-45.4	-46.7	24.7	6.03e-01	0	34	0	142082048	62	4168
2026-01-17 05:21:26.72	298.47	16.23	-45.3	-46.6	24.9	6.04e-01	0	34	0	144179200	62	4116
2026-01-17 05:21:27.73	298.27	16.16	-45.6	-47.0	24.5	6.04e-01	0	34	0	145752064	62	4314
2026-01-17 05:21:28.73	298.07	16.08	-45.3	-46.6	24.7	6.01e-01	0	34	0	147849216	62	4132
2026-01-17 05:21:29.74	297.87	16.00	-45.4	-46.7	24.7	6.03e-01	0	34	0	149946368	62	4176
2026-01-17 05:21:30.75	297.67	15.93	-45.9	-47.3	24.2	6.03e-01	0	34	0	151519232	62	4448
2026-01-17 05:21:31.76	297.47	15.85	-45.6	-46.8	24.5	6.01e-01	0	34	0	153616384	62	4240
2026-01-17 05:21:32.77	297.27	15.77	-45.6	-46.9	24.5	6.04e-01	0	34	0	155189248	62	4290
2026-01-17 05:21:33.78	297.07	15.69	-46.1	-47.6	23.9	6.04e-01	0	34	0	157286400	62	4628
2026-01-17 05:21:34.78	296.88	15.62	-45.5	-46.8	24.5	6.02e-01	0	34	0	159383552	62	4207
2026-01-17 05:21:35.79	296.68	15.54	-45.7	-47.0	24.4	6.06e-01	0	34	0	160956416	62	4307
2026-01-17 05:21:36.80	296.49	15.46	-46.3	-47.8	23.8	6.05e-01	0	34	0	163053568	63	4467
2026-01-17 05:21:37.81	296.30	15.38	-45.7	-47.0	24.3	6.05e-01	0	34	0	164626432	63	4094
2026-01-17 05:21:38.82	296.11	15.31	-45.9	-47.2	24.3	6.02e-01	0	34	0	166723584	63	4178
2026-01-17 05:21:39.82	295.92	15.23	-45.8	-47.2	24.3	6.04e-01	0	34	0	168820736	63	4162
2026-01-17 05:21:40.84	295.73	15.15	-45.2	-46.5	24.9	6.05e-01	0	34	0	170393600	62	4061
2026-01-17 05:21:41.84	295.54	15.07	-45.2	-46.5	24.9	6.05e-01	0	34	0	172490752	62	4064
2026-01-17 05:21:42.85	295.35	15.00	-45.8	-47.2	24.3	6.03e-01	0	34	0	174587904	62	4402
2026-01-17 05:21:43.86	295.17	14.92	-45.9	-47.3	24.1	6.02e-01	0	34	0	176160768	62	4444
2026-01-17 05:21:44.86	294.98	14.84	-45.7	-47.0	24.5	6.01e-01	0	34	0	178257920	62	4294
2026-01-17 05:21:45.87	294.80	14.76	-45.8	-47.1	24.3	6.03e-01	0	34	0	179830784	62	4371
2026-01-17 05:21:46.88	294.62	14.68	-46.0	-47.4	24.0	6.05e-01	0	34	0	181927936	62	4536
2026-01-17 05:21:47.89	294.43	14.61	-45.3	-46.5	24.8	6.03e-01	0	34	0	183500800	62	4096
2026-01-17 05:21:48.90	294.25	14.53	-45.2	-46.4	24.9	6.03e-01	0	34	0	185597952	62	4045
2026-01-17 05:21:49.91	294.07	14.45	-46.0	-47.4	24.0	6.01e-01	0	34	0	187695104	62	4538
2026-01-17 05:21:50.92	293.89	14.37	-45.8	-47.2	24.1	6.01e-01	0	34	0	189267968	62	4431
2026-01-17 05:21:51.92	293.72	14.30	-45.6	-46.9	24.6	6.01e-01	0	34	0	191365120	62	4248
2026-01-17 05:21:52.93	293.54	14.22	-45.8	-47.1	24.2	6.04e-01	0	34	0	192937984	62	4390
2026-01-17 05:21:53.94	293.36	14.14	-46.2	-47.7	23.8	6.04e-01	0	34	0	195035136	63	4421
2026-01-17 05:21:54.95	293.19	14.06	-46.0	-47.4	23.9	6.01e-01	0	34	0	197132288	63	4252
2026-01-17 05:21:55.96	293.02	13.98	-46.2	-47.5	23.9	6.03e-01	0	34	0	198705152	63	4333
2026-01-17 05:21:56.97	292.84	13.91	-46.1	-47.6	23.9	6.03e-01	0	34	0	200802304	63	4342
2026-01-17 05:21:57.97	292.67	13.83	-46.5	-48.0	23.5	6.03e-01	0	34	0	202899456	63	4573
2026-01-17 05:21:58.98	292.50	13.75	-46.0	-47.4	23.9	6.02e-01	0	34	0	204472320	63	4289
2026-01-17 05:21:59.99	292.33	13.67	-45.6	-46.9	24.5	6.03e-01	0	34	0	206569472	63	4018
2026-01-17 05:22:01.00	292.16	13.60	-45.8	-47.1	24.2	6.02e-01	0	34	0	208142336	63	4141
2026-01-17 05:22:02.01	291.99	13.52	-46.3	-47.8	23.6	6.02e-01	0	34	0	210239488	63	4447
2026-01-17 05:22:03.02	291.83	13.44	-46.3	-47.8	23.5	6.03e-01	0	34	0	211812352	63	4456
2026-01-17 05:22:04.02	291.66	13.36	-46.0	-47.4	24.0	6.03e-01	0	34	0	213909504	63	4247
2026-01-17 05:22:05.03	291.50	13.29	-46.0	-47.3	24.1	6.00e-01	0	34	0	216006656	63	4237
2026-01-17 05:22:06.04	291.33	13.21	-46.3	-47.8	23.5	6.03e-01	0	34	0	218103808	63	4472
2026-01-17 05:22:07.05	291.17	13.13	-46.5	-48.1	23.3	6.03e-01	0	34	0	219676672	63	4614
2026-01-17 05:22:08.06	291.01	13.06	-46.0	-47.4	23.7	6.04e-01	0	34	0	221773824	63	4283
2026-01-17 05:22:09.06	290.85	12.98	-45.8	-47.1	24.3	6.07e-01	0	34	0	223346688	63	4136
2026-01-17 05:22:10.07	290.69	12.90	-46.0	-47.4	24.0	6.02e-01	0	34	0	225443840	63	4259
2026-01-17 05:22:11.08	290.53	12.82	-46.6	-48.1	23.4	6.05e-01	0	34	0	227016704	63	4615
2026-01-17 05:22:12.09	290.37	12.75	-46.6	-48.1	23.2	6.02e-01	0	34	0	229113856	64	4368
2026-01-17 05:22:13.10	290.21	12.67	-46.0	-47.4	23.8	6.02e-01	0	34	0	231211008	64	4042
2026-01-17 05:22:14.11	290.05	12.59	-46.1	-47.4	24.0	6.02e-01	0	34	0	232783872	63	4278
2026-01-17 05:22:15.12	289.90	12.52	-45.9	-47.3	24.1	6.02e-01	0	34	0	234881024	63	4218
2026-01-17 05:22:16.12	289.74	12.44	-46.3	-47.7	23.7	6.04e-01	0	34	0	236453888	63	4428
2026-01-17 05:22:17.14	289.59	12.36	-46.6	-48.2	23.2	6.05e-01	0	34	0	238551040	64	4425
2026-01-17 05:22:18.14	289.43	12.29	-46.2	-47.7	23.6	6.02e-01	0	34	0	240648192	64	4155
2026-01-17 05:22:19.15	289.28	12.21	-46.2	-47.6	23.6	6.02e-01	0	34	0	242221056	64	4145
2026-01-17 05:22:20.16	289.13	12.13	-45.9	-47.2	24.2	6.06e-01	0	34	0	244318208	63	4180
2026-01-17 05:22:21.17	288.98	12.06	-46.1	-47.5	23.9	6.03e-01	0	34	0	246415360	63	4308
2026-01-17 05:22:22.17	288.83	11.98	-46.5	-48.0	23.5	6.02e-01	0	34	0	247988224	63	4556
2026-01-17 05:22:23.18	288.68	11.91	-46.5	-48.0	23.4	6.02e-01	0	34	0	250085376	63	4571
2026-01-17 05:22:24.19	288.53	11.83	-46.5	-47.9	23.3	6.03e-01	0	34	0	251658240	63	4545
2026-01-17 05:22:25.19	288.39	11.75	-45.9	-47.3	24.0	6.03e-01	0	34	0	253755392	63	4230
2026-01-17 05:22:26.20	288.24	11.68	-45.9	-47.3	24.1	6.01e-01	0	34	0	255328256	63	4215
2026-01-17 05:22:27.21	288.09	11.60	-46.0	-47.4	24.0	6.03e-01	0	34	0	257425408	63	4253
2026-01-17 05:22:28.21	287.95	11.53	-46.1	-47.5	23.9	6.03e-01	0	34	0	259522560	63	4324
2026-01-17 05:22:29.22	287.81	11.45	-46.3	-47.8	23.6	6.05e-01	0	34	0	261095424	63	4464
2026-01-17 05:22:30.23	287.66	11.38	-46.5	-47.9	23.5	6.03e-01	0	34	0	263192576	63	4540
2026-01-17 05:22:31.24	287.52	11.30	-46.4	-47.9	23.5	6.04e-01	0	34	0	264765440	63	4508
2026-01-17 05:22:32.24	287.38	11.23	-46.3	-47.8	23.6	6.01e-01	0	34	0	266862592	63	4453
2026-01-17 05:22:33.25	287.24	11.15	-46.4	-47.9	23.5	6.02e-01	0	34	0	268959744	63	4496
2026-01-17 05:22:34.26	287.10	11.07	-46.3	-47.8	23.6	6.01e-01	0	34	0	270532608	63	4461
2026-01-17 05:22:35.27	286.96	11.00	-46.2	-47.7	23.7	6.03e-01	0	34	0	272629760	63	4404
2026-01-17 05:22:36.28	286.82	10.92	-46.4	-47.9	23.5	6.02e-01	0	34	0	274726912	63	4538
2026-01-17 05:22:37.28	286.68	10.85	-46.6	-48.2	23.2	6.04e-01	0	34	0	276299776	63	4663
2026-01-17 05:22:38.29	286.55	10.78	-46.4	-47.9	23.5	6.02e-01	0	34	0	278396928	63	4532
2026-01-17 05:22:39.30	286.41	10.70	-46.6	-48.0	23.3	6.04e-01	0	34	0	279969792	63	4597
2026-01-17 05:22:40.31	286.28	10.63	-46.3	-47.8	23.6	6.04e-01	0	34	0	282066944	63	4451
2026-01-17 05:22:41.32	286.14	10.55	-46.5	-47.9	23.4	6.03e-01	0	34	0	283639808	63	4534
2026-01-17 05:22:42.33	286.01	10.48	-46.5	-48.0	23.3	6.03e-01	0	34	0	285736960	63	4554
2026-01-17 05:22:43.34	285.87	10.40	-46.6	-48.1	23.2	6.02e-01	0	34	0	287834112	63	4647
2026-01-17 05:22:44.34	285.74	10.33	-46.7	-48.2	23.0	6.04e-01	0	34	0	289931264	64	4428
2026-01-17 05:22:45.35	285.61	10.25	-46.8	-48.3	22.9	6.04e-01	0	34	0	291504128	64	4488
2026-01-17 05:22:46.36	285.48	10.18	-46.6	-48.1	23.1	6.02e-01	0	34	0	293601280	64	4363
2026-01-17 05:22:47.37	285.35	10.11	-46.6	-48.1	23.0	6.00e-01	0	34	0	295174144	64	4391
2026-01-17 05:22:48.37	285.22	10.03	-46.3	-47.8	23.4	6.03e-01	0	34	0	297271296	64	4201
2026-01-17 05:22:49.38	285.09	9.96	-46.3	-47.7	23.5	6.03e-01	0	34	0	298844160	64	4180
2026-01-17 05:22:50.39	284.96	9.89	-46.4	-47.9	23.3	6.04e-01	0	34	0	300941312	64	4250
2026-01-17 05:22:51.40	284.84	9.81	-46.4	-47.9	23.3	6.03e-01	0	34	0	303038464	64	4244
2026-01-17 05:22:52.40	284.71	9.74	-46.6	-48.1	23.1	6.03e-01	0	34	0	304611328	64	4386
2026-01-17 05:22:53.41	284.58	9.67	-46.5	-48.0	23.2	6.04e-01	0	34	0	306708480	64	4331
2026-01-17 05:22:54.42	284.46	9.59	-46.7	-48.2	23.0	6.00e-01	0	34	0	308281344	64	4438
2026-01-17 05:22:55.43	284.33	9.52	-46.7	-48.3	22.9	6.04e-01	0	34	0	310378496	64	4464
2026-01-17 05:22:56.44	284.21	9.45	-46.7	-48.2	23.0	6.06e-01	0	34	0	311951360	64	4423
2026-01-17 05:22:57.44	284.09	9.38	-46.7	-48.3	22.9	6.02e-01	0	34	0	314048512	64	4455
2026-01-17 05:22:58.45	283.96	9.30	-46.8	-48.3	22.9	6.05e-01	0	34	0	316145664	64	4488
2026-01-17 05:22:59.46	283.84	9.23	-46.5	-48.1	23.1	6.04e-01	0	34	0	318242816	64	4355
2026-01-17 05:23:00.47	283.72	9.16	-46.8	-48.3	22.8	6.05e-01	0	34	0	319815680	64	4487
2026-01-17 05:23:01.48	283.60	9.09	-46.7	-48.3	22.8	6.04e-01	0	34	0	321912832	64	4472
2026-01-17 05:23:02.48	283.48	9.01	-46.7	-48.3	22.9	6.03e-01	0	34	0	323485696	64	4473
2026-01-17 05:23:03.49	283.36	8.94	-46.7	-48.3	22.8	6.04e-01	0	34	0	325582848	64	4445
2026-01-17 05:23:04.50	283.24	8.87	-46.8	-48.4	22.8	6.02e-01	0	34	0	327155712	64	4501
2026-01-17 05:23:05.51	283.13	8.80	-46.8	-48.4	22.7	6.02e-01	0	34	0	329252864	64	4524
2026-01-17 05:23:06.52	283.01	8.73	-46.8	-48.4	22.8	6.02e-01	0	34	0	331350016	64	4511
2026-01-17 05:23:07.53	282.89	8.65	-46.6	-48.1	23.0	6.07e-01	0	34	0	332922880	64	4374
2026-01-17 05:23:08.54	282.78	8.58	-46.6	-48.1	23.0	6.03e-01	0	34	0	335020032	64	4376
2026-01-17 05:23:09.54	282.66	8.51	-46.6	-48.2	22.9	6.02e-01	0	34	0	337117184	64	4393
2026-01-17 05:23:10.55	282.55	8.44	-46.7	-48.3	22.8	6.04e-01	0	34	0	338690048	64	4475
2026-01-17 05:23:11.56	282.43	8.37	-46.9	-48.5	22.6	6.00e-01	0	34	0	340787200	64	4564
2026-01-17 05:23:12.57	282.32	8.30	-46.8	-48.4	22.7	6.05e-01	0	34	0	342360064	64	4514
2026-01-17 05:23:13.58	282.21	8.23	-46.8	-48.4	22.7	6.04e-01	0	34	0	344457216	64	4512
2026-01-17 05:23:14.58	282.09	8.16	-46.9	-48.5	22.5	6.04e-01	0	34	0	346554368	64	4575
2026-01-17 05:23:15.59	281.98	8.09	-47.0	-48.7	22.4	6.04e-01	0	34	0	348127232	64	4655
2026-01-17 05:23:16.60	281.87	8.02	-47.0	-48.6	22.5	6.02e-01	0	34	0	350224384	64	4627
2026-01-17 05:23:17.61	281.76	7.95	-47.0	-48.6	22.4	6.02e-01	0	34	0	351797248	64	4630
2026-01-17 05:23:18.62	281.65	7.88	-47.0	-48.6	22.4	6.04e-01	0	34	0	353894400	64	4627
2026-01-17 05:23:19.63	281.54	7.81	-47.0	-48.6	22.5	6.04e-01	0	34	0	355467264	64	4622
2026-01-17 05:23:20.64	281.43	7.74	-47.2	-48.8	22.3	6.06e-01	0	34	0	357564416	64	4750
2026-01-17 05:23:21.64	281.33	7.67	-47.1	-48.8	22.3	6.01e-01	0	34	0	359661568	65	4488
2026-01-17 05:23:22.65	281.22	7.60	-47.2	-48.9	22.1	6.03e-01	0	34	0	361234432	65	4523
2026-01-17 05:23:23.66	281.11	7.53	-47.1	-48.8	22.2	6.02e-01	0	34	0	363331584	65	4473
2026-01-17 05:23:24.67	281.00	7.46	-47.3	-49.0	22.0	6.05e-01	0	34	0	365428736	65	4594
2026-01-17 05:23:25.68	280.90	7.39	-47.1	-48.7	22.3	6.03e-01	0	34	0	367001600	65	4439
2026-01-17 05:23:26.69	280.79	7.32	-47.0	-48.7	22.3	6.04e-01	0	34	0	369098752	65	4409
2026-01-17 05:23:27.70	280.69	7.25	-47.0	-48.7	22.3	6.05e-01	0	34	0	370671616	65	4398
2026-01-17 05:23:28.70	280.58	7.18	-47.1	-48.8	22.2	6.03e-01	0	34	0	372768768	65	4456
2026-01-17 05:23:29.71	280.48	7.11	-47.0	-48.7	22.3	6.05e-01	0	34	0	374865920	65	4425
2026-01-17 05:23:30.72	280.38	7.04	-47.0	-48.7	22.2	6.04e-01	0	34	0	376438784	65	4434
2026-01-17 05:23:31.73	280.27	6.97	-47.2	-48.9	22.1	6.01e-01	0	34	0	378535936	65	4510
2026-01-17 05:23:32.74	280.17	6.91	-47.4	-49.2	21.7	6.02e-01	0	34	0	380633088	65	4691
2026-01-17 05:23:33.75	280.07	6.84	-47.6	-49.4	21.5	6.06e-01	0	34	0	382205952	65	4797
2026-01-17 05:23:34.76	279.97	6.77	-47.8	-49.7	21.3	6.01e-01	0	34	0	384303104	66	4660
2026-01-17 05:23:35.76	279.87	6.70	-47.4	-49.2	21.7	6.04e-01	0	34	0	385875968	66	4413
2026-01-17 05:23:36.77	279.77	6.63	-47.6	-49.4	21.5	6.03e-01	0	34	0	387973120	66	4539
2026-01-17 05:23:37.78	279.67	6.56	-47.4	-49.2	21.7	6.06e-01	0	34	0	389545984	66	4413
2026-01-17 05:23:38.79	279.57	6.50	-47.2	-49.0	21.9	6.03e-01	0	34	0	391643136	66	4312
2026-01-17 05:23:39.80	279.47	6.43	-47.4	-49.2	21.7	6.04e-01	0	34	0	393740288	66	4433
2026-01-17 05:23:40.81	279.38	6.36	-47.2	-49.0	21.9	6.04e-01	0	34	0	395313152	66	4313
2026-01-17 05:23:41.82	279.28	6.29	-47.4	-49.2	21.6	6.03e-01	0	34	0	397410304	66	4439
2026-01-17 05:23:42.83	279.18	6.23	-47.3	-49.0	21.8	6.01e-01	0	34	0	398983168	66	4329
2026-01-17 05:23:43.84	279.09	6.16	-47.3	-49.1	21.8	6.03e-01	0	34	0	401080320	66	4354
2026-01-17 05:23:44.84	278.99	6.09	-47.3	-49.1	21.7	6.04e-01	0	34	0	403177472	66	4362
2026-01-17 05:23:45.85	278.89	6.03	-47.4	-49.2	21.6	6.04e-01	0	34	0	404750336	66	4407
2026-01-17 05:23:46.86	278.80	5.96	-47.7	-49.6	21.2	6.04e-01	0	34	0	406847488	66	4614
2026-01-17 05:23:47.87	278.71	5.89	-47.5	-49.3	21.5	6.06e-01	0	34	0	408944640	66	4486
2026-01-17 05:23:48.88	278.61	5.83	-47.8	-49.8	21.0	6.06e-01	0	34	0	410517504	66	4744
2026-01-17 05:23:49.89	278.52	5.76	-47.4	-49.3	21.1	6.03e-01	0	34	0	412614656	66	4443
2026-01-17 05:23:50.90	278.42	5.69	-47.7	-49.6	21.2	6.02e-01	0	34	0	414187520	66	4621
2026-01-17 05:23:51.91	278.33	5.63	-47.2	-48.9	21.8	6.04e-01	0	34	0	416284672	66	4277
2026-01-17 05:23:52.91	278.24	5.56	-47.3	-49.1	21.6	6.05e-01	0	34	0	417857536	66	4364
2026-01-17 05:23:53.92	278.15	5.49	-47.2	-49.0	21.7	6.01e-01	0	34	0	419954688	66	4323
2026-01-17 05:23:54.93	278.06	5.43	-47.3	-49.2	21.5	6.04e-01	0	34	0	422051840	66	4407
2026-01-17 05:23:55.94	277.97	5.36	-47.6	-49.5	21.1	6.05e-01	0	34	0	423624704	66	4577
2026-01-17 05:23:56.95	277.88	5.30	-47.4	-49.2	21.5	6.04e-01	0	34	0	425721856	66	4421
2026-01-17 05:23:57.95	277.79	5.23	-47.8	-49.8	20.7	6.04e-01	0	34	0	427819008	66	4752
2026-01-17 05:23:58.96	277.70	5.17	-47.5	-49.5	21.2	6.02e-01	0	34	0	429391872	66	4550
2026-01-17 05:23:59.97	277.61	5.10	-47.6	-49.5	21.1	6.03e-01	0	34	0	431489024	66	4572
2026-01-17 05:24:00.98	277.52	5.04	-47.6	-49.6	20.9	6.01e-01	0	34	0	433061888	66	4633
2026-01-17 05:24:01.99	277.43	4.97	-53.8	-68.4	4.3	7.36e-01	54	34	0	435159040	78	20104
2026-01-17 05:24:03.00	277.35	4.91	-54.2	-71.8	3.8	7.43e-01	0	34	104	435159040	78	29961
2026-01-17 05:24:04.00	277.26	4.84	-54.4	-72.2	3.8	7.45e-01	0	34	104	435159040	79	29637
2026-01-17 05:24:05.01	277.17	4.78	-54.6	-72.4	3.8	7.44e-01	0	34	104	435159040	79	30162
2026-01-17 05:24:06.02	277.09	4.71	-54.7	-72.5	3.8	7.47e-01	0	34	104	435159040	79	30598
2026-01-17 05:24:07.03	277.00	4.65	-54.7	-72.5	3.8	7.48e-01	0	34	104	435159040	80	28946
2026-01-17 05:24:08.04	276.92	4.58	-54.8	-72.6	3.8	7.42e-01	0	34	104	435159040	80	29152
2026-01-17 05:24:09.05	276.83	4.52	-54.9	-72.7	3.8	7.47e-01	0	34	104	435159040	80	29472
2026-01-17 05:24:10.06	276.75	4.45	-54.9	-72.7	3.8	7.43e-01	0	34	104	435159040	80	29610
2026-01-17 05:24:11.07	276.66	4.39	-55.0	-72.8	3.8	7.41e-01	0	34	104	435159040	80	29833
2026-01-17 05:24:12.07	276.58	4.33	-55.0	-72.8	3.8	7.46e-01	0	34	104	435159040	80	29946
2026-01-17 05:24:13.08	276.50	4.26	-55.1	-72.9	3.8	7.49e-01	0	34	104	435159040	80	30090
2026-01-17 05:24:14.09	276.41	4.20	-55.1	-72.9	3.8	7.42e-01	0	34	104	435159040	80	30209
2026-01-17 05:24:15.10	276.33	4.14	-55.1	-72.9	3.8	7.46e-01	0	34	104	435159040	80	30286
2026-01-17 05:24:16.11	276.25	4.07	-55.1	-72.9	3.8	7.46e-01	0	34	104	435159040	80	30310
2026-01-17 05:24:17.12	276.17	4.01	-55.2	-73.0	3.8	7.44e-01	0	34	104	435159040	80	30382
2026-01-17 05:24:18.13	276.09	3.95	-55.2	-73.0	3.8	7.45e-01	0	34	104	435159040	80	30432
2026-01-17 05:24:19.13	276.01	3.88	-55.2	-73.0	3.8	7.45e-01	0	34	104	435159040	80	30544
2026-01-17 05:24:20.14	275.93	3.82	-55.2	-73.0	3.8	7.45e-01	0	34	104	435159040	81	28969
2026-01-17 05:24:21.15	275.85	3.76	-55.2	-73.0	3.8	7.48e-01	0	34	104	435159040	81	28838
2026-01-17 05:24:22.16	275.77	3.69	-55.2	-73.0	3.8	7.41e-01	0	34	104	435159040	81	28775
2026-01-17 05:24:23.17	275.69	3.63	-55.2	-73.0	3.8	7.46e-01	0	34	104	435159040	81	28855
2026-01-17 05:24:24.18	275.61	3.57	-55.1	-72.9	3.8	7.44e-01	0	34	104	435159040	81	28664
2026-01-17 05:24:25.19	275.53	3.51	-55.1	-72.9	3.8	7.44e-01	0	34	104	435159040	81	28573
2026-01-17 05:24:26.20	275.45	3.44	-55.1	-72.9	3.8	7.45e-01	0	34	104	435159040	81	28539
2026-01-17 05:24:27.20	275.38	3.38	-55.1	-72.9	3.8	7.47e-01	0	34	104	435159040	81	28440
2026-01-17 05:24:28.21	275.30	3.32	-55.1	-72.9	3.8	7.44e-01	0	34	104	435159040	81	28382
2026-01-17 05:24:29.22	275.22	3.26	-55.0	-72.8	3.8	7.48e-01	0	34	104	435159040	81	28287
2026-01-17 05:24:30.23	275.15	3.20	-55.0	-72.8	3.8	7.42e-01	0	34	104	435159040	81	28154
2026-01-17 05:24:31.24	275.07	3.13	-55.0	-72.8	3.8	7.43e-01	0	34	104	435159040	81	28171
2026-01-17 05:24:32.24	274.99	3.07	-55.0	-72.8	3.8	7.46e-01	0	34	104	435159040	81	28159
2026-01-17 05:24:33.25	274.92	3.01	-55.0	-72.8	3.8	7.45e-01	0	34	104	435159040	81	28143
2026-01-17 05:24:34.26	274.84	2.95	-55.0	-72.8	3.8	7.44e-01	0	34	104	435159040	81	28136
2026-01-17 05:24:35.27	274.77	2.89	-55.0	-72.8	3.8	7.43e-01	0	34	104	435159040	81	28124
2026-01-17 05:24:36.28	274.69	2.83	-55.0	-72.8	3.8	7.45e-01	0	34	104	435159040	81	28107
2026-01-17 05:24:37.28	274.62	2.77	-54.9	-72.8	3.8	7.44e-01	0	34	104	435159040	81	28096
2026-01-17 05:24:38.29	274.55	2.71	-54.9	-72.8	3.8	7.44e-01	0	34	104	435159040	81	28066
2026-01-17 05:24:39.30	274.47	2.64	-54.9	-72.8	3.8	7.44e-01	0	34	104	435159040	81	28070
2026-01-17 05:24:40.31	274.40	2.58	-54.9	-72.7	3.8	7.48e-01	0	34	104	435159040	81	28003
2026-01-17 05:24:41.32	274.33	2.52	-54.9	-72.7	3.8	7.44e-01	0	34	104	435159040	81	27957
2026-01-17 05:24:42.32	274.26	2.46	-54.9	-72.8	3.8	7.45e-01	0	34	104	435159040	81	28030
2026-01-17 05:24:43.33	274.18	2.40	-54.9	-72.7	3.8	7.46e-01	0	34	104	435159040	81	27949
2026-01-17 05:24:44.34	274.11	2.34	-54.9	-72.7	3.8	7.43e-01	0	34	104	435159040	81	27959
2026-01-17 05:24:45.35	274.04	2.28	-54.9	-72.7	3.8	7.46e-01	0	34	104	435159040	81	27981
2026-01-17 05:24:46.36	273.97	2.22	-54.9	-72.7	3.8	7.45e-01	0	34	104	435159040	81	27987
2026-01-17 05:24:47.37	273.90	2.16	-54.9	-72.7	3.8	7.45e-01	0	34	104	435159040	81	27912
2026-01-17 05:24:48.38	273.83	2.10	-54.9	-72.7	3.8	7.46e-01	0	34	104	435159040	81	27925
2026-01-17 05:24:49.38	273.76	2.04	-54.9	-72.7	3.8	7.45e-01	0	34	104	435159040	81	27982
2026-01-17 05:24:50.39	273.69	1.98	-54.9	-72.7	3.8	7.47e-01	0	34	104	435159040	81	27964
2026-01-17 05:24:51.40	273.62	1.92	-54.9	-72.7	3.8	7.46e-01	0	34	104	435159040	81	27990

#Closed at: 2026-01-17 05:24:51
#Recorded file [435 MB]: D:/lorett/data/31041_260117_081328.dat