passes_logs/2026/01/17/R3.2S_Murmansk/R3.2S_Murmansk__20260117_145411_FENGYUN_3D_rec.log

#Pass ID: 20260117_145411_FENGYUN 3D
#Satellite: FENGYUN 3D
#Configuration: FENGYUN 3D
#almurnet v.1.7.20251203
#Start time: 2026-01-17 14:54:10

#Version: 2.2.20231116
#Station: R3.2S_Murmansk
#Location: 33.079688 lon 68.888172 lat
#TLE: 1 43010U 17072A   26016.62453405 -.00000112  00000+0 -31355-4 0  9995
#TLE: 2 43010  98.9932 348.4654 0002369 105.3910 254.7528 14.19694900423480

#Time	Az	El	Level	Level2	SNR	BER	BlckErr	Temp	State	Recorded	gain1	gain2
2026-01-17 14:54:10.97	238.46	1.97	-52.3	-64.3	3.8	8.47e-01	0	32	0	0	76	14133
2026-01-17 14:54:11.98	238.55	2.02	-52.3	-64.3	3.8	8.46e-01	0	32	104	0	75	14973
2026-01-17 14:54:12.97	238.65	2.06	-52.3	-64.3	3.8	8.45e-01	0	32	104	0	75	14881
2026-01-17 14:54:13.97	238.75	2.11	-52.3	-64.3	3.8	8.47e-01	0	32	104	0	75	14885
2026-01-17 14:54:14.96	238.84	2.15	-52.3	-64.2	3.8	8.46e-01	0	33	104	0	75	14814
2026-01-17 14:54:15.95	238.94	2.20	-52.3	-64.2	3.8	8.45e-01	0	33	104	0	75	14775
2026-01-17 14:54:16.95	239.03	2.24	-52.3	-64.2	3.8	8.47e-01	0	32	104	0	75	14808
2026-01-17 14:54:17.94	239.13	2.29	-52.3	-64.2	3.8	8.47e-01	0	33	104	0	75	14778
2026-01-17 14:54:18.94	239.23	2.34	-52.3	-64.2	3.8	8.46e-01	0	33	104	0	75	14798
2026-01-17 14:54:19.93	239.33	2.38	-52.3	-64.2	3.8	8.45e-01	0	33	104	0	75	14814
2026-01-17 14:54:20.92	239.42	2.43	-52.3	-64.3	3.8	8.46e-01	0	33	104	0	75	14886
2026-01-17 14:54:21.91	239.52	2.47	-52.3	-64.3	3.8	8.46e-01	0	33	104	0	75	14952
2026-01-17 14:54:22.90	239.62	2.52	-52.3	-64.3	3.8	8.46e-01	0	33	104	0	75	14905
2026-01-17 14:54:23.88	239.72	2.56	-52.3	-64.3	3.8	8.46e-01	0	33	104	0	75	14910
2026-01-17 14:54:24.87	239.81	2.61	-52.3	-64.3	3.8	8.46e-01	0	33	104	0	75	15003
2026-01-17 14:54:25.86	239.91	2.65	-52.3	-64.2	3.8	8.46e-01	0	33	104	0	75	14873
2026-01-17 14:54:26.84	240.01	2.70	-52.3	-64.2	3.8	8.46e-01	0	33	104	0	75	14823
2026-01-17 14:54:27.83	240.11	2.74	-52.3	-64.2	3.8	8.46e-01	0	33	104	0	75	14716
2026-01-17 14:54:28.83	240.21	2.79	-52.3	-64.1	3.8	8.47e-01	0	33	104	0	75	14616
2026-01-17 14:54:29.82	240.31	2.84	-52.3	-64.1	3.8	8.46e-01	0	33	104	0	75	14616
2026-01-17 14:54:30.82	240.41	2.88	-52.3	-64.1	3.8	8.46e-01	0	33	104	0	75	14554
2026-01-17 14:54:31.82	240.51	2.93	-52.3	-64.1	3.8	8.46e-01	0	33	104	0	75	14670
2026-01-17 14:54:32.82	240.62	2.97	-52.3	-64.2	3.8	8.46e-01	0	33	104	0	75	14748
2026-01-17 14:54:33.81	240.72	3.02	-52.3	-64.2	3.8	8.47e-01	0	33	104	0	75	14776
2026-01-17 14:54:34.82	240.82	3.07	-52.3	-64.1	3.8	8.46e-01	0	33	104	0	75	14671
2026-01-17 14:54:35.81	240.92	3.11	-52.3	-64.1	3.8	8.45e-01	0	33	104	0	75	14630
2026-01-17 14:54:36.81	241.03	3.16	-52.3	-64.0	3.8	8.46e-01	0	33	104	0	75	14444
2026-01-17 14:54:37.80	241.13	3.20	-52.3	-64.1	3.8	8.45e-01	0	33	104	0	75	14618
2026-01-17 14:54:38.80	241.23	3.25	-52.3	-64.1	3.8	8.46e-01	0	33	104	0	75	14617
2026-01-17 14:54:39.79	241.34	3.30	-52.3	-64.2	3.8	8.46e-01	0	33	104	0	75	14778
2026-01-17 14:54:40.78	241.44	3.34	-52.3	-64.2	3.8	8.45e-01	0	33	104	0	75	14857
2026-01-17 14:54:41.77	241.54	3.39	-52.3	-64.2	3.8	8.46e-01	0	33	104	0	75	14861
2026-01-17 14:54:42.77	241.65	3.43	-52.3	-64.2	3.8	8.46e-01	0	33	104	0	75	14801
2026-01-17 14:54:43.76	241.75	3.48	-52.3	-64.1	3.8	8.46e-01	0	33	104	0	75	14609
2026-01-17 14:54:44.75	241.86	3.52	-52.3	-64.0	3.8	8.47e-01	0	33	104	0	75	14399
2026-01-17 14:54:45.74	241.96	3.57	-52.3	-64.2	3.8	8.46e-01	0	33	104	0	75	14717
2026-01-17 14:54:46.73	242.07	3.62	-52.3	-64.2	3.8	8.46e-01	0	33	104	0	75	14791
2026-01-17 14:54:47.71	242.17	3.66	-52.3	-64.2	3.8	8.46e-01	0	33	104	0	75	14826
2026-01-17 14:54:48.70	242.28	3.71	-52.3	-64.2	3.8	8.46e-01	0	34	104	0	75	14829
2026-01-17 14:54:49.69	242.38	3.75	-52.3	-64.2	3.8	8.45e-01	0	33	104	0	75	14792
2026-01-17 14:54:50.68	242.49	3.80	-52.3	-64.2	3.8	8.47e-01	0	33	104	0	75	14846
2026-01-17 14:54:51.67	242.60	3.84	-52.3	-64.2	3.8	8.48e-01	0	33	104	0	75	14779
2026-01-17 14:54:52.67	242.71	3.89	-52.3	-64.1	3.8	8.44e-01	0	33	104	0	75	14694
2026-01-17 14:54:53.66	242.81	3.94	-52.3	-64.0	3.8	8.46e-01	0	33	104	0	75	14525
2026-01-17 14:54:54.66	242.92	3.98	-52.2	-63.9	3.8	8.46e-01	0	33	104	0	75	14269
2026-01-17 14:54:55.66	243.03	4.03	-52.3	-64.0	3.8	8.46e-01	0	34	104	0	75	14450
2026-01-17 14:54:56.65	243.14	4.07	-52.3	-64.0	3.8	8.46e-01	0	34	104	0	75	14458
2026-01-17 14:54:57.65	243.25	4.12	-52.3	-64.0	3.8	8.46e-01	0	34	104	0	75	14516
2026-01-17 14:54:58.65	243.36	4.16	-52.3	-64.0	3.8	8.46e-01	0	33	104	0	75	14463
2026-01-17 14:54:59.64	243.47	4.21	-52.2	-63.8	3.8	8.46e-01	0	33	104	0	75	14096
2026-01-17 14:55:00.62	243.58	4.26	-52.2	-63.6	3.8	8.46e-01	0	34	104	0	75	13779
2026-01-17 14:55:01.62	243.69	4.30	-52.2	-63.7	3.8	8.46e-01	0	33	104	0	75	13937
2026-01-17 14:55:02.61	243.80	4.35	-52.3	-64.1	3.8	8.46e-01	0	34	104	0	75	14590
2026-01-17 14:55:03.60	243.91	4.39	-52.3	-64.2	3.8	8.47e-01	0	34	104	0	75	14846
2026-01-17 14:55:04.58	244.02	4.44	-52.2	-63.6	3.8	8.45e-01	0	34	104	0	75	13867
2026-01-17 14:55:05.58	244.13	4.48	-52.1	-62.0	3.8	8.44e-01	0	34	104	0	75	11426
2026-01-17 14:55:06.57	244.24	4.53	-51.8	-59.9	4.4	8.32e-01	0	34	0	0	75	9017
2026-01-17 14:55:07.55	244.35	4.57	-51.4	-58.2	5.3	7.73e-01	0	34	0	0	74	7828
2026-01-17 14:55:08.53	244.47	4.62	-51.1	-56.7	6.3	3.26e-01	0	34	0	2097152	74	6630
2026-01-17 14:55:09.52	244.58	4.67	-50.4	-54.8	8.2	1.33e-01	0	34	0	8388608	72	5938
2026-01-17 14:55:10.51	244.69	4.71	-50.0	-53.8	9.2	3.37e-02	0	34	0	13631488	71	5635
2026-01-17 14:55:11.50	244.80	4.76	-49.1	-52.1	11.1	4.89e-03	0	34	0	19922944	70	4876
2026-01-17 14:55:12.49	244.92	4.80	-47.7	-49.9	13.2	4.39e-04	0	34	0	25165824	67	4527
2026-01-17 14:55:13.48	245.03	4.85	-46.5	-48.2	15.0	1.10e-06	0	34	0	30408704	65	4168
2026-01-17 14:55:14.48	245.15	4.89	-45.3	-46.7	16.6	0.00e+00	0	34	0	36700160	62	4163
2026-01-17 14:55:15.48	245.26	4.94	-44.5	-45.8	17.5	0.00e+00	0	34	0	41943040	61	3988
2026-01-17 14:55:16.48	245.38	4.98	-44.3	-45.5	17.8	0.00e+00	0	34	0	47185920	60	4081
2026-01-17 14:55:17.48	245.50	5.03	-44.7	-45.9	17.4	0.00e+00	0	34	0	53477376	60	4285
2026-01-17 14:55:18.47	245.61	5.08	-44.3	-45.5	17.8	0.00e+00	0	34	0	58720256	60	4094
2026-01-17 14:55:19.47	245.73	5.12	-44.0	-45.1	18.1	0.00e+00	0	34	0	63963136	60	3897
2026-01-17 14:55:20.47	245.85	5.17	-47.6	-49.8	13.4	2.76e-03	0	34	0	69206016	67	4448
2026-01-17 14:55:21.47	245.97	5.21	-44.6	-45.9	17.4	0.00e+00	0	34	0	75497472	61	4011
2026-01-17 14:55:22.47	246.08	5.26	-45.4	-46.9	16.4	0.00e+00	0	34	0	80740352	62	4260
2026-01-17 14:55:23.47	246.20	5.30	-44.2	-45.3	18.3	0.00e+00	0	34	0	85983232	59	4235
2026-01-17 14:55:24.47	246.32	5.35	-44.6	-45.9	17.7	0.00e+00	0	34	0	92274688	59	4509
2026-01-17 14:55:25.46	246.44	5.40	-44.4	-45.6	18.1	0.00e+00	0	34	0	97517568	59	4362
2026-01-17 14:55:26.46	246.56	5.44	-44.3	-45.5	18.1	0.00e+00	0	34	0	102760448	59	4329
2026-01-17 14:55:27.46	246.68	5.49	-44.2	-45.4	18.2	0.00e+00	0	34	0	109051904	59	4266
2026-01-17 14:55:28.45	246.80	5.53	-44.3	-45.5	18.1	0.00e+00	0	34	0	114294784	59	4319
2026-01-17 14:55:29.44	246.92	5.58	-44.2	-45.4	18.3	0.00e+00	0	34	0	120586240	59	4274
2026-01-17 14:55:30.43	247.04	5.62	-43.9	-45.1	18.6	0.00e+00	0	34	0	125829120	59	4117
2026-01-17 14:55:31.43	247.16	5.67	-44.2	-45.4	18.3	0.00e+00	0	34	0	131072000	59	4263
2026-01-17 14:55:32.41	247.28	5.71	-43.7	-44.9	18.8	0.00e+00	0	34	0	137363456	58	4248
2026-01-17 14:55:33.41	247.40	5.76	-44.5	-45.7	17.7	0.00e+00	0	34	0	142606336	60	4179
2026-01-17 14:55:34.39	247.52	5.80	-44.2	-45.4	18.0	0.00e+00	0	34	0	147849216	60	4014
2026-01-17 14:55:35.38	247.64	5.85	-44.5	-45.7	18.0	0.00e+00	0	34	0	154140672	59	4429
2026-01-17 14:55:36.37	247.77	5.89	-44.2	-45.4	18.3	0.00e+00	0	34	0	159383552	59	4261
2026-01-17 14:55:37.36	247.89	5.94	-44.0	-45.2	18.5	0.00e+00	0	34	0	164626432	59	4166
2026-01-17 14:55:38.35	248.01	5.98	-44.3	-45.5	18.3	0.00e+00	0	34	0	169869312	59	4296
2026-01-17 14:55:39.35	248.14	6.03	-44.3	-45.5	18.3	0.00e+00	0	34	0	176160768	59	4294
2026-01-17 14:55:40.35	248.26	6.07	-44.4	-45.6	18.2	0.00e+00	0	34	0	181403648	59	4368
2026-01-17 14:55:41.34	248.39	6.12	-44.2	-45.3	18.4	0.00e+00	0	34	0	186646528	59	4233
2026-01-17 14:55:42.34	248.51	6.16	-44.4	-45.6	18.2	0.00e+00	0	34	0	192937984	59	4366
2026-01-17 14:55:43.33	248.64	6.21	-44.3	-45.5	18.3	0.00e+00	0	34	0	198180864	59	4300
2026-01-17 14:55:44.34	248.76	6.25	-44.3	-45.5	18.3	0.00e+00	0	34	0	203423744	59	4318
2026-01-17 14:55:45.34	248.89	6.30	-44.4	-45.7	18.1	0.00e+00	0	34	0	209715200	59	4397
2026-01-17 14:55:46.34	249.02	6.34	-44.4	-45.6	18.2	0.00e+00	0	34	0	214958080	59	4384
2026-01-17 14:55:47.35	249.15	6.39	-44.1	-45.3	18.5	0.00e+00	0	34	0	221249536	59	4194
2026-01-17 14:55:48.35	249.27	6.43	-44.2	-45.4	18.4	0.00e+00	0	34	0	226492416	59	4262
2026-01-17 14:55:49.35	249.40	6.48	-44.0	-45.1	18.7	0.00e+00	0	34	0	231735296	59	4131
2026-01-17 14:55:50.34	249.53	6.52	-43.7	-44.8	19.0	0.00e+00	0	34	0	238026752	59	3980
2026-01-17 14:55:51.33	249.66	6.57	-44.0	-45.1	18.7	0.00e+00	0	34	0	243269632	59	4127
2026-01-17 14:55:52.33	249.79	6.61	-43.8	-44.9	18.9	0.00e+00	0	34	0	248512512	59	4045
2026-01-17 14:55:53.32	249.91	6.66	-43.7	-44.7	19.0	0.00e+00	0	34	0	254803968	59	3956
2026-01-17 14:55:54.31	250.04	6.70	-43.7	-44.8	19.0	0.00e+00	0	34	0	260046848	59	3964
2026-01-17 14:55:55.30	250.17	6.74	-43.3	-44.4	19.4	0.00e+00	0	34	0	265289728	58	4027
2026-01-17 14:55:56.29	250.30	6.79	-43.0	-44.0	19.8	0.00e+00	0	34	0	271581184	58	3838
2026-01-17 14:55:57.28	250.43	6.83	-43.3	-44.3	19.5	0.00e+00	0	34	0	276824064	58	3980
2026-01-17 14:55:58.28	250.56	6.88	-43.5	-44.6	19.3	0.00e+00	0	34	0	283115520	58	4116
2026-01-17 14:55:59.27	250.69	6.92	-43.4	-44.5	19.3	0.00e+00	0	34	0	287309824	58	4079
2026-01-17 14:56:00.27	250.83	6.97	-43.6	-44.7	19.1	0.00e+00	0	34	0	293601280	58	4185
2026-01-17 14:56:01.27	250.96	7.01	-43.9	-45.0	18.8	0.00e+00	0	34	0	298844160	58	4332
2026-01-17 14:56:02.27	251.09	7.05	-43.6	-44.7	19.2	0.00e+00	0	34	0	304087040	58	4157
2026-01-17 14:56:03.27	251.23	7.10	-43.7	-44.7	19.1	0.00e+00	0	34	0	310378496	58	4192
2026-01-17 14:56:04.27	251.36	7.14	-43.5	-44.6	19.2	0.00e+00	0	34	0	315621376	58	4125
2026-01-17 14:56:05.28	251.50	7.19	-43.6	-44.7	19.2	0.00e+00	0	34	0	321912832	58	4164
2026-01-17 14:56:06.28	251.63	7.23	-43.7	-44.8	19.1	0.00e+00	0	34	0	327155712	58	4221
2026-01-17 14:56:07.27	251.76	7.28	-43.7	-44.8	19.1	0.00e+00	0	34	0	332398592	58	4232
2026-01-17 14:56:08.27	251.90	7.32	-43.7	-44.8	19.1	0.00e+00	0	34	0	338690048	58	4234
2026-01-17 14:56:09.27	252.04	7.36	-43.5	-44.6	19.3	0.00e+00	0	34	0	343932928	58	4122
2026-01-17 14:56:10.27	252.17	7.41	-43.8	-44.9	19.0	0.00e+00	0	34	0	349175808	58	4261
2026-01-17 14:56:11.26	252.31	7.45	-43.7	-44.8	19.1	0.00e+00	0	34	0	355467264	58	4202
2026-01-17 14:56:12.26	252.45	7.49	-43.7	-44.8	19.1	0.00e+00	0	34	0	360710144	58	4212
2026-01-17 14:56:13.25	252.58	7.54	-43.5	-44.6	19.3	0.00e+00	0	34	0	367001600	58	4113
2026-01-17 14:56:14.25	252.72	7.58	-43.8	-45.0	19.0	0.00e+00	0	34	0	372244480	58	4296
2026-01-17 14:56:15.24	252.86	7.62	-43.6	-44.6	19.3	0.00e+00	0	34	0	377487360	58	4145
2026-01-17 14:56:16.23	252.99	7.67	-43.6	-44.7	19.3	0.00e+00	0	34	0	383778816	58	4163
2026-01-17 14:56:17.22	253.13	7.71	-43.4	-44.5	19.4	0.00e+00	0	34	0	389021696	58	4075
2026-01-17 14:56:18.22	253.27	7.75	-43.5	-44.6	19.3	0.00e+00	0	34	0	394264576	58	4114
2026-01-17 14:56:19.21	253.41	7.80	-43.3	-44.3	19.6	0.00e+00	0	34	0	400556032	58	4001
2026-01-17 14:56:20.20	253.55	7.84	-43.4	-44.5	19.5	0.00e+00	0	34	0	405798912	58	4071
2026-01-17 14:56:21.20	253.69	7.88	-43.3	-44.4	19.6	0.00e+00	0	34	0	411041792	58	4010
2026-01-17 14:56:22.19	253.83	7.92	-43.6	-44.7	19.3	0.00e+00	0	34	0	417333248	58	4153
2026-01-17 14:56:23.19	253.97	7.97	-43.5	-44.5	19.4	0.00e+00	0	34	0	422576128	58	4093
2026-01-17 14:56:24.18	254.11	8.01	-43.3	-44.4	19.6	0.00e+00	0	34	0	428867584	58	4006
2026-01-17 14:56:25.18	254.25	8.05	-43.3	-44.3	19.6	0.00e+00	0	34	0	434110464	58	3999
2026-01-17 14:56:26.18	254.40	8.10	-43.5	-44.5	19.4	0.00e+00	0	34	0	439353344	58	4095
2026-01-17 14:56:27.18	254.54	8.14	-43.1	-44.1	19.9	0.00e+00	0	34	0	445644800	58	3871
2026-01-17 14:56:28.17	254.68	8.18	-43.2	-44.2	19.7	0.00e+00	0	34	0	449839104	58	3947
2026-01-17 14:56:29.17	254.82	8.22	-43.1	-44.2	19.8	0.00e+00	0	34	0	456130560	58	3916
2026-01-17 14:56:30.16	254.97	8.27	-43.1	-44.1	19.9	0.00e+00	0	34	0	461373440	58	3877
2026-01-17 14:56:31.16	255.11	8.31	-43.0	-44.0	19.9	0.00e+00	0	34	0	467664896	58	3867
2026-01-17 14:56:32.15	255.26	8.35	-43.1	-44.1	19.9	0.00e+00	0	34	0	472907776	58	3877
2026-01-17 14:56:33.14	255.40	8.39	-42.9	-43.9	20.1	0.00e+00	0	34	0	478150656	57	4028
2026-01-17 14:56:34.13	255.54	8.43	-43.0	-44.1	19.9	0.00e+00	0	34	0	484442112	57	4102
2026-01-17 14:56:35.13	255.69	8.47	-43.1	-44.1	19.9	0.00e+00	0	34	0	489684992	57	4121
2026-01-17 14:56:36.12	255.84	8.52	-43.0	-44.0	20.0	0.00e+00	0	34	0	494927872	57	4071
2026-01-17 14:56:37.11	255.98	8.56	-42.8	-43.8	20.2	0.00e+00	0	34	0	501219328	57	3979
2026-01-17 14:56:38.11	256.13	8.60	-42.9	-43.9	20.1	0.00e+00	0	34	0	506462208	57	4012
2026-01-17 14:56:39.10	256.28	8.64	-43.0	-44.0	20.0	0.00e+00	0	34	0	511705088	57	4076
2026-01-17 14:56:40.09	256.42	8.68	-43.2	-44.2	19.8	0.00e+00	0	34	0	517996544	57	4180
2026-01-17 14:56:41.08	256.57	8.72	-43.0	-44.0	20.0	0.00e+00	0	34	0	523239424	57	4084
2026-01-17 14:56:42.07	256.72	8.76	-43.2	-44.2	19.8	0.00e+00	0	34	0	528482304	57	4193
2026-01-17 14:56:43.06	256.87	8.80	-43.1	-44.1	19.9	0.00e+00	0	34	0	533725184	57	4115
2026-01-17 14:56:44.06	257.02	8.85	-43.0	-44.0	19.9	0.00e+00	0	34	0	540016640	57	4091
2026-01-17 14:56:45.05	257.16	8.89	-43.0	-43.9	20.0	0.00e+00	0	34	0	545259520	57	4046
2026-01-17 14:56:46.04	257.31	8.93	-42.9	-43.9	20.1	0.00e+00	0	34	0	550502400	57	4024
2026-01-17 14:56:47.03	257.46	8.97	-43.0	-44.0	20.0	0.00e+00	0	34	0	556793856	57	4070
2026-01-17 14:56:48.01	257.61	9.01	-42.8	-43.8	20.2	0.00e+00	0	34	0	562036736	57	3985
2026-01-17 14:56:48.99	257.76	9.05	-43.3	-44.3	19.7	0.00e+00	0	34	0	568328192	57	4208
2026-01-17 14:56:49.98	257.91	9.09	-42.9	-43.9	20.1	0.00e+00	0	34	0	573571072	57	4035
2026-01-17 14:56:50.97	258.06	9.13	-43.0	-44.0	20.0	0.00e+00	0	34	0	578813952	57	4064
2026-01-17 14:56:51.96	258.21	9.17	-42.7	-43.6	20.4	0.00e+00	0	34	0	584056832	57	3896
2026-01-17 14:56:52.95	258.37	9.21	-42.7	-43.7	20.3	0.00e+00	0	34	0	589299712	57	3931
2026-01-17 14:56:53.94	258.52	9.25	-42.7	-43.7	20.4	0.00e+00	0	34	0	595591168	57	3931
2026-01-17 14:56:54.93	258.67	9.29	-43.0	-44.0	20.0	0.00e+00	0	34	0	600834048	57	4088
2026-01-17 14:56:55.91	258.82	9.33	-42.8	-43.7	20.3	0.00e+00	0	34	0	607125504	57	3947
2026-01-17 14:56:56.90	258.98	9.36	-42.8	-43.8	20.3	0.00e+00	0	34	0	612368384	57	3963
2026-01-17 14:56:57.89	259.13	9.40	-42.8	-43.7	20.3	0.00e+00	0	34	0	617611264	57	3946
2026-01-17 14:56:58.88	259.28	9.44	-42.9	-43.9	20.1	0.00e+00	0	34	0	623902720	57	4036
2026-01-17 14:56:59.87	259.44	9.48	-42.9	-43.9	20.2	0.00e+00	0	34	0	628097024	57	4007
2026-01-17 14:57:00.85	259.59	9.52	-42.8	-43.8	20.3	0.00e+00	0	34	0	634388480	57	3965
2026-01-17 14:57:01.84	259.75	9.56	-42.6	-43.6	20.5	0.00e+00	0	34	0	639631360	57	3885
2026-01-17 14:57:02.82	259.90	9.60	-42.6	-43.6	20.4	0.00e+00	0	34	0	645922816	57	3882
2026-01-17 14:57:03.81	260.06	9.64	-42.8	-43.7	20.3	0.00e+00	0	34	0	651165696	57	3941
2026-01-17 14:57:04.80	260.22	9.67	-42.6	-43.6	20.4	0.00e+00	0	34	0	656408576	57	3880
2026-01-17 14:57:05.79	260.37	9.71	-42.8	-43.7	20.3	0.00e+00	0	34	0	662700032	57	3940
2026-01-17 14:57:06.78	260.53	9.75	-42.6	-43.6	20.5	0.00e+00	0	34	0	667942912	57	3882
2026-01-17 14:57:07.77	260.69	9.79	-42.7	-43.6	20.4	0.00e+00	0	34	0	673185792	57	3904
2026-01-17 14:57:08.75	260.85	9.83	-42.5	-43.4	20.6	0.00e+00	0	34	0	678428672	56	4024
2026-01-17 14:57:09.74	261.00	9.86	-42.6	-43.5	20.5	0.00e+00	0	34	0	684720128	56	4091
2026-01-17 14:57:10.73	261.16	9.90	-42.8	-43.7	20.3	0.00e+00	0	34	0	689963008	56	4174
2026-01-17 14:57:11.72	261.32	9.94	-42.7	-43.6	20.4	0.00e+00	0	34	0	695205888	56	4119
2026-01-17 14:57:12.71	261.48	9.98	-42.5	-43.5	20.6	0.00e+00	0	34	0	701497344	56	4058
2026-01-17 14:57:13.69	261.64	10.01	-42.6	-43.6	20.5	0.00e+00	0	34	0	706740224	56	4116
2026-01-17 14:57:14.68	261.80	10.05	-42.7	-43.7	20.4	0.00e+00	0	34	0	711983104	56	4156
2026-01-17 14:57:15.67	261.96	10.09	-42.7	-43.6	20.4	0.00e+00	0	34	0	717225984	56	4129
2026-01-17 14:57:16.66	262.13	10.12	-42.4	-43.3	20.7	0.00e+00	0	34	0	723517440	56	3993
2026-01-17 14:57:17.64	262.29	10.16	-42.5	-43.4	20.6	0.00e+00	0	34	0	728760320	56	4040
2026-01-17 14:57:18.63	262.45	10.20	-42.4	-43.3	20.7	0.00e+00	0	34	0	734003200	56	3993
2026-01-17 14:57:19.62	262.61	10.23	-42.5	-43.4	20.7	0.00e+00	0	34	0	740294656	56	4027
2026-01-17 14:57:20.61	262.77	10.27	-42.5	-43.4	20.6	0.00e+00	0	34	0	745537536	56	4045
2026-01-17 14:57:21.59	262.94	10.30	-42.5	-43.5	20.6	0.00e+00	0	34	0	750780416	56	4069
2026-01-17 14:57:22.58	263.10	10.34	-42.7	-43.7	20.4	0.00e+00	0	34	0	757071872	56	4146
2026-01-17 14:57:23.57	263.26	10.38	-42.5	-43.4	20.6	0.00e+00	0	34	0	762314752	56	4041
2026-01-17 14:57:24.56	263.43	10.41	-42.4	-43.4	20.7	0.00e+00	0	34	0	767557632	56	4020
2026-01-17 14:57:25.54	263.59	10.45	-42.8	-43.7	20.3	0.00e+00	0	34	0	772800512	56	4182
2026-01-17 14:57:26.52	263.76	10.48	-42.8	-43.8	20.3	0.00e+00	0	34	0	779091968	56	4213
2026-01-17 14:57:27.51	263.92	10.52	-42.7	-43.6	20.5	0.00e+00	0	34	0	784334848	56	4127
2026-01-17 14:57:28.49	264.09	10.55	-42.6	-43.6	20.5	0.00e+00	0	34	0	789577728	56	4100
2026-01-17 14:57:29.48	264.25	10.59	-42.5	-43.5	20.6	0.00e+00	0	34	0	795869184	56	4057
2026-01-17 14:57:30.46	264.42	10.62	-42.6	-43.6	20.5	0.00e+00	0	34	0	801112064	56	4119
2026-01-17 14:57:31.45	264.58	10.65	-42.7	-43.7	20.4	0.00e+00	0	34	0	806354944	56	4156
2026-01-17 14:57:32.43	264.75	10.69	-42.5	-43.4	20.6	0.00e+00	0	34	0	811597824	56	4040
2026-01-17 14:57:33.42	264.92	10.72	-42.5	-43.4	20.6	0.00e+00	0	34	0	817889280	56	4049
2026-01-17 14:57:34.41	265.09	10.76	-42.4	-43.3	20.8	0.00e+00	0	34	0	823132160	56	3984
2026-01-17 14:57:35.40	265.26	10.79	-42.3	-43.3	20.8	0.00e+00	0	34	0	828375040	56	3966
2026-01-17 14:57:36.38	265.42	10.82	-42.4	-43.3	20.8	0.00e+00	0	34	0	834666496	56	3983
2026-01-17 14:57:37.37	265.59	10.86	-42.3	-43.2	20.9	0.00e+00	0	34	0	839909376	56	3929
2026-01-17 14:57:38.36	265.76	10.89	-42.3	-43.2	20.8	0.00e+00	0	34	0	845152256	56	3955
2026-01-17 14:57:39.36	265.93	10.92	-42.3	-43.3	20.8	0.00e+00	0	34	0	850395136	56	3961
2026-01-17 14:57:40.36	266.11	10.96	-42.3	-43.2	20.9	0.00e+00	0	34	0	856686592	56	3926
2026-01-17 14:57:41.36	266.28	10.99	-42.3	-43.3	20.8	0.00e+00	0	34	0	861929472	56	3959
2026-01-17 14:57:42.36	266.45	11.02	-42.5	-43.4	20.7	0.00e+00	0	34	0	867172352	56	4045
2026-01-17 14:57:43.36	266.63	11.06	-42.5	-43.5	20.6	0.00e+00	0	34	0	873463808	56	4061
2026-01-17 14:57:44.36	266.80	11.09	-42.5	-43.5	20.6	0.00e+00	0	34	0	878706688	56	4055
2026-01-17 14:57:45.35	266.97	11.12	-42.5	-43.5	20.6	0.00e+00	0	34	0	884998144	56	4054
2026-01-17 14:57:46.34	267.15	11.15	-42.4	-43.4	20.7	0.00e+00	0	34	0	890241024	56	4023
2026-01-17 14:57:47.34	267.32	11.18	-42.4	-43.4	20.6	0.00e+00	0	34	0	895483904	56	4019
2026-01-17 14:57:48.33	267.49	11.21	-42.5	-43.4	20.6	0.00e+00	0	34	0	901775360	56	4023
2026-01-17 14:57:49.33	267.67	11.25	-42.2	-43.2	20.9	0.00e+00	0	34	0	907018240	56	3914
2026-01-17 14:57:50.32	267.84	11.28	-42.2	-43.1	20.9	0.00e+00	0	34	0	912261120	56	3901
2026-01-17 14:57:51.32	268.02	11.31	-42.2	-43.1	20.9	0.00e+00	0	34	0	918552576	56	3909
2026-01-17 14:57:52.31	268.20	11.34	-42.0	-42.9	21.1	0.00e+00	0	34	0	923795456	56	3819
2026-01-17 14:57:53.31	268.37	11.37	-41.9	-42.8	21.2	0.00e+00	0	34	0	929038336	55	3970
2026-01-17 14:57:54.30	268.55	11.40	-42.1	-43.0	21.0	0.00e+00	0	34	0	935329792	55	4074
2026-01-17 14:57:55.29	268.72	11.43	-42.0	-42.9	21.1	0.00e+00	0	34	0	940572672	55	4032
2026-01-17 14:57:56.29	268.90	11.46	-42.3	-43.2	20.8	0.00e+00	0	34	0	946864128	55	4175
2026-01-17 14:57:57.28	269.08	11.49	-42.5	-43.4	20.6	0.00e+00	0	34	0	952107008	55	4272
2026-01-17 14:57:58.28	269.26	11.52	-42.5	-43.4	20.6	0.00e+00	0	34	0	957349888	55	4268
2026-01-17 14:57:59.27	269.44	11.55	-42.4	-43.4	20.6	0.00e+00	0	34	0	962592768	55	4247
2026-01-17 14:58:00.26	269.61	11.58	-42.2	-43.1	20.9	0.00e+00	0	34	0	968884224	55	4127
2026-01-17 14:58:01.24	269.79	11.61	-42.2	-43.1	20.8	0.00e+00	0	34	0	974127104	55	4121
2026-01-17 14:58:02.23	269.97	11.63	-42.2	-43.1	20.9	0.00e+00	0	34	0	979369984	55	4135
2026-01-17 14:58:03.22	270.15	11.66	-42.1	-43.0	20.9	0.00e+00	0	34	0	985661440	55	4093
2026-01-17 14:58:04.21	270.33	11.69	-41.9	-42.8	21.2	0.00e+00	0	34	0	990904320	55	3975
2026-01-17 14:58:05.20	270.51	11.72	-41.9	-42.8	21.2	0.00e+00	0	34	0	996147200	55	3964
2026-01-17 14:58:06.19	270.69	11.75	-41.9	-42.8	21.2	0.00e+00	0	34	0	1002438656	55	4004
2026-01-17 14:58:07.18	270.87	11.77	-42.0	-42.9	21.1	0.00e+00	0	34	0	1007681536	55	4010
2026-01-17 14:58:08.17	271.05	11.80	-42.2	-43.1	20.9	0.00e+00	0	34	0	1012924416	55	4132
2026-01-17 14:58:09.16	271.23	11.83	-42.2	-43.1	20.9	0.00e+00	0	34	0	1018167296	55	4123
2026-01-17 14:58:10.16	271.41	11.85	-42.2	-43.1	20.9	0.00e+00	0	34	0	1024458752	55	4119
2026-01-17 14:58:11.16	271.59	11.88	-42.2	-43.1	20.9	0.00e+00	0	34	0	1029701632	55	4135
2026-01-17 14:58:12.16	271.78	11.91	-42.1	-43.1	21.0	0.00e+00	0	34	0	1034944512	55	4101
2026-01-17 14:58:13.16	271.96	11.93	-42.1	-43.0	21.0	0.00e+00	0	34	0	1041235968	55	4097
2026-01-17 14:58:14.15	272.14	11.96	-42.2	-43.1	20.9	0.00e+00	0	34	0	1046478848	55	4130
2026-01-17 14:58:15.15	272.33	11.99	-42.1	-43.0	21.0	0.00e+00	0	34	0	1051721728	55	4074
2026-01-17 14:58:16.15	272.51	12.01	-42.3	-43.3	20.8	0.00e+00	0	34	0	1058013184	55	4200
2026-01-17 14:58:17.15	272.70	12.04	-42.2	-43.1	20.9	0.00e+00	0	34	0	1063256064	55	4133
2026-01-17 14:58:18.15	272.88	12.06	-42.2	-43.1	21.0	0.00e+00	0	34	0	1069547520	55	4117
2026-01-17 14:58:19.15	273.07	12.09	-42.2	-43.1	20.9	0.00e+00	0	34	0	1074790400	55	4128
2026-01-17 14:58:20.14	273.25	12.11	-42.2	-43.1	20.9	0.00e+00	0	34	0	1080033280	55	4126
2026-01-17 14:58:21.14	273.44	12.14	-42.3	-43.3	20.8	0.00e+00	0	34	0	1086324736	55	4200
2026-01-17 14:58:22.13	273.62	12.16	-42.2	-43.1	20.9	0.00e+00	0	34	0	1091567616	55	4124
2026-01-17 14:58:23.12	273.81	12.18	-42.1	-43.0	21.0	0.00e+00	0	34	0	1096810496	55	4067
2026-01-17 14:58:24.11	273.99	12.21	-41.9	-42.8	21.2	0.00e+00	0	34	0	1103101952	55	3977
2026-01-17 14:58:25.09	274.18	12.23	-41.8	-42.7	21.3	0.00e+00	0	34	0	1108344832	55	3931
2026-01-17 14:58:26.08	274.36	12.25	-41.9	-42.8	21.3	0.00e+00	0	34	0	1113587712	55	3971
2026-01-17 14:58:27.07	274.55	12.28	-42.0	-42.9	21.2	0.00e+00	0	34	0	1118830592	55	4016
2026-01-17 14:58:28.06	274.74	12.30	-42.0	-43.0	21.1	0.00e+00	0	34	0	1125122048	55	4053
2026-01-17 14:58:29.04	274.92	12.32	-42.0	-42.9	21.2	0.00e+00	0	34	0	1130364928	55	4020
2026-01-17 14:58:30.03	275.11	12.34	-42.0	-42.9	21.2	0.00e+00	0	34	0	1135607808	55	4010
2026-01-17 14:58:31.02	275.29	12.36	-42.0	-42.9	21.2	0.00e+00	0	34	0	1141899264	55	4020
2026-01-17 14:58:32.00	275.48	12.38	-41.8	-42.7	21.4	0.00e+00	0	34	0	1147142144	55	3923
2026-01-17 14:58:32.99	275.67	12.41	-41.7	-42.6	21.5	0.00e+00	0	34	0	1152385024	55	3876
2026-01-17 14:58:33.97	275.85	12.43	-41.6	-42.5	21.5	0.00e+00	0	34	0	1157627904	55	3847
2026-01-17 14:58:34.96	276.04	12.45	-41.6	-42.4	21.6	0.00e+00	0	34	0	1163919360	55	3817
2026-01-17 14:58:35.95	276.23	12.47	-41.6	-42.5	21.6	0.00e+00	0	34	0	1169162240	55	3840
2026-01-17 14:58:36.94	276.42	12.49	-41.7	-42.5	21.6	0.00e+00	0	34	0	1174405120	55	3852
2026-01-17 14:58:37.92	276.61	12.51	-41.7	-42.6	21.5	0.00e+00	0	34	0	1180696576	55	3895
2026-01-17 14:58:38.91	276.80	12.53	-41.7	-42.6	21.5	0.00e+00	0	34	0	1185939456	55	3877
2026-01-17 14:58:39.90	276.98	12.55	-41.9	-42.7	21.3	0.00e+00	0	34	0	1191182336	55	3950
2026-01-17 14:58:40.88	277.17	12.56	-41.7	-42.6	21.5	0.00e+00	0	34	0	1197473792	55	3882
2026-01-17 14:58:41.87	277.36	12.58	-41.8	-42.7	21.4	0.00e+00	0	34	0	1202716672	55	3927
2026-01-17 14:58:42.85	277.55	12.60	-41.7	-42.6	21.5	0.00e+00	0	34	0	1207959552	55	3878
2026-01-17 14:58:43.84	277.74	12.62	-41.7	-42.5	21.5	0.00e+00	0	34	0	1213202432	55	3868
2026-01-17 14:58:44.83	277.93	12.64	-41.7	-42.5	21.5	0.00e+00	0	34	0	1219493888	55	3852
2026-01-17 14:58:45.82	278.12	12.66	-41.6	-42.4	21.6	0.00e+00	0	34	0	1224736768	55	3812
2026-01-17 14:58:46.81	278.31	12.67	-41.5	-42.3	21.7	0.00e+00	0	34	0	1229979648	54	3985
2026-01-17 14:58:47.79	278.50	12.69	-41.6	-42.5	21.6	0.00e+00	0	34	0	1236271104	54	4058
2026-01-17 14:58:48.78	278.69	12.71	-41.7	-42.6	21.5	0.00e+00	0	34	0	1241513984	54	4121
2026-01-17 14:58:49.77	278.89	12.72	-41.8	-42.6	21.4	0.00e+00	0	34	0	1246756864	54	4138
2026-01-17 14:58:50.76	279.08	12.74	-41.9	-42.8	21.3	0.00e+00	0	34	0	1251999744	54	4198
2026-01-17 14:58:51.74	279.27	12.76	-41.8	-42.7	21.4	0.00e+00	0	34	0	1258291200	54	4170
2026-01-17 14:58:52.73	279.46	12.77	-41.8	-42.7	21.4	0.00e+00	0	34	0	1263534080	54	4150
2026-01-17 14:58:53.72	279.65	12.79	-41.8	-42.7	21.4	0.00e+00	0	34	0	1269825536	54	4166
2026-01-17 14:58:54.71	279.85	12.80	-41.9	-42.7	21.4	0.00e+00	0	34	0	1275068416	54	4193
2026-01-17 14:58:55.69	280.04	12.82	-42.0	-42.9	21.2	0.00e+00	0	34	0	1280311296	54	4252
2026-01-17 14:58:56.68	280.23	12.83	-42.1	-43.0	21.1	0.00e+00	0	34	0	1286602752	54	4319
2026-01-17 14:58:57.67	280.42	12.85	-42.1	-43.0	21.1	0.00e+00	0	34	0	1290797056	54	4335
2026-01-17 14:58:58.66	280.62	12.86	-42.0	-42.9	21.2	0.00e+00	0	34	0	1297088512	54	4273
2026-01-17 14:58:59.65	280.81	12.87	-42.1	-43.0	21.1	0.00e+00	0	34	0	1302331392	54	4303
2026-01-17 14:59:00.64	281.00	12.89	-42.0	-43.0	21.2	0.00e+00	0	34	0	1308622848	54	4293
2026-01-17 14:59:01.63	281.20	12.90	-42.1	-43.0	21.1	0.00e+00	0	34	0	1313865728	54	4325
2026-01-17 14:59:02.61	281.39	12.91	-41.9	-42.8	21.3	0.00e+00	0	34	0	1319108608	54	4220
2026-01-17 14:59:03.60	281.58	12.93	-41.8	-42.7	21.4	0.00e+00	0	34	0	1325400064	54	4181
2026-01-17 14:59:04.59	281.78	12.94	-41.8	-42.6	21.5	0.00e+00	0	34	0	1330642944	54	4144
2026-01-17 14:59:05.58	281.97	12.95	-41.9	-42.8	21.3	0.00e+00	0	34	0	1335885824	54	4227
2026-01-17 14:59:06.58	282.17	12.96	-42.0	-42.9	21.3	0.00e+00	0	34	0	1342177280	54	4255
2026-01-17 14:59:07.57	282.36	12.97	-42.0	-42.9	21.2	0.00e+00	0	34	0	1347420160	54	4272
2026-01-17 14:59:08.57	282.56	12.98	-42.1	-43.0	21.2	0.00e+00	0	34	0	1352663040	54	4312
2026-01-17 14:59:09.57	282.76	13.00	-42.3	-43.2	21.0	0.00e+00	0	34	0	1357905920	55	4163
2026-01-17 14:59:10.57	282.96	13.01	-42.0	-42.9	21.3	0.00e+00	0	34	0	1364197376	55	4022
2026-01-17 14:59:11.57	283.15	13.02	-42.1	-43.0	21.2	0.00e+00	0	34	0	1369440256	55	4069
2026-01-17 14:59:12.57	283.35	13.03	-42.1	-43.0	21.2	0.00e+00	0	34	0	1374683136	55	4069
2026-01-17 14:59:13.57	283.55	13.04	-42.0	-42.9	21.3	0.00e+00	0	34	0	1380974592	55	4037
2026-01-17 14:59:14.57	283.75	13.05	-42.0	-42.9	21.3	0.00e+00	0	34	0	1386217472	55	4041
2026-01-17 14:59:15.57	283.94	13.06	-42.0	-42.9	21.3	0.00e+00	0	34	0	1391460352	55	4033
2026-01-17 14:59:16.56	284.14	13.06	-42.1	-42.9	21.3	0.00e+00	0	34	0	1397751808	55	4049
2026-01-17 14:59:17.57	284.34	13.07	-42.0	-42.9	21.3	0.00e+00	0	34	0	1402994688	55	4030
2026-01-17 14:59:18.57	284.54	13.08	-42.0	-42.9	21.3	0.00e+00	0	34	0	1409286144	55	4026
2026-01-17 14:59:19.57	284.74	13.09	-41.8	-42.7	21.5	0.00e+00	0	34	0	1414529024	55	3940
2026-01-17 14:59:20.56	284.93	13.10	-41.7	-42.6	21.6	0.00e+00	0	34	0	1419771904	55	3877
2026-01-17 14:59:21.56	285.13	13.10	-41.8	-42.7	21.5	0.00e+00	0	34	0	1426063360	55	3916
2026-01-17 14:59:22.56	285.33	13.11	-41.8	-42.6	21.6	0.00e+00	0	34	0	1431306240	55	3903
2026-01-17 14:59:23.57	285.53	13.12	-41.8	-42.7	21.5	0.00e+00	0	34	0	1436549120	55	3921
2026-01-17 14:59:24.56	285.73	13.12	-41.9	-42.8	21.5	0.00e+00	0	34	0	1442840576	55	3960
2026-01-17 14:59:25.56	285.93	13.13	-41.8	-42.7	21.5	0.00e+00	0	34	0	1448083456	55	3932
2026-01-17 14:59:26.55	286.12	13.13	-41.9	-42.8	21.4	0.00e+00	0	34	0	1453326336	55	3991
2026-01-17 14:59:27.55	286.32	13.14	-42.0	-42.9	21.4	0.00e+00	0	34	0	1459617792	55	4017
2026-01-17 14:59:28.55	286.52	13.15	-41.9	-42.8	21.4	0.00e+00	0	34	0	1464860672	55	3994
2026-01-17 14:59:29.55	286.72	13.15	-42.0	-42.9	21.4	0.00e+00	0	34	0	1471152128	55	4029
2026-01-17 14:59:30.55	286.92	13.15	-42.0	-42.9	21.4	0.00e+00	0	34	0	1476395008	55	4032
2026-01-17 14:59:31.54	287.12	13.16	-42.0	-42.9	21.4	0.00e+00	0	34	0	1481637888	55	4032
2026-01-17 14:59:32.54	287.32	13.16	-42.0	-42.9	21.4	0.00e+00	0	34	0	1487929344	55	4026
2026-01-17 14:59:33.53	287.51	13.17	-42.1	-43.0	21.3	0.00e+00	0	34	0	1493172224	55	4091
2026-01-17 14:59:34.52	287.71	13.17	-42.0	-42.9	21.4	0.00e+00	0	34	0	1498415104	55	4021
2026-01-17 14:59:35.51	287.91	13.17	-42.1	-43.0	21.3	0.00e+00	0	34	0	1504706560	55	4066
2026-01-17 14:59:36.50	288.11	13.17	-42.0	-42.9	21.4	0.00e+00	0	34	0	1509949440	55	4013
2026-01-17 14:59:37.49	288.30	13.18	-42.1	-43.0	21.3	0.00e+00	0	34	0	1515192320	55	4052
2026-01-17 14:59:38.48	288.50	13.18	-42.1	-43.0	21.3	0.00e+00	0	34	0	1521483776	55	4083
2026-01-17 14:59:39.46	288.70	13.18	-42.3	-43.1	21.1	0.00e+00	0	34	0	1526726656	55	4145
2026-01-17 14:59:40.45	288.89	13.18	-42.1	-43.0	21.2	0.00e+00	0	34	0	1531969536	55	4087
2026-01-17 14:59:41.44	289.09	13.18	-42.2	-43.1	21.2	0.00e+00	0	34	0	1537212416	55	4128
2026-01-17 14:59:42.43	289.29	13.18	-42.4	-43.3	21.1	0.00e+00	0	34	0	1543503872	55	4206
2026-01-17 14:59:43.41	289.48	13.18	-42.2	-43.1	21.2	0.00e+00	0	34	0	1548746752	55	4121
2026-01-17 14:59:44.40	289.68	13.18	-42.3	-43.2	21.1	0.00e+00	0	34	0	1553989632	55	4158
2026-01-17 14:59:45.38	289.88	13.18	-42.2	-43.0	21.2	0.00e+00	0	34	0	1560281088	55	4094
2026-01-17 14:59:46.36	290.07	13.18	-42.2	-43.0	21.3	0.00e+00	0	34	0	1565523968	55	4092
2026-01-17 14:59:47.35	290.27	13.18	-42.1	-43.0	21.3	0.00e+00	0	34	0	1570766848	55	4092
2026-01-17 14:59:48.34	290.47	13.18	-42.1	-43.0	21.3	0.00e+00	0	34	0	1576009728	55	4088
2026-01-17 14:59:49.32	290.66	13.18	-42.1	-43.0	21.4	0.00e+00	0	34	0	1582301184	55	4056
2026-01-17 14:59:50.31	290.86	13.18	-42.1	-43.0	21.3	0.00e+00	0	34	0	1587544064	55	4053
2026-01-17 14:59:51.30	291.06	13.18	-42.2	-43.1	21.2	0.00e+00	0	34	0	1592786944	55	4123
2026-01-17 14:59:52.29	291.25	13.17	-42.1	-43.0	21.3	0.00e+00	0	34	0	1599078400	55	4093
2026-01-17 14:59:53.28	291.45	13.17	-42.3	-43.2	21.2	0.00e+00	0	34	0	1604321280	55	4168
2026-01-17 14:59:54.27	291.65	13.17	-42.3	-43.2	21.1	0.00e+00	0	34	0	1609564160	55	4186
2026-01-17 14:59:55.26	291.85	13.17	-42.4	-43.3	21.0	0.00e+00	0	34	0	1614807040	55	4219
2026-01-17 14:59:56.25	292.04	13.16	-42.4	-43.3	21.0	0.00e+00	0	34	0	1621098496	55	4215
2026-01-17 14:59:57.24	292.24	13.16	-42.4	-43.3	21.1	0.00e+00	0	34	0	1626341376	55	4204
2026-01-17 14:59:58.22	292.44	13.15	-42.3	-43.2	21.1	0.00e+00	0	34	0	1632632832	55	4172
2026-01-17 14:59:59.22	292.64	13.15	-42.3	-43.2	21.1	0.00e+00	0	34	0	1637875712	55	4153
2026-01-17 15:00:00.20	292.83	13.14	-42.2	-43.1	21.3	0.00e+00	0	34	0	1643118592	55	4109
2026-01-17 15:00:01.19	293.03	13.14	-42.2	-43.1	21.3	0.00e+00	0	34	0	1649410048	55	4115
2026-01-17 15:00:02.18	293.22	13.13	-42.3	-43.2	21.1	0.00e+00	0	34	0	1654652928	55	4164
2026-01-17 15:00:03.16	293.42	13.13	-42.4	-43.3	21.0	0.00e+00	0	34	0	1659895808	55	4213
2026-01-17 15:00:04.15	293.62	13.12	-42.3	-43.2	21.1	0.00e+00	0	34	0	1665138688	55	4187
2026-01-17 15:00:05.14	293.81	13.12	-42.5	-43.4	21.0	0.00e+00	0	34	0	1671430144	55	4263
2026-01-17 15:00:06.12	294.01	13.11	-42.6	-43.5	20.8	0.00e+00	0	34	0	1676673024	55	4322
2026-01-17 15:00:07.10	294.20	13.10	-42.5	-43.4	21.0	0.00e+00	0	34	0	1681915904	55	4259
2026-01-17 15:00:08.09	294.40	13.09	-42.3	-43.3	21.1	0.00e+00	0	34	0	1688207360	55	4201
2026-01-17 15:00:09.08	294.59	13.09	-42.3	-43.2	21.1	0.00e+00	0	34	0	1693450240	55	4173
2026-01-17 15:00:10.07	294.79	13.08	-42.3	-43.2	21.2	0.00e+00	0	34	0	1698693120	55	4150
2026-01-17 15:00:11.06	294.99	13.07	-42.2	-43.0	21.3	0.00e+00	0	34	0	1703936000	55	4092
2026-01-17 15:00:12.05	295.18	13.06	-42.2	-43.1	21.2	0.00e+00	0	34	0	1710227456	55	4124
2026-01-17 15:00:13.04	295.38	13.05	-42.4	-43.3	21.0	0.00e+00	0	34	0	1715470336	55	4212
2026-01-17 15:00:14.02	295.57	13.05	-42.5	-43.4	21.0	0.00e+00	0	34	0	1720713216	55	4256
2026-01-17 15:00:15.02	295.77	13.04	-42.5	-43.4	20.9	0.00e+00	0	34	0	1727004672	55	4286
2026-01-17 15:00:16.00	295.96	13.03	-42.5	-43.5	20.9	0.00e+00	0	34	0	1732247552	55	4307
2026-01-17 15:00:16.99	296.16	13.02	-42.5	-43.4	20.9	0.00e+00	0	34	0	1737490432	55	4259
2026-01-17 15:00:17.99	296.36	13.01	-42.5	-43.4	20.9	0.00e+00	0	34	0	1743781888	55	4279
2026-01-17 15:00:18.98	296.55	13.00	-42.6	-43.5	20.8	0.00e+00	0	34	0	1749024768	55	4322
2026-01-17 15:00:19.97	296.75	12.98	-42.5	-43.4	20.9	0.00e+00	0	34	0	1754267648	55	4272
2026-01-17 15:00:20.96	296.94	12.97	-42.5	-43.4	21.0	0.00e+00	0	34	0	1759510528	55	4266
2026-01-17 15:00:21.95	297.13	12.96	-42.6	-43.5	20.9	0.00e+00	0	34	0	1765801984	55	4318
2026-01-17 15:00:22.94	297.33	12.95	-42.5	-43.4	20.9	0.00e+00	0	34	0	1771044864	55	4265
2026-01-17 15:00:23.94	297.53	12.94	-42.4	-43.4	21.0	0.00e+00	0	34	0	1776287744	55	4247
2026-01-17 15:00:24.92	297.72	12.93	-42.4	-43.3	21.1	0.00e+00	0	34	0	1782579200	55	4219
2026-01-17 15:00:25.91	297.91	12.91	-42.4	-43.3	21.0	0.00e+00	0	34	0	1787822080	55	4241
2026-01-17 15:00:26.90	298.11	12.90	-42.4	-43.3	21.0	0.00e+00	0	34	0	1793064960	55	4229
2026-01-17 15:00:27.89	298.30	12.89	-42.5	-43.4	21.0	0.00e+00	0	34	0	1799356416	55	4261
2026-01-17 15:00:28.88	298.49	12.87	-42.5	-43.4	20.9	0.00e+00	0	34	0	1804599296	55	4270
2026-01-17 15:00:29.88	298.69	12.86	-42.4	-43.3	21.1	0.00e+00	0	34	0	1810890752	55	4196
2026-01-17 15:00:30.87	298.88	12.85	-42.3	-43.2	21.1	0.00e+00	0	34	0	1815085056	55	4186
2026-01-17 15:00:31.86	299.07	12.83	-42.3	-43.2	21.2	0.00e+00	0	34	0	1821376512	55	4147
2026-01-17 15:00:32.85	299.27	12.82	-42.5	-43.4	20.9	0.00e+00	0	34	0	1826619392	55	4260
2026-01-17 15:00:33.84	299.46	12.80	-42.4	-43.4	21.0	0.00e+00	0	34	0	1831862272	55	4245
2026-01-17 15:00:34.83	299.65	12.79	-42.4	-43.3	21.0	0.00e+00	0	34	0	1838153728	55	4217
2026-01-17 15:00:35.82	299.84	12.77	-42.5	-43.4	20.9	0.00e+00	0	34	0	1843396608	55	4280
2026-01-17 15:00:36.81	300.04	12.76	-42.5	-43.4	21.0	0.00e+00	0	34	0	1849688064	55	4264
2026-01-17 15:00:37.80	300.23	12.74	-42.5	-43.4	20.9	0.00e+00	0	34	0	1854930944	55	4281
2026-01-17 15:00:38.79	300.42	12.72	-42.5	-43.4	20.9	0.00e+00	0	34	0	1860173824	55	4284
2026-01-17 15:00:39.78	300.61	12.71	-42.4	-43.4	21.0	0.00e+00	0	34	0	1866465280	55	4246
2026-01-17 15:00:40.77	300.80	12.69	-42.3	-43.2	21.2	0.00e+00	0	34	0	1871708160	55	4149
2026-01-17 15:00:41.76	300.99	12.67	-42.3	-43.2	21.1	0.00e+00	0	34	0	1876951040	55	4185
2026-01-17 15:00:42.75	301.18	12.66	-42.4	-43.3	21.0	0.00e+00	0	34	0	1882193920	55	4217
2026-01-17 15:00:43.74	301.37	12.64	-42.3	-43.2	21.1	0.00e+00	0	34	0	1888485376	55	4177
2026-01-17 15:00:44.74	301.57	12.62	-42.3	-43.2	21.1	0.00e+00	0	34	0	1893728256	55	4167
2026-01-17 15:00:45.72	301.75	12.60	-42.3	-43.2	21.1	0.00e+00	0	34	0	1898971136	55	4190
2026-01-17 15:00:46.71	301.94	12.58	-42.4	-43.3	21.1	0.00e+00	0	34	0	1905262592	55	4206
2026-01-17 15:00:47.70	302.13	12.56	-42.4	-43.3	21.0	0.00e+00	0	34	0	1910505472	55	4224
2026-01-17 15:00:48.69	302.32	12.55	-42.4	-43.3	21.0	0.00e+00	0	34	0	1915748352	55	4212
2026-01-17 15:00:49.67	302.51	12.53	-42.4	-43.3	21.0	0.00e+00	0	34	0	1920991232	55	4230
2026-01-17 15:00:50.67	302.70	12.51	-42.4	-43.3	21.0	0.00e+00	0	34	0	1927282688	55	4218
2026-01-17 15:00:51.65	302.89	12.49	-42.4	-43.4	21.0	0.00e+00	0	34	0	1932525568	55	4243
2026-01-17 15:00:52.64	303.08	12.47	-42.6	-43.5	20.8	0.00e+00	0	34	0	1937768448	55	4323
2026-01-17 15:00:53.64	303.27	12.45	-42.6	-43.6	20.7	0.00e+00	0	34	0	1944059904	55	4353
2026-01-17 15:00:54.62	303.45	12.43	-42.5	-43.5	20.8	0.00e+00	0	34	0	1949302784	55	4299
2026-01-17 15:00:55.61	303.64	12.41	-42.7	-43.6	20.7	0.00e+00	0	34	0	1954545664	55	4367
2026-01-17 15:00:56.60	303.83	12.38	-42.6	-43.6	20.7	0.00e+00	0	34	0	1960837120	55	4346
2026-01-17 15:00:57.59	304.01	12.36	-42.6	-43.5	20.8	0.00e+00	0	34	0	1966080000	55	4302
2026-01-17 15:00:58.57	304.20	12.34	-42.7	-43.6	20.7	0.00e+00	0	34	0	1971322880	55	4383
2026-01-17 15:00:59.56	304.38	12.32	-42.8	-43.8	20.6	0.00e+00	0	34	0	1976565760	56	4213
2026-01-17 15:01:00.55	304.57	12.30	-42.8	-43.8	20.6	0.00e+00	0	34	0	1982857216	56	4210
2026-01-17 15:01:01.53	304.76	12.28	-42.9	-43.9	20.5	0.00e+00	0	34	0	1988100096	56	4263
2026-01-17 15:01:02.52	304.94	12.25	-42.9	-43.9	20.5	0.00e+00	0	34	0	1993342976	56	4245
2026-01-17 15:01:03.51	305.13	12.23	-42.7	-43.6	20.8	0.00e+00	0	34	0	1999634432	56	4139
2026-01-17 15:01:04.50	305.31	12.21	-42.7	-43.6	20.8	0.00e+00	0	34	0	2004877312	56	4127
2026-01-17 15:01:05.49	305.50	12.18	-42.6	-43.5	20.9	0.00e+00	0	34	0	2011168768	56	4089
2026-01-17 15:01:06.48	305.68	12.16	-42.6	-43.6	20.8	0.00e+00	0	34	0	2016411648	56	4106
2026-01-17 15:01:07.46	305.86	12.14	-42.7	-43.7	20.7	0.00e+00	0	34	0	2021654528	56	4148
2026-01-17 15:01:08.45	306.05	12.11	-42.6	-43.6	20.8	0.00e+00	0	34	0	2026897408	56	4114
2026-01-17 15:01:09.44	306.23	12.09	-42.8	-43.8	20.6	0.00e+00	0	34	0	2032140288	56	4210
2026-01-17 15:01:10.43	306.41	12.06	-42.8	-43.8	20.6	0.00e+00	0	34	0	2038431744	56	4203
2026-01-17 15:01:11.42	306.60	12.04	-42.7	-43.6	20.7	0.00e+00	0	34	0	2043674624	56	4131
2026-01-17 15:01:12.41	306.78	12.01	-42.8	-43.8	20.6	0.00e+00	0	34	0	2049966080	56	4202
2026-01-17 15:01:13.40	306.96	11.99	-42.7	-43.6	20.7	0.00e+00	0	34	0	2055208960	56	4133
2026-01-17 15:01:14.38	307.14	11.96	-42.7	-43.7	20.7	0.00e+00	0	34	0	2060451840	56	4150
2026-01-17 15:01:15.37	307.32	11.94	-42.7	-43.7	20.7	0.00e+00	0	34	0	2065694720	56	4152
2026-01-17 15:01:16.37	307.51	11.91	-42.7	-43.6	20.7	0.00e+00	0	34	0	2070937600	56	4133
2026-01-17 15:01:17.36	307.69	11.88	-42.7	-43.7	20.7	0.00e+00	0	34	0	2077229056	56	4148
2026-01-17 15:01:18.36	307.87	11.86	-42.8	-43.8	20.6	0.00e+00	0	34	0	2082471936	56	4221
2026-01-17 15:01:19.35	308.05	11.83	-42.6	-43.6	20.8	0.00e+00	0	34	0	2088763392	56	4121
2026-01-17 15:01:20.35	308.23	11.80	-42.8	-43.8	20.6	0.00e+00	0	34	0	2094006272	56	4211
2026-01-17 15:01:21.34	308.41	11.78	-42.7	-43.6	20.7	0.00e+00	0	34	0	2099249152	56	4142
2026-01-17 15:01:22.34	308.60	11.75	-42.8	-43.7	20.6	0.00e+00	0	34	0	2105540608	56	4175
2026-01-17 15:01:23.33	308.78	11.72	-42.7	-43.6	20.7	0.00e+00	0	34	0	2110783488	56	4132
2026-01-17 15:01:24.33	308.96	11.69	-42.8	-43.8	20.6	0.00e+00	0	34	0	2116026368	56	4206
2026-01-17 15:01:25.33	309.14	11.67	-42.9	-43.8	20.5	0.00e+00	0	34	0	2122317824	56	4241
2026-01-17 15:01:26.33	309.32	11.64	-42.9	-43.9	20.4	0.00e+00	0	34	0	2127560704	56	4284
2026-01-17 15:01:27.33	309.50	11.61	-43.0	-43.9	20.4	0.00e+00	0	34	0	2132803584	56	4286
2026-01-17 15:01:28.32	309.67	11.58	-42.8	-43.8	20.6	0.00e+00	0	34	0	2139095040	56	4197
2026-01-17 15:01:29.32	309.85	11.55	-43.0	-43.9	20.4	0.00e+00	0	34	0	2144337920	56	4291
2026-01-17 15:01:30.32	310.03	11.52	-43.0	-44.0	20.3	0.00e+00	0	34	0	2150629376	56	4303
2026-01-17 15:01:31.31	310.21	11.49	-43.1	-44.0	20.3	0.00e+00	0	34	0	2155872256	56	4335
2026-01-17 15:01:32.31	310.39	11.46	-42.9	-43.8	20.5	0.00e+00	0	34	0	2161115136	56	4234
2026-01-17 15:01:33.30	310.56	11.43	-42.8	-43.8	20.5	0.00e+00	0	34	0	2167406592	56	4205
2026-01-17 15:01:34.29	310.74	11.40	-42.9	-43.9	20.4	0.00e+00	0	34	0	2172649472	56	4261
2026-01-17 15:01:35.28	310.91	11.37	-42.9	-43.9	20.4	0.00e+00	0	34	0	2177892352	56	4256
2026-01-17 15:01:36.27	311.09	11.34	-42.8	-43.8	20.5	0.00e+00	0	34	0	2183135232	56	4216
2026-01-17 15:01:37.25	311.26	11.31	-42.9	-43.9	20.4	0.00e+00	0	34	0	2189426688	56	4255
2026-01-17 15:01:38.24	311.43	11.28	-42.8	-43.8	20.5	0.00e+00	0	34	0	2194669568	56	4206
2026-01-17 15:01:39.23	311.61	11.25	-42.8	-43.8	20.5	0.00e+00	0	34	0	2199912448	56	4205
2026-01-17 15:01:40.21	311.78	11.22	-42.8	-43.8	20.5	0.00e+00	0	34	0	2206203904	56	4204
2026-01-17 15:01:41.20	311.95	11.19	-42.8	-43.7	20.6	0.00e+00	0	34	0	2211446784	56	4180
2026-01-17 15:01:42.18	312.12	11.16	-42.7	-43.6	20.6	0.00e+00	0	34	0	2216689664	56	4130
2026-01-17 15:01:43.17	312.30	11.13	-42.7	-43.6	20.7	0.00e+00	0	34	0	2221932544	56	4122
2026-01-17 15:01:44.16	312.47	11.09	-42.7	-43.7	20.6	0.00e+00	0	34	0	2228224000	56	4158
2026-01-17 15:01:45.14	312.64	11.06	-42.8	-43.7	20.6	0.00e+00	0	34	0	2233466880	56	4175
2026-01-17 15:01:46.13	312.81	11.03	-42.9	-43.9	20.4	0.00e+00	0	34	0	2238709760	56	4246
2026-01-17 15:01:47.12	312.98	11.00	-42.9	-43.9	20.4	0.00e+00	0	34	0	2245001216	56	4271
2026-01-17 15:01:48.11	313.15	10.97	-42.9	-43.9	20.4	0.00e+00	0	34	0	2250244096	56	4252
2026-01-17 15:01:49.10	313.32	10.93	-42.8	-43.8	20.4	0.00e+00	0	34	0	2255486976	56	4206
2026-01-17 15:01:50.08	313.49	10.90	-42.8	-43.7	20.5	0.00e+00	0	34	0	2261778432	56	4188
2026-01-17 15:01:51.07	313.66	10.87	-42.7	-43.7	20.6	0.00e+00	0	34	0	2267021312	56	4158
2026-01-17 15:01:52.06	313.83	10.83	-42.8	-43.8	20.4	0.00e+00	0	34	0	2272264192	56	4219
2026-01-17 15:01:53.05	314.00	10.80	-42.8	-43.8	20.4	0.00e+00	0	34	0	2277507072	56	4220
2026-01-17 15:01:54.04	314.17	10.77	-42.9	-43.8	20.4	0.00e+00	0	34	0	2283798528	56	4225
2026-01-17 15:01:55.03	314.33	10.73	-43.0	-43.9	20.3	0.00e+00	0	34	0	2289041408	56	4287
2026-01-17 15:01:56.02	314.50	10.70	-43.0	-44.0	20.2	0.00e+00	0	34	0	2294284288	56	4312
2026-01-17 15:01:57.01	314.67	10.67	-43.0	-44.0	20.3	0.00e+00	0	34	0	2300575744	56	4293
2026-01-17 15:01:58.00	314.83	10.63	-43.0	-44.0	20.2	0.00e+00	0	34	0	2305818624	56	4320
2026-01-17 15:01:58.99	315.00	10.60	-43.1	-44.1	20.1	0.00e+00	0	34	0	2312110080	56	4376
2026-01-17 15:01:59.98	315.17	10.56	-42.9	-43.9	20.3	0.00e+00	0	34	0	2317352960	56	4254
2026-01-17 15:02:00.97	315.33	10.53	-42.9	-43.9	20.3	0.00e+00	0	34	0	2322595840	56	4278
2026-01-17 15:02:01.96	315.50	10.49	-43.0	-44.0	20.2	0.00e+00	0	34	0	2327838720	56	4325
2026-01-17 15:02:02.94	315.66	10.46	-42.9	-43.8	20.4	0.00e+00	0	34	0	2333081600	56	4226
2026-01-17 15:02:03.93	315.83	10.42	-42.9	-43.9	20.3	0.00e+00	0	34	0	2339373056	56	4260
2026-01-17 15:02:04.92	315.99	10.39	-42.9	-43.8	20.4	0.00e+00	0	34	0	2344615936	56	4226
2026-01-17 15:02:05.91	316.15	10.35	-42.9	-43.9	20.3	0.00e+00	0	34	0	2350907392	56	4264
2026-01-17 15:02:06.90	316.32	10.32	-43.3	-44.3	19.9	0.00e+00	0	34	0	2356150272	57	4198
2026-01-17 15:02:07.90	316.48	10.28	-43.1	-44.1	20.0	0.00e+00	0	34	0	2361393152	57	4131
2026-01-17 15:02:08.88	316.64	10.25	-43.1	-44.1	20.1	0.00e+00	0	34	0	2367684608	57	4131
2026-01-17 15:02:09.87	316.80	10.21	-43.0	-44.0	20.2	0.00e+00	0	34	0	2371878912	57	4067
2026-01-17 15:02:10.86	316.97	10.17	-43.0	-44.0	20.1	0.00e+00	0	34	0	2378170368	57	4082
2026-01-17 15:02:11.85	317.13	10.14	-43.2	-44.2	20.0	0.00e+00	0	34	0	2383413248	57	4172
2026-01-17 15:02:12.84	317.29	10.10	-43.2	-44.2	19.9	0.00e+00	0	34	0	2389704704	57	4193
2026-01-17 15:02:13.82	317.45	10.06	-43.2	-44.2	19.9	0.00e+00	0	34	0	2394947584	57	4185
2026-01-17 15:02:14.81	317.61	10.03	-43.0	-44.0	20.1	0.00e+00	0	34	0	2400190464	57	4076
2026-01-17 15:02:15.80	317.77	9.99	-43.1	-44.1	20.0	0.00e+00	0	34	0	2406481920	57	4133
2026-01-17 15:02:16.79	317.93	9.95	-43.1	-44.1	20.0	0.00e+00	0	34	0	2411724800	57	4143
2026-01-17 15:02:17.78	318.09	9.92	-43.3	-44.3	19.9	0.00e+00	0	34	0	2416967680	57	4219
2026-01-17 15:02:18.76	318.24	9.88	-43.2	-44.2	19.9	0.00e+00	0	34	0	2422210560	57	4189
2026-01-17 15:02:19.76	318.40	9.84	-43.1	-44.1	20.0	0.00e+00	0	34	0	2428502016	57	4131
2026-01-17 15:02:20.74	318.56	9.80	-43.2	-44.2	19.9	0.00e+00	0	34	0	2433744896	57	4192
2026-01-17 15:02:21.74	318.72	9.77	-43.2	-44.2	19.9	0.00e+00	0	34	0	2438987776	57	4193
2026-01-17 15:02:22.73	318.88	9.73	-43.3	-44.3	19.8	0.00e+00	0	35	0	2445279232	57	4224
2026-01-17 15:02:23.73	319.03	9.69	-43.4	-44.4	19.7	0.00e+00	0	34	0	2450522112	57	4271
2026-01-17 15:02:24.73	319.19	9.65	-43.2	-44.2	19.9	0.00e+00	0	34	0	2455764992	57	4149
2026-01-17 15:02:25.73	319.35	9.61	-43.0	-44.0	20.1	0.00e+00	0	34	0	2462056448	57	4079
2026-01-17 15:02:26.73	319.51	9.57	-43.2	-44.2	19.9	0.00e+00	0	34	0	2467299328	57	4157
2026-01-17 15:02:27.73	319.66	9.53	-43.1	-44.1	20.0	0.00e+00	0	34	0	2472542208	57	4120
2026-01-17 15:02:28.73	319.82	9.50	-42.9	-43.9	20.2	0.00e+00	0	34	0	2478833664	57	4036
2026-01-17 15:02:29.73	319.98	9.46	-43.2	-44.2	19.9	0.00e+00	0	34	0	2484076544	57	4158
2026-01-17 15:02:30.73	320.13	9.42	-43.1	-44.1	20.0	0.00e+00	0	34	0	2490368000	57	4100
2026-01-17 15:02:31.73	320.29	9.38	-42.9	-43.8	20.2	0.00e+00	0	34	0	2495610880	57	4003
2026-01-17 15:02:32.73	320.44	9.34	-43.2	-44.2	19.8	0.00e+00	0	34	0	2500853760	57	4179
2026-01-17 15:02:33.73	320.60	9.30	-42.9	-43.9	20.2	0.00e+00	0	34	0	2507145216	57	4005
2026-01-17 15:02:34.73	320.75	9.26	-43.1	-44.0	20.0	0.00e+00	0	34	0	2512388096	57	4095
2026-01-17 15:02:35.73	320.90	9.22	-43.1	-44.1	19.9	0.00e+00	0	34	0	2517630976	57	4136
2026-01-17 15:02:36.73	321.06	9.18	-43.4	-44.4	19.7	0.00e+00	0	34	0	2523922432	57	4282
2026-01-17 15:02:37.72	321.21	9.14	-43.4	-44.4	19.6	0.00e+00	0	34	0	2529165312	57	4273
2026-01-17 15:02:38.72	321.36	9.10	-43.5	-44.5	19.5	0.00e+00	0	34	0	2534408192	57	4339
2026-01-17 15:02:39.71	321.51	9.06	-43.6	-44.7	19.4	0.00e+00	0	34	0	2540699648	57	4401
2026-01-17 15:02:40.70	321.66	9.02	-43.4	-44.4	19.6	0.00e+00	0	34	0	2545942528	57	4286
2026-01-17 15:02:41.69	321.81	8.98	-43.6	-44.6	19.4	0.00e+00	0	34	0	2552233984	57	4385
2026-01-17 15:02:42.69	321.96	8.94	-43.7	-44.8	19.3	0.00e+00	0	34	0	2557476864	57	4456
2026-01-17 15:02:43.67	322.11	8.90	-43.7	-44.8	19.2	0.00e+00	0	34	0	2562719744	57	4478
2026-01-17 15:02:44.67	322.26	8.86	-43.4	-44.5	19.5	0.00e+00	0	34	0	2567962624	58	4067
2026-01-17 15:02:45.66	322.40	8.82	-43.7	-44.8	19.2	0.00e+00	0	34	0	2574254080	58	4215
2026-01-17 15:02:46.65	322.55	8.78	-43.7	-44.7	19.3	0.00e+00	0	34	0	2579496960	58	4188
2026-01-17 15:02:47.65	322.70	8.74	-43.6	-44.6	19.4	0.00e+00	0	34	0	2584739840	58	4133
2026-01-17 15:02:48.64	322.85	8.69	-43.5	-44.5	19.5	0.00e+00	0	34	0	2591031296	58	4080
2026-01-17 15:02:49.64	322.99	8.65	-43.4	-44.5	19.5	0.00e+00	0	34	0	2596274176	58	4056
2026-01-17 15:02:50.63	323.14	8.61	-43.6	-44.7	19.3	0.00e+00	0	34	0	2601517056	58	4158
2026-01-17 15:02:51.63	323.29	8.57	-43.7	-44.8	19.2	0.00e+00	0	34	0	2607808512	58	4224
2026-01-17 15:02:52.62	323.43	8.53	-43.5	-44.5	19.4	0.00e+00	0	34	0	2613051392	58	4098
2026-01-17 15:02:53.62	323.58	8.49	-43.4	-44.4	19.6	0.00e+00	0	34	0	2618294272	58	4028
2026-01-17 15:02:54.62	323.72	8.45	-43.6	-44.7	19.3	0.00e+00	0	34	0	2624585728	58	4148
2026-01-17 15:02:55.61	323.87	8.41	-43.8	-44.9	19.1	0.00e+00	0	34	0	2629828608	58	4260
2026-01-17 15:02:56.60	324.01	8.36	-43.6	-44.7	19.3	0.00e+00	0	34	0	2636120064	58	4158
2026-01-17 15:02:57.60	324.16	8.32	-43.6	-44.7	19.3	0.00e+00	0	34	0	2641362944	58	4147
2026-01-17 15:02:58.60	324.30	8.28	-43.7	-44.8	19.2	0.00e+00	0	34	0	2646605824	58	4204
2026-01-17 15:02:59.59	324.44	8.24	-43.6	-44.7	19.3	0.00e+00	0	34	0	2652897280	58	4174
2026-01-17 15:03:00.57	324.58	8.20	-43.6	-44.6	19.3	0.00e+00	0	34	0	2657091584	58	4142
2026-01-17 15:03:01.57	324.73	8.15	-43.5	-44.6	19.4	0.00e+00	0	34	0	2663383040	58	4122
2026-01-17 15:03:02.55	324.87	8.11	-43.6	-44.7	19.3	0.00e+00	0	34	0	2668625920	58	4146
2026-01-17 15:03:03.54	325.01	8.07	-43.5	-44.6	19.4	0.00e+00	0	34	0	2674917376	58	4107
2026-01-17 15:03:04.53	325.15	8.03	-43.4	-44.4	19.5	0.00e+00	0	34	0	2680160256	58	4047
2026-01-17 15:03:05.52	325.29	7.99	-43.5	-44.5	19.4	0.00e+00	0	34	0	2685403136	58	4080
2026-01-17 15:03:06.51	325.43	7.94	-43.6	-44.6	19.3	0.00e+00	0	34	0	2691694592	58	4140
2026-01-17 15:03:07.50	325.57	7.90	-43.6	-44.7	19.2	0.00e+00	0	34	0	2696937472	58	4168
2026-01-17 15:03:08.49	325.71	7.86	-43.5	-44.5	19.4	0.00e+00	0	34	0	2702180352	58	4093
2026-01-17 15:03:09.48	325.84	7.82	-43.5	-44.5	19.4	0.00e+00	0	34	0	2708471808	58	4087
2026-01-17 15:03:10.46	325.98	7.78	-43.5	-44.5	19.4	0.00e+00	0	34	0	2713714688	58	4081
2026-01-17 15:03:11.44	326.12	7.73	-43.6	-44.6	19.3	0.00e+00	0	34	0	2718957568	58	4141
2026-01-17 15:03:12.43	326.25	7.69	-43.3	-44.4	19.5	0.00e+00	0	34	0	2724200448	58	4017
2026-01-17 15:03:13.41	326.39	7.65	-43.5	-44.5	19.4	0.00e+00	0	34	0	2730491904	58	4078
2026-01-17 15:03:14.40	326.53	7.61	-43.4	-44.5	19.4	0.00e+00	0	34	0	2735734784	58	4062
2026-01-17 15:03:15.39	326.66	7.56	-43.6	-44.7	19.2	0.00e+00	0	34	0	2740977664	58	4152
2026-01-17 15:03:16.38	326.80	7.52	-43.6	-44.7	19.2	0.00e+00	0	34	0	2747269120	58	4180
2026-01-17 15:03:17.36	326.93	7.48	-43.7	-44.8	19.1	0.00e+00	0	34	0	2752512000	58	4233
2026-01-17 15:03:18.36	327.07	7.43	-43.8	-44.9	19.0	0.00e+00	0	34	0	2757754880	58	4259
2026-01-17 15:03:19.34	327.20	7.39	-43.9	-45.0	18.8	0.00e+00	0	34	0	2762997760	58	4340
2026-01-17 15:03:20.33	327.34	7.35	-43.6	-44.7	19.2	0.00e+00	0	34	0	2769289216	58	4181
2026-01-17 15:03:21.32	327.47	7.30	-43.8	-45.0	18.9	0.00e+00	0	34	0	2774532096	58	4302
2026-01-17 15:03:22.31	327.60	7.26	-43.8	-45.0	18.9	0.00e+00	0	34	0	2779774976	58	4302
2026-01-17 15:03:23.30	327.74	7.22	-43.9	-45.0	18.8	0.00e+00	0	34	0	2786066432	58	4340
2026-01-17 15:03:24.28	327.87	7.18	-43.8	-44.9	19.0	0.00e+00	0	34	0	2791309312	58	4273
2026-01-17 15:03:25.27	328.00	7.13	-43.7	-44.7	19.1	0.00e+00	0	34	0	2796552192	58	4192
2026-01-17 15:03:26.26	328.13	7.09	-43.8	-44.9	18.9	0.00e+00	0	34	0	2801795072	58	4265
2026-01-17 15:03:27.26	328.26	7.04	-43.9	-45.0	18.8	0.00e+00	0	34	0	2808086528	58	4327
2026-01-17 15:03:28.25	328.40	7.00	-43.9	-45.0	18.9	0.00e+00	0	34	0	2813329408	58	4294
2026-01-17 15:03:29.24	328.53	6.96	-43.8	-44.9	18.9	0.00e+00	0	34	0	2818572288	58	4266
2026-01-17 15:03:30.23	328.66	6.91	-43.7	-44.8	19.0	0.00e+00	0	34	0	2824863744	58	4210
2026-01-17 15:03:31.22	328.79	6.87	-43.9	-45.1	18.8	0.00e+00	0	34	0	2830106624	58	4342
2026-01-17 15:03:32.21	328.92	6.83	-44.0	-45.2	18.6	0.00e+00	0	34	0	2835349504	58	4399
2026-01-17 15:03:33.21	329.05	6.78	-44.1	-45.2	18.6	0.00e+00	0	34	0	2841640960	58	4433
2026-01-17 15:03:34.19	329.17	6.74	-44.2	-45.3	18.5	0.00e+00	0	34	0	2846883840	58	4491
2026-01-17 15:03:35.18	329.30	6.69	-44.2	-45.3	18.4	0.00e+00	0	34	0	2853175296	59	4237
2026-01-17 15:03:36.17	329.43	6.65	-44.3	-45.5	18.3	0.00e+00	0	34	0	2857369600	59	4298
2026-01-17 15:03:37.16	329.56	6.61	-44.2	-45.4	18.4	0.00e+00	0	34	0	2863661056	59	4273
2026-01-17 15:03:38.15	329.69	6.56	-44.4	-45.6	18.2	0.00e+00	0	34	0	2868903936	59	4376
2026-01-17 15:03:39.14	329.81	6.52	-44.0	-45.1	18.7	0.00e+00	0	34	0	2875195392	59	4127
2026-01-17 15:03:40.14	329.94	6.47	-44.0	-45.2	18.6	0.00e+00	0	34	0	2880438272	59	4163
2026-01-17 15:03:41.12	330.07	6.43	-44.4	-45.7	18.1	0.00e+00	0	34	0	2885681152	59	4399
2026-01-17 15:03:42.11	330.19	6.39	-44.2	-45.4	18.3	0.00e+00	0	34	0	2891972608	59	4271
2026-01-17 15:03:43.10	330.32	6.34	-44.5	-45.8	18.0	0.00e+00	0	34	0	2897215488	59	4463
2026-01-17 15:03:44.09	330.44	6.30	-44.0	-45.1	18.7	0.00e+00	0	34	0	2902458368	59	4121
2026-01-17 15:03:45.08	330.57	6.25	-44.2	-45.4	18.4	0.00e+00	0	34	0	2908749824	59	4250
2026-01-17 15:03:46.07	330.69	6.21	-44.3	-45.5	18.2	0.00e+00	0	34	0	2913992704	59	4311
2026-01-17 15:03:47.06	330.82	6.16	-43.9	-45.1	18.6	0.00e+00	0	34	0	2919235584	59	4113
2026-01-17 15:03:48.05	330.94	6.12	-44.1	-45.2	18.5	0.00e+00	0	34	0	2924478464	59	4180
2026-01-17 15:03:49.04	331.06	6.08	-44.3	-45.5	18.2	0.00e+00	0	34	0	2930769920	59	4307
2026-01-17 15:03:50.04	331.19	6.03	-44.2	-45.4	18.3	0.00e+00	0	34	0	2936012800	59	4262
2026-01-17 15:03:51.04	331.31	5.99	-44.3	-45.5	18.2	0.00e+00	0	34	0	2941255680	59	4322
2026-01-17 15:03:52.04	331.44	5.94	-44.1	-45.3	18.4	0.00e+00	0	34	0	2947547136	59	4213
2026-01-17 15:03:53.04	331.56	5.90	-44.3	-45.5	18.2	0.00e+00	0	34	0	2952790016	59	4305
2026-01-17 15:03:54.03	331.68	5.85	-44.4	-45.6	18.1	0.00e+00	0	34	0	2958032896	59	4369
2026-01-17 15:03:55.03	331.80	5.81	-44.3	-45.5	18.2	0.00e+00	0	34	0	2964324352	59	4310
2026-01-17 15:03:56.02	331.92	5.76	-44.4	-45.6	18.0	0.00e+00	0	34	0	2969567232	59	4391
2026-01-17 15:03:57.01	332.04	5.72	-44.6	-45.9	17.8	0.00e+00	0	34	0	2975858688	59	4495
2026-01-17 15:03:58.00	332.16	5.67	-44.1	-45.3	18.3	0.00e+00	0	34	0	2981101568	59	4220
2026-01-17 15:03:59.00	332.29	5.63	-44.3	-45.5	18.2	0.00e+00	0	34	0	2986344448	59	4313
2026-01-17 15:04:00.00	332.41	5.58	-44.4	-45.7	18.0	0.00e+00	0	34	0	2992635904	59	4402
2026-01-17 15:04:00.99	332.53	5.54	-44.4	-45.6	18.0	0.00e+00	0	34	0	2997878784	59	4386
2026-01-17 15:04:01.98	332.64	5.49	-44.3	-45.6	18.1	0.00e+00	0	34	0	3003121664	59	4349
2026-01-17 15:04:02.97	332.76	5.45	-44.2	-45.4	18.2	0.00e+00	0	34	0	3008364544	59	4263
2026-01-17 15:04:03.96	332.88	5.40	-44.3	-45.5	18.1	0.00e+00	0	34	0	3014656000	59	4303
2026-01-17 15:04:04.95	333.00	5.36	-44.5	-45.8	17.8	0.00e+00	0	34	0	3019898880	59	4458
2026-01-17 15:04:05.94	333.12	5.31	-44.6	-45.9	17.7	0.00e+00	0	34	0	3025141760	59	4507
2026-01-17 15:04:06.93	333.23	5.27	-44.5	-45.8	17.4	0.00e+00	0	34	0	3031433216	60	4233
2026-01-17 15:04:07.92	333.35	5.22	-44.5	-45.8	17.4	0.00e+00	0	34	0	3036676096	60	4231
2026-01-17 15:04:08.91	333.47	5.18	-44.7	-46.1	17.2	0.00e+00	0	34	0	3041918976	60	4342
2026-01-17 15:04:09.90	333.58	5.13	-44.1	-45.3	17.9	0.00e+00	0	34	0	3048210432	60	3972
2026-01-17 15:04:10.89	333.70	5.09	-44.3	-45.6	17.5	0.00e+00	0	34	0	3053453312	60	4122
2026-01-17 15:04:11.88	333.81	5.04	-44.5	-45.8	17.6	0.00e+00	0	34	0	3058696192	59	4487
2026-01-17 15:04:12.88	333.93	5.00	-50.8	-55.8	7.4	1.14e-02	0	34	0	3064987648	72	6663
2026-01-17 15:04:13.88	334.05	4.95	-52.8	-64.8	3.8	8.45e-01	0	34	104	3064987648	76	14943
2026-01-17 15:04:14.88	334.16	4.91	-53.0	-65.1	3.8	8.48e-01	0	34	104	3064987648	76	15413
2026-01-17 15:04:15.88	334.28	4.86	-53.2	-65.2	3.8	8.46e-01	0	34	104	3064987648	76	15728
2026-01-17 15:04:16.88	334.39	4.82	-53.4	-65.4	3.8	8.45e-01	0	34	104	3064987648	77	15056
2026-01-17 15:04:17.88	334.50	4.77	-53.5	-65.5	3.8	8.46e-01	0	34	104	3064987648	77	15274
2026-01-17 15:04:18.89	334.62	4.72	-53.6	-65.6	3.8	8.47e-01	0	34	104	3064987648	77	15436
2026-01-17 15:04:19.88	334.73	4.68	-53.7	-65.7	3.8	8.46e-01	0	34	104	3064987648	77	15608
2026-01-17 15:04:20.88	334.85	4.63	-53.8	-65.8	3.8	8.46e-01	0	34	104	3064987648	78	14909
2026-01-17 15:04:21.88	334.96	4.59	-53.8	-65.8	3.8	8.45e-01	0	34	104	3064987648	78	14970
2026-01-17 15:04:22.87	335.07	4.54	-53.9	-65.9	3.8	8.45e-01	0	34	104	3064987648	78	15095
2026-01-17 15:04:23.87	335.18	4.50	-53.9	-65.9	3.8	8.46e-01	0	34	104	3064987648	78	15104
2026-01-17 15:04:24.87	335.30	4.45	-53.9	-65.9	3.8	8.46e-01	0	34	104	3064987648	78	15144
2026-01-17 15:04:25.86	335.41	4.41	-53.9	-65.9	3.8	8.46e-01	0	34	104	3064987648	78	15202
2026-01-17 15:04:26.85	335.52	4.36	-53.9	-65.9	3.8	8.46e-01	0	34	104	3064987648	78	15195
2026-01-17 15:04:27.85	335.63	4.31	-53.9	-65.9	3.8	8.45e-01	0	34	104	3064987648	78	15165
2026-01-17 15:04:28.84	335.74	4.27	-53.9	-65.9	3.8	8.46e-01	0	34	104	3064987648	78	15179
2026-01-17 15:04:29.82	335.85	4.22	-53.9	-66.0	3.8	8.47e-01	0	35	104	3064987648	78	15239
2026-01-17 15:04:30.81	335.95	4.18	-53.9	-65.9	3.8	8.47e-01	0	34	104	3064987648	78	15208
2026-01-17 15:04:31.80	336.06	4.13	-53.9	-65.9	3.8	8.46e-01	0	34	104	3064987648	78	15188
2026-01-17 15:04:32.79	336.17	4.09	-53.9	-65.9	3.8	8.46e-01	0	34	104	3064987648	78	15187
2026-01-17 15:04:33.78	336.28	4.04	-53.9	-65.9	3.8	8.46e-01	0	34	104	3064987648	78	15162
2026-01-17 15:04:34.77	336.39	4.00	-53.9	-65.9	3.8	8.48e-01	0	34	104	3064987648	78	15094
2026-01-17 15:04:35.76	336.49	3.95	-53.9	-65.9	3.8	8.46e-01	0	34	104	3064987648	78	15125
2026-01-17 15:04:36.76	336.60	3.91	-53.9	-65.9	3.8	8.46e-01	0	34	104	3064987648	78	15084
2026-01-17 15:04:37.76	336.71	3.86	-53.9	-65.8	3.8	8.48e-01	0	34	104	3064987648	78	15050
2026-01-17 15:04:38.75	336.82	3.82	-53.8	-65.9	3.8	8.47e-01	0	34	104	3064987648	78	15070
2026-01-17 15:04:39.75	336.92	3.77	-53.8	-65.9	3.8	8.46e-01	0	34	104	3064987648	78	15085
2026-01-17 15:04:40.75	337.03	3.73	-53.8	-65.9	3.8	8.46e-01	0	34	104	3064987648	78	15059
2026-01-17 15:04:41.75	337.14	3.68	-53.8	-65.9	3.8	8.46e-01	0	34	104	3064987648	78	15053
2026-01-17 15:04:42.74	337.24	3.63	-53.8	-65.8	3.8	8.48e-01	0	34	104	3064987648	78	14995
2026-01-17 15:04:43.74	337.35	3.59	-53.8	-65.8	3.8	8.47e-01	0	34	104	3064987648	78	15001
2026-01-17 15:04:44.73	337.45	3.54	-53.8	-65.8	3.8	8.46e-01	0	34	104	3064987648	78	14995
2026-01-17 15:04:45.73	337.56	3.50	-53.8	-65.8	3.8	8.46e-01	0	34	104	3064987648	78	15019
2026-01-17 15:04:46.72	337.66	3.45	-53.8	-65.8	3.8	8.47e-01	0	34	104	3064987648	78	15027
2026-01-17 15:04:47.71	337.77	3.41	-53.8	-65.8	3.8	8.47e-01	0	34	104	3064987648	78	14983
2026-01-17 15:04:48.70	337.87	3.36	-53.8	-65.8	3.8	8.46e-01	0	34	104	3064987648	78	15044
2026-01-17 15:04:49.69	337.97	3.32	-53.8	-65.8	3.8	8.47e-01	0	34	104	3064987648	78	14954
2026-01-17 15:04:50.68	338.08	3.27	-53.8	-65.8	3.8	8.45e-01	0	34	104	3064987648	78	14998
2026-01-17 15:04:51.66	338.18	3.23	-53.8	-65.8	3.8	8.46e-01	0	34	104	3064987648	78	14990
2026-01-17 15:04:52.65	338.28	3.18	-53.8	-65.8	3.8	8.46e-01	0	34	104	3064987648	78	14963
2026-01-17 15:04:53.64	338.38	3.14	-53.8	-65.8	3.8	8.47e-01	0	34	104	3064987648	78	14983
2026-01-17 15:04:54.63	338.48	3.09	-53.8	-65.8	3.8	8.47e-01	0	34	104	3064987648	78	15028
2026-01-17 15:04:55.61	338.58	3.05	-53.8	-65.8	3.8	8.46e-01	0	34	104	3064987648	78	14964
2026-01-17 15:04:56.60	338.68	3.00	-53.8	-65.8	3.8	8.47e-01	0	34	104	3064987648	78	14969
2026-01-17 15:04:57.59	338.78	2.96	-53.8	-65.8	3.8	8.45e-01	0	34	104	3064987648	78	14955
2026-01-17 15:04:58.59	338.89	2.91	-53.8	-65.8	3.8	8.46e-01	0	34	104	3064987648	78	14979
2026-01-17 15:04:59.58	338.99	2.86	-53.8	-65.8	3.8	8.46e-01	0	34	104	3064987648	78	14935
2026-01-17 15:05:00.59	339.09	2.82	-53.8	-65.8	3.8	8.47e-01	0	34	104	3064987648	78	14939
2026-01-17 15:05:01.59	339.19	2.77	-53.8	-65.8	3.8	8.46e-01	0	34	104	3064987648	78	14968
2026-01-17 15:05:02.59	339.29	2.73	-53.8	-65.8	3.8	8.47e-01	0	34	104	3064987648	78	14931
2026-01-17 15:05:03.59	339.39	2.68	-53.8	-65.8	3.8	8.45e-01	0	34	104	3064987648	78	14931
2026-01-17 15:05:04.59	339.49	2.64	-53.8	-65.8	3.8	8.46e-01	0	34	104	3064987648	78	14963
2026-01-17 15:05:05.58	339.59	2.59	-53.8	-65.8	3.8	8.46e-01	0	34	104	3064987648	78	14954
2026-01-17 15:05:06.58	339.69	2.54	-53.8	-65.8	3.8	8.45e-01	0	34	104	3064987648	78	14918
2026-01-17 15:05:07.58	339.78	2.50	-53.8	-65.8	3.8	8.46e-01	0	34	104	3064987648	78	14917
2026-01-17 15:05:08.57	339.88	2.45	-53.8	-65.8	3.8	8.46e-01	0	35	104	3064987648	78	14913
2026-01-17 15:05:09.56	339.98	2.41	-53.8	-65.8	3.8	8.47e-01	0	35	104	3064987648	78	14902
2026-01-17 15:05:10.56	340.08	2.36	-53.8	-65.8	3.8	8.47e-01	0	34	104	3064987648	78	14940
2026-01-17 15:05:11.55	340.17	2.32	-53.8	-65.8	3.8	8.45e-01	0	34	104	3064987648	78	14925
2026-01-17 15:05:12.54	340.27	2.27	-53.8	-65.8	3.8	8.45e-01	0	35	104	3064987648	78	14932
2026-01-17 15:05:13.53	340.37	2.23	-53.8	-65.8	3.8	8.45e-01	0	34	104	3064987648	78	14906
2026-01-17 15:05:14.51	340.46	2.18	-53.8	-65.8	3.8	8.47e-01	0	34	104	3064987648	78	14916
2026-01-17 15:05:15.50	340.56	2.14	-53.7	-65.8	3.9	8.46e-01	0	34	104	3064987648	78	14939
2026-01-17 15:05:16.49	340.65	2.09	-53.8	-65.8	3.8	8.47e-01	0	34	104	3064987648	78	14910
2026-01-17 15:05:17.48	340.75	2.05	-53.8	-65.8	3.8	8.46e-01	0	34	104	3064987648	78	14901
2026-01-17 15:05:18.48	340.84	2.00	-53.8	-65.8	3.8	8.46e-01	0	34	104	3064987648	78	14903

#Closed at: 2026-01-17 15:05:18
#Recorded file [3064 MB]: D:/lorett/data/31041_260117_175410.dat