passes_logs/2026/01/17/R3.2S_Murmansk/R3.2S_Murmansk__20260117_064616_KANOPUS-V_5_rec.log

#Pass ID: 20260117_064616_KANOPUS-V 5
#Satellite: KANOPUS-V 5
#Configuration: KANOPUS-V_8320
#almurnet v.1.7.20251203
#Start time: 2026-01-17 06:46:17

#Version: 2.2.20231116
#Station: R3.2S_Murmansk
#Location: 33.079688 lon 68.888172 lat
#TLE: 1 43876U 18111A   26016.61566373  .00002373  00000+0  10257-3 0  9994
#TLE: 2 43876  97.3688 285.1004 0001785  87.8669 272.2772 15.23445052391717

#Time	Az	El	Level	Level2	SNR	BER	BlckErr	Temp	State	Recorded	gain1	gain2
2026-01-17 06:46:17.81	132.00	2.11	-52.7	-61.5	3.8	7.46e-01	0	34	0	0	77	9650
2026-01-17 06:46:18.81	131.96	2.18	-52.6	-61.5	3.8	7.45e-01	0	34	104	0	76	10237
2026-01-17 06:46:19.82	131.92	2.25	-52.6	-61.5	3.8	7.46e-01	0	34	104	0	76	10240
2026-01-17 06:46:20.83	131.88	2.32	-52.6	-61.5	3.8	7.46e-01	0	34	104	0	76	10244
2026-01-17 06:46:21.84	131.84	2.39	-52.6	-61.5	3.8	7.45e-01	0	34	104	0	76	10194
2026-01-17 06:46:22.85	131.80	2.46	-52.6	-61.5	3.8	7.47e-01	0	34	104	0	76	10209
2026-01-17 06:46:23.85	131.76	2.53	-52.6	-61.5	3.8	7.46e-01	0	34	104	0	76	10230
2026-01-17 06:46:24.86	131.72	2.60	-52.6	-61.5	3.8	7.45e-01	0	34	104	0	76	10202
2026-01-17 06:46:25.87	131.68	2.67	-52.6	-61.5	3.8	7.44e-01	0	34	104	0	76	10210
2026-01-17 06:46:26.87	131.64	2.74	-52.6	-61.5	3.8	7.46e-01	0	34	104	0	76	10210
2026-01-17 06:46:27.89	131.60	2.81	-52.6	-61.5	3.8	7.43e-01	0	34	104	0	76	10178
2026-01-17 06:46:28.89	131.56	2.89	-52.6	-61.4	3.8	7.45e-01	0	34	104	0	76	10175
2026-01-17 06:46:29.90	131.52	2.96	-52.6	-61.4	3.8	7.45e-01	0	34	104	0	76	10162
2026-01-17 06:46:30.82	131.48	3.02	-52.6	-61.5	3.8	7.45e-01	0	34	104	0	76	10181
2026-01-17 06:46:31.83	131.44	3.10	-52.6	-61.4	3.8	7.45e-01	0	34	104	0	76	10143
2026-01-17 06:46:32.84	131.39	3.17	-52.6	-61.4	3.8	7.45e-01	0	34	104	0	76	10135
2026-01-17 06:46:33.84	131.35	3.24	-52.6	-61.4	3.8	7.46e-01	0	34	104	0	76	10074
2026-01-17 06:46:34.85	131.31	3.32	-52.6	-61.3	3.8	7.46e-01	0	34	104	0	76	10028
2026-01-17 06:46:35.86	131.26	3.39	-52.6	-61.3	3.8	7.45e-01	0	34	104	0	76	10000
2026-01-17 06:46:36.87	131.22	3.46	-52.6	-61.3	3.8	7.46e-01	0	34	104	0	76	10017
2026-01-17 06:46:37.88	131.18	3.54	-52.6	-61.4	3.8	7.46e-01	0	34	104	0	76	10071
2026-01-17 06:46:38.89	131.13	3.61	-52.6	-61.4	3.8	7.47e-01	0	34	104	0	76	10174
2026-01-17 06:46:39.89	131.09	3.69	-52.6	-61.4	3.8	7.44e-01	0	34	104	0	76	10173
2026-01-17 06:46:40.90	131.04	3.76	-52.6	-61.4	3.8	7.45e-01	0	34	104	0	76	10126
2026-01-17 06:46:41.91	131.00	3.84	-52.6	-61.3	3.8	7.47e-01	0	34	104	0	76	10053
2026-01-17 06:46:42.92	130.95	3.91	-52.5	-61.2	3.8	7.47e-01	0	34	104	0	76	9843
2026-01-17 06:46:43.93	130.91	3.99	-52.5	-61.0	3.8	7.45e-01	0	34	104	0	76	9616
2026-01-17 06:46:44.94	130.86	4.07	-52.4	-60.7	3.8	7.45e-01	0	34	104	0	76	9339
2026-01-17 06:46:45.94	130.81	4.14	-52.4	-60.3	3.8	7.44e-01	0	34	104	0	76	8908
2026-01-17 06:46:46.95	130.77	4.22	-52.3	-60.1	3.8	7.46e-01	0	34	104	0	76	8706
2026-01-17 06:46:47.96	130.72	4.29	-52.3	-60.0	3.8	7.45e-01	0	34	104	0	76	8614
2026-01-17 06:46:48.97	130.67	4.37	-52.3	-60.0	3.8	7.45e-01	0	34	104	0	76	8660
2026-01-17 06:46:49.98	130.63	4.45	-52.3	-59.9	3.8	7.44e-01	0	34	104	0	76	8531
2026-01-17 06:46:50.99	130.58	4.53	-52.2	-59.5	3.8	7.43e-01	0	34	104	0	76	8170
2026-01-17 06:46:52.00	130.53	4.61	-51.8	-58.5	3.9	7.42e-01	0	34	104	0	75	7709
2026-01-17 06:46:53.00	130.48	4.68	-51.3	-56.9	4.4	7.22e-01	0	35	0	6291456	74	6757
2026-01-17 06:46:54.01	130.43	4.76	-50.5	-55.2	5.5	6.80e-01	0	34	0	20971520	73	5879
2026-01-17 06:46:55.02	130.38	4.84	-49.6	-53.5	7.1	6.33e-01	0	34	0	37748736	71	5409
2026-01-17 06:46:56.03	130.33	4.92	-48.6	-51.8	8.5	6.04e-01	0	34	0	52428800	69	5036
2026-01-17 06:46:57.04	130.28	5.00	-47.9	-51.0	9.6	6.05e-01	0	34	0	69206016	67	5103
2026-01-17 06:46:58.05	130.23	5.08	-47.3	-50.1	10.4	5.97e-01	0	34	0	83886080	66	4883
2026-01-17 06:46:59.05	130.18	5.16	-51.5	-57.8	3.9	7.42e-01	0	34	104	96468992	74	7489
2026-01-17 06:47:00.06	130.13	5.24	-47.7	-50.5	10.1	5.99e-01	0	34	0	102760448	67	4834
2026-01-17 06:47:01.07	130.08	5.32	-50.2	-54.7	6.0	6.61e-01	0	34	0	119537664	71	6234
2026-01-17 06:47:02.08	130.02	5.40	-51.5	-57.2	4.4	7.22e-01	0	34	0	134217728	74	7034
2026-01-17 06:47:03.09	129.97	5.48	-47.4	-50.2	10.2	5.98e-01	0	34	0	148897792	65	5257
2026-01-17 06:47:04.09	129.92	5.56	-46.7	-49.4	11.0	5.94e-01	0	34	0	165675008	65	4787
2026-01-17 06:47:05.10	129.87	5.65	-46.7	-49.4	11.1	5.93e-01	0	34	0	180355072	65	4765
2026-01-17 06:47:06.11	129.81	5.73	-46.3	-48.8	11.6	5.91e-01	0	34	0	195035136	64	4710
2026-01-17 06:47:07.12	129.76	5.81	-46.0	-48.5	11.9	5.89e-01	0	34	0	211812352	64	4574
2026-01-17 06:47:08.13	129.70	5.90	-45.9	-48.3	12.2	5.88e-01	0	34	0	228589568	63	4729
2026-01-17 06:47:09.13	129.65	5.98	-45.9	-48.3	12.2	5.89e-01	0	34	0	243269632	63	4745
2026-01-17 06:47:10.14	129.59	6.06	-45.6	-47.9	12.6	5.88e-01	0	35	0	257949696	63	4544
2026-01-17 06:47:11.15	129.54	6.15	-45.7	-48.0	12.5	5.86e-01	0	35	0	274726912	63	4576
2026-01-17 06:47:12.16	129.48	6.23	-45.7	-48.1	12.5	5.87e-01	0	34	0	289406976	63	4617
2026-01-17 06:47:13.16	129.42	6.31	-45.6	-47.9	12.7	5.87e-01	0	34	0	304087040	63	4519
2026-01-17 06:47:14.17	129.37	6.40	-45.6	-47.9	12.7	5.87e-01	0	34	0	320864256	63	4529
2026-01-17 06:47:15.18	129.31	6.48	-45.5	-47.8	12.8	5.87e-01	0	34	0	335544320	63	4476
2026-01-17 06:47:16.19	129.25	6.57	-45.6	-47.9	12.7	5.87e-01	0	34	0	350224384	62	4795
2026-01-17 06:47:17.20	129.19	6.66	-45.5	-47.8	12.8	5.87e-01	0	34	0	367001600	62	4741
2026-01-17 06:47:18.20	129.13	6.74	-45.4	-47.6	13.0	5.87e-01	0	34	0	381681664	62	4640
2026-01-17 06:47:19.21	129.07	6.83	-45.4	-47.7	12.9	5.86e-01	0	34	0	396361728	62	4667
2026-01-17 06:47:20.22	129.01	6.92	-45.4	-47.7	12.9	5.86e-01	0	34	0	413138944	62	4652
2026-01-17 06:47:21.22	128.95	7.00	-45.4	-47.6	12.9	5.87e-01	0	34	0	429916160	62	4650
2026-01-17 06:47:22.23	128.89	7.09	-45.3	-47.5	13.1	5.86e-01	0	34	0	444596224	62	4559
2026-01-17 06:47:23.24	128.83	7.18	-45.3	-47.5	13.1	5.86e-01	0	34	0	459276288	62	4591
2026-01-17 06:47:24.25	128.77	7.27	-45.4	-47.6	13.0	5.86e-01	0	34	0	476053504	62	4630
2026-01-17 06:47:25.26	128.71	7.36	-45.2	-47.4	13.2	5.86e-01	0	34	0	490733568	62	4538
2026-01-17 06:47:26.27	128.64	7.45	-45.2	-47.4	13.3	5.85e-01	0	34	0	505413632	62	4512
2026-01-17 06:47:27.28	128.58	7.54	-45.2	-47.4	13.3	5.86e-01	0	34	0	522190848	62	4506
2026-01-17 06:47:28.28	128.52	7.63	-45.3	-47.5	13.2	5.85e-01	0	34	0	536870912	62	4587
2026-01-17 06:47:29.29	128.45	7.72	-45.2	-47.3	13.3	5.85e-01	0	34	0	551550976	62	4484
2026-01-17 06:47:30.30	128.39	7.81	-45.0	-47.2	13.5	5.85e-01	0	34	0	568328192	62	4428
2026-01-17 06:47:31.31	128.32	7.90	-45.0	-47.2	13.5	5.85e-01	0	34	0	583008256	62	4423
2026-01-17 06:47:32.32	128.26	7.99	-45.0	-47.2	13.5	5.86e-01	0	34	0	599785472	62	4417
2026-01-17 06:47:33.33	128.19	8.09	-44.9	-47.1	13.6	5.86e-01	0	34	0	614465536	61	4609
2026-01-17 06:47:34.33	128.12	8.18	-44.8	-47.0	13.7	5.84e-01	0	34	0	631242752	61	4551
2026-01-17 06:47:35.34	128.06	8.27	-44.8	-47.0	13.7	5.85e-01	0	34	0	645922816	61	4570
2026-01-17 06:47:36.35	127.99	8.37	-44.7	-46.9	13.8	5.85e-01	0	35	0	660602880	61	4507
2026-01-17 06:47:37.36	127.92	8.46	-44.7	-46.9	13.8	5.85e-01	0	34	0	677380096	61	4495
2026-01-17 06:47:38.36	127.85	8.55	-44.7	-46.9	13.8	5.85e-01	0	34	0	692060160	61	4508
2026-01-17 06:47:39.37	127.78	8.65	-44.7	-46.9	13.8	5.84e-01	0	34	0	706740224	61	4515
2026-01-17 06:47:40.38	127.71	8.74	-44.7	-46.8	13.9	5.85e-01	0	34	0	723517440	61	4487
2026-01-17 06:47:41.39	127.64	8.84	-44.7	-46.8	13.8	5.97e-01	0	34	0	738197504	61	4492
2026-01-17 06:47:42.40	127.56	8.94	-44.6	-46.8	13.9	6.02e-01	0	34	0	752877568	61	4460
2026-01-17 06:47:43.40	127.49	9.03	-44.5	-46.6	14.0	6.02e-01	0	34	0	769654784	61	4375
2026-01-17 06:47:44.41	127.42	9.13	-44.5	-46.6	14.0	5.98e-01	0	34	0	784334848	60	4638
2026-01-17 06:47:45.42	127.35	9.23	-44.6	-46.7	13.9	6.00e-01	0	34	0	801112064	60	4686
2026-01-17 06:47:46.43	127.27	9.33	-44.6	-46.7	13.9	5.98e-01	0	35	0	815792128	60	4685
2026-01-17 06:47:47.44	127.20	9.43	-44.5	-46.6	14.0	5.96e-01	0	34	0	832569344	60	4638
2026-01-17 06:47:48.44	127.12	9.52	-44.5	-46.7	14.0	6.00e-01	0	34	0	847249408	60	4653
2026-01-17 06:47:49.45	127.04	9.62	-44.5	-46.6	14.1	5.93e-01	0	34	0	861929472	60	4625
2026-01-17 06:47:50.46	126.97	9.72	-44.4	-46.5	14.2	5.95e-01	0	34	0	878706688	60	4570
2026-01-17 06:47:51.47	126.89	9.82	-44.4	-46.5	14.1	5.95e-01	0	35	0	893386752	60	4573
2026-01-17 06:47:52.48	126.81	9.93	-44.3	-46.4	14.3	5.99e-01	0	34	0	908066816	60	4512
2026-01-17 06:47:53.48	126.73	10.03	-44.2	-46.4	14.3	5.96e-01	0	35	0	924844032	60	4501
2026-01-17 06:47:54.49	126.65	10.13	-44.4	-46.5	14.2	5.96e-01	0	34	0	939524096	60	4567
2026-01-17 06:47:55.50	126.57	10.23	-44.2	-46.3	14.3	5.97e-01	0	34	0	954204160	60	4488
2026-01-17 06:47:56.51	126.49	10.34	-44.1	-46.2	14.4	5.98e-01	0	34	0	970981376	60	4441
2026-01-17 06:47:57.52	126.41	10.44	-44.1	-46.2	14.5	5.96e-01	0	34	0	987758592	60	4410
2026-01-17 06:47:58.52	126.33	10.54	-44.1	-46.2	14.4	6.00e-01	0	35	0	1002438656	60	4440
2026-01-17 06:47:59.53	126.24	10.65	-44.0	-46.1	14.5	5.98e-01	0	34	0	1017118720	60	4371
2026-01-17 06:48:00.54	126.16	10.75	-44.0	-46.1	14.6	5.95e-01	0	34	0	1033895936	60	4368
2026-01-17 06:48:01.55	126.07	10.86	-44.1	-46.2	14.5	5.96e-01	0	34	0	1048576000	59	4669
2026-01-17 06:48:02.56	125.99	10.97	-44.0	-46.2	14.5	5.98e-01	0	34	0	1063256064	59	4652
2026-01-17 06:48:03.57	125.90	11.07	-44.0	-46.1	14.5	5.99e-01	0	34	0	1080033280	59	4641
2026-01-17 06:48:04.57	125.81	11.18	-44.1	-46.2	14.5	6.00e-01	0	35	0	1094713344	59	4683
2026-01-17 06:48:05.58	125.73	11.29	-43.9	-46.0	14.6	5.97e-01	0	35	0	1109393408	59	4594
2026-01-17 06:48:06.59	125.64	11.40	-43.9	-46.0	14.6	5.94e-01	0	34	0	1126170624	59	4595
2026-01-17 06:48:07.60	125.55	11.51	-44.0	-46.1	14.6	5.99e-01	0	34	0	1140850688	59	4603
2026-01-17 06:48:08.60	125.46	11.62	-43.9	-46.0	14.7	5.97e-01	0	34	0	1155530752	59	4573
2026-01-17 06:48:09.61	125.36	11.73	-43.9	-46.0	14.7	5.95e-01	0	34	0	1172307968	59	4576
2026-01-17 06:48:10.62	125.27	11.84	-43.9	-46.0	14.7	6.00e-01	0	34	0	1189085184	59	4548
2026-01-17 06:48:11.63	125.18	11.95	-43.9	-46.0	14.7	5.97e-01	0	34	0	1203765248	59	4593
2026-01-17 06:48:12.64	125.08	12.06	-43.9	-45.9	14.8	6.00e-01	0	34	0	1218445312	59	4536
2026-01-17 06:48:13.64	124.99	12.18	-43.8	-45.9	14.8	5.99e-01	0	34	0	1235222528	59	4498
2026-01-17 06:48:14.65	124.89	12.29	-43.7	-45.8	14.9	5.95e-01	0	35	0	1249902592	59	4462
2026-01-17 06:48:15.66	124.80	12.40	-43.8	-45.9	14.8	5.97e-01	0	34	0	1264582656	59	4521
2026-01-17 06:48:16.67	124.70	12.52	-43.6	-45.7	15.0	5.96e-01	0	34	0	1281359872	59	4406
2026-01-17 06:48:17.68	124.60	12.63	-43.7	-45.8	14.9	5.97e-01	0	34	0	1296039936	59	4448
2026-01-17 06:48:18.69	124.50	12.75	-43.6	-45.7	15.0	5.95e-01	0	34	0	1310720000	59	4396
2026-01-17 06:48:19.69	124.40	12.87	-43.5	-45.7	15.0	5.94e-01	0	34	0	1325400064	59	4396
2026-01-17 06:48:20.70	124.30	12.98	-43.6	-45.8	15.0	5.98e-01	0	34	0	1342177280	59	4450
2026-01-17 06:48:21.71	124.19	13.10	-43.5	-45.6	15.1	5.98e-01	0	34	0	1356857344	58	4626
2026-01-17 06:48:22.72	124.09	13.22	-43.5	-45.6	15.1	5.96e-01	0	34	0	1373634560	58	4648
2026-01-17 06:48:23.73	123.98	13.34	-43.4	-45.5	15.2	5.91e-01	0	34	0	1390411776	58	4572
2026-01-17 06:48:24.73	123.88	13.46	-43.4	-45.5	15.2	5.93e-01	0	34	0	1405091840	58	4588
2026-01-17 06:48:25.74	123.77	13.58	-43.4	-45.5	15.2	5.94e-01	0	34	0	1419771904	58	4581
2026-01-17 06:48:26.75	123.66	13.70	-43.3	-45.5	15.2	5.98e-01	0	34	0	1434451968	58	4558
2026-01-17 06:48:27.76	123.55	13.83	-43.3	-45.4	15.2	5.91e-01	0	34	0	1451229184	58	4532
2026-01-17 06:48:28.76	123.44	13.95	-43.3	-45.4	15.3	5.96e-01	0	34	0	1465909248	58	4540
2026-01-17 06:48:29.77	123.33	14.07	-43.3	-45.5	15.2	5.98e-01	0	34	0	1480589312	58	4558
2026-01-17 06:48:30.78	123.22	14.20	-43.2	-45.3	15.4	5.98e-01	0	34	0	1497366528	58	4470
2026-01-17 06:48:31.79	123.10	14.32	-43.3	-45.4	15.3	5.92e-01	0	34	0	1512046592	58	4512
2026-01-17 06:48:32.80	122.99	14.45	-43.1	-45.3	15.5	5.90e-01	0	34	0	1526726656	58	4444
2026-01-17 06:48:33.80	122.87	14.58	-43.1	-45.2	15.5	5.98e-01	0	34	0	1543503872	58	4415
2026-01-17 06:48:34.81	122.76	14.70	-43.1	-45.2	15.5	5.99e-01	0	34	0	1558183936	58	4414
2026-01-17 06:48:35.82	122.64	14.83	-42.9	-45.0	15.6	5.98e-01	0	34	0	1574961152	57	4594
2026-01-17 06:48:36.83	122.52	14.96	-43.0	-45.1	15.6	5.97e-01	0	34	0	1589641216	57	4620
2026-01-17 06:48:37.84	122.40	15.09	-42.9	-45.0	15.7	5.91e-01	0	34	0	1606418432	57	4549
2026-01-17 06:48:38.85	122.27	15.22	-42.8	-44.8	15.8	5.91e-01	0	34	0	1621098496	57	4491
2026-01-17 06:48:39.86	122.15	15.35	-42.8	-44.9	15.8	5.98e-01	0	34	0	1635778560	57	4525
2026-01-17 06:48:40.87	122.02	15.49	-42.7	-44.7	15.9	5.93e-01	0	34	0	1652555776	57	4441
2026-01-17 06:48:41.88	121.90	15.62	-42.6	-44.6	16.0	5.92e-01	0	34	0	1667235840	57	4385
2026-01-17 06:48:42.88	121.77	15.75	-42.5	-44.6	16.1	5.90e-01	0	34	0	1681915904	57	4347
2026-01-17 06:48:43.89	121.64	15.89	-42.5	-44.5	16.1	5.91e-01	0	34	0	1698693120	57	4302
2026-01-17 06:48:44.90	121.51	16.02	-42.4	-44.4	16.2	5.97e-01	0	34	0	1713373184	56	4513
2026-01-17 06:48:45.91	121.38	16.16	-42.4	-44.4	16.2	5.96e-01	0	34	0	1728053248	56	4531
2026-01-17 06:48:46.92	121.24	16.30	-42.2	-44.2	16.3	5.91e-01	0	34	0	1744830464	56	4409
2026-01-17 06:48:47.93	121.11	16.44	-42.1	-44.1	16.4	5.92e-01	0	34	0	1761607680	56	4381
2026-01-17 06:48:48.93	120.97	16.57	-42.1	-44.1	16.4	5.92e-01	0	34	0	1776287744	56	4377
2026-01-17 06:48:49.94	120.83	16.72	-42.1	-44.0	16.5	5.95e-01	0	34	0	1790967808	56	4325
2026-01-17 06:48:50.95	120.69	16.86	-42.1	-44.1	16.5	5.94e-01	0	34	0	1807745024	56	4348
2026-01-17 06:48:51.96	120.55	17.00	-42.0	-44.0	16.6	5.99e-01	0	34	0	1822425088	56	4294
2026-01-17 06:48:52.96	120.41	17.14	-42.1	-44.0	16.5	5.97e-01	0	34	0	1837105152	56	4331
2026-01-17 06:48:53.97	120.26	17.28	-42.1	-44.0	16.5	6.01e-01	0	34	0	1853882368	56	4328
2026-01-17 06:48:54.98	120.12	17.43	-42.0	-43.9	16.6	5.96e-01	0	34	0	1868562432	56	4289
2026-01-17 06:48:55.99	119.97	17.57	-42.1	-44.1	16.4	5.97e-01	0	34	0	1883242496	56	4359
2026-01-17 06:48:57.00	119.82	17.72	-42.2	-44.1	16.5	5.95e-01	0	34	0	1900019712	56	4360
2026-01-17 06:48:58.00	119.67	17.87	-42.0	-44.0	16.6	5.99e-01	0	34	0	1914699776	56	4301
2026-01-17 06:48:59.01	119.52	18.02	-42.1	-44.1	16.6	5.98e-01	0	34	0	1929379840	55	4642
2026-01-17 06:49:00.02	119.36	18.17	-42.1	-44.1	16.6	5.95e-01	0	34	0	1946157056	55	4633
2026-01-17 06:49:01.01	119.21	18.31	-42.0	-44.0	16.7	5.94e-01	0	34	0	1960837120	55	4586
2026-01-17 06:49:02.02	119.05	18.46	-41.9	-43.9	16.8	5.96e-01	0	34	0	1977614336	55	4532
2026-01-17 06:49:03.03	118.89	18.62	-41.9	-43.9	16.7	5.98e-01	0	34	0	1992294400	55	4530
2026-01-17 06:49:04.04	118.73	18.77	-41.8	-43.8	16.9	5.97e-01	0	34	0	2009071616	55	4469
2026-01-17 06:49:05.05	118.56	18.92	-41.8	-43.8	16.9	5.98e-01	0	34	0	2023751680	55	4473
2026-01-17 06:49:06.06	118.39	19.08	-41.7	-43.7	17.0	5.98e-01	0	34	0	2038431744	55	4422
2026-01-17 06:49:07.06	118.23	19.23	-41.6	-43.5	17.1	5.95e-01	0	34	0	2055208960	55	4332
2026-01-17 06:49:08.07	118.06	19.39	-41.6	-43.5	17.1	5.99e-01	0	34	0	2069889024	55	4339
2026-01-17 06:49:09.08	117.88	19.55	-41.5	-43.5	17.2	6.01e-01	0	34	0	2084569088	55	4293
2026-01-17 06:49:10.09	117.71	19.71	-41.3	-43.1	17.4	6.00e-01	0	34	0	2101346304	54	4379
2026-01-17 06:49:11.10	117.53	19.87	-41.2	-43.1	17.5	5.98e-01	0	34	0	2116026368	54	4347
2026-01-17 06:49:12.10	117.36	20.03	-41.2	-43.1	17.4	5.99e-01	0	34	0	2130706432	54	4361
2026-01-17 06:49:13.11	117.17	20.19	-41.0	-42.9	17.6	5.99e-01	0	34	0	2147483648	54	4245
2026-01-17 06:49:14.12	116.99	20.36	-41.1	-42.9	17.6	6.01e-01	0	34	0	2164260864	54	4280
2026-01-17 06:49:15.13	116.81	20.52	-41.0	-42.8	17.7	5.99e-01	0	34	0	2178940928	54	4213
2026-01-17 06:49:16.14	116.62	20.69	-40.9	-42.8	17.7	6.05e-01	0	34	0	2193620992	53	4442
2026-01-17 06:49:17.15	116.43	20.85	-40.9	-42.8	17.7	5.98e-01	0	34	0	2210398208	53	4449
2026-01-17 06:49:18.15	116.24	21.02	-41.0	-42.8	17.6	5.98e-01	0	34	0	2225078272	53	4485
2026-01-17 06:49:19.16	116.04	21.19	-41.0	-42.8	17.6	6.00e-01	0	34	0	2239758336	53	4482
2026-01-17 06:49:20.17	115.84	21.36	-41.0	-42.9	17.5	6.01e-01	0	34	0	2256535552	53	4514
2026-01-17 06:49:21.18	115.64	21.53	-41.1	-43.0	17.5	6.00e-01	0	34	0	2271215616	53	4554
2026-01-17 06:49:22.18	115.44	21.70	-41.2	-43.0	17.5	6.01e-01	0	34	0	2285895680	53	4577
2026-01-17 06:49:23.19	115.24	21.88	-41.1	-42.9	17.5	6.00e-01	0	34	0	2302672896	53	4538
2026-01-17 06:49:24.20	115.03	22.05	-41.2	-43.1	17.4	5.99e-01	0	34	0	2317352960	53	4630
2026-01-17 06:49:25.21	114.82	22.23	-41.0	-42.9	17.6	6.02e-01	0	34	0	2332033024	53	4515
2026-01-17 06:49:26.22	114.60	22.40	-41.0	-42.8	17.6	6.00e-01	0	34	0	2348810240	53	4484
2026-01-17 06:49:27.23	114.39	22.58	-41.0	-42.9	17.6	6.01e-01	0	34	0	2365587456	53	4497
2026-01-17 06:49:28.23	114.17	22.76	-40.9	-42.8	17.7	6.01e-01	0	34	0	2380267520	53	4468
2026-01-17 06:49:29.24	113.95	22.94	-41.0	-42.9	17.5	6.01e-01	0	34	0	2394947584	53	4508
2026-01-17 06:49:30.25	113.72	23.12	-40.7	-42.5	17.8	6.01e-01	0	34	0	2411724800	53	4326
2026-01-17 06:49:31.26	113.49	23.30	-40.6	-42.4	17.9	6.02e-01	0	34	0	2426404864	53	4270
2026-01-17 06:49:32.27	113.26	23.49	-40.6	-42.4	17.9	6.00e-01	0	34	0	2441084928	53	4281
2026-01-17 06:49:33.28	113.03	23.67	-40.8	-42.6	17.8	6.00e-01	0	35	0	2457862144	53	4349
2026-01-17 06:49:34.28	112.79	23.86	-40.5	-42.3	18.0	6.02e-01	0	34	0	2472542208	53	4219
2026-01-17 06:49:35.29	112.55	24.05	-40.3	-42.1	18.2	6.01e-01	0	34	0	2487222272	52	4346
2026-01-17 06:49:36.30	112.31	24.23	-40.3	-42.0	18.2	6.01e-01	0	34	0	2503999488	52	4322
2026-01-17 06:49:37.31	112.06	24.42	-40.3	-42.1	18.2	6.01e-01	0	34	0	2518679552	52	4345
2026-01-17 06:49:38.32	111.81	24.61	-40.3	-42.0	18.2	6.00e-01	0	34	0	2535456768	52	4308
2026-01-17 06:49:39.32	111.56	24.80	-40.2	-41.9	18.2	6.01e-01	0	34	0	2550136832	52	4246
2026-01-17 06:49:40.33	111.30	25.00	-40.3	-42.0	18.2	6.02e-01	0	34	0	2566914048	52	4306
2026-01-17 06:49:41.34	111.04	25.19	-40.4	-42.1	18.2	6.01e-01	0	34	0	2581594112	52	4348
2026-01-17 06:49:42.35	110.78	25.39	-40.4	-42.1	18.1	6.01e-01	0	34	0	2596274176	52	4381
2026-01-17 06:49:43.36	110.51	25.58	-40.5	-42.2	18.0	6.02e-01	0	34	0	2613051392	52	4425
2026-01-17 06:49:44.36	110.24	25.78	-40.6	-42.4	17.9	6.04e-01	0	34	0	2627731456	52	4536
2026-01-17 06:49:45.37	109.96	25.98	-40.7	-42.5	17.9	6.00e-01	0	34	0	2642411520	52	4573
2026-01-17 06:49:46.38	109.68	26.18	-40.7	-42.6	17.8	5.96e-01	0	34	0	2659188736	52	4615
2026-01-17 06:49:47.39	109.40	26.38	-40.8	-42.7	17.7	6.01e-01	0	34	0	2673868800	52	4663
2026-01-17 06:49:48.40	109.11	26.58	-40.7	-42.6	17.7	5.99e-01	0	34	0	2688548864	52	4633
2026-01-17 06:49:49.40	108.82	26.78	-40.6	-42.5	17.9	5.98e-01	0	34	0	2703228928	52	4579
2026-01-17 06:49:50.41	108.52	26.99	-40.6	-42.5	17.8	6.01e-01	0	34	0	2720006144	52	4584
2026-01-17 06:49:51.42	108.22	27.19	-40.6	-42.6	17.8	6.01e-01	0	34	0	2736783360	52	4613
2026-01-17 06:49:52.43	107.92	27.40	-40.6	-42.6	17.8	6.00e-01	0	34	0	2751463424	52	4609
2026-01-17 06:49:53.44	107.61	27.61	-40.5	-42.4	17.9	6.03e-01	0	34	0	2768240640	52	4519
2026-01-17 06:49:54.45	107.30	27.82	-40.5	-42.3	17.9	6.02e-01	0	34	0	2782920704	52	4473
2026-01-17 06:49:55.45	106.98	28.02	-40.6	-42.4	18.0	6.01e-01	0	34	0	2797600768	52	4508
2026-01-17 06:49:56.46	106.66	28.23	-40.5	-42.3	18.1	6.01e-01	0	34	0	2812280832	52	4461
2026-01-17 06:49:57.47	106.33	28.45	-40.6	-42.3	18.0	6.02e-01	0	34	0	2829058048	52	4460
2026-01-17 06:49:58.48	106.00	28.66	-40.6	-42.4	18.0	6.00e-01	0	34	0	2843738112	52	4494
2026-01-17 06:49:59.48	105.66	28.87	-40.6	-42.3	18.0	6.04e-01	0	34	0	2858418176	52	4458
2026-01-17 06:50:00.49	105.32	29.08	-40.6	-42.3	18.0	6.01e-01	0	34	0	2875195392	52	4479
2026-01-17 06:50:01.50	104.97	29.30	-40.7	-42.5	17.9	6.00e-01	0	34	0	2889875456	52	4566
2026-01-17 06:50:02.51	104.62	29.51	-40.7	-42.5	17.8	6.00e-01	0	34	0	2904555520	52	4594
2026-01-17 06:50:03.52	104.26	29.73	-40.8	-42.6	17.8	6.00e-01	0	34	0	2921332736	52	4651
2026-01-17 06:50:04.52	103.91	29.95	-40.9	-42.8	17.7	6.01e-01	0	34	0	2938109952	52	4737
2026-01-17 06:50:05.53	103.54	30.16	-41.0	-42.9	17.6	6.00e-01	0	35	0	2952790016	52	4795
2026-01-17 06:50:06.54	103.16	30.38	-41.1	-43.1	17.5	6.01e-01	0	34	0	2967470080	52	4872
2026-01-17 06:50:07.55	102.78	30.60	-41.0	-43.0	17.6	6.00e-01	0	34	0	2984247296	52	4839
2026-01-17 06:50:08.55	102.40	30.82	-41.1	-43.0	17.5	6.00e-01	0	34	0	2998927360	52	4861
2026-01-17 06:50:09.56	102.01	31.04	-41.0	-42.8	17.7	6.00e-01	0	34	0	3013607424	52	4749
2026-01-17 06:50:10.57	101.62	31.26	-40.8	-42.5	17.9	6.00e-01	0	34	0	3030384640	52	4597
2026-01-17 06:50:11.58	101.21	31.49	-40.8	-42.5	17.9	6.01e-01	0	34	0	3045064704	52	4578
2026-01-17 06:50:12.58	100.81	31.71	-40.9	-42.7	17.7	6.01e-01	0	34	0	3059744768	52	4688
2026-01-17 06:50:13.59	100.40	31.93	-41.0	-42.9	17.6	6.01e-01	0	34	0	3076521984	52	4786
2026-01-17 06:50:14.60	99.97	32.15	-41.2	-43.1	17.4	6.03e-01	0	34	0	3091202048	52	4904
2026-01-17 06:50:15.61	99.55	32.38	-41.3	-43.2	17.4	6.01e-01	0	34	0	3105882112	53	4695
2026-01-17 06:50:16.62	99.11	32.60	-41.3	-43.2	17.4	5.98e-01	0	34	0	3122659328	53	4683
2026-01-17 06:50:17.62	98.68	32.82	-41.2	-43.1	17.5	6.01e-01	0	34	0	3139436544	53	4620
2026-01-17 06:50:18.63	98.23	33.05	-41.1	-43.0	17.6	6.01e-01	0	34	0	3154116608	53	4577
2026-01-17 06:50:19.64	97.78	33.27	-41.1	-43.1	17.5	6.02e-01	0	34	0	3168796672	53	4621
2026-01-17 06:50:20.65	97.32	33.49	-41.2	-43.3	17.3	6.01e-01	0	34	0	3185573888	53	4725
2026-01-17 06:50:21.66	96.85	33.72	-41.3	-43.5	17.2	6.01e-01	0	34	0	3200253952	53	4842
2026-01-17 06:50:22.66	96.38	33.94	-41.4	-43.6	17.1	6.00e-01	0	34	0	3214934016	53	4875
2026-01-17 06:50:23.67	95.90	34.16	-41.4	-43.5	17.1	6.01e-01	0	34	0	3231711232	53	4851
2026-01-17 06:50:24.68	95.42	34.39	-41.2	-43.2	17.3	6.01e-01	0	34	0	3246391296	53	4703
2026-01-17 06:50:25.69	94.92	34.61	-41.1	-43.2	17.4	6.02e-01	0	34	0	3261071360	53	4674
2026-01-17 06:50:26.70	94.42	34.83	-41.1	-43.2	17.4	6.01e-01	0	34	0	3277848576	53	4667
2026-01-17 06:50:27.70	93.92	35.05	-41.3	-43.3	17.3	6.01e-01	0	34	0	3292528640	53	4747
2026-01-17 06:50:28.71	93.40	35.27	-41.2	-43.3	17.4	5.99e-01	0	34	0	3307208704	53	4722
2026-01-17 06:50:29.72	92.87	35.49	-41.1	-43.1	17.5	6.03e-01	0	34	0	3323985920	53	4618
2026-01-17 06:50:30.73	92.34	35.71	-40.7	-42.7	17.8	6.01e-01	0	34	0	3340763136	53	4432
2026-01-17 06:50:31.74	91.80	35.93	-40.7	-42.7	17.8	5.99e-01	0	34	0	3355443200	53	4430
2026-01-17 06:50:32.75	91.26	36.15	-40.7	-42.7	17.8	6.02e-01	0	34	0	3370123264	53	4427
2026-01-17 06:50:33.76	90.70	36.37	-40.6	-42.8	17.7	5.99e-01	0	34	0	3386900480	53	4476
2026-01-17 06:50:34.76	90.14	36.58	-40.7	-42.9	17.6	5.99e-01	0	35	0	3401580544	53	4535
2026-01-17 06:50:35.77	89.57	36.79	-40.8	-42.9	17.6	6.00e-01	0	34	0	3416260608	53	4520
2026-01-17 06:50:36.78	88.99	37.00	-40.7	-42.8	17.8	6.01e-01	0	34	0	3433037824	53	4464
2026-01-17 06:50:37.79	88.41	37.22	-40.6	-42.6	17.9	6.01e-01	0	34	0	3447717888	53	4355
2026-01-17 06:50:38.80	87.81	37.42	-40.6	-42.7	17.8	6.01e-01	0	34	0	3462397952	53	4438
2026-01-17 06:50:39.81	87.21	37.63	-40.6	-42.8	17.7	5.99e-01	0	34	0	3479175168	53	4466
2026-01-17 06:50:40.82	86.60	37.84	-40.6	-42.7	17.8	6.02e-01	0	34	0	3495952384	53	4422
2026-01-17 06:50:41.82	85.98	38.04	-40.4	-42.5	18.0	5.98e-01	0	34	0	3510632448	52	4580
2026-01-17 06:50:42.83	85.36	38.24	-40.1	-42.3	18.1	5.99e-01	0	34	0	3525312512	52	4476
2026-01-17 06:50:43.84	84.72	38.43	-40.4	-42.5	17.9	6.01e-01	0	35	0	3542089728	52	4569
2026-01-17 06:50:44.85	84.08	38.63	-40.3	-42.4	18.0	6.02e-01	0	34	0	3556769792	52	4539
2026-01-17 06:50:45.86	83.43	38.82	-40.1	-42.3	18.1	6.01e-01	0	34	0	3571449856	52	4468
2026-01-17 06:50:46.86	82.77	39.01	-40.0	-42.2	18.1	6.02e-01	0	34	0	3588227072	52	4416
2026-01-17 06:50:47.87	82.11	39.20	-40.0	-42.2	18.2	6.01e-01	0	34	0	3602907136	51	4704
2026-01-17 06:50:48.88	81.43	39.38	-39.9	-42.1	18.2	6.01e-01	0	35	0	3617587200	51	4641
2026-01-17 06:50:49.89	80.75	39.56	-39.8	-42.0	18.4	6.01e-01	0	34	0	3634364416	51	4552
2026-01-17 06:50:50.90	80.06	39.74	-39.7	-41.9	18.5	6.02e-01	0	34	0	3649044480	51	4510
2026-01-17 06:50:51.91	79.36	39.91	-39.7	-41.9	18.4	6.01e-01	0	34	0	3663724544	51	4529
2026-01-17 06:50:52.92	78.65	40.08	-39.8	-42.0	18.3	6.01e-01	0	34	0	3680501760	51	4566
2026-01-17 06:50:53.92	77.94	40.24	-39.6	-41.9	18.4	6.01e-01	0	34	0	3697278976	51	4494
2026-01-17 06:50:54.93	77.22	40.41	-39.3	-41.5	18.7	6.01e-01	0	34	0	3711959040	50	4560
2026-01-17 06:50:55.94	76.49	40.56	-39.4	-41.5	18.7	6.01e-01	0	34	0	3726639104	50	4561
2026-01-17 06:50:56.95	75.75	40.72	-39.3	-41.5	18.6	6.02e-01	0	34	0	3743416320	50	4570
2026-01-17 06:50:57.96	75.01	40.86	-39.6	-42.0	18.4	6.01e-01	0	34	0	3758096384	50	4827
2026-01-17 06:50:58.96	74.26	41.01	-39.7	-42.1	18.3	6.02e-01	0	35	0	3772776448	50	4901
2026-01-17 06:50:59.97	73.50	41.15	-39.8	-42.1	18.2	6.04e-01	0	34	0	3789553664	50	4878
2026-01-17 06:51:00.98	72.74	41.28	-39.7	-41.8	18.4	6.00e-01	0	34	0	3804233728	50	4757
2026-01-17 06:51:01.99	71.97	41.41	-39.4	-41.7	18.6	6.01e-01	0	34	0	3818913792	50	4652
2026-01-17 06:51:02.99	71.20	41.53	-39.5	-41.8	18.5	6.02e-01	0	34	0	3835691008	50	4719
2026-01-17 06:51:04.00	70.41	41.65	-39.4	-41.7	18.6	6.02e-01	0	34	0	3850371072	50	4676
2026-01-17 06:51:05.01	69.62	41.76	-39.4	-41.7	18.5	6.01e-01	0	34	0	3865051136	50	4660
2026-01-17 06:51:06.02	68.83	41.87	-39.4	-41.7	18.5	6.03e-01	0	35	0	3881828352	50	4667
2026-01-17 06:51:07.03	68.03	41.97	-39.4	-41.7	18.6	6.04e-01	0	35	0	3898605568	50	4655
2026-01-17 06:51:08.04	67.22	42.07	-39.1	-41.4	18.7	6.02e-01	0	35	0	3913285632	50	4541
2026-01-17 06:51:09.04	66.42	42.16	-39.0	-41.3	18.8	6.04e-01	0	35	0	3927965696	50	4462
2026-01-17 06:51:10.05	65.60	42.24	-39.2	-41.5	18.7	6.03e-01	0	34	0	3944742912	50	4569
2026-01-17 06:51:11.06	64.78	42.32	-39.3	-41.7	18.6	6.01e-01	0	35	0	3959422976	50	4652
2026-01-17 06:51:12.07	63.96	42.39	-39.4	-41.7	18.5	6.05e-01	0	34	0	3974103040	50	4670
2026-01-17 06:51:13.08	63.13	42.46	-39.3	-41.7	18.6	6.04e-01	0	35	0	3990880256	50	4674
2026-01-17 06:51:14.09	62.30	42.52	-39.1	-41.5	18.7	6.03e-01	0	34	0	4005560320	50	4562
2026-01-17 06:51:15.10	61.46	42.57	-39.1	-41.5	18.6	6.01e-01	0	34	0	4020240384	50	4593
2026-01-17 06:51:16.10	60.64	42.62	-39.1	-41.5	18.6	6.04e-01	0	34	0	4034920448	50	4592
2026-01-17 06:51:17.11	59.80	42.66	-39.0	-41.3	18.7	6.06e-01	0	34	0	4051697664	50	4465
2026-01-17 06:51:18.12	58.96	42.69	-39.0	-41.4	18.7	6.05e-01	0	34	0	4068474880	50	4507
2026-01-17 06:51:19.13	58.11	42.72	-39.0	-41.5	18.6	6.05e-01	0	35	0	4083154944	49	4838
2026-01-17 06:51:20.14	57.27	42.74	-39.0	-41.4	18.8	6.05e-01	0	35	0	4099932160	49	4766
2026-01-17 06:51:21.15	56.43	42.75	-39.0	-41.3	18.8	6.04e-01	0	35	0	4114612224	49	4742
2026-01-17 06:51:22.16	55.58	42.76	-39.0	-41.4	18.7	6.04e-01	0	35	0	4129292288	49	4801
2026-01-17 06:51:23.17	54.74	42.75	-39.0	-41.4	18.7	6.03e-01	0	34	0	4143972352	49	4794
2026-01-17 06:51:24.18	53.89	42.75	-39.1	-41.4	18.7	6.03e-01	0	34	0	4160749568	49	4804
2026-01-17 06:51:25.19	53.05	42.73	-38.9	-41.3	18.7	6.05e-01	0	34	0	4175429632	49	4707
2026-01-17 06:51:26.20	52.20	42.71	-39.1	-41.6	18.6	6.06e-01	0	34	0	4190109696	49	4888
2026-01-17 06:51:27.21	51.36	42.69	-39.2	-41.7	18.6	6.03e-01	0	35	0	4206886912	49	4934
2026-01-17 06:51:28.21	50.53	42.65	-39.2	-41.5	18.6	6.04e-01	0	34	0	4221566976	49	4865
2026-01-17 06:51:29.22	49.69	42.61	-39.2	-41.5	18.7	6.02e-01	0	34	0	4238344192	49	4837
2026-01-17 06:51:30.23	48.86	42.56	-39.0	-41.3	18.8	6.06e-01	0	34	0	4253024256	49	4748
2026-01-17 06:51:31.24	48.02	42.51	-39.1	-41.5	18.7	6.05e-01	0	35	0	4269801472	49	4834
2026-01-17 06:51:32.25	47.19	42.45	-39.2	-41.4	18.7	6.04e-01	0	34	0	4284481536	49	4805
2026-01-17 06:51:33.26	46.37	42.38	-39.2	-41.5	18.6	6.03e-01	0	35	0	4299161600	49	4844
2026-01-17 06:51:34.27	45.54	42.31	-39.2	-41.4	18.7	6.03e-01	0	35	0	4315938816	49	4812
2026-01-17 06:51:35.28	44.73	42.23	-39.2	-41.5	18.6	6.05e-01	0	35	0	4330618880	49	4826
2026-01-17 06:51:36.29	43.91	42.15	-39.2	-41.6	18.6	5.99e-01	0	34	0	4345298944	49	4883
2026-01-17 06:51:37.29	43.11	42.06	-39.2	-41.5	18.7	6.03e-01	0	35	0	4362076160	49	4834
2026-01-17 06:51:38.30	42.30	41.96	-39.2	-41.5	18.6	6.01e-01	0	35	0	4376756224	49	4839
2026-01-17 06:51:39.31	41.51	41.86	-39.2	-41.5	18.7	6.01e-01	0	34	0	4391436288	49	4839
2026-01-17 06:51:40.32	40.71	41.75	-39.3	-41.7	18.6	5.98e-01	0	34	0	4408213504	49	4938
2026-01-17 06:51:41.33	39.92	41.63	-39.4	-41.7	18.6	6.04e-01	0	34	0	4424990720	49	4931
2026-01-17 06:51:42.33	39.15	41.52	-39.3	-41.5	18.6	6.03e-01	0	35	0	4439670784	49	4846
2026-01-17 06:51:43.35	38.36	41.39	-39.2	-41.5	18.7	6.00e-01	0	35	0	4454350848	49	4817
2026-01-17 06:51:44.35	37.60	41.26	-39.2	-41.5	18.7	5.84e-01	0	35	0	4471128064	49	4818
2026-01-17 06:51:45.36	36.84	41.13	-39.3	-41.7	18.6	5.83e-01	0	34	0	4485808128	49	4930
2026-01-17 06:51:46.37	36.08	40.99	-39.4	-41.8	18.5	5.84e-01	0	35	0	4500488192	49	5005
2026-01-17 06:51:47.38	35.33	40.84	-39.4	-41.8	18.6	5.83e-01	0	35	0	4517265408	49	4988
2026-01-17 06:51:48.39	34.59	40.69	-39.5	-41.7	18.6	5.84e-01	0	34	0	4531945472	49	4952
2026-01-17 06:51:49.40	33.86	40.54	-39.5	-41.7	18.5	5.82e-01	0	34	0	4546625536	49	4981
2026-01-17 06:51:50.41	33.13	40.38	-39.6	-41.9	18.4	5.83e-01	0	34	0	4563402752	49	5090
2026-01-17 06:51:51.41	32.42	40.22	-39.6	-41.8	18.5	5.84e-01	0	34	0	4580179968	49	5004
2026-01-17 06:51:52.43	31.70	40.05	-39.7	-41.8	18.5	5.84e-01	0	34	0	4594860032	50	4756
2026-01-17 06:51:53.44	30.99	39.89	-39.6	-41.8	18.6	5.83e-01	0	35	0	4609540096	50	4738
2026-01-17 06:51:54.45	30.29	39.71	-39.9	-42.1	18.3	5.84e-01	0	35	0	4626317312	50	4910
2026-01-17 06:51:55.45	29.61	39.54	-40.0	-42.3	18.2	5.83e-01	0	34	0	4640997376	50	4989
2026-01-17 06:51:56.46	28.93	39.36	-40.1	-42.3	18.2	5.84e-01	0	34	0	4655677440	50	5025
2026-01-17 06:51:57.48	28.25	39.17	-40.1	-42.3	18.2	5.83e-01	0	35	0	4672454656	51	4715
2026-01-17 06:51:58.48	27.59	38.99	-40.2	-42.4	18.1	5.84e-01	0	34	0	4687134720	51	4766
2026-01-17 06:51:59.49	26.94	38.80	-40.2	-42.3	18.2	5.84e-01	0	34	0	4701814784	51	4752
2026-01-17 06:52:00.50	26.29	38.60	-40.3	-42.4	18.1	5.84e-01	0	35	0	4718592000	51	4794
2026-01-17 06:52:01.51	25.65	38.41	-40.2	-42.4	18.2	5.84e-01	0	34	0	4733272064	51	4787
2026-01-17 06:52:02.52	25.01	38.21	-40.3	-42.4	18.1	5.83e-01	0	34	0	4750049280	51	4806
2026-01-17 06:52:03.52	24.40	38.01	-40.4	-42.5	18.1	5.84e-01	0	34	0	4764729344	51	4866
2026-01-17 06:52:04.53	23.78	37.81	-40.6	-42.8	17.9	5.82e-01	0	34	0	4781506560	51	5008
2026-01-17 06:52:05.54	23.17	37.61	-40.7	-42.9	17.7	5.82e-01	0	34	0	4796186624	52	4772
2026-01-17 06:52:06.55	22.57	37.40	-40.7	-42.8	17.8	5.87e-01	0	35	0	4810866688	52	4750
2026-01-17 06:52:07.56	21.98	37.19	-40.7	-42.8	17.8	5.86e-01	0	34	0	4827643904	52	4734
2026-01-17 06:52:08.56	21.40	36.98	-40.7	-42.8	17.8	5.98e-01	0	35	0	4842323968	52	4718
2026-01-17 06:52:09.57	20.82	36.77	-40.8	-42.9	17.8	5.84e-01	0	34	0	4857004032	52	4762
2026-01-17 06:52:10.58	20.26	36.56	-40.8	-42.8	17.8	5.98e-01	0	34	0	4873781248	52	4736
2026-01-17 06:52:11.59	19.70	36.34	-41.0	-42.9	17.7	6.04e-01	0	34	0	4888461312	52	4761
2026-01-17 06:52:12.60	19.14	36.13	-41.0	-42.9	17.7	6.03e-01	0	34	0	4903141376	52	4778
2026-01-17 06:52:13.61	18.60	35.91	-41.1	-43.0	17.7	5.86e-01	0	34	0	4919918592	52	4834
2026-01-17 06:52:14.62	18.06	35.69	-41.1	-43.1	17.6	5.80e-01	0	34	0	4936695808	52	4898
2026-01-17 06:52:15.63	17.53	35.47	-41.0	-43.0	17.6	5.81e-01	0	34	0	4951375872	52	4839
2026-01-17 06:52:16.64	17.01	35.25	-41.1	-43.1	17.5	5.92e-01	0	34	0	4966055936	52	4880
2026-01-17 06:52:17.65	16.50	35.03	-41.3	-43.2	17.5	5.67e-01	0	34	0	4982833152	53	4683
2026-01-17 06:52:18.66	15.99	34.81	-41.5	-43.4	17.4	5.95e-01	0	35	0	4997513216	53	4763
2026-01-17 06:52:19.67	15.49	34.59	-41.6	-43.4	17.4	5.89e-01	0	35	0	5012193280	53	4809
2026-01-17 06:52:20.68	15.00	34.37	-41.7	-43.5	17.3	5.78e-01	0	34	0	5028970496	53	4869
2026-01-17 06:52:21.69	14.51	34.14	-41.7	-43.6	17.3	5.88e-01	0	34	0	5043650560	54	4627
2026-01-17 06:52:22.70	14.03	33.92	-41.8	-43.8	17.1	5.83e-01	0	34	0	5058330624	54	4712
2026-01-17 06:52:23.71	13.56	33.70	-41.9	-43.8	17.1	5.82e-01	0	34	0	5075107840	54	4729
2026-01-17 06:52:24.72	13.10	33.48	-41.9	-43.7	17.2	5.89e-01	0	34	0	5091885056	54	4694
2026-01-17 06:52:25.73	12.64	33.25	-42.0	-43.9	17.0	5.87e-01	0	35	0	5106565120	54	4761
2026-01-17 06:52:26.73	12.19	33.03	-42.0	-43.9	17.0	6.03e-01	0	34	0	5121245184	54	4783
2026-01-17 06:52:27.74	11.75	32.81	-42.0	-44.0	17.0	5.85e-01	0	34	0	5138022400	54	4817
2026-01-17 06:52:28.75	11.31	32.58	-41.9	-43.9	17.1	5.86e-01	0	34	0	5152702464	54	4771
2026-01-17 06:52:29.76	10.88	32.36	-42.0	-43.9	17.0	5.89e-01	0	35	0	5167382528	54	4801
2026-01-17 06:52:30.76	10.46	32.14	-42.1	-44.0	17.0	5.89e-01	0	35	0	5184159744	54	4827
2026-01-17 06:52:31.77	10.04	31.92	-42.0	-43.8	17.0	5.92e-01	0	34	0	5198839808	54	4756
2026-01-17 06:52:32.79	9.63	31.69	-42.0	-43.8	17.1	5.85e-01	0	35	0	5213519872	54	4747
2026-01-17 06:52:33.79	9.22	31.48	-41.9	-43.7	17.2	5.86e-01	0	34	0	5230297088	54	4686
2026-01-17 06:52:34.80	8.82	31.25	-42.0	-43.8	17.1	5.83e-01	0	34	0	5244977152	54	4718
2026-01-17 06:52:35.81	8.43	31.03	-41.9	-43.7	17.1	5.90e-01	0	35	0	5259657216	54	4653
2026-01-17 06:52:36.82	8.04	30.81	-41.7	-43.5	17.3	6.00e-01	0	34	0	5276434432	54	4558
2026-01-17 06:52:37.82	7.66	30.60	-41.8	-43.5	17.2	5.94e-01	0	35	0	5293211648	54	4584
2026-01-17 06:52:38.83	7.29	30.38	-41.8	-43.5	17.2	5.99e-01	0	34	0	5307891712	54	4593
2026-01-17 06:52:39.84	6.91	30.16	-41.7	-43.5	17.3	5.88e-01	0	34	0	5322571776	54	4567
2026-01-17 06:52:40.85	6.55	29.94	-41.7	-43.5	17.2	5.90e-01	0	34	0	5339348992	54	4589
2026-01-17 06:52:41.86	6.19	29.73	-41.7	-43.6	17.3	5.82e-01	0	34	0	5354029056	54	4612
2026-01-17 06:52:42.86	5.83	29.51	-41.7	-43.6	17.2	5.92e-01	0	34	0	5368709120	54	4636
2026-01-17 06:52:43.87	5.48	29.30	-41.6	-43.5	17.2	5.95e-01	0	34	0	5385486336	54	4589
2026-01-17 06:52:44.89	5.14	29.08	-41.6	-43.5	17.2	6.04e-01	0	34	0	5400166400	54	4556
2026-01-17 06:52:45.89	4.80	28.87	-41.6	-43.4	17.4	6.04e-01	0	34	0	5414846464	54	4497
2026-01-17 06:52:46.90	4.46	28.66	-41.6	-43.3	17.3	6.04e-01	0	34	0	5431623680	54	4460
2026-01-17 06:52:47.91	4.13	28.45	-41.6	-43.4	17.3	6.01e-01	0	34	0	5446303744	54	4494
2026-01-17 06:52:48.92	3.81	28.23	-41.4	-43.2	17.5	6.03e-01	0	34	0	5463080960	54	4403
2026-01-17 06:52:49.93	3.49	28.03	-41.5	-43.3	17.4	6.02e-01	0	34	0	5477761024	54	4456
2026-01-17 06:52:50.93	3.17	27.82	-41.5	-43.2	17.4	6.05e-01	0	34	0	5494538240	54	4428
2026-01-17 06:52:51.95	2.86	27.61	-41.4	-43.2	17.4	6.05e-01	0	34	0	5509218304	54	4425
2026-01-17 06:52:52.96	2.55	27.40	-41.4	-43.2	17.5	5.93e-01	0	34	0	5523898368	54	4429
2026-01-17 06:52:53.96	2.25	27.20	-41.4	-43.3	17.3	6.01e-01	0	34	0	5540675584	54	4458
2026-01-17 06:52:54.97	1.95	26.99	-41.4	-43.3	17.3	5.91e-01	0	34	0	5555355648	54	4488
2026-01-17 06:52:55.98	1.66	26.79	-41.4	-43.4	17.3	6.03e-01	0	34	0	5570035712	54	4500
2026-01-17 06:52:56.99	1.37	26.59	-41.6	-43.5	17.2	6.02e-01	0	34	0	5584715776	54	4593
2026-01-17 06:52:58.00	1.08	26.39	-41.4	-43.4	17.3	5.98e-01	0	34	0	5601492992	54	4519
2026-01-17 06:52:59.00	0.80	26.19	-41.3	-43.3	17.4	5.96e-01	0	34	0	5616173056	54	4472
2026-01-17 06:53:00.01	0.52	25.99	-41.4	-43.4	17.3	5.96e-01	0	34	0	5630853120	54	4535
2026-01-17 06:53:01.02	0.25	25.79	-41.3	-43.3	17.4	5.92e-01	0	34	0	5649727488	54	4447
2026-01-17 06:53:02.03	359.98	25.60	-41.3	-43.2	17.4	5.89e-01	0	34	0	5664407552	54	4430
2026-01-17 06:53:03.03	359.71	25.40	-41.2	-43.1	17.5	6.01e-01	0	34	0	5679087616	54	4346
2026-01-17 06:53:04.05	359.45	25.21	-41.2	-43.1	17.5	6.04e-01	0	35	0	5693767680	54	4368
2026-01-17 06:53:05.05	359.19	25.01	-41.4	-43.3	17.3	6.01e-01	0	34	0	5710544896	54	4451
2026-01-17 06:53:06.06	358.93	24.82	-41.3	-43.2	17.3	6.01e-01	0	34	0	5725224960	54	4424
2026-01-17 06:53:07.07	358.68	24.63	-41.4	-43.4	17.3	5.84e-01	0	34	0	5739905024	54	4524
2026-01-17 06:53:08.08	358.43	24.44	-41.4	-43.5	17.2	6.00e-01	0	34	0	5756682240	54	4555
2026-01-17 06:53:09.09	358.19	24.25	-41.5	-43.5	17.2	5.92e-01	0	34	0	5771362304	54	4596
2026-01-17 06:53:10.10	357.94	24.06	-41.4	-43.4	17.2	6.01e-01	0	34	0	5786042368	54	4542
2026-01-17 06:53:11.10	357.71	23.88	-41.3	-43.4	17.2	6.02e-01	0	34	0	5802819584	54	4530
2026-01-17 06:53:12.11	357.47	23.70	-41.4	-43.4	17.2	6.05e-01	0	34	0	5817499648	54	4537
2026-01-17 06:53:13.12	357.24	23.51	-41.4	-43.5	17.2	5.99e-01	0	34	0	5834276864	54	4561
2026-01-17 06:53:14.13	357.01	23.33	-41.4	-43.4	17.2	6.05e-01	0	34	0	5848956928	54	4531
2026-01-17 06:53:15.14	356.78	23.15	-41.4	-43.5	17.1	6.00e-01	0	35	0	5865734144	54	4546
2026-01-17 06:53:16.15	356.56	22.97	-41.5	-43.6	17.1	5.98e-01	0	34	0	5880414208	54	4601
2026-01-17 06:53:17.15	356.34	22.79	-41.4	-43.5	17.1	6.04e-01	0	34	0	5895094272	54	4556
2026-01-17 06:53:18.16	356.12	22.61	-41.5	-43.5	17.1	6.03e-01	0	34	0	5911871488	54	4569
2026-01-17 06:53:19.17	355.90	22.43	-41.5	-43.5	17.1	6.02e-01	0	34	0	5926551552	54	4575
2026-01-17 06:53:20.18	355.69	22.26	-41.5	-43.5	17.1	6.04e-01	0	34	0	5941231616	54	4571
2026-01-17 06:53:21.19	355.48	22.08	-41.5	-43.6	17.1	6.05e-01	0	34	0	5958008832	54	4621
2026-01-17 06:53:22.20	355.27	21.91	-41.6	-43.6	17.1	6.06e-01	0	34	0	5972688896	54	4633
2026-01-17 06:53:23.20	355.07	21.74	-41.5	-43.5	17.1	6.01e-01	0	34	0	5987368960	54	4562
2026-01-17 06:53:24.21	354.87	21.56	-41.5	-43.6	17.1	5.87e-01	0	34	0	6004146176	54	4604
2026-01-17 06:53:25.22	354.67	21.39	-41.5	-43.5	17.2	6.01e-01	0	35	0	6020923392	54	4553
2026-01-17 06:53:26.23	354.47	21.22	-41.5	-43.4	17.2	6.01e-01	0	34	0	6035603456	54	4541
2026-01-17 06:53:27.24	354.28	21.06	-41.4	-43.4	17.2	6.00e-01	0	34	0	6050283520	54	4514
2026-01-17 06:53:28.25	354.09	20.89	-41.5	-43.5	17.0	6.05e-01	0	34	0	6067060736	54	4569
2026-01-17 06:53:29.25	353.90	20.72	-41.5	-43.5	17.1	6.05e-01	0	34	0	6081740800	54	4593
2026-01-17 06:53:30.26	353.71	20.56	-41.5	-43.6	17.0	6.06e-01	0	34	0	6096420864	54	4608
2026-01-17 06:53:31.27	353.53	20.39	-41.5	-43.5	17.1	6.03e-01	0	34	0	6113198080	54	4571
2026-01-17 06:53:32.28	353.35	20.23	-41.5	-43.6	17.0	5.97e-01	0	34	0	6127878144	54	4608
2026-01-17 06:53:33.29	353.17	20.07	-41.5	-43.6	17.0	6.03e-01	0	34	0	6142558208	54	4624
2026-01-17 06:53:34.30	352.99	19.91	-41.5	-43.6	17.0	6.03e-01	0	34	0	6159335424	54	4645
2026-01-17 06:53:35.31	352.81	19.75	-41.6	-43.7	17.0	5.98e-01	0	35	0	6174015488	54	4670
2026-01-17 06:53:36.31	352.64	19.59	-41.7	-43.8	16.8	6.00e-01	0	34	0	6188695552	54	4758
2026-01-17 06:53:37.32	352.47	19.43	-41.9	-44.0	16.6	5.84e-01	0	34	0	6205472768	54	4869
2026-01-17 06:53:38.33	352.30	19.28	-42.0	-44.2	16.5	5.94e-01	0	34	0	6222249984	54	4964
2026-01-17 06:53:39.34	352.13	19.12	-41.9	-44.2	16.6	6.00e-01	0	34	0	6236930048	54	4928
2026-01-17 06:53:40.35	351.97	18.97	-42.0	-44.2	16.5	5.99e-01	0	34	0	6251610112	54	4963
2026-01-17 06:53:41.35	351.80	18.81	-42.1	-44.3	16.4	6.00e-01	0	34	0	6268387328	54	5033
2026-01-17 06:53:42.36	351.64	18.66	-42.0	-44.2	16.5	6.00e-01	0	34	0	6283067392	54	4966
2026-01-17 06:53:43.37	351.48	18.51	-42.1	-44.3	16.4	5.99e-01	0	34	0	6297747456	54	5014
2026-01-17 06:53:44.38	351.33	18.36	-42.2	-44.4	16.4	6.00e-01	0	34	0	6314524672	54	5053
2026-01-17 06:53:45.39	351.17	18.21	-42.0	-44.2	16.5	5.98e-01	0	35	0	6329204736	54	4951
2026-01-17 06:53:46.40	351.02	18.06	-42.2	-44.3	16.4	5.98e-01	0	34	0	6343884800	54	5022
2026-01-17 06:53:47.41	350.86	17.91	-42.2	-44.3	16.4	6.01e-01	0	34	0	6360662016	54	5037
2026-01-17 06:53:48.41	350.71	17.77	-42.2	-44.3	16.4	6.01e-01	0	34	0	6375342080	55	4737
2026-01-17 06:53:49.42	350.56	17.62	-42.2	-44.3	16.4	6.00e-01	0	34	0	6392119296	55	4748
2026-01-17 06:53:50.43	350.42	17.48	-42.4	-44.5	16.2	6.01e-01	0	34	0	6406799360	55	4857
2026-01-17 06:53:51.44	350.27	17.33	-42.4	-44.5	16.2	6.00e-01	0	34	0	6423576576	55	4866
2026-01-17 06:53:52.45	350.13	17.19	-42.4	-44.6	16.2	5.94e-01	0	35	0	6438256640	55	4886
2026-01-17 06:53:53.46	349.99	17.05	-42.4	-44.6	16.1	5.99e-01	0	34	0	6452936704	55	4911
2026-01-17 06:53:54.46	349.85	16.91	-42.5	-44.6	16.1	6.01e-01	0	34	0	6469713920	55	4919
2026-01-17 06:53:55.47	349.71	16.77	-42.6	-44.8	15.9	6.01e-01	0	34	0	6484393984	55	5039
2026-01-17 06:53:56.48	349.57	16.63	-42.7	-44.9	15.9	6.02e-01	0	34	0	6499074048	55	5075
2026-01-17 06:53:57.49	349.43	16.49	-42.7	-45.0	15.7	6.02e-01	0	34	0	6515851264	56	4830
2026-01-17 06:53:58.50	349.30	16.35	-42.7	-45.0	15.7	6.00e-01	0	34	0	6530531328	56	4837
2026-01-17 06:53:59.50	349.17	16.21	-42.6	-44.8	15.8	6.00e-01	0	34	0	6545211392	56	4744
2026-01-17 06:54:00.51	349.04	16.08	-42.7	-44.9	15.8	6.01e-01	0	34	0	6561988608	56	4790
2026-01-17 06:54:01.52	348.91	15.94	-42.8	-45.0	15.6	6.01e-01	0	34	0	6578765824	56	4853
2026-01-17 06:54:02.53	348.78	15.81	-42.8	-45.0	15.7	6.01e-01	0	34	0	6593445888	56	4853
2026-01-17 06:54:03.54	348.65	15.67	-42.8	-45.1	15.7	5.83e-01	0	35	0	6608125952	56	4871
2026-01-17 06:54:04.54	348.52	15.54	-42.9	-45.2	15.5	5.85e-01	0	34	0	6624903168	56	4961
2026-01-17 06:54:05.55	348.40	15.41	-43.0	-45.3	15.5	5.83e-01	0	34	0	6639583232	56	4995
2026-01-17 06:54:06.56	348.28	15.28	-42.9	-45.3	15.5	5.83e-01	0	34	0	6654263296	56	4993
2026-01-17 06:54:07.56	348.16	15.15	-43.0	-45.3	15.4	5.84e-01	0	34	0	6671040512	56	5011
2026-01-17 06:54:08.57	348.04	15.02	-43.1	-45.4	15.4	5.84e-01	0	34	0	6685720576	56	5082
2026-01-17 06:54:09.58	347.92	14.89	-43.0	-45.4	15.4	5.84e-01	0	35	0	6700400640	56	5054
2026-01-17 06:54:10.59	347.80	14.76	-43.0	-45.4	15.4	5.84e-01	0	34	0	6717177856	56	5051
2026-01-17 06:54:11.60	347.68	14.64	-43.1	-45.4	15.3	5.84e-01	0	34	0	6731857920	56	5081
2026-01-17 06:54:12.61	347.56	14.51	-43.2	-45.5	15.3	5.85e-01	0	34	0	6746537984	56	5102
2026-01-17 06:54:13.61	347.45	14.39	-44.5	-45.4	15.4	5.84e-01	0	34	0	6763315200	59	4283
2026-01-17 06:54:14.62	347.34	14.26	-44.6	-45.6	15.2	5.84e-01	0	34	0	6780092416	59	4389
2026-01-17 06:54:15.63	347.23	14.14	-53.6	-62.5	3.8	7.46e-01	0	35	104	6782189568	77	10806
2026-01-17 06:54:16.64	347.11	14.01	-53.6	-62.4	3.8	7.43e-01	0	34	104	6782189568	77	10767
2026-01-17 06:54:17.65	347.00	13.89	-53.6	-62.4	3.8	7.45e-01	0	34	104	6782189568	77	10737
2026-01-17 06:54:18.65	346.90	13.77	-53.5	-62.3	3.8	7.46e-01	0	34	104	6782189568	77	10619
2026-01-17 06:54:19.66	346.79	13.65	-53.5	-62.4	3.8	7.46e-01	0	34	104	6782189568	77	10674
2026-01-17 06:54:20.67	346.68	13.53	-53.5	-62.3	3.8	7.47e-01	0	34	104	6782189568	77	10597
2026-01-17 06:54:21.68	346.58	13.41	-53.5	-62.3	3.8	7.44e-01	0	34	104	6782189568	77	10610
2026-01-17 06:54:22.69	346.47	13.29	-53.5	-62.3	3.8	7.45e-01	0	35	104	6782189568	77	10615
2026-01-17 06:54:23.70	346.37	13.17	-53.5	-62.3	3.8	7.45e-01	0	34	104	6782189568	77	10631
2026-01-17 06:54:24.71	346.27	13.05	-53.5	-62.3	3.8	7.44e-01	0	34	104	6782189568	77	10591
2026-01-17 06:54:25.71	346.17	12.93	-53.4	-62.3	3.8	7.44e-01	0	34	104	6782189568	77	10562
2026-01-17 06:54:26.72	346.07	12.82	-53.5	-62.3	3.8	7.46e-01	0	35	104	6782189568	77	10577
2026-01-17 06:54:27.73	345.97	12.70	-53.5	-62.3	3.8	7.46e-01	0	34	104	6782189568	77	10587
2026-01-17 06:54:28.73	345.87	12.59	-53.4	-62.3	3.8	7.46e-01	0	34	104	6782189568	77	10566
2026-01-17 06:54:29.74	345.77	12.47	-53.4	-62.3	3.8	7.44e-01	0	34	104	6782189568	77	10544
2026-01-17 06:54:30.75	345.68	12.36	-53.5	-62.3	3.8	7.45e-01	0	34	104	6782189568	77	10575
2026-01-17 06:54:31.76	345.58	12.25	-53.5	-62.3	3.8	7.46e-01	0	34	104	6782189568	77	10604
2026-01-17 06:54:32.77	345.49	12.13	-53.4	-62.2	3.8	7.44e-01	0	34	104	6782189568	77	10478
2026-01-17 06:54:33.78	345.39	12.02	-53.4	-62.2	3.8	7.45e-01	0	34	104	6782189568	77	10484
2026-01-17 06:54:34.78	345.30	11.91	-53.4	-62.3	3.8	7.46e-01	0	34	104	6782189568	77	10543
2026-01-17 06:54:35.79	345.21	11.80	-53.4	-62.3	3.8	7.46e-01	0	34	104	6782189568	77	10549
2026-01-17 06:54:36.80	345.12	11.69	-53.4	-62.2	3.8	7.46e-01	0	34	104	6782189568	77	10477
2026-01-17 06:54:37.81	345.03	11.58	-53.4	-62.2	3.8	7.45e-01	0	34	104	6782189568	77	10465
2026-01-17 06:54:38.82	344.94	11.47	-53.4	-62.2	3.8	7.44e-01	0	34	104	6782189568	77	10511
2026-01-17 06:54:39.83	344.85	11.36	-53.4	-62.2	3.8	7.45e-01	0	34	104	6782189568	77	10474
2026-01-17 06:54:40.84	344.76	11.25	-53.3	-62.2	3.8	7.45e-01	0	34	104	6782189568	77	10443
2026-01-17 06:54:41.84	344.67	11.15	-53.3	-62.2	3.8	7.44e-01	0	34	104	6782189568	77	10425
2026-01-17 06:54:42.85	344.59	11.04	-53.4	-62.2	3.8	7.46e-01	0	34	104	6782189568	77	10493
2026-01-17 06:54:43.86	344.50	10.93	-53.4	-62.2	3.8	7.45e-01	0	34	104	6782189568	77	10459
2026-01-17 06:54:44.87	344.42	10.83	-53.3	-62.1	3.8	7.46e-01	0	34	104	6782189568	77	10408
2026-01-17 06:54:45.87	344.34	10.72	-53.3	-62.2	3.8	7.46e-01	0	34	104	6782189568	77	10417
2026-01-17 06:54:46.88	344.25	10.62	-53.4	-62.2	3.8	7.46e-01	0	34	104	6782189568	77	10455
2026-01-17 06:54:47.89	344.17	10.52	-53.3	-62.2	3.8	7.45e-01	0	34	104	6782189568	77	10426
2026-01-17 06:54:48.90	344.09	10.41	-53.3	-62.1	3.8	7.44e-01	0	34	104	6782189568	77	10386
2026-01-17 06:54:49.91	344.01	10.31	-53.3	-62.1	3.8	7.45e-01	0	34	104	6782189568	77	10365
2026-01-17 06:54:50.92	343.93	10.21	-53.3	-62.2	3.8	7.44e-01	0	34	104	6782189568	77	10416
2026-01-17 06:54:51.93	343.85	10.10	-53.3	-62.2	3.8	7.45e-01	0	34	104	6782189568	77	10429
2026-01-17 06:54:52.94	343.77	10.00	-53.3	-62.0	3.8	7.46e-01	0	34	104	6782189568	77	10273
2026-01-17 06:54:53.94	343.69	9.90	-53.2	-62.1	3.8	7.45e-01	0	34	104	6782189568	77	10299
2026-01-17 06:54:54.95	343.62	9.80	-53.3	-62.1	3.8	7.46e-01	0	34	104	6782189568	77	10390
2026-01-17 06:54:55.96	343.54	9.70	-53.3	-62.1	3.8	7.45e-01	0	34	104	6782189568	77	10358
2026-01-17 06:54:56.97	343.46	9.60	-53.2	-62.0	3.8	7.46e-01	0	34	104	6782189568	77	10274
2026-01-17 06:54:57.98	343.39	9.50	-53.2	-62.0	3.8	7.45e-01	0	34	104	6782189568	77	10256
2026-01-17 06:54:58.99	343.31	9.40	-53.3	-62.1	3.8	7.46e-01	0	34	104	6782189568	77	10338
2026-01-17 06:54:59.99	343.24	9.31	-53.3	-62.1	3.8	7.44e-01	0	34	104	6782189568	77	10378
2026-01-17 06:55:01.00	343.17	9.21	-53.2	-62.0	3.8	7.44e-01	0	35	104	6782189568	77	10248
2026-01-17 06:55:02.01	343.10	9.11	-53.2	-62.0	3.8	7.44e-01	0	34	104	6782189568	77	10249
2026-01-17 06:55:03.02	343.02	9.02	-53.2	-62.0	3.8	7.46e-01	0	34	104	6782189568	77	10282
2026-01-17 06:55:04.03	342.95	8.92	-53.2	-62.0	3.8	7.44e-01	0	34	104	6782189568	77	10243
2026-01-17 06:55:05.03	342.88	8.83	-53.1	-62.0	3.8	7.43e-01	0	34	104	6782189568	77	10199
2026-01-17 06:55:06.04	342.81	8.73	-53.1	-61.9	3.8	7.46e-01	0	34	104	6782189568	77	10164
2026-01-17 06:55:07.05	342.74	8.64	-53.2	-62.0	3.8	7.45e-01	0	34	104	6782189568	77	10266
2026-01-17 06:55:08.06	342.67	8.54	-53.2	-62.0	3.8	7.47e-01	0	34	104	6782189568	77	10251
2026-01-17 06:55:09.06	342.61	8.45	-53.1	-61.9	3.8	7.46e-01	0	34	104	6782189568	77	10108
2026-01-17 06:55:10.07	342.54	8.35	-53.1	-61.9	3.8	7.45e-01	0	34	104	6782189568	77	10083
2026-01-17 06:55:11.08	342.47	8.26	-53.1	-62.0	3.8	7.45e-01	0	35	104	6782189568	77	10201
2026-01-17 06:55:12.09	342.40	8.17	-53.1	-62.0	3.8	7.46e-01	0	35	104	6782189568	77	10180
2026-01-17 06:55:13.10	342.34	8.08	-53.0	-61.8	3.8	7.44e-01	0	34	104	6782189568	77	10049
2026-01-17 06:55:14.11	342.27	7.98	-53.0	-61.8	3.8	7.44e-01	0	34	104	6782189568	77	10041
2026-01-17 06:55:15.12	342.21	7.89	-53.1	-61.9	3.8	7.46e-01	0	34	104	6782189568	77	10162
2026-01-17 06:55:16.13	342.14	7.80	-53.1	-61.9	3.8	7.44e-01	0	34	104	6782189568	77	10118
2026-01-17 06:55:17.14	342.08	7.71	-53.0	-61.8	3.8	7.46e-01	0	34	104	6782189568	77	10013
2026-01-17 06:55:18.14	342.02	7.62	-53.0	-61.8	3.8	7.43e-01	0	34	104	6782189568	77	9999
2026-01-17 06:55:19.15	341.95	7.53	-53.1	-61.9	3.8	7.46e-01	0	34	104	6782189568	77	10099
2026-01-17 06:55:20.16	341.89	7.44	-53.0	-61.8	3.8	7.45e-01	0	34	104	6782189568	77	10026
2026-01-17 06:55:21.17	341.83	7.35	-52.9	-61.8	3.8	7.44e-01	0	34	104	6782189568	77	9956
2026-01-17 06:55:22.18	341.77	7.27	-52.9	-61.8	3.8	7.45e-01	0	34	104	6782189568	77	9949
2026-01-17 06:55:23.19	341.71	7.18	-53.0	-61.9	3.8	7.44e-01	0	34	104	6782189568	77	10083
2026-01-17 06:55:24.19	341.65	7.09	-53.0	-61.8	3.8	7.47e-01	0	34	104	6782189568	77	9997
2026-01-17 06:55:25.20	341.59	7.00	-52.9	-61.7	3.8	7.45e-01	0	34	104	6782189568	77	9913
2026-01-17 06:55:26.21	341.53	6.92	-52.9	-61.7	3.8	7.46e-01	0	34	104	6782189568	77	9892
2026-01-17 06:55:27.22	341.47	6.83	-53.0	-61.8	3.8	7.44e-01	0	34	104	6782189568	77	10008
2026-01-17 06:55:28.23	341.41	6.74	-52.9	-61.7	3.8	7.45e-01	0	34	104	6782189568	77	9932
2026-01-17 06:55:29.24	341.35	6.66	-52.8	-61.6	3.8	7.45e-01	0	34	104	6782189568	77	9794
2026-01-17 06:55:30.24	341.30	6.57	-52.8	-61.7	3.8	7.45e-01	0	34	104	6782189568	77	9844
2026-01-17 06:55:31.25	341.24	6.49	-52.9	-61.7	3.8	7.45e-01	0	34	104	6782189568	77	9917
2026-01-17 06:55:32.26	341.18	6.40	-52.9	-61.7	3.8	7.45e-01	0	34	104	6782189568	77	9882
2026-01-17 06:55:33.27	341.13	6.32	-52.7	-61.6	3.8	7.47e-01	0	34	104	6782189568	77	9753
2026-01-17 06:55:34.28	341.07	6.23	-52.8	-61.6	3.8	7.44e-01	0	34	104	6782189568	77	9772
2026-01-17 06:55:35.29	341.02	6.15	-52.9	-61.7	3.8	7.46e-01	0	34	104	6782189568	77	9884
2026-01-17 06:55:36.30	340.96	6.07	-52.8	-61.6	3.8	7.46e-01	0	34	104	6782189568	77	9789
2026-01-17 06:55:37.31	340.91	5.98	-52.7	-61.5	3.8	7.46e-01	0	34	104	6782189568	77	9691
2026-01-17 06:55:38.32	340.85	5.90	-52.7	-61.6	3.8	7.45e-01	0	35	104	6782189568	77	9744
2026-01-17 06:55:39.33	340.80	5.82	-52.8	-61.6	3.8	7.48e-01	0	34	104	6782189568	77	9818
2026-01-17 06:55:40.33	340.75	5.74	-52.7	-61.5	3.8	7.44e-01	0	34	104	6782189568	77	9702
2026-01-17 06:55:41.34	340.69	5.65	-52.6	-61.4	3.8	7.45e-01	0	34	104	6782189568	77	9565
2026-01-17 06:55:42.35	340.64	5.57	-52.7	-61.5	3.8	7.45e-01	0	34	104	6782189568	77	9647
2026-01-17 06:55:43.36	340.59	5.49	-52.7	-61.6	3.8	7.46e-01	0	34	104	6782189568	77	9745
2026-01-17 06:55:44.36	340.54	5.41	-52.6	-61.5	3.8	7.45e-01	0	34	104	6782189568	77	9630
2026-01-17 06:55:45.37	340.49	5.33	-52.5	-61.3	3.8	7.44e-01	0	34	104	6782189568	77	9473
2026-01-17 06:55:46.38	340.44	5.25	-52.6	-61.4	3.8	7.47e-01	0	34	104	6782189568	77	9562
2026-01-17 06:55:47.39	340.38	5.17	-52.7	-61.5	3.8	7.47e-01	0	34	104	6782189568	77	9642
2026-01-17 06:55:48.40	340.33	5.09	-52.5	-61.4	3.8	7.45e-01	0	34	104	6782189568	77	9531
2026-01-17 06:55:49.41	340.29	5.01	-52.5	-61.3	3.8	7.45e-01	0	34	104	6782189568	76	10001
2026-01-17 06:55:50.41	340.24	4.93	-53.0	-61.8	3.8	7.45e-01	0	34	104	6782189568	76	10604
2026-01-17 06:55:51.42	340.19	4.85	-53.4	-62.2	3.8	7.44e-01	0	34	104	6782189568	77	10485
2026-01-17 06:55:52.43	340.14	4.77	-53.5	-62.4	3.8	7.46e-01	0	34	104	6782189568	77	10677
2026-01-17 06:55:53.44	340.09	4.70	-53.7	-62.5	3.8	7.45e-01	0	35	104	6782189568	77	10857
2026-01-17 06:55:54.45	340.04	4.62	-53.8	-62.7	3.8	7.45e-01	0	34	104	6782189568	78	10415
2026-01-17 06:55:55.46	340.00	4.54	-53.9	-62.7	3.8	7.43e-01	0	34	104	6782189568	78	10528
2026-01-17 06:55:56.46	339.95	4.46	-54.0	-62.9	3.8	7.44e-01	0	34	104	6782189568	78	10671
2026-01-17 06:55:57.47	339.90	4.39	-54.1	-62.9	3.8	7.45e-01	0	34	104	6782189568	78	10759
2026-01-17 06:55:58.48	339.86	4.31	-54.2	-63.0	3.8	7.46e-01	0	34	104	6782189568	78	10835
2026-01-17 06:55:59.49	339.81	4.23	-54.2	-63.1	3.8	7.45e-01	0	34	104	6782189568	79	10324
2026-01-17 06:56:00.50	339.76	4.16	-54.3	-63.1	3.8	7.44e-01	0	34	104	6782189568	79	10366
2026-01-17 06:56:01.51	339.72	4.08	-54.3	-63.1	3.8	7.46e-01	0	34	104	6782189568	79	10370
2026-01-17 06:56:02.51	339.67	4.01	-54.3	-63.2	3.8	7.45e-01	0	34	104	6782189568	79	10417
2026-01-17 06:56:03.52	339.63	3.93	-54.3	-63.2	3.8	7.43e-01	0	34	104	6782189568	79	10433
2026-01-17 06:56:04.53	339.58	3.86	-54.3	-63.2	3.8	7.45e-01	0	34	104	6782189568	79	10438
2026-01-17 06:56:05.54	339.54	3.78	-54.4	-63.2	3.8	7.45e-01	0	34	104	6782189568	79	10482
2026-01-17 06:56:06.54	339.50	3.71	-54.4	-63.2	3.8	7.43e-01	0	34	104	6782189568	79	10481
2026-01-17 06:56:07.55	339.45	3.63	-54.4	-63.2	3.8	7.44e-01	0	34	104	6782189568	79	10501
2026-01-17 06:56:08.56	339.41	3.56	-54.4	-63.2	3.8	7.46e-01	0	34	104	6782189568	79	10487
2026-01-17 06:56:09.57	339.37	3.48	-54.4	-63.2	3.8	7.46e-01	0	34	104	6782189568	79	10505
2026-01-17 06:56:10.58	339.32	3.41	-54.4	-63.2	3.8	7.45e-01	0	34	104	6782189568	79	10467
2026-01-17 06:56:11.58	339.28	3.34	-54.4	-63.2	3.8	7.45e-01	0	34	104	6782189568	79	10483
2026-01-17 06:56:12.59	339.24	3.26	-54.3	-63.2	3.8	7.45e-01	0	34	104	6782189568	79	10432
2026-01-17 06:56:13.60	339.20	3.19	-54.3	-63.2	3.8	7.46e-01	0	34	104	6782189568	79	10432
2026-01-17 06:56:14.61	339.16	3.12	-54.3	-63.2	3.8	7.47e-01	0	34	104	6782189568	79	10442
2026-01-17 06:56:15.62	339.11	3.05	-54.3	-63.2	3.8	7.46e-01	0	34	104	6782189568	79	10448
2026-01-17 06:56:16.62	339.07	2.98	-54.3	-63.1	3.8	7.45e-01	0	34	104	6782189568	79	10410
2026-01-17 06:56:17.63	339.03	2.90	-54.3	-63.1	3.8	7.44e-01	0	34	104	6782189568	79	10376
2026-01-17 06:56:18.64	338.99	2.83	-54.3	-63.2	3.8	7.45e-01	0	34	104	6782189568	79	10447
2026-01-17 06:56:19.65	338.95	2.76	-54.3	-63.2	3.8	7.44e-01	0	34	104	6782189568	79	10426
2026-01-17 06:56:20.66	338.91	2.69	-54.3	-63.2	3.8	7.45e-01	0	34	104	6782189568	79	10414
2026-01-17 06:56:21.66	338.87	2.62	-54.3	-63.2	3.8	7.45e-01	0	34	104	6782189568	79	10446
2026-01-17 06:56:22.67	338.84	2.55	-54.3	-63.1	3.8	7.46e-01	0	34	104	6782189568	79	10404
2026-01-17 06:56:23.68	338.80	2.48	-54.3	-63.1	3.8	7.45e-01	0	34	104	6782189568	79	10410
2026-01-17 06:56:24.69	338.76	2.41	-54.3	-63.2	3.8	7.44e-01	0	35	104	6782189568	79	10425
2026-01-17 06:56:25.70	338.72	2.34	-54.3	-63.1	3.8	7.45e-01	0	34	104	6782189568	79	10366
2026-01-17 06:56:26.71	338.68	2.27	-54.3	-63.1	3.8	7.46e-01	0	34	104	6782189568	79	10386
2026-01-17 06:56:27.72	338.64	2.20	-54.3	-63.1	3.8	7.46e-01	0	34	104	6782189568	79	10366
2026-01-17 06:56:28.72	338.61	2.13	-54.3	-63.1	3.8	7.45e-01	0	35	104	6782189568	79	10406
2026-01-17 06:56:29.73	338.57	2.06	-54.3	-63.1	3.8	7.44e-01	0	35	104	6782189568	79	10331
2026-01-17 06:56:30.74	338.53	1.99	-54.3	-63.1	3.8	7.45e-01	0	34	104	6782189568	79	10352

#Closed at: 2026-01-17 06:56:31
#Recorded file [6782 MB]: D:/lorett/data/31041_260117_094617.dat