passes_logs/2026/01/17/R3.2S_Murmansk/R3.2S_Murmansk__20260117_002108_AQUA_rec.log

#Pass ID: 20260117_002108_AQUA
#Satellite: AQUA
#Configuration: AQUA
#almurnet v.1.7.20251203
#Start time: 2026-01-17 00:21:10

#Version: 2.2.20231116
#Station: R3.2S_Murmansk
#Location: 33.079688 lon 68.888172 lat
#TLE: 1 27424U 02022A   26015.92015591  .00000664  00000+0  14289-3 0  9993
#TLE: 2 27424  98.4082 342.3630 0002020  77.1389  16.3168 14.61822470261023

#Time	Az	El	Level	Level2	SNR	BER	BlckErr	Temp	State	Recorded	gain1	gain2
2026-01-17 00:21:10.80	21.14	2.13	-52.6	-70.4	3.8	7.42e-01	0	32	0	0	77	27042
2026-01-17 00:21:11.81	21.22	2.19	-52.6	-70.4	3.8	7.44e-01	0	32	104	0	75	30181
2026-01-17 00:21:12.81	21.29	2.25	-52.6	-70.3	3.8	7.45e-01	0	32	104	0	75	29830
2026-01-17 00:21:13.82	21.36	2.31	-52.6	-70.1	3.8	7.51e-01	0	32	104	0	75	29232
2026-01-17 00:21:14.83	21.44	2.37	-52.6	-69.9	3.8	7.42e-01	0	33	104	0	75	28652
2026-01-17 00:21:15.84	21.51	2.43	-52.6	-70.0	3.8	7.45e-01	0	32	104	0	75	28773
2026-01-17 00:21:16.85	21.59	2.49	-52.6	-70.1	3.8	7.42e-01	0	32	104	0	75	29061
2026-01-17 00:21:17.86	21.66	2.55	-52.6	-69.8	3.8	7.47e-01	0	33	104	0	75	28156
2026-01-17 00:21:18.86	21.74	2.61	-52.6	-70.1	3.8	7.46e-01	0	33	104	0	75	29297
2026-01-17 00:21:19.87	21.81	2.67	-52.6	-70.2	3.8	7.47e-01	0	33	104	0	75	29518
2026-01-17 00:21:20.88	21.89	2.73	-52.6	-70.3	3.8	7.47e-01	0	33	104	0	75	29754
2026-01-17 00:21:21.89	21.96	2.79	-52.6	-70.3	3.8	7.45e-01	0	33	104	0	75	30003
2026-01-17 00:21:22.90	22.04	2.85	-52.6	-70.3	3.8	7.44e-01	0	33	104	0	75	29859
2026-01-17 00:21:23.91	22.12	2.91	-52.6	-70.3	3.8	7.46e-01	0	33	104	0	75	29850
2026-01-17 00:21:24.92	22.19	2.97	-52.6	-70.3	3.8	7.44e-01	0	33	104	0	75	29816
2026-01-17 00:21:25.93	22.27	3.03	-52.6	-70.3	3.8	7.47e-01	0	33	104	0	75	29984
2026-01-17 00:21:26.94	22.35	3.09	-52.6	-70.3	3.8	7.45e-01	0	33	104	0	75	29775
2026-01-17 00:21:27.94	22.43	3.15	-52.6	-70.2	3.8	7.43e-01	0	33	104	0	75	29517
2026-01-17 00:21:28.95	22.51	3.21	-52.6	-70.0	3.8	7.47e-01	0	33	104	0	75	28782
2026-01-17 00:21:29.96	22.58	3.27	-52.6	-69.8	3.8	7.48e-01	0	33	104	0	75	28034
2026-01-17 00:21:30.97	22.66	3.33	-52.5	-68.8	3.8	7.44e-01	0	33	104	0	75	25266
2026-01-17 00:21:31.97	22.74	3.40	-52.6	-69.3	3.8	7.45e-01	0	33	104	0	75	26540
2026-01-17 00:21:32.98	22.82	3.46	-52.5	-68.7	3.8	7.49e-01	0	33	104	0	75	24820
2026-01-17 00:21:33.99	22.90	3.52	-52.6	-69.1	3.8	7.44e-01	0	33	104	0	75	25901
2026-01-17 00:21:35.00	22.98	3.58	-52.6	-69.6	3.8	7.43e-01	0	33	104	0	75	27510
2026-01-17 00:21:36.01	23.06	3.64	-52.6	-69.5	3.8	7.45e-01	0	33	104	0	75	27101
2026-01-17 00:21:37.02	23.15	3.70	-52.6	-69.9	3.8	7.46e-01	0	33	104	0	75	28414
2026-01-17 00:21:38.03	23.23	3.77	-52.6	-69.7	3.8	7.46e-01	0	33	104	0	75	27717
2026-01-17 00:21:39.03	23.31	3.83	-52.5	-68.6	3.8	7.42e-01	0	33	104	0	75	24450
2026-01-17 00:21:40.04	23.39	3.89	-52.5	-67.4	4.1	7.37e-01	0	33	104	0	75	21299
2026-01-17 00:21:41.05	23.47	3.95	-52.5	-66.6	4.3	7.30e-01	0	33	104	0	75	19495
2026-01-17 00:21:42.06	23.56	4.01	-52.4	-66.0	4.5	7.25e-01	0	33	104	0	75	18172
2026-01-17 00:21:43.07	23.64	4.08	-52.4	-66.1	4.4	7.27e-01	0	33	104	0	75	18388
2026-01-17 00:21:44.08	23.72	4.14	-52.4	-65.1	4.9	7.16e-01	0	33	104	0	75	16319
2026-01-17 00:21:45.09	23.81	4.20	-52.4	-65.2	4.8	7.15e-01	0	33	104	0	75	16537
2026-01-17 00:21:46.10	23.89	4.27	-52.4	-65.7	4.4	7.20e-01	0	33	104	0	75	17525
2026-01-17 00:21:47.10	23.98	4.33	-52.5	-66.7	4.1	7.31e-01	0	33	104	0	75	19622
2026-01-17 00:21:48.11	24.06	4.39	-52.5	-66.5	4.0	7.30e-01	0	33	104	0	75	19190
2026-01-17 00:21:49.12	24.15	4.45	-52.4	-65.1	4.7	7.12e-01	0	33	104	0	75	16315
2026-01-17 00:21:50.13	24.24	4.52	-52.2	-62.6	6.5	6.72e-01	164	33	0	524288	75	12326
2026-01-17 00:21:51.14	24.32	4.58	-52.1	-61.6	7.5	6.52e-01	184	33	0	2097152	75	10919
2026-01-17 00:21:52.14	24.41	4.64	-52.0	-60.9	8.0	6.44e-01	148	33	0	4194304	75	10127
2026-01-17 00:21:53.16	24.50	4.71	-51.9	-60.3	8.8	6.36e-01	0	33	0	5767168	75	9419
2026-01-17 00:21:54.16	24.58	4.77	-51.8	-60.0	9.2	6.29e-01	0	33	0	7864320	75	9108
2026-01-17 00:21:55.17	24.67	4.84	-51.6	-58.9	10.2	6.21e-01	0	33	0	9437184	75	8072
2026-01-17 00:21:56.18	24.76	4.90	-51.7	-59.4	9.9	6.22e-01	0	33	0	11534336	75	8497
2026-01-17 00:21:57.19	24.85	4.96	-51.8	-59.9	9.3	6.29e-01	0	33	0	13631488	75	9061
2026-01-17 00:21:58.20	24.94	5.03	-51.7	-59.1	10.0	6.18e-01	0	33	0	15728640	75	8205
2026-01-17 00:21:59.21	25.03	5.09	-51.7	-59.3	10.0	6.21e-01	0	33	0	17301504	75	8429
2026-01-17 00:22:00.21	25.12	5.16	-52.0	-64.7	4.4	7.15e-01	0	34	104	18350080	75	15735
2026-01-17 00:22:01.22	25.21	5.22	-49.1	-51.9	17.7	6.04e-01	0	33	0	19398656	70	4791
2026-01-17 00:22:02.23	25.30	5.29	-47.9	-50.0	20.0	6.03e-01	0	33	0	21495808	67	4598
2026-01-17 00:22:03.24	25.39	5.35	-51.0	-55.9	13.7	6.05e-01	0	33	0	23068672	72	6783
2026-01-17 00:22:04.24	25.48	5.42	-47.8	-49.9	20.1	6.04e-01	0	33	0	25165824	67	4534
2026-01-17 00:22:05.25	25.57	5.48	-47.9	-50.2	20.0	6.04e-01	0	33	0	26738688	67	4670
2026-01-17 00:22:06.26	25.67	5.55	-47.2	-49.2	20.8	6.05e-01	0	33	0	28835840	66	4417
2026-01-17 00:22:07.27	25.76	5.61	-47.5	-49.6	20.6	6.03e-01	0	33	0	30932992	66	4618
2026-01-17 00:22:08.28	25.85	5.68	-47.1	-49.0	21.2	6.04e-01	0	33	0	32505856	66	4318
2026-01-17 00:22:09.28	25.94	5.74	-47.2	-49.2	21.0	6.01e-01	0	33	0	34603008	66	4400
2026-01-17 00:22:10.29	26.04	5.81	-47.1	-49.0	21.1	6.02e-01	0	33	0	36700160	66	4338
2026-01-17 00:22:11.30	26.13	5.87	-47.1	-49.1	21.1	6.03e-01	0	34	0	38273024	66	4344
2026-01-17 00:22:12.31	26.23	5.94	-47.0	-48.9	21.3	6.04e-01	0	33	0	40370176	66	4267
2026-01-17 00:22:13.32	26.32	6.01	-47.2	-49.2	21.0	6.02e-01	0	33	0	41943040	65	4682
2026-01-17 00:22:14.33	26.42	6.07	-46.7	-48.5	21.4	6.04e-01	0	33	0	44040192	65	4318
2026-01-17 00:22:15.34	26.52	6.14	-47.0	-48.8	21.4	6.04e-01	0	33	0	46137344	65	4488
2026-01-17 00:22:16.35	26.61	6.21	-46.9	-48.7	21.5	6.03e-01	0	33	0	47710208	65	4415
2026-01-17 00:22:17.35	26.71	6.27	-46.9	-48.7	21.5	6.02e-01	0	33	0	49807360	65	4441
2026-01-17 00:22:18.36	26.81	6.34	-46.9	-48.8	21.5	6.04e-01	0	34	0	51380224	65	4452
2026-01-17 00:22:19.37	26.91	6.41	-46.8	-48.7	21.7	6.02e-01	0	33	0	53477376	65	4395
2026-01-17 00:22:20.38	27.01	6.47	-46.7	-48.5	21.8	6.04e-01	0	34	0	55050240	65	4329
2026-01-17 00:22:21.39	27.11	6.54	-47.0	-48.8	21.5	6.03e-01	0	33	0	57147392	65	4459
2026-01-17 00:22:22.40	27.21	6.61	-46.9	-48.8	21.6	6.03e-01	0	33	0	59244544	65	4454
2026-01-17 00:22:23.41	27.31	6.68	-47.0	-48.8	21.6	6.05e-01	0	33	0	61341696	65	4462
2026-01-17 00:22:24.41	27.41	6.74	-47.2	-49.1	21.4	6.04e-01	0	33	0	62914560	65	4623
2026-01-17 00:22:25.42	27.51	6.81	-47.1	-49.0	21.5	6.03e-01	0	34	0	65011712	65	4556
2026-01-17 00:22:26.43	27.61	6.88	-46.9	-48.7	21.7	6.05e-01	0	33	0	66584576	65	4423
2026-01-17 00:22:27.44	27.71	6.95	-46.8	-48.6	21.8	6.03e-01	0	34	0	68681728	65	4363
2026-01-17 00:22:28.45	27.81	7.01	-46.7	-48.4	22.0	6.02e-01	0	34	0	70254592	65	4262
2026-01-17 00:22:29.46	27.92	7.08	-46.5	-48.1	22.2	6.04e-01	0	34	0	72351744	64	4389
2026-01-17 00:22:30.47	28.02	7.15	-46.8	-48.5	21.9	6.04e-01	0	34	0	74448896	64	4592
2026-01-17 00:22:31.48	28.13	7.22	-46.8	-48.6	21.8	6.03e-01	0	34	0	76021760	64	4634
2026-01-17 00:22:32.48	28.23	7.29	-46.5	-48.2	22.2	6.04e-01	0	33	0	78118912	64	4419
2026-01-17 00:22:33.49	28.33	7.36	-46.5	-48.2	22.2	6.03e-01	0	34	0	80216064	64	4399
2026-01-17 00:22:34.50	28.44	7.43	-46.8	-48.5	21.9	6.03e-01	0	34	0	81788928	64	4585
2026-01-17 00:22:35.51	28.55	7.49	-46.6	-48.3	22.1	6.02e-01	0	34	0	83886080	64	4478
2026-01-17 00:22:36.52	28.65	7.56	-46.5	-48.2	22.3	6.06e-01	0	33	0	85458944	64	4416
2026-01-17 00:22:37.52	28.76	7.63	-46.5	-48.2	22.2	6.04e-01	0	34	0	87556096	64	4434
2026-01-17 00:22:38.53	28.87	7.70	-46.6	-48.2	22.2	6.05e-01	0	34	0	89653248	64	4437
2026-01-17 00:22:39.54	28.98	7.77	-46.7	-48.4	22.1	6.05e-01	0	34	0	91226112	64	4513
2026-01-17 00:22:40.55	29.09	7.84	-46.7	-48.4	22.1	6.02e-01	0	34	0	93323264	64	4534
2026-01-17 00:22:41.56	29.19	7.91	-46.8	-48.5	21.9	6.03e-01	0	33	0	94896128	64	4589
2026-01-17 00:22:42.57	29.30	7.98	-46.9	-48.7	22.0	6.01e-01	0	34	0	96993280	64	4654
2026-01-17 00:22:43.58	29.42	8.05	-46.5	-48.2	22.3	6.05e-01	0	34	0	98566144	64	4419
2026-01-17 00:22:44.58	29.53	8.12	-46.3	-48.0	22.5	6.01e-01	0	34	0	100663296	64	4303
2026-01-17 00:22:45.59	29.64	8.19	-46.4	-48.0	22.5	6.05e-01	0	34	0	102760448	64	4317
2026-01-17 00:22:46.60	29.75	8.26	-46.3	-47.9	22.6	6.02e-01	0	34	0	104857600	64	4277
2026-01-17 00:22:47.61	29.86	8.33	-46.4	-48.1	22.4	6.04e-01	0	34	0	106430464	64	4367
2026-01-17 00:22:48.62	29.98	8.40	-46.6	-48.2	22.3	6.03e-01	0	34	0	108527616	64	4440
2026-01-17 00:22:49.63	30.09	8.47	-46.5	-48.1	22.4	6.04e-01	0	34	0	110100480	64	4370
2026-01-17 00:22:50.64	30.20	8.54	-46.5	-48.2	22.3	6.05e-01	0	34	0	112197632	64	4423
2026-01-17 00:22:51.64	30.32	8.62	-46.5	-48.1	22.4	6.02e-01	0	34	0	113770496	64	4380
2026-01-17 00:22:52.65	30.43	8.69	-46.2	-47.8	22.8	6.02e-01	0	34	0	115867648	64	4213
2026-01-17 00:22:53.66	30.55	8.76	-46.2	-47.8	22.7	6.03e-01	0	33	0	117964800	64	4229
2026-01-17 00:22:54.67	30.67	8.83	-46.1	-47.7	22.9	6.03e-01	0	33	0	119537664	64	4162
2026-01-17 00:22:55.68	30.79	8.90	-46.3	-47.9	22.7	6.04e-01	0	34	0	121634816	64	4265
2026-01-17 00:22:56.69	30.90	8.97	-46.3	-47.9	22.7	6.05e-01	0	34	0	123207680	64	4247
2026-01-17 00:22:57.70	31.02	9.05	-46.2	-47.8	22.8	6.05e-01	0	34	0	125304832	64	4216
2026-01-17 00:22:58.71	31.14	9.12	-46.3	-47.9	22.7	6.02e-01	0	34	0	127401984	64	4260
2026-01-17 00:22:59.72	31.26	9.19	-46.2	-47.8	22.9	6.04e-01	0	34	0	128974848	63	4444
2026-01-17 00:23:00.72	31.38	9.26	-46.3	-47.9	22.8	6.04e-01	0	34	0	131072000	63	4523
2026-01-17 00:23:01.73	31.50	9.33	-46.0	-47.6	23.1	6.04e-01	0	34	0	133169152	63	4350
2026-01-17 00:23:02.74	31.62	9.41	-46.3	-47.9	22.8	6.03e-01	0	34	0	134742016	63	4502
2026-01-17 00:23:03.75	31.75	9.48	-46.0	-47.5	23.2	6.04e-01	0	34	0	136839168	63	4313
2026-01-17 00:23:04.76	31.87	9.55	-46.1	-47.6	23.1	6.04e-01	0	34	0	138412032	63	4385
2026-01-17 00:23:05.76	31.99	9.63	-46.1	-47.6	23.1	6.02e-01	0	34	0	140509184	63	4367
2026-01-17 00:23:06.77	32.12	9.70	-46.1	-47.6	23.1	6.03e-01	0	34	0	142082048	63	4384
2026-01-17 00:23:07.78	32.24	9.77	-46.0	-47.6	23.1	6.06e-01	0	34	0	144179200	63	4345
2026-01-17 00:23:08.79	32.37	9.85	-46.1	-47.6	23.1	6.05e-01	0	34	0	146276352	63	4377
2026-01-17 00:23:09.80	32.49	9.92	-46.1	-47.6	23.1	6.05e-01	0	34	0	147849216	63	4388
2026-01-17 00:23:10.80	32.62	9.99	-46.0	-47.5	23.2	6.01e-01	0	34	0	149946368	63	4314
2026-01-17 00:23:11.81	32.75	10.07	-46.1	-47.7	23.0	6.05e-01	0	34	0	152043520	63	4398
2026-01-17 00:23:12.82	32.88	10.14	-45.9	-47.4	23.3	6.04e-01	0	34	0	153616384	63	4276
2026-01-17 00:23:13.83	33.00	10.21	-46.0	-47.5	23.2	6.02e-01	0	34	0	155713536	63	4333
2026-01-17 00:23:14.83	33.13	10.29	-46.1	-47.6	23.1	6.03e-01	0	34	0	157286400	63	4373
2026-01-17 00:23:15.84	33.26	10.36	-46.1	-47.6	23.1	6.02e-01	0	34	0	159383552	63	4368
2026-01-17 00:23:16.85	33.39	10.44	-46.1	-47.6	23.1	6.03e-01	0	34	0	161480704	63	4377
2026-01-17 00:23:17.86	33.53	10.51	-46.2	-47.7	23.0	6.02e-01	0	34	0	163053568	63	4438
2026-01-17 00:23:18.86	33.66	10.59	-46.0	-47.5	23.3	6.03e-01	0	34	0	165150720	63	4302
2026-01-17 00:23:19.87	33.79	10.66	-46.0	-47.6	23.2	6.05e-01	0	34	0	166723584	63	4348
2026-01-17 00:23:20.88	33.92	10.74	-46.1	-47.6	23.2	6.03e-01	0	34	0	168820736	63	4370
2026-01-17 00:23:21.89	34.06	10.81	-45.9	-47.4	23.4	6.03e-01	0	33	0	170393600	63	4263
2026-01-17 00:23:22.90	34.19	10.89	-45.9	-47.4	23.4	6.05e-01	0	34	0	172490752	63	4249
2026-01-17 00:23:23.91	34.33	10.96	-45.8	-47.3	23.5	6.03e-01	0	34	0	174587904	63	4222
2026-01-17 00:23:24.91	34.47	11.04	-45.9	-47.3	23.4	6.02e-01	0	34	0	176160768	63	4239
2026-01-17 00:23:25.92	34.60	11.11	-45.8	-47.2	23.6	6.02e-01	0	34	0	178257920	63	4193
2026-01-17 00:23:26.93	34.74	11.19	-45.7	-47.2	23.6	6.03e-01	0	34	0	180355072	63	4158
2026-01-17 00:23:27.94	34.88	11.26	-45.8	-47.2	23.6	6.03e-01	0	34	0	181927936	63	4173
2026-01-17 00:23:28.94	35.02	11.34	-45.8	-47.2	23.6	6.04e-01	0	34	0	184025088	63	4177
2026-01-17 00:23:29.95	35.16	11.41	-45.7	-47.1	23.6	6.03e-01	0	34	0	185597952	63	4145
2026-01-17 00:23:30.96	35.30	11.49	-45.7	-47.1	23.7	6.03e-01	0	33	0	187695104	63	4139
2026-01-17 00:23:31.97	35.44	11.57	-45.7	-47.1	23.7	6.01e-01	0	34	0	189792256	63	4145
2026-01-17 00:23:32.98	35.59	11.64	-45.8	-47.2	23.7	6.05e-01	0	34	0	191365120	63	4170
2026-01-17 00:23:33.98	35.73	11.72	-45.7	-47.1	23.4	6.05e-01	0	34	0	193462272	63	4127
2026-01-17 00:23:34.99	35.87	11.80	-45.7	-47.1	23.7	6.05e-01	0	34	0	195559424	63	4124
2026-01-17 00:23:36.00	36.02	11.87	-45.7	-47.1	23.7	6.05e-01	0	34	0	197132288	63	4128
2026-01-17 00:23:37.01	36.16	11.95	-45.7	-47.2	23.6	6.03e-01	0	34	0	199229440	63	4151
2026-01-17 00:23:38.02	36.31	12.03	-45.7	-47.1	23.7	6.04e-01	0	34	0	200802304	63	4123
2026-01-17 00:23:39.03	36.46	12.10	-45.6	-47.0	23.8	6.02e-01	0	34	0	202899456	63	4090
2026-01-17 00:23:40.04	36.61	12.18	-45.6	-47.0	23.7	6.03e-01	0	34	0	204472320	63	4097
2026-01-17 00:23:41.04	36.75	12.26	-45.6	-47.0	23.8	6.02e-01	0	34	0	206569472	63	4079
2026-01-17 00:23:42.05	36.90	12.34	-45.6	-47.0	23.8	6.02e-01	0	34	0	208666624	63	4070
2026-01-17 00:23:43.06	37.05	12.41	-45.5	-46.9	23.9	6.04e-01	0	34	0	210239488	62	4272
2026-01-17 00:23:44.07	37.21	12.49	-45.6	-47.0	23.9	6.02e-01	0	34	0	212336640	62	4307
2026-01-17 00:23:45.08	37.36	12.57	-45.6	-47.1	23.8	6.03e-01	0	34	0	213909504	62	4344
2026-01-17 00:23:46.08	37.51	12.65	-45.6	-47.0	23.8	6.02e-01	0	34	0	216006656	62	4315
2026-01-17 00:23:47.09	37.66	12.72	-45.6	-47.0	23.8	6.04e-01	0	34	0	218103808	62	4307
2026-01-17 00:23:48.10	37.82	12.80	-45.4	-46.8	24.1	6.02e-01	0	34	0	219676672	62	4204
2026-01-17 00:23:49.11	37.97	12.88	-45.3	-46.7	24.1	6.03e-01	0	34	0	221773824	62	4173
2026-01-17 00:23:50.12	38.13	12.96	-45.5	-46.9	24.0	6.03e-01	0	34	0	223870976	62	4256
2026-01-17 00:23:51.13	38.29	13.04	-45.5	-46.9	23.9	6.02e-01	0	34	0	225443840	62	4268
2026-01-17 00:23:52.14	38.45	13.12	-45.5	-46.9	23.9	6.05e-01	0	34	0	227540992	62	4279
2026-01-17 00:23:53.14	38.60	13.19	-45.4	-46.8	24.0	6.04e-01	0	34	0	229113856	62	4215
2026-01-17 00:23:54.15	38.76	13.27	-45.2	-46.6	24.2	6.04e-01	0	34	0	231211008	62	4125
2026-01-17 00:23:55.16	38.93	13.35	-45.4	-46.8	24.1	6.00e-01	0	34	0	232783872	62	4218
2026-01-17 00:23:56.17	39.09	13.43	-45.3	-46.7	24.2	6.04e-01	0	34	0	234881024	62	4154
2026-01-17 00:23:57.18	39.25	13.51	-45.3	-46.7	24.2	6.03e-01	0	34	0	236978176	62	4173
2026-01-17 00:23:58.18	39.41	13.59	-45.2	-46.6	24.3	6.03e-01	0	34	0	238551040	62	4110
2026-01-17 00:23:59.19	39.58	13.67	-45.1	-46.5	24.4	6.05e-01	0	34	0	240648192	62	4062
2026-01-17 00:24:00.20	39.74	13.75	-45.2	-46.5	24.3	6.05e-01	0	34	0	242745344	62	4097
2026-01-17 00:24:01.21	39.91	13.83	-45.2	-46.6	24.3	6.04e-01	0	34	0	244318208	62	4103
2026-01-17 00:24:02.22	40.08	13.91	-45.1	-46.5	24.4	6.03e-01	0	34	0	246415360	62	4052
2026-01-17 00:24:03.23	40.25	13.99	-45.2	-46.6	24.3	6.03e-01	0	34	0	247988224	62	4117
2026-01-17 00:24:04.24	40.41	14.06	-45.1	-46.5	24.4	6.03e-01	0	34	0	250085376	62	4072
2026-01-17 00:24:05.25	40.58	14.14	-45.2	-46.6	24.3	6.05e-01	0	34	0	252182528	62	4100
2026-01-17 00:24:06.26	40.76	14.22	-45.2	-46.5	24.4	6.03e-01	0	34	0	253755392	62	4083
2026-01-17 00:24:07.26	40.93	14.30	-45.2	-46.5	24.4	6.03e-01	0	34	0	255852544	62	4080
2026-01-17 00:24:08.27	41.10	14.38	-45.1	-46.5	24.4	6.01e-01	0	34	0	257425408	62	4067
2026-01-17 00:24:09.28	41.27	14.46	-45.1	-46.4	24.5	6.02e-01	0	34	0	259522560	62	4041
2026-01-17 00:24:10.29	41.45	14.54	-45.1	-46.4	24.5	6.05e-01	0	34	0	261095424	62	4030
2026-01-17 00:24:11.30	41.62	14.62	-45.2	-46.5	24.4	6.05e-01	0	34	0	263192576	62	4091
2026-01-17 00:24:12.31	41.80	14.70	-45.2	-46.5	24.4	6.01e-01	0	34	0	265289728	62	4079
2026-01-17 00:24:13.31	41.98	14.78	-45.2	-46.5	24.4	6.03e-01	0	34	0	267386880	62	4081
2026-01-17 00:24:14.32	42.16	14.86	-45.3	-46.6	24.3	6.01e-01	0	34	0	268959744	62	4141
2026-01-17 00:24:15.33	42.34	14.94	-45.2	-46.6	24.4	6.04e-01	0	34	0	271056896	62	4100
2026-01-17 00:24:16.34	42.52	15.02	-45.2	-46.6	24.4	6.03e-01	0	34	0	272629760	62	4101
2026-01-17 00:24:17.34	42.70	15.10	-45.3	-46.6	24.3	6.01e-01	0	34	0	274726912	62	4139
2026-01-17 00:24:18.35	42.88	15.18	-45.3	-46.7	24.2	6.04e-01	0	34	0	276299776	62	4159
2026-01-17 00:24:19.36	43.07	15.26	-45.3	-46.6	24.3	6.04e-01	0	33	0	278396928	62	4127
2026-01-17 00:24:20.37	43.25	15.34	-45.2	-46.5	24.5	6.04e-01	0	34	0	280494080	62	4081
2026-01-17 00:24:21.38	43.44	15.42	-45.2	-46.5	24.5	6.02e-01	0	34	0	282066944	62	4084
2026-01-17 00:24:22.39	43.62	15.50	-45.3	-46.6	23.8	6.04e-01	0	34	0	284164096	62	4125
2026-01-17 00:24:23.39	43.81	15.58	-45.0	-46.4	24.6	6.03e-01	0	34	0	286261248	62	4010
2026-01-17 00:24:24.40	44.00	15.67	-45.2	-46.5	24.5	6.04e-01	0	34	0	287834112	62	4084
2026-01-17 00:24:25.41	44.19	15.75	-45.2	-46.5	24.5	6.04e-01	0	34	0	289931264	62	4073
2026-01-17 00:24:26.41	44.38	15.83	-45.2	-46.6	24.4	6.02e-01	0	34	0	291504128	62	4119
2026-01-17 00:24:27.42	44.57	15.91	-45.1	-46.5	24.5	6.00e-01	0	34	0	293601280	62	4061
2026-01-17 00:24:28.43	44.77	15.99	-45.2	-46.6	24.4	6.03e-01	0	34	0	295698432	62	4101
2026-01-17 00:24:29.44	44.96	16.07	-45.0	-46.3	24.7	6.04e-01	0	34	0	297271296	62	3984
2026-01-17 00:24:30.45	45.16	16.15	-45.0	-46.3	24.7	6.02e-01	0	34	0	299368448	61	4220
2026-01-17 00:24:31.46	45.35	16.23	-45.1	-46.4	24.6	6.03e-01	0	34	0	300941312	61	4267
2026-01-17 00:24:32.46	45.55	16.31	-45.0	-46.3	24.6	6.04e-01	0	34	0	303038464	61	4240
2026-01-17 00:24:33.47	45.75	16.39	-44.9	-46.2	24.7	6.02e-01	0	34	0	304611328	61	4171
2026-01-17 00:24:34.48	45.95	16.47	-44.9	-46.2	24.7	6.03e-01	0	34	0	306708480	61	4177
2026-01-17 00:24:35.49	46.15	16.55	-45.0	-46.3	24.7	6.05e-01	0	34	0	308805632	61	4209
2026-01-17 00:24:36.50	46.35	16.63	-44.9	-46.2	24.8	6.01e-01	0	34	0	310902784	61	4161
2026-01-17 00:24:37.51	46.55	16.71	-44.9	-46.2	24.8	6.03e-01	0	34	0	312475648	61	4180
2026-01-17 00:24:38.52	46.76	16.79	-44.9	-46.2	24.8	6.04e-01	0	34	0	314572800	61	4164
2026-01-17 00:24:39.53	46.97	16.87	-44.8	-46.1	24.9	6.03e-01	0	34	0	316145664	61	4135
2026-01-17 00:24:40.54	47.17	16.95	-44.9	-46.2	24.8	6.04e-01	0	34	0	318242816	61	4183
2026-01-17 00:24:41.54	47.38	17.03	-45.0	-46.3	24.8	6.02e-01	0	34	0	319815680	61	4200
2026-01-17 00:24:42.55	47.59	17.11	-44.9	-46.2	24.8	6.01e-01	0	34	0	321912832	61	4169
2026-01-17 00:24:43.56	47.80	17.19	-45.0	-46.3	24.7	6.02e-01	0	34	0	324009984	61	4232
2026-01-17 00:24:44.57	48.01	17.27	-44.9	-46.2	24.8	6.02e-01	0	34	0	325582848	61	4175
2026-01-17 00:24:45.57	48.22	17.35	-44.9	-46.2	24.8	6.04e-01	0	34	0	327680000	61	4169
2026-01-17 00:24:46.58	48.43	17.43	-44.9	-46.2	24.8	6.03e-01	0	34	0	329252864	61	4151
2026-01-17 00:24:47.59	48.65	17.51	-44.9	-46.2	24.8	6.04e-01	0	34	0	331350016	61	4178
2026-01-17 00:24:48.60	48.86	17.59	-44.9	-46.2	24.8	6.03e-01	0	34	0	333447168	61	4179
2026-01-17 00:24:49.61	49.08	17.67	-45.1	-46.4	24.7	6.03e-01	0	34	0	335020032	61	4252
2026-01-17 00:24:50.62	49.30	17.75	-45.0	-46.3	24.7	6.03e-01	0	34	0	337117184	61	4227
2026-01-17 00:24:51.62	49.52	17.83	-44.9	-46.2	24.8	6.04e-01	0	34	0	339214336	61	4183
2026-01-17 00:24:52.63	49.74	17.91	-45.0	-46.3	24.8	6.03e-01	0	34	0	340787200	61	4202
2026-01-17 00:24:53.64	49.96	17.99	-45.0	-46.3	24.7	6.05e-01	0	34	0	342884352	61	4231
2026-01-17 00:24:54.65	50.18	18.07	-44.9	-46.2	24.9	6.03e-01	0	34	0	344457216	61	4155
2026-01-17 00:24:55.66	50.41	18.15	-44.9	-46.2	24.8	6.05e-01	0	34	0	346554368	61	4153
2026-01-17 00:24:56.67	50.64	18.23	-44.9	-46.2	24.9	6.05e-01	0	34	0	348127232	61	4146
2026-01-17 00:24:57.68	50.86	18.30	-44.9	-46.2	24.8	6.02e-01	0	34	0	350224384	61	4181
2026-01-17 00:24:58.68	51.09	18.38	-44.9	-46.2	24.8	6.03e-01	0	34	0	352321536	61	4189
2026-01-17 00:24:59.69	51.32	18.46	-44.9	-46.2	24.8	6.03e-01	0	34	0	354418688	61	4181
2026-01-17 00:25:00.70	51.55	18.54	-44.9	-46.2	24.8	6.02e-01	0	34	0	355991552	61	4177
2026-01-17 00:25:01.71	51.78	18.62	-44.9	-46.2	24.8	6.02e-01	0	34	0	358088704	61	4148
2026-01-17 00:25:02.72	52.01	18.69	-45.0	-46.3	24.8	6.05e-01	0	34	0	359661568	61	4220
2026-01-17 00:25:03.73	52.25	18.77	-45.1	-46.4	24.6	6.03e-01	0	34	0	361758720	61	4267
2026-01-17 00:25:04.74	52.48	18.85	-44.9	-46.2	24.8	6.04e-01	0	34	0	363331584	61	4174
2026-01-17 00:25:05.75	52.72	18.93	-44.9	-46.2	24.8	6.03e-01	0	34	0	365428736	61	4186
2026-01-17 00:25:06.76	52.96	19.01	-45.0	-46.3	24.8	6.04e-01	0	34	0	367525888	61	4198
2026-01-17 00:25:07.76	53.20	19.08	-44.8	-46.1	24.9	6.04e-01	0	34	0	369098752	61	4132
2026-01-17 00:25:08.77	53.44	19.16	-44.9	-46.2	24.9	6.02e-01	0	34	0	371195904	61	4180
2026-01-17 00:25:09.78	53.68	19.24	-45.0	-46.3	24.7	6.01e-01	0	34	0	372768768	61	4204
2026-01-17 00:25:10.79	53.92	19.31	-44.9	-46.2	24.8	6.02e-01	0	34	0	374865920	61	4191
2026-01-17 00:25:11.80	54.17	19.39	-45.0	-46.3	24.8	6.03e-01	0	34	0	376963072	61	4201
2026-01-17 00:25:12.81	54.41	19.46	-45.1	-46.4	24.5	6.04e-01	0	34	0	378535936	61	4286
2026-01-17 00:25:13.81	54.66	19.54	-45.3	-46.6	24.4	6.02e-01	0	34	0	380633088	61	4390
2026-01-17 00:25:14.82	54.90	19.61	-45.2	-46.5	24.5	6.03e-01	0	34	0	382730240	61	4318
2026-01-17 00:25:15.83	55.15	19.69	-45.2	-46.5	24.5	6.03e-01	0	34	0	384303104	61	4326
2026-01-17 00:25:16.84	55.40	19.77	-45.0	-46.3	24.7	6.04e-01	0	34	0	386400256	61	4226
2026-01-17 00:25:17.85	55.66	19.84	-45.0	-46.3	24.8	6.05e-01	0	34	0	387973120	61	4235
2026-01-17 00:25:18.86	55.91	19.91	-45.0	-46.3	24.8	6.01e-01	0	34	0	390070272	61	4201
2026-01-17 00:25:19.87	56.16	19.99	-45.1	-46.4	24.7	6.02e-01	0	34	0	391643136	61	4270
2026-01-17 00:25:20.88	56.42	20.06	-45.0	-46.3	24.8	6.04e-01	0	34	0	393740288	61	4208
2026-01-17 00:25:21.89	56.68	20.14	-45.1	-46.4	24.7	6.03e-01	0	34	0	395837440	61	4287
2026-01-17 00:25:22.89	56.93	20.21	-45.2	-46.5	24.7	6.04e-01	0	34	0	397410304	61	4297
2026-01-17 00:25:23.90	57.19	20.28	-45.0	-46.3	24.8	6.03e-01	0	34	0	399507456	61	4206
2026-01-17 00:25:24.91	57.45	20.35	-45.0	-46.3	24.8	6.03e-01	0	34	0	401604608	61	4210
2026-01-17 00:25:25.92	57.72	20.43	-45.0	-46.4	24.8	6.01e-01	0	34	0	403177472	61	4243
2026-01-17 00:25:26.93	57.98	20.50	-45.1	-46.4	24.7	6.02e-01	0	34	0	405274624	61	4287
2026-01-17 00:25:27.94	58.24	20.57	-45.0	-46.3	24.8	6.04e-01	0	34	0	406847488	61	4231
2026-01-17 00:25:28.94	58.51	20.64	-45.1	-46.4	24.7	6.03e-01	0	34	0	408944640	61	4263
2026-01-17 00:25:29.95	58.77	20.71	-45.2	-46.5	24.6	6.01e-01	0	34	0	411041792	61	4311
2026-01-17 00:25:30.96	59.04	20.78	-45.1	-46.4	24.7	6.02e-01	0	34	0	412614656	61	4290
2026-01-17 00:25:31.97	59.31	20.85	-45.1	-46.4	24.7	6.03e-01	0	34	0	414711808	61	4285
2026-01-17 00:25:32.98	59.58	20.92	-45.1	-46.5	24.6	6.03e-01	0	34	0	416284672	61	4298
2026-01-17 00:25:33.98	59.85	20.99	-45.1	-46.4	24.6	6.05e-01	0	34	0	418381824	61	4287
2026-01-17 00:25:34.99	60.13	21.06	-45.0	-46.3	24.8	6.02e-01	0	34	0	420478976	61	4207
2026-01-17 00:25:36.00	60.40	21.13	-45.1	-46.4	24.6	6.03e-01	0	34	0	422051840	61	4286
2026-01-17 00:25:37.01	60.68	21.20	-45.1	-46.4	24.8	6.02e-01	0	34	0	424148992	61	4255
2026-01-17 00:25:38.02	60.96	21.26	-45.1	-46.4	24.7	6.03e-01	0	34	0	425721856	61	4279
2026-01-17 00:25:39.03	61.23	21.33	-45.2	-46.5	24.7	6.03e-01	0	34	0	427819008	61	4299
2026-01-17 00:25:40.03	61.51	21.40	-45.2	-46.5	24.6	6.04e-01	0	34	0	429916160	61	4314
2026-01-17 00:25:41.04	61.79	21.46	-45.2	-46.5	24.7	6.01e-01	0	34	0	431489024	61	4303
2026-01-17 00:25:42.05	62.07	21.53	-45.1	-46.4	24.7	6.03e-01	0	34	0	433586176	61	4244
2026-01-17 00:25:43.06	62.36	21.59	-45.2	-46.5	24.6	6.02e-01	0	34	0	435159040	61	4320
2026-01-17 00:25:44.07	62.64	21.66	-45.3	-46.6	24.5	6.03e-01	0	34	0	437256192	61	4360
2026-01-17 00:25:45.08	62.93	21.72	-45.2	-46.5	24.5	6.02e-01	0	34	0	439353344	61	4335
2026-01-17 00:25:46.08	63.21	21.79	-45.1	-46.5	24.6	6.05e-01	0	34	0	440926208	61	4294
2026-01-17 00:25:47.09	63.50	21.85	-45.3	-46.6	24.4	6.02e-01	0	34	0	443023360	61	4365
2026-01-17 00:25:48.10	63.79	21.91	-45.3	-46.7	24.4	6.01e-01	0	34	0	445120512	61	4401
2026-01-17 00:25:49.11	64.08	21.97	-45.2	-46.5	24.6	6.03e-01	0	34	0	446693376	61	4325
2026-01-17 00:25:50.12	64.37	22.04	-45.1	-46.4	24.5	6.01e-01	0	34	0	448790528	61	4287
2026-01-17 00:25:51.12	64.66	22.10	-45.2	-46.6	24.3	6.01e-01	0	34	0	450363392	61	4345
2026-01-17 00:25:52.13	64.96	22.16	-45.3	-46.6	24.3	6.04e-01	0	34	0	452460544	61	4369
2026-01-17 00:25:53.14	65.26	22.22	-45.4	-46.8	24.2	6.02e-01	0	34	0	454557696	61	4460
2026-01-17 00:25:54.15	65.55	22.28	-45.3	-46.7	24.4	6.02e-01	0	34	0	456130560	61	4405
2026-01-17 00:25:55.16	65.85	22.33	-45.4	-46.7	24.4	6.03e-01	0	34	0	458227712	61	4429
2026-01-17 00:25:56.16	66.15	22.39	-45.3	-46.6	24.6	6.03e-01	0	34	0	459800576	61	4353
2026-01-17 00:25:57.17	66.45	22.45	-45.4	-46.7	24.4	6.04e-01	0	34	0	461897728	61	4437
2026-01-17 00:25:58.18	66.75	22.51	-45.4	-46.7	24.1	6.02e-01	0	34	0	463470592	61	4424
2026-01-17 00:25:59.19	67.05	22.56	-45.4	-46.7	24.5	6.03e-01	0	34	0	465567744	61	4425
2026-01-17 00:26:00.20	67.35	22.62	-45.6	-46.9	24.3	6.02e-01	0	34	0	467664896	61	4541
2026-01-17 00:26:01.20	67.66	22.67	-45.4	-46.7	24.4	6.00e-01	0	34	0	469237760	61	4422
2026-01-17 00:26:02.21	67.96	22.73	-45.3	-46.7	24.5	6.02e-01	0	34	0	471334912	61	4409
2026-01-17 00:26:03.22	68.27	22.78	-45.3	-46.7	24.5	6.02e-01	0	34	0	473432064	61	4403
2026-01-17 00:26:04.23	68.58	22.83	-45.3	-46.7	24.5	6.05e-01	0	34	0	475004928	61	4401
2026-01-17 00:26:05.24	68.89	22.88	-45.3	-46.6	24.5	6.06e-01	0	34	0	477102080	61	4373
2026-01-17 00:26:06.24	69.19	22.94	-45.4	-46.7	24.5	6.03e-01	0	34	0	478674944	61	4415
2026-01-17 00:26:07.25	69.50	22.99	-45.5	-46.8	24.3	6.02e-01	0	34	0	480772096	61	4492
2026-01-17 00:26:08.26	69.82	23.04	-45.3	-46.7	24.5	6.02e-01	0	34	0	482869248	61	4404
2026-01-17 00:26:09.27	70.13	23.08	-45.4	-46.8	24.3	6.01e-01	0	34	0	484442112	61	4466
2026-01-17 00:26:10.28	70.44	23.13	-45.4	-46.8	24.2	6.03e-01	0	34	0	486539264	61	4464
2026-01-17 00:26:11.28	70.76	23.18	-45.4	-46.8	24.3	6.04e-01	0	34	0	488112128	61	4460
2026-01-17 00:26:12.29	71.07	23.23	-45.5	-46.8	24.2	6.04e-01	0	34	0	490209280	61	4464
2026-01-17 00:26:13.30	71.39	23.27	-45.5	-46.9	24.3	6.05e-01	0	34	0	492306432	61	4517
2026-01-17 00:26:14.31	71.71	23.32	-45.5	-46.8	24.1	6.02e-01	0	34	0	493879296	61	4484
2026-01-17 00:26:15.32	72.03	23.36	-45.5	-46.9	23.8	6.03e-01	0	34	0	495976448	61	4523
2026-01-17 00:26:16.32	72.35	23.41	-45.6	-47.0	23.8	6.02e-01	0	34	0	497549312	61	4580
2026-01-17 00:26:17.33	72.67	23.45	-45.5	-47.0	23.6	6.02e-01	0	34	0	499646464	61	4561
2026-01-17 00:26:18.34	72.99	23.49	-45.4	-46.9	23.6	6.00e-01	0	34	0	501743616	61	4494
2026-01-17 00:26:19.35	73.31	23.53	-45.5	-46.9	24.1	6.04e-01	0	34	0	503316480	61	4507
2026-01-17 00:26:20.36	73.63	23.57	-45.2	-46.6	24.5	6.04e-01	0	34	0	505413632	61	4348
2026-01-17 00:26:21.36	73.96	23.61	-45.3	-46.6	24.6	6.05e-01	0	34	0	506986496	61	4355
2026-01-17 00:26:22.37	74.28	23.65	-45.4	-46.7	24.5	6.01e-01	0	34	0	509083648	61	4440
2026-01-17 00:26:23.38	74.61	23.69	-45.4	-46.8	24.4	6.04e-01	0	34	0	511180800	61	4447
2026-01-17 00:26:24.39	74.93	23.73	-45.4	-46.8	24.2	6.04e-01	0	34	0	512753664	61	4468
2026-01-17 00:26:25.40	75.26	23.76	-45.4	-46.8	24.4	6.03e-01	0	34	0	514850816	61	4453
2026-01-17 00:26:26.40	75.59	23.80	-45.5	-46.9	24.1	6.03e-01	0	34	0	516947968	61	4527
2026-01-17 00:26:27.41	75.92	23.83	-45.6	-47.0	24.2	6.03e-01	0	34	0	518520832	61	4558
2026-01-17 00:26:28.42	76.25	23.87	-45.4	-46.7	24.4	6.05e-01	0	34	0	520617984	61	4432
2026-01-17 00:26:29.43	76.58	23.90	-45.5	-46.9	24.3	6.04e-01	0	34	0	522190848	61	4515
2026-01-17 00:26:30.44	76.91	23.93	-45.5	-46.9	24.1	6.04e-01	0	34	0	524288000	61	4514
2026-01-17 00:26:31.45	77.24	23.96	-45.6	-46.9	24.2	6.04e-01	0	34	0	525860864	61	4539
2026-01-17 00:26:32.46	77.58	23.99	-45.5	-46.9	24.3	6.03e-01	0	34	0	527958016	61	4520
2026-01-17 00:26:33.46	77.91	24.02	-45.2	-46.5	24.5	6.02e-01	0	34	0	530055168	61	4327
2026-01-17 00:26:34.47	78.24	24.05	-45.2	-46.5	24.6	6.01e-01	0	34	0	531628032	61	4324
2026-01-17 00:26:35.48	78.58	24.08	-45.4	-46.8	24.3	6.04e-01	0	34	0	533725184	61	4457
2026-01-17 00:26:36.49	78.91	24.10	-45.5	-46.8	24.3	6.04e-01	0	34	0	535822336	61	4491
2026-01-17 00:26:37.50	79.25	24.13	-45.4	-46.8	24.4	6.03e-01	0	34	0	537395200	61	4454
2026-01-17 00:26:38.51	79.58	24.15	-45.3	-46.6	24.6	6.03e-01	0	34	0	539492352	61	4359
2026-01-17 00:26:39.52	79.92	24.18	-45.3	-46.6	24.6	6.05e-01	0	34	0	541065216	61	4354
2026-01-17 00:26:40.53	80.26	24.20	-45.3	-46.6	24.6	6.03e-01	0	34	0	543162368	61	4364
2026-01-17 00:26:41.54	80.60	24.22	-45.4	-46.7	24.5	6.02e-01	0	34	0	545259520	61	4410
2026-01-17 00:26:42.54	80.93	24.24	-45.3	-46.7	24.5	6.03e-01	0	34	0	546832384	61	4401
2026-01-17 00:26:43.55	81.27	24.26	-45.3	-46.7	24.5	6.03e-01	0	34	0	548929536	61	4402
2026-01-17 00:26:44.56	81.61	24.28	-45.2	-46.6	24.6	6.07e-01	0	34	0	550502400	61	4342
2026-01-17 00:26:45.57	81.95	24.30	-45.2	-46.5	24.4	6.03e-01	0	34	0	552599552	61	4332
2026-01-17 00:26:46.58	82.29	24.31	-45.3	-46.6	24.4	6.03e-01	0	34	0	554172416	61	4371
2026-01-17 00:26:47.59	82.63	24.33	-45.3	-46.7	24.5	6.05e-01	0	34	0	556269568	61	4400
2026-01-17 00:26:48.60	82.97	24.34	-45.3	-46.6	24.6	6.02e-01	0	34	0	558366720	61	4364
2026-01-17 00:26:49.61	83.31	24.36	-45.3	-46.6	24.5	6.02e-01	0	34	0	560463872	61	4350
2026-01-17 00:26:50.61	83.65	24.37	-45.2	-46.5	24.6	6.02e-01	0	34	0	562036736	61	4318
2026-01-17 00:26:51.62	83.99	24.38	-45.3	-46.6	24.5	6.02e-01	0	34	0	564133888	61	4372
2026-01-17 00:26:52.63	84.33	24.39	-45.2	-46.5	24.6	6.02e-01	0	34	0	565706752	61	4333
2026-01-17 00:26:53.64	84.68	24.40	-45.3	-46.6	24.6	6.03e-01	0	34	0	567803904	61	4386
2026-01-17 00:26:54.65	85.02	24.41	-45.3	-46.7	24.6	6.02e-01	0	34	0	569376768	61	4398
2026-01-17 00:26:55.66	85.36	24.42	-45.3	-46.7	24.5	6.04e-01	0	34	0	571473920	61	4392
2026-01-17 00:26:56.66	85.70	24.42	-45.3	-46.6	24.6	6.03e-01	0	34	0	573571072	61	4363
2026-01-17 00:26:57.67	86.04	24.43	-45.1	-46.4	24.8	6.03e-01	0	34	0	575143936	61	4266
2026-01-17 00:26:58.68	86.39	24.43	-45.2	-46.5	24.6	6.04e-01	0	34	0	577241088	61	4304
2026-01-17 00:26:59.69	86.73	24.44	-45.2	-46.6	24.6	6.04e-01	0	34	0	578813952	61	4342
2026-01-17 00:27:00.70	87.07	24.44	-45.1	-46.4	24.7	6.02e-01	0	34	0	580911104	61	4283
2026-01-17 00:27:01.71	87.42	24.44	-45.1	-46.4	24.8	6.05e-01	0	34	0	583008256	61	4278
2026-01-17 00:27:02.72	87.76	24.44	-45.1	-46.4	24.7	6.03e-01	0	34	0	584581120	61	4291
2026-01-17 00:27:03.73	88.10	24.44	-45.1	-46.4	24.8	6.01e-01	0	34	0	586678272	61	4257
2026-01-17 00:27:04.74	88.45	24.44	-45.1	-46.3	24.8	6.04e-01	0	34	0	588775424	61	4241
2026-01-17 00:27:05.75	88.79	24.43	-45.2	-46.5	24.7	6.01e-01	0	34	0	590348288	61	4306
2026-01-17 00:27:06.75	89.13	24.43	-45.2	-46.5	24.7	6.01e-01	0	34	0	592445440	61	4303
2026-01-17 00:27:07.76	89.47	24.43	-45.3	-46.6	24.6	6.03e-01	0	34	0	594018304	61	4368
2026-01-17 00:27:08.77	89.82	24.42	-45.2	-46.5	24.6	6.03e-01	0	34	0	596115456	61	4333
2026-01-17 00:27:09.78	90.16	24.41	-45.2	-46.5	24.7	6.04e-01	0	34	0	597688320	61	4313
2026-01-17 00:27:10.79	90.50	24.40	-45.3	-46.7	24.5	6.02e-01	0	34	0	599785472	61	4393
2026-01-17 00:27:11.80	90.85	24.40	-45.4	-46.7	24.5	6.02e-01	0	34	0	601882624	61	4434
2026-01-17 00:27:12.80	91.18	24.39	-45.3	-46.6	24.6	6.01e-01	0	34	0	603979776	61	4352
2026-01-17 00:27:13.81	91.53	24.37	-45.4	-46.7	24.4	6.02e-01	0	34	0	605552640	61	4417
2026-01-17 00:27:14.82	91.87	24.36	-45.1	-46.4	24.8	6.04e-01	0	34	0	607649792	61	4250
2026-01-17 00:27:15.83	92.21	24.35	-45.0	-46.3	24.8	6.03e-01	0	33	0	609222656	61	4233
2026-01-17 00:27:16.84	92.55	24.34	-45.2	-46.5	24.7	6.03e-01	0	34	0	611319808	61	4307
2026-01-17 00:27:17.85	92.89	24.32	-45.1	-46.4	24.8	6.03e-01	0	34	0	612892672	61	4265
2026-01-17 00:27:18.86	93.23	24.30	-44.9	-46.2	25.0	6.03e-01	0	34	0	614989824	61	4146
2026-01-17 00:27:19.86	93.57	24.29	-45.0	-46.3	24.9	6.03e-01	0	34	0	617086976	61	4227
2026-01-17 00:27:20.87	93.91	24.27	-45.1	-46.4	24.8	6.04e-01	0	34	0	618659840	61	4267
2026-01-17 00:27:21.88	94.25	24.25	-45.1	-46.4	24.8	6.03e-01	0	34	0	620756992	61	4258
2026-01-17 00:27:22.89	94.59	24.23	-45.0	-46.2	24.9	6.04e-01	0	34	0	622854144	61	4185
2026-01-17 00:27:23.90	94.93	24.21	-45.0	-46.3	24.9	6.03e-01	0	34	0	624427008	61	4221
2026-01-17 00:27:24.91	95.27	24.19	-45.0	-46.3	24.9	6.04e-01	0	34	0	626524160	61	4231
2026-01-17 00:27:25.92	95.60	24.16	-45.0	-46.3	24.8	6.05e-01	0	34	0	628097024	61	4203
2026-01-17 00:27:26.93	95.94	24.14	-44.9	-46.1	25.0	6.03e-01	0	34	0	630194176	61	4135
2026-01-17 00:27:27.94	96.28	24.12	-45.0	-46.3	24.9	6.02e-01	0	34	0	632291328	61	4220
2026-01-17 00:27:28.94	96.61	24.09	-45.0	-46.3	24.8	6.04e-01	0	34	0	633864192	61	4231
2026-01-17 00:27:29.95	96.95	24.06	-45.0	-46.2	24.9	6.03e-01	0	34	0	635961344	61	4185
2026-01-17 00:27:30.96	97.28	24.04	-45.0	-46.3	24.9	6.03e-01	0	34	0	637534208	61	4204
2026-01-17 00:27:31.97	97.62	24.01	-44.9	-46.2	24.9	6.03e-01	0	34	0	639631360	61	4174
2026-01-17 00:27:32.98	97.95	23.98	-44.9	-46.2	25.0	6.03e-01	0	34	0	641204224	61	4169
2026-01-17 00:27:33.99	98.28	23.95	-45.1	-46.4	24.7	6.03e-01	0	34	0	643301376	61	4260
2026-01-17 00:27:34.99	98.61	23.92	-45.1	-46.4	24.8	6.06e-01	0	34	0	645398528	61	4248
2026-01-17 00:27:36.00	98.94	23.88	-45.0	-46.3	24.9	6.03e-01	0	34	0	647495680	61	4208
2026-01-17 00:27:37.01	99.27	23.85	-44.9	-46.2	24.9	6.05e-01	0	34	0	649068544	61	4173
2026-01-17 00:27:38.02	99.60	23.82	-45.0	-46.3	24.9	6.03e-01	0	34	0	651165696	61	4212
2026-01-17 00:27:39.02	99.93	23.78	-45.0	-46.3	24.8	6.05e-01	0	34	0	652738560	61	4205
2026-01-17 00:27:40.03	100.26	23.74	-45.0	-46.3	24.9	6.02e-01	0	34	0	654835712	61	4202
2026-01-17 00:27:41.04	100.59	23.71	-45.1	-46.3	24.8	6.05e-01	0	34	0	656408576	61	4237
2026-01-17 00:27:42.05	100.91	23.67	-45.0	-46.3	24.9	6.03e-01	0	34	0	658505728	61	4217
2026-01-17 00:27:43.06	101.24	23.63	-45.1	-46.4	24.8	6.03e-01	0	34	0	660602880	61	4257
2026-01-17 00:27:44.07	101.57	23.59	-45.0	-46.3	24.8	6.04e-01	0	34	0	662175744	61	4232
2026-01-17 00:27:45.08	101.89	23.55	-45.0	-46.2	24.9	6.04e-01	0	34	0	664272896	61	4188
2026-01-17 00:27:46.08	102.21	23.51	-44.8	-46.1	25.1	6.05e-01	0	34	0	665845760	61	4105
2026-01-17 00:27:47.09	102.54	23.47	-45.0	-46.3	24.9	6.02e-01	0	34	0	667942912	61	4217
2026-01-17 00:27:48.10	102.86	23.43	-45.0	-46.3	24.9	6.04e-01	0	34	0	670040064	61	4223
2026-01-17 00:27:49.11	103.18	23.38	-45.0	-46.2	24.9	6.03e-01	0	34	0	671612928	61	4190
2026-01-17 00:27:50.12	103.50	23.34	-45.2	-46.5	24.8	6.04e-01	0	34	0	673710080	61	4296
2026-01-17 00:27:51.13	103.82	23.29	-45.1	-46.5	24.7	6.05e-01	0	34	0	675807232	61	4294
2026-01-17 00:27:52.14	104.14	23.25	-44.9	-46.2	25.0	6.03e-01	0	34	0	677380096	61	4146
2026-01-17 00:27:53.14	104.45	23.20	-44.7	-46.0	25.1	6.03e-01	0	34	0	679477248	61	4072
2026-01-17 00:27:54.15	104.77	23.15	-44.9	-46.2	25.0	6.02e-01	0	34	0	681050112	61	4152
2026-01-17 00:27:55.16	105.08	23.11	-44.8	-46.1	25.0	6.04e-01	0	34	0	683147264	61	4128
2026-01-17 00:27:56.17	105.40	23.06	-44.9	-46.2	24.9	6.02e-01	0	34	0	684720128	61	4180
2026-01-17 00:27:57.18	105.71	23.01	-45.0	-46.2	24.9	6.02e-01	0	34	0	686817280	61	4186
2026-01-17 00:27:58.19	106.02	22.96	-45.0	-46.3	24.8	6.03e-01	0	34	0	688914432	61	4231
2026-01-17 00:27:59.20	106.34	22.90	-45.0	-46.3	24.8	6.04e-01	0	34	0	690487296	61	4195
2026-01-17 00:28:00.21	106.65	22.85	-44.7	-46.0	25.1	6.04e-01	0	34	0	692584448	61	4069
2026-01-17 00:28:01.22	106.96	22.80	-44.7	-46.0	25.1	6.02e-01	0	34	0	694681600	61	4064
2026-01-17 00:28:02.22	107.26	22.75	-44.7	-45.9	25.2	6.01e-01	0	34	0	696254464	61	4030
2026-01-17 00:28:03.23	107.57	22.69	-44.9	-46.1	25.0	6.01e-01	0	34	0	698351616	61	4138
2026-01-17 00:28:04.24	107.87	22.64	-44.9	-46.1	25.0	6.04e-01	0	34	0	699924480	61	4141
2026-01-17 00:28:05.25	108.18	22.58	-44.8	-46.1	25.1	6.02e-01	0	34	0	702021632	61	4113
2026-01-17 00:28:06.26	108.48	22.53	-44.8	-46.1	24.9	6.03e-01	0	34	0	704118784	61	4122
2026-01-17 00:28:07.27	108.79	22.47	-44.8	-46.1	25.0	6.03e-01	0	34	0	705691648	61	4102
2026-01-17 00:28:08.27	109.08	22.41	-44.8	-46.1	25.0	6.05e-01	0	34	0	707788800	61	4129
2026-01-17 00:28:09.28	109.38	22.36	-44.7	-45.9	25.2	6.02e-01	0	34	0	709361664	61	4043
2026-01-17 00:28:10.29	109.68	22.30	-44.7	-45.9	25.1	6.03e-01	0	34	0	711458816	61	4036
2026-01-17 00:28:11.30	109.98	22.24	-44.7	-46.0	25.1	6.02e-01	0	34	0	713555968	61	4060
2026-01-17 00:28:12.31	110.28	22.18	-44.8	-46.1	25.1	6.04e-01	0	34	0	715128832	61	4101
2026-01-17 00:28:13.32	110.57	22.12	-44.8	-46.1	25.1	6.02e-01	0	34	0	717225984	61	4100
2026-01-17 00:28:14.32	110.87	22.06	-44.7	-46.0	25.1	6.02e-01	0	34	0	718798848	61	4070
2026-01-17 00:28:15.33	111.16	22.00	-44.8	-46.1	25.0	6.03e-01	0	34	0	720896000	61	4131
2026-01-17 00:28:16.34	111.45	21.93	-44.9	-46.2	24.9	6.05e-01	0	34	0	722993152	61	4167
2026-01-17 00:28:17.35	111.74	21.87	-44.8	-46.1	25.0	6.03e-01	0	34	0	724566016	61	4116
2026-01-17 00:28:18.36	112.03	21.81	-44.9	-46.1	24.9	6.04e-01	0	34	0	726663168	61	4137
2026-01-17 00:28:19.37	112.32	21.74	-44.7	-46.0	25.0	6.03e-01	0	34	0	728236032	61	4065
2026-01-17 00:28:20.38	112.61	21.68	-44.6	-45.9	25.2	6.03e-01	0	34	0	730333184	61	4014
2026-01-17 00:28:21.38	112.89	21.62	-44.8	-46.0	25.1	6.04e-01	0	34	0	732430336	61	4091
2026-01-17 00:28:22.39	113.18	21.55	-44.9	-46.1	25.0	6.02e-01	0	34	0	734003200	61	4144
2026-01-17 00:28:23.40	113.46	21.48	-44.9	-46.2	24.9	6.04e-01	0	34	0	736100352	61	4160
2026-01-17 00:28:24.41	113.74	21.42	-45.0	-46.3	24.8	6.02e-01	0	34	0	738197504	61	4208
2026-01-17 00:28:25.42	114.03	21.35	-44.8	-46.1	25.0	6.03e-01	0	34	0	739770368	61	4133
2026-01-17 00:28:26.43	114.31	21.28	-44.7	-45.9	25.2	6.04e-01	0	34	0	741867520	61	4045
2026-01-17 00:28:27.44	114.58	21.22	-44.7	-45.9	25.2	6.04e-01	0	34	0	743440384	61	4050
2026-01-17 00:28:28.44	114.86	21.15	-44.7	-45.9	25.1	6.05e-01	0	34	0	745537536	61	4042
2026-01-17 00:28:29.45	115.14	21.08	-44.6	-45.9	25.2	6.04e-01	0	34	0	747110400	61	4020
2026-01-17 00:28:30.46	115.41	21.01	-44.7	-46.0	25.1	6.04e-01	0	34	0	749207552	61	4056
2026-01-17 00:28:31.47	115.68	20.94	-44.7	-46.0	25.1	6.05e-01	0	34	0	751304704	61	4052
2026-01-17 00:28:32.48	115.96	20.87	-44.8	-46.0	25.1	6.02e-01	0	34	0	752877568	61	4091
2026-01-17 00:28:33.49	116.23	20.80	-44.8	-46.0	25.0	6.01e-01	0	34	0	754974720	61	4098
2026-01-17 00:28:34.50	116.50	20.73	-44.6	-45.9	25.2	6.05e-01	0	34	0	757071872	61	4027
2026-01-17 00:28:35.50	116.76	20.66	-44.6	-45.8	25.3	6.03e-01	0	34	0	758644736	61	3998
2026-01-17 00:28:36.51	117.03	20.59	-44.5	-45.8	25.3	6.03e-01	0	34	0	760741888	61	3964
2026-01-17 00:28:37.52	117.30	20.52	-44.6	-45.8	25.2	6.05e-01	0	34	0	762314752	61	3982
2026-01-17 00:28:38.53	117.56	20.44	-44.8	-46.0	25.1	6.03e-01	0	34	0	764411904	61	4080
2026-01-17 00:28:39.54	117.83	20.37	-44.7	-46.0	25.1	6.03e-01	0	34	0	766509056	61	4057
2026-01-17 00:28:40.55	118.09	20.30	-44.7	-46.0	25.0	6.04e-01	0	34	0	768081920	61	4054
2026-01-17 00:28:41.56	118.35	20.23	-44.7	-45.9	25.1	6.05e-01	0	34	0	770179072	61	4031
2026-01-17 00:28:42.56	118.61	20.15	-44.6	-45.9	25.2	6.04e-01	0	34	0	771751936	61	4012
2026-01-17 00:28:43.57	118.87	20.08	-44.6	-45.9	25.2	6.05e-01	0	34	0	773849088	61	4009
2026-01-17 00:28:44.58	119.12	20.01	-44.6	-45.9	25.2	6.03e-01	0	34	0	775421952	61	4028
2026-01-17 00:28:45.59	119.38	19.93	-44.7	-46.0	25.1	6.04e-01	0	34	0	777519104	61	4057
2026-01-17 00:28:46.60	119.63	19.86	-44.7	-45.9	25.1	6.03e-01	0	34	0	779616256	61	4039
2026-01-17 00:28:47.61	119.89	19.78	-44.6	-45.9	25.2	6.04e-01	0	34	0	781713408	61	4011
2026-01-17 00:28:48.61	120.14	19.71	-44.7	-46.0	25.1	6.04e-01	0	34	0	783286272	61	4071
2026-01-17 00:28:49.62	120.39	19.63	-44.8	-46.1	24.9	6.04e-01	0	34	0	785383424	61	4101
2026-01-17 00:28:50.63	120.64	19.56	-44.6	-45.8	25.1	6.04e-01	0	34	0	786956288	61	3999
2026-01-17 00:28:51.64	120.88	19.48	-44.6	-45.8	25.2	6.04e-01	0	34	0	789053440	61	3997
2026-01-17 00:28:52.65	121.13	19.40	-44.6	-45.9	25.1	6.03e-01	0	34	0	790626304	61	4024
2026-01-17 00:28:53.66	121.38	19.33	-44.6	-45.9	25.2	6.02e-01	0	34	0	792723456	61	4017
2026-01-17 00:28:54.66	121.62	19.25	-44.6	-45.8	25.2	6.04e-01	0	34	0	794820608	61	3999
2026-01-17 00:28:55.67	121.86	19.17	-44.6	-45.9	25.2	6.02e-01	0	34	0	796393472	61	4012
2026-01-17 00:28:56.68	122.11	19.10	-44.7	-45.9	25.1	6.03e-01	0	34	0	798490624	61	4032
2026-01-17 00:28:57.69	122.35	19.02	-44.7	-46.0	25.0	6.04e-01	0	34	0	800063488	61	4071
2026-01-17 00:28:58.70	122.59	18.94	-44.6	-45.9	25.1	6.03e-01	0	34	0	802160640	61	4021
2026-01-17 00:28:59.70	122.82	18.86	-44.6	-45.9	25.1	6.03e-01	0	34	0	804257792	61	4027
2026-01-17 00:29:00.71	123.06	18.78	-44.6	-45.8	25.1	6.04e-01	0	34	0	805830656	61	3997
2026-01-17 00:29:01.72	123.29	18.71	-44.5	-45.8	25.2	6.04e-01	0	34	0	807927808	61	3963
2026-01-17 00:29:02.73	123.53	18.63	-44.5	-45.8	25.1	6.01e-01	0	34	0	810024960	61	3974
2026-01-17 00:29:03.74	123.76	18.55	-44.6	-45.9	25.1	6.01e-01	0	34	0	811597824	61	4013
2026-01-17 00:29:04.75	123.99	18.47	-44.5	-45.8	25.2	6.05e-01	0	34	0	813694976	61	3972
2026-01-17 00:29:05.76	124.22	18.39	-44.6	-45.9	25.1	6.04e-01	0	34	0	815267840	61	4018
2026-01-17 00:29:06.77	124.45	18.31	-44.6	-45.9	25.1	6.02e-01	0	34	0	817364992	61	4020
2026-01-17 00:29:07.77	124.68	18.23	-44.5	-45.7	25.2	6.04e-01	0	34	0	818937856	61	3951
2026-01-17 00:29:08.78	124.91	18.15	-44.7	-45.9	25.1	6.04e-01	0	34	0	821035008	61	4037
2026-01-17 00:29:09.79	125.13	18.08	-44.7	-45.9	25.0	6.02e-01	0	34	0	823132160	61	4042
2026-01-17 00:29:10.80	125.36	18.00	-44.5	-45.8	25.2	6.02e-01	0	34	0	825229312	60	4208
2026-01-17 00:29:11.80	125.58	17.92	-44.6	-45.8	25.1	6.02e-01	0	34	0	826802176	60	4236
2026-01-17 00:29:12.81	125.80	17.84	-44.5	-45.7	25.1	6.01e-01	0	34	0	828899328	60	4186
2026-01-17 00:29:13.82	126.02	17.76	-44.5	-45.8	25.1	6.02e-01	0	34	0	830472192	60	4210
2026-01-17 00:29:14.83	126.24	17.68	-44.5	-45.7	25.1	6.02e-01	0	34	0	832569344	60	4182
2026-01-17 00:29:15.84	126.46	17.60	-44.6	-45.8	25.0	6.01e-01	0	34	0	834142208	60	4232
2026-01-17 00:29:16.85	126.68	17.52	-44.4	-45.7	25.1	6.04e-01	0	34	0	836239360	60	4162
2026-01-17 00:29:17.86	126.89	17.44	-44.5	-45.8	25.1	6.02e-01	0	34	0	838336512	60	4208
2026-01-17 00:29:18.87	127.11	17.36	-44.5	-45.8	25.1	6.03e-01	0	34	0	839909376	60	4207
2026-01-17 00:29:19.87	127.32	17.28	-44.6	-45.8	25.0	6.03e-01	0	34	0	842006528	60	4231
2026-01-17 00:29:20.88	127.53	17.20	-44.4	-45.6	25.2	6.02e-01	0	34	0	843579392	60	4130
2026-01-17 00:29:21.89	127.74	17.11	-44.4	-45.7	25.2	6.01e-01	0	34	0	845676544	60	4165
2026-01-17 00:29:22.90	127.96	17.03	-44.5	-45.8	25.1	6.04e-01	0	34	0	847773696	60	4205
2026-01-17 00:29:23.91	128.16	16.95	-44.6	-45.8	25.0	6.03e-01	0	34	0	849346560	60	4233
2026-01-17 00:29:24.92	128.37	16.87	-44.5	-45.8	25.1	6.04e-01	0	34	0	851443712	60	4221
2026-01-17 00:29:25.92	128.58	16.79	-44.6	-45.9	24.9	6.04e-01	0	34	0	853540864	60	4270
2026-01-17 00:29:26.93	128.78	16.71	-44.6	-45.8	25.0	6.04e-01	0	34	0	855113728	60	4240
2026-01-17 00:29:27.94	128.99	16.63	-44.6	-45.9	25.0	6.04e-01	0	34	0	857210880	60	4263
2026-01-17 00:29:28.95	129.19	16.55	-44.5	-45.8	25.0	6.02e-01	0	34	0	858783744	60	4202
2026-01-17 00:29:29.96	129.39	16.47	-44.5	-45.8	25.1	6.05e-01	0	34	0	860880896	60	4202
2026-01-17 00:29:30.97	129.59	16.39	-44.5	-45.8	25.0	6.02e-01	0	34	0	862453760	60	4220
2026-01-17 00:29:31.98	129.80	16.31	-44.6	-45.9	24.9	6.03e-01	0	34	0	864550912	60	4280
2026-01-17 00:29:32.98	129.99	16.23	-44.6	-45.8	25.0	6.04e-01	0	34	0	866648064	60	4229
2026-01-17 00:29:33.99	130.19	16.14	-44.6	-45.9	24.9	6.02e-01	0	34	0	868220928	60	4269
2026-01-17 00:29:35.00	130.39	16.06	-44.5	-45.8	25.0	6.04e-01	0	34	0	870318080	60	4209
2026-01-17 00:29:36.01	130.58	15.98	-44.7	-46.0	24.8	6.04e-01	0	34	0	872415232	60	4298
2026-01-17 00:29:37.02	130.78	15.90	-44.4	-45.7	25.1	6.01e-01	0	34	0	873988096	60	4167
2026-01-17 00:29:38.03	130.97	15.82	-44.5	-45.7	25.1	6.04e-01	0	34	0	876085248	60	4180
2026-01-17 00:29:39.04	131.16	15.74	-44.4	-45.7	25.1	6.02e-01	0	34	0	877658112	60	4172
2026-01-17 00:29:40.04	131.35	15.66	-44.5	-45.8	25.0	6.02e-01	0	34	0	879755264	60	4224
2026-01-17 00:29:41.05	131.54	15.58	-44.6	-45.9	24.9	6.02e-01	0	34	0	881852416	60	4265
2026-01-17 00:29:42.06	131.73	15.50	-44.5	-45.8	25.0	6.03e-01	0	34	0	883425280	60	4196
2026-01-17 00:29:43.07	131.92	15.42	-44.5	-45.8	25.0	6.03e-01	0	34	0	885522432	60	4196
2026-01-17 00:29:44.08	132.11	15.33	-44.5	-45.8	25.0	6.05e-01	0	34	0	887095296	60	4198
2026-01-17 00:29:45.09	132.29	15.25	-44.5	-45.8	24.9	6.02e-01	0	34	0	889192448	60	4224
2026-01-17 00:29:46.10	132.48	15.17	-44.6	-45.9	24.8	6.02e-01	0	34	0	891289600	60	4289
2026-01-17 00:29:47.11	132.66	15.09	-44.7	-46.0	24.8	6.04e-01	0	34	0	892862464	60	4300
2026-01-17 00:29:48.12	132.85	15.01	-44.7	-46.0	24.7	6.02e-01	0	34	0	894959616	60	4337
2026-01-17 00:29:49.12	133.03	14.93	-44.7	-46.0	24.7	6.04e-01	0	34	0	896532480	60	4294
2026-01-17 00:29:50.13	133.21	14.85	-44.6	-45.9	24.8	6.04e-01	0	34	0	898629632	60	4269
2026-01-17 00:29:51.14	133.39	14.77	-44.6	-45.9	24.8	6.05e-01	0	34	0	900726784	60	4289
2026-01-17 00:29:52.15	133.57	14.69	-44.5	-45.8	24.9	6.02e-01	0	34	0	902299648	60	4216
2026-01-17 00:29:53.16	133.74	14.61	-44.5	-45.8	24.9	6.00e-01	0	34	0	904396800	60	4212
2026-01-17 00:29:54.17	133.92	14.53	-44.6	-45.9	24.8	6.06e-01	0	34	0	905969664	60	4276
2026-01-17 00:29:55.18	134.10	14.45	-44.6	-45.9	24.8	6.04e-01	0	34	0	908066816	60	4280
2026-01-17 00:29:56.19	134.27	14.37	-44.4	-45.7	25.0	6.03e-01	0	34	0	910163968	60	4161
2026-01-17 00:29:57.20	134.45	14.29	-44.5	-45.7	25.0	6.03e-01	0	34	0	911736832	60	4183
2026-01-17 00:29:58.20	134.62	14.21	-44.5	-45.8	24.9	6.04e-01	0	34	0	913833984	60	4205
2026-01-17 00:29:59.22	134.79	14.13	-44.6	-45.9	24.8	6.03e-01	0	34	0	915931136	60	4254
2026-01-17 00:30:00.22	134.96	14.05	-44.5	-45.8	24.8	6.02e-01	0	34	0	917504000	60	4230
2026-01-17 00:30:01.23	135.13	13.97	-44.7	-45.9	24.8	6.02e-01	0	34	0	919601152	60	4287
2026-01-17 00:30:02.24	135.30	13.89	-44.6	-45.9	24.7	6.03e-01	0	34	0	921174016	60	4283
2026-01-17 00:30:03.25	135.47	13.81	-44.6	-45.9	24.8	6.02e-01	0	34	0	923271168	60	4269
2026-01-17 00:30:04.26	135.63	13.73	-44.7	-46.0	24.7	6.04e-01	0	34	0	924844032	60	4326
2026-01-17 00:30:05.27	135.80	13.65	-44.7	-46.1	24.6	6.04e-01	0	34	0	926941184	60	4341
2026-01-17 00:30:06.28	135.97	13.57	-44.7	-46.0	24.7	6.01e-01	0	34	0	929038336	60	4328
2026-01-17 00:30:07.29	136.13	13.49	-44.7	-46.0	24.7	6.04e-01	0	34	0	930611200	60	4304
2026-01-17 00:30:08.29	136.29	13.41	-44.7	-46.0	24.7	6.01e-01	0	34	0	932708352	60	4321
2026-01-17 00:30:09.30	136.46	13.33	-44.7	-46.0	24.7	6.03e-01	0	34	0	934805504	60	4305
2026-01-17 00:30:10.31	136.62	13.25	-44.7	-45.9	24.7	6.04e-01	0	34	0	936378368	60	4291
2026-01-17 00:30:11.32	136.78	13.17	-44.7	-46.0	24.7	6.03e-01	0	34	0	938475520	60	4313
2026-01-17 00:30:12.33	136.94	13.09	-44.8	-46.1	24.5	6.06e-01	0	34	0	940048384	60	4372
2026-01-17 00:30:13.34	137.10	13.01	-44.8	-46.2	24.5	6.03e-01	0	34	0	942145536	60	4398
2026-01-17 00:30:14.34	137.25	12.93	-44.8	-46.1	24.4	6.02e-01	0	34	0	944242688	60	4369
2026-01-17 00:30:15.35	137.41	12.85	-44.9	-46.2	24.5	6.03e-01	0	34	0	945815552	60	4410
2026-01-17 00:30:16.36	137.57	12.78	-44.8	-46.1	24.5	6.04e-01	0	34	0	947912704	60	4390
2026-01-17 00:30:17.37	137.72	12.70	-44.9	-46.3	24.4	6.02e-01	0	34	0	949485568	60	4455
2026-01-17 00:30:18.38	137.88	12.62	-45.0	-46.3	24.4	6.02e-01	0	34	0	951582720	60	4479
2026-01-17 00:30:19.39	138.03	12.54	-44.8	-46.1	24.5	6.04e-01	0	34	0	953679872	60	4389
2026-01-17 00:30:20.40	138.18	12.46	-44.9	-46.2	24.4	6.04e-01	0	34	0	955252736	60	4419
2026-01-17 00:30:21.41	138.34	12.38	-45.0	-46.4	24.3	6.05e-01	0	34	0	957349888	60	4500
2026-01-17 00:30:22.41	138.49	12.31	-44.8	-46.1	24.5	6.02e-01	0	34	0	959447040	60	4387
2026-01-17 00:30:23.42	138.64	12.23	-44.8	-46.2	24.4	6.03e-01	0	34	0	961019904	60	4410
2026-01-17 00:30:24.43	138.79	12.15	-44.9	-46.2	24.4	6.04e-01	0	34	0	963117056	60	4436
2026-01-17 00:30:25.44	138.94	12.07	-44.9	-46.2	24.3	6.02e-01	0	34	0	964689920	60	4439
2026-01-17 00:30:26.45	139.08	11.99	-44.9	-46.3	24.4	6.01e-01	0	34	0	966787072	60	4448
2026-01-17 00:30:27.46	139.23	11.92	-44.9	-46.2	24.4	6.01e-01	0	34	0	968359936	60	4420
2026-01-17 00:30:28.46	139.38	11.84	-44.9	-46.3	24.4	6.03e-01	0	34	0	970457088	60	4447
2026-01-17 00:30:29.47	139.52	11.76	-44.9	-46.2	24.3	6.04e-01	0	34	0	972554240	60	4420
2026-01-17 00:30:30.48	139.67	11.68	-44.8	-46.1	24.5	6.04e-01	0	34	0	974127104	60	4391
2026-01-17 00:30:31.49	139.81	11.61	-44.9	-46.2	24.4	6.01e-01	0	34	0	976224256	60	4426
2026-01-17 00:30:32.50	139.95	11.53	-44.9	-46.3	24.3	6.04e-01	0	34	0	978321408	60	4464
2026-01-17 00:30:33.50	140.10	11.45	-45.0	-46.4	24.2	6.02e-01	0	34	0	979894272	60	4513
2026-01-17 00:30:34.51	140.24	11.38	-45.0	-46.3	24.2	6.04e-01	0	34	0	981991424	60	4491
2026-01-17 00:30:35.52	140.38	11.30	-45.0	-46.4	24.2	6.02e-01	0	34	0	983564288	60	4528
2026-01-17 00:30:36.53	140.52	11.22	-45.1	-46.5	24.1	6.03e-01	0	34	0	985661440	60	4575
2026-01-17 00:30:37.54	140.66	11.15	-45.2	-46.6	24.0	6.04e-01	0	34	0	987758592	61	4358
2026-01-17 00:30:38.54	140.80	11.07	-45.3	-46.8	23.9	6.04e-01	0	34	0	989331456	61	4458
2026-01-17 00:30:39.55	140.93	11.00	-45.2	-46.6	24.0	6.04e-01	0	34	0	991428608	61	4370
2026-01-17 00:30:40.56	141.07	10.92	-45.4	-46.9	23.7	6.04e-01	0	34	0	993001472	61	4502
2026-01-17 00:30:41.57	141.21	10.84	-45.4	-46.8	23.8	6.03e-01	0	34	0	995098624	61	4462
2026-01-17 00:30:42.58	141.34	10.77	-45.3	-46.8	23.8	6.02e-01	0	34	0	996671488	61	4451
2026-01-17 00:30:43.59	141.48	10.69	-45.2	-46.5	24.0	6.02e-01	0	34	0	998768640	61	4338
2026-01-17 00:30:44.60	141.61	10.62	-45.1	-46.4	24.2	6.02e-01	0	34	0	1000865792	61	4277
2026-01-17 00:30:45.60	141.74	10.54	-45.1	-46.5	24.1	6.05e-01	0	34	0	1002962944	61	4318
2026-01-17 00:30:46.61	141.88	10.47	-45.3	-46.7	23.8	6.03e-01	0	34	0	1004535808	61	4428
2026-01-17 00:30:47.62	142.01	10.39	-45.2	-46.6	23.9	6.04e-01	0	34	0	1006632960	61	4357
2026-01-17 00:30:48.63	142.14	10.32	-45.2	-46.6	23.9	6.02e-01	0	34	0	1008205824	61	4366
2026-01-17 00:30:49.64	142.27	10.24	-45.3	-46.7	23.9	6.04e-01	0	34	0	1010302976	61	4400
2026-01-17 00:30:50.64	142.40	10.17	-45.2	-46.6	23.9	6.02e-01	0	34	0	1011875840	61	4361
2026-01-17 00:30:51.65	142.53	10.09	-45.3	-46.7	23.8	6.02e-01	0	34	0	1013972992	61	4430
2026-01-17 00:30:52.66	142.66	10.02	-45.3	-46.7	23.9	6.04e-01	0	34	0	1016070144	61	4396
2026-01-17 00:30:53.67	142.79	9.94	-45.2	-46.5	24.0	6.04e-01	0	34	0	1017643008	61	4337
2026-01-17 00:30:54.68	142.91	9.87	-45.3	-46.8	23.8	6.03e-01	0	34	0	1019740160	61	4454
2026-01-17 00:30:55.68	143.04	9.80	-45.5	-46.9	23.6	6.02e-01	0	34	0	1021313024	61	4520
2026-01-17 00:30:56.69	143.17	9.72	-45.4	-46.8	23.8	6.04e-01	0	34	0	1023410176	61	4466
2026-01-17 00:30:57.70	143.29	9.65	-45.5	-47.0	23.6	6.04e-01	0	34	0	1025507328	61	4550
2026-01-17 00:30:58.71	143.42	9.57	-45.4	-46.9	23.6	6.04e-01	0	34	0	1027080192	61	4518
2026-01-17 00:30:59.72	143.54	9.50	-45.5	-46.9	23.6	6.03e-01	0	34	0	1029177344	61	4545
2026-01-17 00:31:00.72	143.66	9.43	-45.3	-46.7	23.8	6.02e-01	0	34	0	1031274496	61	4429
2026-01-17 00:31:01.73	143.78	9.35	-45.2	-46.6	23.8	6.03e-01	0	34	0	1032847360	61	4379
2026-01-17 00:31:02.74	143.91	9.28	-45.5	-46.9	23.6	6.02e-01	0	34	0	1034944512	61	4534
2026-01-17 00:31:03.75	144.03	9.21	-45.3	-46.8	23.7	6.03e-01	0	34	0	1036517376	61	4442
2026-01-17 00:31:04.76	144.15	9.14	-45.7	-47.2	23.3	6.04e-01	0	34	0	1038614528	61	4660
2026-01-17 00:31:05.76	144.27	9.06	-45.6	-47.1	23.4	6.02e-01	0	34	0	1040187392	62	4357
2026-01-17 00:31:06.77	144.39	8.99	-45.6	-47.1	23.4	6.02e-01	0	34	0	1042284544	62	4380
2026-01-17 00:31:07.78	144.51	8.92	-45.5	-47.0	23.5	6.02e-01	0	34	0	1044381696	62	4321
2026-01-17 00:31:08.79	144.62	8.85	-45.8	-47.3	23.2	6.02e-01	0	34	0	1045954560	62	4457
2026-01-17 00:31:09.79	144.74	8.77	-45.6	-47.1	23.4	6.05e-01	0	34	0	1048051712	62	4360
2026-01-17 00:31:10.80	144.86	8.70	-45.8	-47.3	23.1	6.04e-01	0	34	0	1050148864	62	4476
2026-01-17 00:31:11.81	144.97	8.63	-45.8	-47.4	23.1	6.03e-01	0	34	0	1051721728	62	4516
2026-01-17 00:31:12.82	145.09	8.56	-45.7	-47.2	23.3	6.02e-01	0	34	0	1053818880	62	4410
2026-01-17 00:31:13.82	145.21	8.49	-45.6	-47.1	23.3	6.04e-01	0	34	0	1055391744	62	4391
2026-01-17 00:31:14.83	145.32	8.42	-45.8	-47.3	23.1	6.03e-01	0	34	0	1057488896	62	4491
2026-01-17 00:31:15.84	145.43	8.34	-45.8	-47.4	23.1	6.04e-01	0	34	0	1059586048	62	4496
2026-01-17 00:31:16.85	145.55	8.27	-45.6	-47.1	23.3	6.06e-01	0	34	0	1061158912	62	4347
2026-01-17 00:31:17.85	145.66	8.20	-45.5	-47.0	23.4	6.03e-01	0	34	0	1063256064	62	4320
2026-01-17 00:31:18.86	145.77	8.13	-45.9	-47.4	23.1	6.04e-01	0	34	0	1064828928	62	4518
2026-01-17 00:31:19.87	145.88	8.06	-45.8	-47.4	23.0	6.04e-01	0	34	0	1066926080	62	4511
2026-01-17 00:31:20.88	146.00	7.99	-45.9	-47.4	23.0	6.02e-01	0	34	0	1068498944	62	4545
2026-01-17 00:31:21.88	146.11	7.92	-45.9	-47.5	22.9	6.03e-01	0	34	0	1070596096	62	4570
2026-01-17 00:31:22.89	146.22	7.85	-45.8	-47.4	23.0	6.04e-01	0	34	0	1072693248	62	4512
2026-01-17 00:31:23.90	146.32	7.78	-46.1	-47.7	22.7	6.01e-01	0	34	0	1074790400	62	4656
2026-01-17 00:31:24.91	146.43	7.71	-46.3	-47.9	22.4	6.03e-01	0	34	0	1076363264	63	4531
2026-01-17 00:31:25.92	146.54	7.64	-46.0	-47.6	22.8	6.04e-01	0	34	0	1078460416	63	4348
2026-01-17 00:31:26.93	146.65	7.57	-46.2	-47.8	22.5	6.04e-01	0	34	0	1080033280	63	4488
2026-01-17 00:31:27.94	146.76	7.50	-45.9	-47.4	22.9	6.03e-01	0	34	0	1082130432	63	4277
2026-01-17 00:31:28.94	146.86	7.43	-46.1	-47.7	22.6	6.01e-01	0	34	0	1083703296	63	4438
2026-01-17 00:31:29.95	146.97	7.36	-46.0	-47.6	22.7	6.05e-01	0	34	0	1085800448	63	4349
2026-01-17 00:31:30.96	147.08	7.29	-46.0	-47.7	22.6	6.05e-01	0	34	0	1087897600	63	4396
2026-01-17 00:31:31.97	147.18	7.22	-46.3	-47.9	22.4	6.04e-01	0	34	0	1089470464	63	4529
2026-01-17 00:31:32.98	147.29	7.15	-45.9	-47.5	22.8	6.02e-01	0	34	0	1091567616	63	4302
2026-01-17 00:31:33.99	147.39	7.08	-46.2	-47.8	22.6	6.02e-01	0	34	0	1093140480	63	4459
2026-01-17 00:31:34.99	147.49	7.01	-46.3	-47.9	22.4	6.03e-01	0	34	0	1095237632	63	4543
2026-01-17 00:31:36.00	147.60	6.95	-46.2	-47.8	22.5	6.02e-01	0	34	0	1097334784	63	4477
2026-01-17 00:31:37.01	147.70	6.88	-46.2	-47.8	22.5	6.04e-01	0	34	0	1098907648	63	4463
2026-01-17 00:31:38.02	147.80	6.81	-46.3	-48.0	22.3	6.05e-01	0	34	0	1101004800	63	4577
2026-01-17 00:31:39.02	147.90	6.74	-46.2	-47.9	22.4	6.04e-01	0	34	0	1103101952	63	4499
2026-01-17 00:31:40.03	148.00	6.67	-46.0	-47.7	22.6	6.05e-01	0	34	0	1104674816	63	4395
2026-01-17 00:31:41.04	148.11	6.60	-46.1	-47.7	22.5	6.03e-01	0	34	0	1106771968	63	4428
2026-01-17 00:31:42.05	148.21	6.54	-46.1	-47.7	22.5	6.02e-01	0	34	0	1108344832	63	4416
2026-01-17 00:31:43.05	148.30	6.47	-46.2	-47.8	22.4	6.03e-01	0	34	0	1110441984	63	4487
2026-01-17 00:31:44.06	148.40	6.40	-46.4	-48.1	22.2	6.02e-01	0	34	0	1112014848	63	4616
2026-01-17 00:31:45.07	148.50	6.33	-46.2	-47.9	22.3	6.02e-01	0	34	0	1114112000	63	4523
2026-01-17 00:31:46.08	148.60	6.27	-46.1	-47.7	22.4	6.02e-01	0	34	0	1116209152	63	4435
2026-01-17 00:31:47.09	148.70	6.20	-46.2	-47.9	22.3	6.03e-01	0	34	0	1117782016	63	4523
2026-01-17 00:31:48.10	148.80	6.13	-46.4	-48.0	22.1	6.04e-01	0	34	0	1119879168	63	4598
2026-01-17 00:31:49.11	148.89	6.07	-46.1	-47.8	22.4	6.05e-01	0	34	0	1121976320	63	4464
2026-01-17 00:31:50.12	148.99	6.00	-46.2	-47.9	22.3	6.03e-01	0	34	0	1123549184	63	4513
2026-01-17 00:31:51.13	149.09	5.93	-46.4	-48.1	22.0	6.03e-01	0	34	0	1125646336	63	4624
2026-01-17 00:31:52.14	149.18	5.86	-46.4	-48.1	22.1	6.03e-01	0	34	0	1127219200	63	4610
2026-01-17 00:31:53.14	149.28	5.80	-46.4	-48.1	22.0	6.02e-01	0	34	0	1129316352	63	4637
2026-01-17 00:31:54.15	149.37	5.73	-46.5	-48.2	21.9	6.04e-01	0	34	0	1131413504	63	4687
2026-01-17 00:31:55.16	149.47	5.67	-46.2	-47.8	22.2	6.04e-01	0	34	0	1132986368	63	4482
2026-01-17 00:31:56.17	149.56	5.60	-46.5	-48.3	21.9	6.03e-01	0	34	0	1135083520	63	4716
2026-01-17 00:31:57.18	149.65	5.53	-46.5	-48.2	21.8	6.01e-01	0	34	0	1136656384	63	4687
2026-01-17 00:31:58.19	149.75	5.47	-46.2	-48.0	22.0	6.04e-01	0	34	0	1138753536	64	4297
2026-01-17 00:31:59.20	149.84	5.40	-46.6	-48.4	21.5	6.03e-01	0	34	0	1140850688	64	4533
2026-01-17 00:32:00.20	149.93	5.34	-46.3	-48.1	21.9	6.04e-01	0	34	0	1142423552	64	4341
2026-01-17 00:32:01.21	150.02	5.27	-46.3	-48.1	21.8	6.03e-01	0	34	0	1144520704	64	4360
2026-01-17 00:32:02.22	150.11	5.21	-46.7	-48.6	21.3	6.03e-01	0	34	0	1146093568	64	4640
2026-01-17 00:32:03.23	150.20	5.14	-46.5	-48.3	21.6	6.03e-01	0	34	0	1148190720	64	4457
2026-01-17 00:32:04.24	150.29	5.08	-46.5	-48.3	21.5	6.03e-01	0	34	0	1150287872	64	4451
2026-01-17 00:32:05.25	150.38	5.01	-46.9	-48.8	21.1	6.05e-01	0	34	0	1151860736	64	4750
2026-01-17 00:32:06.26	150.47	4.95	-53.4	-70.4	3.7	7.40e-01	0	34	104	1153433600	77	27002
2026-01-17 00:32:07.27	150.56	4.88	-53.8	-71.6	3.8	7.46e-01	0	34	104	1153433600	78	29320
2026-01-17 00:32:08.28	150.65	4.82	-54.0	-71.8	3.8	7.46e-01	0	34	104	1153433600	78	29955
2026-01-17 00:32:09.28	150.74	4.75	-54.2	-72.0	3.8	7.44e-01	0	34	104	1153433600	78	30480
2026-01-17 00:32:10.29	150.83	4.69	-54.3	-72.1	3.8	7.48e-01	0	34	104	1153433600	79	29279
2026-01-17 00:32:11.30	150.91	4.62	-54.5	-72.3	3.8	7.46e-01	0	34	104	1153433600	79	29688
2026-01-17 00:32:12.31	151.00	4.56	-54.5	-72.3	3.8	7.41e-01	0	34	104	1153433600	79	29964
2026-01-17 00:32:13.32	151.09	4.50	-54.6	-72.4	3.8	7.49e-01	0	34	104	1153433600	79	30308
2026-01-17 00:32:14.33	151.17	4.43	-54.7	-72.5	3.8	7.44e-01	0	34	104	1153433600	79	30543
2026-01-17 00:32:15.34	151.26	4.37	-54.7	-72.5	3.8	7.45e-01	0	34	104	1153433600	80	28806
2026-01-17 00:32:16.34	151.34	4.31	-54.8	-72.6	3.8	7.41e-01	0	34	104	1153433600	80	29012
2026-01-17 00:32:17.35	151.43	4.24	-54.8	-72.6	3.8	7.45e-01	0	34	104	1153433600	80	29103
2026-01-17 00:32:18.36	151.51	4.18	-54.8	-72.6	3.8	7.46e-01	0	34	104	1153433600	80	29235
2026-01-17 00:32:19.37	151.60	4.11	-54.9	-72.7	3.8	7.48e-01	0	34	104	1153433600	80	29397
2026-01-17 00:32:20.38	151.68	4.05	-54.9	-72.7	3.8	7.44e-01	0	34	104	1153433600	80	29441
2026-01-17 00:32:21.38	151.77	3.99	-54.9	-72.7	3.8	7.48e-01	0	34	104	1153433600	80	29566
2026-01-17 00:32:22.39	151.85	3.93	-55.0	-72.7	3.8	7.47e-01	0	34	104	1153433600	80	29686
2026-01-17 00:32:23.40	151.93	3.86	-54.9	-72.7	3.8	7.46e-01	0	34	104	1153433600	80	29661
2026-01-17 00:32:24.41	152.01	3.80	-54.9	-72.7	3.8	7.46e-01	0	34	104	1153433600	80	29601
2026-01-17 00:32:25.42	152.10	3.74	-54.9	-72.7	3.8	7.45e-01	0	34	104	1153433600	80	29592
2026-01-17 00:32:26.42	152.18	3.68	-54.9	-72.7	3.8	7.47e-01	0	34	104	1153433600	80	29533
2026-01-17 00:32:27.43	152.26	3.61	-54.9	-72.7	3.8	7.49e-01	0	34	104	1153433600	80	29580
2026-01-17 00:32:28.44	152.34	3.55	-54.9	-72.7	3.8	7.45e-01	0	34	104	1153433600	80	29460
2026-01-17 00:32:29.45	152.42	3.49	-54.9	-72.7	3.8	7.46e-01	0	34	104	1153433600	80	29507
2026-01-17 00:32:30.46	152.50	3.43	-54.9	-72.7	3.8	7.48e-01	0	34	104	1153433600	80	29417
2026-01-17 00:32:31.46	152.58	3.37	-54.9	-72.7	3.8	7.43e-01	0	34	104	1153433600	80	29409
2026-01-17 00:32:32.47	152.66	3.30	-54.9	-72.7	3.8	7.45e-01	0	34	104	1153433600	80	29501
2026-01-17 00:32:33.48	152.74	3.24	-54.9	-72.7	3.8	7.49e-01	0	34	104	1153433600	80	29532
2026-01-17 00:32:34.49	152.82	3.18	-54.8	-72.6	3.8	7.48e-01	0	34	104	1153433600	80	29232
2026-01-17 00:32:35.50	152.90	3.12	-54.8	-72.6	3.8	7.45e-01	0	34	104	1153433600	80	29082
2026-01-17 00:32:36.50	152.97	3.06	-54.8	-72.6	3.8	7.44e-01	0	34	104	1153433600	80	29150
2026-01-17 00:32:37.51	153.05	3.00	-54.8	-72.5	3.8	7.45e-01	0	34	104	1153433600	80	29009
2026-01-17 00:32:38.52	153.13	2.94	-54.8	-72.6	3.8	7.43e-01	0	34	104	1153433600	80	29193
2026-01-17 00:32:39.54	153.21	2.87	-54.8	-72.6	3.8	7.45e-01	0	34	104	1153433600	80	29199
2026-01-17 00:32:40.54	153.28	2.81	-54.8	-72.6	3.8	7.42e-01	0	34	104	1153433600	80	29032
2026-01-17 00:32:41.55	153.36	2.75	-54.8	-72.6	3.8	7.47e-01	0	34	104	1153433600	80	29135
2026-01-17 00:32:42.56	153.44	2.69	-54.8	-72.6	3.8	7.47e-01	0	34	104	1153433600	80	29100
2026-01-17 00:32:43.57	153.51	2.63	-54.8	-72.6	3.8	7.44e-01	0	34	104	1153433600	80	29026
2026-01-17 00:32:44.58	153.59	2.57	-54.8	-72.6	3.8	7.43e-01	0	34	104	1153433600	80	29137
2026-01-17 00:32:45.58	153.66	2.51	-54.8	-72.6	3.8	7.41e-01	0	34	104	1153433600	80	29142
2026-01-17 00:32:46.59	153.74	2.45	-54.8	-72.6	3.8	7.44e-01	0	34	104	1153433600	80	29050
2026-01-17 00:32:47.60	153.81	2.39	-54.8	-72.5	3.8	7.43e-01	0	34	104	1153433600	80	28993
