passes_logs/2026/01/17/R3.2S_Murmansk/R3.2S_Murmansk__20260117_121346_SUOMI_NPP_rec.log

#Pass ID: 20260117_121346_SUOMI NPP
#Satellite: SUOMI NPP
#Configuration: NPP
#almurnet v.1.7.20251203
#Start time: 2026-01-17 12:13:46

#Version: 2.2.20231116
#Station: R3.2S_Murmansk
#Location: 33.079688 lon 68.888172 lat
#TLE: 1 37849U 11061A   26016.58419598  .00000058  00000+0  48257-4 0  9996
#TLE: 2 37849  98.7812 318.6192 0002422  60.8544 299.2874 14.19525580736934

#Time	Az	El	Level	Level2	SNR	BER	BlckErr	Temp	State	Recorded	gain1	gain2
2026-01-17 12:13:46.70	218.72	2.01	-52.3	-67.3	3.8	1.49e+00	0	32	0	0	76	19891
2026-01-17 12:13:47.70	218.79	2.06	-52.3	-67.2	3.8	1.49e+00	0	32	104	0	75	21002
2026-01-17 12:13:48.71	218.87	2.11	-52.3	-67.3	3.8	1.49e+00	0	32	104	0	75	21020
2026-01-17 12:13:49.72	218.95	2.17	-52.3	-67.2	3.8	1.49e+00	0	32	104	0	75	20977
2026-01-17 12:13:50.73	219.03	2.22	-52.3	-67.2	3.8	1.49e+00	0	32	104	0	75	20942
2026-01-17 12:13:51.74	219.11	2.28	-52.3	-67.2	3.8	1.49e+00	0	32	104	0	75	20960
2026-01-17 12:13:52.75	219.19	2.33	-52.3	-67.2	3.8	1.49e+00	0	32	104	0	75	20917
2026-01-17 12:13:53.76	219.27	2.38	-52.3	-67.2	3.8	1.49e+00	0	32	104	0	75	20861
2026-01-17 12:13:54.77	219.35	2.44	-52.3	-67.2	3.8	1.49e+00	0	33	104	0	75	20928
2026-01-17 12:13:55.78	219.43	2.49	-52.3	-67.2	3.8	1.49e+00	0	32	104	0	75	20985
2026-01-17 12:13:56.79	219.51	2.55	-52.3	-67.2	3.8	1.49e+00	0	32	104	0	75	21003
2026-01-17 12:13:57.80	219.59	2.60	-52.3	-67.3	3.8	1.49e+00	0	32	104	0	75	21018
2026-01-17 12:13:58.81	219.67	2.66	-52.3	-67.3	3.8	1.49e+00	0	32	104	0	75	21080
2026-01-17 12:13:59.82	219.75	2.71	-52.3	-67.2	3.8	1.49e+00	0	32	104	0	75	20982
2026-01-17 12:14:00.83	219.83	2.77	-52.2	-67.2	3.8	1.49e+00	0	33	104	0	75	20781
2026-01-17 12:14:01.84	219.92	2.82	-52.3	-67.1	3.8	1.49e+00	0	33	104	0	75	20713
2026-01-17 12:14:02.84	220.00	2.87	-52.2	-67.1	3.8	1.49e+00	0	33	104	0	75	20766
2026-01-17 12:14:03.85	220.08	2.93	-52.3	-67.2	3.8	1.49e+00	0	33	104	0	75	20798
2026-01-17 12:14:04.86	220.16	2.98	-52.3	-67.1	3.8	1.49e+00	0	33	104	0	75	20749
2026-01-17 12:14:05.87	220.24	3.04	-52.3	-67.2	3.8	1.49e+00	0	33	104	0	75	20884
2026-01-17 12:14:06.88	220.33	3.09	-52.2	-67.2	3.8	1.49e+00	0	33	104	0	75	20887
2026-01-17 12:14:07.89	220.41	3.15	-52.3	-67.2	3.8	1.49e+00	0	33	104	0	75	20873
2026-01-17 12:14:08.89	220.49	3.20	-52.2	-67.2	3.8	1.49e+00	0	33	104	0	75	20849
2026-01-17 12:14:09.90	220.58	3.26	-52.3	-67.2	3.8	1.49e+00	0	33	104	0	75	20879
2026-01-17 12:14:10.91	220.66	3.31	-52.3	-67.2	3.8	1.49e+00	0	33	104	0	75	20932
2026-01-17 12:14:11.92	220.75	3.37	-52.3	-67.2	3.8	1.49e+00	0	33	104	0	75	20856
2026-01-17 12:14:12.93	220.83	3.42	-52.2	-67.2	3.8	1.49e+00	0	33	104	0	75	20790
2026-01-17 12:14:13.94	220.92	3.48	-52.2	-67.1	3.8	1.49e+00	0	33	104	0	75	20569
2026-01-17 12:14:14.95	221.00	3.53	-52.2	-67.1	3.8	1.49e+00	0	33	104	0	75	20651
2026-01-17 12:14:15.96	221.09	3.59	-52.2	-67.1	3.8	1.49e+00	0	33	104	0	75	20550
2026-01-17 12:14:16.97	221.18	3.65	-52.2	-67.1	3.8	1.49e+00	0	33	104	0	75	20559
2026-01-17 12:14:17.98	221.26	3.70	-52.2	-67.1	3.8	1.49e+00	0	33	104	0	75	20743
2026-01-17 12:14:18.98	221.35	3.76	-52.2	-67.2	3.8	1.49e+00	0	33	104	0	75	20860
2026-01-17 12:14:19.99	221.44	3.81	-52.2	-67.1	3.8	1.49e+00	0	33	104	0	75	20775
2026-01-17 12:14:21.00	221.53	3.87	-52.2	-67.1	3.8	1.49e+00	0	33	104	0	75	20716
2026-01-17 12:14:22.01	221.61	3.92	-52.2	-66.9	3.8	1.49e+00	0	33	104	0	75	20169
2026-01-17 12:14:23.02	221.70	3.98	-52.2	-67.0	3.8	1.49e+00	0	33	104	0	75	20458
2026-01-17 12:14:24.03	221.79	4.04	-52.2	-67.0	3.8	1.49e+00	0	33	104	0	75	20424
2026-01-17 12:14:25.04	221.88	4.09	-52.2	-67.2	3.8	1.49e+00	0	33	104	0	75	20918
2026-01-17 12:14:26.05	221.97	4.15	-52.2	-67.2	3.8	1.49e+00	0	33	104	0	75	20869
2026-01-17 12:14:27.06	222.06	4.20	-52.2	-66.8	3.8	1.49e+00	0	33	104	0	75	19933
2026-01-17 12:14:28.07	222.15	4.26	-52.2	-65.6	3.8	1.49e+00	0	33	104	0	75	17385
2026-01-17 12:14:29.08	222.24	4.32	-52.1	-64.3	4.1	1.48e+00	0	33	104	0	75	14896
2026-01-17 12:14:30.09	222.33	4.37	-52.0	-62.8	4.5	1.37e+00	44	33	0	0	75	12599
2026-01-17 12:14:31.10	222.42	4.43	-51.8	-61.4	5.1	7.07e-01	0	33	0	2097152	75	10761
2026-01-17 12:14:32.10	222.51	4.48	-51.7	-60.7	5.6	5.00e-01	0	33	0	4194304	75	9847
2026-01-17 12:14:33.11	222.60	4.54	-51.6	-59.8	6.2	4.27e-01	0	33	0	6291456	75	8960
2026-01-17 12:14:34.12	222.69	4.60	-51.4	-58.6	7.3	1.54e-01	0	33	0	7340032	74	8187
2026-01-17 12:14:35.13	222.78	4.65	-51.2	-57.8	8.2	8.60e-02	0	33	0	9437184	74	7467
2026-01-17 12:14:36.14	222.88	4.71	-50.7	-56.0	9.9	3.05e-02	0	33	0	11534336	73	6473
2026-01-17 12:14:37.14	222.97	4.77	-50.1	-54.5	11.5	3.47e-03	0	33	0	13631488	72	5774
2026-01-17 12:14:38.15	223.06	4.82	-49.7	-53.4	12.7	1.92e-04	0	33	0	14680064	71	5341
2026-01-17 12:14:39.16	223.16	4.88	-49.3	-52.6	13.5	1.98e-05	0	33	0	16777216	70	5208
2026-01-17 12:14:40.17	223.25	4.94	-48.8	-51.8	14.3	2.20e-06	0	33	0	18874368	69	5034
2026-01-17 12:14:41.18	223.34	4.99	-48.5	-51.2	15.0	7.00e-07	0	33	0	20971520	69	4692
2026-01-17 12:14:42.19	223.44	5.05	-48.5	-51.3	14.9	0.00e+00	0	33	0	23068672	68	5024
2026-01-17 12:14:43.20	223.53	5.11	-48.7	-51.6	14.6	0.00e+00	0	33	0	24117248	68	5160
2026-01-17 12:14:44.20	223.63	5.17	-49.9	-54.1	11.8	5.08e-04	0	33	0	26214400	71	5806
2026-01-17 12:14:45.21	223.72	5.22	-50.9	-56.3	9.7	5.65e-03	0	33	0	28311552	73	6718
2026-01-17 12:14:46.22	223.82	5.28	-49.2	-52.4	13.8	1.39e-04	0	33	0	30408704	70	5069
2026-01-17 12:14:47.23	223.92	5.34	-49.5	-53.1	13.1	2.44e-05	0	33	0	32505856	69	5808
2026-01-17 12:14:48.24	224.01	5.39	-48.3	-50.9	15.4	0.00e+00	0	33	0	34603008	68	4769
2026-01-17 12:14:49.24	224.11	5.45	-48.2	-50.8	15.4	0.00e+00	0	33	0	35651584	67	4984
2026-01-17 12:14:50.25	224.21	5.51	-47.9	-50.4	15.7	0.00e+00	0	33	0	37748736	67	4780
2026-01-17 12:14:51.26	224.30	5.57	-48.1	-50.6	15.6	0.00e+00	0	33	0	39845888	67	4881
2026-01-17 12:14:52.27	224.40	5.62	-47.8	-50.1	16.0	0.00e+00	0	33	0	41943040	67	4620
2026-01-17 12:14:53.27	224.50	5.68	-47.9	-50.2	15.9	0.00e+00	0	33	0	42991616	67	4705
2026-01-17 12:14:54.28	224.60	5.74	-47.9	-50.3	15.9	0.00e+00	0	34	0	45088768	67	4710
2026-01-17 12:14:55.29	224.70	5.80	-47.8	-50.2	16.0	0.00e+00	0	33	0	47185920	67	4662
2026-01-17 12:14:56.30	224.80	5.85	-47.9	-50.2	16.0	0.00e+00	0	34	0	49283072	67	4682
2026-01-17 12:14:57.31	224.90	5.91	-47.9	-50.3	15.9	0.00e+00	0	33	0	51380224	67	4738
2026-01-17 12:14:58.31	225.00	5.97	-47.9	-50.2	15.9	0.00e+00	0	33	0	53477376	67	4703
2026-01-17 12:14:59.32	225.10	6.03	-47.8	-50.1	16.1	0.00e+00	0	33	0	54525952	67	4618
2026-01-17 12:15:00.33	225.20	6.09	-47.8	-50.2	16.1	0.00e+00	0	34	0	56623104	67	4655
2026-01-17 12:15:01.34	225.30	6.14	-47.9	-50.3	16.0	0.00e+00	0	33	0	58720256	67	4714
2026-01-17 12:15:02.35	225.40	6.20	-47.9	-50.2	16.0	0.00e+00	0	33	0	60817408	67	4677
2026-01-17 12:15:03.35	225.51	6.26	-48.0	-50.4	15.8	0.00e+00	0	34	0	62914560	67	4810
2026-01-17 12:15:04.36	225.61	6.32	-48.1	-50.6	15.7	0.00e+00	0	33	0	63963136	67	4887
2026-01-17 12:15:05.37	225.71	6.38	-48.0	-50.5	15.7	0.00e+00	0	33	0	66060288	67	4840
2026-01-17 12:15:06.38	225.82	6.44	-48.1	-50.6	15.7	0.00e+00	0	33	0	68157440	67	4897
2026-01-17 12:15:07.38	225.92	6.49	-48.3	-50.8	15.4	0.00e+00	0	34	0	70254592	67	5035
2026-01-17 12:15:08.39	226.02	6.55	-48.1	-50.6	15.7	0.00e+00	0	33	0	71303168	67	4875
2026-01-17 12:15:09.40	226.13	6.61	-48.4	-51.1	15.2	0.00e+00	0	34	0	73400320	67	5181
2026-01-17 12:15:10.41	226.23	6.67	-48.3	-50.8	15.5	0.00e+00	0	33	0	75497472	67	5038
2026-01-17 12:15:11.42	226.34	6.73	-48.6	-51.3	15.0	0.00e+00	0	33	0	77594624	67	5337
2026-01-17 12:15:12.43	226.44	6.79	-48.3	-50.9	15.4	0.00e+00	0	34	0	79691776	67	5055
2026-01-17 12:15:13.44	226.55	6.85	-48.4	-51.1	15.2	0.00e+00	0	33	0	81788928	67	5189
2026-01-17 12:15:14.45	226.66	6.90	-48.4	-51.0	15.3	0.00e+00	0	34	0	82837504	67	5153
2026-01-17 12:15:15.45	226.76	6.96	-48.3	-50.8	15.5	0.00e+00	0	33	0	84934656	67	5033
2026-01-17 12:15:16.46	226.87	7.02	-48.3	-50.8	15.5	0.00e+00	0	34	0	87031808	67	5031
2026-01-17 12:15:17.47	226.98	7.08	-48.2	-50.8	15.6	0.00e+00	0	33	0	89128960	67	4996
2026-01-17 12:15:18.48	227.09	7.14	-48.3	-50.9	15.5	0.00e+00	0	34	0	91226112	67	5053
2026-01-17 12:15:19.48	227.20	7.20	-48.0	-50.4	15.9	0.00e+00	0	33	0	92274688	67	4789
2026-01-17 12:15:20.49	227.31	7.26	-48.1	-50.5	15.9	0.00e+00	0	34	0	94371840	67	4816
2026-01-17 12:15:21.50	227.41	7.32	-48.0	-50.4	16.0	0.00e+00	0	34	0	96468992	67	4800
2026-01-17 12:15:22.51	227.53	7.38	-48.1	-50.5	15.9	7.00e-07	0	34	0	98566144	67	4844
2026-01-17 12:15:23.52	227.64	7.44	-48.2	-50.6	15.8	0.00e+00	0	34	0	100663296	67	4895
2026-01-17 12:15:24.53	227.75	7.49	-48.0	-50.4	16.0	0.00e+00	0	34	0	101711872	67	4763
2026-01-17 12:15:25.53	227.86	7.55	-48.2	-50.7	15.8	0.00e+00	0	34	0	103809024	67	4940
2026-01-17 12:15:26.54	227.97	7.61	-48.0	-50.3	16.1	0.00e+00	0	34	0	105906176	67	4755
2026-01-17 12:15:27.55	228.08	7.67	-47.9	-50.2	16.2	0.00e+00	0	34	0	108003328	67	4672
2026-01-17 12:15:28.56	228.19	7.73	-47.9	-50.2	16.3	0.00e+00	0	34	0	110100480	67	4653
2026-01-17 12:15:29.56	228.31	7.79	-48.0	-50.3	16.1	0.00e+00	0	33	0	111149056	67	4721
2026-01-17 12:15:30.57	228.42	7.85	-47.8	-50.0	16.4	0.00e+00	0	34	0	113246208	67	4561
2026-01-17 12:15:31.58	228.53	7.91	-47.7	-49.9	16.6	0.00e+00	0	34	0	115343360	67	4497
2026-01-17 12:15:32.59	228.65	7.97	-47.7	-49.9	16.5	0.00e+00	0	34	0	117440512	67	4507
2026-01-17 12:15:33.60	228.76	8.03	-47.5	-49.6	16.8	0.00e+00	0	34	0	119537664	66	4610
2026-01-17 12:15:34.60	228.88	8.09	-47.5	-49.6	16.8	0.00e+00	0	34	0	120586240	66	4625
2026-01-17 12:15:35.61	228.99	8.15	-47.3	-49.3	17.1	0.00e+00	0	34	0	122683392	66	4485
2026-01-17 12:15:36.62	229.11	8.21	-47.3	-49.3	17.1	0.00e+00	0	34	0	124780544	66	4473
2026-01-17 12:15:37.63	229.23	8.27	-47.3	-49.3	17.1	0.00e+00	0	34	0	126877696	66	4484
2026-01-17 12:15:38.64	229.34	8.33	-47.2	-49.1	17.3	0.00e+00	0	34	0	128974848	66	4372
2026-01-17 12:15:39.65	229.46	8.39	-47.2	-49.2	17.3	0.00e+00	0	34	0	130023424	66	4393
2026-01-17 12:15:40.65	229.58	8.45	-47.1	-49.1	17.4	0.00e+00	0	34	0	132120576	66	4343
2026-01-17 12:15:41.66	229.70	8.51	-47.0	-48.9	17.6	0.00e+00	0	34	0	134217728	66	4268
2026-01-17 12:15:42.67	229.82	8.57	-47.2	-49.2	17.3	0.00e+00	0	33	0	136314880	66	4403
2026-01-17 12:15:43.68	229.94	8.63	-47.3	-49.3	17.2	0.00e+00	0	34	0	138412032	66	4444
2026-01-17 12:15:44.68	230.06	8.69	-47.3	-49.3	17.2	0.00e+00	0	34	0	139460608	66	4443
2026-01-17 12:15:45.69	230.18	8.75	-47.2	-49.1	17.3	0.00e+00	0	34	0	141557760	66	4384
2026-01-17 12:15:46.70	230.30	8.81	-47.2	-49.1	17.3	0.00e+00	0	34	0	143654912	66	4384
2026-01-17 12:15:47.71	230.42	8.87	-47.3	-49.2	17.3	0.00e+00	0	34	0	145752064	66	4436
2026-01-17 12:15:48.72	230.54	8.93	-47.4	-49.4	17.2	0.00e+00	0	34	0	147849216	66	4501
2026-01-17 12:15:49.72	230.66	8.99	-47.3	-49.3	17.2	0.00e+00	0	34	0	149946368	66	4468
2026-01-17 12:15:50.73	230.79	9.05	-47.4	-49.4	17.2	0.00e+00	0	34	0	150994944	66	4497
2026-01-17 12:15:51.74	230.91	9.11	-47.4	-49.4	17.2	0.00e+00	0	34	0	153092096	66	4499
2026-01-17 12:15:52.75	231.03	9.17	-47.4	-49.4	17.1	0.00e+00	0	34	0	155189248	66	4543
2026-01-17 12:15:53.76	231.16	9.23	-47.5	-49.5	17.0	0.00e+00	0	34	0	157286400	66	4579
2026-01-17 12:15:54.77	231.28	9.29	-47.3	-49.3	17.2	0.00e+00	0	34	0	158334976	66	4489
2026-01-17 12:15:55.78	231.41	9.35	-47.3	-49.3	17.2	0.00e+00	0	34	0	160432128	66	4459
2026-01-17 12:15:56.78	231.53	9.41	-47.3	-49.2	17.3	0.00e+00	0	34	0	162529280	66	4435
2026-01-17 12:15:57.79	231.66	9.47	-47.3	-49.3	17.2	0.00e+00	0	34	0	164626432	66	4462
2026-01-17 12:15:58.80	231.79	9.53	-47.2	-49.2	17.3	0.00e+00	0	34	0	166723584	66	4414
2026-01-17 12:15:59.81	231.91	9.60	-47.1	-49.0	17.5	0.00e+00	0	34	0	168820736	66	4308
2026-01-17 12:16:00.82	232.04	9.66	-47.1	-49.0	17.5	0.00e+00	0	34	0	169869312	66	4297
2026-01-17 12:16:01.83	232.17	9.72	-46.9	-48.8	17.7	0.00e+00	0	34	0	171966464	65	4457
2026-01-17 12:16:02.83	232.30	9.78	-47.1	-49.0	17.5	0.00e+00	0	34	0	174063616	65	4581
2026-01-17 12:16:03.84	232.43	9.84	-47.0	-48.9	17.6	0.00e+00	0	34	0	176160768	65	4498
2026-01-17 12:16:04.85	232.56	9.90	-47.0	-48.8	17.7	0.00e+00	0	34	0	178257920	65	4464
2026-01-17 12:16:05.85	232.69	9.96	-47.1	-48.9	17.6	0.00e+00	0	34	0	179306496	65	4545
2026-01-17 12:16:06.86	232.82	10.02	-46.9	-48.7	17.8	0.00e+00	0	34	0	181403648	65	4422
2026-01-17 12:16:07.87	232.95	10.08	-47.0	-48.8	17.7	0.00e+00	0	34	0	183500800	65	4486
2026-01-17 12:16:08.88	233.08	10.14	-47.0	-48.9	17.7	0.00e+00	0	34	0	185597952	65	4499
2026-01-17 12:16:09.88	233.21	10.20	-47.0	-48.8	17.8	0.00e+00	0	34	0	186646528	65	4475
2026-01-17 12:16:10.89	233.35	10.26	-46.9	-48.7	17.9	0.00e+00	0	34	0	188743680	65	4400
2026-01-17 12:16:11.90	233.48	10.32	-47.0	-48.9	17.7	0.00e+00	0	34	0	190840832	65	4494
2026-01-17 12:16:12.91	233.62	10.38	-46.8	-48.6	17.9	0.00e+00	0	34	0	192937984	65	4378
2026-01-17 12:16:13.92	233.75	10.45	-46.8	-48.5	18.0	0.00e+00	0	34	0	195035136	65	4337
2026-01-17 12:16:14.93	233.89	10.51	-46.7	-48.5	18.1	0.00e+00	0	34	0	197132288	65	4311
2026-01-17 12:16:15.93	234.02	10.57	-46.9	-48.7	17.9	0.00e+00	0	34	0	198180864	65	4408
2026-01-17 12:16:16.94	234.16	10.63	-46.9	-48.7	17.9	0.00e+00	0	34	0	200278016	65	4400
2026-01-17 12:16:17.95	234.29	10.69	-46.7	-48.5	18.1	0.00e+00	0	34	0	202375168	65	4303
2026-01-17 12:16:18.96	234.43	10.75	-46.8	-48.5	18.1	0.00e+00	0	34	0	204472320	65	4325
2026-01-17 12:16:19.96	234.57	10.81	-46.7	-48.4	18.2	0.00e+00	0	34	0	206569472	65	4267
2026-01-17 12:16:20.97	234.71	10.87	-46.7	-48.4	18.2	0.00e+00	0	34	0	207618048	65	4255
2026-01-17 12:16:21.98	234.85	10.93	-46.8	-48.6	18.0	0.00e+00	0	34	0	209715200	65	4381
2026-01-17 12:16:22.99	234.99	10.99	-46.7	-48.5	18.1	0.00e+00	0	34	0	211812352	65	4306
2026-01-17 12:16:23.99	235.12	11.05	-46.9	-48.8	17.9	0.00e+00	0	34	0	213909504	65	4456
2026-01-17 12:16:25.00	235.27	11.12	-46.7	-48.5	18.1	0.00e+00	0	34	0	214958080	65	4313
2026-01-17 12:16:26.01	235.41	11.18	-46.7	-48.5	18.1	0.00e+00	0	34	0	217055232	65	4300
2026-01-17 12:16:27.02	235.55	11.24	-47.0	-48.8	17.9	0.00e+00	0	34	0	219152384	65	4453
2026-01-17 12:16:28.03	235.69	11.30	-47.0	-48.8	17.8	0.00e+00	0	34	0	221249536	65	4484
2026-01-17 12:16:29.04	235.84	11.36	-46.9	-48.7	17.9	0.00e+00	0	34	0	223346688	65	4438
2026-01-17 12:16:30.04	235.98	11.42	-47.0	-48.9	17.8	0.00e+00	0	34	0	225443840	65	4512
2026-01-17 12:16:31.05	236.12	11.48	-47.1	-48.9	17.7	0.00e+00	0	34	0	226492416	65	4526
2026-01-17 12:16:32.06	236.27	11.54	-47.1	-48.9	17.8	0.00e+00	0	34	0	228589568	65	4525
2026-01-17 12:16:33.07	236.41	11.60	-47.0	-48.8	17.8	0.00e+00	0	34	0	230686720	65	4475
2026-01-17 12:16:34.08	236.56	11.66	-47.0	-48.8	17.9	0.00e+00	0	33	0	232783872	65	4456
2026-01-17 12:16:35.08	236.70	11.73	-46.9	-48.7	18.0	0.00e+00	0	34	0	234881024	65	4436
2026-01-17 12:16:36.09	236.85	11.79	-46.9	-48.6	18.0	0.00e+00	0	34	0	235929600	65	4372
2026-01-17 12:16:37.10	237.00	11.85	-46.8	-48.5	18.1	0.00e+00	0	34	0	238026752	65	4321
2026-01-17 12:16:38.11	237.15	11.91	-46.9	-48.7	18.0	0.00e+00	0	34	0	240123904	65	4394
2026-01-17 12:16:39.12	237.30	11.97	-46.9	-48.6	18.0	0.00e+00	0	34	0	242221056	65	4389
2026-01-17 12:16:40.12	237.44	12.03	-47.0	-48.9	17.8	0.00e+00	0	34	0	244318208	65	4495
2026-01-17 12:16:41.13	237.59	12.09	-46.9	-48.7	17.9	0.00e+00	0	34	0	245366784	65	4441
2026-01-17 12:16:42.14	237.75	12.15	-47.0	-48.8	17.9	0.00e+00	0	34	0	247463936	65	4489
2026-01-17 12:16:43.15	237.90	12.21	-47.1	-49.0	17.7	0.00e+00	0	34	0	249561088	65	4552
2026-01-17 12:16:44.16	238.05	12.27	-47.1	-48.9	17.8	0.00e+00	0	34	0	251658240	65	4526
2026-01-17 12:16:45.16	238.20	12.33	-46.9	-48.7	18.0	0.00e+00	0	34	0	253755392	65	4413
2026-01-17 12:16:46.17	238.35	12.39	-46.8	-48.6	18.1	0.00e+00	0	34	0	254803968	65	4359
2026-01-17 12:16:47.18	238.51	12.45	-46.9	-48.7	18.0	0.00e+00	0	34	0	256901120	65	4412
2026-01-17 12:16:48.19	238.66	12.52	-46.7	-48.4	18.3	0.00e+00	0	34	0	258998272	65	4246
2026-01-17 12:16:49.20	238.82	12.58	-46.4	-48.1	18.6	0.00e+00	0	34	0	261095424	64	4359
2026-01-17 12:16:50.20	238.97	12.64	-46.4	-48.0	18.6	0.00e+00	0	34	0	263192576	64	4329
2026-01-17 12:16:51.21	239.13	12.70	-46.1	-47.7	18.9	0.00e+00	0	34	0	264241152	64	4151
2026-01-17 12:16:52.22	239.28	12.76	-46.3	-47.9	18.7	0.00e+00	0	34	0	266338304	64	4291
2026-01-17 12:16:53.22	239.44	12.82	-46.2	-47.7	18.9	0.00e+00	0	34	0	268435456	64	4178
2026-01-17 12:16:54.23	239.60	12.88	-46.2	-47.8	18.9	0.00e+00	0	34	0	270532608	64	4206
2026-01-17 12:16:55.24	239.76	12.94	-46.2	-47.8	18.8	0.00e+00	0	34	0	272629760	64	4224
2026-01-17 12:16:56.25	239.92	13.00	-46.2	-47.8	18.9	0.00e+00	0	34	0	273678336	64	4202
2026-01-17 12:16:57.26	240.08	13.06	-46.3	-47.9	18.7	0.00e+00	0	34	0	275775488	64	4256
2026-01-17 12:16:58.27	240.24	13.12	-46.3	-47.9	18.8	0.00e+00	0	34	0	277872640	64	4269
2026-01-17 12:16:59.28	240.40	13.18	-46.4	-48.1	18.6	0.00e+00	0	34	0	279969792	64	4347
2026-01-17 12:17:00.28	240.56	13.24	-46.6	-48.2	18.4	0.00e+00	0	34	0	282066944	64	4422
2026-01-17 12:17:01.29	240.72	13.30	-46.4	-48.0	18.7	0.00e+00	0	34	0	283115520	64	4320
2026-01-17 12:17:02.30	240.89	13.36	-46.5	-48.1	18.6	0.00e+00	0	34	0	285212672	64	4358
2026-01-17 12:17:03.31	241.05	13.42	-46.5	-48.1	18.6	0.00e+00	0	34	0	287309824	64	4378
2026-01-17 12:17:04.32	241.21	13.48	-46.5	-48.1	18.6	0.00e+00	0	34	0	289406976	64	4364
2026-01-17 12:17:05.33	241.38	13.54	-46.5	-48.1	18.6	0.00e+00	0	34	0	291504128	64	4380
2026-01-17 12:17:06.34	241.54	13.60	-46.5	-48.2	18.5	0.00e+00	0	34	0	292552704	64	4423
2026-01-17 12:17:07.34	241.71	13.66	-46.5	-48.2	18.5	0.00e+00	0	34	0	294649856	64	4399
2026-01-17 12:17:08.35	241.88	13.72	-46.6	-48.2	18.5	0.00e+00	0	34	0	296747008	64	4433
2026-01-17 12:17:09.36	242.04	13.78	-46.6	-48.2	18.5	0.00e+00	0	34	0	298844160	64	4434
2026-01-17 12:17:10.37	242.21	13.84	-46.6	-48.3	18.5	0.00e+00	0	34	0	300941312	64	4460
2026-01-17 12:17:11.38	242.38	13.89	-46.8	-48.5	18.2	0.00e+00	0	34	0	301989888	64	4575
2026-01-17 12:17:12.39	242.55	13.95	-46.8	-48.5	18.2	0.00e+00	0	34	0	304087040	64	4579
2026-01-17 12:17:13.40	242.72	14.01	-47.0	-48.7	18.0	0.00e+00	0	34	0	306184192	64	4704
2026-01-17 12:17:14.40	242.89	14.07	-46.9	-48.6	18.2	0.00e+00	0	34	0	308281344	64	4635
2026-01-17 12:17:15.41	243.06	14.13	-46.9	-48.6	18.2	0.00e+00	0	34	0	310378496	64	4632
2026-01-17 12:17:16.42	243.24	14.19	-46.7	-48.4	18.4	0.00e+00	0	34	0	312475648	64	4502
2026-01-17 12:17:17.43	243.41	14.25	-46.5	-48.1	18.6	0.00e+00	0	34	0	313524224	64	4388
2026-01-17 12:17:18.44	243.58	14.31	-46.3	-47.9	18.8	0.00e+00	0	34	0	315621376	64	4257
2026-01-17 12:17:19.45	243.76	14.37	-46.2	-47.8	18.9	0.00e+00	0	34	0	317718528	64	4202
2026-01-17 12:17:20.46	243.93	14.42	-46.1	-47.6	19.1	0.00e+00	0	34	0	319815680	64	4137
2026-01-17 12:17:21.47	244.11	14.48	-46.4	-48.0	18.8	0.00e+00	0	34	0	320864256	64	4305
2026-01-17 12:17:22.47	244.28	14.54	-46.3	-47.8	18.9	0.00e+00	0	34	0	322961408	64	4237
2026-01-17 12:17:23.48	244.46	14.60	-46.6	-48.2	18.5	0.00e+00	0	34	0	325058560	64	4440
2026-01-17 12:17:24.49	244.64	14.66	-46.6	-48.2	18.5	0.00e+00	0	34	0	327155712	64	4420
2026-01-17 12:17:25.50	244.81	14.72	-46.5	-48.1	18.6	0.00e+00	0	34	0	329252864	64	4389
2026-01-17 12:17:26.51	244.99	14.77	-46.5	-48.2	18.5	0.00e+00	0	34	0	331350016	64	4413
2026-01-17 12:17:27.52	245.17	14.83	-46.4	-48.0	18.7	0.00e+00	0	34	0	332398592	64	4310
2026-01-17 12:17:28.53	245.35	14.89	-46.2	-47.8	19.0	0.00e+00	0	34	0	334495744	64	4196
2026-01-17 12:17:29.53	245.53	14.95	-46.1	-47.6	19.1	0.00e+00	0	34	0	336592896	64	4145
2026-01-17 12:17:30.55	245.72	15.00	-46.0	-47.6	19.1	0.00e+00	0	34	0	338690048	64	4101
2026-01-17 12:17:31.55	245.90	15.06	-46.1	-47.6	19.2	0.00e+00	0	34	0	340787200	63	4376
2026-01-17 12:17:32.56	246.08	15.12	-46.0	-47.5	19.3	0.00e+00	0	34	0	341835776	63	4319
2026-01-17 12:17:33.57	246.26	15.17	-46.0	-47.5	19.3	0.00e+00	0	34	0	343932928	63	4325
2026-01-17 12:17:34.58	246.45	15.23	-46.1	-47.6	19.2	0.00e+00	0	34	0	346030080	63	4352
2026-01-17 12:17:35.58	246.63	15.29	-46.1	-47.6	19.3	0.00e+00	0	34	0	348127232	63	4354
2026-01-17 12:17:36.59	246.82	15.34	-45.9	-47.3	19.4	0.00e+00	0	34	0	349175808	63	4242
2026-01-17 12:17:37.60	247.00	15.40	-46.1	-47.5	19.3	0.00e+00	0	34	0	351272960	63	4335
2026-01-17 12:17:38.61	247.19	15.46	-46.2	-47.7	19.1	0.00e+00	0	34	0	353370112	63	4439
2026-01-17 12:17:39.62	247.38	15.51	-46.0	-47.5	19.2	0.00e+00	0	34	0	355467264	63	4329
2026-01-17 12:17:40.63	247.57	15.57	-46.1	-47.6	19.2	0.00e+00	0	34	0	357564416	63	4378
2026-01-17 12:17:41.64	247.76	15.62	-46.1	-47.6	19.2	0.00e+00	0	34	0	359661568	63	4373
2026-01-17 12:17:42.65	247.95	15.68	-46.2	-47.7	19.1	0.00e+00	0	34	0	360710144	63	4427
2026-01-17 12:17:43.66	248.14	15.73	-46.2	-47.8	19.0	0.00e+00	0	34	0	362807296	63	4460
2026-01-17 12:17:44.66	248.33	15.79	-46.3	-47.9	19.0	0.00e+00	0	34	0	364904448	63	4515
2026-01-17 12:17:45.67	248.52	15.84	-46.2	-47.7	19.1	0.00e+00	0	34	0	367001600	63	4411
2026-01-17 12:17:46.68	248.71	15.90	-46.3	-47.8	19.0	0.00e+00	0	34	0	369098752	63	4472
2026-01-17 12:17:47.69	248.90	15.95	-46.1	-47.6	19.3	0.00e+00	0	34	0	370147328	63	4371
2026-01-17 12:17:48.70	249.10	16.01	-46.2	-47.7	19.2	0.00e+00	0	34	0	372244480	63	4415
2026-01-17 12:17:49.71	249.29	16.06	-46.2	-47.7	19.2	0.00e+00	0	34	0	374341632	63	4403
2026-01-17 12:17:50.72	249.49	16.12	-46.2	-47.7	19.2	0.00e+00	0	34	0	376438784	63	4407
2026-01-17 12:17:51.73	249.68	16.17	-46.2	-47.7	19.1	0.00e+00	0	34	0	378535936	63	4435
2026-01-17 12:17:52.74	249.88	16.22	-46.5	-48.0	18.9	0.00e+00	0	34	0	379584512	63	4592
2026-01-17 12:17:53.74	250.08	16.28	-46.7	-48.3	18.7	0.00e+00	0	34	0	381681664	63	4725
2026-01-17 12:17:54.75	250.27	16.33	-46.7	-48.3	18.7	0.00e+00	0	34	0	383778816	63	4721
2026-01-17 12:17:55.76	250.47	16.38	-46.6	-48.3	18.6	0.00e+00	0	34	0	385875968	64	4446
2026-01-17 12:17:56.77	250.67	16.44	-46.6	-48.2	18.7	0.00e+00	0	34	0	387973120	64	4403
2026-01-17 12:17:57.78	250.87	16.49	-46.6	-48.2	18.6	0.00e+00	0	34	0	389021696	64	4430
2026-01-17 12:17:58.78	251.07	16.54	-46.4	-48.0	18.8	0.00e+00	0	34	0	391118848	64	4320
2026-01-17 12:17:59.79	251.27	16.59	-46.5	-48.0	18.8	0.00e+00	0	34	0	393216000	64	4337
2026-01-17 12:18:00.80	251.48	16.65	-46.5	-48.1	18.8	0.00e+00	0	34	0	395313152	64	4359
2026-01-17 12:18:01.81	251.68	16.70	-46.6	-48.2	18.6	0.00e+00	0	34	0	397410304	64	4421
2026-01-17 12:18:02.82	251.88	16.75	-46.9	-48.6	18.3	0.00e+00	0	34	0	399507456	64	4602
2026-01-17 12:18:03.82	252.08	16.80	-46.8	-48.5	18.4	0.00e+00	0	34	0	400556032	64	4581
2026-01-17 12:18:04.83	252.29	16.85	-46.8	-48.5	18.3	0.00e+00	0	34	0	402653184	64	4577
2026-01-17 12:18:05.84	252.49	16.90	-46.9	-48.6	18.3	0.00e+00	0	34	0	404750336	64	4634
2026-01-17 12:18:06.85	252.70	16.95	-46.9	-48.7	18.2	0.00e+00	0	34	0	406847488	64	4657
2026-01-17 12:18:07.86	252.91	17.00	-47.0	-48.7	18.2	0.00e+00	0	34	0	407896064	64	4695
2026-01-17 12:18:08.86	253.11	17.05	-46.9	-48.7	18.2	0.00e+00	0	34	0	409993216	64	4652
2026-01-17 12:18:09.87	253.32	17.10	-47.0	-48.7	18.2	0.00e+00	0	34	0	412090368	64	4671
2026-01-17 12:18:10.88	253.53	17.15	-47.0	-48.7	18.2	0.00e+00	0	34	0	414187520	64	4682
2026-01-17 12:18:11.89	253.74	17.20	-47.2	-49.0	17.9	0.00e+00	0	34	0	416284672	65	4559
2026-01-17 12:18:12.90	253.95	17.25	-47.2	-48.9	17.9	0.00e+00	0	34	0	417333248	65	4541
2026-01-17 12:18:13.90	254.16	17.30	-47.0	-48.7	18.2	0.00e+00	0	34	0	419430400	65	4423
2026-01-17 12:18:14.91	254.37	17.35	-47.2	-48.9	18.0	0.00e+00	0	34	0	421527552	65	4529
2026-01-17 12:18:15.92	254.58	17.40	-47.2	-48.9	17.9	0.00e+00	0	34	0	423624704	65	4542
2026-01-17 12:18:16.93	254.79	17.44	-47.2	-49.0	17.9	0.00e+00	0	34	0	425721856	65	4555
2026-01-17 12:18:17.94	255.01	17.49	-47.4	-49.2	17.7	0.00e+00	0	34	0	427819008	65	4694
2026-01-17 12:18:18.94	255.22	17.54	-47.4	-49.3	17.6	0.00e+00	0	34	0	428867584	65	4729
2026-01-17 12:18:19.95	255.43	17.58	-47.5	-49.4	17.5	0.00e+00	0	34	0	430964736	65	4809
2026-01-17 12:18:20.96	255.65	17.63	-47.5	-49.4	17.6	0.00e+00	0	34	0	433061888	65	4766
2026-01-17 12:18:21.97	255.87	17.68	-47.5	-49.4	17.5	0.00e+00	0	34	0	435159040	65	4781
2026-01-17 12:18:22.98	256.08	17.72	-47.5	-49.4	17.5	0.00e+00	0	34	0	436207616	65	4779
2026-01-17 12:18:23.98	256.30	17.77	-47.5	-49.4	17.6	0.00e+00	0	34	0	438304768	65	4763
2026-01-17 12:18:24.99	256.52	17.82	-47.7	-49.7	17.4	0.00e+00	0	34	0	440401920	65	4931
2026-01-17 12:18:26.00	256.73	17.86	-47.8	-49.8	17.2	0.00e+00	0	34	0	442499072	66	4756
2026-01-17 12:18:27.01	256.95	17.91	-48.0	-50.1	16.9	0.00e+00	0	34	0	444596224	66	4882
2026-01-17 12:18:28.02	257.17	17.95	-48.0	-50.0	16.9	0.00e+00	0	34	0	446693376	66	4870
2026-01-17 12:18:29.02	257.39	17.99	-48.1	-50.2	16.7	0.00e+00	0	34	0	447741952	66	4966
2026-01-17 12:18:30.03	257.61	18.04	-47.8	-49.9	17.1	0.00e+00	0	34	0	449839104	66	4768
2026-01-17 12:18:31.04	257.83	18.08	-47.7	-49.7	17.2	0.00e+00	0	34	0	451936256	66	4685
2026-01-17 12:18:32.05	258.06	18.13	-47.5	-49.3	17.6	0.00e+00	0	34	0	454033408	66	4487
2026-01-17 12:18:33.06	258.28	18.17	-47.0	-48.8	18.1	0.00e+00	0	34	0	456130560	66	4205
2026-01-17 12:18:34.07	258.50	18.21	-47.0	-48.7	18.2	0.00e+00	0	34	0	457179136	66	4192
2026-01-17 12:18:35.08	258.73	18.25	-47.3	-49.2	17.8	0.00e+00	0	34	0	459276288	66	4394
2026-01-17 12:18:36.08	258.95	18.29	-47.3	-49.1	17.8	0.00e+00	0	34	0	461373440	66	4378
2026-01-17 12:18:37.09	259.18	18.34	-47.3	-49.1	17.8	0.00e+00	0	34	0	463470592	66	4379
2026-01-17 12:18:38.10	259.40	18.38	-47.0	-48.8	18.2	0.00e+00	0	34	0	464519168	66	4200
2026-01-17 12:18:39.11	259.63	18.42	-46.9	-48.6	18.3	0.00e+00	0	34	0	466616320	65	4385
2026-01-17 12:18:40.12	259.86	18.46	-46.8	-48.5	18.4	0.00e+00	0	34	0	468713472	65	4319
2026-01-17 12:18:41.13	260.08	18.50	-46.7	-48.3	18.6	0.00e+00	0	34	0	470810624	65	4206
2026-01-17 12:18:42.14	260.31	18.54	-46.8	-48.4	18.5	0.00e+00	0	34	0	472907776	65	4282
2026-01-17 12:18:43.14	260.54	18.58	-46.9	-48.6	18.3	0.00e+00	0	34	0	475004928	65	4372
2026-01-17 12:18:44.15	260.77	18.62	-47.1	-48.9	18.0	0.00e+00	0	34	0	476053504	65	4494
2026-01-17 12:18:45.16	261.00	18.65	-47.1	-48.9	18.0	0.00e+00	0	34	0	478150656	65	4514
2026-01-17 12:18:46.17	261.23	18.69	-46.9	-48.6	18.3	0.00e+00	0	34	0	480247808	65	4377
2026-01-17 12:18:47.18	261.46	18.73	-46.6	-48.3	18.5	0.00e+00	0	34	0	482344960	65	4195
2026-01-17 12:18:48.19	261.69	18.77	-46.5	-48.0	18.8	0.00e+00	0	34	0	484442112	64	4332
2026-01-17 12:18:49.20	261.92	18.81	-46.3	-47.8	19.0	0.00e+00	0	34	0	485490688	64	4229
2026-01-17 12:18:50.21	262.16	18.84	-46.2	-47.7	19.1	0.00e+00	0	34	0	487587840	64	4174
2026-01-17 12:18:51.22	262.39	18.88	-46.1	-47.6	19.2	0.00e+00	0	34	0	489684992	64	4116
2026-01-17 12:18:52.23	262.62	18.91	-46.4	-47.9	18.9	0.00e+00	0	34	0	491782144	64	4281
2026-01-17 12:18:53.24	262.86	18.95	-46.6	-48.2	18.7	0.00e+00	0	34	0	493879296	64	4437
2026-01-17 12:18:54.24	263.09	18.98	-46.4	-47.9	18.9	0.00e+00	0	34	0	494927872	64	4286
2026-01-17 12:18:55.25	263.33	19.02	-46.3	-47.8	19.0	0.00e+00	0	34	0	497025024	64	4229
2026-01-17 12:18:56.26	263.56	19.05	-46.1	-47.5	19.3	0.00e+00	0	34	0	499122176	64	4093
2026-01-17 12:18:57.27	263.80	19.09	-46.0	-47.5	19.4	0.00e+00	0	34	0	501219328	63	4296
2026-01-17 12:18:58.28	264.03	19.12	-45.9	-47.4	19.5	0.00e+00	0	34	0	503316480	63	4246
2026-01-17 12:18:59.29	264.27	19.15	-46.1	-47.6	19.3	0.00e+00	0	34	0	504365056	63	4357
2026-01-17 12:19:00.30	264.51	19.18	-46.1	-47.5	19.4	0.00e+00	0	34	0	506462208	63	4326
2026-01-17 12:19:01.30	264.75	19.22	-46.0	-47.4	19.5	0.00e+00	0	34	0	508559360	63	4270
2026-01-17 12:19:02.31	264.99	19.25	-45.8	-47.3	19.6	0.00e+00	0	34	0	510656512	63	4201
2026-01-17 12:19:03.32	265.22	19.28	-45.6	-47.0	19.9	0.00e+00	0	34	0	512753664	63	4059
2026-01-17 12:19:04.33	265.46	19.31	-45.4	-46.8	20.0	0.00e+00	0	34	0	513802240	62	4207
2026-01-17 12:19:05.33	265.70	19.34	-45.5	-46.8	20.0	0.00e+00	0	34	0	515899392	62	4232
2026-01-17 12:19:06.34	265.94	19.37	-45.6	-46.9	19.9	0.00e+00	0	34	0	517996544	62	4273
2026-01-17 12:19:07.35	266.18	19.40	-45.9	-47.3	19.7	0.00e+00	0	34	0	520093696	62	4444
2026-01-17 12:19:08.36	266.43	19.43	-46.2	-47.7	19.3	0.00e+00	0	34	0	522190848	62	4656
2026-01-17 12:19:09.37	266.67	19.45	-46.0	-47.5	19.4	0.00e+00	0	34	0	523239424	62	4559
2026-01-17 12:19:10.38	266.91	19.48	-46.0	-47.4	19.5	0.00e+00	0	34	0	525336576	62	4544
2026-01-17 12:19:11.38	267.15	19.51	-46.0	-47.4	19.5	0.00e+00	0	34	0	527433728	62	4525
2026-01-17 12:19:12.39	267.39	19.54	-46.0	-47.5	19.4	0.00e+00	0	34	0	529530880	62	4568
2026-01-17 12:19:13.40	267.64	19.56	-46.0	-47.4	19.5	0.00e+00	0	34	0	531628032	62	4522
2026-01-17 12:19:14.41	267.88	19.59	-46.1	-47.6	19.3	0.00e+00	0	34	0	533725184	62	4615
2026-01-17 12:19:15.42	268.13	19.61	-46.1	-47.5	19.4	0.00e+00	0	34	0	534773760	62	4591
2026-01-17 12:19:16.43	268.37	19.64	-46.2	-47.7	19.3	0.00e+00	0	34	0	536870912	63	4392
2026-01-17 12:19:17.44	268.62	19.66	-46.2	-47.6	19.3	0.00e+00	0	34	0	538968064	63	4385
2026-01-17 12:19:18.44	268.86	19.69	-46.0	-47.4	19.5	0.00e+00	0	34	0	541065216	63	4261
2026-01-17 12:19:19.45	269.11	19.71	-45.9	-47.3	19.6	0.00e+00	0	34	0	542113792	63	4207
2026-01-17 12:19:20.46	269.35	19.73	-46.0	-47.5	19.5	0.00e+00	0	34	0	544210944	63	4309
2026-01-17 12:19:21.47	269.60	19.76	-46.1	-47.6	19.3	0.00e+00	0	34	0	546308096	63	4365
2026-01-17 12:19:22.48	269.85	19.78	-46.2	-47.7	19.2	0.00e+00	0	34	0	548405248	63	4424
2026-01-17 12:19:23.49	270.09	19.80	-46.2	-47.7	19.2	0.00e+00	0	34	0	550502400	63	4417
2026-01-17 12:19:24.50	270.34	19.82	-46.0	-47.5	19.5	0.00e+00	0	34	0	551550976	63	4292
2026-01-17 12:19:25.51	270.59	19.84	-45.9	-47.3	19.7	0.00e+00	0	34	0	553648128	63	4214
2026-01-17 12:19:26.51	270.84	19.86	-45.6	-47.0	20.0	0.00e+00	0	34	0	555745280	63	4062
2026-01-17 12:19:27.52	271.08	19.88	-45.7	-47.0	19.8	0.00e+00	0	34	0	557842432	63	4098
2026-01-17 12:19:28.53	271.33	19.90	-45.9	-47.3	19.7	0.00e+00	0	34	0	559939584	63	4209
2026-01-17 12:19:29.54	271.58	19.92	-46.3	-47.8	19.2	0.00e+00	0	34	0	562036736	63	4466
2026-01-17 12:19:30.55	271.83	19.94	-46.6	-48.2	18.8	0.00e+00	0	34	0	563085312	63	4667
2026-01-17 12:19:31.56	272.08	19.95	-46.7	-48.3	18.7	0.00e+00	0	34	0	565182464	64	4458
2026-01-17 12:19:32.56	272.33	19.97	-46.5	-48.1	18.9	0.00e+00	0	34	0	567279616	64	4346
2026-01-17 12:19:33.57	272.58	19.99	-46.5	-48.1	18.9	0.00e+00	0	34	0	569376768	64	4358
2026-01-17 12:19:34.58	272.83	20.00	-46.5	-48.1	18.8	0.00e+00	0	34	0	570425344	64	4381
2026-01-17 12:19:35.59	273.08	20.02	-46.6	-48.2	18.7	0.00e+00	0	34	0	572522496	64	4434
2026-01-17 12:19:36.60	273.33	20.03	-46.8	-48.5	18.4	0.00e+00	0	34	0	574619648	64	4572
2026-01-17 12:19:37.60	273.58	20.05	-47.0	-48.7	18.2	0.00e+00	0	34	0	576716800	64	4691
2026-01-17 12:19:38.61	273.83	20.06	-46.9	-48.6	18.3	0.00e+00	0	34	0	578813952	64	4642
2026-01-17 12:19:39.62	274.09	20.07	-46.7	-48.3	18.6	0.00e+00	0	34	0	580911104	64	4462
2026-01-17 12:19:40.63	274.34	20.09	-46.4	-48.0	18.9	0.00e+00	0	34	0	581959680	64	4309
2026-01-17 12:19:41.64	274.59	20.10	-46.2	-47.7	19.1	0.00e+00	0	34	0	584056832	64	4183
2026-01-17 12:19:42.64	274.84	20.11	-46.2	-47.7	19.2	0.00e+00	0	34	0	586153984	64	4154
2026-01-17 12:19:43.65	275.09	20.12	-46.2	-47.7	19.2	0.00e+00	0	34	0	588251136	64	4183
2026-01-17 12:19:44.66	275.34	20.13	-46.3	-47.8	19.1	0.00e+00	0	34	0	590348288	64	4242
2026-01-17 12:19:45.67	275.60	20.14	-46.4	-47.9	19.0	0.00e+00	0	34	0	591396864	64	4277
2026-01-17 12:19:46.68	275.85	20.15	-46.2	-47.7	19.2	0.00e+00	0	34	0	593494016	64	4191
2026-01-17 12:19:47.68	276.10	20.16	-46.0	-47.5	19.4	0.00e+00	0	34	0	595591168	64	4063
2026-01-17 12:19:48.69	276.35	20.17	-46.0	-47.5	19.4	0.00e+00	0	34	0	597688320	64	4070
2026-01-17 12:19:49.70	276.61	20.17	-46.1	-47.6	19.5	0.00e+00	0	34	0	598736896	63	4346
2026-01-17 12:19:50.71	276.86	20.18	-46.2	-47.7	19.3	0.00e+00	0	34	0	600834048	63	4434
2026-01-17 12:19:51.72	277.11	20.19	-46.5	-48.1	18.9	0.00e+00	0	34	0	602931200	63	4621
2026-01-17 12:19:52.72	277.37	20.19	-46.9	-48.5	18.5	0.00e+00	0	34	0	605028352	64	4590
2026-01-17 12:19:53.73	277.62	20.20	-47.1	-48.8	18.1	0.00e+00	0	34	0	607125504	64	4759
2026-01-17 12:19:54.74	277.87	20.20	-47.2	-49.0	18.0	0.00e+00	0	34	0	609222656	65	4582
2026-01-17 12:19:55.74	278.12	20.21	-47.2	-49.0	18.0	0.00e+00	0	34	0	610271232	65	4564
2026-01-17 12:19:56.75	278.38	20.21	-47.1	-48.9	18.2	0.00e+00	0	34	0	612368384	65	4499
2026-01-17 12:19:57.76	278.63	20.22	-47.2	-49.0	18.1	0.00e+00	0	34	0	614465536	65	4574
2026-01-17 12:19:58.77	278.89	20.22	-47.0	-48.7	18.3	0.00e+00	0	34	0	616562688	65	4429
2026-01-17 12:19:59.78	279.14	20.22	-47.1	-48.8	18.2	0.00e+00	0	34	0	618659840	65	4472
2026-01-17 12:20:00.78	279.39	20.22	-47.1	-48.8	18.2	0.00e+00	0	34	0	619708416	65	4488
2026-01-17 12:20:01.79	279.65	20.22	-47.0	-48.6	18.4	0.00e+00	0	34	0	621805568	65	4385
2026-01-17 12:20:02.80	279.90	20.22	-46.8	-48.4	18.6	0.00e+00	0	34	0	623902720	65	4274
2026-01-17 12:20:03.81	280.16	20.22	-46.8	-48.4	18.6	0.00e+00	0	34	0	625999872	65	4262
2026-01-17 12:20:04.82	280.41	20.22	-46.9	-48.5	18.5	0.00e+00	0	34	0	628097024	65	4339
2026-01-17 12:20:05.82	280.66	20.22	-47.0	-48.6	18.4	0.00e+00	0	34	0	629145600	65	4380
2026-01-17 12:20:06.83	280.92	20.22	-47.1	-48.8	18.3	0.00e+00	0	34	0	631242752	65	4457
2026-01-17 12:20:07.84	281.17	20.22	-47.1	-48.8	18.2	0.00e+00	0	34	0	633339904	65	4485
2026-01-17 12:20:08.85	281.42	20.21	-47.2	-49.0	18.1	0.00e+00	0	34	0	635437056	65	4560
2026-01-17 12:20:09.86	281.68	20.21	-47.0	-48.7	18.3	0.00e+00	0	34	0	637534208	65	4396
2026-01-17 12:20:10.87	281.93	20.21	-46.9	-48.6	18.4	0.00e+00	0	34	0	638582784	65	4364
2026-01-17 12:20:11.88	282.19	20.20	-47.0	-48.8	18.3	0.00e+00	0	34	0	640679936	65	4446
2026-01-17 12:20:12.88	282.44	20.20	-47.2	-49.0	18.1	0.00e+00	0	34	0	642777088	65	4579
2026-01-17 12:20:13.89	282.69	20.19	-47.5	-49.4	17.8	0.00e+00	0	34	0	644874240	65	4767
2026-01-17 12:20:14.90	282.94	20.19	-47.4	-49.2	17.9	0.00e+00	0	34	0	646971392	65	4699
2026-01-17 12:20:15.91	283.20	20.18	-47.4	-49.2	17.9	0.00e+00	0	34	0	649068544	65	4679
2026-01-17 12:20:16.92	283.45	20.17	-47.4	-49.3	17.8	0.00e+00	0	34	0	650117120	65	4716
2026-01-17 12:20:17.93	283.70	20.16	-47.4	-49.3	17.9	0.00e+00	0	34	0	652214272	65	4711
2026-01-17 12:20:18.94	283.96	20.16	-47.5	-49.3	17.8	0.00e+00	0	34	0	654311424	65	4747
2026-01-17 12:20:19.94	284.21	20.15	-47.4	-49.2	17.9	0.00e+00	0	34	0	656408576	65	4669
2026-01-17 12:20:20.95	284.46	20.14	-47.5	-49.3	17.8	0.00e+00	0	34	0	657457152	65	4747
2026-01-17 12:20:21.96	284.71	20.13	-47.8	-49.7	17.5	0.00e+00	0	34	0	659554304	66	4672
2026-01-17 12:20:22.97	284.96	20.12	-47.6	-49.4	17.7	0.00e+00	0	34	0	661651456	66	4515
2026-01-17 12:20:23.98	285.22	20.11	-47.4	-49.1	18.0	0.00e+00	0	34	0	663748608	66	4384
2026-01-17 12:20:24.99	285.47	20.09	-47.2	-48.9	18.2	0.00e+00	0	34	0	665845760	66	4290
2026-01-17 12:20:25.99	285.72	20.08	-47.0	-48.7	18.4	0.00e+00	0	34	0	666894336	66	4167
2026-01-17 12:20:27.00	285.97	20.07	-46.9	-48.5	18.6	0.00e+00	0	34	0	668991488	65	4313
2026-01-17 12:20:28.01	286.22	20.06	-46.8	-48.5	18.6	0.00e+00	0	34	0	671088640	65	4301
2026-01-17 12:20:29.02	286.47	20.04	-46.7	-48.3	18.8	0.00e+00	0	34	0	673185792	65	4211
2026-01-17 12:20:30.03	286.72	20.03	-46.5	-48.0	19.0	0.00e+00	0	34	0	675282944	65	4088
2026-01-17 12:20:31.04	286.97	20.01	-46.6	-48.2	18.9	0.00e+00	0	34	0	677380096	65	4146
2026-01-17 12:20:32.04	287.22	20.00	-46.7	-48.2	18.9	0.00e+00	0	34	0	678428672	65	4185
2026-01-17 12:20:33.05	287.47	19.98	-46.7	-48.3	18.7	0.00e+00	0	34	0	680525824	65	4242
2026-01-17 12:20:34.06	287.72	19.97	-46.8	-48.5	18.6	0.00e+00	0	34	0	682622976	65	4307
2026-01-17 12:20:35.07	287.97	19.95	-47.0	-48.7	18.4	0.00e+00	0	34	0	684720128	65	4420
2026-01-17 12:20:36.08	288.22	19.93	-47.0	-48.7	18.4	0.00e+00	0	34	0	685768704	65	4431
2026-01-17 12:20:37.09	288.47	19.91	-47.0	-48.7	18.4	0.00e+00	0	33	0	687865856	65	4412
2026-01-17 12:20:38.10	288.72	19.89	-47.0	-48.7	18.5	0.00e+00	0	34	0	689963008	65	4392
2026-01-17 12:20:39.10	288.97	19.88	-46.9	-48.5	18.6	0.00e+00	0	34	0	692060160	65	4322
2026-01-17 12:20:40.11	289.21	19.86	-46.7	-48.3	18.8	0.00e+00	0	34	0	694157312	65	4222
2026-01-17 12:20:41.12	289.46	19.84	-46.8	-48.4	18.7	0.00e+00	0	34	0	696254464	65	4253
2026-01-17 12:20:42.13	289.71	19.82	-46.7	-48.3	18.9	0.00e+00	0	34	0	697303040	65	4202
2026-01-17 12:20:43.14	289.96	19.79	-46.9	-48.5	18.7	0.00e+00	0	34	0	699400192	65	4296
2026-01-17 12:20:44.14	290.20	19.77	-46.8	-48.4	18.7	0.00e+00	0	34	0	701497344	65	4285
2026-01-17 12:20:45.15	290.45	19.75	-46.9	-48.5	18.6	0.00e+00	0	34	0	703594496	65	4329
2026-01-17 12:20:46.16	290.70	19.73	-46.9	-48.6	18.6	0.00e+00	0	34	0	705691648	65	4344
2026-01-17 12:20:47.17	290.94	19.71	-47.0	-48.7	18.4	0.00e+00	0	34	0	706740224	65	4406
2026-01-17 12:20:48.18	291.19	19.68	-46.7	-48.3	18.8	0.00e+00	0	34	0	708837376	65	4234
2026-01-17 12:20:49.19	291.43	19.66	-46.6	-48.2	18.9	0.00e+00	0	34	0	710934528	65	4170
2026-01-17 12:20:50.19	291.67	19.63	-46.5	-48.0	19.1	0.00e+00	0	34	0	713031680	65	4054
2026-01-17 12:20:51.20	291.92	19.61	-46.4	-47.9	19.2	0.00e+00	0	34	0	714080256	64	4271
2026-01-17 12:20:52.21	292.16	19.58	-46.5	-48.1	19.0	0.00e+00	0	34	0	716177408	64	4358
2026-01-17 12:20:53.22	292.41	19.56	-46.6	-48.2	18.9	0.00e+00	0	34	0	718274560	64	4416
2026-01-17 12:20:54.22	292.65	19.53	-46.8	-48.4	18.7	0.00e+00	0	34	0	720371712	64	4519
2026-01-17 12:20:55.23	292.89	19.50	-46.8	-48.4	18.7	0.00e+00	0	34	0	722468864	64	4518
2026-01-17 12:20:56.24	293.13	19.48	-46.7	-48.3	18.8	0.00e+00	0	34	0	724566016	64	4453
2026-01-17 12:20:57.25	293.37	19.45	-46.7	-48.3	18.9	0.00e+00	0	34	0	725614592	64	4448
2026-01-17 12:20:58.26	293.62	19.42	-46.8	-48.4	18.7	0.00e+00	0	34	0	727711744	64	4504
2026-01-17 12:20:59.26	293.85	19.39	-46.8	-48.4	18.7	0.00e+00	0	34	0	729808896	64	4525
2026-01-17 12:21:00.27	294.09	19.36	-47.2	-49.0	18.2	0.00e+00	0	34	0	731906048	65	4570
2026-01-17 12:21:01.28	294.33	19.33	-47.4	-49.2	18.1	0.00e+00	0	34	0	734003200	65	4652
2026-01-17 12:21:02.29	294.57	19.30	-47.7	-49.6	17.6	0.00e+00	0	34	0	735051776	65	4886
2026-01-17 12:21:03.30	294.81	19.27	-47.8	-49.7	17.5	0.00e+00	0	34	0	737148928	66	4679
2026-01-17 12:21:04.31	295.05	19.24	-47.6	-49.4	17.7	0.00e+00	0	34	0	739246080	66	4518
2026-01-17 12:21:05.32	295.29	19.21	-47.1	-48.8	18.3	0.00e+00	0	34	0	741343232	66	4224
2026-01-17 12:21:06.33	295.53	19.18	-46.7	-48.3	18.8	0.00e+00	0	34	0	743440384	65	4240
2026-01-17 12:21:07.34	295.77	19.15	-46.4	-47.9	19.1	0.00e+00	0	34	0	744488960	64	4291
2026-01-17 12:21:08.35	296.00	19.11	-46.4	-47.9	19.1	0.00e+00	0	34	0	746586112	64	4258
2026-01-17 12:21:09.36	296.24	19.08	-46.7	-48.3	18.9	0.00e+00	0	34	0	748683264	64	4450
2026-01-17 12:21:10.36	296.47	19.05	-46.7	-48.3	18.8	0.00e+00	0	34	0	750780416	64	4477
2026-01-17 12:21:11.37	296.71	19.01	-46.8	-48.4	18.7	0.00e+00	0	34	0	752877568	64	4529
2026-01-17 12:21:12.38	296.94	18.98	-46.7	-48.3	18.8	0.00e+00	0	34	0	753926144	64	4461
2026-01-17 12:21:13.39	297.18	18.94	-46.4	-47.9	19.2	0.00e+00	0	34	0	756023296	64	4262
2026-01-17 12:21:14.40	297.41	18.91	-46.0	-47.5	19.5	0.00e+00	0	34	0	758120448	64	4057
2026-01-17 12:21:15.41	297.64	18.87	-46.1	-47.5	19.7	0.00e+00	0	34	0	760217600	63	4297
2026-01-17 12:21:16.42	297.87	18.84	-45.9	-47.3	19.8	0.00e+00	0	34	0	762314752	63	4212
2026-01-17 12:21:17.43	298.11	18.80	-46.1	-47.5	19.6	0.00e+00	0	34	0	763363328	63	4315
2026-01-17 12:21:18.43	298.34	18.76	-46.3	-47.7	19.4	0.00e+00	0	34	0	765460480	63	4437
2026-01-17 12:21:19.44	298.57	18.72	-46.5	-48.0	19.2	0.00e+00	0	34	0	767557632	63	4591
2026-01-17 12:21:20.45	298.80	18.69	-46.6	-48.2	19.0	0.00e+00	0	34	0	769654784	63	4658
2026-01-17 12:21:21.46	299.03	18.65	-46.5	-48.0	19.2	0.00e+00	0	34	0	771751936	63	4582
2026-01-17 12:21:22.47	299.26	18.61	-46.4	-47.9	19.3	0.00e+00	0	34	0	772800512	63	4504
2026-01-17 12:21:23.47	299.48	18.57	-46.3	-47.8	19.4	0.00e+00	0	34	0	774897664	63	4456
2026-01-17 12:21:24.49	299.71	18.53	-46.2	-47.6	19.6	0.00e+00	0	34	0	776994816	63	4365
2026-01-17 12:21:25.49	299.94	18.49	-46.2	-47.6	19.6	0.00e+00	0	34	0	779091968	63	4363
2026-01-17 12:21:26.50	300.17	18.45	-45.9	-47.3	19.8	0.00e+00	0	34	0	781189120	63	4218
2026-01-17 12:21:27.51	300.39	18.41	-46.1	-47.5	19.7	0.00e+00	0	34	0	783286272	63	4315
2026-01-17 12:21:28.52	300.62	18.37	-46.1	-47.6	19.6	0.00e+00	0	34	0	784334848	63	4345
2026-01-17 12:21:29.53	300.84	18.33	-46.3	-47.8	19.4	0.00e+00	0	34	0	786432000	63	4460
2026-01-17 12:21:30.54	301.07	18.29	-46.3	-47.8	19.4	0.00e+00	0	34	0	788529152	63	4461
2026-01-17 12:21:31.55	301.29	18.25	-46.3	-47.8	19.4	0.00e+00	0	34	0	790626304	63	4473
2026-01-17 12:21:32.56	301.51	18.21	-46.4	-47.9	19.4	0.00e+00	0	34	0	791674880	63	4502
2026-01-17 12:21:33.57	301.74	18.16	-46.1	-47.5	19.6	0.00e+00	0	34	0	793772032	63	4335
2026-01-17 12:21:34.58	301.96	18.12	-46.1	-47.5	19.6	0.00e+00	0	34	0	795869184	63	4330
2026-01-17 12:21:35.59	302.18	18.08	-46.3	-47.8	19.4	0.00e+00	0	34	0	797966336	63	4478
2026-01-17 12:21:36.59	302.40	18.03	-46.4	-47.9	19.3	0.00e+00	0	34	0	800063488	63	4534
2026-01-17 12:21:37.60	302.62	17.99	-46.5	-48.1	19.1	0.00e+00	0	34	0	801112064	63	4612
2026-01-17 12:21:38.61	302.84	17.95	-46.6	-48.2	19.0	0.00e+00	0	34	0	803209216	63	4675
2026-01-17 12:21:39.62	303.06	17.90	-46.6	-48.1	18.9	0.00e+00	0	34	0	805306368	64	4384
2026-01-17 12:21:40.63	303.28	17.86	-46.5	-48.0	19.1	0.00e+00	0	34	0	807403520	64	4317
2026-01-17 12:21:41.64	303.49	17.81	-46.5	-48.0	19.1	0.00e+00	0	34	0	809500672	64	4339
2026-01-17 12:21:42.64	303.71	17.77	-46.5	-48.1	19.0	0.00e+00	0	34	0	811597824	64	4347
2026-01-17 12:21:43.65	303.93	17.72	-46.5	-48.0	19.0	0.00e+00	0	34	0	812646400	64	4338
2026-01-17 12:21:44.66	304.14	17.67	-46.4	-48.0	19.1	0.00e+00	0	34	0	814743552	64	4293
2026-01-17 12:21:45.67	304.36	17.63	-46.5	-48.0	19.1	0.00e+00	0	34	0	816840704	64	4329
2026-01-17 12:21:46.68	304.57	17.58	-46.5	-48.1	19.0	0.00e+00	0	34	0	818937856	64	4365
2026-01-17 12:21:47.69	304.78	17.53	-46.5	-48.1	19.0	0.00e+00	0	34	0	819986432	64	4360
2026-01-17 12:21:48.70	305.00	17.49	-46.7	-48.2	18.9	0.00e+00	0	34	0	822083584	64	4430
2026-01-17 12:21:49.71	305.21	17.44	-46.6	-48.2	18.9	0.00e+00	0	34	0	824180736	64	4399
2026-01-17 12:21:50.72	305.42	17.39	-47.0	-48.6	18.5	0.00e+00	0	34	0	826277888	64	4644
2026-01-17 12:21:51.73	305.63	17.34	-47.2	-48.9	18.2	0.00e+00	0	34	0	828375040	64	4794
2026-01-17 12:21:52.73	305.84	17.30	-47.5	-49.3	17.9	0.00e+00	0	34	0	830472192	65	4756
2026-01-17 12:21:53.74	306.05	17.25	-47.5	-49.3	17.8	0.00e+00	0	34	0	831520768	65	4737
2026-01-17 12:21:54.75	306.26	17.20	-47.3	-49.1	18.0	0.00e+00	0	34	0	833617920	65	4642
2026-01-17 12:21:55.76	306.47	17.15	-47.0	-48.7	18.4	0.00e+00	0	34	0	835715072	65	4405
2026-01-17 12:21:56.77	306.68	17.10	-47.1	-48.8	18.4	0.00e+00	0	34	0	837812224	65	4445
2026-01-17 12:21:57.78	306.89	17.05	-47.2	-48.9	18.3	0.00e+00	0	34	0	839909376	65	4505
2026-01-17 12:21:58.79	307.09	17.00	-47.1	-48.8	18.3	0.00e+00	0	34	0	840957952	65	4477
2026-01-17 12:21:59.80	307.30	16.95	-47.1	-48.7	18.3	0.00e+00	0	34	0	843055104	65	4438
2026-01-17 12:22:00.80	307.50	16.90	-47.0	-48.7	18.4	0.00e+00	0	34	0	845152256	65	4423
2026-01-17 12:22:01.81	307.71	16.85	-46.9	-48.5	18.5	0.00e+00	0	34	0	847249408	65	4337
2026-01-17 12:22:02.82	307.91	16.80	-46.8	-48.5	18.6	0.00e+00	0	34	0	849346560	65	4298
2026-01-17 12:22:03.83	308.11	16.75	-46.6	-48.1	18.9	0.00e+00	0	34	0	850395136	65	4135
2026-01-17 12:22:04.83	308.31	16.70	-46.5	-48.0	19.0	0.00e+00	0	34	0	852492288	64	4337
2026-01-17 12:22:05.85	308.52	16.65	-46.5	-48.0	19.0	0.00e+00	0	34	0	854589440	64	4321
2026-01-17 12:22:06.85	308.72	16.59	-46.5	-48.1	18.9	0.00e+00	0	34	0	856686592	64	4370
2026-01-17 12:22:07.86	308.92	16.54	-46.7	-48.3	18.8	0.00e+00	0	34	0	858783744	64	4447
2026-01-17 12:22:08.87	309.12	16.49	-46.9	-48.6	18.5	0.00e+00	0	34	0	859832320	64	4625
2026-01-17 12:22:09.88	309.32	16.44	-47.1	-48.9	18.2	0.00e+00	0	34	0	861929472	64	4769
2026-01-17 12:22:10.89	309.52	16.39	-47.3	-49.1	18.0	0.00e+00	0	34	0	864026624	65	4614
2026-01-17 12:22:11.90	309.71	16.33	-47.6	-49.4	17.7	0.00e+00	0	34	0	866123776	65	4797
2026-01-17 12:22:12.90	309.91	16.28	-47.9	-49.9	17.2	0.00e+00	0	34	0	868220928	66	4799
2026-01-17 12:22:13.91	310.10	16.23	-47.8	-49.8	17.3	0.00e+00	0	34	0	870318080	66	4745
2026-01-17 12:22:14.92	310.30	16.17	-48.1	-50.2	16.9	0.00e+00	0	34	0	871366656	66	4962
2026-01-17 12:22:15.93	310.50	16.12	-47.9	-49.8	17.3	0.00e+00	0	34	0	873463808	66	4742
2026-01-17 12:22:16.94	310.69	16.07	-47.9	-49.9	17.2	0.00e+00	0	34	0	875560960	66	4785
2026-01-17 12:22:17.94	310.88	16.01	-47.9	-49.9	17.2	0.00e+00	0	34	0	877658112	66	4792
2026-01-17 12:22:18.95	311.08	15.96	-47.7	-49.7	17.4	0.00e+00	0	34	0	878706688	66	4670
2026-01-17 12:22:19.96	311.27	15.90	-47.4	-49.2	17.9	0.00e+00	0	34	0	880803840	66	4404
2026-01-17 12:22:20.97	311.46	15.85	-47.1	-48.9	18.1	0.00e+00	0	34	0	882900992	66	4256
2026-01-17 12:22:21.98	311.65	15.79	-47.1	-48.8	18.3	0.00e+00	0	34	0	884998144	66	4201
2026-01-17 12:22:22.99	311.84	15.74	-46.9	-48.5	18.4	0.00e+00	0	34	0	887095296	65	4338
2026-01-17 12:22:24.00	312.03	15.68	-46.8	-48.4	18.6	0.00e+00	0	34	0	888143872	65	4248
2026-01-17 12:22:25.00	312.22	15.63	-46.8	-48.5	18.5	0.00e+00	0	34	0	890241024	65	4309
2026-01-17 12:22:26.01	312.41	15.57	-46.9	-48.6	18.4	0.00e+00	0	34	0	892338176	65	4349
2026-01-17 12:22:27.02	312.59	15.52	-47.1	-48.8	18.2	0.00e+00	0	34	0	894435328	65	4472
2026-01-17 12:22:28.03	312.78	15.46	-47.3	-49.1	17.9	0.00e+00	0	34	0	896532480	65	4635
2026-01-17 12:22:29.04	312.97	15.41	-47.5	-49.3	17.7	0.00e+00	0	34	0	898629632	65	4741
2026-01-17 12:22:30.05	313.15	15.35	-47.9	-49.9	17.1	0.00e+00	0	34	0	899678208	66	4790
2026-01-17 12:22:31.06	313.34	15.29	-47.7	-49.7	17.3	0.00e+00	0	34	0	901775360	66	4676
2026-01-17 12:22:32.07	313.52	15.24	-47.9	-49.9	17.1	0.00e+00	0	34	0	903872512	66	4766
2026-01-17 12:22:33.07	313.70	15.18	-47.8	-49.7	17.3	0.00e+00	0	34	0	905969664	66	4677
2026-01-17 12:22:34.08	313.89	15.13	-47.5	-49.3	17.7	0.00e+00	0	34	0	907018240	66	4477
2026-01-17 12:22:35.09	314.07	15.07	-47.6	-49.4	17.5	0.00e+00	0	34	0	909115392	66	4545
2026-01-17 12:22:36.10	314.25	15.01	-47.3	-49.1	17.8	0.00e+00	0	34	0	911212544	66	4387
2026-01-17 12:22:37.10	314.43	14.96	-47.4	-49.2	17.8	0.00e+00	0	34	0	913309696	66	4406
2026-01-17 12:22:38.11	314.61	14.90	-47.6	-49.5	17.5	0.00e+00	0	34	0	915406848	66	4558
2026-01-17 12:22:39.12	314.79	14.84	-47.5	-49.4	17.6	0.00e+00	0	34	0	917504000	66	4518
2026-01-17 12:22:40.13	314.97	14.78	-47.6	-49.4	17.6	0.00e+00	0	34	0	918552576	66	4545
2026-01-17 12:22:41.14	315.15	14.73	-47.5	-49.3	17.7	0.00e+00	0	34	0	920649728	66	4477
2026-01-17 12:22:42.14	315.32	14.67	-47.1	-48.9	18.0	0.00e+00	0	34	0	922746880	66	4270
2026-01-17 12:22:43.15	315.50	14.61	-47.1	-48.8	18.1	0.00e+00	0	34	0	924844032	66	4231
2026-01-17 12:22:44.16	315.67	14.55	-46.9	-48.5	18.4	0.00e+00	0	34	0	926941184	65	4338
2026-01-17 12:22:45.16	315.85	14.50	-46.8	-48.5	18.4	0.00e+00	0	34	0	927989760	65	4293
2026-01-17 12:22:46.17	316.02	14.44	-46.7	-48.3	18.6	0.00e+00	0	34	0	930086912	65	4222
2026-01-17 12:22:47.18	316.20	14.38	-47.0	-48.7	18.2	0.00e+00	0	34	0	932184064	65	4427
2026-01-17 12:22:48.19	316.37	14.32	-47.0	-48.7	18.1	0.00e+00	0	34	0	934281216	65	4437
2026-01-17 12:22:49.20	316.54	14.26	-47.1	-48.9	18.0	0.00e+00	0	34	0	935329792	65	4526
2026-01-17 12:22:50.21	316.72	14.21	-47.4	-49.3	17.7	0.00e+00	0	34	0	937426944	65	4722
2026-01-17 12:22:51.22	316.89	14.15	-47.2	-49.0	17.9	0.00e+00	0	34	0	939524096	65	4562
2026-01-17 12:22:52.22	317.06	14.09	-47.3	-49.1	17.8	0.00e+00	0	34	0	941621248	65	4624
2026-01-17 12:22:53.23	317.23	14.03	-47.1	-48.9	18.0	0.00e+00	0	34	0	943718400	65	4504
2026-01-17 12:22:54.24	317.40	13.97	-47.0	-48.7	18.2	0.00e+00	0	34	0	945815552	65	4439
2026-01-17 12:22:55.25	317.57	13.91	-47.1	-48.8	18.1	0.00e+00	0	34	0	946864128	65	4493
2026-01-17 12:22:56.26	317.73	13.85	-46.8	-48.5	18.4	0.00e+00	0	34	0	948961280	65	4319
2026-01-17 12:22:57.26	317.90	13.80	-46.8	-48.5	18.3	0.00e+00	0	34	0	951058432	65	4318
2026-01-17 12:22:58.27	318.07	13.74	-47.0	-48.7	18.2	0.00e+00	0	34	0	953155584	65	4411
2026-01-17 12:22:59.28	318.23	13.68	-46.9	-48.6	18.3	0.00e+00	0	34	0	955252736	65	4345
2026-01-17 12:23:00.29	318.40	13.62	-46.9	-48.6	18.2	0.00e+00	0	34	0	956301312	65	4360
2026-01-17 12:23:01.30	318.57	13.56	-47.0	-48.7	18.1	0.00e+00	0	34	0	958398464	65	4438
2026-01-17 12:23:02.31	318.73	13.50	-47.1	-48.9	17.9	0.00e+00	0	34	0	960495616	65	4523
2026-01-17 12:23:03.31	318.89	13.44	-47.0	-48.7	18.1	0.00e+00	0	34	0	962592768	65	4413
2026-01-17 12:23:04.32	319.06	13.38	-46.8	-48.5	18.4	0.00e+00	0	34	0	964689920	65	4309
2026-01-17 12:23:05.33	319.22	13.32	-46.8	-48.5	18.3	0.00e+00	0	34	0	965738496	65	4312
2026-01-17 12:23:06.34	319.38	13.26	-46.9	-48.6	18.2	0.00e+00	0	34	0	967835648	65	4385
2026-01-17 12:23:07.35	319.54	13.20	-47.0	-48.8	18.1	0.00e+00	0	34	0	969932800	65	4442
2026-01-17 12:23:08.35	319.70	13.14	-47.0	-48.8	18.0	0.00e+00	0	34	0	972029952	65	4475
2026-01-17 12:23:09.36	319.86	13.08	-47.1	-48.9	17.9	0.00e+00	0	34	0	974127104	65	4518
2026-01-17 12:23:10.37	320.02	13.02	-47.2	-49.0	17.8	0.00e+00	0	34	0	975175680	65	4596
2026-01-17 12:23:11.38	320.18	12.96	-47.0	-48.7	18.1	0.00e+00	0	34	0	977272832	65	4430
2026-01-17 12:23:12.38	320.33	12.90	-47.0	-48.8	18.0	0.00e+00	0	34	0	979369984	65	4452
2026-01-17 12:23:13.39	320.49	12.84	-46.7	-48.4	18.4	0.00e+00	0	34	0	981467136	65	4251
2026-01-17 12:23:14.40	320.65	12.78	-46.6	-48.3	18.5	0.00e+00	0	34	0	983564288	65	4210
2026-01-17 12:23:15.41	320.81	12.72	-46.4	-47.9	18.8	0.00e+00	0	34	0	984612864	64	4279
2026-01-17 12:23:16.42	320.96	12.66	-46.1	-47.6	19.2	0.00e+00	0	34	0	986710016	63	4364
2026-01-17 12:23:17.43	321.12	12.60	-46.2	-47.7	19.1	0.00e+00	0	34	0	988807168	63	4400
2026-01-17 12:23:18.43	321.27	12.54	-46.0	-47.5	19.3	0.00e+00	0	34	0	990904320	63	4304
2026-01-17 12:23:19.44	321.42	12.48	-45.9	-47.3	19.4	0.00e+00	0	34	0	993001472	63	4238
2026-01-17 12:23:20.45	321.58	12.42	-46.1	-47.6	19.1	0.00e+00	0	34	0	994050048	63	4390
2026-01-17 12:23:21.46	321.73	12.36	-46.3	-47.9	18.9	0.00e+00	0	34	0	996147200	63	4512
2026-01-17 12:23:22.46	321.88	12.30	-46.5	-48.1	18.7	0.00e+00	0	34	0	998244352	63	4614
2026-01-17 12:23:23.47	322.03	12.24	-46.7	-48.4	18.4	0.00e+00	0	34	0	1000341504	63	4782
2026-01-17 12:23:24.48	322.18	12.18	-46.6	-48.3	18.4	0.00e+00	0	34	0	1002438656	64	4466
2026-01-17 12:23:25.49	322.33	12.12	-46.7	-48.4	18.3	0.00e+00	0	34	0	1003487232	64	4535
2026-01-17 12:23:26.50	322.48	12.06	-46.8	-48.6	18.1	0.00e+00	0	34	0	1005584384	64	4615
2026-01-17 12:23:27.51	322.63	12.00	-46.7	-48.4	18.3	0.00e+00	0	34	0	1007681536	64	4521
2026-01-17 12:23:28.52	322.78	11.94	-46.4	-48.0	18.6	0.00e+00	0	34	0	1009778688	64	4326
2026-01-17 12:23:29.53	322.93	11.88	-46.3	-47.9	18.7	0.00e+00	0	34	0	1011875840	64	4274
2026-01-17 12:23:30.54	323.07	11.82	-46.2	-47.8	18.8	0.00e+00	0	34	0	1012924416	64	4224
2026-01-17 12:23:31.54	323.22	11.76	-46.4	-48.0	18.7	0.00e+00	0	34	0	1015021568	64	4293
2026-01-17 12:23:32.55	323.37	11.70	-46.5	-48.1	18.5	0.00e+00	0	34	0	1017118720	64	4366
2026-01-17 12:23:33.56	323.51	11.64	-46.6	-48.2	18.5	0.00e+00	0	34	0	1019215872	64	4428
2026-01-17 12:23:34.57	323.66	11.58	-46.9	-48.7	18.1	0.00e+00	0	34	0	1021313024	64	4657
2026-01-17 12:23:35.58	323.80	11.52	-46.8	-48.5	18.2	0.00e+00	0	34	0	1022361600	64	4592
2026-01-17 12:23:36.58	323.94	11.46	-46.9	-48.7	18.0	0.00e+00	0	34	0	1024458752	64	4678
2026-01-17 12:23:37.59	324.09	11.40	-46.9	-48.7	18.1	0.00e+00	0	34	0	1026555904	64	4665
2026-01-17 12:23:38.60	324.23	11.34	-46.7	-48.4	18.3	0.00e+00	0	34	0	1028653056	64	4519
2026-01-17 12:23:39.61	324.37	11.28	-46.6	-48.3	18.3	0.00e+00	0	34	0	1030750208	64	4473
2026-01-17 12:23:40.62	324.51	11.22	-46.5	-48.2	18.5	0.00e+00	0	34	0	1032847360	64	4412
2026-01-17 12:23:41.63	324.65	11.15	-46.4	-48.0	18.7	0.00e+00	0	34	0	1033895936	64	4302
2026-01-17 12:23:42.64	324.79	11.09	-46.5	-48.2	18.4	0.00e+00	0	34	0	1035993088	64	4401
2026-01-17 12:23:43.64	324.93	11.03	-46.4	-48.0	18.7	0.00e+00	0	34	0	1038090240	64	4294
2026-01-17 12:23:44.65	325.07	10.97	-46.4	-48.1	18.6	0.00e+00	0	34	0	1040187392	64	4350
2026-01-17 12:23:45.66	325.21	10.91	-46.5	-48.2	18.5	0.00e+00	0	34	0	1041235968	64	4399
2026-01-17 12:23:46.67	325.35	10.85	-46.8	-48.6	18.1	0.00e+00	0	34	0	1043333120	64	4607
2026-01-17 12:23:47.68	325.49	10.79	-47.0	-48.7	17.9	0.00e+00	0	34	0	1045430272	64	4703
2026-01-17 12:23:48.68	325.62	10.73	-47.3	-49.2	17.5	0.00e+00	0	34	0	1047527424	65	4674
2026-01-17 12:23:49.69	325.76	10.67	-47.5	-49.5	17.2	0.00e+00	0	34	0	1049624576	65	4817
2026-01-17 12:23:50.70	325.90	10.61	-47.5	-49.5	17.1	0.00e+00	0	34	0	1050673152	65	4857
2026-01-17 12:23:51.71	326.03	10.55	-47.5	-49.6	17.1	0.00e+00	0	34	0	1052770304	65	4878
2026-01-17 12:23:52.72	326.17	10.49	-47.6	-49.6	17.0	0.00e+00	0	34	0	1054867456	65	4916
2026-01-17 12:23:53.72	326.30	10.43	-47.5	-49.6	17.1	0.00e+00	0	34	0	1056964608	65	4890
2026-01-17 12:23:54.73	326.43	10.37	-47.4	-49.4	17.2	0.00e+00	0	34	0	1059061760	65	4799
2026-01-17 12:23:55.74	326.57	10.31	-47.2	-49.1	17.5	0.00e+00	0	34	0	1061158912	65	4625
2026-01-17 12:23:56.75	326.70	10.25	-47.3	-49.3	17.3	0.00e+00	0	34	0	1062207488	65	4726
2026-01-17 12:23:57.76	326.83	10.19	-47.2	-49.1	17.5	0.00e+00	0	34	0	1064304640	65	4630
2026-01-17 12:23:58.77	326.96	10.13	-47.3	-49.2	17.4	0.00e+00	0	34	0	1066401792	65	4695
2026-01-17 12:23:59.78	327.09	10.07	-47.4	-49.3	17.3	0.00e+00	0	34	0	1068498944	65	4738
2026-01-17 12:24:00.78	327.22	10.01	-47.3	-49.3	17.3	0.00e+00	0	34	0	1069547520	65	4719
2026-01-17 12:24:01.79	327.35	9.95	-47.4	-49.4	17.2	0.00e+00	0	34	0	1071644672	65	4783
2026-01-17 12:24:02.80	327.48	9.89	-47.3	-49.3	17.4	0.00e+00	0	34	0	1073741824	65	4706
2026-01-17 12:24:03.81	327.61	9.83	-47.3	-49.2	17.4	0.00e+00	0	34	0	1075838976	65	4686
2026-01-17 12:24:04.82	327.74	9.77	-47.3	-49.2	17.4	0.00e+00	0	34	0	1077936128	65	4674
2026-01-17 12:24:05.83	327.87	9.71	-47.2	-49.1	17.5	0.00e+00	0	34	0	1080033280	65	4626
2026-01-17 12:24:06.83	328.00	9.65	-47.2	-49.1	17.4	0.00e+00	0	34	0	1081081856	65	4650
2026-01-17 12:24:07.84	328.12	9.59	-47.0	-48.8	17.8	0.00e+00	0	34	0	1083179008	65	4457
2026-01-17 12:24:08.85	328.25	9.53	-46.9	-48.8	17.8	0.00e+00	0	34	0	1085276160	65	4450
2026-01-17 12:24:09.86	328.38	9.47	-47.1	-49.0	17.6	0.00e+00	0	34	0	1087373312	65	4569
2026-01-17 12:24:10.86	328.50	9.41	-47.2	-49.1	17.4	0.00e+00	0	34	0	1089470464	65	4625
2026-01-17 12:24:11.87	328.63	9.35	-47.2	-49.1	17.5	0.00e+00	0	34	0	1090519040	65	4601
2026-01-17 12:24:12.88	328.75	9.29	-47.2	-49.1	17.4	0.00e+00	0	34	0	1092616192	65	4647
2026-01-17 12:24:13.89	328.87	9.23	-47.4	-49.4	17.2	0.00e+00	0	34	0	1094713344	65	4773
2026-01-17 12:24:14.89	329.00	9.17	-47.5	-49.5	17.0	0.00e+00	0	34	0	1096810496	65	4852
2026-01-17 12:24:15.90	329.12	9.11	-47.4	-49.5	17.1	0.00e+00	0	34	0	1097859072	65	4823
2026-01-17 12:24:16.91	329.24	9.05	-47.4	-49.4	17.1	0.00e+00	0	34	0	1099956224	65	4773
2026-01-17 12:24:17.92	329.37	8.99	-47.4	-49.5	17.1	0.00e+00	0	34	0	1102053376	65	4820
2026-01-17 12:24:18.93	329.49	8.93	-47.3	-49.2	17.3	0.00e+00	0	34	0	1104150528	65	4690
2026-01-17 12:24:19.94	329.61	8.87	-47.0	-48.9	17.6	0.00e+00	0	34	0	1106247680	65	4522
2026-01-17 12:24:20.95	329.73	8.81	-47.1	-49.0	17.5	0.00e+00	0	34	0	1108344832	65	4553
2026-01-17 12:24:21.96	329.85	8.75	-46.8	-48.5	17.9	0.00e+00	0	34	0	1109393408	65	4336
2026-01-17 12:24:22.96	329.97	8.69	-46.7	-48.4	18.0	0.00e+00	0	34	0	1111490560	65	4279
2026-01-17 12:24:23.97	330.09	8.63	-46.6	-48.3	18.1	0.00e+00	0	34	0	1113587712	65	4203
2026-01-17 12:24:24.98	330.21	8.57	-46.6	-48.3	18.1	0.00e+00	0	34	0	1115684864	65	4235
2026-01-17 12:24:25.99	330.33	8.51	-46.8	-48.6	17.9	0.00e+00	0	34	0	1117782016	65	4391
2026-01-17 12:24:27.00	330.44	8.45	-47.0	-48.8	17.7	0.00e+00	0	34	0	1118830592	65	4474
2026-01-17 12:24:28.00	330.56	8.39	-47.1	-49.0	17.5	0.00e+00	0	34	0	1120927744	65	4576
2026-01-17 12:24:29.01	330.68	8.33	-47.3	-49.3	17.2	0.00e+00	0	34	0	1123024896	65	4741
2026-01-17 12:24:30.02	330.79	8.27	-47.5	-49.6	16.9	0.00e+00	0	34	0	1125122048	65	4871
2026-01-17 12:24:31.03	330.91	8.21	-47.5	-49.7	16.8	0.00e+00	0	34	0	1127219200	65	4928
2026-01-17 12:24:32.04	331.03	8.15	-47.6	-49.8	16.7	0.00e+00	0	34	0	1128267776	65	4992
2026-01-17 12:24:33.04	331.14	8.09	-47.8	-50.0	16.5	0.00e+00	0	34	0	1130364928	66	4815
2026-01-17 12:24:34.05	331.25	8.03	-47.6	-49.8	16.7	0.00e+00	0	34	0	1132462080	66	4708
2026-01-17 12:24:35.06	331.37	7.97	-47.6	-49.8	16.7	0.00e+00	0	34	0	1134559232	66	4717
2026-01-17 12:24:36.07	331.48	7.92	-47.3	-49.3	17.1	0.00e+00	0	34	0	1136656384	66	4481
2026-01-17 12:24:37.08	331.60	7.86	-47.1	-49.0	17.5	0.00e+00	0	34	0	1137704960	66	4306
2026-01-17 12:24:38.08	331.71	7.80	-47.2	-49.1	17.3	0.00e+00	0	34	0	1139802112	66	4375
2026-01-17 12:24:39.09	331.82	7.74	-46.9	-48.8	17.6	0.00e+00	0	34	0	1141899264	65	4471
2026-01-17 12:24:40.10	331.93	7.68	-46.8	-48.6	17.7	0.00e+00	0	34	0	1143996416	65	4381
2026-01-17 12:24:41.11	332.04	7.62	-47.0	-48.8	17.6	0.00e+00	0	34	0	1146093568	65	4485
2026-01-17 12:24:42.12	332.16	7.56	-47.1	-49.0	17.4	0.00e+00	0	34	0	1148190720	65	4577
2026-01-17 12:24:43.13	332.27	7.50	-47.1	-49.0	17.4	0.00e+00	0	34	0	1149239296	65	4575
2026-01-17 12:24:44.13	332.38	7.44	-47.2	-49.2	17.2	0.00e+00	0	34	0	1151336448	65	4660
2026-01-17 12:24:45.14	332.49	7.39	-47.2	-49.2	17.1	0.00e+00	0	34	0	1153433600	65	4698
2026-01-17 12:24:46.15	332.60	7.33	-47.4	-49.5	16.9	0.00e+00	0	34	0	1155530752	65	4838
2026-01-17 12:24:47.16	332.71	7.27	-47.6	-49.7	16.7	0.00e+00	0	34	0	1156579328	65	4953
2026-01-17 12:24:48.17	332.81	7.21	-47.7	-49.9	16.5	0.00e+00	0	34	0	1158676480	65	5069
2026-01-17 12:24:49.17	332.92	7.15	-47.9	-50.3	16.1	0.00e+00	0	34	0	1160773632	66	4991
2026-01-17 12:24:50.18	333.03	7.09	-47.9	-50.2	16.2	0.00e+00	0	34	0	1162870784	66	4936
2026-01-17 12:24:51.19	333.14	7.04	-48.0	-50.3	16.1	0.00e+00	0	34	0	1164967936	66	4995
2026-01-17 12:24:52.20	333.24	6.98	-48.0	-50.3	16.1	0.00e+00	0	34	0	1166016512	66	4997
2026-01-17 12:24:53.20	333.35	6.92	-47.8	-50.1	16.3	0.00e+00	0	34	0	1168113664	66	4894
2026-01-17 12:24:54.21	333.46	6.86	-48.0	-50.3	16.0	0.00e+00	0	34	0	1170210816	66	5013
2026-01-17 12:24:55.22	333.56	6.80	-48.1	-50.6	15.8	0.00e+00	0	34	0	1172307968	66	5168
2026-01-17 12:24:56.23	333.67	6.74	-48.1	-50.5	15.8	0.00e+00	0	34	0	1174405120	67	4868
2026-01-17 12:24:57.24	333.77	6.69	-48.3	-50.8	15.5	0.00e+00	0	34	0	1176502272	67	5040
2026-01-17 12:24:58.25	333.88	6.63	-48.4	-50.9	15.4	0.00e+00	0	34	0	1177550848	67	5091
2026-01-17 12:24:59.25	333.98	6.57	-48.5	-51.1	15.2	0.00e+00	0	34	0	1179648000	67	5185
2026-01-17 12:25:00.26	334.08	6.51	-48.9	-51.7	14.7	0.00e+00	0	34	0	1181745152	68	5277
2026-01-17 12:25:01.27	334.19	6.45	-48.8	-51.6	14.8	7.00e-07	0	34	0	1183842304	68	5205
2026-01-17 12:25:02.28	334.29	6.40	-49.2	-52.2	14.1	1.50e-06	0	34	0	1184890880	68	5586
2026-01-17 12:25:03.29	334.39	6.34	-49.3	-52.4	13.9	3.00e-06	0	34	0	1186988032	69	5401
2026-01-17 12:25:04.30	334.50	6.28	-49.1	-52.2	14.2	3.00e-06	0	34	0	1189085184	69	5233
2026-01-17 12:25:05.30	334.60	6.22	-49.2	-52.5	13.9	7.00e-07	0	34	0	1191182336	69	5413
2026-01-17 12:25:06.31	334.70	6.17	-49.1	-52.3	14.0	7.00e-07	0	34	0	1193279488	69	5302
2026-01-17 12:25:07.32	334.80	6.11	-48.9	-51.8	14.5	0.00e+00	0	34	0	1195376640	69	5024
2026-01-17 12:25:08.33	334.90	6.05	-48.7	-51.6	14.7	0.00e+00	0	34	0	1196425216	69	4885
2026-01-17 12:25:09.34	335.00	5.99	-48.8	-51.8	14.5	7.00e-07	0	34	0	1198522368	69	5004
2026-01-17 12:25:10.34	335.10	5.94	-48.7	-51.6	14.6	7.00e-07	0	34	0	1200619520	69	4886
2026-01-17 12:25:11.35	335.20	5.88	-48.4	-51.0	15.2	0.00e+00	0	34	0	1202716672	68	4860
2026-01-17 12:25:12.36	335.30	5.82	-48.6	-51.4	14.7	0.00e+00	0	34	0	1204813824	68	5095
2026-01-17 12:25:13.37	335.40	5.76	-48.3	-50.9	15.3	0.00e+00	0	34	0	1205862400	68	4770
2026-01-17 12:25:14.38	335.50	5.71	-48.3	-50.9	15.3	0.00e+00	0	34	0	1207959552	68	4765
2026-01-17 12:25:15.38	335.60	5.65	-48.5	-51.3	14.9	0.00e+00	0	34	0	1210056704	68	5028
2026-01-17 12:25:16.39	335.69	5.59	-48.4	-51.0	15.2	0.00e+00	0	34	0	1212153856	68	4866
2026-01-17 12:25:17.40	335.79	5.54	-48.4	-51.1	15.1	0.00e+00	0	34	0	1213202432	68	4895
2026-01-17 12:25:18.41	335.89	5.48	-48.3	-50.8	15.4	0.00e+00	0	34	0	1215299584	68	4755
2026-01-17 12:25:19.42	335.98	5.42	-48.5	-51.3	15.0	7.00e-07	0	34	0	1217396736	68	4993
2026-01-17 12:25:20.42	336.08	5.37	-48.8	-51.7	14.5	1.50e-06	0	34	0	1219493888	68	5265
