passes_logs/2026/01/17/R3.2S_Murmansk/R3.2S_Murmansk__20260117_033618_AQUA_rec.log

#Pass ID: 20260117_033618_AQUA
#Satellite: AQUA
#Configuration: AQUA
#almurnet v.1.7.20251203
#Start time: 2026-01-17 03:36:18

#Version: 2.2.20231116
#Station: R3.2S_Murmansk
#Location: 33.079688 lon 68.888172 lat
#TLE: 1 27424U 02022A   26015.92015591  .00000664  00000+0  14289-3 0  9993
#TLE: 2 27424  98.4082 342.3630 0002020  77.1389  16.3168 14.61822470261023

#Time	Az	El	Level	Level2	SNR	BER	BlckErr	Temp	State	Recorded	gain1	gain2
2026-01-17 03:36:18.91	28.14	2.02	-52.6	-70.5	3.8	7.46e-01	0	31	0	0	77	27133
2026-01-17 03:36:19.92	28.10	2.09	-52.6	-70.4	3.8	7.44e-01	0	32	104	0	75	30353
2026-01-17 03:36:20.93	28.07	2.15	-52.5	-70.4	3.8	7.43e-01	0	32	104	0	75	30191
2026-01-17 03:36:21.94	28.03	2.22	-52.5	-70.4	3.8	7.45e-01	0	32	104	0	75	30133
2026-01-17 03:36:22.95	28.00	2.28	-52.5	-70.4	3.8	7.48e-01	0	32	104	0	75	30240
2026-01-17 03:36:23.96	27.96	2.35	-52.5	-70.4	3.8	7.46e-01	0	32	104	0	75	30093
2026-01-17 03:36:24.96	27.93	2.41	-52.5	-70.4	3.8	7.44e-01	0	32	104	0	75	30121
2026-01-17 03:36:25.97	27.89	2.48	-52.5	-70.4	3.8	7.46e-01	0	32	104	0	75	30170
2026-01-17 03:36:26.99	27.85	2.55	-52.5	-70.4	3.8	7.45e-01	0	32	104	0	75	30085
2026-01-17 03:36:27.99	27.82	2.61	-52.5	-70.4	3.8	7.42e-01	0	32	104	0	75	30117
2026-01-17 03:36:29.00	27.78	2.68	-52.5	-70.4	3.8	7.43e-01	0	32	104	0	75	30128
2026-01-17 03:36:30.01	27.74	2.75	-52.5	-70.4	3.8	7.47e-01	0	32	104	0	75	30071
2026-01-17 03:36:31.02	27.71	2.81	-52.6	-70.4	3.8	7.45e-01	0	32	104	0	75	30262
2026-01-17 03:36:32.02	27.67	2.88	-52.5	-70.4	3.8	7.47e-01	0	32	104	0	75	30106
2026-01-17 03:36:33.03	27.63	2.95	-52.6	-70.4	3.8	7.44e-01	0	32	104	0	75	30094
2026-01-17 03:36:34.04	27.59	3.01	-52.5	-70.2	3.8	7.46e-01	0	32	104	0	75	29661
2026-01-17 03:36:35.05	27.56	3.08	-52.6	-70.2	3.8	7.48e-01	0	32	104	0	75	29572
2026-01-17 03:36:36.06	27.52	3.15	-52.5	-70.0	3.8	7.47e-01	0	32	104	0	75	28698
2026-01-17 03:36:37.07	27.48	3.22	-52.6	-70.1	3.8	7.42e-01	0	32	104	0	75	29198
2026-01-17 03:36:38.08	27.44	3.29	-52.5	-70.0	3.8	7.46e-01	0	32	104	0	75	28848
2026-01-17 03:36:39.09	27.40	3.35	-52.5	-70.0	3.8	7.46e-01	0	32	104	0	75	28960
2026-01-17 03:36:40.10	27.36	3.42	-52.4	-69.8	3.8	7.42e-01	0	32	104	0	75	28328
2026-01-17 03:36:41.11	27.33	3.49	-52.4	-69.8	3.8	7.43e-01	0	32	104	0	75	28305
2026-01-17 03:36:42.11	27.29	3.56	-52.5	-70.0	3.8	7.47e-01	0	32	104	0	75	28788
2026-01-17 03:36:43.12	27.25	3.63	-52.4	-70.1	3.8	7.44e-01	0	32	104	0	75	29316
2026-01-17 03:36:44.13	27.21	3.70	-52.4	-70.2	3.8	7.45e-01	0	32	104	0	75	29424
2026-01-17 03:36:45.14	27.17	3.77	-52.5	-70.1	3.8	7.41e-01	0	32	104	0	75	29329
2026-01-17 03:36:46.15	27.13	3.84	-52.4	-69.7	3.8	7.43e-01	0	33	104	0	75	27923
2026-01-17 03:36:47.16	27.09	3.91	-52.2	-68.8	3.8	7.45e-01	0	32	104	0	75	25096
2026-01-17 03:36:48.17	27.05	3.98	-52.0	-67.9	3.8	7.44e-01	0	32	104	0	75	22730
2026-01-17 03:36:49.17	27.01	4.05	-51.8	-67.0	3.8	7.49e-01	0	33	104	0	75	20372
2026-01-17 03:36:50.18	26.96	4.12	-51.4	-66.0	3.8	7.48e-01	0	33	104	0	74	19341
2026-01-17 03:36:51.19	26.92	4.19	-51.0	-65.0	3.8	7.42e-01	0	33	104	0	74	17251
2026-01-17 03:36:52.20	26.88	4.26	-50.4	-63.8	3.8	7.45e-01	0	33	104	0	72	16820
2026-01-17 03:36:53.21	26.84	4.33	-50.0	-62.9	3.8	7.39e-01	0	33	104	0	72	15222
2026-01-17 03:36:54.22	26.80	4.40	-50.0	-63.0	3.8	7.45e-01	0	33	104	0	71	16261
2026-01-17 03:36:55.22	26.76	4.47	-49.6	-62.4	3.8	7.45e-01	0	33	104	0	71	15060
2026-01-17 03:36:56.23	26.71	4.54	-49.6	-62.3	3.8	7.44e-01	0	33	104	0	70	15922
2026-01-17 03:36:57.24	26.67	4.61	-49.6	-62.2	3.8	7.44e-01	0	33	104	0	70	15593
2026-01-17 03:36:58.25	26.63	4.69	-50.2	-63.4	3.8	7.40e-01	0	33	104	0	71	17031
2026-01-17 03:36:59.26	26.58	4.76	-50.3	-63.4	3.8	7.45e-01	0	33	104	0	71	16967
2026-01-17 03:37:00.27	26.54	4.83	-50.3	-63.5	3.8	7.43e-01	0	33	104	0	71	17151
2026-01-17 03:37:01.28	26.50	4.90	-50.6	-64.0	3.8	7.43e-01	0	33	104	0	71	18207
2026-01-17 03:37:02.29	26.45	4.97	-51.0	-64.9	3.8	7.45e-01	0	33	104	0	72	18971
2026-01-17 03:37:03.30	26.41	5.05	-51.3	-65.7	3.8	7.46e-01	0	33	104	0	73	19736
2026-01-17 03:37:04.31	26.36	5.12	-47.8	-59.4	3.8	7.47e-01	0	33	104	0	67	13485
2026-01-17 03:37:05.32	26.32	5.19	-50.4	-63.2	3.8	7.46e-01	0	33	104	0	71	16597
2026-01-17 03:37:06.32	26.27	5.27	-51.9	-67.4	3.8	7.40e-01	0	33	104	0	74	22558
2026-01-17 03:37:07.33	26.23	5.34	-48.0	-59.5	3.8	7.49e-01	0	33	104	0	66	14505
2026-01-17 03:37:08.35	26.18	5.41	-51.2	-64.9	3.8	7.43e-01	0	33	104	0	74	16917
2026-01-17 03:37:09.35	26.13	5.49	-47.3	-58.7	3.8	7.43e-01	0	33	104	0	66	13158
2026-01-17 03:37:10.36	26.09	5.56	-47.4	-58.8	3.8	7.43e-01	0	33	104	0	66	13388
2026-01-17 03:37:11.37	26.04	5.64	-47.7	-59.2	3.8	7.42e-01	0	33	104	0	66	13995
2026-01-17 03:37:12.38	26.00	5.71	-51.4	-64.8	3.9	7.41e-01	0	33	104	0	74	16848
2026-01-17 03:37:13.38	25.95	5.79	-50.3	-63.0	3.8	7.41e-01	0	33	104	0	71	16156
2026-01-17 03:37:14.39	25.90	5.86	-52.1	-67.2	3.8	7.45e-01	0	33	104	0	75	20784
2026-01-17 03:37:15.40	25.85	5.94	-48.0	-59.5	3.8	7.44e-01	0	33	104	0	67	13631
2026-01-17 03:37:16.41	25.80	6.01	-51.0	-64.1	3.8	7.43e-01	0	33	104	0	74	15489
2026-01-17 03:37:17.42	25.76	6.09	-48.0	-59.4	3.8	7.47e-01	0	33	104	0	67	13522
2026-01-17 03:37:18.42	25.71	6.16	-47.6	-59.0	3.8	7.44e-01	0	33	104	0	67	12957
2026-01-17 03:37:19.43	25.66	6.24	-47.9	-59.4	3.8	7.43e-01	0	33	104	0	67	13504
2026-01-17 03:37:20.44	25.61	6.32	-49.4	-61.4	3.8	7.48e-01	0	33	104	0	70	14254
2026-01-17 03:37:21.45	25.56	6.39	-51.3	-64.0	3.9	7.48e-01	0	33	104	0	72	17111
2026-01-17 03:37:22.46	25.51	6.47	-51.7	-65.7	3.9	7.42e-01	0	33	104	0	75	17608
2026-01-17 03:37:23.46	25.46	6.55	-48.7	-60.9	3.8	7.44e-01	0	33	104	0	68	15090
2026-01-17 03:37:24.47	25.41	6.62	-50.6	-63.4	3.8	7.42e-01	0	33	104	0	73	15223
2026-01-17 03:37:25.48	25.36	6.70	-46.7	-57.9	3.8	7.45e-01	0	33	104	0	65	12674
2026-01-17 03:37:26.49	25.31	6.78	-46.9	-58.1	3.8	7.43e-01	0	33	104	0	65	13070
2026-01-17 03:37:27.50	25.26	6.86	-48.5	-60.2	3.8	7.46e-01	0	33	104	0	67	14757
2026-01-17 03:37:28.51	25.21	6.94	-47.2	-58.5	3.8	7.44e-01	0	33	104	0	66	12846
2026-01-17 03:37:29.52	25.15	7.02	-51.3	-64.8	3.8	7.45e-01	0	33	104	0	73	17726
2026-01-17 03:37:30.52	25.10	7.09	-49.7	-61.9	3.9	7.45e-01	0	33	104	0	71	14333
2026-01-17 03:37:31.53	25.05	7.17	-49.4	-61.6	3.9	7.40e-01	0	33	104	0	69	15417
2026-01-17 03:37:32.54	25.00	7.25	-49.8	-62.0	3.9	7.42e-01	0	33	104	0	71	14438
2026-01-17 03:37:33.55	24.94	7.33	-46.4	-57.5	3.8	7.46e-01	0	33	104	0	64	12955
2026-01-17 03:37:34.56	24.89	7.41	-46.4	-57.5	3.8	7.45e-01	0	33	104	0	64	12864
2026-01-17 03:37:35.56	24.83	7.49	-47.6	-58.9	3.8	7.46e-01	0	33	104	0	65	14311
2026-01-17 03:37:36.57	24.78	7.57	-46.4	-57.5	3.8	7.45e-01	0	33	104	0	64	12843
2026-01-17 03:37:37.58	24.73	7.65	-51.3	-64.6	3.8	7.44e-01	0	33	104	0	73	17427
2026-01-17 03:37:38.59	24.67	7.73	-49.6	-61.7	3.9	7.44e-01	0	33	104	0	71	13952
2026-01-17 03:37:39.60	24.61	7.82	-49.5	-61.5	3.8	7.45e-01	0	33	104	0	69	15336
2026-01-17 03:37:40.61	24.56	7.90	-49.5	-61.7	3.9	7.44e-01	0	33	104	0	71	13949
2026-01-17 03:37:41.61	24.50	7.98	-46.4	-57.5	3.8	7.45e-01	0	33	104	0	64	12882
2026-01-17 03:37:42.62	24.45	8.06	-46.2	-57.2	3.8	7.44e-01	0	33	104	0	64	12514
2026-01-17 03:37:43.63	24.39	8.14	-48.9	-60.7	3.8	7.44e-01	0	33	104	0	68	14821
2026-01-17 03:37:44.64	24.33	8.22	-46.1	-57.1	3.8	7.45e-01	0	33	104	0	64	12334
2026-01-17 03:37:45.65	24.27	8.31	-51.6	-65.1	3.8	7.45e-01	0	33	104	0	73	18333
2026-01-17 03:37:46.66	24.22	8.39	-47.9	-59.1	3.8	7.42e-01	0	33	104	0	67	13083
2026-01-17 03:37:47.66	24.16	8.47	-51.0	-63.9	3.8	7.47e-01	0	33	104	0	72	16930
2026-01-17 03:37:48.67	24.10	8.56	-47.9	-59.2	3.8	7.47e-01	0	33	104	0	67	13174
2026-01-17 03:37:49.68	24.04	8.64	-46.1	-57.1	3.8	7.45e-01	0	33	104	0	64	12353
2026-01-17 03:37:50.69	23.98	8.73	-46.1	-57.2	3.8	7.45e-01	0	33	104	0	63	13140
2026-01-17 03:37:51.70	23.92	8.81	-50.2	-62.4	3.8	7.48e-01	0	33	104	0	70	16002
2026-01-17 03:37:52.71	23.86	8.89	-46.7	-57.8	3.8	7.43e-01	0	34	104	0	64	13353
2026-01-17 03:37:53.72	23.80	8.98	-52.0	-65.7	3.8	7.46e-01	0	34	104	0	74	18697
2026-01-17 03:37:54.72	23.74	9.06	-46.8	-57.9	3.8	7.43e-01	0	33	104	0	65	12727
2026-01-17 03:37:55.73	23.68	9.15	-52.2	-66.1	3.8	7.48e-01	0	33	104	0	74	19514
2026-01-17 03:37:56.74	23.61	9.24	-47.0	-58.2	3.9	7.42e-01	0	34	104	0	66	12417
2026-01-17 03:37:57.75	23.55	9.32	-46.0	-57.1	3.8	7.43e-01	0	33	104	0	64	12241
2026-01-17 03:37:58.76	23.49	9.41	-46.1	-57.1	3.8	7.47e-01	0	34	104	0	63	13106
2026-01-17 03:37:59.77	23.42	9.50	-49.4	-61.4	3.8	7.47e-01	0	33	104	0	69	15100
2026-01-17 03:38:00.78	23.36	9.58	-46.7	-57.8	3.8	7.46e-01	0	34	104	0	64	13270
2026-01-17 03:38:01.78	23.30	9.67	-52.1	-65.9	3.8	7.45e-01	0	33	104	0	74	18997
2026-01-17 03:38:02.79	23.23	9.76	-46.7	-57.8	3.9	7.47e-01	0	33	104	0	65	12600
2026-01-17 03:38:03.80	23.17	9.85	-52.1	-65.9	3.8	7.43e-01	0	33	104	0	74	19071
2026-01-17 03:38:04.81	23.10	9.93	-46.3	-57.3	3.9	7.43e-01	0	34	104	0	64	12640
2026-01-17 03:38:05.82	23.03	10.02	-46.0	-57.0	3.8	7.46e-01	0	34	104	0	63	12899
2026-01-17 03:38:06.82	22.97	10.11	-45.9	-56.9	3.8	7.44e-01	0	33	104	0	63	12730
2026-01-17 03:38:07.83	22.90	10.20	-49.2	-60.9	3.8	7.45e-01	0	34	104	0	68	15210
2026-01-17 03:38:08.84	22.83	10.29	-47.4	-58.7	3.8	7.44e-01	0	34	104	0	65	13984
2026-01-17 03:38:09.85	22.77	10.38	-52.4	-66.6	3.8	7.41e-01	0	34	104	0	75	19597
2026-01-17 03:38:10.86	22.70	10.47	-46.3	-57.4	3.9	7.44e-01	0	34	104	0	64	12703
2026-01-17 03:38:11.87	22.63	10.56	-52.8	-67.8	3.8	7.51e-01	0	33	104	0	76	21192
2026-01-17 03:38:12.88	22.56	10.65	-46.0	-56.9	3.8	7.44e-01	0	34	104	0	63	12790
2026-01-17 03:38:13.89	22.49	10.74	-45.7	-56.6	3.8	7.42e-01	0	34	104	0	63	12341
2026-01-17 03:38:14.90	22.42	10.84	-45.6	-56.6	3.8	7.46e-01	0	33	104	0	63	12325
2026-01-17 03:38:15.90	22.35	10.93	-50.7	-63.4	3.8	7.46e-01	0	33	104	0	72	16127
2026-01-17 03:38:16.91	22.28	11.02	-47.5	-58.7	3.8	7.41e-01	0	34	104	0	65	13961
2026-01-17 03:38:17.92	22.20	11.11	-52.8	-67.6	3.8	7.46e-01	0	34	104	0	76	20681
2026-01-17 03:38:18.93	22.13	11.21	-45.9	-56.8	3.8	7.46e-01	0	34	104	0	63	12594
2026-01-17 03:38:19.94	22.06	11.30	-53.1	-68.1	3.8	7.47e-01	0	34	104	0	76	21957
2026-01-17 03:38:20.95	21.99	11.39	-45.9	-56.9	3.8	7.43e-01	0	34	104	0	63	12688
2026-01-17 03:38:21.96	21.91	11.49	-45.4	-56.3	3.8	7.45e-01	0	34	104	0	62	12522
2026-01-17 03:38:22.97	21.84	11.58	-45.7	-56.6	3.8	7.44e-01	0	34	104	0	62	13018
2026-01-17 03:38:23.98	21.76	11.68	-52.1	-65.9	3.8	7.44e-01	0	33	104	0	74	19019
2026-01-17 03:38:24.99	21.69	11.77	-47.4	-58.6	3.9	7.38e-01	0	34	104	0	65	13764
2026-01-17 03:38:25.99	21.61	11.87	-52.8	-67.4	3.7	7.45e-01	0	34	104	0	76	20213
2026-01-17 03:38:27.00	21.53	11.96	-45.9	-56.8	3.8	7.46e-01	0	34	104	0	63	12587
2026-01-17 03:38:28.01	21.46	12.06	-53.4	-69.0	3.8	7.45e-01	0	34	104	0	77	22918
2026-01-17 03:38:29.02	21.38	12.15	-45.7	-56.6	3.8	7.45e-01	0	34	104	0	63	12366
2026-01-17 03:38:30.02	21.30	12.25	-45.6	-56.5	3.8	7.44e-01	0	34	104	0	63	12200
2026-01-17 03:38:31.03	21.22	12.35	-45.7	-56.6	3.8	7.43e-01	0	34	104	0	63	12333
2026-01-17 03:38:32.04	21.14	12.45	-50.3	-62.4	3.8	7.44e-01	0	33	104	0	71	15175
2026-01-17 03:38:33.05	21.06	12.54	-47.7	-59.0	3.8	7.44e-01	0	33	104	0	67	12840
2026-01-17 03:38:34.06	20.98	12.64	-53.0	-67.6	3.8	7.47e-01	0	33	104	0	76	20746
2026-01-17 03:38:35.07	20.90	12.74	-45.9	-56.9	3.8	7.44e-01	0	34	104	0	63	12718
2026-01-17 03:38:36.08	20.82	12.84	-53.3	-68.8	3.8	7.47e-01	0	33	104	0	77	22364
2026-01-17 03:38:37.09	20.73	12.94	-45.6	-56.5	3.8	7.41e-01	0	34	104	0	63	12152
2026-01-17 03:38:38.10	20.65	13.04	-45.6	-56.5	3.8	7.44e-01	0	34	104	0	63	12213
2026-01-17 03:38:39.10	20.57	13.14	-45.4	-56.3	3.8	7.45e-01	0	34	104	0	62	12521
2026-01-17 03:38:40.11	20.48	13.24	-51.6	-64.9	3.9	7.41e-01	0	34	104	0	75	15994
2026-01-17 03:38:41.12	20.40	13.34	-47.5	-58.8	3.9	7.42e-01	0	34	104	0	65	14071
2026-01-17 03:38:42.13	20.31	13.44	-52.6	-66.8	3.8	7.42e-01	0	34	104	0	76	18738
2026-01-17 03:38:43.14	20.22	13.55	-45.4	-56.2	3.9	7.44e-01	0	34	104	0	62	12472
2026-01-17 03:38:44.15	20.14	13.65	-53.2	-68.3	3.8	7.44e-01	0	34	104	0	77	21182
2026-01-17 03:38:45.16	20.05	13.75	-45.2	-56.1	3.8	7.42e-01	0	33	104	0	62	12246
2026-01-17 03:38:46.17	19.96	13.86	-45.2	-56.1	3.8	7.46e-01	0	34	104	0	62	12326
2026-01-17 03:38:47.18	19.87	13.96	-45.2	-56.1	3.9	7.43e-01	0	34	104	0	62	12267
2026-01-17 03:38:48.19	19.78	14.06	-49.8	-61.9	3.8	7.45e-01	0	34	104	0	71	14328
2026-01-17 03:38:49.20	19.69	14.17	-47.3	-58.5	3.8	7.44e-01	0	34	104	0	65	13683
2026-01-17 03:38:50.20	19.60	14.27	-52.7	-66.8	3.8	7.43e-01	0	34	104	0	76	18893
2026-01-17 03:38:51.21	19.51	14.38	-45.2	-56.0	3.8	7.44e-01	0	34	104	0	62	12208
2026-01-17 03:38:52.22	19.41	14.48	-52.8	-67.2	3.9	7.42e-01	0	34	104	0	77	18633
2026-01-17 03:38:53.23	19.32	14.59	-45.2	-56.0	3.9	7.43e-01	0	34	104	0	62	12199
2026-01-17 03:38:54.24	19.22	14.70	-45.1	-55.9	3.8	7.42e-01	0	34	104	0	62	12024
2026-01-17 03:38:55.24	19.13	14.80	-45.1	-55.9	3.9	7.44e-01	0	33	104	0	61	12758
2026-01-17 03:38:56.25	19.03	14.91	-50.8	-63.2	3.9	7.42e-01	0	34	104	0	73	14797
2026-01-17 03:38:57.26	18.94	15.02	-48.2	-59.5	3.8	7.46e-01	0	34	104	0	66	14383
2026-01-17 03:38:58.27	18.84	15.13	-52.1	-65.5	3.9	7.41e-01	0	34	104	0	76	16201
2026-01-17 03:38:59.28	18.74	15.24	-45.2	-56.1	3.8	7.44e-01	0	34	104	0	62	12248
2026-01-17 03:39:00.29	18.64	15.35	-52.6	-66.8	3.9	7.43e-01	0	34	104	0	77	17729
2026-01-17 03:39:01.30	18.54	15.46	-45.2	-56.1	3.8	7.43e-01	0	34	104	0	62	12243
2026-01-17 03:39:02.31	18.44	15.57	-45.1	-55.9	3.8	7.41e-01	0	34	104	0	62	12073
2026-01-17 03:39:03.32	18.34	15.68	-45.2	-56.0	3.8	7.44e-01	0	34	104	0	61	12901
2026-01-17 03:39:04.33	18.24	15.79	-47.6	-59.0	3.8	7.46e-01	0	34	104	0	67	12833
2026-01-17 03:39:05.34	18.13	15.90	-48.6	-60.1	3.8	7.44e-01	0	34	104	0	67	14594
2026-01-17 03:39:06.35	18.03	16.01	-51.1	-63.7	3.8	7.43e-01	0	34	104	0	74	14762
2026-01-17 03:39:07.36	17.92	16.13	-45.2	-56.0	3.8	7.45e-01	0	34	104	0	62	12170
2026-01-17 03:39:08.36	17.82	16.24	-51.5	-64.5	3.9	7.43e-01	0	34	104	0	75	15376
2026-01-17 03:39:09.37	17.71	16.35	-45.1	-55.9	3.8	7.44e-01	0	34	104	0	62	12041
2026-01-17 03:39:10.38	17.61	16.47	-45.1	-55.9	3.8	7.46e-01	0	34	104	0	62	12029
2026-01-17 03:39:11.39	17.50	16.58	-45.0	-55.8	3.8	7.44e-01	0	34	104	0	61	12614
2026-01-17 03:39:12.40	17.39	16.70	-47.9	-59.0	3.8	7.45e-01	0	34	104	0	67	12956
2026-01-17 03:39:13.41	17.28	16.81	-48.6	-59.9	3.9	7.45e-01	0	33	104	0	67	14338
2026-01-17 03:39:14.41	17.17	16.93	-49.9	-61.9	3.9	7.46e-01	0	34	104	0	72	13484
2026-01-17 03:39:15.42	17.05	17.05	-45.9	-56.8	3.8	7.45e-01	0	34	104	0	62	13302
2026-01-17 03:39:16.43	16.94	17.16	-49.7	-61.6	3.9	7.46e-01	0	34	104	0	71	13757
2026-01-17 03:39:17.44	16.83	17.28	-45.1	-55.9	3.8	7.45e-01	0	34	104	0	62	12030
2026-01-17 03:39:18.45	16.71	17.40	-45.0	-55.9	3.8	7.42e-01	0	34	104	0	61	12698
2026-01-17 03:39:19.46	16.60	17.52	-45.4	-56.3	3.8	7.45e-01	0	34	104	0	61	13272
2026-01-17 03:39:20.47	16.48	17.64	-45.7	-56.6	3.8	7.45e-01	0	34	104	0	63	12334
2026-01-17 03:39:21.48	16.36	17.76	-49.6	-61.3	3.9	7.41e-01	0	34	104	0	69	14887
2026-01-17 03:39:22.48	16.24	17.88	-49.9	-61.4	3.8	7.44e-01	0	34	104	0	71	13538
2026-01-17 03:39:23.49	16.12	18.00	-45.9	-56.7	3.8	7.43e-01	0	34	104	0	62	13220
2026-01-17 03:39:24.50	16.00	18.12	-49.9	-62.2	3.9	7.48e-01	0	34	104	0	72	14009
2026-01-17 03:39:25.51	15.88	18.24	-45.4	-56.3	3.8	7.43e-01	0	34	104	0	62	12607
2026-01-17 03:39:26.52	15.75	18.36	-45.2	-56.1	3.8	7.47e-01	0	34	104	0	62	12241
2026-01-17 03:39:27.52	15.63	18.48	-46.9	-58.0	3.8	7.45e-01	0	34	104	0	64	13705
2026-01-17 03:39:28.53	15.50	18.61	-45.3	-56.2	3.8	7.45e-01	0	34	104	0	62	12386
2026-01-17 03:39:29.54	15.38	18.73	-50.6	-62.7	3.8	7.52e-01	0	34	104	0	71	15677
2026-01-17 03:39:30.55	15.25	18.86	-48.3	-59.5	3.9	7.44e-01	0	34	104	0	68	12862
2026-01-17 03:39:31.56	15.12	18.98	-47.8	-59.0	3.8	7.44e-01	0	34	104	0	65	14393
2026-01-17 03:39:32.57	14.99	19.11	-47.3	-58.3	3.9	7.46e-01	0	34	104	0	66	12571
2026-01-17 03:39:33.57	14.86	19.23	-45.2	-56.1	3.8	7.43e-01	0	34	104	0	62	12290
2026-01-17 03:39:34.59	14.73	19.36	-45.2	-56.0	3.8	7.45e-01	0	34	104	0	62	12202
2026-01-17 03:39:35.59	14.59	19.49	-46.8	-58.0	3.8	7.45e-01	0	34	104	0	64	13722
2026-01-17 03:39:36.60	14.46	19.62	-45.3	-56.1	3.8	7.45e-01	0	34	104	0	62	12349
2026-01-17 03:39:37.61	14.32	19.74	-51.3	-64.1	3.9	7.48e-01	0	34	104	0	73	16358
2026-01-17 03:39:38.63	14.18	19.87	-46.8	-57.7	3.9	7.42e-01	0	34	104	0	65	12479
2026-01-17 03:39:39.63	14.05	20.00	-49.6	-61.3	3.8	7.45e-01	0	34	104	0	69	14989
2026-01-17 03:39:40.64	13.91	20.13	-46.7	-57.8	3.9	7.43e-01	0	34	104	0	65	12543
2026-01-17 03:39:41.65	13.77	20.26	-45.4	-56.2	3.8	7.43e-01	0	34	104	0	62	12433
2026-01-17 03:39:42.66	13.62	20.39	-45.3	-56.1	3.9	7.46e-01	0	34	104	0	62	12322
2026-01-17 03:39:43.67	13.48	20.53	-48.0	-59.4	3.8	7.45e-01	0	34	104	0	66	14248
2026-01-17 03:39:44.68	13.33	20.66	-45.1	-55.9	3.8	7.43e-01	0	34	104	0	62	12062
2026-01-17 03:39:45.69	13.19	20.79	-51.2	-63.5	3.9	7.47e-01	0	34	104	0	72	16178
2026-01-17 03:39:46.69	13.04	20.92	-46.6	-57.6	3.8	7.45e-01	0	34	104	0	65	12341
2026-01-17 03:39:47.70	12.89	21.06	-49.5	-61.2	3.8	7.45e-01	0	34	104	0	69	14784
2026-01-17 03:39:48.71	12.74	21.19	-45.9	-56.8	3.8	7.43e-01	0	34	104	0	63	12542
2026-01-17 03:39:49.72	12.59	21.33	-45.5	-56.4	3.8	7.42e-01	0	34	104	0	62	12712
2026-01-17 03:39:50.73	12.43	21.46	-45.5	-56.4	3.8	7.48e-01	0	34	104	0	62	12677
2026-01-17 03:39:51.74	12.28	21.60	-49.9	-61.8	3.8	7.44e-01	0	34	104	0	70	15002
2026-01-17 03:39:52.74	12.12	21.74	-45.6	-56.4	3.8	7.46e-01	0	34	104	0	62	12679
2026-01-17 03:39:53.75	11.97	21.87	-51.9	-64.8	3.8	7.43e-01	0	34	104	0	74	16772
2026-01-17 03:39:54.76	11.81	22.01	-46.2	-57.2	3.8	7.45e-01	0	34	104	0	64	12485
2026-01-17 03:39:55.77	11.65	22.15	-51.5	-64.2	3.8	7.50e-01	0	34	104	0	73	16629
2026-01-17 03:39:56.78	11.48	22.29	-46.2	-57.2	3.9	7.45e-01	0	34	104	0	64	12449
2026-01-17 03:39:57.79	11.32	22.43	-45.6	-56.6	3.8	7.46e-01	0	34	104	0	63	12244
2026-01-17 03:39:58.80	11.15	22.57	-45.4	-56.3	3.8	7.45e-01	0	34	104	0	62	12553
2026-01-17 03:39:59.80	10.99	22.71	-50.8	-62.8	3.8	7.47e-01	0	34	104	0	71	15764
2026-01-17 03:40:00.81	10.82	22.85	-46.1	-57.0	3.8	7.43e-01	0	34	104	0	62	13672
2026-01-17 03:40:01.82	10.65	23.00	-52.6	-66.1	3.8	7.47e-01	0	34	104	0	75	18504
2026-01-17 03:40:02.83	10.47	23.14	-46.2	-57.2	3.9	7.43e-01	0	34	104	0	64	12402
2026-01-17 03:40:03.84	10.30	23.28	-52.6	-66.2	3.8	7.45e-01	0	34	104	0	75	18677
2026-01-17 03:40:04.85	10.12	23.43	-45.7	-56.6	3.8	7.46e-01	0	34	104	0	63	12301
2026-01-17 03:40:05.85	9.95	23.57	-45.5	-56.3	3.8	7.42e-01	0	34	104	0	63	11917
2026-01-17 03:40:06.86	9.77	23.71	-45.2	-56.0	3.8	7.44e-01	0	34	104	0	62	12175
2026-01-17 03:40:07.87	9.59	23.86	-51.8	-65.0	3.8	7.46e-01	0	34	104	0	74	17179
2026-01-17 03:40:08.88	9.41	24.01	-45.9	-56.8	3.8	7.43e-01	0	34	104	0	62	13261
2026-01-17 03:40:09.88	9.22	24.15	-52.4	-65.7	3.8	7.43e-01	0	34	104	0	75	17633
2026-01-17 03:40:10.89	9.04	24.30	-46.1	-57.1	3.8	7.46e-01	0	34	104	0	64	12271
2026-01-17 03:40:11.90	8.85	24.45	-53.2	-67.0	3.8	7.47e-01	0	34	104	0	76	19230
2026-01-17 03:40:12.91	8.66	24.60	-45.8	-56.7	3.8	7.43e-01	0	34	104	0	63	12486
2026-01-17 03:40:13.92	8.46	24.75	-45.7	-56.5	3.8	7.45e-01	0	34	104	0	63	12179
2026-01-17 03:40:14.92	8.27	24.90	-45.6	-56.5	3.8	7.42e-01	0	34	104	0	63	12135
2026-01-17 03:40:15.93	8.08	25.05	-49.4	-61.1	3.9	7.43e-01	0	34	104	0	69	14635
2026-01-17 03:40:16.94	7.88	25.20	-46.5	-57.5	3.9	7.45e-01	0	34	104	0	63	13643
2026-01-17 03:40:17.95	7.68	25.35	-52.9	-66.6	3.8	7.46e-01	0	34	104	0	76	18499
2026-01-17 03:40:18.96	7.48	25.50	-46.0	-56.9	3.8	7.45e-01	0	34	104	0	64	12034
2026-01-17 03:40:19.96	7.27	25.65	-53.3	-68.0	3.8	7.45e-01	0	34	104	0	77	20484
2026-01-17 03:40:20.98	7.06	25.81	-45.2	-56.0	3.8	7.45e-01	0	34	104	0	62	12166
2026-01-17 03:40:21.98	6.86	25.96	-45.1	-55.9	3.8	7.42e-01	0	34	104	0	62	12041
2026-01-17 03:40:22.99	6.65	26.11	-45.1	-55.9	3.8	7.44e-01	0	34	104	0	62	12073
2026-01-17 03:40:24.00	6.43	26.27	-53.3	-67.9	3.8	7.44e-01	0	34	104	0	77	20150
2026-01-17 03:40:25.01	6.22	26.42	-46.7	-57.6	3.8	7.43e-01	0	34	104	0	63	13829
2026-01-17 03:40:26.02	6.00	26.58	-53.0	-67.0	3.8	7.46e-01	0	34	104	0	76	19252
2026-01-17 03:40:27.03	5.78	26.74	-46.0	-56.7	3.8	7.48e-01	0	34	104	0	63	12500
2026-01-17 03:40:28.04	5.56	26.89	-53.6	-68.7	3.8	7.45e-01	0	34	104	0	77	22114
2026-01-17 03:40:29.05	5.34	27.05	-45.2	-56.0	3.8	7.45e-01	0	34	104	0	62	12169
2026-01-17 03:40:30.06	5.11	27.21	-44.9	-55.8	3.9	7.46e-01	0	34	104	0	61	12535
2026-01-17 03:40:31.07	4.88	27.37	-45.1	-55.9	3.8	7.45e-01	0	34	104	0	61	12668
2026-01-17 03:40:32.08	4.65	27.53	-48.8	-60.4	3.9	7.43e-01	0	34	104	0	68	14229
2026-01-17 03:40:33.08	4.42	27.69	-46.6	-57.6	3.8	7.44e-01	0	34	104	0	63	13883
2026-01-17 03:40:34.09	4.18	27.85	-52.9	-66.7	3.8	7.46e-01	0	34	104	0	76	18659
2026-01-17 03:40:35.10	3.94	28.01	-45.8	-56.7	3.8	7.43e-01	0	34	104	0	63	12514
2026-01-17 03:40:36.11	3.70	28.17	-53.2	-67.7	3.8	7.44e-01	0	34	104	0	77	19685
2026-01-17 03:40:37.12	3.46	28.33	-44.9	-55.7	3.8	7.43e-01	0	34	104	0	61	12377
2026-01-17 03:40:38.13	3.21	28.49	-44.8	-55.6	3.8	7.44e-01	0	34	104	0	61	12279
2026-01-17 03:40:39.13	2.97	28.65	-44.7	-55.4	3.8	7.44e-01	0	34	104	0	61	12094
2026-01-17 03:40:40.14	2.71	28.81	-51.7	-64.5	3.9	7.46e-01	0	34	104	0	75	15335
2026-01-17 03:40:41.15	2.46	28.98	-46.2	-57.1	3.8	7.46e-01	0	34	104	0	62	13875
2026-01-17 03:40:42.16	2.20	29.14	-52.1	-65.2	3.9	7.43e-01	0	34	104	0	75	16556
2026-01-17 03:40:43.17	1.94	29.30	-45.1	-56.0	3.8	7.42e-01	0	34	104	0	62	12234
2026-01-17 03:40:44.17	1.68	29.47	-53.3	-67.7	3.8	7.42e-01	0	34	104	0	77	19805
2026-01-17 03:40:45.18	1.42	29.63	-44.9	-55.6	3.8	7.45e-01	0	34	104	0	61	12346
2026-01-17 03:40:46.19	1.15	29.80	-44.6	-55.4	3.8	7.43e-01	0	34	104	0	61	12013
2026-01-17 03:40:47.20	0.88	29.96	-44.7	-55.5	3.8	7.42e-01	0	34	104	0	61	12185
2026-01-17 03:40:48.20	0.61	30.13	-53.2	-67.6	3.9	7.46e-01	0	34	104	0	78	18510
2026-01-17 03:40:49.21	0.33	30.29	-46.5	-57.5	3.8	7.46e-01	0	34	104	0	63	13644
2026-01-17 03:40:50.22	0.05	30.46	-51.2	-63.6	3.9	7.44e-01	0	34	104	0	74	14583
2026-01-17 03:40:51.23	359.77	30.63	-44.6	-55.3	3.8	7.44e-01	0	34	104	0	61	11950
2026-01-17 03:40:52.24	359.48	30.79	-52.5	-66.2	3.9	7.42e-01	0	34	104	0	77	16551
2026-01-17 03:40:53.24	359.19	30.96	-44.8	-55.6	3.8	7.44e-01	0	34	104	0	61	12284
2026-01-17 03:40:54.25	358.90	31.12	-44.6	-55.4	3.8	7.45e-01	0	34	104	0	61	11993
2026-01-17 03:40:55.26	358.61	31.29	-44.6	-55.4	3.8	7.41e-01	0	34	104	0	61	12011
2026-01-17 03:40:56.27	358.31	31.46	-47.7	-59.0	3.8	7.42e-01	0	34	104	0	67	12811
2026-01-17 03:40:57.28	358.01	31.63	-46.5	-57.4	3.8	7.44e-01	0	34	104	0	63	13519
2026-01-17 03:40:58.29	357.70	31.79	-51.2	-63.6	3.9	7.46e-01	0	34	104	0	74	14607
2026-01-17 03:40:59.30	357.39	31.96	-44.6	-55.3	3.8	7.44e-01	0	34	104	0	61	11935
2026-01-17 03:41:00.31	357.08	32.13	-52.6	-66.2	3.9	7.43e-01	0	34	104	0	77	16569
2026-01-17 03:41:01.31	356.77	32.30	-44.8	-55.6	3.8	7.45e-01	0	34	104	0	61	12303
2026-01-17 03:41:02.32	356.45	32.47	-44.8	-55.6	3.8	7.42e-01	0	34	104	0	61	12347
2026-01-17 03:41:03.33	356.13	32.63	-45.1	-55.9	3.8	7.41e-01	0	34	104	0	61	12807
2026-01-17 03:41:04.34	355.80	32.80	-46.9	-58.1	3.8	7.46e-01	0	34	104	0	66	12240
2026-01-17 03:41:05.35	355.47	32.97	-47.1	-58.0	3.8	7.44e-01	0	34	104	0	64	13659
2026-01-17 03:41:06.36	355.14	33.14	-50.1	-61.9	3.8	7.46e-01	0	34	104	0	72	13512
2026-01-17 03:41:07.36	354.81	33.30	-44.8	-55.6	3.8	7.40e-01	0	34	104	0	61	12269
2026-01-17 03:41:08.37	354.47	33.47	-51.1	-63.6	3.9	7.44e-01	0	34	104	0	74	14597
2026-01-17 03:41:09.38	354.12	33.64	-45.2	-56.0	3.8	7.44e-01	0	34	104	0	61	12861
2026-01-17 03:41:10.39	353.78	33.81	-45.2	-56.1	3.8	7.44e-01	0	34	104	0	61	13056
2026-01-17 03:41:11.40	353.43	33.97	-45.5	-56.3	3.8	7.45e-01	0	34	104	0	61	13405
2026-01-17 03:41:12.41	353.07	34.14	-46.3	-57.3	3.8	7.42e-01	0	34	104	0	64	12522
2026-01-17 03:41:13.42	352.71	34.31	-48.5	-59.8	3.8	7.46e-01	0	34	104	0	67	14049
2026-01-17 03:41:14.42	352.36	34.47	-48.9	-60.4	3.8	7.46e-01	0	34	104	0	70	12712
2026-01-17 03:41:15.43	351.99	34.64	-45.6	-56.5	3.8	7.46e-01	0	34	104	0	62	12868
2026-01-17 03:41:16.44	351.62	34.80	-49.4	-61.2	3.9	7.42e-01	0	34	104	0	71	13178
2026-01-17 03:41:17.45	351.25	34.97	-45.8	-56.8	3.8	7.44e-01	0	34	104	0	63	12557
2026-01-17 03:41:18.46	350.87	35.13	-45.9	-56.8	3.8	7.43e-01	0	34	104	0	63	12544
2026-01-17 03:41:19.47	350.49	35.30	-46.8	-58.0	3.8	7.46e-01	0	34	104	0	64	13649
2026-01-17 03:41:20.48	350.10	35.46	-47.0	-58.1	3.8	7.42e-01	0	34	104	0	66	12269
2026-01-17 03:41:21.48	349.72	35.62	-48.5	-59.7	3.8	7.45e-01	0	34	104	0	67	13981
2026-01-17 03:41:22.49	349.32	35.79	-48.9	-60.5	3.9	7.42e-01	0	34	104	0	70	12912
2026-01-17 03:41:23.50	348.92	35.95	-46.6	-57.6	3.8	7.40e-01	0	34	104	0	63	13729
2026-01-17 03:41:24.51	348.52	36.11	-48.0	-59.3	3.8	7.44e-01	0	34	104	0	68	12657
2026-01-17 03:41:25.52	348.12	36.27	-46.0	-56.9	3.8	7.45e-01	0	34	104	0	63	12720
2026-01-17 03:41:26.53	347.71	36.43	-45.9	-56.8	3.8	7.42e-01	0	34	104	0	63	12544
2026-01-17 03:41:27.54	347.29	36.59	-49.4	-61.1	3.8	7.47e-01	0	34	104	0	69	14647
2026-01-17 03:41:28.55	346.87	36.75	-46.3	-57.1	3.8	7.49e-01	0	34	104	0	64	12373
2026-01-17 03:41:29.56	346.45	36.90	-50.3	-62.0	3.8	7.43e-01	0	34	104	0	70	15252
2026-01-17 03:41:30.57	346.02	37.06	-48.0	-59.3	3.9	7.44e-01	0	34	104	0	68	12537
2026-01-17 03:41:31.58	345.59	37.21	-48.4	-59.9	3.8	7.44e-01	0	34	104	0	67	14296
2026-01-17 03:41:32.59	345.16	37.37	-48.2	-59.4	3.9	7.44e-01	0	34	104	0	68	12798
2026-01-17 03:41:33.59	344.72	37.52	-46.1	-57.0	3.8	7.42e-01	0	34	104	0	64	12132
2026-01-17 03:41:34.60	344.28	37.67	-46.2	-57.1	3.8	7.46e-01	0	34	104	0	64	12334
2026-01-17 03:41:35.61	343.83	37.82	-50.8	-63.1	3.8	7.47e-01	0	34	104	0	72	15518
2026-01-17 03:41:36.62	343.38	37.97	-46.6	-57.6	3.8	7.46e-01	0	34	104	0	65	12236
2026-01-17 03:41:37.63	342.92	38.12	-51.3	-63.8	3.9	7.42e-01	0	34	104	0	73	15790
2026-01-17 03:41:38.63	342.47	38.26	-47.8	-59.0	3.8	7.46e-01	0	34	104	0	67	12851
2026-01-17 03:41:39.64	342.00	38.41	-50.0	-61.7	3.8	7.42e-01	0	34	104	0	70	14842
2026-01-17 03:41:40.65	341.53	38.55	-47.0	-58.0	3.9	7.44e-01	0	34	104	0	66	12214
2026-01-17 03:41:41.66	341.06	38.69	-46.5	-57.5	3.8	7.46e-01	0	34	104	0	64	12881
2026-01-17 03:41:42.67	340.58	38.84	-46.5	-57.4	3.8	7.43e-01	0	34	104	0	64	12756
2026-01-17 03:41:43.68	340.10	38.97	-51.9	-64.9	3.8	7.48e-01	0	34	104	0	74	16976
2026-01-17 03:41:44.69	339.62	39.11	-46.6	-57.5	3.8	7.44e-01	0	34	104	0	65	12128
2026-01-17 03:41:45.70	339.12	39.25	-51.0	-63.0	3.8	7.44e-01	0	34	104	0	72	15312
2026-01-17 03:41:46.71	338.63	39.38	-47.3	-58.3	3.8	7.45e-01	0	34	104	0	66	12627
2026-01-17 03:41:47.71	338.14	39.51	-52.0	-64.7	3.8	7.45e-01	0	34	104	0	74	16655
2026-01-17 03:41:48.72	337.63	39.64	-46.4	-57.6	3.8	7.46e-01	0	34	104	0	65	12253
2026-01-17 03:41:49.73	337.13	39.77	-46.6	-57.7	3.8	7.41e-01	0	34	104	0	65	12404
2026-01-17 03:41:50.74	336.62	39.89	-46.5	-57.5	3.8	7.46e-01	0	34	104	0	65	12139
2026-01-17 03:41:51.75	336.10	40.02	-53.0	-66.6	3.8	7.45e-01	0	34	104	0	76	18516
2026-01-17 03:41:52.76	335.58	40.14	-46.7	-57.7	3.8	7.45e-01	0	34	104	0	65	12421
2026-01-17 03:41:53.76	335.06	40.26	-51.7	-64.1	3.8	7.44e-01	0	34	104	0	73	16319
2026-01-17 03:41:54.77	334.54	40.37	-47.9	-59.1	3.8	7.44e-01	0	34	104	0	67	13064
2026-01-17 03:41:55.78	334.01	40.49	-51.8	-64.2	3.8	7.43e-01	0	34	104	0	73	16659
2026-01-17 03:41:56.79	333.47	40.60	-46.6	-57.6	3.8	7.43e-01	0	34	104	0	65	12322
2026-01-17 03:41:57.80	332.93	40.71	-46.5	-57.3	3.8	7.43e-01	0	34	104	0	64	12631
2026-01-17 03:41:58.81	332.39	40.82	-46.5	-57.6	3.8	7.42e-01	0	34	104	0	64	12984
2026-01-17 03:41:59.82	331.85	40.92	-54.0	-69.1	3.8	7.45e-01	0	34	104	0	78	21979
2026-01-17 03:42:00.82	331.30	41.02	-47.0	-58.1	3.8	7.46e-01	0	34	104	0	64	13741
2026-01-17 03:42:01.83	330.75	41.12	-51.9	-64.4	3.8	7.42e-01	0	34	104	0	74	16057
2026-01-17 03:42:02.84	330.19	41.22	-47.6	-58.8	3.8	7.45e-01	0	34	104	0	67	12564
2026-01-17 03:42:03.85	329.63	41.32	-52.8	-66.5	3.8	7.46e-01	0	34	104	0	76	18100
2026-01-17 03:42:04.86	329.07	41.41	-46.2	-57.1	3.8	7.42e-01	0	34	104	0	64	12245
2026-01-17 03:42:05.86	328.51	41.49	-46.4	-57.4	3.8	7.43e-01	0	34	104	0	64	12717
2026-01-17 03:42:06.87	327.94	41.58	-46.1	-57.1	3.8	7.47e-01	0	34	104	0	64	12325
2026-01-17 03:42:07.88	327.37	41.66	-54.8	-72.1	3.7	7.50e-01	0	34	104	0	80	27614
2026-01-17 03:42:08.89	326.79	41.74	-46.9	-57.7	3.8	7.41e-01	0	34	104	0	64	13254
2026-01-17 03:42:09.90	326.22	41.82	-51.7	-64.2	3.8	7.45e-01	0	34	104	0	73	16529
2026-01-17 03:42:10.90	325.64	41.89	-47.5	-58.7	3.8	7.45e-01	0	34	104	0	66	13174
2026-01-17 03:42:11.91	325.06	41.96	-53.9	-68.7	3.8	7.43e-01	0	34	104	0	78	20984
2026-01-17 03:42:12.92	324.47	42.03	-46.1	-56.9	3.8	7.45e-01	0	34	104	0	64	11995
2026-01-17 03:42:13.93	323.88	42.09	-46.3	-57.3	3.8	7.49e-01	0	34	104	0	64	12534
2026-01-17 03:42:14.94	323.29	42.15	-46.4	-57.4	3.8	7.43e-01	0	34	104	0	64	12772
2026-01-17 03:42:15.95	322.70	42.21	-54.7	-71.4	3.8	7.48e-01	0	34	104	0	79	26836
2026-01-17 03:42:16.96	322.10	42.26	-47.5	-58.3	3.8	7.46e-01	0	34	104	0	65	13348
2026-01-17 03:42:17.97	321.51	42.32	-52.0	-64.7	3.8	7.47e-01	0	34	104	0	74	16534
2026-01-17 03:42:18.98	320.91	42.36	-47.8	-58.9	3.8	7.45e-01	0	34	104	0	67	12704
2026-01-17 03:42:19.99	320.31	42.41	-53.2	-66.8	3.8	7.47e-01	0	34	104	0	76	18859
2026-01-17 03:42:21.00	319.71	42.45	-46.4	-57.4	3.8	7.47e-01	0	34	104	0	64	12809
2026-01-17 03:42:22.01	319.10	42.48	-46.2	-57.1	3.8	7.43e-01	0	34	104	0	64	12270
2026-01-17 03:42:23.01	318.50	42.52	-46.1	-57.0	3.8	7.42e-01	0	34	104	0	64	12231
2026-01-17 03:42:24.02	317.90	42.55	-54.9	-72.1	3.8	7.48e-01	0	34	104	0	80	27454
2026-01-17 03:42:25.03	317.29	42.57	-48.6	-59.8	3.8	7.45e-01	0	34	104	0	69	12604
2026-01-17 03:42:26.04	316.68	42.60	-52.9	-66.2	3.8	7.46e-01	0	34	104	0	76	17598
2026-01-17 03:42:27.05	316.07	42.62	-46.8	-57.7	3.9	7.39e-01	0	34	104	0	65	12443
2026-01-17 03:42:28.06	315.46	42.63	-51.8	-64.4	3.8	7.47e-01	0	34	104	0	74	16016
2026-01-17 03:42:29.07	314.85	42.64	-45.9	-47.9	5.3	7.05e-01	8	34	104	0	63	4508
2026-01-17 03:42:30.08	314.24	42.65	-45.4	-46.6	23.7	6.01e-01	0	34	0	0	62	4112
2026-01-17 03:42:31.08	313.63	42.66	-45.5	-46.8	24.9	6.00e-01	0	34	0	2097152	62	4219
2026-01-17 03:42:32.09	313.02	42.66	-45.9	-47.3	24.6	6.03e-01	0	34	0	3670016	62	4454
2026-01-17 03:42:33.10	312.41	42.65	-45.8	-47.1	24.7	6.04e-01	0	34	0	5767168	62	4345
2026-01-17 03:42:34.11	311.80	42.65	-45.6	-46.9	24.9	6.00e-01	0	34	0	7864320	62	4278
2026-01-17 03:42:35.12	311.19	42.64	-45.6	-46.8	25.0	6.01e-01	0	34	0	9437184	62	4239
2026-01-17 03:42:36.13	310.58	42.63	-45.4	-46.6	25.2	6.01e-01	0	34	0	11534336	62	4144
2026-01-17 03:42:37.14	309.97	42.61	-45.9	-47.2	24.7	6.01e-01	0	34	0	13107200	62	4409
2026-01-17 03:42:38.14	309.37	42.59	-45.6	-46.9	24.9	6.01e-01	0	34	0	15204352	62	4247
2026-01-17 03:42:39.15	308.76	42.56	-45.4	-46.7	25.0	6.02e-01	0	34	0	17301504	62	4160
2026-01-17 03:42:40.16	308.15	42.54	-45.7	-47.0	24.9	6.03e-01	0	34	0	18874368	62	4327
2026-01-17 03:42:41.17	307.54	42.51	-45.8	-47.1	24.8	6.03e-01	0	34	0	20971520	62	4355
2026-01-17 03:42:42.18	306.94	42.47	-45.5	-46.7	25.1	6.03e-01	0	34	0	22544384	62	4193
2026-01-17 03:42:43.19	306.34	42.43	-45.5	-46.7	25.1	6.03e-01	0	34	0	24641536	62	4177
2026-01-17 03:42:44.20	305.73	42.39	-45.7	-47.0	24.8	6.01e-01	0	34	0	26214400	62	4309
2026-01-17 03:42:45.21	305.13	42.35	-45.6	-46.9	24.9	6.02e-01	0	34	0	28311552	62	4279
2026-01-17 03:42:46.22	304.53	42.30	-45.4	-46.6	25.2	6.01e-01	0	34	0	30408704	62	4126
2026-01-17 03:42:47.23	303.94	42.25	-45.4	-46.7	25.2	6.03e-01	0	34	0	32505856	62	4157
2026-01-17 03:42:48.23	303.35	42.19	-45.7	-47.0	24.9	6.01e-01	0	34	0	34078720	62	4331
2026-01-17 03:42:49.24	302.76	42.13	-45.7	-47.0	24.7	5.99e-01	0	34	0	36175872	62	4340
2026-01-17 03:42:50.25	302.17	42.07	-45.9	-47.3	24.6	6.01e-01	0	34	0	37748736	62	4454
2026-01-17 03:42:51.26	301.58	42.01	-45.9	-47.2	24.7	6.03e-01	0	34	0	39845888	62	4437
2026-01-17 03:42:52.27	300.99	41.94	-45.9	-47.3	24.7	6.00e-01	0	34	0	41418752	62	4446
2026-01-17 03:42:53.28	300.41	41.87	-45.8	-47.1	24.8	6.01e-01	0	34	0	43515904	62	4347
2026-01-17 03:42:54.29	299.83	41.79	-45.5	-46.8	25.0	6.00e-01	0	34	0	45613056	62	4217
2026-01-17 03:42:55.30	299.25	41.71	-45.8	-47.1	24.6	6.01e-01	0	34	0	47185920	63	4142
2026-01-17 03:42:56.31	298.68	41.63	-45.5	-46.7	24.9	6.00e-01	0	34	0	49283072	63	3957
2026-01-17 03:42:57.32	298.11	41.55	-45.4	-46.6	25.2	6.00e-01	0	34	0	51380224	62	4114
2026-01-17 03:42:58.32	297.54	41.46	-45.7	-46.9	24.9	6.03e-01	0	34	0	52953088	62	4286
2026-01-17 03:42:59.33	296.98	41.37	-45.9	-47.2	24.7	6.01e-01	0	34	0	55050240	62	4415
2026-01-17 03:43:00.34	296.41	41.28	-45.8	-47.1	24.8	6.02e-01	0	34	0	56623104	62	4345
2026-01-17 03:43:01.35	295.86	41.19	-45.5	-46.8	25.1	6.04e-01	0	34	0	58720256	62	4195
2026-01-17 03:43:02.36	295.30	41.09	-45.2	-46.4	25.5	6.02e-01	0	34	0	60817408	62	4005
2026-01-17 03:43:03.36	294.75	40.99	-45.5	-46.7	25.2	6.03e-01	0	34	0	62390272	62	4167
2026-01-17 03:43:04.37	294.21	40.88	-45.8	-47.1	24.7	6.03e-01	0	34	0	64487424	63	4112
2026-01-17 03:43:05.38	293.66	40.78	-45.7	-47.0	24.8	5.99e-01	0	34	0	66060288	63	4061
2026-01-17 03:43:06.39	293.12	40.67	-46.1	-47.4	24.5	6.02e-01	0	34	0	68157440	63	4282
2026-01-17 03:43:07.40	292.58	40.56	-46.2	-47.5	24.4	6.02e-01	0	34	0	69730304	64	4088
2026-01-17 03:43:08.41	292.05	40.45	-46.9	-48.3	23.5	6.02e-01	0	34	0	71827456	65	4235
2026-01-17 03:43:09.42	291.52	40.33	-46.2	-47.6	24.3	6.02e-01	0	34	0	73924608	64	4099
2026-01-17 03:43:10.42	291.00	40.21	-46.8	-48.2	23.6	6.00e-01	0	34	0	75497472	65	4181
2026-01-17 03:43:11.43	290.47	40.09	-46.9	-48.4	23.2	6.01e-01	0	34	0	77594624	65	4276
2026-01-17 03:43:12.44	289.96	39.97	-46.8	-48.2	23.7	6.01e-01	0	34	0	79691776	65	4177
2026-01-17 03:43:13.45	289.44	39.85	-46.4	-47.8	24.0	6.01e-01	0	34	0	81264640	64	4226
2026-01-17 03:43:14.46	288.93	39.72	-46.1	-47.4	24.4	6.02e-01	0	34	0	83361792	64	4015
2026-01-17 03:43:15.46	288.43	39.59	-45.9	-47.2	24.3	6.01e-01	0	34	0	84934656	63	4164
2026-01-17 03:43:16.47	287.93	39.46	-46.5	-47.9	23.7	6.01e-01	0	34	0	87031808	63	4537
2026-01-17 03:43:17.48	287.43	39.33	-47.5	-49.3	22.6	6.01e-01	0	34	0	89128960	65	4711
2026-01-17 03:43:18.49	286.94	39.19	-47.0	-48.6	23.0	6.01e-01	0	34	0	90701824	64	4608
2026-01-17 03:43:19.49	286.45	39.06	-46.1	-47.4	24.4	5.99e-01	0	34	0	92798976	63	4268
2026-01-17 03:43:20.50	285.97	38.92	-45.7	-46.9	24.9	6.00e-01	0	34	0	94371840	63	4028
2026-01-17 03:43:21.51	285.49	38.78	-45.9	-47.2	24.3	6.02e-01	0	34	0	96468992	63	4176
2026-01-17 03:43:22.52	285.01	38.64	-47.0	-48.6	22.7	6.02e-01	0	34	0	98566144	65	4351
2026-01-17 03:43:23.53	284.54	38.50	-47.6	-49.3	22.6	5.99e-01	0	34	0	100139008	65	4734
2026-01-17 03:43:24.54	284.07	38.35	-46.5	-47.9	23.7	6.01e-01	0	34	0	102236160	63	4526
2026-01-17 03:43:25.54	283.61	38.21	-45.8	-47.0	24.8	6.00e-01	0	34	0	103809024	63	4078
2026-01-17 03:43:26.55	283.15	38.06	-46.0	-47.3	23.8	6.01e-01	0	34	0	105906176	64	3971
2026-01-17 03:43:27.56	282.69	37.91	-47.4	-49.1	22.2	6.01e-01	0	34	0	108003328	66	4343
2026-01-17 03:43:28.57	282.24	37.76	-47.8	-49.6	21.7	6.01e-01	0	34	0	109576192	66	4643
2026-01-17 03:43:29.58	281.80	37.61	-46.0	-47.3	24.3	6.00e-01	0	34	0	111673344	63	4211
2026-01-17 03:43:30.58	281.36	37.46	-46.1	-47.4	23.4	6.02e-01	0	34	0	113246208	64	4041
2026-01-17 03:43:31.59	280.92	37.31	-48.1	-50.0	21.9	6.02e-01	0	34	0	115343360	66	4832
2026-01-17 03:43:32.61	280.48	37.15	-47.0	-48.5	22.8	6.03e-01	0	34	0	116916224	64	4586
2026-01-17 03:43:33.61	280.05	36.99	-45.9	-47.1	24.6	6.02e-01	0	34	0	119013376	63	4108
2026-01-17 03:43:34.62	279.63	36.84	-47.3	-48.9	22.0	6.01e-01	0	34	0	121110528	66	4244
2026-01-17 03:43:35.63	279.21	36.68	-48.1	-50.0	21.6	6.01e-01	0	34	0	123207680	66	4857
2026-01-17 03:43:36.64	278.79	36.52	-46.1	-47.4	24.3	6.00e-01	0	34	0	124780544	64	4036
2026-01-17 03:43:37.65	278.38	36.36	-47.1	-48.6	22.7	6.01e-01	0	34	0	126877696	66	4107
2026-01-17 03:43:38.66	277.97	36.20	-47.4	-49.1	22.5	6.02e-01	0	34	0	128450560	65	4627
2026-01-17 03:43:39.66	277.57	36.04	-45.8	-47.1	24.4	6.00e-01	0	34	0	130547712	63	4109
2026-01-17 03:43:40.67	277.16	35.88	-47.0	-48.6	23.1	6.01e-01	0	34	0	132120576	64	4641
2026-01-17 03:43:41.68	276.77	35.72	-46.1	-47.4	24.1	6.01e-01	0	34	0	134217728	63	4287
2026-01-17 03:43:42.69	276.37	35.55	-46.1	-47.5	23.7	6.00e-01	0	34	0	136314880	64	4060
2026-01-17 03:43:43.70	275.99	35.39	-46.7	-48.2	23.3	6.02e-01	0	34	0	137887744	64	4403
2026-01-17 03:43:44.71	275.60	35.23	-46.0	-47.3	24.5	6.01e-01	0	34	0	139984896	63	4228
2026-01-17 03:43:45.72	275.22	35.06	-46.9	-48.4	23.3	6.02e-01	0	34	0	142082048	64	4535
2026-01-17 03:43:46.73	274.84	34.90	-45.7	-46.9	24.9	6.03e-01	0	34	0	143654912	63	4030
2026-01-17 03:43:47.74	274.47	34.73	-46.5	-47.9	23.9	6.01e-01	0	34	0	145752064	63	4523
2026-01-17 03:43:48.75	274.10	34.56	-45.9	-47.2	24.6	6.01e-01	0	34	0	147324928	63	4163
2026-01-17 03:43:49.75	273.74	34.40	-46.6	-48.0	23.8	6.01e-01	0	34	0	149422080	63	4579
2026-01-17 03:43:50.77	273.37	34.23	-46.4	-47.7	24.0	5.98e-01	0	34	0	151519232	63	4441
2026-01-17 03:43:51.77	273.02	34.06	-46.9	-48.4	23.3	5.99e-01	0	34	0	153092096	64	4539
2026-01-17 03:43:52.78	272.67	33.90	-46.5	-47.9	23.8	6.02e-01	0	34	0	155189248	64	4275
2026-01-17 03:43:53.79	272.32	33.73	-46.5	-48.0	23.6	6.04e-01	0	34	0	156762112	64	4306
2026-01-17 03:43:54.80	271.97	33.56	-46.0	-47.3	24.4	6.03e-01	0	34	0	158859264	64	3989
2026-01-17 03:43:55.81	271.63	33.39	-46.6	-48.0	23.7	6.02e-01	0	34	0	160956416	64	4338
2026-01-17 03:43:56.82	271.29	33.23	-46.4	-47.8	23.9	6.04e-01	0	34	0	162529280	64	4218
2026-01-17 03:43:57.83	270.95	33.06	-47.0	-48.6	23.2	6.02e-01	0	34	0	164626432	64	4624
2026-01-17 03:43:58.84	270.62	32.89	-46.4	-47.9	23.7	6.02e-01	0	34	0	166723584	64	4247
2026-01-17 03:43:59.85	270.29	32.72	-46.2	-47.6	24.2	6.01e-01	0	34	0	168296448	63	4371
2026-01-17 03:44:00.86	269.97	32.55	-46.0	-47.4	24.4	6.02e-01	0	34	0	170393600	63	4253
2026-01-17 03:44:01.86	269.65	32.38	-46.1	-47.4	24.3	6.02e-01	0	34	0	171966464	63	4280
2026-01-17 03:44:02.87	269.33	32.22	-46.8	-48.3	23.5	6.00e-01	0	34	0	174063616	64	4448
2026-01-17 03:44:03.88	269.02	32.05	-46.4	-47.8	23.8	5.99e-01	0	34	0	175636480	64	4235
2026-01-17 03:44:04.89	268.70	31.88	-46.1	-47.5	24.2	6.03e-01	0	34	0	177733632	64	4078
2026-01-17 03:44:05.90	268.40	31.71	-46.1	-47.5	24.1	6.01e-01	0	34	0	179830784	64	4088
2026-01-17 03:44:06.91	268.09	31.54	-45.5	-46.8	24.8	6.01e-01	0	34	0	181403648	63	3988
2026-01-17 03:44:07.91	267.79	31.38	-45.6	-46.9	24.8	6.01e-01	0	34	0	183500800	62	4258
2026-01-17 03:44:08.92	267.50	31.21	-45.2	-46.4	25.1	6.00e-01	0	34	0	185597952	62	4046
2026-01-17 03:44:09.93	267.20	31.04	-45.3	-46.6	25.1	6.00e-01	0	34	0	187170816	62	4109
2026-01-17 03:44:10.94	266.91	30.87	-45.7	-47.0	24.7	6.02e-01	0	34	0	189267968	62	4312
2026-01-17 03:44:11.94	266.62	30.71	-45.9	-47.3	24.4	5.99e-01	0	34	0	190840832	62	4454
2026-01-17 03:44:12.95	266.34	30.54	-45.3	-46.6	25.1	6.00e-01	0	34	0	192937984	62	4115
2026-01-17 03:44:13.96	266.05	30.37	-45.6	-46.9	24.7	6.00e-01	0	34	0	195035136	62	4261
2026-01-17 03:44:14.97	265.77	30.21	-45.9	-47.3	24.4	6.00e-01	0	34	0	196608000	62	4483
2026-01-17 03:44:15.98	265.50	30.04	-45.7	-47.1	24.6	6.01e-01	0	34	0	198705152	62	4346
2026-01-17 03:44:16.99	265.22	29.87	-45.3	-46.6	25.0	6.01e-01	0	34	0	200278016	62	4102
2026-01-17 03:44:18.00	264.95	29.71	-45.3	-46.5	25.1	6.02e-01	0	34	0	202375168	62	4075
2026-01-17 03:44:19.01	264.69	29.54	-45.4	-46.6	25.0	6.00e-01	0	34	0	204472320	62	4135
2026-01-17 03:44:20.02	264.42	29.38	-45.7	-47.0	24.7	6.00e-01	0	34	0	206045184	62	4333
2026-01-17 03:44:21.02	264.16	29.21	-45.7	-47.1	24.6	5.99e-01	0	34	0	208142336	62	4356
2026-01-17 03:44:22.03	263.90	29.05	-45.3	-46.6	25.0	6.02e-01	0	34	0	210239488	62	4111
2026-01-17 03:44:23.04	263.65	28.89	-45.3	-46.6	25.1	6.01e-01	0	34	0	211812352	62	4115
2026-01-17 03:44:24.05	263.39	28.72	-45.6	-46.9	24.9	6.00e-01	0	34	0	213909504	62	4243
2026-01-17 03:44:25.06	263.14	28.56	-45.9	-47.2	24.5	6.02e-01	0	34	0	215482368	62	4434
2026-01-17 03:44:26.07	262.89	28.40	-45.7	-47.1	24.5	5.99e-01	0	34	0	217579520	62	4352
2026-01-17 03:44:27.08	262.65	28.24	-45.9	-47.2	24.4	6.01e-01	0	34	0	219152384	62	4404
2026-01-17 03:44:28.08	262.40	28.08	-45.5	-46.8	24.9	6.02e-01	0	34	0	221249536	62	4203
2026-01-17 03:44:29.09	262.16	27.91	-45.8	-47.1	24.5	6.02e-01	0	34	0	223346688	62	4364
2026-01-17 03:44:30.10	261.92	27.75	-45.9	-47.2	24.4	6.03e-01	0	34	0	224919552	62	4421
2026-01-17 03:44:31.11	261.69	27.59	-45.5	-46.8	24.8	6.02e-01	0	34	0	227016704	62	4236
2026-01-17 03:44:32.12	261.46	27.43	-45.6	-46.9	24.7	6.02e-01	0	34	0	229113856	62	4258
2026-01-17 03:44:33.13	261.22	27.27	-45.7	-47.1	24.6	6.00e-01	0	34	0	230686720	62	4346
2026-01-17 03:44:34.14	261.00	27.11	-46.1	-47.5	24.1	6.01e-01	0	34	0	232783872	62	4575
2026-01-17 03:44:35.14	260.77	26.96	-45.6	-46.9	24.6	6.00e-01	0	34	0	234356736	62	4278
2026-01-17 03:44:36.15	260.55	26.80	-45.5	-46.7	24.8	6.00e-01	0	34	0	236453888	62	4192
2026-01-17 03:44:37.16	260.33	26.64	-45.4	-46.7	24.9	6.02e-01	0	34	0	238551040	62	4163
2026-01-17 03:44:38.17	260.11	26.49	-45.5	-46.8	24.8	6.00e-01	0	34	0	240123904	62	4221
2026-01-17 03:44:39.18	259.89	26.33	-45.6	-46.9	24.6	6.02e-01	0	34	0	242221056	62	4290
2026-01-17 03:44:40.18	259.68	26.18	-45.8	-47.2	24.4	6.02e-01	0	34	0	243793920	62	4407
2026-01-17 03:44:41.19	259.46	26.02	-46.0	-47.3	24.2	6.02e-01	0	34	0	245891072	62	4493
2026-01-17 03:44:42.20	259.25	25.87	-45.8	-47.1	24.4	6.03e-01	0	34	0	247463936	62	4390
2026-01-17 03:44:43.21	259.05	25.71	-45.7	-47.0	24.6	6.02e-01	0	34	0	249561088	62	4302
2026-01-17 03:44:44.22	258.84	25.56	-45.7	-47.0	24.6	6.01e-01	0	34	0	251658240	62	4306
2026-01-17 03:44:45.23	258.64	25.40	-45.7	-47.0	24.6	6.02e-01	0	34	0	253755392	62	4307
2026-01-17 03:44:46.24	258.43	25.25	-45.7	-47.0	24.6	6.00e-01	0	34	0	255328256	62	4315
2026-01-17 03:44:47.25	258.23	25.10	-45.7	-47.0	24.6	6.02e-01	0	34	0	257425408	62	4308
2026-01-17 03:44:48.26	258.04	24.95	-45.8	-47.1	24.5	6.00e-01	0	34	0	258998272	62	4372
2026-01-17 03:44:49.27	257.84	24.80	-45.6	-47.0	24.5	6.00e-01	0	34	0	261095424	62	4304
2026-01-17 03:44:50.27	257.65	24.65	-45.8	-47.1	24.5	6.00e-01	0	34	0	262668288	62	4378
2026-01-17 03:44:51.28	257.46	24.50	-45.8	-47.2	24.4	6.02e-01	0	34	0	264765440	62	4405
2026-01-17 03:44:52.29	257.27	24.35	-45.9	-47.3	24.3	6.02e-01	0	34	0	266862592	62	4471
2026-01-17 03:44:53.30	257.08	24.20	-45.9	-47.2	24.3	6.00e-01	0	34	0	268435456	62	4426
2026-01-17 03:44:54.31	256.89	24.05	-45.8	-47.2	24.4	6.02e-01	0	34	0	270532608	62	4393
2026-01-17 03:44:55.32	256.71	23.91	-45.7	-47.1	24.4	6.01e-01	0	34	0	272629760	62	4364
2026-01-17 03:44:56.33	256.52	23.76	-45.8	-47.2	24.3	6.03e-01	0	34	0	274202624	62	4412
2026-01-17 03:44:57.33	256.34	23.62	-45.8	-47.2	24.4	6.00e-01	0	34	0	276299776	62	4399
2026-01-17 03:44:58.34	256.17	23.47	-45.7	-47.0	24.5	6.02e-01	0	34	0	277872640	62	4299
2026-01-17 03:44:59.35	255.99	23.33	-45.5	-46.8	24.7	6.02e-01	0	34	0	279969792	62	4233
2026-01-17 03:45:00.36	255.81	23.18	-45.4	-46.7	24.8	6.03e-01	0	34	0	282066944	62	4172
2026-01-17 03:45:01.37	255.64	23.04	-45.6	-46.9	24.6	6.02e-01	0	34	0	283639808	62	4248
2026-01-17 03:45:02.37	255.47	22.90	-45.6	-46.9	24.6	6.00e-01	0	34	0	285736960	62	4286
2026-01-17 03:45:03.38	255.30	22.75	-45.8	-47.1	24.4	6.02e-01	0	34	0	287309824	62	4388
2026-01-17 03:45:04.39	255.13	22.61	-45.9	-47.3	24.2	6.01e-01	0	34	0	289406976	62	4477
2026-01-17 03:45:05.40	254.96	22.47	-45.9	-47.3	24.2	6.01e-01	0	34	0	290979840	62	4453
2026-01-17 03:45:06.41	254.79	22.33	-45.9	-47.3	24.2	6.01e-01	0	34	0	293076992	62	4457
2026-01-17 03:45:07.41	254.63	22.19	-45.7	-47.0	24.4	6.00e-01	0	34	0	295174144	62	4340
2026-01-17 03:45:08.42	254.47	22.05	-45.5	-46.8	24.6	6.00e-01	0	34	0	296747008	62	4226
2026-01-17 03:45:09.43	254.31	21.91	-45.5	-46.8	24.6	6.03e-01	0	34	0	298844160	62	4218
2026-01-17 03:45:10.44	254.15	21.77	-45.7	-47.0	24.4	6.01e-01	0	34	0	300941312	62	4309
2026-01-17 03:45:11.44	253.99	21.64	-45.6	-47.0	24.4	6.01e-01	0	34	0	302514176	62	4305
2026-01-17 03:45:12.45	253.84	21.50	-45.6	-46.9	24.5	6.03e-01	0	34	0	304611328	62	4259
2026-01-17 03:45:13.46	253.68	21.36	-45.5	-46.8	24.6	6.01e-01	0	34	0	306184192	62	4235
2026-01-17 03:45:14.47	253.53	21.23	-45.6	-46.9	24.5	6.03e-01	0	34	0	308281344	62	4259
2026-01-17 03:45:15.48	253.38	21.09	-45.5	-46.8	24.6	6.00e-01	0	34	0	310378496	62	4213
2026-01-17 03:45:16.49	253.22	20.96	-45.5	-46.8	24.7	6.02e-01	0	34	0	311951360	62	4207
2026-01-17 03:45:17.50	253.07	20.82	-45.6	-46.9	24.5	6.02e-01	0	34	0	314048512	62	4266
2026-01-17 03:45:18.50	252.93	20.69	-45.6	-47.0	24.5	6.02e-01	0	34	0	315621376	62	4298
2026-01-17 03:45:19.51	252.78	20.56	-45.6	-47.0	24.5	6.02e-01	0	34	0	317718528	62	4309
2026-01-17 03:45:20.52	252.64	20.42	-45.6	-47.0	24.5	6.01e-01	0	34	0	319815680	62	4295
2026-01-17 03:45:21.53	252.49	20.29	-45.6	-46.9	24.5	6.01e-01	0	34	0	321388544	62	4279
2026-01-17 03:45:22.54	252.35	20.16	-45.5	-46.9	24.5	6.01e-01	0	34	0	323485696	62	4255
2026-01-17 03:45:23.55	252.21	20.03	-45.6	-47.0	24.4	5.99e-01	0	34	0	325058560	62	4309
2026-01-17 03:45:24.55	252.07	19.90	-45.6	-46.9	24.5	6.00e-01	0	34	0	327155712	62	4273
2026-01-17 03:45:25.57	251.93	19.77	-45.6	-46.9	24.5	6.00e-01	0	34	0	329252864	62	4282
2026-01-17 03:45:26.57	251.79	19.64	-45.6	-46.9	24.5	6.05e-01	0	34	0	330825728	62	4287
2026-01-17 03:45:27.58	251.66	19.51	-45.4	-46.7	24.7	6.01e-01	0	34	0	332922880	62	4191
2026-01-17 03:45:28.59	251.52	19.39	-45.5	-46.8	24.6	6.02e-01	0	34	0	334495744	62	4201
2026-01-17 03:45:29.60	251.39	19.26	-45.5	-46.8	24.6	6.01e-01	0	34	0	336592896	62	4213
2026-01-17 03:45:30.61	251.26	19.13	-45.4	-46.7	24.6	6.02e-01	0	34	0	338690048	62	4186
2026-01-17 03:45:31.62	251.12	19.00	-45.6	-46.9	24.5	6.03e-01	0	34	0	340262912	62	4269
2026-01-17 03:45:32.63	250.99	18.88	-45.6	-47.0	24.4	6.03e-01	0	34	0	342360064	62	4307
2026-01-17 03:45:33.63	250.87	18.75	-45.6	-46.9	24.4	6.01e-01	0	34	0	344457216	62	4289
2026-01-17 03:45:34.64	250.74	18.63	-45.6	-47.0	24.3	6.00e-01	0	34	0	346030080	62	4310
2026-01-17 03:45:35.65	250.61	18.51	-45.6	-47.0	24.4	5.99e-01	0	34	0	348127232	62	4293
2026-01-17 03:45:36.66	250.49	18.38	-45.6	-46.9	24.5	6.02e-01	0	34	0	349700096	62	4275
2026-01-17 03:45:37.67	250.36	18.26	-45.5	-46.8	24.5	6.00e-01	0	34	0	351797248	62	4238
2026-01-17 03:45:38.68	250.24	18.14	-45.5	-46.8	24.5	6.00e-01	0	34	0	353370112	62	4225
2026-01-17 03:45:39.69	250.11	18.01	-45.4	-46.8	24.6	6.02e-01	0	34	0	355467264	62	4196
2026-01-17 03:45:40.69	249.99	17.89	-45.5	-46.8	24.6	6.02e-01	0	34	0	357564416	62	4213
2026-01-17 03:45:41.70	249.87	17.77	-45.5	-46.8	24.6	6.00e-01	0	34	0	359137280	62	4220
2026-01-17 03:45:42.71	249.75	17.65	-45.6	-46.9	24.5	5.99e-01	0	34	0	361234432	62	4273
2026-01-17 03:45:43.72	249.64	17.53	-45.6	-46.9	24.4	6.03e-01	0	34	0	363331584	62	4287
2026-01-17 03:45:44.73	249.52	17.41	-45.5	-46.8	24.5	6.01e-01	0	34	0	364904448	62	4225
2026-01-17 03:45:45.74	249.40	17.29	-45.4	-46.7	24.6	6.01e-01	0	34	0	367001600	62	4177
2026-01-17 03:45:46.75	249.29	17.18	-45.3	-46.6	24.7	6.01e-01	0	34	0	368574464	62	4135
2026-01-17 03:45:47.76	249.17	17.06	-45.3	-46.6	24.7	6.01e-01	0	34	0	370671616	62	4112
2026-01-17 03:45:48.77	249.06	16.94	-45.4	-46.7	24.7	6.03e-01	0	34	0	372768768	62	4154
2026-01-17 03:45:49.77	248.95	16.83	-45.5	-46.8	24.5	6.00e-01	0	34	0	374341632	62	4228
2026-01-17 03:45:50.78	248.84	16.71	-45.6	-46.9	24.4	6.00e-01	0	34	0	376438784	62	4271
2026-01-17 03:45:51.79	248.73	16.59	-45.7	-47.1	24.3	6.01e-01	0	34	0	378011648	62	4363
2026-01-17 03:45:52.80	248.62	16.48	-45.8	-47.2	24.1	6.02e-01	0	34	0	380108800	62	4432
2026-01-17 03:45:53.80	248.51	16.36	-45.9	-47.3	24.1	6.02e-01	0	34	0	381681664	62	4455
2026-01-17 03:45:54.82	248.40	16.25	-45.8	-47.2	24.1	6.03e-01	0	34	0	383778816	62	4393
2026-01-17 03:45:55.82	248.29	16.14	-45.8	-47.1	24.2	6.03e-01	0	34	0	385875968	62	4388
2026-01-17 03:45:56.83	248.19	16.02	-45.6	-46.9	24.4	6.02e-01	0	34	0	387973120	62	4272
2026-01-17 03:45:57.84	248.08	15.91	-45.5	-46.8	23.7	6.02e-01	0	34	0	389545984	62	4228
2026-01-17 03:45:58.85	247.98	15.80	-45.4	-46.8	24.5	6.00e-01	0	34	0	391643136	62	4198
2026-01-17 03:45:59.85	247.88	15.69	-45.4	-46.7	24.5	6.01e-01	0	34	0	393216000	62	4177
2026-01-17 03:46:00.87	247.77	15.57	-45.4	-46.8	24.5	6.04e-01	0	34	0	395313152	62	4194
2026-01-17 03:46:01.87	247.67	15.46	-45.4	-46.7	24.6	6.01e-01	0	34	0	396886016	62	4172
2026-01-17 03:46:02.88	247.57	15.35	-45.4	-46.7	24.6	6.02e-01	0	34	0	398983168	62	4175
2026-01-17 03:46:03.89	247.47	15.24	-45.6	-46.9	24.3	6.02e-01	0	34	0	401080320	62	4278
2026-01-17 03:46:04.90	247.37	15.13	-45.5	-46.9	24.3	6.00e-01	0	34	0	402653184	62	4265
2026-01-17 03:46:05.91	247.27	15.02	-45.6	-47.0	24.3	6.00e-01	0	34	0	404750336	62	4306
2026-01-17 03:46:06.92	247.17	14.91	-45.7	-47.1	24.2	6.01e-01	0	34	0	406847488	62	4342
2026-01-17 03:46:07.93	247.08	14.81	-45.7	-47.1	24.2	6.01e-01	0	34	0	408420352	62	4358
2026-01-17 03:46:08.94	246.98	14.70	-45.6	-47.0	24.3	6.01e-01	0	34	0	410517504	62	4312
2026-01-17 03:46:09.94	246.89	14.59	-45.7	-47.1	24.2	6.02e-01	0	34	0	412090368	62	4349
2026-01-17 03:46:10.95	246.79	14.49	-45.7	-47.0	24.2	6.01e-01	0	34	0	414187520	62	4330
2026-01-17 03:46:11.96	246.70	14.38	-45.5	-46.8	24.4	6.03e-01	0	34	0	416284672	62	4240
2026-01-17 03:46:12.97	246.60	14.27	-45.5	-46.8	24.5	6.01e-01	0	34	0	417857536	62	4232
2026-01-17 03:46:13.98	246.51	14.17	-45.5	-46.9	24.4	6.03e-01	0	34	0	419954688	62	4252
2026-01-17 03:46:14.99	246.42	14.06	-45.5	-46.8	24.4	6.01e-01	0	34	0	421527552	62	4231
2026-01-17 03:46:16.00	246.33	13.96	-45.6	-47.0	24.3	6.02e-01	0	34	0	423624704	62	4292
2026-01-17 03:46:17.01	246.24	13.85	-45.6	-47.0	24.2	6.02e-01	0	34	0	425197568	62	4314
2026-01-17 03:46:18.01	246.15	13.75	-45.7	-47.1	24.2	6.01e-01	0	34	0	427294720	62	4348
2026-01-17 03:46:19.02	246.06	13.65	-45.8	-47.2	24.0	6.02e-01	0	34	0	429391872	62	4434
2026-01-17 03:46:20.03	245.97	13.54	-45.8	-47.2	24.1	6.00e-01	0	34	0	431489024	62	4423
2026-01-17 03:46:21.04	245.89	13.44	-45.9	-47.3	23.9	6.00e-01	0	34	0	433061888	62	4488
2026-01-17 03:46:22.05	245.80	13.34	-45.9	-47.3	23.9	6.00e-01	0	34	0	435159040	62	4480
2026-01-17 03:46:23.06	245.71	13.24	-46.0	-47.4	23.8	5.99e-01	0	34	0	436731904	62	4544
2026-01-17 03:46:24.07	245.63	13.14	-45.9	-47.3	23.9	6.02e-01	0	34	0	438829056	62	4451
2026-01-17 03:46:25.08	245.54	13.03	-45.7	-47.1	24.1	6.02e-01	0	34	0	440401920	62	4360
2026-01-17 03:46:26.08	245.46	12.93	-45.8	-47.2	24.0	6.01e-01	0	34	0	442499072	62	4407
2026-01-17 03:46:27.09	245.37	12.83	-45.7	-47.0	24.1	6.01e-01	0	34	0	444596224	62	4337
2026-01-17 03:46:28.10	245.29	12.73	-45.6	-47.0	24.2	6.01e-01	0	34	0	446169088	62	4309
2026-01-17 03:46:29.11	245.21	12.64	-45.6	-47.0	24.2	6.00e-01	0	34	0	448266240	62	4317
2026-01-17 03:46:30.12	245.13	12.54	-45.6	-47.0	24.1	6.02e-01	0	34	0	450363392	62	4318
2026-01-17 03:46:31.12	245.05	12.44	-45.8	-47.1	24.0	6.01e-01	0	34	0	451936256	62	4386
2026-01-17 03:46:32.13	244.97	12.34	-45.5	-46.9	24.2	6.02e-01	0	34	0	454033408	62	4263
2026-01-17 03:46:33.14	244.89	12.24	-45.7	-47.0	24.1	6.01e-01	0	34	0	455606272	62	4336
2026-01-17 03:46:34.15	244.81	12.15	-45.7	-47.1	24.1	6.02e-01	0	34	0	457703424	62	4361
2026-01-17 03:46:35.16	244.73	12.05	-45.7	-47.1	24.0	5.99e-01	0	34	0	459800576	62	4376
2026-01-17 03:46:36.17	244.65	11.95	-45.7	-47.1	24.0	5.99e-01	0	34	0	461373440	62	4377
2026-01-17 03:46:37.18	244.57	11.85	-45.8	-47.2	23.8	6.01e-01	0	34	0	463470592	62	4438
2026-01-17 03:46:38.18	244.50	11.76	-45.7	-47.1	24.0	6.01e-01	0	34	0	465043456	62	4378
2026-01-17 03:46:39.19	244.42	11.66	-45.8	-47.3	23.8	6.03e-01	0	34	0	467140608	62	4446
2026-01-17 03:46:40.20	244.34	11.57	-45.9	-47.4	23.7	6.02e-01	0	34	0	468713472	62	4504
2026-01-17 03:46:41.21	244.27	11.47	-45.9	-47.3	23.7	5.99e-01	0	34	0	470810624	62	4477
2026-01-17 03:46:42.22	244.19	11.38	-45.9	-47.3	23.7	6.03e-01	0	34	0	472907776	62	4484
2026-01-17 03:46:43.23	244.12	11.29	-46.0	-47.5	23.6	6.02e-01	0	34	0	475004928	62	4548
2026-01-17 03:46:44.24	244.04	11.19	-45.9	-47.4	23.7	6.00e-01	0	34	0	476577792	62	4503
2026-01-17 03:46:45.25	243.97	11.10	-45.8	-47.2	23.8	5.99e-01	0	34	0	478674944	62	4419
2026-01-17 03:46:46.26	243.90	11.00	-45.9	-47.3	23.7	6.00e-01	0	34	0	480247808	62	4462
2026-01-17 03:46:47.26	243.83	10.91	-45.9	-47.3	23.7	6.01e-01	0	34	0	482344960	62	4488
2026-01-17 03:46:48.27	243.75	10.82	-45.9	-47.3	23.7	6.01e-01	0	34	0	483917824	62	4484
2026-01-17 03:46:49.28	243.68	10.73	-45.9	-47.3	23.7	5.99e-01	0	34	0	486014976	62	4465
2026-01-17 03:46:50.29	243.61	10.64	-45.9	-47.4	23.7	6.01e-01	0	34	0	488112128	62	4512
2026-01-17 03:46:51.30	243.54	10.54	-45.9	-47.3	23.7	6.00e-01	0	34	0	489684992	62	4488
2026-01-17 03:46:52.31	243.47	10.45	-46.0	-47.4	23.6	6.01e-01	0	34	0	491782144	62	4541
2026-01-17 03:46:53.32	243.40	10.36	-46.0	-47.4	23.6	6.02e-01	0	34	0	493879296	62	4531
2026-01-17 03:46:54.33	243.33	10.27	-46.0	-47.5	23.5	6.00e-01	0	34	0	495452160	62	4574
2026-01-17 03:46:55.34	243.27	10.18	-46.0	-47.5	23.5	6.03e-01	0	34	0	497549312	62	4552
2026-01-17 03:46:56.34	243.20	10.09	-46.0	-47.5	23.6	6.00e-01	0	34	0	499122176	62	4555
2026-01-17 03:46:57.36	243.13	10.00	-46.2	-47.6	23.4	6.01e-01	0	34	0	501219328	62	4645
2026-01-17 03:46:58.36	243.06	9.91	-46.1	-47.5	23.5	6.02e-01	0	34	0	503316480	62	4593
2026-01-17 03:46:59.37	243.00	9.83	-46.1	-47.6	23.5	6.02e-01	0	34	0	504889344	62	4599
2026-01-17 03:47:00.36	242.93	9.74	-46.2	-47.7	23.4	6.01e-01	0	34	0	506986496	62	4660
2026-01-17 03:47:01.37	242.87	9.65	-46.0	-47.4	23.4	6.01e-01	0	34	0	508559360	62	4542
2026-01-17 03:47:02.38	242.80	9.56	-46.0	-47.4	23.6	6.02e-01	0	34	0	510656512	62	4539
2026-01-17 03:47:03.38	242.74	9.48	-46.2	-47.6	23.4	6.00e-01	0	34	0	512229376	62	4641
2026-01-17 03:47:04.39	242.67	9.39	-46.0	-47.5	23.5	5.99e-01	0	34	0	514326528	62	4554
2026-01-17 03:47:05.40	242.61	9.30	-46.0	-47.5	23.5	6.00e-01	0	34	0	516423680	62	4581
2026-01-17 03:47:06.41	242.55	9.22	-46.1	-47.6	23.4	6.00e-01	0	34	0	517996544	62	4627
2026-01-17 03:47:07.42	242.48	9.13	-46.2	-47.7	23.3	6.03e-01	0	34	0	520093696	63	4441
2026-01-17 03:47:08.42	242.42	9.04	-46.2	-47.7	23.4	6.02e-01	0	34	0	522190848	63	4409
2026-01-17 03:47:09.43	242.36	8.96	-46.2	-47.7	23.3	6.03e-01	0	34	0	523763712	63	4409
2026-01-17 03:47:10.44	242.30	8.87	-46.4	-47.9	23.1	6.01e-01	0	34	0	525860864	63	4522
2026-01-17 03:47:11.45	242.24	8.79	-46.3	-47.9	23.1	6.03e-01	0	34	0	527433728	63	4511
2026-01-17 03:47:12.46	242.18	8.70	-46.4	-47.9	23.1	6.00e-01	0	34	0	529530880	63	4542
2026-01-17 03:47:13.47	242.12	8.62	-46.4	-47.9	23.1	6.01e-01	0	34	0	531628032	63	4526
2026-01-17 03:47:14.47	242.06	8.53	-46.4	-48.0	23.0	6.01e-01	0	34	0	533200896	63	4571
2026-01-17 03:47:15.48	242.00	8.45	-46.5	-48.1	22.9	6.02e-01	0	34	0	535298048	63	4607
2026-01-17 03:47:16.49	241.94	8.37	-46.5	-48.1	22.9	6.03e-01	0	34	0	536870912	63	4616
2026-01-17 03:47:17.50	241.88	8.28	-46.5	-48.0	22.9	6.01e-01	0	34	0	538968064	63	4590
2026-01-17 03:47:18.50	241.82	8.20	-46.4	-48.0	23.0	6.00e-01	0	34	0	540540928	63	4558
2026-01-17 03:47:19.51	241.76	8.12	-46.6	-48.2	22.8	6.03e-01	0	34	0	542638080	63	4691
2026-01-17 03:47:20.52	241.70	8.04	-46.6	-48.2	22.8	6.01e-01	0	34	0	544735232	63	4660
2026-01-17 03:47:21.53	241.65	7.95	-46.6	-48.2	22.8	6.02e-01	0	34	0	546308096	63	4652
2026-01-17 03:47:22.54	241.59	7.87	-46.6	-48.2	22.8	6.00e-01	0	34	0	548405248	63	4662
2026-01-17 03:47:23.54	241.53	7.79	-46.6	-48.2	22.7	5.99e-01	0	34	0	550502400	63	4678
2026-01-17 03:47:24.55	241.48	7.71	-46.4	-48.0	22.9	6.03e-01	0	34	0	552075264	63	4567
2026-01-17 03:47:25.56	241.42	7.63	-46.5	-48.0	22.9	6.00e-01	0	34	0	554172416	63	4586
2026-01-17 03:47:26.57	241.37	7.55	-46.5	-48.1	22.8	6.01e-01	0	34	0	555745280	63	4606
2026-01-17 03:47:27.58	241.31	7.47	-46.6	-48.2	22.7	6.03e-01	0	34	0	557842432	63	4656
2026-01-17 03:47:28.58	241.26	7.39	-46.6	-48.3	22.6	6.02e-01	0	34	0	559939584	63	4711
2026-01-17 03:47:29.59	241.20	7.31	-46.6	-48.2	22.7	6.00e-01	0	34	0	561512448	63	4680
2026-01-17 03:47:30.60	241.15	7.23	-46.6	-48.2	22.7	6.00e-01	0	34	0	563609600	63	4668
2026-01-17 03:47:31.61	241.09	7.15	-46.6	-48.2	22.7	6.00e-01	0	34	0	565706752	63	4663
2026-01-17 03:47:32.62	241.04	7.07	-46.7	-48.3	22.6	6.03e-01	0	34	0	567279616	63	4733
2026-01-17 03:47:33.62	240.99	6.99	-46.5	-48.1	22.6	6.03e-01	0	34	0	569376768	64	4372
2026-01-17 03:47:34.63	240.93	6.91	-46.6	-48.2	22.6	6.00e-01	0	34	0	570949632	64	4402
2026-01-17 03:47:35.64	240.88	6.83	-46.6	-48.2	22.6	6.02e-01	0	34	0	573046784	64	4404
2026-01-17 03:47:36.65	240.83	6.75	-46.5	-48.1	22.6	6.00e-01	0	34	0	574619648	64	4378
2026-01-17 03:47:37.66	240.78	6.67	-46.7	-48.3	22.4	6.03e-01	0	34	0	576716800	64	4483
2026-01-17 03:47:38.67	240.73	6.60	-46.7	-48.4	22.3	6.01e-01	0	34	0	578813952	64	4537
2026-01-17 03:47:39.68	240.67	6.52	-46.9	-48.6	22.1	6.02e-01	0	34	0	580386816	64	4651
2026-01-17 03:47:40.68	240.62	6.44	-46.8	-48.5	22.2	6.01e-01	0	34	0	582483968	64	4550
2026-01-17 03:47:41.69	240.57	6.36	-46.8	-48.5	22.2	6.01e-01	0	34	0	584056832	64	4569
2026-01-17 03:47:42.70	240.52	6.29	-47.0	-48.7	22.0	6.01e-01	0	34	0	586153984	64	4681
2026-01-17 03:47:43.71	240.47	6.21	-46.6	-48.3	22.4	6.00e-01	0	34	0	588251136	64	4446
2026-01-17 03:47:44.72	240.42	6.13	-46.8	-48.6	22.1	6.00e-01	0	34	0	589824000	64	4600
2026-01-17 03:47:45.73	240.37	6.06	-46.6	-48.3	22.3	6.02e-01	0	34	0	591921152	64	4481
2026-01-17 03:47:46.74	240.32	5.98	-46.9	-48.7	22.0	6.01e-01	0	34	0	594018304	64	4661
2026-01-17 03:47:47.75	240.28	5.90	-46.7	-48.4	22.1	6.01e-01	0	34	0	595591168	64	4540
2026-01-17 03:47:48.76	240.23	5.83	-46.8	-48.7	21.9	6.02e-01	0	34	0	597688320	64	4664
2026-01-17 03:47:49.77	240.18	5.75	-46.8	-48.5	22.0	6.00e-01	0	34	0	599261184	64	4588
2026-01-17 03:47:50.77	240.13	5.68	-46.8	-48.5	22.0	5.99e-01	0	34	0	601358336	64	4586
2026-01-17 03:47:51.78	240.08	5.60	-46.9	-48.6	21.9	6.00e-01	0	34	0	602931200	64	4629
2026-01-17 03:47:52.79	240.04	5.53	-46.9	-48.6	21.8	6.02e-01	0	34	0	605028352	64	4647
2026-01-17 03:47:53.80	239.99	5.45	-46.9	-48.6	21.8	6.01e-01	0	34	0	607125504	64	4636
2026-01-17 03:47:54.80	239.94	5.38	-47.0	-48.8	21.7	6.00e-01	0	34	0	608698368	64	4746
2026-01-17 03:47:55.81	239.90	5.31	-46.8	-48.6	21.9	6.03e-01	0	34	0	610795520	64	4624
2026-01-17 03:47:56.82	239.85	5.23	-46.9	-48.7	21.8	6.01e-01	0	34	0	612892672	64	4666
2026-01-17 03:47:57.83	239.80	5.16	-46.9	-48.7	21.8	6.01e-01	0	34	0	614465536	64	4684
2026-01-17 03:47:58.84	239.76	5.09	-46.9	-48.7	21.7	6.00e-01	0	34	0	616562688	64	4672
2026-01-17 03:47:59.85	239.71	5.01	-47.3	-49.1	21.3	6.01e-01	0	34	0	618135552	65	4648
2026-01-17 03:48:00.86	239.67	4.94	-53.5	-67.2	3.8	7.37e-01	0	34	104	620232704	77	18556
2026-01-17 03:48:01.87	239.62	4.87	-54.2	-72.0	3.8	7.43e-01	0	34	104	620232704	78	30432
2026-01-17 03:48:02.88	239.58	4.79	-54.4	-72.2	3.8	7.46e-01	0	34	104	620232704	79	29602
2026-01-17 03:48:03.89	239.53	4.72	-54.5	-72.4	3.8	7.44e-01	0	34	104	620232704	79	30076
2026-01-17 03:48:04.90	239.49	4.65	-54.7	-72.5	3.8	7.42e-01	0	34	104	620232704	79	30509
2026-01-17 03:48:05.91	239.45	4.58	-54.7	-72.5	3.8	7.47e-01	0	34	104	620232704	80	28902
2026-01-17 03:48:06.91	239.40	4.50	-54.8	-72.6	3.8	7.46e-01	0	34	104	620232704	80	29055
2026-01-17 03:48:07.92	239.36	4.43	-54.9	-72.6	3.8	7.46e-01	0	34	104	620232704	80	29333
2026-01-17 03:48:08.93	239.32	4.36	-54.9	-72.7	3.8	7.41e-01	0	34	104	620232704	80	29590
2026-01-17 03:48:09.94	239.27	4.29	-54.9	-72.8	3.8	7.45e-01	0	34	104	620232704	80	29695
2026-01-17 03:48:10.95	239.23	4.22	-55.0	-72.8	3.8	7.44e-01	0	34	104	620232704	80	29832
2026-01-17 03:48:11.96	239.19	4.15	-55.0	-72.8	3.8	7.42e-01	0	34	104	620232704	80	29863
2026-01-17 03:48:12.97	239.15	4.08	-55.0	-72.8	3.8	7.44e-01	0	34	104	620232704	80	29927
2026-01-17 03:48:13.98	239.10	4.01	-55.0	-72.8	3.8	7.45e-01	0	34	104	620232704	80	30014
2026-01-17 03:48:14.98	239.06	3.94	-55.0	-72.9	3.8	7.46e-01	0	34	104	620232704	80	30075
2026-01-17 03:48:15.99	239.02	3.87	-55.1	-72.8	3.8	7.47e-01	0	34	104	620232704	80	30016
2026-01-17 03:48:17.00	238.98	3.80	-55.1	-72.8	3.8	7.46e-01	0	34	104	620232704	80	29967
2026-01-17 03:48:18.01	238.94	3.73	-55.1	-72.8	3.8	7.44e-01	0	34	104	620232704	80	29973
2026-01-17 03:48:19.02	238.90	3.66	-55.0	-72.8	3.8	7.48e-01	0	34	104	620232704	80	30028
2026-01-17 03:48:20.02	238.86	3.59	-55.0	-72.9	3.8	7.46e-01	0	34	104	620232704	80	30105
