passes_logs/2026/01/17/R3.2S_Murmansk/R3.2S_Murmansk__20260117_233302_FENGYUN_3D_rec.log

#Pass ID: 20260117_233302_FENGYUN 3D
#Satellite: FENGYUN 3D
#Configuration: FENGYUN 3D
#almurnet v.1.7.20251203
#Start time: 2026-01-17 23:33:04

#Version: 2.2.20231116
#Station: R3.2S_Murmansk
#Location: 33.079688 lon 68.888172 lat
#TLE: 1 43010U 17072A   26017.61121112  .00000213  00000+0  12257-3 0  9991
#TLE: 2 43010  98.9934 349.4672 0002374 103.9362 256.2078 14.19696413423628

#Time	Az	El	Level	Level2	SNR	BER	BlckErr	Temp	State	Recorded	gain1	gain2
2026-01-17 23:33:04.19	19.29	2.08	-51.3	-63.1	3.8	8.45e-01	0	35	0	0	74	13796
2026-01-17 23:33:05.20	19.39	2.13	-51.3	-63.1	3.8	8.46e-01	0	35	104	0	73	14620
2026-01-17 23:33:06.21	19.48	2.17	-51.3	-63.1	3.8	8.47e-01	0	35	104	0	73	14668
2026-01-17 23:33:07.22	19.58	2.22	-51.3	-63.1	3.8	8.46e-01	0	35	104	0	73	14640
2026-01-17 23:33:08.22	19.68	2.27	-51.3	-63.1	3.8	8.47e-01	0	35	104	0	73	14656
2026-01-17 23:33:09.23	19.77	2.31	-51.3	-63.2	3.8	8.46e-01	0	35	104	0	73	14752
2026-01-17 23:33:10.24	19.87	2.36	-51.3	-63.2	3.8	8.45e-01	0	35	104	0	73	14747
2026-01-17 23:33:11.25	19.97	2.41	-51.3	-63.2	3.8	8.46e-01	0	35	104	0	73	14725
2026-01-17 23:33:12.26	20.06	2.45	-51.3	-63.2	3.8	8.46e-01	0	35	104	0	73	14746
2026-01-17 23:33:13.27	20.16	2.50	-51.3	-63.2	3.8	8.46e-01	0	35	104	0	73	14789
2026-01-17 23:33:14.28	20.26	2.55	-51.3	-63.2	3.8	8.47e-01	0	35	104	0	73	14790
2026-01-17 23:33:15.28	20.36	2.59	-51.3	-63.2	3.8	8.46e-01	0	35	104	0	73	14794
2026-01-17 23:33:16.29	20.46	2.64	-51.3	-63.2	3.8	8.46e-01	0	35	104	0	73	14789
2026-01-17 23:33:17.30	20.56	2.69	-51.3	-63.2	3.8	8.46e-01	0	35	104	0	73	14752
2026-01-17 23:33:18.31	20.66	2.73	-51.3	-63.2	3.8	8.46e-01	0	35	104	0	73	14718
2026-01-17 23:33:19.32	20.76	2.78	-51.3	-63.2	3.8	8.45e-01	0	35	104	0	73	14757
2026-01-17 23:33:20.32	20.85	2.83	-51.3	-63.1	3.8	8.46e-01	0	36	104	0	73	14620
2026-01-17 23:33:21.33	20.95	2.87	-51.3	-63.1	3.8	8.46e-01	0	35	104	0	73	14702
2026-01-17 23:33:22.34	21.06	2.92	-51.3	-63.1	3.8	8.45e-01	0	35	104	0	73	14698
2026-01-17 23:33:23.35	21.16	2.97	-51.3	-63.2	3.8	8.47e-01	0	35	104	0	73	14781
2026-01-17 23:33:24.36	21.26	3.02	-51.3	-63.1	3.8	8.47e-01	0	35	104	0	73	14637
2026-01-17 23:33:25.36	21.36	3.06	-51.3	-63.1	3.8	8.46e-01	0	35	104	0	73	14657
2026-01-17 23:33:26.37	21.46	3.11	-51.3	-63.1	3.8	8.46e-01	0	35	104	0	73	14702
2026-01-17 23:33:27.38	21.56	3.16	-51.3	-63.2	3.8	8.47e-01	0	35	104	0	73	14760
2026-01-17 23:33:28.38	21.66	3.20	-51.3	-63.1	3.8	8.45e-01	0	35	104	0	73	14635
2026-01-17 23:33:29.39	21.77	3.25	-51.3	-63.0	3.8	8.47e-01	0	35	104	0	73	14534
2026-01-17 23:33:30.40	21.87	3.30	-51.3	-63.1	3.8	8.47e-01	0	35	104	0	73	14555
2026-01-17 23:33:31.41	21.97	3.34	-51.3	-63.2	3.8	8.46e-01	0	35	104	0	73	14768
2026-01-17 23:33:32.42	22.08	3.39	-51.3	-63.0	3.8	8.46e-01	0	35	104	0	73	14537
2026-01-17 23:33:33.43	22.18	3.44	-51.3	-63.1	3.8	8.47e-01	0	35	104	0	73	14641
2026-01-17 23:33:34.43	22.28	3.48	-51.3	-63.2	3.8	8.48e-01	0	35	104	0	73	14798
2026-01-17 23:33:35.44	22.39	3.53	-51.3	-63.1	3.8	8.47e-01	0	35	104	0	73	14679
2026-01-17 23:33:36.45	22.49	3.58	-51.3	-63.2	3.8	8.46e-01	0	35	104	0	73	14744
2026-01-17 23:33:37.46	22.60	3.62	-51.3	-63.1	3.8	8.46e-01	0	35	104	0	73	14695
2026-01-17 23:33:38.47	22.70	3.67	-51.2	-62.9	3.8	8.46e-01	0	35	104	0	73	14271
2026-01-17 23:33:39.48	22.81	3.72	-51.3	-63.1	3.8	8.46e-01	0	35	104	0	73	14550
2026-01-17 23:33:40.49	22.92	3.77	-51.2	-62.8	3.8	8.46e-01	0	36	104	0	73	14178
2026-01-17 23:33:41.50	23.02	3.81	-51.3	-63.0	3.8	8.46e-01	0	35	104	0	73	14537
2026-01-17 23:33:42.51	23.13	3.86	-51.3	-63.1	3.8	8.45e-01	0	35	104	0	73	14549
2026-01-17 23:33:43.52	23.24	3.91	-51.3	-63.1	3.8	8.45e-01	0	35	104	0	73	14678
2026-01-17 23:33:44.52	23.34	3.95	-51.3	-63.2	3.8	8.47e-01	0	35	104	0	73	14722
2026-01-17 23:33:45.53	23.45	4.00	-51.3	-63.2	3.8	8.45e-01	0	35	104	0	73	14726
2026-01-17 23:33:46.54	23.56	4.05	-51.3	-63.1	3.8	8.47e-01	0	35	104	0	73	14705
2026-01-17 23:33:47.55	23.67	4.09	-51.3	-63.1	3.8	8.47e-01	0	36	104	0	73	14588
2026-01-17 23:33:48.56	23.78	4.14	-51.2	-63.0	3.8	8.47e-01	0	35	104	0	73	14481
2026-01-17 23:33:49.56	23.89	4.19	-51.3	-63.1	3.8	8.46e-01	0	35	104	0	73	14599
2026-01-17 23:33:50.57	23.99	4.24	-51.3	-63.2	3.8	8.47e-01	0	35	104	0	73	14755
2026-01-17 23:33:51.58	24.10	4.28	-51.3	-63.2	3.8	8.47e-01	0	36	104	0	73	14739
2026-01-17 23:33:52.59	24.21	4.33	-51.3	-63.0	3.8	8.46e-01	0	35	104	0	73	14503
2026-01-17 23:33:53.60	24.33	4.38	-51.2	-63.0	3.8	8.47e-01	0	35	104	0	73	14512
2026-01-17 23:33:54.60	24.44	4.42	-51.2	-62.9	3.8	8.46e-01	0	35	104	0	73	14343
2026-01-17 23:33:55.61	24.55	4.47	-51.2	-62.6	3.8	8.46e-01	0	35	104	0	73	13767
2026-01-17 23:33:56.62	24.66	4.52	-51.2	-62.0	3.8	8.45e-01	0	35	104	0	73	12820
2026-01-17 23:33:57.63	24.77	4.56	-51.1	-61.7	3.8	8.44e-01	0	35	104	0	73	12380
2026-01-17 23:33:58.64	24.88	4.61	-51.1	-61.8	3.8	8.46e-01	0	35	104	0	73	12635
2026-01-17 23:33:59.64	24.99	4.66	-51.2	-62.1	3.8	8.44e-01	0	35	104	0	73	13067
2026-01-17 23:34:00.65	25.11	4.70	-51.2	-62.3	3.8	8.47e-01	0	35	104	0	73	13270
2026-01-17 23:34:01.66	25.22	4.75	-51.1	-61.6	3.8	8.46e-01	0	35	104	0	73	12259
2026-01-17 23:34:02.67	25.33	4.80	-50.9	-59.6	4.2	8.40e-01	0	35	0	0	73	9795
2026-01-17 23:34:03.67	25.45	4.84	-50.7	-58.6	4.6	8.21e-01	0	36	0	0	73	8665
2026-01-17 23:34:04.68	25.56	4.89	-50.4	-56.9	5.5	7.46e-01	0	36	0	0	72	7565
2026-01-17 23:34:05.69	25.68	4.94	-49.9	-55.1	6.9	2.22e-01	0	36	0	4194304	71	6558
2026-01-17 23:34:06.70	25.79	4.99	-50.4	-56.7	5.6	4.22e-01	0	36	0	10485760	71	7879
2026-01-17 23:34:07.70	25.90	5.03	-50.1	-55.7	6.4	3.83e-01	0	35	0	15728640	71	6990
2026-01-17 23:34:08.71	26.02	5.08	-50.2	-56.0	6.1	3.14e-01	0	36	0	20971520	71	7286
2026-01-17 23:34:09.72	26.14	5.13	-50.2	-59.9	4.0	7.08e-01	0	35	0	24117248	71	11370
2026-01-17 23:34:10.73	26.25	5.17	-48.4	-51.1	11.1	4.97e-01	0	35	104	24117248	68	4911
2026-01-17 23:34:11.74	26.37	5.22	-46.1	-47.8	15.1	0.00e+00	0	35	0	28311552	63	4479
2026-01-17 23:34:12.74	26.49	5.27	-47.7	-50.1	12.7	2.40e-05	0	36	0	33554432	65	5185
2026-01-17 23:34:13.75	26.60	5.31	-46.4	-48.3	14.5	2.51e-04	0	36	0	39845888	64	4460
2026-01-17 23:34:14.76	26.72	5.36	-46.2	-47.9	14.9	1.10e-06	0	36	0	45088768	64	4281
2026-01-17 23:34:15.77	26.84	5.41	-45.6	-47.1	15.9	0.00e+00	0	35	0	50331648	63	4128
2026-01-17 23:34:16.78	26.96	5.45	-46.4	-48.2	14.8	0.00e+00	0	36	0	56623104	63	4655
2026-01-17 23:34:17.78	27.08	5.50	-45.5	-47.0	16.1	0.00e+00	0	36	0	61865984	63	4062
2026-01-17 23:34:18.79	27.20	5.55	-44.9	-46.2	16.9	0.00e+00	0	35	0	68157440	61	4189
2026-01-17 23:34:19.80	27.31	5.59	-44.6	-45.9	17.3	0.00e+00	0	36	0	73400320	61	4043
2026-01-17 23:34:20.81	27.44	5.64	-44.3	-45.5	18.0	0.00e+00	0	35	0	79691776	59	4339
2026-01-17 23:34:21.82	27.56	5.69	-44.6	-45.9	17.3	0.00e+00	0	35	0	84934656	60	4253
2026-01-17 23:34:22.82	27.68	5.73	-44.0	-45.2	18.0	0.00e+00	0	35	0	91226112	60	3940
2026-01-17 23:34:23.83	27.80	5.78	-44.3	-45.5	17.7	0.00e+00	0	36	0	96468992	60	4081
2026-01-17 23:34:24.84	27.92	5.83	-44.3	-45.5	17.7	0.00e+00	0	36	0	101711872	60	4093
2026-01-17 23:34:25.85	28.04	5.87	-43.9	-45.0	18.5	0.00e+00	0	35	0	108003328	59	4094
2026-01-17 23:34:26.86	28.16	5.92	-44.2	-45.4	18.2	0.00e+00	0	35	0	113246208	59	4272
2026-01-17 23:34:27.86	28.28	5.97	-44.4	-45.7	17.9	0.00e+00	0	36	0	118489088	59	4413
2026-01-17 23:34:28.87	28.41	6.01	-44.3	-45.5	18.1	0.00e+00	0	35	0	124780544	59	4310
2026-01-17 23:34:29.88	28.53	6.06	-44.0	-45.1	18.5	0.00e+00	0	36	0	130023424	59	4135
2026-01-17 23:34:30.89	28.65	6.11	-43.9	-45.1	18.6	0.00e+00	0	36	0	135266304	59	4116
2026-01-17 23:34:31.90	28.78	6.15	-43.5	-44.6	19.1	0.00e+00	0	36	0	141557760	58	4115
2026-01-17 23:34:32.90	28.90	6.20	-43.9	-45.1	18.6	0.00e+00	0	35	0	147849216	58	4345
2026-01-17 23:34:33.91	29.03	6.24	-43.5	-44.6	19.0	0.00e+00	0	35	0	153092096	58	4133
2026-01-17 23:34:34.92	29.15	6.29	-43.9	-45.1	18.6	0.00e+00	0	35	0	158334976	58	4352
2026-01-17 23:34:35.93	29.28	6.34	-43.6	-44.8	18.9	0.00e+00	0	36	0	164626432	58	4198
2026-01-17 23:34:36.94	29.40	6.38	-43.7	-44.8	18.9	0.00e+00	0	35	0	169869312	58	4232
2026-01-17 23:34:37.94	29.53	6.43	-43.3	-44.3	19.3	0.00e+00	0	36	0	176160768	58	4002
2026-01-17 23:34:38.95	29.66	6.48	-43.7	-44.8	18.9	0.00e+00	0	36	0	181403648	58	4230
2026-01-17 23:34:39.96	29.78	6.52	-43.9	-45.1	18.6	0.00e+00	0	36	0	186646528	58	4362
2026-01-17 23:34:40.97	29.91	6.57	-44.0	-45.1	18.6	0.00e+00	0	35	0	192937984	58	4374
2026-01-17 23:34:41.97	30.04	6.61	-44.0	-45.1	18.6	0.00e+00	0	35	0	198180864	58	4364
2026-01-17 23:34:42.98	30.17	6.66	-43.6	-44.7	19.0	0.00e+00	0	36	0	203423744	58	4164
2026-01-17 23:34:43.99	30.29	6.71	-44.0	-45.1	18.6	0.00e+00	0	35	0	209715200	58	4384
2026-01-17 23:34:45.00	30.42	6.75	-44.1	-45.3	18.4	0.00e+00	0	35	0	216006656	58	4481
2026-01-17 23:34:46.01	30.55	6.80	-43.9	-45.1	18.6	0.00e+00	0	35	0	221249536	58	4362
2026-01-17 23:34:47.02	30.68	6.85	-44.2	-45.4	18.4	0.00e+00	0	36	0	226492416	58	4509
2026-01-17 23:34:48.02	30.81	6.89	-44.4	-45.6	18.2	0.00e+00	0	36	0	232783872	59	4348
2026-01-17 23:34:49.03	30.94	6.94	-44.5	-45.8	18.0	0.00e+00	0	36	0	238026752	59	4448
2026-01-17 23:34:50.04	31.07	6.98	-44.1	-45.3	18.5	0.00e+00	0	35	0	243269632	59	4227
2026-01-17 23:34:51.05	31.21	7.03	-44.2	-45.4	18.4	0.00e+00	0	36	0	249561088	59	4262
2026-01-17 23:34:52.06	31.34	7.07	-44.1	-45.4	18.4	0.00e+00	0	36	0	254803968	59	4247
2026-01-17 23:34:53.06	31.47	7.12	-44.1	-45.2	18.6	0.00e+00	0	36	0	261095424	59	4180
2026-01-17 23:34:54.07	31.60	7.17	-44.2	-45.4	18.4	0.00e+00	0	36	0	266338304	59	4285
2026-01-17 23:34:55.08	31.73	7.21	-43.8	-45.0	18.8	0.00e+00	0	35	0	271581184	59	4057
2026-01-17 23:34:56.09	31.87	7.26	-43.9	-45.0	18.8	0.00e+00	0	36	0	277872640	59	4071
2026-01-17 23:34:57.10	32.00	7.30	-43.7	-44.9	19.0	0.00e+00	0	35	0	284164096	59	4005
2026-01-17 23:34:58.10	32.14	7.35	-43.5	-44.6	19.2	0.00e+00	0	36	0	289406976	59	3873
2026-01-17 23:34:59.11	32.27	7.39	-43.5	-44.5	19.3	0.00e+00	0	36	0	294649856	58	4086
2026-01-17 23:35:00.12	32.41	7.44	-43.6	-44.7	19.2	0.00e+00	0	36	0	300941312	58	4147
2026-01-17 23:35:01.13	32.54	7.48	-43.6	-44.7	19.1	0.00e+00	0	35	0	306184192	58	4167
2026-01-17 23:35:02.14	32.68	7.53	-43.7	-44.8	19.0	0.00e+00	0	35	0	311427072	58	4236
2026-01-17 23:35:03.14	32.81	7.57	-43.7	-44.8	19.0	0.00e+00	0	36	0	317718528	58	4241
2026-01-17 23:35:04.15	32.95	7.62	-43.6	-44.6	19.2	0.00e+00	0	36	0	322961408	58	4136
2026-01-17 23:35:05.15	33.08	7.66	-43.6	-44.7	19.1	0.00e+00	0	36	0	328204288	58	4170
2026-01-17 23:35:06.16	33.22	7.71	-43.5	-44.5	19.3	0.00e+00	0	35	0	334495744	58	4087
2026-01-17 23:35:07.17	33.36	7.75	-43.4	-44.5	19.4	0.00e+00	0	36	0	339738624	58	4077
2026-01-17 23:35:08.18	33.50	7.80	-43.4	-44.4	19.5	0.00e+00	0	36	0	346030080	58	4032
2026-01-17 23:35:09.19	33.64	7.84	-43.4	-44.4	19.4	0.00e+00	0	36	0	351272960	58	4048
2026-01-17 23:35:10.20	33.78	7.89	-43.2	-44.2	19.6	0.00e+00	0	35	0	357564416	58	3947
2026-01-17 23:35:11.20	33.92	7.93	-43.1	-44.1	19.7	0.00e+00	0	35	0	362807296	58	3902
2026-01-17 23:35:12.21	34.06	7.98	-43.2	-44.2	19.6	0.00e+00	0	36	0	369098752	58	3954
2026-01-17 23:35:13.22	34.20	8.02	-43.3	-44.4	19.5	0.00e+00	0	35	0	374341632	58	4022
2026-01-17 23:35:14.23	34.34	8.07	-43.3	-44.3	19.5	0.00e+00	0	36	0	379584512	58	4000
2026-01-17 23:35:15.24	34.48	8.11	-43.3	-44.3	19.5	0.00e+00	0	36	0	385875968	58	3995
2026-01-17 23:35:16.25	34.62	8.16	-43.1	-44.2	19.7	0.00e+00	0	35	0	391118848	58	3915
2026-01-17 23:35:17.26	34.76	8.20	-43.1	-44.2	19.7	0.00e+00	0	36	0	396361728	58	3922
2026-01-17 23:35:18.26	34.90	8.24	-43.1	-44.2	19.7	0.00e+00	0	36	0	402653184	58	3924
2026-01-17 23:35:19.27	35.05	8.29	-43.1	-44.2	19.7	0.00e+00	0	35	0	407896064	58	3919
2026-01-17 23:35:20.28	35.19	8.33	-43.1	-44.1	19.8	0.00e+00	0	35	0	413138944	58	3903
2026-01-17 23:35:21.29	35.33	8.38	-43.3	-44.3	19.6	0.00e+00	0	36	0	419430400	58	3984
2026-01-17 23:35:22.30	35.48	8.42	-43.3	-44.3	19.6	0.00e+00	0	36	0	425721856	58	3986
2026-01-17 23:35:23.30	35.62	8.46	-43.3	-44.3	19.6	0.00e+00	0	35	0	430964736	58	3981
2026-01-17 23:35:24.31	35.77	8.51	-43.1	-44.1	19.8	0.00e+00	0	35	0	436207616	58	3893
2026-01-17 23:35:25.32	35.91	8.55	-43.1	-44.1	19.9	0.00e+00	0	35	0	442499072	58	3876
2026-01-17 23:35:26.33	36.06	8.60	-43.0	-44.0	19.9	0.00e+00	0	35	0	447741952	58	3855
2026-01-17 23:35:27.33	36.20	8.64	-43.0	-44.0	19.9	0.00e+00	0	36	0	454033408	57	4065
2026-01-17 23:35:28.34	36.35	8.68	-43.0	-44.0	19.8	0.00e+00	0	35	0	459276288	57	4090
2026-01-17 23:35:29.35	36.50	8.73	-43.0	-44.0	19.9	0.00e+00	0	35	0	464519168	57	4059
2026-01-17 23:35:30.36	36.64	8.77	-43.0	-44.0	19.9	0.00e+00	0	36	0	470810624	57	4074
2026-01-17 23:35:31.37	36.79	8.81	-43.0	-44.0	19.9	0.00e+00	0	35	0	476053504	57	4069
2026-01-17 23:35:32.38	36.94	8.86	-43.0	-44.0	20.0	0.00e+00	0	36	0	481296384	57	4056
2026-01-17 23:35:33.38	37.09	8.90	-42.9	-43.9	20.0	0.00e+00	0	35	0	487587840	57	4029
2026-01-17 23:35:34.39	37.24	8.94	-42.9	-43.8	20.1	0.00e+00	0	36	0	492830720	57	4004
2026-01-17 23:35:35.40	37.39	8.99	-42.9	-43.9	20.0	0.00e+00	0	35	0	499122176	57	4032
2026-01-17 23:35:36.41	37.54	9.03	-42.9	-43.9	20.0	0.00e+00	0	36	0	504365056	57	4040
2026-01-17 23:35:37.42	37.69	9.07	-42.8	-43.8	20.1	0.00e+00	0	35	0	510656512	57	3995
2026-01-17 23:35:38.42	37.84	9.11	-42.7	-43.7	20.3	0.00e+00	0	36	0	515899392	57	3919
2026-01-17 23:35:39.43	37.99	9.16	-42.7	-43.7	20.2	0.00e+00	0	36	0	521142272	57	3934
2026-01-17 23:35:40.44	38.14	9.20	-42.8	-43.8	20.1	0.00e+00	0	36	0	527433728	57	3993
2026-01-17 23:35:41.45	38.29	9.24	-42.9	-43.9	20.1	0.00e+00	0	35	0	532676608	57	4008
2026-01-17 23:35:42.46	38.45	9.28	-42.7	-43.7	20.2	0.00e+00	0	36	0	538968064	57	3933
2026-01-17 23:35:43.46	38.60	9.32	-42.8	-43.8	20.2	0.00e+00	0	35	0	544210944	57	3968
2026-01-17 23:35:44.47	38.75	9.37	-42.8	-43.7	20.2	0.00e+00	0	35	0	549453824	57	3946
2026-01-17 23:35:45.48	38.91	9.41	-42.7	-43.7	20.3	0.00e+00	0	36	0	555745280	57	3914
2026-01-17 23:35:46.49	39.06	9.45	-42.6	-43.6	20.4	0.00e+00	0	36	0	560988160	57	3883
2026-01-17 23:35:47.50	39.22	9.49	-42.8	-43.8	20.2	0.00e+00	0	36	0	567279616	57	3973
2026-01-17 23:35:48.50	39.37	9.53	-42.7	-43.7	20.3	0.00e+00	0	36	0	572522496	57	3920
2026-01-17 23:35:49.52	39.53	9.58	-42.7	-43.7	20.3	0.00e+00	0	36	0	578813952	57	3939
2026-01-17 23:35:50.52	39.68	9.62	-42.8	-43.7	20.2	0.00e+00	0	35	0	584056832	57	3947
2026-01-17 23:35:51.53	39.84	9.66	-42.7	-43.7	20.3	0.00e+00	0	36	0	589299712	57	3930
2026-01-17 23:35:52.54	39.99	9.70	-42.8	-43.7	20.2	0.00e+00	0	35	0	595591168	57	3947
2026-01-17 23:35:53.55	40.15	9.74	-42.7	-43.6	20.3	0.00e+00	0	36	0	600834048	57	3902
2026-01-17 23:35:54.56	40.31	9.78	-42.7	-43.6	20.3	0.00e+00	0	35	0	606076928	57	3904
2026-01-17 23:35:55.57	40.47	9.82	-42.7	-43.7	20.3	0.00e+00	0	36	0	612368384	57	3923
2026-01-17 23:35:56.58	40.63	9.86	-42.8	-43.8	20.2	0.00e+00	0	36	0	617611264	57	3962
2026-01-17 23:35:57.59	40.79	9.90	-42.6	-43.6	20.4	0.00e+00	0	36	0	623902720	57	3883
2026-01-17 23:35:58.59	40.94	9.94	-42.7	-43.6	20.3	0.00e+00	0	35	0	629145600	57	3909
2026-01-17 23:35:59.60	41.10	9.98	-42.7	-43.6	20.4	0.00e+00	0	35	0	635437056	57	3899
2026-01-17 23:36:00.61	41.27	10.02	-42.5	-43.5	20.5	0.00e+00	0	35	0	640679936	57	3841
2026-01-17 23:36:01.62	41.43	10.06	-42.6	-43.6	20.5	0.00e+00	0	36	0	646971392	57	3875
2026-01-17 23:36:02.62	41.59	10.10	-42.7	-43.6	20.4	0.00e+00	0	35	0	652214272	57	3910
2026-01-17 23:36:03.63	41.75	10.14	-42.7	-43.7	20.3	0.00e+00	0	36	0	657457152	57	3927
2026-01-17 23:36:04.64	41.91	10.18	-42.7	-43.7	20.4	0.00e+00	0	35	0	663748608	57	3918
2026-01-17 23:36:05.65	42.07	10.22	-42.6	-43.6	20.4	0.00e+00	0	35	0	668991488	57	3877
2026-01-17 23:36:06.66	42.24	10.26	-42.7	-43.7	20.3	0.00e+00	0	35	0	674234368	57	3929
2026-01-17 23:36:07.66	42.40	10.30	-42.7	-43.7	20.3	0.00e+00	0	36	0	680525824	57	3935
2026-01-17 23:36:08.67	42.56	10.34	-42.8	-43.8	20.3	0.00e+00	0	36	0	685768704	57	3963
2026-01-17 23:36:09.68	42.73	10.38	-42.7	-43.6	20.4	0.00e+00	0	36	0	691011584	57	3912
2026-01-17 23:36:10.69	42.89	10.42	-42.6	-43.6	20.4	0.00e+00	0	36	0	697303040	57	3889
2026-01-17 23:36:11.70	43.06	10.46	-42.7	-43.7	20.4	0.00e+00	0	36	0	703594496	57	3923
2026-01-17 23:36:12.70	43.22	10.49	-42.7	-43.7	20.4	0.00e+00	0	35	0	708837376	57	3916
2026-01-17 23:36:13.71	43.39	10.53	-42.6	-43.6	20.4	0.00e+00	0	35	0	714080256	57	3900
2026-01-17 23:36:14.72	43.55	10.57	-42.7	-43.7	20.4	0.00e+00	0	36	0	720371712	57	3919
2026-01-17 23:36:15.73	43.72	10.61	-42.6	-43.6	20.4	0.00e+00	0	35	0	725614592	57	3893
2026-01-17 23:36:16.74	43.89	10.65	-42.6	-43.6	20.5	0.00e+00	0	35	0	731906048	57	3877
2026-01-17 23:36:17.74	44.05	10.68	-42.5	-43.5	20.6	0.00e+00	0	35	0	737148928	57	3827
2026-01-17 23:36:18.75	44.22	10.72	-42.4	-43.3	20.7	0.00e+00	0	35	0	742391808	56	3980
2026-01-17 23:36:19.76	44.39	10.76	-42.3	-43.2	20.8	0.00e+00	0	36	0	748683264	56	3944
2026-01-17 23:36:20.77	44.56	10.80	-42.3	-43.3	20.8	0.00e+00	0	36	0	753926144	56	3961
2026-01-17 23:36:21.78	44.73	10.83	-42.4	-43.3	20.7	0.00e+00	0	35	0	759169024	56	3975
2026-01-17 23:36:22.79	44.90	10.87	-42.3	-43.2	20.8	0.00e+00	0	35	0	765460480	56	3949
2026-01-17 23:36:23.80	45.07	10.91	-42.3	-43.2	20.8	0.00e+00	0	35	0	771751936	56	3937
2026-01-17 23:36:24.81	45.24	10.94	-42.4	-43.3	20.7	0.00e+00	0	36	0	776994816	56	3978
2026-01-17 23:36:25.82	45.41	10.98	-42.5	-43.4	20.6	0.00e+00	0	36	0	782237696	56	4039
2026-01-17 23:36:26.82	45.58	11.02	-42.5	-43.5	20.6	0.00e+00	0	35	0	788529152	56	4057
2026-01-17 23:36:27.83	45.75	11.05	-42.5	-43.4	20.6	0.00e+00	0	36	0	793772032	56	4043
2026-01-17 23:36:28.83	45.92	11.09	-42.5	-43.4	20.6	0.00e+00	0	36	0	799014912	56	4037
2026-01-17 23:36:29.84	46.09	11.12	-42.5	-43.5	20.6	0.00e+00	0	35	0	805306368	56	4056
2026-01-17 23:36:30.85	46.27	11.16	-42.3	-43.3	20.8	0.00e+00	0	36	0	810549248	56	3975
2026-01-17 23:36:31.86	46.44	11.20	-42.2	-43.2	20.9	0.00e+00	0	36	0	816840704	56	3919
2026-01-17 23:36:32.87	46.61	11.23	-42.3	-43.2	20.8	0.00e+00	0	35	0	822083584	56	3949
2026-01-17 23:36:33.88	46.79	11.27	-42.1	-43.0	21.0	0.00e+00	0	35	0	827326464	56	3868
2026-01-17 23:36:34.88	46.96	11.30	-42.1	-43.0	21.0	0.00e+00	0	36	0	833617920	56	3851
2026-01-17 23:36:35.89	47.14	11.34	-42.1	-43.0	21.0	0.00e+00	0	36	0	839909376	56	3864
2026-01-17 23:36:36.90	47.31	11.37	-42.2	-43.1	21.0	0.00e+00	0	36	0	845152256	56	3894
2026-01-17 23:36:37.91	47.49	11.40	-42.1	-43.1	21.0	0.00e+00	0	35	0	850395136	56	3872
2026-01-17 23:36:38.92	47.66	11.44	-42.3	-43.2	20.8	0.00e+00	0	35	0	856686592	56	3951
2026-01-17 23:36:39.92	47.84	11.47	-42.3	-43.2	20.9	0.00e+00	0	36	0	861929472	56	3935
2026-01-17 23:36:40.93	48.02	11.51	-42.4	-43.3	20.8	0.00e+00	0	35	0	867172352	56	3974
2026-01-17 23:36:41.94	48.19	11.54	-42.4	-43.4	20.7	0.00e+00	0	36	0	873463808	56	4014
2026-01-17 23:36:42.95	48.37	11.57	-42.5	-43.4	20.6	0.00e+00	0	36	0	878706688	56	4051
2026-01-17 23:36:43.96	48.55	11.61	-42.4	-43.4	20.7	0.00e+00	0	35	0	883949568	56	4010
2026-01-17 23:36:44.97	48.73	11.64	-42.3	-43.2	20.8	0.00e+00	0	36	0	890241024	56	3956
2026-01-17 23:36:45.98	48.91	11.67	-42.3	-43.2	20.8	0.00e+00	0	36	0	895483904	56	3940
2026-01-17 23:36:46.99	49.09	11.70	-42.3	-43.3	20.8	0.00e+00	0	36	0	901775360	56	3971
2026-01-17 23:36:48.00	49.27	11.74	-42.2	-43.1	21.0	0.00e+00	0	36	0	907018240	56	3897
2026-01-17 23:36:49.01	49.45	11.77	-42.1	-43.0	21.0	0.00e+00	0	36	0	913309696	56	3863
2026-01-17 23:36:50.01	49.63	11.80	-42.1	-43.0	21.1	0.00e+00	0	36	0	918552576	56	3847
2026-01-17 23:36:51.02	49.81	11.83	-42.2	-43.1	21.0	0.00e+00	0	35	0	924844032	56	3890
2026-01-17 23:36:52.03	49.99	11.86	-42.2	-43.2	20.9	0.00e+00	0	36	0	930086912	56	3922
2026-01-17 23:36:53.04	50.17	11.89	-42.2	-43.1	21.0	0.00e+00	0	36	0	935329792	56	3907
2026-01-17 23:36:54.04	50.35	11.93	-42.2	-43.2	20.9	0.00e+00	0	35	0	941621248	56	3917
2026-01-17 23:36:55.05	50.53	11.96	-42.2	-43.1	21.0	0.00e+00	0	36	0	946864128	56	3910
2026-01-17 23:36:56.06	50.72	11.99	-42.2	-43.2	20.9	0.00e+00	0	35	0	952107008	56	3917
2026-01-17 23:36:57.07	50.90	12.02	-42.1	-43.0	21.0	0.00e+00	0	35	0	958398464	56	3867
2026-01-17 23:36:58.08	51.08	12.05	-42.1	-43.0	21.1	0.00e+00	0	35	0	963641344	56	3846
2026-01-17 23:36:59.08	51.26	12.08	-42.2	-43.1	21.0	0.00e+00	0	36	0	968884224	56	3891
2026-01-17 23:37:00.09	51.45	12.11	-42.1	-43.0	21.0	0.00e+00	0	36	0	975175680	56	3868
2026-01-17 23:37:01.10	51.63	12.14	-42.2	-43.1	21.0	0.00e+00	0	36	0	981467136	56	3878
2026-01-17 23:37:02.11	51.82	12.17	-42.3	-43.2	21.0	0.00e+00	0	36	0	986710016	56	3926
2026-01-17 23:37:03.12	52.00	12.19	-42.2	-43.2	21.0	0.00e+00	0	36	0	991952896	56	3916
2026-01-17 23:37:04.13	52.19	12.22	-42.3	-43.2	20.9	0.00e+00	0	36	0	998244352	56	3935
2026-01-17 23:37:05.14	52.38	12.25	-42.3	-43.2	20.9	0.00e+00	0	36	0	1003487232	56	3949
2026-01-17 23:37:06.14	52.56	12.28	-42.3	-43.2	20.9	0.00e+00	0	35	0	1009778688	56	3935
2026-01-17 23:37:07.15	52.75	12.31	-42.3	-43.2	20.9	0.00e+00	0	35	0	1015021568	56	3930
2026-01-17 23:37:08.16	52.93	12.34	-42.1	-43.0	21.1	0.00e+00	0	36	0	1020264448	56	3843
2026-01-17 23:37:09.17	53.12	12.36	-42.1	-43.0	21.1	0.00e+00	0	36	0	1026555904	56	3831
2026-01-17 23:37:10.18	53.31	12.39	-42.1	-43.0	21.1	0.00e+00	0	36	0	1031798784	56	3853
2026-01-17 23:37:11.18	53.50	12.42	-42.1	-43.0	21.2	0.00e+00	0	35	0	1037041664	56	3829
2026-01-17 23:37:12.19	53.68	12.44	-42.1	-43.0	21.1	0.00e+00	0	36	0	1043333120	56	3838
2026-01-17 23:37:13.20	53.87	12.47	-42.1	-43.0	21.1	0.00e+00	0	35	0	1049624576	56	3830
2026-01-17 23:37:14.21	54.06	12.50	-42.1	-43.0	21.1	0.00e+00	0	35	0	1054867456	56	3839
2026-01-17 23:37:15.22	54.25	12.52	-41.8	-42.7	21.3	0.00e+00	0	36	0	1060110336	55	3941
2026-01-17 23:37:16.22	54.44	12.55	-41.8	-42.7	21.3	0.00e+00	0	36	0	1066401792	55	3919
2026-01-17 23:37:17.23	54.63	12.58	-41.6	-42.5	21.5	0.00e+00	0	36	0	1071644672	55	3838
2026-01-17 23:37:18.24	54.82	12.60	-41.7	-42.6	21.4	0.00e+00	0	35	0	1076887552	55	3876
2026-01-17 23:37:19.25	55.01	12.63	-41.6	-42.5	21.5	0.00e+00	0	36	0	1083179008	55	3837
2026-01-17 23:37:20.25	55.20	12.65	-41.6	-42.5	21.5	0.00e+00	0	36	0	1088421888	55	3825
2026-01-17 23:37:21.26	55.39	12.67	-41.6	-42.4	21.6	0.00e+00	0	35	0	1094713344	55	3815
2026-01-17 23:37:22.27	55.58	12.70	-41.7	-42.6	21.4	0.00e+00	0	36	0	1099956224	55	3894
2026-01-17 23:37:23.28	55.78	12.72	-41.6	-42.5	21.5	0.00e+00	0	36	0	1105199104	55	3843
2026-01-17 23:37:24.29	55.97	12.75	-41.8	-42.7	21.4	0.00e+00	0	36	0	1111490560	55	3914
2026-01-17 23:37:25.30	56.16	12.77	-41.7	-42.6	21.5	0.00e+00	0	35	0	1117782016	55	3870
2026-01-17 23:37:26.30	56.35	12.79	-41.6	-42.5	21.6	0.00e+00	0	36	0	1123024896	55	3831
2026-01-17 23:37:27.31	56.55	12.82	-41.5	-42.4	21.6	0.00e+00	0	36	0	1128267776	55	3798
2026-01-17 23:37:28.32	56.74	12.84	-41.5	-42.4	21.6	0.00e+00	0	36	0	1134559232	54	4013
2026-01-17 23:37:29.33	56.93	12.86	-41.5	-42.4	21.6	0.00e+00	0	36	0	1139802112	54	4018
2026-01-17 23:37:30.34	57.13	12.88	-41.3	-42.2	21.8	0.00e+00	0	36	0	1145044992	54	3926
2026-01-17 23:37:31.34	57.32	12.91	-41.4	-42.3	21.7	0.00e+00	0	36	0	1151336448	54	3971
2026-01-17 23:37:32.35	57.51	12.93	-41.5	-42.3	21.7	0.00e+00	0	35	0	1156579328	54	3988
2026-01-17 23:37:33.36	57.71	12.95	-41.6	-42.4	21.6	0.00e+00	0	35	0	1161822208	54	4046
2026-01-17 23:37:34.36	57.90	12.97	-41.7	-42.5	21.5	0.00e+00	0	36	0	1168113664	54	4098
2026-01-17 23:37:35.37	58.10	12.99	-41.8	-42.7	21.3	0.00e+00	0	36	0	1173356544	54	4158
2026-01-17 23:37:36.38	58.29	13.01	-41.8	-42.6	21.3	0.00e+00	0	35	0	1179648000	54	4142
2026-01-17 23:37:37.39	58.49	13.03	-41.7	-42.5	21.4	0.00e+00	0	36	0	1184890880	54	4097
2026-01-17 23:37:38.40	58.69	13.05	-41.8	-42.7	21.3	0.00e+00	0	36	0	1191182336	54	4153
2026-01-17 23:37:39.41	58.88	13.07	-41.8	-42.7	21.4	0.00e+00	0	36	0	1196425216	54	4156
2026-01-17 23:37:40.42	59.08	13.09	-41.8	-42.7	21.3	0.00e+00	0	36	0	1202716672	54	4188
2026-01-17 23:37:41.43	59.28	13.11	-41.9	-42.8	21.2	0.00e+00	0	36	0	1207959552	54	4218
2026-01-17 23:37:42.43	59.47	13.13	-41.9	-42.8	21.2	0.00e+00	0	35	0	1213202432	54	4235
2026-01-17 23:37:43.44	59.67	13.15	-41.9	-42.8	21.2	0.00e+00	0	35	0	1219493888	54	4212
2026-01-17 23:37:44.45	59.87	13.16	-41.7	-42.6	21.4	0.00e+00	0	36	0	1224736768	54	4137
2026-01-17 23:37:45.46	60.07	13.18	-41.7	-42.6	21.4	0.00e+00	0	36	0	1229979648	54	4129
2026-01-17 23:37:46.46	60.26	13.20	-41.7	-42.5	21.5	0.00e+00	0	36	0	1236271104	54	4084
2026-01-17 23:37:47.47	60.46	13.22	-41.7	-42.6	21.4	0.00e+00	0	35	0	1241513984	54	4108
2026-01-17 23:37:48.48	60.66	13.23	-41.6	-42.4	21.6	0.00e+00	0	36	0	1246756864	54	4042
2026-01-17 23:37:49.48	60.86	13.25	-41.7	-42.5	21.5	0.00e+00	0	36	0	1253048320	54	4087
2026-01-17 23:37:50.49	61.06	13.27	-41.6	-42.5	21.5	0.00e+00	0	36	0	1258291200	54	4060
2026-01-17 23:37:51.50	61.26	13.28	-41.8	-42.7	21.4	0.00e+00	0	36	0	1264582656	54	4152
2026-01-17 23:37:52.51	61.46	13.30	-41.9	-42.8	21.3	0.00e+00	0	36	0	1269825536	54	4203
2026-01-17 23:37:53.52	61.66	13.31	-41.8	-42.7	21.3	0.00e+00	0	35	0	1276116992	54	4166
2026-01-17 23:37:54.52	61.85	13.33	-41.8	-42.7	21.4	0.00e+00	0	35	0	1281359872	54	4158
2026-01-17 23:37:55.53	62.05	13.34	-41.7	-42.6	21.4	0.00e+00	0	36	0	1287651328	54	4118
2026-01-17 23:37:56.54	62.25	13.36	-41.7	-42.6	21.4	0.00e+00	0	35	0	1292894208	54	4129
2026-01-17 23:37:57.55	62.45	13.37	-41.8	-42.7	21.4	0.00e+00	0	35	0	1298137088	54	4153
2026-01-17 23:37:58.56	62.66	13.39	-41.7	-42.6	21.5	0.00e+00	0	36	0	1304428544	54	4103
2026-01-17 23:37:59.56	62.85	13.40	-41.6	-42.5	21.5	0.00e+00	0	36	0	1309671424	54	4057
2026-01-17 23:38:00.57	63.06	13.41	-41.7	-42.6	21.4	0.00e+00	0	35	0	1314914304	54	4109
2026-01-17 23:38:01.58	63.26	13.43	-41.7	-42.6	21.5	0.00e+00	0	36	0	1321205760	54	4107
2026-01-17 23:38:02.59	63.46	13.44	-41.6	-42.5	21.6	0.00e+00	0	36	0	1326448640	54	4052
2026-01-17 23:38:03.60	63.66	13.45	-41.6	-42.4	21.6	0.00e+00	0	36	0	1332740096	54	4034
2026-01-17 23:38:04.61	63.86	13.46	-41.4	-42.3	21.7	0.00e+00	0	36	0	1337982976	54	3976
2026-01-17 23:38:05.62	64.06	13.47	-41.4	-42.2	21.8	0.00e+00	0	35	0	1344274432	54	3951
2026-01-17 23:38:06.63	64.27	13.49	-41.4	-42.2	21.8	0.00e+00	0	35	0	1349517312	54	3955
2026-01-17 23:38:07.63	64.47	13.50	-41.5	-42.3	21.6	0.00e+00	0	35	0	1354760192	54	4004
2026-01-17 23:38:08.64	64.67	13.51	-41.5	-42.3	21.7	0.00e+00	0	35	0	1361051648	54	3992
2026-01-17 23:38:09.65	64.87	13.52	-41.4	-42.2	21.7	0.00e+00	0	36	0	1366294528	54	3957
2026-01-17 23:38:10.66	65.07	13.53	-41.5	-42.3	21.7	0.00e+00	0	36	0	1372585984	54	3991
2026-01-17 23:38:11.66	65.28	13.54	-41.5	-42.4	21.6	0.00e+00	0	36	0	1377828864	54	4026
2026-01-17 23:38:12.67	65.48	13.55	-41.6	-42.5	21.6	0.00e+00	0	36	0	1383071744	54	4053
2026-01-17 23:38:13.68	65.68	13.56	-41.6	-42.5	21.5	0.00e+00	0	36	0	1389363200	54	4068
2026-01-17 23:38:14.69	65.88	13.57	-41.6	-42.5	21.5	0.00e+00	0	36	0	1395654656	54	4067
2026-01-17 23:38:15.70	66.09	13.57	-41.6	-42.5	21.5	0.00e+00	0	36	0	1400897536	54	4087
2026-01-17 23:38:16.70	66.29	13.58	-41.6	-42.5	21.5	0.00e+00	0	36	0	1406140416	54	4065
2026-01-17 23:38:17.71	66.49	13.59	-41.5	-42.4	21.6	0.00e+00	0	35	0	1412431872	54	4036
2026-01-17 23:38:18.72	66.70	13.60	-41.6	-42.4	21.6	0.00e+00	0	36	0	1417674752	54	4049
2026-01-17 23:38:19.73	66.90	13.60	-41.7	-42.6	21.5	0.00e+00	0	36	0	1422917632	54	4106
2026-01-17 23:38:20.74	67.10	13.61	-41.7	-42.6	21.5	0.00e+00	0	36	0	1429209088	54	4103
2026-01-17 23:38:21.74	67.31	13.62	-41.6	-42.5	21.5	0.00e+00	0	36	0	1434451968	54	4091
2026-01-17 23:38:22.75	67.51	13.62	-41.6	-42.5	21.5	0.00e+00	0	35	0	1439694848	54	4083
2026-01-17 23:38:23.76	67.72	13.63	-41.7	-42.5	21.5	0.00e+00	0	35	0	1445986304	54	4090
2026-01-17 23:38:24.77	67.92	13.63	-41.6	-42.5	21.5	0.00e+00	0	35	0	1451229184	54	4085
2026-01-17 23:38:25.78	68.12	13.64	-41.7	-42.6	21.5	0.00e+00	0	36	0	1457520640	54	4107
2026-01-17 23:38:26.78	68.33	13.64	-41.7	-42.5	21.5	0.00e+00	0	36	0	1462763520	54	4090
2026-01-17 23:38:27.79	68.53	13.65	-41.6	-42.4	21.6	0.00e+00	0	36	0	1468006400	54	4044
2026-01-17 23:38:28.80	68.74	13.65	-41.6	-42.5	21.5	0.00e+00	0	36	0	1474297856	54	4055
2026-01-17 23:38:29.81	68.94	13.66	-41.6	-42.4	21.6	0.00e+00	0	36	0	1480589312	54	4045
2026-01-17 23:38:30.82	69.14	13.66	-41.6	-42.5	21.6	0.00e+00	0	36	0	1485832192	54	4061
2026-01-17 23:38:31.82	69.35	13.66	-41.5	-42.4	21.7	0.00e+00	0	36	0	1491075072	54	4005
2026-01-17 23:38:32.83	69.55	13.67	-41.5	-42.4	21.6	0.00e+00	0	36	0	1497366528	54	4021
2026-01-17 23:38:33.84	69.76	13.67	-41.6	-42.5	21.6	0.00e+00	0	36	0	1502609408	54	4065
2026-01-17 23:38:34.85	69.96	13.67	-41.7	-42.5	21.5	0.00e+00	0	36	0	1507852288	54	4091
2026-01-17 23:38:35.86	70.17	13.67	-41.7	-42.6	21.4	0.00e+00	0	36	0	1514143744	54	4105
2026-01-17 23:38:36.86	70.37	13.68	-41.6	-42.5	21.5	0.00e+00	0	35	0	1519386624	54	4083
2026-01-17 23:38:37.87	70.57	13.68	-41.6	-42.5	21.5	0.00e+00	0	35	0	1524629504	54	4085
2026-01-17 23:38:38.88	70.78	13.68	-41.7	-42.6	21.5	0.00e+00	0	36	0	1530920960	54	4101
2026-01-17 23:38:39.89	70.98	13.68	-41.7	-42.6	21.5	0.00e+00	0	36	0	1536163840	54	4102
2026-01-17 23:38:40.90	71.19	13.68	-41.7	-42.6	21.4	0.00e+00	0	36	0	1542455296	54	4127
2026-01-17 23:38:41.90	71.39	13.68	-41.6	-42.5	21.5	0.00e+00	0	35	0	1547698176	54	4062
2026-01-17 23:38:42.91	71.60	13.68	-41.7	-42.6	21.4	0.00e+00	0	35	0	1553989632	54	4123
2026-01-17 23:38:43.93	71.80	13.68	-41.7	-42.6	21.4	0.00e+00	0	36	0	1559232512	54	4121
2026-01-17 23:38:44.93	72.01	13.68	-41.7	-42.6	21.4	0.00e+00	0	35	0	1565523968	54	4134
2026-01-17 23:38:45.94	72.21	13.67	-41.8	-42.7	21.3	0.00e+00	0	36	0	1570766848	54	4184
2026-01-17 23:38:46.95	72.42	13.67	-41.8	-42.7	21.3	0.00e+00	0	36	0	1576009728	54	4184
2026-01-17 23:38:47.96	72.62	13.67	-41.8	-42.6	21.4	0.00e+00	0	36	0	1582301184	54	4142
2026-01-17 23:38:48.97	72.83	13.67	-41.9	-42.8	21.3	0.00e+00	0	35	0	1587544064	54	4196
2026-01-17 23:38:49.98	73.03	13.66	-41.9	-42.8	21.2	0.00e+00	0	36	0	1592786944	54	4204
2026-01-17 23:38:50.98	73.23	13.66	-41.7	-42.6	21.4	0.00e+00	0	35	0	1599078400	54	4123
2026-01-17 23:38:51.99	73.44	13.66	-41.7	-42.6	21.4	0.00e+00	0	35	0	1605369856	54	4126
2026-01-17 23:38:53.00	73.64	13.65	-41.8	-42.6	21.4	0.00e+00	0	36	0	1610612736	54	4145
2026-01-17 23:38:54.01	73.85	13.65	-41.5	-42.4	21.6	0.00e+00	0	35	0	1615855616	54	4023
2026-01-17 23:38:55.02	74.05	13.65	-41.4	-42.3	21.7	0.00e+00	0	36	0	1622147072	54	3981
2026-01-17 23:38:56.03	74.26	13.64	-41.6	-42.4	21.6	0.00e+00	0	36	0	1627389952	54	4044
2026-01-17 23:38:57.04	74.46	13.64	-41.6	-42.5	21.5	0.00e+00	0	36	0	1632632832	54	4075
2026-01-17 23:38:58.04	74.66	13.63	-41.7	-42.6	21.5	0.00e+00	0	36	0	1638924288	54	4102
2026-01-17 23:38:59.05	74.87	13.62	-41.8	-42.6	21.4	0.00e+00	0	35	0	1644167168	54	4143
2026-01-17 23:39:00.06	75.07	13.62	-41.7	-42.6	21.4	0.00e+00	0	35	0	1650458624	54	4131
2026-01-17 23:39:01.07	75.28	13.61	-41.8	-42.6	21.4	0.00e+00	0	35	0	1655701504	54	4141
2026-01-17 23:39:02.08	75.48	13.61	-41.7	-42.6	21.5	0.00e+00	0	35	0	1660944384	54	4127
2026-01-17 23:39:03.09	75.68	13.60	-41.7	-42.6	21.4	0.00e+00	0	35	0	1667235840	54	4136
2026-01-17 23:39:04.10	75.89	13.59	-41.8	-42.7	21.3	0.00e+00	0	36	0	1673527296	54	4151
2026-01-17 23:39:05.10	76.09	13.58	-41.9	-42.8	21.3	0.00e+00	0	36	0	1678770176	54	4200
2026-01-17 23:39:06.11	76.29	13.57	-41.7	-42.6	21.4	0.00e+00	0	36	0	1684013056	54	4133
2026-01-17 23:39:07.12	76.50	13.57	-41.7	-42.6	21.4	0.00e+00	0	36	0	1690304512	54	4127
2026-01-17 23:39:08.13	76.70	13.56	-41.8	-42.7	21.4	0.00e+00	0	36	0	1695547392	54	4146
2026-01-17 23:39:09.14	76.90	13.55	-41.7	-42.6	21.4	0.00e+00	0	36	0	1700790272	54	4116
2026-01-17 23:39:10.14	77.11	13.54	-41.8	-42.6	21.4	0.00e+00	0	35	0	1707081728	54	4142
2026-01-17 23:39:11.15	77.31	13.53	-41.7	-42.6	21.4	0.00e+00	0	36	0	1712324608	54	4128
2026-01-17 23:39:12.16	77.51	13.52	-41.8	-42.6	21.4	0.00e+00	0	36	0	1717567488	54	4139
2026-01-17 23:39:13.17	77.71	13.51	-41.7	-42.6	21.4	0.00e+00	0	36	0	1723858944	54	4113
2026-01-17 23:39:14.17	77.92	13.50	-41.7	-42.6	21.4	0.00e+00	0	36	0	1729101824	54	4105
2026-01-17 23:39:15.18	78.12	13.49	-41.6	-42.5	21.5	0.00e+00	0	36	0	1735393280	54	4068
2026-01-17 23:39:16.19	78.32	13.48	-41.7	-42.6	21.4	0.00e+00	0	36	0	1740636160	54	4105
2026-01-17 23:39:17.20	78.52	13.46	-41.6	-42.5	21.5	0.00e+00	0	36	0	1746927616	54	4057
2026-01-17 23:39:18.20	78.72	13.45	-41.7	-42.5	21.5	0.00e+00	0	36	0	1752170496	54	4093
2026-01-17 23:39:19.21	78.92	13.44	-41.8	-42.7	21.3	0.00e+00	0	36	0	1758461952	54	4163
2026-01-17 23:39:20.22	79.13	13.43	-41.9	-42.7	21.2	0.00e+00	0	36	0	1763704832	54	4190
2026-01-17 23:39:21.23	79.33	13.41	-41.7	-42.6	21.4	0.00e+00	0	36	0	1768947712	54	4131
2026-01-17 23:39:22.24	79.53	13.40	-41.7	-42.6	21.4	0.00e+00	0	36	0	1775239168	54	4117
2026-01-17 23:39:23.24	79.73	13.39	-41.7	-42.6	21.4	0.00e+00	0	36	0	1780482048	54	4130
2026-01-17 23:39:24.25	79.93	13.37	-41.8	-42.7	21.3	0.00e+00	0	36	0	1785724928	54	4166
2026-01-17 23:39:25.26	80.13	13.36	-41.7	-42.6	21.4	0.00e+00	0	36	0	1792016384	54	4114
2026-01-17 23:39:26.27	80.33	13.35	-41.6	-42.5	21.5	0.00e+00	0	36	0	1797259264	54	4074
2026-01-17 23:39:27.28	80.53	13.33	-41.7	-42.6	21.4	0.00e+00	0	35	0	1803550720	54	4108
2026-01-17 23:39:28.29	80.73	13.32	-41.8	-42.7	21.3	0.00e+00	0	36	0	1808793600	54	4159
2026-01-17 23:39:29.30	80.93	13.30	-41.8	-42.7	21.4	0.00e+00	0	36	0	1815085056	54	4157
2026-01-17 23:39:30.30	81.13	13.28	-41.9	-42.8	21.3	0.00e+00	0	35	0	1820327936	54	4195
2026-01-17 23:39:31.31	81.33	13.27	-41.8	-42.7	21.3	0.00e+00	0	35	0	1825570816	54	4170
2026-01-17 23:39:32.32	81.53	13.25	-41.9	-42.7	21.3	0.00e+00	0	35	0	1831862272	54	4192
2026-01-17 23:39:33.33	81.73	13.24	-41.8	-42.7	21.3	0.00e+00	0	35	0	1837105152	54	4191
2026-01-17 23:39:34.34	81.93	13.22	-41.9	-42.8	21.2	0.00e+00	0	35	0	1843396608	54	4231
2026-01-17 23:39:35.35	82.13	13.20	-41.9	-42.8	21.2	0.00e+00	0	36	0	1848639488	54	4232
2026-01-17 23:39:36.35	82.32	13.18	-41.9	-42.8	21.2	0.00e+00	0	36	0	1853882368	54	4220
2026-01-17 23:39:37.36	82.52	13.17	-41.9	-42.8	21.2	0.00e+00	0	36	0	1860173824	54	4195
2026-01-17 23:39:38.37	82.72	13.15	-41.8	-42.7	21.3	0.00e+00	0	36	0	1865416704	54	4175
2026-01-17 23:39:39.38	82.92	13.13	-41.9	-42.8	21.3	0.00e+00	0	36	0	1870659584	54	4195
2026-01-17 23:39:40.38	83.12	13.11	-42.0	-42.9	21.1	0.00e+00	0	36	0	1876951040	54	4253
2026-01-17 23:39:41.39	83.31	13.09	-42.0	-43.0	21.1	0.00e+00	0	36	0	1882193920	54	4292
2026-01-17 23:39:42.40	83.51	13.07	-42.0	-43.0	20.9	0.00e+00	0	36	0	1888485376	54	4293
2026-01-17 23:39:43.40	83.71	13.05	-42.0	-42.9	20.9	0.00e+00	0	36	0	1893728256	54	4266
2026-01-17 23:39:44.41	83.90	13.03	-41.9	-42.8	21.0	0.00e+00	0	36	0	1900019712	54	4215
2026-01-17 23:39:45.42	84.10	13.01	-41.9	-42.8	21.0	0.00e+00	0	36	0	1905262592	54	4238
2026-01-17 23:39:46.43	84.29	12.99	-41.8	-42.8	21.1	0.00e+00	0	36	0	1910505472	54	4199
2026-01-17 23:39:47.44	84.49	12.97	-41.9	-42.9	21.0	0.00e+00	0	35	0	1916796928	54	4247
2026-01-17 23:39:48.45	84.69	12.95	-41.9	-42.8	21.0	0.00e+00	0	35	0	1922039808	54	4223
2026-01-17 23:39:49.45	84.88	12.93	-42.0	-42.9	20.9	0.00e+00	0	36	0	1928331264	54	4274
2026-01-17 23:39:50.46	85.08	12.91	-42.0	-43.0	20.9	0.00e+00	0	36	0	1933574144	54	4308
2026-01-17 23:39:51.47	85.27	12.89	-42.1	-43.1	20.8	0.00e+00	0	36	0	1938817024	54	4352
2026-01-17 23:39:52.48	85.46	12.86	-42.1	-43.1	20.7	0.00e+00	0	36	0	1945108480	54	4375
2026-01-17 23:39:53.49	85.66	12.84	-42.1	-43.0	20.8	0.00e+00	0	36	0	1950351360	55	4095
2026-01-17 23:39:54.50	85.85	12.82	-42.0	-43.0	20.9	0.00e+00	0	35	0	1956642816	55	4058
2026-01-17 23:39:55.50	86.04	12.80	-41.9	-42.8	21.0	0.00e+00	0	35	0	1961885696	55	4003
2026-01-17 23:39:56.51	86.24	12.77	-42.0	-42.9	20.9	0.00e+00	0	36	0	1968177152	55	4029
2026-01-17 23:39:57.52	86.43	12.75	-41.9	-42.9	20.9	0.00e+00	0	36	0	1973420032	55	4024
2026-01-17 23:39:58.53	86.62	12.72	-42.0	-42.9	20.9	0.00e+00	0	36	0	1978662912	55	4039
2026-01-17 23:39:59.54	86.82	12.70	-41.9	-42.9	20.9	0.00e+00	0	36	0	1984954368	55	4025
2026-01-17 23:40:00.54	87.01	12.68	-42.0	-42.9	20.9	0.00e+00	0	36	0	1990197248	55	4045
2026-01-17 23:40:01.55	87.20	12.65	-42.0	-43.0	20.9	0.00e+00	0	36	0	1996488704	55	4063
2026-01-17 23:40:02.56	87.39	12.63	-41.9	-42.8	21.0	0.00e+00	0	36	0	2001731584	55	4000
2026-01-17 23:40:03.57	87.58	12.60	-42.0	-42.9	20.9	0.00e+00	0	36	0	2006974464	55	4029
2026-01-17 23:40:04.57	87.77	12.58	-41.9	-42.9	21.0	0.00e+00	0	36	0	2013265920	55	4020
2026-01-17 23:40:05.58	87.96	12.55	-42.0	-42.9	20.9	0.00e+00	0	36	0	2018508800	55	4051
2026-01-17 23:40:06.59	88.15	12.52	-42.1	-43.0	20.8	0.00e+00	0	35	0	2024800256	55	4098
2026-01-17 23:40:07.60	88.34	12.50	-42.1	-43.1	20.7	0.00e+00	0	36	0	2030043136	55	4127
2026-01-17 23:40:08.61	88.53	12.47	-42.2	-43.2	20.6	0.00e+00	0	36	0	2036334592	55	4187
2026-01-17 23:40:09.62	88.72	12.45	-42.2	-43.2	20.6	0.00e+00	0	36	0	2041577472	55	4181
2026-01-17 23:40:10.63	88.91	12.42	-42.2	-43.2	20.7	0.00e+00	0	36	0	2046820352	55	4150
2026-01-17 23:40:11.63	89.10	12.39	-42.1	-43.1	20.8	0.00e+00	0	36	0	2053111808	55	4112
2026-01-17 23:40:12.64	89.29	12.36	-42.2	-43.2	20.7	0.00e+00	0	36	0	2058354688	55	4146
2026-01-17 23:40:13.65	89.47	12.34	-42.1	-43.1	20.7	0.00e+00	0	35	0	2063597568	55	4129
2026-01-17 23:40:14.66	89.66	12.31	-42.2	-43.2	20.7	0.00e+00	0	35	0	2069889024	55	4151
2026-01-17 23:40:15.66	89.85	12.28	-42.2	-43.1	20.7	0.00e+00	0	36	0	2075131904	55	4129
2026-01-17 23:40:16.67	90.03	12.25	-42.2	-43.2	20.6	0.00e+00	0	36	0	2081423360	55	4172
2026-01-17 23:40:17.68	90.22	12.22	-42.2	-43.2	20.6	0.00e+00	0	36	0	2086666240	55	4162
2026-01-17 23:40:18.69	90.41	12.19	-42.2	-43.1	20.7	0.00e+00	0	36	0	2091909120	55	4142
2026-01-17 23:40:19.69	90.59	12.17	-42.1	-43.1	20.7	0.00e+00	0	36	0	2098200576	55	4121
2026-01-17 23:40:20.70	90.78	12.14	-42.2	-43.1	20.7	0.00e+00	0	36	0	2103443456	55	4123
2026-01-17 23:40:21.71	90.96	12.11	-42.2	-43.2	20.6	0.00e+00	0	36	0	2109734912	55	4175
2026-01-17 23:40:22.72	91.15	12.08	-42.2	-43.1	20.7	0.00e+00	0	36	0	2114977792	55	4140
2026-01-17 23:40:23.73	91.33	12.05	-42.2	-43.2	20.6	0.00e+00	0	36	0	2121269248	55	4162
2026-01-17 23:40:24.74	91.52	12.02	-42.2	-43.2	20.6	0.00e+00	0	36	0	2126512128	55	4148
2026-01-17 23:40:25.74	91.70	11.99	-42.3	-43.3	20.5	0.00e+00	0	36	0	2131755008	55	4207
2026-01-17 23:40:26.75	91.88	11.96	-42.2	-43.2	20.6	0.00e+00	0	36	0	2138046464	55	4171
2026-01-17 23:40:27.76	92.07	11.92	-42.2	-43.2	20.6	0.00e+00	0	36	0	2143289344	55	4160
2026-01-17 23:40:28.77	92.25	11.89	-42.3	-43.3	20.5	0.00e+00	0	35	0	2148532224	55	4201
2026-01-17 23:40:29.78	92.43	11.86	-42.3	-43.3	20.5	0.00e+00	0	36	0	2154823680	55	4226
2026-01-17 23:40:30.79	92.61	11.83	-42.3	-43.3	20.5	0.00e+00	0	36	0	2160066560	55	4227
2026-01-17 23:40:31.80	92.79	11.80	-42.4	-43.4	20.4	0.00e+00	0	36	0	2166358016	55	4268
2026-01-17 23:40:32.81	92.97	11.77	-42.4	-43.3	20.5	0.00e+00	0	36	0	2171600896	55	4241
2026-01-17 23:40:33.82	93.16	11.73	-42.4	-43.4	20.5	0.00e+00	0	36	0	2177892352	55	4246
2026-01-17 23:40:34.82	93.33	11.70	-42.5	-43.5	20.3	0.00e+00	0	36	0	2183135232	55	4301
2026-01-17 23:40:35.83	93.51	11.67	-42.5	-43.5	20.3	0.00e+00	0	36	0	2189426688	55	4335
2026-01-17 23:40:36.84	93.69	11.64	-42.5	-43.5	20.4	0.00e+00	0	36	0	2194669568	55	4295
2026-01-17 23:40:37.85	93.87	11.60	-42.3	-43.3	20.5	0.00e+00	0	36	0	2199912448	55	4224
2026-01-17 23:40:38.86	94.05	11.57	-42.4	-43.4	20.4	0.00e+00	0	36	0	2206203904	55	4244
2026-01-17 23:40:39.86	94.23	11.54	-42.4	-43.4	20.4	0.00e+00	0	35	0	2211446784	55	4247
2026-01-17 23:40:40.87	94.41	11.50	-42.4	-43.4	20.4	0.00e+00	0	36	0	2216689664	55	4268
2026-01-17 23:40:41.88	94.59	11.47	-42.4	-43.4	20.3	0.00e+00	0	36	0	2222981120	55	4286
2026-01-17 23:40:42.89	94.76	11.43	-42.4	-43.4	20.4	0.00e+00	0	36	0	2228224000	55	4262
2026-01-17 23:40:43.90	94.94	11.40	-42.5	-43.5	20.3	0.00e+00	0	36	0	2234515456	55	4321
2026-01-17 23:40:44.91	95.12	11.37	-42.4	-43.4	20.3	0.00e+00	0	36	0	2239758336	55	4280
2026-01-17 23:40:45.92	95.29	11.33	-42.5	-43.5	20.3	0.00e+00	0	36	0	2246049792	55	4313
2026-01-17 23:40:46.92	95.47	11.30	-42.5	-43.5	20.3	0.00e+00	0	36	0	2251292672	55	4313
2026-01-17 23:40:47.93	95.64	11.26	-42.5	-43.5	20.2	0.00e+00	0	36	0	2256535552	55	4323
2026-01-17 23:40:48.94	95.82	11.23	-42.5	-43.5	20.3	0.00e+00	0	36	0	2262827008	55	4309
2026-01-17 23:40:49.95	95.99	11.19	-42.4	-43.4	20.3	0.00e+00	0	36	0	2268069888	55	4274
2026-01-17 23:40:50.96	96.16	11.16	-42.5	-43.5	20.3	0.00e+00	0	36	0	2273312768	55	4292
2026-01-17 23:40:51.96	96.34	11.12	-42.4	-43.4	20.3	0.00e+00	0	36	0	2279604224	55	4268
2026-01-17 23:40:52.97	96.51	11.08	-42.5	-43.5	20.2	0.00e+00	0	35	0	2284847104	55	4330
2026-01-17 23:40:53.98	96.68	11.05	-42.6	-43.6	20.2	0.00e+00	0	36	0	2291138560	55	4360
2026-01-17 23:40:54.99	96.86	11.01	-42.6	-43.6	20.2	0.00e+00	0	36	0	2296381440	55	4355
2026-01-17 23:40:56.00	97.03	10.97	-42.6	-43.7	20.1	0.00e+00	0	36	0	2302672896	55	4397
2026-01-17 23:40:57.01	97.20	10.94	-42.8	-43.9	20.0	0.00e+00	0	36	0	2307915776	56	4251
2026-01-17 23:40:58.02	97.37	10.90	-42.8	-43.9	20.0	0.00e+00	0	36	0	2314207232	56	4252
2026-01-17 23:40:59.02	97.54	10.86	-42.8	-43.8	20.1	0.00e+00	0	36	0	2319450112	56	4224
2026-01-17 23:41:00.03	97.71	10.83	-42.7	-43.8	20.1	0.00e+00	0	36	0	2324692992	56	4197
2026-01-17 23:41:01.04	97.88	10.79	-42.7	-43.7	20.1	0.00e+00	0	36	0	2330984448	56	4183
2026-01-17 23:41:02.04	98.05	10.75	-42.7	-43.7	20.1	0.00e+00	0	36	0	2336227328	56	4185
2026-01-17 23:41:03.06	98.22	10.71	-42.7	-43.7	20.2	0.00e+00	0	36	0	2341470208	56	4161
2026-01-17 23:41:04.06	98.39	10.68	-42.7	-43.7	20.2	0.00e+00	0	36	0	2347761664	56	4155
2026-01-17 23:41:05.07	98.55	10.64	-42.6	-43.6	20.2	0.00e+00	0	36	0	2353004544	56	4140
2026-01-17 23:41:06.08	98.72	10.60	-42.7	-43.7	20.2	0.00e+00	0	36	0	2359296000	56	4167
2026-01-17 23:41:07.09	98.89	10.56	-42.8	-43.8	20.0	0.00e+00	0	36	0	2364538880	56	4226
2026-01-17 23:41:08.10	99.06	10.52	-42.7	-43.8	20.1	0.00e+00	0	36	0	2370830336	56	4194
2026-01-17 23:41:09.10	99.22	10.49	-42.7	-43.7	20.1	0.00e+00	0	36	0	2376073216	56	4172
2026-01-17 23:41:10.11	99.39	10.45	-42.8	-43.8	20.0	0.00e+00	0	36	0	2381316096	56	4222
2026-01-17 23:41:11.12	99.55	10.41	-42.7	-43.8	20.1	0.00e+00	0	35	0	2387607552	56	4196
2026-01-17 23:41:12.13	99.72	10.37	-42.7	-43.7	20.1	0.00e+00	0	36	0	2392850432	56	4156
2026-01-17 23:41:13.14	99.88	10.33	-42.7	-43.8	20.0	0.00e+00	0	36	0	2399141888	56	4203
2026-01-17 23:41:14.14	100.05	10.29	-42.9	-43.9	19.9	0.00e+00	0	36	0	2404384768	56	4285
2026-01-17 23:41:15.15	100.21	10.25	-42.9	-44.0	19.9	0.00e+00	0	36	0	2409627648	56	4298
2026-01-17 23:41:16.16	100.37	10.21	-43.0	-44.0	19.8	0.00e+00	0	35	0	2415919104	56	4340
2026-01-17 23:41:17.17	100.54	10.17	-43.0	-44.1	19.8	0.00e+00	0	36	0	2421161984	56	4344
2026-01-17 23:41:18.18	100.70	10.13	-43.1	-44.2	19.7	0.00e+00	0	36	0	2426404864	56	4396
2026-01-17 23:41:19.18	100.86	10.09	-43.1	-44.2	19.6	0.00e+00	0	36	0	2432696320	56	4405
2026-01-17 23:41:20.19	101.02	10.05	-43.1	-44.2	19.6	0.00e+00	0	36	0	2437939200	56	4425
2026-01-17 23:41:21.20	101.18	10.01	-43.1	-44.1	19.6	0.00e+00	0	36	0	2444230656	56	4388
2026-01-17 23:41:22.21	101.35	9.97	-43.1	-44.2	19.7	0.00e+00	0	36	0	2449473536	56	4402
2026-01-17 23:41:23.22	101.51	9.93	-43.1	-44.1	19.7	0.00e+00	0	36	0	2455764992	56	4381
2026-01-17 23:41:24.22	101.66	9.89	-43.0	-44.0	19.8	0.00e+00	0	36	0	2461007872	56	4334
2026-01-17 23:41:25.23	101.82	9.85	-43.0	-44.0	19.8	0.00e+00	0	36	0	2466250752	56	4340
2026-01-17 23:41:26.24	101.98	9.81	-43.0	-44.1	19.7	0.00e+00	0	35	0	2472542208	56	4363
2026-01-17 23:41:27.25	102.14	9.77	-43.0	-44.1	19.7	0.00e+00	0	36	0	2477785088	56	4345
2026-01-17 23:41:28.26	102.30	9.73	-43.1	-44.1	19.7	0.00e+00	0	36	0	2484076544	56	4378
2026-01-17 23:41:29.26	102.46	9.69	-43.2	-44.2	19.6	0.00e+00	0	36	0	2489319424	57	4190
2026-01-17 23:41:30.27	102.62	9.64	-43.2	-44.2	19.6	0.00e+00	0	36	0	2494562304	57	4180
2026-01-17 23:41:31.28	102.77	9.60	-43.2	-44.2	19.6	0.00e+00	0	36	0	2500853760	57	4190
2026-01-17 23:41:32.29	102.93	9.56	-43.2	-44.2	19.6	0.00e+00	0	36	0	2506096640	57	4186
2026-01-17 23:41:33.30	103.09	9.52	-43.1	-44.2	19.6	0.00e+00	0	36	0	2512388096	57	4182
2026-01-17 23:41:34.30	103.24	9.48	-43.2	-44.3	19.5	0.00e+00	0	36	0	2517630976	57	4200
2026-01-17 23:41:35.31	103.40	9.44	-43.2	-44.3	19.5	0.00e+00	0	36	0	2523922432	57	4204
2026-01-17 23:41:36.32	103.55	9.39	-43.2	-44.3	19.5	0.00e+00	0	36	0	2529165312	57	4238
2026-01-17 23:41:37.33	103.71	9.35	-43.1	-44.2	19.6	0.00e+00	0	36	0	2534408192	57	4177
2026-01-17 23:41:38.34	103.86	9.31	-43.2	-44.3	19.5	0.00e+00	0	36	0	2540699648	57	4200
2026-01-17 23:41:39.34	104.01	9.27	-43.2	-44.3	19.5	0.00e+00	0	35	0	2545942528	57	4194
2026-01-17 23:41:40.35	104.17	9.22	-43.1	-44.2	19.6	0.00e+00	0	36	0	2552233984	57	4157
2026-01-17 23:41:41.36	104.32	9.18	-43.0	-44.1	19.7	0.00e+00	0	36	0	2557476864	57	4121
2026-01-17 23:41:42.37	104.47	9.14	-43.1	-44.2	19.6	0.00e+00	0	35	0	2562719744	57	4177
2026-01-17 23:41:43.38	104.62	9.10	-43.1	-44.1	19.6	0.00e+00	0	36	0	2569011200	57	4144
2026-01-17 23:41:44.38	104.77	9.05	-43.1	-44.1	19.7	0.00e+00	0	36	0	2574254080	57	4135
2026-01-17 23:41:45.39	104.92	9.01	-43.1	-44.2	19.6	0.00e+00	0	36	0	2580545536	57	4159
2026-01-17 23:41:46.40	105.07	8.97	-43.2	-44.2	19.5	0.00e+00	0	35	0	2585788416	57	4191
2026-01-17 23:41:47.41	105.23	8.92	-43.3	-44.4	19.4	0.00e+00	0	36	0	2592079872	57	4243
2026-01-17 23:41:48.42	105.38	8.88	-43.2	-44.3	19.5	0.00e+00	0	36	0	2597322752	57	4197
2026-01-17 23:41:49.42	105.52	8.84	-43.1	-44.2	19.6	0.00e+00	0	36	0	2602565632	57	4149
2026-01-17 23:41:50.43	105.67	8.79	-43.2	-44.3	19.4	0.00e+00	0	36	0	2608857088	57	4224
2026-01-17 23:41:51.44	105.82	8.75	-43.3	-44.4	19.4	0.00e+00	0	36	0	2614099968	57	4253
2026-01-17 23:41:52.45	105.97	8.71	-43.4	-44.5	19.3	0.00e+00	0	35	0	2619342848	57	4305
2026-01-17 23:41:53.45	106.12	8.66	-43.4	-44.6	19.2	0.00e+00	0	36	0	2625634304	57	4349
2026-01-17 23:41:54.46	106.26	8.62	-43.5	-44.7	19.1	0.00e+00	0	35	0	2630877184	57	4394
2026-01-17 23:41:55.47	106.41	8.58	-43.5	-44.6	19.1	0.00e+00	0	35	0	2637168640	57	4386
2026-01-17 23:41:56.48	106.56	8.53	-43.6	-44.7	19.1	0.00e+00	0	36	0	2642411520	57	4410
2026-01-17 23:41:57.49	106.70	8.49	-43.5	-44.6	19.1	0.00e+00	0	36	0	2647654400	57	4387
2026-01-17 23:41:58.50	106.85	8.44	-43.5	-44.6	19.2	0.00e+00	0	36	0	2653945856	57	4356
2026-01-17 23:41:59.50	106.99	8.40	-43.5	-44.6	19.1	0.00e+00	0	36	0	2659188736	57	4370
2026-01-17 23:42:00.51	107.14	8.35	-43.6	-44.8	19.0	0.00e+00	0	36	0	2665480192	57	4455
2026-01-17 23:42:01.52	107.28	8.31	-43.6	-44.7	19.1	0.00e+00	0	35	0	2670723072	57	4411
2026-01-17 23:42:02.52	107.42	8.27	-43.4	-44.5	19.2	0.00e+00	0	36	0	2677014528	57	4321
2026-01-17 23:42:03.53	107.57	8.22	-43.6	-44.7	19.0	0.00e+00	0	36	0	2682257408	57	4415
2026-01-17 23:42:04.54	107.71	8.18	-43.6	-44.8	19.0	0.00e+00	0	35	0	2687500288	57	4459
2026-01-17 23:42:05.55	107.85	8.13	-43.7	-44.8	18.9	0.00e+00	0	36	0	2693791744	57	4460
2026-01-17 23:42:06.56	107.99	8.09	-43.8	-44.9	18.8	0.00e+00	0	36	0	2699034624	58	4273
2026-01-17 23:42:07.56	108.14	8.04	-43.8	-45.0	18.8	0.00e+00	0	36	0	2704277504	58	4302
2026-01-17 23:42:08.57	108.28	8.00	-43.8	-44.9	18.8	0.00e+00	0	36	0	2710568960	58	4282
2026-01-17 23:42:09.58	108.42	7.95	-43.9	-45.0	18.7	0.00e+00	0	36	0	2715811840	58	4331
2026-01-17 23:42:10.59	108.56	7.91	-43.8	-45.0	18.8	0.00e+00	0	36	0	2722103296	58	4306
2026-01-17 23:42:11.60	108.70	7.86	-43.9	-45.1	18.7	0.00e+00	0	36	0	2727346176	58	4342
2026-01-17 23:42:12.61	108.84	7.82	-43.9	-45.0	18.7	0.00e+00	0	36	0	2733637632	58	4331
2026-01-17 23:42:13.62	108.98	7.77	-43.8	-45.0	18.7	0.00e+00	0	36	0	2738880512	58	4316
2026-01-17 23:42:14.62	109.12	7.73	-43.9	-45.0	18.7	0.00e+00	0	36	0	2745171968	58	4336
2026-01-17 23:42:15.63	109.25	7.68	-43.8	-45.0	18.8	0.00e+00	0	36	0	2750414848	58	4316
2026-01-17 23:42:16.64	109.39	7.64	-44.0	-45.1	18.6	0.00e+00	0	36	0	2755657728	58	4388
2026-01-17 23:42:17.65	109.53	7.59	-44.0	-45.2	18.6	0.00e+00	0	36	0	2761949184	58	4411
2026-01-17 23:42:18.66	109.67	7.54	-43.9	-45.1	18.6	0.00e+00	0	36	0	2767192064	58	4379
2026-01-17 23:42:19.66	109.80	7.50	-44.0	-45.2	18.5	0.00e+00	0	36	0	2772434944	58	4416
2026-01-17 23:42:20.67	109.94	7.45	-43.9	-45.1	18.6	0.00e+00	0	36	0	2778726400	58	4371
2026-01-17 23:42:21.68	110.07	7.41	-43.9	-45.1	18.6	0.00e+00	0	35	0	2783969280	58	4364
2026-01-17 23:42:22.69	110.21	7.36	-43.9	-45.1	18.6	0.00e+00	0	36	0	2789212160	58	4352
2026-01-17 23:42:23.70	110.35	7.32	-43.9	-45.0	18.6	0.00e+00	0	35	0	2795503616	58	4337
2026-01-17 23:42:24.70	110.48	7.27	-43.9	-45.0	18.7	0.00e+00	0	36	0	2801795072	58	4323
2026-01-17 23:42:25.71	110.61	7.22	-43.9	-45.1	18.7	0.00e+00	0	36	0	2807037952	58	4353
2026-01-17 23:42:26.72	110.75	7.18	-43.9	-45.1	18.6	0.00e+00	0	35	0	2812280832	58	4365
2026-01-17 23:42:27.73	110.88	7.13	-43.9	-45.1	18.6	0.00e+00	0	36	0	2818572288	58	4363
2026-01-17 23:42:28.74	111.01	7.09	-44.0	-45.2	18.5	0.00e+00	0	36	0	2823815168	58	4406
2026-01-17 23:42:29.74	111.15	7.04	-44.2	-45.4	18.3	0.00e+00	0	36	0	2829058048	58	4506
2026-01-17 23:42:30.75	111.28	6.99	-44.2	-45.4	18.4	0.00e+00	0	35	0	2835349504	59	4270
2026-01-17 23:42:31.76	111.41	6.95	-44.3	-45.5	18.2	0.00e+00	0	36	0	2840592384	59	4308
2026-01-17 23:42:32.76	111.54	6.90	-44.2	-45.4	18.3	0.00e+00	0	36	0	2846883840	59	4258
2026-01-17 23:42:33.77	111.67	6.86	-44.2	-45.4	18.3	0.00e+00	0	36	0	2852126720	59	4267
2026-01-17 23:42:34.78	111.80	6.81	-44.2	-45.4	18.3	0.00e+00	0	36	0	2857369600	59	4287
2026-01-17 23:42:35.79	111.93	6.76	-44.3	-45.5	18.2	0.00e+00	0	36	0	2863661056	59	4325
2026-01-17 23:42:36.80	112.06	6.72	-44.3	-45.5	18.2	0.00e+00	0	36	0	2869952512	59	4321
2026-01-17 23:42:37.81	112.19	6.67	-44.2	-45.4	18.3	0.00e+00	0	35	0	2875195392	59	4259
2026-01-17 23:42:38.82	112.32	6.62	-44.2	-45.5	18.2	0.00e+00	0	35	0	2880438272	59	4304
2026-01-17 23:42:39.82	112.45	6.58	-44.2	-45.4	18.2	0.00e+00	0	35	0	2886729728	59	4255
2026-01-17 23:42:40.83	112.58	6.53	-44.2	-45.4	18.2	0.00e+00	0	35	0	2891972608	59	4274
2026-01-17 23:42:41.84	112.71	6.48	-44.3	-45.5	18.1	0.00e+00	0	35	0	2897215488	59	4312
2026-01-17 23:42:42.85	112.83	6.44	-44.2	-45.5	18.1	0.00e+00	0	36	0	2903506944	59	4307
2026-01-17 23:42:43.86	112.96	6.39	-44.4	-45.7	18.0	0.00e+00	0	35	0	2908749824	59	4392
2026-01-17 23:42:44.86	113.09	6.35	-44.3	-45.5	18.1	0.00e+00	0	36	0	2915041280	59	4314
2026-01-17 23:42:45.87	113.21	6.30	-44.4	-45.6	17.9	0.00e+00	0	36	0	2920284160	59	4387
2026-01-17 23:42:46.88	113.34	6.25	-44.4	-45.6	17.9	0.00e+00	0	35	0	2925527040	59	4380
2026-01-17 23:42:47.89	113.46	6.20	-44.4	-45.7	17.9	0.00e+00	0	35	0	2931818496	59	4400
2026-01-17 23:42:48.89	113.59	6.16	-44.5	-45.8	17.8	0.00e+00	0	36	0	2937061376	59	4442
2026-01-17 23:42:49.90	113.71	6.11	-44.3	-45.5	18.0	0.00e+00	0	36	0	2943352832	59	4339
2026-01-17 23:42:50.91	113.84	6.06	-44.3	-45.5	18.0	0.00e+00	0	36	0	2948595712	59	4340
2026-01-17 23:42:51.92	113.96	6.02	-44.3	-45.6	18.0	0.00e+00	0	36	0	2954887168	59	4349
2026-01-17 23:42:52.92	114.08	5.97	-44.3	-45.6	17.8	0.00e+00	0	36	0	2960130048	59	4362
2026-01-17 23:42:53.93	114.21	5.92	-44.6	-45.9	17.5	0.00e+00	0	36	0	2965372928	59	4519
2026-01-17 23:42:54.94	114.33	5.88	-44.4	-45.7	17.7	0.00e+00	0	36	0	2971664384	59	4402
2026-01-17 23:42:55.94	114.45	5.83	-44.3	-45.6	17.8	0.00e+00	0	36	0	2976907264	59	4365
2026-01-17 23:42:56.95	114.57	5.78	-44.5	-45.8	17.6	0.00e+00	0	36	0	2982150144	59	4486
2026-01-17 23:42:57.96	114.70	5.74	-44.6	-45.9	17.5	0.00e+00	0	36	0	2988441600	59	4533
2026-01-17 23:42:58.97	114.82	5.69	-44.7	-46.0	17.3	0.00e+00	0	36	0	2993684480	59	4572
2026-01-17 23:42:59.98	114.94	5.64	-44.7	-46.0	17.3	0.00e+00	0	36	0	2999975936	59	4589
2026-01-17 23:43:00.98	115.06	5.60	-44.5	-45.9	17.1	0.00e+00	0	36	0	3005218816	60	4265
2026-01-17 23:43:01.99	115.18	5.55	-44.5	-45.9	17.2	0.00e+00	0	36	0	3011510272	60	4245
2026-01-17 23:43:03.00	115.30	5.50	-44.4	-45.7	17.3	0.00e+00	0	35	0	3016753152	60	4177
2026-01-17 23:43:04.01	115.42	5.45	-44.8	-46.2	16.7	0.00e+00	0	36	0	3021996032	60	4439
2026-01-17 23:43:05.02	115.54	5.41	-44.5	-45.8	17.1	0.00e+00	0	36	0	3028287488	60	4240
2026-01-17 23:43:06.02	115.65	5.36	-44.6	-45.9	17.0	0.00e+00	0	36	0	3033530368	60	4288
2026-01-17 23:43:07.03	115.77	5.31	-44.4	-45.8	17.2	0.00e+00	0	36	0	3039821824	60	4210
2026-01-17 23:43:08.04	115.89	5.27	-44.4	-45.7	17.2	0.00e+00	0	36	0	3045064704	60	4188
2026-01-17 23:43:09.05	116.01	5.22	-44.4	-45.8	17.1	0.00e+00	0	35	0	3050307584	60	4202
2026-01-17 23:43:10.06	116.13	5.17	-44.5	-45.8	17.1	0.00e+00	0	36	0	3056599040	60	4227
2026-01-17 23:43:11.06	116.24	5.12	-44.3	-45.6	17.3	0.00e+00	0	35	0	3061841920	60	4116
2026-01-17 23:43:12.07	116.36	5.08	-44.5	-45.9	16.9	0.00e+00	0	36	0	3067084800	60	4280
2026-01-17 23:43:13.08	116.48	5.03	-44.4	-45.8	17.1	0.00e+00	0	36	0	3073376256	60	4205
2026-01-17 23:43:14.09	116.59	4.98	-51.7	-60.3	4.4	1.09e-01	0	35	0	3078619136	73	10577
2026-01-17 23:43:15.10	116.71	4.93	-52.5	-64.5	3.8	8.47e-01	0	36	104	3078619136	75	15373
2026-01-17 23:43:16.10	116.82	4.89	-52.8	-64.7	3.8	8.47e-01	0	36	104	3078619136	76	14818
2026-01-17 23:43:17.11	116.94	4.84	-53.0	-64.9	3.8	8.46e-01	0	36	104	3078619136	76	15214
2026-01-17 23:43:18.12	117.05	4.79	-53.1	-65.1	3.8	8.46e-01	0	36	104	3078619136	76	15468
2026-01-17 23:43:19.13	117.17	4.75	-53.3	-65.2	3.8	8.47e-01	0	36	104	3078619136	77	14861
2026-01-17 23:43:20.13	117.28	4.70	-53.4	-65.3	3.8	8.47e-01	0	35	104	3078619136	77	15029
2026-01-17 23:43:21.14	117.39	4.65	-53.5	-65.5	3.8	8.46e-01	0	36	104	3078619136	77	15355
2026-01-17 23:43:22.15	117.50	4.60	-53.5	-65.5	3.8	8.47e-01	0	36	104	3078619136	77	15300
2026-01-17 23:43:23.16	117.62	4.56	-53.6	-65.6	3.8	8.46e-01	0	36	104	3078619136	77	15419
2026-01-17 23:43:24.17	117.73	4.51	-53.6	-65.6	3.8	8.46e-01	0	36	104	3078619136	77	15548
2026-01-17 23:43:25.18	117.84	4.46	-53.7	-65.7	3.8	8.45e-01	0	36	104	3078619136	77	15600
2026-01-17 23:43:26.18	117.95	4.41	-53.7	-65.7	3.8	8.46e-01	0	36	104	3078619136	77	15640
2026-01-17 23:43:27.19	118.06	4.37	-53.7	-65.7	3.8	8.47e-01	0	36	104	3078619136	78	14819
2026-01-17 23:43:28.20	118.17	4.32	-53.8	-65.7	3.8	8.47e-01	0	36	104	3078619136	78	14847
2026-01-17 23:43:29.21	118.29	4.27	-53.8	-65.8	3.8	8.45e-01	0	36	104	3078619136	78	14930
2026-01-17 23:43:30.22	118.40	4.23	-53.8	-65.8	3.8	8.47e-01	0	36	104	3078619136	78	14935
2026-01-17 23:43:31.22	118.50	4.18	-53.8	-65.8	3.8	8.46e-01	0	36	104	3078619136	78	14961
2026-01-17 23:43:32.23	118.61	4.13	-53.8	-65.8	3.8	8.46e-01	0	36	104	3078619136	78	15009
2026-01-17 23:43:33.24	118.72	4.08	-53.8	-65.8	3.8	8.46e-01	0	36	104	3078619136	78	15022
2026-01-17 23:43:34.25	118.83	4.04	-53.9	-65.9	3.8	8.46e-01	0	36	104	3078619136	78	15055
2026-01-17 23:43:35.26	118.94	3.99	-53.9	-65.9	3.8	8.46e-01	0	36	104	3078619136	78	15085
2026-01-17 23:43:36.26	119.05	3.94	-53.9	-65.9	3.8	8.47e-01	0	36	104	3078619136	78	15150
2026-01-17 23:43:37.27	119.16	3.89	-53.9	-65.9	3.8	8.45e-01	0	36	104	3078619136	78	15148
2026-01-17 23:43:38.28	119.26	3.85	-53.9	-65.9	3.8	8.48e-01	0	36	104	3078619136	78	15197
2026-01-17 23:43:39.29	119.37	3.80	-53.9	-65.9	3.8	8.46e-01	0	36	104	3078619136	78	15189
2026-01-17 23:43:40.30	119.48	3.75	-54.0	-66.0	3.8	8.47e-01	0	36	104	3078619136	78	15240
2026-01-17 23:43:41.31	119.59	3.70	-54.0	-66.0	3.8	8.46e-01	0	36	104	3078619136	78	15281
2026-01-17 23:43:42.32	119.69	3.66	-54.0	-66.0	3.8	8.47e-01	0	36	104	3078619136	78	15260
2026-01-17 23:43:43.32	119.80	3.61	-54.0	-65.9	3.8	8.45e-01	0	36	104	3078619136	78	15192
2026-01-17 23:43:44.33	119.90	3.56	-53.9	-66.0	3.8	8.47e-01	0	36	104	3078619136	78	15268
2026-01-17 23:43:45.34	120.01	3.52	-53.9	-65.9	3.8	8.46e-01	0	36	104	3078619136	78	15223
2026-01-17 23:43:46.35	120.11	3.47	-53.9	-66.0	3.8	8.46e-01	0	36	104	3078619136	78	15245
2026-01-17 23:43:47.36	120.22	3.42	-53.9	-65.9	3.8	8.45e-01	0	36	104	3078619136	78	15193
2026-01-17 23:43:48.37	120.32	3.37	-53.9	-65.9	3.8	8.46e-01	0	36	104	3078619136	78	15225
2026-01-17 23:43:49.38	120.43	3.33	-53.9	-65.9	3.8	8.46e-01	0	36	104	3078619136	78	15164
2026-01-17 23:43:50.38	120.53	3.28	-53.9	-65.9	3.8	8.47e-01	0	36	104	3078619136	78	15160
2026-01-17 23:43:51.39	120.63	3.23	-53.9	-65.9	3.8	8.47e-01	0	36	104	3078619136	78	15122
2026-01-17 23:43:52.40	120.74	3.18	-53.9	-65.9	3.8	8.46e-01	0	36	104	3078619136	78	15156
2026-01-17 23:43:53.41	120.84	3.14	-53.9	-65.9	3.8	8.45e-01	0	36	104	3078619136	78	15186
2026-01-17 23:43:54.42	120.94	3.09	-53.9	-65.9	3.8	8.48e-01	0	36	104	3078619136	78	15169
2026-01-17 23:43:55.42	121.04	3.04	-53.9	-65.9	3.8	8.46e-01	0	36	104	3078619136	78	15160
2026-01-17 23:43:56.43	121.14	2.99	-53.9	-65.9	3.8	8.47e-01	0	36	104	3078619136	78	15153
2026-01-17 23:43:57.44	121.25	2.95	-53.9	-65.9	3.8	8.46e-01	0	36	104	3078619136	78	15140
2026-01-17 23:43:58.45	121.35	2.90	-53.9	-65.9	3.8	8.45e-01	0	36	104	3078619136	78	15135
2026-01-17 23:43:59.46	121.45	2.85	-53.9	-65.9	3.8	8.46e-01	0	36	104	3078619136	78	15131
2026-01-17 23:44:00.46	121.55	2.81	-53.9	-65.9	3.8	8.47e-01	0	36	104	3078619136	78	15086
2026-01-17 23:44:01.47	121.65	2.76	-53.9	-65.9	3.8	8.46e-01	0	36	104	3078619136	78	15150
2026-01-17 23:44:02.48	121.75	2.71	-53.9	-65.9	3.8	8.47e-01	0	36	104	3078619136	78	15104
2026-01-17 23:44:03.49	121.85	2.66	-53.9	-65.9	3.8	8.46e-01	0	36	104	3078619136	78	15130
2026-01-17 23:44:04.50	121.95	2.62	-53.9	-65.9	3.8	8.47e-01	0	36	104	3078619136	78	15105
2026-01-17 23:44:05.50	122.04	2.57	-53.9	-65.9	3.8	8.45e-01	0	36	104	3078619136	78	15091
2026-01-17 23:44:06.51	122.14	2.52	-53.9	-65.8	3.8	8.46e-01	0	36	104	3078619136	78	15028
2026-01-17 23:44:07.52	122.24	2.48	-53.9	-65.9	3.8	8.47e-01	0	36	104	3078619136	78	15108
2026-01-17 23:44:08.53	122.34	2.43	-53.9	-65.9	3.8	8.46e-01	0	36	104	3078619136	78	15113
2026-01-17 23:44:09.54	122.44	2.38	-53.9	-65.9	3.8	8.45e-01	0	36	104	3078619136	78	15063
2026-01-17 23:44:10.54	122.53	2.33	-53.9	-65.9	3.8	8.46e-01	0	36	104	3078619136	78	15079
2026-01-17 23:44:11.55	122.63	2.29	-53.9	-65.8	3.8	8.47e-01	0	36	104	3078619136	78	15041
2026-01-17 23:44:12.56	122.73	2.24	-53.9	-65.9	3.8	8.46e-01	0	36	104	3078619136	78	15065
2026-01-17 23:44:13.57	122.83	2.19	-53.9	-65.8	3.8	8.46e-01	0	36	104	3078619136	78	15019
2026-01-17 23:44:14.58	122.92	2.15	-53.9	-65.9	3.8	8.46e-01	0	36	104	3078619136	78	15073
2026-01-17 23:44:15.58	123.02	2.10	-53.9	-65.9	3.8	8.47e-01	0	36	104	3078619136	78	15101
2026-01-17 23:44:16.59	123.11	2.05	-53.9	-65.8	3.8	8.46e-01	0	36	104	3078619136	78	15037
2026-01-17 23:44:17.60	123.21	2.00	-53.9	-65.8	3.8	8.45e-01	0	36	104	3078619136	78	15051

#Closed at: 2026-01-17 23:44:18
#Recorded file [3078 MB]: D:/lorett/data/31041_260118_023304.dat