passes_logs/2026/01/17/R3.2S_Murmansk/R3.2S_Murmansk__20260117_013230_FENGYUN_3D_rec.log

#Pass ID: 20260117_013230_FENGYUN 3D
#Satellite: FENGYUN 3D
#Configuration: FENGYUN 3D
#almurnet v.1.7.20251203
#Start time: 2026-01-17 01:32:30

#Version: 2.2.20231116
#Station: R3.2S_Murmansk
#Location: 33.079688 lon 68.888172 lat
#TLE: 1 43010U 17072A   26015.99024095 -.00000189  00000+0 -67463-4 0  9996
#TLE: 2 43010  98.9932 347.8215 0002366 106.5594 253.5841 14.19694691423396

#Time	Az	El	Level	Level2	SNR	BER	BlckErr	Temp	State	Recorded	gain1	gain2
2026-01-17 01:32:30.55	21.36	1.99	-51.5	-62.9	3.8	8.47e-01	0	32	0	0	74	13569
2026-01-17 01:32:31.55	21.40	2.05	-51.4	-62.9	3.8	8.46e-01	0	32	104	0	73	14331
2026-01-17 01:32:32.56	21.44	2.11	-51.4	-62.4	3.8	8.46e-01	0	32	104	0	73	13486
2026-01-17 01:32:33.57	21.48	2.18	-51.4	-62.3	3.8	8.45e-01	0	32	104	0	73	13263
2026-01-17 01:32:34.58	21.52	2.24	-51.3	-61.6	3.8	8.46e-01	0	32	104	0	73	12252
2026-01-17 01:32:35.59	21.56	2.30	-51.3	-61.5	3.8	8.46e-01	0	32	104	0	73	12098
2026-01-17 01:32:36.59	21.60	2.36	-51.3	-61.7	3.8	8.44e-01	0	32	104	0	73	12384
2026-01-17 01:32:37.60	21.64	2.42	-51.3	-61.1	4.0	8.44e-01	0	32	104	0	73	11627
2026-01-17 01:32:38.61	21.68	2.49	-51.3	-61.4	3.8	8.46e-01	0	32	104	0	73	11968
2026-01-17 01:32:39.62	21.72	2.55	-51.3	-61.0	4.0	8.44e-01	0	32	104	0	73	11441
2026-01-17 01:32:40.63	21.76	2.61	-51.3	-61.0	4.0	8.44e-01	0	32	104	0	73	11529
2026-01-17 01:32:41.64	21.80	2.68	-51.2	-60.8	4.0	8.45e-01	0	32	104	0	73	11276
2026-01-17 01:32:42.65	21.84	2.74	-51.2	-60.6	4.0	8.43e-01	0	32	104	0	73	10924
2026-01-17 01:32:43.66	21.88	2.80	-51.1	-60.1	4.2	8.41e-01	0	32	0	0	73	10311
2026-01-17 01:32:44.66	21.92	2.87	-51.1	-59.9	4.2	8.35e-01	0	32	0	0	73	10094
2026-01-17 01:32:45.68	21.96	2.93	-51.0	-59.0	4.5	8.25e-01	0	32	0	0	73	9126
2026-01-17 01:32:46.68	22.00	2.99	-50.8	-57.9	5.0	7.49e-01	0	32	0	0	73	8075
2026-01-17 01:32:47.69	22.04	3.06	-50.7	-57.6	5.1	7.79e-01	0	32	0	0	73	7754
2026-01-17 01:32:48.70	22.09	3.12	-50.7	-57.4	5.3	6.12e-01	0	32	0	1048576	73	7616
2026-01-17 01:32:49.71	22.13	3.19	-50.1	-55.5	6.7	2.80e-01	0	32	0	4194304	72	6421
2026-01-17 01:32:50.72	22.17	3.25	-50.5	-56.7	5.8	4.66e-01	0	32	0	10485760	72	7396
2026-01-17 01:32:51.73	22.21	3.31	-50.1	-55.3	6.9	2.33e-01	0	33	0	15728640	72	6285
2026-01-17 01:32:52.74	22.25	3.38	-50.0	-54.9	7.3	2.15e-01	0	33	0	20971520	71	6376
2026-01-17 01:32:53.75	22.30	3.44	-50.2	-55.7	6.6	3.01e-01	0	32	0	27262976	71	6961
2026-01-17 01:32:54.76	22.34	3.51	-50.3	-55.7	6.6	1.52e-01	0	32	0	32505856	71	7014
2026-01-17 01:32:55.77	22.38	3.57	-50.0	-55.1	7.1	1.22e-01	0	33	0	38797312	71	6540
2026-01-17 01:32:56.77	22.42	3.64	-49.5	-53.7	8.6	6.59e-02	0	33	0	44040192	71	5557
2026-01-17 01:32:57.78	22.47	3.70	-48.9	-52.3	10.0	1.02e-02	0	32	0	50331648	69	5304
2026-01-17 01:32:58.79	22.51	3.77	-48.4	-51.4	11.0	2.58e-03	0	33	0	55574528	68	5047
2026-01-17 01:32:59.80	22.55	3.84	-47.9	-50.6	11.7	1.40e-03	0	33	0	60817408	67	4887
2026-01-17 01:33:00.80	22.60	3.90	-46.6	-48.6	13.8	1.26e-04	0	33	0	67108864	65	4361
2026-01-17 01:33:01.81	22.64	3.97	-46.7	-48.8	13.5	1.13e-04	0	33	0	72351744	65	4474
2026-01-17 01:33:02.82	22.68	4.03	-46.7	-48.8	13.6	2.20e-06	0	33	0	77594624	64	4716
2026-01-17 01:33:03.83	22.73	4.10	-45.3	-46.9	15.6	1.10e-06	0	33	0	83886080	62	4285
2026-01-17 01:33:04.84	22.77	4.17	-45.3	-47.0	15.5	0.00e+00	0	33	0	89128960	62	4298
2026-01-17 01:33:05.85	22.82	4.23	-44.9	-46.5	16.0	0.00e+00	0	33	0	94371840	61	4303
2026-01-17 01:33:06.86	22.86	4.30	-45.0	-46.6	16.0	0.00e+00	0	33	0	100663296	61	4343
2026-01-17 01:33:07.86	22.90	4.36	-44.9	-46.5	16.0	0.00e+00	0	33	0	106954752	61	4300
2026-01-17 01:33:08.87	22.95	4.43	-44.9	-46.4	16.2	0.00e+00	0	33	0	112197632	61	4258
2026-01-17 01:33:09.88	22.99	4.50	-44.7	-46.2	16.4	0.00e+00	0	33	0	117440512	61	4150
2026-01-17 01:33:10.89	23.04	4.57	-45.9	-47.7	14.8	0.00e+00	0	33	0	123731968	62	4674
2026-01-17 01:33:11.90	23.09	4.63	-45.8	-47.6	14.9	0.00e+00	0	33	0	128974848	62	4622
2026-01-17 01:33:12.91	23.13	4.70	-46.4	-48.4	14.1	3.40e-06	0	33	0	135266304	63	4806
2026-01-17 01:33:13.92	23.18	4.77	-47.0	-49.3	13.0	4.92e-05	0	33	0	140509184	64	5011
2026-01-17 01:33:14.92	23.22	4.84	-47.6	-50.1	12.2	3.89e-05	0	33	0	145752064	65	5197
2026-01-17 01:33:15.93	23.27	4.90	-48.0	-50.9	11.3	1.22e-03	0	33	0	152043520	66	5374
2026-01-17 01:33:16.94	23.32	4.97	-48.3	-51.3	11.0	2.10e-03	0	33	0	157286400	67	5311
2026-01-17 01:33:17.95	23.36	5.04	-48.7	-52.1	10.2	1.01e-02	0	33	0	163577856	68	5468
2026-01-17 01:33:18.96	23.41	5.11	-44.3	-45.5	17.6	0.00e+00	0	33	0	168820736	59	4319
2026-01-17 01:33:19.97	23.46	5.18	-50.5	-57.1	5.5	1.83e-01	0	33	0	174063616	71	8212
2026-01-17 01:33:20.98	23.50	5.25	-47.7	-50.1	12.5	8.68e-03	0	33	0	179306496	67	4626
2026-01-17 01:33:21.99	23.55	5.32	-44.4	-45.7	17.1	0.00e+00	0	33	0	185597952	60	4186
2026-01-17 01:33:23.00	23.60	5.39	-50.1	-55.1	7.4	1.36e-02	0	33	0	190840832	70	6946
2026-01-17 01:33:24.00	23.65	5.45	-44.5	-45.8	17.0	0.00e+00	0	33	0	196083712	61	3986
2026-01-17 01:33:25.01	23.69	5.52	-44.3	-45.6	17.3	0.00e+00	0	33	0	202375168	60	4116
2026-01-17 01:33:26.02	23.74	5.59	-44.3	-45.6	17.6	0.00e+00	0	33	0	207618048	59	4377
2026-01-17 01:33:27.03	23.79	5.66	-44.7	-46.0	17.2	0.00e+00	0	33	0	213909504	59	4580
2026-01-17 01:33:28.04	23.84	5.73	-43.8	-45.0	18.3	0.00e+00	0	33	0	219152384	59	4056
2026-01-17 01:33:29.05	23.89	5.80	-44.2	-45.5	17.8	0.00e+00	0	33	0	224395264	59	4304
2026-01-17 01:33:30.05	23.94	5.87	-44.1	-45.3	18.0	0.00e+00	0	33	0	230686720	59	4203
2026-01-17 01:33:31.07	23.99	5.95	-44.1	-45.3	18.0	0.00e+00	0	33	0	235929600	59	4234
2026-01-17 01:33:32.07	24.04	6.02	-43.9	-45.1	18.2	0.00e+00	0	33	0	242221056	59	4136
2026-01-17 01:33:33.08	24.09	6.09	-43.6	-44.8	18.5	0.00e+00	0	33	0	247463936	59	3974
2026-01-17 01:33:34.09	24.14	6.16	-43.5	-44.6	18.7	0.00e+00	0	33	0	253755392	58	4108
2026-01-17 01:33:35.10	24.19	6.23	-43.4	-44.5	18.8	0.00e+00	0	33	0	258998272	58	4093
2026-01-17 01:33:36.11	24.24	6.30	-43.7	-44.8	18.5	0.00e+00	0	33	0	264241152	58	4239
2026-01-17 01:33:37.12	24.29	6.37	-43.5	-44.6	18.7	0.00e+00	0	33	0	270532608	58	4129
2026-01-17 01:33:38.13	24.34	6.44	-43.7	-44.8	18.5	0.00e+00	0	33	0	275775488	58	4225
2026-01-17 01:33:39.14	24.39	6.52	-43.5	-44.6	18.7	0.00e+00	0	33	0	281018368	58	4125
2026-01-17 01:33:40.14	24.44	6.59	-43.6	-44.7	18.6	0.00e+00	0	33	0	287309824	58	4177
2026-01-17 01:33:41.15	24.49	6.66	-43.8	-44.9	18.4	0.00e+00	0	33	0	293601280	58	4282
2026-01-17 01:33:42.16	24.54	6.73	-43.9	-45.1	18.3	0.00e+00	0	33	0	298844160	58	4356
2026-01-17 01:33:43.17	24.59	6.81	-44.1	-45.4	18.0	0.00e+00	0	33	0	304087040	58	4511
2026-01-17 01:33:44.18	24.65	6.88	-43.7	-44.8	18.6	0.00e+00	0	33	0	310378496	58	4226
2026-01-17 01:33:45.19	24.70	6.95	-44.0	-45.2	18.2	0.00e+00	0	33	0	315621376	58	4417
2026-01-17 01:33:46.20	24.75	7.03	-43.8	-45.0	18.4	0.00e+00	0	33	0	320864256	58	4313
2026-01-17 01:33:47.21	24.81	7.10	-43.7	-44.9	18.5	0.00e+00	0	33	0	327155712	58	4261
2026-01-17 01:33:48.21	24.86	7.17	-43.5	-44.6	18.8	0.00e+00	0	33	0	332398592	58	4116
2026-01-17 01:33:49.22	24.91	7.25	-42.9	-43.9	19.6	0.00e+00	0	33	0	338690048	57	4023
2026-01-17 01:33:50.23	24.97	7.32	-43.6	-44.7	18.7	0.00e+00	0	33	0	343932928	57	4429
2026-01-17 01:33:51.24	25.02	7.39	-42.8	-43.8	19.7	0.00e+00	0	33	0	349175808	57	3974
2026-01-17 01:33:52.25	25.07	7.47	-43.6	-44.7	18.8	0.00e+00	0	33	0	355467264	57	4428
2026-01-17 01:33:53.26	25.13	7.54	-43.4	-44.5	19.1	0.00e+00	0	33	0	361758720	57	4295
2026-01-17 01:33:54.27	25.18	7.62	-43.3	-44.4	19.1	0.00e+00	0	33	0	367001600	57	4263
2026-01-17 01:33:55.27	25.24	7.69	-43.1	-44.2	19.3	0.00e+00	0	34	0	372244480	57	4156
2026-01-17 01:33:56.28	25.29	7.77	-43.2	-44.2	19.3	0.00e+00	0	33	0	378535936	57	4183
2026-01-17 01:33:57.29	25.35	7.84	-43.1	-44.2	19.4	0.00e+00	0	33	0	383778816	57	4160
2026-01-17 01:33:58.30	25.40	7.92	-42.9	-43.9	19.6	0.00e+00	0	33	0	389021696	57	4044
2026-01-17 01:33:59.31	25.46	8.00	-42.9	-43.9	19.6	0.00e+00	0	33	0	395313152	57	4045
2026-01-17 01:34:00.32	25.52	8.07	-42.8	-43.9	19.7	0.00e+00	0	33	0	400556032	57	4016
2026-01-17 01:34:01.33	25.57	8.15	-43.0	-44.0	19.5	0.00e+00	0	33	0	406847488	57	4081
2026-01-17 01:34:02.34	25.63	8.23	-42.8	-43.8	19.8	0.00e+00	0	34	0	412090368	57	3986
2026-01-17 01:34:03.35	25.69	8.30	-42.9	-44.0	19.6	0.00e+00	0	34	0	418381824	57	4061
2026-01-17 01:34:04.36	25.74	8.38	-42.9	-43.9	19.7	0.00e+00	0	33	0	423624704	57	4027
2026-01-17 01:34:05.37	25.80	8.46	-42.7	-43.7	19.9	0.00e+00	0	33	0	428867584	57	3920
2026-01-17 01:34:06.37	25.86	8.53	-42.7	-43.7	19.9	0.00e+00	0	34	0	435159040	57	3930
2026-01-17 01:34:07.38	25.92	8.61	-42.5	-43.5	20.1	0.00e+00	0	33	0	440401920	57	3854
2026-01-17 01:34:08.39	25.98	8.69	-42.7	-43.7	19.9	0.00e+00	0	33	0	446693376	57	3920
2026-01-17 01:34:09.40	26.04	8.77	-42.5	-43.5	20.1	0.00e+00	0	33	0	451936256	57	3844
2026-01-17 01:34:10.41	26.09	8.85	-42.7	-43.7	20.0	0.00e+00	0	33	0	457179136	57	3916
2026-01-17 01:34:11.42	26.15	8.92	-42.4	-43.4	20.2	0.00e+00	0	34	0	463470592	56	4037
2026-01-17 01:34:12.43	26.21	9.00	-42.6	-43.6	20.1	0.00e+00	0	33	0	468713472	56	4103
2026-01-17 01:34:13.44	26.27	9.08	-42.6	-43.5	20.1	0.00e+00	0	34	0	473956352	56	4094
2026-01-17 01:34:14.45	26.33	9.16	-42.3	-43.2	20.4	0.00e+00	0	34	0	480247808	56	3956
2026-01-17 01:34:15.46	26.39	9.24	-42.3	-43.3	20.4	0.00e+00	0	34	0	486539264	56	3963
2026-01-17 01:34:16.47	26.46	9.32	-42.4	-43.3	20.3	0.00e+00	0	33	0	491782144	56	3996
2026-01-17 01:34:17.48	26.52	9.40	-42.2	-43.1	20.5	0.00e+00	0	33	0	497025024	56	3893
2026-01-17 01:34:18.49	26.58	9.48	-42.1	-43.0	20.6	0.00e+00	0	33	0	503316480	56	3859
2026-01-17 01:34:19.49	26.64	9.56	-42.3	-43.3	20.4	0.00e+00	0	34	0	508559360	56	3975
2026-01-17 01:34:20.50	26.70	9.64	-42.3	-43.3	20.4	0.00e+00	0	34	0	514850816	56	3974
2026-01-17 01:34:21.51	26.76	9.72	-42.2	-43.1	20.5	0.00e+00	0	34	0	520093696	56	3905
2026-01-17 01:34:22.52	26.83	9.80	-42.0	-43.0	20.7	0.00e+00	0	34	0	525336576	56	3828
2026-01-17 01:34:23.53	26.89	9.88	-42.3	-43.3	20.4	0.00e+00	0	34	0	531628032	56	3968
2026-01-17 01:34:24.54	26.95	9.97	-42.6	-43.6	20.1	0.00e+00	0	34	0	536870912	56	4119
2026-01-17 01:34:25.54	27.02	10.05	-42.3	-43.2	20.5	0.00e+00	0	33	0	542113792	56	3931
2026-01-17 01:34:26.55	27.08	10.13	-42.2	-43.1	20.5	0.00e+00	0	34	0	548405248	56	3903
2026-01-17 01:34:27.56	27.14	10.21	-42.5	-43.5	20.2	0.00e+00	0	34	0	554696704	56	4063
2026-01-17 01:34:28.57	27.21	10.29	-42.2	-43.1	20.5	0.00e+00	0	34	0	559939584	56	3911
2026-01-17 01:34:29.58	27.27	10.38	-42.4	-43.3	20.4	0.00e+00	0	34	0	565182464	56	3981
2026-01-17 01:34:30.59	27.34	10.46	-42.5	-43.4	20.3	0.00e+00	0	34	0	571473920	56	4036
2026-01-17 01:34:31.60	27.41	10.54	-42.2	-43.1	20.6	0.00e+00	0	34	0	576716800	56	3890
2026-01-17 01:34:32.61	27.47	10.63	-42.2	-43.1	20.6	0.00e+00	0	34	0	581959680	56	3900
2026-01-17 01:34:33.62	27.54	10.71	-42.4	-43.3	20.4	0.00e+00	0	34	0	588251136	56	3992
2026-01-17 01:34:34.63	27.61	10.79	-42.4	-43.4	20.4	0.00e+00	0	34	0	593494016	56	4012
2026-01-17 01:34:35.64	27.67	10.88	-42.4	-43.3	20.4	0.00e+00	0	34	0	599785472	56	3988
2026-01-17 01:34:36.64	27.74	10.96	-42.2	-43.1	20.6	0.00e+00	0	34	0	605028352	56	3906
2026-01-17 01:34:37.65	27.81	11.05	-42.2	-43.1	20.6	0.00e+00	0	34	0	611319808	56	3901
2026-01-17 01:34:38.66	27.88	11.13	-42.2	-43.2	20.6	0.00e+00	0	34	0	616562688	56	3925
2026-01-17 01:34:39.67	27.94	11.22	-42.2	-43.1	20.7	0.00e+00	0	34	0	621805568	56	3890
2026-01-17 01:34:40.68	28.01	11.30	-42.1	-43.1	20.7	0.00e+00	0	34	0	628097024	56	3869
2026-01-17 01:34:41.69	28.08	11.39	-42.2	-43.2	20.6	0.00e+00	0	34	0	633339904	56	3926
2026-01-17 01:34:42.70	28.15	11.48	-42.2	-43.1	20.7	0.00e+00	0	34	0	639631360	56	3893
2026-01-17 01:34:43.70	28.22	11.56	-42.1	-43.1	20.7	0.00e+00	0	34	0	644874240	56	3884
2026-01-17 01:34:44.71	28.29	11.65	-42.2	-43.1	20.7	0.00e+00	0	34	0	650117120	56	3882
2026-01-17 01:34:45.72	28.36	11.74	-42.2	-43.2	20.6	0.00e+00	0	34	0	656408576	56	3915
2026-01-17 01:34:46.73	28.44	11.82	-42.0	-42.9	20.8	0.00e+00	0	34	0	661651456	55	4024
2026-01-17 01:34:47.74	28.51	11.91	-42.0	-43.0	20.7	0.00e+00	0	34	0	666894336	55	4070
2026-01-17 01:34:48.74	28.58	12.00	-42.0	-42.9	20.8	0.00e+00	0	34	0	673185792	55	4051
2026-01-17 01:34:49.76	28.65	12.09	-42.0	-42.9	20.8	0.00e+00	0	34	0	679477248	55	4040
2026-01-17 01:34:50.76	28.72	12.17	-42.0	-42.9	20.8	0.00e+00	0	34	0	684720128	55	4024
2026-01-17 01:34:51.77	28.80	12.26	-41.8	-42.7	20.9	0.00e+00	0	34	0	689963008	55	3949
2026-01-17 01:34:52.78	28.87	12.35	-41.9	-42.8	20.8	0.00e+00	0	34	0	696254464	55	4004
2026-01-17 01:34:53.79	28.95	12.44	-41.9	-42.8	20.9	0.00e+00	0	34	0	701497344	55	3976
2026-01-17 01:34:54.80	29.02	12.53	-42.0	-42.9	20.8	0.00e+00	0	34	0	707788800	55	4018
2026-01-17 01:34:55.81	29.10	12.62	-41.7	-42.6	21.1	0.00e+00	0	34	0	713031680	55	3886
2026-01-17 01:34:56.82	29.17	12.71	-41.9	-42.8	20.9	0.00e+00	0	34	0	718274560	55	3982
2026-01-17 01:34:57.83	29.25	12.80	-41.9	-42.8	21.0	0.00e+00	0	34	0	724566016	55	3968
2026-01-17 01:34:58.84	29.32	12.89	-41.9	-42.8	20.9	0.00e+00	0	34	0	729808896	55	3982
2026-01-17 01:34:59.85	29.40	12.98	-41.8	-42.7	21.0	0.00e+00	0	34	0	735051776	55	3922
2026-01-17 01:35:00.86	29.48	13.07	-41.8	-42.7	21.0	0.00e+00	0	34	0	741343232	55	3932
2026-01-17 01:35:01.86	29.55	13.16	-41.9	-42.8	20.9	0.00e+00	0	34	0	747634688	55	3990
2026-01-17 01:35:02.87	29.63	13.26	-41.9	-42.8	20.9	0.00e+00	0	34	0	752877568	55	3994
2026-01-17 01:35:03.88	29.71	13.35	-41.5	-42.4	21.3	0.00e+00	0	34	0	758120448	55	3797
2026-01-17 01:35:04.89	29.79	13.44	-41.5	-42.4	21.3	0.00e+00	0	34	0	764411904	55	3816
2026-01-17 01:35:05.90	29.87	13.53	-41.5	-42.3	21.4	0.00e+00	0	34	0	769654784	54	3999
2026-01-17 01:35:06.91	29.95	13.63	-41.6	-42.5	21.3	0.00e+00	0	34	0	774897664	54	4052
2026-01-17 01:35:07.92	30.03	13.72	-41.6	-42.5	21.3	0.00e+00	0	34	0	781189120	54	4074
2026-01-17 01:35:08.93	30.11	13.81	-41.7	-42.6	21.1	0.00e+00	0	34	0	786432000	54	4143
2026-01-17 01:35:09.94	30.19	13.91	-41.7	-42.6	21.2	0.00e+00	0	34	0	792723456	54	4114
2026-01-17 01:35:10.94	30.27	14.00	-41.7	-42.6	21.2	0.00e+00	0	34	0	797966336	54	4102
2026-01-17 01:35:11.95	30.36	14.10	-41.7	-42.6	21.2	0.00e+00	0	34	0	804257792	54	4122
2026-01-17 01:35:12.96	30.44	14.19	-41.4	-42.3	21.5	0.00e+00	0	34	0	809500672	54	3983
2026-01-17 01:35:13.97	30.52	14.29	-41.3	-42.1	21.7	0.00e+00	0	34	0	815792128	54	3905
2026-01-17 01:35:14.98	30.61	14.38	-41.3	-42.1	21.7	0.00e+00	0	34	0	821035008	54	3907
2026-01-17 01:35:15.98	30.69	14.48	-41.2	-42.1	21.7	0.00e+00	0	34	0	826277888	54	3887
2026-01-17 01:35:16.99	30.78	14.57	-41.2	-42.1	21.7	0.00e+00	0	34	0	832569344	54	3892
2026-01-17 01:35:18.00	30.86	14.67	-41.4	-42.3	21.5	0.00e+00	0	34	0	837812224	54	3987
2026-01-17 01:35:19.01	30.95	14.77	-41.2	-42.0	21.8	0.00e+00	0	34	0	843055104	54	3862
2026-01-17 01:35:20.02	31.03	14.87	-41.3	-42.1	21.7	0.00e+00	0	34	0	849346560	54	3894
2026-01-17 01:35:21.03	31.12	14.96	-41.3	-42.1	21.7	0.00e+00	0	34	0	854589440	54	3905
2026-01-17 01:35:22.04	31.21	15.06	-41.3	-42.2	21.7	0.00e+00	0	34	0	859832320	54	3923
2026-01-17 01:35:23.05	31.30	15.16	-41.4	-42.2	21.6	0.00e+00	0	34	0	866123776	54	3956
2026-01-17 01:35:24.06	31.39	15.26	-41.2	-42.1	21.8	0.00e+00	0	34	0	872415232	54	3874
2026-01-17 01:35:25.06	31.47	15.36	-41.2	-42.0	21.8	0.00e+00	0	34	0	877658112	54	3865
2026-01-17 01:35:26.07	31.56	15.46	-41.3	-42.2	21.7	0.00e+00	0	34	0	882900992	54	3930
2026-01-17 01:35:27.08	31.65	15.56	-41.2	-42.1	21.7	0.00e+00	0	34	0	889192448	54	3886
2026-01-17 01:35:28.09	31.74	15.66	-41.2	-42.0	21.8	0.00e+00	0	34	0	894435328	54	3859
2026-01-17 01:35:29.10	31.84	15.76	-41.1	-42.0	21.8	0.00e+00	0	34	0	900726784	54	3849
2026-01-17 01:35:30.11	31.93	15.86	-40.9	-41.8	22.0	0.00e+00	0	34	0	905969664	53	3978
2026-01-17 01:35:31.11	32.02	15.96	-40.8	-41.6	22.2	0.00e+00	0	34	0	911212544	53	3897
2026-01-17 01:35:32.12	32.11	16.06	-40.8	-41.6	22.2	0.00e+00	0	34	0	917504000	53	3883
2026-01-17 01:35:33.13	32.21	16.16	-40.5	-41.4	22.4	0.00e+00	0	34	0	922746880	53	3782
2026-01-17 01:35:34.14	32.30	16.26	-40.6	-41.4	22.4	0.00e+00	0	34	0	927989760	53	3795
2026-01-17 01:35:35.14	32.40	16.36	-40.6	-41.4	22.4	0.00e+00	0	34	0	934281216	53	3821
2026-01-17 01:35:36.15	32.49	16.47	-40.5	-41.3	22.5	0.00e+00	0	34	0	940572672	52	3966
2026-01-17 01:35:37.16	32.59	16.57	-40.4	-41.2	22.5	0.00e+00	0	34	0	945815552	52	3944
2026-01-17 01:35:38.17	32.69	16.67	-40.6	-41.4	22.4	0.00e+00	0	34	0	951058432	52	4028
2026-01-17 01:35:39.18	32.78	16.78	-40.5	-41.3	22.5	0.00e+00	0	34	0	957349888	52	3968
2026-01-17 01:35:40.18	32.88	16.88	-40.6	-41.4	22.4	0.00e+00	0	34	0	962592768	52	4050
2026-01-17 01:35:41.19	32.98	16.99	-40.7	-41.5	22.3	0.00e+00	0	34	0	967835648	52	4066
2026-01-17 01:35:42.20	33.08	17.09	-40.6	-41.4	22.4	0.00e+00	0	34	0	974127104	52	4048
2026-01-17 01:35:43.21	33.18	17.20	-40.8	-41.6	22.2	0.00e+00	0	34	0	979369984	52	4124
2026-01-17 01:35:44.22	33.28	17.30	-40.7	-41.5	22.3	0.00e+00	0	34	0	985661440	52	4083
2026-01-17 01:35:45.22	33.38	17.41	-40.7	-41.6	22.3	0.00e+00	0	34	0	990904320	52	4110
2026-01-17 01:35:46.23	33.48	17.51	-40.5	-41.3	22.5	0.00e+00	0	34	0	996147200	52	4004
2026-01-17 01:35:47.24	33.59	17.62	-40.5	-41.3	22.5	0.00e+00	0	34	0	1002438656	52	3983
2026-01-17 01:35:48.25	33.69	17.73	-40.5	-41.3	22.5	0.00e+00	0	34	0	1008730112	52	3992
2026-01-17 01:35:49.26	33.79	17.84	-40.5	-41.3	22.6	0.00e+00	0	34	0	1013972992	52	3972
2026-01-17 01:35:50.27	33.90	17.94	-40.4	-41.2	22.6	0.00e+00	0	34	0	1019215872	52	3941
2026-01-17 01:35:51.27	34.00	18.05	-40.3	-41.2	22.7	0.00e+00	0	34	0	1025507328	52	3917
2026-01-17 01:35:52.28	34.11	18.16	-40.3	-41.1	22.7	0.00e+00	0	34	0	1030750208	52	3884
2026-01-17 01:35:53.29	34.22	18.27	-40.2	-41.0	22.8	0.00e+00	0	34	0	1035993088	52	3860
2026-01-17 01:35:54.30	34.33	18.38	-40.2	-41.0	22.8	0.00e+00	0	34	0	1042284544	52	3857
2026-01-17 01:35:55.31	34.44	18.49	-40.2	-41.0	22.8	0.00e+00	0	34	0	1047527424	52	3846
2026-01-17 01:35:56.32	34.54	18.60	-40.0	-40.7	23.1	0.00e+00	0	34	0	1052770304	52	3731
2026-01-17 01:35:57.33	34.66	18.71	-40.1	-40.8	23.1	0.00e+00	0	34	0	1059061760	51	4000
2026-01-17 01:35:58.34	34.77	18.82	-40.1	-40.8	23.1	0.00e+00	0	34	0	1064304640	51	3997
2026-01-17 01:35:59.35	34.88	18.93	-40.1	-40.9	23.1	0.00e+00	0	34	0	1070596096	51	4022
2026-01-17 01:36:00.36	34.99	19.05	-40.1	-40.8	23.1	0.00e+00	0	34	0	1075838976	51	3996
2026-01-17 01:36:01.37	35.10	19.16	-40.1	-40.9	23.0	0.00e+00	0	34	0	1082130432	51	4024
2026-01-17 01:36:02.38	35.22	19.27	-40.0	-40.8	23.1	0.00e+00	0	34	0	1087373312	51	3982
2026-01-17 01:36:03.38	35.33	19.38	-39.9	-40.7	23.3	0.00e+00	0	34	0	1093664768	51	3919
2026-01-17 01:36:04.39	35.45	19.50	-40.0	-40.8	23.2	0.00e+00	0	34	0	1098907648	51	3960
2026-01-17 01:36:05.40	35.57	19.61	-39.9	-40.7	23.3	0.00e+00	0	34	0	1104150528	51	3930
2026-01-17 01:36:06.41	35.68	19.73	-39.9	-40.7	23.2	0.00e+00	0	34	0	1110441984	51	3928
2026-01-17 01:36:07.42	35.80	19.84	-39.9	-40.6	23.3	0.00e+00	0	34	0	1115684864	51	3898
2026-01-17 01:36:08.43	35.92	19.96	-39.8	-40.6	23.3	0.00e+00	0	34	0	1120927744	51	3897
2026-01-17 01:36:09.44	36.04	20.07	-40.0	-40.7	23.2	0.00e+00	0	34	0	1127219200	51	3950
2026-01-17 01:36:10.45	36.16	20.19	-39.9	-40.7	23.3	0.00e+00	0	34	0	1132462080	51	3929
2026-01-17 01:36:11.46	36.28	20.31	-40.0	-40.8	23.2	0.00e+00	0	34	0	1138753536	51	3976
2026-01-17 01:36:12.46	36.41	20.42	-40.0	-40.8	23.2	0.00e+00	0	34	0	1143996416	51	3981
2026-01-17 01:36:13.47	36.53	20.54	-40.1	-40.9	23.1	0.00e+00	0	34	0	1150287872	51	4015
2026-01-17 01:36:14.48	36.65	20.66	-40.0	-40.8	23.2	0.00e+00	0	34	0	1155530752	51	3982
2026-01-17 01:36:15.49	36.78	20.78	-39.9	-40.7	23.3	0.00e+00	0	34	0	1160773632	51	3937
2026-01-17 01:36:16.50	36.91	20.89	-39.9	-40.7	23.3	0.00e+00	0	34	0	1167065088	51	3923
2026-01-17 01:36:17.51	37.03	21.01	-39.9	-40.7	23.3	0.00e+00	0	34	0	1172307968	51	3930
2026-01-17 01:36:18.52	37.16	21.13	-40.0	-40.7	23.2	0.00e+00	0	34	0	1177550848	51	3955
2026-01-17 01:36:19.52	37.29	21.25	-39.9	-40.7	23.3	0.00e+00	0	34	0	1183842304	51	3921
2026-01-17 01:36:20.53	37.42	21.37	-39.9	-40.7	23.3	0.00e+00	0	34	0	1189085184	51	3915
2026-01-17 01:36:21.54	37.55	21.49	-39.8	-40.6	23.4	0.00e+00	0	34	0	1195376640	51	3897
2026-01-17 01:36:22.55	37.68	21.62	-39.9	-40.7	23.3	0.00e+00	0	34	0	1201668096	51	3927
2026-01-17 01:36:23.56	37.82	21.74	-40.0	-40.8	23.2	0.00e+00	0	34	0	1206910976	51	3970
2026-01-17 01:36:24.57	37.95	21.86	-40.0	-40.8	23.2	0.00e+00	0	34	0	1212153856	51	3983
2026-01-17 01:36:25.58	38.09	21.98	-39.9	-40.7	23.3	0.00e+00	0	34	0	1218445312	51	3943
2026-01-17 01:36:26.58	38.22	22.10	-39.9	-40.6	23.3	0.00e+00	0	34	0	1223688192	51	3910
2026-01-17 01:36:27.59	38.36	22.23	-40.0	-40.8	23.2	0.00e+00	0	34	0	1228931072	51	3964
2026-01-17 01:36:28.60	38.50	22.35	-40.0	-40.8	23.2	0.00e+00	0	34	0	1235222528	51	3985
2026-01-17 01:36:29.61	38.64	22.48	-40.0	-40.8	23.2	0.00e+00	0	34	0	1240465408	51	3991
2026-01-17 01:36:30.62	38.78	22.60	-40.0	-40.7	23.2	0.00e+00	0	34	0	1245708288	51	3956
2026-01-17 01:36:31.63	38.92	22.73	-39.9	-40.7	23.3	0.00e+00	0	34	0	1251999744	51	3942
2026-01-17 01:36:32.64	39.06	22.85	-39.9	-40.7	23.3	0.00e+00	0	34	0	1257242624	51	3945
2026-01-17 01:36:33.65	39.21	22.98	-40.0	-40.7	23.3	0.00e+00	0	34	0	1263534080	51	3951
2026-01-17 01:36:34.66	39.35	23.11	-39.6	-40.4	23.6	0.00e+00	0	34	0	1268776960	51	3799
2026-01-17 01:36:35.67	39.50	23.23	-39.6	-40.3	23.7	0.00e+00	0	34	0	1275068416	51	3765
2026-01-17 01:36:36.68	39.64	23.36	-39.6	-40.3	23.7	0.00e+00	0	34	0	1280311296	51	3768
2026-01-17 01:36:37.69	39.79	23.49	-39.4	-40.2	23.8	0.00e+00	0	34	0	1286602752	50	3929
2026-01-17 01:36:38.70	39.94	23.62	-39.2	-40.0	24.0	0.00e+00	0	34	0	1291845632	50	3834
2026-01-17 01:36:39.71	40.09	23.75	-39.2	-39.9	24.0	0.00e+00	0	34	0	1297088512	50	3814
2026-01-17 01:36:40.71	40.24	23.87	-39.2	-40.0	24.0	0.00e+00	0	34	0	1303379968	50	3833
2026-01-17 01:36:41.72	40.40	24.00	-39.3	-40.0	23.9	0.00e+00	0	34	0	1308622848	50	3865
2026-01-17 01:36:42.73	40.55	24.14	-39.1	-39.8	24.1	0.00e+00	0	34	0	1313865728	50	3780
2026-01-17 01:36:43.74	40.71	24.27	-39.0	-39.7	24.2	0.00e+00	0	34	0	1320157184	50	3724
2026-01-17 01:36:44.75	40.87	24.40	-39.0	-39.7	24.2	0.00e+00	0	34	0	1325400064	50	3736
2026-01-17 01:36:45.76	41.02	24.53	-39.1	-39.8	24.1	0.00e+00	0	34	0	1331691520	50	3761
2026-01-17 01:36:46.76	41.18	24.66	-39.1	-39.8	24.2	0.00e+00	0	34	0	1336934400	50	3755
2026-01-17 01:36:47.77	41.34	24.79	-39.1	-39.8	24.2	0.00e+00	0	34	0	1343225856	50	3752
2026-01-17 01:36:48.78	41.51	24.93	-38.8	-39.5	24.4	0.00e+00	0	34	0	1348468736	49	3854
2026-01-17 01:36:49.79	41.67	25.06	-38.8	-39.5	24.4	0.00e+00	0	34	0	1353711616	49	3838
2026-01-17 01:36:50.80	41.83	25.19	-38.9	-39.6	24.3	0.00e+00	0	34	0	1360003072	49	3886
2026-01-17 01:36:51.81	42.00	25.33	-39.0	-39.7	24.3	0.00e+00	0	34	0	1365245952	49	3937
2026-01-17 01:36:52.82	42.17	25.46	-39.0	-39.8	24.2	0.00e+00	0	34	0	1371537408	49	3965
2026-01-17 01:36:53.83	42.34	25.60	-39.0	-39.7	24.2	0.00e+00	0	34	0	1376780288	49	3937
2026-01-17 01:36:54.84	42.51	25.73	-39.1	-39.8	24.1	0.00e+00	0	34	0	1382023168	49	3989
2026-01-17 01:36:55.85	42.68	25.87	-38.9	-39.6	24.3	0.00e+00	0	34	0	1388314624	49	3910
2026-01-17 01:36:56.86	42.85	26.00	-38.9	-39.6	24.3	0.00e+00	0	34	0	1394606080	49	3886
2026-01-17 01:36:57.86	43.03	26.14	-38.9	-39.6	24.3	0.00e+00	0	34	0	1399848960	49	3900
2026-01-17 01:36:58.87	43.20	26.28	-39.0	-39.8	24.2	0.00e+00	0	34	0	1405091840	49	3972
2026-01-17 01:36:59.88	43.38	26.42	-39.0	-39.7	24.2	0.00e+00	0	34	0	1411383296	49	3939
2026-01-17 01:37:00.89	43.56	26.55	-39.0	-39.7	24.2	0.00e+00	0	34	0	1416626176	49	3955
2026-01-17 01:37:01.90	43.74	26.69	-39.0	-39.8	24.2	0.00e+00	0	34	0	1421869056	49	3960
2026-01-17 01:37:02.91	43.92	26.83	-38.9	-39.6	24.3	0.00e+00	0	34	0	1428160512	49	3910
2026-01-17 01:37:03.91	44.11	26.97	-38.8	-39.5	24.4	0.00e+00	0	34	0	1433403392	49	3843
2026-01-17 01:37:04.92	44.29	27.11	-38.7	-39.4	24.5	0.00e+00	0	34	0	1438646272	49	3809
2026-01-17 01:37:05.93	44.48	27.25	-38.8	-39.5	24.5	0.00e+00	0	34	0	1444937728	49	3839
2026-01-17 01:37:06.94	44.67	27.39	-38.6	-39.4	24.6	0.00e+00	0	34	0	1450180608	49	3783
2026-01-17 01:37:07.95	44.86	27.53	-38.6	-39.3	24.6	0.00e+00	0	34	0	1456472064	49	3763
2026-01-17 01:37:08.96	45.05	27.67	-38.5	-39.2	24.7	0.00e+00	0	34	0	1461714944	49	3733
2026-01-17 01:37:09.97	45.24	27.81	-38.6	-39.4	24.6	0.00e+00	0	34	0	1468006400	49	3781
2026-01-17 01:37:10.97	45.44	27.96	-38.5	-39.2	24.7	0.00e+00	0	34	0	1473249280	49	3711
2026-01-17 01:37:11.98	45.63	28.10	-38.5	-39.2	24.7	0.00e+00	0	34	0	1479540736	49	3724
2026-01-17 01:37:12.99	45.83	28.24	-38.4	-39.2	24.8	0.00e+00	0	34	0	1484783616	48	3918
2026-01-17 01:37:14.00	46.03	28.38	-38.4	-39.1	24.8	0.00e+00	0	34	0	1490026496	48	3905
2026-01-17 01:37:15.01	46.24	28.53	-38.6	-39.3	24.6	0.00e+00	0	34	0	1496317952	48	3973
2026-01-17 01:37:16.02	46.44	28.67	-38.7	-39.4	24.6	0.00e+00	0	34	0	1501560832	48	4024
2026-01-17 01:37:17.03	46.65	28.82	-38.7	-39.4	24.5	0.00e+00	0	34	0	1506803712	48	4044
2026-01-17 01:37:18.04	46.85	28.96	-38.6	-39.3	24.6	0.00e+00	0	34	0	1513095168	48	3999
2026-01-17 01:37:19.05	47.06	29.11	-38.7	-39.4	24.6	0.00e+00	0	34	0	1518338048	48	4015
2026-01-17 01:37:20.06	47.27	29.25	-38.4	-39.1	24.8	0.00e+00	0	34	0	1524629504	48	3907
2026-01-17 01:37:21.07	47.49	29.40	-38.5	-39.2	24.8	0.00e+00	0	34	0	1529872384	48	3939
2026-01-17 01:37:22.08	47.70	29.54	-38.6	-39.3	24.7	0.00e+00	0	34	0	1536163840	48	3966
2026-01-17 01:37:23.08	47.92	29.69	-38.7	-39.4	24.6	0.00e+00	0	34	0	1541406720	48	4015
2026-01-17 01:37:24.09	48.14	29.84	-38.7	-39.4	24.6	0.00e+00	0	34	0	1546649600	48	4017
2026-01-17 01:37:25.10	48.36	29.98	-38.7	-39.4	24.5	0.00e+00	0	34	0	1552941056	48	4042
2026-01-17 01:37:26.11	48.58	30.13	-38.6	-39.3	24.6	0.00e+00	0	34	0	1558183936	48	3993
2026-01-17 01:37:27.12	48.81	30.28	-38.4	-39.1	24.9	0.00e+00	0	34	0	1564475392	48	3879
2026-01-17 01:37:28.13	49.03	30.43	-38.5	-39.2	24.8	0.00e+00	0	34	0	1569718272	48	3927
2026-01-17 01:37:29.14	49.26	30.58	-38.4	-39.1	24.9	0.00e+00	0	34	0	1574961152	48	3884
2026-01-17 01:37:30.15	49.49	30.72	-38.4	-39.1	24.9	0.00e+00	0	34	0	1581252608	48	3872
2026-01-17 01:37:31.16	49.73	30.87	-38.4	-39.0	24.9	0.00e+00	0	34	0	1587544064	48	3865
2026-01-17 01:37:32.17	49.96	31.02	-38.4	-39.0	24.9	0.00e+00	0	34	0	1592786944	48	3862
2026-01-17 01:37:33.17	50.20	31.17	-38.3	-39.0	24.9	0.00e+00	0	34	0	1598029824	48	3853
2026-01-17 01:37:34.18	50.44	31.32	-38.4	-39.1	24.9	0.00e+00	0	34	0	1604321280	48	3884
2026-01-17 01:37:35.19	50.68	31.47	-38.5	-39.2	24.8	0.00e+00	0	34	0	1609564160	48	3937
2026-01-17 01:37:36.20	50.92	31.62	-38.5	-39.2	24.8	0.00e+00	0	34	0	1614807040	48	3929
2026-01-17 01:37:37.21	51.17	31.77	-38.5	-39.2	24.7	0.00e+00	0	34	0	1621098496	48	3958
2026-01-17 01:37:38.22	51.42	31.92	-38.5	-39.2	24.8	0.00e+00	0	34	0	1626341376	48	3934
2026-01-17 01:37:39.23	51.67	32.07	-38.4	-39.1	24.8	0.00e+00	0	34	0	1631584256	48	3907
2026-01-17 01:37:40.24	51.92	32.22	-38.4	-39.1	24.9	0.00e+00	0	34	0	1637875712	48	3906
2026-01-17 01:37:41.24	52.17	32.37	-38.5	-39.2	24.8	0.00e+00	0	34	0	1643118592	48	3924
2026-01-17 01:37:42.25	52.43	32.52	-38.3	-39.0	25.0	0.00e+00	0	34	0	1649410048	48	3836
2026-01-17 01:37:43.26	52.69	32.68	-38.3	-38.9	25.0	0.00e+00	0	34	0	1654652928	48	3822
2026-01-17 01:37:44.27	52.95	32.83	-38.3	-39.0	25.0	0.00e+00	0	34	0	1660944384	48	3837
2026-01-17 01:37:45.28	53.22	32.98	-38.5	-39.2	24.8	0.00e+00	0	34	0	1666187264	48	3929
2026-01-17 01:37:46.29	53.49	33.13	-38.5	-39.2	24.8	0.00e+00	0	34	0	1672478720	48	3931
2026-01-17 01:37:47.30	53.76	33.28	-38.7	-39.4	24.7	0.00e+00	0	34	0	1677721600	48	4015
2026-01-17 01:37:48.31	54.03	33.43	-38.6	-39.3	24.7	0.00e+00	0	34	0	1682964480	48	3983
2026-01-17 01:37:49.32	54.30	33.59	-38.6	-39.3	24.7	0.00e+00	0	34	0	1689255936	48	3974
2026-01-17 01:37:50.33	54.58	33.74	-38.5	-39.2	24.8	0.00e+00	0	34	0	1694498816	48	3942
2026-01-17 01:37:51.34	54.86	33.89	-38.5	-39.2	24.8	0.00e+00	0	34	0	1699741696	48	3916
2026-01-17 01:37:52.35	55.14	34.04	-38.5	-39.2	24.8	0.00e+00	0	34	0	1706033152	48	3929
2026-01-17 01:37:53.36	55.43	34.19	-38.6	-39.4	24.7	0.00e+00	0	34	0	1712324608	48	4006
2026-01-17 01:37:54.37	55.71	34.35	-38.6	-39.3	24.7	0.00e+00	0	34	0	1717567488	48	3995
2026-01-17 01:37:55.37	56.00	34.50	-38.6	-39.3	24.7	0.00e+00	0	34	0	1722810368	48	3994
2026-01-17 01:37:56.38	56.30	34.65	-38.4	-39.1	24.9	0.00e+00	0	34	0	1729101824	48	3892
2026-01-17 01:37:57.39	56.59	34.80	-38.5	-39.3	24.8	0.00e+00	0	34	0	1734344704	48	3961
2026-01-17 01:37:58.40	56.89	34.95	-38.5	-39.2	24.9	0.00e+00	0	34	0	1739587584	48	3918
2026-01-17 01:37:59.41	57.19	35.10	-38.4	-39.1	24.9	0.00e+00	0	34	0	1745879040	48	3902
2026-01-17 01:38:00.42	57.49	35.25	-38.6	-39.3	24.8	0.00e+00	0	34	0	1751121920	48	3966
2026-01-17 01:38:01.43	57.80	35.41	-38.5	-39.2	24.9	0.00e+00	0	34	0	1757413376	48	3917
2026-01-17 01:38:02.44	58.11	35.56	-38.5	-39.2	24.9	0.00e+00	0	34	0	1762656256	48	3914
2026-01-17 01:38:03.44	58.42	35.71	-38.6	-39.3	24.8	0.00e+00	0	34	0	1767899136	48	3962
2026-01-17 01:38:04.45	58.74	35.86	-38.5	-39.2	24.8	0.00e+00	0	34	0	1774190592	48	3926
2026-01-17 01:38:05.46	59.05	36.01	-38.4	-39.1	25.0	0.00e+00	0	34	0	1780482048	48	3875
2026-01-17 01:38:06.47	59.37	36.16	-38.5	-39.2	24.9	0.00e+00	0	34	0	1785724928	48	3918
2026-01-17 01:38:07.48	59.70	36.31	-38.3	-39.0	25.0	0.00e+00	0	34	0	1790967808	48	3849
2026-01-17 01:38:08.49	60.02	36.46	-38.3	-39.0	25.0	0.00e+00	0	34	0	1797259264	48	3855
2026-01-17 01:38:09.50	60.35	36.61	-38.3	-39.0	25.0	0.00e+00	0	34	0	1802502144	48	3843
2026-01-17 01:38:10.50	60.68	36.75	-38.4	-39.1	25.0	0.00e+00	0	34	0	1807745024	48	3882
2026-01-17 01:38:11.51	61.02	36.90	-38.4	-39.1	24.9	0.00e+00	0	34	0	1814036480	48	3899
2026-01-17 01:38:12.52	61.36	37.05	-38.3	-39.0	25.1	0.00e+00	0	34	0	1819279360	48	3826
2026-01-17 01:38:13.53	61.70	37.20	-38.4	-39.1	25.0	0.00e+00	0	34	0	1824522240	48	3887
2026-01-17 01:38:14.54	62.05	37.35	-38.2	-38.9	25.1	0.00e+00	0	34	0	1830813696	48	3811
2026-01-17 01:38:15.55	62.39	37.49	-38.1	-38.8	25.2	0.00e+00	0	34	0	1836056576	48	3751
2026-01-17 01:38:16.56	62.74	37.64	-38.2	-38.9	25.1	0.00e+00	0	34	0	1842348032	48	3786
2026-01-17 01:38:17.57	63.10	37.78	-38.3	-38.9	25.1	0.00e+00	0	34	0	1847590912	48	3824
2026-01-17 01:38:18.57	63.45	37.93	-38.2	-38.9	25.2	0.00e+00	0	34	0	1853882368	48	3785
2026-01-17 01:38:19.58	63.81	38.07	-38.2	-38.9	25.2	0.00e+00	0	34	0	1859125248	48	3788
2026-01-17 01:38:20.59	64.18	38.22	-38.2	-38.9	25.1	0.00e+00	0	34	0	1865416704	48	3797
2026-01-17 01:38:21.61	64.55	38.36	-38.2	-38.9	25.1	0.00e+00	0	34	0	1870659584	48	3820
2026-01-17 01:38:22.61	64.91	38.50	-38.1	-38.8	25.2	0.00e+00	0	34	0	1875902464	48	3770
2026-01-17 01:38:23.62	65.29	38.64	-38.2	-38.9	25.1	0.00e+00	0	34	0	1882193920	48	3812
2026-01-17 01:38:24.63	65.66	38.78	-38.4	-39.1	24.9	0.00e+00	0	34	0	1887436800	48	3896
2026-01-17 01:38:25.64	66.04	38.92	-38.5	-39.2	24.9	0.00e+00	0	34	0	1892679680	48	3926
2026-01-17 01:38:26.65	66.43	39.06	-38.4	-39.0	25.0	0.00e+00	0	34	0	1898971136	48	3867
2026-01-17 01:38:27.66	66.81	39.20	-38.3	-39.0	25.1	0.00e+00	0	34	0	1905262592	48	3831
2026-01-17 01:38:28.67	67.20	39.34	-38.2	-38.8	25.1	0.00e+00	0	34	0	1910505472	48	3780
2026-01-17 01:38:29.68	67.59	39.48	-37.7	-38.4	25.1	0.00e+00	0	34	0	1915748352	47	3789
2026-01-17 01:38:30.69	67.99	39.61	-37.8	-38.5	25.0	0.00e+00	0	34	0	1922039808	47	3858
2026-01-17 01:38:31.70	68.39	39.75	-38.1	-38.8	24.7	0.00e+00	0	34	0	1927282688	47	3996
2026-01-17 01:38:32.70	68.79	39.88	-38.2	-39.0	24.6	0.00e+00	0	34	0	1932525568	47	4052
2026-01-17 01:38:33.71	69.19	40.01	-38.1	-38.9	24.7	0.00e+00	0	34	0	1938817024	47	4010
2026-01-17 01:38:34.72	69.60	40.14	-38.0	-38.7	24.8	0.00e+00	0	34	0	1944059904	47	3934
2026-01-17 01:38:35.73	70.01	40.27	-37.8	-38.5	25.0	0.00e+00	0	34	0	1950351360	47	3842
2026-01-17 01:38:36.74	70.43	40.40	-37.7	-38.4	25.1	0.00e+00	0	34	0	1955594240	47	3823
2026-01-17 01:38:37.75	70.85	40.53	-37.9	-38.6	24.9	0.00e+00	0	34	0	1960837120	47	3890
2026-01-17 01:38:38.76	71.27	40.66	-37.9	-38.6	24.9	0.00e+00	0	34	0	1967128576	47	3895
2026-01-17 01:38:39.77	71.70	40.78	-37.9	-38.6	24.9	0.00e+00	0	34	0	1973420032	47	3912
2026-01-17 01:38:40.78	72.13	40.91	-38.1	-38.8	24.7	0.00e+00	0	34	0	1978662912	47	3986
2026-01-17 01:38:41.79	72.56	41.03	-38.2	-38.9	24.6	0.00e+00	0	34	0	1983905792	47	4038
2026-01-17 01:38:42.80	72.99	41.15	-38.2	-38.9	24.7	0.00e+00	0	34	0	1990197248	47	4025
2026-01-17 01:38:43.80	73.43	41.27	-38.1	-38.8	24.7	0.00e+00	0	34	0	1995440128	47	3999
2026-01-17 01:38:44.81	73.87	41.39	-38.2	-38.9	24.6	0.00e+00	0	34	0	2000683008	47	4045
2026-01-17 01:38:45.83	74.32	41.51	-38.2	-39.0	24.6	0.00e+00	0	34	0	2006974464	47	4058
2026-01-17 01:38:46.83	74.76	41.62	-38.2	-38.9	24.7	0.00e+00	0	34	0	2012217344	47	4024
2026-01-17 01:38:47.84	75.21	41.74	-38.2	-38.9	24.6	0.00e+00	0	34	0	2017460224	47	4038
2026-01-17 01:38:48.85	75.67	41.85	-38.2	-38.9	24.7	0.00e+00	0	34	0	2023751680	47	4019
2026-01-17 01:38:49.86	76.12	41.96	-38.1	-38.8	24.7	0.00e+00	0	34	0	2030043136	47	3997
2026-01-17 01:38:50.87	76.58	42.07	-38.2	-38.9	24.7	0.00e+00	0	34	0	2035286016	47	4025
2026-01-17 01:38:51.88	77.05	42.18	-38.2	-38.9	24.6	0.00e+00	0	34	0	2040528896	47	4048
2026-01-17 01:38:52.89	77.51	42.28	-38.0	-38.8	24.8	0.00e+00	0	34	0	2046820352	47	3964
2026-01-17 01:38:53.90	77.98	42.39	-38.0	-38.7	24.8	0.00e+00	0	34	0	2052063232	47	3941
2026-01-17 01:38:54.91	78.46	42.49	-38.0	-38.7	24.8	0.00e+00	0	34	0	2058354688	47	3949
2026-01-17 01:38:55.92	78.93	42.59	-38.3	-39.1	24.5	0.00e+00	0	34	0	2063597568	47	4107
2026-01-17 01:38:56.92	79.41	42.69	-38.4	-39.1	24.5	0.00e+00	0	34	0	2068840448	47	4138
2026-01-17 01:38:57.93	79.89	42.79	-38.4	-39.1	24.5	0.00e+00	0	34	0	2075131904	47	4128
2026-01-17 01:38:58.94	80.37	42.88	-38.4	-39.1	24.5	0.00e+00	0	34	0	2080374784	47	4119
2026-01-17 01:38:59.95	80.86	42.97	-38.4	-39.1	24.5	0.00e+00	0	34	0	2086666240	47	4140
2026-01-17 01:39:00.96	81.35	43.06	-38.4	-39.2	24.4	0.00e+00	0	34	0	2091909120	47	4173
2026-01-17 01:39:01.97	81.84	43.15	-38.0	-38.7	24.8	0.00e+00	0	34	0	2098200576	47	3943
2026-01-17 01:39:02.98	82.34	43.24	-38.0	-38.7	24.8	0.00e+00	0	34	0	2103443456	47	3943
2026-01-17 01:39:03.99	82.84	43.32	-38.3	-39.0	24.5	0.00e+00	0	34	0	2108686336	47	4075
2026-01-17 01:39:04.99	83.33	43.40	-38.4	-39.2	24.4	0.00e+00	0	34	0	2114977792	47	4174
2026-01-17 01:39:06.00	83.83	43.48	-38.4	-39.1	24.4	0.00e+00	0	34	0	2120220672	47	4135
2026-01-17 01:39:07.01	84.34	43.56	-38.4	-39.2	24.4	0.00e+00	0	34	0	2125463552	47	4154
2026-01-17 01:39:08.02	84.85	43.64	-38.3	-39.1	24.5	0.00e+00	0	34	0	2131755008	47	4100
2026-01-17 01:39:09.03	85.36	43.71	-38.3	-39.0	24.5	0.00e+00	0	34	0	2136997888	47	4093
2026-01-17 01:39:10.04	85.87	43.78	-38.3	-39.0	24.6	0.00e+00	0	34	0	2143289344	47	4065
2026-01-17 01:39:11.04	86.38	43.85	-38.4	-39.1	24.4	0.00e+00	0	34	0	2148532224	47	4136
2026-01-17 01:39:12.05	86.90	43.91	-39.1	-39.8	24.3	0.00e+00	0	34	0	2154823680	48	4215
2026-01-17 01:39:13.06	87.42	43.98	-39.2	-39.9	24.2	0.00e+00	0	34	0	2160066560	49	4027
2026-01-17 01:39:14.07	87.94	44.04	-39.2	-39.9	24.2	0.00e+00	0	34	0	2166358016	49	4030
2026-01-17 01:39:15.08	88.46	44.09	-39.2	-39.9	24.2	0.00e+00	0	34	0	2171600896	49	4037
2026-01-17 01:39:16.09	88.98	44.15	-39.2	-39.9	24.2	0.00e+00	0	34	0	2176843776	49	4045
2026-01-17 01:39:17.10	89.51	44.20	-39.1	-39.8	24.4	0.00e+00	0	34	0	2183135232	49	3988
2026-01-17 01:39:18.11	90.04	44.25	-39.1	-39.8	24.3	0.00e+00	0	34	0	2188378112	49	4003
2026-01-17 01:39:19.12	90.57	44.30	-39.0	-39.7	24.4	0.00e+00	0	34	0	2193620992	49	3948
2026-01-17 01:39:20.13	91.10	44.35	-38.9	-39.6	24.5	0.00e+00	0	34	0	2199912448	49	3900
2026-01-17 01:39:21.14	91.63	44.39	-38.9	-39.7	24.5	0.00e+00	0	34	0	2205155328	49	3926
2026-01-17 01:39:22.15	92.17	44.43	-39.1	-39.8	24.3	0.00e+00	0	34	0	2210398208	49	3976
2026-01-17 01:39:23.16	92.70	44.47	-38.9	-39.6	24.5	0.00e+00	0	34	0	2216689664	49	3893
2026-01-17 01:39:24.17	93.24	44.50	-38.9	-39.6	24.5	0.00e+00	0	34	0	2222981120	49	3898
2026-01-17 01:39:25.18	93.78	44.54	-38.9	-39.6	24.5	0.00e+00	0	34	0	2228224000	49	3892
2026-01-17 01:39:26.18	94.31	44.57	-39.0	-39.7	24.4	0.00e+00	0	34	0	2233466880	49	3936
2026-01-17 01:39:27.19	94.85	44.59	-39.0	-39.7	24.5	0.00e+00	0	34	0	2239758336	49	3924
2026-01-17 01:39:28.20	95.39	44.62	-38.8	-39.5	24.6	0.00e+00	0	34	0	2245001216	49	3846
2026-01-17 01:39:29.21	95.93	44.64	-38.8	-39.5	24.6	0.00e+00	0	34	0	2251292672	49	3856
2026-01-17 01:39:30.22	96.48	44.66	-38.6	-39.3	24.7	0.00e+00	0	34	0	2256535552	49	3771
2026-01-17 01:39:31.22	97.01	44.67	-38.8	-39.5	24.6	0.00e+00	0	34	0	2261778432	49	3866
2026-01-17 01:39:32.23	97.56	44.68	-38.9	-39.7	24.4	0.00e+00	0	34	0	2268069888	49	3930
2026-01-17 01:39:33.24	98.10	44.70	-39.0	-39.7	24.4	0.00e+00	0	34	0	2273312768	49	3931
2026-01-17 01:39:34.25	98.64	44.70	-39.1	-39.8	24.3	0.00e+00	0	34	0	2279604224	49	3995
2026-01-17 01:39:35.26	99.19	44.71	-39.2	-39.9	24.2	0.00e+00	0	34	0	2284847104	49	4034
2026-01-17 01:39:36.26	99.73	44.71	-39.5	-40.2	23.9	0.00e+00	0	34	0	2291138560	49	4181
2026-01-17 01:39:37.27	100.27	44.71	-39.4	-40.2	24.0	0.00e+00	0	34	0	2296381440	49	4155
2026-01-17 01:39:38.28	100.82	44.70	-39.1	-39.9	24.2	0.00e+00	0	34	0	2301624320	49	4008
2026-01-17 01:39:39.29	101.36	44.70	-39.0	-39.7	24.4	0.00e+00	0	34	0	2307915776	49	3934
2026-01-17 01:39:40.30	101.90	44.69	-39.0	-39.7	24.4	0.00e+00	0	34	0	2313158656	49	3941
2026-01-17 01:39:41.31	102.45	44.68	-39.0	-39.7	24.4	0.00e+00	0	34	0	2318401536	49	3935
2026-01-17 01:39:42.31	102.99	44.66	-39.0	-39.7	24.4	0.00e+00	0	34	0	2324692992	49	3953
2026-01-17 01:39:43.32	103.53	44.64	-39.0	-39.7	24.4	0.00e+00	0	34	0	2329935872	49	3922
2026-01-17 01:39:44.32	104.07	44.62	-39.0	-39.7	24.4	0.00e+00	0	34	0	2336227328	49	3928
2026-01-17 01:39:45.33	104.61	44.60	-39.1	-39.8	24.3	0.00e+00	0	34	0	2341470208	49	3994
2026-01-17 01:39:46.34	105.15	44.57	-39.2	-40.0	24.1	0.00e+00	0	34	0	2346713088	49	4071
2026-01-17 01:39:47.35	105.69	44.55	-39.4	-40.1	24.0	0.00e+00	0	34	0	2353004544	49	4137
2026-01-17 01:39:48.36	106.23	44.51	-39.4	-40.1	24.0	0.00e+00	0	34	0	2359296000	49	4142
2026-01-17 01:39:49.37	106.76	44.48	-39.1	-39.8	24.3	0.00e+00	0	34	0	2364538880	49	3961
2026-01-17 01:39:50.37	107.29	44.44	-39.2	-39.9	24.2	0.00e+00	0	34	0	2369781760	49	4011
2026-01-17 01:39:51.38	107.83	44.40	-39.4	-40.1	24.0	0.00e+00	0	34	0	2376073216	49	4112
2026-01-17 01:39:52.39	108.36	44.36	-39.3	-40.1	24.0	0.00e+00	0	34	0	2381316096	49	4117
2026-01-17 01:39:53.40	108.89	44.32	-39.0	-39.8	24.3	0.00e+00	0	34	0	2386558976	49	3978
2026-01-17 01:39:54.41	109.43	44.27	-38.9	-39.7	24.4	0.00e+00	0	34	0	2392850432	49	3914
2026-01-17 01:39:55.42	109.95	44.22	-38.9	-39.6	24.5	0.00e+00	0	34	0	2398093312	49	3871
2026-01-17 01:39:56.43	110.48	44.17	-39.0	-39.7	24.4	0.00e+00	0	34	0	2403336192	49	3949
2026-01-17 01:39:57.44	111.01	44.11	-39.2	-39.9	24.2	0.00e+00	0	34	0	2409627648	49	4035
2026-01-17 01:39:58.44	111.53	44.05	-39.2	-39.9	24.2	0.00e+00	0	34	0	2414870528	49	4033
2026-01-17 01:39:59.45	112.05	43.99	-39.1	-39.8	24.3	0.00e+00	0	34	0	2421161984	49	3973
2026-01-17 01:40:00.46	112.57	43.93	-39.0	-39.7	24.4	0.00e+00	0	34	0	2426404864	49	3939
2026-01-17 01:40:01.47	113.09	43.87	-38.9	-39.6	24.5	0.00e+00	0	34	0	2432696320	49	3894
2026-01-17 01:40:02.48	113.60	43.80	-38.9	-39.6	24.5	0.00e+00	0	34	0	2437939200	49	3913
2026-01-17 01:40:03.49	114.12	43.73	-38.8	-39.5	24.6	0.00e+00	0	34	0	2444230656	49	3839
2026-01-17 01:40:04.50	114.63	43.66	-38.9	-39.6	24.5	0.00e+00	0	34	0	2449473536	49	3889
2026-01-17 01:40:05.50	115.13	43.58	-38.9	-39.6	24.5	0.00e+00	0	34	0	2454716416	49	3883
2026-01-17 01:40:06.51	115.64	43.51	-38.9	-39.6	24.5	0.00e+00	0	34	0	2461007872	49	3886
2026-01-17 01:40:07.52	116.14	43.43	-38.6	-39.3	24.8	0.00e+00	0	34	0	2466250752	49	3739
2026-01-17 01:40:08.53	116.65	43.35	-38.4	-39.1	24.9	0.00e+00	0	34	0	2471493632	48	3892
2026-01-17 01:40:09.54	117.14	43.26	-38.5	-39.2	24.8	0.00e+00	0	34	0	2477785088	48	3945
2026-01-17 01:40:10.55	117.64	43.18	-38.6	-39.3	24.7	0.00e+00	0	34	0	2484076544	48	3982
2026-01-17 01:40:11.56	118.14	43.09	-38.6	-39.3	24.7	0.00e+00	0	34	0	2489319424	48	4004
2026-01-17 01:40:12.57	118.63	43.00	-38.7	-39.4	24.6	0.00e+00	0	34	0	2494562304	48	4027
2026-01-17 01:40:13.58	119.12	42.91	-38.9	-39.6	24.4	0.00e+00	0	34	0	2500853760	48	4138
2026-01-17 01:40:14.58	119.60	42.81	-39.1	-39.8	24.3	0.00e+00	0	34	0	2506096640	48	4234
2026-01-17 01:40:15.59	120.08	42.72	-39.0	-39.7	24.4	0.00e+00	0	34	0	2511339520	48	4185
2026-01-17 01:40:16.61	120.57	42.62	-38.8	-39.5	24.6	0.00e+00	0	34	0	2517630976	48	4079
2026-01-17 01:40:17.61	121.04	42.52	-38.8	-39.6	24.5	0.00e+00	0	34	0	2522873856	48	4108
2026-01-17 01:40:18.62	121.51	42.42	-38.9	-39.7	24.4	0.00e+00	0	34	0	2529165312	48	4151
2026-01-17 01:40:19.63	121.98	42.31	-38.9	-39.7	24.4	0.00e+00	0	34	0	2534408192	48	4156
2026-01-17 01:40:20.64	122.45	42.21	-38.8	-39.5	24.6	0.00e+00	0	34	0	2539651072	48	4064
2026-01-17 01:40:21.65	122.92	42.10	-38.8	-39.5	24.5	0.00e+00	0	34	0	2545942528	48	4086
2026-01-17 01:40:22.66	123.38	41.99	-39.0	-39.7	24.3	0.00e+00	0	34	0	2552233984	48	4185
2026-01-17 01:40:23.67	123.84	41.88	-39.0	-39.7	24.4	0.00e+00	0	34	0	2557476864	48	4171
2026-01-17 01:40:24.68	124.30	41.77	-39.0	-39.8	24.3	0.00e+00	0	34	0	2562719744	48	4197
2026-01-17 01:40:25.68	124.74	41.66	-38.7	-39.4	24.7	0.00e+00	0	34	0	2569011200	48	4027
2026-01-17 01:40:26.69	125.19	41.54	-38.6	-39.3	24.7	0.00e+00	0	34	0	2574254080	48	3988
2026-01-17 01:40:27.70	125.64	41.42	-38.5	-39.2	24.8	0.00e+00	0	34	0	2579496960	48	3946
2026-01-17 01:40:28.71	126.08	41.30	-38.5	-39.2	24.9	0.00e+00	0	34	0	2585788416	48	3923
2026-01-17 01:40:29.72	126.52	41.18	-38.4	-39.1	24.9	0.00e+00	0	34	0	2591031296	48	3888
2026-01-17 01:40:30.73	126.96	41.06	-38.5	-39.3	24.8	0.00e+00	0	34	0	2596274176	48	3969
2026-01-17 01:40:31.74	127.40	40.94	-38.7	-39.4	24.7	0.00e+00	0	34	0	2602565632	48	4025
2026-01-17 01:40:32.74	127.82	40.82	-38.6	-39.3	24.7	0.00e+00	0	34	0	2607808512	48	3994
2026-01-17 01:40:33.75	128.25	40.69	-38.7	-39.4	24.6	0.00e+00	0	34	0	2614099968	48	4033
2026-01-17 01:40:34.76	128.67	40.56	-38.5	-39.2	24.8	0.00e+00	0	34	0	2619342848	48	3957
2026-01-17 01:40:35.77	129.09	40.44	-38.5	-39.2	24.8	0.00e+00	0	34	0	2625634304	48	3931
2026-01-17 01:40:36.78	129.51	40.31	-38.6	-39.3	24.7	0.00e+00	0	34	0	2630877184	48	3979
2026-01-17 01:40:37.78	129.92	40.18	-38.8	-39.6	24.5	0.00e+00	0	34	0	2637168640	48	4109
2026-01-17 01:40:38.79	130.33	40.05	-38.8	-39.5	24.5	0.00e+00	0	34	0	2642411520	48	4083
2026-01-17 01:40:39.80	130.74	39.91	-38.8	-39.5	24.6	0.00e+00	0	34	0	2647654400	48	4064
2026-01-17 01:40:40.81	131.14	39.78	-38.8	-39.6	24.5	0.00e+00	0	34	0	2653945856	48	4104
2026-01-17 01:40:41.82	131.55	39.64	-38.3	-39.0	25.0	0.00e+00	0	34	0	2659188736	48	3857
2026-01-17 01:40:42.82	131.94	39.51	-38.0	-38.7	25.3	0.00e+00	0	34	0	2664431616	48	3708
2026-01-17 01:40:43.83	132.33	39.37	-38.1	-38.8	25.2	0.00e+00	0	34	0	2670723072	48	3742
2026-01-17 01:40:44.84	132.72	39.23	-38.1	-38.8	25.2	0.00e+00	0	34	0	2675965952	48	3739
2026-01-17 01:40:45.85	133.11	39.10	-38.2	-38.9	25.1	0.00e+00	0	34	0	2681208832	48	3781
2026-01-17 01:40:46.86	133.50	38.96	-38.3	-39.0	25.0	0.00e+00	0	34	0	2687500288	48	3830
2026-01-17 01:40:47.87	133.88	38.82	-38.3	-38.9	25.1	0.00e+00	0	34	0	2693791744	48	3819
2026-01-17 01:40:48.88	134.26	38.67	-38.3	-39.0	25.0	0.00e+00	0	34	0	2699034624	48	3864
2026-01-17 01:40:49.89	134.63	38.53	-38.3	-39.0	25.0	0.00e+00	0	34	0	2704277504	48	3850
2026-01-17 01:40:50.90	135.00	38.39	-38.3	-39.0	25.0	0.00e+00	0	34	0	2710568960	48	3833
2026-01-17 01:40:51.91	135.37	38.25	-38.3	-39.0	25.0	0.00e+00	0	34	0	2715811840	48	3833
2026-01-17 01:40:52.92	135.74	38.10	-38.3	-39.0	25.0	0.00e+00	0	34	0	2722103296	48	3847
2026-01-17 01:40:53.93	136.10	37.96	-38.4	-39.1	24.9	0.00e+00	0	34	0	2727346176	48	3898
2026-01-17 01:40:54.93	136.46	37.81	-38.4	-39.1	24.9	0.00e+00	0	34	0	2732589056	48	3880
2026-01-17 01:40:55.94	136.81	37.67	-38.3	-39.0	25.0	0.00e+00	0	34	0	2738880512	48	3863
2026-01-17 01:40:56.95	137.17	37.52	-38.1	-38.8	25.2	0.00e+00	0	34	0	2745171968	48	3756
2026-01-17 01:40:57.96	137.51	37.37	-38.2	-38.9	25.1	0.00e+00	0	34	0	2750414848	48	3789
2026-01-17 01:40:58.97	137.86	37.23	-38.1	-38.8	25.1	0.00e+00	0	34	0	2755657728	48	3772
2026-01-17 01:40:59.97	138.20	37.08	-38.3	-39.0	24.9	0.00e+00	0	34	0	2761949184	48	3859
2026-01-17 01:41:00.99	138.55	36.93	-38.4	-39.1	24.8	0.00e+00	0	34	0	2767192064	48	3906
2026-01-17 01:41:01.99	138.88	36.78	-38.5	-39.2	24.8	0.00e+00	0	34	0	2772434944	48	3949
2026-01-17 01:41:03.00	139.21	36.63	-38.6	-39.3	24.7	0.00e+00	0	34	0	2778726400	48	3965
2026-01-17 01:41:04.01	139.55	36.48	-38.6	-39.3	24.7	0.00e+00	0	34	0	2783969280	48	3970
2026-01-17 01:41:05.02	139.87	36.33	-38.5	-39.2	24.7	0.00e+00	0	34	0	2789212160	48	3952
2026-01-17 01:41:06.02	140.20	36.18	-38.7	-39.5	24.6	0.00e+00	0	34	0	2795503616	48	4054
2026-01-17 01:41:07.03	140.52	36.03	-38.8	-39.6	24.4	0.00e+00	0	34	0	2800746496	48	4108
2026-01-17 01:41:08.04	140.84	35.88	-38.8	-39.5	24.5	0.00e+00	0	34	0	2807037952	48	4073
2026-01-17 01:41:09.05	141.16	35.73	-38.7	-39.4	24.6	0.00e+00	0	34	0	2812280832	48	4037
2026-01-17 01:41:10.06	141.47	35.58	-38.7	-39.4	24.6	0.00e+00	0	34	0	2818572288	48	4017
2026-01-17 01:41:11.06	141.78	35.43	-38.7	-39.4	24.6	0.00e+00	0	34	0	2823815168	48	4012
2026-01-17 01:41:12.07	142.09	35.28	-38.3	-39.0	24.9	0.00e+00	0	34	0	2830106624	48	3854
2026-01-17 01:41:13.08	142.39	35.12	-38.3	-39.1	24.5	0.00e+00	0	34	0	2835349504	48	3879
2026-01-17 01:41:14.09	142.69	34.97	-38.2	-39.0	24.6	0.00e+00	0	34	0	2840592384	48	3837
2026-01-17 01:41:15.10	142.99	34.82	-38.3	-39.0	24.5	0.00e+00	0	34	0	2846883840	48	3860
2026-01-17 01:41:16.10	143.29	34.67	-38.4	-39.1	24.4	0.00e+00	0	34	0	2852126720	48	3902
2026-01-17 01:41:17.11	143.58	34.52	-38.2	-39.0	24.6	0.00e+00	0	34	0	2857369600	48	3828
2026-01-17 01:41:18.12	143.87	34.36	-38.4	-39.1	24.5	0.00e+00	0	34	0	2863661056	48	3896
2026-01-17 01:41:19.13	144.16	34.21	-38.3	-39.1	24.5	0.00e+00	0	34	0	2868903936	48	3885
2026-01-17 01:41:20.14	144.45	34.06	-38.4	-39.2	24.4	0.00e+00	0	34	0	2874146816	48	3919
2026-01-17 01:41:21.15	144.73	33.91	-38.6	-39.4	24.2	0.00e+00	0	34	0	2880438272	48	4008
2026-01-17 01:41:22.16	145.02	33.75	-38.6	-39.4	24.2	0.00e+00	0	34	0	2886729728	48	4026
2026-01-17 01:41:23.17	145.29	33.60	-38.5	-39.3	24.3	0.00e+00	0	34	0	2891972608	48	3986
2026-01-17 01:41:24.18	145.57	33.45	-38.5	-39.3	24.3	0.00e+00	0	34	0	2897215488	48	3963
2026-01-17 01:41:25.19	145.84	33.29	-38.3	-39.1	24.5	0.00e+00	0	34	0	2903506944	48	3869
2026-01-17 01:41:26.19	146.11	33.14	-38.2	-38.9	24.6	0.00e+00	0	34	0	2908749824	48	3817
2026-01-17 01:41:27.20	146.38	32.99	-38.3	-39.0	24.5	0.00e+00	0	34	0	2915041280	48	3844
2026-01-17 01:41:28.21	146.65	32.84	-38.3	-39.1	24.5	0.00e+00	0	34	0	2920284160	48	3885
2026-01-17 01:41:29.22	146.91	32.69	-38.4	-39.1	24.4	0.00e+00	0	34	0	2925527040	48	3911
2026-01-17 01:41:30.23	147.17	32.53	-38.5	-39.3	24.3	0.00e+00	0	34	0	2931818496	48	3973
2026-01-17 01:41:31.24	147.43	32.38	-38.6	-39.4	24.2	0.00e+00	0	34	0	2937061376	48	4029
2026-01-17 01:41:32.25	147.69	32.23	-38.6	-39.3	24.2	0.00e+00	0	34	0	2943352832	48	3991
2026-01-17 01:41:33.26	147.94	32.08	-38.5	-39.3	24.3	0.00e+00	0	34	0	2948595712	48	3967
2026-01-17 01:41:34.27	148.19	31.93	-38.5	-39.2	24.3	0.00e+00	0	34	0	2954887168	48	3948
2026-01-17 01:41:35.28	148.44	31.78	-38.4	-39.2	24.3	0.00e+00	0	34	0	2960130048	48	3929
2026-01-17 01:41:36.29	148.69	31.62	-38.5	-39.3	24.2	0.00e+00	0	34	0	2965372928	48	3962
2026-01-17 01:41:37.30	148.94	31.47	-38.5	-39.2	24.3	0.00e+00	0	34	0	2971664384	48	3957
2026-01-17 01:41:38.31	149.18	31.32	-38.6	-39.4	24.2	0.00e+00	0	34	0	2976907264	48	4006
2026-01-17 01:41:39.32	149.42	31.17	-38.7	-39.4	24.1	0.00e+00	0	34	0	2982150144	48	4043
2026-01-17 01:41:40.32	149.66	31.02	-38.6	-39.4	24.1	0.00e+00	0	34	0	2988441600	48	4033
2026-01-17 01:41:41.33	149.89	30.87	-38.7	-39.5	24.1	0.00e+00	0	34	0	2993684480	48	4067
2026-01-17 01:41:42.34	150.13	30.72	-38.8	-39.5	24.0	0.00e+00	0	34	0	2999975936	48	4090
2026-01-17 01:41:43.35	150.36	30.57	-38.7	-39.5	24.0	0.00e+00	0	34	0	3005218816	48	4088
2026-01-17 01:41:44.36	150.59	30.43	-38.7	-39.5	24.0	0.00e+00	0	34	0	3011510272	48	4079
2026-01-17 01:41:45.36	150.82	30.28	-38.6	-39.4	24.1	0.00e+00	0	34	0	3016753152	48	4032
2026-01-17 01:41:46.37	151.04	30.13	-38.7	-39.4	24.1	0.00e+00	0	34	0	3023044608	48	4039
2026-01-17 01:41:47.38	151.27	29.98	-38.6	-39.3	24.2	0.00e+00	0	34	0	3028287488	48	3993
2026-01-17 01:41:48.39	151.49	29.83	-38.5	-39.3	24.2	0.00e+00	0	34	0	3033530368	48	3979
2026-01-17 01:41:49.40	151.71	29.68	-38.5	-39.3	24.2	0.00e+00	0	34	0	3039821824	48	3979
2026-01-17 01:41:50.40	151.92	29.54	-38.5	-39.3	24.2	0.00e+00	0	34	0	3045064704	48	3959
2026-01-17 01:41:51.41	152.14	29.39	-38.6	-39.4	24.2	0.00e+00	0	34	0	3050307584	48	4009
2026-01-17 01:41:52.42	152.35	29.25	-38.5	-39.3	24.2	0.00e+00	0	34	0	3056599040	48	3980
2026-01-17 01:41:53.43	152.57	29.10	-38.6	-39.3	24.2	0.00e+00	0	34	0	3061841920	48	3999
2026-01-17 01:41:54.44	152.78	28.95	-38.5	-39.3	24.2	0.00e+00	0	34	0	3067084800	48	3976
2026-01-17 01:41:55.44	152.98	28.81	-38.5	-39.3	24.2	0.00e+00	0	34	0	3073376256	48	3959
2026-01-17 01:41:56.45	153.19	28.66	-38.6	-39.4	24.1	0.00e+00	0	34	0	3079667712	48	4012
2026-01-17 01:41:57.46	153.39	28.52	-38.6	-39.4	24.1	0.00e+00	0	34	0	3084910592	48	4008
2026-01-17 01:41:58.47	153.60	28.37	-38.6	-39.4	24.2	0.00e+00	0	34	0	3090153472	48	4006
2026-01-17 01:41:59.48	153.80	28.23	-38.7	-39.5	24.1	0.00e+00	0	34	0	3096444928	48	4053
2026-01-17 01:42:00.49	154.00	28.09	-38.8	-39.6	23.9	0.00e+00	0	34	0	3101687808	48	4111
2026-01-17 01:42:01.49	154.19	27.94	-38.9	-39.7	23.8	0.00e+00	0	34	0	3107979264	48	4183
2026-01-17 01:42:02.50	154.39	27.80	-38.9	-39.7	23.9	0.00e+00	0	34	0	3113222144	48	4165
2026-01-17 01:42:03.51	154.59	27.66	-39.0	-39.8	23.7	0.00e+00	0	34	0	3118465024	48	4226
2026-01-17 01:42:04.52	154.78	27.52	-39.0	-39.9	23.7	0.00e+00	0	34	0	3124756480	48	4246
2026-01-17 01:42:05.53	154.97	27.37	-39.0	-39.8	23.8	0.00e+00	0	34	0	3129999360	48	4207
2026-01-17 01:42:06.54	155.16	27.23	-39.0	-39.9	23.7	0.00e+00	0	34	0	3135242240	48	4245
2026-01-17 01:42:07.54	155.34	27.09	-38.9	-39.7	23.9	0.00e+00	0	34	0	3141533696	48	4162
2026-01-17 01:42:08.55	155.53	26.95	-38.9	-39.7	23.8	0.00e+00	0	34	0	3147825152	48	4185
2026-01-17 01:42:09.56	155.72	26.81	-38.8	-39.6	23.9	0.00e+00	0	34	0	3153068032	48	4134
2026-01-17 01:42:10.57	155.90	26.67	-38.7	-39.5	24.0	0.00e+00	0	34	0	3158310912	48	4068
2026-01-17 01:42:11.58	156.08	26.53	-38.7	-39.5	24.0	0.00e+00	0	34	0	3164602368	48	4077
2026-01-17 01:42:12.58	156.26	26.39	-38.8	-39.6	24.0	0.00e+00	0	34	0	3169845248	48	4100
2026-01-17 01:42:13.59	156.44	26.26	-38.9	-39.7	23.8	0.00e+00	0	34	0	3175088128	48	4171
2026-01-17 01:42:14.60	156.61	26.12	-38.9	-39.7	23.8	0.00e+00	0	34	0	3181379584	48	4154
2026-01-17 01:42:15.61	156.79	25.98	-38.9	-39.7	23.8	0.00e+00	0	34	0	3186622464	48	4152
2026-01-17 01:42:16.62	156.96	25.84	-39.1	-39.8	23.7	0.00e+00	0	34	0	3192913920	48	4241
2026-01-17 01:42:17.63	157.14	25.71	-39.1	-39.9	23.6	0.00e+00	0	34	0	3198156800	48	4264
2026-01-17 01:42:18.64	157.31	25.57	-39.1	-39.9	23.6	0.00e+00	0	34	0	3203399680	48	4273
2026-01-17 01:42:19.65	157.48	25.43	-39.1	-39.9	23.6	0.00e+00	0	34	0	3209691136	48	4287
2026-01-17 01:42:20.65	157.64	25.30	-39.1	-39.9	23.6	0.00e+00	0	34	0	3215982592	48	4289
2026-01-17 01:42:21.66	157.81	25.16	-39.1	-39.9	23.7	0.00e+00	0	34	0	3221225472	48	4263
2026-01-17 01:42:22.67	157.98	25.03	-39.2	-40.0	23.5	0.00e+00	0	34	0	3226468352	48	4332
2026-01-17 01:42:23.68	158.14	24.89	-39.1	-39.9	23.6	0.00e+00	0	34	0	3232759808	49	4048
2026-01-17 01:42:24.69	158.30	24.76	-39.1	-39.9	23.6	0.00e+00	0	34	0	3238002688	49	4041
2026-01-17 01:42:25.70	158.47	24.63	-39.0	-39.9	23.7	0.00e+00	0	34	0	3243245568	49	4006
2026-01-17 01:42:26.70	158.62	24.50	-39.1	-39.9	23.6	0.00e+00	0	34	0	3249537024	49	4036
2026-01-17 01:42:27.71	158.78	24.36	-39.1	-39.9	23.6	0.00e+00	0	34	0	3254779904	49	4013
2026-01-17 01:42:28.72	158.94	24.23	-39.1	-39.9	23.6	0.00e+00	0	34	0	3260022784	49	4021
2026-01-17 01:42:29.73	159.10	24.10	-39.2	-39.9	23.6	0.00e+00	0	34	0	3266314240	49	4042
2026-01-17 01:42:30.74	159.25	23.97	-39.3	-40.0	23.5	0.00e+00	0	34	0	3271557120	49	4096
2026-01-17 01:42:31.75	159.41	23.84	-39.1	-39.8	23.7	0.00e+00	0	34	0	3277848576	49	3998
2026-01-17 01:42:32.76	159.56	23.71	-39.1	-39.8	23.7	0.00e+00	0	34	0	3283091456	49	3987
2026-01-17 01:42:33.77	159.71	23.58	-39.0	-39.7	23.8	0.00e+00	0	34	0	3289382912	49	3951
2026-01-17 01:42:34.77	159.86	23.45	-39.1	-39.8	23.7	0.00e+00	0	34	0	3294625792	49	3982
2026-01-17 01:42:35.78	160.01	23.32	-39.1	-39.9	23.6	0.00e+00	0	34	0	3300917248	49	4018
2026-01-17 01:42:36.79	160.15	23.19	-39.2	-40.0	23.5	0.00e+00	0	34	0	3306160128	49	4064
2026-01-17 01:42:37.80	160.30	23.07	-39.3	-40.1	23.4	0.00e+00	0	35	0	3311403008	49	4120
2026-01-17 01:42:38.81	160.45	22.94	-39.3	-40.1	23.4	0.00e+00	0	34	0	3317694464	49	4138
2026-01-17 01:42:39.82	160.59	22.81	-39.5	-40.3	23.3	0.00e+00	0	34	0	3322937344	49	4199
2026-01-17 01:42:40.82	160.73	22.69	-39.6	-40.4	23.1	0.00e+00	0	34	0	3328180224	49	4268
2026-01-17 01:42:41.83	160.88	22.56	-39.6	-40.5	23.1	0.00e+00	0	34	0	3334471680	49	4299
2026-01-17 01:42:42.84	161.02	22.43	-39.8	-40.6	23.0	0.00e+00	0	34	0	3339714560	50	4122
2026-01-17 01:42:43.84	161.15	22.31	-39.9	-40.7	22.8	0.00e+00	0	34	0	3344957440	50	4187
2026-01-17 01:42:44.85	161.29	22.18	-39.9	-40.7	22.9	0.00e+00	0	34	0	3351248896	50	4180
2026-01-17 01:42:45.86	161.43	22.06	-39.9	-40.7	22.8	0.00e+00	0	34	0	3357540352	50	4193
2026-01-17 01:42:46.87	161.57	21.94	-39.8	-40.6	23.0	0.00e+00	0	34	0	3362783232	50	4130
2026-01-17 01:42:47.88	161.70	21.81	-39.8	-40.7	22.9	0.00e+00	0	34	0	3368026112	50	4147
2026-01-17 01:42:48.89	161.84	21.69	-39.7	-40.5	23.0	0.00e+00	0	34	0	3374317568	50	4091
2026-01-17 01:42:49.90	161.97	21.57	-39.8	-40.6	23.0	0.00e+00	0	34	0	3379560448	50	4107
2026-01-17 01:42:50.90	162.10	21.45	-39.6	-40.4	23.1	0.00e+00	0	34	0	3385851904	50	4023
2026-01-17 01:42:51.91	162.23	21.32	-39.7	-40.5	23.1	0.00e+00	0	34	0	3391094784	50	4058
2026-01-17 01:42:52.92	162.37	21.20	-39.7	-40.5	23.0	0.00e+00	0	34	0	3396337664	50	4061
2026-01-17 01:42:53.93	162.49	21.08	-39.6	-40.4	23.1	0.00e+00	0	34	0	3402629120	50	4043
2026-01-17 01:42:54.94	162.62	20.96	-39.7	-40.5	23.1	0.00e+00	0	34	0	3407872000	50	4054
2026-01-17 01:42:55.95	162.75	20.84	-39.8	-40.6	23.0	0.00e+00	0	35	0	3413114880	50	4108
2026-01-17 01:42:56.95	162.88	20.72	-39.8	-40.6	22.9	0.00e+00	0	34	0	3419406336	50	4125
2026-01-17 01:42:57.96	163.00	20.60	-39.8	-40.6	22.9	0.00e+00	0	34	0	3425697792	50	4140
2026-01-17 01:42:58.97	163.13	20.49	-39.9	-40.7	22.9	0.00e+00	0	34	0	3430940672	50	4169
2026-01-17 01:42:59.97	163.25	20.37	-39.9	-40.7	22.8	0.00e+00	0	34	0	3436183552	50	4184
2026-01-17 01:43:00.98	163.37	20.25	-40.0	-40.8	22.7	0.00e+00	0	34	0	3442475008	50	4226
2026-01-17 01:43:01.98	163.49	20.13	-39.9	-40.8	22.8	0.00e+00	0	34	0	3447717888	50	4194
2026-01-17 01:43:02.99	163.61	20.02	-39.9	-40.8	22.8	0.00e+00	0	34	0	3452960768	50	4197
2026-01-17 01:43:04.00	163.74	19.90	-39.9	-40.7	22.8	0.00e+00	0	34	0	3459252224	50	4166
2026-01-17 01:43:05.01	163.85	19.78	-39.9	-40.7	22.8	0.00e+00	0	34	0	3464495104	50	4154
2026-01-17 01:43:06.02	163.97	19.67	-40.0	-40.8	22.7	0.00e+00	0	34	0	3470786560	50	4211
2026-01-17 01:43:07.03	164.09	19.55	-40.0	-40.8	22.7	0.00e+00	0	34	0	3476029440	50	4211
2026-01-17 01:43:08.04	164.21	19.44	-39.9	-40.7	22.8	0.00e+00	0	34	0	3481272320	50	4170
2026-01-17 01:43:09.05	164.32	19.32	-40.0	-40.8	22.7	0.00e+00	0	34	0	3487563776	50	4229
2026-01-17 01:43:10.06	164.44	19.21	-40.1	-40.9	22.6	0.00e+00	0	34	0	3492806656	50	4289
2026-01-17 01:43:11.07	164.55	19.10	-40.2	-41.0	22.5	0.00e+00	0	34	0	3499098112	50	4328
2026-01-17 01:43:12.08	164.67	18.98	-40.3	-41.1	22.4	0.00e+00	0	34	0	3504340992	51	4133
2026-01-17 01:43:13.08	164.78	18.87	-40.3	-41.1	22.4	0.00e+00	0	34	0	3510632448	51	4142
2026-01-17 01:43:14.09	164.89	18.76	-40.4	-41.3	22.3	0.00e+00	0	34	0	3515875328	51	4213
2026-01-17 01:43:15.10	165.00	18.65	-40.5	-41.4	22.2	0.00e+00	0	34	0	3521118208	51	4254
2026-01-17 01:43:16.11	165.11	18.54	-40.5	-41.4	22.2	0.00e+00	0	34	0	3527409664	51	4254
2026-01-17 01:43:17.12	165.22	18.42	-40.6	-41.4	22.1	0.00e+00	0	34	0	3532652544	51	4289
2026-01-17 01:43:18.12	165.33	18.32	-40.6	-41.4	22.1	0.00e+00	0	34	0	3537895424	51	4289
2026-01-17 01:43:19.13	165.44	18.20	-40.6	-41.5	22.0	0.00e+00	0	34	0	3544186880	52	4059
2026-01-17 01:43:20.14	165.55	18.09	-40.6	-41.5	22.0	0.00e+00	0	34	0	3549429760	52	4067
2026-01-17 01:43:21.15	165.65	17.99	-40.6	-41.5	22.0	0.00e+00	0	34	0	3555721216	52	4073
2026-01-17 01:43:22.16	165.76	17.88	-40.6	-41.5	22.0	0.00e+00	0	34	0	3560964096	52	4079
2026-01-17 01:43:23.16	165.86	17.77	-40.5	-41.3	22.1	0.00e+00	0	34	0	3567255552	52	4000
2026-01-17 01:43:24.17	165.97	17.66	-40.4	-41.3	22.2	0.00e+00	0	34	0	3572498432	52	3968
2026-01-17 01:43:25.18	166.07	17.55	-40.4	-41.3	22.2	0.00e+00	0	34	0	3578789888	52	3987
2026-01-17 01:43:26.19	166.17	17.44	-40.4	-41.3	22.2	0.00e+00	0	34	0	3584032768	52	3984
2026-01-17 01:43:27.20	166.28	17.34	-40.6	-41.4	22.1	0.00e+00	0	34	0	3589275648	52	4039
2026-01-17 01:43:28.21	166.38	17.23	-40.4	-41.2	22.2	0.00e+00	0	34	0	3595567104	52	3953
2026-01-17 01:43:29.22	166.48	17.12	-40.4	-41.3	22.2	0.00e+00	0	34	0	3600809984	52	3965
2026-01-17 01:43:30.23	166.58	17.02	-40.4	-41.3	22.2	0.00e+00	0	34	0	3606052864	52	3981
2026-01-17 01:43:31.24	166.68	16.91	-40.5	-41.4	22.1	0.00e+00	0	34	0	3612344320	52	4016
2026-01-17 01:43:32.25	166.78	16.81	-40.6	-41.5	22.0	0.00e+00	0	34	0	3617587200	52	4060
2026-01-17 01:43:33.26	166.88	16.70	-40.7	-41.6	21.9	0.00e+00	0	34	0	3623878656	52	4108
2026-01-17 01:43:34.27	166.97	16.60	-40.7	-41.6	21.9	0.00e+00	0	34	0	3629121536	52	4101
2026-01-17 01:43:35.27	167.07	16.49	-40.8	-41.7	21.8	0.00e+00	0	34	0	3635412992	52	4159
2026-01-17 01:43:36.28	167.17	16.39	-40.9	-41.8	21.7	0.00e+00	0	34	0	3640655872	52	4198
2026-01-17 01:43:37.29	167.26	16.29	-40.9	-41.8	21.6	0.00e+00	0	34	0	3645898752	52	4235
2026-01-17 01:43:38.30	167.36	16.18	-41.0	-41.9	21.6	0.00e+00	0	34	0	3652190208	52	4246
2026-01-17 01:43:39.31	167.45	16.08	-41.1	-42.0	21.5	0.00e+00	0	34	0	3657433088	52	4306
2026-01-17 01:43:40.32	167.54	15.98	-41.1	-42.0	21.5	0.00e+00	0	34	0	3663724544	52	4311
2026-01-17 01:43:41.32	167.64	15.88	-41.2	-42.1	21.4	0.00e+00	0	34	0	3668967424	52	4357
2026-01-17 01:43:42.33	167.73	15.78	-41.1	-42.0	21.5	0.00e+00	0	34	0	3674210304	52	4313
2026-01-17 01:43:43.34	167.82	15.67	-41.2	-42.1	21.4	0.00e+00	0	34	0	3680501760	52	4357
2026-01-17 01:43:44.35	167.91	15.57	-41.1	-42.0	21.4	0.00e+00	0	34	0	3686793216	52	4335
2026-01-17 01:43:45.36	168.00	15.47	-41.2	-42.2	21.4	0.00e+00	0	35	0	3692036096	53	4148
2026-01-17 01:43:46.37	168.09	15.37	-41.2	-42.1	21.4	0.00e+00	0	34	0	3697278976	53	4106
2026-01-17 01:43:47.38	168.18	15.27	-41.1	-42.0	21.4	0.00e+00	0	34	0	3703570432	53	4094
2026-01-17 01:43:48.39	168.27	15.17	-41.2	-42.1	21.4	0.00e+00	0	34	0	3708813312	53	4120
2026-01-17 01:43:49.40	168.36	15.07	-41.2	-42.1	21.4	0.00e+00	0	34	0	3714056192	53	4111
2026-01-17 01:43:50.41	168.45	14.97	-41.2	-42.1	21.4	0.00e+00	0	34	0	3720347648	53	4135
2026-01-17 01:43:51.42	168.54	14.88	-41.2	-42.2	21.3	0.00e+00	0	34	0	3725590528	53	4146
2026-01-17 01:43:52.42	168.62	14.78	-41.3	-42.3	21.2	0.00e+00	0	34	0	3730833408	53	4200
2026-01-17 01:43:53.43	168.71	14.68	-41.3	-42.2	21.3	0.00e+00	0	34	0	3737124864	53	4173
2026-01-17 01:43:54.44	168.80	14.58	-41.3	-42.3	21.2	0.00e+00	0	34	0	3742367744	53	4204
2026-01-17 01:43:55.45	168.88	14.49	-41.5	-42.4	21.1	0.00e+00	0	34	0	3748659200	53	4262
2026-01-17 01:43:56.46	168.97	14.39	-41.5	-42.4	21.1	0.00e+00	0	34	0	3753902080	53	4276
2026-01-17 01:43:57.47	169.05	14.29	-41.6	-42.5	21.0	0.00e+00	0	34	0	3760193536	53	4321
2026-01-17 01:43:58.48	169.13	14.20	-41.6	-42.5	20.9	0.00e+00	0	34	0	3765436416	53	4328
2026-01-17 01:43:59.49	169.22	14.10	-41.5	-42.4	21.0	0.00e+00	0	34	0	3771727872	53	4285
2026-01-17 01:44:00.50	169.30	14.01	-41.5	-42.5	21.0	0.00e+00	0	34	0	3776970752	53	4294
2026-01-17 01:44:01.51	169.38	13.91	-41.6	-42.5	21.0	0.00e+00	0	34	0	3782213632	53	4314
