passes_logs/2026/01/17/R3.2S_Murmansk/R3.2S_Murmansk__20260117_112954_FENGYUN_3D_rec.log

#Pass ID: 20260117_112954_FENGYUN 3D
#Satellite: FENGYUN 3D
#Configuration: FENGYUN 3D
#almurnet v.1.7.20251203
#Start time: 2026-01-17 11:29:55

#Version: 2.2.20231116
#Station: R3.2S_Murmansk
#Location: 33.079688 lon 68.888172 lat
#TLE: 1 43010U 17072A   26016.62453405 -.00000112  00000+0 -31355-4 0  9995
#TLE: 2 43010  98.9932 348.4654 0002369 105.3910 254.7528 14.19694900423480

#Time	Az	El	Level	Level2	SNR	BER	BlckErr	Temp	State	Recorded	gain1	gain2
2026-01-17 11:29:55.15	149.90	2.02	-51.8	-63.8	3.8	8.47e-01	0	33	0	0	75	14067
2026-01-17 11:29:56.16	149.91	2.09	-51.8	-63.8	3.8	8.46e-01	0	32	104	0	74	14970
2026-01-17 11:29:57.17	149.91	2.15	-51.8	-63.8	3.8	8.46e-01	0	33	104	0	74	14922
2026-01-17 11:29:58.18	149.91	2.22	-51.8	-63.8	3.8	8.47e-01	0	33	104	0	74	14909
2026-01-17 11:29:59.19	149.91	2.28	-51.8	-63.8	3.8	8.45e-01	0	33	104	0	74	14884
2026-01-17 11:30:00.20	149.91	2.35	-51.8	-63.8	3.8	8.47e-01	0	33	104	0	74	14883
2026-01-17 11:30:01.21	149.91	2.42	-51.8	-63.7	3.8	8.46e-01	0	33	104	0	74	14838
2026-01-17 11:30:02.22	149.92	2.48	-51.8	-63.7	3.8	8.46e-01	0	33	104	0	74	14780
2026-01-17 11:30:03.23	149.92	2.55	-51.8	-63.7	3.8	8.46e-01	0	33	104	0	74	14785
2026-01-17 11:30:04.23	149.92	2.61	-51.8	-63.7	3.8	8.45e-01	0	33	104	0	74	14793
2026-01-17 11:30:05.24	149.92	2.68	-51.8	-63.7	3.8	8.46e-01	0	33	104	0	74	14801
2026-01-17 11:30:06.25	149.92	2.75	-51.8	-63.7	3.8	8.46e-01	0	33	104	0	74	14724
2026-01-17 11:30:07.26	149.92	2.81	-51.8	-63.7	3.8	8.46e-01	0	33	104	0	74	14751
2026-01-17 11:30:08.27	149.92	2.88	-51.8	-63.7	3.8	8.46e-01	0	33	104	0	74	14748
2026-01-17 11:30:09.28	149.93	2.95	-51.8	-63.6	3.8	8.46e-01	0	33	104	0	74	14684
2026-01-17 11:30:10.28	149.93	3.01	-51.8	-63.7	3.8	8.44e-01	0	33	104	0	74	14710
2026-01-17 11:30:11.29	149.93	3.08	-51.8	-63.7	3.8	8.46e-01	0	33	104	0	74	14752
2026-01-17 11:30:12.30	149.93	3.15	-51.8	-63.6	3.8	8.46e-01	0	33	104	0	74	14600
2026-01-17 11:30:13.31	149.93	3.22	-51.8	-63.5	3.8	8.47e-01	0	33	104	0	74	14415
2026-01-17 11:30:14.32	149.93	3.28	-51.8	-63.2	3.8	8.46e-01	0	33	104	0	74	14022
2026-01-17 11:30:15.33	149.94	3.35	-51.8	-63.1	3.8	8.47e-01	0	33	104	0	74	13843
2026-01-17 11:30:16.34	149.94	3.42	-51.8	-63.0	3.8	8.46e-01	0	33	104	0	74	13578
2026-01-17 11:30:17.35	149.94	3.49	-51.7	-62.6	3.8	8.45e-01	0	33	104	0	74	13005
2026-01-17 11:30:18.36	149.94	3.56	-51.7	-62.2	3.8	8.45e-01	0	33	104	0	74	12385
2026-01-17 11:30:19.36	149.94	3.62	-51.6	-61.6	3.9	8.45e-01	0	33	104	0	74	11589
2026-01-17 11:30:20.37	149.94	3.69	-51.6	-61.4	3.9	8.43e-01	0	33	104	0	74	11417
2026-01-17 11:30:21.38	149.95	3.76	-51.5	-60.7	4.1	8.42e-01	0	33	0	0	74	10443
2026-01-17 11:30:22.39	149.95	3.83	-51.4	-60.1	4.2	8.38e-01	0	33	0	0	74	9723
2026-01-17 11:30:23.40	149.95	3.90	-51.3	-59.2	4.5	8.28e-01	0	33	0	0	74	8828
2026-01-17 11:30:24.41	149.95	3.97	-51.2	-58.5	4.8	7.94e-01	0	34	0	0	74	8149
2026-01-17 11:30:25.42	149.95	4.04	-51.0	-57.7	5.3	7.59e-01	0	34	0	0	74	7443
2026-01-17 11:30:26.42	149.95	4.11	-50.7	-56.5	6.1	5.84e-01	0	33	0	2097152	73	6866
2026-01-17 11:30:27.43	149.95	4.18	-50.1	-54.9	7.5	1.53e-01	0	33	0	7340032	72	6049
2026-01-17 11:30:28.44	149.96	4.25	-49.7	-53.7	8.9	6.57e-02	0	33	0	13631488	71	5537
2026-01-17 11:30:29.45	149.96	4.32	-48.8	-52.0	10.6	6.11e-03	0	33	0	19922944	69	5133
2026-01-17 11:30:30.46	149.96	4.39	-48.2	-50.9	11.7	1.28e-03	0	34	0	25165824	68	4801
2026-01-17 11:30:31.46	149.96	4.46	-47.6	-50.1	12.5	2.51e-04	0	33	0	30408704	67	4616
2026-01-17 11:30:32.47	149.96	4.53	-46.8	-48.8	13.9	1.60e-05	0	34	0	36700160	65	4469
2026-01-17 11:30:33.48	149.96	4.60	-46.5	-48.5	14.2	2.20e-06	0	33	0	41943040	65	4314
2026-01-17 11:30:34.49	149.96	4.68	-46.2	-48.0	14.6	1.10e-06	0	33	0	47185920	64	4340
2026-01-17 11:30:35.50	149.97	4.75	-45.9	-47.6	15.2	0.00e+00	0	34	0	53477376	63	4358
2026-01-17 11:30:36.51	149.97	4.82	-45.3	-46.8	15.9	0.00e+00	0	34	0	58720256	62	4239
2026-01-17 11:30:37.51	149.97	4.89	-44.7	-46.1	16.7	0.00e+00	0	34	0	63963136	61	4118
2026-01-17 11:30:38.53	149.97	4.96	-44.9	-46.4	16.4	0.00e+00	0	34	0	70254592	60	4502
2026-01-17 11:30:39.53	149.97	5.03	-44.9	-46.3	16.4	0.00e+00	0	34	0	75497472	60	4484
2026-01-17 11:30:40.54	149.97	5.11	-44.5	-45.8	17.0	0.00e+00	0	34	0	81788928	60	4225
2026-01-17 11:30:41.55	149.97	5.18	-44.6	-46.0	16.9	0.00e+00	0	34	0	87031808	60	4299
2026-01-17 11:30:42.56	149.98	5.25	-45.1	-46.6	16.4	0.00e+00	0	34	0	93323264	60	4619
2026-01-17 11:30:43.57	149.98	5.33	-46.2	-48.0	14.9	5.70e-06	0	34	0	98566144	64	4319
2026-01-17 11:30:44.58	149.98	5.40	-44.8	-46.2	16.7	0.00e+00	0	34	0	104857600	60	4424
2026-01-17 11:30:45.58	149.98	5.47	-44.8	-46.2	16.6	1.47e-03	0	34	0	110100480	61	4166
2026-01-17 11:30:46.59	149.98	5.55	-44.4	-45.7	17.5	0.00e+00	0	34	0	115343360	59	4433
2026-01-17 11:30:47.60	149.98	5.62	-44.4	-45.7	17.5	0.00e+00	0	34	0	121634816	59	4421
2026-01-17 11:30:48.61	149.98	5.69	-44.3	-45.6	17.6	0.00e+00	0	34	0	126877696	59	4391
2026-01-17 11:30:49.62	149.98	5.77	-44.2	-45.4	17.8	0.00e+00	0	34	0	132120576	59	4286
2026-01-17 11:30:50.62	149.99	5.84	-44.3	-45.7	17.6	0.00e+00	0	34	0	138412032	59	4404
2026-01-17 11:30:51.63	149.99	5.92	-44.4	-45.8	17.5	0.00e+00	0	34	0	143654912	59	4450
2026-01-17 11:30:52.64	149.99	5.99	-44.2	-45.5	17.8	0.00e+00	0	34	0	148897792	59	4324
2026-01-17 11:30:53.65	149.99	6.07	-44.5	-45.8	17.5	0.00e+00	0	34	0	155189248	59	4484
2026-01-17 11:30:54.66	149.99	6.14	-44.3	-45.6	17.7	0.00e+00	0	34	0	161480704	59	4376
2026-01-17 11:30:55.66	149.99	6.22	-44.4	-45.7	17.7	0.00e+00	0	34	0	166723584	59	4413
2026-01-17 11:30:56.67	149.99	6.29	-44.2	-45.5	17.9	0.00e+00	0	34	0	171966464	59	4306
2026-01-17 11:30:57.68	149.99	6.37	-44.4	-45.7	17.7	0.00e+00	0	34	0	178257920	59	4414
2026-01-17 11:30:58.69	149.99	6.45	-44.3	-45.6	17.8	0.00e+00	0	34	0	183500800	59	4356
2026-01-17 11:30:59.70	150.00	6.52	-44.2	-45.5	17.9	0.00e+00	0	34	0	189792256	59	4315
2026-01-17 11:31:00.71	150.00	6.60	-43.9	-45.2	18.3	0.00e+00	0	34	0	195035136	59	4151
2026-01-17 11:31:01.72	150.00	6.68	-44.0	-45.2	18.2	0.00e+00	0	34	0	200278016	59	4191
2026-01-17 11:31:02.73	150.00	6.75	-44.0	-45.3	18.2	0.00e+00	0	34	0	206569472	59	4207
2026-01-17 11:31:03.73	150.00	6.83	-43.8	-45.0	18.4	0.00e+00	0	34	0	211812352	59	4070
2026-01-17 11:31:04.74	150.00	6.91	-44.0	-45.2	18.2	0.00e+00	0	34	0	217055232	59	4191
2026-01-17 11:31:05.75	150.00	6.99	-43.9	-45.2	18.3	0.00e+00	0	34	0	223346688	59	4146
2026-01-17 11:31:06.76	150.00	7.07	-44.0	-45.2	18.3	0.00e+00	0	34	0	229638144	59	4177
2026-01-17 11:31:07.77	150.00	7.14	-43.8	-45.0	18.5	0.00e+00	0	34	0	234881024	59	4057
2026-01-17 11:31:08.78	150.01	7.22	-44.0	-45.2	18.3	0.00e+00	0	34	0	240123904	59	4170
2026-01-17 11:31:09.78	150.01	7.30	-44.0	-45.2	18.3	0.00e+00	0	34	0	246415360	59	4160
2026-01-17 11:31:10.79	150.01	7.38	-43.9	-45.0	18.5	0.00e+00	0	34	0	251658240	59	4094
2026-01-17 11:31:11.80	150.01	7.46	-43.7	-44.8	18.7	0.00e+00	0	34	0	256901120	59	3993
2026-01-17 11:31:12.81	150.01	7.54	-43.6	-44.8	18.8	0.00e+00	0	34	0	263192576	59	3973
2026-01-17 11:31:13.82	150.01	7.62	-44.1	-45.4	18.2	0.00e+00	0	34	0	268435456	59	4250
2026-01-17 11:31:14.83	150.01	7.70	-43.7	-44.8	18.7	0.00e+00	0	34	0	274726912	59	3991
2026-01-17 11:31:15.84	150.01	7.78	-43.9	-45.1	18.5	0.00e+00	0	34	0	279969792	59	4120
2026-01-17 11:31:16.84	150.01	7.86	-43.7	-44.8	18.8	0.00e+00	0	34	0	285212672	59	3987
2026-01-17 11:31:17.85	150.01	7.94	-43.3	-44.4	19.2	0.00e+00	0	34	0	291504128	58	4033
2026-01-17 11:31:18.86	150.02	8.02	-43.4	-44.5	19.1	0.00e+00	0	34	0	297795584	58	4081
2026-01-17 11:31:19.87	150.02	8.10	-43.2	-44.3	19.3	0.00e+00	0	34	0	303038464	58	3986
2026-01-17 11:31:20.88	150.02	8.19	-43.4	-44.5	19.1	0.00e+00	0	34	0	308281344	58	4073
2026-01-17 11:31:21.89	150.02	8.27	-43.4	-44.6	19.1	0.00e+00	0	34	0	314572800	58	4108
2026-01-17 11:31:22.90	150.02	8.35	-43.5	-44.6	19.1	0.00e+00	0	34	0	319815680	58	4105
2026-01-17 11:31:23.91	150.02	8.43	-43.3	-44.4	19.2	0.00e+00	0	34	0	325058560	58	4047
2026-01-17 11:31:24.91	150.02	8.51	-43.1	-44.2	19.4	0.00e+00	0	34	0	331350016	58	3939
2026-01-17 11:31:25.93	150.02	8.60	-43.2	-44.2	19.4	0.00e+00	0	34	0	336592896	58	3954
2026-01-17 11:31:26.93	150.02	8.68	-43.0	-44.1	19.6	0.00e+00	0	34	0	341835776	58	3895
2026-01-17 11:31:27.94	150.02	8.76	-43.2	-44.3	19.4	0.00e+00	0	34	0	348127232	58	3979
2026-01-17 11:31:28.95	150.02	8.85	-43.0	-44.0	19.7	0.00e+00	0	34	0	354418688	58	3859
2026-01-17 11:31:29.96	150.02	8.93	-43.1	-44.1	19.6	0.00e+00	0	34	0	359661568	58	3895
2026-01-17 11:31:30.97	150.02	9.02	-43.1	-44.1	19.6	0.00e+00	0	34	0	364904448	58	3894
2026-01-17 11:31:31.98	150.03	9.10	-43.0	-44.0	19.7	0.00e+00	0	35	0	371195904	57	4077
2026-01-17 11:31:32.99	150.03	9.19	-43.0	-44.1	19.6	0.00e+00	0	34	0	376438784	57	4110
2026-01-17 11:31:34.00	150.03	9.27	-42.9	-43.9	19.8	0.00e+00	0	34	0	382730240	57	4030
2026-01-17 11:31:35.01	150.03	9.36	-42.9	-43.9	19.8	0.00e+00	0	34	0	387973120	57	4037
2026-01-17 11:31:36.01	150.03	9.44	-42.8	-43.9	19.8	0.00e+00	0	34	0	393216000	57	4011
2026-01-17 11:31:37.02	150.03	9.53	-42.8	-43.8	19.9	0.00e+00	0	34	0	399507456	57	3982
2026-01-17 11:31:38.03	150.03	9.62	-42.9	-43.9	19.8	0.00e+00	0	34	0	404750336	57	4045
2026-01-17 11:31:39.04	150.03	9.70	-42.7	-43.8	20.0	0.00e+00	0	34	0	409993216	57	3959
2026-01-17 11:31:40.05	150.03	9.79	-42.8	-43.9	19.9	0.00e+00	0	34	0	416284672	57	4020
2026-01-17 11:31:41.06	150.03	9.88	-42.7	-43.8	20.0	0.00e+00	0	34	0	422576128	57	3966
2026-01-17 11:31:42.07	150.03	9.97	-42.7	-43.7	20.0	0.00e+00	0	34	0	427819008	57	3949
2026-01-17 11:31:43.08	150.03	10.05	-42.7	-43.7	20.0	0.00e+00	0	34	0	433061888	57	3946
2026-01-17 11:31:44.08	150.03	10.14	-42.6	-43.6	20.2	0.00e+00	0	34	0	439353344	57	3886
2026-01-17 11:31:45.09	150.03	10.23	-42.8	-43.8	20.0	0.00e+00	0	34	0	444596224	57	3981
2026-01-17 11:31:46.10	150.03	10.32	-42.6	-43.6	20.2	0.00e+00	0	34	0	449839104	57	3883
2026-01-17 11:31:47.11	150.03	10.41	-42.6	-43.7	20.1	0.00e+00	0	34	0	456130560	57	3917
2026-01-17 11:31:48.12	150.03	10.50	-42.6	-43.6	20.2	0.00e+00	0	34	0	461373440	57	3898
2026-01-17 11:31:49.13	150.03	10.59	-42.7	-43.7	20.1	0.00e+00	0	34	0	467664896	57	3924
2026-01-17 11:31:50.14	150.03	10.68	-42.7	-43.7	20.1	0.00e+00	0	34	0	472907776	57	3928
2026-01-17 11:31:51.15	150.04	10.77	-42.6	-43.6	20.2	0.00e+00	0	34	0	479199232	57	3879
2026-01-17 11:31:52.16	150.04	10.86	-42.5	-43.5	20.3	0.00e+00	0	35	0	484442112	56	4088
2026-01-17 11:31:53.17	150.04	10.95	-42.5	-43.5	20.3	0.00e+00	0	34	0	490733568	56	4079
2026-01-17 11:31:54.18	150.04	11.04	-42.6	-43.6	20.2	0.00e+00	0	34	0	495976448	56	4144
2026-01-17 11:31:55.19	150.04	11.14	-42.6	-43.6	20.2	0.00e+00	0	34	0	501219328	56	4135
2026-01-17 11:31:56.20	150.04	11.23	-42.7	-43.7	20.1	0.00e+00	0	35	0	507510784	56	4185
2026-01-17 11:31:57.21	150.04	11.32	-42.6	-43.6	20.2	0.00e+00	0	35	0	512753664	56	4126
2026-01-17 11:31:58.21	150.04	11.41	-42.6	-43.6	20.2	0.00e+00	0	35	0	517996544	56	4140
2026-01-17 11:31:59.22	150.04	11.51	-42.7	-43.7	20.2	0.00e+00	0	34	0	524288000	56	4153
2026-01-17 11:32:00.23	150.04	11.60	-42.5	-43.5	20.3	0.00e+00	0	34	0	529530880	56	4076
2026-01-17 11:32:01.24	150.04	11.69	-42.5	-43.5	20.3	0.00e+00	0	35	0	534773760	56	4079
2026-01-17 11:32:02.25	150.04	11.79	-42.5	-43.5	20.4	0.00e+00	0	34	0	541065216	56	4053
2026-01-17 11:32:03.25	150.04	11.88	-42.6	-43.5	20.3	0.00e+00	0	35	0	547356672	56	4096
2026-01-17 11:32:04.26	150.04	11.98	-42.5	-43.4	20.4	0.00e+00	0	34	0	552599552	56	4049
2026-01-17 11:32:05.27	150.04	12.07	-42.5	-43.5	20.4	0.00e+00	0	34	0	557842432	56	4059
2026-01-17 11:32:06.28	150.04	12.17	-42.3	-43.3	20.5	0.00e+00	0	35	0	564133888	56	3991
2026-01-17 11:32:07.29	150.04	12.27	-42.3	-43.3	20.5	0.00e+00	0	34	0	569376768	56	3989
2026-01-17 11:32:08.30	150.04	12.36	-42.4	-43.4	20.5	0.00e+00	0	35	0	575668224	56	4013
2026-01-17 11:32:09.31	150.04	12.46	-42.3	-43.3	20.6	0.00e+00	0	35	0	580911104	56	3974
2026-01-17 11:32:10.32	150.04	12.56	-42.3	-43.3	20.6	0.00e+00	0	34	0	586153984	56	3980
2026-01-17 11:32:11.33	150.04	12.66	-42.3	-43.3	20.6	0.00e+00	0	34	0	592445440	56	3972
2026-01-17 11:32:12.34	150.04	12.75	-42.2	-43.2	20.7	0.00e+00	0	35	0	597688320	56	3927
2026-01-17 11:32:13.34	150.04	12.85	-42.2	-43.2	20.7	0.00e+00	0	34	0	602931200	56	3925
2026-01-17 11:32:14.35	150.04	12.95	-42.3	-43.2	20.6	0.00e+00	0	34	0	609222656	56	3944
2026-01-17 11:32:15.36	150.04	13.05	-42.1	-43.0	20.9	0.00e+00	0	34	0	615514112	56	3854
2026-01-17 11:32:16.37	150.04	13.15	-42.2	-43.1	20.7	0.00e+00	0	34	0	620756992	56	3898
2026-01-17 11:32:17.38	150.04	13.25	-42.2	-43.1	20.7	0.00e+00	0	35	0	625999872	56	3903
2026-01-17 11:32:18.39	150.04	13.35	-42.2	-43.2	20.7	0.00e+00	0	35	0	632291328	56	3945
2026-01-17 11:32:19.40	150.04	13.45	-42.3	-43.2	20.6	0.00e+00	0	34	0	637534208	56	3955
2026-01-17 11:32:20.41	150.04	13.55	-42.1	-43.0	20.9	0.00e+00	0	34	0	642777088	56	3841
2026-01-17 11:32:21.42	150.04	13.66	-41.9	-42.8	21.0	0.00e+00	0	34	0	649068544	55	3992
2026-01-17 11:32:22.43	150.04	13.76	-41.9	-42.8	21.0	0.00e+00	0	35	0	654311424	55	3976
2026-01-17 11:32:23.44	150.04	13.86	-41.8	-42.7	21.0	0.00e+00	0	34	0	660602880	55	3958
2026-01-17 11:32:24.45	150.04	13.97	-41.7	-42.6	21.1	0.00e+00	0	35	0	665845760	55	3903
2026-01-17 11:32:25.46	150.03	14.07	-41.7	-42.7	21.1	0.00e+00	0	35	0	672137216	55	3917
2026-01-17 11:32:26.46	150.03	14.17	-41.6	-42.5	21.3	0.00e+00	0	35	0	677380096	55	3852
2026-01-17 11:32:27.47	150.03	14.28	-41.6	-42.5	21.2	0.00e+00	0	35	0	683671552	55	3867
2026-01-17 11:32:28.48	150.03	14.38	-41.6	-42.5	21.3	0.00e+00	0	35	0	688914432	55	3828
2026-01-17 11:32:29.49	150.03	14.49	-41.5	-42.4	21.3	0.00e+00	0	35	0	694157312	55	3815
2026-01-17 11:32:30.50	150.03	14.59	-41.4	-42.3	21.5	0.00e+00	0	35	0	700448768	54	3960
2026-01-17 11:32:31.51	150.03	14.70	-41.5	-42.4	21.4	0.00e+00	0	34	0	705691648	54	4012
2026-01-17 11:32:32.52	150.03	14.81	-41.5	-42.4	21.3	0.00e+00	0	35	0	710934528	54	4042
2026-01-17 11:32:33.52	150.03	14.91	-41.5	-42.4	21.4	0.00e+00	0	35	0	717225984	54	4017
2026-01-17 11:32:34.53	150.03	15.02	-41.2	-42.1	21.7	0.00e+00	0	35	0	722468864	54	3880
2026-01-17 11:32:35.54	150.03	15.13	-41.3	-42.2	21.6	0.00e+00	0	35	0	727711744	54	3927
2026-01-17 11:32:36.55	150.03	15.24	-41.3	-42.2	21.6	0.00e+00	0	35	0	734003200	54	3929
2026-01-17 11:32:37.56	150.03	15.35	-41.3	-42.2	21.6	0.00e+00	0	35	0	740294656	54	3934
2026-01-17 11:32:38.57	150.03	15.46	-41.1	-41.9	21.8	0.00e+00	0	35	0	745537536	54	3819
2026-01-17 11:32:39.58	150.03	15.57	-40.9	-41.8	22.0	0.00e+00	0	34	0	750780416	53	3977
2026-01-17 11:32:40.58	150.03	15.68	-41.1	-41.9	21.9	0.00e+00	0	34	0	757071872	53	4036
2026-01-17 11:32:41.59	150.02	15.79	-40.9	-41.8	22.0	0.00e+00	0	35	0	762314752	53	3989
2026-01-17 11:32:42.60	150.02	15.90	-41.0	-41.9	21.9	0.00e+00	0	35	0	768606208	53	4013
2026-01-17 11:32:43.61	150.02	16.02	-40.9	-41.8	22.0	0.00e+00	0	35	0	773849088	53	3964
2026-01-17 11:32:44.61	150.02	16.13	-40.9	-41.7	22.0	0.00e+00	0	35	0	779091968	53	3949
2026-01-17 11:32:45.63	150.02	16.24	-40.7	-41.6	22.2	0.00e+00	0	35	0	785383424	53	3890
2026-01-17 11:32:46.63	150.02	16.36	-40.9	-41.7	22.0	0.00e+00	0	35	0	790626304	53	3942
2026-01-17 11:32:47.64	150.02	16.47	-40.8	-41.6	22.2	0.00e+00	0	35	0	795869184	53	3902
2026-01-17 11:32:48.65	150.02	16.59	-40.7	-41.5	22.2	0.00e+00	0	35	0	802160640	53	3855
2026-01-17 11:32:49.66	150.02	16.70	-40.8	-41.7	22.1	0.00e+00	0	35	0	808452096	53	3914
2026-01-17 11:32:50.66	150.01	16.82	-40.7	-41.6	22.2	0.00e+00	0	35	0	813694976	53	3872
2026-01-17 11:32:51.67	150.01	16.93	-40.7	-41.6	22.2	0.00e+00	0	35	0	818937856	53	3887
2026-01-17 11:32:52.68	150.01	17.05	-40.7	-41.6	22.2	0.00e+00	0	35	0	825229312	53	3881
2026-01-17 11:32:53.69	150.01	17.17	-40.5	-41.3	22.4	0.00e+00	0	35	0	830472192	53	3780
2026-01-17 11:32:54.70	150.01	17.29	-40.6	-41.5	22.3	0.00e+00	0	35	0	835715072	53	3834
2026-01-17 11:32:55.71	150.01	17.41	-40.6	-41.4	22.3	0.00e+00	0	34	0	842006528	53	3817
2026-01-17 11:32:56.72	150.01	17.52	-40.6	-41.4	22.4	0.00e+00	0	35	0	847249408	53	3819
2026-01-17 11:32:57.73	150.01	17.65	-40.5	-41.4	22.4	0.00e+00	0	35	0	853540864	53	3784
2026-01-17 11:32:58.74	150.00	17.77	-40.6	-41.4	22.4	0.00e+00	0	34	0	858783744	53	3804
2026-01-17 11:32:59.74	150.00	17.89	-40.4	-41.3	22.5	0.00e+00	0	35	0	864026624	52	3970
2026-01-17 11:33:00.75	150.00	18.01	-40.5	-41.4	22.4	0.00e+00	0	34	0	870318080	52	4013
2026-01-17 11:33:01.76	150.00	18.13	-40.4	-41.3	22.5	0.00e+00	0	35	0	876609536	52	3968
2026-01-17 11:33:02.77	150.00	18.25	-40.4	-41.2	22.6	0.00e+00	0	35	0	881852416	52	3950
2026-01-17 11:33:03.77	150.00	18.38	-40.4	-41.2	22.6	0.00e+00	0	35	0	887095296	52	3951
2026-01-17 11:33:04.78	149.99	18.50	-40.3	-41.2	22.6	0.00e+00	0	35	0	893386752	52	3922
2026-01-17 11:33:05.79	149.99	18.63	-40.3	-41.1	22.7	0.00e+00	0	35	0	898629632	52	3878
2026-01-17 11:33:06.80	149.99	18.75	-40.2	-41.1	22.7	0.00e+00	0	35	0	903872512	52	3875
2026-01-17 11:33:07.82	149.99	18.88	-40.3	-41.1	22.6	0.00e+00	0	35	0	910163968	52	3909
2026-01-17 11:33:08.82	149.99	19.01	-40.3	-41.1	22.7	0.00e+00	0	35	0	915406848	52	3902
2026-01-17 11:33:09.83	149.98	19.13	-40.2	-41.0	22.7	0.00e+00	0	35	0	920649728	52	3866
2026-01-17 11:33:10.84	149.98	19.26	-40.2	-41.0	22.7	0.00e+00	0	35	0	926941184	52	3865
2026-01-17 11:33:11.85	149.98	19.39	-40.1	-41.0	22.8	0.00e+00	0	34	0	933232640	52	3826
2026-01-17 11:33:12.86	149.98	19.52	-40.1	-41.0	22.8	0.00e+00	0	35	0	938475520	52	3830
2026-01-17 11:33:13.87	149.98	19.65	-40.0	-40.8	23.0	0.00e+00	0	35	0	943718400	52	3750
2026-01-17 11:33:14.88	149.97	19.78	-40.2	-41.0	22.8	0.00e+00	0	35	0	950009856	52	3834
2026-01-17 11:33:15.89	149.97	19.91	-40.0	-40.8	23.0	0.00e+00	0	35	0	955252736	51	4001
2026-01-17 11:33:16.90	149.97	20.05	-40.1	-40.9	23.0	0.00e+00	0	35	0	961544192	51	4011
2026-01-17 11:33:17.90	149.97	20.18	-40.0	-40.8	23.1	0.00e+00	0	35	0	966787072	51	3960
2026-01-17 11:33:18.91	149.96	20.31	-39.9	-40.8	23.1	0.00e+00	0	35	0	972029952	51	3959
2026-01-17 11:33:19.92	149.96	20.45	-39.9	-40.7	23.2	0.00e+00	0	35	0	978321408	51	3938
2026-01-17 11:33:20.93	149.96	20.58	-39.9	-40.7	23.2	0.00e+00	0	35	0	983564288	51	3934
2026-01-17 11:33:21.94	149.96	20.72	-39.9	-40.7	23.2	0.00e+00	0	35	0	988807168	51	3935
2026-01-17 11:33:22.95	149.95	20.85	-39.9	-40.7	23.2	0.00e+00	0	35	0	995098624	51	3916
2026-01-17 11:33:23.96	149.95	20.99	-39.8	-40.6	23.3	0.00e+00	0	35	0	1001390080	51	3881
2026-01-17 11:33:24.97	149.95	21.13	-39.7	-40.5	23.3	0.00e+00	0	35	0	1006632960	51	3843
2026-01-17 11:33:25.98	149.95	21.27	-39.8	-40.6	23.3	0.00e+00	0	35	0	1011875840	51	3890
2026-01-17 11:33:26.99	149.94	21.41	-39.9	-40.7	23.1	0.00e+00	0	35	0	1018167296	51	3951
2026-01-17 11:33:28.00	149.94	21.55	-39.8	-40.6	23.2	0.00e+00	0	35	0	1023410176	51	3900
2026-01-17 11:33:29.00	149.94	21.69	-39.7	-40.5	23.4	0.00e+00	0	35	0	1028653056	51	3848
2026-01-17 11:33:30.01	149.93	21.83	-39.7	-40.5	23.3	0.00e+00	0	35	0	1034944512	51	3850
2026-01-17 11:33:31.02	149.93	21.98	-39.8	-40.6	23.3	0.00e+00	0	35	0	1040187392	51	3899
2026-01-17 11:33:32.03	149.93	22.12	-39.8	-40.6	23.2	0.00e+00	0	35	0	1046478848	51	3872
2026-01-17 11:33:33.04	149.92	22.26	-39.8	-40.6	23.3	0.00e+00	0	35	0	1051721728	51	3877
2026-01-17 11:33:34.05	149.92	22.41	-39.7	-40.5	23.3	0.00e+00	0	35	0	1058013184	51	3865
2026-01-17 11:33:35.06	149.92	22.56	-39.7	-40.6	23.3	0.00e+00	0	35	0	1063256064	51	3871
2026-01-17 11:33:36.07	149.91	22.70	-39.7	-40.5	23.4	0.00e+00	0	35	0	1069547520	51	3831
2026-01-17 11:33:37.08	149.91	22.85	-39.9	-40.7	23.2	0.00e+00	0	35	0	1074790400	51	3927
2026-01-17 11:33:38.08	149.91	23.00	-39.6	-40.4	23.5	0.00e+00	0	35	0	1080033280	51	3795
2026-01-17 11:33:39.09	149.90	23.15	-39.6	-40.4	23.5	0.00e+00	0	35	0	1086324736	51	3782
2026-01-17 11:33:40.10	149.90	23.30	-39.6	-40.4	23.5	0.00e+00	0	35	0	1091567616	51	3784
2026-01-17 11:33:41.11	149.90	23.45	-39.5	-40.3	23.5	0.00e+00	0	35	0	1096810496	51	3758
2026-01-17 11:33:42.12	149.89	23.60	-39.4	-40.2	23.6	0.00e+00	0	35	0	1103101952	50	3941
2026-01-17 11:33:43.13	149.89	23.76	-39.4	-40.2	23.6	0.00e+00	0	35	0	1108344832	50	3935
2026-01-17 11:33:44.14	149.88	23.91	-39.4	-40.2	23.7	0.00e+00	0	35	0	1113587712	50	3916
2026-01-17 11:33:45.14	149.88	24.06	-39.3	-40.1	23.7	0.00e+00	0	35	0	1119879168	50	3884
2026-01-17 11:33:46.15	149.88	24.22	-39.3	-40.1	23.7	0.00e+00	0	35	0	1126170624	50	3891
2026-01-17 11:33:47.16	149.87	24.38	-39.4	-40.2	23.7	0.00e+00	0	35	0	1131413504	50	3926
2026-01-17 11:33:48.17	149.87	24.53	-39.4	-40.2	23.7	0.00e+00	0	35	0	1136656384	50	3929
2026-01-17 11:33:49.18	149.86	24.69	-39.4	-40.2	23.7	0.00e+00	0	35	0	1142947840	50	3926
2026-01-17 11:33:50.19	149.86	24.85	-39.3	-40.1	23.7	0.00e+00	0	35	0	1148190720	50	3891
2026-01-17 11:33:51.20	149.85	25.01	-39.4	-40.2	23.7	0.00e+00	0	35	0	1154482176	50	3918
2026-01-17 11:33:52.20	149.85	25.17	-39.5	-40.3	23.5	0.00e+00	0	35	0	1159725056	50	3990
2026-01-17 11:33:53.21	149.85	25.34	-39.5	-40.3	23.6	0.00e+00	0	35	0	1164967936	50	3966
2026-01-17 11:33:54.22	149.84	25.50	-39.6	-40.4	23.5	0.00e+00	0	35	0	1171259392	50	4014
2026-01-17 11:33:55.23	149.84	25.66	-39.6	-40.4	23.5	0.00e+00	0	35	0	1176502272	50	4007
2026-01-17 11:33:56.24	149.83	25.83	-39.6	-40.4	23.5	0.00e+00	0	35	0	1181745152	50	4042
2026-01-17 11:33:57.25	149.83	26.00	-39.7	-40.5	23.4	0.00e+00	0	35	0	1188036608	50	4055
2026-01-17 11:33:58.26	149.82	26.16	-39.4	-40.2	23.7	0.00e+00	0	35	0	1194328064	50	3943
2026-01-17 11:33:59.26	149.82	26.33	-39.4	-40.2	23.7	0.00e+00	0	35	0	1199570944	50	3928
2026-01-17 11:34:00.27	149.81	26.50	-39.4	-40.2	23.7	0.00e+00	0	35	0	1204813824	50	3915
2026-01-17 11:34:01.28	149.80	26.67	-39.4	-40.1	23.8	0.00e+00	0	35	0	1211105280	50	3909
2026-01-17 11:34:02.29	149.80	26.85	-39.2	-40.0	23.9	0.00e+00	0	35	0	1216348160	50	3835
2026-01-17 11:34:03.30	149.79	27.02	-39.2	-39.9	24.0	0.00e+00	0	35	0	1221591040	50	3817
2026-01-17 11:34:04.30	149.79	27.19	-39.1	-39.9	24.0	0.00e+00	0	35	0	1227882496	50	3798
2026-01-17 11:34:05.31	149.78	27.37	-39.1	-39.9	24.0	0.00e+00	0	35	0	1233125376	50	3786
2026-01-17 11:34:06.32	149.78	27.54	-39.1	-39.8	24.1	0.00e+00	0	35	0	1239416832	50	3767
2026-01-17 11:34:07.33	149.77	27.72	-39.0	-39.8	24.1	0.00e+00	0	35	0	1244659712	50	3759
2026-01-17 11:34:08.34	149.76	27.90	-39.0	-39.8	24.1	0.00e+00	0	35	0	1249902592	50	3752
2026-01-17 11:34:09.35	149.76	28.08	-39.1	-39.8	24.0	0.00e+00	0	35	0	1256194048	50	3773
2026-01-17 11:34:10.35	149.75	28.26	-39.2	-39.9	23.9	0.00e+00	0	35	0	1262485504	50	3819
2026-01-17 11:34:11.36	149.74	28.44	-39.3	-40.1	23.8	0.00e+00	0	35	0	1267728384	50	3887
2026-01-17 11:34:12.37	149.74	28.63	-39.3	-40.1	23.8	0.00e+00	0	35	0	1272971264	50	3902
2026-01-17 11:34:13.38	149.73	28.81	-39.4	-40.2	23.7	0.00e+00	0	35	0	1279262720	50	3916
2026-01-17 11:34:14.39	149.72	29.00	-39.5	-40.3	23.6	0.00e+00	0	35	0	1284505600	50	3967
2026-01-17 11:34:15.40	149.72	29.18	-39.4	-40.2	23.7	0.00e+00	0	35	0	1289748480	50	3946
2026-01-17 11:34:16.41	149.71	29.37	-39.3	-40.1	23.8	0.00e+00	0	35	0	1296039936	50	3888
2026-01-17 11:34:17.42	149.70	29.56	-39.2	-40.0	23.9	0.00e+00	0	35	0	1301282816	50	3835
2026-01-17 11:34:18.43	149.70	29.75	-39.1	-39.8	24.0	0.00e+00	0	35	0	1307574272	50	3777
2026-01-17 11:34:19.43	149.69	29.94	-39.0	-39.8	24.1	0.00e+00	0	35	0	1312817152	50	3747
2026-01-17 11:34:20.44	149.68	30.14	-38.9	-39.7	24.2	0.00e+00	0	35	0	1318060032	49	3917
2026-01-17 11:34:21.45	149.67	30.33	-38.8	-39.6	24.2	0.00e+00	0	35	0	1324351488	49	3880
2026-01-17 11:34:22.46	149.66	30.53	-38.9	-39.7	24.2	0.00e+00	0	35	0	1329594368	49	3937
2026-01-17 11:34:23.46	149.66	30.72	-39.0	-39.8	24.1	0.00e+00	0	35	0	1335885824	49	3963
2026-01-17 11:34:24.47	149.65	30.92	-39.0	-39.8	24.1	0.00e+00	0	35	0	1341128704	49	3959
2026-01-17 11:34:25.48	149.64	31.12	-38.9	-39.7	24.2	0.00e+00	0	35	0	1347420160	49	3930
2026-01-17 11:34:26.49	149.63	31.32	-39.0	-39.8	24.1	0.00e+00	0	35	0	1352663040	49	3976
2026-01-17 11:34:27.49	149.62	31.53	-39.1	-39.8	24.0	0.00e+00	0	35	0	1357905920	49	4001
2026-01-17 11:34:28.50	149.61	31.73	-39.1	-39.9	24.0	0.00e+00	0	35	0	1364197376	49	4009
2026-01-17 11:34:29.51	149.61	31.94	-39.0	-39.8	24.1	0.00e+00	0	35	0	1369440256	49	3960
2026-01-17 11:34:30.52	149.60	32.14	-38.9	-39.7	24.2	0.00e+00	0	35	0	1374683136	49	3924
2026-01-17 11:34:31.53	149.59	32.35	-39.0	-39.8	24.1	0.00e+00	0	35	0	1380974592	49	3980
2026-01-17 11:34:32.54	149.58	32.56	-38.8	-39.6	24.3	0.00e+00	0	35	0	1386217472	49	3881
2026-01-17 11:34:33.55	149.57	32.77	-38.9	-39.6	24.2	0.00e+00	0	35	0	1392508928	49	3900
2026-01-17 11:34:34.56	149.56	32.99	-38.8	-39.6	24.3	0.00e+00	0	35	0	1397751808	49	3883
2026-01-17 11:34:35.57	149.55	33.20	-38.8	-39.5	24.3	0.00e+00	0	35	0	1404043264	49	3866
2026-01-17 11:34:36.57	149.54	33.42	-38.8	-39.5	24.3	0.00e+00	0	35	0	1409286144	49	3859
2026-01-17 11:34:37.58	149.53	33.64	-38.8	-39.6	24.3	0.00e+00	0	35	0	1414529024	49	3872
2026-01-17 11:34:38.59	149.52	33.85	-38.7	-39.5	24.4	0.00e+00	0	35	0	1420820480	49	3851
2026-01-17 11:34:39.59	149.51	34.07	-38.8	-39.6	24.3	0.00e+00	0	35	0	1426063360	49	3878
2026-01-17 11:34:40.60	149.50	34.30	-38.7	-39.5	24.4	0.00e+00	0	35	0	1432354816	49	3841
2026-01-17 11:34:41.61	149.49	34.52	-38.6	-39.3	24.5	0.00e+00	0	35	0	1437597696	49	3768
2026-01-17 11:34:42.62	149.47	34.75	-38.4	-39.2	24.7	0.00e+00	0	35	0	1442840576	48	3914
2026-01-17 11:34:43.62	149.46	34.97	-38.2	-39.0	24.9	0.00e+00	0	35	0	1449132032	48	3825
2026-01-17 11:34:44.63	149.45	35.20	-38.3	-39.0	24.8	0.00e+00	0	35	0	1454374912	48	3841
2026-01-17 11:34:45.65	149.44	35.43	-38.4	-39.2	24.7	0.00e+00	0	35	0	1460666368	48	3922
2026-01-17 11:34:46.65	149.43	35.66	-38.5	-39.2	24.6	0.00e+00	0	35	0	1465909248	48	3944
2026-01-17 11:34:47.66	149.41	35.90	-38.5	-39.2	24.6	0.00e+00	0	35	0	1472200704	48	3937
2026-01-17 11:34:48.67	149.40	36.13	-38.5	-39.2	24.6	0.00e+00	0	35	0	1477443584	48	3946
2026-01-17 11:34:49.68	149.39	36.37	-38.5	-39.3	24.6	0.00e+00	0	35	0	1482686464	48	3962
2026-01-17 11:34:50.69	149.38	36.61	-38.4	-39.1	24.7	0.00e+00	0	35	0	1488977920	48	3892
2026-01-17 11:34:51.70	149.36	36.85	-38.4	-39.1	24.7	0.00e+00	0	35	0	1494220800	48	3898
2026-01-17 11:34:52.70	149.35	37.09	-38.4	-39.1	24.8	0.00e+00	0	35	0	1500512256	48	3880
2026-01-17 11:34:53.71	149.34	37.34	-38.5	-39.2	24.7	0.00e+00	0	35	0	1505755136	48	3927
2026-01-17 11:34:54.72	149.32	37.58	-38.5	-39.2	25.0	0.00e+00	0	35	0	1510998016	48	3916
2026-01-17 11:34:55.72	149.31	37.83	-38.5	-39.2	24.9	0.00e+00	0	35	0	1517289472	48	3952
2026-01-17 11:34:56.73	149.29	38.08	-38.7	-39.4	24.8	0.00e+00	0	35	0	1522532352	48	4025
2026-01-17 11:34:57.74	149.28	38.33	-38.8	-39.5	24.7	0.00e+00	0	35	0	1527775232	48	4093
2026-01-17 11:34:58.75	149.26	38.59	-38.9	-39.7	24.6	0.00e+00	0	35	0	1534066688	48	4149
2026-01-17 11:34:59.76	149.25	38.84	-38.9	-39.6	24.6	0.00e+00	0	35	0	1540358144	48	4115
2026-01-17 11:35:00.76	149.23	39.10	-38.9	-39.6	24.6	0.00e+00	0	35	0	1545601024	48	4131
2026-01-17 11:35:01.77	149.21	39.36	-38.8	-39.5	24.7	0.00e+00	0	35	0	1550843904	48	4092
2026-01-17 11:35:02.78	149.20	39.62	-38.8	-39.6	24.6	0.00e+00	0	35	0	1557135360	48	4101
2026-01-17 11:35:03.79	149.18	39.88	-39.0	-39.7	24.5	0.00e+00	0	35	0	1562378240	48	4185
2026-01-17 11:35:04.80	149.16	40.15	-39.2	-39.9	24.4	0.00e+00	0	35	0	1567621120	48	4271
2026-01-17 11:35:05.81	149.15	40.41	-39.2	-39.9	24.3	0.00e+00	0	35	0	1573912576	49	4043
2026-01-17 11:35:06.82	149.13	40.68	-39.2	-39.9	24.4	0.00e+00	0	35	0	1579155456	49	4031
2026-01-17 11:35:07.82	149.11	40.95	-39.2	-39.9	24.4	0.00e+00	0	35	0	1585446912	49	4035
2026-01-17 11:35:08.83	149.09	41.23	-39.1	-39.9	24.4	0.00e+00	0	35	0	1590689792	49	4008
2026-01-17 11:35:09.84	149.07	41.50	-39.2	-39.9	24.4	0.00e+00	0	35	0	1595932672	49	4042
2026-01-17 11:35:10.85	149.05	41.78	-39.0	-39.7	24.6	0.00e+00	0	35	0	1602224128	49	3940
2026-01-17 11:35:11.86	149.03	42.06	-38.8	-39.5	24.8	0.00e+00	0	35	0	1608515584	49	3839
2026-01-17 11:35:12.86	149.01	42.34	-38.9	-39.6	24.7	0.00e+00	0	35	0	1613758464	49	3898
2026-01-17 11:35:13.87	148.99	42.62	-39.1	-39.8	24.5	0.00e+00	0	35	0	1619001344	49	3983
2026-01-17 11:35:14.88	148.97	42.91	-39.2	-39.9	24.4	0.00e+00	0	35	0	1625292800	49	4031
2026-01-17 11:35:15.89	148.95	43.20	-39.4	-40.1	24.2	0.00e+00	0	35	0	1630535680	49	4120
2026-01-17 11:35:16.90	148.93	43.49	-39.5	-40.2	24.1	0.00e+00	0	35	0	1635778560	49	4178
2026-01-17 11:35:17.90	148.91	43.78	-39.5	-40.2	24.1	0.00e+00	0	35	0	1642070016	49	4190
2026-01-17 11:35:18.91	148.88	44.07	-39.4	-40.1	24.2	0.00e+00	0	35	0	1647312896	49	4134
2026-01-17 11:35:19.92	148.86	44.37	-39.3	-40.0	24.3	0.00e+00	0	35	0	1652555776	49	4074
2026-01-17 11:35:20.93	148.84	44.67	-39.1	-39.8	24.5	0.00e+00	0	35	0	1658847232	49	3977
2026-01-17 11:35:21.94	148.81	44.97	-39.1	-39.8	24.5	0.00e+00	0	35	0	1664090112	49	4002
2026-01-17 11:35:22.94	148.79	45.28	-39.2	-40.0	24.4	0.00e+00	0	35	0	1670381568	49	4060
2026-01-17 11:35:23.95	148.76	45.58	-39.3	-40.0	24.3	0.00e+00	0	35	0	1675624448	49	4093
2026-01-17 11:35:24.96	148.74	45.89	-39.3	-40.0	24.3	0.00e+00	0	35	0	1681915904	49	4085
2026-01-17 11:35:25.97	148.71	46.20	-39.4	-40.1	24.2	0.00e+00	0	35	0	1687158784	49	4140
2026-01-17 11:35:26.98	148.68	46.52	-39.3	-40.1	24.3	0.00e+00	0	35	0	1693450240	49	4104
2026-01-17 11:35:27.98	148.65	46.83	-39.1	-39.8	24.5	0.00e+00	0	35	0	1698693120	49	3987
2026-01-17 11:35:28.99	148.63	47.15	-39.0	-39.7	24.6	0.00e+00	0	35	0	1703936000	49	3936
2026-01-17 11:35:30.00	148.60	47.47	-38.9	-39.6	24.7	0.00e+00	0	35	0	1710227456	49	3909
2026-01-17 11:35:31.01	148.57	47.79	-38.9	-39.6	24.7	0.00e+00	0	35	0	1715470336	49	3886
2026-01-17 11:35:32.02	148.54	48.12	-39.1	-39.8	24.5	0.00e+00	0	35	0	1720713216	49	3996
2026-01-17 11:35:33.03	148.50	48.45	-39.3	-40.1	24.3	0.00e+00	0	35	0	1727004672	49	4111
2026-01-17 11:35:34.04	148.47	48.78	-39.3	-40.1	24.3	0.00e+00	0	35	0	1732247552	49	4105
2026-01-17 11:35:35.05	148.44	49.11	-39.3	-40.0	24.3	0.00e+00	0	35	0	1738539008	49	4094
2026-01-17 11:35:36.06	148.41	49.44	-39.1	-39.8	24.5	0.00e+00	0	35	0	1743781888	49	3974
2026-01-17 11:35:37.07	148.37	49.78	-39.2	-39.9	24.5	0.00e+00	0	35	0	1750073344	49	4014
2026-01-17 11:35:38.07	148.34	50.12	-39.4	-40.1	24.2	0.00e+00	0	35	0	1755316224	49	4135
2026-01-17 11:35:39.08	148.30	50.46	-39.8	-40.6	23.9	0.00e+00	0	35	0	1760559104	50	4106
2026-01-17 11:35:40.09	148.26	50.81	-40.1	-40.8	23.6	0.00e+00	0	35	0	1766850560	50	4237
2026-01-17 11:35:41.10	148.23	51.16	-40.1	-40.8	23.6	0.00e+00	0	35	0	1772093440	50	4238
2026-01-17 11:35:42.11	148.19	51.51	-39.9	-40.7	23.8	0.00e+00	0	35	0	1778384896	50	4152
2026-01-17 11:35:43.12	148.15	51.86	-40.1	-40.9	23.6	0.00e+00	0	35	0	1783627776	50	4261
2026-01-17 11:35:44.12	148.10	52.21	-40.4	-41.2	23.3	0.00e+00	0	35	0	1788870656	51	4174
2026-01-17 11:35:45.13	148.06	52.57	-40.6	-41.4	23.1	0.00e+00	0	35	0	1795162112	51	4250
2026-01-17 11:35:46.14	148.02	52.93	-40.7	-41.5	23.1	0.00e+00	0	35	0	1800404992	51	4302
2026-01-17 11:35:47.15	147.97	53.30	-40.5	-41.3	23.2	0.00e+00	0	35	0	1806696448	51	4203
2026-01-17 11:35:48.16	147.93	53.66	-40.4	-41.1	23.4	0.00e+00	0	35	0	1811939328	51	4136
2026-01-17 11:35:49.17	147.88	54.03	-40.5	-41.3	23.2	0.00e+00	0	35	0	1818230784	51	4217
2026-01-17 11:35:50.18	147.83	54.41	-40.7	-41.5	23.0	0.00e+00	0	35	0	1823473664	52	4061
2026-01-17 11:35:51.18	147.78	54.78	-40.8	-41.5	22.9	0.00e+00	0	35	0	1828716544	52	4098
2026-01-17 11:35:52.19	147.73	55.15	-40.5	-41.3	23.2	0.00e+00	0	35	0	1835008000	52	3959
2026-01-17 11:35:53.20	147.68	55.53	-40.1	-40.8	23.6	0.00e+00	0	35	0	1840250880	52	3768
2026-01-17 11:35:54.21	147.63	55.92	-40.0	-40.8	23.6	0.00e+00	0	35	0	1845493760	52	3760
2026-01-17 11:35:55.22	147.57	56.30	-40.1	-40.9	23.6	0.00e+00	0	35	0	1851785216	52	3785
2026-01-17 11:35:56.22	147.51	56.68	-40.0	-40.8	23.6	0.00e+00	0	35	0	1857028096	52	3741
2026-01-17 11:35:57.24	147.45	57.08	-40.2	-40.9	23.6	0.00e+00	0	35	0	1863319552	51	4048
2026-01-17 11:35:58.24	147.39	57.47	-40.4	-41.1	23.4	0.00e+00	0	35	0	1868562432	51	4139
2026-01-17 11:35:59.25	147.33	57.86	-39.9	-40.6	23.9	0.00e+00	0	35	0	1874853888	51	3898
2026-01-17 11:36:00.26	147.26	58.26	-39.6	-40.3	24.1	0.00e+00	0	35	0	1880096768	51	3759
2026-01-17 11:36:01.27	147.20	58.66	-39.5	-40.2	24.2	0.00e+00	0	35	0	1886388224	51	3729
2026-01-17 11:36:02.28	147.13	59.07	-39.4	-40.1	24.3	0.00e+00	0	35	0	1891631104	50	3900
2026-01-17 11:36:03.29	147.06	59.47	-39.2	-39.9	24.5	0.00e+00	0	35	0	1896873984	50	3824
2026-01-17 11:36:04.30	146.98	59.88	-39.1	-39.8	24.6	0.00e+00	0	35	0	1903165440	50	3758
2026-01-17 11:36:05.31	146.91	60.29	-39.1	-39.9	24.5	0.00e+00	0	35	0	1908408320	50	3791
2026-01-17 11:36:06.32	146.83	60.71	-39.4	-40.2	24.3	0.00e+00	0	35	0	1913651200	50	3930
2026-01-17 11:36:07.33	146.74	61.12	-39.4	-40.2	24.2	0.00e+00	0	35	0	1919942656	50	3934
2026-01-17 11:36:08.33	146.66	61.54	-39.4	-40.1	24.3	0.00e+00	0	35	0	1925185536	50	3894
2026-01-17 11:36:09.35	146.57	61.97	-39.4	-40.1	24.3	0.00e+00	0	35	0	1931476992	50	3884
2026-01-17 11:36:10.35	146.48	62.39	-39.6	-40.4	24.1	0.00e+00	0	35	0	1936719872	50	4016
2026-01-17 11:36:11.36	146.39	62.81	-39.5	-40.2	24.2	0.00e+00	0	35	0	1943011328	50	3938
2026-01-17 11:36:12.37	146.29	63.24	-38.9	-39.6	24.8	0.00e+00	0	35	0	1948254208	49	3894
2026-01-17 11:36:13.38	146.19	63.68	-38.7	-39.4	25.0	0.00e+00	0	35	0	1953497088	49	3797
2026-01-17 11:36:14.38	146.08	64.11	-38.7	-39.4	24.9	0.00e+00	0	35	0	1959788544	49	3817
2026-01-17 11:36:15.39	145.97	64.54	-38.7	-39.4	25.0	0.00e+00	0	35	0	1965031424	49	3808
2026-01-17 11:36:16.40	145.86	64.98	-38.5	-39.2	25.1	0.00e+00	0	35	0	1971322880	49	3737
2026-01-17 11:36:17.41	145.74	65.42	-38.4	-39.1	25.2	0.00e+00	0	35	0	1976565760	48	3904
2026-01-17 11:36:18.42	145.61	65.87	-38.4	-39.1	25.2	0.00e+00	0	35	0	1981808640	48	3902
2026-01-17 11:36:19.43	145.49	66.32	-38.5	-39.2	25.2	0.00e+00	0	35	0	1988100096	48	3920
2026-01-17 11:36:20.44	145.35	66.77	-38.2	-38.8	25.4	0.00e+00	0	35	0	1993342976	48	3777
2026-01-17 11:36:21.44	145.21	67.21	-38.3	-38.9	25.4	0.00e+00	0	35	0	1998585856	48	3813
2026-01-17 11:36:22.45	145.06	67.67	-38.4	-39.1	25.3	0.00e+00	0	35	0	2004877312	48	3886
2026-01-17 11:36:23.46	144.91	68.12	-38.2	-38.9	25.4	0.00e+00	0	35	0	2011168768	48	3787
2026-01-17 11:36:24.47	144.75	68.58	-38.1	-38.8	25.5	0.00e+00	0	35	0	2016411648	48	3756
2026-01-17 11:36:25.48	144.58	69.04	-37.8	-38.5	25.2	0.00e+00	0	35	0	2021654528	47	3853
2026-01-17 11:36:26.48	144.40	69.50	-37.9	-38.6	25.2	0.00e+00	0	35	0	2027945984	47	3895
2026-01-17 11:36:27.49	144.21	69.96	-37.7	-38.4	25.4	0.00e+00	0	35	0	2033188864	47	3809
2026-01-17 11:36:28.50	144.02	70.43	-37.5	-38.2	25.5	0.00e+00	0	35	0	2038431744	47	3703
2026-01-17 11:36:29.51	143.81	70.90	-37.4	-38.1	25.6	0.00e+00	0	35	0	2044723200	46	3895
2026-01-17 11:36:30.52	143.59	71.37	-37.6	-38.3	25.4	0.00e+00	0	35	0	2049966080	46	3993
2026-01-17 11:36:31.53	143.36	71.84	-37.7	-38.4	25.4	0.00e+00	0	35	0	2056257536	46	4010
2026-01-17 11:36:32.53	143.12	72.31	-37.6	-38.3	25.4	0.00e+00	0	35	0	2061500416	46	3989
2026-01-17 11:36:33.54	142.86	72.79	-37.5	-38.1	25.6	0.00e+00	0	35	0	2066743296	46	3912
2026-01-17 11:36:34.55	142.59	73.27	-37.3	-38.0	25.7	0.00e+00	0	35	0	2073034752	46	3847
2026-01-17 11:36:35.56	142.30	73.74	-37.5	-38.2	25.6	0.00e+00	0	35	0	2079326208	46	3928
2026-01-17 11:36:36.57	141.99	74.23	-37.5	-38.2	25.6	0.00e+00	0	35	0	2084569088	46	3915
2026-01-17 11:36:37.58	141.65	74.71	-37.3	-38.0	25.7	0.00e+00	0	35	0	2089811968	46	3854
2026-01-17 11:36:38.58	141.30	75.19	-37.6	-38.4	25.4	0.00e+00	0	35	0	2096103424	46	4012
2026-01-17 11:36:39.59	140.93	75.67	-37.5	-38.2	25.5	0.00e+00	0	35	0	2101346304	46	3947
2026-01-17 11:36:40.60	140.52	76.16	-37.2	-37.8	25.8	0.00e+00	0	35	0	2106589184	46	3779
2026-01-17 11:36:41.61	140.08	76.64	-37.2	-37.9	25.8	0.00e+00	0	35	0	2112880640	46	3797
2026-01-17 11:36:42.62	139.61	77.13	-37.2	-37.9	25.7	0.00e+00	0	35	0	2118123520	46	3821
2026-01-17 11:36:43.63	139.10	77.62	-36.8	-37.5	26.1	0.00e+00	0	35	0	2123366400	45	3849
2026-01-17 11:36:44.63	138.56	78.10	-36.7	-37.4	26.2	0.00e+00	0	35	0	2129657856	45	3800
2026-01-17 11:36:45.64	137.95	78.59	-36.5	-37.2	26.4	0.00e+00	0	35	0	2134900736	45	3723
2026-01-17 11:36:46.65	137.30	79.08	-36.2	-36.8	26.7	0.00e+00	0	35	0	2141192192	44	3775
2026-01-17 11:36:47.66	136.58	79.57	-36.1	-36.7	26.8	0.00e+00	0	35	0	2146435072	44	3731
2026-01-17 11:36:48.67	135.79	80.05	-36.5	-37.1	26.4	0.00e+00	0	35	0	2152726528	44	3912
2026-01-17 11:36:49.68	134.91	80.54	-36.2	-36.9	26.7	0.00e+00	0	35	0	2157969408	44	3787
2026-01-17 11:36:50.69	133.94	81.03	-36.3	-36.9	26.6	0.00e+00	0	35	0	2164260864	44	3810
2026-01-17 11:36:51.69	132.86	81.51	-35.7	-36.3	27.0	0.00e+00	0	35	0	2169503744	43	3762
2026-01-17 11:36:52.70	131.65	81.99	-35.8	-36.5	26.9	0.00e+00	0	35	0	2174746624	43	3850
2026-01-17 11:36:53.71	130.27	82.46	-35.9	-36.5	26.8	0.00e+00	0	35	0	2181038080	43	3852
2026-01-17 11:36:54.72	128.71	82.94	-35.6	-36.3	27.0	0.00e+00	0	35	0	2186280960	43	3740
2026-01-17 11:36:55.73	126.92	83.41	-35.7	-36.3	27.0	0.00e+00	0	35	0	2191523840	43	3760
2026-01-17 11:36:56.73	124.88	83.87	-35.8	-36.4	26.9	0.00e+00	0	35	0	2197815296	43	3811
2026-01-17 11:36:57.74	122.49	84.32	-36.0	-36.6	26.8	0.00e+00	0	35	0	2203058176	43	3912
2026-01-17 11:36:58.75	119.68	84.76	-36.4	-37.0	26.4	0.00e+00	0	35	0	2209349632	43	4091
2026-01-17 11:36:59.76	116.36	85.19	-36.9	-37.6	26.1	0.00e+00	0	35	0	2214592512	44	4103
2026-01-17 11:37:00.77	112.40	85.60	-36.9	-37.6	26.0	0.00e+00	0	35	0	2220883968	44	4129
2026-01-17 11:37:01.78	107.65	85.99	-36.9	-37.5	26.1	0.00e+00	0	35	0	2226126848	44	4096
2026-01-17 11:37:02.79	101.94	86.34	-37.0	-37.7	25.9	0.00e+00	0	35	0	2231369728	44	4182
2026-01-17 11:37:03.80	95.11	86.65	-37.1	-37.8	25.9	0.00e+00	0	35	0	2237661184	45	3971
2026-01-17 11:37:04.80	87.11	86.89	-37.2	-37.8	25.9	0.00e+00	0	35	0	2242904064	45	3995
2026-01-17 11:37:05.81	77.83	87.08	-37.2	-37.9	25.8	0.00e+00	0	35	0	2249195520	45	4030
2026-01-17 11:37:06.82	67.63	87.17	-37.5	-38.2	25.6	0.00e+00	0	35	0	2254438400	46	3945
2026-01-17 11:37:07.83	57.08	87.17	-37.5	-38.2	25.6	0.00e+00	0	35	0	2259681280	46	3944
2026-01-17 11:37:08.84	46.86	87.08	-37.3	-38.0	25.7	0.00e+00	0	35	0	2265972736	46	3841
2026-01-17 11:37:09.85	37.54	86.90	-37.4	-38.1	25.7	0.00e+00	0	35	0	2272264192	46	3873
2026-01-17 11:37:10.86	29.43	86.65	-37.1	-37.8	25.9	0.00e+00	0	35	0	2277507072	46	3768
2026-01-17 11:37:11.87	22.56	86.35	-37.0	-37.7	26.0	0.00e+00	0	35	0	2282749952	46	3727
2026-01-17 11:37:12.88	16.83	85.99	-37.3	-38.0	25.8	0.00e+00	0	35	0	2289041408	46	3851
2026-01-17 11:37:13.89	12.06	85.61	-36.8	-37.5	26.2	0.00e+00	0	35	0	2294284288	45	3845
2026-01-17 11:37:14.90	8.08	85.20	-36.7	-37.3	26.3	0.00e+00	0	35	0	2299527168	45	3777
2026-01-17 11:37:15.91	4.75	84.77	-36.7	-37.4	26.3	0.00e+00	0	35	0	2305818624	45	3795
2026-01-17 11:37:16.92	1.93	84.33	-36.5	-37.2	26.4	0.00e+00	0	35	0	2311061504	45	3724
2026-01-17 11:37:17.93	359.52	83.88	-36.5	-37.1	26.4	0.00e+00	0	35	0	2316304384	45	3693
2026-01-17 11:37:18.93	357.48	83.42	-35.8	-36.5	26.9	0.00e+00	0	35	0	2322595840	43	3826
2026-01-17 11:37:19.94	355.68	82.95	-35.7	-36.3	27.0	0.00e+00	0	35	0	2327838720	43	3775
2026-01-17 11:37:20.95	354.11	82.48	-35.9	-36.6	26.8	0.00e+00	0	35	0	2334130176	43	3893
2026-01-17 11:37:21.96	352.73	82.00	-35.7	-36.4	27.0	0.00e+00	0	35	0	2339373056	43	3800
2026-01-17 11:37:22.97	351.51	81.52	-35.7	-36.4	27.0	0.00e+00	0	35	0	2345664512	43	3785
2026-01-17 11:37:23.98	350.43	81.04	-35.9	-36.5	26.9	0.00e+00	0	35	0	2350907392	43	3862
2026-01-17 11:37:24.98	349.46	80.56	-35.9	-36.6	26.8	0.00e+00	0	35	0	2357198848	43	3891
2026-01-17 11:37:25.99	348.58	80.07	-36.0	-36.7	26.8	0.00e+00	0	35	0	2362441728	43	3934
2026-01-17 11:37:27.00	347.79	79.58	-36.1	-36.7	26.7	0.00e+00	0	35	0	2367684608	43	3956
2026-01-17 11:37:28.01	347.07	79.09	-36.4	-37.1	26.5	0.00e+00	0	35	0	2373976064	43	4109
2026-01-17 11:37:29.02	346.41	78.61	-36.4	-37.0	26.5	0.00e+00	0	35	0	2379218944	43	4084
2026-01-17 11:37:30.03	345.81	78.12	-36.4	-37.1	26.4	0.00e+00	0	35	0	2384461824	43	4122
2026-01-17 11:37:31.04	345.25	77.63	-36.4	-37.1	26.4	0.00e+00	0	35	0	2390753280	43	4135
2026-01-17 11:37:32.04	344.75	77.15	-36.1	-36.8	26.7	0.00e+00	0	35	0	2395996160	43	3983
2026-01-17 11:37:33.05	344.28	76.66	-36.4	-37.0	26.5	0.00e+00	0	35	0	2402287616	43	4093
2026-01-17 11:37:34.06	343.84	76.17	-36.9	-37.5	26.1	0.00e+00	0	35	0	2407530496	44	4090
2026-01-17 11:37:35.07	343.43	75.69	-36.9	-37.6	26.1	0.00e+00	0	35	0	2413821952	44	4124
2026-01-17 11:37:36.08	343.05	75.21	-37.0	-37.7	26.1	0.00e+00	0	35	0	2419064832	44	4156
2026-01-17 11:37:37.09	342.70	74.72	-37.2	-37.8	25.9	0.00e+00	0	35	0	2424307712	44	4234
2026-01-17 11:37:38.10	342.37	74.24	-37.2	-37.8	26.0	0.00e+00	0	35	0	2430599168	44	4235
2026-01-17 11:37:39.10	342.06	73.77	-37.4	-38.1	25.8	0.00e+00	0	35	0	2435842048	45	4118
2026-01-17 11:37:40.11	341.77	73.29	-37.4	-38.1	25.7	0.00e+00	0	35	0	2442133504	45	4118
2026-01-17 11:37:41.12	341.50	72.81	-37.1	-37.7	26.0	0.00e+00	0	35	0	2447376384	45	3957
2026-01-17 11:37:42.13	341.24	72.33	-37.1	-37.7	26.1	0.00e+00	0	35	0	2452619264	45	3949
2026-01-17 11:37:43.14	340.99	71.86	-37.3	-38.0	25.9	0.00e+00	0	35	0	2458910720	45	4065
2026-01-17 11:37:44.14	340.76	71.39	-37.6	-38.3	25.6	0.00e+00	0	35	0	2464153600	45	4227
2026-01-17 11:37:45.15	340.55	70.92	-37.6	-38.3	25.5	0.00e+00	0	35	0	2470445056	45	4236
2026-01-17 11:37:46.16	340.34	70.46	-37.5	-38.2	25.6	0.00e+00	0	35	0	2475687936	45	4162
2026-01-17 11:37:47.17	340.14	69.99	-38.1	-38.8	25.2	0.00e+00	0	35	0	2481979392	46	4209
2026-01-17 11:37:48.18	339.95	69.53	-38.4	-39.1	24.8	0.00e+00	0	35	0	2487222272	47	4132
2026-01-17 11:37:49.19	339.78	69.06	-37.9	-38.6	25.4	0.00e+00	0	35	0	2492465152	47	3871
2026-01-17 11:37:50.20	339.61	68.60	-37.8	-38.5	25.4	0.00e+00	0	35	0	2498756608	47	3827
2026-01-17 11:37:51.21	339.44	68.15	-38.2	-38.9	25.1	0.00e+00	0	35	0	2503999488	47	4032
2026-01-17 11:37:52.22	339.29	67.69	-38.3	-39.0	24.9	0.00e+00	0	35	0	2509242368	47	4098
2026-01-17 11:37:53.22	339.14	67.24	-38.1	-38.8	25.2	0.00e+00	0	35	0	2515533824	47	3968
2026-01-17 11:37:54.23	339.00	66.79	-38.1	-38.8	25.2	0.00e+00	0	35	0	2520776704	47	3975
2026-01-17 11:37:55.24	338.87	66.34	-38.0	-38.7	25.3	0.00e+00	0	35	0	2527068160	47	3931
2026-01-17 11:37:56.25	338.74	65.90	-37.9	-38.7	25.3	0.00e+00	0	35	0	2532311040	47	3914
2026-01-17 11:37:57.26	338.61	65.45	-38.0	-38.7	25.2	0.00e+00	0	35	0	2538602496	47	3954
2026-01-17 11:37:58.27	338.49	65.01	-38.4	-39.1	24.9	0.00e+00	0	35	0	2543845376	47	4138
2026-01-17 11:37:59.28	338.38	64.57	-38.4	-39.2	24.9	0.00e+00	0	35	0	2550136832	47	4150
2026-01-17 11:38:00.28	338.27	64.14	-38.3	-39.0	25.0	0.00e+00	0	35	0	2555379712	47	4097
2026-01-17 11:38:01.29	338.17	63.71	-38.3	-39.0	24.9	0.00e+00	0	35	0	2560622592	47	4096
2026-01-17 11:38:02.30	338.06	63.27	-38.2	-38.9	25.1	0.00e+00	0	35	0	2566914048	47	4033
2026-01-17 11:38:03.31	337.97	62.85	-38.2	-38.9	25.0	0.00e+00	0	35	0	2572156928	47	4045
2026-01-17 11:38:04.32	337.87	62.42	-38.4	-39.1	24.9	0.00e+00	0	35	0	2577399808	47	4132
2026-01-17 11:38:05.33	337.78	61.99	-38.3	-39.1	24.9	0.00e+00	0	35	0	2583691264	47	4104
2026-01-17 11:38:06.33	337.69	61.58	-38.3	-39.0	25.0	0.00e+00	0	35	0	2588934144	47	4091
2026-01-17 11:38:07.34	337.61	61.16	-38.3	-39.0	25.0	0.00e+00	0	35	0	2594177024	47	4067
2026-01-17 11:38:08.35	337.53	60.74	-38.3	-39.0	25.0	0.00e+00	0	35	0	2600468480	47	4073
2026-01-17 11:38:09.36	337.45	60.33	-38.4	-39.1	24.9	0.00e+00	0	35	0	2606759936	47	4131
2026-01-17 11:38:10.36	337.37	59.92	-39.2	-39.8	24.6	0.00e+00	0	35	0	2612002816	48	4223
2026-01-17 11:38:11.37	337.30	59.51	-39.2	-39.9	24.7	0.00e+00	0	35	0	2617245696	49	4043
2026-01-17 11:38:12.38	337.23	59.11	-39.1	-39.8	24.8	0.00e+00	0	35	0	2623537152	49	3989
2026-01-17 11:38:13.39	337.16	58.71	-39.2	-39.9	24.7	0.00e+00	0	35	0	2628780032	49	4037
2026-01-17 11:38:14.40	337.09	58.31	-39.4	-40.2	24.5	0.00e+00	0	35	0	2635071488	49	4150
2026-01-17 11:38:15.40	337.03	57.91	-39.7	-40.4	24.3	0.00e+00	0	35	0	2640314368	49	4272
2026-01-17 11:38:16.41	336.96	57.52	-39.8	-40.5	24.2	0.00e+00	0	35	0	2645557248	50	4074
2026-01-17 11:38:17.42	336.90	57.12	-39.8	-40.5	24.1	0.00e+00	0	35	0	2651848704	50	4084
2026-01-17 11:38:18.43	336.84	56.73	-39.8	-40.5	24.2	0.00e+00	0	35	0	2657091584	50	4079
2026-01-17 11:38:19.44	336.79	56.35	-39.8	-40.6	24.1	0.00e+00	0	35	0	2662334464	50	4104
2026-01-17 11:38:20.45	336.73	55.96	-40.0	-40.8	23.9	0.00e+00	0	35	0	2668625920	50	4204
2026-01-17 11:38:21.46	336.68	55.58	-40.1	-40.8	23.9	0.00e+00	0	35	0	2674917376	50	4222
2026-01-17 11:38:22.46	336.62	55.21	-40.1	-40.8	23.9	0.00e+00	0	35	0	2680160256	50	4225
2026-01-17 11:38:23.47	336.57	54.83	-40.1	-40.8	23.9	0.00e+00	0	35	0	2685403136	50	4240
2026-01-17 11:38:24.48	336.52	54.46	-40.0	-40.7	24.0	0.00e+00	0	35	0	2691694592	50	4190
2026-01-17 11:38:25.49	336.47	54.09	-40.0	-40.8	23.9	0.00e+00	0	35	0	2696937472	50	4204
2026-01-17 11:38:26.50	336.43	53.72	-40.1	-40.8	23.9	0.00e+00	0	35	0	2702180352	50	4212
2026-01-17 11:38:27.51	336.38	53.35	-39.9	-40.6	24.0	0.00e+00	0	35	0	2708471808	50	4131
2026-01-17 11:38:28.52	336.34	52.99	-40.2	-40.9	23.8	0.00e+00	0	35	0	2713714688	50	4278
2026-01-17 11:38:29.53	336.29	52.63	-40.1	-40.9	23.8	0.00e+00	0	35	0	2720006144	50	4257
2026-01-17 11:38:30.54	336.25	52.27	-40.1	-40.9	23.8	0.00e+00	0	35	0	2725249024	50	4255
2026-01-17 11:38:31.55	336.21	51.91	-40.0	-40.7	24.0	0.00e+00	0	35	0	2731540480	51	3945
2026-01-17 11:38:32.55	336.17	51.56	-39.9	-40.6	24.1	0.00e+00	0	35	0	2736783360	51	3895
2026-01-17 11:38:33.56	336.13	51.21	-39.7	-40.5	24.2	0.00e+00	0	35	0	2743074816	51	3829
2026-01-17 11:38:34.57	336.09	50.87	-39.4	-40.2	24.5	0.00e+00	0	35	0	2748317696	50	3925
2026-01-17 11:38:35.58	336.06	50.52	-39.2	-39.9	24.7	0.00e+00	0	35	0	2753560576	50	3814
2026-01-17 11:38:36.58	336.02	50.18	-39.1	-39.7	24.8	0.00e+00	0	35	0	2759852032	50	3725
2026-01-17 11:38:37.59	335.99	49.84	-39.0	-39.6	24.9	0.00e+00	0	35	0	2765094912	49	3904
2026-01-17 11:38:38.60	335.95	49.51	-38.9	-39.6	25.0	0.00e+00	0	35	0	2770337792	49	3901
2026-01-17 11:38:39.61	335.92	49.17	-39.1	-39.8	24.7	0.00e+00	0	35	0	2776629248	49	3997
2026-01-17 11:38:40.62	335.89	48.84	-39.2	-39.9	24.7	0.00e+00	0	35	0	2781872128	49	4035
2026-01-17 11:38:41.62	335.85	48.51	-39.1	-39.8	24.7	0.00e+00	0	35	0	2787115008	49	4002
2026-01-17 11:38:42.63	335.82	48.18	-39.0	-39.6	24.9	0.00e+00	0	35	0	2793406464	49	3905
2026-01-17 11:38:43.64	335.79	47.86	-38.7	-39.3	25.2	0.00e+00	0	35	0	2798649344	49	3772
2026-01-17 11:38:44.65	335.76	47.54	-38.7	-39.4	25.1	0.00e+00	0	35	0	2804940800	49	3788
2026-01-17 11:38:45.66	335.73	47.22	-38.8	-39.5	25.0	0.00e+00	0	35	0	2810183680	49	3838
2026-01-17 11:38:46.66	335.70	46.90	-38.9	-39.7	24.9	0.00e+00	0	35	0	2816475136	49	3919
2026-01-17 11:38:47.67	335.68	46.59	-39.0	-39.7	24.9	0.00e+00	0	35	0	2821718016	49	3935
2026-01-17 11:38:48.68	335.65	46.27	-39.1	-39.8	24.8	0.00e+00	0	35	0	2828009472	49	3995
2026-01-17 11:38:49.69	335.62	45.96	-39.1	-39.8	24.7	0.00e+00	0	35	0	2833252352	49	3993
2026-01-17 11:38:50.70	335.60	45.65	-39.1	-39.8	24.8	0.00e+00	0	35	0	2838495232	49	3971
2026-01-17 11:38:51.71	335.57	45.35	-39.1	-39.8	24.8	0.00e+00	0	35	0	2844786688	49	3981
2026-01-17 11:38:52.72	335.55	45.04	-39.1	-39.8	24.7	0.00e+00	0	35	0	2850029568	49	4000
2026-01-17 11:38:53.73	335.52	44.74	-39.0	-39.7	24.8	0.00e+00	0	35	0	2855272448	49	3939
2026-01-17 11:38:54.73	335.50	44.45	-39.1	-39.8	24.8	0.00e+00	0	35	0	2861563904	49	3959
2026-01-17 11:38:55.74	335.48	44.15	-38.9	-39.6	24.9	0.00e+00	0	35	0	2866806784	49	3907
2026-01-17 11:38:56.75	335.45	43.85	-38.9	-39.6	24.9	0.00e+00	0	35	0	2873098240	49	3882
2026-01-17 11:38:57.76	335.43	43.56	-39.0	-39.7	24.8	0.00e+00	0	35	0	2878341120	49	3942
2026-01-17 11:38:58.77	335.41	43.27	-39.1	-39.9	24.7	0.00e+00	0	35	0	2884632576	49	4011
2026-01-17 11:38:59.78	335.39	42.98	-39.2	-40.0	24.6	0.00e+00	0	35	0	2889875456	49	4067
2026-01-17 11:39:00.79	335.37	42.70	-39.3	-40.1	24.5	0.00e+00	0	35	0	2895118336	49	4106
2026-01-17 11:39:01.80	335.35	42.41	-39.1	-39.8	24.7	0.00e+00	0	35	0	2901409792	49	3983
2026-01-17 11:39:02.80	335.33	42.14	-39.1	-39.8	24.7	0.00e+00	0	35	0	2906652672	49	3997
2026-01-17 11:39:03.81	335.31	41.86	-38.9	-39.6	24.9	0.00e+00	0	35	0	2912944128	49	3907
2026-01-17 11:39:04.82	335.29	41.58	-38.7	-39.4	25.1	0.00e+00	0	35	0	2918187008	49	3808
2026-01-17 11:39:05.83	335.27	41.30	-38.5	-39.2	25.3	0.00e+00	0	35	0	2923429888	49	3709
2026-01-17 11:39:06.84	335.25	41.03	-38.6	-39.3	25.2	0.00e+00	0	35	0	2929721344	49	3747
2026-01-17 11:39:07.84	335.23	40.76	-38.5	-39.2	25.3	0.00e+00	0	35	0	2934964224	49	3712
2026-01-17 11:39:08.85	335.22	40.49	-38.5	-39.2	25.3	0.00e+00	0	35	0	2941255680	48	3916
2026-01-17 11:39:09.86	335.20	40.23	-38.5	-39.2	25.2	0.00e+00	0	35	0	2946498560	48	3943
2026-01-17 11:39:10.87	335.18	39.96	-38.5	-39.2	25.3	0.00e+00	0	35	0	2952790016	48	3927
2026-01-17 11:39:11.88	335.17	39.70	-38.4	-39.1	25.3	0.00e+00	0	35	0	2958032896	48	3899
2026-01-17 11:39:12.88	335.15	39.44	-38.4	-39.1	25.3	0.00e+00	0	35	0	2963275776	48	3877
2026-01-17 11:39:13.89	335.13	39.18	-38.1	-38.8	25.6	0.00e+00	0	35	0	2969567232	48	3744
2026-01-17 11:39:14.90	335.12	38.92	-38.0	-38.7	25.6	0.00e+00	0	35	0	2974810112	48	3722
2026-01-17 11:39:15.91	335.10	38.67	-38.0	-38.6	25.7	0.00e+00	0	35	0	2980052992	48	3692
2026-01-17 11:39:16.92	335.09	38.41	-37.6	-38.2	25.6	0.00e+00	0	35	0	2986344448	47	3736
2026-01-17 11:39:17.93	335.07	38.16	-37.6	-38.3	25.5	0.00e+00	0	35	0	2991587328	47	3744
2026-01-17 11:39:18.94	335.06	37.91	-37.7	-38.4	25.4	0.00e+00	0	35	0	2997878784	47	3797
2026-01-17 11:39:19.95	335.04	37.67	-37.8	-38.5	25.3	0.00e+00	0	35	0	3003121664	47	3857
2026-01-17 11:39:20.96	335.03	37.42	-38.0	-38.7	25.2	0.00e+00	0	35	0	3009413120	47	3941
2026-01-17 11:39:21.96	335.02	37.18	-38.2	-38.9	24.9	0.00e+00	0	35	0	3014656000	47	4050
2026-01-17 11:39:22.97	335.00	36.94	-38.4	-39.1	24.8	0.00e+00	0	35	0	3020947456	47	4135
2026-01-17 11:39:23.98	334.99	36.69	-38.5	-39.2	24.7	0.00e+00	0	35	0	3026190336	47	4182
2026-01-17 11:39:24.99	334.98	36.46	-38.5	-39.3	24.6	0.00e+00	0	35	0	3031433216	47	4219
2026-01-17 11:39:26.00	334.97	36.22	-38.5	-39.3	24.6	0.00e+00	0	35	0	3037724672	47	4219
2026-01-17 11:39:27.00	334.95	35.99	-38.5	-39.2	24.7	0.00e+00	0	35	0	3042967552	47	4177
2026-01-17 11:39:28.01	334.94	35.75	-38.4	-39.2	24.7	0.00e+00	0	35	0	3048210432	47	4159
2026-01-17 11:39:29.02	334.93	35.52	-38.5	-39.2	24.7	0.00e+00	0	35	0	3054501888	47	4162
2026-01-17 11:39:30.03	334.92	35.29	-38.4	-39.1	24.8	0.00e+00	0	35	0	3059744768	47	4118
2026-01-17 11:39:31.04	334.91	35.06	-38.4	-39.1	24.8	0.00e+00	0	35	0	3064987648	47	4117
2026-01-17 11:39:32.05	334.89	34.83	-38.3	-39.0	24.9	0.00e+00	0	35	0	3071279104	47	4054
2026-01-17 11:39:33.06	334.88	34.61	-38.3	-39.0	24.8	0.00e+00	0	35	0	3077570560	47	4078
2026-01-17 11:39:34.06	334.87	34.39	-38.2	-38.9	24.9	0.00e+00	0	35	0	3082813440	47	4029
2026-01-17 11:39:35.07	334.86	34.16	-38.2	-38.9	24.9	0.00e+00	0	35	0	3088056320	47	4043
2026-01-17 11:39:36.08	334.85	33.94	-38.2	-38.9	24.9	0.00e+00	0	35	0	3094347776	47	4049
2026-01-17 11:39:37.09	334.84	33.73	-38.4	-39.1	24.8	0.00e+00	0	35	0	3099590656	47	4117
2026-01-17 11:39:38.10	334.83	33.51	-38.5	-39.3	24.6	0.00e+00	0	35	0	3105882112	47	4199
2026-01-17 11:39:39.11	334.82	33.29	-38.5	-39.3	24.6	0.00e+00	0	35	0	3111124992	47	4202
2026-01-17 11:39:40.12	334.81	33.08	-38.6	-39.4	24.5	0.00e+00	0	35	0	3116367872	47	4252
2026-01-17 11:39:41.12	334.80	32.87	-39.0	-39.8	24.7	0.00e+00	0	35	0	3122659328	48	4196
2026-01-17 11:39:42.13	334.79	32.66	-39.2	-39.9	24.6	0.00e+00	0	35	0	3127902208	48	4263
2026-01-17 11:39:43.14	334.78	32.45	-39.2	-39.9	24.5	0.00e+00	0	35	0	3133145088	49	4050
2026-01-17 11:39:44.15	334.78	32.24	-39.2	-39.9	24.5	0.00e+00	0	35	0	3139436544	49	4049
2026-01-17 11:39:45.16	334.77	32.03	-39.1	-39.9	24.6	0.00e+00	0	35	0	3145728000	49	4014
2026-01-17 11:39:46.17	334.76	31.82	-39.0	-39.7	24.7	0.00e+00	0	35	0	3150970880	49	3946
2026-01-17 11:39:47.18	334.75	31.62	-39.0	-39.7	24.7	0.00e+00	0	35	0	3156213760	49	3934
2026-01-17 11:39:48.18	334.74	31.42	-39.0	-39.7	24.7	0.00e+00	0	35	0	3162505216	49	3921
2026-01-17 11:39:49.19	334.73	31.22	-39.0	-39.7	24.7	0.00e+00	0	35	0	3167748096	49	3928
2026-01-17 11:39:50.20	334.72	31.02	-38.9	-39.6	24.7	0.00e+00	0	35	0	3172990976	49	3907
2026-01-17 11:39:51.21	334.72	30.82	-38.9	-39.6	24.8	0.00e+00	0	35	0	3179282432	49	3885
2026-01-17 11:39:52.22	334.71	30.62	-38.9	-39.6	24.8	0.00e+00	0	35	0	3184525312	49	3870
2026-01-17 11:39:53.23	334.70	30.43	-38.9	-39.6	24.7	0.00e+00	0	35	0	3190816768	49	3908
2026-01-17 11:39:54.24	334.69	30.23	-38.8	-39.5	24.9	0.00e+00	0	35	0	3196059648	49	3835
2026-01-17 11:39:55.25	334.69	30.04	-38.8	-39.4	24.9	0.00e+00	0	35	0	3202351104	49	3821
2026-01-17 11:39:56.26	334.68	29.85	-38.8	-39.5	24.9	0.00e+00	0	35	0	3207593984	49	3835
2026-01-17 11:39:57.26	334.67	29.66	-38.7	-39.4	24.9	0.00e+00	0	35	0	3213885440	49	3802
2026-01-17 11:39:58.27	334.67	29.47	-38.7	-39.4	24.9	0.00e+00	0	35	0	3219128320	49	3813
2026-01-17 11:39:59.28	334.66	29.28	-38.8	-39.5	24.8	0.00e+00	0	35	0	3224371200	49	3843
2026-01-17 11:40:00.29	334.65	29.09	-38.8	-39.5	24.8	0.00e+00	0	35	0	3230662656	49	3863
2026-01-17 11:40:01.30	334.65	28.91	-38.8	-39.5	24.8	0.00e+00	0	35	0	3235905536	49	3838
2026-01-17 11:40:02.31	334.64	28.72	-38.9	-39.6	24.7	0.00e+00	0	35	0	3241148416	49	3894
2026-01-17 11:40:03.32	334.63	28.54	-38.9	-39.6	24.8	0.00e+00	0	35	0	3247439872	49	3877
2026-01-17 11:40:04.32	334.63	28.36	-38.9	-39.6	24.7	0.00e+00	0	35	0	3252682752	49	3910
2026-01-17 11:40:05.33	334.62	28.18	-38.8	-39.5	24.8	0.00e+00	0	35	0	3257925632	49	3858
2026-01-17 11:40:06.34	334.62	28.00	-38.7	-39.4	24.9	0.00e+00	0	35	0	3264217088	49	3808
2026-01-17 11:40:07.35	334.61	27.82	-38.7	-39.4	24.9	0.00e+00	0	35	0	3270508544	49	3811
2026-01-17 11:40:08.36	334.60	27.64	-38.7	-39.4	24.9	0.00e+00	0	35	0	3275751424	49	3794
2026-01-17 11:40:09.37	334.60	27.47	-38.7	-39.4	24.9	0.00e+00	0	35	0	3280994304	49	3789
2026-01-17 11:40:10.38	334.59	27.29	-38.7	-39.4	24.9	0.00e+00	0	35	0	3287285760	49	3784
2026-01-17 11:40:11.38	334.59	27.12	-38.7	-39.3	24.9	0.00e+00	0	35	0	3292528640	49	3775
2026-01-17 11:40:12.39	334.58	26.95	-38.7	-39.3	24.9	0.00e+00	0	35	0	3298820096	49	3779
2026-01-17 11:40:13.40	334.58	26.77	-38.8	-39.5	24.8	0.00e+00	0	35	0	3304062976	49	3825
2026-01-17 11:40:14.41	334.57	26.60	-38.8	-39.5	24.8	0.00e+00	0	35	0	3309305856	49	3848
2026-01-17 11:40:15.42	334.57	26.43	-38.9	-39.6	24.7	0.00e+00	0	35	0	3315597312	49	3879
2026-01-17 11:40:16.43	334.56	26.27	-39.0	-39.7	24.6	0.00e+00	0	35	0	3320840192	49	3923
2026-01-17 11:40:17.44	334.56	26.10	-39.0	-39.8	24.5	0.00e+00	0	35	0	3326083072	49	3966
2026-01-17 11:40:18.45	334.55	25.93	-39.1	-39.8	24.5	0.00e+00	0	35	0	3332374528	49	3987
2026-01-17 11:40:19.45	334.55	25.77	-39.2	-40.0	24.4	0.00e+00	0	35	0	3338665984	49	4063
2026-01-17 11:40:20.46	334.54	25.60	-39.2	-40.0	24.3	0.00e+00	0	35	0	3343908864	49	4063
2026-01-17 11:40:21.47	334.54	25.44	-39.3	-40.1	24.3	0.00e+00	0	35	0	3349151744	49	4102
2026-01-17 11:40:22.48	334.53	25.28	-39.3	-40.0	24.3	0.00e+00	0	35	0	3355443200	49	4089
2026-01-17 11:40:23.49	334.53	25.12	-39.3	-40.0	24.3	0.00e+00	0	35	0	3360686080	49	4084
2026-01-17 11:40:24.50	334.53	24.96	-39.4	-40.1	24.2	0.00e+00	0	35	0	3365928960	49	4127
2026-01-17 11:40:25.51	334.52	24.80	-39.4	-40.1	24.2	0.00e+00	0	35	0	3372220416	49	4135
2026-01-17 11:40:26.52	334.52	24.64	-39.3	-40.1	24.2	0.00e+00	0	35	0	3377463296	49	4103
2026-01-17 11:40:27.53	334.51	24.48	-39.3	-40.1	24.3	0.00e+00	0	35	0	3383754752	49	4100
2026-01-17 11:40:28.53	334.51	24.33	-39.4	-40.1	24.2	0.00e+00	0	35	0	3388997632	49	4115
2026-01-17 11:40:29.54	334.51	24.17	-39.3	-40.0	24.3	0.00e+00	0	35	0	3394240512	49	4088
2026-01-17 11:40:30.55	334.50	24.01	-39.5	-40.2	24.1	0.00e+00	0	35	0	3400531968	49	4159
2026-01-17 11:40:31.56	334.50	23.86	-39.5	-40.2	24.1	0.00e+00	0	35	0	3406823424	49	4171
2026-01-17 11:40:32.57	334.50	23.71	-39.4	-40.1	24.1	0.00e+00	0	35	0	3412066304	49	4142
2026-01-17 11:40:33.58	334.49	23.56	-39.4	-40.1	24.1	0.00e+00	0	35	0	3417309184	49	4139
2026-01-17 11:40:34.58	334.49	23.41	-39.4	-40.2	24.1	0.00e+00	0	35	0	3423600640	49	4157
2026-01-17 11:40:35.59	334.49	23.26	-39.5	-40.3	24.0	0.00e+00	0	35	0	3428843520	49	4195
2026-01-17 11:40:36.60	334.48	23.11	-39.6	-40.3	24.0	0.00e+00	0	35	0	3434086400	49	4218
2026-01-17 11:40:37.61	334.48	22.96	-39.6	-40.4	23.9	0.00e+00	0	35	0	3440377856	49	4248
2026-01-17 11:40:38.62	334.48	22.81	-39.8	-40.5	23.8	0.00e+00	0	35	0	3445620736	50	4071
2026-01-17 11:40:39.63	334.47	22.66	-39.8	-40.5	23.8	0.00e+00	0	35	0	3450863616	50	4080
2026-01-17 11:40:40.64	334.47	22.52	-39.7	-40.5	23.8	0.00e+00	0	35	0	3457155072	50	4066
2026-01-17 11:40:41.64	334.47	22.37	-39.9	-40.6	23.7	0.00e+00	0	35	0	3462397952	50	4131
2026-01-17 11:40:42.65	334.46	22.23	-39.9	-40.6	23.7	0.00e+00	0	35	0	3468689408	50	4135
2026-01-17 11:40:43.66	334.46	22.09	-39.9	-40.7	23.6	0.00e+00	0	35	0	3473932288	50	4171
2026-01-17 11:40:44.67	334.46	21.94	-39.9	-40.7	23.6	0.00e+00	0	35	0	3480223744	50	4164
2026-01-17 11:40:45.68	334.46	21.80	-39.9	-40.6	23.7	0.00e+00	0	35	0	3485466624	50	4131
2026-01-17 11:40:46.68	334.45	21.66	-39.9	-40.6	23.7	0.00e+00	0	35	0	3491758080	50	4136
2026-01-17 11:40:47.69	334.45	21.52	-39.9	-40.7	23.6	0.00e+00	0	35	0	3497000960	50	4171
2026-01-17 11:40:48.70	334.45	21.38	-39.9	-40.7	23.6	0.00e+00	0	35	0	3502243840	50	4155
2026-01-17 11:40:49.71	334.45	21.24	-40.0	-40.8	23.5	0.00e+00	0	35	0	3508535296	50	4215
2026-01-17 11:40:50.72	334.44	21.10	-39.9	-40.7	23.6	0.00e+00	0	35	0	3513778176	50	4162
2026-01-17 11:40:51.72	334.44	20.97	-40.0	-40.7	23.5	0.00e+00	0	35	0	3519021056	50	4187
2026-01-17 11:40:52.73	334.44	20.83	-39.9	-40.7	23.6	0.00e+00	0	35	0	3525312512	50	4161
2026-01-17 11:40:53.74	334.44	20.70	-40.0	-40.7	23.5	0.00e+00	0	35	0	3530555392	50	4176
2026-01-17 11:40:54.75	334.43	20.56	-40.0	-40.7	23.5	0.00e+00	0	35	0	3536846848	50	4192
2026-01-17 11:40:55.76	334.43	20.43	-40.0	-40.7	23.5	0.00e+00	0	35	0	3542089728	50	4185
2026-01-17 11:40:56.77	334.43	20.29	-40.1	-40.8	23.4	0.00e+00	0	35	0	3548381184	50	4235
2026-01-17 11:40:57.78	334.43	20.16	-40.0	-40.8	23.5	0.00e+00	0	35	0	3553624064	50	4212
2026-01-17 11:40:58.79	334.43	20.03	-40.1	-40.8	23.4	0.00e+00	0	35	0	3558866944	50	4231
2026-01-17 11:40:59.80	334.43	19.90	-40.2	-40.9	23.3	0.00e+00	0	35	0	3565158400	50	4281
2026-01-17 11:41:00.80	334.42	19.77	-40.1	-40.9	23.4	0.00e+00	0	35	0	3570401280	50	4254
2026-01-17 11:41:01.81	334.42	19.64	-40.1	-40.9	23.3	0.00e+00	0	35	0	3576692736	50	4264
2026-01-17 11:41:02.82	334.42	19.51	-40.2	-41.0	23.3	0.00e+00	0	35	0	3581935616	50	4298
2026-01-17 11:41:03.83	334.42	19.38	-40.2	-41.0	23.3	0.00e+00	0	35	0	3587178496	51	4057
2026-01-17 11:41:04.84	334.42	19.25	-40.2	-41.0	23.3	0.00e+00	0	35	0	3593469952	51	4053
2026-01-17 11:41:05.85	334.42	19.12	-40.2	-41.0	23.3	0.00e+00	0	35	0	3598712832	51	4064
2026-01-17 11:41:06.86	334.41	19.00	-40.3	-41.1	23.2	0.00e+00	0	35	0	3605004288	51	4114
2026-01-17 11:41:07.86	334.41	18.87	-40.3	-41.1	23.2	0.00e+00	0	35	0	3610247168	51	4117
2026-01-17 11:41:08.87	334.41	18.74	-40.3	-41.1	23.2	0.00e+00	0	35	0	3616538624	51	4119
2026-01-17 11:41:09.88	334.41	18.62	-40.4	-41.2	23.0	0.00e+00	0	35	0	3621781504	51	4180
2026-01-17 11:41:10.89	334.41	18.50	-40.4	-41.2	23.0	0.00e+00	0	35	0	3627024384	51	4179
2026-01-17 11:41:11.90	334.41	18.37	-40.4	-41.1	23.1	0.00e+00	0	35	0	3633315840	51	4131
2026-01-17 11:41:12.91	334.41	18.25	-40.5	-41.2	23.0	0.00e+00	0	35	0	3638558720	51	4188
2026-01-17 11:41:13.92	334.40	18.13	-40.5	-41.3	23.0	0.00e+00	0	35	0	3643801600	51	4196
2026-01-17 11:41:14.93	334.40	18.00	-40.5	-41.3	23.0	0.00e+00	0	35	0	3650093056	51	4206
2026-01-17 11:41:15.94	334.40	17.88	-40.6	-41.4	22.9	0.00e+00	0	35	0	3655335936	51	4259
2026-01-17 11:41:16.94	334.40	17.76	-40.6	-41.4	22.9	0.00e+00	0	35	0	3661627392	51	4246
2026-01-17 11:41:17.95	334.40	17.64	-40.7	-41.5	22.8	0.00e+00	0	35	0	3666870272	51	4298
2026-01-17 11:41:18.96	334.40	17.52	-40.7	-41.5	22.7	0.00e+00	0	35	0	3673161728	52	4065
2026-01-17 11:41:19.97	334.40	17.41	-40.6	-41.4	22.7	0.00e+00	0	35	0	3678404608	52	4040
2026-01-17 11:41:20.98	334.40	17.29	-40.6	-41.4	22.8	0.00e+00	0	35	0	3683647488	52	4023
2026-01-17 11:41:21.99	334.40	17.17	-40.6	-41.5	22.7	0.00e+00	0	35	0	3689938944	52	4053
