passes_logs/2026/01/17/R3.2S_Murmansk/R3.2S_Murmansk__20260117_091137_NOAA_20_JPSS-1_rec.log

#Pass ID: 20260117_091137_NOAA 20 (JPSS-1)
#Satellite: NOAA 20 (JPSS-1)
#Configuration: NOAA 20
#almurnet v.1.7.20251203
#Start time: 2026-01-17 09:11:36

#Version: 2.2.20231116
#Station: R3.2S_Murmansk
#Location: 33.079688 lon 68.888172 lat
#TLE: 1 43013U 17073A   26016.52825843  .00000039  00000+0  39346-4 0  9991
#TLE: 2 43013  98.7637 317.4515 0001446  37.2648 322.8628 14.19536276422951

#Time	Az	El	Level	Level2	SNR	BER	BlckErr	Temp	State	Recorded	gain1	gain2
2026-01-17 09:11:36.94	143.77	1.99	-51.8	-66.8	3.8	1.49e+00	0	31	0	0	75	20001
2026-01-17 09:11:37.95	143.77	2.06	-51.8	-66.8	3.8	1.49e+00	0	32	104	0	74	21209
2026-01-17 09:11:38.96	143.76	2.12	-51.8	-66.8	3.8	1.49e+00	0	32	104	0	74	21195
2026-01-17 09:11:39.97	143.75	2.19	-51.8	-66.8	3.8	1.49e+00	0	32	104	0	74	21185
2026-01-17 09:11:40.98	143.75	2.25	-51.8	-66.8	3.8	1.49e+00	0	32	104	0	74	21159
2026-01-17 09:11:41.99	143.74	2.32	-51.8	-66.8	3.8	1.49e+00	0	32	104	0	74	21097
2026-01-17 09:11:43.00	143.74	2.38	-51.8	-66.8	3.8	1.49e+00	0	32	104	0	74	21157
2026-01-17 09:11:44.01	143.73	2.45	-51.8	-66.8	3.8	1.49e+00	0	32	104	0	74	21110
2026-01-17 09:11:45.01	143.72	2.51	-51.8	-66.8	3.8	1.49e+00	0	32	104	0	74	21086
2026-01-17 09:11:46.02	143.72	2.58	-51.8	-66.8	3.8	1.49e+00	0	32	104	0	74	21110
2026-01-17 09:11:47.03	143.71	2.65	-51.8	-66.8	3.8	1.49e+00	0	32	104	0	74	21069
2026-01-17 09:11:48.04	143.71	2.71	-51.8	-66.8	3.8	1.49e+00	0	32	104	0	74	21090
2026-01-17 09:11:49.05	143.70	2.78	-51.8	-66.8	3.8	1.49e+00	0	32	104	0	74	21050
2026-01-17 09:11:50.06	143.69	2.85	-51.8	-66.7	3.8	1.49e+00	0	32	104	0	74	20999
2026-01-17 09:11:51.06	143.69	2.91	-51.8	-66.7	3.8	1.49e+00	0	32	104	0	74	20998
2026-01-17 09:11:52.07	143.68	2.98	-51.8	-66.7	3.8	1.49e+00	0	32	104	0	74	20932
2026-01-17 09:11:53.08	143.67	3.05	-51.8	-66.7	3.8	1.49e+00	0	32	104	0	74	20894
2026-01-17 09:11:54.09	143.67	3.11	-51.8	-66.7	3.8	1.49e+00	0	32	104	0	74	20801
2026-01-17 09:11:55.10	143.66	3.18	-51.8	-66.6	3.8	1.49e+00	0	32	104	0	74	20573
2026-01-17 09:11:56.11	143.65	3.25	-51.8	-66.5	3.8	1.49e+00	0	32	104	0	74	20416
2026-01-17 09:11:57.12	143.65	3.32	-51.8	-66.4	3.8	1.49e+00	0	32	104	0	74	20107
2026-01-17 09:11:58.13	143.64	3.38	-51.8	-66.0	3.8	1.49e+00	0	32	104	0	74	19318
2026-01-17 09:11:59.13	143.63	3.45	-51.8	-65.7	3.8	1.49e+00	0	32	104	0	74	18655
2026-01-17 09:12:00.14	143.63	3.52	-51.7	-64.7	3.8	1.49e+00	0	32	104	0	74	16688
2026-01-17 09:12:01.15	143.62	3.59	-51.7	-64.2	3.8	1.48e+00	0	32	104	0	74	15654
2026-01-17 09:12:02.16	143.61	3.66	-51.7	-63.8	4.1	1.46e+00	0	32	104	0	74	14977
2026-01-17 09:12:03.17	143.61	3.73	-51.6	-63.3	4.2	1.43e+00	0	32	0	0	74	14128
2026-01-17 09:12:04.18	143.60	3.79	-51.6	-63.0	4.3	1.36e+00	0	32	0	0	74	13640
2026-01-17 09:12:05.19	143.59	3.86	-51.6	-63.0	4.3	1.33e+00	138	33	0	0	74	13571
2026-01-17 09:12:06.20	143.58	3.93	-51.6	-62.8	4.3	1.33e+00	0	32	0	1048576	74	13405
2026-01-17 09:12:07.21	143.58	4.00	-51.6	-62.5	4.5	1.35e+00	96	33	0	2097152	74	12870
2026-01-17 09:12:08.22	143.57	4.07	-51.5	-62.1	4.6	1.00e+00	0	32	0	3145728	74	12274
2026-01-17 09:12:09.22	143.56	4.14	-51.5	-61.4	4.9	8.37e-01	0	32	0	5242880	74	11374
2026-01-17 09:12:10.23	143.56	4.21	-51.3	-60.1	5.7	5.78e-01	0	32	0	7340032	74	9820
2026-01-17 09:12:11.24	143.55	4.28	-51.2	-59.2	6.4	3.73e-01	0	32	0	9437184	74	8787
2026-01-17 09:12:12.25	143.54	4.35	-51.0	-58.5	7.1	1.69e-01	0	33	0	11534336	74	8091
2026-01-17 09:12:13.26	143.53	4.42	-50.7	-57.1	8.4	6.70e-02	0	32	0	12582912	73	7316
2026-01-17 09:12:14.26	143.53	4.49	-50.3	-55.7	9.8	1.51e-02	0	32	0	14680064	72	6643
2026-01-17 09:12:15.27	143.52	4.56	-50.1	-55.1	10.5	5.12e-03	0	33	0	16777216	72	6172
2026-01-17 09:12:16.28	143.51	4.64	-49.7	-54.1	11.7	7.38e-04	0	33	0	18874368	71	5789
2026-01-17 09:12:17.29	143.50	4.71	-49.5	-53.5	12.2	3.70e-04	0	33	0	20971520	71	5431
2026-01-17 09:12:18.30	143.50	4.78	-49.2	-52.9	12.9	6.63e-05	0	33	0	22020096	70	5358
2026-01-17 09:12:19.31	143.49	4.85	-48.9	-52.2	13.6	1.52e-05	0	33	0	24117248	69	5242
2026-01-17 09:12:20.32	143.48	4.92	-48.8	-52.1	13.6	1.22e-05	0	33	0	26214400	69	5207
2026-01-17 09:12:21.33	143.47	4.99	-48.7	-52.0	13.8	3.00e-06	0	33	0	28311552	69	5107
2026-01-17 09:12:22.34	143.46	5.07	-48.9	-52.2	13.5	1.06e-05	0	33	0	30408704	69	5275
2026-01-17 09:12:23.35	143.46	5.14	-49.8	-53.9	12.1	7.32e-05	0	33	0	32505856	70	6051
2026-01-17 09:12:24.35	143.45	5.21	-49.2	-52.6	13.1	1.05e-02	0	33	0	33554432	70	5206
2026-01-17 09:12:25.36	143.44	5.28	-49.9	-54.4	11.1	2.22e-02	0	33	0	35651584	71	6005
2026-01-17 09:12:26.37	143.43	5.36	-48.4	-51.2	14.7	1.50e-06	0	33	0	37748736	68	4976
2026-01-17 09:12:27.38	143.42	5.43	-50.0	-54.8	10.7	2.77e-02	0	33	0	39845888	72	5941
2026-01-17 09:12:28.39	143.41	5.50	-48.3	-51.1	14.9	0.00e+00	0	33	0	40894464	68	4873
2026-01-17 09:12:29.40	143.41	5.58	-48.3	-51.1	14.9	0.00e+00	0	33	0	42991616	68	4877
2026-01-17 09:12:30.41	143.40	5.65	-48.4	-51.3	14.7	0.00e+00	0	33	0	45088768	68	4987
2026-01-17 09:12:31.42	143.39	5.73	-48.3	-51.0	15.0	0.00e+00	0	33	0	47185920	68	4835
2026-01-17 09:12:32.43	143.38	5.80	-48.4	-51.2	14.8	0.00e+00	0	33	0	49283072	68	4970
2026-01-17 09:12:33.44	143.37	5.88	-48.3	-51.1	14.9	7.00e-07	0	33	0	50331648	68	4915
2026-01-17 09:12:34.44	143.36	5.95	-48.3	-51.0	15.0	0.00e+00	0	33	0	52428800	68	4857
2026-01-17 09:12:35.45	143.36	6.02	-48.4	-51.2	14.9	7.00e-07	0	33	0	54525952	68	4959
2026-01-17 09:12:36.46	143.35	6.10	-48.3	-51.0	15.1	7.00e-07	0	33	0	56623104	68	4867
2026-01-17 09:12:37.47	143.34	6.18	-48.5	-51.4	14.7	7.00e-07	0	33	0	58720256	68	5077
2026-01-17 09:12:38.48	143.33	6.25	-48.4	-51.2	14.9	0.00e+00	0	33	0	60817408	68	4964
2026-01-17 09:12:39.49	143.32	6.33	-48.2	-50.8	15.3	0.00e+00	0	33	0	61865984	68	4754
2026-01-17 09:12:40.50	143.31	6.40	-48.3	-51.0	15.1	0.00e+00	0	33	0	63963136	68	4848
2026-01-17 09:12:41.50	143.30	6.48	-48.1	-50.7	15.5	0.00e+00	0	33	0	66060288	68	4669
2026-01-17 09:12:42.51	143.29	6.56	-48.3	-51.0	15.1	0.00e+00	0	33	0	68157440	68	4866
2026-01-17 09:12:43.52	143.28	6.63	-48.1	-50.6	15.5	0.00e+00	0	33	0	69206016	68	4633
2026-01-17 09:12:44.53	143.27	6.71	-48.2	-50.9	15.3	0.00e+00	0	33	0	71303168	68	4767
2026-01-17 09:12:45.54	143.26	6.79	-48.1	-50.6	15.6	0.00e+00	0	33	0	73400320	68	4609
2026-01-17 09:12:46.55	143.26	6.86	-48.0	-50.5	15.7	0.00e+00	0	33	0	75497472	68	4573
2026-01-17 09:12:47.56	143.25	6.94	-48.1	-50.6	15.6	7.00e-07	0	33	0	77594624	68	4622
2026-01-17 09:12:48.56	143.24	7.02	-48.0	-50.4	15.8	0.00e+00	0	33	0	79691776	68	4534
2026-01-17 09:12:49.57	143.23	7.10	-48.0	-50.5	15.7	0.00e+00	0	33	0	80740352	67	4844
2026-01-17 09:12:50.58	143.22	7.18	-47.9	-50.4	15.8	0.00e+00	0	33	0	82837504	67	4779
2026-01-17 09:12:51.59	143.21	7.25	-47.9	-50.3	15.9	0.00e+00	0	33	0	84934656	67	4721
2026-01-17 09:12:52.59	143.20	7.33	-48.0	-50.4	15.8	0.00e+00	0	33	0	87031808	67	4804
2026-01-17 09:12:53.61	143.19	7.41	-47.9	-50.3	15.9	0.00e+00	0	33	0	89128960	67	4735
2026-01-17 09:12:54.61	143.18	7.49	-47.8	-50.2	16.0	0.00e+00	0	33	0	90177536	67	4689
2026-01-17 09:12:55.62	143.17	7.57	-47.9	-50.3	15.9	0.00e+00	0	33	0	92274688	67	4733
2026-01-17 09:12:56.63	143.16	7.65	-48.1	-50.6	15.7	0.00e+00	0	33	0	94371840	67	4878
2026-01-17 09:12:57.64	143.15	7.73	-47.8	-50.2	16.0	0.00e+00	0	33	0	96468992	67	4672
2026-01-17 09:12:58.65	143.14	7.81	-47.8	-50.2	16.0	0.00e+00	0	33	0	98566144	67	4688
2026-01-17 09:12:59.66	143.13	7.89	-47.7	-50.0	16.2	0.00e+00	0	33	0	99614720	67	4575
2026-01-17 09:13:00.66	143.12	7.97	-47.9	-50.3	16.0	0.00e+00	0	33	0	101711872	67	4706
2026-01-17 09:13:01.67	143.11	8.05	-47.9	-50.2	16.1	0.00e+00	0	33	0	103809024	67	4697
2026-01-17 09:13:02.68	143.09	8.13	-47.7	-50.0	16.3	0.00e+00	0	33	0	105906176	67	4592
2026-01-17 09:13:03.69	143.08	8.22	-47.9	-50.3	16.0	0.00e+00	0	33	0	108003328	67	4733
2026-01-17 09:13:04.70	143.07	8.30	-47.6	-49.8	16.5	0.00e+00	0	33	0	109051904	67	4465
2026-01-17 09:13:05.70	143.06	8.38	-47.7	-49.9	16.4	0.00e+00	0	33	0	111149056	67	4524
2026-01-17 09:13:06.71	143.05	8.46	-47.7	-50.0	16.3	0.00e+00	0	33	0	113246208	67	4572
2026-01-17 09:13:07.72	143.04	8.54	-47.7	-49.9	16.4	0.00e+00	0	33	0	115343360	67	4514
2026-01-17 09:13:08.73	143.03	8.63	-47.6	-49.8	16.6	0.00e+00	0	33	0	117440512	67	4461
2026-01-17 09:13:09.74	143.02	8.71	-47.5	-49.7	16.6	0.00e+00	0	33	0	118489088	67	4431
2026-01-17 09:13:10.75	143.01	8.79	-47.5	-49.6	16.8	0.00e+00	0	33	0	120586240	66	4614
2026-01-17 09:13:11.76	143.00	8.88	-47.6	-49.8	16.6	0.00e+00	0	33	0	122683392	66	4723
2026-01-17 09:13:12.76	142.98	8.96	-47.6	-49.7	16.6	0.00e+00	0	33	0	124780544	66	4701
2026-01-17 09:13:13.77	142.97	9.05	-47.5	-49.7	16.7	0.00e+00	0	33	0	126877696	66	4664
2026-01-17 09:13:14.78	142.96	9.13	-47.5	-49.6	16.8	0.00e+00	0	33	0	127926272	66	4615
2026-01-17 09:13:15.79	142.95	9.22	-47.3	-49.4	17.0	0.00e+00	0	33	0	130023424	66	4519
2026-01-17 09:13:16.80	142.94	9.30	-47.4	-49.5	16.9	0.00e+00	0	33	0	132120576	66	4572
2026-01-17 09:13:17.81	142.93	9.39	-47.4	-49.5	16.9	0.00e+00	0	33	0	134217728	66	4588
2026-01-17 09:13:18.82	142.91	9.47	-47.5	-49.6	16.9	0.00e+00	0	33	0	136314880	66	4603
2026-01-17 09:13:19.83	142.90	9.56	-47.4	-49.5	16.9	0.00e+00	0	33	0	137363456	66	4567
2026-01-17 09:13:20.83	142.89	9.64	-47.3	-49.4	17.0	0.00e+00	0	33	0	139460608	66	4508
2026-01-17 09:13:21.84	142.88	9.73	-47.3	-49.4	17.1	0.00e+00	0	33	0	141557760	66	4500
2026-01-17 09:13:22.85	142.87	9.82	-47.4	-49.4	17.0	0.00e+00	0	33	0	143654912	66	4530
2026-01-17 09:13:23.86	142.85	9.91	-47.3	-49.3	17.2	0.00e+00	0	33	0	145752064	66	4452
2026-01-17 09:13:24.86	142.84	9.99	-47.5	-49.6	16.9	0.00e+00	0	33	0	147849216	66	4608
2026-01-17 09:13:25.87	142.83	10.08	-47.3	-49.4	17.1	0.00e+00	0	33	0	148897792	66	4498
2026-01-17 09:13:26.88	142.82	10.17	-47.2	-49.2	17.2	0.00e+00	0	33	0	150994944	66	4429
2026-01-17 09:13:27.89	142.80	10.26	-47.4	-49.4	17.1	0.00e+00	0	33	0	153092096	66	4531
2026-01-17 09:13:28.90	142.79	10.35	-47.4	-49.4	17.1	0.00e+00	0	33	0	155189248	66	4531
2026-01-17 09:13:29.90	142.78	10.43	-47.3	-49.4	17.1	0.00e+00	0	33	0	156237824	66	4506
2026-01-17 09:13:30.91	142.76	10.52	-47.2	-49.1	17.4	0.00e+00	0	33	0	158334976	66	4368
2026-01-17 09:13:31.92	142.75	10.61	-47.1	-49.1	17.5	0.00e+00	0	33	0	160432128	66	4354
2026-01-17 09:13:32.93	142.74	10.70	-47.2	-49.2	17.3	0.00e+00	0	33	0	162529280	66	4400
2026-01-17 09:13:33.94	142.72	10.79	-47.2	-49.1	17.4	0.00e+00	0	33	0	164626432	66	4360
2026-01-17 09:13:34.94	142.71	10.88	-47.1	-49.0	17.5	0.00e+00	0	33	0	166723584	66	4337
2026-01-17 09:13:35.95	142.70	10.98	-47.1	-49.1	17.5	0.00e+00	0	33	0	167772160	66	4346
2026-01-17 09:13:36.96	142.68	11.07	-47.0	-48.8	17.7	0.00e+00	0	33	0	169869312	66	4240
2026-01-17 09:13:37.97	142.67	11.16	-47.0	-48.9	17.6	0.00e+00	0	33	0	171966464	65	4534
2026-01-17 09:13:38.98	142.66	11.25	-47.0	-48.8	17.7	0.00e+00	0	33	0	174063616	65	4482
2026-01-17 09:13:39.98	142.64	11.34	-46.9	-48.8	17.8	0.00e+00	0	33	0	176160768	65	4457
2026-01-17 09:13:40.99	142.63	11.44	-46.9	-48.8	17.8	0.00e+00	0	33	0	177209344	65	4443
2026-01-17 09:13:42.00	142.61	11.53	-46.9	-48.8	17.8	0.00e+00	0	33	0	179306496	65	4459
2026-01-17 09:13:43.01	142.60	11.62	-47.0	-48.8	17.7	0.00e+00	0	33	0	181403648	65	4482
2026-01-17 09:13:44.02	142.58	11.72	-46.9	-48.7	17.9	0.00e+00	0	33	0	183500800	65	4405
2026-01-17 09:13:45.02	142.57	11.81	-46.9	-48.8	17.8	0.00e+00	0	33	0	184549376	65	4446
2026-01-17 09:13:46.03	142.56	11.90	-46.9	-48.7	17.9	0.00e+00	0	33	0	186646528	65	4426
2026-01-17 09:13:47.04	142.54	12.00	-46.9	-48.7	17.9	0.00e+00	0	33	0	188743680	65	4423
2026-01-17 09:13:48.05	142.53	12.10	-46.8	-48.6	18.0	0.00e+00	0	33	0	190840832	65	4351
2026-01-17 09:13:49.06	142.51	12.19	-46.8	-48.6	17.9	0.00e+00	0	33	0	192937984	65	4382
2026-01-17 09:13:50.06	142.50	12.29	-46.9	-48.8	17.8	0.00e+00	0	33	0	195035136	65	4445
2026-01-17 09:13:51.07	142.48	12.38	-46.7	-48.5	18.1	0.00e+00	0	33	0	196083712	65	4319
2026-01-17 09:13:52.08	142.47	12.48	-46.7	-48.5	18.1	0.00e+00	0	33	0	198180864	65	4295
2026-01-17 09:13:53.09	142.45	12.58	-46.7	-48.4	18.2	0.00e+00	0	33	0	200278016	65	4268
2026-01-17 09:13:54.09	142.43	12.67	-46.7	-48.5	18.1	0.00e+00	0	33	0	202375168	65	4314
2026-01-17 09:13:55.10	142.42	12.77	-46.6	-48.4	18.3	0.00e+00	0	33	0	204472320	65	4251
2026-01-17 09:13:56.11	142.40	12.87	-46.6	-48.3	18.3	0.00e+00	0	33	0	205520896	65	4239
2026-01-17 09:13:57.12	142.39	12.97	-46.6	-48.3	18.4	0.00e+00	0	33	0	207618048	65	4194
2026-01-17 09:13:58.13	142.37	13.07	-46.5	-48.2	18.4	0.00e+00	0	33	0	209715200	65	4163
2026-01-17 09:13:59.14	142.35	13.17	-46.5	-48.2	18.4	0.00e+00	0	33	0	211812352	65	4183
2026-01-17 09:14:00.14	142.34	13.27	-46.6	-48.2	18.4	0.00e+00	0	33	0	213909504	65	4192
2026-01-17 09:14:01.15	142.32	13.37	-46.6	-48.3	18.4	0.00e+00	0	33	0	214958080	65	4200
2026-01-17 09:14:02.16	142.30	13.47	-46.6	-48.4	18.3	0.00e+00	0	33	0	217055232	65	4251
2026-01-17 09:14:03.17	142.29	13.57	-46.5	-48.2	18.5	0.00e+00	0	33	0	219152384	65	4163
2026-01-17 09:14:04.18	142.27	13.67	-46.4	-48.0	18.6	0.00e+00	0	33	0	221249536	64	4331
2026-01-17 09:14:05.18	142.25	13.77	-46.4	-48.1	18.6	0.00e+00	0	33	0	223346688	64	4363
2026-01-17 09:14:06.19	142.24	13.88	-46.4	-48.1	18.6	0.00e+00	0	33	0	224395264	64	4349
2026-01-17 09:14:07.20	142.22	13.98	-46.4	-48.0	18.7	0.00e+00	0	33	0	226492416	64	4306
2026-01-17 09:14:08.21	142.20	14.08	-46.4	-48.1	18.6	0.00e+00	0	34	0	228589568	64	4348
2026-01-17 09:14:09.22	142.18	14.19	-46.3	-47.9	18.7	0.00e+00	0	33	0	230686720	64	4284
2026-01-17 09:14:10.22	142.17	14.29	-46.3	-48.0	18.7	0.00e+00	0	34	0	232783872	64	4292
2026-01-17 09:14:11.23	142.15	14.39	-46.4	-48.0	18.7	0.00e+00	0	33	0	233832448	64	4318
2026-01-17 09:14:12.24	142.13	14.50	-46.3	-47.9	18.7	0.00e+00	0	34	0	235929600	64	4289
2026-01-17 09:14:13.25	142.11	14.61	-46.2	-47.8	18.8	0.00e+00	0	33	0	238026752	64	4240
2026-01-17 09:14:14.26	142.09	14.71	-46.2	-47.8	18.9	0.00e+00	0	33	0	240123904	64	4208
2026-01-17 09:14:15.26	142.07	14.82	-46.2	-47.8	18.9	0.00e+00	0	33	0	242221056	64	4195
2026-01-17 09:14:16.27	142.06	14.92	-46.1	-47.7	18.9	0.00e+00	0	33	0	243269632	64	4172
2026-01-17 09:14:17.28	142.04	15.03	-46.2	-47.7	18.9	0.00e+00	0	33	0	245366784	64	4185
2026-01-17 09:14:18.29	142.02	15.14	-46.2	-47.7	18.9	0.00e+00	0	33	0	247463936	64	4190
2026-01-17 09:14:19.30	142.00	15.25	-46.1	-47.7	19.0	0.00e+00	0	33	0	249561088	64	4155
2026-01-17 09:14:20.30	141.98	15.36	-46.0	-47.6	19.1	0.00e+00	0	33	0	251658240	64	4117
2026-01-17 09:14:21.31	141.96	15.47	-46.1	-47.7	19.0	0.00e+00	0	33	0	252706816	64	4149
2026-01-17 09:14:22.32	141.94	15.58	-46.0	-47.6	19.2	0.00e+00	0	33	0	254803968	64	4105
2026-01-17 09:14:23.33	141.92	15.69	-46.0	-47.6	19.2	0.00e+00	0	33	0	256901120	63	4347
2026-01-17 09:14:24.33	141.90	15.80	-46.1	-47.6	19.2	0.00e+00	0	34	0	258998272	63	4345
2026-01-17 09:14:25.34	141.88	15.91	-46.1	-47.6	19.2	0.00e+00	0	33	0	261095424	63	4354
2026-01-17 09:14:26.35	141.86	16.02	-46.0	-47.5	19.3	0.00e+00	0	34	0	262144000	63	4293
2026-01-17 09:14:27.36	141.84	16.13	-45.9	-47.3	19.5	0.00e+00	0	33	0	264241152	63	4242
2026-01-17 09:14:28.37	141.82	16.24	-46.0	-47.5	19.3	0.00e+00	0	33	0	266338304	63	4318
2026-01-17 09:14:29.38	141.80	16.36	-45.9	-47.4	19.4	0.00e+00	0	33	0	268435456	63	4285
2026-01-17 09:14:30.38	141.78	16.47	-45.8	-47.3	19.5	0.00e+00	0	33	0	270532608	63	4217
2026-01-17 09:14:31.39	141.75	16.59	-45.8	-47.3	19.5	0.00e+00	0	33	0	271581184	63	4201
2026-01-17 09:14:32.40	141.73	16.70	-45.7	-47.2	19.6	0.00e+00	0	34	0	273678336	63	4157
2026-01-17 09:14:33.41	141.71	16.82	-45.7	-47.1	19.7	0.00e+00	0	33	0	275775488	63	4131
2026-01-17 09:14:34.42	141.69	16.93	-45.7	-47.1	19.7	0.00e+00	0	33	0	277872640	63	4115
2026-01-17 09:14:35.43	141.67	17.05	-45.7	-47.1	19.7	0.00e+00	0	33	0	279969792	63	4113
2026-01-17 09:14:36.43	141.64	17.17	-45.7	-47.2	19.6	0.00e+00	0	34	0	281018368	63	4155
2026-01-17 09:14:37.44	141.62	17.28	-45.6	-47.0	19.8	0.00e+00	0	33	0	283115520	63	4079
2026-01-17 09:14:38.44	141.60	17.40	-45.6	-47.0	19.8	0.00e+00	0	33	0	285212672	63	4090
2026-01-17 09:14:39.45	141.58	17.52	-45.6	-47.0	19.8	0.00e+00	0	33	0	287309824	63	4097
2026-01-17 09:14:40.46	141.55	17.64	-45.5	-46.9	20.0	0.00e+00	0	33	0	289406976	63	4025
2026-01-17 09:14:41.47	141.53	17.76	-45.5	-46.9	20.0	0.00e+00	0	33	0	290455552	63	4006
2026-01-17 09:14:42.47	141.51	17.88	-45.5	-46.8	20.0	0.00e+00	0	33	0	292552704	62	4242
2026-01-17 09:14:43.48	141.48	18.00	-45.4	-46.8	20.0	0.00e+00	0	33	0	294649856	62	4219
2026-01-17 09:14:44.49	141.46	18.12	-45.5	-46.8	20.0	0.00e+00	0	33	0	296747008	62	4235
2026-01-17 09:14:45.50	141.43	18.24	-45.5	-46.8	20.0	0.00e+00	0	33	0	298844160	62	4234
2026-01-17 09:14:46.51	141.41	18.37	-45.4	-46.8	20.1	0.00e+00	0	33	0	299892736	62	4197
2026-01-17 09:14:47.52	141.39	18.49	-45.4	-46.8	20.1	0.00e+00	0	33	0	301989888	62	4201
2026-01-17 09:14:48.53	141.36	18.61	-45.3	-46.6	20.2	0.00e+00	0	33	0	304087040	62	4134
2026-01-17 09:14:49.54	141.34	18.74	-45.3	-46.7	20.2	0.00e+00	0	33	0	306184192	62	4164
2026-01-17 09:14:50.54	141.31	18.86	-45.2	-46.5	20.3	0.00e+00	0	33	0	308281344	62	4080
2026-01-17 09:14:51.55	141.29	18.99	-45.2	-46.5	20.3	0.00e+00	0	33	0	310378496	62	4082
2026-01-17 09:14:52.56	141.26	19.12	-45.2	-46.5	20.3	0.00e+00	0	33	0	311427072	62	4081
2026-01-17 09:14:53.57	141.23	19.24	-45.1	-46.4	20.4	0.00e+00	0	33	0	313524224	62	4034
2026-01-17 09:14:54.58	141.21	19.37	-45.1	-46.4	20.5	0.00e+00	0	34	0	315621376	62	4025
2026-01-17 09:14:55.58	141.18	19.50	-45.1	-46.4	20.4	0.00e+00	0	33	0	317718528	62	4037
2026-01-17 09:14:56.59	141.15	19.63	-45.1	-46.4	20.4	0.00e+00	0	33	0	318767104	62	4037
2026-01-17 09:14:57.60	141.13	19.76	-45.0	-46.3	20.6	0.00e+00	0	34	0	320864256	62	3995
2026-01-17 09:14:58.61	141.10	19.89	-45.1	-46.4	20.5	0.00e+00	0	34	0	322961408	62	4006
2026-01-17 09:14:59.62	141.07	20.02	-45.1	-46.3	20.6	0.00e+00	0	33	0	325058560	62	4003
2026-01-17 09:15:00.63	141.04	20.15	-45.1	-46.3	20.6	0.00e+00	0	34	0	327155712	62	3995
2026-01-17 09:15:01.64	141.02	20.29	-45.1	-46.4	20.6	0.00e+00	0	34	0	328204288	62	4007
2026-01-17 09:15:02.64	140.99	20.42	-45.1	-46.4	20.5	0.00e+00	0	33	0	330301440	62	4033
2026-01-17 09:15:03.65	140.96	20.55	-45.0	-46.3	20.6	0.00e+00	0	33	0	332398592	62	3980
2026-01-17 09:15:04.66	140.93	20.69	-44.9	-46.2	20.7	0.00e+00	0	33	0	334495744	61	4165
2026-01-17 09:15:05.67	140.90	20.82	-45.0	-46.3	20.6	0.00e+00	0	33	0	336592896	61	4203
2026-01-17 09:15:06.67	140.87	20.96	-44.9	-46.2	20.7	0.00e+00	0	33	0	338690048	61	4150
2026-01-17 09:15:07.68	140.84	21.10	-45.0	-46.3	20.6	0.00e+00	0	33	0	339738624	61	4206
2026-01-17 09:15:08.69	140.81	21.23	-44.9	-46.2	20.7	0.00e+00	0	33	0	341835776	61	4165
2026-01-17 09:15:09.70	140.78	21.37	-44.9	-46.2	20.7	0.00e+00	0	34	0	343932928	61	4158
2026-01-17 09:15:10.70	140.75	21.51	-45.0	-46.3	20.6	0.00e+00	0	33	0	346030080	61	4221
2026-01-17 09:15:11.71	140.72	21.65	-45.0	-46.2	20.7	0.00e+00	0	34	0	347078656	61	4188
2026-01-17 09:15:12.72	140.69	21.79	-45.0	-46.3	20.6	0.00e+00	0	33	0	349175808	61	4215
2026-01-17 09:15:13.73	140.66	21.93	-45.0	-46.3	20.6	0.00e+00	0	33	0	351272960	61	4205
2026-01-17 09:15:14.74	140.62	22.08	-44.9	-46.1	20.8	0.00e+00	0	33	0	353370112	61	4130
2026-01-17 09:15:15.74	140.59	22.22	-44.9	-46.1	20.8	0.00e+00	0	34	0	355467264	61	4125
2026-01-17 09:15:16.75	140.56	22.36	-44.9	-46.2	20.7	0.00e+00	0	34	0	357564416	61	4148
2026-01-17 09:15:17.76	140.53	22.51	-44.9	-46.1	20.8	0.00e+00	0	33	0	358612992	61	4123
2026-01-17 09:15:18.77	140.49	22.65	-44.8	-46.0	20.9	0.00e+00	0	33	0	360710144	61	4093
2026-01-17 09:15:19.77	140.46	22.80	-44.9	-46.2	20.7	0.00e+00	0	34	0	362807296	61	4167
2026-01-17 09:15:20.78	140.42	22.94	-45.0	-46.2	20.7	0.00e+00	0	34	0	364904448	61	4192
2026-01-17 09:15:21.79	140.39	23.09	-44.9	-46.1	20.8	0.00e+00	0	34	0	367001600	61	4118
2026-01-17 09:15:22.80	140.36	23.24	-45.0	-46.2	20.7	0.00e+00	0	33	0	368050176	61	4173
2026-01-17 09:15:23.81	140.32	23.39	-44.9	-46.2	20.8	0.00e+00	0	33	0	370147328	61	4164
2026-01-17 09:15:24.81	140.29	23.54	-45.0	-46.3	20.7	0.00e+00	0	33	0	372244480	61	4203
2026-01-17 09:15:25.82	140.25	23.69	-45.0	-46.3	20.6	0.00e+00	0	33	0	374341632	61	4219
2026-01-17 09:15:26.83	140.21	23.84	-45.0	-46.3	20.7	0.00e+00	0	34	0	375390208	61	4207
2026-01-17 09:15:27.84	140.18	24.00	-45.0	-46.3	20.7	0.00e+00	0	33	0	377487360	61	4204
2026-01-17 09:15:28.84	140.14	24.15	-45.1	-46.4	20.5	0.00e+00	0	34	0	379584512	61	4277
2026-01-17 09:15:29.85	140.10	24.31	-45.2	-46.5	20.5	0.00e+00	0	34	0	381681664	61	4319
2026-01-17 09:15:30.86	140.06	24.46	-45.2	-46.4	20.5	0.00e+00	0	33	0	383778816	61	4285
2026-01-17 09:15:31.87	140.03	24.62	-45.2	-46.5	20.5	0.00e+00	0	33	0	385875968	61	4317
2026-01-17 09:15:32.88	139.99	24.78	-45.3	-46.7	20.4	0.00e+00	0	34	0	386924544	61	4396
2026-01-17 09:15:33.88	139.95	24.93	-45.5	-46.9	20.1	0.00e+00	0	33	0	389021696	61	4511
2026-01-17 09:15:34.89	139.91	25.09	-45.4	-46.7	20.3	0.00e+00	0	33	0	391118848	61	4408
2026-01-17 09:15:35.90	139.87	25.25	-45.5	-46.8	20.2	0.00e+00	0	33	0	393216000	61	4459
2026-01-17 09:15:36.91	139.83	25.41	-45.5	-46.8	20.2	0.00e+00	0	34	0	395313152	61	4491
2026-01-17 09:15:37.92	139.79	25.58	-45.5	-46.9	20.2	0.00e+00	0	33	0	396361728	61	4512
2026-01-17 09:15:38.92	139.75	25.74	-45.5	-46.8	20.2	0.00e+00	0	34	0	398458880	61	4485
2026-01-17 09:15:39.93	139.70	25.90	-45.6	-46.9	20.1	0.00e+00	0	34	0	400556032	61	4542
2026-01-17 09:15:40.94	139.66	26.07	-45.6	-47.0	20.1	0.00e+00	0	33	0	402653184	61	4555
2026-01-17 09:15:41.95	139.62	26.24	-45.7	-47.1	20.0	0.00e+00	0	33	0	404750336	61	4611
2026-01-17 09:15:42.96	139.58	26.40	-45.6	-47.0	20.1	0.00e+00	0	34	0	405798912	61	4566
2026-01-17 09:15:43.96	139.53	26.57	-45.7	-47.1	19.9	0.00e+00	0	34	0	407896064	62	4374
2026-01-17 09:15:44.97	139.49	26.74	-45.7	-47.1	20.0	0.00e+00	0	33	0	409993216	62	4360
2026-01-17 09:15:45.98	139.44	26.91	-45.8	-47.2	19.9	0.00e+00	0	33	0	412090368	62	4394
2026-01-17 09:15:46.99	139.40	27.08	-46.0	-47.4	19.7	0.00e+00	0	33	0	414187520	62	4518
2026-01-17 09:15:48.00	139.35	27.26	-46.1	-47.6	19.5	0.00e+00	0	33	0	415236096	62	4614
2026-01-17 09:15:49.00	139.31	27.43	-46.1	-47.6	19.5	0.00e+00	0	33	0	417333248	62	4608
2026-01-17 09:15:50.01	139.26	27.60	-46.3	-47.8	19.3	0.00e+00	0	34	0	419430400	63	4451
2026-01-17 09:15:51.02	139.21	27.78	-46.3	-47.8	19.3	0.00e+00	0	33	0	421527552	63	4464
2026-01-17 09:15:52.03	139.17	27.96	-46.3	-47.8	19.3	0.00e+00	0	33	0	423624704	63	4492
2026-01-17 09:15:53.04	139.12	28.13	-46.5	-48.0	19.1	0.00e+00	0	33	0	424673280	63	4577
2026-01-17 09:15:54.04	139.07	28.31	-46.7	-48.2	18.9	0.00e+00	0	33	0	426770432	63	4705
2026-01-17 09:15:55.05	139.02	28.49	-46.8	-48.4	18.6	0.00e+00	0	33	0	428867584	64	4533
2026-01-17 09:15:56.06	138.97	28.67	-46.9	-48.5	18.5	0.00e+00	0	33	0	430964736	64	4595
2026-01-17 09:15:57.07	138.92	28.86	-47.1	-48.9	18.2	0.00e+00	0	33	0	433061888	64	4781
2026-01-17 09:15:58.08	138.87	29.04	-47.2	-49.0	18.0	0.00e+00	0	34	0	434110464	65	4587
2026-01-17 09:15:59.08	138.81	29.22	-47.5	-49.4	17.7	0.00e+00	0	34	0	436207616	65	4791
2026-01-17 09:16:00.09	138.76	29.41	-47.6	-49.5	17.6	0.00e+00	0	34	0	438304768	65	4856
2026-01-17 09:16:01.10	138.71	29.60	-47.7	-49.7	17.4	0.00e+00	0	33	0	440401920	66	4661
2026-01-17 09:16:02.11	138.65	29.79	-47.8	-49.8	17.3	0.00e+00	0	34	0	442499072	66	4745
2026-01-17 09:16:03.12	138.60	29.98	-47.9	-49.9	17.2	0.00e+00	0	33	0	443547648	66	4783
2026-01-17 09:16:04.12	138.54	30.17	-47.8	-49.8	17.3	0.00e+00	0	33	0	445644800	66	4748
2026-01-17 09:16:05.13	138.49	30.36	-48.0	-50.0	17.1	0.00e+00	0	33	0	447741952	66	4863
2026-01-17 09:16:06.14	138.43	30.55	-48.0	-50.0	17.1	0.00e+00	0	34	0	449839104	66	4851
2026-01-17 09:16:07.15	138.37	30.75	-48.1	-50.2	16.9	0.00e+00	0	33	0	451936256	66	4963
2026-01-17 09:16:08.16	138.31	30.94	-48.1	-50.2	17.0	0.00e+00	0	33	0	454033408	66	4928
2026-01-17 09:16:09.16	138.26	31.14	-48.2	-50.3	16.8	0.00e+00	0	34	0	455081984	67	4745
2026-01-17 09:16:10.17	138.20	31.34	-48.3	-50.5	16.7	0.00e+00	0	34	0	457179136	67	4824
2026-01-17 09:16:11.18	138.13	31.54	-48.2	-50.3	16.8	0.00e+00	0	34	0	459276288	67	4720
2026-01-17 09:16:12.19	138.07	31.74	-48.3	-50.5	16.7	0.00e+00	0	34	0	461373440	67	4839
2026-01-17 09:16:13.20	138.01	31.94	-48.3	-50.5	16.6	0.00e+00	0	33	0	462422016	67	4839
2026-01-17 09:16:14.20	137.95	32.14	-48.4	-50.6	16.5	0.00e+00	0	33	0	464519168	67	4899
2026-01-17 09:16:15.21	137.88	32.35	-48.3	-50.5	16.7	0.00e+00	0	33	0	466616320	67	4822
2026-01-17 09:16:16.22	137.82	32.56	-48.3	-50.5	16.7	0.00e+00	0	33	0	468713472	67	4830
2026-01-17 09:16:17.23	137.75	32.76	-48.2	-50.3	16.9	0.00e+00	0	34	0	470810624	67	4718
2026-01-17 09:16:18.24	137.69	32.97	-48.3	-50.4	16.8	0.00e+00	0	34	0	471859200	67	4795
2026-01-17 09:16:19.25	137.62	33.19	-48.6	-50.9	16.4	0.00e+00	0	34	0	473956352	67	5049
2026-01-17 09:16:20.26	137.55	33.40	-48.4	-50.6	16.6	0.00e+00	0	34	0	476053504	67	4885
2026-01-17 09:16:21.26	137.48	33.61	-48.4	-50.6	16.6	0.00e+00	0	34	0	478150656	67	4884
2026-01-17 09:16:22.27	137.41	33.83	-48.6	-50.8	16.3	0.00e+00	0	33	0	480247808	67	5028
2026-01-17 09:16:23.28	137.34	34.04	-48.5	-50.7	16.5	0.00e+00	0	34	0	482344960	67	4967
2026-01-17 09:16:24.29	137.27	34.26	-48.5	-50.8	16.4	0.00e+00	0	33	0	483393536	67	5003
2026-01-17 09:16:25.30	137.19	34.48	-48.5	-50.8	16.4	0.00e+00	0	34	0	485490688	67	4985
2026-01-17 09:16:26.30	137.12	34.70	-48.3	-50.5	16.7	0.00e+00	0	34	0	487587840	67	4834
2026-01-17 09:16:27.31	137.05	34.92	-48.2	-50.3	16.9	0.00e+00	0	34	0	489684992	67	4717
2026-01-17 09:16:28.32	136.97	35.15	-48.0	-50.1	17.1	0.00e+00	0	33	0	490733568	67	4607
2026-01-17 09:16:29.33	136.89	35.37	-47.9	-49.8	17.3	0.00e+00	0	34	0	492830720	67	4481
2026-01-17 09:16:30.34	136.81	35.60	-47.5	-49.4	17.8	0.00e+00	0	34	0	494927872	67	4250
2026-01-17 09:16:31.35	136.73	35.83	-47.4	-49.1	18.0	0.00e+00	0	34	0	497025024	66	4389
2026-01-17 09:16:32.36	136.65	36.06	-47.3	-49.1	18.1	0.00e+00	0	33	0	499122176	66	4366
2026-01-17 09:16:33.36	136.57	36.29	-47.2	-48.9	18.2	0.00e+00	0	34	0	501219328	66	4290
2026-01-17 09:16:34.37	136.49	36.52	-47.1	-48.8	18.3	0.00e+00	0	33	0	502267904	66	4233
2026-01-17 09:16:35.38	136.40	36.76	-47.0	-48.7	18.5	0.00e+00	0	34	0	504365056	66	4160
2026-01-17 09:16:36.39	136.32	37.00	-47.0	-48.7	18.5	0.00e+00	0	34	0	506462208	66	4169
2026-01-17 09:16:37.40	136.23	37.23	-47.1	-48.7	18.4	0.00e+00	0	34	0	508559360	66	4190
2026-01-17 09:16:38.40	136.14	37.47	-47.0	-48.6	18.6	0.00e+00	0	34	0	510656512	65	4384
2026-01-17 09:16:39.41	136.05	37.71	-47.0	-48.6	18.5	0.00e+00	0	34	0	511705088	65	4391
2026-01-17 09:16:40.42	135.96	37.96	-47.0	-48.7	18.5	0.00e+00	0	33	0	513802240	65	4392
2026-01-17 09:16:41.43	135.86	38.20	-46.9	-48.5	18.7	0.00e+00	0	33	0	515899392	65	4321
2026-01-17 09:16:42.44	135.77	38.45	-46.9	-48.5	18.7	0.00e+00	0	34	0	517996544	65	4312
2026-01-17 09:16:43.44	135.68	38.70	-47.0	-48.6	18.6	0.00e+00	0	34	0	520093696	65	4383
2026-01-17 09:16:44.45	135.58	38.95	-47.3	-49.1	18.1	0.00e+00	0	34	0	521142272	65	4627
2026-01-17 09:16:45.46	135.48	39.20	-47.5	-49.3	17.8	0.00e+00	0	34	0	523239424	65	4741
2026-01-17 09:16:46.47	135.38	39.45	-47.7	-49.7	17.5	0.00e+00	0	34	0	525336576	66	4658
2026-01-17 09:16:47.48	135.28	39.71	-47.6	-49.5	17.7	0.00e+00	0	34	0	527433728	66	4549
2026-01-17 09:16:48.49	135.17	39.97	-47.8	-49.7	17.5	0.00e+00	0	34	0	529530880	66	4685
2026-01-17 09:16:49.49	135.07	40.22	-47.6	-49.5	17.7	0.00e+00	0	34	0	530579456	66	4572
2026-01-17 09:16:50.50	134.96	40.48	-47.9	-49.8	17.4	0.00e+00	0	34	0	532676608	66	4758
2026-01-17 09:16:51.51	134.85	40.75	-48.0	-49.9	17.3	0.00e+00	0	34	0	534773760	66	4811
2026-01-17 09:16:52.52	134.74	41.01	-48.1	-50.1	17.2	0.00e+00	0	34	0	536870912	66	4876
2026-01-17 09:16:53.52	134.63	41.28	-48.0	-50.1	17.2	0.00e+00	0	33	0	538968064	66	4872
2026-01-17 09:16:54.53	134.51	41.54	-48.0	-50.0	17.3	0.00e+00	0	34	0	540016640	66	4861
2026-01-17 09:16:55.54	134.40	41.81	-48.0	-50.0	17.2	0.00e+00	0	34	0	542113792	66	4870
2026-01-17 09:16:56.55	134.28	42.09	-48.2	-50.2	17.0	0.00e+00	0	34	0	544210944	66	4966
2026-01-17 09:16:57.56	134.16	42.36	-48.3	-50.5	16.8	0.00e+00	0	34	0	546308096	67	4831
2026-01-17 09:16:58.57	134.03	42.64	-48.3	-50.4	16.8	0.00e+00	0	34	0	548405248	67	4810
2026-01-17 09:16:59.57	133.91	42.91	-48.3	-50.4	16.8	0.00e+00	0	33	0	549453824	67	4796
2026-01-17 09:17:00.58	133.78	43.19	-48.1	-50.1	17.1	0.00e+00	0	34	0	551550976	67	4623
2026-01-17 09:17:01.59	133.65	43.47	-47.9	-49.9	17.3	0.00e+00	0	34	0	553648128	67	4530
2026-01-17 09:17:02.60	133.52	43.75	-47.8	-49.7	17.5	0.00e+00	0	34	0	555745280	67	4431
2026-01-17 09:17:03.61	133.38	44.04	-47.9	-49.9	17.4	0.00e+00	0	33	0	557842432	67	4502
2026-01-17 09:17:04.62	133.25	44.33	-47.9	-49.9	17.4	0.00e+00	0	34	0	558891008	67	4512
2026-01-17 09:17:05.63	133.11	44.62	-47.9	-49.9	17.4	0.00e+00	0	34	0	560988160	67	4535
2026-01-17 09:17:06.64	132.96	44.91	-48.1	-50.1	17.2	0.00e+00	0	33	0	563085312	67	4623
2026-01-17 09:17:07.65	132.82	45.20	-48.0	-50.0	17.3	0.00e+00	0	34	0	565182464	67	4565
2026-01-17 09:17:08.65	132.67	45.49	-48.1	-50.2	17.1	0.00e+00	0	34	0	567279616	67	4666
2026-01-17 09:17:09.66	132.52	45.79	-48.0	-50.0	17.3	0.00e+00	0	34	0	568328192	67	4565
2026-01-17 09:17:10.67	132.37	46.09	-47.9	-49.9	17.4	0.00e+00	0	34	0	570425344	67	4500
2026-01-17 09:17:11.68	132.21	46.39	-48.1	-50.1	17.2	0.00e+00	0	34	0	572522496	67	4605
2026-01-17 09:17:12.69	132.05	46.69	-48.1	-50.1	17.2	0.00e+00	0	34	0	574619648	67	4632
2026-01-17 09:17:13.70	131.89	46.99	-48.3	-50.4	16.8	0.00e+00	0	34	0	576716800	67	4814
2026-01-17 09:17:14.71	131.72	47.30	-48.2	-50.3	17.0	0.00e+00	0	34	0	577765376	67	4719
2026-01-17 09:17:15.72	131.55	47.61	-48.1	-50.1	17.2	0.00e+00	0	34	0	579862528	67	4635
2026-01-17 09:17:16.73	131.38	47.92	-48.1	-50.1	17.2	0.00e+00	0	34	0	581959680	67	4627
2026-01-17 09:17:17.74	131.20	48.23	-48.3	-50.5	16.8	0.00e+00	0	33	0	584056832	67	4831
2026-01-17 09:17:18.75	131.02	48.55	-48.4	-50.6	16.7	0.00e+00	0	34	0	586153984	67	4903
2026-01-17 09:17:19.75	130.84	48.86	-48.6	-50.8	16.5	0.00e+00	0	33	0	588251136	67	5006
2026-01-17 09:17:20.76	130.65	49.18	-48.5	-50.7	16.6	0.00e+00	0	33	0	589299712	67	4942
2026-01-17 09:17:21.77	130.46	49.50	-48.0	-50.0	17.3	0.00e+00	0	34	0	591396864	67	4561
2026-01-17 09:17:22.78	130.27	49.82	-47.6	-49.5	17.7	0.00e+00	0	34	0	593494016	67	4308
2026-01-17 09:17:23.79	130.07	50.14	-47.4	-49.1	18.1	0.00e+00	0	34	0	595591168	66	4377
2026-01-17 09:17:24.80	129.86	50.47	-46.9	-48.6	18.7	0.00e+00	0	34	0	596639744	65	4363
2026-01-17 09:17:25.80	129.65	50.79	-46.5	-48.1	19.2	0.00e+00	0	34	0	598736896	65	4104
2026-01-17 09:17:26.81	129.44	51.12	-46.0	-47.3	20.0	0.00e+00	0	34	0	600834048	63	4231
2026-01-17 09:17:27.82	129.22	51.45	-45.7	-47.0	20.4	0.00e+00	0	33	0	602931200	63	4062
2026-01-17 09:17:28.83	129.00	51.79	-45.7	-47.0	20.2	0.00e+00	0	34	0	605028352	63	4084
2026-01-17 09:17:29.84	128.77	52.12	-45.5	-46.7	20.6	0.00e+00	0	33	0	606076928	63	3951
2026-01-17 09:17:30.85	128.53	52.46	-45.2	-46.4	20.9	0.00e+00	0	34	0	608174080	62	4026
2026-01-17 09:17:31.85	128.30	52.80	-44.9	-46.0	21.2	0.00e+00	0	34	0	610271232	61	4091
2026-01-17 09:17:32.86	128.05	53.14	-45.1	-46.3	21.0	0.00e+00	0	33	0	612368384	61	4221
2026-01-17 09:17:33.87	127.80	53.48	-45.3	-46.5	20.8	0.00e+00	0	34	0	614465536	61	4322
2026-01-17 09:17:34.88	127.54	53.82	-45.3	-46.5	20.8	0.00e+00	0	33	0	616562688	61	4326
2026-01-17 09:17:35.88	127.28	54.17	-45.4	-46.6	20.6	0.00e+00	0	34	0	617611264	61	4378
2026-01-17 09:17:36.89	127.01	54.51	-45.5	-46.8	20.5	0.00e+00	0	33	0	619708416	61	4459
2026-01-17 09:17:37.90	126.73	54.86	-45.9	-47.3	20.1	0.00e+00	0	34	0	621805568	62	4454
2026-01-17 09:17:38.91	126.45	55.21	-46.2	-47.6	19.7	0.00e+00	0	34	0	623902720	63	4390
2026-01-17 09:17:39.92	126.16	55.57	-46.3	-47.7	19.7	0.00e+00	0	34	0	625999872	63	4408
2026-01-17 09:17:40.92	125.86	55.92	-46.3	-47.7	19.7	0.00e+00	0	34	0	627048448	63	4438
2026-01-17 09:17:41.93	125.56	56.27	-46.7	-48.2	19.2	0.00e+00	0	34	0	629145600	63	4692
2026-01-17 09:17:42.94	125.24	56.63	-46.9	-48.6	18.7	0.00e+00	0	34	0	631242752	64	4609
2026-01-17 09:17:43.95	124.92	56.99	-46.9	-48.5	18.8	0.00e+00	0	34	0	633339904	64	4589
2026-01-17 09:17:44.96	124.59	57.35	-47.2	-48.8	18.5	0.00e+00	0	33	0	635437056	64	4751
2026-01-17 09:17:45.96	124.25	57.70	-47.7	-49.6	17.7	0.00e+00	0	34	0	636485632	65	4890
2026-01-17 09:17:46.97	123.90	58.07	-48.0	-50.0	17.4	0.00e+00	0	33	0	638582784	66	4831
2026-01-17 09:17:47.98	123.54	58.43	-47.8	-49.6	17.7	0.00e+00	0	34	0	640679936	66	4651
2026-01-17 09:17:48.99	123.17	58.79	-47.3	-49.0	18.3	0.00e+00	0	34	0	642777088	66	4325
2026-01-17 09:17:50.00	122.79	59.16	-47.4	-49.2	18.2	0.00e+00	0	34	0	644874240	66	4392
2026-01-17 09:17:51.01	122.40	59.53	-47.4	-49.1	18.2	0.00e+00	0	33	0	645922816	66	4373
2026-01-17 09:17:52.02	122.00	59.89	-46.8	-48.3	18.9	0.00e+00	0	34	0	648019968	65	4236
2026-01-17 09:17:53.02	121.59	60.26	-46.3	-47.8	19.5	0.00e+00	0	34	0	650117120	64	4210
2026-01-17 09:17:54.03	121.17	60.63	-45.8	-47.1	20.3	0.00e+00	0	33	0	652214272	63	4111
2026-01-17 09:17:55.04	120.73	61.00	-45.2	-46.4	20.9	0.00e+00	0	33	0	654311424	62	4051
2026-01-17 09:17:56.05	120.28	61.37	-45.2	-46.4	21.0	0.00e+00	0	34	0	655360000	62	4012
2026-01-17 09:17:57.06	119.81	61.74	-45.1	-46.3	21.0	0.00e+00	0	33	0	657457152	62	4000
2026-01-17 09:17:58.06	119.34	62.10	-45.0	-46.2	21.1	0.00e+00	0	33	0	659554304	62	3934
2026-01-17 09:17:59.07	118.84	62.48	-45.0	-46.3	21.1	0.00e+00	0	33	0	661651456	61	4194
2026-01-17 09:18:00.08	118.33	62.85	-45.2	-46.5	20.9	0.00e+00	0	34	0	663748608	61	4293
2026-01-17 09:18:01.08	117.81	63.21	-45.2	-46.4	20.9	0.00e+00	0	34	0	664797184	61	4284
2026-01-17 09:18:02.09	117.27	63.59	-45.4	-46.6	20.7	0.00e+00	0	33	0	666894336	61	4379
2026-01-17 09:18:03.10	116.71	63.96	-45.6	-46.9	20.4	0.00e+00	0	33	0	668991488	61	4532
2026-01-17 09:18:04.11	116.13	64.33	-45.9	-47.3	20.1	0.00e+00	0	34	0	671088640	62	4451
2026-01-17 09:18:05.12	115.53	64.70	-46.2	-47.6	19.7	0.00e+00	0	34	0	673185792	62	4637
2026-01-17 09:18:06.13	114.92	65.07	-46.6	-48.2	19.3	0.00e+00	0	34	0	674234368	63	4657
2026-01-17 09:18:07.14	114.28	65.43	-47.2	-48.9	18.4	0.00e+00	0	34	0	676331520	64	4772
2026-01-17 09:18:08.14	113.63	65.80	-47.8	-49.7	17.7	0.00e+00	0	33	0	678428672	66	4658
2026-01-17 09:18:09.15	112.94	66.16	-48.1	-50.1	17.3	0.00e+00	0	33	0	680525824	66	4925
2026-01-17 09:18:10.16	112.24	66.53	-48.3	-50.3	17.1	0.00e+00	0	34	0	682622976	67	4750
2026-01-17 09:18:11.17	111.51	66.89	-48.2	-50.3	17.1	0.00e+00	0	33	0	683671552	67	4714
2026-01-17 09:18:12.18	110.75	67.25	-47.8	-49.7	17.6	0.00e+00	0	33	0	685768704	67	4419
2026-01-17 09:18:13.18	109.98	67.60	-47.9	-49.9	17.5	0.00e+00	0	34	0	687865856	67	4497
2026-01-17 09:18:14.19	109.17	67.96	-48.2	-50.2	17.1	0.00e+00	0	34	0	689963008	67	4683
2026-01-17 09:18:15.20	108.33	68.31	-48.1	-50.1	17.3	0.00e+00	0	34	0	692060160	67	4601
2026-01-17 09:18:16.21	107.46	68.66	-47.9	-49.8	17.6	0.00e+00	0	33	0	693108736	67	4490
2026-01-17 09:18:17.22	106.56	69.01	-47.9	-49.8	17.5	0.00e+00	0	33	0	695205888	67	4473
2026-01-17 09:18:18.23	105.63	69.35	-47.9	-49.8	17.6	0.00e+00	0	34	0	697303040	67	4471
2026-01-17 09:18:19.24	104.66	69.69	-47.4	-49.2	18.2	0.00e+00	0	33	0	699400192	66	4396
2026-01-17 09:18:20.24	103.67	70.02	-46.8	-48.4	19.0	0.00e+00	0	33	0	701497344	65	4280
2026-01-17 09:18:21.25	102.64	70.35	-46.5	-47.9	19.4	0.00e+00	0	34	0	703594496	64	4286
2026-01-17 09:18:22.26	101.56	70.67	-46.1	-47.6	19.7	0.00e+00	0	33	0	704643072	64	4099
2026-01-17 09:18:23.27	100.45	70.99	-46.0	-47.3	20.1	0.00e+00	0	33	0	706740224	63	4219
2026-01-17 09:18:24.28	99.30	71.31	-45.8	-47.1	20.3	0.00e+00	0	34	0	708837376	63	4126
2026-01-17 09:18:25.28	98.11	71.61	-46.0	-47.3	20.1	0.00e+00	0	34	0	710934528	63	4229
2026-01-17 09:18:26.29	96.88	71.91	-46.1	-47.4	20.0	0.00e+00	0	33	0	711983104	63	4281
2026-01-17 09:18:27.30	95.60	72.20	-46.4	-47.9	19.5	0.00e+00	0	34	0	714080256	63	4515
2026-01-17 09:18:28.31	94.27	72.48	-46.4	-47.9	19.5	0.00e+00	0	34	0	716177408	63	4504
2026-01-17 09:18:29.32	92.90	72.76	-46.3	-47.7	19.7	0.00e+00	0	34	0	718274560	63	4417
2026-01-17 09:18:30.33	91.48	73.02	-46.6	-48.1	19.5	0.00e+00	0	34	0	720371712	63	4609
2026-01-17 09:18:31.34	90.02	73.28	-46.7	-48.2	19.2	0.00e+00	0	34	0	721420288	64	4436
2026-01-17 09:18:32.35	88.51	73.52	-46.9	-48.5	18.9	0.00e+00	0	34	0	723517440	64	4558
2026-01-17 09:18:33.35	86.97	73.76	-47.7	-49.6	17.8	0.00e+00	0	33	0	725614592	66	4625
2026-01-17 09:18:34.37	85.35	73.98	-48.4	-50.5	17.1	0.00e+00	0	34	0	727711744	67	4834
2026-01-17 09:18:35.37	83.72	74.19	-48.0	-50.0	17.5	0.00e+00	0	34	0	729808896	67	4549
2026-01-17 09:18:36.38	82.03	74.39	-48.0	-50.0	17.5	0.00e+00	0	34	0	731906048	67	4566
2026-01-17 09:18:37.39	80.29	74.58	-48.7	-50.9	16.6	0.00e+00	0	33	0	732954624	67	5050
2026-01-17 09:18:38.40	78.51	74.75	-49.3	-51.8	15.8	0.00e+00	0	34	0	735051776	69	4993
2026-01-17 09:18:39.41	76.68	74.91	-49.9	-52.7	14.9	0.00e+00	0	34	0	737148928	70	5265
2026-01-17 09:18:40.42	74.83	75.05	-50.2	-53.4	14.2	7.00e-07	0	34	0	739246080	71	5346
2026-01-17 09:18:41.43	72.93	75.18	-49.8	-52.6	15.0	7.00e-07	0	34	0	740294656	71	4902
2026-01-17 09:18:42.43	71.02	75.29	-49.9	-52.8	14.6	7.00e-07	0	34	0	742391808	71	5041
2026-01-17 09:18:43.44	69.07	75.39	-50.2	-53.2	14.4	0.00e+00	0	34	0	744488960	71	5269
2026-01-17 09:18:44.45	67.09	75.46	-49.5	-52.1	15.5	0.00e+00	0	34	0	746586112	70	4908
2026-01-17 09:18:45.46	65.09	75.53	-49.5	-52.0	15.6	0.00e+00	0	34	0	748683264	70	4855
2026-01-17 09:18:46.46	63.09	75.57	-49.6	-52.2	15.3	0.00e+00	0	34	0	750780416	70	4975
2026-01-17 09:18:47.47	61.07	75.60	-49.1	-51.5	16.2	0.00e+00	0	34	0	751828992	70	4567
2026-01-17 09:18:48.48	59.04	75.61	-48.6	-50.7	16.9	0.00e+00	0	33	0	753926144	69	4396
2026-01-17 09:18:49.49	57.00	75.60	-48.6	-50.7	16.8	0.00e+00	0	34	0	756023296	69	4427
2026-01-17 09:18:50.50	54.98	75.58	-48.7	-50.9	16.7	0.00e+00	0	34	0	758120448	69	4496
2026-01-17 09:18:51.51	52.96	75.53	-48.7	-50.8	16.7	0.00e+00	0	34	0	760217600	69	4478
2026-01-17 09:18:52.52	50.96	75.48	-48.6	-50.8	16.7	0.00e+00	0	34	0	761266176	68	4730
2026-01-17 09:18:53.52	49.00	75.40	-48.8	-51.0	16.7	0.00e+00	0	34	0	763363328	68	4837
2026-01-17 09:18:54.53	47.04	75.31	-48.8	-51.0	16.5	0.00e+00	0	34	0	765460480	68	4857
2026-01-17 09:18:55.54	45.11	75.20	-49.1	-51.5	16.1	0.00e+00	0	34	0	767557632	68	5119
2026-01-17 09:18:56.55	43.21	75.07	-49.3	-51.8	15.8	0.00e+00	0	34	0	769654784	69	5026
2026-01-17 09:18:57.56	41.34	74.93	-49.5	-52.1	15.5	0.00e+00	0	33	0	770703360	69	5204
2026-01-17 09:18:58.56	39.53	74.78	-49.5	-52.2	15.4	0.00e+00	0	34	0	772800512	69	5245
2026-01-17 09:18:59.57	37.75	74.61	-49.4	-51.9	15.6	0.00e+00	0	33	0	774897664	69	5099
2026-01-17 09:19:00.58	36.00	74.42	-49.0	-51.3	16.2	0.00e+00	0	34	0	776994816	69	4752
2026-01-17 09:19:01.59	34.30	74.23	-48.7	-50.8	16.7	0.00e+00	0	34	0	779091968	69	4472
2026-01-17 09:19:02.60	32.64	74.02	-48.6	-50.8	16.9	0.00e+00	0	34	0	780140544	68	4715
2026-01-17 09:19:03.61	31.03	73.80	-48.4	-50.4	17.2	0.00e+00	0	34	0	782237696	68	4536
2026-01-17 09:19:04.62	29.47	73.56	-48.3	-50.3	17.3	0.00e+00	0	33	0	784334848	68	4460
2026-01-17 09:19:05.63	27.96	73.32	-48.0	-49.9	17.6	0.00e+00	0	33	0	786432000	68	4273
2026-01-17 09:19:06.63	26.50	73.07	-47.7	-49.4	18.1	0.00e+00	0	33	0	788529152	67	4278
2026-01-17 09:19:07.64	25.08	72.80	-47.7	-49.4	18.1	0.00e+00	0	34	0	790626304	66	4543
2026-01-17 09:19:08.65	23.70	72.53	-47.6	-49.4	18.2	0.00e+00	0	33	0	791674880	66	4500
2026-01-17 09:19:09.66	22.37	72.25	-47.1	-48.7	18.7	0.00e+00	0	34	0	793772032	66	4193
2026-01-17 09:19:10.67	21.08	71.96	-47.0	-48.6	18.9	0.00e+00	0	33	0	795869184	65	4379
2026-01-17 09:19:11.68	19.84	71.66	-46.7	-48.2	19.2	0.00e+00	0	34	0	797966336	65	4183
2026-01-17 09:19:12.68	18.65	71.36	-46.6	-48.1	19.4	0.00e+00	0	34	0	799014912	65	4121
2026-01-17 09:19:13.69	17.49	71.05	-47.4	-49.1	18.4	0.00e+00	0	34	0	801112064	65	4628
2026-01-17 09:19:14.70	16.37	70.73	-47.8	-49.6	17.9	0.00e+00	0	34	0	803209216	66	4629
2026-01-17 09:19:15.71	15.29	70.41	-48.0	-49.8	17.7	0.00e+00	0	33	0	805306368	67	4489
2026-01-17 09:19:16.72	14.25	70.08	-48.4	-50.4	17.2	0.00e+00	0	34	0	807403520	67	4796
2026-01-17 09:19:17.73	13.25	69.75	-48.6	-50.8	16.8	0.00e+00	0	34	0	808452096	67	5012
2026-01-17 09:19:18.74	12.27	69.41	-48.9	-51.2	16.5	0.00e+00	0	34	0	810549248	68	4956
2026-01-17 09:19:19.74	11.35	69.07	-48.9	-51.2	16.5	0.00e+00	0	34	0	812646400	68	4946
2026-01-17 09:19:20.75	10.44	68.73	-48.6	-50.7	16.9	0.00e+00	0	33	0	814743552	68	4686
2026-01-17 09:19:21.76	9.57	68.38	-48.7	-50.8	16.8	0.00e+00	0	34	0	816840704	68	4752
2026-01-17 09:19:22.77	8.73	68.03	-49.2	-51.6	15.9	0.00e+00	0	33	0	818937856	68	5191
2026-01-17 09:19:23.78	7.91	67.67	-49.0	-51.3	16.2	0.00e+00	0	34	0	819986432	69	4755
2026-01-17 09:19:24.78	7.14	67.32	-48.3	-50.3	17.3	0.00e+00	0	34	0	822083584	68	4473
2026-01-17 09:19:25.79	6.38	66.96	-48.0	-49.9	17.7	0.00e+00	0	34	0	824180736	67	4507
2026-01-17 09:19:26.80	5.64	66.60	-47.6	-49.3	18.2	0.00e+00	0	34	0	826277888	67	4209
2026-01-17 09:19:27.81	4.93	66.24	-47.5	-49.2	18.1	0.00e+00	0	34	0	827326464	67	4185
2026-01-17 09:19:28.82	4.25	65.87	-46.6	-48.1	19.0	0.00e+00	0	33	0	829423616	65	4106
2026-01-17 09:19:29.82	3.59	65.51	-46.0	-47.3	20.2	0.00e+00	0	34	0	831520768	63	4225
2026-01-17 09:19:30.83	2.95	65.14	-45.7	-46.9	20.5	0.00e+00	0	33	0	833617920	63	4051
2026-01-17 09:19:31.84	2.33	64.77	-45.4	-46.6	20.7	0.00e+00	0	34	0	835715072	62	4133
2026-01-17 09:19:32.85	1.73	64.40	-45.2	-46.4	21.0	0.00e+00	0	34	0	837812224	62	4017
2026-01-17 09:19:33.86	1.15	64.03	-45.0	-46.2	21.3	0.00e+00	0	34	0	838860800	62	3920
2026-01-17 09:19:34.86	0.59	63.67	-44.4	-45.5	21.9	0.00e+00	0	34	0	840957952	60	4090
2026-01-17 09:19:35.87	0.05	63.30	-44.1	-45.2	22.2	0.00e+00	0	34	0	843055104	60	3917
2026-01-17 09:19:36.88	359.52	62.93	-44.4	-45.5	22.2	0.00e+00	0	34	0	845152256	59	4311
2026-01-17 09:19:37.89	359.01	62.56	-44.5	-45.5	22.1	0.00e+00	0	33	0	847249408	59	4334
2026-01-17 09:19:38.90	358.51	62.19	-44.6	-45.7	21.7	0.00e+00	0	33	0	848297984	60	4190
2026-01-17 09:19:39.91	358.03	61.82	-45.3	-46.5	21.0	0.00e+00	0	34	0	850395136	61	4308
2026-01-17 09:19:40.92	357.56	61.45	-45.6	-46.9	20.6	0.00e+00	0	34	0	852492288	61	4513
2026-01-17 09:19:41.93	357.11	61.08	-46.3	-47.7	19.9	0.00e+00	0	34	0	854589440	63	4407
2026-01-17 09:19:42.94	356.67	60.71	-46.7	-48.3	19.2	0.00e+00	0	34	0	855638016	64	4447
2026-01-17 09:19:43.94	356.25	60.34	-47.1	-48.7	18.9	0.00e+00	0	34	0	857735168	64	4680
2026-01-17 09:19:44.95	355.83	59.97	-48.2	-50.2	17.3	0.00e+00	0	34	0	859832320	66	4934
2026-01-17 09:19:45.96	355.43	59.61	-49.5	-52.2	15.6	0.00e+00	0	33	0	861929472	69	5220
2026-01-17 09:19:46.97	355.04	59.24	-50.0	-52.8	14.7	0.00e+00	0	34	0	864026624	70	5308
2026-01-17 09:19:47.98	354.65	58.88	-50.2	-53.3	13.6	7.00e-07	0	34	0	866123776	71	5318
2026-01-17 09:19:48.98	354.29	58.52	-49.6	-52.2	14.8	2.20e-06	0	34	0	867172352	71	4676
2026-01-17 09:19:49.99	353.93	58.15	-49.4	-51.9	15.8	0.00e+00	0	34	0	869269504	70	4775
2026-01-17 09:19:51.00	353.58	57.79	-49.4	-51.9	15.8	0.00e+00	0	34	0	871366656	70	4790
2026-01-17 09:19:52.01	353.23	57.43	-49.8	-52.5	15.2	0.00e+00	0	34	0	873463808	70	5143
2026-01-17 09:19:53.02	352.90	57.07	-49.9	-52.6	14.9	0.00e+00	0	33	0	875560960	70	5188
2026-01-17 09:19:54.03	352.58	56.72	-49.5	-52.0	15.6	0.00e+00	0	33	0	876609536	70	4828
2026-01-17 09:19:55.04	352.26	56.36	-48.8	-50.9	16.7	0.00e+00	0	34	0	878706688	69	4538
2026-01-17 09:19:56.05	351.96	56.00	-48.2	-50.2	17.5	0.00e+00	0	33	0	880803840	68	4403
2026-01-17 09:19:57.06	351.66	55.65	-48.1	-50.0	17.7	0.00e+00	0	34	0	882900992	68	4299
2026-01-17 09:19:58.06	351.37	55.30	-47.8	-49.6	18.0	0.00e+00	0	34	0	884998144	67	4359
2026-01-17 09:19:59.07	351.08	54.95	-47.6	-49.3	18.1	0.00e+00	0	34	0	886046720	67	4222
2026-01-17 09:20:00.08	350.81	54.60	-46.8	-48.3	19.2	0.00e+00	0	33	0	888143872	65	4225
2026-01-17 09:20:01.09	350.53	54.26	-46.9	-48.5	19.0	0.00e+00	0	34	0	890241024	65	4310
2026-01-17 09:20:02.10	350.27	53.91	-46.8	-48.3	19.1	0.00e+00	0	34	0	892338176	65	4239
2026-01-17 09:20:03.10	350.01	53.57	-46.7	-48.2	19.2	0.00e+00	0	34	0	894435328	65	4175
2026-01-17 09:20:04.11	349.76	53.23	-46.3	-47.7	19.7	0.00e+00	0	34	0	895483904	64	4190
2026-01-17 09:20:05.12	349.52	52.89	-46.4	-47.8	19.7	0.00e+00	0	33	0	897581056	64	4213
2026-01-17 09:20:06.13	349.28	52.55	-46.0	-47.3	20.3	0.00e+00	0	34	0	899678208	63	4211
2026-01-17 09:20:07.14	349.04	52.22	-45.8	-47.1	20.4	0.00e+00	0	34	0	901775360	63	4131
2026-01-17 09:20:08.14	348.81	51.88	-46.1	-47.5	20.0	0.00e+00	0	34	0	903872512	63	4308
2026-01-17 09:20:09.15	348.59	51.55	-46.5	-47.9	19.6	0.00e+00	0	34	0	904921088	63	4512
2026-01-17 09:20:10.16	348.37	51.22	-46.8	-48.3	19.2	0.00e+00	0	34	0	907018240	64	4460
2026-01-17 09:20:11.17	348.16	50.89	-47.0	-48.6	18.9	0.00e+00	0	34	0	909115392	64	4636
2026-01-17 09:20:12.18	347.95	50.56	-47.3	-49.0	18.5	0.00e+00	0	34	0	911212544	65	4557
2026-01-17 09:20:13.18	347.74	50.24	-47.8	-49.6	18.0	0.00e+00	0	34	0	913309696	66	4624
2026-01-17 09:20:14.19	347.54	49.92	-48.1	-50.1	17.4	0.00e+00	0	34	0	914358272	66	4898
2026-01-17 09:20:15.20	347.34	49.60	-48.2	-50.1	17.4	0.00e+00	0	34	0	916455424	67	4649
2026-01-17 09:20:16.21	347.15	49.28	-48.3	-50.3	17.2	0.00e+00	0	34	0	918552576	67	4752
2026-01-17 09:20:17.22	346.96	48.96	-48.3	-50.4	17.1	0.00e+00	0	33	0	920649728	67	4762
2026-01-17 09:20:18.22	346.78	48.65	-48.4	-50.4	17.2	0.00e+00	0	34	0	922746880	67	4777
2026-01-17 09:20:19.23	346.60	48.33	-48.3	-50.3	17.1	0.00e+00	0	34	0	923795456	67	4742
2026-01-17 09:20:20.24	346.42	48.02	-48.4	-50.4	17.1	0.00e+00	0	33	0	925892608	67	4788
2026-01-17 09:20:21.25	346.25	47.71	-48.2	-50.2	17.3	0.00e+00	0	33	0	927989760	67	4673
2026-01-17 09:20:22.26	346.08	47.40	-48.0	-49.9	17.6	0.00e+00	0	34	0	930086912	67	4523
2026-01-17 09:20:23.26	345.92	47.10	-47.9	-49.8	17.7	0.00e+00	0	34	0	932184064	67	4473
2026-01-17 09:20:24.27	345.75	46.80	-48.3	-50.3	17.3	0.00e+00	0	34	0	933232640	67	4721
2026-01-17 09:20:25.28	345.59	46.50	-48.4	-50.5	17.0	0.00e+00	0	34	0	935329792	67	4845
2026-01-17 09:20:26.29	345.44	46.20	-48.7	-50.9	16.7	0.00e+00	0	34	0	937426944	67	5055
2026-01-17 09:20:27.30	345.28	45.90	-48.9	-51.2	16.4	0.00e+00	0	34	0	939524096	68	4973
2026-01-17 09:20:28.31	345.13	45.60	-48.8	-51.1	16.6	0.00e+00	0	34	0	941621248	68	4872
2026-01-17 09:20:29.32	344.98	45.31	-48.5	-50.6	17.0	0.00e+00	0	34	0	942669824	68	4642
2026-01-17 09:20:30.33	344.84	45.01	-48.1	-49.9	17.7	0.00e+00	0	34	0	944766976	68	4285
2026-01-17 09:20:31.34	344.70	44.72	-48.0	-49.9	17.7	0.00e+00	0	34	0	946864128	68	4253
2026-01-17 09:20:32.34	344.56	44.44	-48.2	-50.1	17.5	0.00e+00	0	34	0	948961280	68	4372
2026-01-17 09:20:33.35	344.42	44.15	-48.3	-50.3	17.4	0.00e+00	0	33	0	951058432	68	4448
2026-01-17 09:20:34.36	344.28	43.87	-48.4	-50.4	17.2	0.00e+00	0	34	0	953155584	68	4526
2026-01-17 09:20:35.37	344.15	43.58	-48.8	-50.9	16.7	0.00e+00	0	33	0	954204160	68	4813
2026-01-17 09:20:36.37	344.02	43.31	-48.8	-51.1	16.6	0.00e+00	0	34	0	956301312	68	4873
2026-01-17 09:20:37.38	343.90	43.03	-49.0	-51.3	16.3	0.00e+00	0	33	0	958398464	68	4996
2026-01-17 09:20:38.39	343.77	42.75	-48.6	-50.8	16.8	0.00e+00	0	33	0	960495616	68	4706
2026-01-17 09:20:39.40	343.65	42.47	-48.8	-50.9	16.6	0.00e+00	0	34	0	961544192	68	4805
2026-01-17 09:20:40.40	343.53	42.20	-48.9	-51.2	16.4	0.00e+00	0	34	0	963641344	68	4930
2026-01-17 09:20:41.41	343.41	41.93	-49.0	-51.3	16.3	0.00e+00	0	34	0	965738496	68	4998
2026-01-17 09:20:42.42	343.29	41.66	-48.9	-51.2	16.4	0.00e+00	0	33	0	967835648	68	4958
2026-01-17 09:20:43.43	343.18	41.40	-49.1	-51.4	16.2	0.00e+00	0	34	0	969932800	68	5059
2026-01-17 09:20:44.44	343.06	41.13	-49.0	-51.3	16.3	0.00e+00	0	33	0	970981376	68	4986
2026-01-17 09:20:45.44	342.95	40.87	-49.0	-51.4	16.2	0.00e+00	0	34	0	973078528	68	5044
2026-01-17 09:20:46.45	342.84	40.60	-49.0	-51.3	16.3	0.00e+00	0	34	0	975175680	68	5020
2026-01-17 09:20:47.46	342.74	40.34	-49.2	-51.5	16.1	0.00e+00	0	34	0	977272832	68	5150
2026-01-17 09:20:48.47	342.63	40.09	-49.0	-51.3	16.2	0.00e+00	0	34	0	979369984	68	5033
2026-01-17 09:20:49.48	342.53	39.83	-49.0	-51.3	16.2	0.00e+00	0	33	0	981467136	68	5041
2026-01-17 09:20:50.49	342.42	39.57	-49.0	-51.3	16.3	0.00e+00	0	33	0	982515712	68	5001
2026-01-17 09:20:51.49	342.32	39.32	-48.9	-51.2	16.4	0.00e+00	0	34	0	984612864	68	4946
2026-01-17 09:20:52.50	342.22	39.07	-48.9	-51.1	16.4	0.00e+00	0	34	0	986710016	68	4901
2026-01-17 09:20:53.51	342.13	38.82	-48.8	-51.1	16.5	0.00e+00	0	33	0	988807168	68	4872
2026-01-17 09:20:54.51	342.03	38.57	-48.6	-50.8	16.8	0.00e+00	0	34	0	989855744	68	4706
2026-01-17 09:20:55.52	341.94	38.33	-48.4	-50.5	17.2	0.00e+00	0	34	0	991952896	68	4546
2026-01-17 09:20:56.53	341.84	38.08	-48.4	-50.5	17.1	0.00e+00	0	34	0	994050048	68	4563
2026-01-17 09:20:57.54	341.75	37.84	-48.2	-50.1	17.5	0.00e+00	0	34	0	996147200	68	4363
2026-01-17 09:20:58.54	341.66	37.60	-48.0	-49.9	17.6	0.00e+00	0	34	0	998244352	68	4263
2026-01-17 09:20:59.55	341.58	37.36	-47.8	-49.6	17.8	0.00e+00	0	34	0	1000341504	67	4375
2026-01-17 09:21:00.56	341.49	37.12	-47.8	-49.7	17.8	0.00e+00	0	34	0	1001390080	67	4397
2026-01-17 09:21:01.57	341.40	36.89	-47.7	-49.5	17.9	0.00e+00	0	34	0	1003487232	67	4331
2026-01-17 09:21:02.58	341.32	36.65	-47.7	-49.5	17.9	0.00e+00	0	34	0	1005584384	67	4337
2026-01-17 09:21:03.58	341.23	36.42	-47.7	-49.5	17.9	0.00e+00	0	34	0	1007681536	67	4338
2026-01-17 09:21:04.59	341.15	36.19	-47.9	-49.8	17.6	0.00e+00	0	34	0	1009778688	67	4456
2026-01-17 09:21:05.60	341.07	35.96	-48.0	-49.9	17.5	0.00e+00	0	33	0	1010827264	67	4537
2026-01-17 09:21:06.61	340.99	35.73	-48.3	-50.3	17.1	0.00e+00	0	34	0	1012924416	67	4757
2026-01-17 09:21:07.62	340.91	35.50	-48.4	-50.6	16.9	0.00e+00	0	34	0	1015021568	67	4883
2026-01-17 09:21:08.62	340.84	35.28	-48.5	-50.7	16.7	0.00e+00	0	33	0	1017118720	67	4965
2026-01-17 09:21:09.63	340.76	35.05	-48.5	-50.6	16.8	0.00e+00	0	34	0	1018167296	67	4910
2026-01-17 09:21:10.64	340.68	34.83	-48.4	-50.5	16.9	0.00e+00	0	33	0	1020264448	67	4854
2026-01-17 09:21:11.65	340.61	34.61	-48.3	-50.4	17.0	0.00e+00	0	34	0	1022361600	67	4775
2026-01-17 09:21:12.66	340.54	34.39	-48.1	-50.1	17.3	0.00e+00	0	34	0	1024458752	67	4641
2026-01-17 09:21:13.66	340.46	34.17	-48.0	-49.9	17.5	0.00e+00	0	34	0	1026555904	67	4508
2026-01-17 09:21:14.67	340.39	33.96	-47.9	-49.8	17.6	0.00e+00	0	33	0	1028653056	67	4450
2026-01-17 09:21:15.68	340.32	33.74	-47.9	-49.8	17.6	0.00e+00	0	34	0	1029701632	67	4457
2026-01-17 09:21:16.69	340.25	33.53	-47.7	-49.6	17.8	0.00e+00	0	34	0	1031798784	67	4356
2026-01-17 09:21:17.70	340.18	33.32	-47.8	-49.7	17.7	0.00e+00	0	33	0	1033895936	67	4396
2026-01-17 09:21:18.71	340.12	33.11	-47.9	-49.7	17.6	0.00e+00	0	34	0	1035993088	67	4435
2026-01-17 09:21:19.72	340.05	32.90	-47.9	-49.8	17.5	0.00e+00	0	34	0	1038090240	67	4481
2026-01-17 09:21:20.73	339.99	32.69	-48.1	-50.0	17.3	0.00e+00	0	33	0	1039138816	67	4581
2026-01-17 09:21:21.73	339.92	32.48	-48.1	-50.2	17.2	0.00e+00	0	34	0	1041235968	67	4654
2026-01-17 09:21:22.74	339.86	32.28	-48.1	-50.1	17.2	0.00e+00	0	34	0	1043333120	67	4630
2026-01-17 09:21:23.75	339.79	32.07	-48.2	-50.1	17.2	0.00e+00	0	34	0	1045430272	67	4646
2026-01-17 09:21:24.75	339.73	31.87	-48.2	-50.3	17.1	0.00e+00	0	34	0	1047527424	67	4718
2026-01-17 09:21:25.76	339.67	31.67	-48.3	-50.4	16.9	0.00e+00	0	34	0	1048576000	67	4787
2026-01-17 09:21:26.77	339.61	31.47	-48.5	-50.6	16.7	0.00e+00	0	34	0	1050673152	67	4910
2026-01-17 09:21:27.78	339.55	31.27	-48.5	-50.7	16.6	0.00e+00	0	33	0	1052770304	67	4967
2026-01-17 09:21:28.79	339.49	31.08	-48.8	-51.1	16.4	0.00e+00	0	34	0	1054867456	68	4886
2026-01-17 09:21:29.80	339.43	30.88	-48.7	-51.0	16.4	0.00e+00	0	34	0	1056964608	68	4838
2026-01-17 09:21:30.80	339.38	30.69	-48.8	-51.1	16.4	0.00e+00	0	34	0	1058013184	68	4901
2026-01-17 09:21:31.81	339.32	30.49	-48.9	-51.3	16.2	0.00e+00	0	33	0	1060110336	68	5005
2026-01-17 09:21:32.82	339.26	30.30	-48.8	-51.1	16.3	0.00e+00	0	34	0	1062207488	68	4909
2026-01-17 09:21:33.83	339.21	30.11	-48.8	-51.0	16.4	0.00e+00	0	34	0	1064304640	68	4852
2026-01-17 09:21:34.84	339.15	29.92	-48.9	-51.2	16.2	0.00e+00	0	34	0	1066401792	68	4954
2026-01-17 09:21:35.84	339.10	29.74	-48.8	-51.1	16.3	0.00e+00	0	34	0	1068498944	68	4922
2026-01-17 09:21:36.85	339.05	29.55	-48.7	-50.9	16.5	0.00e+00	0	33	0	1069547520	68	4801
2026-01-17 09:21:37.86	338.99	29.36	-48.7	-50.9	16.5	0.00e+00	0	34	0	1071644672	68	4804
2026-01-17 09:21:38.87	338.94	29.18	-48.6	-50.7	16.7	0.00e+00	0	33	0	1073741824	68	4691
2026-01-17 09:21:39.88	338.89	28.99	-48.4	-50.5	16.9	0.00e+00	0	34	0	1075838976	68	4553
2026-01-17 09:21:40.88	338.84	28.81	-48.4	-50.5	16.9	0.00e+00	0	34	0	1076887552	68	4580
2026-01-17 09:21:41.89	338.79	28.63	-48.3	-50.3	17.1	0.00e+00	0	33	0	1078984704	68	4460
2026-01-17 09:21:42.90	338.74	28.45	-48.3	-50.3	17.0	0.00e+00	0	33	0	1081081856	68	4480
2026-01-17 09:21:43.91	338.69	28.27	-48.0	-50.0	17.4	0.00e+00	0	34	0	1083179008	68	4320
2026-01-17 09:21:44.92	338.64	28.09	-47.8	-49.8	17.5	0.00e+00	0	34	0	1085276160	67	4453
2026-01-17 09:21:45.93	338.60	27.92	-47.8	-49.8	17.5	0.00e+00	0	34	0	1086324736	67	4450
2026-01-17 09:21:46.93	338.55	27.74	-47.9	-49.9	17.5	0.00e+00	0	34	0	1088421888	67	4496
2026-01-17 09:21:47.95	338.50	27.57	-47.8	-49.7	17.5	0.00e+00	0	33	0	1090519040	67	4438
2026-01-17 09:21:48.95	338.46	27.39	-47.7	-49.6	17.7	0.00e+00	0	34	0	1092616192	67	4366
2026-01-17 09:21:49.96	338.41	27.22	-47.6	-49.5	17.8	0.00e+00	0	33	0	1094713344	67	4302
2026-01-17 09:21:50.97	338.37	27.05	-47.6	-49.4	17.8	0.00e+00	0	34	0	1096810496	67	4274
2026-01-17 09:21:51.98	338.32	26.88	-47.6	-49.5	17.8	0.00e+00	0	34	0	1097859072	67	4313
2026-01-17 09:21:52.99	338.28	26.71	-47.6	-49.4	17.8	0.00e+00	0	34	0	1099956224	67	4276
2026-01-17 09:21:54.00	338.23	26.54	-47.6	-49.4	17.8	0.00e+00	0	33	0	1102053376	67	4288
2026-01-17 09:21:55.01	338.19	26.37	-47.5	-49.3	17.9	0.00e+00	0	34	0	1104150528	67	4230
2026-01-17 09:21:56.02	338.15	26.21	-47.4	-49.2	18.1	0.00e+00	0	34	0	1105199104	66	4399
2026-01-17 09:21:57.02	338.11	26.04	-47.5	-49.3	18.0	0.00e+00	0	34	0	1107296256	66	4446
2026-01-17 09:21:58.03	338.07	25.88	-47.4	-49.1	18.1	0.00e+00	0	34	0	1109393408	66	4378
2026-01-17 09:21:59.04	338.02	25.72	-47.4	-49.2	18.0	0.00e+00	0	34	0	1111490560	66	4412
2026-01-17 09:22:00.05	337.98	25.55	-47.3	-49.1	18.1	0.00e+00	0	33	0	1113587712	66	4375
2026-01-17 09:22:01.06	337.94	25.39	-47.1	-48.8	18.4	0.00e+00	0	33	0	1115684864	66	4216
2026-01-17 09:22:02.07	337.90	25.23	-46.9	-48.6	18.6	0.00e+00	0	34	0	1116733440	65	4367
2026-01-17 09:22:03.08	337.86	25.07	-46.9	-48.6	18.6	0.00e+00	0	33	0	1118830592	65	4358
2026-01-17 09:22:04.09	337.83	24.91	-46.9	-48.5	18.6	0.00e+00	0	33	0	1120927744	65	4327
2026-01-17 09:22:05.10	337.79	24.76	-46.7	-48.3	18.8	0.00e+00	0	34	0	1123024896	65	4240
2026-01-17 09:22:06.10	337.75	24.60	-46.8	-48.4	18.7	0.00e+00	0	34	0	1125122048	65	4267
2026-01-17 09:22:07.11	337.71	24.45	-46.7	-48.2	18.9	0.00e+00	0	34	0	1126170624	65	4193
2026-01-17 09:22:08.12	337.67	24.29	-46.7	-48.2	18.9	0.00e+00	0	34	0	1128267776	65	4187
2026-01-17 09:22:09.13	337.64	24.14	-46.8	-48.4	18.7	0.00e+00	0	34	0	1130364928	65	4289
2026-01-17 09:22:10.14	337.60	23.98	-46.9	-48.6	18.6	0.00e+00	0	34	0	1132462080	65	4345
2026-01-17 09:22:11.15	337.57	23.83	-46.9	-48.5	18.6	0.00e+00	0	34	0	1134559232	65	4331
2026-01-17 09:22:12.16	337.53	23.68	-46.9	-48.5	18.6	0.00e+00	0	34	0	1135607808	65	4323
2026-01-17 09:22:13.16	337.50	23.53	-46.9	-48.6	18.5	0.00e+00	0	34	0	1137704960	65	4376
2026-01-17 09:22:14.17	337.46	23.38	-47.1	-48.8	18.4	0.00e+00	0	34	0	1139802112	65	4460
2026-01-17 09:22:15.18	337.43	23.23	-47.2	-48.9	18.2	0.00e+00	0	34	0	1141899264	65	4533
2026-01-17 09:22:16.19	337.39	23.09	-47.2	-48.9	18.2	0.00e+00	0	34	0	1143996416	65	4523
2026-01-17 09:22:17.20	337.36	22.94	-47.0	-48.8	18.4	0.00e+00	0	34	0	1145044992	65	4450
2026-01-17 09:22:18.20	337.33	22.79	-47.2	-48.9	18.2	0.00e+00	0	34	0	1147142144	65	4534
2026-01-17 09:22:19.21	337.29	22.65	-47.0	-48.7	18.4	0.00e+00	0	34	0	1149239296	65	4417
2026-01-17 09:22:20.22	337.26	22.50	-47.1	-48.8	18.3	0.00e+00	0	34	0	1151336448	65	4482
2026-01-17 09:22:21.23	337.23	22.36	-47.0	-48.7	18.4	0.00e+00	0	33	0	1153433600	65	4424
2026-01-17 09:22:22.24	337.20	22.22	-47.0	-48.6	18.4	0.00e+00	0	34	0	1154482176	65	4388
2026-01-17 09:22:23.24	337.16	22.08	-46.9	-48.6	18.5	0.00e+00	0	34	0	1156579328	65	4378
2026-01-17 09:22:24.25	337.13	21.93	-47.0	-48.7	18.4	0.00e+00	0	34	0	1158676480	65	4399
2026-01-17 09:22:25.26	337.10	21.79	-46.9	-48.6	18.5	0.00e+00	0	33	0	1160773632	65	4376
2026-01-17 09:22:26.27	337.07	21.65	-46.9	-48.6	18.5	0.00e+00	0	34	0	1162870784	65	4356
2026-01-17 09:22:27.28	337.04	21.51	-47.0	-48.7	18.4	0.00e+00	0	34	0	1163919360	65	4397
2026-01-17 09:22:28.29	337.01	21.38	-46.9	-48.6	18.5	0.00e+00	0	34	0	1166016512	65	4352
2026-01-17 09:22:29.30	336.98	21.24	-47.0	-48.7	18.4	0.00e+00	0	34	0	1168113664	65	4406
2026-01-17 09:22:30.30	336.95	21.10	-47.0	-48.7	18.4	0.00e+00	0	34	0	1170210816	65	4419
2026-01-17 09:22:31.31	336.92	20.97	-46.9	-48.6	18.4	0.00e+00	0	34	0	1172307968	65	4384
2026-01-17 09:22:32.32	336.89	20.83	-47.1	-48.9	18.2	0.00e+00	0	34	0	1173356544	65	4503
2026-01-17 09:22:33.33	336.86	20.70	-47.1	-48.9	18.2	0.00e+00	0	34	0	1175453696	65	4524
2026-01-17 09:22:34.34	336.84	20.56	-47.1	-48.9	18.2	0.00e+00	0	34	0	1177550848	65	4512
2026-01-17 09:22:35.35	336.81	20.43	-47.3	-49.1	18.0	0.00e+00	0	34	0	1179648000	65	4616
2026-01-17 09:22:36.35	336.78	20.30	-47.3	-49.1	17.9	0.00e+00	0	34	0	1181745152	65	4645
2026-01-17 09:22:37.36	336.75	20.17	-47.4	-49.2	17.9	0.00e+00	0	34	0	1182793728	65	4675
2026-01-17 09:22:38.37	336.73	20.03	-47.6	-49.5	17.5	0.00e+00	0	34	0	1184890880	65	4848
2026-01-17 09:22:39.38	336.70	19.90	-47.5	-49.3	17.7	0.00e+00	0	33	0	1186988032	65	4757
2026-01-17 09:22:40.39	336.67	19.77	-47.4	-49.3	17.8	0.00e+00	0	34	0	1189085184	65	4728
2026-01-17 09:22:41.40	336.65	19.64	-47.5	-49.4	17.6	0.00e+00	0	34	0	1191182336	65	4801
2026-01-17 09:22:42.41	336.62	19.52	-47.5	-49.4	17.6	0.00e+00	0	34	0	1192230912	65	4787
2026-01-17 09:22:43.42	336.59	19.39	-47.4	-49.3	17.8	0.00e+00	0	34	0	1194328064	65	4726
2026-01-17 09:22:44.42	336.57	19.26	-47.5	-49.3	17.7	0.00e+00	0	34	0	1196425216	65	4751
2026-01-17 09:22:45.43	336.54	19.14	-47.4	-49.3	17.7	0.00e+00	0	34	0	1198522368	65	4741
2026-01-17 09:22:46.44	336.52	19.01	-47.5	-49.4	17.6	0.00e+00	0	34	0	1200619520	65	4777
2026-01-17 09:22:47.45	336.49	18.88	-47.4	-49.3	17.7	0.00e+00	0	34	0	1202716672	65	4740
2026-01-17 09:22:48.46	336.47	18.76	-47.4	-49.3	17.8	0.00e+00	0	34	0	1203765248	65	4707
2026-01-17 09:22:49.47	336.44	18.64	-47.5	-49.4	17.6	0.00e+00	0	34	0	1205862400	65	4768
2026-01-17 09:22:50.48	336.42	18.51	-47.5	-49.4	17.7	0.00e+00	0	34	0	1207959552	65	4768
2026-01-17 09:22:51.48	336.39	18.39	-47.5	-49.4	17.6	0.00e+00	0	34	0	1210056704	65	4785
2026-01-17 09:22:52.49	336.37	18.27	-47.6	-49.5	17.5	0.00e+00	0	34	0	1211105280	65	4847
2026-01-17 09:22:53.50	336.35	18.15	-47.5	-49.5	17.5	0.00e+00	0	34	0	1213202432	65	4824
2026-01-17 09:22:54.51	336.32	18.02	-47.6	-49.6	17.5	0.00e+00	0	34	0	1215299584	65	4876
2026-01-17 09:22:55.52	336.30	17.90	-47.6	-49.6	17.4	0.00e+00	0	34	0	1217396736	65	4894
2026-01-17 09:22:56.53	336.28	17.78	-47.7	-49.6	17.4	0.00e+00	0	34	0	1219493888	66	4646
2026-01-17 09:22:57.54	336.25	17.66	-47.7	-49.7	17.3	0.00e+00	0	34	0	1220542464	66	4700
2026-01-17 09:22:58.55	336.23	17.55	-47.8	-49.8	17.2	0.00e+00	0	33	0	1222639616	66	4711
2026-01-17 09:22:59.56	336.21	17.43	-47.8	-49.9	17.1	0.00e+00	0	34	0	1224736768	66	4778
2026-01-17 09:23:00.56	336.19	17.31	-47.9	-50.0	17.0	0.00e+00	0	34	0	1226833920	66	4863
2026-01-17 09:23:01.57	336.17	17.19	-48.0	-50.1	16.9	0.00e+00	0	34	0	1228931072	66	4910
2026-01-17 09:23:02.58	336.14	17.08	-48.0	-50.1	16.9	0.00e+00	0	34	0	1231028224	66	4901
2026-01-17 09:23:03.59	336.12	16.96	-48.0	-50.2	16.8	0.00e+00	0	34	0	1232076800	66	4945
2026-01-17 09:23:04.60	336.10	16.85	-48.1	-50.3	16.7	0.00e+00	0	34	0	1234173952	66	5007
2026-01-17 09:23:05.61	336.08	16.73	-48.1	-50.3	16.7	0.00e+00	0	34	0	1236271104	66	4999
2026-01-17 09:23:06.62	336.06	16.62	-48.2	-50.4	16.6	0.00e+00	0	34	0	1238368256	66	5067
2026-01-17 09:23:07.62	336.04	16.50	-48.2	-50.5	16.5	0.00e+00	0	34	0	1239416832	67	4822
2026-01-17 09:23:08.63	336.02	16.39	-48.2	-50.5	16.5	0.00e+00	0	34	0	1241513984	67	4827
