passes_logs/2026/01/17/R3.2S_Murmansk/R3.2S_Murmansk__20260117_193418_KANOPUS-V_5_rec.log

#Pass ID: 20260117_193418_KANOPUS-V 5
#Satellite: KANOPUS-V 5
#Configuration: KANOPUS-V_8320
#almurnet v.1.7.20251203
#Start time: 2026-01-17 19:34:19

#Version: 2.2.20231116
#Station: R3.2S_Murmansk
#Location: 33.079688 lon 68.888172 lat
#TLE: 1 43876U 18111A   26016.61566373  .00002373  00000+0  10257-3 0  9994
#TLE: 2 43876  97.3688 285.1004 0001785  87.8669 272.2772 15.23445052391717

#Time	Az	El	Level	Level2	SNR	BER	BlckErr	Temp	State	Recorded	gain1	gain2
2026-01-17 19:34:19.03	27.48	2.04	-52.8	-61.6	3.8	7.45e-01	0	33	0	0	77	9796
2026-01-17 19:34:20.03	27.62	2.09	-52.8	-61.7	3.8	7.47e-01	0	33	104	0	76	10473
2026-01-17 19:34:21.04	27.76	2.14	-52.8	-61.7	3.8	7.46e-01	0	33	104	0	76	10444
2026-01-17 19:34:22.05	27.90	2.19	-52.8	-61.7	3.8	7.45e-01	0	33	104	0	76	10422
2026-01-17 19:34:23.06	28.04	2.23	-52.8	-61.6	3.8	7.45e-01	0	33	104	0	76	10412
2026-01-17 19:34:24.07	28.18	2.28	-52.8	-61.7	3.8	7.47e-01	0	33	104	0	76	10426
2026-01-17 19:34:25.08	28.32	2.33	-52.8	-61.6	3.8	7.45e-01	0	34	104	0	76	10386
2026-01-17 19:34:26.09	28.46	2.38	-52.8	-61.6	3.8	7.45e-01	0	33	104	0	76	10394
2026-01-17 19:34:27.09	28.60	2.42	-52.8	-61.6	3.8	7.46e-01	0	33	104	0	76	10402
2026-01-17 19:34:28.10	28.74	2.47	-52.8	-61.6	3.8	7.44e-01	0	34	104	0	76	10399
2026-01-17 19:34:29.11	28.88	2.52	-52.8	-61.6	3.8	7.46e-01	0	34	104	0	76	10365
2026-01-17 19:34:30.12	29.03	2.57	-52.8	-61.6	3.8	7.46e-01	0	33	104	0	76	10401
2026-01-17 19:34:31.12	29.17	2.61	-52.8	-61.7	3.8	7.45e-01	0	34	104	0	76	10446
2026-01-17 19:34:32.13	29.31	2.66	-52.8	-61.6	3.8	7.47e-01	0	33	104	0	76	10404
2026-01-17 19:34:33.14	29.46	2.71	-52.8	-61.6	3.8	7.43e-01	0	34	104	0	76	10411
2026-01-17 19:34:34.15	29.61	2.76	-52.8	-61.6	3.8	7.45e-01	0	34	104	0	76	10377
2026-01-17 19:34:35.16	29.75	2.80	-52.8	-61.6	3.8	7.46e-01	0	34	104	0	76	10397
2026-01-17 19:34:36.16	29.90	2.85	-52.8	-61.7	3.8	7.46e-01	0	34	104	0	76	10424
2026-01-17 19:34:37.17	30.04	2.90	-52.8	-61.6	3.8	7.45e-01	0	34	104	0	76	10396
2026-01-17 19:34:38.18	30.19	2.95	-52.8	-61.7	3.8	7.46e-01	0	34	104	0	76	10422
2026-01-17 19:34:39.19	30.34	2.99	-52.8	-61.6	3.8	7.46e-01	0	34	104	0	76	10408
2026-01-17 19:34:40.20	30.49	3.04	-52.8	-61.7	3.8	7.45e-01	0	34	104	0	76	10430
2026-01-17 19:34:41.21	30.64	3.09	-52.8	-61.6	3.8	7.46e-01	0	34	104	0	76	10371
2026-01-17 19:34:42.22	30.79	3.14	-52.8	-61.7	3.8	7.43e-01	0	34	104	0	76	10441
2026-01-17 19:34:43.22	30.94	3.18	-52.8	-61.6	3.8	7.46e-01	0	34	104	0	76	10384
2026-01-17 19:34:44.23	31.09	3.23	-52.8	-61.6	3.8	7.44e-01	0	34	104	0	76	10381
2026-01-17 19:34:45.24	31.24	3.28	-52.8	-61.6	3.8	7.45e-01	0	34	104	0	76	10392
2026-01-17 19:34:46.25	31.40	3.33	-52.8	-61.6	3.8	7.45e-01	0	34	104	0	76	10407
2026-01-17 19:34:47.26	31.55	3.37	-52.8	-61.6	3.8	7.46e-01	0	34	104	0	76	10381
2026-01-17 19:34:48.26	31.70	3.42	-52.8	-61.6	3.8	7.44e-01	0	34	104	0	76	10402
2026-01-17 19:34:49.27	31.86	3.47	-52.8	-61.6	3.8	7.44e-01	0	34	104	0	76	10411
2026-01-17 19:34:50.28	32.01	3.51	-52.8	-61.6	3.8	7.44e-01	0	34	104	0	76	10402
2026-01-17 19:34:51.29	32.17	3.56	-52.8	-61.6	3.8	7.45e-01	0	34	104	0	76	10407
2026-01-17 19:34:52.29	32.32	3.61	-52.8	-61.6	3.8	7.46e-01	0	34	104	0	76	10356
2026-01-17 19:34:53.30	32.48	3.65	-52.8	-61.7	3.8	7.46e-01	0	34	104	0	76	10420
2026-01-17 19:34:54.31	32.64	3.70	-52.8	-61.6	3.8	7.46e-01	0	34	104	0	76	10404
2026-01-17 19:34:55.32	32.80	3.75	-52.8	-61.6	3.8	7.45e-01	0	34	104	0	76	10406
2026-01-17 19:34:56.32	32.96	3.80	-52.8	-61.6	3.8	7.44e-01	0	34	104	0	76	10404
2026-01-17 19:34:57.33	33.12	3.84	-52.8	-61.6	3.8	7.44e-01	0	34	104	0	76	10410
2026-01-17 19:34:58.34	33.28	3.89	-52.8	-61.6	3.8	7.45e-01	0	34	104	0	76	10392
2026-01-17 19:34:59.35	33.44	3.94	-52.8	-61.6	3.8	7.44e-01	0	34	104	0	76	10411
2026-01-17 19:35:00.36	33.60	3.98	-52.8	-61.7	3.8	7.46e-01	0	34	104	0	76	10415
2026-01-17 19:35:01.36	33.76	4.03	-52.8	-61.7	3.8	7.44e-01	0	34	104	0	76	10416
2026-01-17 19:35:02.37	33.92	4.08	-52.8	-61.6	3.8	7.46e-01	0	34	104	0	76	10378
2026-01-17 19:35:03.38	34.09	4.12	-52.8	-61.7	3.8	7.45e-01	0	35	104	0	76	10416
2026-01-17 19:35:04.39	34.25	4.17	-52.8	-61.6	3.8	7.46e-01	0	34	104	0	76	10391
2026-01-17 19:35:05.40	34.41	4.22	-52.8	-61.6	3.8	7.44e-01	0	35	104	0	76	10389
2026-01-17 19:35:06.41	34.58	4.26	-52.8	-61.6	3.8	7.45e-01	0	34	104	0	76	10384
2026-01-17 19:35:07.41	34.74	4.31	-52.8	-61.6	3.8	7.44e-01	0	34	104	0	76	10393
2026-01-17 19:35:08.42	34.91	4.35	-52.8	-61.6	3.8	7.46e-01	0	34	104	0	76	10388
2026-01-17 19:35:09.43	35.08	4.40	-52.8	-61.6	3.8	7.45e-01	0	34	104	0	76	10407
2026-01-17 19:35:10.43	35.25	4.45	-52.8	-61.6	3.8	7.46e-01	0	35	104	0	76	10407
2026-01-17 19:35:11.44	35.41	4.49	-52.8	-61.6	3.8	7.45e-01	0	35	104	0	76	10368
2026-01-17 19:35:12.45	35.58	4.54	-52.8	-61.7	3.8	7.46e-01	0	34	104	0	76	10425
2026-01-17 19:35:13.46	35.75	4.58	-52.8	-61.6	3.8	7.45e-01	0	34	104	0	76	10390
2026-01-17 19:35:14.46	35.92	4.63	-52.8	-61.6	3.8	7.46e-01	0	34	104	0	76	10385
2026-01-17 19:35:15.47	36.09	4.68	-52.8	-61.6	3.8	7.47e-01	0	35	104	0	76	10397
2026-01-17 19:35:16.48	36.27	4.72	-52.8	-61.7	3.8	7.45e-01	0	35	104	0	76	10429
2026-01-17 19:35:17.49	36.44	4.77	-52.8	-61.6	3.8	7.46e-01	0	35	104	0	76	10398
2026-01-17 19:35:18.50	36.61	4.81	-52.8	-61.6	3.8	7.45e-01	0	34	104	0	76	10411
2026-01-17 19:35:19.50	36.78	4.86	-52.8	-61.6	3.8	7.44e-01	0	35	104	0	76	10394
2026-01-17 19:35:20.51	36.96	4.90	-52.8	-61.6	3.8	7.45e-01	0	35	104	0	76	10405
2026-01-17 19:35:21.52	37.13	4.95	-52.8	-61.6	3.8	7.45e-01	0	35	104	0	76	10394
2026-01-17 19:35:22.53	37.31	4.99	-52.8	-61.6	3.8	7.44e-01	0	35	104	0	76	10401
2026-01-17 19:35:23.54	37.49	5.04	-52.9	-61.7	3.8	7.42e-01	0	35	104	0	76	10482
2026-01-17 19:35:24.54	37.66	5.08	-52.9	-61.7	3.8	7.44e-01	0	35	104	0	76	10480
2026-01-17 19:35:25.55	37.84	5.13	-52.8	-61.7	3.8	7.45e-01	0	35	104	0	76	10449
2026-01-17 19:35:26.56	38.02	5.17	-52.7	-61.6	3.8	7.44e-01	0	34	104	0	76	10305
2026-01-17 19:35:27.57	38.20	5.22	-52.9	-61.8	3.8	7.44e-01	0	35	104	0	76	10538
2026-01-17 19:35:28.58	38.38	5.26	-53.0	-61.8	3.8	7.44e-01	0	35	104	0	76	10620
2026-01-17 19:35:29.58	38.56	5.31	-52.9	-61.7	3.8	7.45e-01	0	35	104	0	76	10485
2026-01-17 19:35:30.59	38.74	5.35	-52.8	-61.6	3.8	7.45e-01	0	35	104	0	76	10358
2026-01-17 19:35:31.60	38.92	5.40	-52.9	-61.8	3.8	7.46e-01	0	35	104	0	76	10581
2026-01-17 19:35:32.61	39.11	5.44	-53.0	-61.9	3.8	7.45e-01	0	35	104	0	76	10687
2026-01-17 19:35:33.61	39.29	5.49	-52.9	-61.8	3.8	7.45e-01	0	35	104	0	76	10552
2026-01-17 19:35:34.62	39.47	5.53	-52.8	-61.6	3.8	7.46e-01	0	35	104	0	76	10387
2026-01-17 19:35:35.63	39.66	5.57	-53.0	-61.8	3.8	7.44e-01	0	35	104	0	76	10578
2026-01-17 19:35:36.64	39.84	5.62	-53.0	-61.8	3.8	7.46e-01	0	35	104	0	76	10638
2026-01-17 19:35:37.64	40.03	5.66	-53.0	-61.8	3.8	7.45e-01	0	35	104	0	76	10554
2026-01-17 19:35:38.65	40.21	5.70	-52.8	-61.6	3.8	7.47e-01	0	35	104	0	76	10363
2026-01-17 19:35:39.66	40.40	5.75	-53.1	-61.9	3.8	7.46e-01	0	35	104	0	76	10729
2026-01-17 19:35:40.67	40.59	5.79	-53.1	-61.9	3.8	7.45e-01	0	35	104	0	76	10718
2026-01-17 19:35:41.68	40.78	5.83	-53.0	-61.8	3.8	7.44e-01	0	35	104	0	76	10623
2026-01-17 19:35:42.69	40.97	5.88	-52.9	-61.7	3.8	7.45e-01	0	35	104	0	76	10439
2026-01-17 19:35:43.70	41.16	5.92	-53.1	-62.0	3.8	7.45e-01	0	35	104	0	76	10779
2026-01-17 19:35:44.70	41.35	5.96	-53.1	-61.9	3.8	7.45e-01	0	35	104	0	76	10777
2026-01-17 19:35:45.71	41.54	6.01	-53.0	-61.9	3.8	7.46e-01	0	35	104	0	76	10680
2026-01-17 19:35:46.72	41.73	6.05	-52.9	-61.8	3.8	7.45e-01	0	35	104	0	76	10619
2026-01-17 19:35:47.73	41.93	6.09	-53.1	-62.0	3.8	7.45e-01	0	35	104	0	76	10808
2026-01-17 19:35:48.74	42.12	6.13	-53.1	-62.0	3.8	7.45e-01	0	35	104	0	76	10823
2026-01-17 19:35:49.74	42.31	6.18	-53.1	-61.9	3.8	7.45e-01	0	35	104	0	76	10730
2026-01-17 19:35:50.75	42.51	6.22	-53.0	-61.8	3.8	7.46e-01	0	35	104	0	76	10570
2026-01-17 19:35:51.76	42.71	6.26	-53.2	-62.0	3.8	7.45e-01	0	35	104	0	76	10864
2026-01-17 19:35:52.77	42.90	6.30	-53.2	-62.0	3.8	7.46e-01	0	35	104	0	77	10252
2026-01-17 19:35:53.78	43.10	6.34	-53.1	-62.0	3.8	7.46e-01	0	35	104	0	77	10186
2026-01-17 19:35:54.78	43.30	6.39	-53.0	-61.8	3.8	7.46e-01	0	35	104	0	77	10051
2026-01-17 19:35:55.79	43.50	6.43	-53.2	-62.1	3.8	7.44e-01	0	35	104	0	77	10327
2026-01-17 19:35:56.80	43.70	6.47	-53.2	-62.0	3.8	7.45e-01	0	35	104	0	77	10270
2026-01-17 19:35:57.81	43.90	6.51	-53.1	-62.0	3.8	7.44e-01	0	35	104	0	77	10201
2026-01-17 19:35:58.82	44.10	6.55	-53.1	-61.9	3.8	7.44e-01	0	35	104	0	77	10117
2026-01-17 19:35:59.82	44.30	6.59	-53.3	-62.1	3.8	7.45e-01	0	35	104	0	77	10363
2026-01-17 19:36:00.83	44.50	6.63	-53.2	-62.1	3.8	7.45e-01	0	35	104	0	77	10298
2026-01-17 19:36:01.84	44.70	6.67	-53.2	-62.0	3.8	7.45e-01	0	35	104	0	77	10247
2026-01-17 19:36:02.85	44.91	6.71	-53.1	-62.0	3.8	7.44e-01	0	35	104	0	77	10194
2026-01-17 19:36:03.86	45.11	6.75	-53.3	-62.1	3.8	7.46e-01	0	35	104	0	77	10388
2026-01-17 19:36:04.86	45.31	6.79	-53.2	-62.1	3.8	7.45e-01	0	35	104	0	77	10303
2026-01-17 19:36:05.87	45.52	6.83	-53.2	-62.1	3.8	7.46e-01	0	35	104	0	77	10317
2026-01-17 19:36:06.88	45.73	6.87	-53.1	-61.9	3.8	7.44e-01	0	35	104	0	77	10164
2026-01-17 19:36:07.89	45.93	6.91	-53.3	-62.1	3.8	7.47e-01	0	35	104	0	77	10390
2026-01-17 19:36:08.90	46.14	6.95	-53.3	-62.1	3.8	7.45e-01	0	35	104	0	77	10372
2026-01-17 19:36:09.90	46.35	6.99	-53.2	-62.1	3.8	7.45e-01	0	35	104	0	77	10329
2026-01-17 19:36:10.91	46.56	7.03	-53.2	-62.0	3.8	7.45e-01	0	35	104	0	77	10206
2026-01-17 19:36:11.92	46.77	7.06	-53.3	-62.2	3.8	7.43e-01	0	35	104	0	77	10429
2026-01-17 19:36:12.93	46.98	7.10	-53.3	-62.1	3.8	7.45e-01	0	35	104	0	77	10400
2026-01-17 19:36:13.94	47.19	7.14	-53.3	-62.1	3.8	7.46e-01	0	35	104	0	77	10341
2026-01-17 19:36:14.94	47.40	7.18	-53.2	-62.0	3.8	7.45e-01	0	35	104	0	77	10235
2026-01-17 19:36:15.95	47.61	7.22	-53.4	-62.2	3.8	7.46e-01	0	35	104	0	77	10461
2026-01-17 19:36:16.96	47.83	7.25	-53.3	-62.1	3.8	7.44e-01	0	35	104	0	77	10381
2026-01-17 19:36:17.96	48.04	7.29	-53.3	-62.1	3.8	7.45e-01	0	35	104	0	77	10370
2026-01-17 19:36:18.97	48.25	7.33	-53.2	-62.0	3.8	7.45e-01	0	35	104	0	77	10268
2026-01-17 19:36:19.98	48.47	7.36	-53.4	-62.2	3.8	7.45e-01	0	35	104	0	77	10470
2026-01-17 19:36:20.99	48.68	7.40	-53.3	-62.1	3.8	7.46e-01	0	35	104	0	77	10364
2026-01-17 19:36:22.00	48.90	7.44	-53.3	-62.1	3.8	7.45e-01	0	35	104	0	77	10398
2026-01-17 19:36:23.00	49.12	7.47	-53.2	-62.0	3.8	7.44e-01	0	35	104	0	77	10293
2026-01-17 19:36:24.01	49.33	7.51	-53.4	-62.2	3.8	7.45e-01	0	35	104	0	77	10489
2026-01-17 19:36:25.02	49.55	7.55	-53.3	-62.2	3.8	7.45e-01	0	35	104	0	77	10439
2026-01-17 19:36:26.03	49.77	7.58	-53.3	-62.1	3.8	7.46e-01	0	35	104	0	77	10369
2026-01-17 19:36:27.04	49.99	7.62	-53.2	-62.1	3.8	7.46e-01	0	35	104	0	77	10303
2026-01-17 19:36:28.04	50.21	7.65	-53.4	-62.3	3.8	7.45e-01	0	35	104	0	77	10568
2026-01-17 19:36:29.05	50.43	7.69	-53.4	-62.2	3.8	7.47e-01	0	35	104	0	77	10475
2026-01-17 19:36:30.06	50.65	7.72	-53.3	-62.2	3.8	7.46e-01	0	35	104	0	77	10463
2026-01-17 19:36:31.07	50.88	7.75	-53.3	-62.1	3.8	7.45e-01	0	35	104	0	77	10389
2026-01-17 19:36:32.08	51.10	7.79	-53.4	-62.3	3.8	7.46e-01	0	35	104	0	77	10573
2026-01-17 19:36:33.09	51.32	7.82	-53.4	-62.2	3.8	7.44e-01	0	35	104	0	77	10479
2026-01-17 19:36:34.10	51.55	7.86	-53.4	-62.2	3.8	7.46e-01	0	35	104	0	77	10438
2026-01-17 19:36:35.10	51.77	7.89	-53.3	-62.1	3.8	7.45e-01	0	35	104	0	77	10397
2026-01-17 19:36:36.11	52.00	7.92	-53.4	-62.3	3.8	7.46e-01	0	35	104	0	77	10596
2026-01-17 19:36:37.12	52.22	7.95	-53.4	-62.2	3.8	7.45e-01	0	35	104	0	77	10471
2026-01-17 19:36:38.13	52.45	7.99	-53.4	-62.2	3.8	7.46e-01	0	35	104	0	77	10456
2026-01-17 19:36:39.14	52.68	8.02	-53.3	-62.2	3.8	7.44e-01	0	35	104	0	77	10423
2026-01-17 19:36:40.14	52.91	8.05	-53.4	-62.3	3.8	7.44e-01	0	35	104	0	77	10568
2026-01-17 19:36:41.15	53.13	8.08	-53.4	-62.2	3.8	7.46e-01	0	35	104	0	77	10504
2026-01-17 19:36:42.16	53.36	8.11	-53.4	-62.2	3.8	7.45e-01	0	35	104	0	77	10469
2026-01-17 19:36:43.16	53.59	8.14	-53.3	-62.2	3.8	7.44e-01	0	35	104	0	77	10458
2026-01-17 19:36:44.17	53.82	8.17	-53.4	-62.3	3.8	7.44e-01	0	35	104	0	77	10564
2026-01-17 19:36:45.18	54.05	8.21	-53.4	-62.2	3.8	7.45e-01	0	35	104	0	77	10498
2026-01-17 19:36:46.19	54.29	8.24	-53.4	-62.2	3.8	7.45e-01	0	35	104	0	77	10498
2026-01-17 19:36:47.20	54.52	8.27	-53.3	-62.2	3.8	7.45e-01	0	35	104	0	77	10448
2026-01-17 19:36:48.20	54.75	8.29	-53.5	-62.3	3.8	7.44e-01	0	35	104	0	77	10568
2026-01-17 19:36:49.21	54.98	8.32	-53.4	-62.2	3.8	7.44e-01	0	35	104	0	77	10526
2026-01-17 19:36:50.22	55.22	8.35	-53.4	-62.2	3.8	7.46e-01	0	35	104	0	77	10528
2026-01-17 19:36:51.23	55.45	8.38	-53.4	-62.2	3.8	7.46e-01	0	35	104	0	77	10445
2026-01-17 19:36:52.24	55.69	8.41	-53.4	-62.3	3.8	7.45e-01	0	35	104	0	77	10585
2026-01-17 19:36:53.25	55.92	8.44	-53.4	-62.3	3.8	7.44e-01	0	35	104	0	77	10539
2026-01-17 19:36:54.26	56.16	8.47	-53.4	-62.2	3.8	7.44e-01	0	35	104	0	77	10478
2026-01-17 19:36:55.26	56.39	8.49	-53.4	-62.2	3.8	7.46e-01	0	35	104	0	77	10505
2026-01-17 19:36:56.27	56.63	8.52	-53.5	-62.3	3.8	7.47e-01	0	35	104	0	77	10625
2026-01-17 19:36:57.28	56.87	8.55	-53.4	-62.2	3.8	7.46e-01	0	35	104	0	77	10521
2026-01-17 19:36:58.29	57.11	8.57	-53.4	-62.2	3.8	7.47e-01	0	35	104	0	77	10500
2026-01-17 19:36:59.30	57.35	8.60	-53.4	-62.3	3.8	7.46e-01	0	35	104	0	77	10535
2026-01-17 19:37:00.30	57.59	8.62	-53.5	-62.3	3.8	7.46e-01	0	35	104	0	77	10631
2026-01-17 19:37:01.31	57.83	8.65	-53.4	-62.3	3.8	7.45e-01	0	35	104	0	77	10580
2026-01-17 19:37:02.32	58.07	8.67	-53.4	-62.2	3.8	7.48e-01	0	35	104	0	77	10520
2026-01-17 19:37:03.33	58.31	8.70	-53.4	-62.2	3.8	7.44e-01	0	35	104	0	77	10491
2026-01-17 19:37:04.33	58.55	8.72	-53.5	-62.3	3.8	7.44e-01	0	35	104	0	77	10634
2026-01-17 19:37:05.34	58.79	8.75	-53.4	-62.3	3.8	7.44e-01	0	35	104	0	77	10569
2026-01-17 19:37:06.35	59.03	8.77	-53.4	-62.3	3.8	7.45e-01	0	35	104	0	77	10560
2026-01-17 19:37:07.36	59.28	8.79	-53.4	-62.3	3.8	7.45e-01	0	35	104	0	77	10585
2026-01-17 19:37:08.37	59.52	8.82	-53.5	-62.3	3.8	7.44e-01	0	35	104	0	77	10638
2026-01-17 19:37:09.37	59.76	8.84	-53.5	-62.3	3.8	7.46e-01	0	35	104	0	77	10597
2026-01-17 19:37:10.38	60.01	8.86	-53.5	-62.3	3.8	7.45e-01	0	35	104	0	77	10588
2026-01-17 19:37:11.39	60.25	8.88	-53.4	-62.3	3.8	7.46e-01	0	35	104	0	77	10577
2026-01-17 19:37:12.40	60.50	8.91	-53.5	-62.3	3.8	7.46e-01	0	35	104	0	77	10632
2026-01-17 19:37:13.40	60.74	8.93	-53.5	-62.3	3.8	7.46e-01	0	35	104	0	77	10592
2026-01-17 19:37:14.41	60.99	8.95	-53.4	-62.3	3.8	7.44e-01	0	35	104	0	77	10567
2026-01-17 19:37:15.42	61.23	8.97	-53.4	-62.3	3.8	7.45e-01	0	35	104	0	77	10561
2026-01-17 19:37:16.43	61.48	8.99	-53.5	-62.4	3.8	7.45e-01	0	35	104	0	77	10664
2026-01-17 19:37:17.44	61.73	9.01	-53.5	-62.3	3.8	7.45e-01	0	35	104	0	77	10586
2026-01-17 19:37:18.44	61.97	9.03	-53.5	-62.3	3.8	7.45e-01	0	35	104	0	77	10612
2026-01-17 19:37:19.45	62.22	9.05	-53.5	-62.3	3.8	7.45e-01	0	35	104	0	77	10594
2026-01-17 19:37:20.46	62.47	9.06	-53.5	-62.3	3.8	7.45e-01	0	35	104	0	77	10609
2026-01-17 19:37:21.47	62.72	9.08	-53.5	-62.3	3.8	7.46e-01	0	35	104	0	77	10617
2026-01-17 19:37:22.48	62.97	9.10	-53.5	-62.2	3.8	7.46e-01	0	35	104	0	77	10530
2026-01-17 19:37:23.48	63.22	9.12	-53.5	-62.3	3.8	7.45e-01	0	35	104	0	77	10587
2026-01-17 19:37:24.49	63.47	9.13	-53.5	-62.4	3.8	7.44e-01	0	35	104	0	77	10678
2026-01-17 19:37:25.50	63.72	9.15	-53.5	-62.3	3.8	7.45e-01	0	35	104	0	77	10625
2026-01-17 19:37:26.51	63.97	9.17	-53.5	-62.3	3.8	7.45e-01	0	35	104	0	77	10573
2026-01-17 19:37:27.52	64.22	9.18	-53.5	-62.3	3.8	7.46e-01	0	35	104	0	77	10615
2026-01-17 19:37:28.52	64.47	9.20	-53.5	-62.4	3.8	7.45e-01	0	35	104	0	77	10672
2026-01-17 19:37:29.53	64.72	9.21	-53.5	-62.3	3.8	7.46e-01	0	35	104	0	77	10600
2026-01-17 19:37:30.54	64.98	9.23	-53.4	-62.3	3.8	7.45e-01	0	35	104	0	77	10566
2026-01-17 19:37:31.55	65.23	9.24	-53.5	-62.4	3.8	7.45e-01	0	35	104	0	77	10657
2026-01-17 19:37:32.56	65.48	9.26	-53.5	-62.4	3.8	7.45e-01	0	35	104	0	77	10666
2026-01-17 19:37:33.56	65.73	9.27	-53.5	-62.3	3.8	7.46e-01	0	35	104	0	77	10641
2026-01-17 19:37:34.57	65.99	9.28	-53.5	-62.3	3.8	7.45e-01	0	36	104	0	77	10605
2026-01-17 19:37:35.58	66.24	9.29	-53.5	-62.3	3.8	7.46e-01	0	35	104	0	77	10644
2026-01-17 19:37:36.59	66.49	9.31	-53.5	-62.4	3.8	7.44e-01	0	35	104	0	77	10682
2026-01-17 19:37:37.60	66.75	9.32	-53.5	-62.3	3.8	7.44e-01	0	35	104	0	77	10651
2026-01-17 19:37:38.61	67.00	9.33	-53.5	-62.3	3.8	7.44e-01	0	35	104	0	77	10595
2026-01-17 19:37:39.62	67.26	9.34	-53.5	-62.3	3.8	7.45e-01	0	35	104	0	77	10635
2026-01-17 19:37:40.62	67.51	9.35	-53.5	-62.4	3.8	7.45e-01	0	35	104	0	77	10681
2026-01-17 19:37:41.63	67.77	9.36	-53.5	-62.3	3.8	7.46e-01	0	35	104	0	77	10599
2026-01-17 19:37:42.64	68.02	9.37	-53.4	-62.3	3.8	7.44e-01	0	35	104	0	77	10547
2026-01-17 19:37:43.64	68.28	9.38	-53.5	-62.3	3.8	7.46e-01	0	35	104	0	77	10597
2026-01-17 19:37:44.65	68.53	9.39	-53.5	-62.3	3.8	7.47e-01	0	35	104	0	77	10640
2026-01-17 19:37:45.66	68.79	9.40	-53.5	-62.3	3.8	7.45e-01	0	35	104	0	77	10620
2026-01-17 19:37:46.67	69.04	9.40	-53.4	-62.3	3.8	7.47e-01	0	35	104	0	77	10589
2026-01-17 19:37:47.68	69.30	9.41	-53.5	-62.4	3.8	7.46e-01	0	35	104	0	77	10699
2026-01-17 19:37:48.68	69.55	9.42	-53.5	-62.3	3.8	7.44e-01	0	35	104	0	77	10643
2026-01-17 19:37:49.69	69.81	9.43	-53.5	-62.3	3.8	7.44e-01	0	35	104	0	77	10627
2026-01-17 19:37:50.70	70.07	9.43	-53.5	-62.3	3.8	7.46e-01	0	35	104	0	77	10576
2026-01-17 19:37:51.71	70.33	9.44	-53.5	-62.4	3.8	7.46e-01	0	35	104	0	77	10662
2026-01-17 19:37:52.72	70.58	9.44	-53.5	-62.4	3.8	7.46e-01	0	35	104	0	77	10693
2026-01-17 19:37:53.73	70.84	9.45	-53.5	-62.3	3.8	7.45e-01	0	35	104	0	77	10628
2026-01-17 19:37:54.73	71.09	9.45	-53.5	-62.3	3.8	7.45e-01	0	35	104	0	77	10578
2026-01-17 19:37:55.74	71.35	9.46	-53.5	-62.4	3.8	7.46e-01	0	35	104	0	77	10670
2026-01-17 19:37:56.75	71.61	9.46	-53.5	-62.3	3.8	7.47e-01	0	35	104	0	77	10603
2026-01-17 19:37:57.76	71.87	9.46	-53.5	-62.3	3.8	7.45e-01	0	36	104	0	77	10611
2026-01-17 19:37:58.76	72.12	9.47	-53.4	-62.3	3.8	7.43e-01	0	35	104	0	77	10551
2026-01-17 19:37:59.77	72.38	9.47	-53.5	-62.4	3.8	7.45e-01	0	35	104	0	77	10662
2026-01-17 19:38:00.78	72.64	9.47	-53.5	-62.3	3.8	7.45e-01	0	35	104	0	77	10628
2026-01-17 19:38:01.78	72.89	9.47	-53.5	-62.3	3.8	7.47e-01	0	35	104	0	77	10598
2026-01-17 19:38:02.79	73.15	9.47	-53.4	-62.2	3.8	7.46e-01	0	35	104	0	77	10533
2026-01-17 19:38:03.80	73.41	9.47	-53.5	-62.4	3.8	7.44e-01	0	35	104	0	77	10662
2026-01-17 19:38:04.81	73.67	9.47	-53.5	-62.3	3.8	7.45e-01	0	36	104	0	77	10617
2026-01-17 19:38:05.82	73.93	9.47	-53.5	-62.3	3.8	7.46e-01	0	35	104	0	77	10593
2026-01-17 19:38:06.82	74.18	9.47	-53.4	-62.3	3.8	7.45e-01	0	35	104	0	77	10583
2026-01-17 19:38:07.83	74.44	9.47	-53.5	-62.4	3.8	7.45e-01	0	35	104	0	77	10689
2026-01-17 19:38:08.84	74.70	9.47	-53.5	-62.3	3.8	7.44e-01	0	35	104	0	77	10617
2026-01-17 19:38:09.85	74.96	9.47	-53.5	-62.3	3.8	7.45e-01	0	35	104	0	77	10628
2026-01-17 19:38:10.86	75.21	9.47	-53.4	-62.2	3.8	7.46e-01	0	35	104	0	77	10514
2026-01-17 19:38:11.86	75.47	9.46	-53.6	-62.4	3.8	7.45e-01	0	36	104	0	77	10708
2026-01-17 19:38:12.87	75.73	9.46	-53.5	-62.3	3.8	7.47e-01	0	35	104	0	77	10627
2026-01-17 19:38:13.88	75.98	9.46	-53.5	-62.3	3.8	7.45e-01	0	35	104	0	77	10609
2026-01-17 19:38:14.89	76.24	9.45	-53.4	-62.2	3.8	7.46e-01	0	35	104	0	77	10532
2026-01-17 19:38:15.90	76.50	9.45	-53.5	-62.4	3.8	7.44e-01	0	35	104	0	77	10684
2026-01-17 19:38:16.90	76.75	9.44	-53.5	-62.3	3.8	7.45e-01	0	35	104	0	77	10611
2026-01-17 19:38:17.91	77.01	9.44	-53.5	-62.3	3.8	7.45e-01	0	35	104	0	77	10612
2026-01-17 19:38:18.92	77.27	9.43	-53.4	-62.3	3.8	7.46e-01	0	35	104	0	77	10544
2026-01-17 19:38:19.93	77.53	9.42	-53.5	-62.4	3.8	7.45e-01	0	35	104	0	77	10665
2026-01-17 19:38:20.94	77.78	9.42	-53.5	-62.3	3.8	7.45e-01	0	35	104	0	77	10605
2026-01-17 19:38:21.94	78.04	9.41	-53.5	-62.3	3.8	7.45e-01	0	36	104	0	77	10606
2026-01-17 19:38:22.95	78.29	9.40	-53.4	-62.3	3.8	7.45e-01	0	35	104	0	77	10571
2026-01-17 19:38:23.96	78.55	9.39	-53.5	-62.3	3.8	7.47e-01	0	35	104	0	77	10644
2026-01-17 19:38:24.97	78.81	9.39	-53.5	-62.3	3.8	7.45e-01	0	35	104	0	77	10648
2026-01-17 19:38:25.98	79.06	9.38	-53.5	-62.3	3.8	7.45e-01	0	35	104	0	77	10582
2026-01-17 19:38:26.99	79.32	9.37	-53.4	-62.3	3.8	7.45e-01	0	36	104	0	77	10563
2026-01-17 19:38:27.99	79.57	9.36	-53.5	-62.4	3.8	7.46e-01	0	35	104	0	77	10673
2026-01-17 19:38:29.00	79.83	9.35	-53.5	-62.3	3.8	7.46e-01	0	35	104	0	77	10635
2026-01-17 19:38:30.01	80.08	9.34	-53.5	-62.3	3.8	7.43e-01	0	36	104	0	77	10592
2026-01-17 19:38:31.02	80.34	9.33	-53.4	-62.3	3.8	7.45e-01	0	35	104	0	77	10551
2026-01-17 19:38:32.02	80.59	9.31	-53.5	-62.4	3.8	7.44e-01	0	35	104	0	77	10717
2026-01-17 19:38:33.03	80.85	9.30	-53.5	-62.3	3.8	7.44e-01	0	35	104	0	77	10641
2026-01-17 19:38:34.04	81.10	9.29	-53.5	-62.3	3.8	7.45e-01	0	35	104	0	77	10628
2026-01-17 19:38:35.05	81.35	9.28	-53.4	-62.2	3.8	7.47e-01	0	36	104	0	77	10518
2026-01-17 19:38:36.06	81.61	9.26	-53.6	-62.4	3.8	7.45e-01	0	35	104	0	77	10714
2026-01-17 19:38:37.06	81.86	9.25	-53.5	-62.3	3.8	7.45e-01	0	35	104	0	77	10599
2026-01-17 19:38:38.07	82.11	9.24	-53.5	-62.3	3.8	7.47e-01	0	35	104	0	77	10597
2026-01-17 19:38:39.08	82.37	9.22	-53.4	-62.3	3.8	7.47e-01	0	35	104	0	77	10538
2026-01-17 19:38:40.09	82.62	9.21	-53.6	-62.4	3.8	7.45e-01	0	35	104	0	77	10689
2026-01-17 19:38:41.10	82.87	9.19	-53.5	-62.3	3.8	7.45e-01	0	35	104	0	77	10610
2026-01-17 19:38:42.10	83.12	9.18	-53.5	-62.3	3.8	7.45e-01	0	35	104	0	77	10578
2026-01-17 19:38:43.11	83.37	9.16	-53.4	-62.2	3.8	7.44e-01	0	36	104	0	77	10505
2026-01-17 19:38:44.12	83.62	9.15	-53.6	-62.4	3.8	7.46e-01	0	35	104	0	77	10702
2026-01-17 19:38:45.13	83.88	9.13	-53.5	-62.3	3.8	7.44e-01	0	35	104	0	77	10591
2026-01-17 19:38:46.14	84.13	9.11	-53.5	-62.3	3.8	7.45e-01	0	35	104	0	77	10637
2026-01-17 19:38:47.15	84.38	9.09	-53.4	-62.3	3.8	7.45e-01	0	35	104	0	77	10555
2026-01-17 19:38:48.16	84.63	9.08	-53.6	-62.4	3.8	7.44e-01	0	35	104	0	77	10665
2026-01-17 19:38:49.17	84.88	9.06	-53.5	-62.3	3.8	7.44e-01	0	35	104	0	77	10633
2026-01-17 19:38:50.18	85.13	9.04	-53.5	-62.3	3.8	7.45e-01	0	35	104	0	77	10648
2026-01-17 19:38:51.18	85.37	9.02	-53.4	-62.3	3.8	7.44e-01	0	35	104	0	77	10554
2026-01-17 19:38:52.19	85.62	9.00	-53.5	-62.4	3.8	7.47e-01	0	35	104	0	77	10671
2026-01-17 19:38:53.20	85.87	8.98	-53.5	-62.3	3.8	7.46e-01	0	35	104	0	77	10574
2026-01-17 19:38:54.21	86.12	8.96	-53.5	-62.3	3.8	7.44e-01	0	35	104	0	77	10595
2026-01-17 19:38:55.22	86.36	8.94	-53.4	-62.3	3.8	7.44e-01	0	36	104	0	77	10561
2026-01-17 19:38:56.22	86.61	8.92	-53.5	-62.4	3.8	7.44e-01	0	35	104	0	77	10677
2026-01-17 19:38:57.23	86.86	8.90	-53.5	-62.3	3.8	7.46e-01	0	35	104	0	77	10567
2026-01-17 19:38:58.24	87.10	8.88	-53.5	-62.3	3.8	7.46e-01	0	35	104	0	77	10583
2026-01-17 19:38:59.25	87.35	8.85	-53.4	-62.2	3.8	7.45e-01	0	35	104	0	77	10505
2026-01-17 19:39:00.26	87.59	8.83	-53.5	-62.4	3.8	7.46e-01	0	35	104	0	77	10692
2026-01-17 19:39:01.26	87.83	8.81	-53.4	-62.3	3.8	7.45e-01	0	35	104	0	77	10546
2026-01-17 19:39:02.27	88.08	8.79	-53.4	-62.3	3.8	7.44e-01	0	35	104	0	77	10556
2026-01-17 19:39:03.28	88.32	8.76	-53.4	-62.2	3.8	7.44e-01	0	35	104	0	77	10503
2026-01-17 19:39:04.28	88.56	8.74	-53.5	-62.3	3.8	7.45e-01	0	35	104	0	77	10631
2026-01-17 19:39:05.29	88.81	8.71	-53.4	-62.3	3.8	7.47e-01	0	35	104	0	77	10539
2026-01-17 19:39:06.30	89.05	8.69	-53.4	-62.2	3.8	7.46e-01	0	35	104	0	77	10516
2026-01-17 19:39:07.31	89.29	8.66	-53.4	-62.2	3.8	7.45e-01	0	35	104	0	77	10523
2026-01-17 19:39:08.32	89.53	8.64	-53.5	-62.3	3.8	7.46e-01	0	35	104	0	77	10608
2026-01-17 19:39:09.33	89.77	8.61	-53.4	-62.3	3.8	7.46e-01	0	35	104	0	77	10546
2026-01-17 19:39:10.33	90.01	8.59	-53.4	-62.3	3.8	7.43e-01	0	35	104	0	77	10535
2026-01-17 19:39:11.34	90.25	8.56	-53.4	-62.2	3.8	7.45e-01	0	36	104	0	77	10519
2026-01-17 19:39:12.35	90.49	8.53	-53.5	-62.3	3.8	7.46e-01	0	35	104	0	77	10566
2026-01-17 19:39:13.36	90.73	8.51	-53.4	-62.3	3.8	7.45e-01	0	35	104	0	77	10538
2026-01-17 19:39:14.36	90.96	8.48	-53.4	-62.2	3.8	7.45e-01	0	35	104	0	77	10519
2026-01-17 19:39:15.37	91.20	8.45	-53.4	-62.2	3.8	7.45e-01	0	36	104	0	77	10500
2026-01-17 19:39:16.38	91.44	8.42	-53.5	-62.3	3.8	7.45e-01	0	35	104	0	77	10604
2026-01-17 19:39:17.39	91.68	8.40	-53.4	-62.3	3.8	7.44e-01	0	35	104	0	77	10542
2026-01-17 19:39:18.40	91.91	8.37	-53.4	-62.2	3.8	7.47e-01	0	35	104	0	77	10486
2026-01-17 19:39:19.40	92.15	8.34	-53.4	-62.2	3.8	7.45e-01	0	35	104	0	77	10506
2026-01-17 19:39:20.41	92.38	8.31	-53.4	-62.3	3.8	7.45e-01	0	35	104	0	77	10537
2026-01-17 19:39:21.42	92.61	8.28	-53.4	-62.2	3.8	7.44e-01	0	36	104	0	77	10467
2026-01-17 19:39:22.43	92.85	8.25	-53.4	-62.2	3.8	7.44e-01	0	35	104	0	77	10490
2026-01-17 19:39:23.44	93.08	8.22	-53.4	-62.2	3.8	7.44e-01	0	35	104	0	77	10470
2026-01-17 19:39:24.44	93.31	8.19	-53.4	-62.3	3.8	7.45e-01	0	36	104	0	77	10553
2026-01-17 19:39:25.45	93.54	8.16	-53.4	-62.2	3.8	7.46e-01	0	35	104	0	77	10488
2026-01-17 19:39:26.46	93.78	8.13	-53.3	-62.2	3.8	7.44e-01	0	35	104	0	77	10441
2026-01-17 19:39:27.47	94.01	8.10	-53.4	-62.2	3.8	7.46e-01	0	35	104	0	77	10449
2026-01-17 19:39:28.48	94.24	8.07	-53.4	-62.2	3.8	7.45e-01	0	35	104	0	77	10513
2026-01-17 19:39:29.49	94.47	8.03	-53.4	-62.2	3.8	7.43e-01	0	35	104	0	77	10431
2026-01-17 19:39:30.50	94.70	8.00	-53.3	-62.2	3.8	7.46e-01	0	35	104	0	77	10422
2026-01-17 19:39:31.50	94.92	7.97	-53.4	-62.2	3.8	7.47e-01	0	36	104	0	77	10449
2026-01-17 19:39:32.51	95.15	7.94	-53.4	-62.2	3.8	7.44e-01	0	35	104	0	77	10477
2026-01-17 19:39:33.52	95.38	7.90	-53.4	-62.2	3.8	7.45e-01	0	35	104	0	77	10444
2026-01-17 19:39:34.53	95.60	7.87	-53.3	-62.2	3.8	7.45e-01	0	35	104	0	77	10413
2026-01-17 19:39:35.54	95.83	7.84	-53.4	-62.2	3.8	7.45e-01	0	35	104	0	77	10472
2026-01-17 19:39:36.54	96.05	7.80	-53.4	-62.2	3.8	7.44e-01	0	36	104	0	77	10469
2026-01-17 19:39:37.55	96.28	7.77	-53.4	-62.2	3.8	7.44e-01	0	35	104	0	77	10426
2026-01-17 19:39:38.56	96.50	7.74	-53.3	-62.1	3.8	7.45e-01	0	36	104	0	77	10403
2026-01-17 19:39:39.57	96.72	7.70	-53.4	-62.2	3.8	7.46e-01	0	36	104	0	77	10462
2026-01-17 19:39:40.58	96.95	7.67	-53.4	-62.2	3.8	7.45e-01	0	36	104	0	77	10499
2026-01-17 19:39:41.58	97.17	7.63	-53.4	-62.2	3.8	7.45e-01	0	35	104	0	77	10445
2026-01-17 19:39:42.59	97.39	7.60	-53.3	-62.1	3.8	7.45e-01	0	35	104	0	77	10386
2026-01-17 19:39:43.60	97.61	7.56	-53.4	-62.2	3.8	7.45e-01	0	35	104	0	77	10439
2026-01-17 19:39:44.61	97.83	7.52	-53.4	-62.2	3.8	7.46e-01	0	36	104	0	77	10471
2026-01-17 19:39:45.62	98.05	7.49	-53.4	-62.2	3.8	7.45e-01	0	35	104	0	77	10448
2026-01-17 19:39:46.62	98.26	7.45	-53.3	-62.1	3.8	7.45e-01	0	35	104	0	77	10343
2026-01-17 19:39:47.63	98.48	7.42	-53.4	-62.2	3.8	7.46e-01	0	36	104	0	77	10477
2026-01-17 19:39:48.64	98.70	7.38	-53.4	-62.2	3.8	7.45e-01	0	35	104	0	77	10451
2026-01-17 19:39:49.65	98.92	7.34	-53.3	-62.2	3.8	7.47e-01	0	35	104	0	77	10440
2026-01-17 19:39:50.66	99.13	7.31	-53.3	-62.1	3.8	7.46e-01	0	36	104	0	77	10348
2026-01-17 19:39:51.67	99.35	7.27	-53.4	-62.2	3.8	7.46e-01	0	36	104	0	77	10493
2026-01-17 19:39:52.68	99.56	7.23	-53.3	-62.2	3.8	7.44e-01	0	35	104	0	77	10438
2026-01-17 19:39:53.68	99.78	7.19	-53.3	-62.2	3.8	7.45e-01	0	35	104	0	77	10426
2026-01-17 19:39:54.69	99.99	7.15	-53.3	-62.1	3.8	7.45e-01	0	36	104	0	77	10336
2026-01-17 19:39:55.70	100.20	7.12	-53.4	-62.2	3.8	7.44e-01	0	35	104	0	77	10495
2026-01-17 19:39:56.71	100.41	7.08	-53.3	-62.2	3.8	7.45e-01	0	36	104	0	77	10458
2026-01-17 19:39:57.72	100.63	7.04	-53.3	-62.1	3.8	7.44e-01	0	35	104	0	77	10410
2026-01-17 19:39:58.72	100.83	7.00	-53.2	-62.1	3.8	7.46e-01	0	35	104	0	77	10335
2026-01-17 19:39:59.73	101.04	6.96	-53.4	-62.2	3.8	7.46e-01	0	35	104	0	77	10478
2026-01-17 19:40:00.74	101.25	6.92	-53.3	-62.2	3.8	7.46e-01	0	35	104	0	77	10415
2026-01-17 19:40:01.75	101.46	6.88	-53.3	-62.1	3.8	7.47e-01	0	36	104	0	77	10399
2026-01-17 19:40:02.76	101.67	6.84	-53.2	-62.1	3.8	7.45e-01	0	35	104	0	77	10305
2026-01-17 19:40:03.76	101.88	6.80	-53.4	-62.2	3.8	7.45e-01	0	36	104	0	77	10464
2026-01-17 19:40:04.77	102.08	6.76	-53.3	-62.2	3.8	7.46e-01	0	36	104	0	77	10434
2026-01-17 19:40:05.78	102.29	6.72	-53.3	-62.2	3.8	7.45e-01	0	36	104	0	77	10438
2026-01-17 19:40:06.79	102.49	6.68	-53.2	-62.0	3.8	7.45e-01	0	36	104	0	77	10257
2026-01-17 19:40:07.79	102.70	6.64	-53.4	-62.2	3.8	7.44e-01	0	35	104	0	77	10515
2026-01-17 19:40:08.80	102.90	6.60	-53.3	-62.1	3.8	7.46e-01	0	35	104	0	77	10396
2026-01-17 19:40:09.81	103.10	6.56	-53.3	-62.1	3.8	7.46e-01	0	36	104	0	77	10412
2026-01-17 19:40:10.82	103.31	6.52	-53.2	-62.0	3.8	7.45e-01	0	36	104	0	77	10212
2026-01-17 19:40:11.82	103.50	6.48	-53.4	-62.2	3.8	7.43e-01	0	36	104	0	77	10500
2026-01-17 19:40:12.83	103.71	6.44	-53.3	-62.1	3.8	7.46e-01	0	36	104	0	77	10340
2026-01-17 19:40:13.84	103.91	6.40	-53.3	-62.1	3.8	7.45e-01	0	35	104	0	77	10381
2026-01-17 19:40:14.85	104.11	6.35	-53.1	-62.0	3.8	7.46e-01	0	36	104	0	77	10194
2026-01-17 19:40:15.86	104.30	6.31	-53.4	-62.2	3.8	7.48e-01	0	36	104	0	77	10457
2026-01-17 19:40:16.86	104.50	6.27	-53.2	-62.1	3.8	7.45e-01	0	35	104	0	77	10321
2026-01-17 19:40:17.87	104.70	6.23	-53.3	-62.1	3.8	7.46e-01	0	36	104	0	77	10339
2026-01-17 19:40:18.88	104.90	6.19	-53.1	-61.9	3.8	7.46e-01	0	36	104	0	77	10167
2026-01-17 19:40:19.89	105.09	6.14	-53.3	-62.2	3.8	7.45e-01	0	35	104	0	77	10457
2026-01-17 19:40:20.90	105.29	6.10	-53.2	-62.0	3.8	7.45e-01	0	35	104	0	77	10280
2026-01-17 19:40:21.91	105.48	6.06	-53.3	-62.1	3.8	7.47e-01	0	36	104	0	77	10329
2026-01-17 19:40:22.92	105.68	6.02	-53.1	-61.9	3.8	7.46e-01	0	36	104	0	77	10142
2026-01-17 19:40:23.92	105.87	5.97	-53.3	-62.1	3.8	7.44e-01	0	36	104	0	77	10405
2026-01-17 19:40:24.93	106.06	5.93	-53.2	-62.0	3.8	7.46e-01	0	36	104	0	77	10268
2026-01-17 19:40:25.94	106.25	5.89	-53.2	-62.1	3.8	7.45e-01	0	36	104	0	77	10364
2026-01-17 19:40:26.94	106.44	5.84	-53.1	-61.9	3.8	7.45e-01	0	35	104	0	77	10099
2026-01-17 19:40:27.95	106.63	5.80	-53.3	-62.1	3.8	7.44e-01	0	36	104	0	77	10374
2026-01-17 19:40:28.96	106.82	5.76	-53.1	-62.0	3.8	7.45e-01	0	36	104	0	77	10225
2026-01-17 19:40:29.97	107.01	5.71	-53.2	-62.0	3.8	7.46e-01	0	36	104	0	77	10263
2026-01-17 19:40:30.97	107.20	5.67	-53.0	-61.8	3.8	7.44e-01	0	36	104	0	77	10044
2026-01-17 19:40:31.98	107.38	5.62	-53.3	-62.1	3.8	7.45e-01	0	35	104	0	77	10375
2026-01-17 19:40:32.99	107.57	5.58	-53.1	-62.0	3.8	7.44e-01	0	36	104	0	77	10194
2026-01-17 19:40:34.00	107.76	5.54	-53.2	-62.1	3.8	7.45e-01	0	36	104	0	77	10295
2026-01-17 19:40:35.01	107.94	5.49	-53.0	-61.8	3.8	7.43e-01	0	35	104	0	77	10055
2026-01-17 19:40:36.02	108.13	5.45	-53.3	-62.1	3.8	7.46e-01	0	36	104	0	77	10355
2026-01-17 19:40:37.02	108.31	5.40	-53.1	-62.0	3.8	7.44e-01	0	36	104	0	77	10182
2026-01-17 19:40:38.03	108.50	5.36	-53.2	-62.0	3.8	7.44e-01	0	36	104	0	77	10228
2026-01-17 19:40:39.04	108.68	5.31	-53.0	-61.8	3.8	7.46e-01	0	36	104	0	77	10048
2026-01-17 19:40:40.05	108.86	5.27	-53.3	-62.1	3.8	7.45e-01	0	36	104	0	77	10371
2026-01-17 19:40:41.06	109.04	5.22	-53.1	-62.0	3.8	7.45e-01	0	35	104	0	77	10188
2026-01-17 19:40:42.06	109.22	5.18	-53.2	-62.0	3.8	7.46e-01	0	36	104	0	77	10211
2026-01-17 19:40:43.07	109.40	5.13	-53.0	-61.8	3.8	7.46e-01	0	36	104	0	77	10040
2026-01-17 19:40:44.08	109.58	5.09	-53.3	-62.1	3.8	7.45e-01	0	36	104	0	77	10350
2026-01-17 19:40:45.09	109.76	5.04	-53.1	-61.9	3.8	7.46e-01	0	36	104	0	77	10172
2026-01-17 19:40:46.10	109.94	5.00	-53.2	-62.0	3.8	7.44e-01	0	35	104	0	77	10259
2026-01-17 19:40:47.10	110.11	4.95	-53.4	-62.2	3.8	7.46e-01	0	36	104	0	77	10506
2026-01-17 19:40:48.11	110.29	4.91	-53.7	-62.6	3.8	7.45e-01	0	36	104	0	77	10923
2026-01-17 19:40:49.12	110.47	4.86	-53.9	-62.8	3.8	7.44e-01	0	36	104	0	78	10537
2026-01-17 19:40:50.13	110.64	4.81	-54.1	-62.9	3.8	7.45e-01	0	35	104	0	78	10730
2026-01-17 19:40:51.14	110.82	4.77	-54.2	-63.0	3.8	7.46e-01	0	35	104	0	78	10867
2026-01-17 19:40:52.14	110.99	4.72	-54.3	-63.1	3.8	7.45e-01	0	36	104	0	79	10394
2026-01-17 19:40:53.15	111.16	4.68	-54.4	-63.2	3.8	7.45e-01	0	36	104	0	79	10457
2026-01-17 19:40:54.16	111.33	4.63	-54.4	-63.3	3.8	7.46e-01	0	35	104	0	79	10549
2026-01-17 19:40:55.17	111.51	4.58	-54.5	-63.3	3.8	7.44e-01	0	35	104	0	79	10604
2026-01-17 19:40:56.18	111.68	4.54	-54.5	-63.4	3.8	7.45e-01	0	36	104	0	79	10662
2026-01-17 19:40:57.19	111.85	4.49	-54.5	-63.4	3.8	7.45e-01	0	36	104	0	79	10690
2026-01-17 19:40:58.19	112.02	4.45	-54.6	-63.4	3.8	7.46e-01	0	35	104	0	79	10719
2026-01-17 19:40:59.20	112.19	4.40	-54.6	-63.4	3.8	7.46e-01	0	35	104	0	79	10740
2026-01-17 19:41:00.21	112.35	4.35	-54.6	-63.5	3.8	7.46e-01	0	35	104	0	79	10791
2026-01-17 19:41:01.22	112.52	4.31	-54.6	-63.4	3.8	7.45e-01	0	35	104	0	79	10775
2026-01-17 19:41:02.22	112.69	4.26	-54.7	-63.5	3.8	7.47e-01	0	35	104	0	79	10844
2026-01-17 19:41:03.23	112.85	4.21	-54.7	-63.5	3.8	7.44e-01	0	36	104	0	79	10893
2026-01-17 19:41:04.24	113.02	4.17	-54.7	-63.6	3.8	7.46e-01	0	36	104	0	79	10910
2026-01-17 19:41:05.25	113.19	4.12	-54.6	-63.5	3.8	7.46e-01	0	36	104	0	80	10244
2026-01-17 19:41:06.26	113.35	4.07	-54.7	-63.5	3.8	7.46e-01	0	36	104	0	80	10289
2026-01-17 19:41:07.26	113.51	4.03	-54.7	-63.6	3.8	7.46e-01	0	36	104	0	80	10304
2026-01-17 19:41:08.27	113.68	3.98	-54.7	-63.6	3.8	7.45e-01	0	36	104	0	80	10349
2026-01-17 19:41:09.28	113.84	3.93	-54.7	-63.6	3.8	7.47e-01	0	36	104	0	80	10343
2026-01-17 19:41:10.29	114.00	3.88	-54.7	-63.6	3.8	7.45e-01	0	36	104	0	80	10336
2026-01-17 19:41:11.30	114.16	3.84	-54.8	-63.6	3.8	7.45e-01	0	36	104	0	80	10343
2026-01-17 19:41:12.30	114.32	3.79	-54.8	-63.6	3.8	7.45e-01	0	35	104	0	80	10355
2026-01-17 19:41:13.31	114.48	3.74	-54.8	-63.6	3.8	7.45e-01	0	35	104	0	80	10400
2026-01-17 19:41:14.32	114.64	3.70	-54.8	-63.7	3.8	7.44e-01	0	36	104	0	80	10426
2026-01-17 19:41:15.33	114.80	3.65	-54.8	-63.7	3.8	7.45e-01	0	36	104	0	80	10449
2026-01-17 19:41:16.33	114.96	3.60	-54.8	-63.7	3.8	7.44e-01	0	35	104	0	80	10452
2026-01-17 19:41:17.34	115.12	3.55	-54.8	-63.7	3.8	7.46e-01	0	36	104	0	80	10443
2026-01-17 19:41:18.35	115.27	3.51	-54.8	-63.6	3.8	7.44e-01	0	36	104	0	80	10404
2026-01-17 19:41:19.36	115.43	3.46	-54.8	-63.6	3.8	7.46e-01	0	36	104	0	80	10411
2026-01-17 19:41:20.36	115.58	3.41	-54.8	-63.6	3.8	7.45e-01	0	36	104	0	80	10385
2026-01-17 19:41:21.37	115.74	3.36	-54.8	-63.6	3.8	7.46e-01	0	36	104	0	80	10407
2026-01-17 19:41:22.38	115.89	3.32	-54.8	-63.7	3.8	7.44e-01	0	36	104	0	80	10436
2026-01-17 19:41:23.39	116.05	3.27	-54.8	-63.6	3.8	7.45e-01	0	36	104	0	80	10375
2026-01-17 19:41:24.40	116.20	3.22	-54.8	-63.7	3.8	7.45e-01	0	36	104	0	80	10430
2026-01-17 19:41:25.40	116.35	3.17	-54.8	-63.6	3.8	7.46e-01	0	36	104	0	80	10365
2026-01-17 19:41:26.41	116.50	3.13	-54.8	-63.6	3.8	7.45e-01	0	36	104	0	80	10376
2026-01-17 19:41:27.42	116.65	3.08	-54.8	-63.6	3.8	7.46e-01	0	36	104	0	80	10375
2026-01-17 19:41:28.43	116.81	3.03	-54.8	-63.6	3.8	7.46e-01	0	36	104	0	80	10362
2026-01-17 19:41:29.44	116.96	2.98	-54.8	-63.6	3.8	7.47e-01	0	36	104	0	80	10385
2026-01-17 19:41:30.44	117.10	2.93	-54.8	-63.6	3.8	7.44e-01	0	36	104	0	80	10377
2026-01-17 19:41:31.45	117.25	2.89	-54.8	-63.6	3.8	7.46e-01	0	35	104	0	80	10355
2026-01-17 19:41:32.46	117.40	2.84	-54.8	-63.6	3.8	7.47e-01	0	35	104	0	80	10382
2026-01-17 19:41:33.47	117.55	2.79	-54.8	-63.6	3.8	7.44e-01	0	36	104	0	80	10391
2026-01-17 19:41:34.48	117.70	2.74	-54.8	-63.6	3.8	7.44e-01	0	35	104	0	80	10379
2026-01-17 19:41:35.48	117.84	2.70	-54.8	-63.6	3.8	7.44e-01	0	35	104	0	80	10382
2026-01-17 19:41:36.49	117.99	2.65	-54.8	-63.6	3.8	7.46e-01	0	36	104	0	80	10358
2026-01-17 19:41:37.50	118.13	2.60	-54.7	-63.6	3.8	7.45e-01	0	36	104	0	80	10375
2026-01-17 19:41:38.50	118.28	2.55	-54.8	-63.6	3.8	7.47e-01	0	36	104	0	80	10363
2026-01-17 19:41:39.51	118.42	2.50	-54.8	-63.6	3.8	7.44e-01	0	36	104	0	80	10404
2026-01-17 19:41:40.52	118.56	2.46	-54.7	-63.6	3.8	7.46e-01	0	36	104	0	80	10377
2026-01-17 19:41:41.53	118.71	2.41	-54.7	-63.6	3.8	7.47e-01	0	36	104	0	80	10348
2026-01-17 19:41:42.54	118.85	2.36	-54.8	-63.6	3.8	7.43e-01	0	36	104	0	80	10358
2026-01-17 19:41:43.54	118.99	2.31	-54.8	-63.6	3.8	7.44e-01	0	36	104	0	80	10357
2026-01-17 19:41:44.55	119.13	2.26	-54.7	-63.6	3.8	7.45e-01	0	36	104	0	80	10377
2026-01-17 19:41:45.56	119.27	2.22	-54.7	-63.6	3.8	7.43e-01	0	36	104	0	80	10335
2026-01-17 19:41:46.57	119.41	2.17	-54.7	-63.6	3.8	7.45e-01	0	36	104	0	80	10343
2026-01-17 19:41:47.57	119.55	2.12	-54.7	-63.6	3.8	7.45e-01	0	36	104	0	80	10299
2026-01-17 19:41:48.58	119.69	2.07	-54.7	-63.6	3.8	7.48e-01	0	35	104	0	80	10325
2026-01-17 19:41:49.59	119.83	2.02	-54.7	-63.6	3.8	7.44e-01	0	36	104	0	80	10335

#Closed at: 2026-01-17 19:41:50
#Recorded file [0 MB]: D:/lorett/data/31041_260117_223418.dat