passes_logs/2026/01/17/R3.2S_Murmansk/R3.2S_Murmansk__20260117_123516_NOAA_20_JPSS-1_rec.log

#Pass ID: 20260117_123516_NOAA 20 (JPSS-1)
#Satellite: NOAA 20 (JPSS-1)
#Configuration: NOAA 20
#almurnet v.1.7.20251203
#Start time: 2026-01-17 12:35:16

#Version: 2.2.20231116
#Station: R3.2S_Murmansk
#Location: 33.079688 lon 68.888172 lat
#TLE: 1 43013U 17073A   26016.52825843  .00000039  00000+0  39346-4 0  9991
#TLE: 2 43013  98.7637 317.4515 0001446  37.2648 322.8628 14.19536276422951

#Time	Az	El	Level	Level2	SNR	BER	BlckErr	Temp	State	Recorded	gain1	gain2
2026-01-17 12:35:16.52	230.75	2.01	-52.3	-67.2	3.8	1.49e+00	0	33	0	0	76	19827
2026-01-17 12:35:17.53	230.83	2.06	-52.3	-67.3	3.8	1.49e+00	0	32	104	0	75	21162
2026-01-17 12:35:18.54	230.92	2.11	-52.3	-67.3	3.8	1.49e+00	0	32	104	0	75	21125
2026-01-17 12:35:19.55	231.01	2.16	-52.3	-67.3	3.8	1.49e+00	0	32	104	0	75	21064
2026-01-17 12:35:20.55	231.10	2.21	-52.3	-67.3	3.8	1.49e+00	0	32	104	0	75	21108
2026-01-17 12:35:21.56	231.19	2.26	-52.3	-67.2	3.8	1.49e+00	0	33	104	0	75	21003
2026-01-17 12:35:22.57	231.29	2.31	-52.3	-67.3	3.8	1.49e+00	0	32	104	0	75	21041
2026-01-17 12:35:23.58	231.38	2.36	-52.3	-67.2	3.8	1.49e+00	0	33	104	0	75	20981
2026-01-17 12:35:24.58	231.47	2.41	-52.3	-67.2	3.8	1.49e+00	0	33	104	0	75	20892
2026-01-17 12:35:25.59	231.56	2.46	-52.3	-67.2	3.8	1.49e+00	0	33	104	0	75	20914
2026-01-17 12:35:26.60	231.65	2.51	-52.2	-67.2	3.8	1.49e+00	0	33	104	0	75	20896
2026-01-17 12:35:27.61	231.74	2.56	-52.3	-67.2	3.8	1.49e+00	0	33	104	0	75	20868
2026-01-17 12:35:28.62	231.84	2.61	-52.3	-67.2	3.8	1.49e+00	0	33	104	0	75	20952
2026-01-17 12:35:29.63	231.93	2.66	-52.3	-67.2	3.8	1.49e+00	0	33	104	0	75	20894
2026-01-17 12:35:30.63	232.02	2.71	-52.3	-67.2	3.8	1.49e+00	0	33	104	0	75	20912
2026-01-17 12:35:31.64	232.11	2.76	-52.2	-67.2	3.8	1.49e+00	0	33	104	0	75	20863
2026-01-17 12:35:32.65	232.21	2.81	-52.3	-67.2	3.8	1.49e+00	0	33	104	0	75	20810
2026-01-17 12:35:33.66	232.30	2.86	-52.3	-67.2	3.8	1.49e+00	0	33	104	0	75	20892
2026-01-17 12:35:34.66	232.40	2.91	-52.3	-67.2	3.8	1.49e+00	0	33	104	0	75	20897
2026-01-17 12:35:35.67	232.49	2.96	-52.3	-67.2	3.8	1.49e+00	0	33	104	0	75	20928
2026-01-17 12:35:36.68	232.59	3.01	-52.3	-67.3	3.8	1.49e+00	0	33	104	0	75	21036
2026-01-17 12:35:37.69	232.68	3.06	-52.3	-67.2	3.8	1.49e+00	0	33	104	0	75	20963
2026-01-17 12:35:38.70	232.78	3.11	-52.3	-67.2	3.8	1.49e+00	0	33	104	0	75	20960
2026-01-17 12:35:39.71	232.87	3.16	-52.3	-67.2	3.8	1.49e+00	0	33	104	0	75	20940
2026-01-17 12:35:40.72	232.97	3.21	-52.3	-67.2	3.8	1.49e+00	0	33	104	0	75	20915
2026-01-17 12:35:41.72	233.07	3.26	-52.2	-67.2	3.8	1.49e+00	0	33	104	0	75	20855
2026-01-17 12:35:42.73	233.16	3.31	-52.2	-67.2	3.8	1.49e+00	0	33	104	0	75	20858
2026-01-17 12:35:43.74	233.26	3.36	-52.3	-67.2	3.8	1.49e+00	0	33	104	0	75	20898
2026-01-17 12:35:44.75	233.36	3.41	-52.2	-67.2	3.8	1.49e+00	0	33	104	0	75	21013
2026-01-17 12:35:45.76	233.45	3.46	-52.2	-67.2	3.8	1.49e+00	0	33	104	0	75	21012
2026-01-17 12:35:46.77	233.55	3.51	-52.2	-67.2	3.8	1.49e+00	0	33	104	0	75	20934
2026-01-17 12:35:47.78	233.65	3.56	-52.3	-67.2	3.8	1.49e+00	0	33	104	0	75	20964
2026-01-17 12:35:48.78	233.75	3.61	-52.3	-67.2	3.8	1.49e+00	0	34	104	0	75	20946
2026-01-17 12:35:49.80	233.85	3.67	-52.2	-67.2	3.8	1.49e+00	0	33	104	0	75	20874
2026-01-17 12:35:50.81	233.95	3.72	-52.2	-67.2	3.8	1.49e+00	0	34	104	0	75	20913
2026-01-17 12:35:51.81	234.05	3.77	-52.3	-67.2	3.8	1.49e+00	0	33	104	0	75	20805
2026-01-17 12:35:52.82	234.15	3.82	-52.2	-67.1	3.8	1.49e+00	0	33	104	0	75	20754
2026-01-17 12:35:53.83	234.25	3.87	-52.2	-67.1	3.8	1.49e+00	0	33	104	0	75	20650
2026-01-17 12:35:54.84	234.35	3.92	-52.2	-67.1	3.8	1.49e+00	0	33	104	0	75	20705
2026-01-17 12:35:55.84	234.45	3.97	-52.3	-67.1	3.8	1.49e+00	0	34	104	0	75	20752
2026-01-17 12:35:56.85	234.55	4.02	-52.2	-67.2	3.8	1.49e+00	0	33	104	0	75	20812
2026-01-17 12:35:57.86	234.65	4.07	-52.2	-67.1	3.8	1.49e+00	0	33	104	0	75	20712
2026-01-17 12:35:58.87	234.76	4.12	-52.2	-67.0	3.8	1.49e+00	0	33	104	0	75	20517
2026-01-17 12:35:59.88	234.86	4.17	-52.2	-67.0	3.8	1.49e+00	0	33	104	0	75	20482
2026-01-17 12:36:00.88	234.96	4.22	-52.2	-67.1	3.8	1.49e+00	0	34	104	0	75	20628
2026-01-17 12:36:01.89	235.06	4.27	-52.2	-67.2	3.8	1.49e+00	0	34	104	0	75	20841
2026-01-17 12:36:02.90	235.17	4.32	-52.2	-67.2	3.8	1.49e+00	0	33	104	0	75	20994
2026-01-17 12:36:03.91	235.27	4.37	-52.2	-66.9	3.8	1.49e+00	0	34	104	0	75	20295
2026-01-17 12:36:04.92	235.37	4.43	-52.2	-65.9	3.8	1.49e+00	0	34	104	0	75	18056
2026-01-17 12:36:05.93	235.48	4.48	-52.1	-64.5	4.0	1.49e+00	0	34	104	0	75	15243
2026-01-17 12:36:06.94	235.58	4.53	-52.0	-63.4	4.3	1.40e+00	0	34	0	0	75	13501
2026-01-17 12:36:07.95	235.69	4.58	-51.9	-62.0	4.8	9.46e-01	0	34	0	1048576	75	11519
2026-01-17 12:36:08.96	235.79	4.63	-51.8	-61.3	5.2	7.16e-01	0	34	0	3145728	75	10645
2026-01-17 12:36:09.96	235.90	4.68	-51.6	-60.0	6.2	4.62e-01	0	34	0	5242880	75	9073
2026-01-17 12:36:10.97	236.01	4.73	-51.4	-58.6	7.4	1.72e-01	0	34	0	6291456	74	8177
2026-01-17 12:36:11.98	236.11	4.78	-51.0	-56.8	9.1	4.27e-02	0	34	0	8388608	74	6713
2026-01-17 12:36:12.99	236.22	4.83	-50.3	-55.0	11.0	7.57e-03	0	34	0	10485760	72	6066
2026-01-17 12:36:14.00	236.33	4.88	-49.8	-53.7	12.5	2.32e-04	0	34	0	12582912	71	5547
2026-01-17 12:36:15.00	236.43	4.93	-49.4	-52.8	13.4	2.44e-05	0	34	0	14680064	70	5289
2026-01-17 12:36:16.01	236.54	4.99	-48.7	-51.6	14.6	3.00e-06	0	34	0	15728640	69	4907
2026-01-17 12:36:17.02	236.65	5.04	-48.7	-51.5	14.7	0.00e+00	0	34	0	17825792	69	4854
2026-01-17 12:36:18.03	236.76	5.09	-49.1	-52.2	14.1	0.00e+00	0	33	0	19922944	69	5245
2026-01-17 12:36:19.04	236.87	5.14	-50.2	-54.8	11.3	1.14e-05	0	33	0	22020096	71	6306
2026-01-17 12:36:20.04	236.98	5.19	-51.4	-58.1	8.1	1.76e-02	0	34	0	24117248	73	8261
2026-01-17 12:36:21.05	237.09	5.24	-50.0	-54.0	12.3	1.47e-04	0	34	0	25165824	71	5727
2026-01-17 12:36:22.06	237.20	5.29	-49.7	-53.4	12.9	0.00e+00	0	34	0	27262976	69	6045
2026-01-17 12:36:23.07	237.31	5.34	-48.4	-51.0	15.3	3.80e-06	0	34	0	29360128	68	4848
2026-01-17 12:36:24.08	237.42	5.39	-48.3	-51.0	15.3	0.00e+00	0	34	0	31457280	68	4821
2026-01-17 12:36:25.08	237.53	5.45	-48.1	-50.6	15.7	0.00e+00	0	34	0	33554432	68	4633
2026-01-17 12:36:26.09	237.64	5.50	-48.3	-50.8	15.5	0.00e+00	0	34	0	34603008	68	4743
2026-01-17 12:36:27.10	237.75	5.55	-48.1	-50.5	15.8	0.00e+00	0	34	0	36700160	68	4592
2026-01-17 12:36:28.11	237.87	5.60	-48.0	-50.4	15.9	0.00e+00	0	34	0	38797312	68	4526
2026-01-17 12:36:29.12	237.98	5.65	-48.1	-50.5	15.8	0.00e+00	0	34	0	40894464	68	4583
2026-01-17 12:36:30.13	238.09	5.70	-48.0	-50.4	16.0	0.00e+00	0	34	0	42991616	68	4510
2026-01-17 12:36:31.14	238.21	5.75	-48.0	-50.4	15.9	0.00e+00	0	34	0	45088768	68	4542
2026-01-17 12:36:32.15	238.32	5.80	-47.9	-50.2	16.0	0.00e+00	0	34	0	46137344	67	4704
2026-01-17 12:36:33.15	238.43	5.86	-47.7	-50.0	16.3	0.00e+00	0	34	0	48234496	67	4548
2026-01-17 12:36:34.16	238.55	5.91	-47.9	-50.3	15.9	0.00e+00	0	34	0	50331648	67	4753
2026-01-17 12:36:35.17	238.66	5.96	-47.8	-50.1	16.1	0.00e+00	0	34	0	52428800	67	4636
2026-01-17 12:36:36.18	238.78	6.01	-47.8	-50.0	16.2	0.00e+00	0	34	0	53477376	67	4597
2026-01-17 12:36:37.19	238.89	6.06	-47.9	-50.3	16.0	0.00e+00	0	34	0	55574528	67	4751
2026-01-17 12:36:38.20	239.01	6.11	-47.8	-50.1	16.2	0.00e+00	0	34	0	57671680	67	4640
2026-01-17 12:36:39.21	239.13	6.16	-47.8	-50.1	16.3	0.00e+00	0	34	0	59768832	67	4606
2026-01-17 12:36:40.22	239.25	6.21	-47.8	-50.1	16.2	0.00e+00	0	34	0	61865984	67	4618
2026-01-17 12:36:41.22	239.36	6.27	-47.8	-50.1	16.2	0.00e+00	0	34	0	63963136	67	4627
2026-01-17 12:36:42.23	239.48	6.32	-47.7	-50.0	16.4	0.00e+00	0	34	0	65011712	67	4552
2026-01-17 12:36:43.24	239.60	6.37	-47.7	-50.0	16.4	0.00e+00	0	34	0	67108864	67	4555
2026-01-17 12:36:44.25	239.72	6.42	-47.7	-50.0	16.4	0.00e+00	0	34	0	69206016	67	4558
2026-01-17 12:36:45.26	239.84	6.47	-47.7	-49.9	16.5	0.00e+00	0	34	0	71303168	67	4506
2026-01-17 12:36:46.27	239.96	6.52	-47.6	-49.7	16.6	0.00e+00	0	34	0	73400320	67	4430
2026-01-17 12:36:47.28	240.08	6.57	-47.6	-49.8	16.6	0.00e+00	0	34	0	74448896	67	4447
2026-01-17 12:36:48.28	240.19	6.62	-47.6	-49.8	16.6	0.00e+00	0	34	0	76546048	67	4453
2026-01-17 12:36:49.29	240.32	6.68	-47.8	-50.1	16.3	0.00e+00	0	34	0	78643200	67	4617
2026-01-17 12:36:50.30	240.44	6.73	-47.8	-50.1	16.3	0.00e+00	0	34	0	80740352	67	4631
2026-01-17 12:36:51.31	240.56	6.78	-47.8	-50.0	16.4	0.00e+00	0	34	0	81788928	67	4583
2026-01-17 12:36:52.32	240.68	6.83	-47.6	-49.8	16.6	0.00e+00	0	34	0	83886080	67	4489
2026-01-17 12:36:53.33	240.80	6.88	-47.8	-50.1	16.4	0.00e+00	0	34	0	85983232	67	4612
2026-01-17 12:36:54.34	240.93	6.93	-47.7	-50.0	16.5	0.00e+00	0	34	0	88080384	67	4546
2026-01-17 12:36:55.35	241.05	6.98	-47.8	-50.0	16.4	0.00e+00	0	34	0	90177536	67	4597
2026-01-17 12:36:56.36	241.17	7.03	-47.7	-50.0	16.5	0.00e+00	0	34	0	92274688	67	4562
2026-01-17 12:36:57.36	241.30	7.09	-47.6	-49.8	16.6	0.00e+00	0	34	0	93323264	67	4465
2026-01-17 12:36:58.37	241.42	7.14	-47.6	-49.8	16.6	0.00e+00	0	34	0	95420416	67	4475
2026-01-17 12:36:59.38	241.54	7.19	-47.4	-49.5	16.9	0.00e+00	0	34	0	97517568	66	4581
2026-01-17 12:37:00.39	241.67	7.24	-47.6	-49.7	16.8	0.00e+00	0	34	0	99614720	66	4676
2026-01-17 12:37:01.40	241.80	7.29	-47.5	-49.6	16.9	0.00e+00	0	34	0	101711872	66	4612
2026-01-17 12:37:02.41	241.92	7.34	-47.4	-49.5	17.0	0.00e+00	0	34	0	102760448	66	4553
2026-01-17 12:37:03.42	242.05	7.39	-47.5	-49.6	16.9	0.00e+00	0	34	0	104857600	66	4623
2026-01-17 12:37:04.43	242.18	7.44	-47.4	-49.5	17.0	0.00e+00	0	34	0	106954752	66	4569
2026-01-17 12:37:05.43	242.30	7.49	-47.3	-49.3	17.1	0.00e+00	0	34	0	109051904	66	4482
2026-01-17 12:37:06.44	242.43	7.55	-47.2	-49.2	17.3	0.00e+00	0	34	0	111149056	66	4422
2026-01-17 12:37:07.45	242.56	7.60	-47.3	-49.3	17.2	0.00e+00	0	34	0	112197632	66	4453
2026-01-17 12:37:08.46	242.69	7.65	-47.3	-49.3	17.2	0.00e+00	0	34	0	114294784	66	4481
2026-01-17 12:37:09.47	242.82	7.70	-47.5	-49.5	17.0	0.00e+00	0	34	0	116391936	66	4588
2026-01-17 12:37:10.48	242.95	7.75	-47.3	-49.3	17.2	0.00e+00	0	34	0	118489088	66	4486
2026-01-17 12:37:11.49	243.08	7.80	-47.4	-49.5	17.0	0.00e+00	0	34	0	120586240	66	4567
2026-01-17 12:37:12.50	243.21	7.85	-47.7	-49.8	16.7	0.00e+00	0	34	0	121634816	66	4750
2026-01-17 12:37:13.50	243.34	7.90	-47.4	-49.5	17.1	0.00e+00	0	34	0	123731968	66	4565
2026-01-17 12:37:14.51	243.47	7.95	-47.3	-49.3	17.1	0.00e+00	0	34	0	125829120	66	4489
2026-01-17 12:37:15.52	243.60	8.00	-47.4	-49.5	17.0	0.00e+00	0	34	0	127926272	66	4564
2026-01-17 12:37:16.53	243.73	8.06	-47.4	-49.4	17.1	0.00e+00	0	34	0	130023424	66	4512
2026-01-17 12:37:17.54	243.86	8.11	-47.5	-49.5	17.0	0.00e+00	0	34	0	131072000	66	4595
2026-01-17 12:37:18.54	244.00	8.16	-47.4	-49.5	17.0	0.00e+00	0	34	0	133169152	66	4557
2026-01-17 12:37:19.55	244.13	8.21	-47.2	-49.1	17.4	0.00e+00	0	34	0	135266304	66	4369
2026-01-17 12:37:20.56	244.26	8.26	-47.4	-49.5	17.1	0.00e+00	0	34	0	137363456	66	4556
2026-01-17 12:37:21.57	244.40	8.31	-47.1	-49.0	17.6	0.00e+00	0	34	0	139460608	66	4313
2026-01-17 12:37:22.58	244.53	8.36	-47.2	-49.2	17.4	0.00e+00	0	34	0	140509184	66	4402
2026-01-17 12:37:23.59	244.67	8.41	-47.6	-49.6	17.0	0.00e+00	0	34	0	142606336	66	4646
2026-01-17 12:37:24.59	244.80	8.46	-47.3	-49.3	17.3	0.00e+00	0	34	0	144703488	66	4459
2026-01-17 12:37:25.60	244.94	8.51	-47.6	-49.7	16.9	0.00e+00	0	34	0	146800640	66	4660
2026-01-17 12:37:26.61	245.08	8.56	-47.2	-49.1	17.4	0.00e+00	0	34	0	148897792	66	4390
2026-01-17 12:37:27.62	245.21	8.61	-47.6	-49.6	17.0	0.00e+00	0	34	0	150994944	66	4634
2026-01-17 12:37:28.63	245.35	8.66	-47.4	-49.3	17.3	0.00e+00	0	34	0	152043520	66	4488
2026-01-17 12:37:29.63	245.49	8.71	-47.4	-49.4	17.2	0.00e+00	0	34	0	154140672	66	4529
2026-01-17 12:37:30.64	245.63	8.76	-47.2	-49.1	17.5	0.00e+00	0	34	0	156237824	66	4361
2026-01-17 12:37:31.65	245.77	8.81	-47.3	-49.3	17.3	0.00e+00	0	34	0	158334976	66	4481
2026-01-17 12:37:32.66	245.91	8.87	-47.1	-49.1	17.6	0.00e+00	0	34	0	159383552	66	4343
2026-01-17 12:37:33.67	246.05	8.92	-47.3	-49.2	17.4	0.00e+00	0	34	0	161480704	66	4417
2026-01-17 12:37:34.67	246.18	8.97	-47.0	-48.8	17.8	0.00e+00	0	34	0	163577856	66	4238
2026-01-17 12:37:35.68	246.33	9.02	-47.1	-49.0	17.7	0.00e+00	0	34	0	165675008	66	4315
2026-01-17 12:37:36.69	246.47	9.07	-47.1	-49.0	17.6	0.00e+00	0	34	0	167772160	66	4331
2026-01-17 12:37:37.70	246.61	9.12	-47.1	-49.0	17.7	0.00e+00	0	34	0	168820736	66	4304
2026-01-17 12:37:38.70	246.75	9.17	-47.2	-49.1	17.6	0.00e+00	0	34	0	170917888	66	4359
2026-01-17 12:37:39.71	246.89	9.22	-47.0	-48.9	17.7	0.00e+00	0	34	0	173015040	66	4260
2026-01-17 12:37:40.72	247.04	9.27	-47.0	-48.8	17.8	0.00e+00	0	34	0	175112192	65	4473
2026-01-17 12:37:41.73	247.18	9.32	-46.8	-48.6	18.0	0.00e+00	0	34	0	177209344	65	4379
2026-01-17 12:37:42.74	247.32	9.37	-46.8	-48.6	18.0	0.00e+00	0	34	0	179306496	65	4373
2026-01-17 12:37:43.75	247.47	9.42	-46.8	-48.6	18.0	0.00e+00	0	34	0	180355072	65	4387
2026-01-17 12:37:44.75	247.61	9.46	-46.8	-48.5	18.2	0.00e+00	0	34	0	182452224	65	4323
2026-01-17 12:37:45.76	247.76	9.51	-46.8	-48.6	18.0	0.00e+00	0	34	0	184549376	65	4377
2026-01-17 12:37:46.77	247.90	9.56	-46.8	-48.6	18.1	0.00e+00	0	34	0	186646528	65	4344
2026-01-17 12:37:47.78	248.05	9.61	-46.7	-48.5	18.2	0.00e+00	0	34	0	187695104	65	4298
2026-01-17 12:37:48.78	248.20	9.66	-46.8	-48.5	18.1	0.00e+00	0	34	0	189792256	65	4333
2026-01-17 12:37:49.79	248.34	9.71	-46.5	-48.2	18.5	0.00e+00	0	34	0	191889408	65	4148
2026-01-17 12:37:50.80	248.49	9.76	-46.5	-48.2	18.5	0.00e+00	0	34	0	193986560	64	4412
2026-01-17 12:37:51.81	248.64	9.81	-46.6	-48.2	18.5	0.00e+00	0	34	0	196083712	64	4437
2026-01-17 12:37:52.82	248.79	9.86	-46.5	-48.2	18.5	0.00e+00	0	34	0	197132288	64	4417
2026-01-17 12:37:53.82	248.94	9.91	-46.4	-48.1	18.6	0.00e+00	0	34	0	199229440	64	4349
2026-01-17 12:37:54.83	249.09	9.96	-46.5	-48.2	18.5	0.00e+00	0	34	0	201326592	64	4396
2026-01-17 12:37:55.84	249.24	10.01	-46.4	-48.0	18.7	0.00e+00	0	34	0	203423744	64	4309
2026-01-17 12:37:56.85	249.39	10.06	-46.3	-47.9	18.8	0.00e+00	0	34	0	205520896	64	4263
2026-01-17 12:37:57.86	249.54	10.10	-46.3	-47.9	18.8	0.00e+00	0	34	0	207618048	64	4251
2026-01-17 12:37:58.86	249.69	10.15	-46.4	-48.0	18.7	0.00e+00	0	34	0	208666624	64	4326
2026-01-17 12:37:59.87	249.84	10.20	-46.2	-47.8	18.8	0.00e+00	0	34	0	210763776	64	4237
2026-01-17 12:38:00.88	249.99	10.25	-46.1	-47.7	19.0	0.00e+00	0	34	0	212860928	64	4169
2026-01-17 12:38:01.89	250.15	10.30	-46.1	-47.7	19.0	0.00e+00	0	34	0	214958080	64	4161
2026-01-17 12:38:02.89	250.30	10.35	-46.1	-47.7	19.0	0.00e+00	0	34	0	216006656	64	4154
2026-01-17 12:38:03.90	250.45	10.40	-46.2	-47.8	18.9	0.00e+00	0	34	0	218103808	64	4214
2026-01-17 12:38:04.91	250.61	10.44	-46.2	-47.7	19.0	0.00e+00	0	34	0	220200960	64	4178
2026-01-17 12:38:05.92	250.77	10.49	-46.1	-47.7	19.0	0.00e+00	0	34	0	222298112	64	4163
2026-01-17 12:38:06.92	250.92	10.54	-46.4	-48.0	18.7	0.00e+00	0	35	0	224395264	64	4322
2026-01-17 12:38:07.93	251.08	10.59	-46.3	-47.9	18.9	0.00e+00	0	34	0	226492416	64	4256
2026-01-17 12:38:08.94	251.23	10.64	-46.3	-47.9	18.9	0.00e+00	0	35	0	227540992	64	4260
2026-01-17 12:38:09.95	251.39	10.68	-46.5	-48.1	18.6	0.00e+00	0	34	0	229638144	64	4391
2026-01-17 12:38:10.96	251.55	10.73	-46.7	-48.4	18.4	0.00e+00	0	34	0	231735296	64	4522
2026-01-17 12:38:11.96	251.70	10.78	-46.5	-48.1	18.6	0.00e+00	0	34	0	233832448	64	4390
2026-01-17 12:38:12.97	251.86	10.83	-46.2	-47.8	19.0	0.00e+00	0	34	0	235929600	64	4212
2026-01-17 12:38:13.98	252.02	10.87	-46.1	-47.7	19.0	0.00e+00	0	34	0	236978176	64	4147
2026-01-17 12:38:14.99	252.18	10.92	-46.2	-47.8	19.1	0.00e+00	0	34	0	239075328	63	4454
2026-01-17 12:38:16.00	252.34	10.97	-46.5	-48.1	18.7	0.00e+00	0	34	0	241172480	63	4646
2026-01-17 12:38:17.00	252.50	11.01	-46.4	-48.0	18.8	0.00e+00	0	34	0	243269632	63	4574
2026-01-17 12:38:18.01	252.66	11.06	-46.3	-47.9	18.9	0.00e+00	0	34	0	244318208	63	4532
2026-01-17 12:38:19.02	252.82	11.11	-46.4	-48.1	18.8	0.00e+00	0	34	0	246415360	63	4600
2026-01-17 12:38:20.03	252.99	11.15	-46.4	-48.0	18.8	0.00e+00	0	34	0	248512512	63	4597
2026-01-17 12:38:21.04	253.15	11.20	-46.4	-47.9	18.9	0.00e+00	0	34	0	250609664	63	4544
2026-01-17 12:38:22.05	253.31	11.25	-46.5	-48.2	18.7	0.00e+00	0	34	0	252706816	63	4657
2026-01-17 12:38:23.06	253.48	11.29	-46.6	-48.2	18.5	0.00e+00	0	34	0	254803968	64	4440
2026-01-17 12:38:24.06	253.64	11.34	-46.3	-47.9	18.8	0.00e+00	0	34	0	255852544	64	4286
2026-01-17 12:38:25.07	253.80	11.39	-46.4	-48.0	18.8	0.00e+00	0	34	0	257949696	64	4323
2026-01-17 12:38:26.08	253.97	11.43	-46.3	-47.8	19.0	0.00e+00	0	34	0	260046848	64	4237
2026-01-17 12:38:27.09	254.13	11.48	-46.3	-47.8	18.9	0.00e+00	0	34	0	262144000	64	4239
2026-01-17 12:38:28.10	254.30	11.52	-46.3	-47.9	18.9	0.00e+00	0	34	0	264241152	64	4274
2026-01-17 12:38:29.10	254.47	11.57	-46.5	-48.1	18.7	0.00e+00	0	35	0	265289728	64	4371
2026-01-17 12:38:30.11	254.63	11.62	-46.4	-48.0	18.8	0.00e+00	0	34	0	267386880	64	4308
2026-01-17 12:38:31.12	254.80	11.66	-46.4	-48.0	18.8	0.00e+00	0	34	0	269484032	64	4332
2026-01-17 12:38:32.13	254.97	11.71	-46.4	-48.0	18.8	0.00e+00	0	34	0	271581184	64	4320
2026-01-17 12:38:33.13	255.14	11.75	-46.5	-48.2	18.7	0.00e+00	0	34	0	273678336	64	4397
2026-01-17 12:38:34.14	255.31	11.80	-46.3	-47.9	18.9	0.00e+00	0	35	0	274726912	64	4266
2026-01-17 12:38:35.15	255.48	11.84	-46.3	-47.8	18.9	0.00e+00	0	35	0	276824064	64	4226
2026-01-17 12:38:36.16	255.65	11.89	-46.4	-48.0	18.8	0.00e+00	0	34	0	278921216	64	4314
2026-01-17 12:38:37.17	255.82	11.93	-46.4	-48.0	18.8	0.00e+00	0	34	0	281018368	64	4318
2026-01-17 12:38:38.17	255.99	11.97	-46.4	-48.1	18.7	0.00e+00	0	35	0	283115520	64	4344
2026-01-17 12:38:39.18	256.16	12.02	-46.5	-48.1	18.7	0.00e+00	0	34	0	284164096	64	4367
2026-01-17 12:38:40.19	256.33	12.06	-46.5	-48.1	18.7	0.00e+00	0	34	0	286261248	64	4380
2026-01-17 12:38:41.20	256.50	12.11	-46.5	-48.2	18.6	0.00e+00	0	34	0	288358400	64	4411
2026-01-17 12:38:42.21	256.68	12.15	-46.7	-48.3	18.5	0.00e+00	0	34	0	290455552	64	4488
2026-01-17 12:38:43.22	256.85	12.19	-46.6	-48.3	18.5	0.00e+00	0	35	0	292552704	64	4458
2026-01-17 12:38:44.22	257.02	12.24	-46.7	-48.4	18.4	0.00e+00	0	34	0	294649856	64	4524
2026-01-17 12:38:45.23	257.20	12.28	-46.8	-48.6	18.2	0.00e+00	0	34	0	295698432	64	4612
2026-01-17 12:38:46.24	257.37	12.32	-46.8	-48.5	18.3	0.00e+00	0	35	0	297795584	64	4565
2026-01-17 12:38:47.25	257.55	12.37	-46.8	-48.6	18.3	0.00e+00	0	35	0	299892736	64	4599
2026-01-17 12:38:48.26	257.72	12.41	-46.8	-48.6	18.3	0.00e+00	0	34	0	301989888	64	4607
2026-01-17 12:38:49.26	257.90	12.45	-46.9	-48.6	18.2	0.00e+00	0	34	0	303038464	64	4633
2026-01-17 12:38:50.27	258.08	12.49	-47.1	-48.9	17.9	0.00e+00	0	35	0	305135616	64	4803
2026-01-17 12:38:51.28	258.25	12.54	-47.0	-48.8	18.1	0.00e+00	0	34	0	307232768	64	4726
2026-01-17 12:38:52.29	258.43	12.58	-47.0	-48.8	18.1	0.00e+00	0	34	0	309329920	64	4715
2026-01-17 12:38:53.30	258.61	12.62	-47.1	-48.9	17.9	0.00e+00	0	34	0	311427072	64	4770
2026-01-17 12:38:54.31	258.79	12.66	-47.2	-49.1	17.8	0.00e+00	0	34	0	312475648	65	4611
2026-01-17 12:38:55.32	258.97	12.70	-47.4	-49.3	17.6	0.00e+00	0	34	0	314572800	65	4746
2026-01-17 12:38:56.33	259.15	12.75	-47.4	-49.3	17.6	0.00e+00	0	34	0	316669952	65	4735
2026-01-17 12:38:57.33	259.33	12.79	-47.5	-49.4	17.5	0.00e+00	0	34	0	318767104	65	4809
2026-01-17 12:38:58.35	259.51	12.83	-47.5	-49.5	17.4	0.00e+00	0	34	0	320864256	65	4844
2026-01-17 12:38:59.35	259.69	12.87	-47.5	-49.5	17.4	0.00e+00	0	35	0	322961408	65	4822
2026-01-17 12:39:00.36	259.87	12.91	-47.4	-49.3	17.5	0.00e+00	0	34	0	324009984	65	4751
2026-01-17 12:39:01.37	260.06	12.95	-47.5	-49.4	17.4	0.00e+00	0	34	0	326107136	65	4797
2026-01-17 12:39:02.38	260.24	12.99	-47.5	-49.5	17.4	0.00e+00	0	34	0	328204288	65	4820
2026-01-17 12:39:03.39	260.42	13.03	-47.5	-49.4	17.4	0.00e+00	0	34	0	330301440	65	4801
2026-01-17 12:39:04.39	260.60	13.07	-47.5	-49.5	17.4	0.00e+00	0	34	0	331350016	65	4815
2026-01-17 12:39:05.40	260.79	13.11	-47.6	-49.5	17.4	0.00e+00	0	34	0	333447168	65	4850
2026-01-17 12:39:06.41	260.97	13.15	-47.5	-49.5	17.3	0.00e+00	0	34	0	335544320	65	4847
2026-01-17 12:39:07.42	261.16	13.19	-47.6	-49.6	17.3	0.00e+00	0	34	0	337641472	65	4881
2026-01-17 12:39:08.42	261.34	13.23	-47.8	-49.8	17.1	0.00e+00	0	35	0	339738624	66	4744
2026-01-17 12:39:09.43	261.53	13.27	-47.9	-50.0	16.9	0.00e+00	0	34	0	341835776	66	4825
2026-01-17 12:39:10.44	261.72	13.30	-47.9	-50.0	16.9	0.00e+00	0	34	0	342884352	66	4846
2026-01-17 12:39:11.45	261.90	13.34	-47.8	-49.8	17.0	0.00e+00	0	35	0	344981504	66	4758
2026-01-17 12:39:12.46	262.09	13.38	-47.9	-50.1	16.8	0.00e+00	0	35	0	347078656	66	4875
2026-01-17 12:39:13.47	262.28	13.42	-47.9	-50.0	16.9	0.00e+00	0	34	0	349175808	66	4838
2026-01-17 12:39:14.47	262.47	13.46	-47.9	-49.9	17.0	0.00e+00	0	35	0	351272960	66	4808
2026-01-17 12:39:15.48	262.66	13.49	-48.0	-50.1	16.8	0.00e+00	0	34	0	352321536	66	4894
2026-01-17 12:39:16.49	262.85	13.53	-47.8	-49.8	17.1	0.00e+00	0	35	0	354418688	66	4734
2026-01-17 12:39:17.50	263.04	13.57	-47.7	-49.7	17.2	0.00e+00	0	35	0	356515840	66	4664
2026-01-17 12:39:18.51	263.23	13.61	-47.8	-49.9	17.0	0.00e+00	0	35	0	358612992	66	4792
2026-01-17 12:39:19.51	263.41	13.64	-47.8	-49.8	17.1	0.00e+00	0	35	0	359661568	66	4750
2026-01-17 12:39:20.52	263.61	13.68	-47.9	-49.9	17.0	0.00e+00	0	34	0	361758720	66	4806
2026-01-17 12:39:21.53	263.80	13.71	-47.9	-50.0	16.9	0.00e+00	0	34	0	363855872	66	4824
2026-01-17 12:39:22.54	263.99	13.75	-48.1	-50.3	16.7	0.00e+00	0	35	0	365953024	66	4994
2026-01-17 12:39:23.55	264.18	13.79	-48.2	-50.4	16.5	0.00e+00	0	35	0	368050176	66	5059
2026-01-17 12:39:24.55	264.37	13.82	-48.3	-50.6	16.4	0.00e+00	0	34	0	370147328	67	4884
2026-01-17 12:39:25.56	264.57	13.86	-48.4	-50.7	16.2	0.00e+00	0	35	0	371195904	67	4956
2026-01-17 12:39:26.57	264.76	13.89	-48.3	-50.6	16.3	0.00e+00	0	34	0	373293056	67	4925
2026-01-17 12:39:27.58	264.96	13.93	-48.2	-50.4	16.5	0.00e+00	0	35	0	375390208	67	4792
2026-01-17 12:39:28.59	265.15	13.96	-48.1	-50.3	16.6	0.00e+00	0	34	0	377487360	67	4728
2026-01-17 12:39:29.60	265.35	13.99	-48.0	-50.1	16.7	0.00e+00	0	34	0	379584512	67	4636
2026-01-17 12:39:30.61	265.54	14.03	-48.0	-50.1	16.8	0.00e+00	0	35	0	380633088	67	4622
2026-01-17 12:39:31.61	265.74	14.06	-47.8	-49.8	17.1	0.00e+00	0	34	0	382730240	67	4484
2026-01-17 12:39:32.62	265.93	14.09	-47.7	-49.7	17.3	0.00e+00	0	35	0	384827392	67	4400
2026-01-17 12:39:33.63	266.13	14.13	-47.6	-49.6	17.3	0.00e+00	0	35	0	386924544	67	4382
2026-01-17 12:39:34.64	266.33	14.16	-47.6	-49.6	17.3	0.00e+00	0	34	0	389021696	67	4369
2026-01-17 12:39:35.65	266.53	14.19	-47.7	-49.7	17.2	0.00e+00	0	34	0	390070272	67	4404
2026-01-17 12:39:36.66	266.73	14.23	-47.6	-49.6	17.3	0.00e+00	0	35	0	392167424	67	4372
2026-01-17 12:39:37.66	266.92	14.26	-47.6	-49.6	17.3	0.00e+00	0	35	0	394264576	67	4348
2026-01-17 12:39:38.67	267.12	14.29	-47.7	-49.8	17.2	0.00e+00	0	34	0	396361728	67	4460
2026-01-17 12:39:39.68	267.32	14.32	-47.7	-49.7	17.3	0.00e+00	0	34	0	398458880	67	4404
2026-01-17 12:39:40.69	267.52	14.35	-47.7	-49.7	17.2	0.00e+00	0	35	0	399507456	67	4422
2026-01-17 12:39:41.70	267.72	14.38	-47.6	-49.6	17.3	0.00e+00	0	34	0	401604608	67	4380
2026-01-17 12:39:42.70	267.92	14.41	-47.7	-49.7	17.2	0.00e+00	0	34	0	403701760	67	4432
2026-01-17 12:39:43.71	268.12	14.44	-47.5	-49.4	17.5	0.00e+00	0	35	0	405798912	67	4263
2026-01-17 12:39:44.72	268.32	14.47	-47.2	-49.1	17.8	0.00e+00	0	35	0	407896064	66	4359
2026-01-17 12:39:45.73	268.53	14.50	-47.0	-48.7	18.1	0.00e+00	0	35	0	409993216	66	4191
2026-01-17 12:39:46.74	268.73	14.53	-46.9	-48.6	18.3	0.00e+00	0	34	0	411041792	65	4361
2026-01-17 12:39:47.75	268.93	14.56	-46.7	-48.4	18.5	0.00e+00	0	35	0	413138944	65	4271
2026-01-17 12:39:48.76	269.13	14.59	-46.6	-48.3	18.6	0.00e+00	0	35	0	415236096	65	4196
2026-01-17 12:39:49.77	269.34	14.62	-46.4	-48.0	18.9	0.00e+00	0	35	0	417333248	64	4308
2026-01-17 12:39:50.78	269.54	14.65	-46.4	-48.0	18.8	0.00e+00	0	35	0	418381824	64	4321
2026-01-17 12:39:51.79	269.75	14.68	-46.4	-48.0	18.9	0.00e+00	0	34	0	420478976	64	4329
2026-01-17 12:39:52.79	269.95	14.70	-46.5	-48.1	18.8	0.00e+00	0	34	0	422576128	64	4346
2026-01-17 12:39:53.80	270.15	14.73	-46.4	-48.0	18.8	0.00e+00	0	34	0	424673280	64	4327
2026-01-17 12:39:54.81	270.36	14.76	-46.5	-48.1	18.8	0.00e+00	0	34	0	426770432	64	4383
2026-01-17 12:39:55.82	270.56	14.78	-46.6	-48.2	18.7	0.00e+00	0	35	0	427819008	64	4425
2026-01-17 12:39:56.83	270.77	14.81	-46.6	-48.2	18.7	0.00e+00	0	35	0	429916160	64	4430
2026-01-17 12:39:57.84	270.98	14.84	-46.6	-48.2	18.6	0.00e+00	0	35	0	432013312	64	4437
2026-01-17 12:39:58.85	271.18	14.86	-46.6	-48.2	18.7	0.00e+00	0	35	0	434110464	64	4409
2026-01-17 12:39:59.85	271.39	14.89	-46.6	-48.2	18.7	0.00e+00	0	34	0	436207616	64	4409
2026-01-17 12:40:00.86	271.60	14.91	-46.7	-48.3	18.6	0.00e+00	0	35	0	438304768	64	4467
2026-01-17 12:40:01.87	271.80	14.94	-46.6	-48.2	18.6	0.00e+00	0	35	0	439353344	64	4430
2026-01-17 12:40:02.88	272.01	14.96	-46.5	-48.1	18.8	0.00e+00	0	35	0	441450496	64	4367
2026-01-17 12:40:03.89	272.22	14.99	-46.4	-48.0	18.9	0.00e+00	0	34	0	443547648	64	4320
2026-01-17 12:40:04.90	272.43	15.01	-46.4	-48.0	18.9	0.00e+00	0	34	0	445644800	64	4323
2026-01-17 12:40:05.90	272.64	15.03	-46.5	-48.1	18.9	0.00e+00	0	34	0	446693376	64	4348
2026-01-17 12:40:06.91	272.85	15.06	-46.5	-48.1	18.8	0.00e+00	0	35	0	448790528	64	4372
2026-01-17 12:40:07.92	273.06	15.08	-46.7	-48.3	18.6	0.00e+00	0	35	0	450887680	64	4480
2026-01-17 12:40:08.93	273.27	15.10	-46.8	-48.4	18.5	0.00e+00	0	34	0	452984832	64	4535
2026-01-17 12:40:09.94	273.48	15.12	-46.9	-48.6	18.3	0.00e+00	0	34	0	455081984	64	4651
2026-01-17 12:40:10.94	273.69	15.15	-47.0	-48.7	18.2	0.00e+00	0	35	0	457179136	64	4695
2026-01-17 12:40:11.95	273.90	15.17	-47.1	-48.8	18.1	0.00e+00	0	34	0	458227712	64	4757
2026-01-17 12:40:12.96	274.11	15.19	-47.2	-49.0	18.0	0.00e+00	0	35	0	460324864	64	4820
2026-01-17 12:40:13.97	274.32	15.21	-47.2	-49.0	18.0	0.00e+00	0	35	0	462422016	64	4834
2026-01-17 12:40:14.98	274.53	15.23	-47.2	-49.0	18.0	0.00e+00	0	34	0	464519168	64	4817
2026-01-17 12:40:15.99	274.74	15.25	-47.2	-49.0	17.9	0.00e+00	0	35	0	466616320	65	4583
2026-01-17 12:40:16.99	274.95	15.27	-47.3	-49.1	17.8	0.00e+00	0	34	0	467664896	65	4640
2026-01-17 12:40:18.00	275.17	15.29	-47.2	-49.1	17.9	0.00e+00	0	34	0	469762048	65	4599
2026-01-17 12:40:19.01	275.38	15.31	-47.3	-49.2	17.8	0.00e+00	0	34	0	471859200	65	4666
2026-01-17 12:40:20.02	275.59	15.33	-47.3	-49.1	17.9	0.00e+00	0	34	0	473956352	65	4607
2026-01-17 12:40:21.02	275.80	15.34	-47.3	-49.1	17.9	0.00e+00	0	35	0	476053504	65	4622
2026-01-17 12:40:22.03	276.02	15.36	-47.3	-49.1	17.8	0.00e+00	0	34	0	477102080	65	4650
2026-01-17 12:40:23.04	276.23	15.38	-47.3	-49.1	17.9	0.00e+00	0	34	0	479199232	65	4615
2026-01-17 12:40:24.05	276.45	15.40	-47.3	-49.2	17.8	0.00e+00	0	34	0	481296384	65	4666
2026-01-17 12:40:25.06	276.66	15.41	-47.5	-49.4	17.6	0.00e+00	0	34	0	483393536	65	4784
2026-01-17 12:40:26.07	276.87	15.43	-47.3	-49.1	17.9	0.00e+00	0	34	0	485490688	65	4630
2026-01-17 12:40:27.07	277.09	15.45	-47.3	-49.1	17.8	0.00e+00	0	35	0	486539264	65	4647
2026-01-17 12:40:28.08	277.30	15.46	-47.3	-49.1	17.9	0.00e+00	0	34	0	488636416	65	4602
2026-01-17 12:40:29.09	277.52	15.48	-47.2	-48.9	18.0	0.00e+00	0	34	0	490733568	65	4536
2026-01-17 12:40:30.10	277.73	15.49	-47.3	-49.1	17.9	0.00e+00	0	35	0	492830720	65	4615
2026-01-17 12:40:31.11	277.95	15.51	-47.2	-49.0	18.0	0.00e+00	0	35	0	494927872	65	4577
2026-01-17 12:40:32.12	278.16	15.52	-47.3	-49.2	17.8	0.00e+00	0	35	0	495976448	65	4671
2026-01-17 12:40:33.13	278.38	15.54	-47.3	-49.2	17.8	0.00e+00	0	34	0	498073600	65	4657
2026-01-17 12:40:34.14	278.60	15.55	-47.5	-49.3	17.7	0.00e+00	0	34	0	500170752	65	4747
2026-01-17 12:40:35.14	278.81	15.56	-47.4	-49.2	17.8	0.00e+00	0	35	0	502267904	65	4693
2026-01-17 12:40:36.15	279.03	15.58	-47.2	-49.0	18.0	0.00e+00	0	35	0	504365056	65	4588
2026-01-17 12:40:37.16	279.24	15.59	-47.2	-49.0	18.0	0.00e+00	0	34	0	505413632	65	4550
2026-01-17 12:40:38.17	279.46	15.60	-47.2	-49.0	18.0	0.00e+00	0	35	0	507510784	65	4557
2026-01-17 12:40:39.18	279.68	15.61	-47.1	-48.8	18.2	0.00e+00	0	35	0	509607936	65	4474
2026-01-17 12:40:40.19	279.90	15.62	-47.0	-48.8	18.3	0.00e+00	0	34	0	511705088	65	4444
2026-01-17 12:40:41.20	280.11	15.63	-47.0	-48.7	18.3	0.00e+00	0	35	0	513802240	65	4428
2026-01-17 12:40:42.20	280.33	15.65	-47.0	-48.7	18.4	0.00e+00	0	34	0	514850816	65	4397
2026-01-17 12:40:43.21	280.55	15.66	-47.0	-48.7	18.4	0.00e+00	0	35	0	516947968	65	4404
2026-01-17 12:40:44.23	280.77	15.67	-47.0	-48.8	18.3	0.00e+00	0	34	0	519045120	65	4451
2026-01-17 12:40:45.23	280.98	15.67	-47.1	-48.8	18.2	0.00e+00	0	35	0	521142272	65	4475
2026-01-17 12:40:46.24	281.20	15.68	-47.1	-48.8	18.3	0.00e+00	0	35	0	523239424	65	4462
2026-01-17 12:40:47.25	281.42	15.69	-47.1	-48.8	18.3	0.00e+00	0	35	0	524288000	65	4456
2026-01-17 12:40:48.26	281.64	15.70	-46.9	-48.6	18.4	0.00e+00	0	35	0	526385152	65	4381
2026-01-17 12:40:49.26	281.85	15.71	-47.1	-48.9	18.2	0.00e+00	0	34	0	528482304	65	4498
2026-01-17 12:40:50.27	282.07	15.72	-47.2	-49.0	18.1	0.00e+00	0	35	0	530579456	65	4571
2026-01-17 12:40:51.29	282.29	15.72	-47.3	-49.0	18.1	0.00e+00	0	35	0	532676608	65	4592
2026-01-17 12:40:52.30	282.51	15.73	-47.3	-49.1	18.1	0.00e+00	0	35	0	533725184	65	4600
2026-01-17 12:40:53.30	282.73	15.74	-47.3	-49.1	18.0	0.00e+00	0	35	0	535822336	65	4609
2026-01-17 12:40:54.31	282.95	15.74	-47.2	-49.0	18.1	0.00e+00	0	35	0	537919488	65	4556
2026-01-17 12:40:55.32	283.17	15.75	-47.2	-48.9	18.2	0.00e+00	0	35	0	540016640	65	4530
2026-01-17 12:40:56.33	283.38	15.75	-47.3	-49.0	18.1	0.00e+00	0	35	0	542113792	65	4586
2026-01-17 12:40:57.34	283.60	15.76	-47.3	-49.1	18.0	0.00e+00	0	35	0	544210944	65	4623
2026-01-17 12:40:58.35	283.82	15.76	-47.4	-49.2	18.0	0.00e+00	0	35	0	545259520	65	4662
2026-01-17 12:40:59.36	284.04	15.77	-47.3	-49.1	18.0	0.00e+00	0	35	0	547356672	65	4624
2026-01-17 12:41:00.37	284.26	15.77	-47.1	-48.9	18.2	0.00e+00	0	34	0	549453824	65	4494
2026-01-17 12:41:01.38	284.48	15.77	-47.0	-48.7	18.3	0.00e+00	0	34	0	551550976	65	4440
2026-01-17 12:41:02.39	284.70	15.78	-47.0	-48.7	18.4	0.00e+00	0	34	0	552599552	65	4422
2026-01-17 12:41:03.39	284.92	15.78	-46.8	-48.5	18.6	0.00e+00	0	34	0	554696704	65	4315
2026-01-17 12:41:04.40	285.14	15.78	-46.8	-48.5	18.6	0.00e+00	0	34	0	556793856	65	4309
2026-01-17 12:41:05.41	285.36	15.78	-46.9	-48.6	18.6	0.00e+00	0	35	0	558891008	65	4341
2026-01-17 12:41:06.42	285.58	15.78	-46.9	-48.6	18.5	0.00e+00	0	34	0	560988160	65	4362
2026-01-17 12:41:07.42	285.79	15.78	-46.9	-48.6	18.6	0.00e+00	0	35	0	563085312	65	4349
2026-01-17 12:41:08.43	286.01	15.78	-47.0	-48.7	18.5	0.00e+00	0	35	0	564133888	65	4410
2026-01-17 12:41:09.44	286.23	15.78	-47.1	-48.8	18.4	0.00e+00	0	34	0	566231040	65	4453
2026-01-17 12:41:10.45	286.45	15.78	-47.1	-48.8	18.3	0.00e+00	0	34	0	568328192	65	4476
2026-01-17 12:41:11.46	286.67	15.78	-46.9	-48.6	18.6	0.00e+00	0	35	0	570425344	65	4348
2026-01-17 12:41:12.47	286.89	15.78	-47.0	-48.7	18.5	0.00e+00	0	34	0	572522496	65	4406
2026-01-17 12:41:13.48	287.11	15.78	-47.1	-48.8	18.4	0.00e+00	0	35	0	573571072	65	4452
2026-01-17 12:41:14.49	287.33	15.78	-47.0	-48.7	18.5	0.00e+00	0	35	0	575668224	65	4408
2026-01-17 12:41:15.49	287.55	15.78	-46.9	-48.5	18.6	0.00e+00	0	35	0	577765376	65	4328
2026-01-17 12:41:16.50	287.77	15.77	-46.7	-48.3	18.8	0.00e+00	0	34	0	579862528	65	4223
2026-01-17 12:41:17.51	287.99	15.77	-46.8	-48.4	18.8	0.00e+00	0	34	0	580911104	65	4276
2026-01-17 12:41:18.52	288.21	15.77	-46.7	-48.3	18.8	0.00e+00	0	35	0	583008256	65	4218
2026-01-17 12:41:19.53	288.42	15.76	-46.6	-48.2	18.9	0.00e+00	0	35	0	585105408	65	4169
2026-01-17 12:41:20.53	288.64	15.76	-46.5	-48.1	19.1	0.00e+00	0	35	0	587202560	65	4117
2026-01-17 12:41:21.54	288.86	15.75	-46.7	-48.3	18.9	0.00e+00	0	35	0	589299712	65	4200
2026-01-17 12:41:22.55	289.08	15.75	-46.8	-48.4	18.8	0.00e+00	0	35	0	591396864	65	4268
2026-01-17 12:41:23.56	289.30	15.74	-46.8	-48.4	18.7	0.00e+00	0	34	0	592445440	65	4276
2026-01-17 12:41:24.56	289.51	15.74	-46.9	-48.5	18.7	0.00e+00	0	35	0	594542592	65	4313
2026-01-17 12:41:25.57	289.73	15.73	-46.8	-48.4	18.8	0.00e+00	0	34	0	596639744	65	4263
2026-01-17 12:41:26.58	289.95	15.72	-46.7	-48.3	18.8	0.00e+00	0	35	0	598736896	65	4235
2026-01-17 12:41:27.59	290.17	15.72	-46.7	-48.3	18.9	0.00e+00	0	35	0	600834048	65	4214
2026-01-17 12:41:28.60	290.39	15.71	-46.7	-48.3	18.9	0.00e+00	0	34	0	601882624	65	4200
2026-01-17 12:41:29.60	290.61	15.70	-46.7	-48.3	18.9	0.00e+00	0	35	0	603979776	65	4203
2026-01-17 12:41:30.61	290.82	15.69	-46.6	-48.1	19.1	0.00e+00	0	35	0	606076928	65	4135
2026-01-17 12:41:31.62	291.04	15.69	-46.6	-48.1	19.1	0.00e+00	0	35	0	608174080	65	4142
2026-01-17 12:41:32.63	291.26	15.68	-46.6	-48.2	19.0	0.00e+00	0	35	0	610271232	65	4153
2026-01-17 12:41:33.64	291.48	15.67	-46.6	-48.2	19.1	0.00e+00	0	35	0	611319808	65	4146
2026-01-17 12:41:34.64	291.69	15.66	-46.5	-48.1	19.1	0.00e+00	0	34	0	613416960	65	4117
2026-01-17 12:41:35.65	291.91	15.65	-46.6	-48.2	19.0	0.00e+00	0	35	0	615514112	65	4174
2026-01-17 12:41:36.66	292.13	15.64	-46.7	-48.2	19.0	0.00e+00	0	35	0	617611264	65	4178
2026-01-17 12:41:37.67	292.35	15.63	-46.7	-48.2	19.0	0.00e+00	0	35	0	619708416	65	4190
2026-01-17 12:41:38.68	292.56	15.62	-46.7	-48.3	18.9	0.00e+00	0	35	0	620756992	65	4203
2026-01-17 12:41:39.69	292.78	15.60	-46.8	-48.5	18.7	0.00e+00	0	34	0	622854144	65	4306
2026-01-17 12:41:40.70	293.00	15.59	-46.7	-48.3	18.9	0.00e+00	0	35	0	624951296	65	4199
2026-01-17 12:41:41.70	293.21	15.58	-46.8	-48.4	18.8	0.00e+00	0	35	0	627048448	65	4270
2026-01-17 12:41:42.71	293.43	15.57	-46.8	-48.4	18.8	0.00e+00	0	35	0	629145600	65	4277
2026-01-17 12:41:43.72	293.64	15.55	-46.7	-48.4	18.8	0.00e+00	0	34	0	631242752	65	4243
2026-01-17 12:41:44.73	293.86	15.54	-46.8	-48.3	18.8	0.00e+00	0	35	0	632291328	65	4241
2026-01-17 12:41:45.74	294.07	15.53	-46.6	-48.2	18.9	0.00e+00	0	34	0	634388480	65	4182
2026-01-17 12:41:46.74	294.29	15.51	-46.6	-48.1	19.0	0.00e+00	0	35	0	636485632	65	4138
2026-01-17 12:41:47.75	294.50	15.50	-46.4	-48.0	19.2	0.00e+00	0	34	0	638582784	64	4306
2026-01-17 12:41:48.76	294.72	15.48	-46.4	-47.9	19.3	0.00e+00	0	34	0	639631360	64	4265
2026-01-17 12:41:49.77	294.93	15.47	-46.4	-48.0	19.2	0.00e+00	0	35	0	641728512	64	4292
2026-01-17 12:41:50.78	295.15	15.45	-46.5	-48.1	19.1	0.00e+00	0	35	0	643825664	64	4342
2026-01-17 12:41:51.78	295.36	15.44	-46.5	-48.1	19.0	0.00e+00	0	35	0	645922816	64	4354
2026-01-17 12:41:52.79	295.58	15.42	-46.6	-48.2	19.0	0.00e+00	0	34	0	648019968	64	4392
2026-01-17 12:41:53.80	295.79	15.40	-46.7	-48.3	18.7	0.00e+00	0	35	0	649068544	64	4468
2026-01-17 12:41:54.81	296.00	15.39	-46.6	-48.2	18.9	0.00e+00	0	35	0	651165696	64	4416
2026-01-17 12:41:55.82	296.22	15.37	-46.6	-48.2	18.9	0.00e+00	0	35	0	653262848	64	4398
2026-01-17 12:41:56.83	296.43	15.35	-46.5	-48.0	19.1	0.00e+00	0	35	0	655360000	64	4309
2026-01-17 12:41:57.83	296.64	15.33	-46.4	-47.9	19.1	0.00e+00	0	34	0	657457152	64	4291
2026-01-17 12:41:58.84	296.85	15.31	-46.5	-48.0	19.0	0.00e+00	0	34	0	659554304	64	4329
2026-01-17 12:41:59.85	297.07	15.29	-46.3	-47.8	19.2	0.00e+00	0	35	0	660602880	64	4239
2026-01-17 12:42:00.86	297.28	15.28	-46.4	-48.0	19.1	0.00e+00	0	35	0	662700032	64	4299
2026-01-17 12:42:01.86	297.49	15.26	-46.5	-48.0	19.1	0.00e+00	0	35	0	664797184	64	4307
2026-01-17 12:42:02.87	297.70	15.24	-46.5	-48.1	19.1	0.00e+00	0	35	0	666894336	64	4356
2026-01-17 12:42:03.88	297.91	15.22	-46.4	-48.0	19.2	0.00e+00	0	35	0	667942912	64	4294
2026-01-17 12:42:04.89	298.12	15.19	-46.6	-48.2	19.0	0.00e+00	0	34	0	670040064	64	4402
2026-01-17 12:42:05.90	298.33	15.17	-46.5	-48.1	19.1	0.00e+00	0	34	0	672137216	64	4350
2026-01-17 12:42:06.90	298.54	15.15	-46.5	-48.1	19.1	0.00e+00	0	34	0	674234368	64	4343
2026-01-17 12:42:07.91	298.75	15.13	-46.5	-48.1	19.1	0.00e+00	0	35	0	676331520	64	4348
2026-01-17 12:42:08.92	298.96	15.11	-46.3	-47.8	19.3	0.00e+00	0	35	0	678428672	64	4232
2026-01-17 12:42:09.93	299.17	15.09	-46.2	-47.7	19.5	0.00e+00	0	35	0	679477248	64	4157
2026-01-17 12:42:10.94	299.38	15.06	-46.2	-47.7	19.4	0.00e+00	0	35	0	681574400	64	4177
2026-01-17 12:42:11.95	299.59	15.04	-46.2	-47.6	19.4	0.00e+00	0	35	0	683671552	64	4136
2026-01-17 12:42:12.95	299.80	15.02	-46.2	-47.7	19.4	0.00e+00	0	35	0	685768704	64	4168
2026-01-17 12:42:13.96	300.01	14.99	-46.0	-47.5	19.5	0.00e+00	0	34	0	687865856	64	4062
2026-01-17 12:42:14.97	300.21	14.97	-45.9	-47.3	19.7	0.00e+00	0	34	0	688914432	63	4226
2026-01-17 12:42:15.98	300.42	14.95	-45.9	-47.3	19.6	0.00e+00	0	34	0	691011584	63	4230
2026-01-17 12:42:16.99	300.63	14.92	-46.1	-47.5	19.7	0.00e+00	0	34	0	693108736	63	4298
2026-01-17 12:42:17.99	300.83	14.90	-46.0	-47.4	19.9	0.00e+00	0	34	0	695205888	63	4247
2026-01-17 12:42:19.00	301.04	14.87	-46.1	-47.5	19.8	0.00e+00	0	35	0	696254464	63	4295
2026-01-17 12:42:20.01	301.25	14.85	-46.1	-47.6	19.7	0.00e+00	0	35	0	698351616	63	4346
2026-01-17 12:42:21.02	301.45	14.82	-46.3	-47.8	19.5	0.00e+00	0	34	0	700448768	63	4461
2026-01-17 12:42:22.03	301.66	14.79	-46.4	-47.8	19.4	0.00e+00	0	34	0	702545920	63	4481
2026-01-17 12:42:23.04	301.86	14.77	-46.4	-47.9	19.4	0.00e+00	0	34	0	704643072	63	4506
2026-01-17 12:42:24.05	302.07	14.74	-46.4	-47.9	19.4	0.00e+00	0	34	0	706740224	63	4498
2026-01-17 12:42:25.05	302.27	14.71	-46.4	-47.9	19.3	0.00e+00	0	34	0	707788800	63	4540
2026-01-17 12:42:26.06	302.48	14.69	-46.3	-47.8	19.4	0.00e+00	0	34	0	709885952	63	4483
2026-01-17 12:42:27.07	302.68	14.66	-46.3	-47.8	19.4	0.00e+00	0	34	0	711983104	63	4474
2026-01-17 12:42:28.08	302.88	14.63	-46.2	-47.7	19.6	0.00e+00	0	34	0	714080256	63	4397
2026-01-17 12:42:29.08	303.08	14.60	-45.9	-47.3	19.9	0.00e+00	0	34	0	716177408	63	4230
2026-01-17 12:42:30.09	303.29	14.57	-45.8	-47.1	20.1	0.00e+00	0	35	0	717225984	63	4121
2026-01-17 12:42:31.10	303.49	14.54	-45.7	-47.1	20.1	0.00e+00	0	35	0	719323136	63	4111
2026-01-17 12:42:32.11	303.69	14.51	-45.6	-47.0	20.2	0.00e+00	0	35	0	721420288	63	4065
2026-01-17 12:42:33.11	303.89	14.49	-45.6	-47.0	20.3	0.00e+00	0	34	0	723517440	63	4055
2026-01-17 12:42:34.12	304.09	14.46	-45.7	-47.0	20.2	0.00e+00	0	34	0	725614592	63	4088
2026-01-17 12:42:35.13	304.29	14.43	-45.8	-47.1	20.1	0.00e+00	0	35	0	726663168	63	4134
2026-01-17 12:42:36.14	304.49	14.39	-45.6	-46.9	20.3	0.00e+00	0	34	0	728760320	63	4023
2026-01-17 12:42:37.14	304.69	14.36	-45.7	-47.0	20.1	0.00e+00	0	34	0	730857472	63	4097
2026-01-17 12:42:38.15	304.89	14.33	-45.7	-47.0	20.2	0.00e+00	0	34	0	732954624	63	4089
2026-01-17 12:42:39.16	305.09	14.30	-45.8	-47.1	20.1	0.00e+00	0	34	0	735051776	63	4125
2026-01-17 12:42:40.17	305.29	14.27	-45.8	-47.2	20.0	0.00e+00	0	34	0	736100352	63	4175
2026-01-17 12:42:41.18	305.49	14.24	-45.9	-47.3	19.9	0.00e+00	0	34	0	738197504	63	4213
2026-01-17 12:42:42.19	305.69	14.21	-46.0	-47.4	19.8	0.00e+00	0	34	0	740294656	63	4281
2026-01-17 12:42:43.19	305.88	14.17	-46.1	-47.5	19.7	0.00e+00	0	35	0	742391808	63	4333
2026-01-17 12:42:44.20	306.08	14.14	-46.2	-47.6	19.6	0.00e+00	0	34	0	744488960	63	4386
2026-01-17 12:42:45.21	306.27	14.11	-46.0	-47.4	19.8	0.00e+00	0	35	0	745537536	63	4259
2026-01-17 12:42:46.22	306.47	14.08	-45.9	-47.3	19.9	0.00e+00	0	34	0	747634688	63	4195
2026-01-17 12:42:47.22	306.66	14.04	-45.9	-47.3	19.9	0.00e+00	0	34	0	749731840	63	4206
2026-01-17 12:42:48.23	306.86	14.01	-45.9	-47.3	19.9	0.00e+00	0	34	0	751828992	63	4212
2026-01-17 12:42:49.24	307.06	13.98	-46.0	-47.4	19.8	0.00e+00	0	34	0	753926144	63	4262
2026-01-17 12:42:50.25	307.25	13.94	-45.8	-47.2	20.0	0.00e+00	0	34	0	754974720	63	4177
2026-01-17 12:42:51.26	307.44	13.91	-45.9	-47.3	19.7	0.00e+00	0	34	0	757071872	63	4225
2026-01-17 12:42:52.26	307.64	13.87	-45.9	-47.3	19.9	0.00e+00	0	34	0	759169024	63	4211
2026-01-17 12:42:53.27	307.83	13.84	-46.0	-47.4	19.8	0.00e+00	0	34	0	761266176	63	4282
2026-01-17 12:42:54.28	308.02	13.80	-45.9	-47.3	19.9	0.00e+00	0	34	0	763363328	63	4196
2026-01-17 12:42:55.29	308.21	13.77	-45.7	-47.0	20.1	0.00e+00	0	35	0	764411904	63	4091
2026-01-17 12:42:56.30	308.41	13.73	-45.9	-47.3	19.9	0.00e+00	0	34	0	766509056	63	4218
2026-01-17 12:42:57.30	308.59	13.70	-45.9	-47.3	19.8	0.00e+00	0	34	0	768606208	63	4217
2026-01-17 12:42:58.31	308.79	13.66	-46.1	-47.5	19.7	0.00e+00	0	34	0	770703360	63	4314
2026-01-17 12:42:59.32	308.98	13.62	-46.3	-47.7	19.4	0.00e+00	0	34	0	772800512	63	4432
2026-01-17 12:43:00.33	309.17	13.59	-46.3	-47.8	19.4	0.00e+00	0	35	0	773849088	63	4457
2026-01-17 12:43:01.34	309.36	13.55	-46.4	-47.9	19.2	0.00e+00	0	34	0	775946240	63	4542
2026-01-17 12:43:02.35	309.55	13.51	-46.5	-48.1	19.1	0.00e+00	0	34	0	778043392	63	4619
2026-01-17 12:43:03.35	309.73	13.48	-46.6	-48.1	19.0	0.00e+00	0	34	0	780140544	63	4637
2026-01-17 12:43:04.36	309.92	13.44	-46.6	-48.1	19.0	0.00e+00	0	35	0	782237696	63	4638
2026-01-17 12:43:05.37	310.11	13.40	-46.6	-48.1	19.0	0.00e+00	0	34	0	783286272	63	4651
2026-01-17 12:43:06.38	310.30	13.36	-46.7	-48.3	18.8	0.00e+00	0	34	0	785383424	63	4724
2026-01-17 12:43:07.38	310.48	13.33	-46.7	-48.4	18.7	0.00e+00	0	34	0	787480576	64	4511
2026-01-17 12:43:08.39	310.67	13.29	-46.7	-48.3	18.7	0.00e+00	0	35	0	789577728	64	4491
2026-01-17 12:43:09.40	310.85	13.25	-46.8	-48.4	18.7	0.00e+00	0	34	0	791674880	64	4523
2026-01-17 12:43:10.41	311.04	13.21	-46.8	-48.5	18.5	0.00e+00	0	35	0	792723456	64	4573
2026-01-17 12:43:11.42	311.22	13.17	-46.7	-48.4	18.6	0.00e+00	0	34	0	794820608	64	4537
2026-01-17 12:43:12.42	311.40	13.13	-46.7	-48.4	18.6	0.00e+00	0	35	0	796917760	64	4514
2026-01-17 12:43:13.43	311.59	13.09	-46.8	-48.4	18.6	0.00e+00	0	34	0	799014912	64	4530
2026-01-17 12:43:14.44	311.77	13.05	-46.7	-48.4	18.7	0.00e+00	0	34	0	801112064	64	4497
2026-01-17 12:43:15.45	311.96	13.01	-46.7	-48.3	18.7	0.00e+00	0	34	0	802160640	64	4490
2026-01-17 12:43:16.46	312.14	12.97	-46.8	-48.5	18.5	0.00e+00	0	35	0	804257792	64	4580
2026-01-17 12:43:17.46	312.32	12.93	-46.8	-48.5	18.6	0.00e+00	0	34	0	806354944	64	4564
2026-01-17 12:43:18.47	312.50	12.89	-46.9	-48.6	18.4	0.00e+00	0	35	0	808452096	64	4629
2026-01-17 12:43:19.48	312.68	12.85	-47.1	-48.8	18.2	0.00e+00	0	34	0	810549248	64	4739
2026-01-17 12:43:20.49	312.86	12.81	-47.4	-49.2	17.8	0.00e+00	0	34	0	811597824	65	4689
2026-01-17 12:43:21.50	313.04	12.77	-47.7	-49.6	17.4	0.00e+00	0	34	0	813694976	65	4915
2026-01-17 12:43:22.50	313.22	12.73	-47.8	-49.9	17.2	0.00e+00	0	34	0	815792128	66	4766
2026-01-17 12:43:23.51	313.40	12.69	-48.0	-50.1	16.9	0.00e+00	0	34	0	817889280	66	4906
2026-01-17 12:43:24.52	313.58	12.65	-48.1	-50.3	16.8	0.00e+00	0	35	0	819986432	66	4997
2026-01-17 12:43:25.53	313.76	12.61	-48.2	-50.5	16.6	0.00e+00	0	34	0	822083584	67	4819
2026-01-17 12:43:26.54	313.93	12.56	-48.3	-50.6	16.5	0.00e+00	0	35	0	823132160	67	4877
2026-01-17 12:43:27.54	314.11	12.52	-48.4	-50.7	16.3	0.00e+00	0	34	0	825229312	67	4948
2026-01-17 12:43:28.55	314.28	12.48	-48.5	-50.8	16.2	0.00e+00	0	34	0	827326464	67	4992
2026-01-17 12:43:29.56	314.46	12.44	-48.5	-50.8	16.2	0.00e+00	0	34	0	829423616	67	5041
2026-01-17 12:43:30.57	314.64	12.39	-48.6	-51.0	16.0	0.00e+00	0	34	0	830472192	67	5119
2026-01-17 12:43:31.58	314.81	12.35	-48.8	-51.3	15.8	0.00e+00	0	34	0	832569344	68	5005
2026-01-17 12:43:32.58	314.98	12.31	-48.8	-51.2	15.9	0.00e+00	0	34	0	834666496	68	4983
2026-01-17 12:43:33.59	315.16	12.27	-48.7	-51.1	16.0	0.00e+00	0	34	0	836763648	68	4910
2026-01-17 12:43:34.60	315.33	12.22	-48.7	-51.1	16.0	0.00e+00	0	35	0	838860800	68	4875
2026-01-17 12:43:35.61	315.51	12.18	-48.5	-50.8	16.3	0.00e+00	0	34	0	839909376	68	4713
2026-01-17 12:43:36.62	315.68	12.14	-48.1	-50.3	16.8	0.00e+00	0	34	0	842006528	68	4464
2026-01-17 12:43:37.63	315.85	12.09	-48.0	-50.0	17.0	0.00e+00	0	34	0	844103680	68	4338
2026-01-17 12:43:38.64	316.02	12.05	-47.8	-49.8	17.1	0.00e+00	0	34	0	846200832	67	4483
2026-01-17 12:43:39.64	316.19	12.01	-47.8	-49.9	17.0	0.00e+00	0	34	0	848297984	67	4505
2026-01-17 12:43:40.65	316.36	11.96	-47.6	-49.6	17.3	0.00e+00	0	35	0	850395136	67	4366
2026-01-17 12:43:41.66	316.53	11.92	-47.7	-49.7	17.3	0.00e+00	0	34	0	851443712	67	4406
2026-01-17 12:43:42.67	316.70	11.87	-47.8	-49.8	17.1	0.00e+00	0	34	0	853540864	67	4486
2026-01-17 12:43:43.68	316.87	11.83	-47.9	-50.0	17.0	0.00e+00	0	34	0	855638016	67	4557
2026-01-17 12:43:44.68	317.04	11.78	-48.1	-50.2	16.7	0.00e+00	0	34	0	857735168	67	4693
2026-01-17 12:43:45.69	317.21	11.74	-48.1	-50.3	16.6	0.00e+00	0	34	0	858783744	67	4741
2026-01-17 12:43:46.70	317.38	11.69	-48.3	-50.5	16.4	0.00e+00	0	34	0	860880896	67	4870
2026-01-17 12:43:47.71	317.54	11.65	-48.4	-50.7	16.2	0.00e+00	0	34	0	862978048	67	4970
2026-01-17 12:43:48.72	317.71	11.60	-48.5	-50.9	16.1	0.00e+00	0	34	0	865075200	67	5048
2026-01-17 12:43:49.72	317.87	11.56	-48.6	-51.0	15.9	0.00e+00	0	35	0	867172352	67	5153
2026-01-17 12:43:50.73	318.04	11.51	-48.6	-51.1	15.8	0.00e+00	0	35	0	869269504	67	5180
2026-01-17 12:43:51.74	318.20	11.47	-48.7	-51.1	15.8	0.00e+00	0	34	0	870318080	67	5208
2026-01-17 12:43:52.75	318.37	11.42	-48.5	-50.9	16.0	0.00e+00	0	34	0	872415232	67	5063
2026-01-17 12:43:53.76	318.53	11.38	-48.5	-50.9	16.0	0.00e+00	0	34	0	874512384	67	5087
2026-01-17 12:43:54.76	318.70	11.33	-48.3	-50.6	16.3	0.00e+00	0	35	0	876609536	67	4913
2026-01-17 12:43:55.77	318.86	11.29	-48.2	-50.5	16.4	0.00e+00	0	35	0	878706688	67	4823
2026-01-17 12:43:56.78	319.02	11.24	-48.2	-50.4	16.5	0.00e+00	0	34	0	879755264	67	4797
2026-01-17 12:43:57.79	319.18	11.19	-48.3	-50.5	16.4	0.00e+00	0	34	0	881852416	67	4846
2026-01-17 12:43:58.80	319.35	11.15	-48.1	-50.3	16.6	0.00e+00	0	34	0	883949568	67	4752
2026-01-17 12:43:59.80	319.51	11.10	-48.2	-50.5	16.4	0.00e+00	0	34	0	886046720	67	4817
2026-01-17 12:44:00.81	319.67	11.05	-48.3	-50.6	16.3	0.00e+00	0	34	0	887095296	67	4892
2026-01-17 12:44:01.82	319.83	11.01	-48.2	-50.4	16.4	0.00e+00	0	35	0	889192448	67	4811
2026-01-17 12:44:02.83	319.99	10.96	-48.0	-50.1	16.7	0.00e+00	0	34	0	891289600	67	4633
2026-01-17 12:44:03.84	320.15	10.91	-47.8	-49.9	17.0	0.00e+00	0	35	0	893386752	67	4496
2026-01-17 12:44:04.85	320.30	10.87	-47.7	-49.7	17.1	0.00e+00	0	34	0	895483904	67	4417
2026-01-17 12:44:05.85	320.46	10.82	-47.5	-49.4	17.4	0.00e+00	0	34	0	897581056	67	4285
2026-01-17 12:44:06.86	320.62	10.77	-47.3	-49.2	17.7	0.00e+00	0	35	0	898629632	66	4395
2026-01-17 12:44:07.87	320.78	10.73	-47.3	-49.2	17.7	0.00e+00	0	35	0	900726784	66	4407
2026-01-17 12:44:08.88	320.93	10.68	-47.2	-49.1	17.8	0.00e+00	0	35	0	902823936	66	4354
2026-01-17 12:44:09.88	321.09	10.63	-47.3	-49.2	17.7	0.00e+00	0	34	0	904921088	66	4393
2026-01-17 12:44:10.89	321.24	10.58	-47.2	-49.1	17.7	0.00e+00	0	35	0	907018240	66	4353
2026-01-17 12:44:11.90	321.40	10.54	-47.3	-49.2	17.7	0.00e+00	0	34	0	908066816	66	4398
2026-01-17 12:44:12.91	321.55	10.49	-47.3	-49.2	17.6	0.00e+00	0	34	0	910163968	66	4420
2026-01-17 12:44:13.92	321.71	10.44	-47.4	-49.4	17.4	0.00e+00	0	35	0	912261120	66	4511
2026-01-17 12:44:14.93	321.86	10.39	-47.6	-49.6	17.2	0.00e+00	0	34	0	914358272	66	4616
2026-01-17 12:44:15.93	322.01	10.34	-47.5	-49.5	17.3	0.00e+00	0	34	0	916455424	66	4589
2026-01-17 12:44:16.94	322.17	10.30	-47.6	-49.6	17.3	0.00e+00	0	34	0	917504000	66	4602
2026-01-17 12:44:17.95	322.32	10.25	-47.5	-49.6	17.2	0.00e+00	0	34	0	919601152	66	4599
2026-01-17 12:44:18.96	322.47	10.20	-47.5	-49.5	17.2	0.00e+00	0	34	0	921698304	66	4585
2026-01-17 12:44:19.96	322.62	10.15	-47.7	-49.7	17.1	0.00e+00	0	34	0	923795456	66	4679
2026-01-17 12:44:20.97	322.77	10.10	-47.7	-49.8	17.0	0.00e+00	0	34	0	925892608	66	4723
2026-01-17 12:44:21.98	322.92	10.05	-47.8	-49.9	16.9	0.00e+00	0	35	0	926941184	66	4788
2026-01-17 12:44:22.99	323.07	10.01	-47.8	-49.9	16.8	0.00e+00	0	34	0	929038336	66	4800
2026-01-17 12:44:24.00	323.22	9.96	-47.9	-50.0	16.8	0.00e+00	0	35	0	931135488	66	4842
2026-01-17 12:44:25.00	323.37	9.91	-47.8	-50.0	16.8	0.00e+00	0	34	0	933232640	66	4820
2026-01-17 12:44:26.01	323.52	9.86	-47.6	-49.6	17.1	0.00e+00	0	34	0	935329792	66	4651
2026-01-17 12:44:27.02	323.67	9.81	-47.6	-49.6	17.1	0.00e+00	0	34	0	937426944	66	4635
2026-01-17 12:44:28.03	323.82	9.76	-47.3	-49.1	17.5	0.00e+00	0	34	0	938475520	66	4391
2026-01-17 12:44:29.04	323.96	9.71	-46.9	-48.7	17.9	0.00e+00	0	35	0	940572672	65	4440
2026-01-17 12:44:30.04	324.11	9.66	-46.7	-48.4	18.3	0.00e+00	0	34	0	942669824	65	4265
2026-01-17 12:44:31.05	324.25	9.62	-46.6	-48.4	18.3	0.00e+00	0	34	0	944766976	65	4244
2026-01-17 12:44:32.06	324.40	9.57	-46.5	-48.2	18.5	0.00e+00	0	34	0	945815552	65	4160
2026-01-17 12:44:33.07	324.55	9.52	-46.6	-48.3	18.4	0.00e+00	0	34	0	947912704	65	4225
2026-01-17 12:44:34.08	324.69	9.47	-46.7	-48.4	18.2	0.00e+00	0	35	0	950009856	65	4291
2026-01-17 12:44:35.09	324.83	9.42	-46.9	-48.7	18.0	0.00e+00	0	34	0	952107008	65	4402
2026-01-17 12:44:36.09	324.98	9.37	-47.0	-48.8	17.8	0.00e+00	0	34	0	954204160	65	4488
2026-01-17 12:44:37.10	325.12	9.32	-47.0	-48.8	17.8	0.00e+00	0	34	0	955252736	65	4473
2026-01-17 12:44:38.11	325.26	9.27	-47.1	-49.0	17.7	0.00e+00	0	35	0	957349888	65	4559
2026-01-17 12:44:39.12	325.41	9.22	-47.1	-49.0	17.7	0.00e+00	0	34	0	959447040	65	4560
2026-01-17 12:44:40.13	325.55	9.17	-47.1	-49.0	17.6	0.00e+00	0	34	0	961544192	65	4572
2026-01-17 12:44:41.13	325.69	9.12	-47.0	-48.9	17.7	0.00e+00	0	34	0	963641344	65	4511
2026-01-17 12:44:42.14	325.83	9.07	-47.2	-49.1	17.5	0.00e+00	0	34	0	965738496	65	4639
2026-01-17 12:44:43.15	325.97	9.02	-47.0	-48.9	17.7	0.00e+00	0	35	0	966787072	65	4506
2026-01-17 12:44:44.16	326.11	8.97	-47.1	-49.0	17.7	0.00e+00	0	34	0	968884224	65	4557
2026-01-17 12:44:45.17	326.25	8.92	-47.0	-48.8	17.8	0.00e+00	0	34	0	970981376	65	4463
2026-01-17 12:44:46.18	326.39	8.87	-46.9	-48.8	17.8	0.00e+00	0	34	0	973078528	65	4453
2026-01-17 12:44:47.19	326.53	8.82	-47.2	-49.1	17.6	0.00e+00	0	34	0	974127104	65	4606
2026-01-17 12:44:48.19	326.66	8.77	-47.3	-49.2	17.4	0.00e+00	0	34	0	976224256	65	4673
2026-01-17 12:44:49.20	326.80	8.72	-47.2	-49.1	17.5	0.00e+00	0	35	0	978321408	65	4642
2026-01-17 12:44:50.21	326.94	8.67	-47.3	-49.3	17.4	0.00e+00	0	35	0	980418560	65	4714
2026-01-17 12:44:51.22	327.08	8.62	-47.3	-49.2	17.4	0.00e+00	0	35	0	982515712	65	4698
2026-01-17 12:44:52.22	327.21	8.57	-47.1	-49.0	17.6	0.00e+00	0	35	0	984612864	65	4565
2026-01-17 12:44:53.23	327.35	8.52	-47.2	-49.1	17.5	0.00e+00	0	34	0	985661440	65	4612
2026-01-17 12:44:54.24	327.48	8.47	-47.1	-49.0	17.6	0.00e+00	0	34	0	987758592	65	4562
2026-01-17 12:44:55.25	327.62	8.42	-47.2	-49.1	17.5	0.00e+00	0	34	0	989855744	65	4627
2026-01-17 12:44:56.26	327.75	8.37	-47.0	-48.9	17.6	0.00e+00	0	34	0	991952896	65	4529
2026-01-17 12:44:57.27	327.89	8.32	-47.0	-48.9	17.6	0.00e+00	0	34	0	994050048	65	4515
2026-01-17 12:44:58.28	328.02	8.27	-47.0	-48.9	17.6	0.00e+00	0	34	0	995098624	65	4522
2026-01-17 12:44:59.28	328.15	8.22	-47.0	-48.8	17.7	0.00e+00	0	34	0	997195776	65	4479
2026-01-17 12:45:00.29	328.29	8.17	-47.1	-49.0	17.5	0.00e+00	0	34	0	999292928	65	4590
2026-01-17 12:45:01.30	328.42	8.12	-47.0	-48.9	17.6	0.00e+00	0	34	0	1001390080	65	4525
2026-01-17 12:45:02.31	328.55	8.07	-47.2	-49.2	17.3	0.00e+00	0	34	0	1002438656	65	4689
2026-01-17 12:45:03.32	328.68	8.02	-47.3	-49.3	17.2	0.00e+00	0	35	0	1004535808	65	4742
2026-01-17 12:45:04.33	328.81	7.97	-47.3	-49.3	17.2	0.00e+00	0	35	0	1006632960	65	4738
2026-01-17 12:45:05.34	328.94	7.92	-47.1	-49.0	17.6	0.00e+00	0	35	0	1008730112	65	4554
2026-01-17 12:45:06.35	329.07	7.87	-46.9	-48.8	17.8	0.00e+00	0	35	0	1010827264	65	4454
2026-01-17 12:45:07.36	329.20	7.82	-47.2	-49.1	17.4	0.00e+00	0	35	0	1012924416	65	4624
2026-01-17 12:45:08.36	329.33	7.77	-47.1	-49.0	17.5	0.00e+00	0	34	0	1013972992	65	4574
2026-01-17 12:45:09.37	329.46	7.72	-47.1	-49.0	17.5	0.00e+00	0	34	0	1016070144	65	4559
2026-01-17 12:45:10.38	329.59	7.67	-46.9	-48.8	17.8	0.00e+00	0	35	0	1018167296	65	4449
2026-01-17 12:45:11.39	329.72	7.61	-47.0	-49.0	17.5	0.00e+00	0	34	0	1020264448	65	4551
2026-01-17 12:45:12.40	329.85	7.56	-47.1	-49.0	17.4	0.00e+00	0	34	0	1022361600	65	4593
2026-01-17 12:45:13.41	329.97	7.51	-47.1	-49.0	17.5	0.00e+00	0	34	0	1023410176	65	4565
2026-01-17 12:45:14.42	330.10	7.46	-47.4	-49.5	17.0	0.00e+00	0	34	0	1025507328	65	4838
2026-01-17 12:45:15.43	330.23	7.41	-47.3	-49.4	17.0	0.00e+00	0	34	0	1027604480	65	4789
2026-01-17 12:45:16.43	330.35	7.36	-47.1	-49.1	17.3	0.00e+00	0	34	0	1029701632	65	4632
2026-01-17 12:45:17.44	330.48	7.31	-47.4	-49.4	17.1	0.00e+00	0	35	0	1031798784	65	4797
2026-01-17 12:45:18.45	330.60	7.26	-47.4	-49.5	16.9	0.00e+00	0	34	0	1032847360	65	4857
2026-01-17 12:45:19.45	330.73	7.21	-47.6	-49.8	16.7	0.00e+00	0	34	0	1034944512	65	5025
2026-01-17 12:45:20.46	330.85	7.16	-47.8	-50.1	16.4	0.00e+00	0	35	0	1037041664	66	4871
2026-01-17 12:45:21.47	330.97	7.11	-47.8	-50.0	16.5	0.00e+00	0	34	0	1039138816	66	4829
2026-01-17 12:45:22.48	331.10	7.06	-47.6	-49.7	16.7	0.00e+00	0	35	0	1041235968	66	4677
2026-01-17 12:45:23.49	331.22	7.01	-47.3	-49.4	17.1	0.00e+00	0	35	0	1042284544	66	4498
2026-01-17 12:45:24.50	331.34	6.96	-47.4	-49.4	17.0	0.00e+00	0	34	0	1044381696	66	4527
2026-01-17 12:45:25.50	331.46	6.90	-47.4	-49.5	16.9	0.00e+00	0	35	0	1046478848	66	4571
2026-01-17 12:45:26.51	331.59	6.85	-47.7	-49.9	16.6	0.00e+00	0	34	0	1048576000	66	4772
2026-01-17 12:45:27.52	331.71	6.80	-47.5	-49.7	16.7	0.00e+00	0	35	0	1050673152	66	4653
2026-01-17 12:45:28.53	331.83	6.75	-47.3	-49.4	17.0	0.00e+00	0	35	0	1051721728	66	4499
2026-01-17 12:45:29.54	331.95	6.70	-47.6	-49.7	16.7	0.00e+00	0	35	0	1053818880	66	4677
2026-01-17 12:45:30.55	332.07	6.65	-47.8	-50.0	16.4	0.00e+00	0	35	0	1055916032	66	4847
2026-01-17 12:45:31.56	332.19	6.60	-47.7	-50.0	16.4	0.00e+00	0	34	0	1058013184	66	4824
2026-01-17 12:45:32.56	332.31	6.55	-47.9	-50.2	16.2	0.00e+00	0	34	0	1060110336	66	4969
2026-01-17 12:45:33.57	332.43	6.50	-47.9	-50.2	16.2	0.00e+00	0	34	0	1061158912	66	4972
2026-01-17 12:45:34.58	332.55	6.45	-47.8	-50.1	16.2	0.00e+00	0	35	0	1063256064	66	4923
2026-01-17 12:45:35.59	332.66	6.40	-47.9	-50.2	16.1	0.00e+00	0	34	0	1065353216	66	4980
2026-01-17 12:45:36.60	332.78	6.35	-48.0	-50.3	16.0	0.00e+00	0	34	0	1067450368	66	5029
2026-01-17 12:45:37.61	332.90	6.29	-48.2	-50.7	15.6	0.00e+00	0	35	0	1069547520	66	5251
2026-01-17 12:45:38.62	333.02	6.24	-47.7	-50.0	16.3	0.00e+00	0	34	0	1071644672	66	4837
2026-01-17 12:45:39.63	333.13	6.19	-47.8	-50.1	16.3	0.00e+00	0	35	0	1072693248	66	4892
2026-01-17 12:45:40.63	333.25	6.14	-47.8	-50.2	16.2	0.00e+00	0	34	0	1074790400	66	4927
2026-01-17 12:45:41.64	333.36	6.09	-48.0	-50.3	16.0	0.00e+00	0	35	0	1076887552	66	5040
2026-01-17 12:45:42.65	333.48	6.04	-47.9	-50.2	16.1	0.00e+00	0	35	0	1078984704	66	4967
2026-01-17 12:45:43.66	333.59	5.99	-48.0	-50.5	15.8	0.00e+00	0	34	0	1080033280	66	5113
2026-01-17 12:45:44.67	333.71	5.94	-47.9	-50.2	16.1	0.00e+00	0	34	0	1082130432	66	4960
2026-01-17 12:45:45.68	333.82	5.89	-48.0	-50.5	15.8	0.00e+00	0	34	0	1084227584	66	5134
2026-01-17 12:45:46.68	333.94	5.84	-48.0	-50.5	15.8	0.00e+00	0	35	0	1086324736	66	5131
2026-01-17 12:45:47.69	334.05	5.79	-48.0	-50.5	15.8	0.00e+00	0	35	0	1088421888	66	5130
2026-01-17 12:45:48.70	334.16	5.74	-48.0	-50.4	15.8	0.00e+00	0	35	0	1089470464	66	5099
2026-01-17 12:45:49.71	334.28	5.69	-48.2	-50.9	15.3	0.00e+00	0	34	0	1091567616	67	5060
2026-01-17 12:45:50.72	334.39	5.63	-47.9	-50.4	15.9	0.00e+00	0	34	0	1093664768	67	4764
2026-01-17 12:45:51.73	334.50	5.58	-48.1	-50.7	15.4	0.00e+00	0	34	0	1095761920	67	4967
2026-01-17 12:45:52.74	334.61	5.53	-48.2	-50.9	15.1	0.00e+00	0	34	0	1097859072	67	5092
2026-01-17 12:45:53.74	334.72	5.48	-48.2	-50.9	15.1	0.00e+00	0	35	0	1099956224	67	5059
2026-01-17 12:45:54.75	334.83	5.43	-47.9	-50.5	15.4	0.00e+00	0	35	0	1101004800	67	4855
2026-01-17 12:45:55.76	334.94	5.38	-47.8	-50.3	15.6	0.00e+00	0	35	0	1103101952	67	4734
2026-01-17 12:45:56.77	335.06	5.33	-48.1	-50.8	15.1	0.00e+00	0	34	0	1105199104	67	5020
2026-01-17 12:45:57.78	335.16	5.28	-47.9	-50.4	15.6	0.00e+00	0	35	0	1107296256	67	4786
2026-01-17 12:45:58.78	335.27	5.23	-48.4	-51.3	14.6	0.00e+00	0	35	0	1108344832	67	5316
2026-01-17 12:45:59.79	335.38	5.18	-48.4	-51.2	14.8	7.00e-07	0	34	0	1110441984	67	5267
2026-01-17 12:46:00.80	335.49	5.13	-48.1	-50.6	15.4	0.00e+00	0	34	0	1112539136	67	4911
2026-01-17 12:46:01.81	335.60	5.08	-48.2	-50.9	15.2	0.00e+00	0	34	0	1114636288	67	5069
2026-01-17 12:46:02.82	335.71	5.03	-48.8	-51.9	14.3	1.50e-06	0	34	0	1116733440	68	5367
2026-01-17 12:46:03.82	335.81	4.98	-51.9	-61.0	5.6	3.28e-02	0	35	0	1118830592	74	10837
2026-01-17 12:46:04.83	335.92	4.93	-52.8	-67.8	3.8	1.49e+00	0	35	104	1118830592	76	21126
2026-01-17 12:46:05.84	336.03	4.88	-53.0	-68.0	3.8	1.49e+00	0	35	104	1118830592	76	21679
2026-01-17 12:46:06.85	336.14	4.82	-53.2	-68.2	3.8	1.49e+00	0	35	104	1118830592	76	22137
2026-01-17 12:46:07.86	336.24	4.77	-53.3	-68.4	3.8	1.49e+00	0	35	104	1118830592	77	21269
2026-01-17 12:46:08.87	336.35	4.72	-53.4	-68.5	3.8	1.49e+00	0	35	104	1118830592	77	21518
2026-01-17 12:46:09.88	336.45	4.67	-53.5	-68.5	3.8	1.49e+00	0	35	104	1118830592	77	21730
2026-01-17 12:46:10.89	336.56	4.62	-53.6	-68.7	3.8	1.49e+00	0	35	104	1118830592	77	22057
2026-01-17 12:46:11.90	336.66	4.57	-53.7	-68.7	3.8	1.49e+00	0	35	104	1118830592	77	22153
2026-01-17 12:46:12.90	336.77	4.52	-53.8	-68.8	3.8	1.49e+00	0	35	104	1118830592	78	21113
2026-01-17 12:46:13.91	336.87	4.47	-53.8	-68.8	3.8	1.49e+00	0	35	104	1118830592	78	21244
2026-01-17 12:46:14.92	336.98	4.42	-53.8	-68.9	3.8	1.49e+00	0	35	104	1118830592	78	21291
2026-01-17 12:46:15.93	337.08	4.37	-53.8	-68.9	3.8	1.49e+00	0	35	104	1118830592	78	21309
2026-01-17 12:46:16.94	337.18	4.32	-53.9	-68.9	3.8	1.49e+00	0	35	104	1118830592	78	21339
2026-01-17 12:46:17.95	337.29	4.27	-53.9	-68.9	3.8	1.49e+00	0	35	104	1118830592	78	21402
2026-01-17 12:46:18.96	337.39	4.22	-53.9	-68.9	3.8	1.49e+00	0	35	104	1118830592	78	21405
2026-01-17 12:46:19.97	337.49	4.17	-53.9	-68.9	3.8	1.49e+00	0	34	104	1118830592	78	21399
2026-01-17 12:46:20.98	337.59	4.12	-53.9	-68.9	3.8	1.49e+00	0	35	104	1118830592	78	21378
2026-01-17 12:46:21.98	337.69	4.07	-53.9	-68.9	3.8	1.49e+00	0	35	104	1118830592	78	21419
2026-01-17 12:46:22.99	337.79	4.02	-53.9	-68.9	3.8	1.49e+00	0	35	104	1118830592	78	21361
2026-01-17 12:46:24.00	337.90	3.97	-53.9	-68.9	3.8	1.49e+00	0	35	104	1118830592	78	21356
2026-01-17 12:46:25.01	338.00	3.92	-53.9	-68.9	3.8	1.49e+00	0	35	104	1118830592	78	21377
2026-01-17 12:46:26.02	338.10	3.87	-53.8	-68.9	3.8	1.49e+00	0	35	104	1118830592	78	21322
2026-01-17 12:46:27.02	338.20	3.82	-53.8	-68.8	3.8	1.49e+00	0	34	104	1118830592	78	21221
2026-01-17 12:46:28.03	338.30	3.77	-53.8	-68.9	3.8	1.49e+00	0	35	104	1118830592	78	21261
2026-01-17 12:46:29.04	338.39	3.72	-53.8	-68.8	3.8	1.49e+00	0	35	104	1118830592	78	21215
2026-01-17 12:46:30.05	338.49	3.67	-53.8	-68.8	3.8	1.49e+00	0	35	104	1118830592	78	21187
2026-01-17 12:46:30.97	338.58	3.62	-53.8	-68.8	3.8	1.49e+00	0	34	104	1118830592	78	21217
2026-01-17 12:46:31.98	338.68	3.57	-53.8	-68.8	3.8	1.49e+00	0	35	104	1118830592	78	21210
2026-01-17 12:46:32.99	338.78	3.52	-53.8	-68.8	3.8	1.49e+00	0	35	104	1118830592	78	21208
2026-01-17 12:46:34.00	338.88	3.47	-53.8	-68.8	3.8	1.49e+00	0	35	104	1118830592	78	21198
2026-01-17 12:46:35.00	338.97	3.42	-53.8	-68.8	3.8	1.49e+00	0	35	104	1118830592	78	21186
2026-01-17 12:46:36.01	339.07	3.37	-53.8	-68.8	3.8	1.49e+00	0	35	104	1118830592	78	21159
2026-01-17 12:46:37.02	339.17	3.32	-53.8	-68.8	3.8	1.49e+00	0	34	104	1118830592	78	21112
2026-01-17 12:46:38.03	339.26	3.27	-53.8	-68.8	3.8	1.49e+00	0	35	104	1118830592	78	21190
2026-01-17 12:46:39.04	339.36	3.22	-53.8	-68.8	3.8	1.49e+00	0	35	104	1118830592	78	21083
2026-01-17 12:46:40.05	339.46	3.17	-53.8	-68.8	3.8	1.49e+00	0	35	104	1118830592	78	21118
2026-01-17 12:46:41.06	339.55	3.12	-53.8	-68.8	3.8	1.49e+00	0	35	104	1118830592	78	21101
2026-01-17 12:46:42.07	339.65	3.07	-53.8	-68.8	3.8	1.49e+00	0	34	104	1118830592	78	21078
2026-01-17 12:46:43.08	339.74	3.02	-53.7	-68.8	3.8	1.49e+00	0	35	104	1118830592	78	21102
2026-01-17 12:46:44.09	339.84	2.97	-53.7	-68.8	3.8	1.49e+00	0	35	104	1118830592	78	21119
2026-01-17 12:46:45.10	339.93	2.92	-53.7	-68.8	3.8	1.49e+00	0	35	104	1118830592	78	21105
2026-01-17 12:46:46.10	340.03	2.88	-53.7	-68.8	3.8	1.49e+00	0	35	104	1118830592	78	21082
2026-01-17 12:46:47.11	340.12	2.83	-53.7	-68.8	3.8	1.49e+00	0	35	104	1118830592	78	21063
2026-01-17 12:46:48.12	340.21	2.78	-53.7	-68.8	3.8	1.49e+00	0	35	104	1118830592	78	21046
2026-01-17 12:46:49.13	340.31	2.73	-53.7	-68.8	3.8	1.49e+00	0	35	104	1118830592	78	21138
2026-01-17 12:46:50.14	340.40	2.68	-53.7	-68.8	3.8	1.49e+00	0	35	104	1118830592	78	21067
