passes_logs/2026/01/17/R3.2S_Murmansk/R3.2S_Murmansk__20260117_021411_SUOMI_NPP_rec.log

#Pass ID: 20260117_021411_SUOMI NPP
#Satellite: SUOMI NPP
#Configuration: NPP
#almurnet v.1.7.20251203
#Start time: 2026-01-17 02:14:11

#Version: 2.2.20231116
#Station: R3.2S_Murmansk
#Location: 33.079688 lon 68.888172 lat
#TLE: 1 37849U 11061A   26015.94982489  .00000054  00000+0  46705-4 0  9991
#TLE: 2 37849  98.7812 317.9902 0002438  62.0366 298.1057 14.19525452736847

#Time	Az	El	Level	Level2	SNR	BER	BlckErr	Temp	State	Recorded	gain1	gain2
2026-01-17 02:14:11.84	31.75	2.00	-51.3	-66.2	3.8	1.49e+00	0	33	0	0	74	19833
2026-01-17 02:14:12.85	31.72	2.06	-51.3	-66.3	3.8	1.49e+00	0	33	104	0	73	21073
2026-01-17 02:14:13.86	31.69	2.13	-51.3	-66.2	3.8	1.49e+00	0	33	104	0	73	20977
2026-01-17 02:14:14.86	31.65	2.19	-51.3	-66.2	3.8	1.49e+00	0	33	104	0	73	20973
2026-01-17 02:14:15.87	31.62	2.25	-51.3	-66.2	3.8	1.49e+00	0	33	104	0	73	20951
2026-01-17 02:14:16.88	31.59	2.31	-51.3	-66.2	3.8	1.49e+00	0	33	104	0	73	20997
2026-01-17 02:14:17.89	31.56	2.38	-51.3	-66.2	3.8	1.49e+00	0	33	104	0	73	20894
2026-01-17 02:14:18.90	31.52	2.44	-51.3	-66.2	3.8	1.49e+00	0	33	104	0	73	20848
2026-01-17 02:14:19.91	31.49	2.51	-51.3	-66.2	3.8	1.49e+00	0	33	104	0	73	20808
2026-01-17 02:14:20.91	31.46	2.57	-51.3	-66.1	3.8	1.49e+00	0	33	104	0	73	20756
2026-01-17 02:14:21.92	31.43	2.63	-51.3	-66.1	3.8	1.49e+00	0	33	104	0	73	20638
2026-01-17 02:14:22.93	31.39	2.70	-51.3	-66.1	3.8	1.49e+00	0	33	104	0	73	20670
2026-01-17 02:14:23.94	31.36	2.76	-51.3	-66.2	3.8	1.49e+00	0	33	104	0	73	20795
2026-01-17 02:14:24.95	31.33	2.83	-51.3	-66.1	3.8	1.49e+00	0	33	104	0	73	20603
2026-01-17 02:14:25.96	31.29	2.89	-51.2	-66.0	3.8	1.49e+00	0	33	104	0	73	20413
2026-01-17 02:14:26.97	31.26	2.96	-51.2	-65.8	3.8	1.49e+00	0	33	104	0	73	20054
2026-01-17 02:14:27.98	31.22	3.02	-51.2	-65.4	3.8	1.49e+00	0	33	104	0	73	19092
2026-01-17 02:14:28.98	31.19	3.08	-51.2	-65.1	3.8	1.49e+00	0	33	104	0	73	18432
2026-01-17 02:14:29.99	31.16	3.15	-51.2	-64.9	3.8	1.49e+00	0	33	104	0	73	17937
2026-01-17 02:14:31.00	31.12	3.21	-51.2	-65.2	3.8	1.49e+00	0	33	104	0	73	18583
2026-01-17 02:14:32.01	31.09	3.28	-51.2	-65.1	3.8	1.49e+00	0	33	104	0	73	18313
2026-01-17 02:14:33.02	31.05	3.35	-51.2	-64.8	3.8	1.49e+00	0	33	104	0	73	17787
2026-01-17 02:14:34.03	31.02	3.41	-51.2	-64.8	3.8	1.49e+00	0	33	104	0	73	17840
2026-01-17 02:14:35.03	30.98	3.48	-51.2	-65.2	3.8	1.49e+00	0	33	104	0	73	18555
2026-01-17 02:14:36.04	30.95	3.54	-51.2	-65.6	3.8	1.49e+00	0	33	104	0	73	19533
2026-01-17 02:14:37.05	30.91	3.61	-51.3	-66.0	3.8	1.49e+00	0	33	104	0	73	20337
2026-01-17 02:14:38.06	30.87	3.67	-51.3	-65.9	3.8	1.49e+00	0	33	104	0	73	20175
2026-01-17 02:14:39.07	30.84	3.74	-51.2	-65.2	3.8	1.49e+00	0	33	104	0	73	18690
2026-01-17 02:14:40.08	30.80	3.81	-51.2	-64.1	3.8	1.49e+00	0	33	104	0	73	16324
2026-01-17 02:14:41.08	30.77	3.87	-51.1	-62.6	4.2	1.49e+00	0	33	104	0	73	13780
2026-01-17 02:14:42.09	30.73	3.94	-50.9	-60.9	4.9	1.22e+00	0	33	0	1048576	73	11332
2026-01-17 02:14:43.10	30.69	4.01	-50.6	-58.6	6.3	3.62e-01	0	33	0	3145728	73	8755
2026-01-17 02:14:44.11	30.66	4.08	-50.4	-57.5	7.4	1.46e-01	0	33	0	4194304	72	8103
2026-01-17 02:14:45.12	30.62	4.14	-50.0	-55.8	9.1	4.82e-02	0	33	0	6291456	71	7110
2026-01-17 02:14:46.13	30.58	4.21	-50.2	-56.7	8.2	1.37e-02	0	33	0	8388608	71	7887
2026-01-17 02:14:47.14	30.54	4.28	-49.6	-54.7	10.3	8.45e-03	0	33	0	10485760	71	6233
2026-01-17 02:14:48.15	30.51	4.35	-49.2	-53.6	11.5	1.70e-03	0	33	0	12582912	70	5849
2026-01-17 02:14:49.16	30.47	4.41	-49.8	-55.2	9.9	3.62e-03	0	33	0	13631488	70	6978
2026-01-17 02:14:50.17	30.43	4.48	-49.2	-53.7	11.4	1.49e-03	0	33	0	15728640	70	5894
2026-01-17 02:14:51.17	30.39	4.55	-49.4	-54.2	10.9	2.04e-03	0	33	0	17825792	70	6215
2026-01-17 02:14:52.18	30.35	4.62	-49.2	-53.7	11.4	2.35e-03	0	33	0	19922944	70	5893
2026-01-17 02:14:53.19	30.31	4.69	-49.5	-54.3	10.8	1.41e-03	0	33	0	22020096	70	6299
2026-01-17 02:14:54.20	30.28	4.75	-49.7	-55.0	10.1	2.21e-03	0	33	0	23068672	70	6861
2026-01-17 02:14:55.21	30.24	4.82	-50.0	-55.8	9.1	2.65e-02	0	33	0	25165824	70	7500
2026-01-17 02:14:56.22	30.20	4.89	-50.3	-57.2	7.9	5.37e-02	0	33	0	27262976	71	8284
2026-01-17 02:14:57.23	30.16	4.96	-50.4	-57.3	7.6	6.00e-02	0	33	0	29360128	71	8460
2026-01-17 02:14:58.24	30.12	5.03	-50.5	-57.8	7.1	9.52e-02	0	34	0	31457280	71	8955
2026-01-17 02:14:59.24	30.08	5.10	-50.4	-57.3	7.8	1.03e-01	0	33	0	32505856	71	8370
2026-01-17 02:15:00.25	30.04	5.17	-50.0	-55.2	10.4	2.39e-04	0	34	0	34603008	70	6973
2026-01-17 02:15:01.26	30.00	5.24	-50.7	-59.4	5.7	5.71e-01	0	33	0	36700160	72	10129
2026-01-17 02:15:02.27	29.96	5.31	-47.5	-50.0	15.6	0.00e+00	0	34	0	38797312	66	4830
2026-01-17 02:15:03.28	29.92	5.38	-51.2	-61.5	4.6	1.09e+00	52	34	0	39845888	73	12231
2026-01-17 02:15:04.29	29.88	5.45	-47.4	-49.9	15.8	0.00e+00	0	33	0	41943040	66	4781
2026-01-17 02:15:05.30	29.83	5.52	-47.5	-49.9	15.7	0.00e+00	0	34	0	44040192	66	4797
2026-01-17 02:15:06.30	29.79	5.59	-46.9	-49.1	16.6	0.00e+00	0	34	0	46137344	65	4643
2026-01-17 02:15:07.31	29.75	5.66	-47.0	-49.3	16.4	0.00e+00	0	33	0	47185920	65	4726
2026-01-17 02:15:08.32	29.71	5.73	-47.3	-49.7	16.0	0.00e+00	0	33	0	49283072	65	4965
2026-01-17 02:15:09.33	29.67	5.81	-47.1	-49.4	16.3	0.00e+00	0	34	0	51380224	65	4797
2026-01-17 02:15:10.34	29.62	5.88	-47.2	-49.6	16.2	0.00e+00	0	34	0	53477376	65	4875
2026-01-17 02:15:11.35	29.58	5.95	-47.0	-49.2	16.6	0.00e+00	0	34	0	55574528	65	4683
2026-01-17 02:15:12.36	29.54	6.02	-47.0	-49.2	16.5	0.00e+00	0	34	0	57671680	65	4681
2026-01-17 02:15:13.36	29.50	6.09	-46.9	-49.1	16.7	0.00e+00	0	34	0	58720256	65	4616
2026-01-17 02:15:14.37	29.45	6.16	-47.0	-49.2	16.6	0.00e+00	0	34	0	60817408	65	4697
2026-01-17 02:15:15.38	29.41	6.24	-46.9	-49.0	16.8	0.00e+00	0	34	0	62914560	65	4575
2026-01-17 02:15:16.39	29.37	6.31	-46.9	-49.1	16.7	0.00e+00	0	34	0	65011712	65	4629
2026-01-17 02:15:17.40	29.32	6.38	-46.9	-49.1	16.8	0.00e+00	0	34	0	66060288	65	4609
2026-01-17 02:15:18.41	29.28	6.45	-47.1	-49.4	16.4	0.00e+00	0	33	0	68157440	65	4780
2026-01-17 02:15:19.42	29.23	6.53	-46.6	-48.6	17.3	0.00e+00	0	34	0	70254592	65	4361
2026-01-17 02:15:20.43	29.19	6.60	-46.9	-49.0	16.8	0.00e+00	0	34	0	72351744	65	4584
2026-01-17 02:15:21.44	29.14	6.67	-46.9	-49.0	16.8	0.00e+00	0	34	0	74448896	65	4581
2026-01-17 02:15:22.45	29.10	6.75	-47.1	-49.3	16.6	0.00e+00	0	34	0	76546048	65	4736
2026-01-17 02:15:23.45	29.05	6.82	-46.9	-49.0	16.8	0.00e+00	0	34	0	77594624	65	4574
2026-01-17 02:15:24.46	29.01	6.90	-46.7	-48.8	17.0	0.00e+00	0	34	0	79691776	65	4472
2026-01-17 02:15:25.46	28.96	6.97	-47.1	-49.3	16.5	0.00e+00	0	34	0	81788928	65	4746
2026-01-17 02:15:26.47	28.92	7.04	-46.9	-49.0	16.9	0.00e+00	0	34	0	83886080	65	4581
2026-01-17 02:15:27.48	28.87	7.12	-47.1	-49.4	16.5	0.00e+00	0	34	0	85983232	65	4772
2026-01-17 02:15:28.49	28.82	7.19	-46.8	-48.8	17.1	0.00e+00	0	34	0	87031808	65	4478
2026-01-17 02:15:29.50	28.78	7.27	-46.9	-49.0	16.9	0.00e+00	0	34	0	89128960	65	4563
2026-01-17 02:15:30.50	28.73	7.34	-47.1	-49.3	16.6	0.00e+00	0	34	0	91226112	65	4737
2026-01-17 02:15:31.51	28.68	7.42	-46.9	-49.1	16.9	0.00e+00	0	34	0	93323264	65	4602
2026-01-17 02:15:32.52	28.63	7.49	-46.7	-48.7	17.2	0.00e+00	0	34	0	94371840	65	4438
2026-01-17 02:15:33.53	28.59	7.57	-47.1	-49.3	16.7	0.00e+00	0	34	0	96468992	65	4708
2026-01-17 02:15:34.54	28.54	7.65	-46.9	-49.0	17.0	0.00e+00	0	34	0	98566144	65	4553
2026-01-17 02:15:35.55	28.49	7.72	-46.9	-49.0	16.9	0.00e+00	0	34	0	100663296	65	4577
2026-01-17 02:15:36.55	28.44	7.80	-46.8	-48.8	17.1	0.00e+00	0	34	0	102760448	65	4487
2026-01-17 02:15:37.56	28.39	7.87	-46.7	-48.7	17.2	0.00e+00	0	34	0	104857600	64	4703
2026-01-17 02:15:38.57	28.34	7.95	-46.8	-48.9	17.0	0.00e+00	0	34	0	105906176	64	4796
2026-01-17 02:15:39.58	28.29	8.03	-46.7	-48.8	17.2	0.00e+00	0	34	0	108003328	64	4715
2026-01-17 02:15:40.59	28.24	8.11	-46.9	-49.0	17.0	0.00e+00	0	34	0	110100480	64	4844
2026-01-17 02:15:41.60	28.19	8.18	-46.7	-48.7	17.2	0.00e+00	0	34	0	112197632	64	4696
2026-01-17 02:15:42.61	28.14	8.26	-46.6	-48.7	17.3	0.00e+00	0	34	0	114294784	64	4661
2026-01-17 02:15:43.62	28.09	8.34	-46.7	-48.7	17.2	0.00e+00	0	34	0	115343360	64	4698
2026-01-17 02:15:44.62	28.04	8.42	-46.8	-48.9	17.1	0.00e+00	0	34	0	117440512	64	4785
2026-01-17 02:15:45.63	27.99	8.50	-46.9	-49.0	17.0	0.00e+00	0	34	0	119537664	64	4838
2026-01-17 02:15:46.64	27.94	8.57	-46.5	-48.5	17.5	0.00e+00	0	34	0	121634816	64	4573
2026-01-17 02:15:47.65	27.88	8.65	-46.8	-48.8	17.1	0.00e+00	0	34	0	123731968	64	4755
2026-01-17 02:15:48.66	27.83	8.73	-46.5	-48.5	17.5	0.00e+00	0	34	0	124780544	64	4576
2026-01-17 02:15:49.67	27.78	8.81	-46.7	-48.7	17.4	0.00e+00	0	34	0	126877696	64	4666
2026-01-17 02:15:50.68	27.73	8.89	-46.7	-48.7	17.3	0.00e+00	0	34	0	128974848	64	4678
2026-01-17 02:15:51.69	27.67	8.97	-47.0	-49.2	16.9	0.00e+00	0	34	0	131072000	64	4943
2026-01-17 02:15:52.70	27.62	9.05	-46.7	-48.7	17.3	0.00e+00	0	34	0	133169152	64	4704
2026-01-17 02:15:53.71	27.57	9.13	-46.7	-48.7	17.4	0.00e+00	0	34	0	134217728	64	4682
2026-01-17 02:15:54.71	27.51	9.21	-46.9	-48.9	17.1	0.00e+00	0	34	0	136314880	64	4810
2026-01-17 02:15:55.72	27.46	9.29	-46.4	-48.3	17.7	0.00e+00	0	34	0	138412032	64	4493
2026-01-17 02:15:56.73	27.40	9.37	-46.6	-48.6	17.5	0.00e+00	0	34	0	140509184	64	4612
2026-01-17 02:15:57.74	27.35	9.45	-46.3	-48.2	17.9	0.00e+00	0	34	0	142606336	64	4410
2026-01-17 02:15:58.74	27.29	9.53	-46.3	-48.2	17.8	0.00e+00	0	34	0	143654912	64	4425
2026-01-17 02:15:59.75	27.24	9.62	-46.5	-48.4	17.7	0.00e+00	0	34	0	145752064	64	4518
2026-01-17 02:16:00.76	27.18	9.70	-46.5	-48.4	17.6	0.00e+00	0	34	0	147849216	64	4543
2026-01-17 02:16:01.77	27.12	9.78	-46.4	-48.3	17.9	0.00e+00	0	34	0	149946368	64	4447
2026-01-17 02:16:02.78	27.07	9.86	-46.4	-48.3	17.8	0.00e+00	0	34	0	152043520	64	4474
2026-01-17 02:16:03.79	27.01	9.94	-46.4	-48.3	17.8	0.00e+00	0	34	0	153092096	64	4493
2026-01-17 02:16:04.80	26.95	10.03	-46.3	-48.2	17.9	0.00e+00	0	34	0	155189248	64	4418
2026-01-17 02:16:05.80	26.89	10.11	-46.3	-48.1	18.0	0.00e+00	0	34	0	157286400	64	4375
2026-01-17 02:16:06.81	26.84	10.19	-46.6	-48.5	17.6	0.00e+00	0	34	0	159383552	64	4592
2026-01-17 02:16:07.82	26.78	10.28	-46.5	-48.4	17.7	0.00e+00	0	34	0	161480704	64	4506
2026-01-17 02:16:08.83	26.72	10.36	-46.5	-48.4	17.7	0.00e+00	0	34	0	162529280	64	4509
2026-01-17 02:16:09.84	26.66	10.45	-46.5	-48.4	17.7	0.00e+00	0	34	0	164626432	64	4504
2026-01-17 02:16:10.85	26.60	10.53	-46.5	-48.4	17.8	0.00e+00	0	34	0	166723584	64	4511
2026-01-17 02:16:11.86	26.54	10.61	-46.4	-48.3	17.9	0.00e+00	0	34	0	168820736	64	4448
2026-01-17 02:16:12.86	26.48	10.70	-46.4	-48.2	17.9	0.00e+00	0	34	0	170917888	64	4420
2026-01-17 02:16:13.87	26.42	10.78	-46.3	-48.1	18.0	0.00e+00	0	34	0	171966464	64	4357
2026-01-17 02:16:14.88	26.36	10.87	-46.5	-48.4	17.7	0.00e+00	0	34	0	174063616	64	4520
2026-01-17 02:16:15.89	26.30	10.95	-46.1	-47.9	18.2	0.00e+00	0	34	0	176160768	64	4267
2026-01-17 02:16:16.90	26.23	11.04	-46.4	-48.3	17.8	0.00e+00	0	34	0	178257920	64	4471
2026-01-17 02:16:17.90	26.17	11.13	-46.3	-48.2	18.0	0.00e+00	0	34	0	180355072	64	4393
2026-01-17 02:16:18.91	26.11	11.21	-46.3	-48.1	18.1	0.00e+00	0	34	0	181403648	64	4369
2026-01-17 02:16:19.92	26.05	11.30	-46.4	-48.3	17.9	0.00e+00	0	34	0	183500800	64	4456
2026-01-17 02:16:20.93	25.98	11.39	-46.1	-47.8	18.3	0.00e+00	0	34	0	185597952	64	4209
2026-01-17 02:16:21.94	25.92	11.47	-46.4	-48.2	18.0	0.00e+00	0	34	0	187695104	63	4693
2026-01-17 02:16:22.94	25.85	11.56	-46.3	-48.0	18.2	0.00e+00	0	34	0	189792256	63	4585
2026-01-17 02:16:23.95	25.79	11.65	-46.0	-47.7	18.5	0.00e+00	0	34	0	191889408	63	4427
2026-01-17 02:16:24.96	25.72	11.74	-46.3	-48.1	18.2	0.00e+00	0	34	0	192937984	63	4607
2026-01-17 02:16:25.97	25.66	11.82	-46.2	-47.9	18.3	0.00e+00	0	34	0	195035136	63	4515
2026-01-17 02:16:26.98	25.59	11.91	-46.2	-48.0	18.3	0.00e+00	0	34	0	197132288	63	4557
2026-01-17 02:16:27.99	25.53	12.00	-46.3	-48.1	18.2	0.00e+00	0	34	0	199229440	63	4633
2026-01-17 02:16:29.00	25.46	12.09	-46.1	-47.8	18.5	0.00e+00	0	34	0	200278016	63	4453
2026-01-17 02:16:30.01	25.39	12.18	-46.2	-47.9	18.4	0.00e+00	0	34	0	202375168	63	4512
2026-01-17 02:16:31.02	25.32	12.27	-46.4	-48.2	18.2	0.00e+00	0	34	0	204472320	63	4665
2026-01-17 02:16:32.02	25.26	12.36	-46.2	-47.9	18.4	0.00e+00	0	34	0	206569472	63	4510
2026-01-17 02:16:33.03	25.19	12.45	-46.2	-47.9	18.4	0.00e+00	0	34	0	208666624	63	4525
2026-01-17 02:16:34.04	25.12	12.54	-46.3	-48.0	18.3	0.00e+00	0	34	0	209715200	63	4569
2026-01-17 02:16:35.05	25.05	12.63	-46.5	-48.3	18.0	0.00e+00	0	34	0	211812352	63	4748
2026-01-17 02:16:36.06	24.98	12.72	-46.4	-48.2	18.1	0.00e+00	0	34	0	213909504	63	4700
2026-01-17 02:16:37.07	24.91	12.81	-46.3	-48.1	18.2	0.00e+00	0	34	0	216006656	63	4637
2026-01-17 02:16:38.07	24.84	12.91	-46.6	-48.5	17.9	0.00e+00	0	34	0	218103808	63	4836
2026-01-17 02:16:39.08	24.77	13.00	-46.4	-48.2	18.2	0.00e+00	0	34	0	220200960	63	4667
2026-01-17 02:16:40.09	24.70	13.09	-46.2	-48.0	18.4	0.00e+00	0	34	0	221249536	63	4573
2026-01-17 02:16:41.10	24.62	13.18	-46.4	-48.2	18.1	0.00e+00	0	34	0	223346688	63	4686
2026-01-17 02:16:42.11	24.55	13.28	-46.4	-48.2	18.2	0.00e+00	0	34	0	225443840	63	4660
2026-01-17 02:16:43.12	24.48	13.37	-46.4	-48.2	18.1	0.00e+00	0	34	0	227540992	63	4684
2026-01-17 02:16:44.12	24.40	13.46	-46.4	-48.2	18.2	0.00e+00	0	34	0	228589568	63	4657
2026-01-17 02:16:45.13	24.33	13.56	-46.3	-48.1	18.3	0.00e+00	0	34	0	230686720	63	4607
2026-01-17 02:16:46.14	24.26	13.65	-46.2	-48.0	18.4	0.00e+00	0	34	0	232783872	63	4556
2026-01-17 02:16:47.15	24.18	13.75	-46.3	-48.0	18.3	0.00e+00	0	34	0	234881024	63	4587
2026-01-17 02:16:48.16	24.10	13.84	-46.5	-48.3	18.1	0.00e+00	0	34	0	236978176	63	4716
2026-01-17 02:16:49.16	24.03	13.93	-46.2	-48.0	18.3	0.00e+00	0	34	0	239075328	63	4560
2026-01-17 02:16:50.17	23.95	14.03	-46.4	-48.2	18.3	0.00e+00	0	34	0	240123904	63	4669
2026-01-17 02:16:51.18	23.87	14.13	-46.2	-48.0	18.4	0.00e+00	0	34	0	242221056	63	4565
2026-01-17 02:16:52.19	23.80	14.22	-46.2	-47.9	18.5	0.00e+00	0	34	0	244318208	63	4515
2026-01-17 02:16:53.20	23.72	14.32	-46.1	-47.7	18.6	0.00e+00	0	34	0	246415360	63	4438
2026-01-17 02:16:54.21	23.64	14.42	-46.2	-48.0	18.4	0.00e+00	0	34	0	248512512	63	4563
2026-01-17 02:16:55.21	23.56	14.51	-46.2	-47.9	18.5	0.00e+00	0	34	0	249561088	63	4530
2026-01-17 02:16:56.22	23.48	14.61	-46.1	-47.8	18.6	0.00e+00	0	34	0	251658240	63	4469
2026-01-17 02:16:57.23	23.40	14.71	-46.0	-47.7	18.8	0.00e+00	0	34	0	253755392	63	4398
2026-01-17 02:16:58.24	23.32	14.81	-46.2	-47.9	18.6	0.00e+00	0	34	0	255852544	63	4529
2026-01-17 02:16:59.25	23.24	14.90	-46.1	-47.8	18.6	0.00e+00	0	34	0	257949696	63	4480
2026-01-17 02:17:00.26	23.16	15.00	-46.1	-47.8	18.7	0.00e+00	0	34	0	258998272	63	4450
2026-01-17 02:17:01.27	23.07	15.10	-46.0	-47.7	18.8	0.00e+00	0	34	0	261095424	63	4415
2026-01-17 02:17:02.28	22.99	15.20	-46.2	-47.8	18.6	0.00e+00	0	34	0	263192576	63	4488
2026-01-17 02:17:03.29	22.91	15.30	-46.2	-48.0	18.5	0.00e+00	0	34	0	265289728	63	4548
2026-01-17 02:17:04.29	22.82	15.40	-46.3	-48.0	18.5	0.00e+00	0	34	0	267386880	63	4564
2026-01-17 02:17:05.30	22.74	15.50	-46.1	-47.8	18.7	0.00e+00	0	34	0	268435456	63	4443
2026-01-17 02:17:06.31	22.65	15.60	-46.2	-47.9	18.6	0.00e+00	0	34	0	270532608	63	4536
2026-01-17 02:17:07.32	22.56	15.70	-46.1	-47.8	18.7	0.00e+00	0	34	0	272629760	63	4456
2026-01-17 02:17:08.33	22.48	15.81	-46.1	-47.7	18.7	0.00e+00	0	34	0	274726912	63	4418
2026-01-17 02:17:09.34	22.39	15.91	-46.2	-47.9	18.6	0.00e+00	0	34	0	276824064	63	4497
2026-01-17 02:17:10.34	22.30	16.01	-46.2	-47.9	18.6	0.00e+00	0	34	0	277872640	63	4514
2026-01-17 02:17:11.35	22.21	16.11	-46.0	-47.6	18.9	0.00e+00	0	34	0	279969792	63	4380
2026-01-17 02:17:12.36	22.12	16.21	-46.0	-47.7	18.8	0.00e+00	0	34	0	282066944	63	4401
2026-01-17 02:17:13.37	22.03	16.32	-46.1	-47.8	18.7	0.00e+00	0	34	0	284164096	63	4472
2026-01-17 02:17:14.38	21.94	16.42	-46.2	-47.8	18.6	0.00e+00	0	34	0	286261248	63	4487
2026-01-17 02:17:15.39	21.85	16.53	-45.8	-47.4	19.0	0.00e+00	0	34	0	287309824	63	4269
2026-01-17 02:17:16.40	21.76	16.63	-45.9	-47.6	18.9	0.00e+00	0	34	0	289406976	63	4343
2026-01-17 02:17:17.41	21.67	16.74	-45.8	-47.3	19.1	0.00e+00	0	34	0	291504128	63	4232
2026-01-17 02:17:18.42	21.57	16.84	-45.7	-47.3	19.1	0.00e+00	0	34	0	293601280	63	4219
2026-01-17 02:17:19.42	21.48	16.95	-45.8	-47.4	19.1	0.00e+00	0	34	0	295698432	63	4258
2026-01-17 02:17:20.43	21.39	17.05	-45.8	-47.4	19.0	0.00e+00	0	34	0	296747008	63	4262
2026-01-17 02:17:21.44	21.29	17.16	-45.7	-47.3	19.1	0.00e+00	0	34	0	298844160	63	4197
2026-01-17 02:17:22.45	21.19	17.27	-45.9	-47.5	18.9	0.00e+00	0	34	0	300941312	63	4320
2026-01-17 02:17:23.46	21.10	17.37	-45.8	-47.3	19.1	0.00e+00	0	34	0	303038464	63	4224
2026-01-17 02:17:24.47	21.00	17.48	-45.8	-47.3	19.2	0.00e+00	0	34	0	305135616	63	4230
2026-01-17 02:17:25.48	20.90	17.59	-45.9	-47.5	19.0	0.00e+00	0	34	0	307232768	63	4302
2026-01-17 02:17:26.49	20.80	17.70	-46.0	-47.7	18.8	0.00e+00	0	34	0	308281344	63	4408
2026-01-17 02:17:27.50	20.70	17.80	-46.1	-47.8	18.7	0.00e+00	0	34	0	310378496	63	4478
2026-01-17 02:17:28.50	20.60	17.91	-45.9	-47.5	18.9	0.00e+00	0	34	0	312475648	63	4318
2026-01-17 02:17:29.51	20.50	18.02	-46.3	-47.9	18.6	0.00e+00	0	34	0	314572800	63	4538
2026-01-17 02:17:30.52	20.40	18.13	-46.4	-48.2	18.3	0.00e+00	0	34	0	315621376	63	4675
2026-01-17 02:17:31.53	20.30	18.24	-46.3	-48.0	18.6	0.00e+00	0	34	0	317718528	63	4551
2026-01-17 02:17:32.54	20.19	18.35	-46.3	-48.0	18.6	0.00e+00	0	34	0	319815680	63	4561
2026-01-17 02:17:33.54	20.09	18.46	-46.3	-48.0	18.5	0.00e+00	0	34	0	321912832	63	4574
2026-01-17 02:17:34.55	19.98	18.57	-46.4	-48.1	18.5	0.00e+00	0	34	0	324009984	63	4633
2026-01-17 02:17:35.56	19.88	18.69	-46.4	-48.2	18.3	0.00e+00	0	34	0	326107136	63	4664
2026-01-17 02:17:36.57	19.77	18.80	-46.3	-48.0	18.6	0.00e+00	0	34	0	327155712	63	4548
2026-01-17 02:17:37.58	19.66	18.91	-46.4	-48.1	18.5	0.00e+00	0	34	0	329252864	63	4627
2026-01-17 02:17:38.59	19.56	19.02	-46.5	-48.2	18.4	0.00e+00	0	34	0	331350016	63	4660
2026-01-17 02:17:39.60	19.45	19.14	-46.4	-48.1	18.5	0.00e+00	0	34	0	333447168	63	4608
2026-01-17 02:17:40.60	19.34	19.25	-46.5	-48.2	18.4	0.00e+00	0	34	0	335544320	63	4684
2026-01-17 02:17:41.61	19.23	19.37	-46.2	-47.8	18.7	0.00e+00	0	34	0	336592896	64	4240
2026-01-17 02:17:42.62	19.11	19.48	-46.4	-48.2	18.4	0.00e+00	0	34	0	338690048	64	4395
2026-01-17 02:17:43.63	19.00	19.60	-46.9	-48.7	17.8	0.00e+00	0	34	0	340787200	64	4700
2026-01-17 02:17:44.64	18.89	19.71	-46.7	-48.4	18.1	0.00e+00	0	34	0	342884352	64	4540
2026-01-17 02:17:45.64	18.77	19.83	-46.6	-48.4	18.2	0.00e+00	0	34	0	343932928	64	4498
2026-01-17 02:17:46.65	18.66	19.94	-46.6	-48.4	18.2	0.00e+00	0	34	0	346030080	64	4514
2026-01-17 02:17:47.66	18.54	20.06	-46.8	-48.6	18.0	0.00e+00	0	34	0	348127232	64	4610
2026-01-17 02:17:48.67	18.43	20.18	-46.7	-48.5	18.1	0.00e+00	0	34	0	350224384	64	4560
2026-01-17 02:17:49.68	18.31	20.29	-46.8	-48.6	18.1	0.00e+00	0	34	0	352321536	64	4616
2026-01-17 02:17:50.68	18.19	20.41	-46.8	-48.6	18.0	0.00e+00	0	34	0	354418688	64	4627
2026-01-17 02:17:51.69	18.07	20.53	-47.1	-49.0	17.7	0.00e+00	0	34	0	355467264	64	4837
2026-01-17 02:17:52.70	17.95	20.65	-46.7	-48.5	18.2	0.00e+00	0	34	0	357564416	64	4566
2026-01-17 02:17:53.71	17.83	20.77	-46.6	-48.3	18.4	0.00e+00	0	34	0	359661568	64	4444
2026-01-17 02:17:54.72	17.70	20.89	-46.4	-48.0	18.6	0.00e+00	0	34	0	361758720	64	4318
2026-01-17 02:17:55.72	17.58	21.01	-46.4	-48.0	18.6	0.00e+00	0	34	0	363855872	64	4326
2026-01-17 02:17:56.73	17.46	21.13	-46.2	-47.8	18.8	0.00e+00	0	34	0	364904448	64	4215
2026-01-17 02:17:57.74	17.33	21.25	-46.1	-47.7	19.0	0.00e+00	0	34	0	367001600	63	4425
2026-01-17 02:17:58.75	17.20	21.37	-46.2	-47.8	19.0	0.00e+00	0	34	0	369098752	63	4442
2026-01-17 02:17:59.76	17.08	21.49	-46.4	-48.1	18.7	0.00e+00	0	34	0	371195904	63	4615
2026-01-17 02:18:00.76	16.95	21.61	-46.3	-47.9	18.9	0.00e+00	0	34	0	373293056	63	4498
2026-01-17 02:18:01.77	16.82	21.73	-46.2	-47.7	19.0	0.00e+00	0	34	0	374341632	63	4440
2026-01-17 02:18:02.78	16.69	21.86	-46.4	-48.0	18.7	0.00e+00	0	34	0	376438784	63	4586
2026-01-17 02:18:03.79	16.56	21.98	-46.6	-48.2	18.5	0.00e+00	0	34	0	378535936	63	4705
2026-01-17 02:18:04.80	16.42	22.11	-46.5	-48.2	18.5	0.00e+00	0	34	0	380633088	63	4692
2026-01-17 02:18:05.81	16.29	22.23	-46.7	-48.5	18.2	0.00e+00	0	34	0	382730240	64	4563
2026-01-17 02:18:06.82	16.15	22.36	-46.5	-48.3	18.4	0.00e+00	0	34	0	383778816	64	4454
2026-01-17 02:18:07.83	16.02	22.48	-46.7	-48.4	18.2	0.00e+00	0	34	0	385875968	64	4542
2026-01-17 02:18:08.84	15.88	22.61	-46.7	-48.5	18.2	0.00e+00	0	34	0	387973120	64	4557
2026-01-17 02:18:09.84	15.74	22.73	-46.5	-48.2	18.4	0.00e+00	0	34	0	390070272	64	4429
2026-01-17 02:18:10.85	15.60	22.86	-46.3	-48.0	18.6	0.00e+00	0	34	0	392167424	64	4324
2026-01-17 02:18:11.86	15.46	22.99	-46.4	-48.1	18.5	0.00e+00	0	34	0	393216000	64	4366
2026-01-17 02:18:12.87	15.32	23.11	-46.4	-48.1	18.5	0.00e+00	0	34	0	395313152	64	4375
2026-01-17 02:18:13.88	15.17	23.24	-46.5	-48.2	18.4	0.00e+00	0	34	0	397410304	64	4432
2026-01-17 02:18:14.88	15.03	23.37	-46.5	-48.3	18.4	0.00e+00	0	34	0	399507456	64	4459
2026-01-17 02:18:15.89	14.88	23.50	-46.9	-48.8	17.9	0.00e+00	0	34	0	401604608	64	4734
2026-01-17 02:18:16.90	14.74	23.63	-46.7	-48.5	18.2	0.00e+00	0	34	0	402653184	64	4558
2026-01-17 02:18:17.91	14.59	23.76	-46.8	-48.7	17.9	0.00e+00	0	34	0	404750336	64	4676
2026-01-17 02:18:18.92	14.44	23.89	-47.1	-49.0	17.7	0.00e+00	0	34	0	406847488	65	4580
2026-01-17 02:18:19.93	14.29	24.02	-47.1	-49.1	17.6	0.00e+00	0	34	0	408944640	65	4606
2026-01-17 02:18:20.94	14.14	24.15	-47.1	-49.1	17.6	0.00e+00	0	34	0	411041792	65	4606
2026-01-17 02:18:21.94	13.98	24.28	-47.4	-49.4	17.3	0.00e+00	0	34	0	412090368	65	4793
2026-01-17 02:18:22.95	13.83	24.41	-47.3	-49.3	17.5	0.00e+00	0	34	0	414187520	65	4714
2026-01-17 02:18:23.96	13.67	24.54	-47.3	-49.3	17.4	0.00e+00	0	34	0	416284672	65	4742
2026-01-17 02:18:24.97	13.52	24.67	-46.8	-48.6	18.0	0.00e+00	0	34	0	418381824	65	4358
2026-01-17 02:18:25.98	13.36	24.81	-46.6	-48.4	18.3	0.00e+00	0	34	0	420478976	65	4260
2026-01-17 02:18:26.98	13.20	24.94	-46.6	-48.4	18.3	0.00e+00	0	34	0	421527552	64	4495
2026-01-17 02:18:27.99	13.04	25.07	-46.6	-48.3	18.3	0.00e+00	0	34	0	423624704	64	4492
2026-01-17 02:18:29.00	12.87	25.21	-46.5	-48.2	18.5	0.00e+00	0	34	0	425721856	64	4414
2026-01-17 02:18:30.01	12.71	25.34	-46.5	-48.3	18.4	0.00e+00	0	34	0	427819008	64	4450
2026-01-17 02:18:31.02	12.54	25.48	-46.5	-48.3	18.3	0.00e+00	0	34	0	429916160	64	4484
2026-01-17 02:18:32.03	12.37	25.61	-46.8	-48.6	18.0	0.00e+00	0	34	0	430964736	64	4641
2026-01-17 02:18:33.04	12.21	25.75	-46.8	-48.7	18.0	0.00e+00	0	34	0	433061888	64	4684
2026-01-17 02:18:34.04	12.04	25.89	-46.8	-48.6	18.0	0.00e+00	0	34	0	435159040	64	4645
2026-01-17 02:18:35.05	11.87	26.02	-46.9	-48.8	17.7	0.00e+00	0	34	0	437256192	64	4745
2026-01-17 02:18:36.06	11.69	26.16	-46.9	-48.8	17.9	0.00e+00	0	34	0	439353344	64	4719
2026-01-17 02:18:37.07	11.52	26.30	-46.9	-48.9	17.9	0.00e+00	0	34	0	441450496	64	4760
2026-01-17 02:18:38.08	11.34	26.44	-46.6	-48.4	18.3	0.00e+00	0	34	0	442499072	64	4531
2026-01-17 02:18:39.08	11.16	26.57	-46.5	-48.2	18.5	0.00e+00	0	34	0	444596224	64	4407
2026-01-17 02:18:40.09	10.98	26.71	-46.4	-48.1	18.6	0.00e+00	0	34	0	446693376	64	4372
2026-01-17 02:18:41.10	10.80	26.85	-46.5	-48.2	18.5	0.00e+00	0	34	0	448790528	64	4405
2026-01-17 02:18:42.11	10.62	26.99	-46.6	-48.3	18.4	0.00e+00	0	34	0	449839104	64	4486
2026-01-17 02:18:43.12	10.44	27.13	-46.5	-48.2	18.4	0.00e+00	0	34	0	451936256	64	4440
2026-01-17 02:18:44.12	10.25	27.27	-46.8	-48.6	18.1	0.00e+00	0	34	0	454033408	64	4629
2026-01-17 02:18:45.13	10.06	27.41	-47.2	-49.2	17.6	0.00e+00	0	34	0	456130560	64	4941
2026-01-17 02:18:46.14	9.87	27.55	-46.9	-48.7	18.1	0.00e+00	0	34	0	458227712	65	4403
2026-01-17 02:18:47.15	9.68	27.70	-46.6	-48.3	18.3	0.00e+00	0	34	0	460324864	65	4242
2026-01-17 02:18:48.16	9.49	27.84	-46.6	-48.3	18.4	0.00e+00	0	34	0	461373440	65	4228
2026-01-17 02:18:49.16	9.30	27.98	-46.9	-48.7	18.0	0.00e+00	0	34	0	463470592	65	4415
2026-01-17 02:18:50.17	9.10	28.12	-47.2	-49.2	17.6	0.00e+00	0	34	0	465567744	65	4680
2026-01-17 02:18:51.18	8.90	28.26	-47.2	-49.1	17.6	0.00e+00	0	34	0	467664896	65	4637
2026-01-17 02:18:52.18	8.70	28.41	-47.6	-49.7	17.1	0.00e+00	0	34	0	469762048	65	4951
2026-01-17 02:18:53.19	8.50	28.55	-48.0	-50.5	16.3	0.00e+00	0	34	0	470810624	66	5115
2026-01-17 02:18:54.20	8.30	28.69	-47.7	-49.9	16.8	0.00e+00	0	34	0	472907776	66	4804
2026-01-17 02:18:55.21	8.09	28.84	-47.6	-49.7	17.1	0.00e+00	0	34	0	475004928	66	4676
2026-01-17 02:18:56.22	7.89	28.98	-47.4	-49.4	17.4	0.00e+00	0	34	0	477102080	66	4535
2026-01-17 02:18:57.23	7.68	29.13	-47.5	-49.6	17.2	0.00e+00	0	34	0	478150656	66	4620
2026-01-17 02:18:58.24	7.46	29.27	-47.3	-49.3	17.5	0.00e+00	0	34	0	480247808	66	4445
2026-01-17 02:18:59.25	7.25	29.42	-47.4	-49.4	17.4	0.00e+00	0	34	0	482344960	66	4539
2026-01-17 02:19:00.26	7.04	29.57	-47.6	-49.6	17.2	0.00e+00	0	34	0	484442112	66	4639
2026-01-17 02:19:01.27	6.82	29.71	-47.8	-50.0	16.8	0.00e+00	0	34	0	486539264	66	4849
2026-01-17 02:19:02.27	6.60	29.86	-47.8	-50.0	16.8	0.00e+00	0	34	0	488636416	66	4864
2026-01-17 02:19:03.28	6.38	30.00	-47.9	-50.2	16.7	0.00e+00	0	34	0	489684992	66	4950
2026-01-17 02:19:04.29	6.16	30.15	-48.2	-50.6	16.4	0.00e+00	0	34	0	491782144	67	4872
2026-01-17 02:19:05.30	5.93	30.30	-48.1	-50.4	16.5	0.00e+00	0	34	0	493879296	67	4776
2026-01-17 02:19:06.31	5.70	30.45	-48.0	-50.2	16.7	0.00e+00	0	34	0	495976448	67	4698
2026-01-17 02:19:07.32	5.47	30.60	-47.9	-50.1	16.8	0.00e+00	0	34	0	498073600	67	4642
2026-01-17 02:19:08.32	5.24	30.74	-47.9	-50.1	16.8	0.00e+00	0	34	0	499122176	67	4600
2026-01-17 02:19:09.33	5.01	30.89	-48.0	-50.2	16.6	0.00e+00	0	34	0	501219328	67	4673
2026-01-17 02:19:10.35	4.77	31.04	-48.0	-50.2	16.7	0.00e+00	0	34	0	503316480	67	4695
2026-01-17 02:19:11.36	4.53	31.19	-48.4	-50.9	16.0	0.00e+00	0	34	0	505413632	67	5043
2026-01-17 02:19:12.36	4.30	31.34	-48.7	-51.4	15.7	0.00e+00	0	34	0	507510784	68	5043
2026-01-17 02:19:13.37	4.05	31.49	-48.8	-51.5	15.6	0.00e+00	0	34	0	508559360	68	5111
2026-01-17 02:19:14.38	3.81	31.64	-49.2	-52.3	14.7	0.00e+00	0	34	0	510656512	69	5281
2026-01-17 02:19:15.39	3.56	31.78	-48.8	-51.5	15.5	0.00e+00	0	34	0	512753664	69	4854
2026-01-17 02:19:16.40	3.31	31.93	-48.8	-51.5	15.6	7.00e-07	0	34	0	514850816	69	4831
2026-01-17 02:19:17.40	3.06	32.08	-48.8	-51.4	15.6	0.00e+00	0	34	0	516947968	69	4796
2026-01-17 02:19:18.41	2.81	32.23	-48.7	-51.4	15.6	0.00e+00	0	34	0	517996544	68	5062
2026-01-17 02:19:19.42	2.55	32.38	-48.9	-51.7	15.3	0.00e+00	0	34	0	520093696	68	5242
2026-01-17 02:19:20.43	2.29	32.53	-48.6	-51.2	15.8	0.00e+00	0	34	0	522190848	68	4942
2026-01-17 02:19:21.44	2.03	32.68	-48.9	-51.6	15.4	0.00e+00	0	34	0	524288000	68	5212
2026-01-17 02:19:22.45	1.76	32.83	-48.5	-50.9	16.0	0.00e+00	0	34	0	526385152	68	4802
2026-01-17 02:19:23.46	1.50	32.98	-48.6	-51.0	16.0	0.00e+00	0	34	0	528482304	68	4839
2026-01-17 02:19:24.47	1.23	33.13	-48.6	-51.0	16.0	0.00e+00	0	34	0	529530880	68	4822
2026-01-17 02:19:25.47	0.96	33.28	-48.7	-51.2	15.8	0.00e+00	0	34	0	531628032	68	4949
2026-01-17 02:19:26.48	0.69	33.43	-48.9	-51.6	15.5	0.00e+00	0	34	0	533725184	68	5184
2026-01-17 02:19:27.49	0.41	33.58	-49.0	-51.7	15.4	0.00e+00	0	34	0	535822336	68	5261
2026-01-17 02:19:28.50	0.13	33.73	-49.3	-52.4	14.8	7.00e-07	0	34	0	536870912	69	5341
2026-01-17 02:19:29.51	359.85	33.88	-49.3	-52.2	14.8	0.00e+00	0	34	0	538968064	69	5257
2026-01-17 02:19:30.52	359.56	34.03	-49.0	-51.7	15.3	7.00e-07	0	34	0	541065216	69	4965
2026-01-17 02:19:31.53	359.28	34.18	-48.7	-51.2	15.9	0.00e+00	0	34	0	543162368	69	4684
2026-01-17 02:19:32.54	358.99	34.33	-47.6	-49.5	17.5	0.00e+00	0	34	0	545259520	67	4319
2026-01-17 02:19:33.55	358.69	34.48	-47.3	-49.2	17.7	0.00e+00	0	34	0	547356672	66	4407
2026-01-17 02:19:34.55	358.40	34.63	-46.6	-48.2	18.6	0.00e+00	0	34	0	548405248	65	4189
2026-01-17 02:19:35.56	358.10	34.78	-46.8	-48.5	18.5	0.00e+00	0	34	0	550502400	64	4564
2026-01-17 02:19:36.57	357.80	34.93	-46.4	-48.0	18.8	0.00e+00	0	34	0	552599552	64	4325
2026-01-17 02:19:37.58	357.50	35.08	-46.3	-47.9	18.9	0.00e+00	0	34	0	554696704	64	4255
2026-01-17 02:19:38.59	357.19	35.23	-46.6	-48.2	18.7	0.00e+00	0	34	0	556793856	64	4437
2026-01-17 02:19:39.60	356.88	35.38	-46.9	-48.7	18.3	0.00e+00	0	34	0	557842432	64	4669
2026-01-17 02:19:40.61	356.57	35.52	-47.0	-48.9	18.0	0.00e+00	0	34	0	559939584	65	4524
2026-01-17 02:19:41.62	356.25	35.67	-47.4	-49.4	17.6	0.00e+00	0	34	0	562036736	65	4764
2026-01-17 02:19:42.62	355.94	35.82	-47.4	-49.4	17.5	0.00e+00	0	34	0	564133888	65	4802
2026-01-17 02:19:43.63	355.62	35.97	-47.5	-49.5	17.3	0.00e+00	0	34	0	565182464	65	4853
2026-01-17 02:19:44.64	355.30	36.11	-47.7	-49.8	17.0	0.00e+00	0	34	0	567279616	65	5028
2026-01-17 02:19:45.65	354.97	36.26	-48.0	-50.4	16.5	0.00e+00	0	34	0	569376768	66	5063
2026-01-17 02:19:46.66	354.64	36.41	-48.4	-51.1	15.9	0.00e+00	0	34	0	571473920	67	5161
2026-01-17 02:19:47.66	354.31	36.55	-48.8	-51.6	15.5	0.00e+00	0	34	0	573571072	68	5214
2026-01-17 02:19:48.67	353.97	36.70	-48.6	-51.2	15.9	0.00e+00	0	34	0	575668224	68	4950
2026-01-17 02:19:49.68	353.63	36.84	-48.1	-50.3	16.7	0.00e+00	0	34	0	576716800	68	4484
2026-01-17 02:19:50.69	353.29	36.99	-47.2	-49.0	17.8	0.00e+00	0	34	0	578813952	66	4334
2026-01-17 02:19:51.70	352.95	37.13	-47.4	-49.3	17.7	0.00e+00	0	34	0	580911104	66	4443
2026-01-17 02:19:52.70	352.60	37.27	-47.5	-49.5	17.5	0.00e+00	0	34	0	583008256	66	4574
2026-01-17 02:19:53.71	352.25	37.41	-48.1	-50.4	16.6	0.00e+00	0	34	0	585105408	66	5043
2026-01-17 02:19:54.72	351.90	37.56	-48.8	-51.5	15.6	0.00e+00	0	34	0	586153984	68	5107
2026-01-17 02:19:55.73	351.54	37.70	-48.9	-51.6	15.5	0.00e+00	0	34	0	588251136	68	5170
2026-01-17 02:19:56.74	351.18	37.84	-48.9	-51.7	15.3	0.00e+00	0	34	0	590348288	68	5271
2026-01-17 02:19:57.75	350.82	37.98	-48.8	-51.5	15.6	0.00e+00	0	34	0	592445440	68	5135
2026-01-17 02:19:58.76	350.45	38.12	-48.9	-51.7	15.4	0.00e+00	0	34	0	594542592	68	5264
2026-01-17 02:19:59.77	350.08	38.25	-48.7	-51.4	15.7	0.00e+00	0	34	0	595591168	68	5066
2026-01-17 02:20:00.78	349.71	38.39	-48.9	-51.7	15.4	0.00e+00	0	34	0	597688320	68	5229
2026-01-17 02:20:01.78	349.34	38.53	-48.7	-51.3	15.7	0.00e+00	0	34	0	599785472	68	5019
2026-01-17 02:20:02.79	348.96	38.66	-48.5	-51.1	16.0	0.00e+00	0	34	0	601882624	68	4882
2026-01-17 02:20:03.80	348.57	38.80	-48.2	-50.5	16.4	0.00e+00	0	34	0	603979776	68	4575
2026-01-17 02:20:04.81	348.19	38.93	-47.7	-49.8	17.1	0.00e+00	0	34	0	605028352	67	4488
2026-01-17 02:20:05.82	347.80	39.07	-47.3	-49.2	17.6	0.00e+00	0	34	0	607125504	66	4441
2026-01-17 02:20:06.82	347.41	39.20	-47.2	-49.1	17.8	0.00e+00	0	34	0	609222656	66	4384
2026-01-17 02:20:07.83	347.02	39.33	-47.4	-49.3	17.6	0.00e+00	0	34	0	611319808	66	4489
2026-01-17 02:20:08.84	346.62	39.46	-46.7	-48.4	18.4	0.00e+00	0	34	0	613416960	65	4256
2026-01-17 02:20:09.85	346.22	39.59	-46.5	-48.2	18.7	0.00e+00	0	34	0	614465536	65	4168
2026-01-17 02:20:10.86	345.81	39.71	-46.4	-48.1	18.8	0.00e+00	0	34	0	616562688	64	4375
2026-01-17 02:20:11.86	345.41	39.84	-46.3	-47.9	19.1	0.00e+00	0	34	0	618659840	64	4254
2026-01-17 02:20:12.87	344.99	39.96	-46.6	-48.3	18.6	0.00e+00	0	34	0	620756992	64	4447
2026-01-17 02:20:13.88	344.58	40.09	-47.3	-49.3	17.7	0.00e+00	0	34	0	622854144	65	4741
2026-01-17 02:20:14.89	344.16	40.21	-47.5	-49.6	17.4	0.00e+00	0	34	0	623902720	65	4889
2026-01-17 02:20:15.89	343.75	40.33	-47.4	-49.4	17.5	0.00e+00	0	34	0	625999872	65	4804
2026-01-17 02:20:16.90	343.32	40.45	-47.1	-49.0	17.9	0.00e+00	0	34	0	628097024	65	4549
2026-01-17 02:20:17.91	342.89	40.57	-46.3	-47.9	18.9	0.00e+00	0	34	0	630194176	64	4268
2026-01-17 02:20:18.92	342.46	40.69	-46.0	-47.5	19.2	0.00e+00	0	34	0	632291328	64	4091
2026-01-17 02:20:19.93	342.03	40.80	-46.2	-47.8	19.1	0.00e+00	0	34	0	633339904	64	4227
2026-01-17 02:20:20.94	341.59	40.92	-46.7	-48.5	18.5	0.00e+00	0	34	0	635437056	64	4565
2026-01-17 02:20:21.94	341.16	41.03	-46.3	-48.0	18.9	0.00e+00	0	34	0	637534208	64	4336
2026-01-17 02:20:22.95	340.72	41.14	-46.1	-47.7	19.1	0.00e+00	0	34	0	639631360	64	4163
2026-01-17 02:20:23.96	340.27	41.25	-45.7	-47.2	19.7	0.00e+00	0	34	0	641728512	63	4168
2026-01-17 02:20:24.97	339.82	41.36	-45.5	-47.0	19.9	0.00e+00	0	34	0	642777088	62	4299
2026-01-17 02:20:25.98	339.37	41.46	-45.5	-47.0	19.9	0.00e+00	0	34	0	644874240	62	4329
2026-01-17 02:20:26.99	338.92	41.57	-46.5	-48.3	18.7	0.00e+00	0	34	0	646971392	63	4706
2026-01-17 02:20:28.00	338.46	41.67	-47.2	-49.3	17.4	0.00e+00	0	34	0	649068544	65	4749
2026-01-17 02:20:29.00	338.00	41.77	-47.5	-49.7	17.2	0.00e+00	0	34	0	651165696	65	4973
2026-01-17 02:20:30.01	337.54	41.87	-47.2	-49.3	17.5	0.00e+00	0	34	0	652214272	65	4726
2026-01-17 02:20:31.02	337.07	41.97	-46.3	-48.1	18.7	0.00e+00	0	34	0	654311424	64	4344
2026-01-17 02:20:32.03	336.60	42.06	-45.8	-47.3	19.5	0.00e+00	0	34	0	656408576	63	4227
2026-01-17 02:20:33.04	336.13	42.15	-45.8	-47.3	19.6	0.00e+00	0	34	0	658505728	63	4213
2026-01-17 02:20:34.05	335.66	42.24	-45.6	-47.1	19.7	0.00e+00	0	34	0	660602880	63	4133
2026-01-17 02:20:35.06	335.18	42.33	-45.7	-47.3	19.6	0.00e+00	0	34	0	662700032	63	4195
2026-01-17 02:20:36.06	334.70	42.42	-45.6	-47.1	19.7	0.00e+00	0	34	0	663748608	63	4140
2026-01-17 02:20:37.07	334.22	42.51	-45.5	-47.0	19.8	0.00e+00	0	34	0	665845760	62	4301
2026-01-17 02:20:38.08	333.74	42.59	-45.2	-46.6	20.2	0.00e+00	0	34	0	667942912	62	4116
2026-01-17 02:20:39.09	333.25	42.67	-45.4	-46.8	20.0	0.00e+00	0	34	0	670040064	62	4238
2026-01-17 02:20:40.10	332.76	42.75	-46.0	-47.6	19.3	0.00e+00	0	34	0	671088640	62	4625
2026-01-17 02:20:41.11	332.27	42.82	-47.0	-48.9	18.0	0.00e+00	0	34	0	673185792	64	4801
2026-01-17 02:20:42.12	331.77	42.90	-47.5	-49.7	17.2	0.00e+00	0	34	0	675282944	66	4676
2026-01-17 02:20:43.12	331.28	42.97	-47.4	-49.5	17.5	0.00e+00	0	34	0	677380096	66	4563
2026-01-17 02:20:44.13	330.78	43.04	-46.8	-48.6	18.3	0.00e+00	0	34	0	679477248	65	4370
2026-01-17 02:20:45.14	330.28	43.11	-46.3	-47.9	18.9	0.00e+00	0	34	0	680525824	64	4281
2026-01-17 02:20:46.15	329.77	43.17	-46.5	-48.2	19.0	0.00e+00	0	34	0	682622976	63	4655
2026-01-17 02:20:47.16	329.27	43.23	-47.3	-49.3	17.8	0.00e+00	0	34	0	684720128	65	4732
2026-01-17 02:20:48.17	328.76	43.30	-47.6	-49.6	17.3	0.00e+00	0	34	0	686817280	66	4622
2026-01-17 02:20:49.18	328.25	43.35	-46.8	-48.6	18.4	0.00e+00	0	34	0	688914432	65	4359
2026-01-17 02:20:50.18	327.75	43.41	-46.1	-47.6	19.5	0.00e+00	0	34	0	691011584	63	4354
2026-01-17 02:20:51.19	327.23	43.46	-46.2	-47.7	19.2	0.00e+00	0	34	0	692060160	63	4440
2026-01-17 02:20:52.20	326.72	43.51	-46.6	-48.3	18.8	0.00e+00	0	34	0	694157312	63	4726
2026-01-17 02:20:53.21	326.20	43.56	-47.0	-48.8	18.1	0.00e+00	0	34	0	696254464	64	4732
2026-01-17 02:20:54.22	325.69	43.60	-47.6	-49.7	17.4	0.00e+00	0	34	0	698351616	65	4947
2026-01-17 02:20:55.23	325.17	43.65	-48.0	-50.3	16.7	0.00e+00	0	34	0	699400192	66	5032
2026-01-17 02:20:56.24	324.65	43.69	-47.9	-50.1	16.8	0.00e+00	0	34	0	701497344	67	4640
2026-01-17 02:20:57.24	324.13	43.72	-46.9	-48.7	18.2	0.00e+00	0	34	0	703594496	65	4410
2026-01-17 02:20:58.25	323.61	43.76	-46.1	-47.7	19.3	0.00e+00	0	34	0	705691648	64	4150
2026-01-17 02:20:59.26	323.08	43.79	-46.1	-47.7	19.2	0.00e+00	0	34	0	707788800	64	4174
2026-01-17 02:21:00.27	322.56	43.82	-47.2	-49.2	17.8	0.00e+00	0	34	0	709885952	65	4701
2026-01-17 02:21:01.28	322.03	43.85	-47.8	-50.0	17.0	0.00e+00	0	34	0	710934528	66	4861
2026-01-17 02:21:02.29	321.50	43.87	-47.6	-49.8	17.2	0.00e+00	0	34	0	713031680	66	4709
2026-01-17 02:21:03.30	320.98	43.89	-47.4	-49.5	17.5	0.00e+00	0	34	0	715128832	66	4571
2026-01-17 02:21:04.30	320.45	43.91	-47.3	-49.3	17.7	0.00e+00	0	34	0	717225984	66	4464
2026-01-17 02:21:05.31	319.93	43.93	-47.6	-49.8	17.3	0.00e+00	0	34	0	719323136	66	4723
2026-01-17 02:21:06.32	319.40	43.94	-47.9	-50.2	17.0	0.00e+00	0	34	0	720371712	66	4968
2026-01-17 02:21:07.33	318.87	43.95	-47.8	-50.0	17.0	0.00e+00	0	34	0	722468864	67	4576
2026-01-17 02:21:08.34	318.34	43.96	-47.8	-50.0	16.9	0.00e+00	0	34	0	724566016	67	4598
2026-01-17 02:21:09.34	317.81	43.96	-47.5	-49.6	17.3	0.00e+00	0	34	0	726663168	67	4389
2026-01-17 02:21:10.35	317.28	43.96	-47.1	-49.0	17.9	0.00e+00	0	34	0	728760320	66	4323
2026-01-17 02:21:11.36	316.75	43.96	-47.4	-49.5	17.5	0.00e+00	0	34	0	729808896	66	4576
2026-01-17 02:21:12.37	316.22	43.96	-47.9	-50.3	16.8	0.00e+00	0	34	0	731906048	66	5012
2026-01-17 02:21:13.38	315.69	43.96	-48.4	-51.2	15.9	0.00e+00	0	34	0	734003200	67	5220
2026-01-17 02:21:14.39	315.16	43.95	-48.0	-50.4	16.5	0.00e+00	0	34	0	736100352	67	4806
2026-01-17 02:21:15.40	314.63	43.93	-47.0	-48.9	18.0	0.00e+00	0	34	0	738197504	66	4284
2026-01-17 02:21:16.41	314.10	43.92	-47.0	-48.8	18.1	0.00e+00	0	34	0	739246080	65	4490
2026-01-17 02:21:17.41	313.58	43.90	-47.4	-49.4	17.7	0.00e+00	0	34	0	741343232	65	4783
2026-01-17 02:21:18.42	313.05	43.88	-47.6	-49.8	17.3	0.00e+00	0	34	0	743440384	65	4994
2026-01-17 02:21:19.43	312.52	43.86	-48.0	-50.3	16.7	0.00e+00	0	34	0	745537536	66	5030
2026-01-17 02:21:20.44	312.00	43.84	-48.5	-51.2	15.8	0.00e+00	0	34	0	747634688	67	5272
2026-01-17 02:21:21.44	311.47	43.81	-49.0	-52.0	15.2	0.00e+00	0	34	0	748683264	68	5416
2026-01-17 02:21:22.45	310.95	43.78	-49.1	-52.1	14.9	0.00e+00	0	34	0	750780416	68	5527
2026-01-17 02:21:23.46	310.43	43.75	-49.0	-52.0	15.2	0.00e+00	0	34	0	752877568	68	5447
2026-01-17 02:21:24.47	309.90	43.71	-48.7	-51.5	15.7	0.00e+00	0	34	0	754974720	68	5144
2026-01-17 02:21:25.48	309.38	43.67	-48.4	-50.9	16.1	0.00e+00	0	34	0	757071872	68	4812
2026-01-17 02:21:26.48	308.87	43.63	-48.4	-50.9	16.3	0.00e+00	0	34	0	758120448	68	4763
2026-01-17 02:21:27.49	308.35	43.59	-48.7	-51.3	15.7	0.00e+00	0	34	0	760217600	68	5025
2026-01-17 02:21:28.50	307.83	43.54	-49.3	-52.4	14.7	0.00e+00	0	34	0	762314752	69	5369
2026-01-17 02:21:29.51	307.31	43.49	-48.8	-51.6	15.5	0.00e+00	0	34	0	764411904	69	4881
2026-01-17 02:21:30.52	306.80	43.44	-48.2	-50.7	16.4	0.00e+00	0	34	0	766509056	68	4672
2026-01-17 02:21:31.53	306.29	43.39	-48.5	-51.2	15.9	0.00e+00	0	34	0	767557632	67	5230
2026-01-17 02:21:32.54	305.78	43.33	-48.7	-51.5	15.6	0.00e+00	0	34	0	769654784	68	5159
2026-01-17 02:21:33.55	305.27	43.27	-48.8	-51.7	15.1	0.00e+00	0	34	0	771751936	69	4978
2026-01-17 02:21:34.55	304.77	43.21	-48.8	-51.6	15.4	0.00e+00	0	35	0	773849088	69	4915
2026-01-17 02:21:35.56	304.26	43.15	-49.0	-51.9	15.3	0.00e+00	0	34	0	775946240	69	5086
2026-01-17 02:21:36.57	303.76	43.08	-49.0	-52.0	15.1	0.00e+00	0	35	0	778043392	69	5133
2026-01-17 02:21:37.58	303.26	43.01	-48.8	-51.6	15.4	0.00e+00	0	34	0	779091968	69	4911
2026-01-17 02:21:38.59	302.76	42.94	-48.3	-51.0	15.9	0.00e+00	0	34	0	781189120	68	4820
2026-01-17 02:21:39.60	302.26	42.87	-48.7	-51.7	15.3	0.00e+00	0	34	0	783286272	68	5219
2026-01-17 02:21:40.61	301.77	42.80	-48.2	-50.8	16.1	0.00e+00	0	34	0	785383424	68	4739
2026-01-17 02:21:41.62	301.28	42.72	-47.0	-49.0	17.8	0.00e+00	0	34	0	786432000	66	4327
2026-01-17 02:21:42.62	300.79	42.64	-46.3	-48.0	18.8	0.00e+00	0	34	0	788529152	64	4296
2026-01-17 02:21:43.63	300.30	42.56	-46.4	-48.2	18.8	0.00e+00	0	34	0	790626304	64	4409
2026-01-17 02:21:44.64	299.82	42.47	-46.4	-48.1	18.7	0.00e+00	0	34	0	792723456	64	4388
2026-01-17 02:21:45.65	299.34	42.39	-46.7	-48.6	18.4	0.00e+00	0	34	0	794820608	64	4609
2026-01-17 02:21:46.66	298.86	42.30	-46.1	-47.7	19.2	0.00e+00	0	34	0	796917760	64	4161
2026-01-17 02:21:47.67	298.38	42.21	-46.1	-47.7	19.2	0.00e+00	0	34	0	797966336	64	4160
2026-01-17 02:21:48.67	297.91	42.12	-45.3	-46.7	20.2	0.00e+00	0	34	0	800063488	62	4179
2026-01-17 02:21:49.68	297.44	42.03	-44.7	-46.0	20.8	0.00e+00	0	34	0	802160640	61	4077
2026-01-17 02:21:50.69	296.97	41.93	-45.0	-46.3	20.5	0.00e+00	0	34	0	804257792	61	4217
2026-01-17 02:21:51.70	296.51	41.83	-45.7	-47.2	19.8	0.00e+00	0	34	0	806354944	61	4688
2026-01-17 02:21:52.70	296.05	41.73	-45.7	-47.2	19.7	0.00e+00	0	34	0	807403520	62	4426
2026-01-17 02:21:53.71	295.59	41.63	-45.5	-46.9	20.0	0.00e+00	0	34	0	809500672	62	4271
2026-01-17 02:21:54.72	295.13	41.53	-44.9	-46.2	20.6	0.00e+00	0	34	0	811597824	61	4173
2026-01-17 02:21:55.73	294.68	41.42	-45.0	-46.3	20.5	0.00e+00	0	34	0	813694976	61	4241
2026-01-17 02:21:56.74	294.23	41.32	-45.0	-46.4	20.4	0.00e+00	0	34	0	814743552	61	4258
2026-01-17 02:21:57.75	293.78	41.21	-45.4	-46.9	20.0	0.00e+00	0	34	0	816840704	61	4512
2026-01-17 02:21:58.76	293.33	41.10	-46.1	-47.7	19.3	0.00e+00	0	34	0	818937856	62	4666
2026-01-17 02:21:59.77	292.89	40.98	-46.0	-47.6	19.4	0.00e+00	0	34	0	821035008	63	4385
2026-01-17 02:22:00.78	292.45	40.87	-45.9	-47.4	19.6	0.00e+00	0	34	0	823132160	63	4284
2026-01-17 02:22:01.78	292.02	40.76	-45.1	-46.4	20.5	0.00e+00	0	34	0	825229312	62	4032
2026-01-17 02:22:02.79	291.59	40.64	-44.7	-45.9	20.9	0.00e+00	0	34	0	826277888	61	4036
2026-01-17 02:22:03.80	291.16	40.52	-44.5	-45.7	21.1	0.00e+00	0	34	0	828375040	60	4156
2026-01-17 02:22:04.81	290.73	40.40	-44.4	-45.6	21.3	0.00e+00	0	34	0	830472192	60	4103
2026-01-17 02:22:05.82	290.31	40.28	-44.5	-45.7	21.1	0.00e+00	0	34	0	832569344	60	4179
2026-01-17 02:22:06.83	289.89	40.16	-44.8	-46.1	20.8	0.00e+00	0	34	0	834666496	60	4347
2026-01-17 02:22:07.83	289.47	40.04	-45.4	-46.8	20.2	0.00e+00	0	34	0	835715072	61	4459
2026-01-17 02:22:08.84	289.06	39.91	-45.2	-46.6	20.4	0.00e+00	0	34	0	837812224	61	4346
2026-01-17 02:22:09.85	288.65	39.79	-45.0	-46.3	20.4	0.00e+00	0	34	0	839909376	61	4209
2026-01-17 02:22:10.86	288.24	39.66	-45.2	-46.5	20.5	0.00e+00	0	34	0	842006528	61	4323
2026-01-17 02:22:11.87	287.84	39.53	-45.1	-46.5	20.4	0.00e+00	0	34	0	844103680	61	4292
2026-01-17 02:22:12.88	287.44	39.40	-44.7	-46.0	20.8	0.00e+00	0	34	0	845152256	61	4075
2026-01-17 02:22:13.89	287.04	39.27	-44.5	-45.7	21.1	0.00e+00	0	34	0	847249408	60	4188
2026-01-17 02:22:14.89	286.65	39.14	-44.9	-46.2	20.7	0.00e+00	0	34	0	849346560	60	4410
2026-01-17 02:22:15.90	286.26	39.01	-46.0	-47.5	19.6	0.00e+00	0	34	0	851443712	62	4593
2026-01-17 02:22:16.91	285.87	38.88	-45.5	-47.0	20.0	0.00e+00	0	34	0	853540864	62	4312
2026-01-17 02:22:17.92	285.48	38.74	-44.8	-46.1	20.7	0.00e+00	0	34	0	854589440	61	4133
2026-01-17 02:22:18.93	285.10	38.61	-44.5	-45.7	21.1	0.00e+00	0	34	0	856686592	61	3944
2026-01-17 02:22:19.93	284.73	38.47	-44.3	-45.4	21.5	0.00e+00	0	34	0	858783744	60	4028
2026-01-17 02:22:20.94	284.35	38.33	-44.4	-45.6	21.3	0.00e+00	0	34	0	860880896	60	4099
2026-01-17 02:22:21.95	283.98	38.20	-44.5	-45.7	21.2	0.00e+00	0	34	0	862978048	60	4179
2026-01-17 02:22:22.96	283.61	38.06	-44.8	-46.0	20.9	0.00e+00	0	34	0	864026624	60	4318
2026-01-17 02:22:23.97	283.24	37.92	-45.5	-46.9	20.0	0.00e+00	0	34	0	866123776	61	4533
2026-01-17 02:22:24.98	282.88	37.78	-46.2	-47.8	19.3	0.00e+00	0	34	0	868220928	63	4475
2026-01-17 02:22:25.99	282.52	37.64	-46.5	-48.2	18.9	0.00e+00	0	34	0	870318080	63	4682
2026-01-17 02:22:27.00	282.16	37.49	-46.0	-47.5	19.6	0.00e+00	0	35	0	872415232	63	4293
2026-01-17 02:22:28.01	281.81	37.35	-45.8	-47.3	19.8	0.00e+00	0	34	0	873463808	63	4208
2026-01-17 02:22:29.01	281.46	37.21	-45.8	-47.3	19.8	0.00e+00	0	34	0	875560960	63	4195
2026-01-17 02:22:30.02	281.12	37.07	-46.4	-48.0	19.2	0.00e+00	0	34	0	877658112	63	4557
2026-01-17 02:22:31.03	280.77	36.92	-46.4	-48.0	19.2	0.00e+00	0	34	0	879755264	63	4574
2026-01-17 02:22:32.04	280.43	36.78	-46.1	-47.6	19.5	0.00e+00	0	34	0	881852416	63	4341
2026-01-17 02:22:33.05	280.09	36.63	-45.7	-47.1	20.0	0.00e+00	0	34	0	883949568	63	4103
2026-01-17 02:22:34.05	279.76	36.49	-46.2	-47.7	19.4	0.00e+00	0	34	0	884998144	63	4432
2026-01-17 02:22:35.06	279.43	36.34	-46.6	-48.3	18.7	0.00e+00	0	34	0	887095296	64	4465
2026-01-17 02:22:36.07	279.10	36.20	-46.5	-48.0	19.0	0.00e+00	0	34	0	889192448	64	4336
2026-01-17 02:22:37.08	278.77	36.05	-46.1	-47.6	19.4	0.00e+00	0	34	0	891289600	64	4109
2026-01-17 02:22:38.09	278.45	35.90	-46.5	-48.1	19.0	0.00e+00	0	34	0	892338176	64	4346
2026-01-17 02:22:39.10	278.13	35.75	-47.1	-48.9	18.2	0.00e+00	0	34	0	894435328	64	4795
2026-01-17 02:22:40.10	277.81	35.61	-47.3	-49.2	17.9	0.00e+00	0	34	0	896532480	65	4664
2026-01-17 02:22:41.11	277.50	35.46	-46.6	-48.3	18.8	0.00e+00	0	34	0	898629632	65	4214
2026-01-17 02:22:42.12	277.19	35.31	-46.6	-48.2	19.0	0.00e+00	0	34	0	900726784	64	4397
2026-01-17 02:22:43.13	276.88	35.16	-46.6	-48.2	18.8	0.00e+00	0	34	0	901775360	64	4432
2026-01-17 02:22:44.14	276.57	35.01	-46.2	-47.7	19.3	0.00e+00	0	34	0	903872512	64	4155
2026-01-17 02:22:45.15	276.27	34.86	-45.6	-46.9	20.1	0.00e+00	0	34	0	905969664	63	4025
2026-01-17 02:22:46.16	275.97	34.71	-45.3	-46.6	20.4	0.00e+00	0	34	0	908066816	62	4117
2026-01-17 02:22:47.16	275.68	34.56	-45.7	-47.0	20.1	0.00e+00	0	34	0	910163968	62	4305
2026-01-17 02:22:48.17	275.38	34.41	-46.4	-47.9	19.2	0.00e+00	0	34	0	912261120	63	4511
2026-01-17 02:22:49.18	275.09	34.26	-47.5	-49.4	17.8	0.00e+00	0	34	0	913309696	65	4760
2026-01-17 02:22:50.19	274.80	34.11	-47.5	-49.4	17.6	0.00e+00	0	34	0	915406848	65	4773
2026-01-17 02:22:51.20	274.51	33.96	-47.2	-49.0	18.1	0.00e+00	0	34	0	917504000	65	4564
2026-01-17 02:22:52.21	274.23	33.81	-46.8	-48.4	18.6	0.00e+00	0	34	0	919601152	65	4273
2026-01-17 02:22:53.21	273.95	33.66	-47.0	-48.7	18.5	0.00e+00	0	34	0	920649728	65	4425
2026-01-17 02:22:54.22	273.67	33.51	-47.6	-49.5	17.6	0.00e+00	0	34	0	922746880	65	4848
2026-01-17 02:22:55.23	273.39	33.36	-48.1	-50.2	16.9	0.00e+00	0	34	0	924844032	66	4969
2026-01-17 02:22:56.24	273.12	33.21	-48.5	-50.8	16.4	0.00e+00	0	34	0	926941184	67	5021
2026-01-17 02:22:57.25	272.85	33.06	-49.3	-52.0	15.2	0.00e+00	0	34	0	929038336	69	5157
2026-01-17 02:22:58.26	272.58	32.91	-50.2	-53.8	13.5	3.00e-06	0	34	0	931135488	70	5981
2026-01-17 02:22:59.27	272.31	32.76	-50.9	-55.5	11.6	8.39e-05	0	34	0	932184064	72	6440
2026-01-17 02:23:00.27	272.05	32.61	-51.1	-55.9	11.2	1.28e-03	0	34	0	934281216	72	6788
2026-01-17 02:23:01.28	271.79	32.46	-50.1	-53.6	13.5	7.55e-05	0	34	0	936378368	72	5218
2026-01-17 02:23:02.29	271.53	32.31	-49.1	-51.7	15.5	0.00e+00	0	34	0	938475520	70	4681
2026-01-17 02:23:03.30	271.28	32.16	-48.9	-51.4	15.8	0.00e+00	0	34	0	940572672	69	4785
2026-01-17 02:23:04.31	271.02	32.01	-49.2	-51.9	15.4	0.00e+00	0	34	0	941621248	69	5078
2026-01-17 02:23:05.32	270.77	31.86	-49.4	-52.3	14.9	0.00e+00	0	34	0	943718400	69	5301
2026-01-17 02:23:06.32	270.52	31.71	-49.7	-52.7	14.7	0.00e+00	0	34	0	945815552	70	5231
2026-01-17 02:23:07.33	270.28	31.56	-50.1	-53.4	13.8	1.50e-06	0	34	0	947912704	70	5711
2026-01-17 02:23:08.34	270.03	31.41	-49.8	-52.9	14.4	2.20e-06	0	34	0	948961280	70	5388
2026-01-17 02:23:09.35	269.79	31.26	-49.0	-51.6	15.6	0.00e+00	0	34	0	951058432	69	4894
2026-01-17 02:23:10.36	269.55	31.11	-48.5	-50.8	16.3	0.00e+00	0	34	0	953155584	69	4478
2026-01-17 02:23:11.37	269.31	30.96	-48.3	-50.5	16.7	0.00e+00	0	34	0	955252736	68	4546
2026-01-17 02:23:12.38	269.07	30.81	-48.2	-50.3	16.8	0.00e+00	0	34	0	957349888	68	4492
2026-01-17 02:23:13.39	268.84	30.67	-47.9	-49.9	17.2	0.00e+00	0	34	0	959447040	67	4543
2026-01-17 02:23:14.39	268.61	30.52	-48.3	-50.5	16.5	0.00e+00	0	34	0	960495616	67	4865
2026-01-17 02:23:15.40	268.38	30.37	-48.5	-50.9	16.2	0.00e+00	0	34	0	962592768	67	5098
2026-01-17 02:23:16.41	268.16	30.22	-49.0	-51.5	15.6	0.00e+00	0	34	0	964689920	68	5156
2026-01-17 02:23:17.42	267.93	30.08	-48.8	-51.2	15.9	0.00e+00	0	34	0	966787072	68	4974
2026-01-17 02:23:18.43	267.71	29.93	-48.8	-51.3	15.8	0.00e+00	0	34	0	968884224	68	5020
2026-01-17 02:23:19.44	267.49	29.78	-48.6	-50.9	16.3	0.00e+00	0	34	0	969932800	68	4766
2026-01-17 02:23:20.44	267.27	29.64	-48.1	-50.2	16.9	0.00e+00	0	34	0	972029952	68	4422
2026-01-17 02:23:21.45	267.05	29.49	-47.4	-49.3	17.8	0.00e+00	0	34	0	974127104	66	4449
2026-01-17 02:23:22.46	266.84	29.34	-47.4	-49.3	17.8	0.00e+00	0	34	0	976224256	66	4447
2026-01-17 02:23:23.47	266.62	29.20	-47.5	-49.4	17.6	0.00e+00	0	34	0	978321408	66	4544
2026-01-17 02:23:24.48	266.41	29.05	-47.6	-49.6	17.5	0.00e+00	0	34	0	979369984	66	4601
2026-01-17 02:23:25.49	266.20	28.91	-47.3	-49.1	17.8	0.00e+00	0	34	0	981467136	66	4372
2026-01-17 02:23:26.50	266.00	28.76	-47.3	-49.1	17.9	0.00e+00	0	34	0	983564288	66	4364
2026-01-17 02:23:27.51	265.79	28.62	-46.9	-48.7	18.3	0.00e+00	0	34	0	985661440	65	4401
2026-01-17 02:23:28.52	265.59	28.47	-46.8	-48.5	18.4	0.00e+00	0	34	0	987758592	65	4318
2026-01-17 02:23:29.52	265.39	28.33	-46.9	-48.6	18.3	0.00e+00	0	34	0	988807168	65	4391
2026-01-17 02:23:30.53	265.19	28.19	-46.8	-48.5	18.4	0.00e+00	0	34	0	990904320	65	4317
2026-01-17 02:23:31.54	264.99	28.04	-46.8	-48.5	18.5	0.00e+00	0	34	0	993001472	65	4300
2026-01-17 02:23:32.55	264.79	27.90	-47.1	-48.9	18.0	0.00e+00	0	34	0	995098624	65	4541
2026-01-17 02:23:33.56	264.60	27.76	-47.4	-49.4	17.5	0.00e+00	0	34	0	997195776	65	4787
2026-01-17 02:23:34.56	264.41	27.62	-47.3	-49.3	17.7	0.00e+00	0	34	0	999292928	65	4716
2026-01-17 02:23:35.57	264.22	27.47	-47.2	-49.0	17.8	0.00e+00	0	34	0	1000341504	65	4585
2026-01-17 02:23:36.58	264.03	27.33	-47.3	-49.2	17.8	0.00e+00	0	34	0	1002438656	65	4692
2026-01-17 02:23:37.59	263.84	27.19	-47.3	-49.2	17.7	0.00e+00	0	34	0	1004535808	65	4698
2026-01-17 02:23:38.60	263.65	27.05	-47.1	-48.9	18.0	0.00e+00	0	34	0	1006632960	65	4531
2026-01-17 02:23:39.61	263.47	26.91	-47.3	-49.2	17.7	0.00e+00	0	34	0	1007681536	65	4698
2026-01-17 02:23:40.61	263.29	26.77	-47.2	-49.1	17.9	0.00e+00	0	34	0	1009778688	65	4628
2026-01-17 02:23:41.62	263.11	26.63	-47.1	-48.9	18.1	0.00e+00	0	34	0	1011875840	65	4510
2026-01-17 02:23:42.63	262.93	26.49	-46.8	-48.5	18.4	0.00e+00	0	34	0	1013972992	65	4308
2026-01-17 02:23:43.64	262.75	26.35	-47.1	-48.9	18.2	0.00e+00	0	34	0	1016070144	65	4510
2026-01-17 02:23:44.64	262.57	26.22	-46.9	-48.6	18.3	0.00e+00	0	34	0	1017118720	65	4391
2026-01-17 02:23:45.65	262.40	26.08	-46.4	-48.0	18.8	0.00e+00	0	34	0	1019215872	64	4334
2026-01-17 02:23:46.66	262.23	25.94	-46.4	-47.9	18.9	0.00e+00	0	34	0	1021313024	64	4288
2026-01-17 02:23:47.67	262.05	25.80	-46.4	-48.0	18.9	0.00e+00	0	34	0	1023410176	64	4334
2026-01-17 02:23:48.68	261.88	25.67	-46.7	-48.3	18.6	0.00e+00	0	34	0	1025507328	64	4481
2026-01-17 02:23:49.68	261.72	25.53	-46.5	-48.1	18.7	0.00e+00	0	34	0	1027604480	64	4379
2026-01-17 02:23:50.69	261.55	25.40	-46.6	-48.3	18.6	0.00e+00	0	34	0	1028653056	64	4458
2026-01-17 02:23:51.70	261.38	25.26	-46.4	-48.0	18.8	0.00e+00	0	34	0	1030750208	64	4329
2026-01-17 02:23:52.71	261.22	25.13	-46.7	-48.4	18.5	0.00e+00	0	34	0	1032847360	64	4499
2026-01-17 02:23:53.72	261.06	24.99	-46.8	-48.6	18.4	0.00e+00	0	34	0	1034944512	64	4609
2026-01-17 02:23:54.73	260.90	24.86	-47.1	-48.9	18.0	0.00e+00	0	34	0	1035993088	64	4787
2026-01-17 02:23:55.74	260.73	24.72	-46.7	-48.4	18.4	0.00e+00	0	34	0	1038090240	64	4544
2026-01-17 02:23:56.75	260.58	24.59	-46.7	-48.4	18.5	0.00e+00	0	34	0	1040187392	64	4494
2026-01-17 02:23:57.76	260.42	24.46	-46.4	-48.0	18.9	0.00e+00	0	34	0	1042284544	64	4316
2026-01-17 02:23:58.76	260.26	24.33	-46.0	-47.5	19.4	0.00e+00	0	34	0	1044381696	63	4334
2026-01-17 02:23:59.77	260.11	24.19	-45.8	-47.3	19.6	0.00e+00	0	34	0	1046478848	63	4212
2026-01-17 02:24:00.78	259.96	24.06	-46.0	-47.5	19.4	0.00e+00	0	34	0	1047527424	63	4325
2026-01-17 02:24:01.79	259.80	23.93	-45.9	-47.4	19.5	0.00e+00	0	34	0	1049624576	63	4280
2026-01-17 02:24:02.80	259.65	23.80	-46.1	-47.7	19.2	0.00e+00	0	34	0	1051721728	63	4413
2026-01-17 02:24:03.80	259.50	23.67	-46.9	-48.7	18.2	0.00e+00	0	34	0	1053818880	64	4663
2026-01-17 02:24:04.81	259.36	23.54	-47.4	-49.4	17.5	0.00e+00	0	34	0	1055916032	65	4785
2026-01-17 02:24:05.82	259.21	23.41	-48.0	-50.2	16.9	0.00e+00	0	34	0	1056964608	66	4961
2026-01-17 02:24:06.83	259.06	23.28	-48.0	-50.2	16.7	0.00e+00	0	34	0	1059061760	66	4976
2026-01-17 02:24:07.84	258.92	23.15	-47.9	-50.0	16.8	0.00e+00	0	34	0	1061158912	66	4857
2026-01-17 02:24:08.85	258.77	23.03	-47.9	-50.0	17.0	0.00e+00	0	34	0	1063256064	66	4831
2026-01-17 02:24:09.86	258.63	22.90	-47.7	-49.8	17.1	0.00e+00	0	34	0	1065353216	66	4717
2026-01-17 02:24:10.86	258.49	22.77	-48.0	-50.3	16.7	0.00e+00	0	34	0	1066401792	66	4984
2026-01-17 02:24:11.87	258.35	22.65	-47.7	-49.8	17.1	0.00e+00	0	34	0	1068498944	66	4733
2026-01-17 02:24:12.88	258.21	22.52	-47.4	-49.4	17.4	0.00e+00	0	34	0	1070596096	66	4521
2026-01-17 02:24:13.89	258.08	22.39	-47.7	-49.8	17.1	0.00e+00	0	34	0	1072693248	66	4708
2026-01-17 02:24:14.90	257.94	22.27	-47.9	-50.1	16.9	0.00e+00	0	34	0	1074790400	66	4872
2026-01-17 02:24:15.91	257.80	22.14	-47.8	-49.9	16.9	0.00e+00	0	34	0	1075838976	66	4810
2026-01-17 02:24:16.92	257.67	22.02	-47.5	-49.5	17.4	0.00e+00	0	34	0	1077936128	66	4546
2026-01-17 02:24:17.93	257.54	21.89	-47.5	-49.4	17.4	0.00e+00	0	34	0	1080033280	66	4524
2026-01-17 02:24:18.94	257.40	21.77	-47.2	-49.1	17.8	0.00e+00	0	34	0	1082130432	66	4377
2026-01-17 02:24:19.94	257.27	21.65	-47.1	-48.9	17.9	0.00e+00	0	34	0	1084227584	66	4284
2026-01-17 02:24:20.95	257.14	21.53	-46.9	-48.7	18.1	0.00e+00	0	34	0	1085276160	65	4408
2026-01-17 02:24:21.96	257.02	21.40	-47.0	-48.8	18.0	0.00e+00	0	34	0	1087373312	65	4449
2026-01-17 02:24:22.97	256.89	21.28	-46.7	-48.5	18.3	0.00e+00	0	34	0	1089470464	65	4296
2026-01-17 02:24:23.98	256.76	21.16	-46.7	-48.4	18.4	0.00e+00	0	34	0	1091567616	65	4260
2026-01-17 02:24:24.99	256.63	21.04	-46.5	-48.2	18.6	0.00e+00	0	34	0	1093664768	65	4154
2026-01-17 02:24:26.00	256.51	20.92	-46.5	-48.2	18.6	0.00e+00	0	34	0	1094713344	64	4403
2026-01-17 02:24:27.00	256.39	20.80	-46.2	-47.7	19.0	0.00e+00	0	34	0	1096810496	64	4178
2026-01-17 02:24:28.01	256.26	20.68	-46.2	-47.8	19.0	0.00e+00	0	34	0	1098907648	64	4198
2026-01-17 02:24:29.02	256.14	20.56	-46.1	-47.6	19.2	0.00e+00	0	34	0	1101004800	63	4387
2026-01-17 02:24:30.03	256.02	20.44	-46.2	-47.8	19.0	0.00e+00	0	34	0	1103101952	63	4469
2026-01-17 02:24:31.04	255.90	20.32	-46.2	-47.8	19.0	0.00e+00	0	34	0	1104150528	63	4451
2026-01-17 02:24:32.04	255.78	20.21	-46.3	-47.9	18.9	0.00e+00	0	34	0	1106247680	63	4536
2026-01-17 02:24:33.05	255.66	20.09	-46.6	-48.2	18.6	0.00e+00	0	34	0	1108344832	63	4693
2026-01-17 02:24:34.06	255.55	19.97	-46.6	-48.3	18.4	0.00e+00	0	34	0	1110441984	64	4464
2026-01-17 02:24:35.07	255.43	19.85	-46.8	-48.6	18.1	0.00e+00	0	34	0	1112539136	64	4634
2026-01-17 02:24:36.08	255.32	19.74	-46.9	-48.8	18.0	0.00e+00	0	34	0	1113587712	64	4713
2026-01-17 02:24:37.08	255.20	19.62	-47.0	-48.8	17.9	0.00e+00	0	34	0	1115684864	64	4729
2026-01-17 02:24:38.09	255.09	19.51	-47.0	-48.9	17.9	0.00e+00	0	34	0	1117782016	64	4782
2026-01-17 02:24:39.11	254.97	19.39	-47.0	-48.8	18.0	0.00e+00	0	34	0	1119879168	64	4744
2026-01-17 02:24:40.11	254.86	19.28	-46.8	-48.6	18.2	0.00e+00	0	34	0	1121976320	64	4621
2026-01-17 02:24:41.12	254.75	19.16	-46.7	-48.4	18.3	0.00e+00	0	34	0	1123024896	64	4528
2026-01-17 02:24:42.13	254.64	19.05	-46.5	-48.1	18.6	0.00e+00	0	34	0	1125122048	64	4390
2026-01-17 02:24:43.14	254.53	18.93	-46.4	-48.0	18.8	0.00e+00	0	34	0	1127219200	64	4307
2026-01-17 02:24:44.15	254.42	18.82	-46.5	-48.2	18.5	0.00e+00	0	34	0	1129316352	64	4423
2026-01-17 02:24:45.16	254.32	18.71	-46.3	-47.9	18.8	0.00e+00	0	34	0	1131413504	64	4270
2026-01-17 02:24:46.16	254.21	18.60	-46.5	-48.2	18.5	0.00e+00	0	34	0	1133510656	64	4425
2026-01-17 02:24:47.17	254.11	18.49	-46.6	-48.3	18.4	0.00e+00	0	34	0	1134559232	64	4468
2026-01-17 02:24:48.18	254.00	18.37	-46.8	-48.5	18.1	0.00e+00	0	34	0	1136656384	64	4596
2026-01-17 02:24:49.19	253.90	18.26	-46.9	-48.7	18.0	0.00e+00	0	34	0	1138753536	64	4674
2026-01-17 02:24:50.20	253.79	18.15	-47.1	-49.0	17.8	0.00e+00	0	34	0	1140850688	64	4824
2026-01-17 02:24:51.21	253.69	18.04	-47.0	-48.8	17.9	0.00e+00	0	34	0	1141899264	64	4758
2026-01-17 02:24:52.22	253.59	17.93	-47.2	-49.1	17.7	0.00e+00	0	34	0	1143996416	65	4610
2026-01-17 02:24:53.22	253.49	17.82	-47.4	-49.5	17.3	0.00e+00	0	34	0	1146093568	65	4821
2026-01-17 02:24:54.23	253.39	17.71	-47.4	-49.5	17.3	0.00e+00	0	34	0	1148190720	65	4822
2026-01-17 02:24:55.24	253.29	17.61	-47.5	-49.6	17.2	0.00e+00	0	34	0	1150287872	65	4884
2026-01-17 02:24:56.25	253.19	17.50	-47.7	-49.8	16.9	0.00e+00	0	34	0	1152385024	65	5019
2026-01-17 02:24:57.26	253.09	17.39	-47.6	-49.8	17.0	0.00e+00	0	34	0	1153433600	65	4991
2026-01-17 02:24:58.27	252.99	17.28	-47.7	-49.9	16.8	0.00e+00	0	34	0	1155530752	66	4794
2026-01-17 02:24:59.27	252.89	17.18	-47.5	-49.6	17.1	0.00e+00	0	34	0	1157627904	66	4642
2026-01-17 02:25:00.28	252.80	17.07	-47.6	-49.7	17.0	0.00e+00	0	34	0	1159725056	66	4705
2026-01-17 02:25:01.29	252.70	16.96	-47.4	-49.4	17.3	0.00e+00	0	34	0	1161822208	66	4500
2026-01-17 02:25:02.30	252.61	16.86	-47.2	-49.1	17.6	0.00e+00	0	34	0	1162870784	66	4373
2026-01-17 02:25:03.31	252.51	16.75	-46.9	-48.7	17.9	0.00e+00	0	34	0	1164967936	65	4435
2026-01-17 02:25:04.32	252.42	16.64	-46.7	-48.5	18.2	0.00e+00	0	34	0	1167065088	65	4313
2026-01-17 02:25:05.32	252.33	16.54	-46.6	-48.4	18.3	0.00e+00	0	34	0	1169162240	65	4247
2026-01-17 02:25:06.33	252.23	16.44	-46.4	-48.1	18.5	0.00e+00	0	34	0	1170210816	64	4368
2026-01-17 02:25:07.34	252.14	16.33	-46.2	-47.9	18.7	0.00e+00	0	34	0	1172307968	64	4244
2026-01-17 02:25:08.35	252.05	16.23	-46.1	-47.7	18.9	0.00e+00	0	34	0	1174405120	64	4158
2026-01-17 02:25:09.36	251.96	16.12	-46.0	-47.6	19.0	0.00e+00	0	34	0	1176502272	64	4130
2026-01-17 02:25:10.37	251.87	16.02	-46.1	-47.7	18.9	0.00e+00	0	34	0	1178599424	64	4173
2026-01-17 02:25:11.37	251.78	15.92	-46.2	-47.9	18.8	0.00e+00	0	34	0	1180696576	64	4243
2026-01-17 02:25:12.38	251.70	15.82	-46.4	-48.1	18.5	0.00e+00	0	34	0	1181745152	64	4377
2026-01-17 02:25:13.39	251.61	15.72	-46.5	-48.2	18.4	0.00e+00	0	34	0	1183842304	64	4404
2026-01-17 02:25:14.40	251.52	15.61	-46.5	-48.2	18.4	0.00e+00	0	34	0	1185939456	64	4437
2026-01-17 02:25:15.41	251.43	15.51	-46.8	-48.5	18.1	0.00e+00	0	34	0	1188036608	64	4597
2026-01-17 02:25:16.42	251.35	15.41	-46.8	-48.6	18.0	0.00e+00	0	34	0	1190133760	64	4613
2026-01-17 02:25:17.43	251.26	15.31	-46.9	-48.7	17.9	0.00e+00	0	34	0	1191182336	64	4670
2026-01-17 02:25:18.44	251.18	15.21	-46.9	-48.8	17.9	0.00e+00	0	34	0	1193279488	64	4715
2026-01-17 02:25:19.44	251.09	15.11	-46.8	-48.6	18.0	0.00e+00	0	34	0	1195376640	64	4631
2026-01-17 02:25:20.45	251.01	15.01	-46.7	-48.4	18.2	0.00e+00	0	34	0	1197473792	64	4541
2026-01-17 02:25:21.46	250.93	14.91	-46.8	-48.6	18.0	0.00e+00	0	34	0	1199570944	64	4627
2026-01-17 02:25:22.47	250.85	14.81	-46.6	-48.3	18.2	0.00e+00	0	34	0	1200619520	64	4491
2026-01-17 02:25:23.48	250.76	14.71	-46.8	-48.6	18.0	0.00e+00	0	34	0	1202716672	64	4619
2026-01-17 02:25:24.48	250.68	14.62	-46.8	-48.6	18.0	0.00e+00	0	34	0	1204813824	64	4605
2026-01-17 02:25:25.49	250.60	14.52	-46.6	-48.4	18.2	0.00e+00	0	34	0	1206910976	64	4530
2026-01-17 02:25:26.50	250.52	14.42	-46.8	-48.6	17.9	0.00e+00	0	34	0	1209008128	64	4615
2026-01-17 02:25:27.51	250.44	14.32	-47.0	-48.9	17.8	0.00e+00	0	34	0	1210056704	64	4788
2026-01-17 02:25:28.52	250.36	14.23	-47.1	-49.0	17.6	0.00e+00	0	34	0	1212153856	64	4830
2026-01-17 02:25:29.53	250.28	14.13	-47.0	-48.9	17.7	0.00e+00	0	34	0	1214251008	64	4810
2026-01-17 02:25:30.54	250.21	14.03	-47.3	-49.3	17.3	0.00e+00	0	34	0	1216348160	65	4736
2026-01-17 02:25:31.55	250.13	13.94	-47.5	-49.6	17.0	0.00e+00	0	34	0	1218445312	65	4895
2026-01-17 02:25:32.55	250.05	13.84	-47.5	-49.6	17.0	0.00e+00	0	34	0	1220542464	65	4918
2026-01-17 02:25:33.56	249.98	13.75	-47.8	-50.0	16.6	0.00e+00	0	34	0	1221591040	66	4859
2026-01-17 02:25:34.57	249.90	13.65	-48.0	-50.3	16.3	0.00e+00	0	34	0	1223688192	66	5038
2026-01-17 02:25:35.58	249.82	13.56	-48.2	-50.7	16.1	0.00e+00	0	34	0	1225785344	66	5224
2026-01-17 02:25:36.59	249.75	13.46	-48.1	-50.5	16.1	0.00e+00	0	34	0	1227882496	67	4841
2026-01-17 02:25:37.60	249.68	13.37	-48.0	-50.4	16.2	0.00e+00	0	34	0	1228931072	67	4782
2026-01-17 02:25:38.61	249.60	13.28	-48.0	-50.4	16.1	0.00e+00	0	34	0	1231028224	67	4803
2026-01-17 02:25:39.61	249.53	13.18	-48.2	-50.7	15.9	0.00e+00	0	34	0	1233125376	67	4942
2026-01-17 02:25:40.62	249.46	13.09	-48.1	-50.4	16.2	0.00e+00	0	34	0	1235222528	67	4800
2026-01-17 02:25:41.63	249.38	13.00	-48.1	-50.6	16.0	0.00e+00	0	34	0	1237319680	67	4884
2026-01-17 02:25:42.64	249.31	12.91	-48.0	-50.4	16.2	0.00e+00	0	34	0	1238368256	67	4775
2026-01-17 02:25:43.65	249.24	12.81	-47.9	-50.1	16.4	0.00e+00	0	34	0	1240465408	67	4641
2026-01-17 02:25:44.66	249.17	12.72	-48.0	-50.4	16.2	0.00e+00	0	34	0	1242562560	67	4764
2026-01-17 02:25:45.67	249.10	12.63	-48.0	-50.4	16.1	0.00e+00	0	34	0	1244659712	67	4788
2026-01-17 02:25:46.68	249.03	12.54	-47.8	-50.1	16.5	0.00e+00	0	34	0	1246756864	67	4609
2026-01-17 02:25:47.68	248.96	12.45	-48.0	-50.4	16.1	0.00e+00	0	34	0	1248854016	67	4796
