passes_logs/2026/01/17/R3.2S_Murmansk/R3.2S_Murmansk__20260117_053311_SUOMI_NPP_rec.log

#Pass ID: 20260117_053311_SUOMI NPP
#Satellite: SUOMI NPP
#Configuration: NPP
#almurnet v.1.7.20251203
#Start time: 2026-01-17 05:33:13

#Version: 2.2.20231116
#Station: R3.2S_Murmansk
#Location: 33.079688 lon 68.888172 lat
#TLE: 1 37849U 11061A   26016.58419598  .00000058  00000+0  48257-4 0  9996
#TLE: 2 37849  98.7812 318.6192 0002422  60.8544 299.2874 14.19525580736934

#Time	Az	El	Level	Level2	SNR	BER	BlckErr	Temp	State	Recorded	gain1	gain2
2026-01-17 05:33:13.21	66.91	2.12	-51.6	-66.5	3.8	1.49e+00	0	32	0	0	75	19326
2026-01-17 05:33:14.22	66.85	2.18	-51.5	-66.5	3.8	1.49e+00	0	32	104	0	73	21720
2026-01-17 05:33:15.23	66.78	2.23	-51.5	-66.5	3.8	1.49e+00	0	32	104	0	73	21628
2026-01-17 05:33:16.24	66.72	2.29	-51.5	-66.5	3.8	1.49e+00	0	32	104	0	73	21634
2026-01-17 05:33:17.24	66.65	2.35	-51.5	-66.5	3.8	1.49e+00	0	32	104	0	73	21598
2026-01-17 05:33:18.25	66.59	2.41	-51.5	-66.5	3.8	1.49e+00	0	32	104	0	73	21617
2026-01-17 05:33:19.26	66.52	2.46	-51.5	-66.5	3.8	1.49e+00	0	32	104	0	73	21574
2026-01-17 05:33:20.27	66.46	2.52	-51.5	-66.5	3.8	1.49e+00	0	32	104	0	73	21586
2026-01-17 05:33:21.28	66.39	2.58	-51.5	-66.5	3.8	1.49e+00	0	32	104	0	73	21596
2026-01-17 05:33:22.28	66.32	2.64	-51.5	-66.5	3.8	1.49e+00	0	32	104	0	73	21642
2026-01-17 05:33:23.29	66.26	2.70	-51.5	-66.5	3.8	1.49e+00	0	32	104	0	73	21655
2026-01-17 05:33:24.30	66.19	2.75	-51.5	-66.5	3.8	1.49e+00	0	32	104	0	73	21641
2026-01-17 05:33:25.31	66.12	2.81	-51.5	-66.5	3.8	1.49e+00	0	32	104	0	73	21649
2026-01-17 05:33:26.31	66.05	2.87	-51.5	-66.5	3.8	1.49e+00	0	32	104	0	73	21695
2026-01-17 05:33:27.32	65.99	2.93	-51.5	-66.5	3.8	1.49e+00	0	33	104	0	73	21649
2026-01-17 05:33:28.33	65.92	2.99	-51.5	-66.5	3.8	1.49e+00	0	33	104	0	73	21631
2026-01-17 05:33:29.34	65.85	3.05	-51.5	-66.5	3.8	1.49e+00	0	32	104	0	73	21611
2026-01-17 05:33:30.35	65.78	3.10	-51.5	-66.5	3.8	1.49e+00	0	33	104	0	73	21555
2026-01-17 05:33:31.35	65.71	3.16	-51.5	-66.5	3.8	1.49e+00	0	32	104	0	73	21604
2026-01-17 05:33:32.36	65.64	3.22	-51.5	-66.5	3.8	1.49e+00	0	33	104	0	73	21586
2026-01-17 05:33:33.37	65.57	3.28	-51.5	-66.5	3.8	1.49e+00	0	33	104	0	73	21666
2026-01-17 05:33:34.38	65.50	3.34	-51.5	-66.5	3.8	1.49e+00	0	33	104	0	73	21612
2026-01-17 05:33:35.39	65.43	3.40	-51.5	-66.5	3.8	1.49e+00	0	33	104	0	73	21583
2026-01-17 05:33:36.40	65.36	3.46	-51.5	-66.5	3.8	1.49e+00	0	33	104	0	73	21514
2026-01-17 05:33:37.40	65.29	3.52	-51.5	-66.4	3.8	1.49e+00	0	33	104	0	73	21388
2026-01-17 05:33:38.41	65.22	3.58	-51.5	-66.4	3.8	1.49e+00	0	33	104	0	73	21504
2026-01-17 05:33:39.42	65.15	3.64	-51.5	-66.4	3.8	1.49e+00	0	33	104	0	73	21445
2026-01-17 05:33:40.43	65.07	3.70	-51.5	-66.5	3.8	1.49e+00	0	33	104	0	73	21524
2026-01-17 05:33:41.44	65.00	3.76	-51.5	-66.5	3.8	1.49e+00	0	33	104	0	73	21571
2026-01-17 05:33:42.44	64.93	3.82	-51.5	-66.5	3.8	1.49e+00	0	33	104	0	73	21626
2026-01-17 05:33:43.45	64.86	3.88	-51.5	-66.5	3.8	1.49e+00	0	33	104	0	73	21605
2026-01-17 05:33:44.46	64.78	3.94	-51.5	-66.3	3.8	1.49e+00	0	33	104	0	73	21166
2026-01-17 05:33:45.47	64.71	4.00	-51.5	-66.0	3.8	1.49e+00	0	33	104	0	73	20509
2026-01-17 05:33:46.48	64.64	4.06	-51.5	-65.6	3.8	1.49e+00	0	33	104	0	73	19447
2026-01-17 05:33:47.49	64.56	4.12	-51.5	-65.0	3.8	1.49e+00	0	33	104	0	73	18118
2026-01-17 05:33:48.50	64.49	4.18	-51.4	-64.5	3.8	1.49e+00	0	33	104	0	73	17086
2026-01-17 05:33:49.51	64.41	4.24	-51.4	-63.7	3.9	1.46e+00	0	33	104	0	73	15676
2026-01-17 05:33:50.52	64.34	4.30	-51.3	-62.6	4.3	1.38e+00	0	33	0	0	73	13832
2026-01-17 05:33:51.53	64.26	4.36	-51.2	-62.0	4.5	1.27e+00	33	33	0	1048576	73	12959
2026-01-17 05:33:52.54	64.19	4.42	-51.2	-61.5	4.7	1.03e+00	0	33	0	2097152	73	12136
2026-01-17 05:33:53.55	64.11	4.48	-51.1	-60.6	5.2	8.10e-01	0	33	0	4194304	73	10947
2026-01-17 05:33:54.56	64.03	4.54	-51.0	-60.1	5.5	5.69e-01	0	33	0	6291456	73	10363
2026-01-17 05:33:55.56	63.96	4.60	-51.0	-59.7	5.8	3.92e-01	0	33	0	8388608	73	9938
2026-01-17 05:33:56.57	63.88	4.66	-50.9	-59.2	6.2	4.31e-01	0	33	0	9437184	73	9301
2026-01-17 05:33:57.58	63.80	4.72	-50.9	-59.3	6.1	3.14e-01	0	33	0	11534336	73	9452
2026-01-17 05:33:58.59	63.72	4.78	-50.9	-59.3	6.1	2.88e-01	0	33	0	13631488	73	9400
2026-01-17 05:33:59.60	63.65	4.85	-50.9	-59.6	5.9	3.00e-01	0	33	0	15728640	73	9761
2026-01-17 05:34:00.60	63.57	4.91	-51.0	-59.8	5.7	3.12e-01	0	33	0	17825792	73	9976
2026-01-17 05:34:01.61	63.49	4.97	-51.0	-60.0	5.6	4.30e-01	0	33	0	18874368	73	10210
2026-01-17 05:34:02.62	63.41	5.03	-51.1	-61.1	4.9	6.40e-01	0	33	0	20971520	73	11585
2026-01-17 05:34:03.63	63.33	5.09	-51.0	-59.5	5.9	5.79e-01	0	33	0	23068672	73	9684
2026-01-17 05:34:04.64	63.25	5.15	-50.3	-56.2	9.0	1.62e-01	0	33	0	25165824	72	6981
2026-01-17 05:34:05.64	63.17	5.21	-51.3	-63.0	4.3	6.72e-02	77	34	0	27262976	73	14524
2026-01-17 05:34:06.65	63.09	5.28	-50.7	-57.3	7.6	1.49e+00	1	33	104	27262976	73	7532
2026-01-17 05:34:07.66	63.01	5.34	-50.9	-58.4	7.5	2.22e-03	0	33	0	28311552	72	8969
2026-01-17 05:34:08.67	62.93	5.40	-50.0	-55.0	10.2	1.14e+00	0	33	0	29360128	72	6073
2026-01-17 05:34:09.68	62.85	5.46	-49.3	-53.1	12.5	1.77e-04	0	33	0	31457280	70	5510
2026-01-17 05:34:10.68	62.77	5.53	-49.3	-53.1	12.6	3.58e-05	0	33	0	32505856	69	5825
2026-01-17 05:34:11.69	62.68	5.59	-48.9	-52.3	13.4	3.28e-05	0	33	0	34603008	69	5339
2026-01-17 05:34:12.70	62.60	5.65	-48.8	-52.1	13.6	2.74e-05	0	33	0	36700160	69	5193
2026-01-17 05:34:13.71	62.52	5.71	-48.8	-52.1	13.7	3.00e-06	0	33	0	38797312	69	5207
2026-01-17 05:34:14.71	62.43	5.77	-48.4	-51.4	14.4	0.00e+00	0	33	0	40894464	68	5079
2026-01-17 05:34:15.72	62.35	5.84	-48.3	-51.2	14.7	7.00e-07	0	34	0	42991616	68	4928
2026-01-17 05:34:16.73	62.27	5.90	-48.6	-51.7	14.1	2.20e-06	0	33	0	44040192	68	5240
2026-01-17 05:34:17.74	62.18	5.96	-48.5	-51.5	14.4	1.50e-06	0	33	0	46137344	68	5115
2026-01-17 05:34:18.75	62.10	6.03	-48.4	-51.3	14.6	7.00e-07	0	34	0	48234496	68	5030
2026-01-17 05:34:19.76	62.01	6.09	-48.5	-51.5	14.4	7.00e-07	0	33	0	50331648	68	5120
2026-01-17 05:34:20.76	61.93	6.15	-48.3	-51.2	14.7	7.00e-07	0	33	0	52428800	68	4956
2026-01-17 05:34:21.77	61.84	6.22	-48.2	-51.0	14.9	0.00e+00	0	33	0	53477376	68	4826
2026-01-17 05:34:22.78	61.75	6.28	-48.3	-51.1	14.9	0.00e+00	0	33	0	55574528	68	4907
2026-01-17 05:34:23.79	61.67	6.34	-48.1	-50.9	15.1	0.00e+00	0	33	0	57671680	68	4793
2026-01-17 05:34:24.79	61.58	6.41	-48.3	-51.2	14.7	7.00e-07	0	33	0	59768832	68	4982
2026-01-17 05:34:25.80	61.49	6.47	-48.4	-51.3	14.7	0.00e+00	0	33	0	60817408	68	5001
2026-01-17 05:34:26.81	61.40	6.53	-48.5	-51.5	14.5	7.00e-07	0	33	0	62914560	68	5122
2026-01-17 05:34:27.82	61.32	6.60	-48.5	-51.5	14.5	0.00e+00	0	34	0	65011712	68	5145
2026-01-17 05:34:28.82	61.23	6.66	-48.6	-51.7	14.3	0.00e+00	0	33	0	67108864	68	5276
2026-01-17 05:34:29.83	61.14	6.72	-48.6	-51.7	14.3	7.00e-07	0	34	0	69206016	68	5278
2026-01-17 05:34:30.84	61.05	6.79	-48.4	-51.4	14.6	0.00e+00	0	34	0	71303168	68	5080
2026-01-17 05:34:31.85	60.96	6.85	-48.6	-51.6	14.5	0.00e+00	0	34	0	72351744	68	5198
2026-01-17 05:34:32.86	60.87	6.92	-48.4	-51.3	14.8	3.00e-06	0	34	0	74448896	68	4992
2026-01-17 05:34:33.86	60.78	6.98	-48.4	-51.4	14.7	0.00e+00	0	33	0	76546048	68	5046
2026-01-17 05:34:34.87	60.69	7.05	-48.6	-51.6	14.5	7.00e-07	0	34	0	78643200	68	5174
2026-01-17 05:34:35.88	60.59	7.11	-48.2	-50.9	15.2	0.00e+00	0	33	0	80740352	68	4790
2026-01-17 05:34:36.89	60.50	7.18	-48.4	-51.2	14.9	0.00e+00	0	34	0	81788928	68	4978
2026-01-17 05:34:37.90	60.41	7.24	-48.3	-51.1	15.0	0.00e+00	0	34	0	83886080	68	4896
2026-01-17 05:34:38.91	60.32	7.30	-48.4	-51.3	14.8	0.00e+00	0	34	0	85983232	68	5007
2026-01-17 05:34:39.92	60.22	7.37	-48.4	-51.2	14.9	7.00e-07	0	34	0	88080384	68	4976
2026-01-17 05:34:40.92	60.13	7.43	-48.4	-51.3	14.9	7.00e-07	0	34	0	90177536	68	5025
2026-01-17 05:34:41.93	60.03	7.50	-48.6	-51.6	14.6	0.00e+00	0	34	0	91226112	68	5177
2026-01-17 05:34:42.94	59.94	7.56	-48.5	-51.5	14.7	0.00e+00	0	34	0	93323264	68	5118
2026-01-17 05:34:43.95	59.84	7.63	-48.3	-51.2	15.0	7.00e-07	0	34	0	95420416	68	4932
2026-01-17 05:34:44.96	59.75	7.70	-48.0	-50.7	15.5	0.00e+00	0	34	0	97517568	68	4667
2026-01-17 05:34:45.96	59.65	7.76	-47.9	-50.4	15.7	0.00e+00	0	34	0	99614720	67	4805
2026-01-17 05:34:46.97	59.56	7.83	-47.6	-49.9	16.1	0.00e+00	0	34	0	100663296	67	4538
2026-01-17 05:34:47.98	59.46	7.89	-47.7	-50.2	15.9	0.00e+00	0	34	0	102760448	67	4660
2026-01-17 05:34:48.99	59.36	7.96	-47.6	-50.0	16.1	0.00e+00	0	34	0	104857600	67	4554
2026-01-17 05:34:50.00	59.26	8.02	-47.5	-49.9	16.2	0.00e+00	0	34	0	106954752	67	4518
2026-01-17 05:34:51.00	59.17	8.09	-47.7	-50.2	16.0	0.00e+00	0	34	0	109051904	67	4668
2026-01-17 05:34:52.01	59.07	8.16	-47.6	-50.1	16.1	0.00e+00	0	34	0	110100480	67	4605
2026-01-17 05:34:53.02	58.97	8.22	-47.6	-50.1	16.1	0.00e+00	0	34	0	112197632	67	4600
2026-01-17 05:34:54.03	58.87	8.29	-47.6	-49.9	16.2	0.00e+00	0	34	0	114294784	66	4808
2026-01-17 05:34:55.04	58.77	8.35	-47.6	-50.0	16.2	0.00e+00	0	34	0	116391936	66	4837
2026-01-17 05:34:56.05	58.67	8.42	-47.6	-49.9	16.2	0.00e+00	0	34	0	118489088	66	4814
2026-01-17 05:34:57.06	58.57	8.49	-47.5	-49.9	16.3	0.00e+00	0	34	0	119537664	66	4767
2026-01-17 05:34:58.07	58.46	8.55	-47.5	-49.8	16.4	0.00e+00	0	34	0	121634816	66	4724
2026-01-17 05:34:59.07	58.36	8.62	-47.3	-49.6	16.6	0.00e+00	0	34	0	123731968	66	4619
2026-01-17 05:35:00.08	58.26	8.69	-47.4	-49.6	16.6	0.00e+00	0	34	0	125829120	66	4623
2026-01-17 05:35:01.09	58.16	8.75	-47.4	-49.7	16.5	0.00e+00	0	34	0	127926272	66	4656
2026-01-17 05:35:02.10	58.05	8.82	-47.5	-49.8	16.4	0.00e+00	0	34	0	128974848	66	4730
2026-01-17 05:35:03.11	57.95	8.89	-47.5	-49.8	16.4	0.00e+00	0	34	0	131072000	66	4756
2026-01-17 05:35:04.11	57.85	8.95	-47.4	-49.7	16.5	0.00e+00	0	34	0	133169152	66	4669
2026-01-17 05:35:05.12	57.74	9.02	-47.4	-49.7	16.6	0.00e+00	0	34	0	135266304	66	4656
2026-01-17 05:35:06.13	57.63	9.09	-47.6	-49.9	16.4	0.00e+00	0	34	0	137363456	66	4781
2026-01-17 05:35:07.14	57.53	9.16	-47.6	-49.9	16.3	0.00e+00	0	34	0	139460608	66	4785
2026-01-17 05:35:08.15	57.42	9.22	-47.4	-49.6	16.6	0.00e+00	0	34	0	140509184	66	4645
2026-01-17 05:35:09.15	57.32	9.29	-47.7	-50.0	16.2	0.00e+00	0	34	0	142606336	66	4865
2026-01-17 05:35:10.16	57.21	9.36	-47.5	-49.8	16.4	0.00e+00	0	34	0	144703488	66	4755
2026-01-17 05:35:11.17	57.10	9.43	-47.5	-49.7	16.5	0.00e+00	0	34	0	146800640	66	4703
2026-01-17 05:35:12.18	56.99	9.49	-47.7	-50.1	16.2	0.00e+00	0	34	0	147849216	66	4872
2026-01-17 05:35:13.18	56.88	9.56	-47.7	-50.1	16.2	0.00e+00	0	34	0	149946368	66	4878
2026-01-17 05:35:14.19	56.77	9.63	-47.7	-50.0	16.3	0.00e+00	0	34	0	152043520	66	4864
2026-01-17 05:35:15.20	56.66	9.70	-47.7	-50.0	16.3	0.00e+00	0	34	0	154140672	66	4847
2026-01-17 05:35:16.21	56.55	9.76	-47.7	-50.0	16.2	0.00e+00	0	34	0	156237824	66	4865
2026-01-17 05:35:17.22	56.44	9.83	-47.9	-50.3	16.0	0.00e+00	0	34	0	158334976	66	5012
2026-01-17 05:35:18.22	56.33	9.90	-47.9	-50.4	15.9	0.00e+00	0	34	0	159383552	66	5046
2026-01-17 05:35:19.23	56.22	9.97	-47.9	-50.4	16.0	0.00e+00	0	34	0	161480704	66	5048
2026-01-17 05:35:20.24	56.10	10.04	-47.8	-50.2	16.1	0.00e+00	0	34	0	163577856	66	4968
2026-01-17 05:35:21.25	55.99	10.11	-47.7	-50.0	16.2	0.00e+00	0	34	0	165675008	66	4861
2026-01-17 05:35:22.26	55.88	10.17	-47.6	-49.8	16.5	0.00e+00	0	34	0	167772160	66	4733
2026-01-17 05:35:23.26	55.76	10.24	-47.8	-50.1	16.2	0.00e+00	0	34	0	168820736	66	4919
2026-01-17 05:35:24.27	55.65	10.31	-47.7	-50.0	16.4	0.00e+00	0	34	0	170917888	66	4820
2026-01-17 05:35:25.28	55.53	10.38	-47.8	-50.2	16.1	0.00e+00	0	34	0	173015040	66	4963
2026-01-17 05:35:26.29	55.42	10.45	-47.7	-50.0	16.3	0.00e+00	0	34	0	175112192	66	4855
2026-01-17 05:35:27.30	55.30	10.52	-47.5	-49.8	16.6	0.00e+00	0	34	0	176160768	66	4715
2026-01-17 05:35:28.30	55.18	10.59	-47.6	-49.9	16.4	0.00e+00	0	34	0	178257920	66	4794
2026-01-17 05:35:29.31	55.06	10.66	-47.7	-50.0	16.4	0.00e+00	0	34	0	180355072	66	4828
2026-01-17 05:35:30.32	54.95	10.73	-47.8	-50.2	16.2	0.00e+00	0	34	0	182452224	66	4934
2026-01-17 05:35:31.33	54.83	10.79	-47.7	-50.1	16.3	0.00e+00	0	34	0	184549376	66	4877
2026-01-17 05:35:32.34	54.71	10.86	-47.4	-49.5	16.8	0.00e+00	0	34	0	186646528	66	4580
2026-01-17 05:35:33.35	54.59	10.93	-47.4	-49.6	16.8	0.00e+00	0	34	0	187695104	66	4604
2026-01-17 05:35:34.35	54.47	11.00	-47.4	-49.5	16.8	0.00e+00	0	34	0	189792256	66	4579
2026-01-17 05:35:35.36	54.35	11.07	-47.4	-49.6	16.8	0.00e+00	0	34	0	191889408	66	4627
2026-01-17 05:35:36.37	54.22	11.14	-47.4	-49.6	16.8	0.00e+00	0	34	0	193986560	66	4640
2026-01-17 05:35:37.38	54.10	11.21	-47.4	-49.6	16.7	0.00e+00	0	34	0	196083712	66	4638
2026-01-17 05:35:38.38	53.98	11.28	-47.7	-50.0	16.4	0.00e+00	0	34	0	197132288	66	4828
2026-01-17 05:35:39.39	53.85	11.35	-47.2	-49.3	17.1	0.00e+00	0	34	0	199229440	66	4453
2026-01-17 05:35:40.40	53.73	11.42	-47.2	-49.2	17.1	0.00e+00	0	34	0	201326592	66	4438
2026-01-17 05:35:41.41	53.61	11.49	-47.1	-49.2	17.2	0.00e+00	0	34	0	203423744	66	4408
2026-01-17 05:35:42.42	53.48	11.56	-47.0	-49.0	17.4	0.00e+00	0	34	0	205520896	66	4323
2026-01-17 05:35:43.42	53.35	11.63	-47.0	-49.0	17.3	0.00e+00	0	34	0	206569472	65	4595
2026-01-17 05:35:44.43	53.23	11.70	-46.8	-48.8	17.6	0.00e+00	0	34	0	208666624	65	4468
2026-01-17 05:35:45.44	53.10	11.77	-46.8	-48.8	17.6	0.00e+00	0	34	0	210763776	65	4453
2026-01-17 05:35:46.45	52.97	11.84	-47.1	-49.1	17.2	0.00e+00	0	34	0	212860928	65	4650
2026-01-17 05:35:47.46	52.84	11.91	-46.9	-48.9	17.5	0.00e+00	0	34	0	214958080	65	4520
2026-01-17 05:35:48.47	52.71	11.98	-47.0	-49.0	17.3	0.00e+00	0	34	0	216006656	65	4592
2026-01-17 05:35:49.47	52.58	12.05	-46.9	-48.9	17.5	0.00e+00	0	34	0	218103808	65	4506
2026-01-17 05:35:50.48	52.45	12.12	-46.9	-48.9	17.4	0.00e+00	0	34	0	220200960	65	4540
2026-01-17 05:35:51.49	52.32	12.19	-46.9	-48.9	17.5	0.00e+00	0	34	0	222298112	65	4532
2026-01-17 05:35:52.50	52.19	12.26	-47.0	-49.0	17.4	0.00e+00	0	34	0	224395264	65	4554
2026-01-17 05:35:53.50	52.06	12.33	-46.8	-48.7	17.7	0.00e+00	0	34	0	225443840	65	4419
2026-01-17 05:35:54.51	51.93	12.40	-46.8	-48.7	17.7	0.00e+00	0	34	0	227540992	65	4429
2026-01-17 05:35:55.52	51.79	12.47	-46.6	-48.5	17.9	0.00e+00	0	34	0	229638144	65	4323
2026-01-17 05:35:56.53	51.66	12.55	-46.7	-48.5	17.9	0.00e+00	0	34	0	231735296	65	4328
2026-01-17 05:35:57.54	51.52	12.62	-46.6	-48.5	17.9	0.00e+00	0	34	0	233832448	65	4301
2026-01-17 05:35:58.55	51.39	12.69	-46.6	-48.5	17.9	0.00e+00	0	34	0	234881024	65	4317
2026-01-17 05:35:59.56	51.25	12.76	-46.7	-48.6	17.8	0.00e+00	0	34	0	236978176	65	4371
2026-01-17 05:36:00.57	51.11	12.83	-46.6	-48.4	18.0	0.00e+00	0	34	0	239075328	65	4289
2026-01-17 05:36:01.57	50.98	12.90	-46.6	-48.5	17.9	0.00e+00	0	34	0	241172480	65	4323
2026-01-17 05:36:02.59	50.84	12.97	-46.8	-48.8	17.6	0.00e+00	0	34	0	243269632	65	4463
2026-01-17 05:36:03.59	50.70	13.04	-46.8	-48.7	17.7	0.00e+00	0	34	0	244318208	65	4414
2026-01-17 05:36:04.60	50.56	13.11	-46.9	-48.9	17.5	0.00e+00	0	34	0	246415360	65	4512
2026-01-17 05:36:05.61	50.42	13.18	-46.8	-48.7	17.7	0.00e+00	0	34	0	248512512	65	4423
2026-01-17 05:36:06.62	50.28	13.26	-46.7	-48.7	17.7	0.00e+00	0	34	0	250609664	65	4415
2026-01-17 05:36:07.62	50.14	13.33	-46.6	-48.5	17.9	0.00e+00	0	34	0	252706816	65	4328
2026-01-17 05:36:08.63	49.99	13.40	-46.6	-48.6	17.9	0.00e+00	0	34	0	253755392	65	4341
2026-01-17 05:36:09.64	49.85	13.47	-46.7	-48.7	17.7	0.00e+00	0	34	0	255852544	65	4407
2026-01-17 05:36:10.65	49.70	13.54	-46.8	-48.8	17.6	0.00e+00	0	34	0	257949696	65	4471
2026-01-17 05:36:11.66	49.56	13.61	-46.9	-48.9	17.5	0.00e+00	0	34	0	260046848	65	4525
2026-01-17 05:36:12.67	49.41	13.68	-46.8	-48.8	17.6	0.00e+00	0	34	0	262144000	65	4473
2026-01-17 05:36:13.67	49.27	13.75	-46.8	-48.8	17.7	0.00e+00	0	34	0	263192576	65	4451
2026-01-17 05:36:14.68	49.12	13.83	-46.8	-48.8	17.6	0.00e+00	0	34	0	265289728	65	4465
2026-01-17 05:36:15.69	48.97	13.90	-46.8	-48.8	17.7	0.00e+00	0	34	0	267386880	65	4453
2026-01-17 05:36:16.70	48.83	13.97	-47.0	-49.1	17.3	0.00e+00	0	34	0	269484032	65	4633
2026-01-17 05:36:17.71	48.68	14.04	-47.0	-49.1	17.3	0.00e+00	0	34	0	271581184	65	4626
2026-01-17 05:36:18.71	48.53	14.11	-46.9	-48.9	17.5	0.00e+00	0	34	0	272629760	65	4545
2026-01-17 05:36:19.72	48.38	14.18	-47.1	-49.2	17.3	0.00e+00	0	34	0	274726912	65	4666
2026-01-17 05:36:20.73	48.23	14.25	-47.0	-49.1	17.4	0.00e+00	0	34	0	276824064	65	4623
2026-01-17 05:36:21.74	48.07	14.33	-47.0	-49.0	17.5	0.00e+00	0	34	0	278921216	65	4574
2026-01-17 05:36:22.74	47.92	14.40	-47.0	-49.1	17.4	0.00e+00	0	34	0	281018368	65	4599
2026-01-17 05:36:23.75	47.77	14.47	-46.8	-48.8	17.6	0.00e+00	0	34	0	282066944	65	4487
2026-01-17 05:36:24.76	47.61	14.54	-46.9	-48.9	17.5	0.00e+00	0	34	0	284164096	65	4530
2026-01-17 05:36:25.77	47.46	14.61	-47.0	-49.0	17.5	0.00e+00	0	34	0	286261248	65	4558
2026-01-17 05:36:26.78	47.30	14.68	-46.8	-48.7	17.8	0.00e+00	0	34	0	288358400	65	4415
2026-01-17 05:36:27.78	47.15	14.75	-46.9	-48.9	17.6	0.00e+00	0	34	0	290455552	65	4495
2026-01-17 05:36:28.79	46.99	14.83	-46.8	-48.8	17.7	0.00e+00	0	34	0	291504128	65	4451
2026-01-17 05:36:29.80	46.83	14.90	-47.0	-49.1	17.4	0.00e+00	0	34	0	293601280	65	4602
2026-01-17 05:36:30.81	46.67	14.97	-47.2	-49.3	17.2	0.00e+00	0	34	0	295698432	65	4759
2026-01-17 05:36:31.82	46.51	15.04	-47.4	-49.7	16.8	0.00e+00	0	34	0	297795584	65	4940
2026-01-17 05:36:32.82	46.35	15.11	-47.4	-49.6	16.8	0.00e+00	0	34	0	299892736	65	4915
2026-01-17 05:36:33.83	46.19	15.18	-47.4	-49.6	16.9	0.00e+00	0	34	0	301989888	65	4873
2026-01-17 05:36:34.84	46.03	15.25	-47.4	-49.7	16.9	0.00e+00	0	34	0	303038464	65	4931
2026-01-17 05:36:35.84	45.87	15.32	-47.5	-49.7	16.8	0.00e+00	0	34	0	305135616	65	4966
2026-01-17 05:36:36.85	45.71	15.40	-47.5	-49.8	16.7	0.00e+00	0	34	0	307232768	65	5034
2026-01-17 05:36:37.86	45.54	15.47	-47.4	-49.6	16.9	0.00e+00	0	34	0	309329920	65	4901
2026-01-17 05:36:38.87	45.38	15.54	-47.3	-49.5	17.0	0.00e+00	0	34	0	310378496	65	4834
2026-01-17 05:36:39.88	45.21	15.61	-47.4	-49.5	17.0	0.00e+00	0	34	0	312475648	65	4843
2026-01-17 05:36:40.88	45.04	15.68	-47.3	-49.4	17.1	0.00e+00	0	34	0	314572800	65	4771
2026-01-17 05:36:41.89	44.88	15.75	-47.1	-49.2	17.3	0.00e+00	0	34	0	316669952	65	4684
2026-01-17 05:36:42.90	44.71	15.82	-47.1	-49.2	17.3	0.00e+00	0	34	0	318767104	65	4670
2026-01-17 05:36:43.91	44.54	15.89	-47.0	-49.0	17.5	0.00e+00	0	34	0	319815680	65	4576
2026-01-17 05:36:44.92	44.37	15.97	-46.9	-48.8	17.7	0.00e+00	0	34	0	321912832	65	4486
2026-01-17 05:36:45.92	44.20	16.04	-46.8	-48.6	17.8	0.00e+00	0	34	0	324009984	65	4389
2026-01-17 05:36:46.93	44.03	16.11	-47.1	-49.1	17.4	0.00e+00	0	34	0	326107136	65	4615
2026-01-17 05:36:47.94	43.85	16.18	-47.2	-49.2	17.3	0.00e+00	0	34	0	328204288	65	4703
2026-01-17 05:36:48.95	43.68	16.25	-47.2	-49.3	17.2	0.00e+00	0	34	0	330301440	65	4716
2026-01-17 05:36:49.96	43.51	16.32	-47.0	-49.0	17.4	0.00e+00	0	34	0	331350016	65	4592
2026-01-17 05:36:50.97	43.33	16.39	-47.0	-49.0	17.5	0.00e+00	0	34	0	333447168	65	4574
2026-01-17 05:36:51.97	43.16	16.46	-46.9	-48.8	17.6	0.00e+00	0	34	0	335544320	65	4492
2026-01-17 05:36:52.98	42.98	16.53	-46.8	-48.7	17.8	0.00e+00	0	34	0	337641472	65	4395
2026-01-17 05:36:53.99	42.80	16.60	-46.7	-48.5	17.9	0.00e+00	0	34	0	338690048	65	4334
2026-01-17 05:36:55.00	42.62	16.67	-46.9	-48.8	17.6	0.00e+00	0	34	0	340787200	65	4481
2026-01-17 05:36:56.01	42.44	16.74	-46.9	-48.9	17.6	0.00e+00	0	34	0	342884352	65	4499
2026-01-17 05:36:57.02	42.26	16.81	-47.0	-49.0	17.5	0.00e+00	0	34	0	344981504	65	4550
2026-01-17 05:36:58.02	42.09	16.88	-47.2	-49.3	17.3	0.00e+00	0	34	0	347078656	65	4719
2026-01-17 05:36:59.03	41.90	16.95	-47.2	-49.3	17.2	0.00e+00	0	34	0	349175808	65	4719
2026-01-17 05:37:00.04	41.72	17.02	-47.3	-49.4	17.1	0.00e+00	0	34	0	350224384	65	4770
2026-01-17 05:37:01.05	41.54	17.09	-47.2	-49.2	17.3	0.00e+00	0	34	0	352321536	65	4690
2026-01-17 05:37:02.06	41.35	17.16	-47.4	-49.6	16.9	0.00e+00	0	34	0	354418688	65	4894
2026-01-17 05:37:03.06	41.17	17.23	-47.3	-49.4	17.1	0.00e+00	0	34	0	356515840	65	4776
2026-01-17 05:37:04.07	40.98	17.30	-47.3	-49.4	17.1	0.00e+00	0	34	0	358612992	65	4767
2026-01-17 05:37:05.08	40.80	17.37	-47.0	-49.0	17.5	0.00e+00	0	34	0	359661568	65	4582
2026-01-17 05:37:06.09	40.61	17.44	-47.0	-48.9	17.6	0.00e+00	0	34	0	361758720	65	4530
2026-01-17 05:37:07.10	40.42	17.51	-47.0	-49.0	17.5	0.00e+00	0	34	0	363855872	65	4585
2026-01-17 05:37:08.10	40.23	17.58	-46.6	-48.4	18.1	0.00e+00	0	34	0	365953024	65	4282
2026-01-17 05:37:09.11	40.04	17.64	-46.5	-48.3	18.2	0.00e+00	0	34	0	367001600	64	4474
2026-01-17 05:37:10.12	39.85	17.71	-46.4	-48.2	18.3	0.00e+00	0	34	0	369098752	64	4398
2026-01-17 05:37:11.13	39.66	17.78	-46.4	-48.1	18.4	0.00e+00	0	34	0	371195904	64	4384
2026-01-17 05:37:12.14	39.46	17.85	-46.4	-48.2	18.3	0.00e+00	0	34	0	373293056	64	4403
2026-01-17 05:37:13.14	39.27	17.92	-46.4	-48.2	18.3	0.00e+00	0	34	0	375390208	64	4423
2026-01-17 05:37:14.15	39.08	17.99	-46.5	-48.4	18.1	0.00e+00	0	34	0	377487360	64	4502
2026-01-17 05:37:15.16	38.88	18.05	-46.6	-48.4	18.1	0.00e+00	0	34	0	378535936	64	4529
2026-01-17 05:37:16.17	38.68	18.12	-46.5	-48.4	18.1	0.00e+00	0	34	0	380633088	64	4502
2026-01-17 05:37:17.18	38.48	18.19	-46.3	-48.2	18.3	0.00e+00	0	34	0	382730240	64	4396
2026-01-17 05:37:18.18	38.29	18.26	-46.1	-47.9	18.6	0.00e+00	0	34	0	384827392	64	4250
2026-01-17 05:37:19.19	38.09	18.32	-46.2	-48.0	18.5	0.00e+00	0	34	0	386924544	64	4330
2026-01-17 05:37:20.20	37.89	18.39	-46.1	-47.8	18.8	0.00e+00	0	34	0	387973120	63	4452
2026-01-17 05:37:21.21	37.69	18.46	-46.1	-47.8	18.7	0.00e+00	0	34	0	390070272	63	4468
2026-01-17 05:37:22.22	37.48	18.53	-45.8	-47.4	19.0	0.00e+00	0	34	0	392167424	63	4260
2026-01-17 05:37:23.22	37.28	18.59	-45.8	-47.4	19.1	0.00e+00	0	34	0	394264576	63	4258
2026-01-17 05:37:24.23	37.08	18.66	-45.6	-47.1	19.4	0.00e+00	0	34	0	396361728	63	4141
2026-01-17 05:37:25.24	36.88	18.72	-45.5	-47.0	19.4	0.00e+00	0	34	0	397410304	63	4095
2026-01-17 05:37:26.25	36.67	18.79	-45.7	-47.3	19.3	0.00e+00	0	34	0	399507456	63	4206
2026-01-17 05:37:27.25	36.46	18.85	-45.8	-47.4	19.2	0.00e+00	0	34	0	401604608	63	4262
2026-01-17 05:37:28.26	36.26	18.92	-45.9	-47.5	19.0	0.00e+00	0	34	0	403701760	63	4328
2026-01-17 05:37:29.27	36.05	18.99	-45.8	-47.4	19.2	0.00e+00	0	34	0	405798912	63	4246
2026-01-17 05:37:30.28	35.84	19.05	-45.7	-47.3	19.3	0.00e+00	0	34	0	406847488	63	4208
2026-01-17 05:37:31.29	35.63	19.12	-45.7	-47.3	19.3	0.00e+00	0	34	0	408944640	63	4225
2026-01-17 05:37:32.30	35.42	19.18	-45.8	-47.4	19.2	0.00e+00	0	34	0	411041792	63	4255
2026-01-17 05:37:33.30	35.21	19.24	-45.7	-47.2	19.3	0.00e+00	0	34	0	413138944	63	4187
2026-01-17 05:37:34.31	34.99	19.31	-45.2	-46.6	19.9	0.00e+00	0	34	0	415236096	62	4123
2026-01-17 05:37:35.32	34.78	19.37	-45.1	-46.5	20.0	0.00e+00	0	34	0	417333248	62	4097
2026-01-17 05:37:36.33	34.57	19.44	-45.1	-46.5	20.0	0.00e+00	0	34	0	418381824	62	4097
2026-01-17 05:37:37.34	34.35	19.50	-45.2	-46.6	19.9	0.00e+00	0	34	0	420478976	62	4112
2026-01-17 05:37:38.34	34.14	19.56	-45.3	-46.7	19.8	0.00e+00	0	34	0	422576128	62	4176
2026-01-17 05:37:39.35	33.92	19.62	-45.4	-46.9	19.6	0.00e+00	0	34	0	424673280	62	4286
2026-01-17 05:37:40.36	33.70	19.69	-45.5	-47.0	19.5	0.00e+00	0	34	0	425721856	62	4315
2026-01-17 05:37:41.37	33.48	19.75	-45.4	-46.8	19.7	0.00e+00	0	34	0	427819008	62	4233
2026-01-17 05:37:42.38	33.26	19.81	-45.5	-47.0	19.5	0.00e+00	0	34	0	429916160	62	4319
2026-01-17 05:37:43.38	33.04	19.87	-45.5	-47.0	19.6	0.00e+00	0	34	0	432013312	62	4313
2026-01-17 05:37:44.39	32.82	19.93	-45.5	-47.1	19.5	0.00e+00	0	34	0	434110464	62	4348
2026-01-17 05:37:45.40	32.60	19.99	-45.7	-47.3	19.3	0.00e+00	0	34	0	435159040	62	4452
2026-01-17 05:37:46.41	32.37	20.06	-45.3	-46.8	19.8	0.00e+00	0	34	0	437256192	62	4209
2026-01-17 05:37:47.42	32.15	20.12	-45.4	-46.9	19.6	0.00e+00	0	34	0	439353344	62	4260
2026-01-17 05:37:48.42	31.92	20.18	-44.9	-46.3	20.2	0.00e+00	0	34	0	441450496	61	4235
2026-01-17 05:37:49.43	31.70	20.24	-44.9	-46.3	20.2	0.00e+00	0	34	0	443547648	61	4208
2026-01-17 05:37:50.44	31.47	20.29	-44.9	-46.3	20.2	0.00e+00	0	34	0	445644800	61	4196
2026-01-17 05:37:51.45	31.24	20.35	-45.1	-46.5	20.0	0.00e+00	0	34	0	446693376	61	4315
2026-01-17 05:37:52.46	31.01	20.41	-45.1	-46.5	20.0	0.00e+00	0	34	0	448790528	61	4340
2026-01-17 05:37:53.46	30.79	20.47	-45.0	-46.4	20.1	0.00e+00	0	34	0	450887680	61	4284
2026-01-17 05:37:54.47	30.55	20.53	-45.0	-46.4	20.1	0.00e+00	0	34	0	452984832	61	4251
2026-01-17 05:37:55.48	30.32	20.59	-44.7	-46.1	20.4	0.00e+00	0	34	0	454033408	61	4107
2026-01-17 05:37:56.48	30.09	20.64	-44.9	-46.3	20.3	0.00e+00	0	34	0	456130560	61	4226
2026-01-17 05:37:57.49	29.86	20.70	-44.8	-46.1	20.4	0.00e+00	0	34	0	458227712	61	4126
2026-01-17 05:37:58.50	29.62	20.76	-45.0	-46.4	20.2	0.00e+00	0	34	0	460324864	61	4257
2026-01-17 05:37:59.51	29.39	20.81	-44.8	-46.2	20.4	0.00e+00	0	34	0	462422016	61	4167
2026-01-17 05:38:00.52	29.15	20.87	-44.6	-45.9	20.6	0.00e+00	0	34	0	464519168	61	4027
2026-01-17 05:38:01.52	28.92	20.92	-44.6	-45.9	20.7	0.00e+00	0	34	0	465567744	61	4034
2026-01-17 05:38:02.53	28.68	20.98	-44.7	-46.0	20.5	0.00e+00	0	34	0	467664896	61	4061
2026-01-17 05:38:03.54	28.44	21.03	-44.8	-46.1	20.4	0.00e+00	0	34	0	469762048	61	4144
2026-01-17 05:38:04.55	28.20	21.09	-44.9	-46.3	20.3	0.00e+00	0	34	0	471859200	61	4204
2026-01-17 05:38:05.56	27.96	21.14	-44.9	-46.2	20.3	0.00e+00	0	34	0	473956352	61	4186
2026-01-17 05:38:06.56	27.72	21.19	-44.9	-46.2	20.3	0.00e+00	0	34	0	475004928	61	4183
2026-01-17 05:38:07.57	27.48	21.25	-44.5	-45.8	20.7	0.00e+00	0	34	0	477102080	61	3973
2026-01-17 05:38:08.58	27.24	21.30	-44.6	-45.9	20.6	0.00e+00	0	34	0	479199232	61	4041
2026-01-17 05:38:09.59	26.99	21.35	-44.7	-46.0	20.5	0.00e+00	0	34	0	481296384	61	4089
2026-01-17 05:38:10.60	26.75	21.40	-45.0	-46.3	20.3	0.00e+00	0	34	0	482344960	61	4238
2026-01-17 05:38:11.61	26.50	21.46	-45.1	-46.5	20.1	0.00e+00	0	34	0	484442112	61	4304
2026-01-17 05:38:12.62	26.26	21.51	-45.2	-46.6	20.0	0.00e+00	0	34	0	486539264	61	4356
2026-01-17 05:38:13.62	26.01	21.56	-45.0	-46.3	20.2	0.00e+00	0	34	0	488636416	61	4238
2026-01-17 05:38:14.63	25.77	21.61	-44.9	-46.2	20.3	0.00e+00	0	34	0	490733568	61	4188
2026-01-17 05:38:15.64	25.52	21.65	-44.9	-46.2	20.4	0.00e+00	0	34	0	492830720	61	4174
2026-01-17 05:38:16.65	25.27	21.70	-45.0	-46.3	20.3	0.00e+00	0	34	0	493879296	61	4225
2026-01-17 05:38:17.66	25.02	21.75	-45.0	-46.3	20.2	0.00e+00	0	34	0	495976448	61	4235
2026-01-17 05:38:18.66	24.77	21.80	-44.9	-46.3	20.3	0.00e+00	0	34	0	498073600	61	4209
2026-01-17 05:38:19.67	24.52	21.85	-44.9	-46.2	20.4	0.00e+00	0	34	0	500170752	61	4161
2026-01-17 05:38:20.68	24.26	21.89	-45.0	-46.3	20.3	0.00e+00	0	34	0	502267904	61	4238
2026-01-17 05:38:21.69	24.01	21.94	-45.0	-46.4	20.2	0.00e+00	0	34	0	503316480	61	4272
2026-01-17 05:38:22.70	23.76	21.99	-44.8	-46.2	20.4	0.00e+00	0	34	0	505413632	61	4153
2026-01-17 05:38:23.70	23.51	22.03	-44.9	-46.2	20.3	0.00e+00	0	34	0	507510784	61	4187
2026-01-17 05:38:24.71	23.25	22.08	-44.7	-46.0	20.5	0.00e+00	0	34	0	509607936	61	4076
2026-01-17 05:38:25.72	22.99	22.12	-44.7	-46.0	20.6	0.00e+00	0	34	0	511705088	61	4060
2026-01-17 05:38:26.73	22.74	22.16	-44.8	-46.1	20.5	0.00e+00	0	34	0	512753664	61	4145
2026-01-17 05:38:27.74	22.48	22.21	-45.0	-46.3	20.3	0.00e+00	0	34	0	514850816	61	4224
2026-01-17 05:38:28.74	22.22	22.25	-44.8	-46.1	20.5	0.00e+00	0	34	0	516947968	61	4123
2026-01-17 05:38:29.75	21.96	22.29	-44.7	-46.0	20.7	0.00e+00	0	34	0	519045120	61	4060
2026-01-17 05:38:30.76	21.70	22.33	-44.6	-45.8	20.8	0.00e+00	0	34	0	521142272	61	3983
2026-01-17 05:38:31.77	21.44	22.37	-44.6	-45.9	20.7	0.00e+00	0	34	0	522190848	61	4012
2026-01-17 05:38:32.77	21.18	22.41	-44.6	-45.9	20.7	0.00e+00	0	34	0	524288000	61	4037
2026-01-17 05:38:33.78	20.92	22.45	-44.7	-45.9	20.6	0.00e+00	0	34	0	526385152	60	4281
2026-01-17 05:38:34.79	20.66	22.49	-44.9	-46.2	20.4	0.00e+00	0	34	0	528482304	60	4417
2026-01-17 05:38:35.80	20.40	22.53	-44.8	-46.0	20.5	0.00e+00	0	34	0	530579456	60	4338
2026-01-17 05:38:36.81	20.13	22.57	-45.0	-46.4	20.3	0.00e+00	0	34	0	531628032	60	4504
2026-01-17 05:38:37.82	19.87	22.61	-45.2	-46.6	20.1	0.00e+00	0	34	0	533725184	61	4373
2026-01-17 05:38:38.82	19.61	22.64	-45.4	-46.8	19.8	0.00e+00	0	34	0	535822336	61	4484
2026-01-17 05:38:39.83	19.34	22.68	-45.7	-47.2	19.5	0.00e+00	0	34	0	537919488	62	4411
2026-01-17 05:38:40.84	19.07	22.71	-46.0	-47.6	19.2	0.00e+00	0	34	0	540016640	62	4630
2026-01-17 05:38:41.85	18.81	22.75	-46.3	-48.0	18.8	0.00e+00	0	34	0	541065216	63	4570
2026-01-17 05:38:42.85	18.54	22.78	-46.5	-48.2	18.6	0.00e+00	0	34	0	543162368	63	4662
2026-01-17 05:38:43.86	18.27	22.82	-46.5	-48.3	18.4	0.00e+00	0	34	0	545259520	64	4460
2026-01-17 05:38:44.87	18.00	22.85	-46.7	-48.5	18.2	0.00e+00	0	34	0	547356672	64	4564
2026-01-17 05:38:45.88	17.74	22.88	-46.6	-48.3	18.4	0.00e+00	0	34	0	549453824	64	4468
2026-01-17 05:38:46.89	17.47	22.91	-46.5	-48.2	18.5	0.00e+00	0	34	0	550502400	64	4423
2026-01-17 05:38:47.90	17.19	22.95	-46.2	-47.9	18.7	0.00e+00	0	34	0	552599552	64	4267
2026-01-17 05:38:48.90	16.93	22.98	-46.1	-47.7	19.0	0.00e+00	0	34	0	554696704	64	4171
2026-01-17 05:38:49.91	16.65	23.01	-46.0	-47.6	19.0	0.00e+00	0	34	0	556793856	64	4128
2026-01-17 05:38:50.92	16.38	23.04	-45.9	-47.4	19.3	0.00e+00	0	34	0	558891008	63	4280
2026-01-17 05:38:51.93	16.11	23.06	-46.0	-47.5	19.3	0.00e+00	0	34	0	559939584	63	4315
2026-01-17 05:38:52.94	15.84	23.09	-46.0	-47.5	19.2	0.00e+00	0	34	0	562036736	63	4332
2026-01-17 05:38:53.94	15.57	23.12	-46.1	-47.7	19.1	0.00e+00	0	34	0	564133888	63	4439
2026-01-17 05:38:54.95	15.29	23.14	-46.1	-47.7	19.1	0.00e+00	0	34	0	566231040	63	4393
2026-01-17 05:38:55.96	15.02	23.17	-46.2	-47.9	18.9	0.00e+00	0	34	0	568328192	63	4516
2026-01-17 05:38:56.97	14.74	23.20	-46.1	-47.7	19.0	0.00e+00	0	34	0	569376768	63	4440
2026-01-17 05:38:57.98	14.47	23.22	-46.0	-47.6	19.1	0.00e+00	0	34	0	571473920	63	4369
2026-01-17 05:38:58.98	14.19	23.24	-46.2	-47.8	18.9	0.00e+00	0	34	0	573571072	63	4477
2026-01-17 05:38:59.99	13.92	23.27	-46.5	-48.2	18.5	0.00e+00	0	34	0	575668224	63	4675
2026-01-17 05:39:01.00	13.64	23.29	-46.5	-48.2	18.4	0.00e+00	0	34	0	577765376	63	4691
2026-01-17 05:39:02.01	13.36	23.31	-46.4	-48.0	18.7	0.00e+00	0	34	0	578813952	63	4588
2026-01-17 05:39:03.02	13.09	23.33	-46.4	-48.1	18.6	0.00e+00	0	34	0	580911104	63	4622
2026-01-17 05:39:04.02	12.81	23.35	-46.4	-48.0	18.7	0.00e+00	0	34	0	583008256	63	4587
2026-01-17 05:39:05.03	12.53	23.37	-46.6	-48.3	18.4	0.00e+00	0	34	0	585105408	63	4729
2026-01-17 05:39:06.04	12.26	23.39	-46.7	-48.4	18.2	0.00e+00	0	34	0	587202560	64	4535
2026-01-17 05:39:07.05	11.98	23.41	-46.9	-48.7	18.0	0.00e+00	0	34	0	588251136	64	4684
2026-01-17 05:39:08.06	11.70	23.43	-46.8	-48.7	18.0	0.00e+00	0	34	0	590348288	64	4658
2026-01-17 05:39:09.06	11.42	23.44	-46.9	-48.8	17.9	0.00e+00	0	34	0	592445440	64	4754
2026-01-17 05:39:10.07	11.14	23.46	-46.8	-48.6	18.1	0.00e+00	0	34	0	594542592	64	4636
2026-01-17 05:39:11.08	10.86	23.47	-46.8	-48.7	18.0	0.00e+00	0	34	0	596639744	64	4661
2026-01-17 05:39:12.09	10.58	23.49	-46.8	-48.6	18.0	0.00e+00	0	34	0	597688320	64	4641
2026-01-17 05:39:13.09	10.30	23.50	-46.6	-48.3	18.3	0.00e+00	0	34	0	599785472	64	4493
2026-01-17 05:39:14.10	10.02	23.51	-46.7	-48.5	18.2	0.00e+00	0	34	0	601882624	64	4554
2026-01-17 05:39:15.11	9.74	23.53	-46.8	-48.7	18.0	0.00e+00	0	34	0	603979776	64	4671
2026-01-17 05:39:16.12	9.46	23.54	-46.9	-48.8	17.9	0.00e+00	0	34	0	606076928	64	4752
2026-01-17 05:39:17.13	9.18	23.55	-47.0	-49.0	17.8	0.00e+00	0	34	0	608174080	65	4558
2026-01-17 05:39:18.14	8.90	23.56	-47.3	-49.4	17.3	0.00e+00	0	34	0	609222656	65	4808
2026-01-17 05:39:19.14	8.62	23.57	-47.4	-49.5	17.2	0.00e+00	0	34	0	611319808	65	4864
2026-01-17 05:39:20.15	8.34	23.58	-47.5	-49.6	17.1	0.00e+00	0	34	0	613416960	65	4909
2026-01-17 05:39:21.16	8.05	23.58	-47.3	-49.4	17.3	0.00e+00	0	34	0	615514112	65	4794
2026-01-17 05:39:22.17	7.77	23.59	-47.1	-49.1	17.7	0.00e+00	0	34	0	616562688	65	4625
2026-01-17 05:39:23.18	7.49	23.60	-46.6	-48.5	18.2	0.00e+00	0	34	0	618659840	65	4296
2026-01-17 05:39:24.18	7.21	23.60	-46.5	-48.3	18.3	0.00e+00	0	34	0	620756992	65	4232
2026-01-17 05:39:25.19	6.93	23.61	-46.3	-48.0	18.6	0.00e+00	0	34	0	622854144	64	4324
2026-01-17 05:39:26.20	6.65	23.61	-46.0	-47.6	19.0	0.00e+00	0	34	0	624951296	63	4387
2026-01-17 05:39:27.21	6.36	23.62	-45.9	-47.4	19.3	0.00e+00	0	34	0	625999872	63	4274
2026-01-17 05:39:28.21	6.08	23.62	-45.9	-47.4	19.2	0.00e+00	0	34	0	628097024	63	4284
2026-01-17 05:39:29.22	5.80	23.62	-46.1	-47.8	18.9	0.00e+00	0	34	0	630194176	63	4446
2026-01-17 05:39:30.23	5.52	23.62	-46.2	-47.9	18.7	0.00e+00	0	34	0	632291328	63	4523
2026-01-17 05:39:31.24	5.23	23.62	-46.4	-48.1	18.6	0.00e+00	0	34	0	634388480	63	4618
2026-01-17 05:39:32.24	4.95	23.62	-46.3	-48.1	18.6	0.00e+00	0	34	0	636485632	63	4601
2026-01-17 05:39:33.25	4.67	23.62	-46.3	-48.0	18.7	0.00e+00	0	34	0	637534208	63	4556
2026-01-17 05:39:34.26	4.39	23.62	-46.2	-47.8	18.9	0.00e+00	0	34	0	639631360	63	4466
2026-01-17 05:39:35.27	4.11	23.62	-46.1	-47.8	19.0	0.00e+00	0	34	0	641728512	63	4447
2026-01-17 05:39:36.28	3.82	23.61	-46.0	-47.6	19.1	0.00e+00	0	34	0	643825664	63	4370
2026-01-17 05:39:37.28	3.54	23.61	-46.1	-47.7	19.0	0.00e+00	0	34	0	644874240	63	4412
2026-01-17 05:39:38.29	3.26	23.60	-46.2	-47.8	18.9	0.00e+00	0	34	0	646971392	63	4479
2026-01-17 05:39:39.30	2.98	23.60	-45.9	-47.4	19.3	0.00e+00	0	34	0	649068544	63	4265
2026-01-17 05:39:40.31	2.70	23.59	-45.9	-47.4	19.3	0.00e+00	0	34	0	651165696	63	4269
2026-01-17 05:39:41.32	2.42	23.58	-45.8	-47.3	19.4	0.00e+00	0	34	0	653262848	63	4216
2026-01-17 05:39:42.32	2.14	23.58	-45.7	-47.2	19.4	0.00e+00	0	34	0	655360000	63	4184
2026-01-17 05:39:43.33	1.85	23.57	-45.7	-47.3	19.4	0.00e+00	0	34	0	656408576	63	4204
2026-01-17 05:39:44.34	1.57	23.56	-45.7	-47.2	19.4	0.00e+00	0	34	0	658505728	63	4177
2026-01-17 05:39:45.35	1.29	23.55	-45.5	-46.9	19.8	0.00e+00	0	34	0	660602880	62	4272
2026-01-17 05:39:46.36	1.01	23.54	-45.5	-47.0	19.7	0.00e+00	0	34	0	662700032	62	4295
2026-01-17 05:39:47.37	0.73	23.52	-45.5	-46.9	19.8	0.00e+00	0	34	0	664797184	62	4267
2026-01-17 05:39:48.38	0.45	23.51	-45.6	-47.1	19.7	0.00e+00	0	34	0	665845760	62	4349
2026-01-17 05:39:49.38	0.17	23.50	-45.8	-47.4	19.4	0.00e+00	0	34	0	667942912	62	4506
2026-01-17 05:39:50.39	359.89	23.49	-45.9	-47.4	19.3	0.00e+00	0	34	0	670040064	62	4539
2026-01-17 05:39:51.40	359.61	23.47	-45.8	-47.3	19.5	0.00e+00	0	34	0	672137216	62	4468
2026-01-17 05:39:52.41	359.33	23.46	-45.6	-47.0	19.7	0.00e+00	0	34	0	673185792	62	4331
2026-01-17 05:39:53.42	359.05	23.44	-45.1	-46.5	20.2	0.00e+00	0	34	0	675282944	62	4068
2026-01-17 05:39:54.42	358.77	23.42	-45.4	-46.8	20.0	0.00e+00	0	34	0	677380096	62	4221
2026-01-17 05:39:55.43	358.49	23.41	-45.0	-46.4	20.4	0.00e+00	0	34	0	679477248	62	4011
2026-01-17 05:39:56.44	358.22	23.39	-45.0	-46.4	20.3	0.00e+00	0	34	0	681574400	62	4010
2026-01-17 05:39:57.45	357.94	23.37	-44.9	-46.2	20.5	0.00e+00	0	34	0	683671552	61	4184
2026-01-17 05:39:58.45	357.66	23.35	-44.6	-45.9	20.7	0.00e+00	0	34	0	684720128	61	4011
2026-01-17 05:39:59.46	357.38	23.33	-44.5	-45.8	20.8	0.00e+00	0	34	0	686817280	61	3968
2026-01-17 05:40:00.47	357.11	23.31	-44.5	-45.7	20.9	0.00e+00	0	34	0	688914432	60	4176
2026-01-17 05:40:01.48	356.83	23.29	-44.6	-45.8	20.8	0.00e+00	0	34	0	691011584	60	4230
2026-01-17 05:40:02.49	356.55	23.26	-44.6	-45.8	20.8	0.00e+00	0	34	0	693108736	60	4240
2026-01-17 05:40:03.49	356.28	23.24	-44.6	-45.9	20.7	0.00e+00	0	34	0	694157312	60	4264
2026-01-17 05:40:04.50	356.00	23.22	-44.6	-45.9	20.8	0.00e+00	0	34	0	696254464	60	4265
2026-01-17 05:40:05.51	355.73	23.19	-44.5	-45.7	20.9	0.00e+00	0	34	0	698351616	60	4190
2026-01-17 05:40:06.52	355.45	23.17	-44.8	-46.0	20.6	0.00e+00	0	34	0	700448768	60	4335
2026-01-17 05:40:07.52	355.18	23.14	-44.9	-46.1	20.5	0.00e+00	0	34	0	702545920	60	4385
2026-01-17 05:40:08.53	354.91	23.11	-45.1	-46.4	20.3	0.00e+00	0	34	0	703594496	61	4274
2026-01-17 05:40:09.54	354.64	23.09	-45.1	-46.4	20.3	0.00e+00	0	34	0	705691648	61	4275
2026-01-17 05:40:10.55	354.36	23.06	-45.1	-46.5	20.2	0.00e+00	0	34	0	707788800	61	4300
2026-01-17 05:40:11.56	354.09	23.03	-45.2	-46.6	20.1	0.00e+00	0	34	0	709885952	61	4346
2026-01-17 05:40:12.57	353.82	23.00	-45.2	-46.6	20.1	0.00e+00	0	34	0	711983104	61	4372
2026-01-17 05:40:13.58	353.55	22.97	-45.0	-46.4	20.3	0.00e+00	0	34	0	713031680	61	4243
2026-01-17 05:40:14.58	353.28	22.94	-44.9	-46.2	20.4	0.00e+00	0	34	0	715128832	61	4188
2026-01-17 05:40:15.59	353.01	22.91	-44.8	-46.1	20.5	0.00e+00	0	34	0	717225984	61	4119
2026-01-17 05:40:16.60	352.74	22.88	-44.7	-45.9	20.7	0.00e+00	0	34	0	719323136	61	4038
2026-01-17 05:40:17.61	352.47	22.84	-44.9	-46.2	20.5	0.00e+00	0	34	0	721420288	61	4147
2026-01-17 05:40:18.62	352.20	22.81	-45.2	-46.5	20.2	0.00e+00	0	34	0	723517440	61	4316
2026-01-17 05:40:19.63	351.93	22.78	-45.5	-46.9	19.9	0.00e+00	0	34	0	724566016	61	4507
2026-01-17 05:40:20.64	351.67	22.74	-45.5	-46.9	19.8	0.00e+00	0	34	0	726663168	61	4544
2026-01-17 05:40:21.64	351.40	22.71	-45.5	-46.9	19.8	0.00e+00	0	34	0	728760320	61	4505
2026-01-17 05:40:22.65	351.14	22.67	-45.3	-46.7	20.0	0.00e+00	0	34	0	730857472	61	4417
2026-01-17 05:40:23.66	350.87	22.64	-45.1	-46.4	20.3	0.00e+00	0	34	0	731906048	61	4263
2026-01-17 05:40:24.67	350.61	22.60	-45.2	-46.6	20.1	0.00e+00	0	34	0	734003200	61	4346
2026-01-17 05:40:25.68	350.34	22.56	-45.3	-46.7	20.0	0.00e+00	0	34	0	736100352	61	4412
2026-01-17 05:40:26.69	350.08	22.52	-45.2	-46.6	20.1	0.00e+00	0	34	0	738197504	61	4362
2026-01-17 05:40:27.70	349.81	22.48	-45.4	-46.8	19.9	0.00e+00	0	34	0	740294656	61	4480
2026-01-17 05:40:28.70	349.55	22.45	-45.4	-46.8	19.9	0.00e+00	0	34	0	741343232	61	4473
2026-01-17 05:40:29.71	349.29	22.41	-45.7	-47.2	19.5	0.00e+00	0	34	0	743440384	62	4425
2026-01-17 05:40:30.72	349.03	22.37	-45.8	-47.3	19.5	0.00e+00	0	34	0	745537536	62	4476
2026-01-17 05:40:31.73	348.77	22.32	-45.9	-47.5	19.2	0.00e+00	0	34	0	747634688	62	4549
2026-01-17 05:40:32.74	348.51	22.28	-46.3	-47.9	18.9	0.00e+00	0	34	0	749731840	63	4508
2026-01-17 05:40:33.74	348.26	22.24	-46.5	-48.2	18.5	0.00e+00	0	34	0	751828992	63	4698
2026-01-17 05:40:34.75	348.00	22.20	-46.6	-48.4	18.3	0.00e+00	0	34	0	752877568	64	4519
2026-01-17 05:40:35.76	347.74	22.16	-46.9	-48.7	18.0	0.00e+00	0	34	0	754974720	64	4693
2026-01-17 05:40:36.77	347.48	22.11	-46.7	-48.6	18.1	0.00e+00	0	34	0	757071872	64	4601
2026-01-17 05:40:37.78	347.23	22.07	-46.6	-48.4	18.2	0.00e+00	0	34	0	759169024	64	4524
2026-01-17 05:40:38.78	346.97	22.02	-46.6	-48.4	18.3	0.00e+00	0	34	0	760217600	64	4506
2026-01-17 05:40:39.79	346.72	21.98	-46.4	-48.1	18.6	0.00e+00	0	34	0	762314752	64	4342
2026-01-17 05:40:40.80	346.47	21.93	-46.2	-47.8	18.8	0.00e+00	0	34	0	764411904	64	4226
2026-01-17 05:40:41.81	346.21	21.89	-46.0	-47.6	19.1	0.00e+00	0	34	0	766509056	63	4374
2026-01-17 05:40:42.82	345.96	21.84	-46.1	-47.7	19.0	0.00e+00	0	34	0	768606208	63	4437
2026-01-17 05:40:43.83	345.71	21.79	-46.2	-47.8	18.9	0.00e+00	0	34	0	770703360	63	4461
2026-01-17 05:40:44.84	345.46	21.74	-46.4	-48.1	18.7	0.00e+00	0	34	0	771751936	63	4602
2026-01-17 05:40:45.84	345.21	21.69	-46.5	-48.2	18.5	0.00e+00	0	34	0	773849088	63	4705
2026-01-17 05:40:46.85	344.96	21.65	-46.6	-48.3	18.4	0.00e+00	0	34	0	775946240	63	4729
2026-01-17 05:40:47.86	344.71	21.60	-46.3	-48.0	18.7	0.00e+00	0	34	0	778043392	63	4566
2026-01-17 05:40:48.87	344.47	21.55	-46.1	-47.7	19.0	0.00e+00	0	34	0	780140544	63	4410
2026-01-17 05:40:49.88	344.22	21.50	-46.0	-47.6	19.1	0.00e+00	0	34	0	781189120	63	4374
2026-01-17 05:40:50.89	343.97	21.45	-46.2	-47.9	18.9	0.00e+00	0	34	0	783286272	63	4505
2026-01-17 05:40:51.90	343.73	21.39	-46.4	-48.0	18.7	0.00e+00	0	34	0	785383424	63	4584
2026-01-17 05:40:52.90	343.49	21.34	-46.2	-47.8	18.9	0.00e+00	0	34	0	787480576	63	4476
2026-01-17 05:40:53.91	343.24	21.29	-46.3	-48.0	18.8	0.00e+00	0	34	0	788529152	63	4568
2026-01-17 05:40:54.92	343.00	21.24	-45.9	-47.4	19.3	0.00e+00	0	34	0	790626304	63	4288
2026-01-17 05:40:55.93	342.76	21.19	-45.9	-47.4	19.2	0.00e+00	0	34	0	792723456	63	4285
2026-01-17 05:40:56.94	342.52	21.13	-46.1	-47.7	19.1	0.00e+00	0	34	0	794820608	63	4404
2026-01-17 05:40:57.95	342.28	21.08	-46.3	-48.0	18.8	0.00e+00	0	34	0	796917760	63	4558
2026-01-17 05:40:58.96	342.04	21.02	-46.4	-48.1	18.6	0.00e+00	0	34	0	799014912	63	4634
2026-01-17 05:40:59.96	341.80	20.97	-46.7	-48.5	18.2	0.00e+00	0	34	0	800063488	64	4581
2026-01-17 05:41:00.97	341.56	20.91	-46.7	-48.5	18.0	0.00e+00	0	34	0	802160640	64	4598
2026-01-17 05:41:01.98	341.33	20.86	-46.9	-48.9	17.8	0.00e+00	0	34	0	804257792	64	4763
2026-01-17 05:41:02.99	341.09	20.80	-47.0	-48.9	17.8	0.00e+00	0	34	0	806354944	64	4779
2026-01-17 05:41:04.00	340.86	20.75	-46.9	-48.8	17.9	0.00e+00	0	34	0	808452096	64	4717
2026-01-17 05:41:05.01	340.62	20.69	-46.9	-48.9	17.8	0.00e+00	0	34	0	809500672	64	4764
2026-01-17 05:41:06.02	340.39	20.63	-46.9	-48.9	17.9	0.00e+00	0	34	0	811597824	64	4766
2026-01-17 05:41:07.02	340.16	20.58	-47.4	-49.5	17.2	0.00e+00	0	34	0	813694976	65	4827
2026-01-17 05:41:08.03	339.93	20.52	-47.5	-49.8	17.0	0.00e+00	0	34	0	815792128	65	4984
2026-01-17 05:41:09.04	339.70	20.46	-47.9	-50.2	16.5	0.00e+00	0	34	0	817889280	66	4969
2026-01-17 05:41:10.05	339.47	20.40	-48.3	-50.8	15.9	0.00e+00	0	34	0	818937856	67	5040
2026-01-17 05:41:11.06	339.24	20.34	-48.4	-51.1	15.6	0.00e+00	0	34	0	821035008	67	5215
2026-01-17 05:41:12.07	339.01	20.28	-48.1	-50.6	16.1	0.00e+00	0	34	0	823132160	67	4873
2026-01-17 05:41:13.07	338.79	20.22	-47.6	-49.9	16.8	0.00e+00	0	34	0	825229312	67	4505
2026-01-17 05:41:14.08	338.56	20.16	-47.4	-49.5	17.2	0.00e+00	0	34	0	827326464	66	4594
2026-01-17 05:41:15.09	338.34	20.10	-46.9	-48.8	17.8	0.00e+00	0	34	0	828375040	65	4490
2026-01-17 05:41:16.10	338.11	20.04	-46.3	-48.1	18.5	0.00e+00	0	34	0	830472192	64	4369
2026-01-17 05:41:17.10	337.89	19.98	-46.3	-48.1	18.6	0.00e+00	0	34	0	832569344	63	4615
2026-01-17 05:41:18.11	337.67	19.92	-45.9	-47.5	19.2	0.00e+00	0	34	0	834666496	63	4304
2026-01-17 05:41:19.12	337.45	19.86	-45.8	-47.4	19.2	0.00e+00	0	34	0	836763648	63	4283
2026-01-17 05:41:20.13	337.22	19.80	-45.6	-47.2	19.5	0.00e+00	0	34	0	837812224	63	4153
2026-01-17 05:41:21.14	337.00	19.74	-45.8	-47.3	19.3	0.00e+00	0	34	0	839909376	63	4227
2026-01-17 05:41:22.15	336.79	19.68	-45.8	-47.3	19.3	0.00e+00	0	34	0	842006528	63	4238
2026-01-17 05:41:23.16	336.57	19.61	-45.6	-47.1	19.5	0.00e+00	0	34	0	844103680	63	4141
2026-01-17 05:41:24.17	336.35	19.55	-45.8	-47.3	19.3	0.00e+00	0	34	0	846200832	63	4234
2026-01-17 05:41:25.18	336.13	19.49	-45.6	-47.1	19.5	0.00e+00	0	34	0	847249408	63	4118
2026-01-17 05:41:26.19	335.92	19.42	-45.4	-46.9	19.7	0.00e+00	0	34	0	849346560	62	4249
2026-01-17 05:41:27.19	335.71	19.36	-45.3	-46.7	19.8	0.00e+00	0	34	0	851443712	62	4188
2026-01-17 05:41:28.20	335.49	19.30	-45.3	-46.8	19.8	0.00e+00	0	34	0	853540864	62	4198
2026-01-17 05:41:29.21	335.28	19.23	-44.8	-46.2	20.3	0.00e+00	0	34	0	855638016	61	4146
2026-01-17 05:41:30.22	335.07	19.17	-44.8	-46.1	20.3	0.00e+00	0	34	0	857735168	61	4125
2026-01-17 05:41:31.23	334.86	19.10	-44.9	-46.3	20.2	0.00e+00	0	34	0	858783744	61	4201
2026-01-17 05:41:32.24	334.65	19.04	-44.9	-46.3	20.2	0.00e+00	0	34	0	860880896	61	4221
2026-01-17 05:41:33.24	334.44	18.97	-45.3	-46.8	19.7	0.00e+00	0	34	0	862978048	61	4452
2026-01-17 05:41:34.25	334.23	18.91	-45.8	-47.4	19.3	0.00e+00	0	34	0	865075200	62	4496
2026-01-17 05:41:35.26	334.03	18.84	-46.2	-47.9	18.7	0.00e+00	0	34	0	866123776	63	4529
2026-01-17 05:41:36.27	333.82	18.78	-46.5	-48.3	18.4	0.00e+00	0	34	0	868220928	63	4740
2026-01-17 05:41:37.28	333.61	18.71	-46.8	-48.7	17.9	0.00e+00	0	34	0	870318080	64	4670
2026-01-17 05:41:38.29	333.41	18.64	-46.9	-48.8	17.8	0.00e+00	0	34	0	872415232	64	4747
2026-01-17 05:41:39.30	333.21	18.58	-46.9	-48.9	17.6	0.00e+00	0	34	0	874512384	64	4806
2026-01-17 05:41:40.31	333.00	18.51	-46.8	-48.7	17.8	0.00e+00	0	34	0	875560960	64	4696
2026-01-17 05:41:41.32	332.80	18.45	-46.8	-48.7	17.8	0.00e+00	0	34	0	877658112	64	4691
2026-01-17 05:41:42.33	332.60	18.38	-46.2	-48.0	18.5	0.00e+00	0	34	0	879755264	64	4310
2026-01-17 05:41:43.33	332.40	18.31	-46.0	-47.7	18.8	0.00e+00	0	34	0	881852416	64	4162
2026-01-17 05:41:44.34	332.20	18.24	-45.9	-47.6	19.0	0.00e+00	0	34	0	883949568	63	4346
2026-01-17 05:41:45.35	332.00	18.18	-45.7	-47.3	19.3	0.00e+00	0	34	0	886046720	63	4217
2026-01-17 05:41:46.36	331.81	18.11	-45.6	-47.1	19.4	0.00e+00	0	34	0	887095296	63	4130
2026-01-17 05:41:47.37	331.61	18.04	-45.6	-47.2	19.4	0.00e+00	0	34	0	889192448	63	4146
2026-01-17 05:41:48.38	331.42	17.97	-45.5	-47.0	19.6	0.00e+00	0	34	0	891289600	63	4073
2026-01-17 05:41:49.39	331.22	17.91	-45.4	-46.9	19.6	0.00e+00	0	34	0	893386752	62	4259
2026-01-17 05:41:50.40	331.03	17.84	-45.1	-46.5	20.0	0.00e+00	0	34	0	894435328	62	4087
2026-01-17 05:41:51.41	330.83	17.77	-45.1	-46.5	20.0	0.00e+00	0	34	0	896532480	62	4077
2026-01-17 05:41:52.41	330.64	17.70	-45.1	-46.5	20.1	0.00e+00	0	34	0	898629632	62	4064
2026-01-17 05:41:53.42	330.45	17.63	-45.4	-46.9	19.7	0.00e+00	0	34	0	900726784	62	4250
2026-01-17 05:41:54.43	330.26	17.56	-45.7	-47.3	19.3	0.00e+00	0	34	0	902823936	62	4476
2026-01-17 05:41:55.44	330.07	17.49	-46.1	-47.8	18.8	0.00e+00	0	34	0	904921088	62	4717
2026-01-17 05:41:56.45	329.88	17.42	-46.2	-47.9	18.7	0.00e+00	0	34	0	905969664	63	4519
2026-01-17 05:41:57.46	329.70	17.36	-46.1	-47.8	18.8	0.00e+00	0	34	0	908066816	63	4461
2026-01-17 05:41:58.47	329.51	17.29	-46.0	-47.7	18.9	0.00e+00	0	34	0	910163968	63	4413
2026-01-17 05:41:59.47	329.33	17.22	-46.0	-47.6	19.0	0.00e+00	0	34	0	912261120	63	4370
2026-01-17 05:42:00.48	329.14	17.15	-45.9	-47.6	19.1	0.00e+00	0	34	0	914358272	63	4342
2026-01-17 05:42:01.49	328.96	17.08	-46.0	-47.6	19.0	0.00e+00	0	34	0	915406848	63	4384
2026-01-17 05:42:02.50	328.77	17.01	-46.1	-47.8	18.9	0.00e+00	0	34	0	917504000	63	4449
2026-01-17 05:42:03.51	328.59	16.94	-46.3	-48.0	18.6	0.00e+00	0	34	0	919601152	63	4588
2026-01-17 05:42:04.52	328.41	16.87	-46.5	-48.2	18.4	0.00e+00	0	34	0	921698304	63	4703
2026-01-17 05:42:05.52	328.23	16.80	-46.5	-48.3	18.4	0.00e+00	0	34	0	923795456	63	4721
2026-01-17 05:42:06.53	328.05	16.73	-46.3	-48.0	18.6	0.00e+00	0	34	0	924844032	63	4593
2026-01-17 05:42:07.54	327.87	16.66	-46.1	-47.7	18.8	0.00e+00	0	34	0	926941184	63	4441
2026-01-17 05:42:08.55	327.69	16.59	-46.1	-47.8	18.8	0.00e+00	0	34	0	929038336	63	4462
2026-01-17 05:42:09.56	327.52	16.52	-46.2	-47.9	18.8	0.00e+00	0	34	0	931135488	63	4507
2026-01-17 05:42:10.56	327.34	16.45	-46.3	-48.0	18.6	0.00e+00	0	34	0	933232640	63	4589
2026-01-17 05:42:11.57	327.17	16.38	-46.0	-47.6	19.0	0.00e+00	0	34	0	934281216	63	4369
2026-01-17 05:42:12.58	326.99	16.31	-45.9	-47.5	19.0	0.00e+00	0	34	0	936378368	63	4337
2026-01-17 05:42:13.59	326.82	16.24	-45.7	-47.3	19.3	0.00e+00	0	34	0	938475520	63	4194
2026-01-17 05:42:14.60	326.64	16.16	-45.7	-47.2	19.4	0.00e+00	0	34	0	940572672	63	4173
2026-01-17 05:42:15.61	326.47	16.09	-45.5	-47.0	19.6	0.00e+00	0	34	0	942669824	62	4301
2026-01-17 05:42:16.61	326.30	16.02	-45.5	-47.0	19.6	0.00e+00	0	34	0	944766976	62	4296
2026-01-17 05:42:17.62	326.13	15.95	-45.6	-47.1	19.4	0.00e+00	0	34	0	945815552	62	4357
2026-01-17 05:42:18.63	325.96	15.88	-45.5	-47.0	19.6	0.00e+00	0	34	0	947912704	62	4301
2026-01-17 05:42:19.64	325.79	15.81	-45.5	-47.0	19.5	0.00e+00	0	34	0	950009856	62	4319
2026-01-17 05:42:20.65	325.62	15.74	-45.6	-47.1	19.4	0.00e+00	0	34	0	952107008	62	4362
2026-01-17 05:42:21.65	325.46	15.67	-45.4	-46.9	19.7	0.00e+00	0	34	0	953155584	62	4247
2026-01-17 05:42:22.66	325.29	15.60	-45.2	-46.5	20.0	0.00e+00	0	34	0	955252736	62	4092
2026-01-17 05:42:23.67	325.13	15.53	-45.1	-46.4	20.0	0.00e+00	0	34	0	957349888	62	4038
2026-01-17 05:42:24.68	324.96	15.45	-44.9	-46.2	20.2	0.00e+00	0	34	0	959447040	61	4187
2026-01-17 05:42:25.69	324.80	15.38	-44.6	-45.9	20.6	0.00e+00	0	34	0	961544192	61	4007
2026-01-17 05:42:26.69	324.64	15.31	-44.7	-46.0	20.4	0.00e+00	0	34	0	962592768	61	4085
2026-01-17 05:42:27.70	324.47	15.24	-44.9	-46.2	20.3	0.00e+00	0	34	0	964689920	61	4155
2026-01-17 05:42:28.71	324.31	15.17	-44.8	-46.1	20.3	0.00e+00	0	34	0	966787072	61	4133
2026-01-17 05:42:29.72	324.15	15.10	-44.9	-46.3	20.2	0.00e+00	0	34	0	968884224	61	4195
2026-01-17 05:42:30.73	323.99	15.03	-45.1	-46.5	20.0	0.00e+00	0	34	0	970981376	61	4322
2026-01-17 05:42:31.74	323.83	14.96	-45.2	-46.5	19.9	0.00e+00	0	34	0	973078528	61	4333
2026-01-17 05:42:32.74	323.67	14.89	-45.3	-46.7	19.8	0.00e+00	0	34	0	974127104	61	4435
2026-01-17 05:42:33.75	323.51	14.81	-45.5	-47.0	19.6	0.00e+00	0	34	0	976224256	61	4549
2026-01-17 05:42:34.76	323.36	14.74	-45.5	-46.9	19.6	0.00e+00	0	34	0	978321408	61	4544
2026-01-17 05:42:35.77	323.20	14.67	-45.5	-47.0	19.5	0.00e+00	0	34	0	980418560	61	4560
2026-01-17 05:42:36.78	323.05	14.60	-45.5	-46.9	19.6	0.00e+00	0	34	0	981467136	61	4534
2026-01-17 05:42:37.78	322.89	14.53	-45.4	-46.8	19.7	0.00e+00	0	34	0	983564288	61	4461
2026-01-17 05:42:38.79	322.74	14.46	-45.2	-46.5	19.9	0.00e+00	0	34	0	985661440	61	4336
2026-01-17 05:42:39.80	322.58	14.39	-45.1	-46.5	20.0	0.00e+00	0	34	0	987758592	61	4312
2026-01-17 05:42:40.81	322.43	14.31	-44.8	-46.1	20.4	0.00e+00	0	34	0	989855744	61	4105
2026-01-17 05:42:41.82	322.28	14.24	-44.9	-46.2	20.2	0.00e+00	0	34	0	991952896	61	4159
2026-01-17 05:42:42.82	322.13	14.17	-44.8	-46.2	20.3	0.00e+00	0	34	0	993001472	61	4153
2026-01-17 05:42:43.83	321.98	14.10	-45.1	-46.4	20.0	0.00e+00	0	34	0	995098624	61	4283
2026-01-17 05:42:44.84	321.83	14.03	-45.4	-46.8	19.7	0.00e+00	0	34	0	997195776	61	4468
2026-01-17 05:42:45.84	321.68	13.96	-45.6	-47.2	19.3	0.00e+00	0	34	0	999292928	61	4657
2026-01-17 05:42:46.85	321.54	13.89	-45.8	-47.4	19.1	0.00e+00	0	34	0	1001390080	62	4510
2026-01-17 05:42:47.86	321.39	13.81	-45.9	-47.4	19.1	0.00e+00	0	34	0	1002438656	62	4536
2026-01-17 05:42:48.87	321.24	13.74	-46.1	-47.8	18.7	0.00e+00	0	34	0	1004535808	62	4734
2026-01-17 05:42:49.88	321.09	13.67	-46.0	-47.6	18.9	0.00e+00	0	34	0	1006632960	62	4631
2026-01-17 05:42:50.88	320.95	13.60	-46.1	-47.8	18.7	0.00e+00	0	34	0	1008730112	62	4712
2026-01-17 05:42:51.89	320.81	13.53	-46.1	-47.7	18.8	0.00e+00	0	34	0	1009778688	62	4667
2026-01-17 05:42:52.90	320.66	13.46	-45.8	-47.4	19.1	0.00e+00	0	34	0	1011875840	62	4503
2026-01-17 05:42:53.91	320.52	13.39	-45.9	-47.5	19.0	0.00e+00	0	34	0	1013972992	62	4556
2026-01-17 05:42:54.92	320.38	13.32	-45.7	-47.2	19.2	0.00e+00	0	34	0	1016070144	62	4434
2026-01-17 05:42:55.92	320.24	13.25	-45.9	-47.5	19.0	0.00e+00	0	34	0	1018167296	62	4573
2026-01-17 05:42:56.93	320.10	13.17	-45.8	-47.3	19.1	0.00e+00	0	34	0	1020264448	62	4490
2026-01-17 05:42:57.94	319.96	13.10	-45.5	-47.0	19.4	0.00e+00	0	34	0	1021313024	62	4332
2026-01-17 05:42:58.95	319.82	13.03	-45.2	-46.6	19.8	0.00e+00	0	34	0	1023410176	62	4133
2026-01-17 05:42:59.96	319.68	12.96	-45.3	-46.8	19.6	0.00e+00	0	34	0	1025507328	62	4195
2026-01-17 05:43:00.97	319.54	12.89	-45.1	-46.5	19.9	0.00e+00	0	34	0	1027604480	62	4070
2026-01-17 05:43:01.98	319.40	12.82	-45.1	-46.5	19.9	0.00e+00	0	34	0	1029701632	62	4085
2026-01-17 05:43:02.98	319.26	12.75	-45.5	-46.9	19.5	0.00e+00	0	34	0	1030750208	62	4278
2026-01-17 05:43:03.99	319.13	12.68	-45.6	-47.1	19.4	0.00e+00	0	34	0	1032847360	62	4344
2026-01-17 05:43:05.00	318.99	12.61	-45.9	-47.4	19.0	0.00e+00	0	34	0	1034944512	62	4535
2026-01-17 05:43:06.01	318.86	12.54	-46.3	-48.0	18.6	0.00e+00	0	34	0	1037041664	63	4547
2026-01-17 05:43:07.02	318.72	12.47	-46.7	-48.5	18.0	0.00e+00	0	34	0	1039138816	63	4840
2026-01-17 05:43:08.02	318.59	12.40	-46.6	-48.5	18.0	0.00e+00	0	34	0	1040187392	64	4554
2026-01-17 05:43:09.03	318.46	12.32	-46.8	-48.8	17.7	0.00e+00	0	34	0	1042284544	64	4707
2026-01-17 05:43:10.04	318.33	12.25	-46.8	-48.7	17.8	0.00e+00	0	34	0	1044381696	64	4671
2026-01-17 05:43:11.05	318.19	12.18	-46.5	-48.4	18.0	0.00e+00	0	34	0	1046478848	64	4498
2026-01-17 05:43:12.06	318.06	12.11	-46.6	-48.5	17.9	0.00e+00	0	34	0	1048576000	64	4565
2026-01-17 05:43:13.06	317.93	12.04	-46.3	-48.0	18.3	0.00e+00	0	34	0	1049624576	64	4332
2026-01-17 05:43:14.07	317.80	11.97	-46.1	-47.8	18.6	0.00e+00	0	34	0	1051721728	64	4202
2026-01-17 05:43:15.08	317.68	11.90	-46.1	-47.7	18.7	0.00e+00	0	34	0	1053818880	63	4410
2026-01-17 05:43:16.09	317.55	11.83	-45.9	-47.5	18.9	0.00e+00	0	34	0	1055916032	63	4337
2026-01-17 05:43:17.10	317.42	11.76	-45.8	-47.4	19.0	0.00e+00	0	34	0	1058013184	63	4244
2026-01-17 05:43:18.11	317.29	11.69	-46.0	-47.6	18.9	0.00e+00	0	34	0	1059061760	63	4354
2026-01-17 05:43:19.11	317.17	11.62	-46.0	-47.7	18.8	0.00e+00	0	34	0	1061158912	63	4393
2026-01-17 05:43:20.12	317.04	11.55	-45.8	-47.4	19.0	0.00e+00	0	34	0	1063256064	63	4258
2026-01-17 05:43:21.13	316.91	11.48	-46.2	-47.9	18.6	0.00e+00	0	34	0	1065353216	63	4514
2026-01-17 05:43:22.14	316.79	11.41	-46.2	-47.8	18.6	0.00e+00	0	34	0	1067450368	63	4490
2026-01-17 05:43:23.14	316.67	11.34	-46.0	-47.6	18.8	0.00e+00	0	34	0	1068498944	63	4370
2026-01-17 05:43:24.15	316.54	11.27	-46.1	-47.7	18.7	0.00e+00	0	34	0	1070596096	63	4410
2026-01-17 05:43:25.16	316.42	11.20	-46.1	-47.7	18.7	0.00e+00	0	34	0	1072693248	63	4410
2026-01-17 05:43:26.17	316.30	11.13	-46.0	-47.5	18.8	0.00e+00	0	34	0	1074790400	63	4335
2026-01-17 05:43:27.18	316.18	11.06	-46.1	-47.7	18.7	0.00e+00	0	34	0	1076887552	63	4405
2026-01-17 05:43:28.18	316.06	10.99	-46.3	-48.0	18.4	0.00e+00	0	34	0	1077936128	63	4591
2026-01-17 05:43:29.19	315.94	10.93	-46.3	-47.9	18.5	0.00e+00	0	34	0	1080033280	63	4545
2026-01-17 05:43:30.20	315.82	10.86	-46.4	-48.1	18.3	0.00e+00	0	34	0	1082130432	63	4641
2026-01-17 05:43:31.21	315.70	10.79	-46.5	-48.2	18.2	0.00e+00	0	34	0	1084227584	63	4701
2026-01-17 05:43:32.22	315.58	10.72	-46.7	-48.6	17.8	0.00e+00	0	34	0	1086324736	64	4610
2026-01-17 05:43:33.22	315.46	10.65	-46.7	-48.6	17.7	0.00e+00	0	34	0	1087373312	64	4640
2026-01-17 05:43:34.23	315.34	10.58	-46.7	-48.6	17.7	0.00e+00	0	34	0	1089470464	64	4650
2026-01-17 05:43:35.24	315.22	10.51	-46.7	-48.5	17.8	0.00e+00	0	35	0	1091567616	64	4595
2026-01-17 05:43:36.25	315.11	10.44	-46.6	-48.5	17.8	0.00e+00	0	34	0	1093664768	64	4579
2026-01-17 05:43:37.26	314.99	10.37	-46.9	-48.8	17.5	0.00e+00	0	34	0	1095761920	64	4749
2026-01-17 05:43:38.26	314.88	10.30	-46.8	-48.7	17.6	0.00e+00	0	34	0	1096810496	64	4684
2026-01-17 05:43:39.27	314.76	10.24	-46.8	-48.8	17.6	0.00e+00	0	34	0	1098907648	64	4729
2026-01-17 05:43:40.28	314.65	10.17	-46.8	-48.7	17.6	0.00e+00	0	34	0	1101004800	64	4696
2026-01-17 05:43:41.29	314.53	10.10	-46.8	-48.8	17.6	0.00e+00	0	34	0	1103101952	64	4714
2026-01-17 05:43:42.30	314.42	10.03	-47.0	-49.1	17.3	0.00e+00	0	34	0	1105199104	64	4885
2026-01-17 05:43:43.31	314.31	9.96	-47.1	-49.1	17.2	0.00e+00	0	34	0	1106247680	64	4911
2026-01-17 05:43:44.32	314.20	9.89	-47.4	-49.5	16.7	0.00e+00	0	34	0	1108344832	65	4869
2026-01-17 05:43:45.32	314.09	9.83	-47.2	-49.4	17.0	0.00e+00	0	34	0	1110441984	65	4776
2026-01-17 05:43:46.33	313.97	9.76	-47.5	-49.7	16.6	0.00e+00	0	34	0	1112539136	65	4940
2026-01-17 05:43:47.34	313.86	9.69	-47.5	-49.7	16.6	0.00e+00	0	34	0	1114636288	65	4955
2026-01-17 05:43:48.35	313.75	9.62	-47.3	-49.4	16.9	0.00e+00	0	34	0	1115684864	65	4803
2026-01-17 05:43:49.36	313.64	9.55	-47.3	-49.4	16.9	0.00e+00	0	34	0	1117782016	65	4786
2026-01-17 05:43:50.36	313.54	9.49	-47.3	-49.4	17.0	0.00e+00	0	34	0	1119879168	65	4765
2026-01-17 05:43:51.37	313.43	9.42	-47.1	-49.1	17.2	0.00e+00	0	34	0	1121976320	65	4611
2026-01-17 05:43:52.38	313.32	9.35	-46.8	-48.7	17.6	0.00e+00	0	34	0	1124073472	65	4397
2026-01-17 05:43:53.39	313.21	9.28	-46.8	-48.7	17.5	0.00e+00	0	34	0	1125122048	65	4441
2026-01-17 05:43:54.40	313.11	9.22	-46.5	-48.3	18.0	0.00e+00	0	34	0	1127219200	65	4219
2026-01-17 05:43:55.41	313.00	9.15	-46.4	-48.1	18.1	0.00e+00	0	34	0	1129316352	64	4372
2026-01-17 05:43:56.41	312.89	9.08	-46.6	-48.4	17.8	0.00e+00	0	34	0	1131413504	64	4515
2026-01-17 05:43:57.42	312.79	9.02	-46.2	-47.9	18.3	0.00e+00	0	34	0	1133510656	64	4263
2026-01-17 05:43:58.43	312.68	8.95	-46.6	-48.4	17.8	0.00e+00	0	34	0	1135607808	64	4530
2026-01-17 05:43:59.44	312.58	8.88	-46.4	-48.1	18.1	0.00e+00	0	34	0	1136656384	64	4381
2026-01-17 05:44:00.45	312.48	8.81	-46.6	-48.5	17.8	0.00e+00	0	34	0	1138753536	64	4567
2026-01-17 05:44:01.46	312.37	8.75	-46.9	-48.8	17.5	0.00e+00	0	34	0	1140850688	64	4738
2026-01-17 05:44:02.47	312.27	8.68	-46.7	-48.6	17.6	0.00e+00	0	34	0	1142947840	64	4616
2026-01-17 05:44:03.48	312.17	8.61	-46.9	-48.9	17.3	0.00e+00	0	34	0	1143996416	64	4786
2026-01-17 05:44:04.48	312.07	8.55	-47.0	-49.0	17.3	0.00e+00	0	34	0	1146093568	64	4843
2026-01-17 05:44:05.49	311.96	8.48	-47.1	-49.2	17.1	0.00e+00	0	34	0	1148190720	64	4931
2026-01-17 05:44:06.50	311.86	8.41	-47.0	-49.0	17.1	0.00e+00	0	34	0	1150287872	64	4865
2026-01-17 05:44:07.51	311.76	8.35	-46.9	-48.9	17.3	0.00e+00	0	34	0	1152385024	64	4780
2026-01-17 05:44:08.52	311.66	8.28	-47.1	-49.2	17.1	0.00e+00	0	34	0	1154482176	64	4934
2026-01-17 05:44:09.53	311.56	8.22	-47.3	-49.4	16.9	0.00e+00	0	34	0	1155530752	65	4763
2026-01-17 05:44:10.53	311.46	8.15	-47.1	-49.1	17.1	0.00e+00	0	34	0	1157627904	65	4620
2026-01-17 05:44:11.54	311.37	8.08	-47.0	-49.0	17.2	0.00e+00	0	34	0	1159725056	65	4565
2026-01-17 05:44:12.55	311.27	8.02	-47.0	-49.0	17.2	0.00e+00	0	34	0	1161822208	65	4591
2026-01-17 05:44:13.55	311.17	7.95	-46.9	-48.9	17.3	0.00e+00	0	34	0	1163919360	65	4517
2026-01-17 05:44:14.57	311.07	7.89	-47.1	-49.2	17.0	0.00e+00	0	34	0	1164967936	65	4678
2026-01-17 05:44:15.57	310.98	7.82	-47.2	-49.3	16.9	0.00e+00	0	34	0	1167065088	65	4717
2026-01-17 05:44:16.58	310.88	7.76	-47.2	-49.4	16.9	0.00e+00	0	34	0	1169162240	65	4768
2026-01-17 05:44:17.59	310.78	7.69	-47.0	-49.0	17.3	0.00e+00	0	34	0	1171259392	65	4551
2026-01-17 05:44:18.60	310.69	7.63	-47.4	-49.6	16.6	0.00e+00	0	34	0	1172307968	65	4902
2026-01-17 05:44:19.61	310.59	7.56	-47.3	-49.4	16.7	0.00e+00	0	34	0	1174405120	65	4804
2026-01-17 05:44:20.62	310.50	7.49	-47.8	-50.3	16.0	0.00e+00	0	34	0	1176502272	66	4987
2026-01-17 05:44:21.62	310.41	7.43	-47.5	-49.7	16.5	0.00e+00	0	34	0	1178599424	66	4675
2026-01-17 05:44:22.63	310.31	7.37	-47.9	-50.3	15.9	0.00e+00	0	34	0	1180696576	66	5023
2026-01-17 05:44:23.64	310.22	7.30	-47.8	-50.1	16.1	0.00e+00	0	34	0	1182793728	66	4926
2026-01-17 05:44:24.65	310.13	7.24	-47.6	-50.0	16.2	0.00e+00	0	34	0	1183842304	66	4815
2026-01-17 05:44:25.66	310.03	7.17	-47.8	-50.2	16.0	0.00e+00	0	34	0	1185939456	66	4934
2026-01-17 05:44:26.67	309.94	7.11	-47.7	-50.1	16.0	0.00e+00	0	34	0	1188036608	66	4891
2026-01-17 05:44:27.68	309.85	7.04	-48.1	-50.7	15.4	0.00e+00	0	34	0	1190133760	66	5254
2026-01-17 05:44:28.68	309.76	6.98	-48.1	-50.8	15.4	0.00e+00	0	34	0	1192230912	66	5288
2026-01-17 05:44:29.69	309.67	6.91	-48.3	-51.0	15.1	0.00e+00	0	34	0	1193279488	67	5138
2026-01-17 05:44:30.70	309.58	6.85	-48.3	-51.0	15.2	0.00e+00	0	34	0	1195376640	67	5103
2026-01-17 05:44:31.71	309.49	6.78	-48.3	-51.1	15.0	0.00e+00	0	34	0	1197473792	67	5187
2026-01-17 05:44:32.72	309.40	6.72	-48.4	-51.2	14.9	1.50e-06	0	34	0	1199570944	67	5234
2026-01-17 05:44:33.72	309.31	6.66	-48.7	-51.6	14.5	0.00e+00	0	34	0	1201668096	67	5523
2026-01-17 05:44:34.73	309.22	6.59	-48.9	-52.0	14.2	0.00e+00	0	34	0	1202716672	68	5451
2026-01-17 05:44:35.74	309.13	6.53	-48.8	-51.9	14.3	1.50e-06	0	34	0	1204813824	68	5368
2026-01-17 05:44:36.75	309.05	6.47	-48.5	-51.4	14.8	0.00e+00	0	34	0	1206910976	68	5054
2026-01-17 05:44:37.76	308.96	6.40	-48.6	-51.5	14.7	7.00e-07	0	34	0	1209008128	68	5144
2026-01-17 05:44:38.76	308.87	6.34	-48.9	-52.1	14.2	0.00e+00	0	34	0	1211105280	68	5471
2026-01-17 05:44:39.77	308.78	6.28	-48.4	-51.2	15.0	1.50e-06	0	34	0	1212153856	68	4928
2026-01-17 05:44:40.78	308.70	6.21	-48.6	-51.5	14.6	1.50e-06	0	34	0	1214251008	68	5159
2026-01-17 05:44:41.79	308.61	6.15	-48.6	-51.5	14.7	0.00e+00	0	34	0	1216348160	68	5142
2026-01-17 05:44:42.80	308.53	6.09	-48.4	-51.2	15.0	0.00e+00	0	34	0	1218445312	68	4952
2026-01-17 05:44:43.80	308.44	6.02	-48.6	-51.5	14.6	7.00e-07	0	34	0	1220542464	68	5144
2026-01-17 05:44:44.81	308.36	5.96	-48.4	-51.2	14.9	0.00e+00	0	34	0	1221591040	68	4966
2026-01-17 05:44:45.82	308.27	5.90	-49.0	-52.2	14.0	0.00e+00	0	34	0	1223688192	68	5544
2026-01-17 05:44:46.83	308.19	5.83	-48.5	-51.3	14.8	0.00e+00	0	34	0	1225785344	68	5030
2026-01-17 05:44:47.84	308.11	5.77	-48.7	-51.7	14.3	0.00e+00	0	34	0	1227882496	68	5279
2026-01-17 05:44:48.84	308.02	5.71	-48.5	-51.4	14.8	7.00e-07	0	34	0	1229979648	68	5048
2026-01-17 05:44:49.85	307.94	5.65	-48.7	-51.7	14.4	7.00e-07	0	35	0	1231028224	68	5244
2026-01-17 05:44:50.86	307.86	5.58	-48.5	-51.4	14.7	0.00e+00	0	34	0	1233125376	68	5074
