passes_logs/2026/01/17/R3.2S_Murmansk/R3.2S_Murmansk__20260117_105225_NOAA_20_JPSS-1_rec.log

#Pass ID: 20260117_105225_NOAA 20 (JPSS-1)
#Satellite: NOAA 20 (JPSS-1)
#Configuration: NOAA 20
#almurnet v.1.7.20251203
#Start time: 2026-01-17 10:52:28

#Version: 2.2.20231116
#Station: R3.2S_Murmansk
#Location: 33.079688 lon 68.888172 lat
#TLE: 1 43013U 17073A   26016.52825843  .00000039  00000+0  39346-4 0  9991
#TLE: 2 43013  98.7637 317.4515 0001446  37.2648 322.8628 14.19536276422951

#Time	Az	El	Level	Level2	SNR	BER	BlckErr	Temp	State	Recorded	gain1	gain2
2026-01-17 10:52:28.02	185.02	2.13	-52.2	-67.1	3.8	1.49e+00	0	32	0	0	76	19404
2026-01-17 10:52:29.03	185.06	2.19	-52.1	-67.1	3.8	1.49e+00	0	32	104	0	74	21878
2026-01-17 10:52:30.04	185.10	2.26	-52.1	-67.1	3.8	1.49e+00	0	32	104	0	74	21811
2026-01-17 10:52:31.05	185.14	2.32	-52.1	-67.1	3.8	1.49e+00	0	32	104	0	74	21909
2026-01-17 10:52:32.06	185.18	2.38	-52.1	-67.1	3.8	1.49e+00	0	33	104	0	74	21870
2026-01-17 10:52:33.07	185.23	2.44	-52.1	-67.1	3.8	1.49e+00	0	33	104	0	74	21800
2026-01-17 10:52:34.08	185.27	2.51	-52.1	-67.0	3.8	1.49e+00	0	32	104	0	74	21684
2026-01-17 10:52:35.08	185.31	2.57	-52.1	-67.0	3.8	1.49e+00	0	33	104	0	74	21677
2026-01-17 10:52:36.09	185.35	2.63	-52.1	-67.0	3.8	1.49e+00	0	33	104	0	74	21548
2026-01-17 10:52:37.10	185.40	2.70	-52.1	-67.0	3.8	1.49e+00	0	33	104	0	74	21565
2026-01-17 10:52:38.11	185.44	2.76	-52.1	-67.0	3.8	1.49e+00	0	33	104	0	74	21609
2026-01-17 10:52:39.12	185.48	2.82	-52.1	-67.0	3.8	1.49e+00	0	33	104	0	74	21598
2026-01-17 10:52:40.13	185.53	2.89	-52.1	-66.9	3.8	1.49e+00	0	33	104	0	74	21484
2026-01-17 10:52:41.13	185.57	2.95	-52.1	-67.0	3.8	1.49e+00	0	33	104	0	74	21628
2026-01-17 10:52:42.14	185.61	3.01	-52.1	-67.0	3.8	1.49e+00	0	33	104	0	74	21621
2026-01-17 10:52:43.15	185.66	3.08	-52.1	-67.0	3.8	1.49e+00	0	33	104	0	74	21542
2026-01-17 10:52:44.16	185.70	3.14	-52.1	-66.9	3.8	1.49e+00	0	33	104	0	74	21373
2026-01-17 10:52:45.17	185.74	3.21	-52.1	-66.8	3.8	1.49e+00	0	33	104	0	74	21187
2026-01-17 10:52:46.17	185.79	3.27	-52.1	-66.7	3.8	1.49e+00	0	33	104	0	74	20891
2026-01-17 10:52:47.18	185.83	3.33	-52.1	-66.9	3.8	1.49e+00	0	33	104	0	74	21382
2026-01-17 10:52:48.19	185.88	3.40	-52.1	-67.1	3.8	1.49e+00	0	33	104	0	74	21790
2026-01-17 10:52:49.20	185.92	3.46	-52.1	-67.1	3.8	1.49e+00	0	33	104	0	74	21826
2026-01-17 10:52:50.21	185.97	3.53	-52.1	-67.2	3.8	1.49e+00	0	33	104	0	74	22014
2026-01-17 10:52:51.21	186.01	3.59	-52.1	-66.9	3.8	1.49e+00	0	33	104	0	74	21379
2026-01-17 10:52:52.22	186.06	3.66	-52.1	-66.8	3.8	1.49e+00	0	33	104	0	74	21131
2026-01-17 10:52:53.23	186.10	3.73	-52.0	-65.4	3.8	1.49e+00	0	33	104	0	74	18047
2026-01-17 10:52:54.24	186.15	3.79	-52.0	-64.6	4.0	1.49e+00	0	33	104	0	74	16408
2026-01-17 10:52:55.24	186.20	3.86	-51.9	-63.4	4.2	1.44e+00	0	33	0	0	74	14329
2026-01-17 10:52:56.25	186.24	3.92	-51.8	-62.4	4.6	1.27e+00	2	33	0	0	74	12690
2026-01-17 10:52:57.26	186.29	3.99	-51.8	-61.5	5.0	8.31e-01	0	33	0	2097152	74	11435
2026-01-17 10:52:58.27	186.34	4.05	-51.7	-61.3	5.2	6.52e-01	0	33	0	4194304	74	11174
2026-01-17 10:52:59.28	186.38	4.12	-51.6	-60.4	5.8	4.25e-01	0	33	0	6291456	74	10060
2026-01-17 10:53:00.28	186.43	4.19	-51.4	-59.0	6.9	2.46e-01	0	34	0	7340032	74	8656
2026-01-17 10:53:01.29	186.48	4.25	-51.3	-58.6	7.2	1.27e-01	0	33	0	9437184	74	8263
2026-01-17 10:53:02.30	186.52	4.32	-51.0	-57.4	8.4	1.22e-01	0	34	0	11534336	74	7129
2026-01-17 10:53:03.31	186.57	4.39	-50.8	-56.7	9.2	2.47e-02	0	33	0	13631488	73	6969
2026-01-17 10:53:04.32	186.62	4.45	-50.5	-55.7	10.2	9.05e-03	0	33	0	14680064	73	6227
2026-01-17 10:53:05.32	186.67	4.52	-50.1	-54.6	11.3	2.87e-03	0	34	0	16777216	72	5811
2026-01-17 10:53:06.33	186.72	4.59	-49.8	-53.8	12.3	3.65e-04	0	34	0	18874368	71	5606
2026-01-17 10:53:07.34	186.76	4.66	-49.4	-53.0	13.1	8.08e-05	0	33	0	20971520	70	5464
2026-01-17 10:53:08.35	186.81	4.72	-49.0	-52.1	14.0	1.98e-05	0	33	0	23068672	69	5218
2026-01-17 10:53:09.36	186.86	4.79	-49.0	-52.2	13.9	2.20e-06	0	33	0	25165824	69	5252
2026-01-17 10:53:10.36	186.91	4.86	-48.6	-51.5	14.7	0.00e+00	0	33	0	26214400	69	4836
2026-01-17 10:53:11.37	186.96	4.93	-48.8	-51.8	14.3	2.20e-06	0	34	0	28311552	69	5038
2026-01-17 10:53:12.38	187.01	5.00	-48.9	-52.0	14.2	0.00e+00	0	34	0	30408704	69	5116
2026-01-17 10:53:13.39	187.06	5.07	-48.5	-51.2	14.9	7.00e-07	0	34	0	32505856	69	4703
2026-01-17 10:53:14.40	187.11	5.13	-48.9	-52.0	14.2	3.80e-06	0	34	0	34603008	69	5144
2026-01-17 10:53:15.41	187.16	5.20	-49.4	-53.1	12.8	6.67e-04	0	34	0	35651584	71	5165
2026-01-17 10:53:16.42	187.21	5.27	-50.2	-54.6	11.4	4.67e-03	0	34	0	37748736	72	5812
2026-01-17 10:53:17.43	187.26	5.34	-49.1	-52.2	14.0	2.84e-04	0	34	0	39845888	70	4975
2026-01-17 10:53:18.44	187.31	5.41	-49.9	-54.1	11.9	4.49e-03	0	34	0	41943040	71	5803
2026-01-17 10:53:19.44	187.36	5.48	-49.0	-52.2	14.0	1.50e-06	0	34	0	44040192	70	4951
2026-01-17 10:53:20.45	187.41	5.55	-48.7	-51.6	14.6	0.00e+00	0	34	0	45088768	69	4913
2026-01-17 10:53:21.46	187.46	5.62	-48.8	-51.7	14.6	7.00e-07	0	34	0	47185920	68	5243
2026-01-17 10:53:22.47	187.52	5.69	-48.5	-51.3	15.0	1.50e-06	0	34	0	49283072	68	5016
2026-01-17 10:53:23.47	187.57	5.76	-48.5	-51.2	15.1	0.00e+00	0	34	0	51380224	68	4940
2026-01-17 10:53:24.48	187.62	5.83	-48.7	-51.6	14.7	7.00e-07	0	34	0	53477376	68	5177
2026-01-17 10:53:25.49	187.67	5.90	-48.4	-51.0	15.3	0.00e+00	0	34	0	54525952	68	4834
2026-01-17 10:53:26.50	187.73	5.97	-48.7	-51.5	14.8	0.00e+00	0	33	0	56623104	68	5122
2026-01-17 10:53:27.51	187.78	6.04	-48.4	-51.1	15.2	0.00e+00	0	34	0	58720256	68	4909
2026-01-17 10:53:28.52	187.83	6.11	-48.5	-51.2	15.1	0.00e+00	0	34	0	60817408	68	4978
2026-01-17 10:53:29.53	187.89	6.18	-48.5	-51.2	15.1	0.00e+00	0	34	0	62914560	68	4966
2026-01-17 10:53:30.54	187.94	6.26	-48.4	-51.1	15.3	7.00e-07	0	34	0	65011712	68	4896
2026-01-17 10:53:31.55	187.99	6.33	-48.5	-51.2	15.2	0.00e+00	0	34	0	66060288	68	4976
2026-01-17 10:53:32.55	188.05	6.40	-48.3	-50.8	15.6	0.00e+00	0	34	0	68157440	68	4726
2026-01-17 10:53:33.56	188.10	6.47	-48.4	-51.0	15.4	0.00e+00	0	34	0	70254592	68	4863
2026-01-17 10:53:34.57	188.16	6.54	-48.7	-51.4	15.0	0.00e+00	0	34	0	72351744	68	5081
2026-01-17 10:53:35.58	188.21	6.61	-48.5	-51.2	15.2	0.00e+00	0	34	0	73400320	68	4941
2026-01-17 10:53:36.59	188.27	6.69	-48.4	-51.0	15.5	0.00e+00	0	34	0	75497472	68	4835
2026-01-17 10:53:37.60	188.32	6.76	-48.3	-50.9	15.6	0.00e+00	0	34	0	77594624	68	4761
2026-01-17 10:53:38.60	188.38	6.83	-48.2	-50.6	15.9	0.00e+00	0	34	0	79691776	68	4645
2026-01-17 10:53:39.61	188.43	6.91	-48.4	-50.9	15.6	0.00e+00	0	34	0	81788928	68	4779
2026-01-17 10:53:40.62	188.49	6.98	-48.2	-50.6	15.9	0.00e+00	0	34	0	82837504	68	4641
2026-01-17 10:53:41.63	188.54	7.05	-48.2	-50.6	15.9	0.00e+00	0	34	0	84934656	68	4639
2026-01-17 10:53:42.64	188.60	7.13	-48.2	-50.6	15.8	0.00e+00	0	34	0	87031808	68	4645
2026-01-17 10:53:43.65	188.66	7.20	-48.1	-50.4	16.1	0.00e+00	0	34	0	89128960	68	4516
2026-01-17 10:53:44.66	188.72	7.27	-47.9	-50.2	16.3	0.00e+00	0	34	0	91226112	67	4672
2026-01-17 10:53:45.66	188.77	7.35	-48.0	-50.3	16.1	0.00e+00	0	34	0	93323264	67	4750
2026-01-17 10:53:46.67	188.83	7.42	-48.1	-50.4	16.0	0.00e+00	0	34	0	94371840	67	4813
2026-01-17 10:53:47.68	188.89	7.50	-48.0	-50.3	16.1	0.00e+00	0	34	0	96468992	67	4748
2026-01-17 10:53:48.69	188.95	7.57	-48.0	-50.4	16.1	0.00e+00	0	34	0	98566144	67	4778
2026-01-17 10:53:49.70	189.01	7.65	-47.9	-50.1	16.3	0.00e+00	0	34	0	100663296	67	4641
2026-01-17 10:53:50.71	189.06	7.72	-48.0	-50.3	16.2	0.00e+00	0	34	0	101711872	67	4724
2026-01-17 10:53:51.72	189.12	7.80	-47.8	-50.1	16.4	0.00e+00	0	34	0	103809024	67	4600
2026-01-17 10:53:52.73	189.18	7.87	-48.0	-50.3	16.2	0.00e+00	0	34	0	105906176	67	4723
2026-01-17 10:53:53.73	189.24	7.95	-47.7	-49.9	16.6	0.00e+00	0	34	0	108003328	67	4517
2026-01-17 10:53:54.74	189.30	8.02	-47.8	-50.0	16.5	0.00e+00	0	34	0	110100480	67	4591
2026-01-17 10:53:55.75	189.36	8.10	-47.7	-49.9	16.6	0.00e+00	0	34	0	112197632	67	4511
2026-01-17 10:53:56.76	189.42	8.18	-47.8	-50.0	16.5	0.00e+00	0	34	0	113246208	67	4579
2026-01-17 10:53:57.76	189.48	8.25	-47.8	-50.0	16.5	0.00e+00	0	34	0	115343360	67	4575
2026-01-17 10:53:58.77	189.55	8.33	-47.7	-49.9	16.7	0.00e+00	0	34	0	117440512	67	4517
2026-01-17 10:53:59.78	189.61	8.41	-47.8	-50.0	16.6	0.00e+00	0	34	0	119537664	67	4547
2026-01-17 10:54:00.78	189.67	8.48	-47.6	-49.8	16.8	0.00e+00	0	34	0	121634816	67	4451
2026-01-17 10:54:01.79	189.73	8.56	-47.7	-49.8	16.7	0.00e+00	0	34	0	122683392	67	4484
2026-01-17 10:54:02.80	189.79	8.64	-47.7	-49.8	16.7	0.00e+00	0	34	0	124780544	67	4476
2026-01-17 10:54:03.81	189.86	8.72	-47.7	-49.9	16.7	0.00e+00	0	34	0	126877696	67	4519
2026-01-17 10:54:04.82	189.92	8.79	-47.8	-49.9	16.7	0.00e+00	0	34	0	128974848	67	4527
2026-01-17 10:54:05.83	189.98	8.87	-47.7	-49.9	16.7	0.00e+00	0	34	0	131072000	67	4497
2026-01-17 10:54:06.83	190.05	8.95	-47.7	-49.8	16.8	0.00e+00	0	34	0	132120576	67	4456
2026-01-17 10:54:07.84	190.11	9.03	-47.5	-49.5	17.1	0.00e+00	0	34	0	134217728	66	4566
2026-01-17 10:54:08.85	190.17	9.11	-47.6	-49.7	16.9	0.00e+00	0	34	0	136314880	66	4674
2026-01-17 10:54:09.86	190.24	9.19	-47.7	-49.8	16.9	0.00e+00	0	34	0	138412032	66	4715
2026-01-17 10:54:10.86	190.30	9.26	-47.7	-49.8	16.8	0.00e+00	0	34	0	140509184	66	4749
2026-01-17 10:54:11.87	190.37	9.34	-47.5	-49.5	17.1	0.00e+00	0	34	0	141557760	66	4585
2026-01-17 10:54:12.88	190.43	9.42	-47.4	-49.5	17.2	0.00e+00	0	34	0	143654912	66	4546
2026-01-17 10:54:13.88	190.50	9.50	-47.4	-49.3	17.3	0.00e+00	0	34	0	145752064	66	4481
2026-01-17 10:54:14.89	190.57	9.58	-47.3	-49.2	17.5	0.00e+00	0	34	0	147849216	66	4414
2026-01-17 10:54:15.90	190.63	9.66	-47.3	-49.3	17.4	0.00e+00	0	34	0	149946368	66	4460
2026-01-17 10:54:16.91	190.70	9.75	-47.2	-49.1	17.5	0.00e+00	0	34	0	150994944	66	4385
2026-01-17 10:54:17.92	190.77	9.83	-47.2	-49.1	17.6	0.00e+00	0	34	0	153092096	66	4368
2026-01-17 10:54:18.92	190.84	9.91	-47.3	-49.3	17.4	0.00e+00	0	34	0	155189248	66	4446
2026-01-17 10:54:19.93	190.90	9.99	-47.4	-49.3	17.4	0.00e+00	0	34	0	157286400	66	4474
2026-01-17 10:54:20.94	190.97	10.07	-47.4	-49.3	17.3	0.00e+00	0	34	0	159383552	66	4486
2026-01-17 10:54:21.95	191.04	10.15	-47.3	-49.2	17.5	0.00e+00	0	34	0	160432128	66	4435
2026-01-17 10:54:22.96	191.11	10.23	-47.2	-49.1	17.6	0.00e+00	0	34	0	162529280	66	4373
2026-01-17 10:54:23.96	191.18	10.32	-47.2	-49.1	17.6	0.00e+00	0	34	0	164626432	66	4346
2026-01-17 10:54:24.97	191.25	10.40	-47.1	-49.0	17.7	0.00e+00	0	34	0	166723584	66	4328
2026-01-17 10:54:25.98	191.32	10.48	-47.2	-49.1	17.7	0.00e+00	0	34	0	168820736	66	4350
2026-01-17 10:54:26.99	191.39	10.56	-47.2	-49.2	17.6	0.00e+00	0	34	0	169869312	66	4392
2026-01-17 10:54:28.00	191.46	10.65	-47.2	-49.1	17.6	0.00e+00	0	34	0	171966464	66	4386
2026-01-17 10:54:29.00	191.53	10.73	-47.0	-48.9	17.9	0.00e+00	0	34	0	174063616	66	4247
2026-01-17 10:54:30.01	191.60	10.81	-47.2	-49.1	17.7	0.00e+00	0	34	0	176160768	66	4345
2026-01-17 10:54:31.02	191.68	10.90	-47.2	-49.0	17.7	0.00e+00	0	34	0	178257920	66	4328
2026-01-17 10:54:32.03	191.75	10.98	-47.1	-49.0	17.8	0.00e+00	0	34	0	179306496	66	4293
2026-01-17 10:54:33.04	191.82	11.07	-47.0	-48.9	17.9	0.00e+00	0	34	0	181403648	66	4262
2026-01-17 10:54:34.04	191.90	11.15	-46.8	-48.6	18.1	0.00e+00	0	34	0	183500800	65	4375
2026-01-17 10:54:35.05	191.97	11.24	-46.9	-48.7	18.1	0.00e+00	0	34	0	185597952	65	4410
2026-01-17 10:54:36.06	192.04	11.32	-46.8	-48.6	18.1	0.00e+00	0	34	0	187695104	65	4378
2026-01-17 10:54:37.07	192.12	11.41	-46.8	-48.6	18.2	0.00e+00	0	34	0	188743680	65	4346
2026-01-17 10:54:38.08	192.19	11.49	-46.8	-48.5	18.2	0.00e+00	0	34	0	190840832	65	4325
2026-01-17 10:54:39.09	192.27	11.58	-46.8	-48.6	18.2	0.00e+00	0	34	0	192937984	65	4344
2026-01-17 10:54:40.09	192.34	11.67	-46.8	-48.5	18.2	0.00e+00	0	34	0	195035136	65	4333
2026-01-17 10:54:41.10	192.42	11.75	-46.7	-48.4	18.4	0.00e+00	0	34	0	197132288	65	4274
2026-01-17 10:54:42.11	192.50	11.84	-46.7	-48.5	18.3	0.00e+00	0	34	0	198180864	65	4300
2026-01-17 10:54:43.11	192.57	11.93	-46.7	-48.4	18.4	0.00e+00	0	34	0	200278016	65	4270
2026-01-17 10:54:44.12	192.65	12.01	-46.7	-48.4	18.4	0.00e+00	0	34	0	202375168	65	4274
2026-01-17 10:54:45.13	192.73	12.10	-46.7	-48.4	18.4	0.00e+00	0	34	0	204472320	65	4274
2026-01-17 10:54:46.14	192.81	12.19	-46.7	-48.4	18.4	0.00e+00	0	34	0	206569472	65	4246
2026-01-17 10:54:47.15	192.89	12.28	-46.7	-48.4	18.4	0.00e+00	0	34	0	207618048	65	4258
2026-01-17 10:54:48.16	192.97	12.37	-46.7	-48.4	18.5	0.00e+00	0	34	0	209715200	65	4256
2026-01-17 10:54:49.16	193.05	12.45	-46.7	-48.4	18.4	0.00e+00	0	34	0	211812352	65	4284
2026-01-17 10:54:50.17	193.13	12.54	-46.6	-48.3	18.5	0.00e+00	0	34	0	213909504	65	4238
2026-01-17 10:54:51.18	193.21	12.63	-46.8	-48.6	18.3	0.00e+00	0	34	0	216006656	65	4342
2026-01-17 10:54:52.19	193.29	12.72	-46.6	-48.3	18.5	0.00e+00	0	34	0	217055232	65	4217
2026-01-17 10:54:53.20	193.37	12.81	-46.6	-48.2	18.6	0.00e+00	0	34	0	219152384	65	4175
2026-01-17 10:54:54.20	193.45	12.90	-46.6	-48.2	18.6	0.00e+00	0	34	0	221249536	65	4190
2026-01-17 10:54:55.21	193.53	12.99	-46.5	-48.2	18.6	0.00e+00	0	34	0	223346688	65	4167
2026-01-17 10:54:56.22	193.62	13.08	-46.6	-48.2	18.6	0.00e+00	0	34	0	225443840	65	4181
2026-01-17 10:54:57.23	193.70	13.17	-46.6	-48.2	18.6	0.00e+00	0	34	0	227540992	65	4175
2026-01-17 10:54:58.24	193.78	13.27	-46.6	-48.2	18.6	0.00e+00	0	34	0	228589568	65	4169
2026-01-17 10:54:59.24	193.87	13.36	-46.5	-48.2	18.7	0.00e+00	0	34	0	230686720	64	4400
2026-01-17 10:55:00.25	193.95	13.45	-46.4	-48.0	18.8	0.00e+00	0	34	0	232783872	64	4338
2026-01-17 10:55:01.26	194.04	13.54	-46.4	-48.0	18.8	0.00e+00	0	34	0	234881024	64	4323
2026-01-17 10:55:02.27	194.13	13.63	-46.3	-47.9	18.9	0.00e+00	0	34	0	235929600	64	4266
2026-01-17 10:55:03.28	194.21	13.73	-46.3	-47.9	18.9	0.00e+00	0	34	0	238026752	64	4279
2026-01-17 10:55:04.29	194.30	13.82	-46.3	-47.9	18.9	0.00e+00	0	34	0	240123904	64	4263
2026-01-17 10:55:05.29	194.39	13.91	-46.4	-48.0	18.9	0.00e+00	0	35	0	242221056	64	4295
2026-01-17 10:55:06.30	194.47	14.01	-46.4	-48.0	18.8	0.00e+00	0	34	0	244318208	64	4313
2026-01-17 10:55:07.31	194.56	14.10	-46.3	-47.8	19.0	0.00e+00	0	34	0	245366784	64	4234
2026-01-17 10:55:08.32	194.65	14.19	-46.4	-47.9	18.9	0.00e+00	0	34	0	247463936	64	4286
2026-01-17 10:55:09.33	194.74	14.29	-46.2	-47.8	19.1	0.00e+00	0	34	0	249561088	64	4195
2026-01-17 10:55:10.34	194.83	14.38	-46.2	-47.7	19.2	0.00e+00	0	34	0	251658240	64	4176
2026-01-17 10:55:11.35	194.92	14.48	-46.3	-47.8	19.1	0.00e+00	0	34	0	253755392	64	4217
2026-01-17 10:55:12.35	195.01	14.57	-46.3	-47.8	19.0	0.00e+00	0	34	0	255852544	64	4241
2026-01-17 10:55:13.36	195.11	14.67	-46.1	-47.6	19.2	0.00e+00	0	35	0	256901120	64	4140
2026-01-17 10:55:14.37	195.20	14.77	-46.3	-47.9	19.0	0.00e+00	0	34	0	258998272	64	4244
2026-01-17 10:55:15.38	195.29	14.86	-46.3	-47.8	19.1	0.00e+00	0	34	0	261095424	64	4221
2026-01-17 10:55:16.38	195.39	14.96	-46.2	-47.7	19.2	0.00e+00	0	34	0	263192576	64	4166
2026-01-17 10:55:17.39	195.48	15.06	-46.2	-47.7	19.2	0.00e+00	0	35	0	264241152	64	4163
2026-01-17 10:55:18.40	195.57	15.15	-46.2	-47.8	19.1	0.00e+00	0	34	0	266338304	64	4198
2026-01-17 10:55:19.41	195.67	15.25	-46.1	-47.6	19.2	0.00e+00	0	34	0	268435456	64	4144
2026-01-17 10:55:20.42	195.77	15.35	-46.1	-47.6	19.3	0.00e+00	0	34	0	270532608	64	4140
2026-01-17 10:55:21.42	195.86	15.45	-46.1	-47.5	19.4	0.00e+00	0	34	0	272629760	64	4096
2026-01-17 10:55:22.43	195.96	15.55	-46.1	-47.6	19.3	0.00e+00	0	34	0	274726912	64	4136
2026-01-17 10:55:23.44	196.06	15.64	-46.3	-47.9	19.1	0.00e+00	0	34	0	275775488	64	4251
2026-01-17 10:55:24.45	196.16	15.74	-46.4	-47.9	19.0	0.00e+00	0	34	0	277872640	64	4287
2026-01-17 10:55:25.46	196.26	15.84	-46.2	-47.8	19.2	0.00e+00	0	34	0	279969792	64	4205
2026-01-17 10:55:26.46	196.35	15.94	-46.4	-47.9	19.0	0.00e+00	0	34	0	282066944	64	4283
2026-01-17 10:55:27.47	196.46	16.04	-46.5	-48.1	18.9	0.00e+00	0	34	0	284164096	64	4357
2026-01-17 10:55:28.48	196.56	16.14	-46.4	-47.9	19.0	0.00e+00	0	35	0	285212672	64	4283
2026-01-17 10:55:29.49	196.66	16.25	-46.4	-48.0	19.0	0.00e+00	0	34	0	287309824	64	4305
2026-01-17 10:55:30.50	196.76	16.35	-46.5	-48.1	18.8	0.00e+00	0	34	0	289406976	64	4375
2026-01-17 10:55:31.50	196.86	16.45	-46.5	-48.1	18.8	0.00e+00	0	34	0	291504128	64	4373
2026-01-17 10:55:32.51	196.97	16.55	-46.5	-48.1	18.9	0.00e+00	0	34	0	292552704	64	4361
2026-01-17 10:55:33.52	197.07	16.65	-46.7	-48.3	18.7	0.00e+00	0	34	0	294649856	64	4472
2026-01-17 10:55:34.53	197.18	16.76	-46.5	-48.1	18.8	0.00e+00	0	34	0	296747008	64	4390
2026-01-17 10:55:35.54	197.28	16.86	-46.6	-48.2	18.8	0.00e+00	0	35	0	298844160	64	4407
2026-01-17 10:55:36.54	197.39	16.96	-46.6	-48.3	18.7	0.00e+00	0	34	0	300941312	64	4462
2026-01-17 10:55:37.55	197.50	17.06	-46.7	-48.4	18.6	0.00e+00	0	34	0	303038464	64	4513
2026-01-17 10:55:38.56	197.60	17.17	-46.7	-48.4	18.6	0.00e+00	0	34	0	304087040	64	4517
2026-01-17 10:55:39.57	197.71	17.27	-46.7	-48.3	18.7	0.00e+00	0	34	0	306184192	64	4493
2026-01-17 10:55:40.58	197.82	17.38	-46.7	-48.3	18.7	0.00e+00	0	34	0	308281344	64	4470
2026-01-17 10:55:41.58	197.93	17.48	-46.7	-48.4	18.7	0.00e+00	0	34	0	310378496	64	4494
2026-01-17 10:55:42.59	198.04	17.59	-46.7	-48.4	18.6	0.00e+00	0	34	0	312475648	64	4509
2026-01-17 10:55:43.60	198.15	17.69	-46.7	-48.4	18.7	0.00e+00	0	34	0	313524224	64	4497
2026-01-17 10:55:44.61	198.27	17.80	-46.7	-48.3	18.7	0.00e+00	0	34	0	315621376	64	4458
2026-01-17 10:55:45.62	198.38	17.91	-46.6	-48.3	18.7	0.00e+00	0	34	0	317718528	64	4451
2026-01-17 10:55:46.63	198.49	18.01	-46.6	-48.2	18.8	0.00e+00	0	34	0	319815680	64	4404
2026-01-17 10:55:47.64	198.61	18.12	-46.6	-48.2	18.8	0.00e+00	0	34	0	321912832	64	4430
2026-01-17 10:55:48.64	198.72	18.23	-46.6	-48.1	18.9	0.00e+00	0	35	0	322961408	64	4390
2026-01-17 10:55:49.65	198.84	18.34	-46.4	-48.0	19.0	0.00e+00	0	34	0	325058560	64	4317
2026-01-17 10:55:50.66	198.95	18.44	-46.5	-48.0	19.0	0.00e+00	0	34	0	327155712	64	4334
2026-01-17 10:55:51.67	199.07	18.55	-46.4	-47.9	19.1	0.00e+00	0	34	0	329252864	64	4278
2026-01-17 10:55:52.68	199.19	18.66	-46.4	-47.9	19.1	0.00e+00	0	34	0	331350016	64	4286
2026-01-17 10:55:53.69	199.31	18.77	-46.4	-47.9	19.1	0.00e+00	0	34	0	332398592	64	4274
2026-01-17 10:55:54.69	199.43	18.88	-46.3	-47.8	19.2	0.00e+00	0	34	0	334495744	64	4241
2026-01-17 10:55:55.70	199.55	18.99	-46.3	-47.9	19.1	0.00e+00	0	34	0	336592896	64	4252
2026-01-17 10:55:56.71	199.67	19.10	-46.4	-48.0	19.0	0.00e+00	0	34	0	338690048	64	4310
2026-01-17 10:55:57.72	199.80	19.21	-46.4	-48.0	19.1	0.00e+00	0	34	0	340787200	64	4299
2026-01-17 10:55:58.73	199.92	19.32	-46.4	-48.0	19.1	0.00e+00	0	34	0	342884352	64	4303
2026-01-17 10:55:59.74	200.04	19.44	-47.6	-49.5	17.9	0.00e+00	0	34	0	343932928	65	4833
2026-01-17 10:56:00.74	200.17	19.55	-48.3	-50.4	16.6	0.00e+00	0	34	0	346030080	67	4805
2026-01-17 10:56:01.75	200.29	19.66	-48.0	-50.1	17.0	0.00e+00	0	34	0	348127232	67	4613
2026-01-17 10:56:02.76	200.42	19.77	-47.6	-49.5	17.5	0.00e+00	0	34	0	350224384	67	4300
2026-01-17 10:56:03.77	200.55	19.89	-47.6	-49.5	17.6	0.00e+00	0	34	0	351272960	67	4306
2026-01-17 10:56:04.78	200.68	20.00	-47.2	-48.9	18.1	0.00e+00	0	34	0	353370112	66	4266
2026-01-17 10:56:05.79	200.81	20.11	-47.0	-48.7	18.3	0.00e+00	0	34	0	355467264	65	4441
2026-01-17 10:56:06.79	200.94	20.23	-47.3	-49.1	18.0	0.00e+00	0	34	0	357564416	65	4608
2026-01-17 10:56:07.80	201.07	20.34	-47.1	-48.8	18.2	0.00e+00	0	34	0	359661568	65	4490
2026-01-17 10:56:08.81	201.20	20.46	-47.1	-48.9	18.1	0.00e+00	0	34	0	360710144	65	4517
2026-01-17 10:56:09.82	201.34	20.57	-46.9	-48.5	18.5	0.00e+00	0	34	0	362807296	65	4332
2026-01-17 10:56:10.82	201.47	20.69	-46.7	-48.3	18.8	0.00e+00	0	34	0	364904448	65	4233
2026-01-17 10:56:11.83	201.61	20.80	-46.6	-48.1	18.9	0.00e+00	0	34	0	367001600	65	4135
2026-01-17 10:56:12.84	201.74	20.92	-46.7	-48.3	18.8	0.00e+00	0	34	0	369098752	65	4200
2026-01-17 10:56:13.85	201.88	21.04	-46.7	-48.4	18.7	0.00e+00	0	34	0	371195904	65	4260
2026-01-17 10:56:14.86	202.02	21.16	-46.7	-48.4	18.7	0.00e+00	0	34	0	372244480	65	4245
2026-01-17 10:56:15.86	202.16	21.27	-46.7	-48.3	18.8	0.00e+00	0	34	0	374341632	65	4236
2026-01-17 10:56:16.87	202.30	21.39	-46.8	-48.4	18.7	0.00e+00	0	34	0	376438784	65	4283
2026-01-17 10:56:17.88	202.44	21.51	-46.8	-48.4	18.7	0.00e+00	0	34	0	378535936	65	4280
2026-01-17 10:56:18.89	202.58	21.63	-47.0	-48.6	18.4	0.00e+00	0	34	0	379584512	65	4384
2026-01-17 10:56:19.90	202.73	21.75	-46.9	-48.5	18.6	0.00e+00	0	34	0	381681664	65	4330
2026-01-17 10:56:20.90	202.87	21.87	-46.8	-48.5	18.6	0.00e+00	0	34	0	383778816	65	4308
2026-01-17 10:56:21.91	203.02	21.99	-46.9	-48.6	18.5	0.00e+00	0	35	0	385875968	65	4349
2026-01-17 10:56:22.92	203.17	22.11	-46.9	-48.6	18.5	0.00e+00	0	35	0	387973120	65	4376
2026-01-17 10:56:23.93	203.31	22.23	-47.0	-48.6	18.5	0.00e+00	0	34	0	390070272	65	4389
2026-01-17 10:56:24.94	203.46	22.35	-46.9	-48.6	18.5	0.00e+00	0	34	0	391118848	65	4375
2026-01-17 10:56:25.94	203.61	22.47	-46.9	-48.6	18.5	0.00e+00	0	34	0	393216000	65	4375
2026-01-17 10:56:26.95	203.76	22.59	-46.9	-48.5	18.6	0.00e+00	0	34	0	395313152	65	4323
2026-01-17 10:56:27.96	203.92	22.71	-46.8	-48.4	18.7	0.00e+00	0	34	0	397410304	65	4283
2026-01-17 10:56:28.97	204.07	22.84	-46.8	-48.4	18.7	0.00e+00	0	34	0	399507456	65	4283
2026-01-17 10:56:29.98	204.23	22.96	-46.7	-48.3	18.8	0.00e+00	0	34	0	400556032	65	4233
2026-01-17 10:56:30.98	204.38	23.08	-46.8	-48.4	18.7	0.00e+00	0	35	0	402653184	65	4272
2026-01-17 10:56:31.99	204.54	23.21	-46.7	-48.3	18.9	0.00e+00	0	34	0	404750336	65	4208
2026-01-17 10:56:33.00	204.70	23.33	-46.8	-48.4	18.7	0.00e+00	0	34	0	406847488	65	4266
2026-01-17 10:56:34.01	204.86	23.46	-46.7	-48.3	18.8	0.00e+00	0	34	0	407896064	65	4240
2026-01-17 10:56:35.02	205.02	23.58	-46.7	-48.3	18.8	0.00e+00	0	34	0	409993216	65	4240
2026-01-17 10:56:36.02	205.18	23.71	-46.7	-48.3	18.8	0.00e+00	0	34	0	412090368	65	4224
2026-01-17 10:56:37.03	205.34	23.83	-46.8	-48.4	18.8	0.00e+00	0	34	0	414187520	65	4276
2026-01-17 10:56:38.04	205.51	23.96	-46.8	-48.4	18.7	0.00e+00	0	34	0	416284672	65	4272
2026-01-17 10:56:39.05	205.68	24.08	-46.8	-48.4	18.7	0.00e+00	0	34	0	418381824	65	4285
2026-01-17 10:56:40.06	205.84	24.21	-46.8	-48.5	18.7	0.00e+00	0	34	0	419430400	65	4299
2026-01-17 10:56:41.06	206.01	24.34	-46.9	-48.6	18.6	0.00e+00	0	34	0	421527552	65	4370
2026-01-17 10:56:42.07	206.18	24.47	-46.9	-48.6	18.6	0.00e+00	0	34	0	423624704	65	4372
2026-01-17 10:56:43.08	206.35	24.59	-47.0	-48.7	18.5	0.00e+00	0	34	0	425721856	65	4408
2026-01-17 10:56:44.09	206.53	24.72	-47.1	-48.8	18.4	0.00e+00	0	34	0	427819008	65	4450
2026-01-17 10:56:45.10	206.70	24.85	-47.2	-48.9	18.3	0.00e+00	0	34	0	428867584	65	4508
2026-01-17 10:56:46.10	206.88	24.98	-47.2	-49.0	18.2	0.00e+00	0	34	0	430964736	65	4549
2026-01-17 10:56:47.11	207.05	25.11	-47.3	-49.0	18.1	0.00e+00	0	35	0	433061888	65	4589
2026-01-17 10:56:48.12	207.23	25.24	-47.4	-49.2	18.1	0.00e+00	0	34	0	435159040	65	4657
2026-01-17 10:56:49.13	207.41	25.37	-47.2	-49.0	18.2	0.00e+00	0	34	0	437256192	65	4556
2026-01-17 10:56:50.14	207.59	25.50	-47.3	-49.1	18.1	0.00e+00	0	34	0	438304768	65	4641
2026-01-17 10:56:51.14	207.77	25.63	-47.2	-49.0	18.2	0.00e+00	0	35	0	440401920	65	4561
2026-01-17 10:56:52.15	207.96	25.76	-47.3	-49.0	18.2	0.00e+00	0	35	0	442499072	65	4588
2026-01-17 10:56:53.16	208.14	25.89	-47.3	-49.1	18.1	0.00e+00	0	34	0	444596224	65	4627
2026-01-17 10:56:54.17	208.33	26.02	-47.3	-49.1	18.1	0.00e+00	0	35	0	446693376	65	4613
2026-01-17 10:56:55.18	208.52	26.16	-47.3	-49.0	18.2	0.00e+00	0	35	0	447741952	65	4586
2026-01-17 10:56:56.18	208.71	26.29	-47.2	-49.0	18.2	0.00e+00	0	35	0	449839104	65	4552
2026-01-17 10:56:57.19	208.90	26.42	-47.2	-48.9	18.3	0.00e+00	0	34	0	451936256	65	4544
2026-01-17 10:56:58.20	209.10	26.55	-47.1	-48.8	18.4	0.00e+00	0	34	0	454033408	65	4481
2026-01-17 10:56:59.21	209.29	26.69	-47.0	-48.6	18.6	0.00e+00	0	34	0	456130560	65	4391
2026-01-17 10:57:00.22	209.49	26.82	-47.1	-48.7	18.4	0.00e+00	0	35	0	457179136	65	4440
2026-01-17 10:57:01.23	209.69	26.95	-47.0	-48.7	18.5	0.00e+00	0	35	0	459276288	65	4420
2026-01-17 10:57:02.23	209.88	27.09	-47.0	-48.7	18.5	0.00e+00	0	34	0	461373440	65	4399
2026-01-17 10:57:03.24	210.09	27.22	-46.9	-48.6	18.7	0.00e+00	0	34	0	463470592	65	4341
2026-01-17 10:57:04.25	210.29	27.36	-47.0	-48.7	18.6	0.00e+00	0	34	0	465567744	65	4404
2026-01-17 10:57:05.26	210.49	27.49	-47.1	-48.8	18.5	0.00e+00	0	34	0	466616320	65	4454
2026-01-17 10:57:06.27	210.70	27.63	-47.1	-48.9	18.4	0.00e+00	0	35	0	468713472	65	4496
2026-01-17 10:57:07.27	210.91	27.76	-47.3	-49.0	18.2	0.00e+00	0	34	0	470810624	65	4579
2026-01-17 10:57:08.28	211.12	27.90	-47.4	-49.2	18.1	0.00e+00	0	34	0	472907776	65	4658
2026-01-17 10:57:09.29	211.33	28.04	-47.4	-49.2	18.1	0.00e+00	0	34	0	475004928	65	4660
2026-01-17 10:57:10.30	211.54	28.17	-47.5	-49.3	17.9	0.00e+00	0	34	0	476053504	65	4733
2026-01-17 10:57:11.31	211.76	28.31	-47.5	-49.4	17.8	0.00e+00	0	35	0	478150656	65	4781
2026-01-17 10:57:12.32	211.98	28.45	-47.5	-49.4	17.9	0.00e+00	0	34	0	480247808	65	4773
2026-01-17 10:57:13.33	212.20	28.58	-47.6	-49.4	17.9	0.00e+00	0	34	0	482344960	65	4786
2026-01-17 10:57:14.33	212.42	28.72	-47.6	-49.4	17.9	0.00e+00	0	35	0	484442112	65	4780
2026-01-17 10:57:15.34	212.64	28.86	-47.5	-49.3	17.9	0.00e+00	0	35	0	486539264	65	4753
2026-01-17 10:57:16.35	212.86	29.00	-47.5	-49.3	18.0	0.00e+00	0	35	0	487587840	65	4727
2026-01-17 10:57:17.36	213.09	29.13	-47.6	-49.4	17.8	0.00e+00	0	34	0	489684992	65	4788
2026-01-17 10:57:18.37	213.32	29.27	-47.6	-49.4	17.9	0.00e+00	0	34	0	491782144	65	4814
2026-01-17 10:57:19.38	213.55	29.41	-47.6	-49.5	17.8	0.00e+00	0	35	0	493879296	65	4834
2026-01-17 10:57:20.38	213.78	29.55	-47.6	-49.5	17.8	0.00e+00	0	34	0	494927872	65	4831
2026-01-17 10:57:21.39	214.01	29.69	-47.7	-49.6	17.7	0.00e+00	0	34	0	497025024	66	4619
2026-01-17 10:57:22.40	214.25	29.83	-47.8	-49.6	17.6	0.00e+00	0	35	0	499122176	66	4648
2026-01-17 10:57:23.41	214.49	29.97	-47.7	-49.6	17.7	0.00e+00	0	34	0	501219328	66	4608
2026-01-17 10:57:24.42	214.73	30.11	-47.7	-49.6	17.7	0.00e+00	0	35	0	503316480	66	4630
2026-01-17 10:57:25.43	214.97	30.25	-47.8	-49.7	17.6	0.00e+00	0	35	0	505413632	66	4681
2026-01-17 10:57:26.43	215.21	30.38	-47.8	-49.7	17.6	0.00e+00	0	34	0	506462208	66	4684
2026-01-17 10:57:27.44	215.46	30.52	-47.9	-49.9	17.4	0.00e+00	0	35	0	508559360	66	4789
2026-01-17 10:57:28.45	215.71	30.66	-48.0	-50.0	17.3	0.00e+00	0	35	0	510656512	66	4869
2026-01-17 10:57:29.46	215.96	30.81	-48.1	-50.1	17.2	0.00e+00	0	35	0	512753664	66	4895
2026-01-17 10:57:30.46	216.21	30.94	-48.3	-50.4	16.9	0.00e+00	0	34	0	514850816	67	4794
2026-01-17 10:57:31.47	216.46	31.08	-48.6	-50.8	16.5	0.00e+00	0	35	0	515899392	67	5009
2026-01-17 10:57:32.48	216.72	31.22	-48.7	-51.0	16.4	0.00e+00	0	34	0	517996544	67	5112
2026-01-17 10:57:33.48	216.98	31.36	-48.8	-51.1	16.3	0.00e+00	0	35	0	520093696	68	4922
2026-01-17 10:57:34.49	217.24	31.50	-48.8	-51.1	16.4	0.00e+00	0	34	0	522190848	68	4879
2026-01-17 10:57:35.50	217.50	31.64	-48.8	-51.0	16.4	0.00e+00	0	34	0	523239424	68	4846
2026-01-17 10:57:36.51	217.77	31.78	-48.8	-51.1	16.4	0.00e+00	0	35	0	525336576	68	4887
2026-01-17 10:57:37.52	218.04	31.93	-48.8	-51.0	16.4	0.00e+00	0	35	0	527433728	68	4860
2026-01-17 10:57:38.53	218.31	32.07	-48.8	-51.0	16.4	0.00e+00	0	35	0	529530880	68	4840
2026-01-17 10:57:39.54	218.58	32.21	-48.8	-51.1	16.3	0.00e+00	0	34	0	531628032	68	4916
2026-01-17 10:57:40.54	218.85	32.35	-48.7	-51.0	16.4	0.00e+00	0	35	0	533725184	68	4834
2026-01-17 10:57:41.55	219.13	32.49	-48.6	-50.8	16.6	0.00e+00	0	35	0	534773760	68	4730
2026-01-17 10:57:42.56	219.41	32.63	-48.5	-50.7	16.7	0.00e+00	0	34	0	536870912	68	4663
2026-01-17 10:57:43.57	219.69	32.77	-48.7	-50.9	16.6	0.00e+00	0	35	0	538968064	68	4771
2026-01-17 10:57:44.58	219.98	32.91	-48.7	-50.9	16.6	0.00e+00	0	34	0	541065216	68	4771
2026-01-17 10:57:45.59	220.27	33.05	-48.5	-50.7	16.8	0.00e+00	0	35	0	543162368	68	4655
2026-01-17 10:57:46.60	220.56	33.19	-48.3	-50.3	17.2	0.00e+00	0	34	0	544210944	68	4455
2026-01-17 10:57:47.61	220.85	33.32	-48.1	-50.0	17.4	0.00e+00	0	34	0	546308096	68	4337
2026-01-17 10:57:48.62	221.14	33.46	-47.9	-49.8	17.6	0.00e+00	0	35	0	548405248	67	4448
2026-01-17 10:57:49.62	221.44	33.60	-47.9	-49.8	17.5	0.00e+00	0	35	0	550502400	67	4477
2026-01-17 10:57:50.63	221.74	33.74	-48.1	-50.1	17.3	0.00e+00	0	35	0	552599552	67	4614
2026-01-17 10:57:51.64	222.04	33.88	-48.3	-50.4	17.0	0.00e+00	0	35	0	553648128	67	4781
2026-01-17 10:57:52.65	222.34	34.02	-48.4	-50.6	16.8	0.00e+00	0	35	0	555745280	67	4875
2026-01-17 10:57:53.66	222.65	34.16	-48.6	-50.8	16.6	0.00e+00	0	35	0	557842432	67	5020
2026-01-17 10:57:54.66	222.96	34.29	-48.4	-50.6	16.8	0.00e+00	0	35	0	559939584	67	4890
2026-01-17 10:57:55.67	223.27	34.43	-48.4	-50.5	16.9	0.00e+00	0	34	0	562036736	67	4822
2026-01-17 10:57:56.68	223.58	34.57	-48.1	-50.0	17.3	0.00e+00	0	35	0	563085312	67	4597
2026-01-17 10:57:57.69	223.90	34.71	-47.7	-49.5	17.8	0.00e+00	0	35	0	565182464	67	4337
2026-01-17 10:57:58.70	224.22	34.84	-47.6	-49.4	17.9	0.00e+00	0	34	0	567279616	67	4278
2026-01-17 10:57:59.70	224.54	34.98	-47.6	-49.4	18.0	0.00e+00	0	35	0	569376768	67	4254
2026-01-17 10:58:00.71	224.86	35.11	-47.5	-49.3	18.0	0.00e+00	0	35	0	571473920	67	4231
2026-01-17 10:58:01.72	225.19	35.25	-47.6	-49.4	17.9	0.00e+00	0	35	0	572522496	67	4271
2026-01-17 10:58:02.73	225.52	35.38	-47.8	-49.6	17.7	0.00e+00	0	35	0	574619648	67	4390
2026-01-17 10:58:03.74	225.86	35.52	-48.1	-50.1	17.3	0.00e+00	0	35	0	576716800	67	4647
2026-01-17 10:58:04.74	226.19	35.65	-48.5	-50.7	16.8	0.00e+00	0	35	0	578813952	67	4934
2026-01-17 10:58:05.75	226.53	35.78	-48.9	-51.3	16.2	0.00e+00	0	35	0	580911104	68	4987
2026-01-17 10:58:06.76	226.87	35.92	-48.9	-51.2	16.2	0.00e+00	0	35	0	581959680	68	4980
2026-01-17 10:58:07.77	227.21	36.05	-48.8	-51.1	16.3	0.00e+00	0	34	0	584056832	68	4904
2026-01-17 10:58:08.78	227.56	36.18	-48.8	-51.0	16.5	0.00e+00	0	35	0	586153984	68	4859
2026-01-17 10:58:09.78	227.91	36.31	-48.5	-50.6	16.8	0.00e+00	0	34	0	588251136	68	4650
2026-01-17 10:58:10.79	228.26	36.44	-48.1	-50.0	17.5	0.00e+00	0	35	0	590348288	68	4338
2026-01-17 10:58:11.80	228.61	36.57	-47.9	-49.7	17.7	0.00e+00	0	35	0	591396864	67	4433
2026-01-17 10:58:12.81	228.97	36.70	-48.0	-50.0	17.4	0.00e+00	0	35	0	593494016	67	4558
2026-01-17 10:58:13.82	229.33	36.83	-48.5	-50.6	16.8	0.00e+00	0	34	0	595591168	67	4901
2026-01-17 10:58:14.82	229.69	36.95	-49.0	-51.3	16.2	0.00e+00	0	34	0	597688320	68	5024
2026-01-17 10:58:15.83	230.06	37.08	-49.3	-51.9	15.6	0.00e+00	0	35	0	599785472	69	5063
2026-01-17 10:58:16.84	230.43	37.21	-49.3	-51.9	15.7	0.00e+00	0	35	0	600834048	69	5044
2026-01-17 10:58:17.85	230.80	37.33	-49.0	-51.4	16.1	0.00e+00	0	35	0	602931200	69	4761
2026-01-17 10:58:18.86	231.17	37.46	-48.7	-50.9	16.6	0.00e+00	0	35	0	605028352	69	4529
2026-01-17 10:58:19.86	231.55	37.58	-48.5	-50.6	16.9	0.00e+00	0	35	0	607125504	69	4380
2026-01-17 10:58:20.87	231.93	37.70	-48.1	-50.1	17.5	0.00e+00	0	34	0	609222656	68	4341
2026-01-17 10:58:21.88	232.31	37.82	-48.1	-50.0	17.5	0.00e+00	0	34	0	610271232	68	4301
2026-01-17 10:58:22.89	232.70	37.94	-48.2	-50.2	17.3	0.00e+00	0	35	0	612368384	68	4428
2026-01-17 10:58:23.90	233.08	38.06	-48.5	-50.7	16.9	0.00e+00	0	35	0	614465536	68	4653
2026-01-17 10:58:24.90	233.47	38.18	-48.8	-51.1	16.5	0.00e+00	0	35	0	616562688	68	4888
2026-01-17 10:58:25.91	233.87	38.30	-49.0	-51.3	16.2	0.00e+00	0	35	0	618659840	68	5013
2026-01-17 10:58:26.92	234.26	38.41	-49.0	-51.3	16.2	0.00e+00	0	35	0	619708416	68	5041
2026-01-17 10:58:27.93	234.66	38.53	-48.9	-51.2	16.4	0.00e+00	0	34	0	621805568	68	4931
2026-01-17 10:58:28.94	235.07	38.64	-48.5	-50.6	16.9	0.00e+00	0	35	0	623902720	68	4609
2026-01-17 10:58:29.94	235.47	38.75	-48.2	-50.1	17.4	0.00e+00	0	35	0	625999872	68	4364
2026-01-17 10:58:30.95	235.88	38.87	-47.8	-49.7	17.7	0.00e+00	0	35	0	628097024	67	4411
2026-01-17 10:58:31.96	236.29	38.98	-47.9	-49.8	17.6	0.00e+00	0	35	0	629145600	67	4471
2026-01-17 10:58:32.97	236.70	39.09	-48.3	-50.3	17.1	0.00e+00	0	35	0	631242752	67	4735
2026-01-17 10:58:33.98	237.12	39.19	-48.9	-51.2	16.4	0.00e+00	0	35	0	633339904	68	4942
2026-01-17 10:58:34.98	237.53	39.30	-49.4	-51.9	15.6	0.00e+00	0	35	0	635437056	69	5088
2026-01-17 10:58:35.99	237.95	39.40	-49.7	-52.5	15.0	0.00e+00	0	34	0	637534208	70	5148
2026-01-17 10:58:37.00	238.38	39.51	-49.9	-52.8	14.8	0.00e+00	0	35	0	638582784	70	5304
2026-01-17 10:58:38.01	238.80	39.61	-49.7	-52.4	15.1	0.00e+00	0	35	0	640679936	70	5074
2026-01-17 10:58:39.02	239.23	39.71	-49.5	-52.0	15.5	0.00e+00	0	35	0	642777088	70	4859
2026-01-17 10:58:40.02	239.66	39.81	-49.4	-52.0	15.6	0.00e+00	0	34	0	644874240	70	4832
2026-01-17 10:58:41.03	240.10	39.91	-49.4	-52.0	15.5	0.00e+00	0	35	0	646971392	70	4852
2026-01-17 10:58:42.04	240.53	40.00	-49.5	-52.1	15.4	0.00e+00	0	35	0	649068544	70	4902
2026-01-17 10:58:43.05	240.97	40.10	-49.1	-51.5	16.0	0.00e+00	0	35	0	650117120	70	4593
2026-01-17 10:58:44.06	241.42	40.19	-49.0	-51.3	16.3	0.00e+00	0	35	0	652214272	69	4709
2026-01-17 10:58:45.06	241.86	40.28	-48.9	-51.2	16.3	0.00e+00	0	35	0	654311424	69	4671
2026-01-17 10:58:46.07	242.30	40.37	-49.0	-51.3	16.3	0.00e+00	0	34	0	656408576	69	4738
2026-01-17 10:58:47.08	242.75	40.46	-49.0	-51.4	16.2	0.00e+00	0	35	0	657457152	69	4769
2026-01-17 10:58:48.09	243.20	40.54	-48.8	-51.0	16.5	0.00e+00	0	35	0	659554304	69	4567
2026-01-17 10:58:49.10	243.66	40.63	-48.6	-50.8	16.9	0.00e+00	0	35	0	661651456	69	4448
2026-01-17 10:58:50.10	244.11	40.71	-48.4	-50.4	17.1	0.00e+00	0	35	0	663748608	68	4539
2026-01-17 10:58:51.11	244.57	40.79	-48.0	-49.9	17.6	0.00e+00	0	35	0	665845760	68	4270
2026-01-17 10:58:52.12	245.03	40.87	-47.8	-49.7	17.8	0.00e+00	0	35	0	666894336	67	4396
2026-01-17 10:58:53.13	245.50	40.95	-47.8	-49.7	17.7	0.00e+00	0	35	0	668991488	67	4409
2026-01-17 10:58:54.13	245.96	41.02	-47.7	-49.5	17.9	0.00e+00	0	35	0	671088640	67	4307
2026-01-17 10:58:55.14	246.42	41.10	-47.8	-49.7	17.8	0.00e+00	0	35	0	673185792	67	4402
2026-01-17 10:58:56.15	246.89	41.17	-47.9	-49.8	17.6	0.00e+00	0	35	0	675282944	67	4458
2026-01-17 10:58:57.16	247.37	41.24	-48.2	-50.1	17.3	0.00e+00	0	35	0	677380096	67	4646
2026-01-17 10:58:58.17	247.84	41.30	-48.5	-50.6	16.9	0.00e+00	0	35	0	678428672	67	4873
2026-01-17 10:58:59.18	248.31	41.37	-48.4	-50.4	17.0	0.00e+00	0	35	0	680525824	67	4814
2026-01-17 10:59:00.18	248.79	41.43	-48.6	-50.8	16.7	0.00e+00	0	35	0	682622976	67	5001
2026-01-17 10:59:01.19	249.27	41.49	-48.5	-50.6	16.8	0.00e+00	0	35	0	684720128	67	4909
2026-01-17 10:59:02.20	249.75	41.55	-48.7	-50.9	16.7	0.00e+00	0	35	0	685768704	67	5045
2026-01-17 10:59:03.20	250.23	41.61	-48.8	-51.1	16.5	0.00e+00	0	35	0	687865856	68	4876
2026-01-17 10:59:04.21	250.71	41.66	-49.0	-51.3	16.2	0.00e+00	0	35	0	689963008	68	5041
2026-01-17 10:59:05.22	251.20	41.72	-49.2	-51.6	16.0	0.00e+00	0	35	0	692060160	69	4900
2026-01-17 10:59:06.23	251.68	41.77	-49.4	-51.9	15.7	0.00e+00	0	34	0	694157312	69	5072
2026-01-17 10:59:07.24	252.17	41.81	-49.4	-51.9	15.7	0.00e+00	0	35	0	696254464	69	5044
2026-01-17 10:59:08.25	252.66	41.86	-49.2	-51.7	15.9	0.00e+00	0	35	0	697303040	69	4928
2026-01-17 10:59:09.25	253.15	41.90	-49.0	-51.3	16.3	0.00e+00	0	35	0	699400192	69	4716
2026-01-17 10:59:10.26	253.64	41.95	-48.7	-50.9	16.6	0.00e+00	0	35	0	701497344	69	4527
2026-01-17 10:59:11.27	254.14	41.98	-48.7	-50.8	16.7	0.00e+00	0	35	0	703594496	69	4493
2026-01-17 10:59:12.28	254.63	42.02	-48.7	-50.9	16.7	0.00e+00	0	35	0	705691648	69	4506
2026-01-17 10:59:13.28	255.12	42.06	-49.0	-51.2	16.3	0.00e+00	0	35	0	706740224	69	4700
2026-01-17 10:59:14.29	255.62	42.09	-48.9	-51.2	16.4	0.00e+00	0	34	0	708837376	69	4691
2026-01-17 10:59:15.30	256.12	42.12	-48.8	-51.1	16.5	0.00e+00	0	34	0	710934528	69	4612
2026-01-17 10:59:16.31	256.62	42.15	-48.3	-50.2	17.4	0.00e+00	0	35	0	713031680	68	4425
2026-01-17 10:59:17.32	257.12	42.17	-47.9	-49.7	17.7	0.00e+00	0	35	0	714080256	67	4434
2026-01-17 10:59:18.32	257.61	42.19	-47.7	-49.4	18.0	0.00e+00	0	35	0	716177408	67	4275
2026-01-17 10:59:19.33	258.12	42.21	-47.9	-49.7	17.8	0.00e+00	0	35	0	718274560	67	4437
2026-01-17 10:59:20.34	258.62	42.23	-48.3	-50.3	17.2	0.00e+00	0	35	0	720371712	67	4713
2026-01-17 10:59:21.35	259.12	42.25	-48.4	-50.5	17.0	0.00e+00	0	35	0	722468864	67	4827
2026-01-17 10:59:22.36	259.62	42.26	-48.2	-50.2	17.2	0.00e+00	0	35	0	724566016	67	4691
2026-01-17 10:59:23.37	260.13	42.27	-48.1	-50.0	17.5	0.00e+00	0	35	0	725614592	67	4585
2026-01-17 10:59:24.37	260.62	42.28	-47.9	-49.7	17.8	0.00e+00	0	35	0	727711744	67	4421
2026-01-17 10:59:25.38	261.13	42.29	-48.0	-49.9	17.6	0.00e+00	0	35	0	729808896	67	4503
2026-01-17 10:59:26.39	261.63	42.29	-48.1	-50.0	17.5	0.00e+00	0	35	0	731906048	67	4573
2026-01-17 10:59:27.40	262.14	42.29	-48.5	-50.7	16.8	0.00e+00	0	35	0	734003200	67	4936
2026-01-17 10:59:28.41	262.64	42.29	-48.7	-50.9	16.7	0.00e+00	0	34	0	735051776	68	4779
2026-01-17 10:59:29.42	263.14	42.29	-48.4	-50.4	17.2	0.00e+00	0	35	0	737148928	68	4512
2026-01-17 10:59:30.43	263.65	42.28	-48.2	-50.1	17.4	0.00e+00	0	35	0	739246080	68	4385
2026-01-17 10:59:31.44	264.15	42.27	-47.8	-49.7	17.8	0.00e+00	0	35	0	741343232	67	4408
2026-01-17 10:59:32.45	264.65	42.26	-47.7	-49.5	18.0	0.00e+00	0	35	0	743440384	67	4313
2026-01-17 10:59:33.45	265.15	42.25	-47.7	-49.5	18.0	0.00e+00	0	35	0	744488960	67	4300
2026-01-17 10:59:34.46	265.65	42.23	-47.6	-49.4	18.1	0.00e+00	0	35	0	746586112	67	4261
2026-01-17 10:59:35.47	266.16	42.22	-46.8	-48.4	19.1	0.00e+00	0	35	0	748683264	65	4258
2026-01-17 10:59:36.48	266.66	42.19	-46.4	-47.8	19.6	0.00e+00	0	35	0	750780416	64	4230
2026-01-17 10:59:37.49	267.16	42.17	-46.2	-47.6	19.8	0.00e+00	0	34	0	752877568	64	4144
2026-01-17 10:59:38.50	267.66	42.15	-46.5	-48.0	19.5	0.00e+00	0	35	0	753926144	64	4292
2026-01-17 10:59:39.50	268.15	42.12	-46.9	-48.4	19.0	0.00e+00	0	35	0	756023296	64	4537
2026-01-17 10:59:40.51	268.65	42.09	-47.2	-48.8	18.7	0.00e+00	0	35	0	758120448	64	4730
2026-01-17 10:59:41.52	269.15	42.06	-46.8	-48.3	19.1	0.00e+00	0	35	0	760217600	64	4491
2026-01-17 10:59:42.53	269.64	42.02	-46.8	-48.4	19.1	0.00e+00	0	35	0	762314752	64	4515
2026-01-17 10:59:43.53	270.13	41.99	-47.3	-49.0	18.5	0.00e+00	0	35	0	764411904	65	4555
2026-01-17 10:59:44.54	270.63	41.95	-47.8	-49.6	17.9	0.00e+00	0	35	0	765460480	66	4643
2026-01-17 10:59:45.55	271.12	41.91	-48.2	-50.2	17.3	0.00e+00	0	35	0	767557632	67	4689
2026-01-17 10:59:46.56	271.61	41.86	-48.2	-50.1	17.4	0.00e+00	0	35	0	769654784	67	4640
2026-01-17 10:59:47.57	272.10	41.82	-47.8	-49.7	17.8	0.00e+00	0	35	0	771751936	67	4407
2026-01-17 10:59:48.58	272.59	41.77	-47.6	-49.4	18.2	0.00e+00	0	35	0	772800512	67	4244
2026-01-17 10:59:49.58	273.07	41.72	-47.9	-49.7	17.8	0.00e+00	0	35	0	774897664	67	4429
2026-01-17 10:59:50.59	273.56	41.67	-48.1	-50.0	17.5	0.00e+00	0	35	0	776994816	67	4593
2026-01-17 10:59:51.60	274.04	41.61	-48.3	-50.2	17.3	0.00e+00	0	35	0	779091968	67	4691
2026-01-17 10:59:52.61	274.52	41.55	-48.1	-50.0	17.5	0.00e+00	0	35	0	781189120	67	4575
2026-01-17 10:59:53.62	275.00	41.49	-48.0	-49.9	17.7	0.00e+00	0	35	0	782237696	67	4498
2026-01-17 10:59:54.63	275.48	41.43	-48.2	-50.2	17.3	0.00e+00	0	34	0	784334848	67	4695
2026-01-17 10:59:55.63	275.95	41.37	-48.9	-51.2	16.5	0.00e+00	0	34	0	786432000	68	4930
2026-01-17 10:59:56.64	276.43	41.31	-49.5	-52.1	15.6	0.00e+00	0	35	0	788529152	69	5213
2026-01-17 10:59:57.65	276.90	41.24	-49.6	-52.2	15.4	0.00e+00	0	35	0	790626304	70	4967
2026-01-17 10:59:58.66	277.37	41.17	-49.1	-51.4	16.2	0.00e+00	0	35	0	792723456	70	4541
2026-01-17 10:59:59.66	277.84	41.10	-48.7	-50.8	16.9	0.00e+00	0	35	0	793772032	69	4465
2026-01-17 11:00:00.67	278.30	41.03	-48.8	-51.0	16.7	0.00e+00	0	35	0	795869184	69	4562
2026-01-17 11:00:01.68	278.77	40.95	-49.4	-51.8	15.9	0.00e+00	0	35	0	797966336	69	5025
2026-01-17 11:00:02.69	279.23	40.87	-49.8	-52.6	15.1	0.00e+00	0	35	0	800063488	70	5184
2026-01-17 11:00:03.69	279.69	40.80	-49.4	-51.9	15.7	0.00e+00	0	35	0	801112064	70	4792
2026-01-17 11:00:04.70	280.15	40.72	-48.6	-50.7	16.9	0.00e+00	0	35	0	803209216	69	4417
2026-01-17 11:00:05.71	280.60	40.63	-47.9	-49.7	17.9	0.00e+00	0	35	0	805306368	67	4429
2026-01-17 11:00:06.72	281.06	40.55	-47.9	-49.8	17.7	0.00e+00	0	35	0	807403520	67	4466
2026-01-17 11:00:07.73	281.51	40.46	-48.4	-50.4	17.1	0.00e+00	0	35	0	809500672	67	4812
2026-01-17 11:00:08.74	281.96	40.38	-48.2	-50.2	17.4	0.00e+00	0	35	0	811597824	67	4676
2026-01-17 11:00:09.74	282.40	40.29	-48.1	-49.9	17.6	0.00e+00	0	35	0	812646400	67	4541
2026-01-17 11:00:10.75	282.84	40.20	-47.9	-49.7	17.8	0.00e+00	0	35	0	814743552	67	4412
2026-01-17 11:00:11.76	283.28	40.10	-48.3	-50.2	17.3	0.00e+00	0	35	0	816840704	67	4703
2026-01-17 11:00:12.77	283.72	40.01	-48.6	-50.7	16.9	0.00e+00	0	35	0	818937856	67	4968
2026-01-17 11:00:13.78	284.16	39.91	-48.7	-50.8	16.8	0.00e+00	0	35	0	821035008	68	4733
2026-01-17 11:00:14.79	284.59	39.82	-48.3	-50.3	17.4	0.00e+00	0	35	0	822083584	68	4453
2026-01-17 11:00:15.80	285.03	39.72	-47.7	-49.4	18.1	0.00e+00	0	35	0	824180736	67	4276
2026-01-17 11:00:16.81	285.45	39.62	-47.4	-49.1	18.5	0.00e+00	0	35	0	826277888	66	4355
2026-01-17 11:00:17.82	285.88	39.51	-47.0	-48.6	19.0	0.00e+00	0	35	0	828375040	66	4108
2026-01-17 11:00:18.82	286.30	39.41	-47.0	-48.5	19.0	0.00e+00	0	35	0	829423616	65	4326
2026-01-17 11:00:19.83	286.72	39.31	-46.6	-48.1	19.4	0.00e+00	0	34	0	831520768	65	4114
2026-01-17 11:00:20.84	287.14	39.20	-46.3	-47.7	19.8	0.00e+00	0	35	0	833617920	64	4173
2026-01-17 11:00:21.85	287.55	39.09	-46.1	-47.5	20.0	0.00e+00	0	35	0	835715072	64	4080
2026-01-17 11:00:22.86	287.97	38.98	-46.1	-47.5	20.0	0.00e+00	0	35	0	837812224	64	4053
2026-01-17 11:00:23.86	288.37	38.88	-46.1	-47.5	20.0	0.00e+00	0	34	0	839909376	64	4058
2026-01-17 11:00:24.88	288.78	38.76	-46.6	-48.1	19.5	0.00e+00	0	35	0	840957952	64	4344
2026-01-17 11:00:25.89	289.19	38.65	-46.6	-48.1	19.4	0.00e+00	0	35	0	843055104	64	4378
2026-01-17 11:00:26.89	289.59	38.54	-46.0	-47.3	20.1	0.00e+00	0	35	0	845152256	64	4003
2026-01-17 11:00:27.90	289.99	38.42	-45.6	-46.9	20.7	0.00e+00	0	35	0	847249408	63	4006
2026-01-17 11:00:28.91	290.38	38.31	-45.7	-47.0	20.6	0.00e+00	0	35	0	849346560	63	4065
2026-01-17 11:00:29.92	290.77	38.19	-45.9	-47.2	20.4	0.00e+00	0	34	0	850395136	63	4155
2026-01-17 11:00:30.93	291.17	38.07	-46.3	-47.7	19.9	0.00e+00	0	35	0	852492288	63	4410
2026-01-17 11:00:31.94	291.55	37.95	-46.1	-47.4	20.2	0.00e+00	0	35	0	854589440	63	4290
2026-01-17 11:00:32.94	291.93	37.84	-45.7	-47.0	20.6	0.00e+00	0	35	0	856686592	63	4058
2026-01-17 11:00:33.95	292.32	37.71	-45.5	-46.8	20.8	0.00e+00	0	35	0	858783744	63	3974
2026-01-17 11:00:34.96	292.70	37.59	-45.4	-46.6	20.9	0.00e+00	0	35	0	859832320	62	4135
2026-01-17 11:00:35.97	293.07	37.47	-45.7	-47.0	20.6	0.00e+00	0	35	0	861929472	62	4330
2026-01-17 11:00:36.98	293.45	37.35	-46.2	-47.6	20.1	0.00e+00	0	34	0	864026624	62	4609
2026-01-17 11:00:37.99	293.82	37.22	-46.4	-47.8	19.8	0.00e+00	0	35	0	866123776	63	4484
2026-01-17 11:00:39.00	294.19	37.10	-46.3	-47.7	19.9	0.00e+00	0	35	0	868220928	63	4410
2026-01-17 11:00:40.01	294.55	36.97	-46.0	-47.3	20.3	0.00e+00	0	35	0	869269504	63	4208
2026-01-17 11:00:41.01	294.91	36.84	-45.9	-47.2	20.4	0.00e+00	0	35	0	871366656	63	4165
2026-01-17 11:00:42.03	295.27	36.71	-45.8	-47.1	20.6	0.00e+00	0	35	0	873463808	63	4103
2026-01-17 11:00:43.03	295.63	36.59	-46.0	-47.3	20.3	0.00e+00	0	35	0	875560960	63	4209
2026-01-17 11:00:44.04	295.98	36.46	-45.8	-47.1	20.5	0.00e+00	0	35	0	877658112	63	4123
2026-01-17 11:00:45.05	296.33	36.33	-45.8	-47.1	20.5	0.00e+00	0	34	0	878706688	63	4133
2026-01-17 11:00:46.05	296.68	36.20	-45.7	-47.0	20.6	0.00e+00	0	35	0	880803840	63	4082
2026-01-17 11:00:47.06	297.02	36.07	-45.7	-46.9	20.5	0.00e+00	0	35	0	882900992	63	4043
2026-01-17 11:00:48.07	297.37	35.94	-45.9	-47.2	20.4	0.00e+00	0	35	0	884998144	63	4177
2026-01-17 11:00:49.08	297.71	35.80	-46.2	-47.6	20.0	0.00e+00	0	35	0	887095296	63	4372
2026-01-17 11:00:50.08	298.04	35.67	-46.5	-47.9	19.7	0.00e+00	0	35	0	888143872	63	4502
2026-01-17 11:00:51.09	298.38	35.54	-46.5	-47.9	19.6	0.00e+00	0	35	0	890241024	63	4516
2026-01-17 11:00:52.10	298.71	35.41	-46.7	-48.2	19.2	0.00e+00	0	35	0	892338176	64	4412
2026-01-17 11:00:53.11	299.04	35.27	-47.0	-48.6	18.9	0.00e+00	0	35	0	894435328	64	4618
2026-01-17 11:00:54.12	299.37	35.14	-47.2	-48.8	18.8	0.00e+00	0	35	0	896532480	65	4462
2026-01-17 11:00:55.13	299.69	35.00	-47.1	-48.7	18.8	0.00e+00	0	34	0	898629632	65	4409
2026-01-17 11:00:56.14	300.01	34.87	-47.1	-48.7	18.8	0.00e+00	0	35	0	899678208	65	4392
2026-01-17 11:00:57.14	300.33	34.73	-47.0	-48.5	19.0	0.00e+00	0	34	0	901775360	65	4324
2026-01-17 11:00:58.15	300.65	34.60	-46.6	-48.1	19.5	0.00e+00	0	35	0	903872512	65	4116
2026-01-17 11:00:59.16	300.96	34.46	-46.4	-47.9	19.6	0.00e+00	0	35	0	905969664	64	4251
2026-01-17 11:01:00.17	301.27	34.32	-46.7	-48.2	19.3	0.00e+00	0	35	0	907018240	64	4427
2026-01-17 11:01:01.18	301.58	34.18	-47.1	-48.7	18.8	0.00e+00	0	35	0	909115392	64	4667
2026-01-17 11:01:02.18	301.88	34.05	-47.2	-48.9	18.7	0.00e+00	0	35	0	911212544	65	4521
2026-01-17 11:01:03.19	302.19	33.91	-47.0	-48.6	18.9	0.00e+00	0	35	0	913309696	65	4378
2026-01-17 11:01:04.20	302.49	33.77	-46.9	-48.4	19.1	0.00e+00	0	35	0	915406848	65	4287
2026-01-17 11:01:05.21	302.79	33.63	-46.8	-48.3	19.2	0.00e+00	0	34	0	916455424	65	4224
2026-01-17 11:01:06.22	303.08	33.50	-47.3	-49.0	18.6	0.00e+00	0	35	0	918552576	65	4548
2026-01-17 11:01:07.22	303.37	33.36	-48.3	-50.3	17.3	0.00e+00	0	35	0	920649728	67	4723
2026-01-17 11:01:08.23	303.66	33.22	-48.8	-51.0	16.7	0.00e+00	0	35	0	922746880	68	4848
2026-01-17 11:01:09.24	303.95	33.08	-48.6	-50.6	17.1	0.00e+00	0	35	0	924844032	68	4637
2026-01-17 11:01:10.25	304.24	32.94	-48.0	-49.8	17.9	0.00e+00	0	34	0	926941184	68	4218
2026-01-17 11:01:11.26	304.52	32.80	-47.9	-49.7	17.9	0.00e+00	0	35	0	927989760	67	4397
2026-01-17 11:01:12.26	304.80	32.66	-48.0	-49.9	17.7	0.00e+00	0	35	0	930086912	67	4523
2026-01-17 11:01:13.27	305.08	32.52	-48.5	-50.5	17.0	0.00e+00	0	35	0	932184064	67	4865
2026-01-17 11:01:14.28	305.36	32.38	-49.3	-51.7	16.0	0.00e+00	0	35	0	934281216	69	4980
2026-01-17 11:01:15.29	305.63	32.24	-49.8	-52.5	15.3	0.00e+00	0	35	0	935329792	70	5116
2026-01-17 11:01:16.30	305.91	32.11	-49.6	-52.2	15.5	0.00e+00	0	34	0	937426944	70	4932
2026-01-17 11:01:17.30	306.17	31.97	-48.9	-51.1	16.6	0.00e+00	0	35	0	939524096	69	4622
2026-01-17 11:01:18.31	306.44	31.83	-48.2	-50.1	17.5	0.00e+00	0	34	0	941621248	68	4360
2026-01-17 11:01:19.32	306.71	31.69	-47.7	-49.5	18.1	0.00e+00	0	35	0	943718400	67	4311
2026-01-17 11:01:20.33	306.97	31.55	-47.7	-49.4	18.2	0.00e+00	0	35	0	945815552	67	4264
2026-01-17 11:01:21.34	307.23	31.41	-47.3	-49.0	18.6	0.00e+00	0	34	0	946864128	66	4304
2026-01-17 11:01:22.35	307.49	31.27	-47.9	-49.7	17.9	0.00e+00	0	35	0	948961280	66	4705
2026-01-17 11:01:23.36	307.75	31.13	-49.0	-51.2	16.5	0.00e+00	0	35	0	951058432	68	4969
2026-01-17 11:01:24.36	308.00	30.99	-48.8	-51.0	16.7	0.00e+00	0	35	0	953155584	68	4821
2026-01-17 11:01:25.37	308.25	30.85	-48.1	-50.1	17.7	0.00e+00	0	34	0	955252736	68	4341
2026-01-17 11:01:26.38	308.50	30.71	-47.4	-49.1	18.4	0.00e+00	0	35	0	956301312	66	4360
2026-01-17 11:01:27.39	308.75	30.57	-47.3	-49.0	18.5	0.00e+00	0	35	0	958398464	66	4310
2026-01-17 11:01:28.40	309.00	30.43	-47.4	-49.0	18.6	0.00e+00	0	35	0	960495616	66	4340
2026-01-17 11:01:29.41	309.24	30.29	-47.9	-49.8	17.8	0.00e+00	0	34	0	962592768	66	4710
2026-01-17 11:01:30.42	309.48	30.16	-48.8	-51.1	16.7	0.00e+00	0	35	0	963641344	68	4887
2026-01-17 11:01:31.42	309.72	30.02	-49.2	-51.7	16.0	0.00e+00	0	35	0	965738496	69	4936
2026-01-17 11:01:32.43	309.96	29.88	-48.8	-51.0	16.7	0.00e+00	0	35	0	967835648	69	4571
2026-01-17 11:01:33.44	310.19	29.74	-48.0	-49.8	17.8	0.00e+00	0	35	0	969932800	68	4223
2026-01-17 11:01:34.45	310.43	29.60	-47.2	-48.8	18.8	0.00e+00	0	35	0	972029952	66	4206
2026-01-17 11:01:35.46	310.66	29.46	-46.9	-48.4	19.1	0.00e+00	0	35	0	974127104	65	4290
2026-01-17 11:01:36.46	310.89	29.33	-46.5	-48.0	19.5	0.00e+00	0	35	0	975175680	65	4055
2026-01-17 11:01:37.47	311.11	29.19	-46.6	-48.0	19.5	0.00e+00	0	35	0	977272832	64	4338
2026-01-17 11:01:38.48	311.34	29.05	-46.9	-48.5	19.0	0.00e+00	0	35	0	979369984	64	4582
2026-01-17 11:01:39.49	311.57	28.91	-47.5	-49.2	18.4	0.00e+00	0	34	0	981467136	65	4685
2026-01-17 11:01:40.49	311.79	28.78	-48.0	-50.0	17.6	0.00e+00	0	35	0	983564288	66	4816
2026-01-17 11:01:41.50	312.01	28.64	-47.7	-49.6	17.9	0.00e+00	0	35	0	984612864	66	4615
2026-01-17 11:01:42.51	312.22	28.51	-46.8	-48.3	19.1	0.00e+00	0	35	0	986710016	65	4230
2026-01-17 11:01:43.52	312.44	28.37	-46.0	-47.4	20.1	0.00e+00	0	34	0	988807168	64	4005
2026-01-17 11:01:44.53	312.66	28.23	-45.7	-47.0	20.6	0.00e+00	0	35	0	990904320	63	4059
2026-01-17 11:01:45.53	312.87	28.10	-45.8	-47.1	20.4	0.00e+00	0	35	0	993001472	63	4115
2026-01-17 11:01:46.54	313.08	27.96	-45.4	-46.6	20.9	0.00e+00	0	35	0	994050048	62	4145
2026-01-17 11:01:47.55	313.29	27.83	-46.0	-47.3	20.2	0.00e+00	0	35	0	996147200	62	4484
2026-01-17 11:01:48.56	313.50	27.69	-46.7	-48.2	19.4	0.00e+00	0	35	0	998244352	63	4692
2026-01-17 11:01:49.56	313.70	27.56	-47.4	-49.1	18.5	0.00e+00	0	35	0	1000341504	65	4615
2026-01-17 11:01:50.57	313.91	27.42	-47.5	-49.3	18.2	0.00e+00	0	34	0	1002438656	65	4734
2026-01-17 11:01:51.58	314.11	27.29	-46.9	-48.6	18.9	0.00e+00	0	35	0	1003487232	65	4348
2026-01-17 11:01:52.59	314.31	27.16	-46.3	-47.7	19.8	0.00e+00	0	35	0	1005584384	64	4162
2026-01-17 11:01:53.60	314.51	27.02	-45.8	-47.1	20.5	0.00e+00	0	35	0	1007681536	63	4101
2026-01-17 11:01:54.61	314.71	26.89	-45.5	-46.7	20.8	0.00e+00	0	35	0	1009778688	63	3945
2026-01-17 11:01:55.62	314.91	26.75	-45.6	-46.9	20.7	0.00e+00	0	35	0	1011875840	62	4244
2026-01-17 11:01:56.63	315.10	26.62	-45.3	-46.5	21.0	0.00e+00	0	35	0	1013972992	62	4078
2026-01-17 11:01:57.64	315.30	26.49	-45.6	-46.8	20.7	0.00e+00	0	35	0	1015021568	62	4219
2026-01-17 11:01:58.65	315.49	26.36	-45.9	-47.2	20.3	0.00e+00	0	35	0	1017118720	62	4437
2026-01-17 11:01:59.66	315.68	26.23	-46.3	-47.8	19.8	0.00e+00	0	35	0	1019215872	63	4442
2026-01-17 11:02:00.67	315.87	26.09	-46.5	-48.0	19.6	0.00e+00	0	35	0	1021313024	63	4548
2026-01-17 11:02:01.67	316.05	25.96	-46.1	-47.4	20.1	0.00e+00	0	35	0	1022361600	63	4290
2026-01-17 11:02:02.68	316.24	25.83	-45.6	-46.8	20.6	0.00e+00	0	35	0	1024458752	63	3999
2026-01-17 11:02:03.69	316.42	25.70	-45.4	-46.6	20.8	0.00e+00	0	34	0	1026555904	62	4142
2026-01-17 11:02:04.70	316.60	25.57	-44.9	-46.0	21.4	0.00e+00	0	35	0	1028653056	61	4096
2026-01-17 11:02:05.71	316.79	25.44	-44.8	-45.9	21.5	0.00e+00	0	35	0	1030750208	61	4050
2026-01-17 11:02:06.72	316.97	25.31	-44.7	-45.8	21.6	0.00e+00	0	35	0	1031798784	61	3971
2026-01-17 11:02:07.73	317.14	25.18	-44.8	-46.0	21.4	0.00e+00	0	35	0	1033895936	61	4068
2026-01-17 11:02:08.73	317.32	25.06	-45.3	-46.5	21.0	0.00e+00	0	35	0	1035993088	61	4319
2026-01-17 11:02:09.74	317.50	24.93	-45.6	-46.9	20.6	0.00e+00	0	35	0	1038090240	61	4502
2026-01-17 11:02:10.75	317.67	24.80	-45.7	-47.0	20.5	0.00e+00	0	35	0	1040187392	61	4585
2026-01-17 11:02:11.76	317.84	24.67	-45.8	-47.1	20.4	0.00e+00	0	35	0	1042284544	62	4365
2026-01-17 11:02:12.77	318.01	24.54	-45.7	-47.0	20.5	0.00e+00	0	34	0	1043333120	62	4293
2026-01-17 11:02:13.77	318.18	24.42	-45.4	-46.7	20.8	0.00e+00	0	35	0	1045430272	62	4157
2026-01-17 11:02:14.78	318.35	24.29	-45.3	-46.5	20.9	0.00e+00	0	35	0	1047527424	62	4098
2026-01-17 11:02:15.79	318.52	24.17	-45.1	-46.3	21.1	0.00e+00	0	35	0	1049624576	62	3990
2026-01-17 11:02:16.80	318.69	24.04	-45.2	-46.5	21.0	0.00e+00	0	35	0	1050673152	62	4054
2026-01-17 11:02:17.80	318.85	23.92	-45.3	-46.5	20.9	0.00e+00	0	35	0	1052770304	62	4091
2026-01-17 11:02:18.81	319.01	23.79	-45.4	-46.7	20.8	0.00e+00	0	35	0	1054867456	62	4158
2026-01-17 11:02:19.82	319.18	23.67	-45.5	-46.8	20.6	0.00e+00	0	35	0	1056964608	62	4214
2026-01-17 11:02:20.83	319.34	23.54	-45.6	-46.9	20.6	0.00e+00	0	35	0	1059061760	62	4264
2026-01-17 11:02:21.83	319.50	23.42	-45.4	-46.7	20.7	0.00e+00	0	34	0	1061158912	62	4156
2026-01-17 11:02:22.84	319.65	23.29	-45.5	-46.7	20.7	0.00e+00	0	35	0	1062207488	62	4191
2026-01-17 11:02:23.85	319.81	23.17	-45.5	-46.8	20.6	0.00e+00	0	35	0	1064304640	62	4219
2026-01-17 11:02:24.86	319.97	23.05	-45.4	-46.7	20.7	0.00e+00	0	35	0	1066401792	62	4155
2026-01-17 11:02:25.87	320.12	22.93	-45.5	-46.8	20.6	0.00e+00	0	35	0	1068498944	62	4202
2026-01-17 11:02:26.88	320.28	22.80	-45.6	-46.9	20.6	0.00e+00	0	35	0	1070596096	62	4245
2026-01-17 11:02:27.89	320.43	22.68	-45.7	-46.9	20.4	0.00e+00	0	35	0	1071644672	62	4291
2026-01-17 11:02:28.89	320.58	22.56	-45.8	-47.2	20.3	0.00e+00	0	35	0	1073741824	62	4400
2026-01-17 11:02:29.90	320.73	22.44	-45.9	-47.3	20.2	0.00e+00	0	35	0	1075838976	62	4459
2026-01-17 11:02:30.91	320.88	22.32	-46.0	-47.3	20.1	0.00e+00	0	35	0	1077936128	62	4478
2026-01-17 11:02:31.91	321.03	22.20	-46.1	-47.5	20.0	0.00e+00	0	34	0	1078984704	62	4550
2026-01-17 11:02:32.92	321.17	22.08	-45.9	-47.2	20.2	0.00e+00	0	35	0	1081081856	62	4412
2026-01-17 11:02:33.93	321.32	21.96	-45.9	-47.2	20.2	0.00e+00	0	35	0	1083179008	62	4424
2026-01-17 11:02:34.93	321.46	21.84	-45.7	-47.0	20.3	0.00e+00	0	34	0	1085276160	62	4326
2026-01-17 11:02:35.94	321.61	21.72	-45.5	-46.8	20.6	0.00e+00	0	34	0	1087373312	62	4212
2026-01-17 11:02:36.95	321.75	21.61	-45.6	-46.9	20.4	0.00e+00	0	35	0	1089470464	62	4278
2026-01-17 11:02:37.95	321.89	21.49	-45.7	-47.0	20.4	0.00e+00	0	35	0	1090519040	62	4321
2026-01-17 11:02:38.96	322.03	21.37	-45.9	-47.3	20.1	0.00e+00	0	34	0	1092616192	62	4445
2026-01-17 11:02:39.97	322.17	21.25	-46.2	-47.6	19.8	0.00e+00	0	35	0	1094713344	62	4626
2026-01-17 11:02:40.98	322.31	21.14	-46.4	-47.8	19.6	0.00e+00	0	35	0	1096810496	63	4491
2026-01-17 11:02:41.98	322.45	21.02	-46.6	-48.2	19.1	0.00e+00	0	35	0	1098907648	64	4403
2026-01-17 11:02:42.99	322.58	20.91	-46.9	-48.5	18.8	0.00e+00	0	35	0	1099956224	64	4572
2026-01-17 11:02:43.99	322.72	20.79	-47.0	-48.6	18.7	0.00e+00	0	34	0	1102053376	64	4638
2026-01-17 11:02:45.00	322.85	20.68	-47.1	-48.8	18.5	0.00e+00	0	34	0	1104150528	64	4741
2026-01-17 11:02:46.01	322.99	20.56	-47.1	-48.8	18.5	0.00e+00	0	34	0	1106247680	64	4724
2026-01-17 11:02:47.02	323.12	20.45	-47.0	-48.7	18.6	0.00e+00	0	35	0	1107296256	64	4693
2026-01-17 11:02:48.03	323.25	20.33	-46.8	-48.4	18.9	0.00e+00	0	34	0	1109393408	64	4515
2026-01-17 11:02:49.04	323.38	20.22	-46.6	-48.2	19.1	0.00e+00	0	35	0	1111490560	64	4412
2026-01-17 11:02:50.04	323.51	20.11	-46.6	-48.2	19.1	0.00e+00	0	35	0	1113587712	64	4402
2026-01-17 11:02:51.05	323.64	19.99	-46.6	-48.2	19.1	0.00e+00	0	34	0	1115684864	64	4399
2026-01-17 11:02:52.06	323.77	19.88	-46.4	-47.9	19.4	0.00e+00	0	34	0	1117782016	64	4261
2026-01-17 11:02:53.07	323.90	19.77	-46.3	-47.8	19.5	0.00e+00	0	35	0	1118830592	64	4207
2026-01-17 11:02:54.08	324.02	19.65	-46.4	-47.9	19.3	0.00e+00	0	34	0	1120927744	64	4284
2026-01-17 11:02:55.09	324.15	19.54	-46.5	-48.0	19.3	0.00e+00	0	35	0	1123024896	64	4318
2026-01-17 11:02:56.09	324.27	19.43	-46.5	-48.1	19.2	0.00e+00	0	34	0	1125122048	64	4348
2026-01-17 11:02:57.10	324.40	19.32	-46.7	-48.2	19.0	0.00e+00	0	35	0	1127219200	64	4434
2026-01-17 11:02:58.11	324.52	19.21	-46.7	-48.3	18.9	0.00e+00	0	35	0	1128267776	64	4472
2026-01-17 11:02:59.12	324.64	19.10	-46.8	-48.4	18.9	0.00e+00	0	34	0	1130364928	64	4521
2026-01-17 11:03:00.12	324.76	18.99	-47.0	-48.6	18.6	0.00e+00	0	35	0	1132462080	64	4649
2026-01-17 11:03:01.13	324.88	18.88	-46.7	-48.3	18.9	0.00e+00	0	35	0	1134559232	64	4487
2026-01-17 11:03:02.14	325.00	18.77	-46.8	-48.4	18.9	0.00e+00	0	35	0	1136656384	64	4495
2026-01-17 11:03:03.14	325.12	18.67	-46.6	-48.2	19.0	0.00e+00	0	35	0	1137704960	64	4406
2026-01-17 11:03:04.15	325.24	18.56	-46.6	-48.2	19.1	0.00e+00	0	35	0	1139802112	64	4396
2026-01-17 11:03:05.16	325.36	18.45	-46.4	-47.9	19.4	0.00e+00	0	35	0	1141899264	64	4243
2026-01-17 11:03:06.17	325.47	18.34	-46.4	-47.9	19.3	0.00e+00	0	35	0	1143996416	64	4272
2026-01-17 11:03:07.18	325.59	18.24	-46.5	-48.0	19.2	0.00e+00	0	35	0	1146093568	64	4302
2026-01-17 11:03:08.18	325.70	18.13	-46.3	-47.8	19.4	0.00e+00	0	35	0	1147142144	64	4194
2026-01-17 11:03:09.20	325.82	18.02	-46.1	-47.6	19.6	0.00e+00	0	35	0	1149239296	64	4107
2026-01-17 11:03:10.20	325.93	17.92	-46.3	-47.8	19.4	0.00e+00	0	34	0	1151336448	64	4197
2026-01-17 11:03:11.21	326.04	17.81	-46.2	-47.6	19.5	0.00e+00	0	35	0	1153433600	64	4140
2026-01-17 11:03:12.22	326.15	17.71	-46.3	-47.8	19.4	0.00e+00	0	35	0	1155530752	64	4202
2026-01-17 11:03:13.23	326.26	17.60	-46.3	-47.8	19.4	0.00e+00	0	35	0	1156579328	64	4210
2026-01-17 11:03:14.24	326.37	17.50	-46.3	-47.8	19.4	0.00e+00	0	35	0	1158676480	64	4213
2026-01-17 11:03:15.24	326.48	17.39	-46.4	-47.9	19.2	0.00e+00	0	35	0	1160773632	64	4262
2026-01-17 11:03:16.25	326.59	17.29	-46.5	-48.1	19.1	0.00e+00	0	35	0	1162870784	64	4356
2026-01-17 11:03:17.25	326.70	17.19	-46.4	-47.9	19.2	0.00e+00	0	35	0	1164967936	64	4279
2026-01-17 11:03:18.26	326.81	17.08	-46.6	-48.2	19.0	0.00e+00	0	35	0	1166016512	64	4404
2026-01-17 11:03:19.27	326.91	16.98	-46.6	-48.2	19.0	0.00e+00	0	35	0	1168113664	64	4426
2026-01-17 11:03:20.28	327.02	16.88	-46.7	-48.3	18.9	0.00e+00	0	35	0	1170210816	64	4453
2026-01-17 11:03:21.28	327.12	16.78	-46.7	-48.3	18.9	0.00e+00	0	35	0	1172307968	64	4458
2026-01-17 11:03:22.30	327.23	16.67	-46.6	-48.1	19.0	0.00e+00	0	35	0	1174405120	64	4375
2026-01-17 11:03:23.30	327.33	16.57	-46.6	-48.2	18.9	0.00e+00	0	35	0	1175453696	64	4420
2026-01-17 11:03:24.31	327.44	16.47	-46.5	-48.1	19.0	0.00e+00	0	35	0	1177550848	64	4359
2026-01-17 11:03:25.32	327.54	16.37	-46.6	-48.2	18.9	0.00e+00	0	34	0	1179648000	64	4428
2026-01-17 11:03:26.33	327.64	16.27	-46.5	-48.0	19.0	0.00e+00	0	34	0	1181745152	64	4340
2026-01-17 11:03:27.33	327.74	16.17	-46.4	-48.0	19.1	0.00e+00	0	35	0	1183842304	64	4304
2026-01-17 11:03:28.34	327.84	16.07	-46.6	-48.2	19.0	0.00e+00	0	35	0	1184890880	64	4398
2026-01-17 11:03:29.35	327.94	15.97	-46.6	-48.2	18.9	0.00e+00	0	35	0	1186988032	64	4424
2026-01-17 11:03:30.36	328.04	15.87	-46.7	-48.3	18.8	0.00e+00	0	34	0	1189085184	64	4462
2026-01-17 11:03:31.37	328.14	15.77	-46.8	-48.4	18.7	0.00e+00	0	35	0	1191182336	64	4542
2026-01-17 11:03:32.38	328.24	15.67	-46.8	-48.4	18.7	0.00e+00	0	35	0	1193279488	64	4532
2026-01-17 11:03:33.38	328.34	15.58	-46.9	-48.6	18.5	0.00e+00	0	35	0	1194328064	64	4625
2026-01-17 11:03:34.39	328.43	15.48	-47.0	-48.7	18.4	0.00e+00	0	35	0	1196425216	64	4697
2026-01-17 11:03:35.40	328.53	15.38	-47.0	-48.8	18.3	0.00e+00	0	35	0	1198522368	64	4708
2026-01-17 11:03:36.41	328.63	15.28	-47.1	-48.8	18.2	0.00e+00	0	35	0	1200619520	64	4757
2026-01-17 11:03:37.42	328.72	15.19	-47.1	-48.8	18.2	0.00e+00	0	34	0	1202716672	64	4739
2026-01-17 11:03:38.43	328.82	15.09	-47.1	-48.8	18.2	0.00e+00	0	35	0	1204813824	64	4747
2026-01-17 11:03:39.43	328.91	14.99	-47.2	-49.0	18.1	0.00e+00	0	35	0	1205862400	64	4840
2026-01-17 11:03:40.44	329.00	14.90	-47.2	-49.0	18.0	0.00e+00	0	35	0	1207959552	65	4584
2026-01-17 11:03:41.45	329.10	14.80	-47.2	-49.0	18.1	0.00e+00	0	35	0	1210056704	65	4559
2026-01-17 11:03:42.46	329.19	14.71	-47.1	-48.9	18.2	0.00e+00	0	35	0	1212153856	65	4507
2026-01-17 11:03:43.46	329.28	14.61	-46.8	-48.5	18.5	0.00e+00	0	35	0	1213202432	65	4321
2026-01-17 11:03:44.47	329.37	14.52	-47.0	-48.7	18.3	0.00e+00	0	35	0	1215299584	65	4421
2026-01-17 11:03:45.48	329.46	14.42	-46.8	-48.5	18.5	0.00e+00	0	35	0	1217396736	65	4323
2026-01-17 11:03:46.49	329.55	14.33	-47.0	-48.7	18.3	0.00e+00	0	35	0	1219493888	65	4410
2026-01-17 11:03:47.50	329.64	14.23	-46.7	-48.4	18.6	0.00e+00	0	35	0	1221591040	65	4256
2026-01-17 11:03:48.50	329.73	14.14	-46.7	-48.3	18.7	0.00e+00	0	35	0	1222639616	65	4230
2026-01-17 11:03:49.51	329.82	14.05	-46.8	-48.4	18.6	0.00e+00	0	35	0	1224736768	65	4281
2026-01-17 11:03:50.52	329.91	13.96	-46.6	-48.2	18.8	0.00e+00	0	35	0	1226833920	65	4152
2026-01-17 11:03:51.53	329.99	13.86	-46.7	-48.3	18.7	0.00e+00	0	35	0	1228931072	65	4225
2026-01-17 11:03:52.54	330.08	13.77	-46.8	-48.5	18.6	0.00e+00	0	35	0	1231028224	65	4297
2026-01-17 11:03:53.55	330.17	13.68	-46.7	-48.3	18.7	0.00e+00	0	35	0	1233125376	65	4238
2026-01-17 11:03:54.55	330.25	13.59	-46.8	-48.4	18.6	0.00e+00	0	35	0	1234173952	65	4274
2026-01-17 11:03:55.56	330.34	13.50	-46.8	-48.5	18.5	0.00e+00	0	35	0	1236271104	65	4302
2026-01-17 11:03:56.57	330.42	13.40	-46.8	-48.5	18.5	0.00e+00	0	35	0	1238368256	65	4299
2026-01-17 11:03:57.58	330.51	13.31	-46.9	-48.6	18.4	0.00e+00	0	35	0	1240465408	65	4341
2026-01-17 11:03:58.58	330.59	13.22	-47.0	-48.7	18.3	0.00e+00	0	35	0	1241513984	65	4409
