passes_logs/2026/01/17/R3.2S_Murmansk/R3.2S_Murmansk__20260117_234520_NOAA_21_JPSS-2_rec.log

#Pass ID: 20260117_234520_NOAA 21 (JPSS-2)
#Satellite: NOAA 21 (JPSS-2)
#Configuration: NOAA-21
#almurnet v.1.7.20251203
#Start time: 2026-01-17 23:45:19

#Version: 2.2.20231116
#Station: R3.2S_Murmansk
#Location: 33.079688 lon 68.888172 lat
#TLE: 1 54234U 22150A   26017.62066529  .00000042  00000+0  40984-4 0  9994
#TLE: 2 54234  98.7502 318.4887 0000613 271.5460  88.5645 14.19535234165189

#Time	Az	El	Level	Level2	SNR	BER	BlckErr	Temp	State	Recorded	gain1	gain2
2026-01-17 23:45:19.96	21.48	2.00	-51.9	-64.3	3.8	1.49e+00	0	36	0	0	74	15788
2026-01-17 23:45:20.96	21.51	2.06	-51.8	-63.3	3.8	1.49e+00	0	35	104	0	74	14136
2026-01-17 23:45:21.97	21.54	2.12	-51.8	-63.1	3.8	1.49e+00	0	35	104	0	74	13791
2026-01-17 23:45:22.98	21.57	2.19	-51.8	-62.7	3.9	1.49e+00	0	36	104	0	74	13161
2026-01-17 23:45:23.99	21.60	2.25	-51.8	-63.0	3.8	1.49e+00	0	35	104	0	74	13580
2026-01-17 23:45:25.00	21.63	2.31	-51.8	-63.2	3.8	1.49e+00	0	36	104	0	74	13932
2026-01-17 23:45:26.01	21.66	2.38	-51.7	-62.2	4.0	1.49e+00	0	36	104	0	74	12394
2026-01-17 23:45:27.02	21.69	2.44	-51.8	-63.4	3.8	1.49e+00	0	35	104	0	74	14317
2026-01-17 23:45:28.02	21.72	2.50	-51.7	-61.8	4.0	1.49e+00	0	36	104	0	74	11852
2026-01-17 23:45:29.03	21.75	2.57	-51.8	-62.9	3.8	1.48e+00	0	36	104	0	74	13549
2026-01-17 23:45:30.04	21.78	2.63	-51.7	-61.6	4.1	1.49e+00	0	36	104	0	74	11597
2026-01-17 23:45:31.05	21.81	2.70	-51.6	-61.1	4.2	1.45e+00	0	36	104	0	74	10959
2026-01-17 23:45:32.06	21.84	2.76	-51.6	-60.6	4.3	1.46e+00	0	35	104	0	74	10401
2026-01-17 23:45:33.06	21.87	2.83	-51.5	-59.9	4.6	1.14e+00	0	36	104	0	74	9559
2026-01-17 23:45:34.07	21.90	2.89	-51.2	-58.4	5.5	5.59e-01	0	35	0	1048576	74	8030
2026-01-17 23:45:35.08	21.93	2.95	-51.5	-60.7	4.0	1.08e+00	0	36	104	3145728	74	10443
2026-01-17 23:45:36.09	21.96	3.02	-51.3	-59.0	5.1	6.10e-01	0	35	0	4194304	74	8633
2026-01-17 23:45:37.10	21.99	3.09	-51.2	-58.5	5.3	5.30e-01	0	36	0	7340032	74	8141
2026-01-17 23:45:38.11	22.03	3.15	-51.3	-59.1	5.0	6.83e-01	0	35	0	10485760	74	8744
2026-01-17 23:45:39.11	22.06	3.22	-51.2	-58.4	5.4	4.88e-01	0	35	0	13631488	74	8080
2026-01-17 23:45:40.12	22.09	3.28	-51.0	-57.3	6.2	3.35e-01	0	36	0	16777216	73	7528
2026-01-17 23:45:41.13	22.12	3.35	-51.2	-58.3	5.4	5.73e-01	0	36	0	19922944	73	8438
2026-01-17 23:45:42.14	22.15	3.41	-51.1	-58.0	5.7	4.39e-01	0	35	0	23068672	73	8160
2026-01-17 23:45:43.15	22.18	3.48	-50.9	-57.1	6.4	3.22e-01	0	36	0	26214400	73	7326
2026-01-17 23:45:44.16	22.22	3.54	-50.7	-56.5	6.9	1.52e-01	0	35	0	29360128	73	6820
2026-01-17 23:45:45.16	22.25	3.61	-50.4	-55.5	7.9	8.32e-02	0	36	0	32505856	72	6445
2026-01-17 23:45:46.17	22.28	3.68	-50.1	-54.6	8.8	4.37e-02	0	36	0	35651584	72	5838
2026-01-17 23:45:47.18	22.31	3.74	-50.0	-54.3	9.1	2.71e-02	0	35	0	38797312	72	5639
2026-01-17 23:45:48.19	22.35	3.81	-49.6	-53.3	10.2	8.72e-03	0	36	0	41943040	71	5327
2026-01-17 23:45:49.20	22.38	3.88	-49.4	-52.9	10.6	4.73e-03	0	36	0	45088768	70	5384
2026-01-17 23:45:50.20	22.41	3.94	-48.9	-52.0	11.6	1.58e-03	0	36	0	48234496	69	5148
2026-01-17 23:45:51.21	22.45	4.01	-49.2	-52.5	11.0	1.84e-03	0	36	0	51380224	69	5457
2026-01-17 23:45:52.22	22.48	4.08	-48.7	-51.7	11.9	3.47e-04	0	35	0	54525952	69	4957
2026-01-17 23:45:53.22	22.51	4.15	-48.9	-52.0	11.6	9.30e-04	0	36	0	57671680	69	5107
2026-01-17 23:45:54.23	22.55	4.21	-48.8	-51.8	11.9	2.52e-04	0	36	0	60817408	69	5001
2026-01-17 23:45:55.24	22.58	4.28	-49.1	-52.3	11.2	1.39e-03	0	35	0	63963136	69	5335
2026-01-17 23:45:56.25	22.61	4.35	-49.3	-52.8	10.8	1.83e-03	0	35	0	67108864	69	5612
2026-01-17 23:45:57.26	22.65	4.42	-49.4	-52.9	10.6	2.97e-03	0	36	0	70254592	69	5681
2026-01-17 23:45:58.26	22.68	4.49	-49.8	-53.7	9.8	9.81e-03	0	35	0	73400320	70	5907
2026-01-17 23:45:59.27	22.71	4.55	-49.9	-54.1	9.4	5.35e-03	0	36	0	76546048	70	6197
2026-01-17 23:46:00.28	22.75	4.62	-50.3	-55.1	8.4	5.48e-02	0	35	0	79691776	71	6525
2026-01-17 23:46:01.29	22.78	4.69	-50.6	-55.9	7.6	7.63e-02	0	35	0	82837504	71	7161
2026-01-17 23:46:02.30	22.82	4.76	-50.7	-56.4	7.0	1.51e-01	0	36	0	85983232	72	7143
2026-01-17 23:46:03.30	22.85	4.83	-50.8	-56.7	6.7	1.54e-01	0	36	0	89128960	72	7442
2026-01-17 23:46:04.31	22.89	4.90	-50.8	-57.0	6.5	2.34e-01	0	36	0	92274688	72	7650
2026-01-17 23:46:05.32	22.92	4.97	-50.9	-57.2	6.3	3.02e-01	0	35	0	95420416	72	7890
2026-01-17 23:46:06.33	22.96	5.04	-51.1	-58.2	5.6	3.51e-01	0	36	0	98566144	72	8801
2026-01-17 23:46:07.34	22.99	5.11	-51.5	-60.3	4.5	1.45e+00	2	36	104	99614720	73	10622
2026-01-17 23:46:08.35	23.03	5.18	-50.5	-55.4	8.2	2.53e-02	0	36	0	100663296	72	6410
2026-01-17 23:46:09.35	23.06	5.25	-51.6	-62.5	3.8	1.49e+00	0	36	104	101711872	73	13641
2026-01-17 23:46:10.36	23.10	5.32	-51.4	-58.6	5.2	1.48e+00	2	36	104	101711872	74	8241
2026-01-17 23:46:11.37	23.14	5.39	-46.9	-48.7	15.1	0.00e+00	0	35	0	103809024	65	4402
2026-01-17 23:46:12.38	23.17	5.46	-46.4	-48.0	15.8	0.00e+00	0	36	0	106954752	64	4323
2026-01-17 23:46:13.38	23.21	5.53	-46.0	-47.6	16.4	0.00e+00	0	35	0	110100480	63	4353
2026-01-17 23:46:14.39	23.24	5.60	-46.1	-47.6	16.4	0.00e+00	0	36	0	113246208	63	4385
2026-01-17 23:46:15.40	23.28	5.68	-45.9	-47.4	16.6	0.00e+00	0	36	0	116391936	63	4281
2026-01-17 23:46:16.41	23.32	5.75	-45.8	-47.3	16.7	0.00e+00	0	36	0	119537664	63	4216
2026-01-17 23:46:17.41	23.35	5.82	-45.8	-47.3	16.7	0.00e+00	0	35	0	122683392	63	4208
2026-01-17 23:46:18.42	23.39	5.89	-46.3	-48.0	16.1	0.00e+00	0	36	0	125829120	63	4562
2026-01-17 23:46:19.43	23.43	5.96	-45.7	-47.1	16.9	0.00e+00	0	35	0	128974848	63	4122
2026-01-17 23:46:20.43	23.46	6.03	-45.6	-47.0	17.1	0.00e+00	0	36	0	132120576	62	4314
2026-01-17 23:46:21.45	23.50	6.11	-45.8	-47.3	16.7	0.00e+00	0	35	0	135266304	62	4474
2026-01-17 23:46:22.45	23.54	6.18	-45.7	-47.1	16.9	0.00e+00	0	36	0	138412032	62	4366
2026-01-17 23:46:23.46	23.58	6.25	-45.9	-47.4	16.7	0.00e+00	0	35	0	141557760	62	4532
2026-01-17 23:46:24.47	23.62	6.33	-45.9	-47.4	16.7	0.00e+00	0	35	0	144703488	62	4523
2026-01-17 23:46:25.48	23.65	6.40	-46.0	-47.5	16.6	0.00e+00	0	36	0	147849216	62	4574
2026-01-17 23:46:26.49	23.69	6.47	-45.6	-47.1	17.0	0.00e+00	0	36	0	150994944	62	4345
2026-01-17 23:46:27.49	23.73	6.55	-45.9	-47.4	16.7	0.00e+00	0	35	0	154140672	62	4534
2026-01-17 23:46:28.50	23.77	6.62	-45.9	-47.4	16.7	0.00e+00	0	36	0	157286400	62	4542
2026-01-17 23:46:29.51	23.81	6.69	-45.7	-47.1	17.0	0.00e+00	0	36	0	160432128	62	4381
2026-01-17 23:46:30.51	23.85	6.77	-45.7	-47.2	17.0	0.00e+00	0	36	0	163577856	62	4394
2026-01-17 23:46:31.52	23.89	6.84	-45.7	-47.1	17.0	0.00e+00	0	36	0	166723584	62	4380
2026-01-17 23:46:32.53	23.92	6.92	-45.9	-47.4	16.8	0.00e+00	0	36	0	169869312	62	4521
2026-01-17 23:46:33.54	23.96	6.99	-46.0	-47.5	16.7	0.00e+00	0	36	0	173015040	62	4582
2026-01-17 23:46:34.55	24.00	7.07	-46.2	-47.7	16.5	0.00e+00	0	35	0	176160768	63	4438
2026-01-17 23:46:35.56	24.04	7.14	-46.3	-47.9	16.3	0.00e+00	0	35	0	179306496	63	4527
2026-01-17 23:46:36.56	24.08	7.22	-46.2	-47.7	16.5	0.00e+00	0	36	0	182452224	63	4411
2026-01-17 23:46:37.57	24.12	7.29	-46.0	-47.5	16.7	0.00e+00	0	36	0	185597952	63	4317
2026-01-17 23:46:38.58	24.16	7.37	-45.4	-46.8	17.4	0.00e+00	0	35	0	188743680	62	4209
2026-01-17 23:46:39.58	24.20	7.45	-45.5	-46.9	17.3	0.00e+00	0	35	0	191889408	62	4269
2026-01-17 23:46:40.59	24.25	7.52	-45.4	-46.7	17.5	0.00e+00	0	35	0	195035136	62	4183
2026-01-17 23:46:41.60	24.29	7.60	-45.6	-47.0	17.3	0.00e+00	0	36	0	198180864	62	4300
2026-01-17 23:46:42.61	24.33	7.68	-45.2	-46.5	17.7	0.00e+00	0	35	0	201326592	62	4062
2026-01-17 23:46:43.61	24.37	7.75	-45.0	-46.2	18.0	0.00e+00	0	35	0	204472320	62	3942
2026-01-17 23:46:44.62	24.41	7.83	-44.9	-46.2	18.0	0.00e+00	0	36	0	207618048	61	4170
2026-01-17 23:46:45.62	24.45	7.91	-44.9	-46.1	18.1	0.00e+00	0	36	0	210763776	61	4117
2026-01-17 23:46:46.63	24.49	7.98	-45.0	-46.2	18.0	0.00e+00	0	35	0	213909504	61	4178
2026-01-17 23:46:47.64	24.54	8.06	-45.0	-46.3	17.9	0.00e+00	0	35	0	217055232	61	4206
2026-01-17 23:46:48.65	24.58	8.14	-44.9	-46.1	18.1	0.00e+00	0	36	0	220200960	61	4139
2026-01-17 23:46:49.66	24.62	8.22	-44.7	-45.9	18.3	0.00e+00	0	36	0	223346688	61	4044
2026-01-17 23:46:50.66	24.66	8.30	-44.6	-45.8	18.5	0.00e+00	0	36	0	226492416	61	3972
2026-01-17 23:46:51.67	24.71	8.38	-45.0	-46.3	18.0	0.00e+00	0	35	0	229638144	61	4203
2026-01-17 23:46:52.68	24.75	8.46	-44.9	-46.1	18.2	0.00e+00	0	35	0	232783872	61	4119
2026-01-17 23:46:53.69	24.79	8.54	-44.7	-45.9	18.4	0.00e+00	0	35	0	235929600	61	4047
2026-01-17 23:46:54.70	24.84	8.62	-45.0	-46.2	18.0	0.00e+00	0	36	0	239075328	61	4193
2026-01-17 23:46:55.71	24.88	8.70	-45.0	-46.2	18.1	0.00e+00	0	35	0	242221056	61	4171
2026-01-17 23:46:56.72	24.92	8.78	-45.0	-46.2	18.1	0.00e+00	0	35	0	245366784	61	4177
2026-01-17 23:46:57.72	24.97	8.86	-45.1	-46.4	17.9	0.00e+00	0	36	0	248512512	61	4264
2026-01-17 23:46:58.73	25.01	8.94	-44.9	-46.1	18.3	0.00e+00	0	35	0	251658240	61	4106
2026-01-17 23:46:59.74	25.06	9.02	-44.5	-45.6	18.6	0.00e+00	0	36	0	254803968	61	3912
2026-01-17 23:47:00.75	25.10	9.10	-44.7	-45.9	18.4	0.00e+00	0	35	0	257949696	60	4263
2026-01-17 23:47:01.75	25.15	9.18	-44.4	-45.6	18.7	0.00e+00	0	36	0	262144000	60	4103
2026-01-17 23:47:02.76	25.19	9.26	-44.5	-45.7	18.6	0.00e+00	0	35	0	264241152	60	4155
2026-01-17 23:47:03.77	25.24	9.34	-44.6	-45.7	18.5	0.00e+00	0	36	0	267386880	60	4188
2026-01-17 23:47:04.78	25.28	9.42	-44.6	-45.8	18.5	0.00e+00	0	35	0	270532608	60	4223
2026-01-17 23:47:05.78	25.33	9.51	-44.6	-45.8	18.5	0.00e+00	0	35	0	273678336	60	4200
2026-01-17 23:47:06.79	25.38	9.59	-44.6	-45.7	18.6	0.00e+00	0	35	0	276824064	60	4177
2026-01-17 23:47:07.80	25.42	9.67	-44.4	-45.5	18.8	0.00e+00	0	35	0	279969792	60	4093
2026-01-17 23:47:08.81	25.47	9.76	-44.4	-45.5	18.8	0.00e+00	0	36	0	283115520	60	4091
2026-01-17 23:47:09.81	25.52	9.84	-44.4	-45.6	18.7	0.00e+00	0	36	0	286261248	60	4114
2026-01-17 23:47:10.82	25.56	9.92	-44.4	-45.5	18.8	0.00e+00	0	36	0	289406976	60	4089
2026-01-17 23:47:11.83	25.61	10.01	-44.5	-45.6	18.7	0.00e+00	0	36	0	292552704	60	4130
2026-01-17 23:47:12.84	25.66	10.09	-44.4	-45.5	18.9	0.00e+00	0	35	0	295698432	60	4065
2026-01-17 23:47:13.84	25.71	10.17	-44.4	-45.6	18.8	0.00e+00	0	36	0	298844160	60	4106
2026-01-17 23:47:14.85	25.75	10.26	-44.5	-45.7	18.7	0.00e+00	0	35	0	301989888	60	4154
2026-01-17 23:47:15.86	25.80	10.34	-44.4	-45.5	18.8	0.00e+00	0	36	0	306184192	60	4083
2026-01-17 23:47:16.87	25.85	10.43	-44.4	-45.5	18.9	0.00e+00	0	36	0	309329920	60	4082
2026-01-17 23:47:17.87	25.90	10.52	-44.3	-45.4	18.9	0.00e+00	0	36	0	311427072	60	4042
2026-01-17 23:47:18.88	25.95	10.60	-44.4	-45.6	18.8	0.00e+00	0	35	0	314572800	60	4099
2026-01-17 23:47:19.89	26.00	10.69	-44.4	-45.6	18.8	0.00e+00	0	35	0	317718528	60	4100
2026-01-17 23:47:20.90	26.05	10.77	-44.4	-45.5	18.8	0.00e+00	0	36	0	320864256	60	4096
2026-01-17 23:47:21.91	26.10	10.86	-44.3	-45.4	19.0	0.00e+00	0	35	0	324009984	60	4009
2026-01-17 23:47:22.92	26.15	10.95	-44.2	-45.3	19.0	0.00e+00	0	36	0	327155712	60	4000
2026-01-17 23:47:23.93	26.20	11.04	-44.2	-45.3	19.0	0.00e+00	0	36	0	330301440	60	3997
2026-01-17 23:47:24.94	26.25	11.12	-44.2	-45.3	19.1	0.00e+00	0	35	0	333447168	60	3979
2026-01-17 23:47:25.94	26.30	11.21	-44.2	-45.3	19.1	0.00e+00	0	36	0	336592896	60	3988
2026-01-17 23:47:26.95	26.35	11.30	-44.2	-45.3	19.1	0.00e+00	0	36	0	339738624	60	3961
2026-01-17 23:47:27.96	26.40	11.39	-44.1	-45.2	19.2	0.00e+00	0	35	0	343932928	60	3937
2026-01-17 23:47:28.97	26.46	11.48	-44.1	-45.2	19.2	0.00e+00	0	35	0	347078656	60	3950
2026-01-17 23:47:29.98	26.51	11.57	-44.2	-45.2	19.2	0.00e+00	0	35	0	350224384	60	3954
2026-01-17 23:47:30.99	26.56	11.66	-44.3	-45.4	19.3	0.00e+00	0	35	0	353370112	59	4261
2026-01-17 23:47:32.00	26.61	11.75	-44.2	-45.3	19.4	0.00e+00	0	35	0	356515840	59	4215
2026-01-17 23:47:33.00	26.67	11.83	-44.3	-45.4	19.3	0.00e+00	0	36	0	358612992	59	4270
2026-01-17 23:47:34.01	26.72	11.93	-44.4	-45.5	19.3	0.00e+00	0	35	0	361758720	59	4305
2026-01-17 23:47:35.02	26.77	12.02	-44.4	-45.5	19.3	0.00e+00	0	36	0	364904448	59	4299
2026-01-17 23:47:36.03	26.83	12.11	-44.4	-45.5	19.3	0.00e+00	0	36	0	368050176	59	4295
2026-01-17 23:47:37.04	26.88	12.20	-44.2	-45.3	19.4	0.00e+00	0	35	0	371195904	59	4230
2026-01-17 23:47:38.04	26.94	12.29	-44.3	-45.3	19.4	0.00e+00	0	36	0	374341632	59	4233
2026-01-17 23:47:39.06	26.99	12.38	-44.2	-45.3	19.5	0.00e+00	0	36	0	378535936	59	4195
2026-01-17 23:47:40.06	27.05	12.47	-44.1	-45.1	19.6	0.00e+00	0	35	0	381681664	59	4145
2026-01-17 23:47:41.07	27.10	12.57	-44.2	-45.3	19.5	0.00e+00	0	35	0	384827392	59	4217
2026-01-17 23:47:42.08	27.16	12.66	-44.2	-45.3	19.5	0.00e+00	0	35	0	387973120	59	4198
2026-01-17 23:47:43.09	27.21	12.75	-44.1	-45.2	19.6	0.00e+00	0	35	0	391118848	59	4159
2026-01-17 23:47:44.10	27.27	12.85	-44.1	-45.1	19.6	0.00e+00	0	35	0	394264576	59	4140
2026-01-17 23:47:45.11	27.33	12.94	-44.1	-45.1	19.7	0.00e+00	0	35	0	397410304	59	4130
2026-01-17 23:47:46.12	27.39	13.04	-44.1	-45.2	19.6	0.00e+00	0	36	0	400556032	59	4156
2026-01-17 23:47:47.12	27.44	13.13	-44.1	-45.1	19.7	0.00e+00	0	35	0	403701760	59	4124
2026-01-17 23:47:48.13	27.50	13.23	-44.0	-45.1	19.7	0.00e+00	0	35	0	405798912	59	4110
2026-01-17 23:47:49.14	27.56	13.32	-44.0	-45.1	19.7	0.00e+00	0	35	0	408944640	59	4103
2026-01-17 23:47:50.15	27.62	13.42	-44.0	-45.1	19.7	0.00e+00	0	35	0	412090368	59	4115
2026-01-17 23:47:51.15	27.68	13.51	-44.1	-45.1	19.7	0.00e+00	0	36	0	416284672	59	4121
2026-01-17 23:47:52.16	27.74	13.61	-44.0	-45.1	19.7	0.00e+00	0	35	0	419430400	59	4109
2026-01-17 23:47:53.17	27.79	13.71	-43.9	-45.0	19.8	0.00e+00	0	35	0	422576128	59	4060
2026-01-17 23:47:54.18	27.85	13.80	-44.1	-45.1	19.7	0.00e+00	0	36	0	425721856	59	4138
2026-01-17 23:47:55.19	27.92	13.90	-44.0	-45.1	19.7	0.00e+00	0	36	0	428867584	59	4110
2026-01-17 23:47:56.20	27.98	14.00	-44.1	-45.2	19.6	0.00e+00	0	35	0	432013312	59	4154
2026-01-17 23:47:57.21	28.04	14.10	-44.2	-45.3	19.6	0.00e+00	0	35	0	435159040	59	4211
2026-01-17 23:47:58.22	28.10	14.20	-44.2	-45.2	19.6	0.00e+00	0	36	0	438304768	59	4187
2026-01-17 23:47:59.22	28.16	14.29	-44.1	-45.2	19.6	0.00e+00	0	36	0	441450496	59	4166
2026-01-17 23:48:00.23	28.22	14.39	-44.2	-45.3	19.6	0.00e+00	0	35	0	444596224	59	4200
2026-01-17 23:48:01.24	28.29	14.49	-44.2	-45.2	19.6	0.00e+00	0	35	0	447741952	59	4177
2026-01-17 23:48:02.25	28.35	14.59	-44.3	-45.3	19.5	0.00e+00	0	36	0	450887680	59	4223
2026-01-17 23:48:03.26	28.41	14.69	-44.2	-45.2	19.6	0.00e+00	0	35	0	454033408	59	4170
2026-01-17 23:48:04.27	28.48	14.80	-44.2	-45.3	19.6	0.00e+00	0	35	0	457179136	59	4199
2026-01-17 23:48:05.28	28.54	14.90	-44.2	-45.3	19.6	0.00e+00	0	35	0	460324864	59	4194
2026-01-17 23:48:06.28	28.60	15.00	-44.2	-45.2	19.6	0.00e+00	0	35	0	463470592	59	4183
2026-01-17 23:48:07.29	28.67	15.10	-44.2	-45.2	19.6	0.00e+00	0	35	0	466616320	59	4191
2026-01-17 23:48:08.30	28.73	15.20	-44.3	-45.3	19.5	0.00e+00	0	35	0	469762048	59	4227
2026-01-17 23:48:09.30	28.80	15.31	-44.2	-45.2	19.6	0.00e+00	0	35	0	472907776	59	4191
2026-01-17 23:48:10.31	28.87	15.41	-44.2	-45.3	19.6	0.00e+00	0	36	0	476053504	59	4205
2026-01-17 23:48:11.32	28.93	15.51	-44.2	-45.3	19.6	0.00e+00	0	35	0	479199232	59	4217
2026-01-17 23:48:12.33	29.00	15.62	-44.4	-45.4	19.4	0.00e+00	0	35	0	482344960	59	4285
2026-01-17 23:48:13.34	29.07	15.72	-44.3	-45.4	19.5	0.00e+00	0	35	0	485490688	59	4252
2026-01-17 23:48:14.34	29.14	15.83	-44.2	-45.3	19.6	0.00e+00	0	35	0	488636416	59	4205
2026-01-17 23:48:15.35	29.20	15.93	-44.3	-45.4	19.5	0.00e+00	0	35	0	491782144	59	4257
2026-01-17 23:48:16.36	29.27	16.04	-44.3	-45.4	19.4	0.00e+00	0	35	0	494927872	59	4270
2026-01-17 23:48:17.37	29.34	16.14	-44.3	-45.4	19.5	0.00e+00	0	35	0	498073600	59	4271
2026-01-17 23:48:18.38	29.41	16.25	-44.4	-45.5	19.4	0.00e+00	0	35	0	501219328	59	4300
2026-01-17 23:48:19.38	29.48	16.36	-44.5	-45.6	19.3	0.00e+00	0	36	0	504365056	59	4360
2026-01-17 23:48:20.39	29.55	16.46	-44.3	-45.4	19.5	0.00e+00	0	36	0	507510784	59	4273
2026-01-17 23:48:21.40	29.62	16.57	-44.3	-45.4	19.5	0.00e+00	0	35	0	510656512	59	4252
2026-01-17 23:48:22.41	29.70	16.68	-44.2	-45.2	19.7	0.00e+00	0	36	0	513802240	59	4175
2026-01-17 23:48:23.42	29.77	16.79	-44.1	-45.2	19.7	0.00e+00	0	35	0	516947968	59	4162
2026-01-17 23:48:24.42	29.84	16.90	-44.3	-45.3	19.6	0.00e+00	0	35	0	520093696	59	4233
2026-01-17 23:48:25.43	29.91	17.01	-44.2	-45.2	19.7	0.00e+00	0	35	0	523239424	59	4167
2026-01-17 23:48:26.44	29.99	17.12	-44.1	-45.1	19.7	0.00e+00	0	35	0	526385152	59	4145
2026-01-17 23:48:27.45	30.06	17.23	-44.1	-45.1	19.8	0.00e+00	0	35	0	529530880	59	4128
2026-01-17 23:48:28.46	30.14	17.34	-44.2	-45.2	19.7	0.00e+00	0	35	0	532676608	59	4173
2026-01-17 23:48:29.46	30.21	17.45	-44.2	-45.3	19.6	0.00e+00	0	35	0	535822336	59	4205
2026-01-17 23:48:30.47	30.29	17.56	-44.3	-45.4	19.6	0.00e+00	0	35	0	538968064	59	4245
2026-01-17 23:48:31.48	30.36	17.68	-44.1	-45.2	19.7	0.00e+00	0	35	0	542113792	59	4154
2026-01-17 23:48:32.49	30.44	17.79	-44.1	-45.1	19.8	0.00e+00	0	35	0	545259520	59	4113
2026-01-17 23:48:33.50	30.52	17.90	-44.1	-45.1	19.8	0.00e+00	0	35	0	548405248	59	4142
2026-01-17 23:48:34.50	30.60	18.02	-44.0	-45.1	19.8	0.00e+00	0	35	0	551550976	59	4104
2026-01-17 23:48:35.51	30.67	18.13	-44.0	-45.0	19.9	0.00e+00	0	35	0	554696704	59	4077
2026-01-17 23:48:36.52	30.75	18.25	-44.0	-45.0	19.9	0.00e+00	0	35	0	557842432	59	4057
2026-01-17 23:48:37.53	30.83	18.36	-44.0	-45.0	19.9	0.00e+00	0	35	0	560988160	59	4059
2026-01-17 23:48:38.54	30.91	18.48	-43.9	-44.9	20.0	0.00e+00	0	35	0	564133888	59	4018
2026-01-17 23:48:39.54	30.99	18.59	-43.9	-44.9	20.0	0.00e+00	0	35	0	567279616	59	4036
2026-01-17 23:48:40.55	31.07	18.71	-43.9	-44.9	20.0	0.00e+00	0	35	0	570425344	59	4038
2026-01-17 23:48:41.56	31.16	18.83	-43.8	-44.7	20.1	0.00e+00	0	35	0	573571072	59	3957
2026-01-17 23:48:42.57	31.24	18.95	-43.7	-44.6	20.3	0.00e+00	0	35	0	576716800	59	3898
2026-01-17 23:48:43.58	31.32	19.06	-43.7	-44.7	20.2	0.00e+00	0	35	0	579862528	59	3926
2026-01-17 23:48:44.58	31.41	19.18	-43.7	-44.7	20.2	0.00e+00	0	35	0	583008256	59	3918
2026-01-17 23:48:45.59	31.49	19.30	-43.8	-44.8	20.2	0.00e+00	0	36	0	586153984	59	3966
2026-01-17 23:48:46.60	31.58	19.42	-43.8	-44.8	20.1	0.00e+00	0	35	0	589299712	59	3980
2026-01-17 23:48:47.61	31.66	19.54	-43.7	-44.6	20.3	0.00e+00	0	35	0	592445440	59	3894
2026-01-17 23:48:48.62	31.75	19.66	-43.7	-44.6	20.3	0.00e+00	0	35	0	595591168	59	3905
2026-01-17 23:48:49.62	31.83	19.78	-43.8	-44.8	20.2	0.00e+00	0	35	0	598736896	59	3960
2026-01-17 23:48:50.63	31.92	19.91	-43.7	-44.6	20.3	0.00e+00	0	36	0	601882624	59	3911
2026-01-17 23:48:51.64	32.01	20.03	-43.7	-44.7	20.3	0.00e+00	0	35	0	605028352	59	3919
2026-01-17 23:48:52.65	32.10	20.15	-43.7	-44.6	20.3	0.00e+00	0	35	0	608174080	59	3897
2026-01-17 23:48:53.66	32.19	20.28	-43.7	-44.7	20.3	0.00e+00	0	35	0	611319808	59	3941
2026-01-17 23:48:54.67	32.28	20.40	-43.7	-44.6	20.3	0.00e+00	0	35	0	614465536	59	3900
2026-01-17 23:48:55.67	32.37	20.53	-43.7	-44.7	20.3	0.00e+00	0	35	0	617611264	59	3931
2026-01-17 23:48:56.68	32.46	20.65	-43.8	-44.8	20.2	0.00e+00	0	36	0	620756992	59	3974
2026-01-17 23:48:57.69	32.55	20.78	-43.6	-44.6	20.4	0.00e+00	0	35	0	623902720	59	3870
2026-01-17 23:48:58.70	32.65	20.90	-43.5	-44.5	20.5	0.00e+00	0	35	0	627048448	59	3835
2026-01-17 23:48:59.71	32.74	21.03	-43.6	-44.5	20.4	0.00e+00	0	36	0	630194176	59	3862
2026-01-17 23:49:00.72	32.84	21.16	-43.6	-44.5	20.4	0.00e+00	0	35	0	633339904	59	3857
2026-01-17 23:49:01.72	32.93	21.29	-43.5	-44.4	20.5	0.00e+00	0	35	0	636485632	59	3823
2026-01-17 23:49:02.73	33.03	21.42	-43.3	-44.2	20.7	0.00e+00	0	36	0	639631360	58	3931
2026-01-17 23:49:03.74	33.12	21.54	-43.2	-44.1	20.8	0.00e+00	0	35	0	642777088	58	3907
2026-01-17 23:49:04.75	33.22	21.68	-43.3	-44.2	20.8	0.00e+00	0	35	0	645922816	58	3930
2026-01-17 23:49:05.76	33.32	21.81	-43.3	-44.2	20.7	0.00e+00	0	35	0	649068544	58	3958
2026-01-17 23:49:06.76	33.42	21.94	-43.2	-44.1	20.8	0.00e+00	0	35	0	652214272	58	3895
2026-01-17 23:49:07.77	33.52	22.07	-43.2	-44.1	20.9	0.00e+00	0	35	0	655360000	58	3891
2026-01-17 23:49:08.78	33.62	22.20	-43.1	-44.1	20.9	0.00e+00	0	36	0	658505728	58	3869
2026-01-17 23:49:09.79	33.72	22.33	-43.1	-44.1	20.9	0.00e+00	0	35	0	661651456	58	3869
2026-01-17 23:49:10.80	33.82	22.47	-43.2	-44.1	20.9	0.00e+00	0	35	0	664797184	58	3880
2026-01-17 23:49:11.81	33.93	22.60	-43.2	-44.2	20.8	0.00e+00	0	35	0	667942912	58	3915
2026-01-17 23:49:12.82	34.03	22.74	-43.1	-44.0	20.9	0.00e+00	0	35	0	671088640	58	3866
2026-01-17 23:49:13.82	34.13	22.87	-43.1	-44.1	20.9	0.00e+00	0	35	0	674234368	58	3871
2026-01-17 23:49:14.83	34.24	23.01	-43.1	-44.0	20.9	0.00e+00	0	35	0	677380096	58	3843
2026-01-17 23:49:15.84	34.35	23.14	-43.1	-44.0	20.9	0.00e+00	0	35	0	680525824	58	3845
2026-01-17 23:49:16.85	34.46	23.28	-42.8	-43.7	21.2	0.00e+00	0	35	0	683671552	57	3939
2026-01-17 23:49:17.86	34.56	23.42	-42.9	-43.8	21.1	0.00e+00	0	35	0	686817280	57	3969
2026-01-17 23:49:18.86	34.67	23.56	-42.9	-43.8	21.1	0.00e+00	0	35	0	689963008	57	3961
2026-01-17 23:49:19.87	34.78	23.70	-42.7	-43.5	21.3	0.00e+00	0	35	0	693108736	57	3864
2026-01-17 23:49:20.88	34.90	23.84	-42.6	-43.4	21.4	0.00e+00	0	35	0	696254464	57	3810
2026-01-17 23:49:21.89	35.01	23.98	-42.6	-43.4	21.4	0.00e+00	0	35	0	699400192	57	3816
2026-01-17 23:49:22.90	35.12	24.12	-42.6	-43.5	21.4	0.00e+00	0	35	0	702545920	57	3826
2026-01-17 23:49:23.90	35.23	24.26	-42.7	-43.5	21.4	0.00e+00	0	35	0	705691648	57	3863
2026-01-17 23:49:24.91	35.35	24.40	-42.7	-43.5	21.3	0.00e+00	0	35	0	708837376	57	3866
2026-01-17 23:49:25.92	35.47	24.55	-42.7	-43.6	21.3	0.00e+00	0	35	0	711983104	57	3893
2026-01-17 23:49:26.93	35.58	24.69	-42.7	-43.6	21.3	0.00e+00	0	35	0	715128832	57	3899
2026-01-17 23:49:27.94	35.70	24.84	-42.7	-43.6	21.4	0.00e+00	0	35	0	718274560	57	3870
2026-01-17 23:49:28.95	35.82	24.98	-42.8	-43.6	21.3	0.00e+00	0	35	0	721420288	57	3907
2026-01-17 23:49:29.96	35.94	25.13	-42.8	-43.7	21.2	0.00e+00	0	35	0	724566016	57	3934
2026-01-17 23:49:30.97	36.06	25.27	-42.9	-43.8	21.1	0.00e+00	0	35	0	727711744	57	3984
2026-01-17 23:49:31.98	36.19	25.42	-42.9	-43.7	21.2	0.00e+00	0	35	0	730857472	57	3953
2026-01-17 23:49:32.98	36.31	25.57	-42.9	-43.8	21.2	0.00e+00	0	35	0	734003200	57	3966
2026-01-17 23:49:33.99	36.44	25.72	-42.8	-43.7	21.3	0.00e+00	0	35	0	737148928	57	3918
2026-01-17 23:49:35.00	36.56	25.87	-42.9	-43.8	21.2	0.00e+00	0	35	0	740294656	57	3965
2026-01-17 23:49:36.01	36.69	26.02	-42.8	-43.7	21.3	0.00e+00	0	35	0	743440384	57	3919
2026-01-17 23:49:37.02	36.82	26.17	-42.9	-43.8	21.1	0.00e+00	0	35	0	746586112	57	3992
2026-01-17 23:49:38.03	36.95	26.32	-42.9	-43.8	21.2	0.00e+00	0	35	0	749731840	57	3985
2026-01-17 23:49:39.04	37.08	26.47	-43.1	-43.9	21.0	0.00e+00	0	35	0	752877568	57	4049
2026-01-17 23:49:40.05	37.21	26.63	-43.2	-44.1	20.9	0.00e+00	0	35	0	756023296	57	4138
2026-01-17 23:49:41.05	37.34	26.78	-43.3	-44.2	20.8	0.00e+00	0	35	0	759169024	57	4192
2026-01-17 23:49:42.06	37.48	26.93	-43.5	-44.4	20.6	0.00e+00	0	35	0	762314752	57	4266
2026-01-17 23:49:43.07	37.61	27.09	-43.5	-44.4	20.6	0.00e+00	0	35	0	765460480	57	4288
2026-01-17 23:49:44.08	37.75	27.24	-43.5	-44.4	20.6	0.00e+00	0	35	0	768606208	57	4279
2026-01-17 23:49:45.08	37.89	27.40	-43.6	-44.5	20.5	0.00e+00	0	35	0	771751936	57	4328
2026-01-17 23:49:46.09	38.03	27.56	-43.6	-44.6	20.5	0.00e+00	0	35	0	774897664	57	4350
2026-01-17 23:49:47.10	38.17	27.71	-43.8	-44.7	20.3	0.00e+00	0	35	0	778043392	58	4192
2026-01-17 23:49:48.11	38.31	27.87	-43.8	-44.8	20.3	0.00e+00	0	35	0	781189120	58	4202
2026-01-17 23:49:49.12	38.45	28.03	-43.7	-44.6	20.4	0.00e+00	0	35	0	784334848	58	4145
2026-01-17 23:49:50.12	38.60	28.19	-43.7	-44.7	20.4	0.00e+00	0	35	0	787480576	58	4146
2026-01-17 23:49:51.13	38.74	28.35	-43.9	-44.8	20.3	0.00e+00	0	35	0	790626304	58	4235
2026-01-17 23:49:52.14	38.89	28.52	-43.9	-44.8	20.3	0.00e+00	0	35	0	793772032	58	4229
2026-01-17 23:49:53.15	39.04	28.68	-44.0	-45.0	20.1	0.00e+00	0	35	0	796917760	58	4308
2026-01-17 23:49:54.16	39.19	28.84	-44.1	-45.1	20.1	0.00e+00	0	35	0	800063488	58	4344
2026-01-17 23:49:55.17	39.35	29.01	-44.2	-45.2	19.9	0.00e+00	0	35	0	803209216	58	4418
2026-01-17 23:49:56.18	39.50	29.17	-44.3	-45.3	19.8	0.00e+00	0	35	0	806354944	59	4230
2026-01-17 23:49:57.18	39.65	29.33	-44.2	-45.2	19.9	0.00e+00	0	35	0	809500672	59	4168
2026-01-17 23:49:58.19	39.81	29.50	-44.2	-45.2	19.9	0.00e+00	0	35	0	812646400	59	4183
2026-01-17 23:49:59.20	39.97	29.67	-44.3	-45.3	19.8	0.00e+00	0	35	0	815792128	59	4223
2026-01-17 23:50:00.21	40.13	29.84	-44.2	-45.2	19.9	0.00e+00	0	35	0	818937856	59	4164
2026-01-17 23:50:01.22	40.29	30.00	-44.1	-45.1	20.1	0.00e+00	0	35	0	822083584	59	4099
2026-01-17 23:50:02.22	40.45	30.17	-44.1	-45.0	20.1	0.00e+00	0	35	0	825229312	59	4097
2026-01-17 23:50:03.23	40.62	30.34	-44.1	-45.1	20.0	0.00e+00	0	35	0	828375040	59	4127
2026-01-17 23:50:04.24	40.79	30.51	-44.2	-45.3	19.9	0.00e+00	0	35	0	831520768	59	4199
2026-01-17 23:50:05.25	40.96	30.69	-44.2	-45.2	19.9	0.00e+00	0	35	0	834666496	59	4184
2026-01-17 23:50:06.25	41.12	30.86	-44.1	-45.2	20.0	0.00e+00	0	36	0	837812224	59	4146
2026-01-17 23:50:07.26	41.30	31.03	-44.1	-45.1	20.0	0.00e+00	0	35	0	840957952	59	4141
2026-01-17 23:50:08.27	41.47	31.20	-44.1	-45.1	20.0	0.00e+00	0	35	0	844103680	59	4145
2026-01-17 23:50:09.28	41.65	31.38	-44.1	-45.1	20.0	0.00e+00	0	35	0	847249408	59	4145
2026-01-17 23:50:10.29	41.82	31.55	-44.1	-45.1	20.0	0.00e+00	0	35	0	850395136	59	4136
2026-01-17 23:50:11.30	42.00	31.73	-43.7	-44.7	20.4	0.00e+00	0	35	0	853540864	59	3928
2026-01-17 23:50:12.30	42.18	31.91	-43.7	-44.7	20.5	0.00e+00	0	36	0	856686592	59	3916
2026-01-17 23:50:13.31	42.37	32.08	-43.7	-44.7	20.5	0.00e+00	0	35	0	859832320	59	3922
2026-01-17 23:50:14.32	42.55	32.26	-43.7	-44.7	20.5	0.00e+00	0	35	0	862978048	59	3925
2026-01-17 23:50:15.33	42.74	32.44	-43.9	-44.8	20.4	0.00e+00	0	35	0	866123776	59	4001
2026-01-17 23:50:16.34	42.93	32.62	-43.9	-44.9	20.3	0.00e+00	0	35	0	869269504	59	4020
2026-01-17 23:50:17.34	43.12	32.80	-43.9	-44.9	20.3	0.00e+00	0	35	0	872415232	59	4030
2026-01-17 23:50:18.35	43.31	32.98	-44.1	-45.1	20.2	0.00e+00	0	35	0	875560960	59	4103
2026-01-17 23:50:19.36	43.51	33.16	-44.0	-45.0	20.2	0.00e+00	0	35	0	878706688	59	4054
2026-01-17 23:50:20.37	43.71	33.35	-44.0	-45.0	20.3	0.00e+00	0	35	0	881852416	59	4061
2026-01-17 23:50:21.38	43.91	33.53	-44.1	-45.1	20.2	0.00e+00	0	35	0	884998144	59	4105
2026-01-17 23:50:22.38	44.11	33.71	-44.3	-45.3	19.9	0.00e+00	0	35	0	888143872	59	4209
2026-01-17 23:50:23.39	44.31	33.90	-44.4	-45.5	19.8	0.00e+00	0	35	0	891289600	59	4294
2026-01-17 23:50:24.40	44.52	34.09	-44.5	-45.6	19.7	0.00e+00	0	35	0	894435328	59	4349
2026-01-17 23:50:25.41	44.73	34.27	-44.5	-45.5	19.5	0.00e+00	0	35	0	897581056	60	4083
2026-01-17 23:50:26.42	44.94	34.46	-44.7	-45.8	19.2	0.00e+00	0	35	0	900726784	60	4214
2026-01-17 23:50:27.42	45.15	34.65	-44.9	-46.0	19.1	0.00e+00	0	35	0	903872512	60	4327
2026-01-17 23:50:28.43	45.37	34.83	-44.8	-45.9	19.2	0.00e+00	0	35	0	907018240	60	4249
2026-01-17 23:50:29.44	45.59	35.02	-44.9	-46.0	19.1	0.00e+00	0	35	0	910163968	60	4308
2026-01-17 23:50:30.45	45.81	35.21	-44.9	-46.0	19.1	0.00e+00	0	35	0	913309696	60	4299
2026-01-17 23:50:31.46	46.03	35.41	-44.9	-46.1	19.0	0.00e+00	0	35	0	916455424	60	4351
2026-01-17 23:50:32.46	46.26	35.60	-45.0	-46.1	19.0	0.00e+00	0	35	0	919601152	60	4361
2026-01-17 23:50:33.47	46.48	35.79	-45.1	-46.3	18.8	0.00e+00	0	35	0	922746880	60	4454
2026-01-17 23:50:34.48	46.72	35.98	-45.2	-46.3	18.7	0.00e+00	0	35	0	925892608	61	4231
2026-01-17 23:50:35.49	46.95	36.17	-45.4	-46.6	18.5	0.00e+00	0	35	0	929038336	61	4361
2026-01-17 23:50:36.50	47.19	36.37	-45.6	-46.8	18.4	0.00e+00	0	35	0	932184064	61	4470
2026-01-17 23:50:37.50	47.43	36.56	-45.7	-46.9	18.3	0.00e+00	0	35	0	935329792	61	4516
2026-01-17 23:50:38.51	47.67	36.76	-45.5	-46.7	18.4	0.00e+00	0	35	0	938475520	62	4182
2026-01-17 23:50:39.52	47.91	36.95	-45.4	-46.6	18.6	0.00e+00	0	35	0	941621248	62	4125
2026-01-17 23:50:40.53	48.16	37.15	-45.4	-46.6	18.6	0.00e+00	0	35	0	944766976	62	4127
2026-01-17 23:50:41.54	48.41	37.35	-45.4	-46.5	18.6	0.00e+00	0	35	0	947912704	62	4092
2026-01-17 23:50:42.55	48.67	37.54	-45.0	-46.1	19.1	0.00e+00	0	35	0	951058432	62	3886
2026-01-17 23:50:43.55	48.92	37.74	-44.7	-45.7	19.3	0.00e+00	0	35	0	954204160	61	3944
2026-01-17 23:50:44.56	49.18	37.94	-44.8	-45.8	19.3	0.00e+00	0	35	0	958398464	61	3997
2026-01-17 23:50:45.57	49.45	38.14	-44.8	-45.8	19.2	0.00e+00	0	35	0	961544192	61	3997
2026-01-17 23:50:46.58	49.72	38.34	-44.9	-46.0	19.2	0.00e+00	0	35	0	963641344	61	4058
2026-01-17 23:50:47.58	49.98	38.54	-45.1	-46.3	18.9	0.00e+00	0	35	0	966787072	61	4201
2026-01-17 23:50:48.59	50.26	38.74	-45.3	-46.5	18.6	0.00e+00	0	35	0	969932800	61	4318
2026-01-17 23:50:49.60	50.53	38.94	-45.3	-46.5	18.7	0.00e+00	0	35	0	973078528	61	4318
2026-01-17 23:50:50.61	50.81	39.14	-45.4	-46.6	18.6	0.00e+00	0	35	0	976224256	61	4345
2026-01-17 23:50:51.62	51.10	39.35	-45.2	-46.4	18.8	0.00e+00	0	35	0	979369984	61	4252
2026-01-17 23:50:52.62	51.38	39.55	-45.0	-46.1	19.0	0.00e+00	0	35	0	982515712	61	4099
2026-01-17 23:50:53.63	51.67	39.75	-45.0	-46.0	19.1	0.00e+00	0	35	0	985661440	61	4093
2026-01-17 23:50:54.64	51.97	39.95	-45.1	-46.3	18.9	0.00e+00	0	35	0	988807168	61	4206
2026-01-17 23:50:55.65	52.26	40.16	-45.3	-46.5	18.7	0.00e+00	0	35	0	991952896	61	4295
2026-01-17 23:50:56.66	52.57	40.36	-45.4	-46.6	18.5	0.00e+00	0	35	0	996147200	61	4378
2026-01-17 23:50:57.66	52.87	40.56	-45.5	-46.7	18.4	0.00e+00	0	35	0	999292928	61	4437
2026-01-17 23:50:58.67	53.18	40.77	-45.5	-46.7	18.4	0.00e+00	0	35	0	1002438656	61	4433
2026-01-17 23:50:59.68	53.49	40.97	-45.5	-46.7	18.4	0.00e+00	0	35	0	1004535808	61	4405
2026-01-17 23:51:00.69	53.81	41.18	-45.5	-46.7	18.4	0.00e+00	0	35	0	1008730112	61	4409
2026-01-17 23:51:01.70	54.13	41.38	-45.5	-46.6	18.4	0.00e+00	0	35	0	1010827264	61	4385
2026-01-17 23:51:02.70	54.45	41.59	-45.4	-46.6	18.5	0.00e+00	0	35	0	1013972992	61	4344
2026-01-17 23:51:03.71	54.78	41.79	-45.4	-46.6	18.5	0.00e+00	0	35	0	1017118720	61	4356
2026-01-17 23:51:04.72	55.11	42.00	-45.7	-46.9	18.1	0.00e+00	0	35	0	1020264448	62	4288
2026-01-17 23:51:05.73	55.45	42.21	-45.9	-47.2	18.0	0.00e+00	0	35	0	1023410176	62	4404
2026-01-17 23:51:06.73	55.79	42.41	-46.1	-47.4	17.8	0.00e+00	0	35	0	1026555904	62	4544
2026-01-17 23:51:07.74	56.14	42.62	-46.1	-47.4	17.8	0.00e+00	0	35	0	1029701632	62	4496
2026-01-17 23:51:08.75	56.49	42.82	-46.2	-47.5	17.7	0.00e+00	0	35	0	1032847360	63	4335
2026-01-17 23:51:09.76	56.84	43.03	-46.2	-47.5	17.7	0.00e+00	0	35	0	1037041664	63	4311
2026-01-17 23:51:10.76	57.20	43.23	-46.1	-47.3	17.9	0.00e+00	0	35	0	1040187392	63	4233
2026-01-17 23:51:11.77	57.56	43.44	-46.2	-47.5	17.7	0.00e+00	0	36	0	1043333120	63	4317
2026-01-17 23:51:12.78	57.93	43.64	-46.2	-47.5	17.7	0.00e+00	0	35	0	1046478848	63	4312
2026-01-17 23:51:13.79	58.30	43.85	-46.4	-47.8	17.4	0.00e+00	0	35	0	1049624576	63	4462
2026-01-17 23:51:14.80	58.68	44.05	-46.4	-47.8	17.5	0.00e+00	0	35	0	1052770304	63	4457
2026-01-17 23:51:15.80	59.06	44.26	-46.2	-47.5	17.7	0.00e+00	0	35	0	1055916032	63	4314
2026-01-17 23:51:16.82	59.45	44.46	-45.9	-47.1	18.0	0.00e+00	0	35	0	1058013184	63	4135
2026-01-17 23:51:17.82	59.84	44.67	-45.7	-46.9	18.3	0.00e+00	0	35	0	1061158912	63	4013
2026-01-17 23:51:18.83	60.24	44.87	-45.6	-46.8	18.4	0.00e+00	0	35	0	1064304640	63	3962
2026-01-17 23:51:19.84	60.64	45.07	-45.6	-46.8	18.4	0.00e+00	0	35	0	1067450368	63	3980
2026-01-17 23:51:20.85	61.05	45.28	-45.7	-46.9	18.3	0.00e+00	0	35	0	1070596096	63	4019
2026-01-17 23:51:21.85	61.46	45.48	-46.0	-47.2	18.0	0.00e+00	0	35	0	1074790400	63	4182
2026-01-17 23:51:22.86	61.88	45.68	-46.0	-47.2	18.0	0.00e+00	0	35	0	1077936128	63	4182
2026-01-17 23:51:23.87	62.30	45.88	-46.0	-47.2	18.0	0.00e+00	0	35	0	1081081856	63	4188
2026-01-17 23:51:24.88	62.73	46.08	-46.1	-47.3	17.9	0.00e+00	0	35	0	1084227584	63	4236
2026-01-17 23:51:25.89	63.17	46.28	-46.1	-47.4	17.8	0.00e+00	0	35	0	1087373312	63	4250
2026-01-17 23:51:26.90	63.61	46.48	-46.2	-47.5	17.8	0.00e+00	0	35	0	1090519040	63	4322
2026-01-17 23:51:27.91	64.05	46.68	-46.2	-47.5	17.7	0.00e+00	0	35	0	1093664768	63	4327
2026-01-17 23:51:28.92	64.51	46.87	-46.1	-47.4	17.8	0.00e+00	0	35	0	1096810496	63	4244
2026-01-17 23:51:29.92	64.96	47.07	-45.9	-47.2	18.1	0.00e+00	0	35	0	1099956224	63	4173
2026-01-17 23:51:30.93	65.42	47.26	-46.0	-47.3	18.0	0.00e+00	0	35	0	1103101952	63	4199
2026-01-17 23:51:31.94	65.89	47.46	-45.9	-47.2	18.0	0.00e+00	0	35	0	1105199104	63	4166
2026-01-17 23:51:32.95	66.36	47.65	-45.7	-46.9	18.3	0.00e+00	0	35	0	1108344832	63	4050
2026-01-17 23:51:33.96	66.84	47.84	-45.9	-47.1	18.1	0.00e+00	0	35	0	1112539136	63	4123
2026-01-17 23:51:34.96	67.32	48.03	-45.8	-47.1	18.2	0.00e+00	0	35	0	1115684864	63	4102
2026-01-17 23:51:35.97	67.82	48.22	-45.8	-47.0	18.3	0.00e+00	0	35	0	1118830592	63	4075
2026-01-17 23:51:36.98	68.31	48.41	-45.8	-47.0	18.2	0.00e+00	0	35	0	1121976320	63	4079
2026-01-17 23:51:37.99	68.82	48.59	-45.8	-47.1	18.1	0.00e+00	0	35	0	1125122048	63	4119
2026-01-17 23:51:39.00	69.33	48.78	-45.9	-47.2	18.1	0.00e+00	0	35	0	1128267776	63	4155
2026-01-17 23:51:40.01	69.84	48.96	-46.0	-47.2	18.0	0.00e+00	0	35	0	1131413504	63	4186
2026-01-17 23:51:41.02	70.37	49.14	-46.1	-47.4	17.8	0.00e+00	0	35	0	1134559232	63	4277
2026-01-17 23:51:42.02	70.89	49.32	-46.0	-47.2	18.0	0.00e+00	0	35	0	1137704960	63	4177
2026-01-17 23:51:43.03	71.42	49.50	-45.7	-46.9	18.3	0.00e+00	0	35	0	1140850688	63	4031
2026-01-17 23:51:44.04	71.96	49.67	-45.4	-46.5	18.6	0.00e+00	0	35	0	1143996416	62	4089
2026-01-17 23:51:45.05	72.51	49.84	-45.3	-46.4	18.8	0.00e+00	0	35	0	1147142144	62	4036
2026-01-17 23:51:46.06	73.06	50.02	-44.8	-45.8	19.2	0.00e+00	0	35	0	1150287872	61	3998
2026-01-17 23:51:47.06	73.62	50.18	-44.6	-45.7	19.5	0.00e+00	0	35	0	1153433600	61	3919
2026-01-17 23:51:48.07	74.18	50.35	-44.8	-45.9	19.3	0.00e+00	0	35	0	1156579328	61	4013
2026-01-17 23:51:49.08	74.75	50.51	-44.5	-45.5	19.6	0.00e+00	0	35	0	1159725056	60	4065
2026-01-17 23:51:50.09	75.33	50.68	-44.3	-45.2	19.8	0.00e+00	0	35	0	1162870784	60	3955
2026-01-17 23:51:51.10	75.91	50.84	-44.4	-45.4	19.7	0.00e+00	0	35	0	1166016512	60	4018
2026-01-17 23:51:52.11	76.50	50.99	-44.6	-45.6	19.5	0.00e+00	0	35	0	1169162240	60	4121
2026-01-17 23:51:53.12	77.10	51.15	-44.6	-45.7	19.5	0.00e+00	0	35	0	1172307968	60	4168
2026-01-17 23:51:54.12	77.69	51.30	-45.1	-46.2	19.0	0.00e+00	0	35	0	1175453696	60	4430
2026-01-17 23:51:55.13	78.30	51.45	-45.4	-46.6	18.6	0.00e+00	0	35	0	1178599424	61	4378
2026-01-17 23:51:56.14	78.92	51.59	-45.4	-46.6	18.6	0.00e+00	0	35	0	1181745152	61	4363
2026-01-17 23:51:57.15	79.53	51.74	-45.3	-46.5	18.7	0.00e+00	0	35	0	1184890880	61	4311
2026-01-17 23:51:58.16	80.16	51.88	-45.0	-46.1	19.1	0.00e+00	0	35	0	1188036608	61	4106
2026-01-17 23:51:59.17	80.79	52.02	-44.7	-45.8	19.3	0.00e+00	0	35	0	1191182336	61	3992
2026-01-17 23:52:00.18	81.43	52.15	-44.9	-46.0	19.1	0.00e+00	0	35	0	1194328064	61	4077
2026-01-17 23:52:01.18	82.07	52.28	-45.1	-46.3	18.9	0.00e+00	0	35	0	1197473792	61	4198
2026-01-17 23:52:02.19	82.71	52.41	-44.8	-45.9	19.2	0.00e+00	0	35	0	1200619520	61	4041
2026-01-17 23:52:03.20	83.37	52.53	-44.6	-45.7	19.5	0.00e+00	0	35	0	1203765248	61	3916
2026-01-17 23:52:04.21	84.03	52.65	-44.5	-45.6	19.3	0.00e+00	0	35	0	1206910976	60	4115
2026-01-17 23:52:05.22	84.69	52.77	-45.0	-46.1	18.6	0.00e+00	0	35	0	1210056704	60	4378
2026-01-17 23:52:06.22	85.36	52.88	-45.3	-46.4	18.5	0.00e+00	0	35	0	1213202432	61	4282
2026-01-17 23:52:07.23	86.03	52.99	-45.2	-46.4	18.8	0.00e+00	0	35	0	1216348160	61	4260
2026-01-17 23:52:08.24	86.71	53.10	-44.6	-45.7	19.4	0.00e+00	0	35	0	1219493888	61	3925
2026-01-17 23:52:09.25	87.40	53.20	-44.6	-45.7	19.4	0.00e+00	0	35	0	1222639616	60	4148
2026-01-17 23:52:10.26	88.09	53.30	-44.9	-46.0	19.0	0.00e+00	0	35	0	1225785344	60	4332
2026-01-17 23:52:11.26	88.77	53.39	-44.5	-45.6	19.5	0.00e+00	0	35	0	1228931072	60	4123
2026-01-17 23:52:12.27	89.47	53.48	-44.1	-45.1	20.0	0.00e+00	0	35	0	1232076800	60	3871
2026-01-17 23:52:13.28	90.18	53.57	-44.2	-45.1	20.2	0.00e+00	0	35	0	1235222528	59	4133
2026-01-17 23:52:14.29	90.88	53.65	-44.3	-45.3	20.0	0.00e+00	0	35	0	1238368256	59	4230
2026-01-17 23:52:15.30	91.59	53.72	-44.6	-45.6	19.7	0.00e+00	0	35	0	1241513984	59	4370
2026-01-17 23:52:16.30	92.30	53.80	-44.6	-45.6	19.7	0.00e+00	0	35	0	1244659712	59	4378
2026-01-17 23:52:17.31	93.02	53.87	-44.4	-45.4	19.9	0.00e+00	0	35	0	1247805440	59	4278
2026-01-17 23:52:18.32	93.74	53.93	-44.4	-45.4	19.8	0.00e+00	0	35	0	1250951168	59	4270
2026-01-17 23:52:19.33	94.46	53.99	-44.5	-45.5	19.4	0.00e+00	0	35	0	1254096896	60	4084
2026-01-17 23:52:20.34	95.19	54.05	-44.4	-45.4	19.6	0.00e+00	0	35	0	1257242624	60	4027
2026-01-17 23:52:21.34	95.91	54.10	-44.4	-45.4	19.7	0.00e+00	0	35	0	1260388352	60	4047
2026-01-17 23:52:22.35	96.65	54.14	-44.3	-45.3	20.1	0.00e+00	0	35	0	1263534080	59	4214
2026-01-17 23:52:23.36	97.38	54.19	-44.5	-45.5	19.9	0.00e+00	0	35	0	1266679808	59	4333
2026-01-17 23:52:24.36	98.11	54.22	-44.6	-45.6	19.6	0.00e+00	0	35	0	1269825536	59	4382
2026-01-17 23:52:25.37	98.85	54.26	-44.4	-45.4	19.6	0.00e+00	0	35	0	1272971264	60	4020
2026-01-17 23:52:26.38	99.59	54.28	-44.4	-45.4	20.0	0.00e+00	0	35	0	1276116992	59	4245
2026-01-17 23:52:27.39	100.33	54.31	-44.4	-45.4	19.7	0.00e+00	0	35	0	1279262720	60	4041
2026-01-17 23:52:28.40	101.07	54.33	-44.9	-46.0	19.1	0.00e+00	0	35	0	1282408448	60	4326
2026-01-17 23:52:29.41	101.82	54.34	-45.1	-46.3	18.9	0.00e+00	0	35	0	1285554176	60	4443
2026-01-17 23:52:30.42	102.56	54.35	-45.1	-46.3	18.9	0.00e+00	0	35	0	1288699904	61	4204
2026-01-17 23:52:31.43	103.30	54.35	-44.4	-45.5	19.6	0.00e+00	0	35	0	1291845632	60	4057
2026-01-17 23:52:32.43	104.04	54.35	-44.3	-45.4	19.4	0.00e+00	0	35	0	1294991360	60	4006
2026-01-17 23:52:33.44	104.78	54.35	-44.5	-45.6	19.3	0.00e+00	0	35	0	1298137088	60	4110
2026-01-17 23:52:34.45	105.53	54.34	-44.5	-45.6	19.4	0.00e+00	0	35	0	1301282816	60	4100
2026-01-17 23:52:35.46	106.27	54.32	-44.4	-45.5	19.4	0.00e+00	0	35	0	1304428544	60	4057
2026-01-17 23:52:36.46	107.01	54.30	-44.1	-45.0	20.0	0.00e+00	0	35	0	1307574272	60	3854
2026-01-17 23:52:37.47	107.75	54.28	-44.1	-45.1	20.1	0.00e+00	0	35	0	1310720000	59	4107
2026-01-17 23:52:38.48	108.49	54.25	-44.1	-45.1	20.2	0.00e+00	0	35	0	1313865728	59	4121
2026-01-17 23:52:39.49	109.23	54.22	-44.0	-44.9	20.4	0.00e+00	0	35	0	1317011456	59	4047
2026-01-17 23:52:40.50	109.96	54.18	-44.2	-45.2	20.2	0.00e+00	0	35	0	1320157184	59	4170
2026-01-17 23:52:41.50	110.69	54.14	-44.4	-45.4	20.0	0.00e+00	0	35	0	1323302912	59	4266
2026-01-17 23:52:42.51	111.42	54.09	-44.6	-45.6	19.7	0.00e+00	0	35	0	1326448640	59	4375
2026-01-17 23:52:43.52	112.15	54.04	-44.7	-45.8	19.7	0.00e+00	0	35	0	1329594368	59	4442
2026-01-17 23:52:44.53	112.88	53.98	-44.4	-45.4	19.9	0.00e+00	0	35	0	1332740096	59	4267
2026-01-17 23:52:45.53	113.60	53.92	-44.2	-45.2	20.2	0.00e+00	0	35	0	1335885824	59	4181
2026-01-17 23:52:46.54	114.32	53.86	-44.0	-45.0	20.3	0.00e+00	0	35	0	1339031552	59	4056
2026-01-17 23:52:47.55	115.04	53.79	-44.2	-45.2	20.1	0.00e+00	0	35	0	1342177280	59	4175
2026-01-17 23:52:48.56	115.75	53.71	-44.4	-45.3	20.0	0.00e+00	0	35	0	1345323008	59	4242
2026-01-17 23:52:49.57	116.46	53.63	-44.7	-45.7	19.7	0.00e+00	0	35	0	1348468736	59	4423
2026-01-17 23:52:50.58	117.17	53.55	-44.5	-45.5	19.7	0.00e+00	0	35	0	1351614464	60	4071
2026-01-17 23:52:51.58	117.86	53.47	-44.4	-45.4	19.7	0.00e+00	0	35	0	1354760192	60	4047
2026-01-17 23:52:52.59	118.56	53.37	-44.3	-45.3	19.8	0.00e+00	0	35	0	1357905920	60	3974
2026-01-17 23:52:53.60	119.26	53.28	-44.5	-45.5	19.6	0.00e+00	0	35	0	1361051648	60	4081
2026-01-17 23:52:54.61	119.95	53.18	-44.3	-45.3	19.8	0.00e+00	0	35	0	1364197376	60	4003
2026-01-17 23:52:55.62	120.63	53.08	-44.2	-45.2	20.0	0.00e+00	0	35	0	1367343104	60	3915
2026-01-17 23:52:56.62	121.30	52.97	-44.2	-45.2	19.9	0.00e+00	0	35	0	1370488832	60	3946
2026-01-17 23:52:57.63	121.98	52.86	-44.1	-45.1	20.3	0.00e+00	0	35	0	1373634560	59	4131
2026-01-17 23:52:58.64	122.65	52.75	-44.0	-45.0	20.4	0.00e+00	0	35	0	1376780288	59	4066
2026-01-17 23:52:59.65	123.31	52.63	-44.1	-45.1	20.2	0.00e+00	0	35	0	1379926016	59	4124
2026-01-17 23:53:00.66	123.97	52.51	-44.1	-45.0	20.2	0.00e+00	0	35	0	1383071744	59	4091
2026-01-17 23:53:01.66	124.62	52.39	-44.3	-45.3	20.1	0.00e+00	0	35	0	1386217472	59	4213
2026-01-17 23:53:02.67	125.27	52.26	-44.7	-45.7	19.7	0.00e+00	0	35	0	1389363200	59	4431
2026-01-17 23:53:03.68	125.91	52.13	-44.7	-45.8	19.3	0.00e+00	0	35	0	1392508928	60	4208
2026-01-17 23:53:04.69	126.55	51.99	-45.1	-46.3	18.8	0.00e+00	0	35	0	1395654656	60	4461
2026-01-17 23:53:05.70	127.18	51.85	-45.3	-46.5	18.7	0.00e+00	0	35	0	1398800384	61	4299
2026-01-17 23:53:06.70	127.80	51.71	-45.5	-46.7	18.4	0.00e+00	0	35	0	1401946112	61	4418
2026-01-17 23:53:07.71	128.42	51.57	-45.5	-46.7	18.4	0.00e+00	0	35	0	1405091840	61	4429
2026-01-17 23:53:08.72	129.03	51.42	-45.1	-46.2	18.9	0.00e+00	0	35	0	1408237568	61	4185
2026-01-17 23:53:09.73	129.64	51.27	-45.1	-46.2	19.0	0.00e+00	0	35	0	1411383296	61	4182
2026-01-17 23:53:10.74	130.24	51.12	-45.1	-46.3	18.9	0.00e+00	0	35	0	1414529024	61	4195
2026-01-17 23:53:11.74	130.83	50.96	-45.0	-46.2	19.0	0.00e+00	0	35	0	1417674752	61	4157
2026-01-17 23:53:12.75	131.42	50.81	-45.1	-46.2	19.0	0.00e+00	0	35	0	1420820480	61	4177
2026-01-17 23:53:13.76	132.01	50.65	-44.6	-45.6	19.5	0.00e+00	0	35	0	1423966208	61	3912
2026-01-17 23:53:14.77	132.58	50.48	-44.5	-45.5	19.5	0.00e+00	0	35	0	1427111936	60	4075
2026-01-17 23:53:15.78	133.16	50.32	-44.3	-45.3	19.7	0.00e+00	0	35	0	1430257664	60	3998
2026-01-17 23:53:16.78	133.71	50.15	-44.4	-45.4	19.6	0.00e+00	0	35	0	1433403392	60	4033
2026-01-17 23:53:17.79	134.27	49.98	-44.4	-45.4	19.7	0.00e+00	0	35	0	1436549120	60	4010
2026-01-17 23:53:18.80	134.83	49.81	-44.9	-46.0	19.1	0.00e+00	0	35	0	1439694848	60	4339
2026-01-17 23:53:19.81	135.37	49.63	-45.3	-46.5	18.7	0.00e+00	0	35	0	1442840576	61	4309
2026-01-17 23:53:20.82	135.91	49.46	-45.4	-46.6	18.6	0.00e+00	0	35	0	1445986304	61	4372
2026-01-17 23:53:21.82	136.44	49.28	-45.1	-46.2	18.9	0.00e+00	0	35	0	1449132032	61	4163
2026-01-17 23:53:22.83	136.97	49.10	-45.0	-46.1	19.1	0.00e+00	0	35	0	1452277760	61	4130
2026-01-17 23:53:23.84	137.49	48.92	-45.0	-46.1	19.1	0.00e+00	0	35	0	1455423488	61	4114
2026-01-17 23:53:24.85	138.01	48.74	-44.9	-46.0	19.2	0.00e+00	0	35	0	1458569216	61	4067
2026-01-17 23:53:25.86	138.52	48.55	-45.2	-46.3	18.9	0.00e+00	0	35	0	1461714944	61	4201
2026-01-17 23:53:26.86	139.02	48.37	-45.3	-46.5	18.7	0.00e+00	0	35	0	1464860672	61	4317
2026-01-17 23:53:27.87	139.51	48.18	-45.7	-46.9	18.2	0.00e+00	0	35	0	1468006400	61	4541
2026-01-17 23:53:28.88	140.01	47.99	-46.0	-47.3	17.9	0.00e+00	0	35	0	1471152128	62	4482
2026-01-17 23:53:29.89	140.49	47.80	-46.1	-47.4	17.8	0.00e+00	0	35	0	1474297856	62	4536
2026-01-17 23:53:30.90	140.97	47.60	-46.1	-47.3	17.9	0.00e+00	0	35	0	1477443584	62	4492
2026-01-17 23:53:31.91	141.44	47.41	-45.8	-47.0	18.2	0.00e+00	0	35	0	1480589312	62	4326
2026-01-17 23:53:32.92	141.91	47.22	-45.8	-47.1	18.1	0.00e+00	0	35	0	1483735040	62	4366
2026-01-17 23:53:33.92	142.37	47.02	-45.9	-47.2	18.0	0.00e+00	0	35	0	1486880768	62	4413
2026-01-17 23:53:34.94	142.83	46.82	-45.9	-47.2	18.0	0.00e+00	0	35	0	1490026496	62	4415
2026-01-17 23:53:35.95	143.28	46.63	-45.8	-47.0	18.2	0.00e+00	0	35	0	1493172224	62	4326
2026-01-17 23:53:36.95	143.72	46.43	-45.6	-46.8	18.4	0.00e+00	0	35	0	1496317952	62	4201
2026-01-17 23:53:37.96	144.17	46.23	-45.6	-46.8	18.4	0.00e+00	0	35	0	1499463680	62	4221
2026-01-17 23:53:38.97	144.60	46.03	-45.4	-46.6	18.5	0.00e+00	0	35	0	1502609408	62	4123
2026-01-17 23:53:39.98	145.03	45.83	-45.4	-46.6	18.5	0.00e+00	0	35	0	1505755136	62	4099
2026-01-17 23:53:40.98	145.45	45.63	-45.5	-46.6	18.4	0.00e+00	0	35	0	1508900864	62	4134
2026-01-17 23:53:41.99	145.87	45.42	-45.8	-47.1	18.0	0.00e+00	0	35	0	1512046592	62	4346
2026-01-17 23:53:43.00	146.28	45.22	-45.7	-46.9	18.3	0.00e+00	0	35	0	1515192320	62	4250
2026-01-17 23:53:44.01	146.69	45.02	-45.5	-46.7	18.4	0.00e+00	0	35	0	1518338048	62	4186
2026-01-17 23:53:45.02	147.09	44.81	-45.8	-47.0	18.2	0.00e+00	0	35	0	1521483776	62	4331
2026-01-17 23:53:46.02	147.49	44.61	-45.8	-47.1	18.1	0.00e+00	0	35	0	1524629504	62	4348
2026-01-17 23:53:47.03	147.88	44.41	-45.8	-47.1	18.1	0.00e+00	0	35	0	1527775232	62	4349
2026-01-17 23:53:48.04	148.27	44.20	-45.9	-47.1	18.1	0.00e+00	0	35	0	1530920960	62	4348
2026-01-17 23:53:49.05	148.65	43.99	-45.8	-47.0	18.0	0.00e+00	0	35	0	1534066688	62	4330
2026-01-17 23:53:50.05	149.02	43.79	-46.0	-47.2	17.7	0.00e+00	0	35	0	1537212416	62	4432
2026-01-17 23:53:51.06	149.40	43.58	-46.2	-47.5	17.4	0.00e+00	0	35	0	1540358144	62	4582
2026-01-17 23:53:52.07	149.77	43.38	-46.1	-47.3	17.7	0.00e+00	0	35	0	1543503872	63	4242
2026-01-17 23:53:53.08	150.13	43.17	-45.9	-47.1	17.9	0.00e+00	0	35	0	1546649600	63	4139
2026-01-17 23:53:54.08	150.49	42.97	-45.3	-46.5	18.6	0.00e+00	0	35	0	1549795328	62	4052
2026-01-17 23:53:55.09	150.84	42.76	-45.2	-46.3	18.8	0.00e+00	0	35	0	1552941056	62	3968
2026-01-17 23:53:56.10	151.19	42.55	-45.3	-46.5	18.6	0.00e+00	0	35	0	1556086784	62	4063
2026-01-17 23:53:57.11	151.54	42.35	-45.8	-47.0	18.0	0.00e+00	0	35	0	1559232512	62	4333
2026-01-17 23:53:58.12	151.88	42.14	-46.1	-47.4	17.8	0.00e+00	0	35	0	1562378240	62	4516
2026-01-17 23:53:59.12	152.21	41.93	-46.2	-47.6	17.6	0.00e+00	0	35	0	1565523968	63	4346
2026-01-17 23:54:00.13	152.55	41.73	-46.3	-47.7	17.4	0.00e+00	0	35	0	1568669696	63	4419
2026-01-17 23:54:01.14	152.88	41.52	-46.2	-47.5	17.7	0.00e+00	0	35	0	1571815424	63	4333
2026-01-17 23:54:02.15	153.20	41.31	-45.9	-47.1	18.0	0.00e+00	0	35	0	1574961152	63	4138
2026-01-17 23:54:03.16	153.52	41.11	-45.7	-47.0	18.2	0.00e+00	0	35	0	1578106880	63	4052
2026-01-17 23:54:04.16	153.84	40.90	-45.7	-46.9	18.3	0.00e+00	0	35	0	1581252608	63	4025
2026-01-17 23:54:05.17	154.15	40.70	-45.5	-46.6	18.5	0.00e+00	0	35	0	1584398336	62	4144
2026-01-17 23:54:06.18	154.46	40.49	-45.3	-46.4	18.6	0.00e+00	0	35	0	1587544064	62	4045
2026-01-17 23:54:07.19	154.76	40.29	-45.2	-46.4	18.7	0.00e+00	0	35	0	1590689792	62	4007
2026-01-17 23:54:08.20	155.06	40.08	-45.2	-46.4	18.8	0.00e+00	0	35	0	1593835520	62	4015
2026-01-17 23:54:09.20	155.36	39.88	-45.1	-46.3	18.9	0.00e+00	0	35	0	1596981248	62	3960
2026-01-17 23:54:10.21	155.65	39.67	-45.2	-46.3	18.8	0.00e+00	0	35	0	1600126976	62	3979
2026-01-17 23:54:11.22	155.94	39.47	-45.4	-46.6	18.4	0.00e+00	0	35	0	1603272704	62	4129
2026-01-17 23:54:12.23	156.23	39.27	-45.6	-46.9	18.1	0.00e+00	0	35	0	1606418432	62	4252
2026-01-17 23:54:13.24	156.51	39.06	-45.9	-47.2	17.8	0.00e+00	0	35	0	1609564160	62	4430
2026-01-17 23:54:14.25	156.79	38.86	-45.6	-46.8	18.2	0.00e+00	0	35	0	1612709888	62	4230
2026-01-17 23:54:15.25	157.07	38.66	-45.3	-46.5	18.6	0.00e+00	0	35	0	1615855616	62	4063
2026-01-17 23:54:16.26	157.34	38.46	-45.2	-46.4	18.7	0.00e+00	0	35	0	1619001344	62	4014
2026-01-17 23:54:17.27	157.61	38.26	-45.0	-46.1	19.0	0.00e+00	0	35	0	1622147072	61	4113
2026-01-17 23:54:18.28	157.88	38.06	-45.2	-46.3	18.7	0.00e+00	0	35	0	1625292800	61	4215
2026-01-17 23:54:19.28	158.14	37.86	-45.3	-46.5	18.5	0.00e+00	0	35	0	1628438528	61	4315
2026-01-17 23:54:20.29	158.40	37.66	-45.4	-46.6	18.5	0.00e+00	0	35	0	1631584256	61	4345
2026-01-17 23:54:21.30	158.66	37.46	-45.2	-46.4	18.6	0.00e+00	0	35	0	1634729984	61	4268
2026-01-17 23:54:22.31	158.91	37.26	-44.8	-45.9	19.1	0.00e+00	0	35	0	1637875712	61	4015
2026-01-17 23:54:23.32	159.16	37.06	-44.6	-45.7	19.3	0.00e+00	0	35	0	1641021440	61	3926
2026-01-17 23:54:24.32	159.41	36.87	-44.5	-45.5	19.5	0.00e+00	0	35	0	1644167168	60	4077
2026-01-17 23:54:25.33	159.65	36.67	-44.3	-45.3	19.7	0.00e+00	0	35	0	1647312896	60	3991
2026-01-17 23:54:26.34	159.90	36.47	-44.2	-45.2	19.8	0.00e+00	0	35	0	1650458624	60	3936
2026-01-17 23:54:27.34	160.13	36.28	-44.2	-45.2	19.8	0.00e+00	0	35	0	1653604352	60	3942
2026-01-17 23:54:28.35	160.37	36.09	-44.2	-45.3	19.7	0.00e+00	0	35	0	1656750080	60	3960
2026-01-17 23:54:29.36	160.61	35.89	-44.3	-45.4	19.6	0.00e+00	0	35	0	1659895808	60	4009
2026-01-17 23:54:30.37	160.84	35.70	-44.3	-45.3	19.7	0.00e+00	0	35	0	1663041536	60	3996
2026-01-17 23:54:31.38	161.07	35.50	-44.4	-45.4	19.6	0.00e+00	0	35	0	1666187264	60	4026
2026-01-17 23:54:32.38	161.29	35.31	-44.3	-45.4	19.6	0.00e+00	0	35	0	1669332992	60	4018
2026-01-17 23:54:33.39	161.51	35.12	-44.3	-45.4	19.7	0.00e+00	0	35	0	1672478720	60	4014
2026-01-17 23:54:34.40	161.74	34.93	-44.1	-45.1	19.8	0.00e+00	0	35	0	1675624448	60	3908
2026-01-17 23:54:35.41	161.95	34.74	-44.1	-45.1	19.9	0.00e+00	0	35	0	1678770176	60	3869
2026-01-17 23:54:36.42	162.17	34.55	-44.3	-45.3	19.8	0.00e+00	0	35	0	1681915904	59	4216
2026-01-17 23:54:37.42	162.38	34.37	-44.5	-45.5	19.6	0.00e+00	0	35	0	1685061632	59	4331
2026-01-17 23:54:38.43	162.59	34.18	-44.4	-45.5	19.7	0.00e+00	0	35	0	1688207360	59	4306
2026-01-17 23:54:39.44	162.80	33.99	-44.4	-45.4	19.8	0.00e+00	0	35	0	1691353088	59	4276
2026-01-17 23:54:40.45	163.01	33.80	-44.2	-45.2	20.0	0.00e+00	0	35	0	1694498816	59	4167
2026-01-17 23:54:41.46	163.21	33.62	-44.2	-45.2	19.9	0.00e+00	0	35	0	1698693120	59	4189
2026-01-17 23:54:42.46	163.41	33.43	-44.2	-45.2	20.0	0.00e+00	0	35	0	1701838848	59	4185
2026-01-17 23:54:43.47	163.61	33.25	-44.2	-45.2	20.0	0.00e+00	0	35	0	1703936000	59	4191
2026-01-17 23:54:44.48	163.81	33.07	-44.5	-45.5	19.7	0.00e+00	0	35	0	1707081728	59	4328
2026-01-17 23:54:45.48	164.00	32.88	-44.6	-45.7	19.6	0.00e+00	0	35	0	1710227456	59	4407
2026-01-17 23:54:46.49	164.20	32.70	-44.5	-45.5	19.4	0.00e+00	0	35	0	1713373184	60	4097
2026-01-17 23:54:47.50	164.39	32.52	-44.5	-45.6	19.4	0.00e+00	0	35	0	1716518912	60	4125
2026-01-17 23:54:48.51	164.58	32.34	-44.3	-45.4	19.5	0.00e+00	0	35	0	1719664640	60	4028
2026-01-17 23:54:49.52	164.77	32.16	-44.1	-45.2	19.6	0.00e+00	0	35	0	1722810368	60	3934
2026-01-17 23:54:50.53	164.95	31.98	-44.0	-45.0	19.8	0.00e+00	0	35	0	1725956096	60	3855
2026-01-17 23:54:51.53	165.13	31.80	-43.8	-44.8	20.2	0.00e+00	0	35	0	1729101824	59	3991
2026-01-17 23:54:52.54	165.31	31.63	-43.5	-44.4	20.6	0.00e+00	0	35	0	1732247552	59	3811
2026-01-17 23:54:53.55	165.49	31.45	-43.4	-44.3	20.7	0.00e+00	0	35	0	1735393280	58	3996
2026-01-17 23:54:54.56	165.67	31.27	-43.2	-44.1	20.9	0.00e+00	0	35	0	1739587584	58	3889
2026-01-17 23:54:55.56	165.84	31.10	-43.0	-43.9	21.1	0.00e+00	0	35	0	1742733312	58	3805
2026-01-17 23:54:56.57	166.02	30.92	-43.1	-44.0	21.1	0.00e+00	0	35	0	1745879040	58	3839
2026-01-17 23:54:57.58	166.19	30.75	-43.2	-44.1	21.0	0.00e+00	0	35	0	1749024768	58	3871
2026-01-17 23:54:58.59	166.36	30.58	-43.1	-44.0	21.0	0.00e+00	0	35	0	1751121920	58	3852
2026-01-17 23:54:59.60	166.53	30.41	-43.3	-44.2	20.9	0.00e+00	0	35	0	1754267648	58	3920
2026-01-17 23:55:00.60	166.69	30.24	-43.3	-44.2	20.8	0.00e+00	0	35	0	1757413376	58	3955
2026-01-17 23:55:01.61	166.86	30.06	-43.6	-44.5	20.6	0.00e+00	0	35	0	1760559104	58	4073
2026-01-17 23:55:02.62	167.02	29.89	-43.7	-44.7	20.4	0.00e+00	0	35	0	1763704832	58	4178
2026-01-17 23:55:03.63	167.18	29.73	-43.8	-44.8	20.3	0.00e+00	0	35	0	1766850560	58	4224
2026-01-17 23:55:04.64	167.34	29.56	-43.9	-44.8	20.3	0.00e+00	0	35	0	1769996288	58	4234
2026-01-17 23:55:05.64	167.50	29.39	-43.9	-44.9	20.2	0.00e+00	0	35	0	1773142016	58	4267
2026-01-17 23:55:06.65	167.66	29.22	-43.8	-44.8	20.3	0.00e+00	0	35	0	1776287744	58	4196
2026-01-17 23:55:07.66	167.81	29.06	-43.9	-44.8	20.2	0.00e+00	0	35	0	1780482048	58	4230
2026-01-17 23:55:08.67	167.97	28.89	-43.8	-44.8	20.2	0.00e+00	0	35	0	1783627776	58	4200
2026-01-17 23:55:09.68	168.12	28.73	-43.8	-44.7	20.2	0.00e+00	0	35	0	1786773504	58	4187
2026-01-17 23:55:10.69	168.27	28.56	-43.9	-44.9	20.2	0.00e+00	0	35	0	1789919232	58	4248
2026-01-17 23:55:11.70	168.42	28.40	-43.7	-44.6	20.4	0.00e+00	0	35	0	1793064960	58	4121
2026-01-17 23:55:12.70	168.56	28.24	-43.7	-44.6	20.3	0.00e+00	0	35	0	1796210688	58	4121
2026-01-17 23:55:13.71	168.71	28.08	-43.7	-44.7	20.3	0.00e+00	0	35	0	1799356416	58	4152
2026-01-17 23:55:14.72	168.86	27.92	-43.6	-44.5	20.4	0.00e+00	0	35	0	1801453568	58	4073
2026-01-17 23:55:15.73	169.00	27.76	-43.6	-44.5	20.4	0.00e+00	0	35	0	1804599296	58	4090
2026-01-17 23:55:16.74	169.14	27.60	-43.6	-44.5	20.4	0.00e+00	0	35	0	1807745024	58	4098
2026-01-17 23:55:17.74	169.28	27.44	-43.6	-44.6	20.3	0.00e+00	0	35	0	1810890752	58	4110
2026-01-17 23:55:18.75	169.42	27.28	-43.5	-44.5	20.4	0.00e+00	0	35	0	1814036480	58	4066
2026-01-17 23:55:19.76	169.56	27.12	-43.7	-44.6	20.3	0.00e+00	0	35	0	1818230784	58	4120
2026-01-17 23:55:20.77	169.70	26.97	-43.6	-44.5	20.4	0.00e+00	0	35	0	1821376512	58	4096
2026-01-17 23:55:21.78	169.83	26.81	-43.6	-44.6	20.4	0.00e+00	0	35	0	1824522240	58	4110
2026-01-17 23:55:22.79	169.97	26.66	-43.5	-44.4	20.5	0.00e+00	0	35	0	1827667968	58	4030
2026-01-17 23:55:23.79	170.10	26.50	-43.5	-44.5	20.5	0.00e+00	0	35	0	1830813696	58	4057
2026-01-17 23:55:24.80	170.23	26.35	-43.4	-44.3	20.7	0.00e+00	0	35	0	1833959424	58	3974
2026-01-17 23:55:25.80	170.36	26.20	-43.3	-44.2	20.8	0.00e+00	0	35	0	1837105152	58	3929
2026-01-17 23:55:26.81	170.49	26.05	-43.3	-44.2	20.7	0.00e+00	0	35	0	1840250880	58	3939
2026-01-17 23:55:27.82	170.62	25.89	-43.1	-44.0	20.9	0.00e+00	0	35	0	1843396608	58	3858
2026-01-17 23:55:28.83	170.74	25.74	-43.1	-44.0	20.9	0.00e+00	0	35	0	1846542336	58	3840
2026-01-17 23:55:29.83	170.87	25.60	-43.1	-44.0	20.9	0.00e+00	0	35	0	1848639488	58	3859
2026-01-17 23:55:30.84	170.99	25.45	-43.1	-44.0	21.0	0.00e+00	0	35	0	1851785216	58	3840
2026-01-17 23:55:31.85	171.12	25.30	-43.1	-44.0	20.9	0.00e+00	0	35	0	1854930944	58	3855
2026-01-17 23:55:32.86	171.24	25.15	-42.9	-43.8	21.1	0.00e+00	0	35	0	1859125248	57	3987
2026-01-17 23:55:33.86	171.36	25.00	-43.0	-43.9	21.1	0.00e+00	0	35	0	1862270976	57	4017
2026-01-17 23:55:34.87	171.48	24.86	-43.0	-43.9	21.1	0.00e+00	0	35	0	1865416704	57	4007
2026-01-17 23:55:35.88	171.60	24.71	-43.0	-43.9	21.0	0.00e+00	0	35	0	1868562432	57	4029
2026-01-17 23:55:36.89	171.72	24.57	-43.1	-44.0	21.0	0.00e+00	0	35	0	1871708160	57	4064
2026-01-17 23:55:37.90	171.83	24.42	-43.1	-44.0	21.0	0.00e+00	0	35	0	1874853888	57	4063
2026-01-17 23:55:38.91	171.95	24.28	-43.1	-44.0	20.9	0.00e+00	0	35	0	1877999616	57	4070
2026-01-17 23:55:39.92	172.06	24.13	-43.0	-43.9	21.0	0.00e+00	0	35	0	1881145344	57	4044
2026-01-17 23:55:40.92	172.18	23.99	-42.9	-43.8	21.1	0.00e+00	0	35	0	1884291072	57	3998
2026-01-17 23:55:41.93	172.29	23.85	-42.9	-43.8	21.1	0.00e+00	0	35	0	1887436800	57	3995
2026-01-17 23:55:42.94	172.40	23.71	-43.0	-43.9	21.0	0.00e+00	0	35	0	1890582528	57	4014
2026-01-17 23:55:43.95	172.51	23.57	-43.0	-43.9	20.9	0.00e+00	0	35	0	1893728256	57	4045
2026-01-17 23:55:44.96	172.62	23.43	-43.1	-44.0	20.9	0.00e+00	0	35	0	1896873984	57	4062
2026-01-17 23:55:45.97	172.73	23.29	-43.2	-44.1	20.8	0.00e+00	0	35	0	1900019712	57	4122
2026-01-17 23:55:46.98	172.84	23.15	-43.2	-44.1	20.8	0.00e+00	0	35	0	1903165440	57	4109
2026-01-17 23:55:47.98	172.95	23.01	-43.2	-44.1	20.7	0.00e+00	0	35	0	1906311168	57	4129
2026-01-17 23:55:48.99	173.06	22.88	-43.2	-44.1	20.8	0.00e+00	0	35	0	1909456896	57	4126
2026-01-17 23:55:50.00	173.16	22.74	-43.2	-44.1	20.7	0.00e+00	0	35	0	1912602624	57	4139
2026-01-17 23:55:51.01	173.27	22.60	-43.3	-44.2	20.6	0.00e+00	0	35	0	1915748352	57	4168
2026-01-17 23:55:52.01	173.37	22.47	-43.2	-44.1	20.7	0.00e+00	0	35	0	1918894080	57	4145
2026-01-17 23:55:53.02	173.47	22.34	-43.2	-44.2	20.7	0.00e+00	0	35	0	1922039808	57	4162
2026-01-17 23:55:54.03	173.57	22.20	-43.2	-44.1	20.8	0.00e+00	0	35	0	1925185536	57	4116
2026-01-17 23:55:55.04	173.68	22.07	-43.2	-44.1	20.7	0.00e+00	0	35	0	1928331264	57	4137
2026-01-17 23:55:56.05	173.78	21.93	-43.1	-44.0	20.8	0.00e+00	0	35	0	1931476992	57	4093
2026-01-17 23:55:57.05	173.87	21.80	-43.2	-44.1	20.8	0.00e+00	0	35	0	1934622720	57	4120
2026-01-17 23:55:58.06	173.97	21.67	-43.2	-44.2	20.7	0.00e+00	0	35	0	1937768448	57	4154
2026-01-17 23:55:59.07	174.07	21.54	-43.2	-44.1	20.7	0.00e+00	0	35	0	1940914176	57	4133
2026-01-17 23:56:00.08	174.17	21.41	-43.1	-44.1	20.8	0.00e+00	0	35	0	1944059904	57	4103
2026-01-17 23:56:01.08	174.26	21.28	-43.2	-44.1	20.8	0.00e+00	0	35	0	1947205632	57	4135
2026-01-17 23:56:02.09	174.36	21.15	-43.2	-44.1	20.8	0.00e+00	0	35	0	1950351360	57	4108
2026-01-17 23:56:03.10	174.46	21.02	-43.1	-44.0	20.8	0.00e+00	0	35	0	1953497088	57	4084
2026-01-17 23:56:04.10	174.55	20.90	-43.2	-44.2	20.7	0.00e+00	0	35	0	1956642816	57	4153
2026-01-17 23:56:05.12	174.64	20.77	-43.3	-44.2	20.7	0.00e+00	0	35	0	1959788544	57	4170
2026-01-17 23:56:06.12	174.74	20.64	-43.2	-44.1	20.7	0.00e+00	0	35	0	1962934272	57	4136
2026-01-17 23:56:07.13	174.83	20.51	-43.2	-44.2	20.7	0.00e+00	0	35	0	1966080000	57	4158
2026-01-17 23:56:08.14	174.92	20.39	-43.2	-44.1	20.7	0.00e+00	0	35	0	1969225728	57	4137
2026-01-17 23:56:09.15	175.01	20.26	-43.2	-44.2	20.7	0.00e+00	0	35	0	1972371456	57	4158
2026-01-17 23:56:10.15	175.10	20.14	-43.3	-44.3	20.6	0.00e+00	0	35	0	1975517184	57	4200
2026-01-17 23:56:11.16	175.19	20.01	-43.3	-44.2	20.6	0.00e+00	0	35	0	1978662912	57	4173
2026-01-17 23:56:12.17	175.28	19.89	-43.3	-44.2	20.6	0.00e+00	0	35	0	1981808640	57	4177
2026-01-17 23:56:13.18	175.36	19.77	-43.3	-44.3	20.5	0.00e+00	0	35	0	1984954368	57	4215
2026-01-17 23:56:14.18	175.45	19.65	-43.4	-44.3	20.5	0.00e+00	0	35	0	1988100096	57	4224
2026-01-17 23:56:15.19	175.54	19.52	-43.4	-44.3	20.5	0.00e+00	0	35	0	1991245824	57	4233
2026-01-17 23:56:16.20	175.62	19.40	-43.4	-44.4	20.4	0.00e+00	0	35	0	1994391552	57	4249
2026-01-17 23:56:17.20	175.71	19.28	-43.4	-44.3	20.4	0.00e+00	0	35	0	1997537280	57	4240
2026-01-17 23:56:18.21	175.79	19.16	-43.4	-44.4	20.4	0.00e+00	0	35	0	2000683008	57	4270
2026-01-17 23:56:19.22	175.88	19.04	-43.4	-44.4	20.4	0.00e+00	0	35	0	2003828736	57	4254
2026-01-17 23:56:20.23	175.96	18.92	-43.5	-44.4	20.3	0.00e+00	0	35	0	2006974464	57	4287
2026-01-17 23:56:21.24	176.04	18.80	-43.4	-44.4	20.3	0.00e+00	0	35	0	2010120192	57	4268
2026-01-17 23:56:22.24	176.12	18.69	-43.6	-44.6	20.2	0.00e+00	0	35	0	2013265920	57	4345
2026-01-17 23:56:23.25	176.21	18.57	-43.6	-44.6	20.2	0.00e+00	0	35	0	2016411648	57	4341
2026-01-17 23:56:24.26	176.29	18.45	-43.6	-44.6	20.1	0.00e+00	0	35	0	2019557376	57	4377
2026-01-17 23:56:25.27	176.37	18.33	-43.7	-44.7	20.1	0.00e+00	0	35	0	2022703104	58	4187
2026-01-17 23:56:26.28	176.45	18.22	-43.7	-44.7	20.1	0.00e+00	0	35	0	2025848832	58	4169
2026-01-17 23:56:27.29	176.53	18.10	-43.7	-44.7	20.1	0.00e+00	0	35	0	2028994560	58	4180
2026-01-17 23:56:28.30	176.60	17.99	-43.7	-44.7	20.1	0.00e+00	0	35	0	2032140288	58	4175
2026-01-17 23:56:29.30	176.68	17.87	-43.8	-44.8	20.0	0.00e+00	0	35	0	2035286016	58	4200
2026-01-17 23:56:30.31	176.76	17.76	-43.8	-44.7	20.1	0.00e+00	0	35	0	2038431744	58	4188
2026-01-17 23:56:31.32	176.84	17.64	-43.6	-44.6	20.2	0.00e+00	0	35	0	2041577472	58	4128
2026-01-17 23:56:32.33	176.91	17.53	-43.7	-44.6	20.1	0.00e+00	0	35	0	2044723200	58	4141
2026-01-17 23:56:33.34	176.99	17.42	-43.6	-44.5	20.3	0.00e+00	0	35	0	2047868928	58	4082
2026-01-17 23:56:34.34	177.06	17.31	-43.5	-44.4	20.4	0.00e+00	0	35	0	2051014656	58	4032
2026-01-17 23:56:35.35	177.14	17.19	-43.6	-44.6	20.2	0.00e+00	0	35	0	2054160384	58	4101
2026-01-17 23:56:36.36	177.21	17.08	-43.8	-44.7	20.1	0.00e+00	0	35	0	2057306112	58	4190
2026-01-17 23:56:37.37	177.29	16.97	-43.9	-44.9	19.9	0.00e+00	0	35	0	2060451840	58	4255
2026-01-17 23:56:38.38	177.36	16.86	-44.0	-45.0	19.8	0.00e+00	0	35	0	2063597568	58	4322
2026-01-17 23:56:39.38	177.43	16.75	-44.0	-45.0	19.7	0.00e+00	0	35	0	2066743296	58	4337
2026-01-17 23:56:40.39	177.50	16.64	-44.0	-45.1	19.7	0.00e+00	0	35	0	2069889024	58	4341
2026-01-17 23:56:41.40	177.58	16.53	-44.0	-45.0	19.7	0.00e+00	0	35	0	2073034752	58	4332
2026-01-17 23:56:42.40	177.65	16.42	-44.0	-45.1	19.7	0.00e+00	0	35	0	2076180480	58	4351
2026-01-17 23:56:43.41	177.72	16.32	-44.0	-45.0	19.7	0.00e+00	0	35	0	2079326208	58	4331
2026-01-17 23:56:44.42	177.79	16.21	-44.1	-45.2	19.6	0.00e+00	0	35	0	2082471936	58	4398
2026-01-17 23:56:45.43	177.86	16.10	-44.1	-45.1	19.7	0.00e+00	0	35	0	2085617664	58	4388
2026-01-17 23:56:46.43	177.93	15.99	-44.2	-45.2	19.6	0.00e+00	0	35	0	2088763392	58	4441
2026-01-17 23:56:47.44	178.00	15.89	-44.2	-45.2	19.6	0.00e+00	0	35	0	2091909120	58	4435
2026-01-17 23:56:48.45	178.06	15.78	-44.2	-45.2	19.6	0.00e+00	0	35	0	2095054848	58	4422
2026-01-17 23:56:49.46	178.13	15.68	-44.2	-45.2	19.6	0.00e+00	0	35	0	2098200576	58	4433
2026-01-17 23:56:50.47	178.20	15.57	-44.2	-45.2	19.6	0.00e+00	0	35	0	2101346304	58	4434
2026-01-17 23:56:51.48	178.27	15.46	-44.2	-45.3	19.6	0.00e+00	0	35	0	2104492032	59	4218
2026-01-17 23:56:52.49	178.33	15.36	-44.2	-45.3	19.5	0.00e+00	0	35	0	2107637760	59	4228
