passes_logs/2026/01/17/R3.2S_Murmansk/R3.2S_Murmansk__20260117_045304_FENGYUN_3D_rec.log

#Pass ID: 20260117_045304_FENGYUN 3D
#Satellite: FENGYUN 3D
#Configuration: FENGYUN 3D
#almurnet v.1.7.20251203
#Start time: 2026-01-17 04:53:04

#Version: 2.2.20231116
#Station: R3.2S_Murmansk
#Location: 33.079688 lon 68.888172 lat
#TLE: 1 43010U 17072A   26015.99024095 -.00000189  00000+0 -67463-4 0  9996
#TLE: 2 43010  98.9932 347.8215 0002366 106.5594 253.5841 14.19694691423396

#Time	Az	El	Level	Level2	SNR	BER	BlckErr	Temp	State	Recorded	gain1	gain2
2026-01-17 04:53:04.53	36.79	1.98	-51.4	-63.3	3.8	8.46e-01	0	32	0	0	74	14179
2026-01-17 04:53:05.54	36.75	2.04	-51.4	-63.3	3.8	8.46e-01	0	32	104	0	73	14969
2026-01-17 04:53:06.55	36.70	2.10	-51.4	-63.3	3.8	8.47e-01	0	32	104	0	73	14913
2026-01-17 04:53:07.56	36.66	2.16	-51.4	-63.3	3.8	8.46e-01	0	32	104	0	73	14989
2026-01-17 04:53:08.57	36.62	2.22	-51.4	-63.2	3.8	8.46e-01	0	32	104	0	73	14814
2026-01-17 04:53:09.58	36.57	2.29	-51.4	-63.2	3.8	8.47e-01	0	32	104	0	73	14712
2026-01-17 04:53:10.59	36.53	2.35	-51.4	-63.2	3.8	8.46e-01	0	32	104	0	73	14767
2026-01-17 04:53:11.59	36.48	2.41	-51.4	-63.2	3.8	8.45e-01	0	32	104	0	73	14838
2026-01-17 04:53:12.60	36.44	2.47	-51.4	-63.2	3.8	8.46e-01	0	32	104	0	73	14871
2026-01-17 04:53:13.61	36.40	2.53	-51.4	-63.3	3.8	8.46e-01	0	32	104	0	73	14978
2026-01-17 04:53:14.62	36.35	2.60	-51.4	-63.3	3.8	8.47e-01	0	32	104	0	73	15008
2026-01-17 04:53:15.62	36.31	2.66	-51.4	-63.3	3.8	8.46e-01	0	32	104	0	73	14895
2026-01-17 04:53:16.63	36.26	2.72	-51.4	-63.3	3.8	8.46e-01	0	32	104	0	73	14984
2026-01-17 04:53:17.64	36.22	2.78	-51.4	-63.2	3.8	8.46e-01	0	32	104	0	73	14861
2026-01-17 04:53:18.65	36.17	2.85	-51.4	-63.2	3.8	8.45e-01	0	32	104	0	73	14815
2026-01-17 04:53:19.66	36.12	2.91	-51.4	-63.2	3.8	8.47e-01	0	32	104	0	73	14832
2026-01-17 04:53:20.66	36.08	2.97	-51.4	-63.2	3.8	8.46e-01	0	32	104	0	73	14796
2026-01-17 04:53:21.67	36.03	3.03	-51.4	-63.2	3.8	8.46e-01	0	32	104	0	73	14736
2026-01-17 04:53:22.68	35.99	3.10	-51.4	-63.2	3.8	8.46e-01	0	32	104	0	73	14808
2026-01-17 04:53:23.69	35.94	3.16	-51.4	-63.1	3.8	8.46e-01	0	32	104	0	73	14696
2026-01-17 04:53:24.70	35.89	3.23	-51.4	-63.1	3.8	8.46e-01	0	32	104	0	73	14683
2026-01-17 04:53:25.70	35.84	3.29	-51.3	-63.1	3.8	8.46e-01	0	32	104	0	73	14578
2026-01-17 04:53:26.71	35.80	3.35	-51.3	-62.8	3.8	8.46e-01	0	33	104	0	73	14127
2026-01-17 04:53:27.72	35.75	3.42	-51.3	-62.6	3.8	8.45e-01	0	33	104	0	73	13802
2026-01-17 04:53:28.73	35.70	3.48	-51.3	-62.2	3.8	8.45e-01	0	32	104	0	73	13167
2026-01-17 04:53:29.74	35.65	3.54	-51.2	-61.7	3.8	8.46e-01	0	33	104	0	73	12519
2026-01-17 04:53:30.75	35.61	3.61	-51.3	-62.1	3.8	8.47e-01	0	33	104	0	73	13027
2026-01-17 04:53:31.76	35.56	3.67	-51.2	-62.0	3.8	8.46e-01	0	33	104	0	73	12879
2026-01-17 04:53:32.77	35.51	3.74	-51.2	-61.6	3.8	8.46e-01	0	33	104	0	73	12317
2026-01-17 04:53:33.78	35.46	3.80	-51.1	-60.8	4.0	8.44e-01	0	33	104	0	73	11205
2026-01-17 04:53:34.79	35.41	3.87	-51.0	-60.0	4.1	8.40e-01	0	33	0	0	73	10263
2026-01-17 04:53:35.80	35.36	3.93	-50.9	-59.3	4.3	8.37e-01	0	33	0	0	73	9437
2026-01-17 04:53:36.81	35.31	4.00	-50.7	-58.0	4.8	8.22e-01	0	33	0	0	73	8120
2026-01-17 04:53:37.82	35.26	4.06	-50.4	-56.8	5.6	6.15e-01	0	33	0	1048576	72	7508
2026-01-17 04:53:38.83	35.21	4.13	-50.2	-55.8	6.3	3.34e-01	0	33	0	5242880	72	6666
2026-01-17 04:53:39.84	35.16	4.19	-49.9	-54.8	7.2	1.80e-01	0	33	0	11534336	71	6336
2026-01-17 04:53:40.85	35.11	4.26	-49.2	-53.2	8.9	7.75e-02	0	33	0	16777216	70	5555
2026-01-17 04:53:41.85	35.06	4.33	-49.5	-54.0	8.1	3.24e-02	0	33	0	23068672	70	6076
2026-01-17 04:53:42.86	35.01	4.39	-49.4	-53.5	8.6	4.13e-02	0	33	0	28311552	70	5780
2026-01-17 04:53:43.87	34.96	4.46	-48.7	-52.2	10.0	2.67e-02	0	33	0	33554432	69	5224
2026-01-17 04:53:44.88	34.91	4.52	-48.9	-52.6	9.5	1.39e-02	0	33	0	39845888	69	5506
2026-01-17 04:53:45.89	34.85	4.59	-48.9	-52.5	9.6	1.56e-02	0	33	0	45088768	69	5458
2026-01-17 04:53:46.90	34.80	4.66	-49.0	-52.8	9.4	1.44e-02	0	33	0	51380224	69	5600
2026-01-17 04:53:47.91	34.75	4.72	-49.2	-53.2	8.9	2.32e-02	0	33	0	56623104	69	5888
2026-01-17 04:53:48.91	34.70	4.79	-49.3	-53.4	8.7	2.14e-02	0	33	0	61865984	69	6049
2026-01-17 04:53:49.92	34.64	4.86	-49.4	-53.7	8.3	6.92e-02	0	33	0	68157440	69	6259
2026-01-17 04:53:50.93	34.59	4.92	-49.9	-55.0	7.2	1.47e-01	0	33	0	74448896	70	6825
2026-01-17 04:53:51.94	34.54	4.99	-49.9	-54.8	7.3	1.38e-01	0	33	0	79691776	70	6713
2026-01-17 04:53:52.95	34.48	5.06	-50.3	-56.2	6.1	2.69e-01	0	33	0	84934656	71	7435
2026-01-17 04:53:53.96	34.43	5.13	-49.5	-53.4	9.0	4.97e-02	0	33	0	91226112	71	5351
2026-01-17 04:53:54.97	34.38	5.19	-49.2	-52.9	9.6	7.66e-03	0	33	0	96468992	69	5675
2026-01-17 04:53:55.98	34.32	5.26	-51.2	-62.1	3.8	7.85e-01	0	33	104	100663296	72	13868
2026-01-17 04:53:56.98	34.27	5.33	-45.9	-47.5	14.9	6.92e-01	0	33	104	100663296	63	4308
2026-01-17 04:53:57.99	34.21	5.40	-51.0	-58.6	4.8	6.14e-01	0	33	0	103809024	72	9175
2026-01-17 04:53:59.00	34.16	5.46	-45.4	-46.9	15.9	2.83e-03	0	33	0	108003328	62	4285
2026-01-17 04:54:00.01	34.10	5.53	-45.4	-46.9	16.0	0.00e+00	0	33	0	113246208	62	4286
2026-01-17 04:54:01.02	34.04	5.60	-45.1	-46.6	16.4	0.00e+00	0	33	0	118489088	62	4108
2026-01-17 04:54:02.03	33.99	5.67	-44.7	-46.0	16.9	0.00e+00	0	33	0	124780544	61	4095
2026-01-17 04:54:03.04	33.93	5.74	-44.4	-45.7	17.3	0.00e+00	0	33	0	131072000	60	4170
2026-01-17 04:54:04.05	33.87	5.81	-44.5	-45.9	17.1	0.00e+00	0	33	0	136314880	60	4250
2026-01-17 04:54:05.06	33.82	5.88	-44.3	-45.6	17.5	0.00e+00	0	33	0	141557760	60	4117
2026-01-17 04:54:06.07	33.76	5.95	-44.3	-45.5	17.6	0.00e+00	0	33	0	147849216	60	4085
2026-01-17 04:54:07.07	33.70	6.02	-44.1	-45.3	18.2	0.00e+00	0	33	0	153092096	59	4207
2026-01-17 04:54:08.08	33.65	6.09	-43.9	-45.1	18.3	0.00e+00	0	33	0	158334976	59	4113
2026-01-17 04:54:09.09	33.59	6.16	-43.8	-45.0	18.4	0.00e+00	0	33	0	164626432	59	4075
2026-01-17 04:54:10.10	33.53	6.23	-44.0	-45.2	18.2	0.00e+00	0	33	0	169869312	59	4170
2026-01-17 04:54:11.11	33.47	6.30	-44.0	-45.2	18.2	0.00e+00	0	33	0	175112192	59	4189
2026-01-17 04:54:12.12	33.41	6.37	-43.9	-45.1	18.3	0.00e+00	0	33	0	181403648	59	4130
2026-01-17 04:54:13.13	33.35	6.44	-43.8	-44.9	18.5	0.00e+00	0	34	0	186646528	59	4049
2026-01-17 04:54:14.13	33.29	6.51	-43.9	-45.0	18.5	0.00e+00	0	33	0	192937984	59	4081
2026-01-17 04:54:15.14	33.23	6.58	-44.0	-45.2	18.3	0.00e+00	0	33	0	198180864	59	4181
2026-01-17 04:54:16.15	33.17	6.65	-43.8	-44.9	18.6	0.00e+00	0	34	0	204472320	59	4033
2026-01-17 04:54:17.16	33.11	6.72	-43.4	-44.5	19.0	0.00e+00	0	33	0	209715200	58	4094
2026-01-17 04:54:18.17	33.05	6.79	-43.8	-45.0	18.6	0.00e+00	0	33	0	216006656	58	4313
2026-01-17 04:54:19.18	32.99	6.86	-43.6	-44.8	18.8	0.00e+00	0	33	0	221249536	58	4215
2026-01-17 04:54:20.18	32.93	6.93	-43.9	-45.1	18.4	0.00e+00	0	33	0	226492416	58	4371
2026-01-17 04:54:21.19	32.87	7.00	-44.1	-45.3	18.2	0.00e+00	0	33	0	232783872	58	4456
2026-01-17 04:54:22.20	32.80	7.08	-44.0	-45.2	18.3	0.00e+00	0	33	0	238026752	58	4422
2026-01-17 04:54:23.21	32.74	7.15	-43.9	-45.1	18.5	0.00e+00	0	34	0	243269632	58	4351
2026-01-17 04:54:24.22	32.68	7.22	-43.9	-45.1	18.5	0.00e+00	0	33	0	249561088	58	4367
2026-01-17 04:54:25.23	32.61	7.29	-44.0	-45.2	18.4	0.00e+00	0	33	0	254803968	58	4399
2026-01-17 04:54:26.24	32.55	7.37	-44.0	-45.2	18.4	0.00e+00	0	33	0	261095424	58	4423
2026-01-17 04:54:27.25	32.49	7.44	-43.9	-45.1	18.5	0.00e+00	0	33	0	266338304	58	4365
2026-01-17 04:54:28.26	32.42	7.51	-44.0	-45.2	18.4	0.00e+00	0	33	0	272629760	58	4395
2026-01-17 04:54:29.27	32.36	7.58	-43.7	-44.9	18.8	0.00e+00	0	33	0	277872640	58	4254
2026-01-17 04:54:30.28	32.29	7.66	-43.7	-44.9	18.7	0.00e+00	0	33	0	283115520	58	4244
2026-01-17 04:54:31.28	32.23	7.73	-43.4	-44.5	19.2	0.00e+00	0	34	0	289406976	58	4057
2026-01-17 04:54:32.29	32.16	7.80	-43.4	-44.5	19.1	0.00e+00	0	33	0	294649856	58	4083
2026-01-17 04:54:33.30	32.10	7.88	-43.6	-44.7	19.0	0.00e+00	0	34	0	300941312	58	4171
2026-01-17 04:54:34.31	32.03	7.95	-43.5	-44.6	19.0	0.00e+00	0	34	0	306184192	58	4124
2026-01-17 04:54:35.32	31.96	8.03	-43.6	-44.8	18.9	0.00e+00	0	34	0	311427072	58	4198
2026-01-17 04:54:36.33	31.90	8.10	-43.4	-44.4	19.2	0.00e+00	0	33	0	317718528	58	4040
2026-01-17 04:54:37.34	31.83	8.18	-43.4	-44.4	19.2	0.00e+00	0	34	0	324009984	58	4043
2026-01-17 04:54:38.35	31.76	8.25	-43.2	-44.3	19.4	0.00e+00	0	33	0	329252864	58	3969
2026-01-17 04:54:39.36	31.69	8.33	-43.3	-44.4	19.3	0.00e+00	0	34	0	334495744	58	4024
2026-01-17 04:54:40.37	31.62	8.40	-43.2	-44.2	19.5	0.00e+00	0	34	0	340787200	58	3941
2026-01-17 04:54:41.37	31.56	8.47	-43.1	-44.2	19.5	0.00e+00	0	34	0	346030080	58	3915
2026-01-17 04:54:42.38	31.49	8.55	-43.1	-44.1	19.5	0.00e+00	0	34	0	351272960	58	3899
2026-01-17 04:54:43.39	31.42	8.63	-43.4	-44.4	19.3	0.00e+00	0	34	0	357564416	58	4051
2026-01-17 04:54:44.40	31.35	8.70	-43.2	-44.3	19.4	0.00e+00	0	34	0	362807296	58	3961
2026-01-17 04:54:45.41	31.28	8.78	-43.1	-44.1	19.6	0.00e+00	0	34	0	368050176	58	3884
2026-01-17 04:54:46.42	31.21	8.85	-42.9	-43.9	19.8	0.00e+00	0	34	0	374341632	57	4031
2026-01-17 04:54:47.43	31.13	8.93	-42.9	-43.9	19.8	0.00e+00	0	34	0	379584512	57	4026
2026-01-17 04:54:48.44	31.06	9.01	-42.9	-43.9	19.8	0.00e+00	0	34	0	385875968	57	4012
2026-01-17 04:54:49.45	30.99	9.08	-42.7	-43.6	20.0	0.00e+00	0	34	0	391118848	57	3908
2026-01-17 04:54:50.45	30.92	9.16	-42.9	-43.9	19.8	0.00e+00	0	34	0	397410304	57	4031
2026-01-17 04:54:51.46	30.85	9.24	-42.8	-43.8	19.9	0.00e+00	0	34	0	402653184	57	3986
2026-01-17 04:54:52.47	30.77	9.31	-42.8	-43.8	19.9	0.00e+00	0	34	0	408944640	57	3993
2026-01-17 04:54:53.48	30.70	9.39	-43.0	-44.0	19.7	0.00e+00	0	34	0	414187520	57	4079
2026-01-17 04:54:54.49	30.63	9.47	-43.1	-44.1	19.6	0.00e+00	0	34	0	419430400	57	4129
2026-01-17 04:54:55.50	30.55	9.55	-42.9	-43.9	19.8	0.00e+00	0	34	0	425721856	57	4046
2026-01-17 04:54:56.51	30.48	9.63	-42.8	-43.8	19.9	0.00e+00	0	34	0	430964736	57	3989
2026-01-17 04:54:57.52	30.40	9.70	-42.9	-43.9	19.8	0.00e+00	0	34	0	436207616	57	4033
2026-01-17 04:54:58.53	30.32	9.78	-43.0	-44.0	19.8	0.00e+00	0	34	0	442499072	57	4058
2026-01-17 04:54:59.53	30.25	9.86	-42.8	-43.8	20.0	0.00e+00	0	34	0	448790528	57	3972
2026-01-17 04:55:00.54	30.17	9.94	-42.8	-43.8	20.0	0.00e+00	0	34	0	454033408	57	3963
2026-01-17 04:55:01.55	30.10	10.02	-42.8	-43.8	20.0	0.00e+00	0	34	0	459276288	57	3985
2026-01-17 04:55:02.56	30.02	10.10	-42.9	-43.9	19.9	0.00e+00	0	34	0	465567744	57	4011
2026-01-17 04:55:03.57	29.94	10.18	-42.9	-43.9	19.9	0.00e+00	0	34	0	470810624	57	4039
2026-01-17 04:55:04.58	29.86	10.26	-43.0	-44.0	19.8	0.00e+00	0	34	0	476053504	57	4093
2026-01-17 04:55:05.59	29.78	10.34	-42.8	-43.8	20.0	0.00e+00	0	34	0	482344960	57	3987
2026-01-17 04:55:06.60	29.70	10.42	-42.9	-43.9	20.0	0.00e+00	0	34	0	487587840	57	4011
2026-01-17 04:55:07.61	29.62	10.50	-42.8	-43.8	20.1	0.00e+00	0	34	0	493879296	57	3962
2026-01-17 04:55:08.62	29.54	10.58	-42.6	-43.5	20.3	0.00e+00	0	34	0	499122176	57	3856
2026-01-17 04:55:09.63	29.46	10.66	-42.7	-43.7	20.1	0.00e+00	0	34	0	504365056	57	3932
2026-01-17 04:55:10.64	29.38	10.74	-42.6	-43.6	20.3	0.00e+00	0	34	0	510656512	57	3870
2026-01-17 04:55:11.64	29.30	10.82	-42.5	-43.5	20.4	0.00e+00	0	34	0	516947968	57	3826
2026-01-17 04:55:12.65	29.22	10.90	-42.7	-43.7	20.2	0.00e+00	0	34	0	522190848	57	3919
2026-01-17 04:55:13.66	29.14	10.98	-42.6	-43.6	20.3	0.00e+00	0	34	0	527433728	57	3879
2026-01-17 04:55:14.67	29.05	11.06	-42.6	-43.6	20.3	0.00e+00	0	34	0	533725184	57	3885
2026-01-17 04:55:15.68	28.97	11.15	-42.8	-43.7	20.1	0.00e+00	0	34	0	538968064	57	3956
2026-01-17 04:55:16.69	28.89	11.23	-42.6	-43.6	20.2	0.00e+00	0	34	0	544210944	57	3891
2026-01-17 04:55:17.70	28.80	11.31	-42.4	-43.4	20.5	0.00e+00	0	34	0	550502400	56	4025
2026-01-17 04:55:18.71	28.72	11.39	-42.6	-43.5	20.3	0.00e+00	0	34	0	555745280	56	4083
2026-01-17 04:55:19.72	28.63	11.48	-42.6	-43.6	20.3	0.00e+00	0	34	0	560988160	56	4112
2026-01-17 04:55:20.73	28.55	11.56	-42.5	-43.5	20.4	0.00e+00	0	34	0	567279616	56	4076
2026-01-17 04:55:21.74	28.46	11.64	-42.5	-43.5	20.4	0.00e+00	0	34	0	573571072	56	4080
2026-01-17 04:55:22.74	28.37	11.73	-42.6	-43.6	20.3	0.00e+00	0	34	0	578813952	56	4107
2026-01-17 04:55:23.75	28.28	11.81	-42.5	-43.5	20.4	0.00e+00	0	34	0	584056832	56	4068
2026-01-17 04:55:24.76	28.20	11.89	-42.3	-43.3	20.6	0.00e+00	0	34	0	590348288	56	3974
2026-01-17 04:55:25.77	28.11	11.98	-42.3	-43.2	20.7	0.00e+00	0	34	0	595591168	56	3935
2026-01-17 04:55:26.78	28.02	12.06	-42.3	-43.3	20.6	0.00e+00	0	34	0	601882624	56	3972
2026-01-17 04:55:27.79	27.93	12.15	-42.2	-43.1	20.7	0.00e+00	0	34	0	607125504	56	3908
2026-01-17 04:55:28.80	27.84	12.23	-42.2	-43.1	20.8	0.00e+00	0	34	0	612368384	56	3889
2026-01-17 04:55:29.80	27.75	12.32	-42.2	-43.1	20.8	0.00e+00	0	34	0	618659840	56	3881
2026-01-17 04:55:30.81	27.66	12.40	-42.2	-43.1	20.8	0.00e+00	0	34	0	623902720	56	3894
2026-01-17 04:55:31.82	27.57	12.49	-42.2	-43.2	20.7	0.00e+00	0	34	0	629145600	56	3914
2026-01-17 04:55:32.83	27.47	12.57	-42.1	-43.0	20.9	0.00e+00	0	34	0	635437056	56	3840
2026-01-17 04:55:33.84	27.38	12.66	-42.1	-43.1	20.8	0.00e+00	0	34	0	641728512	56	3871
2026-01-17 04:55:34.85	27.29	12.74	-42.0	-42.9	21.0	0.00e+00	0	34	0	646971392	56	3812
2026-01-17 04:55:35.86	27.19	12.83	-42.1	-43.0	20.9	0.00e+00	0	34	0	652214272	56	3835
2026-01-17 04:55:36.87	27.10	12.92	-42.2	-43.1	20.8	0.00e+00	0	34	0	658505728	56	3889
2026-01-17 04:55:37.87	27.00	13.00	-41.8	-42.7	21.1	0.00e+00	0	34	0	663748608	55	3949
2026-01-17 04:55:38.89	26.91	13.09	-41.8	-42.6	21.2	0.00e+00	0	34	0	668991488	55	3910
2026-01-17 04:55:39.89	26.81	13.18	-41.8	-42.7	21.1	0.00e+00	0	34	0	675282944	55	3951
2026-01-17 04:55:40.90	26.72	13.26	-41.9	-42.8	21.0	0.00e+00	0	34	0	680525824	55	3965
2026-01-17 04:55:41.91	26.62	13.35	-41.7	-42.6	21.2	0.00e+00	0	34	0	686817280	55	3879
2026-01-17 04:55:42.92	26.52	13.44	-41.8	-42.7	21.1	0.00e+00	0	34	0	692060160	55	3928
2026-01-17 04:55:43.93	26.42	13.53	-41.7	-42.6	21.2	0.00e+00	0	34	0	698351616	55	3883
2026-01-17 04:55:44.94	26.32	13.62	-41.7	-42.5	21.3	0.00e+00	0	34	0	703594496	55	3861
2026-01-17 04:55:45.95	26.22	13.71	-41.7	-42.6	21.2	0.00e+00	0	34	0	709885952	55	3879
2026-01-17 04:55:46.96	26.12	13.79	-41.7	-42.6	21.3	0.00e+00	0	34	0	715128832	55	3869
2026-01-17 04:55:47.97	26.02	13.88	-41.7	-42.6	21.3	0.00e+00	0	34	0	720371712	55	3870
2026-01-17 04:55:48.98	25.92	13.97	-41.7	-42.6	21.2	0.00e+00	0	34	0	726663168	55	3892
2026-01-17 04:55:49.98	25.82	14.06	-41.8	-42.7	21.1	0.00e+00	0	34	0	731906048	55	3918
2026-01-17 04:55:50.99	25.71	14.15	-41.7	-42.6	21.2	0.00e+00	0	34	0	737148928	55	3905
2026-01-17 04:55:52.00	25.61	14.24	-41.8	-42.7	21.1	0.00e+00	0	34	0	743440384	55	3937
2026-01-17 04:55:53.01	25.50	14.33	-41.8	-42.7	21.2	0.00e+00	0	34	0	748683264	55	3926
2026-01-17 04:55:54.02	25.40	14.42	-41.8	-42.7	21.2	0.00e+00	0	34	0	753926144	55	3935
2026-01-17 04:55:55.02	25.29	14.51	-41.7	-42.6	21.3	0.00e+00	0	34	0	760217600	55	3888
2026-01-17 04:55:56.03	25.19	14.60	-41.7	-42.6	21.3	0.00e+00	0	34	0	766509056	55	3891
2026-01-17 04:55:57.04	25.08	14.70	-41.8	-42.6	21.2	0.00e+00	0	34	0	771751936	55	3909
2026-01-17 04:55:58.05	24.97	14.79	-41.6	-42.4	21.4	0.00e+00	0	34	0	776994816	55	3821
2026-01-17 04:55:59.06	24.86	14.88	-41.6	-42.5	21.4	0.00e+00	0	34	0	783286272	55	3843
2026-01-17 04:56:00.07	24.75	14.97	-41.7	-42.6	21.3	0.00e+00	0	34	0	788529152	55	3879
2026-01-17 04:56:01.08	24.65	15.06	-41.8	-42.6	21.3	0.00e+00	0	34	0	794820608	55	3910
2026-01-17 04:56:02.09	24.53	15.16	-41.5	-42.4	21.5	0.00e+00	0	34	0	800063488	55	3799
2026-01-17 04:56:03.10	24.42	15.25	-41.4	-42.3	21.6	0.00e+00	0	34	0	805306368	54	3990
2026-01-17 04:56:04.10	24.31	15.34	-41.6	-42.4	21.4	0.00e+00	0	34	0	811597824	54	4047
2026-01-17 04:56:05.11	24.20	15.43	-41.4	-42.3	21.6	0.00e+00	0	34	0	816840704	54	3975
2026-01-17 04:56:06.12	24.09	15.53	-41.4	-42.3	21.6	0.00e+00	0	34	0	822083584	54	3981
2026-01-17 04:56:07.13	23.97	15.62	-41.4	-42.3	21.6	0.00e+00	0	34	0	828375040	54	3961
2026-01-17 04:56:08.14	23.86	15.71	-41.2	-42.1	21.8	0.00e+00	0	34	0	834666496	54	3891
2026-01-17 04:56:09.14	23.74	15.81	-41.4	-42.2	21.7	0.00e+00	0	34	0	839909376	54	3939
2026-01-17 04:56:10.15	23.63	15.90	-41.2	-42.0	21.9	0.00e+00	0	34	0	845152256	54	3850
2026-01-17 04:56:11.16	23.51	16.00	-41.1	-41.9	22.0	0.00e+00	0	34	0	851443712	54	3798
2026-01-17 04:56:12.17	23.39	16.09	-41.1	-41.9	22.0	0.00e+00	0	34	0	856686592	54	3801
2026-01-17 04:56:13.17	23.27	16.19	-41.0	-41.8	22.1	0.00e+00	0	34	0	861929472	54	3769
2026-01-17 04:56:14.18	23.15	16.28	-41.0	-41.8	22.1	0.00e+00	0	34	0	868220928	54	3763
2026-01-17 04:56:15.19	23.03	16.38	-41.0	-41.8	22.1	0.00e+00	0	34	0	873463808	54	3759
2026-01-17 04:56:16.20	22.91	16.47	-41.0	-41.9	22.0	0.00e+00	0	34	0	879755264	54	3794
2026-01-17 04:56:17.21	22.79	16.57	-41.0	-41.8	22.1	0.00e+00	0	34	0	884998144	53	3979
2026-01-17 04:56:18.22	22.67	16.66	-40.9	-41.7	22.2	0.00e+00	0	34	0	890241024	53	3926
2026-01-17 04:56:19.23	22.54	16.76	-40.9	-41.7	22.2	0.00e+00	0	34	0	896532480	53	3932
2026-01-17 04:56:20.24	22.42	16.86	-40.9	-41.7	22.2	0.00e+00	0	34	0	902823936	53	3928
2026-01-17 04:56:21.24	22.29	16.95	-40.9	-41.7	22.2	0.00e+00	0	34	0	908066816	53	3933
2026-01-17 04:56:22.25	22.17	17.05	-40.9	-41.7	22.2	0.00e+00	0	34	0	913309696	53	3942
2026-01-17 04:56:23.26	22.04	17.15	-40.9	-41.7	22.2	0.00e+00	0	34	0	919601152	53	3951
2026-01-17 04:56:24.27	21.91	17.25	-41.0	-41.8	22.1	0.00e+00	0	34	0	924844032	53	3983
2026-01-17 04:56:25.28	21.79	17.35	-41.0	-41.9	22.1	0.00e+00	0	34	0	930086912	53	4011
2026-01-17 04:56:26.29	21.66	17.44	-41.1	-41.9	22.0	0.00e+00	0	34	0	936378368	53	4033
2026-01-17 04:56:27.30	21.53	17.54	-41.0	-41.9	22.1	0.00e+00	0	34	0	941621248	53	4009
2026-01-17 04:56:28.31	21.39	17.64	-41.0	-41.9	22.1	0.00e+00	0	34	0	946864128	53	4021
2026-01-17 04:56:29.32	21.26	17.74	-41.0	-41.8	22.1	0.00e+00	0	34	0	953155584	53	4003
2026-01-17 04:56:30.32	21.13	17.84	-40.9	-41.7	22.2	0.00e+00	0	34	0	958398464	53	3927
2026-01-17 04:56:31.33	21.00	17.94	-40.9	-41.8	22.2	0.00e+00	0	34	0	964689920	53	3961
2026-01-17 04:56:32.34	20.86	18.04	-40.8	-41.6	22.3	0.00e+00	0	34	0	969932800	53	3899
2026-01-17 04:56:33.35	20.73	18.14	-40.8	-41.6	22.3	0.00e+00	0	34	0	976224256	53	3912
2026-01-17 04:56:34.36	20.59	18.24	-40.7	-41.5	22.4	0.00e+00	0	34	0	981467136	53	3860
2026-01-17 04:56:35.37	20.45	18.34	-40.6	-41.4	22.5	0.00e+00	0	34	0	987758592	53	3803
2026-01-17 04:56:36.37	20.32	18.44	-40.6	-41.4	22.5	0.00e+00	0	34	0	993001472	53	3824
2026-01-17 04:56:37.38	20.18	18.54	-40.6	-41.4	22.5	0.00e+00	0	34	0	998244352	53	3798
2026-01-17 04:56:38.39	20.04	18.64	-40.5	-41.3	22.6	0.00e+00	0	34	0	1004535808	53	3772
2026-01-17 04:56:39.40	19.89	18.74	-40.6	-41.4	22.6	0.00e+00	0	34	0	1009778688	53	3781
2026-01-17 04:56:40.41	19.75	18.84	-40.7	-41.5	22.5	0.00e+00	0	34	0	1015021568	53	3837
2026-01-17 04:56:41.42	19.61	18.94	-40.7	-41.5	22.5	0.00e+00	0	34	0	1021313024	53	3835
2026-01-17 04:56:42.43	19.47	19.05	-40.6	-41.4	22.6	0.00e+00	0	34	0	1026555904	53	3803
2026-01-17 04:56:43.43	19.32	19.15	-40.6	-41.4	22.5	0.00e+00	0	34	0	1032847360	53	3818
2026-01-17 04:56:44.44	19.18	19.25	-40.6	-41.4	22.6	0.00e+00	0	34	0	1038090240	53	3800
2026-01-17 04:56:45.45	19.03	19.35	-40.6	-41.4	22.5	0.00e+00	0	34	0	1044381696	53	3818
2026-01-17 04:56:46.46	18.88	19.46	-40.6	-41.3	22.6	0.00e+00	0	34	0	1049624576	53	3778
2026-01-17 04:56:47.47	18.73	19.56	-40.4	-41.2	22.8	0.00e+00	0	34	0	1054867456	52	3914
2026-01-17 04:56:48.48	18.58	19.66	-40.4	-41.2	22.8	0.00e+00	0	34	0	1061158912	52	3914
2026-01-17 04:56:49.49	18.43	19.77	-40.3	-41.1	22.8	0.00e+00	0	34	0	1066401792	52	3887
2026-01-17 04:56:50.50	18.28	19.87	-40.2	-41.0	22.9	0.00e+00	0	34	0	1072693248	52	3855
2026-01-17 04:56:51.50	18.12	19.97	-40.2	-41.0	22.9	0.00e+00	0	34	0	1077936128	52	3847
2026-01-17 04:56:52.51	17.97	20.08	-40.3	-41.1	22.9	0.00e+00	0	34	0	1083179008	52	3879
2026-01-17 04:56:53.52	17.81	20.18	-40.2	-41.0	22.9	0.00e+00	0	34	0	1089470464	52	3854
2026-01-17 04:56:54.53	17.66	20.29	-40.3	-41.1	22.9	0.00e+00	0	34	0	1094713344	52	3870
2026-01-17 04:56:55.54	17.50	20.39	-40.2	-41.0	23.0	0.00e+00	0	34	0	1101004800	52	3836
2026-01-17 04:56:56.54	17.34	20.50	-40.3	-41.0	22.9	0.00e+00	0	34	0	1106247680	52	3867
2026-01-17 04:56:57.55	17.18	20.60	-40.2	-41.0	23.0	0.00e+00	0	34	0	1112539136	52	3832
2026-01-17 04:56:58.56	17.02	20.71	-40.1	-40.9	23.0	0.00e+00	0	34	0	1117782016	52	3806
2026-01-17 04:56:59.57	16.86	20.81	-40.1	-40.9	23.1	0.00e+00	0	34	0	1123024896	52	3784
2026-01-17 04:57:00.58	16.70	20.92	-40.1	-40.9	23.1	0.00e+00	0	34	0	1129316352	52	3781
2026-01-17 04:57:01.59	16.53	21.02	-39.9	-40.7	23.3	0.00e+00	0	34	0	1134559232	51	3939
2026-01-17 04:57:02.60	16.37	21.13	-39.9	-40.7	23.3	0.00e+00	0	34	0	1139802112	51	3942
2026-01-17 04:57:03.61	16.20	21.24	-39.9	-40.7	23.4	0.00e+00	0	34	0	1146093568	51	3930
2026-01-17 04:57:04.62	16.03	21.34	-39.9	-40.6	23.4	0.00e+00	0	34	0	1151336448	51	3902
2026-01-17 04:57:05.63	15.86	21.45	-39.8	-40.6	23.5	0.00e+00	0	34	0	1157627904	51	3878
2026-01-17 04:57:06.63	15.69	21.56	-39.7	-40.5	23.5	0.00e+00	0	34	0	1162870784	51	3849
2026-01-17 04:57:07.64	15.52	21.66	-39.8	-40.5	23.5	0.00e+00	0	34	0	1169162240	51	3865
2026-01-17 04:57:08.65	15.35	21.77	-39.8	-40.6	23.4	0.00e+00	0	34	0	1174405120	51	3889
2026-01-17 04:57:09.66	15.17	21.88	-39.9	-40.6	23.4	0.00e+00	0	34	0	1180696576	51	3904
2026-01-17 04:57:10.67	15.00	21.99	-40.0	-40.8	23.3	0.00e+00	0	34	0	1185939456	51	3975
2026-01-17 04:57:11.68	14.82	22.09	-39.9	-40.6	23.4	0.00e+00	0	34	0	1191182336	51	3902
2026-01-17 04:57:12.69	14.65	22.20	-39.8	-40.6	23.5	0.00e+00	0	34	0	1197473792	51	3876
2026-01-17 04:57:13.70	14.47	22.31	-39.7	-40.5	23.5	0.00e+00	0	34	0	1202716672	51	3845
2026-01-17 04:57:14.70	14.29	22.42	-39.8	-40.6	23.5	0.00e+00	0	34	0	1207959552	51	3870
2026-01-17 04:57:15.71	14.11	22.53	-39.6	-40.4	23.6	0.00e+00	0	34	0	1214251008	51	3797
2026-01-17 04:57:16.72	13.92	22.63	-39.5	-40.3	23.8	0.00e+00	0	34	0	1219493888	51	3752
2026-01-17 04:57:17.73	13.74	22.74	-39.7	-40.4	23.6	0.00e+00	0	34	0	1224736768	51	3823
2026-01-17 04:57:18.74	13.55	22.85	-39.7	-40.5	23.6	0.00e+00	0	34	0	1231028224	51	3844
2026-01-17 04:57:19.74	13.37	22.96	-39.7	-40.5	23.6	0.00e+00	0	34	0	1237319680	51	3836
2026-01-17 04:57:20.75	13.18	23.07	-39.7	-40.5	23.6	0.00e+00	0	34	0	1242562560	51	3845
2026-01-17 04:57:21.76	12.99	23.18	-39.8	-40.5	23.5	0.00e+00	0	34	0	1247805440	51	3860
2026-01-17 04:57:22.77	12.80	23.29	-39.8	-40.6	23.5	0.00e+00	0	34	0	1254096896	51	3885
2026-01-17 04:57:23.78	12.61	23.40	-39.9	-40.6	23.5	0.00e+00	0	34	0	1259339776	51	3901
2026-01-17 04:57:24.79	12.41	23.51	-39.8	-40.5	23.6	0.00e+00	0	34	0	1265631232	51	3854
2026-01-17 04:57:25.80	12.22	23.62	-39.7	-40.5	23.6	0.00e+00	0	34	0	1270874112	51	3842
2026-01-17 04:57:26.81	12.02	23.73	-39.8	-40.5	23.5	0.00e+00	0	34	0	1276116992	51	3867
2026-01-17 04:57:27.82	11.83	23.84	-39.6	-40.4	23.7	0.00e+00	0	34	0	1282408448	51	3795
2026-01-17 04:57:28.82	11.63	23.95	-39.6	-40.3	23.7	0.00e+00	0	34	0	1287651328	51	3775
2026-01-17 04:57:29.83	11.43	24.06	-39.6	-40.3	23.7	0.00e+00	0	34	0	1293942784	51	3773
2026-01-17 04:57:30.84	11.23	24.17	-39.7	-40.4	23.7	0.00e+00	0	34	0	1299185664	51	3819
2026-01-17 04:57:31.85	11.02	24.28	-39.8	-40.6	23.5	0.00e+00	0	34	0	1305477120	51	3875
2026-01-17 04:57:32.86	10.82	24.39	-39.7	-40.4	23.7	0.00e+00	0	34	0	1310720000	51	3812
2026-01-17 04:57:33.86	10.61	24.50	-39.7	-40.4	23.7	0.00e+00	0	34	0	1315962880	51	3820
2026-01-17 04:57:34.87	10.41	24.61	-39.6	-40.3	23.7	0.00e+00	0	34	0	1322254336	51	3766
2026-01-17 04:57:35.88	10.20	24.72	-39.5	-40.2	23.9	0.00e+00	0	34	0	1327497216	50	3940
2026-01-17 04:57:36.89	9.98	24.83	-39.6	-40.3	23.7	0.00e+00	0	34	0	1332740096	50	3997
2026-01-17 04:57:37.90	9.77	24.94	-39.5	-40.2	23.9	0.00e+00	0	34	0	1339031552	50	3937
2026-01-17 04:57:38.91	9.56	25.05	-39.4	-40.2	23.9	0.00e+00	0	34	0	1344274432	50	3924
2026-01-17 04:57:39.92	9.34	25.16	-39.5	-40.2	23.9	0.00e+00	0	34	0	1350565888	50	3944
2026-01-17 04:57:40.92	9.13	25.27	-39.5	-40.3	23.8	0.00e+00	0	34	0	1355808768	50	3980
2026-01-17 04:57:41.93	8.91	25.38	-39.5	-40.3	23.8	0.00e+00	0	34	0	1362100224	50	3979
2026-01-17 04:57:42.94	8.69	25.49	-39.6	-40.4	23.7	0.00e+00	0	34	0	1367343104	50	4017
2026-01-17 04:57:43.95	8.47	25.60	-39.6	-40.3	23.8	0.00e+00	0	34	0	1373634560	50	3984
2026-01-17 04:57:44.96	8.25	25.71	-39.4	-40.2	23.9	0.00e+00	0	34	0	1378877440	50	3937
2026-01-17 04:57:45.97	8.02	25.82	-39.4	-40.2	23.9	0.00e+00	0	34	0	1384120320	50	3929
2026-01-17 04:57:46.98	7.79	25.93	-39.2	-40.0	24.1	0.00e+00	0	34	0	1390411776	50	3836
2026-01-17 04:57:47.99	7.57	26.04	-39.1	-39.8	24.2	0.00e+00	0	34	0	1395654656	50	3756
2026-01-17 04:57:49.00	7.34	26.15	-39.0	-39.8	24.3	0.00e+00	0	34	0	1400897536	50	3746
2026-01-17 04:57:50.01	7.11	26.26	-39.0	-39.7	24.3	0.00e+00	0	34	0	1407188992	50	3732
2026-01-17 04:57:51.02	6.87	26.37	-39.1	-39.8	24.2	0.00e+00	0	34	0	1412431872	50	3772
2026-01-17 04:57:52.03	6.64	26.48	-39.1	-39.8	24.2	0.00e+00	0	34	0	1417674752	50	3769
2026-01-17 04:57:53.04	6.40	26.59	-39.1	-39.8	24.3	0.00e+00	0	34	0	1423966208	50	3750
2026-01-17 04:57:54.05	6.16	26.70	-39.1	-39.8	24.2	0.00e+00	0	34	0	1430257664	50	3770
2026-01-17 04:57:55.05	5.93	26.81	-39.1	-39.9	24.2	0.00e+00	0	34	0	1435500544	50	3782
2026-01-17 04:57:56.06	5.69	26.92	-38.8	-39.5	24.5	0.00e+00	0	34	0	1440743424	49	3862
2026-01-17 04:57:57.07	5.44	27.03	-38.7	-39.4	24.6	0.00e+00	0	34	0	1447034880	49	3821
2026-01-17 04:57:58.08	5.20	27.14	-38.8	-39.5	24.5	0.00e+00	0	34	0	1452277760	49	3853
2026-01-17 04:57:59.09	4.95	27.25	-38.9	-39.6	24.5	0.00e+00	0	34	0	1458569216	49	3885
2026-01-17 04:58:00.10	4.70	27.36	-38.9	-39.7	24.4	0.00e+00	0	34	0	1463812096	49	3921
2026-01-17 04:58:01.11	4.46	27.47	-38.9	-39.6	24.4	0.00e+00	0	34	0	1469054976	49	3901
2026-01-17 04:58:02.12	4.20	27.58	-38.9	-39.6	24.4	0.00e+00	0	34	0	1475346432	49	3898
2026-01-17 04:58:03.13	3.95	27.69	-39.0	-39.7	24.4	0.00e+00	0	34	0	1480589312	49	3924
2026-01-17 04:58:04.14	3.70	27.80	-38.8	-39.6	24.5	0.00e+00	0	34	0	1486880768	49	3873
2026-01-17 04:58:05.14	3.44	27.90	-38.8	-39.5	24.5	0.00e+00	0	34	0	1492123648	49	3847
2026-01-17 04:58:06.15	3.18	28.01	-38.8	-39.5	24.5	0.00e+00	0	34	0	1498415104	49	3859
2026-01-17 04:58:07.16	2.92	28.12	-38.8	-39.5	24.5	0.00e+00	0	34	0	1503657984	49	3853
2026-01-17 04:58:08.17	2.66	28.23	-38.8	-39.5	24.5	0.00e+00	0	34	0	1508900864	49	3857
2026-01-17 04:58:09.18	2.40	28.34	-38.8	-39.5	24.5	0.00e+00	0	34	0	1515192320	49	3857
2026-01-17 04:58:10.19	2.13	28.44	-38.9	-39.6	24.5	0.00e+00	0	34	0	1520435200	49	3898
2026-01-17 04:58:11.20	1.86	28.55	-38.8	-39.6	24.5	0.00e+00	0	34	0	1525678080	49	3876
2026-01-17 04:58:12.21	1.60	28.66	-39.0	-39.7	24.4	0.00e+00	0	34	0	1531969536	49	3936
2026-01-17 04:58:13.22	1.32	28.76	-39.0	-39.7	24.4	0.00e+00	0	34	0	1537212416	49	3944
2026-01-17 04:58:14.22	1.05	28.87	-39.0	-39.7	24.4	0.00e+00	0	34	0	1543503872	49	3949
2026-01-17 04:58:15.23	0.78	28.97	-39.0	-39.8	24.3	0.00e+00	0	34	0	1548746752	49	3966
2026-01-17 04:58:16.24	0.50	29.08	-38.9	-39.7	24.4	0.00e+00	0	34	0	1555038208	49	3925
2026-01-17 04:58:17.25	0.23	29.18	-39.1	-39.8	24.3	0.00e+00	0	34	0	1560281088	49	3979
2026-01-17 04:58:18.26	359.95	29.29	-39.1	-39.8	24.3	0.00e+00	0	34	0	1566572544	49	3970
2026-01-17 04:58:19.27	359.66	29.39	-39.0	-39.7	24.4	0.00e+00	0	34	0	1571815424	49	3933
2026-01-17 04:58:20.28	359.38	29.50	-39.0	-39.7	24.3	0.00e+00	0	34	0	1577058304	49	3951
2026-01-17 04:58:21.29	359.09	29.60	-38.9	-39.6	24.5	0.00e+00	0	34	0	1583349760	49	3898
2026-01-17 04:58:22.29	358.81	29.70	-38.8	-39.6	24.5	0.00e+00	0	34	0	1588592640	49	3878
2026-01-17 04:58:23.30	358.52	29.80	-38.7	-39.4	24.6	0.00e+00	0	34	0	1593835520	49	3821
2026-01-17 04:58:24.31	358.23	29.91	-38.7	-39.4	24.7	0.00e+00	0	34	0	1600126976	49	3803
2026-01-17 04:58:25.32	357.94	30.01	-38.7	-39.4	24.7	0.00e+00	0	34	0	1605369856	49	3802
2026-01-17 04:58:26.32	357.64	30.11	-38.6	-39.3	24.7	0.00e+00	0	34	0	1610612736	49	3767
2026-01-17 04:58:27.33	357.35	30.21	-38.5	-39.2	24.8	0.00e+00	0	34	0	1616904192	49	3728
2026-01-17 04:58:28.34	357.05	30.31	-38.5	-39.2	24.8	0.00e+00	0	34	0	1623195648	48	3947
2026-01-17 04:58:29.35	356.75	30.41	-38.6	-39.3	24.8	0.00e+00	0	34	0	1628438528	48	3969
2026-01-17 04:58:30.36	356.45	30.51	-38.6	-39.3	24.7	0.00e+00	0	34	0	1633681408	48	4000
2026-01-17 04:58:31.37	356.14	30.60	-38.4	-39.2	24.9	0.00e+00	0	34	0	1639972864	48	3914
2026-01-17 04:58:32.38	355.84	30.70	-38.4	-39.1	25.0	0.00e+00	0	34	0	1645215744	48	3870
2026-01-17 04:58:33.39	355.53	30.80	-38.5	-39.2	24.9	0.00e+00	0	34	0	1651507200	48	3918
2026-01-17 04:58:34.39	355.22	30.89	-38.4	-39.1	25.0	0.00e+00	0	34	0	1656750080	48	3881
2026-01-17 04:58:35.40	354.91	30.99	-38.3	-39.0	25.0	0.00e+00	0	34	0	1661992960	48	3848
2026-01-17 04:58:36.41	354.60	31.09	-38.5	-39.2	24.9	0.00e+00	0	34	0	1668284416	48	3931
2026-01-17 04:58:37.42	354.28	31.18	-38.5	-39.3	24.8	0.00e+00	0	34	0	1673527296	48	3962
2026-01-17 04:58:38.43	353.96	31.27	-38.6	-39.3	24.7	0.00e+00	0	34	0	1679818752	48	3996
2026-01-17 04:58:39.44	353.65	31.37	-38.5	-39.2	24.8	0.00e+00	0	34	0	1685061632	48	3939
2026-01-17 04:58:40.45	353.32	31.46	-38.4	-39.1	24.9	0.00e+00	0	34	0	1691353088	48	3912
2026-01-17 04:58:41.46	353.00	31.55	-38.3	-39.0	25.0	0.00e+00	0	34	0	1696595968	48	3861
2026-01-17 04:58:42.47	352.68	31.64	-38.2	-38.9	25.2	0.00e+00	0	34	0	1701838848	48	3785
2026-01-17 04:58:43.48	352.35	31.73	-38.3	-39.0	25.1	0.00e+00	0	34	0	1708130304	48	3832
2026-01-17 04:58:44.49	352.02	31.82	-38.4	-39.1	25.0	0.00e+00	0	34	0	1713373184	48	3892
2026-01-17 04:58:45.50	351.69	31.91	-38.4	-39.1	25.0	0.00e+00	0	34	0	1718616064	48	3896
2026-01-17 04:58:46.50	351.36	32.00	-38.4	-39.1	24.9	0.00e+00	0	34	0	1724907520	48	3898
2026-01-17 04:58:47.51	351.03	32.08	-38.4	-39.1	25.0	0.00e+00	0	34	0	1730150400	48	3890
2026-01-17 04:58:48.52	350.69	32.17	-38.4	-39.1	25.0	0.00e+00	0	34	0	1736441856	48	3884
2026-01-17 04:58:49.53	350.36	32.26	-38.3	-39.0	25.0	0.00e+00	0	34	0	1741684736	48	3855
2026-01-17 04:58:50.54	350.02	32.34	-38.2	-38.9	25.2	0.00e+00	0	34	0	1747976192	48	3787
2026-01-17 04:58:51.55	349.68	32.42	-38.1	-38.8	25.2	0.00e+00	0	34	0	1753219072	48	3755
2026-01-17 04:58:52.56	349.33	32.51	-38.1	-38.8	25.2	0.00e+00	0	34	0	1759510528	48	3774
2026-01-17 04:58:53.57	348.99	32.59	-38.1	-38.8	25.2	0.00e+00	0	34	0	1764753408	48	3757
2026-01-17 04:58:54.57	348.65	32.67	-38.2	-38.9	25.2	0.00e+00	0	34	0	1769996288	48	3787
2026-01-17 04:58:55.58	348.30	32.75	-38.1	-38.8	25.2	0.00e+00	0	34	0	1776287744	48	3780
2026-01-17 04:58:56.59	347.95	32.83	-38.1	-38.8	25.2	0.00e+00	0	34	0	1781530624	48	3777
2026-01-17 04:58:57.60	347.60	32.90	-38.1	-38.8	25.2	0.00e+00	0	34	0	1786773504	48	3770
2026-01-17 04:58:58.61	347.25	32.98	-38.2	-38.9	25.2	0.00e+00	0	34	0	1793064960	48	3785
2026-01-17 04:58:59.62	346.89	33.06	-38.3	-39.0	25.1	0.00e+00	0	34	0	1798307840	48	3836
2026-01-17 04:59:00.62	346.54	33.13	-38.2	-38.9	25.1	0.00e+00	0	34	0	1803550720	48	3822
2026-01-17 04:59:01.63	346.18	33.20	-38.3	-39.0	25.1	0.00e+00	0	34	0	1809842176	48	3855
2026-01-17 04:59:02.64	345.82	33.28	-38.5	-39.2	24.9	0.00e+00	0	34	0	1816133632	48	3945
2026-01-17 04:59:03.65	345.46	33.35	-38.5	-39.2	25.0	0.00e+00	0	34	0	1821376512	48	3918
2026-01-17 04:59:04.66	345.10	33.42	-38.3	-39.0	25.1	0.00e+00	0	34	0	1826619392	48	3865
2026-01-17 04:59:05.67	344.73	33.49	-38.3	-39.0	25.1	0.00e+00	0	34	0	1832910848	48	3832
2026-01-17 04:59:06.68	344.37	33.55	-38.4	-39.1	25.0	0.00e+00	0	34	0	1838153728	48	3901
2026-01-17 04:59:07.69	344.00	33.62	-38.5	-39.2	24.9	0.00e+00	0	34	0	1844445184	48	3956
2026-01-17 04:59:08.70	343.63	33.68	-38.6	-39.3	24.8	0.00e+00	0	34	0	1849688064	48	3997
2026-01-17 04:59:09.70	343.26	33.75	-38.5	-39.2	24.9	0.00e+00	0	34	0	1854930944	48	3940
2026-01-17 04:59:10.71	342.89	33.81	-38.5	-39.2	24.9	0.00e+00	0	34	0	1861222400	48	3928
2026-01-17 04:59:11.72	342.52	33.87	-38.3	-39.0	25.1	0.00e+00	0	34	0	1866465280	48	3843
2026-01-17 04:59:12.73	342.14	33.93	-38.2	-38.9	25.2	0.00e+00	0	34	0	1872756736	48	3808
2026-01-17 04:59:13.74	341.77	33.99	-38.3	-39.0	25.1	0.00e+00	0	34	0	1877999616	48	3828
2026-01-17 04:59:14.75	341.39	34.05	-38.2	-38.9	25.2	0.00e+00	0	34	0	1884291072	48	3809
2026-01-17 04:59:15.76	341.01	34.11	-38.4	-39.1	25.1	0.00e+00	0	34	0	1889533952	48	3870
2026-01-17 04:59:16.77	340.63	34.16	-38.2	-38.9	25.2	0.00e+00	0	34	0	1894776832	48	3817
2026-01-17 04:59:17.77	340.25	34.21	-38.2	-38.9	25.2	0.00e+00	0	34	0	1901068288	48	3810
2026-01-17 04:59:18.78	339.87	34.27	-38.4	-39.1	25.1	0.00e+00	0	34	0	1906311168	48	3870
2026-01-17 04:59:19.79	339.49	34.32	-38.5	-39.2	24.9	0.00e+00	0	34	0	1911554048	48	3936
2026-01-17 04:59:20.80	339.10	34.37	-38.6	-39.3	24.9	0.00e+00	0	34	0	1917845504	48	3974
2026-01-17 04:59:21.81	338.72	34.42	-38.2	-38.9	25.2	0.00e+00	0	34	0	1923088384	48	3807
2026-01-17 04:59:22.82	338.33	34.46	-38.1	-38.8	25.3	0.00e+00	0	34	0	1929379840	48	3762
2026-01-17 04:59:23.82	337.95	34.51	-38.3	-39.0	25.1	0.00e+00	0	34	0	1934622720	48	3856
2026-01-17 04:59:24.83	337.56	34.55	-38.5	-39.2	25.0	0.00e+00	0	34	0	1940914176	48	3920
2026-01-17 04:59:25.84	337.16	34.59	-38.5	-39.2	24.9	0.00e+00	0	34	0	1946157056	48	3957
2026-01-17 04:59:26.85	336.77	34.64	-38.7	-39.5	24.7	0.00e+00	0	34	0	1952448512	48	4061
2026-01-17 04:59:27.86	336.38	34.68	-38.5	-39.3	24.9	0.00e+00	0	34	0	1957691392	48	3965
2026-01-17 04:59:28.87	335.99	34.71	-38.4	-39.1	25.0	0.00e+00	0	34	0	1962934272	48	3894
2026-01-17 04:59:29.88	335.59	34.75	-38.4	-39.1	25.1	0.00e+00	0	34	0	1969225728	48	3875
2026-01-17 04:59:30.89	335.20	34.79	-38.2	-38.9	25.2	0.00e+00	0	34	0	1974468608	48	3804
2026-01-17 04:59:31.89	334.81	34.82	-38.1	-38.8	25.3	0.00e+00	0	34	0	1979711488	48	3761
2026-01-17 04:59:32.90	334.41	34.85	-38.1	-38.8	25.3	0.00e+00	0	34	0	1986002944	48	3757
2026-01-17 04:59:33.91	334.01	34.88	-38.1	-38.7	25.4	0.00e+00	0	34	0	1991245824	48	3730
2026-01-17 04:59:34.92	333.61	34.91	-38.2	-38.9	25.2	0.00e+00	0	34	0	1996488704	48	3809
2026-01-17 04:59:35.93	333.21	34.94	-38.3	-39.0	25.2	0.00e+00	0	34	0	2002780160	48	3852
2026-01-17 04:59:36.94	332.81	34.96	-38.2	-38.9	25.2	0.00e+00	0	34	0	2009071616	48	3812
2026-01-17 04:59:37.94	332.42	34.99	-38.2	-38.9	25.2	0.00e+00	0	34	0	2014314496	48	3811
2026-01-17 04:59:38.95	332.02	35.01	-38.2	-38.9	25.2	0.00e+00	0	34	0	2019557376	48	3815
2026-01-17 04:59:39.96	331.61	35.03	-38.1	-38.8	25.3	0.00e+00	0	34	0	2025848832	48	3771
2026-01-17 04:59:40.97	331.21	35.05	-38.1	-38.7	25.4	0.00e+00	0	34	0	2031091712	48	3735
2026-01-17 04:59:41.98	330.81	35.07	-38.0	-38.7	25.4	0.00e+00	0	34	0	2037383168	48	3730
2026-01-17 04:59:42.98	330.41	35.09	-38.0	-38.7	25.4	0.00e+00	0	34	0	2042626048	48	3717
2026-01-17 04:59:43.99	330.01	35.10	-38.0	-38.7	25.5	0.00e+00	0	34	0	2047868928	48	3702
2026-01-17 04:59:45.00	329.60	35.11	-37.8	-38.5	25.2	0.00e+00	0	34	0	2054160384	47	3837
2026-01-17 04:59:46.01	329.20	35.12	-37.8	-38.5	25.1	0.00e+00	0	34	0	2059403264	47	3852
2026-01-17 04:59:47.02	328.80	35.13	-38.0	-38.8	24.9	0.00e+00	0	34	0	2064646144	47	3964
2026-01-17 04:59:48.02	328.40	35.14	-38.1	-38.8	24.9	0.00e+00	0	34	0	2070937600	47	3988
2026-01-17 04:59:49.03	327.99	35.15	-38.1	-38.9	24.8	0.00e+00	0	34	0	2077229056	47	4015
2026-01-17 04:59:50.04	327.59	35.15	-37.9	-38.6	25.0	0.00e+00	0	34	0	2082471936	47	3894
2026-01-17 04:59:51.05	327.18	35.16	-37.6	-38.3	25.3	0.00e+00	0	34	0	2087714816	47	3755
2026-01-17 04:59:52.06	326.78	35.16	-37.7	-38.4	25.2	0.00e+00	0	34	0	2094006272	47	3806
2026-01-17 04:59:53.07	326.37	35.16	-37.9	-38.6	25.0	0.00e+00	0	34	0	2099249152	47	3901
2026-01-17 04:59:54.08	325.97	35.16	-38.1	-38.8	24.8	0.00e+00	0	34	0	2104492032	47	3974
2026-01-17 04:59:55.09	325.56	35.16	-38.1	-38.9	24.8	0.00e+00	0	34	0	2110783488	47	4006
2026-01-17 04:59:56.10	325.16	35.15	-38.2	-38.9	24.8	0.00e+00	0	34	0	2116026368	47	4026
2026-01-17 04:59:57.11	324.75	35.14	-38.2	-38.9	24.8	0.00e+00	0	34	0	2122317824	47	4026
2026-01-17 04:59:58.12	324.35	35.14	-38.2	-38.9	24.8	0.00e+00	0	34	0	2127560704	47	4038
2026-01-17 04:59:59.12	323.95	35.13	-38.0	-38.7	25.0	0.00e+00	0	34	0	2132803584	47	3947
2026-01-17 05:00:00.13	323.54	35.12	-37.9	-38.6	25.0	0.00e+00	0	34	0	2139095040	47	3913
2026-01-17 05:00:01.14	323.14	35.10	-37.9	-38.7	25.0	0.00e+00	0	34	0	2145386496	47	3920
2026-01-17 05:00:02.15	322.73	35.09	-37.9	-38.6	25.0	0.00e+00	0	34	0	2150629376	47	3903
2026-01-17 05:00:03.16	322.33	35.07	-37.9	-38.7	25.0	0.00e+00	0	34	0	2155872256	47	3920
2026-01-17 05:00:04.17	321.93	35.05	-38.0	-38.7	24.9	0.00e+00	0	34	0	2162163712	47	3941
2026-01-17 05:00:05.18	321.53	35.03	-37.9	-38.6	25.0	0.00e+00	0	34	0	2167406592	47	3891
2026-01-17 05:00:06.18	321.13	35.01	-37.9	-38.6	25.0	0.00e+00	0	34	0	2172649472	47	3907
2026-01-17 05:00:07.19	320.73	34.99	-37.8	-38.5	25.1	0.00e+00	0	34	0	2178940928	47	3847
2026-01-17 05:00:08.20	320.33	34.97	-37.8	-38.5	25.1	0.00e+00	0	34	0	2184183808	47	3867
2026-01-17 05:00:09.21	319.93	34.94	-38.0	-38.8	24.9	0.00e+00	0	34	0	2189426688	47	3963
2026-01-17 05:00:10.22	319.53	34.91	-38.2	-38.9	24.8	0.00e+00	0	34	0	2195718144	47	4036
2026-01-17 05:00:11.22	319.13	34.89	-38.1	-38.9	24.8	0.00e+00	0	34	0	2200961024	47	4012
2026-01-17 05:00:12.23	318.73	34.86	-38.2	-38.9	24.8	0.00e+00	0	34	0	2207252480	47	4032
2026-01-17 05:00:13.24	318.34	34.82	-38.0	-38.8	24.9	0.00e+00	0	34	0	2212495360	47	3962
2026-01-17 05:00:14.25	317.94	34.79	-38.0	-38.7	25.0	0.00e+00	0	34	0	2218786816	47	3922
2026-01-17 05:00:15.26	317.54	34.76	-38.0	-38.7	24.9	0.00e+00	0	34	0	2224029696	47	3945
2026-01-17 05:00:16.26	317.15	34.72	-38.0	-38.7	24.9	0.00e+00	0	34	0	2230321152	47	3958
2026-01-17 05:00:17.27	316.76	34.68	-38.0	-38.7	24.9	0.00e+00	0	34	0	2235564032	47	3937
2026-01-17 05:00:18.28	316.37	34.64	-38.0	-38.7	25.0	0.00e+00	0	34	0	2240806912	47	3939
2026-01-17 05:00:19.29	315.97	34.60	-37.8	-38.6	25.1	0.00e+00	0	34	0	2247098368	47	3871
2026-01-17 05:00:20.30	315.58	34.56	-37.8	-38.5	25.2	0.00e+00	0	34	0	2252341248	47	3844
2026-01-17 05:00:21.30	315.20	34.52	-37.8	-38.5	25.2	0.00e+00	0	34	0	2257584128	47	3831
2026-01-17 05:00:22.31	314.81	34.47	-37.8	-38.6	25.1	0.00e+00	0	34	0	2263875584	47	3871
2026-01-17 05:00:23.32	314.42	34.42	-37.8	-38.5	25.2	0.00e+00	0	34	0	2269118464	47	3851
2026-01-17 05:00:24.33	314.03	34.38	-37.9	-38.6	25.1	0.00e+00	0	34	0	2275409920	47	3883
2026-01-17 05:00:25.34	313.65	34.33	-38.0	-38.7	25.0	0.00e+00	0	34	0	2280652800	47	3932
2026-01-17 05:00:26.35	313.26	34.28	-38.0	-38.7	25.0	0.00e+00	0	34	0	2286944256	47	3954
2026-01-17 05:00:27.36	312.88	34.22	-38.1	-38.8	24.9	0.00e+00	0	34	0	2292187136	47	3972
2026-01-17 05:00:28.37	312.50	34.17	-38.1	-38.9	24.8	0.00e+00	0	34	0	2297430016	47	4013
2026-01-17 05:00:29.38	312.12	34.11	-38.2	-39.0	24.7	0.00e+00	0	34	0	2303721472	47	4060
2026-01-17 05:00:30.38	311.74	34.06	-38.1	-38.8	24.9	0.00e+00	0	34	0	2308964352	47	3981
2026-01-17 05:00:31.39	311.37	34.00	-38.0	-38.8	24.9	0.00e+00	0	34	0	2315255808	47	3960
2026-01-17 05:00:32.40	310.99	33.94	-37.9	-38.6	25.1	0.00e+00	0	34	0	2320498688	47	3890
2026-01-17 05:00:33.41	310.61	33.88	-37.9	-38.6	25.1	0.00e+00	0	34	0	2325741568	47	3873
2026-01-17 05:00:34.42	310.24	33.82	-37.7	-38.4	25.2	0.00e+00	0	34	0	2332033024	47	3804
2026-01-17 05:00:35.43	309.87	33.76	-37.7	-38.4	25.2	0.00e+00	0	34	0	2337275904	47	3823
2026-01-17 05:00:36.43	309.50	33.69	-37.8	-38.5	25.1	0.00e+00	0	34	0	2343567360	47	3856
2026-01-17 05:00:37.44	309.13	33.63	-37.9	-38.7	25.0	0.00e+00	0	34	0	2348810240	47	3914
2026-01-17 05:00:38.45	308.76	33.56	-38.0	-38.7	25.0	0.00e+00	0	34	0	2355101696	47	3935
2026-01-17 05:00:39.46	308.40	33.50	-38.1	-38.9	24.8	0.00e+00	0	34	0	2360344576	47	4012
2026-01-17 05:00:40.46	308.03	33.43	-38.3	-39.0	24.7	0.00e+00	0	34	0	2365587456	47	4065
2026-01-17 05:00:41.47	307.67	33.36	-38.3	-39.1	24.7	0.00e+00	0	34	0	2371878912	47	4099
2026-01-17 05:00:42.48	307.31	33.29	-38.4	-39.2	24.5	0.00e+00	0	34	0	2377121792	47	4156
2026-01-17 05:00:43.49	306.95	33.21	-38.5	-39.2	24.5	0.00e+00	0	34	0	2382364672	47	4190
2026-01-17 05:00:44.50	306.59	33.14	-38.5	-39.2	24.5	0.00e+00	0	34	0	2388656128	47	4183
2026-01-17 05:00:45.51	306.23	33.07	-38.4	-39.1	24.6	0.00e+00	0	34	0	2393899008	47	4145
2026-01-17 05:00:46.51	305.88	32.99	-38.4	-39.1	24.6	0.00e+00	0	34	0	2400190464	47	4127
2026-01-17 05:00:47.52	305.53	32.92	-38.2	-39.0	24.7	0.00e+00	0	34	0	2405433344	47	4055
2026-01-17 05:00:48.53	305.18	32.84	-38.1	-38.8	24.9	0.00e+00	0	34	0	2410676224	47	3982
2026-01-17 05:00:49.54	304.83	32.76	-38.0	-38.7	25.0	0.00e+00	0	34	0	2416967680	47	3944
2026-01-17 05:00:50.55	304.48	32.68	-38.0	-38.7	25.0	0.00e+00	0	34	0	2423259136	47	3947
2026-01-17 05:00:51.56	304.13	32.60	-38.1	-38.8	24.9	0.00e+00	0	34	0	2428502016	47	3986
2026-01-17 05:00:52.57	303.79	32.52	-38.0	-38.7	25.0	0.00e+00	0	34	0	2433744896	47	3940
2026-01-17 05:00:53.57	303.45	32.44	-38.2	-38.9	24.8	0.00e+00	0	34	0	2440036352	47	4020
2026-01-17 05:00:54.58	303.10	32.35	-38.2	-39.0	24.8	0.00e+00	0	34	0	2445279232	47	4064
2026-01-17 05:00:55.59	302.76	32.27	-38.3	-39.0	24.7	0.00e+00	0	34	0	2450522112	47	4096
2026-01-17 05:00:56.60	302.43	32.18	-38.2	-38.9	24.8	0.00e+00	0	34	0	2456813568	47	4048
2026-01-17 05:00:57.61	302.09	32.10	-38.1	-38.8	24.9	0.00e+00	0	34	0	2462056448	47	3976
2026-01-17 05:00:58.62	301.75	32.01	-38.1	-38.9	24.8	0.00e+00	0	34	0	2467299328	47	4017
2026-01-17 05:00:59.63	301.42	31.92	-38.3	-39.0	24.7	0.00e+00	0	34	0	2473590784	47	4090
2026-01-17 05:01:00.64	301.09	31.83	-38.5	-39.2	24.5	0.00e+00	0	34	0	2479882240	47	4175
2026-01-17 05:01:01.65	300.76	31.74	-38.4	-39.1	24.6	0.00e+00	0	34	0	2485125120	47	4127
2026-01-17 05:01:02.66	300.43	31.65	-38.4	-39.1	24.6	0.00e+00	0	34	0	2490368000	47	4139
2026-01-17 05:01:03.67	300.11	31.56	-38.3	-39.0	24.7	0.00e+00	0	34	0	2496659456	47	4061
2026-01-17 05:01:04.67	299.79	31.47	-38.4	-39.1	24.6	0.00e+00	0	34	0	2501902336	47	4115
2026-01-17 05:01:05.68	299.47	31.38	-38.4	-39.2	24.6	0.00e+00	0	34	0	2508193792	47	4160
2026-01-17 05:01:06.69	299.15	31.29	-38.4	-39.2	24.6	0.00e+00	0	34	0	2513436672	47	4148
2026-01-17 05:01:07.70	298.83	31.19	-38.5	-39.2	24.5	0.00e+00	0	34	0	2518679552	47	4171
2026-01-17 05:01:08.71	298.51	31.10	-38.4	-39.2	24.6	0.00e+00	0	34	0	2524971008	47	4151
2026-01-17 05:01:09.72	298.20	31.00	-38.5	-39.2	24.5	0.00e+00	0	34	0	2530213888	47	4192
2026-01-17 05:01:10.73	297.89	30.91	-38.4	-39.2	24.6	0.00e+00	0	34	0	2535456768	47	4156
2026-01-17 05:01:11.74	297.58	30.81	-38.6	-39.3	24.4	0.00e+00	0	34	0	2541748224	47	4226
2026-01-17 05:01:12.74	297.27	30.71	-38.5	-39.2	24.5	0.00e+00	0	34	0	2548039680	47	4171
2026-01-17 05:01:13.75	296.96	30.62	-38.4	-39.2	24.6	0.00e+00	0	34	0	2553282560	47	4147
2026-01-17 05:01:14.76	296.66	30.52	-38.4	-39.1	24.6	0.00e+00	0	34	0	2558525440	47	4118
2026-01-17 05:01:15.77	296.36	30.42	-38.5	-39.2	24.5	0.00e+00	0	34	0	2564816896	47	4166
2026-01-17 05:01:16.78	296.05	30.32	-38.4	-39.2	24.6	0.00e+00	0	34	0	2570059776	47	4158
2026-01-17 05:01:17.79	295.75	30.22	-38.4	-39.1	24.6	0.00e+00	0	34	0	2575302656	47	4119
2026-01-17 05:01:18.79	295.46	30.12	-38.5	-39.2	24.5	0.00e+00	0	34	0	2581594112	47	4163
2026-01-17 05:01:19.80	295.16	30.02	-38.3	-39.0	24.7	0.00e+00	0	34	0	2586836992	47	4098
2026-01-17 05:01:20.81	294.87	29.92	-38.2	-38.9	24.8	0.00e+00	0	34	0	2593128448	47	4047
2026-01-17 05:01:21.82	294.58	29.81	-38.3	-39.1	24.6	0.00e+00	0	34	0	2598371328	47	4104
2026-01-17 05:01:22.82	294.29	29.71	-38.4	-39.1	24.6	0.00e+00	0	34	0	2603614208	47	4117
2026-01-17 05:01:23.83	294.00	29.61	-38.4	-39.2	24.5	0.00e+00	0	34	0	2609905664	47	4148
2026-01-17 05:01:24.84	293.72	29.51	-38.4	-39.1	24.6	0.00e+00	0	34	0	2616197120	47	4119
2026-01-17 05:01:25.85	293.43	29.40	-38.4	-39.2	24.5	0.00e+00	0	34	0	2621440000	47	4154
2026-01-17 05:01:26.86	293.15	29.30	-38.3	-39.0	24.7	0.00e+00	0	34	0	2626682880	47	4097
2026-01-17 05:01:27.87	292.87	29.19	-38.5	-39.2	24.5	0.00e+00	0	34	0	2632974336	47	4172
2026-01-17 05:01:28.88	292.59	29.09	-38.5	-39.2	24.5	0.00e+00	0	34	0	2638217216	47	4188
2026-01-17 05:01:29.89	292.31	28.98	-38.5	-39.2	24.5	0.00e+00	0	34	0	2643460096	47	4169
2026-01-17 05:01:30.90	292.04	28.88	-38.5	-39.3	24.5	0.00e+00	0	34	0	2649751552	47	4200
2026-01-17 05:01:31.90	291.77	28.77	-38.6	-39.4	24.4	0.00e+00	0	34	0	2654994432	47	4258
2026-01-17 05:01:32.91	291.49	28.66	-39.1	-39.8	24.5	0.00e+00	0	34	0	2660237312	48	4215
2026-01-17 05:01:33.92	291.22	28.56	-39.2	-40.0	24.3	0.00e+00	0	34	0	2666528768	49	4054
2026-01-17 05:01:34.93	290.96	28.45	-39.0	-39.7	24.6	0.00e+00	0	34	0	2672820224	49	3928
2026-01-17 05:01:35.94	290.69	28.34	-39.0	-39.8	24.5	0.00e+00	0	34	0	2678063104	49	3959
2026-01-17 05:01:36.95	290.42	28.24	-39.0	-39.7	24.6	0.00e+00	0	34	0	2683305984	49	3932
2026-01-17 05:01:37.96	290.16	28.13	-38.9	-39.6	24.6	0.00e+00	0	34	0	2689597440	49	3903
2026-01-17 05:01:38.97	289.90	28.02	-38.9	-39.6	24.7	0.00e+00	0	34	0	2694840320	49	3885
2026-01-17 05:01:39.98	289.64	27.91	-38.9	-39.6	24.6	0.00e+00	0	34	0	2701131776	49	3907
2026-01-17 05:01:40.98	289.39	27.80	-38.9	-39.6	24.6	0.00e+00	0	34	0	2706374656	49	3911
2026-01-17 05:01:41.99	289.13	27.70	-39.0	-39.7	24.5	0.00e+00	0	34	0	2711617536	49	3949
2026-01-17 05:01:43.00	288.88	27.59	-39.1	-39.8	24.4	0.00e+00	0	34	0	2717908992	49	3993
2026-01-17 05:01:44.01	288.63	27.48	-39.2	-39.9	24.4	0.00e+00	0	34	0	2723151872	49	4030
2026-01-17 05:01:45.02	288.37	27.37	-39.3	-40.0	24.3	0.00e+00	0	34	0	2728394752	49	4075
2026-01-17 05:01:46.03	288.13	27.26	-39.3	-40.0	24.3	0.00e+00	0	34	0	2734686208	49	4071
2026-01-17 05:01:47.04	287.88	27.15	-39.3	-40.1	24.2	0.00e+00	0	34	0	2740977664	49	4102
2026-01-17 05:01:48.05	287.63	27.04	-39.3	-40.0	24.3	0.00e+00	0	34	0	2746220544	49	4077
2026-01-17 05:01:49.06	287.39	26.93	-39.4	-40.1	24.2	0.00e+00	0	34	0	2751463424	49	4120
2026-01-17 05:01:50.07	287.15	26.82	-39.3	-40.1	24.2	0.00e+00	0	34	0	2757754880	49	4109
2026-01-17 05:01:51.07	286.91	26.71	-39.4	-40.1	24.2	0.00e+00	0	34	0	2762997760	49	4128
2026-01-17 05:01:52.08	286.67	26.60	-39.4	-40.1	24.2	0.00e+00	0	34	0	2768240640	49	4115
2026-01-17 05:01:53.09	286.43	26.49	-39.4	-40.1	24.2	0.00e+00	0	34	0	2774532096	49	4134
2026-01-17 05:01:54.10	286.20	26.38	-39.3	-40.0	24.3	0.00e+00	0	34	0	2779774976	49	4080
2026-01-17 05:01:55.11	285.97	26.27	-39.3	-40.0	24.3	0.00e+00	0	34	0	2786066432	49	4071
2026-01-17 05:01:56.12	285.73	26.16	-39.4	-40.1	24.2	0.00e+00	0	34	0	2791309312	49	4114
2026-01-17 05:01:57.13	285.50	26.05	-39.3	-40.0	24.2	0.00e+00	0	34	0	2796552192	49	4075
2026-01-17 05:01:58.14	285.27	25.94	-39.4	-40.2	24.1	0.00e+00	0	34	0	2802843648	49	4154
2026-01-17 05:01:59.14	285.05	25.83	-39.6	-40.3	24.0	0.00e+00	0	34	0	2809135104	49	4218
2026-01-17 05:02:00.15	284.82	25.71	-39.6	-40.3	24.0	0.00e+00	0	34	0	2814377984	49	4239
2026-01-17 05:02:01.16	284.60	25.60	-39.6	-40.3	23.9	0.00e+00	0	34	0	2819620864	49	4227
2026-01-17 05:02:02.17	284.38	25.49	-39.6	-40.4	23.9	0.00e+00	0	34	0	2825912320	49	4262
2026-01-17 05:02:03.18	284.16	25.38	-39.6	-40.4	23.9	0.00e+00	0	34	0	2831155200	49	4248
2026-01-17 05:02:04.19	283.94	25.27	-39.4	-40.2	24.1	0.00e+00	0	34	0	2836398080	49	4158
2026-01-17 05:02:05.19	283.72	25.16	-39.5	-40.2	24.0	0.00e+00	0	34	0	2842689536	49	4186
2026-01-17 05:02:06.20	283.51	25.05	-39.5	-40.2	24.0	0.00e+00	0	34	0	2847932416	49	4173
2026-01-17 05:02:07.21	283.29	24.94	-39.4	-40.1	24.1	0.00e+00	0	34	0	2853175296	49	4140
2026-01-17 05:02:08.22	283.08	24.83	-39.5	-40.2	24.0	0.00e+00	0	34	0	2859466752	49	4190
2026-01-17 05:02:09.23	282.87	24.72	-39.5	-40.3	24.0	0.00e+00	0	34	0	2865758208	49	4196
2026-01-17 05:02:10.24	282.66	24.61	-39.7	-40.5	23.8	0.00e+00	0	34	0	2871001088	49	4302
2026-01-17 05:02:11.25	282.45	24.50	-39.7	-40.4	23.9	0.00e+00	0	34	0	2876243968	50	4033
2026-01-17 05:02:12.26	282.24	24.39	-39.7	-40.5	23.8	0.00e+00	0	34	0	2882535424	50	4053
2026-01-17 05:02:13.27	282.04	24.28	-39.7	-40.4	23.9	0.00e+00	0	34	0	2887778304	50	4035
2026-01-17 05:02:14.28	281.83	24.16	-39.8	-40.5	23.7	0.00e+00	0	34	0	2894069760	50	4098
2026-01-17 05:02:15.29	281.63	24.05	-39.7	-40.4	23.9	0.00e+00	0	34	0	2899312640	50	4038
2026-01-17 05:02:16.30	281.43	23.94	-39.7	-40.4	23.8	0.00e+00	0	34	0	2904555520	50	4049
2026-01-17 05:02:17.30	281.23	23.83	-39.7	-40.5	23.8	0.00e+00	0	34	0	2910846976	50	4066
2026-01-17 05:02:18.31	281.03	23.72	-39.9	-40.7	23.6	0.00e+00	0	34	0	2916089856	50	4168
2026-01-17 05:02:19.32	280.83	23.61	-40.0	-40.8	23.5	0.00e+00	0	34	0	2921332736	50	4216
2026-01-17 05:02:20.33	280.64	23.50	-40.1	-40.8	23.5	0.00e+00	0	34	0	2927624192	50	4234
2026-01-17 05:02:21.34	280.44	23.39	-40.0	-40.8	23.5	0.00e+00	0	34	0	2933915648	50	4206
2026-01-17 05:02:22.35	280.25	23.28	-40.1	-40.9	23.5	0.00e+00	0	34	0	2939158528	50	4245
2026-01-17 05:02:23.35	280.06	23.18	-40.1	-40.9	23.4	0.00e+00	0	34	0	2944401408	50	4274
2026-01-17 05:02:24.37	279.87	23.07	-40.0	-40.7	23.6	0.00e+00	0	34	0	2950692864	50	4183
2026-01-17 05:02:25.37	279.68	22.96	-39.8	-40.5	23.8	0.00e+00	0	34	0	2955935744	50	4072
2026-01-17 05:02:26.38	279.49	22.85	-39.8	-40.6	23.7	0.00e+00	0	34	0	2961178624	50	4105
2026-01-17 05:02:27.39	279.31	22.74	-39.7	-40.5	23.8	0.00e+00	0	34	0	2967470080	50	4059
2026-01-17 05:02:28.40	279.12	22.63	-39.8	-40.5	23.8	0.00e+00	0	34	0	2972712960	50	4069
2026-01-17 05:02:29.41	278.94	22.52	-39.5	-40.3	23.9	0.00e+00	0	34	0	2979004416	50	3973
2026-01-17 05:02:30.42	278.76	22.41	-39.6	-40.4	23.9	0.00e+00	0	34	0	2984247296	50	4017
2026-01-17 05:02:31.43	278.58	22.30	-39.5	-40.3	24.0	0.00e+00	0	34	0	2989490176	50	3959
2026-01-17 05:02:32.43	278.40	22.20	-39.5	-40.2	24.0	0.00e+00	0	34	0	2995781632	50	3939
2026-01-17 05:02:33.44	278.22	22.09	-39.6	-40.4	23.9	0.00e+00	0	34	0	3002073088	50	4006
2026-01-17 05:02:34.45	278.04	21.98	-39.5	-40.3	24.0	0.00e+00	0	34	0	3007315968	50	3974
2026-01-17 05:02:35.46	277.87	21.87	-39.6	-40.4	23.9	0.00e+00	0	34	0	3012558848	50	4011
2026-01-17 05:02:36.47	277.69	21.76	-39.6	-40.3	23.9	0.00e+00	0	34	0	3018850304	50	3980
2026-01-17 05:02:37.48	277.52	21.66	-39.6	-40.3	23.9	0.00e+00	0	34	0	3024093184	50	4000
2026-01-17 05:02:38.48	277.35	21.55	-39.6	-40.4	23.8	0.00e+00	0	34	0	3029336064	50	4021
2026-01-17 05:02:39.49	277.18	21.44	-39.8	-40.5	23.8	0.00e+00	0	34	0	3035627520	50	4076
2026-01-17 05:02:40.50	277.01	21.33	-39.7	-40.5	23.8	0.00e+00	0	34	0	3040870400	50	4059
2026-01-17 05:02:41.51	276.84	21.23	-39.7	-40.4	23.8	0.00e+00	0	34	0	3046113280	50	4028
2026-01-17 05:02:42.52	276.67	21.12	-39.7	-40.5	23.8	0.00e+00	0	34	0	3052404736	50	4055
2026-01-17 05:02:43.52	276.51	21.02	-39.7	-40.5	23.8	0.00e+00	0	34	0	3057647616	50	4066
2026-01-17 05:02:44.53	276.34	20.91	-39.8	-40.6	23.7	0.00e+00	0	34	0	3063939072	50	4099
2026-01-17 05:02:45.54	276.18	20.80	-39.7	-40.5	23.7	0.00e+00	0	34	0	3069181952	50	4068
2026-01-17 05:02:46.55	276.01	20.70	-39.8	-40.6	23.7	0.00e+00	0	34	0	3075473408	50	4099
2026-01-17 05:02:47.56	275.85	20.59	-39.8	-40.5	23.7	0.00e+00	0	34	0	3080716288	50	4083
2026-01-17 05:02:48.57	275.69	20.49	-39.9	-40.7	23.6	0.00e+00	0	34	0	3087007744	50	4152
2026-01-17 05:02:49.58	275.53	20.38	-39.9	-40.7	23.5	0.00e+00	0	34	0	3092250624	50	4156
2026-01-17 05:02:50.59	275.37	20.27	-39.8	-40.6	23.6	0.00e+00	0	34	0	3097493504	50	4113
2026-01-17 05:02:51.60	275.22	20.17	-40.0	-40.7	23.5	0.00e+00	0	34	0	3103784960	50	4176
2026-01-17 05:02:52.60	275.06	20.07	-39.9	-40.6	23.6	0.00e+00	0	34	0	3109027840	50	4128
2026-01-17 05:02:53.61	274.91	19.96	-39.9	-40.7	23.5	0.00e+00	0	34	0	3114270720	50	4156
2026-01-17 05:02:54.62	274.75	19.86	-40.0	-40.8	23.4	0.00e+00	0	34	0	3120562176	50	4207
2026-01-17 05:02:55.63	274.60	19.75	-39.9	-40.6	23.6	0.00e+00	0	34	0	3125805056	50	4139
2026-01-17 05:02:56.64	274.45	19.65	-40.0	-40.7	23.5	0.00e+00	0	34	0	3132096512	50	4179
2026-01-17 05:02:57.64	274.30	19.55	-40.0	-40.8	23.4	0.00e+00	0	34	0	3137339392	50	4212
2026-01-17 05:02:58.65	274.15	19.44	-40.1	-40.9	23.4	0.00e+00	0	34	0	3143630848	50	4257
2026-01-17 05:02:59.67	274.00	19.34	-40.2	-41.0	23.3	0.00e+00	0	34	0	3148873728	50	4292
2026-01-17 05:03:00.67	273.85	19.24	-40.2	-40.9	23.3	0.00e+00	0	34	0	3154116608	50	4276
2026-01-17 05:03:01.68	273.70	19.13	-40.2	-41.0	23.2	0.00e+00	0	34	0	3160408064	50	4315
2026-01-17 05:03:02.69	273.56	19.03	-40.2	-41.0	23.2	0.00e+00	0	34	0	3165650944	51	4083
2026-01-17 05:03:03.70	273.41	18.93	-40.3	-41.0	23.2	0.00e+00	0	34	0	3171942400	51	4091
2026-01-17 05:03:04.71	273.27	18.83	-40.2	-41.0	23.2	0.00e+00	0	34	0	3177185280	51	4078
2026-01-17 05:03:05.72	273.13	18.73	-40.3	-41.1	23.1	0.00e+00	0	34	0	3182428160	51	4125
2026-01-17 05:03:06.72	272.99	18.62	-40.4	-41.1	23.1	0.00e+00	0	34	0	3188719616	51	4144
2026-01-17 05:03:07.73	272.85	18.52	-40.4	-41.1	23.1	0.00e+00	0	34	0	3195011072	51	4144
2026-01-17 05:03:08.74	272.71	18.42	-40.5	-41.3	23.0	0.00e+00	0	34	0	3200253952	51	4198
2026-01-17 05:03:09.75	272.57	18.32	-40.5	-41.3	22.9	0.00e+00	0	34	0	3205496832	51	4238
2026-01-17 05:03:10.76	272.43	18.22	-40.4	-41.2	23.0	0.00e+00	0	34	0	3211788288	51	4172
2026-01-17 05:03:11.77	272.29	18.12	-40.4	-41.2	23.0	0.00e+00	0	34	0	3217031168	51	4161
2026-01-17 05:03:12.78	272.16	18.02	-40.3	-41.1	23.1	0.00e+00	0	34	0	3222274048	51	4121
2026-01-17 05:03:13.79	272.02	17.92	-40.4	-41.2	23.0	0.00e+00	0	34	0	3228565504	51	4161
2026-01-17 05:03:14.80	271.89	17.82	-40.5	-41.2	23.0	0.00e+00	0	34	0	3233808384	51	4188
2026-01-17 05:03:15.80	271.75	17.72	-40.5	-41.2	23.0	0.00e+00	0	34	0	3239051264	51	4180
2026-01-17 05:03:16.81	271.62	17.62	-40.6	-41.3	22.9	0.00e+00	0	34	0	3245342720	51	4240
2026-01-17 05:03:17.83	271.49	17.52	-40.6	-41.4	22.9	0.00e+00	0	34	0	3250585600	51	4247
2026-01-17 05:03:18.83	271.36	17.42	-40.7	-41.4	22.8	0.00e+00	0	34	0	3256877056	51	4289
2026-01-17 05:03:19.84	271.23	17.33	-40.7	-41.5	22.7	0.00e+00	0	34	0	3262119936	52	4054
2026-01-17 05:03:20.85	271.10	17.23	-40.8	-41.6	22.6	0.00e+00	0	34	0	3268411392	52	4109
2026-01-17 05:03:21.86	270.97	17.13	-40.8	-41.7	22.5	0.00e+00	0	34	0	3273654272	52	4146
2026-01-17 05:03:22.87	270.84	17.03	-40.8	-41.7	22.5	0.00e+00	0	34	0	3279945728	52	4150
2026-01-17 05:03:23.87	270.72	16.94	-41.0	-41.8	22.4	0.00e+00	0	34	0	3285188608	52	4204
2026-01-17 05:03:24.88	270.59	16.84	-41.0	-41.8	22.3	0.00e+00	0	34	0	3290431488	52	4227
2026-01-17 05:03:25.89	270.47	16.74	-41.0	-41.8	22.3	0.00e+00	0	34	0	3296722944	52	4218
2026-01-17 05:03:26.90	270.34	16.64	-41.0	-41.8	22.3	0.00e+00	0	34	0	3301965824	52	4229
2026-01-17 05:03:27.91	270.22	16.55	-41.0	-41.8	22.3	0.00e+00	0	34	0	3307208704	52	4240
2026-01-17 05:03:28.91	270.10	16.45	-41.1	-41.9	22.2	0.00e+00	0	34	0	3313500160	52	4270
2026-01-17 05:03:29.92	269.98	16.36	-41.2	-42.0	22.1	0.00e+00	0	34	0	3318743040	52	4305
2026-01-17 05:03:30.93	269.86	16.26	-41.3	-42.1	22.0	0.00e+00	0	34	0	3325034496	53	4112
2026-01-17 05:03:31.94	269.74	16.16	-41.2	-42.0	22.1	0.00e+00	0	34	0	3330277376	53	4097
2026-01-17 05:03:32.95	269.62	16.07	-41.3	-42.2	22.0	0.00e+00	0	34	0	3336568832	53	4154
2026-01-17 05:03:33.96	269.50	15.97	-41.3	-42.1	22.0	0.00e+00	0	34	0	3341811712	53	4139
2026-01-17 05:03:34.97	269.38	15.88	-41.3	-42.2	21.9	0.00e+00	0	34	0	3347054592	53	4161
2026-01-17 05:03:35.97	269.26	15.79	-41.4	-42.3	21.9	0.00e+00	0	34	0	3353346048	53	4206
2026-01-17 05:03:36.98	269.15	15.69	-41.5	-42.4	21.8	0.00e+00	0	34	0	3358588928	53	4248
2026-01-17 05:03:37.99	269.03	15.60	-41.3	-42.1	22.0	0.00e+00	0	34	0	3364880384	53	4120
2026-01-17 05:03:39.00	268.92	15.50	-41.3	-42.1	22.0	0.00e+00	0	34	0	3370123264	53	4145
2026-01-17 05:03:40.01	268.80	15.41	-41.3	-42.1	22.0	0.00e+00	0	34	0	3375366144	53	4123
2026-01-17 05:03:41.02	268.69	15.32	-41.4	-42.3	21.8	0.00e+00	0	34	0	3381657600	53	4201
2026-01-17 05:03:42.02	268.58	15.22	-41.3	-42.2	21.9	0.00e+00	0	34	0	3386900480	53	4159
2026-01-17 05:03:43.03	268.47	15.13	-41.4	-42.2	21.9	0.00e+00	0	34	0	3393191936	53	4174
2026-01-17 05:03:44.04	268.36	15.04	-41.3	-42.2	21.9	0.00e+00	0	34	0	3398434816	53	4153
2026-01-17 05:03:45.05	268.24	14.94	-41.3	-42.2	21.9	0.00e+00	0	34	0	3404726272	53	4159
2026-01-17 05:03:46.06	268.13	14.85	-41.4	-42.3	21.8	0.00e+00	0	34	0	3409969152	53	4196
2026-01-17 05:03:47.07	268.03	14.76	-41.4	-42.3	21.8	0.00e+00	0	34	0	3415212032	53	4214
2026-01-17 05:03:48.08	267.92	14.67	-41.5	-42.4	21.7	0.00e+00	0	34	0	3421503488	53	4259
2026-01-17 05:03:49.09	267.81	14.58	-41.5	-42.3	21.7	0.00e+00	0	34	0	3426746368	53	4237
2026-01-17 05:03:50.09	267.70	14.49	-41.3	-42.2	21.9	0.00e+00	0	34	0	3431989248	53	4151
2026-01-17 05:03:51.10	267.60	14.40	-41.4	-42.3	21.8	0.00e+00	0	34	0	3438280704	53	4203
2026-01-17 05:03:52.11	267.49	14.31	-41.5	-42.3	21.7	0.00e+00	0	34	0	3443523584	53	4225
2026-01-17 05:03:53.12	267.39	14.21	-41.4	-42.3	21.8	0.00e+00	0	34	0	3449815040	53	4214
2026-01-17 05:03:54.13	267.28	14.12	-41.5	-42.4	21.7	0.00e+00	0	34	0	3455057920	53	4249
2026-01-17 05:03:55.14	267.18	14.03	-41.4	-42.3	21.8	0.00e+00	0	34	0	3461349376	53	4202
2026-01-17 05:03:56.14	267.08	13.95	-41.5	-42.4	21.7	0.00e+00	0	34	0	3466592256	53	4255
2026-01-17 05:03:57.15	266.97	13.86	-41.5	-42.4	21.7	0.00e+00	0	34	0	3472883712	53	4253
2026-01-17 05:03:58.16	266.87	13.77	-41.6	-42.5	21.6	0.00e+00	0	34	0	3478126592	53	4300
2026-01-17 05:03:59.17	266.77	13.68	-41.6	-42.4	21.6	0.00e+00	0	34	0	3483369472	53	4273
2026-01-17 05:04:00.18	266.67	13.59	-41.6	-42.4	21.6	0.00e+00	0	34	0	3489660928	53	4279
2026-01-17 05:04:01.19	266.57	13.50	-41.7	-42.6	21.5	0.00e+00	0	34	0	3494903808	53	4341
2026-01-17 05:04:02.20	266.47	13.41	-41.6	-42.5	21.5	0.00e+00	0	34	0	3500146688	53	4328
2026-01-17 05:04:03.21	266.37	13.32	-41.6	-42.5	21.5	0.00e+00	0	34	0	3506438144	53	4324
2026-01-17 05:04:04.22	266.27	13.24	-41.8	-42.6	21.4	0.00e+00	0	34	0	3511681024	54	4141
2026-01-17 05:04:05.22	266.18	13.15	-41.8	-42.7	21.3	0.00e+00	0	34	0	3516923904	54	4183
2026-01-17 05:04:06.23	266.08	13.06	-41.7	-42.6	21.4	0.00e+00	0	34	0	3523215360	54	4127
2026-01-17 05:04:07.24	265.98	12.97	-41.9	-42.8	21.3	0.00e+00	0	34	0	3529506816	54	4199
2026-01-17 05:04:08.25	265.89	12.89	-41.9	-42.8	21.2	0.00e+00	0	34	0	3534749696	54	4241
2026-01-17 05:04:09.26	265.79	12.80	-42.0	-42.9	21.1	0.00e+00	0	34	0	3539992576	54	4282
2026-01-17 05:04:10.26	265.70	12.71	-42.0	-42.9	21.2	0.00e+00	0	34	0	3546284032	54	4252
2026-01-17 05:04:11.27	265.61	12.63	-42.0	-42.9	21.1	0.00e+00	0	34	0	3551526912	54	4288
2026-01-17 05:04:12.28	265.51	12.54	-42.0	-42.9	21.1	0.00e+00	0	34	0	3557818368	54	4262
2026-01-17 05:04:13.29	265.42	12.46	-42.0	-42.9	21.1	0.00e+00	0	34	0	3563061248	54	4283
2026-01-17 05:04:14.30	265.33	12.37	-42.0	-42.9	21.1	0.00e+00	0	34	0	3568304128	54	4280
2026-01-17 05:04:15.31	265.23	12.28	-42.0	-42.9	21.1	0.00e+00	0	34	0	3574595584	54	4279
2026-01-17 05:04:16.32	265.14	12.20	-42.0	-42.9	21.1	0.00e+00	0	34	0	3579838464	54	4288
2026-01-17 05:04:17.32	265.05	12.11	-42.1	-43.0	21.0	0.00e+00	0	34	0	3585081344	54	4327
2026-01-17 05:04:18.33	264.96	12.03	-42.1	-43.0	21.0	0.00e+00	0	34	0	3591372800	54	4298
2026-01-17 05:04:19.34	264.87	11.95	-42.1	-43.0	21.0	0.00e+00	0	34	0	3597664256	54	4328
2026-01-17 05:04:20.35	264.78	11.86	-42.1	-43.0	21.0	0.00e+00	0	34	0	3602907136	54	4318
2026-01-17 05:04:21.36	264.70	11.78	-42.2	-43.1	20.9	0.00e+00	0	34	0	3608150016	54	4371
2026-01-17 05:04:22.37	264.61	11.69	-42.2	-43.1	20.9	0.00e+00	0	34	0	3614441472	54	4370
2026-01-17 05:04:23.37	264.52	11.61	-42.3	-43.2	20.8	0.00e+00	0	34	0	3619684352	55	4148
2026-01-17 05:04:24.38	264.43	11.53	-42.2	-43.1	20.8	0.00e+00	0	34	0	3624927232	55	4142
2026-01-17 05:04:25.39	264.35	11.44	-42.3	-43.2	20.8	0.00e+00	0	34	0	3631218688	55	4177
2026-01-17 05:04:26.40	264.26	11.36	-42.4	-43.3	20.7	0.00e+00	0	34	0	3636461568	55	4210
2026-01-17 05:04:27.40	264.18	11.28	-42.1	-43.0	21.0	0.00e+00	0	34	0	3642753024	55	4066
2026-01-17 05:04:28.41	264.09	11.20	-42.2	-43.1	20.8	0.00e+00	0	34	0	3647995904	55	4141
2026-01-17 05:04:29.42	264.01	11.11	-42.0	-42.9	21.0	0.00e+00	0	34	0	3653238784	55	4038
2026-01-17 05:04:30.43	263.92	11.03	-42.2	-43.1	20.9	0.00e+00	0	34	0	3659530240	55	4114
2026-01-17 05:04:31.44	263.84	10.95	-42.2	-43.1	20.8	0.00e+00	0	34	0	3665821696	55	4134
2026-01-17 05:04:32.45	263.76	10.87	-42.2	-43.1	20.8	0.00e+00	0	34	0	3671064576	55	4139
2026-01-17 05:04:33.45	263.68	10.79	-42.3	-43.2	20.7	0.00e+00	0	34	0	3676307456	55	4185
2026-01-17 05:04:34.46	263.59	10.71	-42.3	-43.2	20.7	0.00e+00	0	34	0	3682598912	55	4175
2026-01-17 05:04:35.47	263.51	10.62	-42.4	-43.4	20.5	0.00e+00	0	34	0	3687841792	55	4263
2026-01-17 05:04:36.48	263.43	10.54	-42.3	-43.2	20.7	0.00e+00	0	34	0	3693084672	55	4166
