passes_logs/2026/01/17/R3.2S_Murmansk/R3.2S_Murmansk__20260117_023446_NOAA_20_JPSS-1_rec.log

#Pass ID: 20260117_023446_NOAA 20 (JPSS-1)
#Satellite: NOAA 20 (JPSS-1)
#Configuration: NOAA 20
#almurnet v.1.7.20251203
#Start time: 2026-01-17 02:34:47

#Version: 2.2.20231116
#Station: R3.2S_Murmansk
#Location: 33.079688 lon 68.888172 lat
#TLE: 1 43013U 17073A   26015.89389188  .00000026  00000+0  33113-4 0  9999
#TLE: 2 43013  98.7636 316.8238 0001460  37.8997 322.2282 14.19536128422860

#Time	Az	El	Level	Level2	SNR	BER	BlckErr	Temp	State	Recorded	gain1	gain2
2026-01-17 02:34:47.62	34.44	2.05	-51.4	-66.4	3.8	1.49e+00	0	32	0	0	74	20162
2026-01-17 02:34:48.63	34.40	2.11	-51.4	-66.4	3.8	1.49e+00	0	32	104	0	73	21424
2026-01-17 02:34:49.63	34.36	2.17	-51.4	-66.4	3.8	1.49e+00	0	32	104	0	73	21320
2026-01-17 02:34:50.65	34.32	2.23	-51.4	-66.4	3.8	1.49e+00	0	32	104	0	73	21281
2026-01-17 02:34:51.65	34.28	2.30	-51.4	-66.4	3.8	1.49e+00	0	32	104	0	73	21270
2026-01-17 02:34:52.66	34.24	2.36	-51.4	-66.4	3.8	1.49e+00	0	32	104	0	73	21303
2026-01-17 02:34:53.68	34.19	2.42	-51.4	-66.4	3.8	1.49e+00	0	32	104	0	73	21273
2026-01-17 02:34:54.68	34.15	2.48	-51.4	-66.4	3.8	1.49e+00	0	32	104	0	73	21314
2026-01-17 02:34:55.69	34.11	2.55	-51.4	-66.3	3.8	1.49e+00	0	32	104	0	73	21234
2026-01-17 02:34:56.70	34.07	2.61	-51.4	-66.3	3.8	1.49e+00	0	32	104	0	73	21222
2026-01-17 02:34:57.71	34.03	2.67	-51.4	-66.3	3.8	1.49e+00	0	32	104	0	73	21139
2026-01-17 02:34:58.72	33.99	2.74	-51.4	-66.3	3.8	1.49e+00	0	32	104	0	73	21249
2026-01-17 02:34:59.73	33.94	2.80	-51.4	-66.4	3.8	1.49e+00	0	32	104	0	73	21299
2026-01-17 02:35:00.74	33.90	2.86	-51.4	-66.3	3.8	1.49e+00	0	33	104	0	73	21197
2026-01-17 02:35:01.75	33.86	2.93	-51.4	-66.2	3.8	1.49e+00	0	32	104	0	73	20974
2026-01-17 02:35:02.76	33.82	2.99	-51.4	-66.2	3.8	1.49e+00	0	32	104	0	73	20986
2026-01-17 02:35:03.76	33.77	3.05	-51.4	-66.1	3.8	1.49e+00	0	32	104	0	73	20753
2026-01-17 02:35:04.77	33.73	3.12	-51.4	-66.0	3.8	1.49e+00	0	32	104	0	73	20424
2026-01-17 02:35:05.78	33.69	3.18	-51.4	-66.0	3.8	1.49e+00	0	33	104	0	73	20454
2026-01-17 02:35:06.79	33.64	3.24	-51.4	-65.8	3.8	1.49e+00	0	33	104	0	73	20058
2026-01-17 02:35:07.80	33.60	3.31	-51.4	-65.8	3.8	1.49e+00	0	33	104	0	73	19936
2026-01-17 02:35:08.81	33.56	3.37	-51.4	-65.8	3.8	1.49e+00	0	33	104	0	73	19870
2026-01-17 02:35:09.82	33.51	3.44	-51.3	-65.5	3.8	1.49e+00	0	33	104	0	73	19191
2026-01-17 02:35:10.82	33.47	3.50	-51.3	-65.3	3.8	1.49e+00	0	33	104	0	73	18903
2026-01-17 02:35:11.83	33.42	3.57	-51.3	-65.2	3.8	1.49e+00	0	33	104	0	73	18642
2026-01-17 02:35:12.84	33.38	3.63	-51.3	-65.4	3.8	1.49e+00	0	33	104	0	73	18985
2026-01-17 02:35:13.85	33.33	3.70	-51.3	-65.5	3.8	1.49e+00	0	33	104	0	73	19383
2026-01-17 02:35:14.86	33.29	3.76	-51.4	-65.7	3.8	1.49e+00	0	33	104	0	73	19707
2026-01-17 02:35:15.87	33.24	3.83	-51.4	-66.0	3.8	1.49e+00	0	33	104	0	73	20305
2026-01-17 02:35:16.88	33.20	3.89	-51.3	-65.5	3.8	1.49e+00	0	33	104	0	73	19170
2026-01-17 02:35:17.89	33.15	3.96	-51.3	-65.0	3.8	1.49e+00	0	33	104	0	73	18187
2026-01-17 02:35:18.89	33.10	4.02	-51.3	-64.0	3.8	1.49e+00	0	33	104	0	73	16176
2026-01-17 02:35:19.90	33.06	4.09	-51.2	-62.5	4.3	1.37e+00	0	33	0	0	73	13608
2026-01-17 02:35:20.91	33.01	4.16	-51.0	-61.0	4.9	1.03e+00	0	33	0	1048576	73	11494
2026-01-17 02:35:21.92	32.96	4.22	-50.8	-59.0	6.2	4.08e-01	0	33	0	3145728	73	9137
2026-01-17 02:35:22.93	32.92	4.29	-50.7	-58.6	6.5	2.58e-01	0	33	0	5242880	73	8689
2026-01-17 02:35:23.94	32.87	4.35	-50.4	-57.3	7.8	1.44e-01	0	33	0	7340032	72	7938
2026-01-17 02:35:24.95	32.82	4.42	-50.3	-56.6	8.5	7.05e-02	0	33	0	8388608	72	7290
2026-01-17 02:35:25.96	32.78	4.49	-50.3	-56.7	8.4	4.78e-02	0	33	0	10485760	72	7423
2026-01-17 02:35:26.97	32.73	4.55	-50.1	-56.0	9.0	3.82e-02	0	33	0	12582912	72	6835
2026-01-17 02:35:27.97	32.68	4.62	-50.1	-56.1	9.0	2.37e-02	0	33	0	14680064	72	6900
2026-01-17 02:35:28.98	32.63	4.69	-50.3	-56.6	8.6	2.23e-02	0	33	0	15728640	72	7304
2026-01-17 02:35:29.99	32.58	4.76	-50.2	-56.3	8.8	2.91e-02	0	33	0	17825792	72	7093
2026-01-17 02:35:31.00	32.53	4.82	-50.5	-57.4	7.6	5.97e-02	0	33	0	19922944	72	8078
2026-01-17 02:35:32.01	32.48	4.89	-50.5	-57.4	7.7	7.24e-02	0	33	0	22020096	72	8080
2026-01-17 02:35:33.02	32.43	4.96	-50.7	-58.5	6.7	2.15e-01	0	33	0	24117248	72	9153
2026-01-17 02:35:34.02	32.38	5.03	-50.8	-59.0	6.2	2.16e-01	0	33	0	26214400	72	9705
2026-01-17 02:35:35.03	32.33	5.09	-50.0	-55.1	10.3	6.57e-03	0	33	0	27262976	72	6184
2026-01-17 02:35:36.04	32.28	5.16	-49.5	-53.8	11.7	1.47e-04	0	33	0	29360128	70	5978
2026-01-17 02:35:37.05	32.23	5.23	-51.0	-62.9	4.1	2.41e-01	0	33	0	31457280	72	15104
2026-01-17 02:35:38.06	32.18	5.30	-48.6	-51.7	14.0	3.43e-04	0	33	0	32505856	69	4936
2026-01-17 02:35:39.06	32.13	5.37	-51.4	-63.6	4.1	4.07e-01	0	33	0	34603008	73	15495
2026-01-17 02:35:40.07	32.08	5.44	-48.4	-51.4	14.2	7.08e-02	0	33	0	35651584	68	5051
2026-01-17 02:35:41.08	32.03	5.50	-48.5	-51.6	14.2	7.00e-07	0	33	0	37748736	68	5169
2026-01-17 02:35:42.09	31.98	5.57	-48.8	-52.1	13.7	7.00e-07	0	33	0	39845888	68	5468
2026-01-17 02:35:43.10	31.93	5.64	-48.8	-52.1	13.7	7.00e-07	0	33	0	40894464	68	5486
2026-01-17 02:35:44.11	31.87	5.71	-48.8	-52.0	13.7	2.20e-06	0	33	0	42991616	68	5457
2026-01-17 02:35:45.12	31.82	5.78	-48.6	-51.7	14.1	7.00e-07	0	33	0	45088768	68	5243
2026-01-17 02:35:46.12	31.77	5.85	-48.3	-51.2	14.6	0.00e+00	0	33	0	47185920	68	4973
2026-01-17 02:35:47.13	31.72	5.92	-48.7	-51.8	14.0	0.00e+00	0	33	0	49283072	68	5305
2026-01-17 02:35:48.14	31.66	5.99	-48.4	-51.2	14.7	7.00e-07	0	33	0	51380224	68	4975
2026-01-17 02:35:49.15	31.61	6.06	-48.6	-51.6	14.3	0.00e+00	0	33	0	52428800	68	5201
2026-01-17 02:35:50.16	31.55	6.13	-48.5	-51.6	14.4	0.00e+00	0	33	0	54525952	68	5171
2026-01-17 02:35:51.17	31.50	6.20	-48.3	-51.1	14.8	2.20e-06	0	33	0	56623104	68	4885
2026-01-17 02:35:52.18	31.45	6.27	-48.3	-51.2	14.8	0.00e+00	0	33	0	58720256	68	4946
2026-01-17 02:35:53.18	31.39	6.34	-48.3	-51.1	14.9	7.00e-07	0	33	0	60817408	68	4888
2026-01-17 02:35:54.19	31.34	6.42	-48.7	-51.8	14.1	0.00e+00	0	33	0	61865984	68	5322
2026-01-17 02:35:55.20	31.28	6.49	-48.3	-51.1	14.9	0.00e+00	0	34	0	63963136	68	4895
2026-01-17 02:35:56.21	31.23	6.56	-47.9	-50.5	15.4	0.00e+00	0	33	0	66060288	67	4842
2026-01-17 02:35:57.22	31.17	6.63	-48.1	-50.8	15.1	0.00e+00	0	34	0	68157440	67	4988
2026-01-17 02:35:58.23	31.11	6.70	-48.0	-50.7	15.2	0.00e+00	0	33	0	70254592	67	4931
2026-01-17 02:35:59.23	31.06	6.77	-47.9	-50.4	15.5	0.00e+00	0	33	0	71303168	67	4807
2026-01-17 02:36:00.24	31.00	6.84	-47.7	-50.2	15.8	0.00e+00	0	33	0	73400320	67	4657
2026-01-17 02:36:01.25	30.94	6.92	-48.1	-50.8	15.1	0.00e+00	0	34	0	75497472	67	5023
2026-01-17 02:36:02.26	30.89	6.99	-48.0	-50.5	15.4	0.00e+00	0	33	0	77594624	67	4867
2026-01-17 02:36:03.26	30.83	7.06	-47.9	-50.4	15.5	0.00e+00	0	33	0	79691776	67	4801
2026-01-17 02:36:04.27	30.77	7.13	-48.2	-50.9	15.0	0.00e+00	0	34	0	80740352	67	5077
2026-01-17 02:36:05.28	30.71	7.21	-47.9	-50.4	15.6	0.00e+00	0	34	0	82837504	67	4760
2026-01-17 02:36:06.29	30.65	7.28	-47.9	-50.5	15.5	0.00e+00	0	34	0	84934656	67	4841
2026-01-17 02:36:07.30	30.59	7.35	-48.0	-50.5	15.5	0.00e+00	0	33	0	87031808	67	4857
2026-01-17 02:36:08.30	30.54	7.43	-47.9	-50.4	15.7	0.00e+00	0	34	0	89128960	67	4764
2026-01-17 02:36:09.31	30.48	7.50	-48.0	-50.6	15.5	0.00e+00	0	34	0	91226112	67	4872
2026-01-17 02:36:10.32	30.42	7.57	-48.0	-50.6	15.4	0.00e+00	0	34	0	92274688	67	4922
2026-01-17 02:36:11.33	30.36	7.65	-48.0	-50.6	15.5	0.00e+00	0	34	0	94371840	67	4877
2026-01-17 02:36:12.34	30.29	7.72	-47.9	-50.4	15.7	0.00e+00	0	34	0	96468992	67	4764
2026-01-17 02:36:13.35	30.23	7.80	-47.6	-50.0	16.1	0.00e+00	0	34	0	98566144	66	4830
2026-01-17 02:36:14.36	30.17	7.87	-47.3	-49.6	16.5	0.00e+00	0	33	0	99614720	66	4601
2026-01-17 02:36:15.36	30.11	7.95	-47.9	-50.3	15.7	0.00e+00	0	34	0	101711872	66	5039
2026-01-17 02:36:16.37	30.05	8.02	-47.7	-50.1	16.0	0.00e+00	0	34	0	103809024	66	4877
2026-01-17 02:36:17.38	29.99	8.10	-47.7	-50.0	16.0	0.00e+00	0	33	0	105906176	66	4865
2026-01-17 02:36:18.39	29.92	8.17	-47.5	-49.7	16.4	0.00e+00	0	34	0	108003328	66	4676
2026-01-17 02:36:19.40	29.86	8.25	-47.5	-49.7	16.4	0.00e+00	0	34	0	109051904	66	4685
2026-01-17 02:36:20.41	29.80	8.32	-47.3	-49.5	16.6	0.00e+00	0	33	0	111149056	66	4567
2026-01-17 02:36:21.42	29.73	8.40	-47.4	-49.6	16.5	0.00e+00	0	34	0	113246208	66	4640
2026-01-17 02:36:22.43	29.67	8.48	-47.4	-49.5	16.6	0.00e+00	0	34	0	115343360	66	4594
2026-01-17 02:36:23.44	29.61	8.55	-47.2	-49.3	16.8	0.00e+00	0	34	0	117440512	66	4489
2026-01-17 02:36:24.45	29.54	8.63	-47.4	-49.6	16.6	0.00e+00	0	34	0	119537664	66	4627
2026-01-17 02:36:25.46	29.48	8.71	-47.4	-49.6	16.5	0.00e+00	0	34	0	120586240	66	4633
2026-01-17 02:36:26.46	29.41	8.78	-47.3	-49.5	16.6	0.00e+00	0	34	0	122683392	66	4569
2026-01-17 02:36:27.47	29.35	8.86	-47.3	-49.5	16.7	0.00e+00	0	34	0	124780544	66	4557
2026-01-17 02:36:28.48	29.28	8.94	-47.2	-49.3	16.8	0.00e+00	0	34	0	126877696	66	4493
2026-01-17 02:36:29.49	29.21	9.01	-47.2	-49.3	16.8	0.00e+00	0	34	0	127926272	66	4491
2026-01-17 02:36:30.50	29.15	9.09	-47.4	-49.6	16.6	0.00e+00	0	34	0	130023424	66	4637
2026-01-17 02:36:31.51	29.08	9.17	-47.0	-49.1	17.1	0.00e+00	0	34	0	132120576	66	4352
2026-01-17 02:36:32.52	29.01	9.25	-47.3	-49.4	16.8	0.00e+00	0	34	0	134217728	65	4799
2026-01-17 02:36:33.52	28.94	9.32	-47.1	-49.2	17.0	0.00e+00	0	34	0	136314880	65	4679
2026-01-17 02:36:34.53	28.87	9.40	-47.0	-49.0	17.1	0.00e+00	0	34	0	138412032	65	4598
2026-01-17 02:36:35.54	28.81	9.48	-47.1	-49.1	17.1	0.00e+00	0	34	0	139460608	65	4651
2026-01-17 02:36:36.55	28.74	9.56	-47.0	-49.1	17.2	0.00e+00	0	34	0	141557760	65	4599
2026-01-17 02:36:37.56	28.67	9.64	-46.8	-48.8	17.4	0.00e+00	0	34	0	143654912	65	4453
2026-01-17 02:36:38.56	28.60	9.72	-47.1	-49.1	17.1	0.00e+00	0	34	0	145752064	65	4640
2026-01-17 02:36:39.57	28.53	9.80	-47.1	-49.1	17.2	0.00e+00	0	34	0	147849216	65	4609
2026-01-17 02:36:40.58	28.46	9.88	-46.9	-48.9	17.4	0.00e+00	0	34	0	148897792	65	4497
2026-01-17 02:36:41.59	28.38	9.96	-47.1	-49.1	17.2	0.00e+00	0	34	0	150994944	65	4634
2026-01-17 02:36:42.60	28.31	10.04	-47.1	-49.1	17.2	0.00e+00	0	34	0	153092096	65	4619
2026-01-17 02:36:43.61	28.24	10.12	-47.1	-49.1	17.2	0.00e+00	0	34	0	155189248	65	4618
2026-01-17 02:36:44.62	28.17	10.20	-47.0	-49.0	17.3	0.00e+00	0	34	0	157286400	65	4555
2026-01-17 02:36:45.62	28.10	10.28	-47.0	-48.9	17.4	0.00e+00	0	34	0	158334976	65	4545
2026-01-17 02:36:46.63	28.02	10.36	-47.0	-49.0	17.3	0.00e+00	0	34	0	160432128	65	4582
2026-01-17 02:36:47.64	27.95	10.44	-47.4	-49.5	16.8	0.00e+00	0	34	0	162529280	65	4869
2026-01-17 02:36:48.65	27.87	10.52	-47.5	-49.7	16.7	0.00e+00	0	34	0	164626432	65	4944
2026-01-17 02:36:49.66	27.80	10.61	-47.2	-49.3	17.0	0.00e+00	0	34	0	166723584	65	4714
2026-01-17 02:36:50.67	27.72	10.69	-47.3	-49.5	16.9	0.00e+00	0	34	0	167772160	65	4815
2026-01-17 02:36:51.67	27.65	10.77	-47.3	-49.3	17.0	0.00e+00	0	34	0	169869312	65	4741
2026-01-17 02:36:52.68	27.57	10.85	-47.1	-49.2	17.2	0.00e+00	0	34	0	171966464	65	4653
2026-01-17 02:36:53.69	27.50	10.93	-47.2	-49.3	17.1	0.00e+00	0	34	0	174063616	65	4722
2026-01-17 02:36:54.70	27.42	11.02	-47.1	-49.1	17.3	0.00e+00	0	34	0	176160768	65	4603
2026-01-17 02:36:55.70	27.34	11.10	-47.1	-49.1	17.3	0.00e+00	0	34	0	177209344	65	4614
2026-01-17 02:36:56.71	27.27	11.18	-47.2	-49.3	17.1	0.00e+00	0	34	0	179306496	65	4709
2026-01-17 02:36:57.72	27.19	11.27	-47.1	-49.1	17.3	0.00e+00	0	34	0	181403648	65	4614
2026-01-17 02:36:58.73	27.11	11.35	-47.0	-48.9	17.5	0.00e+00	0	34	0	183500800	65	4510
2026-01-17 02:36:59.74	27.03	11.43	-47.0	-48.9	17.5	0.00e+00	0	34	0	185597952	65	4515
2026-01-17 02:37:00.75	26.95	11.52	-47.1	-49.0	17.4	0.00e+00	0	34	0	186646528	65	4581
2026-01-17 02:37:01.76	26.87	11.60	-47.1	-49.1	17.3	0.00e+00	0	34	0	188743680	65	4620
2026-01-17 02:37:02.76	26.79	11.69	-47.0	-48.8	17.6	0.00e+00	0	34	0	190840832	65	4491
2026-01-17 02:37:03.77	26.71	11.77	-47.1	-49.0	17.4	0.00e+00	0	34	0	192937984	65	4578
2026-01-17 02:37:04.78	26.63	11.86	-46.9	-48.8	17.7	0.00e+00	0	34	0	195035136	65	4474
2026-01-17 02:37:05.79	26.54	11.94	-46.8	-48.6	17.8	0.00e+00	0	34	0	196083712	65	4385
2026-01-17 02:37:06.80	26.46	12.03	-47.1	-49.1	17.5	0.00e+00	0	34	0	198180864	65	4603
2026-01-17 02:37:07.81	26.38	12.11	-47.0	-48.9	17.6	0.00e+00	0	34	0	200278016	65	4528
2026-01-17 02:37:08.81	26.30	12.20	-46.9	-48.7	17.8	0.00e+00	0	34	0	202375168	65	4423
2026-01-17 02:37:09.82	26.21	12.29	-46.9	-48.7	17.7	0.00e+00	0	34	0	204472320	65	4437
2026-01-17 02:37:10.83	26.13	12.37	-47.0	-48.9	17.6	0.00e+00	0	34	0	205520896	65	4516
2026-01-17 02:37:11.84	26.04	12.46	-46.9	-48.8	17.7	0.00e+00	0	34	0	207618048	65	4467
2026-01-17 02:37:12.85	25.96	12.55	-46.9	-48.8	17.7	0.00e+00	0	34	0	209715200	65	4480
2026-01-17 02:37:13.86	25.87	12.63	-46.9	-48.8	17.7	0.00e+00	0	34	0	211812352	65	4444
2026-01-17 02:37:14.86	25.78	12.72	-46.9	-48.8	17.7	0.00e+00	0	34	0	213909504	65	4464
2026-01-17 02:37:15.87	25.70	12.81	-47.0	-48.9	17.7	0.00e+00	0	34	0	214958080	65	4499
2026-01-17 02:37:16.88	25.61	12.90	-46.8	-48.6	17.9	0.00e+00	0	34	0	217055232	65	4382
2026-01-17 02:37:17.89	25.52	12.99	-46.8	-48.6	17.9	0.00e+00	0	34	0	219152384	65	4390
2026-01-17 02:37:18.90	25.43	13.07	-46.8	-48.6	17.9	0.00e+00	0	34	0	221249536	65	4375
2026-01-17 02:37:19.91	25.34	13.16	-46.9	-48.7	17.8	0.00e+00	0	34	0	223346688	65	4438
2026-01-17 02:37:20.92	25.25	13.25	-46.8	-48.6	18.0	0.00e+00	0	34	0	225443840	65	4370
2026-01-17 02:37:21.92	25.16	13.34	-46.8	-48.6	17.9	0.00e+00	0	34	0	226492416	65	4386
2026-01-17 02:37:22.93	25.07	13.43	-46.8	-48.7	17.9	0.00e+00	0	34	0	228589568	65	4404
2026-01-17 02:37:23.94	24.98	13.52	-46.8	-48.6	18.0	0.00e+00	0	34	0	230686720	65	4343
2026-01-17 02:37:24.95	24.89	13.61	-46.7	-48.6	18.0	0.00e+00	0	34	0	232783872	65	4346
2026-01-17 02:37:25.96	24.79	13.70	-46.7	-48.5	18.0	0.00e+00	0	34	0	233832448	65	4317
2026-01-17 02:37:26.97	24.70	13.79	-46.7	-48.5	18.0	0.00e+00	0	34	0	235929600	65	4320
2026-01-17 02:37:27.97	24.61	13.88	-46.8	-48.6	17.9	0.00e+00	0	34	0	238026752	65	4388
2026-01-17 02:37:28.98	24.51	13.97	-46.7	-48.5	18.1	0.00e+00	0	34	0	240123904	65	4302
2026-01-17 02:37:29.99	24.42	14.06	-46.7	-48.5	18.1	0.00e+00	0	34	0	242221056	65	4317
2026-01-17 02:37:31.00	24.32	14.16	-46.5	-48.3	18.3	0.00e+00	0	34	0	243269632	65	4201
2026-01-17 02:37:32.01	24.22	14.25	-46.7	-48.5	18.1	0.00e+00	0	34	0	245366784	65	4313
2026-01-17 02:37:33.02	24.13	14.34	-46.6	-48.3	18.3	0.00e+00	0	34	0	247463936	65	4234
2026-01-17 02:37:34.02	24.03	14.43	-46.6	-48.4	18.2	0.00e+00	0	34	0	249561088	65	4244
2026-01-17 02:37:35.03	23.93	14.52	-46.5	-48.2	18.3	0.00e+00	0	34	0	251658240	65	4191
2026-01-17 02:37:36.04	23.83	14.62	-46.6	-48.4	18.2	0.00e+00	0	34	0	253755392	65	4261
2026-01-17 02:37:37.05	23.73	14.71	-46.6	-48.3	18.3	0.00e+00	0	34	0	254803968	65	4227
2026-01-17 02:37:38.06	23.63	14.80	-46.5	-48.2	18.4	0.00e+00	0	34	0	256901120	65	4164
2026-01-17 02:37:39.07	23.53	14.90	-46.5	-48.2	18.4	0.00e+00	0	34	0	258998272	65	4157
2026-01-17 02:37:40.08	23.43	14.99	-46.5	-48.1	18.5	0.00e+00	0	34	0	261095424	64	4386
2026-01-17 02:37:41.08	23.33	15.08	-46.6	-48.3	18.3	0.00e+00	0	34	0	262144000	64	4467
2026-01-17 02:37:42.09	23.22	15.18	-46.6	-48.3	18.3	0.00e+00	0	34	0	264241152	64	4481
2026-01-17 02:37:43.10	23.12	15.27	-46.4	-48.0	18.6	0.00e+00	0	34	0	266338304	64	4336
2026-01-17 02:37:44.11	23.01	15.37	-46.7	-48.5	18.2	0.00e+00	0	34	0	268435456	64	4546
2026-01-17 02:37:45.12	22.91	15.46	-46.5	-48.2	18.4	0.00e+00	0	34	0	270532608	64	4397
2026-01-17 02:37:46.13	22.80	15.56	-46.4	-48.0	18.6	0.00e+00	0	34	0	272629760	64	4331
2026-01-17 02:37:47.13	22.70	15.66	-46.3	-48.0	18.7	0.00e+00	0	34	0	273678336	64	4299
2026-01-17 02:37:48.14	22.59	15.75	-46.5	-48.1	18.5	0.00e+00	0	34	0	275775488	64	4382
2026-01-17 02:37:49.15	22.48	15.85	-46.5	-48.2	18.4	0.00e+00	0	34	0	277872640	64	4428
2026-01-17 02:37:50.16	22.37	15.95	-46.5	-48.2	18.5	0.00e+00	0	34	0	279969792	64	4403
2026-01-17 02:37:51.16	22.27	16.04	-46.4	-48.0	18.6	0.00e+00	0	34	0	282066944	64	4338
2026-01-17 02:37:52.17	22.16	16.14	-46.5	-48.2	18.5	0.00e+00	0	34	0	283115520	64	4412
2026-01-17 02:37:53.18	22.04	16.24	-46.6	-48.2	18.4	0.00e+00	0	34	0	285212672	64	4439
2026-01-17 02:37:54.19	21.93	16.33	-46.7	-48.4	18.2	0.00e+00	0	34	0	287309824	64	4538
2026-01-17 02:37:55.20	21.82	16.43	-46.6	-48.3	18.4	0.00e+00	0	34	0	289406976	64	4448
2026-01-17 02:37:56.21	21.71	16.53	-46.6	-48.3	18.4	0.00e+00	0	34	0	291504128	64	4479
2026-01-17 02:37:57.22	21.59	16.63	-46.5	-48.2	18.5	0.00e+00	0	34	0	292552704	64	4429
2026-01-17 02:37:58.23	21.48	16.73	-46.7	-48.4	18.3	0.00e+00	0	34	0	294649856	64	4508
2026-01-17 02:37:59.24	21.36	16.83	-46.6	-48.3	18.4	0.00e+00	0	34	0	296747008	64	4447
2026-01-17 02:38:00.25	21.25	16.93	-46.6	-48.2	18.5	0.00e+00	0	34	0	298844160	64	4430
2026-01-17 02:38:01.25	21.13	17.03	-46.7	-48.4	18.3	0.00e+00	0	34	0	300941312	64	4504
2026-01-17 02:38:02.26	21.01	17.13	-46.5	-48.1	18.6	0.00e+00	0	34	0	301989888	64	4364
2026-01-17 02:38:03.27	20.89	17.23	-46.5	-48.2	18.5	0.00e+00	0	34	0	304087040	64	4431
2026-01-17 02:38:04.28	20.78	17.33	-46.6	-48.3	18.4	0.00e+00	0	34	0	306184192	64	4470
2026-01-17 02:38:05.28	20.66	17.43	-46.6	-48.3	18.4	0.00e+00	0	34	0	308281344	64	4466
2026-01-17 02:38:06.29	20.54	17.53	-46.6	-48.3	18.4	0.00e+00	0	34	0	310378496	64	4476
2026-01-17 02:38:07.30	20.41	17.63	-46.7	-48.4	18.3	0.00e+00	0	34	0	311427072	64	4535
2026-01-17 02:38:08.30	20.29	17.73	-46.5	-48.1	18.6	0.00e+00	0	34	0	313524224	64	4383
2026-01-17 02:38:09.31	20.17	17.83	-46.5	-48.2	18.6	0.00e+00	0	34	0	315621376	64	4407
2026-01-17 02:38:10.32	20.04	17.94	-46.5	-48.2	18.6	0.00e+00	0	34	0	317718528	64	4411
2026-01-17 02:38:11.33	19.92	18.04	-46.5	-48.2	18.6	0.00e+00	0	34	0	319815680	64	4421
2026-01-17 02:38:12.34	19.79	18.14	-46.3	-47.9	18.8	0.00e+00	0	34	0	320864256	64	4287
2026-01-17 02:38:13.35	19.66	18.24	-46.4	-48.0	18.8	0.00e+00	0	34	0	322961408	64	4309
2026-01-17 02:38:14.36	19.54	18.35	-46.4	-48.0	18.8	0.00e+00	0	34	0	325058560	64	4299
2026-01-17 02:38:15.37	19.41	18.45	-46.4	-48.0	18.9	0.00e+00	0	34	0	327155712	64	4295
2026-01-17 02:38:16.38	19.28	18.56	-46.3	-47.8	19.0	0.00e+00	0	34	0	329252864	64	4230
2026-01-17 02:38:17.39	19.15	18.66	-46.2	-47.8	19.0	0.00e+00	0	34	0	330301440	64	4220
2026-01-17 02:38:18.40	19.02	18.77	-46.4	-48.0	18.8	0.00e+00	0	34	0	332398592	64	4296
2026-01-17 02:38:19.41	18.88	18.87	-46.4	-47.9	18.8	0.00e+00	0	34	0	334495744	64	4289
2026-01-17 02:38:20.42	18.75	18.98	-46.3	-47.8	19.0	0.00e+00	0	34	0	336592896	64	4239
2026-01-17 02:38:21.43	18.61	19.08	-46.3	-47.9	18.9	0.00e+00	0	34	0	338690048	64	4250
2026-01-17 02:38:22.43	18.48	19.19	-46.2	-47.8	19.0	0.00e+00	0	34	0	340787200	64	4215
2026-01-17 02:38:23.44	18.34	19.29	-46.3	-47.8	19.0	0.00e+00	0	34	0	341835776	64	4224
2026-01-17 02:38:24.45	18.21	19.40	-46.3	-47.9	18.9	0.00e+00	0	34	0	343932928	64	4262
2026-01-17 02:38:25.46	18.07	19.50	-46.4	-48.1	18.7	0.00e+00	0	34	0	346030080	64	4341
2026-01-17 02:38:26.46	17.93	19.61	-46.4	-48.0	18.8	0.00e+00	0	34	0	348127232	64	4319
2026-01-17 02:38:27.47	17.79	19.72	-46.5	-48.1	18.7	0.00e+00	0	34	0	349175808	64	4368
2026-01-17 02:38:28.48	17.65	19.83	-46.6	-48.3	18.6	0.00e+00	0	34	0	351272960	64	4453
2026-01-17 02:38:29.49	17.51	19.93	-46.6	-48.3	18.6	0.00e+00	0	34	0	353370112	64	4452
2026-01-17 02:38:30.50	17.36	20.04	-46.6	-48.3	18.6	0.00e+00	0	34	0	355467264	64	4454
2026-01-17 02:38:31.50	17.22	20.15	-46.6	-48.2	18.6	0.00e+00	0	34	0	357564416	64	4436
2026-01-17 02:38:32.51	17.07	20.26	-46.7	-48.3	18.6	0.00e+00	0	34	0	359661568	64	4492
2026-01-17 02:38:33.52	16.93	20.37	-46.7	-48.4	18.5	0.00e+00	0	34	0	360710144	64	4497
2026-01-17 02:38:34.53	16.78	20.47	-46.7	-48.4	18.5	0.00e+00	0	34	0	362807296	64	4503
2026-01-17 02:38:35.54	16.63	20.58	-46.7	-48.4	18.5	0.00e+00	0	34	0	364904448	64	4527
2026-01-17 02:38:36.55	16.48	20.69	-46.9	-48.6	18.2	0.00e+00	0	34	0	367001600	64	4646
2026-01-17 02:38:37.56	16.33	20.80	-47.0	-48.7	18.2	0.00e+00	0	34	0	369098752	64	4697
2026-01-17 02:38:38.57	16.18	20.91	-46.8	-48.5	18.4	0.00e+00	0	34	0	370147328	64	4592
2026-01-17 02:38:39.58	16.02	21.02	-46.9	-48.7	18.2	0.00e+00	0	34	0	372244480	64	4668
2026-01-17 02:38:40.58	15.87	21.13	-47.1	-48.9	18.1	0.00e+00	0	34	0	374341632	64	4767
2026-01-17 02:38:41.59	15.72	21.24	-47.0	-48.7	18.2	0.00e+00	0	34	0	376438784	64	4686
2026-01-17 02:38:42.60	15.56	21.36	-47.0	-48.7	18.2	0.00e+00	0	34	0	377487360	64	4695
2026-01-17 02:38:43.61	15.40	21.47	-47.0	-48.7	18.2	0.00e+00	0	34	0	379584512	64	4703
2026-01-17 02:38:44.62	15.24	21.58	-47.0	-48.8	18.2	0.00e+00	0	34	0	381681664	64	4723
2026-01-17 02:38:45.62	15.09	21.69	-47.1	-48.9	18.1	0.00e+00	0	34	0	383778816	64	4772
2026-01-17 02:38:46.63	14.92	21.80	-46.9	-48.6	18.3	0.00e+00	0	34	0	385875968	64	4621
2026-01-17 02:38:47.64	14.76	21.91	-47.0	-48.7	18.2	0.00e+00	0	34	0	387973120	64	4671
2026-01-17 02:38:48.65	14.60	22.03	-46.9	-48.5	18.4	0.00e+00	0	34	0	389021696	64	4598
2026-01-17 02:38:49.66	14.43	22.14	-46.9	-48.6	18.4	0.00e+00	0	34	0	391118848	64	4617
2026-01-17 02:38:50.67	14.27	22.25	-46.9	-48.6	18.3	0.00e+00	0	34	0	393216000	64	4648
2026-01-17 02:38:51.68	14.10	22.37	-46.9	-48.6	18.4	0.00e+00	0	34	0	395313152	64	4605
2026-01-17 02:38:52.69	13.93	22.48	-46.9	-48.6	18.4	0.00e+00	0	34	0	397410304	64	4605
2026-01-17 02:38:53.69	13.76	22.59	-46.8	-48.5	18.5	0.00e+00	0	34	0	398458880	64	4578
2026-01-17 02:38:54.70	13.59	22.71	-46.7	-48.3	18.7	0.00e+00	0	34	0	400556032	64	4474
2026-01-17 02:38:55.71	13.42	22.82	-46.6	-48.2	18.7	0.00e+00	0	34	0	402653184	64	4436
2026-01-17 02:38:56.72	13.25	22.94	-46.6	-48.2	18.8	0.00e+00	0	34	0	404750336	64	4423
2026-01-17 02:38:57.73	13.07	23.05	-46.6	-48.2	18.8	0.00e+00	0	34	0	406847488	64	4401
2026-01-17 02:38:58.73	12.90	23.17	-46.6	-48.3	18.7	0.00e+00	0	34	0	407896064	64	4457
2026-01-17 02:38:59.74	12.72	23.28	-46.7	-48.3	18.7	0.00e+00	0	34	0	409993216	64	4470
2026-01-17 02:39:00.75	12.54	23.40	-46.4	-48.0	19.0	0.00e+00	0	34	0	412090368	64	4304
2026-01-17 02:39:01.76	12.36	23.51	-46.5	-48.1	18.9	0.00e+00	0	34	0	414187520	64	4358
2026-01-17 02:39:02.77	12.18	23.63	-46.6	-48.2	18.8	0.00e+00	0	34	0	416284672	64	4414
2026-01-17 02:39:03.78	12.00	23.74	-46.6	-48.2	18.8	0.00e+00	0	34	0	417333248	64	4398
2026-01-17 02:39:04.78	11.81	23.86	-46.6	-48.2	18.8	0.00e+00	0	34	0	419430400	64	4440
2026-01-17 02:39:05.79	11.63	23.98	-46.7	-48.3	18.7	0.00e+00	0	34	0	421527552	64	4463
2026-01-17 02:39:06.80	11.44	24.09	-46.6	-48.3	18.7	0.00e+00	0	34	0	423624704	64	4455
2026-01-17 02:39:07.81	11.25	24.21	-46.7	-48.4	18.6	0.00e+00	0	34	0	425721856	64	4517
2026-01-17 02:39:08.82	11.06	24.33	-46.9	-48.6	18.4	0.00e+00	0	34	0	427819008	64	4621
2026-01-17 02:39:09.83	10.87	24.44	-46.9	-48.6	18.5	0.00e+00	0	34	0	428867584	64	4610
2026-01-17 02:39:10.84	10.68	24.56	-47.0	-48.7	18.3	0.00e+00	0	34	0	430964736	64	4691
2026-01-17 02:39:11.84	10.48	24.68	-46.9	-48.6	18.4	0.00e+00	0	34	0	433061888	64	4632
2026-01-17 02:39:12.85	10.29	24.79	-46.9	-48.6	18.4	0.00e+00	0	34	0	435159040	64	4611
2026-01-17 02:39:13.86	10.09	24.91	-47.0	-48.7	18.3	0.00e+00	0	34	0	436207616	64	4676
2026-01-17 02:39:14.87	9.89	25.03	-47.0	-48.7	18.4	0.00e+00	0	34	0	438304768	64	4659
2026-01-17 02:39:15.88	9.69	25.15	-46.9	-48.6	18.5	0.00e+00	0	34	0	440401920	64	4609
2026-01-17 02:39:16.88	9.49	25.27	-46.9	-48.5	18.5	0.00e+00	0	34	0	442499072	64	4591
2026-01-17 02:39:17.89	9.29	25.38	-46.8	-48.4	18.6	0.00e+00	0	34	0	444596224	64	4537
2026-01-17 02:39:18.90	9.08	25.50	-46.9	-48.6	18.4	0.00e+00	0	34	0	445644800	64	4636
2026-01-17 02:39:19.90	8.88	25.62	-47.2	-49.0	18.1	0.00e+00	0	34	0	447741952	64	4836
2026-01-17 02:39:20.91	8.67	25.74	-47.4	-49.2	17.9	0.00e+00	0	34	0	449839104	65	4676
2026-01-17 02:39:21.92	8.46	25.86	-47.6	-49.5	17.6	0.00e+00	0	34	0	451936256	65	4853
2026-01-17 02:39:22.93	8.25	25.98	-47.8	-49.7	17.4	0.00e+00	0	34	0	454033408	66	4680
2026-01-17 02:39:23.94	8.04	26.10	-47.8	-49.8	17.3	0.00e+00	0	34	0	456130560	66	4713
2026-01-17 02:39:24.94	7.83	26.21	-47.9	-49.9	17.2	0.00e+00	0	34	0	457179136	66	4779
2026-01-17 02:39:25.95	7.61	26.33	-47.9	-49.9	17.2	0.00e+00	0	34	0	459276288	66	4812
2026-01-17 02:39:26.96	7.39	26.45	-48.0	-50.1	17.0	0.00e+00	0	34	0	461373440	66	4916
2026-01-17 02:39:27.97	7.17	26.57	-48.1	-50.2	16.9	0.00e+00	0	34	0	463470592	66	4979
2026-01-17 02:39:28.98	6.95	26.69	-48.2	-50.4	16.7	0.00e+00	0	34	0	464519168	67	4775
2026-01-17 02:39:29.99	6.73	26.81	-48.3	-50.5	16.6	0.00e+00	0	34	0	466616320	67	4824
2026-01-17 02:39:31.00	6.50	26.93	-48.1	-50.2	16.9	0.00e+00	0	34	0	468713472	67	4674
2026-01-17 02:39:32.00	6.28	27.05	-48.2	-50.4	16.7	0.00e+00	0	34	0	470810624	67	4774
2026-01-17 02:39:33.01	6.05	27.17	-48.2	-50.4	16.7	0.00e+00	0	34	0	472907776	67	4797
2026-01-17 02:39:34.02	5.82	27.29	-48.3	-50.4	16.7	0.00e+00	0	34	0	475004928	67	4811
2026-01-17 02:39:35.03	5.59	27.41	-48.2	-50.4	16.8	0.00e+00	0	34	0	476053504	67	4766
2026-01-17 02:39:36.04	5.36	27.53	-48.1	-50.2	16.9	0.00e+00	0	34	0	478150656	67	4671
2026-01-17 02:39:37.05	5.12	27.65	-48.0	-50.0	17.1	0.00e+00	0	34	0	480247808	67	4580
2026-01-17 02:39:38.06	4.89	27.77	-47.9	-50.0	17.2	0.00e+00	0	34	0	482344960	67	4548
2026-01-17 02:39:39.06	4.65	27.88	-47.9	-50.0	17.1	0.00e+00	0	34	0	484442112	67	4557
2026-01-17 02:39:40.07	4.41	28.00	-48.1	-50.1	17.0	0.00e+00	0	34	0	485490688	67	4637
2026-01-17 02:39:41.08	4.17	28.12	-48.1	-50.1	17.0	0.00e+00	0	34	0	487587840	67	4647
2026-01-17 02:39:42.09	3.92	28.24	-48.2	-50.4	16.8	0.00e+00	0	34	0	489684992	67	4784
2026-01-17 02:39:43.10	3.68	28.36	-48.3	-50.4	16.7	0.00e+00	0	34	0	491782144	67	4798
2026-01-17 02:39:44.10	3.43	28.48	-48.2	-50.4	16.8	0.00e+00	0	34	0	492830720	67	4782
2026-01-17 02:39:45.11	3.18	28.60	-48.3	-50.5	16.7	0.00e+00	0	34	0	494927872	67	4826
2026-01-17 02:39:46.12	2.93	28.72	-48.4	-50.6	16.6	0.00e+00	0	34	0	497025024	67	4872
2026-01-17 02:39:47.13	2.68	28.84	-48.3	-50.4	16.8	0.00e+00	0	34	0	499122176	67	4781
2026-01-17 02:39:48.14	2.42	28.95	-48.2	-50.3	16.9	0.00e+00	0	34	0	501219328	67	4706
2026-01-17 02:39:49.15	2.16	29.07	-48.1	-50.2	17.0	0.00e+00	0	34	0	503316480	67	4666
2026-01-17 02:39:50.16	1.91	29.19	-48.1	-50.1	17.1	0.00e+00	0	34	0	504365056	67	4626
2026-01-17 02:39:51.17	1.64	29.31	-48.1	-50.2	17.0	0.00e+00	0	34	0	506462208	67	4661
2026-01-17 02:39:52.18	1.38	29.43	-48.1	-50.2	17.0	0.00e+00	0	34	0	508559360	67	4664
2026-01-17 02:39:53.18	1.12	29.54	-48.3	-50.5	16.7	0.00e+00	0	34	0	510656512	67	4829
2026-01-17 02:39:54.19	0.85	29.66	-48.2	-50.4	16.8	0.00e+00	0	34	0	512753664	67	4779
2026-01-17 02:39:55.20	0.58	29.78	-48.3	-50.4	16.8	0.00e+00	0	34	0	513802240	67	4805
2026-01-17 02:39:56.21	0.31	29.90	-48.1	-50.2	17.0	0.00e+00	0	34	0	515899392	67	4675
2026-01-17 02:39:57.22	0.04	30.01	-48.2	-50.3	16.9	0.00e+00	0	34	0	517996544	67	4741
2026-01-17 02:39:58.23	359.77	30.13	-48.2	-50.3	16.9	0.00e+00	0	34	0	520093696	67	4743
2026-01-17 02:39:59.24	359.49	30.25	-48.3	-50.5	16.7	0.00e+00	0	34	0	522190848	67	4839
2026-01-17 02:40:00.24	359.21	30.36	-48.2	-50.3	16.9	0.00e+00	0	34	0	523239424	67	4729
2026-01-17 02:40:01.25	358.93	30.48	-48.1	-50.1	17.1	0.00e+00	0	34	0	525336576	67	4651
2026-01-17 02:40:02.26	358.65	30.59	-47.8	-49.7	17.5	0.00e+00	0	34	0	527433728	67	4407
2026-01-17 02:40:03.27	358.36	30.71	-47.6	-49.5	17.7	0.00e+00	0	34	0	529530880	67	4302
2026-01-17 02:40:04.28	358.08	30.82	-47.5	-49.3	17.9	0.00e+00	0	34	0	531628032	66	4464
2026-01-17 02:40:05.29	357.79	30.94	-47.6	-49.4	17.8	0.00e+00	0	34	0	532676608	66	4533
2026-01-17 02:40:06.30	357.50	31.05	-47.9	-49.8	17.4	0.00e+00	0	34	0	534773760	66	4736
2026-01-17 02:40:07.30	357.21	31.16	-48.2	-50.3	16.9	0.00e+00	0	34	0	536870912	67	4738
2026-01-17 02:40:08.31	356.91	31.28	-48.4	-50.6	16.6	0.00e+00	0	34	0	538968064	67	4889
2026-01-17 02:40:09.32	356.61	31.39	-48.7	-51.0	16.2	0.00e+00	0	34	0	541065216	67	5145
2026-01-17 02:40:10.33	356.31	31.50	-49.1	-51.6	15.8	0.00e+00	0	34	0	542113792	68	5171
2026-01-17 02:40:11.34	356.01	31.61	-49.2	-51.8	15.6	0.00e+00	0	34	0	544210944	69	4992
2026-01-17 02:40:12.34	355.71	31.73	-49.2	-51.8	15.5	0.00e+00	0	34	0	546308096	69	5018
2026-01-17 02:40:13.35	355.41	31.84	-49.3	-52.0	15.4	0.00e+00	0	34	0	548405248	69	5108
2026-01-17 02:40:14.36	355.10	31.95	-49.4	-52.0	15.3	0.00e+00	0	34	0	550502400	69	5152
2026-01-17 02:40:15.37	354.79	32.06	-49.6	-52.4	14.9	0.00e+00	0	34	0	551550976	69	5347
2026-01-17 02:40:16.38	354.48	32.17	-49.6	-52.4	14.9	0.00e+00	0	34	0	553648128	69	5359
2026-01-17 02:40:17.39	354.16	32.27	-49.7	-52.6	14.7	0.00e+00	0	34	0	555745280	70	5208
2026-01-17 02:40:18.40	353.85	32.38	-49.8	-52.7	14.7	0.00e+00	0	34	0	557842432	70	5220
2026-01-17 02:40:19.41	353.53	32.49	-49.9	-52.9	14.5	7.00e-07	0	34	0	559939584	70	5351
2026-01-17 02:40:20.42	353.21	32.60	-49.9	-52.8	14.5	7.00e-07	0	34	0	562036736	70	5340
2026-01-17 02:40:21.42	352.89	32.70	-50.0	-53.0	14.3	0.00e+00	0	34	0	563085312	70	5444
2026-01-17 02:40:22.43	352.56	32.81	-50.1	-53.2	14.1	0.00e+00	0	34	0	565182464	70	5585
2026-01-17 02:40:23.44	352.23	32.91	-50.1	-53.3	14.0	0.00e+00	0	34	0	567279616	70	5638
2026-01-17 02:40:24.45	351.91	33.02	-50.3	-53.7	13.7	4.50e-06	0	34	0	569376768	71	5538
2026-01-17 02:40:25.46	351.57	33.12	-50.3	-53.8	13.5	3.80e-06	0	34	0	570425344	71	5628
2026-01-17 02:40:26.47	351.24	33.22	-50.5	-54.2	13.0	2.21e-05	0	34	0	572522496	71	5919
2026-01-17 02:40:27.47	350.91	33.32	-50.5	-54.3	13.0	4.42e-05	0	34	0	574619648	71	5956
2026-01-17 02:40:28.48	350.57	33.43	-50.7	-54.7	12.6	6.17e-05	0	34	0	576716800	71	6216
2026-01-17 02:40:29.49	350.23	33.53	-50.7	-54.6	12.6	7.47e-05	0	34	0	578813952	72	5855
2026-01-17 02:40:30.50	349.89	33.62	-50.8	-54.8	12.4	9.76e-05	0	34	0	579862528	72	5937
2026-01-17 02:40:31.51	349.55	33.72	-50.7	-54.6	12.6	9.91e-05	0	34	0	581959680	72	5812
2026-01-17 02:40:32.52	349.20	33.82	-50.7	-54.5	12.8	7.62e-05	0	34	0	584056832	72	5750
2026-01-17 02:40:33.52	348.85	33.92	-50.8	-54.6	12.6	9.46e-05	0	34	0	586153984	72	5800
2026-01-17 02:40:34.53	348.50	34.01	-50.5	-54.0	13.3	3.35e-05	0	34	0	588251136	72	5412
2026-01-17 02:40:35.54	348.15	34.11	-50.2	-53.5	13.8	1.37e-05	0	34	0	590348288	72	5123
2026-01-17 02:40:36.55	347.80	34.20	-49.9	-52.8	14.5	1.50e-06	0	34	0	591396864	71	5035
2026-01-17 02:40:37.56	347.44	34.30	-49.8	-52.6	14.7	1.50e-06	0	34	0	593494016	71	4905
2026-01-17 02:40:38.57	347.08	34.39	-49.6	-52.4	15.0	0.00e+00	0	34	0	595591168	71	4760
2026-01-17 02:40:39.57	346.73	34.48	-49.6	-52.4	15.0	0.00e+00	0	34	0	597688320	71	4782
2026-01-17 02:40:40.58	346.36	34.57	-49.7	-52.5	14.9	0.00e+00	0	34	0	598736896	71	4847
2026-01-17 02:40:41.59	346.00	34.66	-49.6	-52.4	15.0	0.00e+00	0	34	0	600834048	71	4782
2026-01-17 02:40:42.60	345.63	34.75	-49.4	-52.0	15.4	0.00e+00	0	34	0	602931200	70	4829
2026-01-17 02:40:43.61	345.26	34.83	-49.0	-51.4	16.0	0.00e+00	0	34	0	605028352	70	4519
2026-01-17 02:40:44.62	344.89	34.92	-49.0	-51.3	16.0	0.00e+00	0	34	0	607125504	69	4739
2026-01-17 02:40:45.63	344.52	35.00	-48.9	-51.2	16.1	0.00e+00	0	34	0	609222656	69	4703
2026-01-17 02:40:46.64	344.15	35.09	-48.7	-50.9	16.5	0.00e+00	0	34	0	610271232	69	4535
2026-01-17 02:40:47.64	343.77	35.17	-48.5	-50.6	16.8	0.00e+00	0	34	0	612368384	68	4619
2026-01-17 02:40:48.65	343.40	35.25	-48.0	-50.0	17.4	0.00e+00	0	34	0	614465536	68	4316
2026-01-17 02:40:49.66	343.02	35.33	-47.5	-49.3	18.0	0.00e+00	0	34	0	616562688	67	4200
2026-01-17 02:40:50.67	342.63	35.41	-47.1	-48.8	18.5	0.00e+00	0	34	0	618659840	66	4209
2026-01-17 02:40:51.68	342.25	35.48	-46.9	-48.6	18.7	0.00e+00	0	34	0	619708416	65	4352
2026-01-17 02:40:52.69	341.86	35.56	-46.9	-48.5	18.7	0.00e+00	0	34	0	621805568	65	4336
2026-01-17 02:40:53.70	341.48	35.64	-47.0	-48.6	18.7	0.00e+00	0	34	0	623902720	65	4382
2026-01-17 02:40:54.71	341.09	35.71	-47.0	-48.7	18.6	0.00e+00	0	34	0	625999872	65	4396
2026-01-17 02:40:55.71	340.70	35.78	-46.8	-48.3	18.9	0.00e+00	0	34	0	628097024	65	4230
2026-01-17 02:40:56.72	340.31	35.85	-46.8	-48.4	18.9	0.00e+00	0	34	0	629145600	65	4279
2026-01-17 02:40:57.73	339.91	35.92	-46.7	-48.3	19.0	0.00e+00	0	34	0	631242752	65	4216
2026-01-17 02:40:58.74	339.52	35.99	-46.7	-48.3	19.1	0.00e+00	0	34	0	633339904	65	4194
2026-01-17 02:40:59.74	339.12	36.05	-46.7	-48.3	19.0	0.00e+00	0	34	0	635437056	65	4228
2026-01-17 02:41:00.75	338.72	36.12	-46.7	-48.2	19.0	0.00e+00	0	34	0	637534208	65	4188
2026-01-17 02:41:01.76	338.32	36.18	-46.7	-48.3	19.0	0.00e+00	0	34	0	638582784	65	4195
2026-01-17 02:41:02.77	337.92	36.24	-46.5	-48.1	19.3	0.00e+00	0	34	0	640679936	65	4102
2026-01-17 02:41:03.78	337.52	36.30	-46.5	-47.9	19.3	0.00e+00	0	34	0	642777088	64	4289
2026-01-17 02:41:04.79	337.11	36.36	-46.4	-47.8	19.5	0.00e+00	0	34	0	644874240	64	4230
2026-01-17 02:41:05.80	336.70	36.42	-46.3	-47.7	19.6	0.00e+00	0	34	0	646971392	64	4189
2026-01-17 02:41:06.81	336.30	36.48	-46.3	-47.7	19.5	0.00e+00	0	34	0	648019968	64	4179
2026-01-17 02:41:07.82	335.89	36.53	-46.3	-47.8	19.5	0.00e+00	0	34	0	650117120	64	4201
2026-01-17 02:41:08.82	335.48	36.58	-46.4	-47.9	19.4	0.00e+00	0	34	0	652214272	64	4285
2026-01-17 02:41:09.83	335.07	36.63	-46.2	-47.6	19.6	0.00e+00	0	34	0	654311424	64	4142
2026-01-17 02:41:10.85	334.65	36.68	-46.1	-47.5	19.8	0.00e+00	0	34	0	656408576	64	4069
2026-01-17 02:41:11.85	334.24	36.73	-46.1	-47.4	20.0	0.00e+00	0	34	0	657457152	63	4283
2026-01-17 02:41:12.86	333.82	36.78	-46.1	-47.5	19.9	0.00e+00	0	34	0	659554304	63	4302
2026-01-17 02:41:13.87	333.40	36.82	-46.1	-47.5	19.9	0.00e+00	0	34	0	661651456	63	4328
2026-01-17 02:41:14.88	332.99	36.87	-45.9	-47.3	20.1	0.00e+00	0	34	0	663748608	63	4214
2026-01-17 02:41:15.89	332.57	36.91	-45.8	-47.1	20.3	0.00e+00	0	34	0	665845760	63	4123
2026-01-17 02:41:16.90	332.15	36.95	-45.7	-47.1	20.3	0.00e+00	0	34	0	666894336	63	4113
2026-01-17 02:41:17.91	331.72	36.98	-45.7	-47.0	20.4	0.00e+00	0	34	0	668991488	63	4075
2026-01-17 02:41:18.92	331.30	37.02	-45.9	-47.2	20.1	0.00e+00	0	34	0	671088640	63	4189
2026-01-17 02:41:19.93	330.88	37.05	-45.8	-47.1	20.3	0.00e+00	0	34	0	673185792	63	4139
2026-01-17 02:41:20.94	330.45	37.09	-45.5	-46.8	20.5	0.00e+00	0	34	0	675282944	63	3974
2026-01-17 02:41:21.94	330.03	37.12	-45.3	-46.5	20.8	0.00e+00	0	34	0	677380096	62	4089
2026-01-17 02:41:22.95	329.61	37.15	-45.1	-46.4	21.0	0.00e+00	0	34	0	678428672	62	4009
2026-01-17 02:41:23.96	329.18	37.17	-45.1	-46.4	21.0	0.00e+00	0	34	0	680525824	62	4008
2026-01-17 02:41:24.97	328.75	37.20	-45.2	-46.4	20.9	0.00e+00	0	34	0	682622976	62	4028
2026-01-17 02:41:25.98	328.32	37.22	-45.3	-46.5	20.8	0.00e+00	0	34	0	684720128	62	4080
2026-01-17 02:41:26.99	327.90	37.24	-45.3	-46.6	20.8	0.00e+00	0	34	0	685768704	62	4102
2026-01-17 02:41:28.00	327.47	37.26	-45.5	-46.8	20.6	0.00e+00	0	34	0	687865856	62	4219
2026-01-17 02:41:29.01	327.04	37.28	-45.7	-47.0	20.4	0.00e+00	0	34	0	689963008	62	4292
2026-01-17 02:41:30.01	326.61	37.30	-46.0	-47.3	20.0	0.00e+00	0	34	0	692060160	62	4480
2026-01-17 02:41:31.02	326.18	37.31	-46.0	-47.4	20.0	0.00e+00	0	34	0	694157312	62	4532
2026-01-17 02:41:32.03	325.75	37.33	-46.1	-47.5	19.9	0.00e+00	0	34	0	696254464	62	4567
2026-01-17 02:41:33.04	325.32	37.34	-46.1	-47.5	19.9	0.00e+00	0	34	0	697303040	62	4568
2026-01-17 02:41:34.05	324.89	37.35	-46.1	-47.5	19.9	0.00e+00	0	34	0	699400192	62	4571
2026-01-17 02:41:35.06	324.45	37.35	-46.2	-47.6	19.8	0.00e+00	0	34	0	701497344	63	4362
2026-01-17 02:41:36.06	324.03	37.36	-46.5	-48.0	19.5	0.00e+00	0	34	0	703594496	63	4558
2026-01-17 02:41:37.07	323.59	37.36	-46.7	-48.3	19.2	0.00e+00	0	34	0	705691648	63	4709
2026-01-17 02:41:38.08	323.16	37.36	-46.8	-48.3	19.0	0.00e+00	0	34	0	706740224	64	4483
2026-01-17 02:41:39.09	322.73	37.36	-46.8	-48.3	19.0	0.00e+00	0	34	0	708837376	64	4477
2026-01-17 02:41:40.10	322.30	37.36	-46.9	-48.4	18.9	0.00e+00	0	34	0	710934528	64	4543
2026-01-17 02:41:41.10	321.87	37.36	-46.9	-48.6	18.8	0.00e+00	0	34	0	713031680	64	4605
2026-01-17 02:41:42.11	321.44	37.35	-47.1	-48.7	18.7	0.00e+00	0	34	0	715128832	64	4693
2026-01-17 02:41:43.12	321.01	37.34	-47.2	-48.8	18.6	0.00e+00	0	34	0	716177408	64	4752
2026-01-17 02:41:44.13	320.57	37.33	-47.0	-48.6	18.7	0.00e+00	0	34	0	718274560	64	4643
2026-01-17 02:41:45.14	320.14	37.32	-46.9	-48.5	18.8	0.00e+00	0	34	0	720371712	64	4582
2026-01-17 02:41:46.14	319.72	37.31	-47.0	-48.6	18.8	0.00e+00	0	34	0	722468864	64	4606
2026-01-17 02:41:47.15	319.29	37.29	-47.0	-48.7	18.7	0.00e+00	0	34	0	724566016	64	4658
2026-01-17 02:41:48.16	318.85	37.28	-47.1	-48.7	18.7	0.00e+00	0	34	0	725614592	64	4678
2026-01-17 02:41:49.17	318.43	37.26	-47.1	-48.7	18.6	0.00e+00	0	34	0	727711744	64	4705
2026-01-17 02:41:50.18	318.00	37.24	-47.2	-48.9	18.5	0.00e+00	0	34	0	729808896	65	4499
2026-01-17 02:41:51.19	317.57	37.21	-47.2	-48.9	18.5	0.00e+00	0	34	0	731906048	65	4521
2026-01-17 02:41:52.19	317.14	37.19	-47.2	-48.9	18.5	0.00e+00	0	34	0	734003200	65	4523
2026-01-17 02:41:53.20	316.72	37.16	-47.1	-48.7	18.7	0.00e+00	0	34	0	735051776	65	4421
2026-01-17 02:41:54.21	316.29	37.14	-47.4	-49.2	18.3	0.00e+00	0	34	0	737148928	65	4653
2026-01-17 02:41:55.22	315.86	37.11	-47.7	-49.6	17.9	0.00e+00	0	34	0	739246080	66	4624
2026-01-17 02:41:56.23	315.44	37.08	-47.8	-49.6	17.8	0.00e+00	0	34	0	741343232	66	4651
2026-01-17 02:41:57.23	315.02	37.04	-47.8	-49.6	17.8	0.00e+00	0	34	0	743440384	66	4622
2026-01-17 02:41:58.24	314.59	37.01	-47.6	-49.3	18.0	0.00e+00	0	34	0	744488960	66	4480
2026-01-17 02:41:59.25	314.17	36.97	-48.0	-49.9	17.5	0.00e+00	0	34	0	746586112	66	4814
2026-01-17 02:42:00.26	313.75	36.93	-48.0	-50.0	17.5	0.00e+00	0	34	0	748683264	66	4818
2026-01-17 02:42:01.27	313.33	36.89	-48.0	-49.9	17.5	0.00e+00	0	34	0	750780416	66	4769
2026-01-17 02:42:02.27	312.91	36.85	-48.1	-50.0	17.4	0.00e+00	0	34	0	752877568	66	4845
2026-01-17 02:42:03.28	312.50	36.81	-48.0	-50.0	17.4	0.00e+00	0	34	0	753926144	66	4834
2026-01-17 02:42:04.29	312.08	36.76	-48.1	-50.1	17.3	0.00e+00	0	34	0	756023296	66	4876
2026-01-17 02:42:05.30	311.66	36.72	-48.0	-50.0	17.5	0.00e+00	0	34	0	758120448	66	4828
2026-01-17 02:42:06.31	311.25	36.67	-48.0	-49.9	17.5	0.00e+00	0	34	0	760217600	66	4799
2026-01-17 02:42:07.32	310.83	36.62	-48.3	-50.4	17.0	0.00e+00	0	34	0	762314752	67	4785
2026-01-17 02:42:08.32	310.43	36.57	-48.3	-50.4	17.0	0.00e+00	0	34	0	763363328	67	4787
2026-01-17 02:42:09.33	310.02	36.51	-48.4	-50.5	17.0	0.00e+00	0	34	0	765460480	67	4822
2026-01-17 02:42:10.34	309.61	36.46	-48.4	-50.5	17.0	0.00e+00	0	34	0	767557632	67	4841
2026-01-17 02:42:11.35	309.20	36.40	-48.3	-50.4	17.0	0.00e+00	0	34	0	769654784	67	4776
2026-01-17 02:42:12.36	308.79	36.34	-48.4	-50.5	16.9	0.00e+00	0	34	0	771751936	67	4840
2026-01-17 02:42:13.37	308.39	36.28	-48.3	-50.4	17.0	0.00e+00	0	34	0	772800512	67	4771
2026-01-17 02:42:14.38	307.98	36.22	-48.2	-50.2	17.1	0.00e+00	0	34	0	774897664	67	4699
2026-01-17 02:42:15.38	307.58	36.16	-48.1	-50.1	17.2	0.00e+00	0	34	0	776994816	67	4644
2026-01-17 02:42:16.39	307.18	36.10	-48.3	-50.3	17.2	0.00e+00	0	34	0	779091968	67	4729
2026-01-17 02:42:17.40	306.78	36.03	-48.3	-50.3	17.1	0.00e+00	0	34	0	781189120	67	4757
2026-01-17 02:42:18.41	306.39	35.96	-48.3	-50.4	17.0	0.00e+00	0	34	0	782237696	67	4797
2026-01-17 02:42:19.42	305.99	35.90	-47.9	-49.9	17.6	0.00e+00	0	34	0	784334848	67	4499
2026-01-17 02:42:20.42	305.60	35.83	-47.8	-49.6	17.8	0.00e+00	0	34	0	786432000	67	4383
2026-01-17 02:42:21.43	305.21	35.76	-47.5	-49.3	18.1	0.00e+00	0	34	0	788529152	67	4212
2026-01-17 02:42:22.44	304.82	35.68	-47.2	-48.8	18.6	0.00e+00	0	34	0	790626304	66	4230
2026-01-17 02:42:23.44	304.43	35.61	-47.1	-48.7	18.7	0.00e+00	0	34	0	791674880	66	4180
2026-01-17 02:42:24.45	304.04	35.53	-47.1	-48.7	18.7	0.00e+00	0	34	0	793772032	66	4152
2026-01-17 02:42:25.46	303.66	35.46	-47.3	-49.0	18.4	0.00e+00	0	34	0	795869184	66	4313
2026-01-17 02:42:26.47	303.28	35.38	-47.3	-49.0	18.4	0.00e+00	0	34	0	797966336	66	4328
2026-01-17 02:42:27.48	302.89	35.30	-47.3	-48.9	18.5	0.00e+00	0	34	0	800063488	66	4289
2026-01-17 02:42:28.49	302.51	35.22	-47.2	-48.9	18.4	0.00e+00	0	34	0	801112064	66	4263
2026-01-17 02:42:29.50	302.14	35.14	-47.0	-48.6	18.8	0.00e+00	0	34	0	803209216	66	4123
2026-01-17 02:42:30.51	301.76	35.06	-46.7	-48.2	19.2	0.00e+00	0	34	0	805306368	65	4184
2026-01-17 02:42:31.52	301.39	34.97	-46.5	-48.0	19.3	0.00e+00	0	34	0	807403520	65	4069
2026-01-17 02:42:32.53	301.01	34.89	-46.4	-47.9	19.5	0.00e+00	0	34	0	809500672	64	4262
2026-01-17 02:42:33.53	300.65	34.80	-46.5	-47.9	19.4	0.00e+00	0	34	0	811597824	64	4280
2026-01-17 02:42:34.54	300.28	34.71	-46.6	-48.1	19.2	0.00e+00	0	34	0	812646400	64	4381
2026-01-17 02:42:35.55	299.91	34.63	-47.0	-48.6	18.8	0.00e+00	0	34	0	814743552	64	4619
2026-01-17 02:42:36.56	299.55	34.54	-47.2	-48.9	18.5	0.00e+00	0	34	0	816840704	64	4785
2026-01-17 02:42:37.57	299.19	34.45	-47.3	-49.0	18.4	0.00e+00	0	34	0	818937856	65	4587
2026-01-17 02:42:38.58	298.83	34.35	-47.4	-49.1	18.3	0.00e+00	0	34	0	819986432	65	4638
2026-01-17 02:42:39.59	298.47	34.26	-47.3	-49.0	18.3	0.00e+00	0	34	0	822083584	65	4591
2026-01-17 02:42:40.59	298.11	34.17	-47.3	-49.0	18.4	0.00e+00	0	34	0	824180736	65	4570
2026-01-17 02:42:41.60	297.76	34.07	-47.3	-49.0	18.4	0.00e+00	0	34	0	826277888	65	4574
2026-01-17 02:42:42.61	297.41	33.98	-47.4	-49.1	18.2	0.00e+00	0	34	0	828375040	65	4651
2026-01-17 02:42:43.62	297.06	33.88	-47.8	-49.7	17.7	0.00e+00	0	34	0	830472192	66	4692
2026-01-17 02:42:44.63	296.71	33.79	-48.1	-50.2	17.2	0.00e+00	0	34	0	831520768	66	4930
2026-01-17 02:42:45.64	296.36	33.69	-48.3	-50.4	16.9	0.00e+00	0	34	0	833617920	67	4781
2026-01-17 02:42:46.65	296.02	33.59	-48.5	-50.7	16.8	0.00e+00	0	34	0	835715072	67	4961
2026-01-17 02:42:47.66	295.68	33.49	-48.4	-50.6	16.9	0.00e+00	0	34	0	837812224	67	4883
2026-01-17 02:42:48.67	295.34	33.39	-48.3	-50.3	17.1	0.00e+00	0	34	0	839909376	67	4743
2026-01-17 02:42:49.67	295.01	33.29	-48.0	-49.9	17.5	0.00e+00	0	34	0	840957952	67	4539
2026-01-17 02:42:50.68	294.67	33.18	-47.9	-49.9	17.5	0.00e+00	0	34	0	843055104	67	4494
2026-01-17 02:42:51.69	294.34	33.08	-47.8	-49.7	17.7	0.00e+00	0	34	0	845152256	67	4411
2026-01-17 02:42:52.70	294.01	32.98	-47.6	-49.3	18.0	0.00e+00	0	34	0	847249408	67	4231
2026-01-17 02:42:53.71	293.68	32.87	-47.8	-49.7	17.7	0.00e+00	0	34	0	848297984	67	4399
2026-01-17 02:42:54.72	293.35	32.77	-48.1	-50.1	17.2	0.00e+00	0	34	0	850395136	67	4640
2026-01-17 02:42:55.73	293.03	32.66	-48.3	-50.4	17.0	0.00e+00	0	34	0	852492288	67	4769
2026-01-17 02:42:56.74	292.70	32.55	-48.5	-50.7	16.7	0.00e+00	0	34	0	854589440	67	4955
2026-01-17 02:42:57.74	292.39	32.45	-48.5	-50.7	16.7	0.00e+00	0	34	0	856686592	67	4932
2026-01-17 02:42:58.75	292.07	32.34	-48.3	-50.4	17.0	0.00e+00	0	34	0	858783744	67	4770
2026-01-17 02:42:59.76	291.75	32.23	-48.2	-50.2	17.2	0.00e+00	0	34	0	859832320	67	4653
2026-01-17 02:43:00.77	291.44	32.12	-48.1	-50.1	17.3	0.00e+00	0	34	0	861929472	67	4649
2026-01-17 02:43:01.78	291.13	32.01	-48.0	-49.9	17.4	0.00e+00	0	34	0	864026624	67	4540
2026-01-17 02:43:02.78	290.82	31.90	-48.0	-50.0	17.4	0.00e+00	0	34	0	866123776	67	4577
2026-01-17 02:43:03.79	290.51	31.79	-48.1	-50.0	17.3	0.00e+00	0	34	0	868220928	67	4587
2026-01-17 02:43:04.80	290.21	31.68	-48.2	-50.2	17.2	0.00e+00	0	34	0	869269504	67	4671
2026-01-17 02:43:05.81	289.90	31.57	-48.2	-50.3	17.1	0.00e+00	0	34	0	871366656	67	4720
2026-01-17 02:43:06.82	289.60	31.46	-48.3	-50.3	17.1	0.00e+00	0	34	0	873463808	67	4739
2026-01-17 02:43:07.82	289.30	31.35	-48.2	-50.2	17.2	0.00e+00	0	34	0	875560960	67	4679
2026-01-17 02:43:08.83	289.01	31.23	-48.2	-50.2	17.1	0.00e+00	0	34	0	877658112	67	4693
2026-01-17 02:43:09.84	288.71	31.12	-48.2	-50.3	17.1	0.00e+00	0	34	0	878706688	67	4723
2026-01-17 02:43:10.85	288.42	31.01	-48.3	-50.4	16.9	0.00e+00	0	34	0	880803840	67	4795
2026-01-17 02:43:11.86	288.13	30.89	-48.4	-50.5	16.8	0.00e+00	0	34	0	882900992	67	4857
2026-01-17 02:43:12.87	287.84	30.78	-48.5	-50.6	16.7	0.00e+00	0	34	0	884998144	67	4915
2026-01-17 02:43:13.88	287.55	30.66	-48.6	-50.8	16.6	0.00e+00	0	34	0	887095296	67	4997
2026-01-17 02:43:14.88	287.27	30.55	-48.8	-51.0	16.5	0.00e+00	0	34	0	888143872	68	4867
2026-01-17 02:43:15.89	286.99	30.43	-48.7	-51.0	16.4	0.00e+00	0	34	0	890241024	68	4826
2026-01-17 02:43:16.90	286.71	30.31	-48.6	-50.8	16.7	0.00e+00	0	34	0	892338176	68	4719
2026-01-17 02:43:17.91	286.43	30.20	-48.4	-50.5	17.0	0.00e+00	0	34	0	894435328	68	4555
2026-01-17 02:43:18.92	286.15	30.08	-48.4	-50.5	17.0	0.00e+00	0	34	0	896532480	68	4549
2026-01-17 02:43:19.93	285.88	29.96	-48.4	-50.4	17.0	0.00e+00	0	34	0	898629632	68	4538
2026-01-17 02:43:20.94	285.60	29.85	-48.2	-50.2	17.2	0.00e+00	0	34	0	899678208	68	4437
2026-01-17 02:43:21.94	285.34	29.73	-48.2	-50.2	17.3	0.00e+00	0	34	0	901775360	68	4397
2026-01-17 02:43:22.95	285.07	29.61	-48.2	-50.2	17.2	0.00e+00	0	34	0	903872512	68	4424
2026-01-17 02:43:23.96	284.80	29.50	-48.0	-50.0	17.5	0.00e+00	0	34	0	905969664	68	4299
2026-01-17 02:43:24.97	284.54	29.38	-48.0	-49.9	17.5	0.00e+00	0	34	0	907018240	67	4523
2026-01-17 02:43:25.97	284.28	29.26	-47.7	-49.6	17.8	0.00e+00	0	34	0	909115392	67	4360
2026-01-17 02:43:26.98	284.02	29.14	-47.7	-49.5	17.9	0.00e+00	0	34	0	911212544	67	4307
2026-01-17 02:43:27.99	283.76	29.02	-47.5	-49.3	18.0	0.00e+00	0	34	0	913309696	67	4236
2026-01-17 02:43:29.00	283.50	28.90	-47.3	-49.1	18.3	0.00e+00	0	34	0	915406848	66	4345
2026-01-17 02:43:30.00	283.25	28.79	-47.1	-48.8	18.6	0.00e+00	0	34	0	916455424	66	4202
2026-01-17 02:43:31.01	282.99	28.67	-47.2	-48.9	18.4	0.00e+00	0	34	0	918552576	66	4263
2026-01-17 02:43:32.02	282.74	28.55	-47.1	-48.8	18.5	0.00e+00	0	34	0	920649728	66	4215
2026-01-17 02:43:33.03	282.49	28.43	-47.0	-48.7	18.6	0.00e+00	0	34	0	922746880	66	4160
2026-01-17 02:43:34.04	282.24	28.31	-47.0	-48.7	18.6	0.00e+00	0	34	0	924844032	65	4414
2026-01-17 02:43:35.05	282.00	28.19	-46.8	-48.4	18.9	0.00e+00	0	34	0	926941184	65	4257
2026-01-17 02:43:36.06	281.76	28.07	-46.5	-48.1	19.2	0.00e+00	0	34	0	927989760	65	4105
2026-01-17 02:43:37.07	281.51	27.95	-46.5	-48.0	19.2	0.00e+00	0	34	0	930086912	64	4336
2026-01-17 02:43:38.08	281.27	27.83	-46.5	-48.1	19.2	0.00e+00	0	34	0	932184064	64	4350
2026-01-17 02:43:39.08	281.04	27.71	-46.4	-47.9	19.4	0.00e+00	0	34	0	934281216	64	4277
2026-01-17 02:43:40.09	280.80	27.59	-46.4	-48.0	19.3	0.00e+00	0	34	0	935329792	64	4296
2026-01-17 02:43:41.10	280.57	27.47	-46.4	-47.9	19.3	0.00e+00	0	34	0	937426944	64	4278
2026-01-17 02:43:42.11	280.33	27.35	-46.4	-47.9	19.4	0.00e+00	0	34	0	939524096	64	4269
2026-01-17 02:43:43.12	280.10	27.23	-46.6	-48.1	19.2	0.00e+00	0	34	0	941621248	64	4376
2026-01-17 02:43:44.13	279.87	27.11	-46.4	-47.9	19.3	0.00e+00	0	34	0	943718400	64	4280
2026-01-17 02:43:45.14	279.64	26.99	-46.3	-47.8	19.5	0.00e+00	0	34	0	945815552	64	4203
2026-01-17 02:43:46.15	279.42	26.87	-46.3	-47.8	19.4	0.00e+00	0	34	0	946864128	64	4228
2026-01-17 02:43:47.15	279.20	26.75	-46.3	-47.8	19.4	0.00e+00	0	34	0	948961280	64	4238
2026-01-17 02:43:48.16	278.97	26.63	-46.1	-47.5	19.7	0.00e+00	0	34	0	951058432	64	4079
2026-01-17 02:43:49.17	278.75	26.52	-46.1	-47.5	19.8	0.00e+00	0	34	0	953155584	64	4065
2026-01-17 02:43:50.18	278.53	26.40	-46.0	-47.4	19.9	0.00e+00	0	34	0	955252736	63	4276
2026-01-17 02:43:51.18	278.32	26.28	-46.1	-47.5	19.9	0.00e+00	0	34	0	956301312	63	4297
2026-01-17 02:43:52.19	278.10	26.16	-46.1	-47.5	19.8	0.00e+00	0	34	0	958398464	63	4300
2026-01-17 02:43:53.20	277.89	26.04	-45.9	-47.3	20.1	0.00e+00	0	34	0	960495616	63	4199
2026-01-17 02:43:54.21	277.67	25.92	-45.7	-47.0	20.2	0.00e+00	0	34	0	962592768	63	4082
2026-01-17 02:43:55.22	277.46	25.80	-45.7	-47.0	20.3	0.00e+00	0	34	0	964689920	63	4066
2026-01-17 02:43:56.22	277.25	25.68	-45.7	-47.0	20.2	0.00e+00	0	34	0	965738496	63	4096
2026-01-17 02:43:57.24	277.04	25.56	-45.8	-47.2	20.1	0.00e+00	0	34	0	967835648	63	4155
2026-01-17 02:43:58.24	276.84	25.44	-45.8	-47.2	20.1	0.00e+00	0	34	0	969932800	63	4170
2026-01-17 02:43:59.25	276.63	25.33	-45.9	-47.3	20.0	0.00e+00	0	34	0	972029952	63	4196
2026-01-17 02:44:00.26	276.43	25.21	-45.9	-47.3	20.0	0.00e+00	0	34	0	974127104	63	4221
2026-01-17 02:44:01.27	276.23	25.09	-45.9	-47.3	20.0	0.00e+00	0	34	0	975175680	63	4210
2026-01-17 02:44:02.28	276.03	24.97	-45.9	-47.3	20.0	0.00e+00	0	34	0	977272832	63	4203
2026-01-17 02:44:03.28	275.83	24.85	-45.9	-47.3	20.0	0.00e+00	0	34	0	979369984	63	4232
2026-01-17 02:44:04.29	275.64	24.74	-46.0	-47.4	19.9	0.00e+00	0	34	0	981467136	63	4244
2026-01-17 02:44:05.30	275.44	24.62	-46.0	-47.4	19.9	0.00e+00	0	34	0	983564288	63	4244
2026-01-17 02:44:06.31	275.24	24.50	-45.9	-47.3	19.9	0.00e+00	0	34	0	984612864	63	4231
2026-01-17 02:44:07.32	275.05	24.38	-46.1	-47.6	19.7	0.00e+00	0	34	0	986710016	63	4346
2026-01-17 02:44:08.32	274.86	24.27	-46.1	-47.5	19.7	0.00e+00	0	34	0	988807168	63	4331
2026-01-17 02:44:09.33	274.67	24.15	-46.2	-47.7	19.6	0.00e+00	0	34	0	990904320	63	4397
2026-01-17 02:44:10.34	274.48	24.03	-46.3	-47.8	19.5	0.00e+00	0	34	0	993001472	63	4444
2026-01-17 02:44:11.35	274.30	23.91	-46.4	-47.9	19.4	0.00e+00	0	34	0	994050048	63	4511
2026-01-17 02:44:12.36	274.11	23.80	-46.3	-47.8	19.4	0.00e+00	0	34	0	996147200	63	4482
2026-01-17 02:44:13.37	273.93	23.68	-46.4	-47.9	19.4	0.00e+00	0	34	0	998244352	63	4518
2026-01-17 02:44:14.38	273.74	23.57	-46.5	-48.0	19.2	0.00e+00	0	34	0	1000341504	63	4563
2026-01-17 02:44:15.38	273.56	23.45	-46.5	-48.0	19.3	0.00e+00	0	34	0	1002438656	63	4561
2026-01-17 02:44:16.39	273.38	23.33	-46.5	-48.0	19.2	0.00e+00	0	34	0	1003487232	63	4580
2026-01-17 02:44:17.40	273.20	23.22	-46.5	-48.0	19.3	0.00e+00	0	34	0	1005584384	63	4551
2026-01-17 02:44:18.41	273.03	23.10	-46.5	-48.0	19.2	0.00e+00	0	34	0	1007681536	63	4580
2026-01-17 02:44:19.42	272.85	22.99	-46.5	-48.0	19.2	0.00e+00	0	34	0	1009778688	63	4594
2026-01-17 02:44:20.42	272.68	22.87	-46.5	-48.0	19.2	0.00e+00	0	34	0	1011875840	63	4558
2026-01-17 02:44:21.43	272.50	22.76	-46.4	-47.9	19.4	0.00e+00	0	34	0	1012924416	63	4504
2026-01-17 02:44:22.44	272.33	22.65	-46.3	-47.8	19.4	0.00e+00	0	34	0	1015021568	63	4468
2026-01-17 02:44:23.45	272.16	22.53	-46.3	-47.8	19.5	0.00e+00	0	34	0	1017118720	63	4450
2026-01-17 02:44:24.46	271.99	22.42	-46.3	-47.8	19.5	0.00e+00	0	34	0	1019215872	63	4446
2026-01-17 02:44:25.47	271.82	22.30	-46.5	-48.0	19.3	0.00e+00	0	34	0	1021313024	63	4556
2026-01-17 02:44:26.47	271.66	22.19	-46.3	-47.8	19.5	0.00e+00	0	34	0	1022361600	63	4469
2026-01-17 02:44:27.48	271.49	22.08	-46.4	-47.9	19.4	0.00e+00	0	34	0	1024458752	63	4507
2026-01-17 02:44:28.49	271.33	21.96	-46.5	-48.0	19.2	0.00e+00	0	34	0	1026555904	63	4591
2026-01-17 02:44:29.50	271.16	21.85	-46.7	-48.2	19.0	0.00e+00	0	34	0	1028653056	63	4700
2026-01-17 02:44:30.51	271.00	21.74	-46.6	-48.2	18.8	0.00e+00	0	34	0	1030750208	64	4429
2026-01-17 02:44:31.52	270.84	21.63	-46.7	-48.3	18.8	0.00e+00	0	34	0	1032847360	64	4472
2026-01-17 02:44:32.53	270.68	21.51	-46.7	-48.2	18.8	0.00e+00	0	34	0	1033895936	64	4440
2026-01-17 02:44:33.54	270.52	21.40	-46.7	-48.2	18.9	0.00e+00	0	34	0	1035993088	64	4437
2026-01-17 02:44:34.55	270.36	21.29	-46.6	-48.2	18.9	0.00e+00	0	34	0	1038090240	64	4435
2026-01-17 02:44:35.56	270.21	21.18	-46.7	-48.3	18.8	0.00e+00	0	34	0	1040187392	64	4472
2026-01-17 02:44:36.57	270.05	21.07	-46.6	-48.2	18.9	0.00e+00	0	34	0	1041235968	64	4434
2026-01-17 02:44:37.58	269.90	20.96	-46.7	-48.3	18.8	0.00e+00	0	34	0	1043333120	64	4475
2026-01-17 02:44:38.58	269.74	20.85	-46.8	-48.5	18.6	0.00e+00	0	34	0	1045430272	64	4558
2026-01-17 02:44:39.59	269.59	20.74	-47.0	-48.6	18.5	0.00e+00	0	34	0	1047527424	64	4644
2026-01-17 02:44:40.60	269.44	20.63	-47.1	-48.8	18.3	0.00e+00	0	34	0	1049624576	64	4735
2026-01-17 02:44:41.61	269.29	20.52	-47.3	-49.0	18.1	0.00e+00	0	34	0	1050673152	65	4589
2026-01-17 02:44:42.62	269.14	20.41	-47.3	-49.1	18.0	0.00e+00	0	34	0	1052770304	65	4608
2026-01-17 02:44:43.62	269.00	20.30	-47.2	-49.0	18.1	0.00e+00	0	34	0	1054867456	65	4581
2026-01-17 02:44:44.63	268.85	20.19	-47.3	-49.1	18.0	0.00e+00	0	34	0	1056964608	65	4615
2026-01-17 02:44:45.64	268.70	20.08	-47.3	-49.0	18.0	0.00e+00	0	34	0	1059061760	65	4588
2026-01-17 02:44:46.65	268.56	19.97	-47.3	-49.0	18.1	0.00e+00	0	34	0	1061158912	65	4587
2026-01-17 02:44:47.66	268.42	19.87	-47.1	-48.8	18.3	0.00e+00	0	34	0	1062207488	65	4454
2026-01-17 02:44:48.67	268.27	19.76	-47.0	-48.7	18.3	0.00e+00	0	34	0	1064304640	65	4437
2026-01-17 02:44:49.67	268.13	19.65	-46.9	-48.5	18.6	0.00e+00	0	34	0	1066401792	65	4324
2026-01-17 02:44:50.68	267.99	19.54	-46.9	-48.5	18.5	0.00e+00	0	34	0	1068498944	65	4323
2026-01-17 02:44:51.69	267.85	19.44	-47.0	-48.7	18.4	0.00e+00	0	34	0	1069547520	65	4404
2026-01-17 02:44:52.70	267.71	19.33	-47.2	-48.9	18.2	0.00e+00	0	34	0	1071644672	65	4526
2026-01-17 02:44:53.71	267.58	19.22	-47.2	-49.0	18.1	0.00e+00	0	34	0	1073741824	65	4556
2026-01-17 02:44:54.72	267.44	19.12	-47.2	-49.0	18.1	0.00e+00	0	34	0	1075838976	65	4556
2026-01-17 02:44:55.73	267.30	19.01	-47.3	-49.1	18.0	0.00e+00	0	34	0	1077936128	65	4606
2026-01-17 02:44:56.73	267.17	18.91	-47.2	-49.0	18.0	0.00e+00	0	34	0	1080033280	65	4585
2026-01-17 02:44:57.74	267.04	18.80	-47.3	-49.1	18.0	0.00e+00	0	34	0	1081081856	65	4617
2026-01-17 02:44:58.75	266.91	18.70	-47.4	-49.2	17.9	0.00e+00	0	34	0	1083179008	65	4671
2026-01-17 02:44:59.76	266.77	18.59	-47.3	-49.1	18.0	0.00e+00	0	34	0	1085276160	65	4600
2026-01-17 02:45:00.77	266.64	18.49	-47.4	-49.3	17.8	0.00e+00	0	34	0	1087373312	65	4714
2026-01-17 02:45:01.77	266.51	18.38	-47.3	-49.2	17.9	0.00e+00	0	34	0	1089470464	65	4665
2026-01-17 02:45:02.78	266.38	18.28	-47.4	-49.3	17.7	0.00e+00	0	34	0	1090519040	65	4735
2026-01-17 02:45:03.79	266.26	18.18	-47.4	-49.3	17.8	0.00e+00	0	34	0	1092616192	65	4722
2026-01-17 02:45:04.80	266.13	18.07	-47.5	-49.4	17.7	0.00e+00	0	34	0	1094713344	65	4772
2026-01-17 02:45:05.81	266.00	17.97	-47.4	-49.3	17.7	0.00e+00	0	34	0	1096810496	65	4718
2026-01-17 02:45:06.81	265.88	17.87	-47.4	-49.2	17.8	0.00e+00	0	34	0	1098907648	65	4691
2026-01-17 02:45:07.82	265.75	17.77	-47.4	-49.2	17.8	0.00e+00	0	34	0	1099956224	65	4683
2026-01-17 02:45:08.83	265.63	17.66	-47.4	-49.2	17.8	0.00e+00	0	34	0	1102053376	65	4694
2026-01-17 02:45:09.84	265.51	17.56	-47.3	-49.2	17.9	0.00e+00	0	34	0	1104150528	65	4661
2026-01-17 02:45:10.85	265.38	17.46	-47.2	-49.0	18.1	0.00e+00	0	34	0	1106247680	65	4551
2026-01-17 02:45:11.86	265.26	17.36	-47.2	-49.0	18.0	0.00e+00	0	34	0	1108344832	65	4572
2026-01-17 02:45:12.87	265.14	17.26	-47.0	-48.7	18.2	0.00e+00	0	34	0	1109393408	65	4440
2026-01-17 02:45:13.88	265.02	17.16	-47.0	-48.7	18.3	0.00e+00	0	34	0	1111490560	65	4432
2026-01-17 02:45:14.88	264.91	17.06	-47.1	-48.8	18.1	0.00e+00	0	34	0	1113587712	65	4492
2026-01-17 02:45:15.89	264.79	16.96	-47.1	-48.9	18.1	0.00e+00	0	34	0	1115684864	65	4517
2026-01-17 02:45:16.90	264.67	16.86	-47.1	-48.8	18.1	0.00e+00	0	34	0	1117782016	65	4490
2026-01-17 02:45:17.91	264.55	16.76	-47.1	-48.9	18.1	0.00e+00	0	34	0	1119879168	65	4525
2026-01-17 02:45:18.92	264.44	16.66	-47.1	-48.9	18.1	0.00e+00	0	34	0	1120927744	65	4513
2026-01-17 02:45:19.93	264.32	16.56	-47.1	-48.9	18.1	0.00e+00	0	34	0	1123024896	65	4519
2026-01-17 02:45:20.94	264.21	16.46	-47.2	-49.0	18.0	0.00e+00	0	34	0	1125122048	65	4559
2026-01-17 02:45:21.94	264.10	16.36	-47.1	-48.9	18.1	0.00e+00	0	34	0	1127219200	65	4508
2026-01-17 02:45:22.95	263.98	16.26	-47.1	-48.8	18.1	0.00e+00	0	34	0	1128267776	65	4487
2026-01-17 02:45:23.96	263.87	16.17	-47.2	-48.9	18.0	0.00e+00	0	34	0	1130364928	65	4545
2026-01-17 02:45:24.97	263.76	16.07	-47.1	-48.9	18.0	0.00e+00	0	34	0	1132462080	65	4525
2026-01-17 02:45:25.98	263.65	15.97	-47.2	-49.0	17.9	0.00e+00	0	34	0	1134559232	65	4572
2026-01-17 02:45:26.98	263.54	15.88	-47.2	-49.0	17.9	0.00e+00	0	34	0	1136656384	65	4564
2026-01-17 02:45:27.99	263.43	15.78	-47.2	-49.0	17.9	0.00e+00	0	34	0	1137704960	65	4577
2026-01-17 02:45:29.00	263.33	15.68	-47.1	-48.9	18.0	0.00e+00	0	34	0	1139802112	65	4494
2026-01-17 02:45:30.01	263.22	15.59	-47.2	-49.0	18.0	0.00e+00	0	34	0	1141899264	65	4552
2026-01-17 02:45:31.02	263.11	15.49	-47.2	-49.0	17.9	0.00e+00	0	34	0	1143996416	65	4587
2026-01-17 02:45:32.03	263.01	15.39	-47.2	-49.0	17.9	0.00e+00	0	34	0	1146093568	65	4583
2026-01-17 02:45:33.04	262.90	15.30	-47.3	-49.2	17.8	0.00e+00	0	34	0	1148190720	65	4655
2026-01-17 02:45:34.04	262.80	15.20	-47.4	-49.3	17.6	0.00e+00	0	34	0	1149239296	65	4738
2026-01-17 02:45:35.05	262.69	15.11	-47.4	-49.3	17.6	0.00e+00	0	34	0	1151336448	65	4732
2026-01-17 02:45:36.06	262.59	15.01	-47.5	-49.4	17.5	0.00e+00	0	34	0	1153433600	65	4797
2026-01-17 02:45:37.07	262.49	14.92	-47.4	-49.3	17.6	0.00e+00	0	34	0	1155530752	65	4722
2026-01-17 02:45:38.08	262.38	14.83	-47.4	-49.3	17.6	0.00e+00	0	34	0	1156579328	65	4716
2026-01-17 02:45:39.09	262.28	14.73	-47.4	-49.4	17.5	0.00e+00	0	34	0	1158676480	65	4762
2026-01-17 02:45:40.09	262.18	14.64	-47.3	-49.2	17.7	0.00e+00	0	34	0	1160773632	65	4663
2026-01-17 02:45:41.10	262.08	14.55	-47.3	-49.1	17.8	0.00e+00	0	34	0	1162870784	65	4627
2026-01-17 02:45:42.11	261.98	14.45	-47.4	-49.2	17.7	0.00e+00	0	34	0	1164967936	65	4695
2026-01-17 02:45:43.12	261.89	14.36	-47.3	-49.1	17.8	0.00e+00	0	34	0	1167065088	65	4636
2026-01-17 02:45:44.13	261.79	14.27	-47.2	-49.0	17.9	0.00e+00	0	34	0	1168113664	65	4587
2026-01-17 02:45:45.13	261.69	14.18	-47.1	-48.9	18.0	0.00e+00	0	34	0	1170210816	65	4499
2026-01-17 02:45:46.14	261.59	14.08	-47.1	-48.9	17.9	0.00e+00	0	34	0	1172307968	65	4539
2026-01-17 02:45:47.15	261.50	13.99	-47.1	-49.0	17.9	0.00e+00	0	34	0	1174405120	65	4549
2026-01-17 02:45:48.16	261.40	13.90	-47.2	-49.0	17.8	0.00e+00	0	34	0	1176502272	65	4581
2026-01-17 02:45:49.16	261.31	13.81	-47.3	-49.1	17.8	0.00e+00	0	34	0	1177550848	65	4631
2026-01-17 02:45:50.17	261.21	13.72	-47.4	-49.3	17.6	0.00e+00	0	34	0	1179648000	65	4727
2026-01-17 02:45:51.18	261.12	13.63	-47.5	-49.5	17.3	0.00e+00	0	34	0	1181745152	65	4849
2026-01-17 02:45:52.19	261.03	13.54	-47.6	-49.5	17.4	0.00e+00	0	34	0	1183842304	65	4857
2026-01-17 02:45:53.20	260.93	13.45	-47.5	-49.4	17.4	0.00e+00	0	34	0	1184890880	65	4805
2026-01-17 02:45:54.21	260.84	13.36	-47.5	-49.5	17.3	0.00e+00	0	34	0	1186988032	65	4856
2026-01-17 02:45:55.22	260.75	13.27	-47.6	-49.6	17.3	0.00e+00	0	34	0	1189085184	65	4900
2026-01-17 02:45:56.23	260.66	13.18	-47.6	-49.7	17.2	0.00e+00	0	34	0	1191182336	65	4939
2026-01-17 02:45:57.23	260.57	13.09	-47.8	-49.9	17.0	0.00e+00	0	34	0	1193279488	66	4780
2026-01-17 02:45:58.24	260.48	13.00	-47.8	-49.9	16.9	0.00e+00	0	34	0	1195376640	66	4794
2026-01-17 02:45:59.25	260.39	12.91	-47.6	-49.6	17.2	0.00e+00	0	34	0	1196425216	66	4643
2026-01-17 02:46:00.24	260.30	12.83	-47.8	-49.9	17.0	0.00e+00	0	34	0	1198522368	66	4773
2026-01-17 02:46:01.24	260.22	12.74	-47.8	-49.9	16.9	0.00e+00	0	34	0	1200619520	66	4798
2026-01-17 02:46:02.25	260.13	12.65	-47.8	-49.9	16.9	0.00e+00	0	34	0	1202716672	66	4792
2026-01-17 02:46:03.26	260.04	12.56	-47.8	-50.0	16.8	0.00e+00	0	34	0	1204813824	66	4828
2026-01-17 02:46:04.27	259.96	12.48	-47.9	-50.0	16.8	0.00e+00	0	34	0	1205862400	66	4844
2026-01-17 02:46:05.27	259.87	12.39	-47.9	-50.0	16.8	0.00e+00	0	34	0	1207959552	66	4853
2026-01-17 02:46:06.28	259.78	12.30	-47.9	-50.1	16.7	0.00e+00	0	34	0	1210056704	66	4910
2026-01-17 02:46:07.29	259.70	12.22	-48.0	-50.1	16.7	0.00e+00	0	34	0	1212153856	66	4926
2026-01-17 02:46:08.30	259.61	12.13	-47.9	-50.0	16.7	0.00e+00	0	34	0	1213202432	66	4868
2026-01-17 02:46:09.31	259.53	12.04	-47.8	-49.9	16.9	0.00e+00	0	34	0	1215299584	66	4799
2026-01-17 02:46:10.32	259.45	11.96	-47.9	-50.1	16.7	0.00e+00	0	34	0	1217396736	66	4897
2026-01-17 02:46:11.32	259.37	11.87	-47.8	-50.0	16.8	0.00e+00	0	34	0	1219493888	66	4821
2026-01-17 02:46:12.33	259.28	11.79	-47.8	-49.9	16.8	0.00e+00	0	34	0	1221591040	66	4803
2026-01-17 02:46:13.34	259.20	11.70	-47.9	-50.1	16.7	0.00e+00	0	34	0	1223688192	66	4885
2026-01-17 02:46:14.35	259.12	11.62	-47.9	-50.0	16.7	0.00e+00	0	34	0	1224736768	66	4861
2026-01-17 02:46:15.36	259.04	11.53	-47.8	-49.9	16.8	0.00e+00	0	34	0	1226833920	66	4808
2026-01-17 02:46:16.37	258.96	11.45	-47.9	-50.0	16.7	0.00e+00	0	34	0	1228931072	66	4858
2026-01-17 02:46:17.38	258.88	11.36	-47.7	-49.8	16.9	0.00e+00	0	34	0	1231028224	66	4734
2026-01-17 02:46:18.38	258.80	11.28	-47.8	-50.0	16.8	0.00e+00	0	34	0	1233125376	66	4817
2026-01-17 02:46:19.39	258.72	11.20	-47.9	-50.1	16.6	0.00e+00	0	34	0	1234173952	66	4890
2026-01-17 02:46:20.40	258.64	11.11	-47.9	-50.1	16.6	0.00e+00	0	34	0	1236271104	66	4886
2026-01-17 02:46:21.41	258.56	11.03	-47.9	-50.1	16.6	0.00e+00	0	34	0	1238368256	66	4884
2026-01-17 02:46:22.42	258.49	10.95	-48.1	-50.3	16.3	0.00e+00	0	34	0	1240465408	66	5035
2026-01-17 02:46:23.43	258.41	10.86	-48.0	-50.2	16.5	0.00e+00	0	34	0	1242562560	66	4956
