passes_logs/2026/01/17/R3.2S_Murmansk/R3.2S_Murmansk__20260117_132730_NOAA_21_JPSS-2_rec.log

#Pass ID: 20260117_132730_NOAA 21 (JPSS-2)
#Satellite: NOAA 21 (JPSS-2)
#Configuration: NOAA-21
#almurnet v.1.7.20251203
#Start time: 2026-01-17 13:27:30

#Version: 2.2.20231116
#Station: R3.2S_Murmansk
#Location: 33.079688 lon 68.888172 lat
#TLE: 1 54234U 22150A   26016.56338662  .00000024  00000+0  32257-4 0  9990
#TLE: 2 54234  98.7500 317.4442 0000622 279.9774  80.1332 14.19534942165033

#Time	Az	El	Level	Level2	SNR	BER	BlckErr	Temp	State	Recorded	gain1	gain2
2026-01-17 13:27:30.98	256.64	2.03	-52.3	-65.1	3.8	1.49e+00	0	33	0	0	76	15417
2026-01-17 13:27:31.99	256.75	2.07	-52.2	-65.1	3.8	1.49e+00	0	33	104	0	75	16332
2026-01-17 13:27:33.00	256.86	2.11	-52.2	-65.0	3.8	1.49e+00	0	33	104	0	75	16308
2026-01-17 13:27:34.00	256.97	2.15	-52.3	-65.0	3.8	1.49e+00	0	33	104	0	75	16281
2026-01-17 13:27:35.01	257.09	2.19	-52.3	-65.0	3.8	1.49e+00	0	33	104	0	75	16288
2026-01-17 13:27:36.02	257.20	2.23	-52.3	-65.0	3.8	1.49e+00	0	33	104	0	75	16247
2026-01-17 13:27:37.03	257.31	2.26	-52.2	-65.0	3.8	1.49e+00	0	33	104	0	75	16255
2026-01-17 13:27:38.04	257.42	2.30	-52.3	-65.0	3.8	1.49e+00	0	33	104	0	75	16286
2026-01-17 13:27:39.05	257.53	2.34	-52.2	-65.0	3.8	1.49e+00	0	33	104	0	75	16286
2026-01-17 13:27:40.06	257.65	2.38	-52.3	-65.0	3.8	1.49e+00	0	33	104	0	75	16250
2026-01-17 13:27:41.06	257.76	2.42	-52.2	-65.1	3.8	1.49e+00	0	33	104	0	75	16328
2026-01-17 13:27:42.07	257.87	2.46	-52.3	-65.0	3.8	1.49e+00	0	33	104	0	75	16227
2026-01-17 13:27:43.08	257.99	2.50	-52.2	-65.0	3.8	1.49e+00	0	33	104	0	75	16232
2026-01-17 13:27:44.08	258.10	2.53	-52.2	-65.0	3.8	1.49e+00	0	33	104	0	75	16243
2026-01-17 13:27:45.09	258.21	2.57	-52.2	-65.0	3.8	1.49e+00	0	33	104	0	75	16284
2026-01-17 13:27:46.10	258.33	2.61	-52.2	-65.0	3.8	1.49e+00	0	33	104	0	75	16232
2026-01-17 13:27:47.10	258.44	2.65	-52.3	-65.0	3.8	1.49e+00	0	33	104	0	75	16272
2026-01-17 13:27:48.11	258.56	2.69	-52.2	-65.0	3.8	1.49e+00	0	33	104	0	75	16258
2026-01-17 13:27:49.12	258.67	2.73	-52.3	-65.0	3.8	1.49e+00	0	33	104	0	75	16209
2026-01-17 13:27:50.13	258.79	2.77	-52.2	-65.0	3.8	1.49e+00	0	33	104	0	75	16233
2026-01-17 13:27:51.13	258.90	2.80	-52.2	-65.0	3.8	1.49e+00	0	33	104	0	75	16275
2026-01-17 13:27:52.12	259.02	2.84	-52.2	-65.0	3.8	1.49e+00	0	33	104	0	75	16249
2026-01-17 13:27:53.12	259.13	2.88	-52.2	-65.0	3.8	1.49e+00	0	34	104	0	75	16238
2026-01-17 13:27:54.11	259.25	2.92	-52.2	-65.0	3.8	1.49e+00	0	33	104	0	75	16284
2026-01-17 13:27:55.11	259.36	2.95	-52.2	-65.0	3.8	1.49e+00	0	33	104	0	75	16214
2026-01-17 13:27:56.10	259.48	2.99	-52.2	-64.9	3.8	1.49e+00	0	33	104	0	75	16124
2026-01-17 13:27:57.10	259.59	3.03	-52.2	-64.9	3.8	1.49e+00	0	33	104	0	75	16102
2026-01-17 13:27:58.10	259.71	3.07	-52.2	-65.0	3.8	1.49e+00	0	33	104	0	75	16133
2026-01-17 13:27:59.09	259.83	3.10	-52.2	-64.9	3.8	1.49e+00	0	33	104	0	75	16056
2026-01-17 13:28:00.09	259.94	3.14	-52.2	-65.0	3.8	1.49e+00	0	33	104	0	75	16140
2026-01-17 13:28:01.08	260.06	3.18	-52.2	-65.0	3.8	1.49e+00	0	34	104	0	75	16163
2026-01-17 13:28:02.08	260.18	3.22	-52.2	-65.0	3.8	1.49e+00	0	34	104	0	75	16209
2026-01-17 13:28:03.08	260.29	3.25	-52.2	-65.0	3.8	1.49e+00	0	33	104	0	75	16180
2026-01-17 13:28:04.07	260.41	3.29	-52.2	-65.0	3.8	1.49e+00	0	33	104	0	75	16211
2026-01-17 13:28:05.07	260.53	3.33	-52.2	-65.0	3.8	1.49e+00	0	33	104	0	75	16225
2026-01-17 13:28:06.07	260.65	3.37	-52.2	-65.0	3.8	1.49e+00	0	34	104	0	75	16239
2026-01-17 13:28:07.07	260.77	3.40	-52.2	-65.0	3.8	1.49e+00	0	34	104	0	75	16200
2026-01-17 13:28:08.06	260.89	3.44	-52.2	-65.0	3.8	1.49e+00	0	34	104	0	75	16228
2026-01-17 13:28:09.06	261.01	3.48	-52.2	-64.9	3.8	1.49e+00	0	34	104	0	75	15976
2026-01-17 13:28:10.06	261.13	3.51	-52.2	-64.9	3.8	1.49e+00	0	34	104	0	75	16008
2026-01-17 13:28:11.05	261.25	3.55	-52.2	-64.9	3.8	1.49e+00	0	34	104	0	75	16098
2026-01-17 13:28:12.04	261.37	3.59	-52.2	-64.9	3.8	1.49e+00	0	34	104	0	75	15958
2026-01-17 13:28:13.03	261.49	3.62	-52.2	-64.9	3.8	1.49e+00	0	34	104	0	75	16078
2026-01-17 13:28:14.02	261.61	3.66	-52.2	-64.9	3.8	1.49e+00	0	34	104	0	75	15989
2026-01-17 13:28:15.01	261.73	3.70	-52.2	-64.9	3.8	1.49e+00	0	34	104	0	75	15998
2026-01-17 13:28:16.00	261.85	3.73	-52.2	-64.9	3.8	1.49e+00	0	34	104	0	75	15982
2026-01-17 13:28:16.99	261.97	3.77	-52.2	-65.0	3.8	1.49e+00	0	34	104	0	75	16144
2026-01-17 13:28:17.98	262.09	3.81	-52.2	-64.9	3.8	1.49e+00	0	34	104	0	75	16100
2026-01-17 13:28:18.97	262.21	3.84	-52.2	-65.0	3.8	1.49e+00	0	34	104	0	75	16172
2026-01-17 13:28:19.96	262.33	3.88	-52.2	-65.0	3.8	1.49e+00	0	34	104	0	75	16163
2026-01-17 13:28:20.96	262.46	3.91	-52.2	-64.9	3.8	1.49e+00	0	34	104	0	75	16067
2026-01-17 13:28:21.95	262.58	3.95	-52.2	-65.0	3.8	1.49e+00	0	34	104	0	75	16129
2026-01-17 13:28:22.95	262.70	3.99	-52.2	-64.9	3.8	1.49e+00	0	34	104	0	75	16039
2026-01-17 13:28:23.95	262.83	4.02	-52.2	-64.9	3.8	1.49e+00	0	34	104	0	75	16052
2026-01-17 13:28:24.95	262.95	4.06	-52.2	-64.9	3.8	1.49e+00	0	34	104	0	75	16085
2026-01-17 13:28:25.95	263.08	4.10	-52.2	-65.0	3.8	1.49e+00	0	34	104	0	75	16133
2026-01-17 13:28:26.95	263.20	4.13	-52.2	-65.0	3.8	1.49e+00	0	34	104	0	75	16183
2026-01-17 13:28:27.94	263.33	4.17	-52.2	-64.9	3.8	1.49e+00	0	34	104	0	75	16112
2026-01-17 13:28:28.94	263.45	4.20	-52.2	-65.0	3.8	1.49e+00	0	34	104	0	75	16154
2026-01-17 13:28:29.93	263.58	4.24	-52.2	-65.0	3.8	1.49e+00	0	34	104	0	75	16148
2026-01-17 13:28:30.93	263.70	4.28	-52.2	-64.9	3.8	1.49e+00	0	34	104	0	75	16016
2026-01-17 13:28:31.93	263.83	4.31	-52.2	-64.9	3.8	1.49e+00	0	34	104	0	75	15960
2026-01-17 13:28:32.92	263.95	4.35	-52.2	-64.7	3.8	1.49e+00	0	34	104	0	75	15754
2026-01-17 13:28:33.91	264.08	4.38	-52.2	-64.9	3.8	1.49e+00	0	34	104	0	75	15947
2026-01-17 13:28:34.90	264.21	4.42	-52.2	-64.9	3.8	1.49e+00	0	34	104	0	75	15945
2026-01-17 13:28:35.89	264.33	4.45	-52.2	-64.7	3.8	1.49e+00	0	34	104	0	75	15749
2026-01-17 13:28:36.88	264.46	4.49	-52.2	-64.7	3.8	1.49e+00	0	34	104	0	75	15643
2026-01-17 13:28:37.87	264.59	4.52	-52.2	-64.7	3.8	1.49e+00	0	34	104	0	75	15722
2026-01-17 13:28:38.85	264.71	4.56	-52.2	-64.8	3.8	1.49e+00	0	34	104	0	75	15776
2026-01-17 13:28:39.83	264.84	4.59	-52.2	-64.9	3.8	1.49e+00	0	34	104	0	75	16099
2026-01-17 13:28:40.82	264.97	4.63	-52.2	-64.8	3.8	1.49e+00	0	34	104	0	75	15841
2026-01-17 13:28:41.80	265.09	4.66	-52.1	-63.9	3.8	1.49e+00	0	34	104	0	75	14262
2026-01-17 13:28:42.79	265.22	4.70	-51.9	-62.2	3.9	1.49e+00	0	34	104	0	75	11775
2026-01-17 13:28:43.77	265.35	4.73	-51.7	-59.8	4.8	9.91e-01	0	34	104	0	75	8931
2026-01-17 13:28:44.77	265.48	4.77	-51.5	-58.7	5.4	5.62e-01	0	34	0	2097152	75	7896
2026-01-17 13:28:45.77	265.61	4.80	-51.2	-57.4	6.4	3.59e-01	0	34	0	5242880	74	7148
2026-01-17 13:28:46.77	265.74	4.83	-50.8	-56.0	7.7	1.22e-01	0	34	0	8388608	73	6441
2026-01-17 13:28:47.77	265.87	4.87	-50.1	-54.2	9.5	2.00e-02	0	34	0	11534336	72	5546
2026-01-17 13:28:48.76	266.00	4.90	-49.2	-52.2	11.6	1.71e-03	0	34	0	14680064	70	4968
2026-01-17 13:28:49.76	266.14	4.94	-47.8	-50.1	13.7	9.90e-06	0	34	0	17825792	67	4633
2026-01-17 13:28:50.76	266.27	4.97	-47.1	-49.0	14.8	7.00e-07	0	34	0	20971520	66	4316
2026-01-17 13:28:51.76	266.40	5.01	-46.8	-48.6	15.3	0.00e+00	0	34	0	24117248	65	4370
2026-01-17 13:28:52.75	266.53	5.04	-51.8	-59.9	5.0	4.72e-02	0	34	0	27262976	74	9526
2026-01-17 13:28:53.75	266.67	5.08	-46.9	-48.8	15.0	2.47e-02	0	34	0	27262976	65	4454
2026-01-17 13:28:54.74	266.80	5.11	-48.9	-51.8	12.5	4.50e-06	0	34	0	30408704	68	5297
2026-01-17 13:28:55.73	266.93	5.14	-48.7	-51.5	12.5	8.60e-03	0	34	0	33554432	69	4824
2026-01-17 13:28:56.72	267.06	5.18	-46.3	-48.0	15.8	0.00e+00	0	34	0	36700160	64	4319
2026-01-17 13:28:57.71	267.20	5.21	-46.5	-48.2	15.6	0.00e+00	0	34	0	39845888	64	4405
2026-01-17 13:28:58.70	267.33	5.24	-46.2	-47.8	16.0	0.00e+00	0	34	0	42991616	64	4240
2026-01-17 13:28:59.69	267.46	5.28	-46.3	-48.0	15.8	0.00e+00	0	34	0	46137344	64	4337
2026-01-17 13:29:00.68	267.60	5.31	-46.4	-48.1	15.7	0.00e+00	0	34	0	49283072	64	4359
2026-01-17 13:29:01.66	267.73	5.34	-46.3	-48.0	15.8	0.00e+00	0	34	0	52428800	64	4320
2026-01-17 13:29:02.64	267.86	5.38	-46.8	-48.7	15.0	0.00e+00	0	34	0	55574528	64	4703
2026-01-17 13:29:03.63	268.00	5.41	-47.3	-49.5	14.2	0.00e+00	0	34	0	58720256	65	4843
2026-01-17 13:29:04.62	268.13	5.44	-47.4	-49.6	14.1	3.00e-06	0	34	0	61865984	65	4880
2026-01-17 13:29:05.61	268.27	5.47	-47.4	-49.6	14.0	3.00e-06	0	34	0	65011712	65	4903
2026-01-17 13:29:06.61	268.40	5.51	-47.7	-50.0	13.6	3.00e-06	0	34	0	68157440	65	5145
2026-01-17 13:29:07.62	268.54	5.54	-48.0	-50.4	13.2	1.75e-05	0	34	0	71303168	66	5090
2026-01-17 13:29:08.61	268.68	5.57	-48.1	-50.7	12.9	6.63e-05	0	34	0	74448896	67	4928
2026-01-17 13:29:09.61	268.82	5.61	-47.9	-50.4	13.2	3.20e-05	0	34	0	77594624	67	4789
2026-01-17 13:29:10.61	268.95	5.64	-48.0	-50.5	13.0	3.20e-05	0	34	0	80740352	67	4869
2026-01-17 13:29:11.61	269.09	5.67	-47.7	-50.0	13.5	1.83e-05	0	34	0	83886080	67	4584
2026-01-17 13:29:12.61	269.23	5.70	-47.5	-49.7	13.9	3.80e-06	0	34	0	87031808	66	4656
2026-01-17 13:29:13.61	269.37	5.74	-47.4	-49.7	13.9	3.00e-06	0	34	0	90177536	66	4658
2026-01-17 13:29:14.61	269.51	5.77	-47.7	-50.1	13.5	6.10e-06	0	34	0	93323264	66	4876
2026-01-17 13:29:15.61	269.65	5.80	-47.6	-49.8	13.8	8.30e-06	0	34	0	95420416	66	4753
2026-01-17 13:29:16.60	269.79	5.83	-47.2	-49.2	14.5	0.00e+00	0	34	0	98566144	66	4422
2026-01-17 13:29:17.60	269.93	5.86	-46.7	-48.6	15.1	0.00e+00	0	34	0	101711872	65	4361
2026-01-17 13:29:18.59	270.07	5.90	-46.5	-48.3	15.4	0.00e+00	0	34	0	104857600	65	4227
2026-01-17 13:29:19.58	270.21	5.93	-46.5	-48.2	15.5	0.00e+00	0	34	0	108003328	64	4433
2026-01-17 13:29:20.57	270.35	5.96	-46.1	-47.7	16.1	0.00e+00	0	34	0	111149056	64	4155
2026-01-17 13:29:21.56	270.49	5.99	-46.2	-47.8	16.1	0.00e+00	0	34	0	114294784	63	4474
2026-01-17 13:29:22.55	270.63	6.02	-45.6	-47.1	16.7	0.00e+00	0	34	0	117440512	63	4143
2026-01-17 13:29:23.53	270.76	6.05	-45.7	-47.2	16.7	0.00e+00	0	34	0	120586240	63	4156
2026-01-17 13:29:24.52	270.91	6.08	-46.0	-47.5	16.4	0.00e+00	0	34	0	123731968	63	4327
2026-01-17 13:29:25.50	271.05	6.11	-46.0	-47.6	16.4	0.00e+00	0	34	0	126877696	63	4357
2026-01-17 13:29:26.49	271.19	6.14	-46.2	-47.8	16.2	0.00e+00	0	34	0	130023424	63	4469
2026-01-17 13:29:27.48	271.33	6.18	-46.3	-47.9	16.2	0.00e+00	0	34	0	133169152	63	4510
2026-01-17 13:29:28.47	271.47	6.21	-46.2	-47.7	16.3	0.00e+00	0	34	0	136314880	63	4436
2026-01-17 13:29:29.46	271.61	6.24	-46.0	-47.5	16.5	0.00e+00	0	34	0	139460608	63	4325
2026-01-17 13:29:30.46	271.76	6.27	-46.1	-47.6	16.4	0.00e+00	0	34	0	142606336	63	4383
2026-01-17 13:29:31.45	271.90	6.30	-46.0	-47.5	16.6	0.00e+00	0	34	0	145752064	63	4311
2026-01-17 13:29:32.45	272.04	6.33	-46.0	-47.5	16.6	0.00e+00	0	34	0	148897792	63	4315
2026-01-17 13:29:33.45	272.19	6.36	-45.8	-47.3	16.8	0.00e+00	0	34	0	152043520	63	4201
2026-01-17 13:29:34.45	272.33	6.39	-45.6	-47.0	17.0	0.00e+00	0	35	0	155189248	63	4083
2026-01-17 13:29:35.45	272.48	6.42	-46.0	-47.5	16.7	0.00e+00	0	34	0	157286400	63	4305
2026-01-17 13:29:36.44	272.62	6.45	-45.7	-47.1	17.0	0.00e+00	0	34	0	160432128	63	4144
2026-01-17 13:29:37.44	272.77	6.48	-45.9	-47.3	16.8	0.00e+00	0	34	0	163577856	63	4238
2026-01-17 13:29:38.43	272.91	6.51	-45.7	-47.2	16.9	0.00e+00	0	34	0	166723584	63	4160
2026-01-17 13:29:39.42	273.06	6.54	-46.0	-47.5	16.6	0.00e+00	0	34	0	169869312	63	4328
2026-01-17 13:29:40.42	273.21	6.57	-45.8	-47.3	16.9	0.00e+00	0	34	0	173015040	63	4204
2026-01-17 13:29:41.41	273.35	6.59	-45.8	-47.3	16.9	0.00e+00	0	34	0	176160768	63	4197
2026-01-17 13:29:42.41	273.50	6.62	-45.6	-47.1	17.1	0.00e+00	0	34	0	179306496	63	4100
2026-01-17 13:29:43.40	273.64	6.65	-45.7	-47.1	17.1	0.00e+00	0	34	0	182452224	63	4115
2026-01-17 13:29:44.39	273.79	6.68	-45.8	-47.2	16.9	0.00e+00	0	34	0	185597952	63	4179
2026-01-17 13:29:45.38	273.94	6.71	-45.6	-47.0	17.1	0.00e+00	0	34	0	188743680	63	4084
2026-01-17 13:29:46.37	274.08	6.74	-45.7	-47.1	17.1	0.00e+00	0	34	0	191889408	63	4134
2026-01-17 13:29:47.36	274.23	6.77	-45.7	-47.1	17.0	0.00e+00	0	34	0	195035136	63	4131
2026-01-17 13:29:48.34	274.38	6.79	-45.7	-47.2	17.0	0.00e+00	0	34	0	198180864	63	4148
2026-01-17 13:29:49.33	274.53	6.82	-45.5	-46.9	17.3	0.00e+00	0	35	0	201326592	63	4010
2026-01-17 13:29:50.32	274.67	6.85	-45.4	-46.8	17.4	0.00e+00	0	34	0	204472320	62	4202
2026-01-17 13:29:51.31	274.82	6.88	-45.5	-46.8	17.3	0.00e+00	0	34	0	207618048	62	4235
2026-01-17 13:29:52.30	274.97	6.90	-45.3	-46.7	17.5	0.00e+00	0	34	0	210763776	62	4146
2026-01-17 13:29:53.29	275.12	6.93	-45.4	-46.7	17.5	0.00e+00	0	34	0	213909504	62	4175
2026-01-17 13:29:54.28	275.27	6.96	-45.2	-46.5	17.6	0.00e+00	0	34	0	217055232	62	4078
2026-01-17 13:29:55.28	275.42	6.99	-45.3	-46.7	17.5	0.00e+00	0	34	0	220200960	62	4152
2026-01-17 13:29:56.28	275.57	7.01	-45.4	-46.8	17.4	0.00e+00	0	34	0	223346688	62	4209
2026-01-17 13:29:57.27	275.72	7.04	-45.4	-46.7	17.4	0.00e+00	0	34	0	225443840	62	4187
2026-01-17 13:29:58.27	275.87	7.07	-45.4	-46.8	17.4	0.00e+00	0	34	0	228589568	62	4200
2026-01-17 13:29:59.27	276.02	7.10	-45.5	-46.8	17.3	0.00e+00	0	34	0	231735296	62	4234
2026-01-17 13:30:00.27	276.18	7.12	-45.6	-47.0	17.2	0.00e+00	0	34	0	234881024	62	4301
2026-01-17 13:30:01.26	276.33	7.15	-45.3	-46.6	17.6	0.00e+00	0	34	0	238026752	62	4114
2026-01-17 13:30:02.26	276.48	7.17	-45.5	-46.8	17.4	0.00e+00	0	34	0	241172480	62	4232
2026-01-17 13:30:03.25	276.63	7.20	-45.4	-46.8	17.4	0.00e+00	0	34	0	244318208	62	4208
2026-01-17 13:30:04.24	276.78	7.23	-45.5	-46.9	17.3	0.00e+00	0	34	0	247463936	62	4259
2026-01-17 13:30:05.24	276.94	7.25	-45.5	-46.9	17.3	0.00e+00	0	34	0	250609664	62	4268
2026-01-17 13:30:06.23	277.09	7.28	-45.6	-47.0	17.2	0.00e+00	0	34	0	253755392	62	4303
2026-01-17 13:30:07.22	277.24	7.30	-45.5	-46.9	17.4	0.00e+00	0	34	0	256901120	62	4260
2026-01-17 13:30:08.21	277.39	7.33	-45.5	-46.8	17.4	0.00e+00	0	34	0	260046848	62	4233
2026-01-17 13:30:09.21	277.55	7.36	-45.4	-46.8	17.4	0.00e+00	0	34	0	263192576	62	4212
2026-01-17 13:30:10.20	277.70	7.38	-45.5	-46.8	17.4	0.00e+00	0	34	0	266338304	62	4236
2026-01-17 13:30:11.20	277.86	7.41	-45.7	-47.1	17.2	0.00e+00	0	34	0	269484032	62	4357
2026-01-17 13:30:12.19	278.01	7.43	-45.7	-47.1	17.2	0.00e+00	0	34	0	272629760	62	4365
2026-01-17 13:30:13.18	278.17	7.45	-45.6	-47.0	17.2	0.00e+00	0	34	0	275775488	62	4317
2026-01-17 13:30:14.16	278.32	7.48	-45.8	-47.2	17.0	0.00e+00	0	34	0	278921216	62	4415
2026-01-17 13:30:15.15	278.47	7.50	-45.4	-46.8	17.5	0.00e+00	0	34	0	282066944	62	4220
2026-01-17 13:30:16.14	278.63	7.53	-45.4	-46.8	17.4	0.00e+00	0	34	0	285212672	62	4215
2026-01-17 13:30:17.13	278.78	7.55	-45.2	-46.5	17.7	0.00e+00	0	34	0	288358400	62	4094
2026-01-17 13:30:18.11	278.94	7.57	-45.2	-46.6	17.7	0.00e+00	0	34	0	291504128	62	4099
2026-01-17 13:30:19.11	279.09	7.60	-45.2	-46.6	17.7	0.00e+00	0	34	0	294649856	62	4103
2026-01-17 13:30:20.10	279.25	7.62	-45.2	-46.5	17.8	0.00e+00	0	35	0	297795584	62	4058
2026-01-17 13:30:21.10	279.41	7.65	-45.1	-46.4	17.8	0.00e+00	0	34	0	300941312	62	4023
2026-01-17 13:30:22.09	279.56	7.67	-45.4	-46.7	17.5	0.00e+00	0	34	0	304087040	62	4170
2026-01-17 13:30:23.10	279.72	7.69	-45.4	-46.7	17.5	0.00e+00	0	34	0	307232768	62	4169
2026-01-17 13:30:24.10	279.88	7.72	-45.2	-46.6	17.7	0.00e+00	0	34	0	310378496	62	4105
2026-01-17 13:30:25.10	280.04	7.74	-45.3	-46.6	17.6	0.00e+00	0	34	0	313524224	62	4124
2026-01-17 13:30:26.10	280.20	7.76	-45.2	-46.4	17.8	0.00e+00	0	34	0	316669952	62	4049
2026-01-17 13:30:27.09	280.36	7.78	-45.1	-46.4	17.8	0.00e+00	0	34	0	319815680	62	4026
2026-01-17 13:30:28.09	280.51	7.81	-45.2	-46.4	17.8	0.00e+00	0	35	0	322961408	62	4049
2026-01-17 13:30:29.08	280.67	7.83	-45.0	-46.3	18.0	0.00e+00	0	34	0	326107136	62	3968
2026-01-17 13:30:30.08	280.83	7.85	-45.2	-46.5	17.7	0.00e+00	0	35	0	328204288	62	4092
2026-01-17 13:30:31.07	280.99	7.87	-45.2	-46.5	17.8	0.00e+00	0	35	0	331350016	62	4072
2026-01-17 13:30:32.06	281.15	7.89	-45.2	-46.5	17.8	0.00e+00	0	34	0	334495744	62	4079
2026-01-17 13:30:33.06	281.31	7.92	-45.3	-46.6	17.7	0.00e+00	0	35	0	337641472	62	4133
2026-01-17 13:30:34.06	281.47	7.94	-45.2	-46.5	17.8	0.00e+00	0	34	0	340787200	62	4063
2026-01-17 13:30:35.05	281.63	7.96	-45.2	-46.5	17.8	0.00e+00	0	34	0	343932928	62	4071
2026-01-17 13:30:36.05	281.79	7.98	-45.3	-46.6	17.8	0.00e+00	0	34	0	347078656	62	4104
2026-01-17 13:30:37.05	281.95	8.00	-45.5	-46.8	17.5	0.00e+00	0	34	0	350224384	62	4232
2026-01-17 13:30:38.04	282.11	8.02	-45.4	-46.7	17.7	0.00e+00	0	35	0	353370112	62	4155
2026-01-17 13:30:39.03	282.27	8.04	-45.3	-46.5	17.8	0.00e+00	0	34	0	356515840	62	4097
2026-01-17 13:30:40.03	282.43	8.06	-45.3	-46.7	17.7	0.00e+00	0	34	0	359661568	62	4151
2026-01-17 13:30:41.02	282.59	8.08	-45.3	-46.6	17.7	0.00e+00	0	34	0	362807296	62	4127
2026-01-17 13:30:42.00	282.75	8.10	-45.3	-46.6	17.7	0.00e+00	0	34	0	365953024	62	4127
2026-01-17 13:30:42.99	282.91	8.12	-45.2	-46.5	17.8	0.00e+00	0	35	0	369098752	62	4071
2026-01-17 13:30:43.98	283.08	8.14	-45.3	-46.6	17.7	0.00e+00	0	34	0	372244480	62	4131
2026-01-17 13:30:44.97	283.24	8.16	-45.5	-46.9	17.5	0.00e+00	0	34	0	375390208	62	4248
2026-01-17 13:30:45.96	283.40	8.18	-45.4	-46.7	17.6	0.00e+00	0	34	0	378535936	62	4171
2026-01-17 13:30:46.95	283.56	8.20	-45.4	-46.8	17.6	0.00e+00	0	34	0	381681664	62	4204
2026-01-17 13:30:47.93	283.72	8.22	-45.3	-46.6	17.8	0.00e+00	0	34	0	384827392	62	4128
2026-01-17 13:30:48.92	283.88	8.23	-45.3	-46.5	17.9	0.00e+00	0	34	0	387973120	62	4089
2026-01-17 13:30:49.91	284.05	8.25	-45.5	-46.8	17.6	0.00e+00	0	35	0	391118848	62	4221
2026-01-17 13:30:50.91	284.21	8.27	-45.4	-46.7	17.8	0.00e+00	0	34	0	394264576	62	4156
2026-01-17 13:30:51.90	284.37	8.29	-45.4	-46.7	17.7	0.00e+00	0	34	0	396361728	62	4156
2026-01-17 13:30:52.90	284.54	8.31	-45.3	-46.6	17.8	0.00e+00	0	34	0	399507456	62	4133
2026-01-17 13:30:53.90	284.70	8.32	-45.5	-46.9	17.6	0.00e+00	0	35	0	402653184	62	4255
2026-01-17 13:30:54.90	284.87	8.34	-45.3	-46.6	17.8	0.00e+00	0	35	0	405798912	62	4123
2026-01-17 13:30:55.90	285.03	8.36	-45.4	-46.7	17.8	0.00e+00	0	35	0	408944640	62	4155
2026-01-17 13:30:56.90	285.20	8.38	-45.3	-46.6	17.9	0.00e+00	0	34	0	412090368	62	4099
2026-01-17 13:30:57.90	285.36	8.39	-45.4	-46.7	17.8	0.00e+00	0	34	0	415236096	62	4150
2026-01-17 13:30:58.91	285.53	8.41	-45.1	-46.3	18.2	0.00e+00	0	34	0	418381824	62	3977
2026-01-17 13:30:59.91	285.70	8.43	-45.1	-46.4	18.1	0.00e+00	0	35	0	421527552	62	4017
2026-01-17 13:31:00.91	285.86	8.44	-45.1	-46.3	18.1	0.00e+00	0	35	0	424673280	62	3993
2026-01-17 13:31:01.91	286.03	8.46	-45.3	-46.6	17.9	0.00e+00	0	35	0	427819008	62	4122
2026-01-17 13:31:02.91	286.20	8.48	-45.3	-46.6	17.9	0.00e+00	0	35	0	430964736	62	4105
2026-01-17 13:31:03.90	286.36	8.49	-45.2	-46.4	18.0	0.00e+00	0	34	0	434110464	62	4050
2026-01-17 13:31:04.90	286.53	8.51	-45.3	-46.5	18.0	0.00e+00	0	34	0	437256192	62	4089
2026-01-17 13:31:05.89	286.69	8.52	-45.4	-46.7	17.9	0.00e+00	0	35	0	440401920	62	4149
2026-01-17 13:31:06.89	286.86	8.54	-45.6	-46.9	17.6	0.00e+00	0	35	0	443547648	62	4265
2026-01-17 13:31:07.88	287.02	8.55	-45.8	-47.1	17.4	0.00e+00	0	34	0	446693376	62	4384
2026-01-17 13:31:08.86	287.19	8.57	-45.6	-46.9	17.6	0.00e+00	0	35	0	449839104	62	4259
2026-01-17 13:31:09.86	287.36	8.58	-45.7	-47.0	17.5	0.00e+00	0	34	0	452984832	62	4329
2026-01-17 13:31:10.84	287.52	8.60	-45.8	-47.1	17.4	0.00e+00	0	35	0	456130560	62	4377
2026-01-17 13:31:11.83	287.69	8.61	-45.6	-46.9	17.6	0.00e+00	0	34	0	459276288	62	4287
2026-01-17 13:31:12.82	287.85	8.63	-45.6	-47.0	17.5	0.00e+00	0	35	0	462422016	62	4306
2026-01-17 13:31:13.81	288.02	8.64	-45.4	-46.6	17.9	0.00e+00	0	35	0	465567744	62	4129
2026-01-17 13:31:14.81	288.19	8.65	-45.2	-46.5	18.1	0.00e+00	0	34	0	468713472	62	4069
2026-01-17 13:31:15.81	288.36	8.67	-45.3	-46.6	17.9	0.00e+00	0	34	0	471859200	62	4119
2026-01-17 13:31:16.81	288.53	8.68	-45.1	-46.4	18.1	0.00e+00	0	34	0	475004928	62	4016
2026-01-17 13:31:17.80	288.69	8.69	-45.4	-46.6	17.9	0.00e+00	0	35	0	478150656	62	4141
2026-01-17 13:31:18.80	288.86	8.71	-45.3	-46.6	17.9	0.00e+00	0	34	0	481296384	62	4138
2026-01-17 13:31:19.80	289.03	8.72	-45.2	-46.5	18.1	0.00e+00	0	35	0	484442112	62	4052
2026-01-17 13:31:20.80	289.20	8.73	-45.1	-46.3	18.3	0.00e+00	0	35	0	487587840	62	3976
2026-01-17 13:31:21.79	289.37	8.74	-45.2	-46.4	18.1	0.00e+00	0	34	0	490733568	62	4028
2026-01-17 13:31:22.78	289.54	8.75	-45.6	-47.0	17.6	0.00e+00	0	35	0	493879296	62	4293
2026-01-17 13:31:23.78	289.71	8.77	-45.5	-46.8	17.8	0.00e+00	0	35	0	497025024	62	4237
2026-01-17 13:31:24.77	289.87	8.78	-45.6	-46.9	17.7	0.00e+00	0	34	0	499122176	62	4280
2026-01-17 13:31:25.76	290.04	8.79	-45.7	-47.0	17.6	0.00e+00	0	34	0	502267904	62	4312
2026-01-17 13:31:26.76	290.21	8.80	-45.7	-47.0	17.6	0.00e+00	0	34	0	505413632	62	4310
2026-01-17 13:31:27.75	290.38	8.81	-45.8	-47.1	17.5	0.00e+00	0	34	0	508559360	62	4374
2026-01-17 13:31:28.74	290.55	8.82	-45.8	-47.2	17.4	0.00e+00	0	34	0	511705088	62	4400
2026-01-17 13:31:29.73	290.72	8.83	-45.8	-47.2	17.5	0.00e+00	0	34	0	514850816	62	4397
2026-01-17 13:31:30.72	290.89	8.84	-45.7	-47.1	17.5	0.00e+00	0	34	0	517996544	62	4356
2026-01-17 13:31:31.71	291.06	8.85	-45.6	-47.0	17.6	0.00e+00	0	35	0	521142272	62	4306
2026-01-17 13:31:32.70	291.22	8.86	-45.6	-47.0	17.6	0.00e+00	0	34	0	524288000	62	4296
2026-01-17 13:31:33.69	291.39	8.87	-45.6	-47.0	17.7	0.00e+00	0	34	0	527433728	62	4296
2026-01-17 13:31:34.69	291.56	8.88	-45.6	-46.9	17.7	0.00e+00	0	34	0	530579456	62	4265
2026-01-17 13:31:35.68	291.73	8.89	-45.5	-46.8	17.9	0.00e+00	0	35	0	533725184	62	4200
2026-01-17 13:31:36.67	291.90	8.90	-45.3	-46.5	18.1	0.00e+00	0	34	0	536870912	62	4084
2026-01-17 13:31:37.67	292.07	8.91	-45.2	-46.4	18.2	0.00e+00	0	34	0	540016640	62	4042
2026-01-17 13:31:38.67	292.25	8.92	-45.2	-46.4	18.2	0.00e+00	0	35	0	543162368	62	4039
2026-01-17 13:31:39.67	292.42	8.93	-45.4	-46.6	18.0	0.00e+00	0	34	0	546308096	62	4138
2026-01-17 13:31:40.67	292.59	8.93	-45.5	-46.8	17.8	0.00e+00	0	34	0	549453824	62	4230
2026-01-17 13:31:41.67	292.76	8.94	-45.6	-46.9	17.7	0.00e+00	0	35	0	552599552	62	4276
2026-01-17 13:31:42.66	292.93	8.95	-45.6	-46.9	17.8	0.00e+00	0	35	0	555745280	62	4250
2026-01-17 13:31:43.66	293.10	8.96	-45.7	-47.0	17.7	0.00e+00	0	34	0	558891008	62	4315
2026-01-17 13:31:44.66	293.27	8.96	-45.7	-47.0	17.6	0.00e+00	0	34	0	562036736	62	4335
2026-01-17 13:31:45.65	293.44	8.97	-45.6	-46.9	17.8	0.00e+00	0	35	0	565182464	62	4254
2026-01-17 13:31:46.65	293.62	8.98	-45.7	-47.0	17.7	0.00e+00	0	34	0	568328192	62	4316
2026-01-17 13:31:47.65	293.79	8.98	-45.5	-46.8	17.9	0.00e+00	0	34	0	570425344	62	4199
2026-01-17 13:31:48.65	293.96	8.99	-45.4	-46.6	18.0	0.00e+00	0	35	0	573571072	62	4136
2026-01-17 13:31:49.64	294.13	9.00	-45.4	-46.7	18.0	0.00e+00	0	35	0	576716800	62	4158
2026-01-17 13:31:50.63	294.30	9.00	-45.3	-46.5	18.1	0.00e+00	0	35	0	579862528	62	4087
2026-01-17 13:31:51.62	294.47	9.01	-45.3	-46.5	18.1	0.00e+00	0	35	0	583008256	62	4079
2026-01-17 13:31:52.61	294.64	9.01	-45.3	-46.6	18.0	0.00e+00	0	34	0	586153984	62	4117
2026-01-17 13:31:53.60	294.81	9.02	-45.4	-46.6	18.0	0.00e+00	0	35	0	589299712	62	4141
2026-01-17 13:31:54.58	294.98	9.02	-45.4	-46.6	18.0	0.00e+00	0	35	0	592445440	62	4135
2026-01-17 13:31:55.57	295.15	9.03	-45.3	-46.5	18.1	0.00e+00	0	34	0	595591168	62	4082
2026-01-17 13:31:56.56	295.32	9.03	-45.4	-46.6	18.0	0.00e+00	0	35	0	598736896	62	4135
2026-01-17 13:31:57.56	295.50	9.04	-45.2	-46.5	18.1	0.00e+00	0	34	0	601882624	62	4062
2026-01-17 13:31:58.54	295.67	9.04	-45.3	-46.6	18.0	0.00e+00	0	34	0	605028352	62	4110
2026-01-17 13:31:59.53	295.84	9.05	-45.3	-46.6	18.0	0.00e+00	0	35	0	608174080	62	4119
2026-01-17 13:32:00.53	296.01	9.05	-45.4	-46.6	18.0	0.00e+00	0	34	0	611319808	62	4127
2026-01-17 13:32:01.53	296.18	9.05	-45.4	-46.7	17.9	0.00e+00	0	34	0	614465536	62	4152
2026-01-17 13:32:02.52	296.35	9.06	-45.4	-46.6	18.0	0.00e+00	0	35	0	617611264	62	4128
2026-01-17 13:32:03.53	296.53	9.06	-45.4	-46.7	17.9	0.00e+00	0	34	0	620756992	62	4156
2026-01-17 13:32:04.53	296.70	9.06	-45.2	-46.4	18.2	0.00e+00	0	34	0	623902720	62	4020
2026-01-17 13:32:05.53	296.87	9.07	-45.0	-46.2	18.3	0.00e+00	0	35	0	627048448	61	4188
2026-01-17 13:32:06.53	297.05	9.07	-45.2	-46.4	18.2	0.00e+00	0	35	0	630194176	61	4287
2026-01-17 13:32:07.52	297.22	9.07	-45.1	-46.3	18.2	0.00e+00	0	35	0	633339904	61	4242
2026-01-17 13:32:08.52	297.39	9.07	-45.4	-46.6	18.0	0.00e+00	0	34	0	636485632	61	4379
2026-01-17 13:32:09.52	297.56	9.07	-45.1	-46.4	18.2	0.00e+00	0	34	0	639631360	61	4243
2026-01-17 13:32:10.52	297.74	9.08	-45.4	-46.6	18.0	0.00e+00	0	35	0	642777088	61	4383
2026-01-17 13:32:11.52	297.91	9.08	-45.2	-46.5	18.1	0.00e+00	0	35	0	645922816	61	4296
2026-01-17 13:32:12.51	298.08	9.08	-45.2	-46.4	18.2	0.00e+00	0	34	0	649068544	61	4288
2026-01-17 13:32:13.51	298.26	9.08	-45.3	-46.5	18.1	0.00e+00	0	34	0	652214272	61	4336
2026-01-17 13:32:14.50	298.43	9.08	-45.2	-46.4	18.2	0.00e+00	0	35	0	655360000	61	4267
2026-01-17 13:32:15.49	298.60	9.08	-45.4	-46.6	18.0	0.00e+00	0	35	0	658505728	61	4374
2026-01-17 13:32:16.48	298.77	9.08	-45.3	-46.6	18.0	0.00e+00	0	35	0	661651456	61	4346
2026-01-17 13:32:17.47	298.94	9.08	-45.4	-46.7	17.9	0.00e+00	0	34	0	663748608	61	4392
2026-01-17 13:32:18.46	299.11	9.08	-45.4	-46.7	17.8	0.00e+00	0	35	0	666894336	61	4435
2026-01-17 13:32:19.45	299.28	9.08	-45.4	-46.7	17.9	0.00e+00	0	35	0	670040064	61	4400
2026-01-17 13:32:20.44	299.46	9.08	-45.3	-46.5	18.0	0.00e+00	0	35	0	673185792	61	4336
2026-01-17 13:32:21.43	299.63	9.08	-45.3	-46.6	18.0	0.00e+00	0	35	0	676331520	61	4355
2026-01-17 13:32:22.43	299.80	9.08	-45.3	-46.6	18.0	0.00e+00	0	35	0	679477248	61	4365
2026-01-17 13:32:23.43	299.97	9.07	-45.3	-46.6	18.0	0.00e+00	0	35	0	682622976	61	4355
2026-01-17 13:32:24.43	300.15	9.07	-45.1	-46.3	18.3	0.00e+00	0	34	0	685768704	61	4219
2026-01-17 13:32:25.43	300.32	9.07	-45.1	-46.4	18.2	0.00e+00	0	35	0	688914432	61	4252
2026-01-17 13:32:26.43	300.49	9.07	-45.4	-46.7	17.9	0.00e+00	0	35	0	692060160	61	4403
2026-01-17 13:32:27.42	300.66	9.07	-45.5	-46.8	17.8	0.00e+00	0	34	0	695205888	61	4445
2026-01-17 13:32:28.42	300.84	9.06	-45.3	-46.6	17.9	0.00e+00	0	35	0	698351616	61	4369
2026-01-17 13:32:29.42	301.01	9.06	-45.1	-46.3	18.2	0.00e+00	0	34	0	701497344	61	4240
2026-01-17 13:32:30.42	301.18	9.06	-45.2	-46.5	18.1	0.00e+00	0	34	0	704643072	61	4304
2026-01-17 13:32:31.41	301.35	9.06	-45.3	-46.6	18.0	0.00e+00	0	35	0	707788800	61	4358
2026-01-17 13:32:32.41	301.53	9.05	-45.4	-46.7	17.8	0.00e+00	0	35	0	710934528	61	4433
2026-01-17 13:32:33.41	301.70	9.05	-45.2	-46.4	18.1	0.00e+00	0	35	0	714080256	61	4288
2026-01-17 13:32:34.40	301.87	9.04	-45.2	-46.4	18.1	0.00e+00	0	34	0	717225984	61	4282
2026-01-17 13:32:35.40	302.04	9.04	-45.1	-46.3	18.2	0.00e+00	0	35	0	720371712	61	4230
2026-01-17 13:32:36.39	302.21	9.04	-45.1	-46.3	18.2	0.00e+00	0	35	0	723517440	61	4228
2026-01-17 13:32:37.38	302.38	9.03	-45.1	-46.4	18.2	0.00e+00	0	35	0	726663168	61	4246
2026-01-17 13:32:38.37	302.55	9.03	-45.1	-46.4	18.2	0.00e+00	0	35	0	729808896	61	4245
2026-01-17 13:32:39.36	302.73	9.02	-45.1	-46.4	18.1	0.00e+00	0	35	0	732954624	61	4248
2026-01-17 13:32:40.35	302.90	9.02	-45.0	-46.2	18.3	0.00e+00	0	34	0	736100352	61	4148
2026-01-17 13:32:41.34	303.07	9.01	-44.9	-46.1	18.4	0.00e+00	0	35	0	739246080	61	4119
2026-01-17 13:32:42.33	303.24	9.01	-44.9	-46.1	18.4	0.00e+00	0	35	0	742391808	61	4105
2026-01-17 13:32:43.33	303.41	9.00	-44.7	-45.9	18.6	0.00e+00	0	35	0	744488960	61	4020
2026-01-17 13:32:44.32	303.58	8.99	-44.8	-46.0	18.5	0.00e+00	0	35	0	747634688	61	4080
2026-01-17 13:32:45.31	303.75	8.99	-44.9	-46.1	18.4	0.00e+00	0	35	0	750780416	61	4112
2026-01-17 13:32:46.31	303.92	8.98	-44.8	-46.0	18.5	0.00e+00	0	35	0	753926144	61	4066
2026-01-17 13:32:47.31	304.09	8.98	-45.0	-46.2	18.3	0.00e+00	0	35	0	757071872	61	4181
2026-01-17 13:32:48.31	304.27	8.97	-45.1	-46.4	18.2	0.00e+00	0	35	0	760217600	61	4244
2026-01-17 13:32:49.31	304.44	8.96	-45.1	-46.4	18.1	0.00e+00	0	35	0	763363328	61	4259
2026-01-17 13:32:50.31	304.61	8.95	-45.0	-46.2	18.3	0.00e+00	0	35	0	766509056	61	4189
2026-01-17 13:32:51.31	304.78	8.95	-45.1	-46.3	18.2	0.00e+00	0	35	0	769654784	61	4217
2026-01-17 13:32:52.31	304.95	8.94	-45.0	-46.2	18.3	0.00e+00	0	35	0	772800512	61	4161
2026-01-17 13:32:53.30	305.12	8.93	-44.8	-46.0	18.5	0.00e+00	0	35	0	775946240	61	4086
2026-01-17 13:32:54.30	305.29	8.92	-44.8	-46.0	18.5	0.00e+00	0	34	0	779091968	61	4086
2026-01-17 13:32:55.29	305.46	8.91	-44.8	-46.0	18.5	0.00e+00	0	34	0	782237696	61	4052
2026-01-17 13:32:56.29	305.63	8.90	-44.9	-46.1	18.4	0.00e+00	0	35	0	785383424	61	4116
2026-01-17 13:32:57.29	305.81	8.90	-45.0	-46.3	18.2	0.00e+00	0	35	0	788529152	61	4199
2026-01-17 13:32:58.28	305.97	8.89	-45.1	-46.3	18.2	0.00e+00	0	34	0	791674880	61	4228
2026-01-17 13:32:59.28	306.14	8.88	-45.2	-46.5	18.0	0.00e+00	0	35	0	794820608	61	4305
2026-01-17 13:33:00.28	306.32	8.87	-45.2	-46.5	18.0	0.00e+00	0	34	0	797966336	61	4311
2026-01-17 13:33:01.27	306.48	8.86	-45.3	-46.5	18.0	0.00e+00	0	35	0	801112064	61	4331
2026-01-17 13:33:02.26	306.65	8.85	-45.1	-46.3	18.1	0.00e+00	0	35	0	804257792	61	4236
2026-01-17 13:33:03.26	306.82	8.84	-45.0	-46.3	18.2	0.00e+00	0	35	0	807403520	61	4200
2026-01-17 13:33:04.25	306.99	8.83	-45.1	-46.3	18.2	0.00e+00	0	35	0	810549248	61	4213
2026-01-17 13:33:05.24	307.16	8.82	-45.1	-46.3	18.2	0.00e+00	0	35	0	813694976	61	4208
2026-01-17 13:33:06.23	307.33	8.81	-45.1	-46.3	18.2	0.00e+00	0	35	0	816840704	61	4215
2026-01-17 13:33:07.23	307.50	8.80	-45.1	-46.3	18.2	0.00e+00	0	35	0	819986432	61	4221
2026-01-17 13:33:08.21	307.66	8.78	-45.2	-46.5	18.0	0.00e+00	0	35	0	823132160	61	4292
2026-01-17 13:33:09.21	307.83	8.77	-45.2	-46.5	17.9	0.00e+00	0	35	0	826277888	61	4314
2026-01-17 13:33:10.20	308.00	8.76	-45.1	-46.4	18.1	0.00e+00	0	35	0	829423616	61	4247
2026-01-17 13:33:11.19	308.17	8.75	-45.0	-46.2	18.2	0.00e+00	0	34	0	832569344	61	4191
2026-01-17 13:33:12.18	308.34	8.74	-45.0	-46.2	18.2	0.00e+00	0	35	0	835715072	61	4177
2026-01-17 13:33:13.18	308.51	8.73	-45.1	-46.3	18.1	0.00e+00	0	35	0	838860800	61	4205
2026-01-17 13:33:14.18	308.68	8.71	-44.9	-46.1	18.3	0.00e+00	0	35	0	842006528	61	4133
2026-01-17 13:33:15.18	308.84	8.70	-45.0	-46.2	18.2	0.00e+00	0	35	0	845152256	61	4187
2026-01-17 13:33:16.18	309.01	8.69	-45.1	-46.3	18.1	0.00e+00	0	34	0	848297984	61	4233
2026-01-17 13:33:17.18	309.18	8.67	-45.0	-46.2	18.2	0.00e+00	0	35	0	851443712	61	4185
2026-01-17 13:33:18.18	309.35	8.66	-44.9	-46.1	18.3	0.00e+00	0	35	0	853540864	61	4113
2026-01-17 13:33:19.18	309.52	8.65	-45.0	-46.2	18.2	0.00e+00	0	35	0	856686592	61	4182
2026-01-17 13:33:20.18	309.69	8.63	-45.1	-46.3	18.2	0.00e+00	0	35	0	859832320	61	4227
2026-01-17 13:33:21.18	309.85	8.62	-45.2	-46.5	18.0	0.00e+00	0	35	0	862978048	61	4296
2026-01-17 13:33:22.17	310.02	8.61	-45.1	-46.3	18.1	0.00e+00	0	35	0	866123776	61	4217
2026-01-17 13:33:23.17	310.19	8.59	-45.2	-46.5	18.0	0.00e+00	0	35	0	869269504	61	4309
2026-01-17 13:33:24.17	310.35	8.58	-45.3	-46.6	17.8	0.00e+00	0	35	0	872415232	61	4388
2026-01-17 13:33:25.16	310.52	8.56	-45.3	-46.6	17.9	0.00e+00	0	35	0	875560960	61	4341
2026-01-17 13:33:26.14	310.68	8.55	-45.3	-46.6	17.9	0.00e+00	0	35	0	878706688	61	4354
2026-01-17 13:33:27.13	310.85	8.53	-45.4	-46.7	17.7	0.00e+00	0	35	0	881852416	61	4419
2026-01-17 13:33:28.12	311.01	8.52	-45.3	-46.6	17.9	0.00e+00	0	35	0	884998144	61	4346
2026-01-17 13:33:29.11	311.18	8.50	-45.4	-46.8	17.7	0.00e+00	0	34	0	888143872	61	4444
2026-01-17 13:33:30.10	311.34	8.49	-45.5	-46.9	17.5	0.00e+00	0	35	0	891289600	61	4498
2026-01-17 13:33:31.10	311.51	8.47	-45.4	-46.7	17.7	0.00e+00	0	35	0	894435328	61	4440
2026-01-17 13:33:32.09	311.67	8.46	-45.5	-46.8	17.6	0.00e+00	0	35	0	897581056	61	4463
2026-01-17 13:33:33.09	311.84	8.44	-45.5	-46.9	17.6	0.00e+00	0	34	0	900726784	61	4505
2026-01-17 13:33:34.09	312.01	8.42	-45.5	-46.9	17.6	0.00e+00	0	35	0	903872512	61	4502
2026-01-17 13:33:35.09	312.17	8.41	-45.5	-46.9	17.6	0.00e+00	0	35	0	907018240	61	4509
2026-01-17 13:33:36.09	312.34	8.39	-45.6	-47.0	17.5	0.00e+00	0	35	0	910163968	61	4551
2026-01-17 13:33:37.09	312.50	8.37	-45.5	-46.8	17.6	0.00e+00	0	35	0	913309696	61	4476
2026-01-17 13:33:38.09	312.67	8.35	-45.5	-46.9	17.5	0.00e+00	0	35	0	916455424	61	4499
2026-01-17 13:33:39.08	312.83	8.34	-45.6	-46.9	17.4	0.00e+00	0	35	0	919601152	61	4544
2026-01-17 13:33:40.08	312.99	8.32	-45.6	-46.9	17.5	0.00e+00	0	35	0	922746880	61	4533
2026-01-17 13:33:41.08	313.16	8.30	-45.5	-46.9	17.5	0.00e+00	0	35	0	925892608	61	4521
2026-01-17 13:33:42.07	313.32	8.28	-45.5	-46.9	17.5	0.00e+00	0	35	0	927989760	61	4495
2026-01-17 13:33:43.07	313.49	8.27	-45.4	-46.7	17.6	0.00e+00	0	35	0	931135488	61	4437
2026-01-17 13:33:44.06	313.65	8.25	-45.3	-46.6	17.8	0.00e+00	0	35	0	934281216	61	4347
2026-01-17 13:33:45.05	313.81	8.23	-45.4	-46.7	17.6	0.00e+00	0	35	0	937426944	61	4440
2026-01-17 13:33:46.04	313.97	8.21	-45.4	-46.7	17.7	0.00e+00	0	35	0	940572672	61	4420
2026-01-17 13:33:47.03	314.13	8.19	-45.3	-46.6	17.7	0.00e+00	0	34	0	943718400	61	4365
2026-01-17 13:33:48.02	314.29	8.17	-45.4	-46.7	17.7	0.00e+00	0	35	0	946864128	61	4419
2026-01-17 13:33:49.00	314.45	8.15	-45.3	-46.6	17.7	0.00e+00	0	34	0	950009856	61	4359
2026-01-17 13:33:49.99	314.61	8.13	-45.3	-46.6	17.8	0.00e+00	0	35	0	953155584	61	4355
2026-01-17 13:33:50.97	314.77	8.12	-45.1	-46.4	17.9	0.00e+00	0	35	0	956301312	61	4276
2026-01-17 13:33:51.97	314.94	8.10	-45.2	-46.5	17.9	0.00e+00	0	35	0	959447040	61	4310
2026-01-17 13:33:52.96	315.10	8.08	-45.4	-46.7	17.7	0.00e+00	0	35	0	962592768	61	4425
2026-01-17 13:33:53.95	315.26	8.06	-45.3	-46.6	17.7	0.00e+00	0	35	0	965738496	61	4381
2026-01-17 13:33:54.94	315.42	8.04	-45.1	-46.4	17.9	0.00e+00	0	35	0	968884224	61	4277
2026-01-17 13:33:55.94	315.58	8.02	-45.3	-46.5	17.8	0.00e+00	0	35	0	972029952	61	4337
2026-01-17 13:33:56.93	315.74	7.99	-45.1	-46.4	18.0	0.00e+00	0	35	0	975175680	61	4251
2026-01-17 13:33:57.93	315.90	7.97	-45.2	-46.5	17.9	0.00e+00	0	35	0	978321408	61	4295
2026-01-17 13:33:58.92	316.06	7.95	-45.1	-46.4	18.0	0.00e+00	0	35	0	981467136	61	4255
2026-01-17 13:33:59.92	316.22	7.93	-45.1	-46.4	17.9	0.00e+00	0	34	0	984612864	61	4269
2026-01-17 13:34:00.91	316.37	7.91	-45.1	-46.4	18.0	0.00e+00	0	35	0	987758592	61	4245
2026-01-17 13:34:01.92	316.54	7.89	-45.4	-46.7	17.6	0.00e+00	0	34	0	990904320	61	4429
2026-01-17 13:34:02.92	316.70	7.87	-45.1	-46.4	17.9	0.00e+00	0	35	0	994050048	61	4256
2026-01-17 13:34:03.92	316.86	7.85	-45.0	-46.3	18.0	0.00e+00	0	35	0	997195776	61	4199
2026-01-17 13:34:04.92	317.01	7.82	-45.0	-46.2	18.1	0.00e+00	0	35	0	1000341504	61	4182
2026-01-17 13:34:05.92	317.17	7.80	-45.2	-46.5	17.8	0.00e+00	0	35	0	1003487232	61	4317
2026-01-17 13:34:06.91	317.33	7.78	-45.2	-46.4	17.9	0.00e+00	0	35	0	1006632960	61	4281
2026-01-17 13:34:07.91	317.49	7.76	-44.9	-46.2	18.1	0.00e+00	0	35	0	1009778688	61	4152
2026-01-17 13:34:08.90	317.65	7.73	-44.9	-46.1	18.1	0.00e+00	0	34	0	1012924416	61	4141
2026-01-17 13:34:09.89	317.80	7.71	-45.2	-46.4	17.9	0.00e+00	0	35	0	1016070144	61	4288
2026-01-17 13:34:10.88	317.96	7.69	-45.1	-46.4	17.9	0.00e+00	0	35	0	1019215872	61	4272
2026-01-17 13:34:11.88	318.12	7.66	-45.0	-46.3	18.0	0.00e+00	0	34	0	1022361600	61	4206
2026-01-17 13:34:12.87	318.27	7.64	-45.2	-46.5	17.8	0.00e+00	0	35	0	1024458752	61	4297
2026-01-17 13:34:13.86	318.43	7.62	-45.0	-46.3	18.0	0.00e+00	0	34	0	1027604480	61	4216
2026-01-17 13:34:14.85	318.58	7.60	-45.0	-46.3	18.0	0.00e+00	0	35	0	1030750208	61	4216
2026-01-17 13:34:15.84	318.74	7.57	-45.1	-46.4	17.9	0.00e+00	0	35	0	1033895936	61	4269
2026-01-17 13:34:16.82	318.89	7.55	-45.3	-46.6	17.7	0.00e+00	0	34	0	1037041664	61	4373
2026-01-17 13:34:17.81	319.05	7.52	-45.2	-46.4	17.8	0.00e+00	0	35	0	1040187392	61	4282
2026-01-17 13:34:18.80	319.20	7.50	-45.1	-46.4	17.9	0.00e+00	0	35	0	1043333120	61	4274
2026-01-17 13:34:19.79	319.35	7.48	-45.4	-46.7	17.5	0.00e+00	0	35	0	1046478848	61	4438
2026-01-17 13:34:20.77	319.51	7.45	-45.1	-46.4	17.8	0.00e+00	0	34	0	1049624576	61	4272
2026-01-17 13:34:21.76	319.66	7.43	-45.2	-46.4	17.8	0.00e+00	0	35	0	1052770304	61	4290
2026-01-17 13:34:22.74	319.81	7.40	-45.1	-46.3	17.9	0.00e+00	0	35	0	1055916032	61	4238
2026-01-17 13:34:23.73	319.96	7.38	-45.2	-46.5	17.7	0.00e+00	0	35	0	1059061760	61	4333
2026-01-17 13:34:24.71	320.12	7.35	-45.2	-46.5	17.7	0.00e+00	0	35	0	1062207488	61	4339
2026-01-17 13:34:25.70	320.27	7.33	-45.2	-46.6	17.7	0.00e+00	0	35	0	1065353216	61	4341
2026-01-17 13:34:26.68	320.42	7.30	-45.2	-46.5	17.7	0.00e+00	0	35	0	1068498944	61	4331
2026-01-17 13:34:27.67	320.57	7.28	-45.3	-46.6	17.7	0.00e+00	0	35	0	1070596096	61	4367
2026-01-17 13:34:28.66	320.72	7.25	-45.0	-46.3	17.9	0.00e+00	0	35	0	1073741824	61	4214
2026-01-17 13:34:29.64	320.87	7.23	-45.3	-46.6	17.6	0.00e+00	0	34	0	1076887552	61	4349
2026-01-17 13:34:30.63	321.02	7.20	-45.2	-46.4	17.8	0.00e+00	0	35	0	1080033280	61	4291
2026-01-17 13:34:31.61	321.17	7.17	-45.3	-46.6	17.6	0.00e+00	0	35	0	1083179008	61	4364
2026-01-17 13:34:32.60	321.32	7.15	-45.2	-46.5	17.7	0.00e+00	0	34	0	1086324736	61	4308
2026-01-17 13:34:33.58	321.47	7.12	-45.1	-46.3	17.9	0.00e+00	0	35	0	1089470464	61	4231
2026-01-17 13:34:34.56	321.62	7.10	-45.3	-46.6	17.6	0.00e+00	0	35	0	1092616192	61	4381
2026-01-17 13:34:35.54	321.77	7.07	-45.3	-46.6	17.6	0.00e+00	0	35	0	1095761920	61	4378
2026-01-17 13:34:36.53	321.92	7.04	-45.3	-46.7	17.5	0.00e+00	0	34	0	1098907648	61	4402
2026-01-17 13:34:37.51	322.07	7.02	-45.4	-46.8	17.4	0.00e+00	0	34	0	1102053376	61	4468
2026-01-17 13:34:38.50	322.22	6.99	-45.3	-46.7	17.5	0.00e+00	0	35	0	1105199104	61	4404
2026-01-17 13:34:39.49	322.36	6.96	-45.3	-46.6	17.6	0.00e+00	0	35	0	1108344832	61	4371
2026-01-17 13:34:40.48	322.51	6.94	-45.1	-46.4	17.7	0.00e+00	0	35	0	1111490560	61	4282
2026-01-17 13:34:41.47	322.66	6.91	-45.3	-46.6	17.5	0.00e+00	0	34	0	1113587712	61	4387
2026-01-17 13:34:42.45	322.81	6.88	-45.2	-46.5	17.7	0.00e+00	0	35	0	1116733440	61	4306
2026-01-17 13:34:43.44	322.96	6.85	-45.3	-46.7	17.5	0.00e+00	0	35	0	1119879168	61	4403
2026-01-17 13:34:44.43	323.10	6.83	-45.4	-46.7	17.4	0.00e+00	0	35	0	1123024896	61	4435
2026-01-17 13:34:45.42	323.25	6.80	-45.4	-46.8	17.4	0.00e+00	0	34	0	1126170624	61	4457
2026-01-17 13:34:46.41	323.40	6.77	-45.4	-46.8	17.4	0.00e+00	0	35	0	1129316352	61	4460
2026-01-17 13:34:47.41	323.55	6.74	-45.4	-46.8	17.4	0.00e+00	0	35	0	1132462080	61	4445
2026-01-17 13:34:48.40	323.69	6.71	-45.3	-46.6	17.6	0.00e+00	0	35	0	1135607808	61	4373
2026-01-17 13:34:49.39	323.84	6.69	-45.5	-46.9	17.3	0.00e+00	0	35	0	1138753536	61	4519
2026-01-17 13:34:50.38	323.98	6.66	-45.5	-46.9	17.3	0.00e+00	0	35	0	1141899264	61	4510
2026-01-17 13:34:51.38	324.13	6.63	-45.2	-46.6	17.5	0.00e+00	0	35	0	1145044992	61	4344
2026-01-17 13:34:52.38	324.28	6.60	-45.4	-46.8	17.4	0.00e+00	0	35	0	1148190720	61	4445
2026-01-17 13:34:53.38	324.43	6.57	-45.3	-46.7	17.4	0.00e+00	0	35	0	1151336448	61	4421
2026-01-17 13:34:54.38	324.57	6.54	-45.2	-46.6	17.5	0.00e+00	0	35	0	1154482176	61	4353
2026-01-17 13:34:55.38	324.72	6.51	-45.4	-46.8	17.4	0.00e+00	0	35	0	1157627904	61	4442
2026-01-17 13:34:56.38	324.86	6.48	-45.5	-46.9	17.3	0.00e+00	0	35	0	1160773632	61	4501
2026-01-17 13:34:57.37	325.01	6.45	-45.3	-46.7	17.4	0.00e+00	0	35	0	1163919360	61	4405
2026-01-17 13:34:58.37	325.15	6.42	-45.2	-46.5	17.6	0.00e+00	0	34	0	1167065088	61	4305
2026-01-17 13:34:59.37	325.30	6.39	-45.3	-46.6	17.5	0.00e+00	0	34	0	1170210816	61	4379
2026-01-17 13:35:00.36	325.44	6.36	-45.2	-46.6	17.5	0.00e+00	0	35	0	1173356544	61	4352
2026-01-17 13:35:01.36	325.58	6.33	-45.2	-46.6	17.5	0.00e+00	0	35	0	1176502272	61	4356
2026-01-17 13:35:02.36	325.73	6.30	-45.8	-47.2	16.9	0.00e+00	0	35	0	1179648000	62	4440
2026-01-17 13:35:03.36	325.87	6.27	-45.3	-46.7	17.4	0.00e+00	0	34	0	1182793728	62	4157
2026-01-17 13:35:04.35	326.01	6.24	-45.6	-46.9	17.2	0.00e+00	0	35	0	1185939456	62	4288
2026-01-17 13:35:05.35	326.16	6.21	-45.4	-46.7	17.4	0.00e+00	0	35	0	1189085184	62	4193
2026-01-17 13:35:06.34	326.30	6.18	-45.5	-46.9	17.2	0.00e+00	0	34	0	1192230912	62	4279
2026-01-17 13:35:07.33	326.44	6.15	-45.4	-46.8	17.3	0.00e+00	0	35	0	1195376640	62	4229
2026-01-17 13:35:08.32	326.58	6.12	-46.0	-47.5	16.6	0.00e+00	0	35	0	1198522368	62	4585
2026-01-17 13:35:09.31	326.72	6.09	-45.7	-47.1	17.0	0.00e+00	0	35	0	1201668096	62	4371
2026-01-17 13:35:10.30	326.86	6.06	-45.6	-47.1	17.0	0.00e+00	0	35	0	1204813824	62	4346
2026-01-17 13:35:11.29	327.00	6.03	-45.7	-47.2	16.9	0.00e+00	0	35	0	1207959552	62	4423
2026-01-17 13:35:12.28	327.14	6.00	-45.8	-47.3	16.8	0.00e+00	0	35	0	1211105280	62	4463
2026-01-17 13:35:13.27	327.28	5.97	-46.0	-47.5	16.6	0.00e+00	0	35	0	1213202432	62	4565
2026-01-17 13:35:14.26	327.42	5.94	-45.8	-47.3	16.8	0.00e+00	0	35	0	1216348160	62	4473
2026-01-17 13:35:15.24	327.56	5.90	-45.9	-47.4	16.8	0.00e+00	0	35	0	1219493888	62	4495
2026-01-17 13:35:16.23	327.69	5.87	-45.6	-47.0	17.0	0.00e+00	0	35	0	1222639616	62	4327
2026-01-17 13:35:17.23	327.83	5.84	-46.0	-47.5	16.5	0.00e+00	0	35	0	1225785344	62	4575
2026-01-17 13:35:18.22	327.97	5.81	-45.6	-47.0	17.1	0.00e+00	0	35	0	1228931072	62	4310
2026-01-17 13:35:19.21	328.11	5.78	-45.1	-46.5	17.6	0.00e+00	0	34	0	1232076800	62	4054
2026-01-17 13:35:20.20	328.25	5.75	-45.5	-46.9	17.1	0.00e+00	0	34	0	1235222528	62	4268
2026-01-17 13:35:21.18	328.38	5.71	-45.4	-46.8	17.2	0.00e+00	0	35	0	1238368256	62	4212
2026-01-17 13:35:22.17	328.52	5.68	-45.6	-47.1	16.9	0.00e+00	0	35	0	1241513984	62	4344
2026-01-17 13:35:23.16	328.66	5.65	-45.6	-47.0	17.0	0.00e+00	0	35	0	1244659712	62	4334
2026-01-17 13:35:24.15	328.79	5.62	-45.7	-47.1	16.9	0.00e+00	0	35	0	1247805440	62	4377
2026-01-17 13:35:25.14	328.93	5.59	-45.6	-47.1	16.9	0.00e+00	0	34	0	1250951168	62	4351
2026-01-17 13:35:26.13	329.06	5.55	-45.6	-47.1	16.9	0.00e+00	0	35	0	1254096896	62	4373
2026-01-17 13:35:27.13	329.20	5.52	-45.7	-47.2	16.8	0.00e+00	0	35	0	1257242624	62	4435
2026-01-17 13:35:28.13	329.34	5.49	-45.8	-47.3	16.7	0.00e+00	0	35	0	1260388352	62	4463
2026-01-17 13:35:29.13	329.47	5.46	-46.0	-47.5	16.4	0.00e+00	0	35	0	1263534080	62	4597
2026-01-17 13:35:30.14	329.61	5.42	-45.8	-47.3	16.6	0.00e+00	0	34	0	1266679808	62	4484
2026-01-17 13:35:31.14	329.75	5.39	-45.9	-47.4	16.6	0.00e+00	0	35	0	1269825536	62	4530
2026-01-17 13:35:32.14	329.88	5.36	-46.2	-47.8	16.1	0.00e+00	0	35	0	1272971264	62	4759
2026-01-17 13:35:33.14	330.02	5.32	-45.8	-47.3	16.7	0.00e+00	0	35	0	1276116992	63	4215
2026-01-17 13:35:34.14	330.15	5.29	-46.4	-48.1	15.9	0.00e+00	0	35	0	1279262720	63	4599
2026-01-17 13:35:35.13	330.28	5.26	-46.0	-47.6	16.4	0.00e+00	0	35	0	1281359872	63	4343
2026-01-17 13:35:36.14	330.42	5.22	-45.8	-47.4	16.6	0.00e+00	0	35	0	1284505600	63	4245
2026-01-17 13:35:37.14	330.55	5.19	-45.9	-47.5	16.5	0.00e+00	0	35	0	1287651328	63	4292
2026-01-17 13:35:38.14	330.69	5.15	-46.1	-47.8	16.2	0.00e+00	0	35	0	1290797056	63	4446
2026-01-17 13:35:39.13	330.82	5.12	-45.9	-47.5	16.5	0.00e+00	0	34	0	1293942784	63	4298
2026-01-17 13:35:40.13	330.95	5.09	-45.7	-47.2	16.7	0.00e+00	0	34	0	1297088512	63	4187
2026-01-17 13:35:41.12	331.08	5.05	-45.9	-47.4	16.5	0.00e+00	0	35	0	1300234240	63	4276
2026-01-17 13:35:42.12	331.21	5.02	-46.2	-47.8	16.1	7.00e-07	0	35	0	1303379968	63	4477
2026-01-17 13:35:43.11	331.35	4.99	-52.3	-62.8	4.0	6.52e-01	3	35	0	1306525696	75	12624
2026-01-17 13:35:44.10	331.48	4.95	-52.8	-65.6	3.8	1.49e+00	0	35	104	1306525696	76	16492
2026-01-17 13:35:45.10	331.61	4.92	-53.1	-65.9	3.8	1.49e+00	0	35	104	1306525696	76	16937
2026-01-17 13:35:46.09	331.74	4.88	-53.2	-66.0	3.8	1.49e+00	0	35	104	1306525696	76	17202
2026-01-17 13:35:47.08	331.87	4.85	-53.3	-66.1	3.8	1.49e+00	0	35	104	1306525696	77	16489
2026-01-17 13:35:48.07	332.00	4.82	-53.4	-66.2	3.8	1.49e+00	0	35	104	1306525696	77	16678
2026-01-17 13:35:49.07	332.13	4.78	-53.5	-66.3	3.8	1.49e+00	0	35	104	1306525696	77	16850
2026-01-17 13:35:50.06	332.25	4.75	-53.6	-66.4	3.8	1.49e+00	0	35	104	1306525696	77	17026
2026-01-17 13:35:51.06	332.38	4.71	-53.7	-66.5	3.8	1.49e+00	0	35	104	1306525696	77	17154
2026-01-17 13:35:52.06	332.51	4.68	-53.8	-66.6	3.8	1.49e+00	0	35	104	1306525696	78	16362
2026-01-17 13:35:53.06	332.64	4.64	-53.8	-66.6	3.8	1.49e+00	0	35	104	1306525696	78	16442
2026-01-17 13:35:54.05	332.77	4.61	-53.8	-66.7	3.8	1.49e+00	0	35	104	1306525696	78	16504
2026-01-17 13:35:55.06	332.90	4.57	-53.9	-66.7	3.8	1.49e+00	0	35	104	1306525696	78	16562
2026-01-17 13:35:56.06	333.03	4.54	-53.9	-66.7	3.8	1.49e+00	0	35	104	1306525696	78	16587
2026-01-17 13:35:57.06	333.16	4.50	-53.9	-66.7	3.8	1.49e+00	0	35	104	1306525696	78	16594
2026-01-17 13:35:58.06	333.28	4.47	-53.9	-66.7	3.8	1.49e+00	0	35	104	1306525696	78	16667
2026-01-17 13:35:59.06	333.41	4.43	-53.9	-66.7	3.8	1.49e+00	0	35	104	1306525696	78	16676
2026-01-17 13:36:00.06	333.54	4.40	-53.9	-66.7	3.8	1.49e+00	0	35	104	1306525696	78	16638
2026-01-17 13:36:01.07	333.67	4.36	-53.9	-66.7	3.8	1.49e+00	0	35	104	1306525696	78	16635
2026-01-17 13:36:02.07	333.79	4.33	-53.9	-66.7	3.8	1.49e+00	0	35	104	1306525696	78	16656
2026-01-17 13:36:03.06	333.92	4.29	-53.9	-66.7	3.8	1.49e+00	0	35	104	1306525696	78	16627
2026-01-17 13:36:04.06	334.04	4.25	-53.9	-66.7	3.8	1.49e+00	0	35	104	1306525696	78	16632
2026-01-17 13:36:05.05	334.17	4.22	-53.9	-66.7	3.8	1.49e+00	0	35	104	1306525696	78	16557
2026-01-17 13:36:06.05	334.29	4.18	-53.9	-66.7	3.8	1.49e+00	0	35	104	1306525696	78	16570
2026-01-17 13:36:07.04	334.42	4.15	-53.8	-66.7	3.8	1.49e+00	0	35	104	1306525696	78	16546
2026-01-17 13:36:08.03	334.54	4.11	-53.9	-66.6	3.8	1.49e+00	0	35	104	1306525696	78	16502
2026-01-17 13:36:09.02	334.66	4.08	-53.8	-66.7	3.8	1.49e+00	0	35	104	1306525696	78	16537
2026-01-17 13:36:10.01	334.78	4.04	-53.8	-66.6	3.8	1.49e+00	0	35	104	1306525696	78	16472
2026-01-17 13:36:11.01	334.91	4.00	-53.8	-66.6	3.8	1.49e+00	0	35	104	1306525696	78	16496
2026-01-17 13:36:12.00	335.03	3.97	-53.8	-66.7	3.8	1.49e+00	0	35	104	1306525696	78	16504
2026-01-17 13:36:12.99	335.15	3.93	-53.8	-66.6	3.8	1.49e+00	0	35	104	1306525696	78	16436
2026-01-17 13:36:13.99	335.28	3.90	-53.8	-66.6	3.8	1.49e+00	0	35	104	1306525696	78	16434
2026-01-17 13:36:14.98	335.40	3.86	-53.8	-66.6	3.8	1.49e+00	0	35	104	1306525696	78	16437
2026-01-17 13:36:15.98	335.52	3.82	-53.8	-66.6	3.8	1.49e+00	0	35	104	1306525696	78	16408
2026-01-17 13:36:16.98	335.64	3.79	-53.8	-66.6	3.8	1.49e+00	0	35	104	1306525696	78	16466
2026-01-17 13:36:17.98	335.76	3.75	-53.8	-66.6	3.8	1.49e+00	0	35	104	1306525696	78	16434
2026-01-17 13:36:18.98	335.88	3.72	-53.8	-66.6	3.8	1.49e+00	0	35	104	1306525696	78	16445
2026-01-17 13:36:19.97	336.00	3.68	-53.8	-66.6	3.8	1.49e+00	0	35	104	1306525696	78	16452
2026-01-17 13:36:20.97	336.13	3.64	-53.8	-66.6	3.8	1.49e+00	0	35	104	1306525696	78	16439
2026-01-17 13:36:21.97	336.25	3.61	-53.8	-66.6	3.8	1.49e+00	0	35	104	1306525696	78	16425
2026-01-17 13:36:22.97	336.37	3.57	-53.8	-66.6	3.8	1.49e+00	0	35	104	1306525696	78	16455
2026-01-17 13:36:23.96	336.49	3.53	-53.8	-66.6	3.8	1.49e+00	0	35	104	1306525696	78	16425
2026-01-17 13:36:24.95	336.60	3.50	-53.8	-66.6	3.8	1.49e+00	0	35	104	1306525696	78	16449
2026-01-17 13:36:25.95	336.72	3.46	-53.8	-66.6	3.8	1.49e+00	0	35	104	1306525696	78	16393
2026-01-17 13:36:26.95	336.84	3.42	-53.8	-66.6	3.8	1.49e+00	0	35	104	1306525696	78	16372
2026-01-17 13:36:27.94	336.96	3.39	-53.8	-66.6	3.8	1.49e+00	0	35	104	1306525696	78	16407
2026-01-17 13:36:28.94	337.08	3.35	-53.8	-66.6	3.8	1.49e+00	0	35	104	1306525696	78	16413
2026-01-17 13:36:29.93	337.20	3.31	-53.8	-66.6	3.8	1.49e+00	0	35	104	1306525696	78	16337
2026-01-17 13:36:30.92	337.31	3.28	-53.8	-66.6	3.8	1.49e+00	0	35	104	1306525696	78	16375
2026-01-17 13:36:31.90	337.43	3.24	-53.8	-66.6	3.8	1.49e+00	0	35	104	1306525696	78	16375
2026-01-17 13:36:32.89	337.54	3.20	-53.8	-66.6	3.8	1.49e+00	0	35	104	1306525696	78	16338
2026-01-17 13:36:33.88	337.66	3.17	-53.8	-66.6	3.8	1.49e+00	0	35	104	1306525696	78	16351
2026-01-17 13:36:34.87	337.78	3.13	-53.8	-66.6	3.8	1.49e+00	0	35	104	1306525696	78	16420
2026-01-17 13:36:35.86	337.89	3.09	-53.8	-66.6	3.8	1.49e+00	0	35	104	1306525696	78	16337
2026-01-17 13:36:36.85	338.01	3.05	-53.8	-66.6	3.8	1.49e+00	0	35	104	1306525696	78	16348
2026-01-17 13:36:37.84	338.12	3.02	-53.8	-66.6	3.8	1.49e+00	0	35	104	1306525696	78	16398
2026-01-17 13:36:38.82	338.23	2.98	-53.7	-66.6	3.8	1.49e+00	0	35	104	1306525696	78	16321
2026-01-17 13:36:39.81	338.35	2.94	-53.7	-66.6	3.8	1.49e+00	0	35	104	1306525696	78	16353
2026-01-17 13:36:40.80	338.46	2.91	-53.8	-66.6	3.8	1.49e+00	0	35	104	1306525696	78	16354
2026-01-17 13:36:41.79	338.58	2.87	-53.7	-66.5	3.8	1.49e+00	0	35	104	1306525696	78	16306
2026-01-17 13:36:42.79	338.69	2.83	-53.7	-66.6	3.8	1.49e+00	0	35	104	1306525696	78	16333
2026-01-17 13:36:43.78	338.81	2.79	-53.7	-66.6	3.8	1.49e+00	0	35	104	1306525696	78	16321
2026-01-17 13:36:44.77	338.92	2.76	-53.8	-66.6	3.8	1.49e+00	0	35	104	1306525696	78	16330
2026-01-17 13:36:45.76	339.03	2.72	-53.7	-66.5	3.8	1.49e+00	0	35	104	1306525696	78	16299
2026-01-17 13:36:46.75	339.14	2.68	-53.7	-66.6	3.8	1.49e+00	0	35	104	1306525696	78	16337
2026-01-17 13:36:47.74	339.26	2.65	-53.7	-66.6	3.8	1.49e+00	0	35	104	1306525696	78	16342
2026-01-17 13:36:48.73	339.37	2.61	-53.7	-66.5	3.8	1.49e+00	0	35	104	1306525696	78	16286
2026-01-17 13:36:49.72	339.48	2.57	-53.7	-66.5	3.8	1.49e+00	0	35	104	1306525696	78	16254
2026-01-17 13:36:50.71	339.59	2.53	-53.7	-66.5	3.8	1.49e+00	0	35	104	1306525696	78	16259
2026-01-17 13:36:51.70	339.70	2.50	-53.7	-66.6	3.8	1.49e+00	0	35	104	1306525696	78	16328
2026-01-17 13:36:52.69	339.81	2.46	-53.7	-66.6	3.8	1.49e+00	0	35	104	1306525696	78	16342
2026-01-17 13:36:53.68	339.92	2.42	-53.7	-66.6	3.8	1.49e+00	0	35	104	1306525696	78	16354
2026-01-17 13:36:54.67	340.03	2.38	-53.7	-66.6	3.8	1.49e+00	0	35	104	1306525696	78	16347
2026-01-17 13:36:55.66	340.14	2.34	-53.7	-66.5	3.8	1.49e+00	0	35	104	1306525696	78	16310
2026-01-17 13:36:56.65	340.25	2.31	-53.7	-66.5	3.8	1.49e+00	0	35	104	1306525696	78	16268
2026-01-17 13:36:57.64	340.36	2.27	-53.7	-66.5	3.8	1.49e+00	0	35	104	1306525696	78	16301
2026-01-17 13:36:58.63	340.47	2.23	-53.7	-66.5	3.8	1.49e+00	0	35	104	1306525696	78	16298
2026-01-17 13:36:59.63	340.58	2.19	-53.7	-66.5	3.8	1.49e+00	0	35	104	1306525696	78	16287
2026-01-17 13:37:00.63	340.69	2.16	-53.7	-66.5	3.8	1.49e+00	0	35	104	1306525696	78	16312
2026-01-17 13:37:01.63	340.80	2.12	-53.7	-66.5	3.8	1.49e+00	0	35	104	1306525696	78	16246
2026-01-17 13:37:02.63	340.91	2.08	-53.7	-66.5	3.8	1.49e+00	0	35	104	1306525696	78	16256
2026-01-17 13:37:03.63	341.02	2.04	-53.7	-66.5	3.8	1.49e+00	0	35	104	1306525696	78	16266
2026-01-17 13:37:04.63	341.13	2.00	-53.7	-66.5	3.8	1.49e+00	0	35	104	1306525696	78	16264

#Closed at: 2026-01-17 13:37:05
#Recorded file [1306 MB]: D:/lorett/data/31041_260117_162730.dat