passes_logs/2026/01/17/R3.2S_Murmansk/R3.2S_Murmansk__20260117_063237_FENGYUN_3D_rec.log

#Pass ID: 20260117_063237_FENGYUN 3D
#Satellite: FENGYUN 3D
#Configuration: FENGYUN 3D
#almurnet v.1.7.20251203
#Start time: 2026-01-17 06:32:37

#Version: 2.2.20231116
#Station: R3.2S_Murmansk
#Location: 33.079688 lon 68.888172 lat
#TLE: 1 43010U 17072A   26016.62453405 -.00000112  00000+0 -31355-4 0  9995
#TLE: 2 43010  98.9932 348.4654 0002369 105.3910 254.7528 14.19694900423480

#Time	Az	El	Level	Level2	SNR	BER	BlckErr	Temp	State	Recorded	gain1	gain2
2026-01-17 06:32:37.62	53.31	1.99	-51.7	-63.6	3.8	8.46e-01	0	32	0	0	75	13816
2026-01-17 06:32:38.62	53.25	2.04	-51.6	-63.5	3.8	8.47e-01	0	32	104	0	73	15394
2026-01-17 06:32:39.63	53.19	2.10	-51.6	-63.5	3.8	8.46e-01	0	32	104	0	73	15339
2026-01-17 06:32:40.63	53.13	2.16	-51.6	-63.5	3.8	8.45e-01	0	32	104	0	73	15341
2026-01-17 06:32:41.64	53.07	2.22	-51.6	-63.5	3.8	8.46e-01	0	32	104	0	73	15377
2026-01-17 06:32:42.65	53.00	2.28	-51.6	-63.5	3.8	8.46e-01	0	32	104	0	73	15303
2026-01-17 06:32:43.66	52.94	2.33	-51.6	-63.5	3.8	8.45e-01	0	32	104	0	73	15401
2026-01-17 06:32:44.67	52.88	2.39	-51.6	-63.5	3.8	8.46e-01	0	32	104	0	73	15357
2026-01-17 06:32:45.67	52.82	2.45	-51.6	-63.6	3.8	8.46e-01	0	32	104	0	73	15421
2026-01-17 06:32:46.69	52.75	2.51	-51.6	-63.5	3.8	8.46e-01	0	32	104	0	73	15385
2026-01-17 06:32:47.69	52.69	2.57	-51.6	-63.6	3.8	8.46e-01	0	32	104	0	73	15461
2026-01-17 06:32:48.70	52.62	2.63	-51.6	-63.6	3.8	8.46e-01	0	32	104	0	73	15404
2026-01-17 06:32:49.71	52.56	2.68	-51.6	-63.6	3.8	8.46e-01	0	32	104	0	73	15445
2026-01-17 06:32:50.72	52.49	2.74	-51.6	-63.6	3.8	8.46e-01	0	32	104	0	73	15425
2026-01-17 06:32:51.72	52.43	2.80	-51.6	-63.5	3.8	8.45e-01	0	33	104	0	73	15373
2026-01-17 06:32:52.73	52.37	2.86	-51.6	-63.5	3.8	8.47e-01	0	33	104	0	73	15316
2026-01-17 06:32:53.74	52.30	2.92	-51.6	-63.5	3.8	8.46e-01	0	33	104	0	73	15279
2026-01-17 06:32:54.75	52.23	2.98	-51.6	-63.5	3.8	8.45e-01	0	33	104	0	73	15238
2026-01-17 06:32:55.76	52.17	3.04	-51.6	-63.4	3.8	8.46e-01	0	32	104	0	73	15213
2026-01-17 06:32:56.77	52.10	3.10	-51.6	-63.4	3.8	8.45e-01	0	33	104	0	73	15123
2026-01-17 06:32:57.78	52.03	3.16	-51.6	-63.4	3.8	8.46e-01	0	33	104	0	73	15116
2026-01-17 06:32:58.78	51.97	3.22	-51.6	-63.5	3.8	8.47e-01	0	33	104	0	73	15329
2026-01-17 06:32:59.79	51.90	3.28	-51.6	-63.5	3.8	8.46e-01	0	33	104	0	73	15348
2026-01-17 06:33:00.80	51.83	3.34	-51.6	-63.5	3.8	8.46e-01	0	33	104	0	73	15246
2026-01-17 06:33:01.81	51.77	3.40	-51.6	-63.5	3.8	8.46e-01	0	33	104	0	73	15230
2026-01-17 06:33:02.82	51.70	3.46	-51.6	-63.3	3.8	8.46e-01	0	33	104	0	73	15015
2026-01-17 06:33:03.82	51.63	3.51	-51.6	-63.3	3.8	8.47e-01	0	33	104	0	73	14993
2026-01-17 06:33:04.83	51.56	3.57	-51.6	-63.4	3.8	8.45e-01	0	33	104	0	73	15060
2026-01-17 06:33:05.84	51.49	3.64	-51.6	-63.4	3.8	8.46e-01	0	33	104	0	73	15071
2026-01-17 06:33:06.85	51.42	3.70	-51.6	-63.5	3.8	8.47e-01	0	33	104	0	73	15249
2026-01-17 06:33:07.86	51.35	3.76	-51.6	-63.6	3.8	8.47e-01	0	33	104	0	73	15427
2026-01-17 06:33:08.87	51.28	3.82	-51.6	-63.5	3.8	8.46e-01	0	33	104	0	73	15353
2026-01-17 06:33:09.88	51.21	3.88	-51.6	-63.3	3.8	8.48e-01	0	33	104	0	73	15026
2026-01-17 06:33:10.89	51.14	3.94	-51.5	-62.7	3.8	8.46e-01	0	33	104	0	73	13926
2026-01-17 06:33:11.90	51.07	4.00	-51.5	-62.2	3.8	8.46e-01	0	33	104	0	73	13178
2026-01-17 06:33:12.91	51.00	4.06	-51.4	-61.5	3.8	8.44e-01	0	33	104	0	73	12127
2026-01-17 06:33:13.91	50.93	4.12	-51.2	-60.0	4.2	8.39e-01	0	33	0	0	73	10206
2026-01-17 06:33:14.92	50.86	4.18	-51.1	-58.9	4.6	8.22e-01	0	33	0	0	73	9049
2026-01-17 06:33:15.93	50.78	4.24	-50.8	-57.8	5.2	7.50e-01	0	33	0	0	73	7913
2026-01-17 06:33:16.94	50.71	4.30	-50.7	-57.1	5.6	5.87e-01	0	33	0	1048576	73	7294
2026-01-17 06:33:17.94	50.64	4.36	-50.2	-55.3	7.0	1.84e-01	0	33	0	6291456	72	6293
2026-01-17 06:33:18.95	50.57	4.43	-49.7	-53.9	8.4	7.28e-02	0	33	0	12582912	71	5716
2026-01-17 06:33:19.96	50.49	4.49	-49.9	-54.4	7.9	8.07e-02	0	33	0	17825792	71	6030
2026-01-17 06:33:20.97	50.42	4.55	-49.4	-53.3	9.1	3.67e-02	0	33	0	23068672	70	5618
2026-01-17 06:33:21.98	50.35	4.61	-49.4	-53.4	9.0	3.17e-02	0	33	0	29360128	70	5686
2026-01-17 06:33:22.98	50.27	4.67	-49.4	-53.3	9.1	1.87e-02	0	33	0	34603008	70	5618
2026-01-17 06:33:23.99	50.20	4.73	-49.3	-53.1	9.3	1.63e-02	0	33	0	40894464	70	5511
2026-01-17 06:33:25.00	50.12	4.80	-49.1	-52.6	9.9	1.32e-02	0	33	0	46137344	70	5191
2026-01-17 06:33:26.01	50.05	4.86	-49.6	-53.8	8.6	4.18e-02	0	33	0	51380224	70	5952
2026-01-17 06:33:27.02	49.97	4.92	-49.7	-54.1	8.3	6.31e-02	0	33	0	57671680	70	6145
2026-01-17 06:33:28.02	49.90	4.98	-50.0	-54.8	7.6	7.43e-02	0	33	0	63963136	70	6661
2026-01-17 06:33:29.03	49.82	5.04	-50.3	-55.6	6.8	1.86e-01	0	33	0	69206016	71	6907
2026-01-17 06:33:30.04	49.74	5.11	-49.2	-52.7	9.8	2.50e-02	0	33	0	74448896	70	5242
2026-01-17 06:33:31.05	49.67	5.17	-48.0	-50.6	12.0	3.44e-04	0	33	0	80740352	67	4909
2026-01-17 06:33:32.06	49.59	5.23	-51.4	-62.7	3.8	7.93e-01	0	33	104	83886080	73	13913
2026-01-17 06:33:33.07	49.51	5.29	-46.0	-47.7	14.9	4.50e-06	0	33	104	83886080	64	4165
2026-01-17 06:33:34.08	49.43	5.36	-51.3	-59.5	4.4	4.04e-01	0	33	0	88080384	73	9642
2026-01-17 06:33:35.09	49.35	5.42	-46.4	-48.2	14.6	1.24e-03	0	33	0	92274688	64	4403
2026-01-17 06:33:36.10	49.27	5.48	-46.1	-47.8	15.0	0.00e+00	0	33	0	97517568	64	4209
2026-01-17 06:33:37.11	49.20	5.55	-46.4	-48.2	14.7	0.00e+00	0	33	0	103809024	63	4679
2026-01-17 06:33:38.11	49.12	5.61	-45.5	-47.1	15.9	0.00e+00	0	33	0	109051904	63	4118
2026-01-17 06:33:39.12	49.04	5.67	-45.8	-47.4	15.5	0.00e+00	0	33	0	115343360	63	4290
2026-01-17 06:33:40.13	48.96	5.74	-45.4	-46.9	16.1	0.00e+00	0	33	0	120586240	62	4255
2026-01-17 06:33:41.14	48.88	5.80	-45.0	-46.4	16.6	0.00e+00	0	33	0	126877696	61	4276
2026-01-17 06:33:42.16	48.79	5.86	-44.4	-45.7	17.3	0.00e+00	0	33	0	132120576	60	4168
2026-01-17 06:33:43.16	48.71	5.93	-44.8	-46.1	17.0	0.00e+00	0	33	0	137363456	60	4385
2026-01-17 06:33:44.17	48.63	5.99	-44.5	-45.8	17.3	0.00e+00	0	33	0	143654912	60	4218
2026-01-17 06:33:45.18	48.55	6.05	-44.6	-46.0	17.1	0.00e+00	0	33	0	148897792	60	4303
2026-01-17 06:33:46.19	48.47	6.12	-44.3	-45.6	17.5	0.00e+00	0	34	0	154140672	60	4122
2026-01-17 06:33:47.20	48.38	6.18	-44.4	-45.6	17.5	0.00e+00	0	34	0	160432128	60	4138
2026-01-17 06:33:48.20	48.30	6.25	-44.4	-45.7	17.8	0.00e+00	0	34	0	165675008	59	4402
2026-01-17 06:33:49.21	48.22	6.31	-44.7	-46.1	17.1	0.00e+00	0	34	0	170917888	60	4346
2026-01-17 06:33:50.22	48.13	6.37	-44.4	-45.6	17.5	0.00e+00	0	33	0	177209344	60	4133
2026-01-17 06:33:51.23	48.05	6.44	-44.2	-45.5	17.7	0.00e+00	0	34	0	183500800	60	4062
2026-01-17 06:33:52.24	47.96	6.50	-44.0	-45.3	17.9	0.00e+00	0	33	0	188743680	60	3961
2026-01-17 06:33:53.24	47.88	6.57	-44.3	-45.6	17.9	0.00e+00	0	34	0	193986560	59	4353
2026-01-17 06:33:54.25	47.79	6.63	-44.1	-45.3	18.3	0.00e+00	0	34	0	200278016	59	4198
2026-01-17 06:33:55.26	47.71	6.70	-44.1	-45.3	18.2	0.00e+00	0	34	0	205520896	59	4218
2026-01-17 06:33:56.27	47.62	6.76	-44.0	-45.2	18.3	0.00e+00	0	33	0	211812352	59	4171
2026-01-17 06:33:57.28	47.54	6.83	-44.1	-45.3	18.3	0.00e+00	0	33	0	217055232	59	4211
2026-01-17 06:33:58.29	47.45	6.89	-44.0	-45.2	18.4	0.00e+00	0	33	0	222298112	59	4153
2026-01-17 06:33:59.30	47.36	6.96	-43.9	-45.1	18.4	0.00e+00	0	34	0	228589568	59	4129
2026-01-17 06:34:00.31	47.27	7.02	-43.6	-44.7	18.9	0.00e+00	0	34	0	233832448	59	3921
2026-01-17 06:34:01.31	47.18	7.09	-43.7	-44.8	18.7	0.00e+00	0	34	0	239075328	59	3993
2026-01-17 06:34:02.32	47.10	7.16	-43.5	-44.5	19.0	0.00e+00	0	34	0	245366784	58	4098
2026-01-17 06:34:03.33	47.01	7.22	-43.5	-44.7	18.9	0.00e+00	0	33	0	251658240	58	4148
2026-01-17 06:34:04.34	46.92	7.29	-43.6	-44.7	18.9	0.00e+00	0	34	0	256901120	58	4175
2026-01-17 06:34:05.34	46.83	7.35	-43.6	-44.7	18.9	0.00e+00	0	34	0	262144000	58	4178
2026-01-17 06:34:06.35	46.74	7.42	-43.6	-44.8	18.9	0.00e+00	0	34	0	268435456	58	4198
2026-01-17 06:34:07.36	46.65	7.48	-43.6	-44.7	18.9	0.00e+00	0	34	0	273678336	58	4156
2026-01-17 06:34:08.37	46.55	7.55	-43.5	-44.6	19.0	0.00e+00	0	34	0	278921216	58	4132
2026-01-17 06:34:09.37	46.46	7.62	-43.7	-44.8	18.8	0.00e+00	0	34	0	285212672	58	4225
2026-01-17 06:34:10.38	46.37	7.68	-43.5	-44.5	19.1	0.00e+00	0	34	0	290455552	58	4097
2026-01-17 06:34:11.39	46.28	7.75	-43.4	-44.5	19.1	0.00e+00	0	34	0	296747008	58	4073
2026-01-17 06:34:12.40	46.19	7.82	-43.5	-44.6	19.1	0.00e+00	0	34	0	301989888	58	4102
2026-01-17 06:34:13.41	46.09	7.88	-43.6	-44.7	19.0	0.00e+00	0	34	0	307232768	58	4161
2026-01-17 06:34:14.41	46.00	7.95	-43.7	-44.9	18.8	0.00e+00	0	34	0	313524224	58	4252
2026-01-17 06:34:15.42	45.90	8.02	-43.8	-44.9	18.8	0.00e+00	0	34	0	319815680	58	4266
2026-01-17 06:34:16.43	45.81	8.08	-43.7	-44.8	18.9	0.00e+00	0	34	0	325058560	58	4232
2026-01-17 06:34:17.44	45.71	8.15	-43.5	-44.5	19.1	0.00e+00	0	34	0	330301440	58	4091
2026-01-17 06:34:18.44	45.62	8.22	-43.2	-44.3	19.3	0.00e+00	0	34	0	336592896	58	3984
2026-01-17 06:34:19.45	45.52	8.28	-43.5	-44.6	19.1	0.00e+00	0	34	0	341835776	58	4109
2026-01-17 06:34:20.46	45.43	8.35	-43.4	-44.4	19.2	0.00e+00	0	34	0	347078656	58	4043
2026-01-17 06:34:21.47	45.33	8.42	-43.5	-44.6	19.1	0.00e+00	0	34	0	353370112	58	4114
2026-01-17 06:34:22.48	45.23	8.49	-43.5	-44.6	19.1	0.00e+00	0	34	0	358612992	58	4107
2026-01-17 06:34:23.49	45.13	8.55	-43.3	-44.4	19.3	0.00e+00	0	34	0	363855872	58	4013
2026-01-17 06:34:24.49	45.04	8.62	-43.3	-44.4	19.3	0.00e+00	0	34	0	370147328	58	4027
2026-01-17 06:34:25.50	44.94	8.69	-43.2	-44.2	19.5	0.00e+00	0	34	0	375390208	58	3938
2026-01-17 06:34:26.51	44.84	8.76	-43.2	-44.2	19.5	0.00e+00	0	34	0	381681664	58	3945
2026-01-17 06:34:27.52	44.74	8.83	-42.8	-43.8	19.8	0.00e+00	0	34	0	386924544	57	3998
2026-01-17 06:34:28.52	44.64	8.89	-43.0	-44.0	19.7	0.00e+00	0	34	0	393216000	57	4096
2026-01-17 06:34:29.53	44.54	8.96	-43.2	-44.2	19.5	0.00e+00	0	34	0	398458880	57	4167
2026-01-17 06:34:30.54	44.43	9.03	-43.2	-44.3	19.4	0.00e+00	0	34	0	404750336	57	4212
2026-01-17 06:34:31.55	44.33	9.10	-42.8	-43.8	19.9	0.00e+00	0	34	0	409993216	57	4004
2026-01-17 06:34:32.56	44.23	9.17	-43.4	-44.4	19.3	0.00e+00	0	34	0	415236096	57	4271
2026-01-17 06:34:33.57	44.13	9.24	-43.1	-44.2	19.5	0.00e+00	0	34	0	421527552	57	4154
2026-01-17 06:34:34.58	44.02	9.31	-43.0	-44.0	19.7	0.00e+00	0	34	0	426770432	57	4076
2026-01-17 06:34:35.58	43.92	9.37	-43.0	-44.0	19.7	0.00e+00	0	34	0	432013312	57	4071
2026-01-17 06:34:36.60	43.81	9.44	-42.9	-43.9	19.8	0.00e+00	0	34	0	438304768	57	4048
2026-01-17 06:34:37.60	43.71	9.51	-43.0	-44.0	19.8	0.00e+00	0	34	0	443547648	57	4072
2026-01-17 06:34:38.61	43.61	9.58	-43.3	-44.4	19.4	0.00e+00	0	34	0	448790528	57	4268
2026-01-17 06:34:39.62	43.50	9.65	-43.3	-44.4	19.4	0.00e+00	0	34	0	455081984	57	4252
2026-01-17 06:34:40.63	43.39	9.72	-43.0	-44.0	19.8	0.00e+00	0	34	0	461373440	57	4081
2026-01-17 06:34:41.64	43.29	9.79	-43.1	-44.2	19.6	0.00e+00	0	34	0	466616320	57	4156
2026-01-17 06:34:42.65	43.18	9.86	-43.2	-44.2	19.6	0.00e+00	0	34	0	471859200	57	4174
2026-01-17 06:34:43.65	43.07	9.93	-42.9	-44.0	19.8	0.00e+00	0	34	0	478150656	57	4062
2026-01-17 06:34:44.66	42.96	10.00	-43.0	-44.0	19.7	0.00e+00	0	34	0	483393536	57	4096
2026-01-17 06:34:45.67	42.85	10.07	-42.8	-43.8	20.0	0.00e+00	0	34	0	489684992	57	3987
2026-01-17 06:34:46.68	42.74	10.14	-42.8	-43.8	20.0	0.00e+00	0	34	0	494927872	57	3976
2026-01-17 06:34:47.69	42.63	10.21	-43.0	-44.0	19.8	0.00e+00	0	34	0	500170752	57	4071
2026-01-17 06:34:48.70	42.52	10.28	-42.8	-43.8	20.0	0.00e+00	0	34	0	506462208	57	3969
2026-01-17 06:34:49.70	42.41	10.35	-42.9	-43.9	19.9	0.00e+00	0	34	0	511705088	57	4014
2026-01-17 06:34:50.71	42.30	10.42	-42.9	-43.9	19.9	0.00e+00	0	34	0	516947968	57	4046
2026-01-17 06:34:51.72	42.19	10.49	-42.9	-43.9	19.9	0.00e+00	0	34	0	523239424	57	4048
2026-01-17 06:34:52.73	42.07	10.56	-43.0	-44.0	19.8	0.00e+00	0	34	0	529530880	57	4076
2026-01-17 06:34:53.74	41.96	10.63	-43.0	-44.0	19.8	0.00e+00	0	34	0	534773760	57	4077
2026-01-17 06:34:54.74	41.85	10.70	-43.0	-44.0	19.8	0.00e+00	0	34	0	540016640	57	4079
2026-01-17 06:34:55.75	41.73	10.77	-42.8	-43.8	20.0	0.00e+00	0	34	0	546308096	57	3988
2026-01-17 06:34:56.76	41.62	10.84	-42.9	-43.9	19.9	0.00e+00	0	34	0	551550976	57	4042
2026-01-17 06:34:57.77	41.50	10.91	-42.8	-43.8	20.0	0.00e+00	0	34	0	556793856	57	4002
2026-01-17 06:34:58.78	41.38	10.99	-42.8	-43.8	20.0	0.00e+00	0	34	0	563085312	57	4002
2026-01-17 06:34:59.79	41.27	11.06	-42.7	-43.7	20.1	0.00e+00	0	34	0	568328192	57	3943
2026-01-17 06:35:00.80	41.15	11.13	-42.9	-43.9	20.0	0.00e+00	0	34	0	574619648	57	4007
2026-01-17 06:35:01.81	41.03	11.20	-42.5	-43.5	20.4	0.00e+00	0	34	0	579862528	57	3844
2026-01-17 06:35:02.81	40.91	11.27	-42.5	-43.4	20.4	0.00e+00	0	34	0	585105408	56	4051
2026-01-17 06:35:03.82	40.79	11.34	-42.4	-43.4	20.5	0.00e+00	0	34	0	591396864	56	4015
2026-01-17 06:35:04.83	40.67	11.41	-42.5	-43.5	20.4	0.00e+00	0	34	0	597688320	56	4076
2026-01-17 06:35:05.84	40.55	11.48	-42.5	-43.4	20.4	0.00e+00	0	34	0	602931200	56	4038
2026-01-17 06:35:06.84	40.43	11.56	-42.3	-43.3	20.6	0.00e+00	0	34	0	608174080	56	3974
2026-01-17 06:35:07.85	40.31	11.63	-42.3	-43.3	20.6	0.00e+00	0	34	0	614465536	56	3962
2026-01-17 06:35:08.86	40.19	11.70	-42.4	-43.3	20.5	0.00e+00	0	34	0	619708416	56	4003
2026-01-17 06:35:09.87	40.07	11.77	-42.5	-43.5	20.4	0.00e+00	0	34	0	624951296	56	4055
2026-01-17 06:35:10.88	39.94	11.84	-42.5	-43.4	20.4	0.00e+00	0	34	0	631242752	56	4046
2026-01-17 06:35:11.88	39.82	11.92	-42.9	-43.8	20.0	0.00e+00	0	34	0	636485632	56	4241
2026-01-17 06:35:12.89	39.69	11.99	-42.8	-43.8	20.0	0.00e+00	0	34	0	641728512	56	4229
2026-01-17 06:35:13.90	39.57	12.06	-42.3	-43.2	20.7	0.00e+00	0	34	0	648019968	56	3944
2026-01-17 06:35:14.91	39.44	12.13	-42.1	-43.0	20.9	0.00e+00	0	34	0	653262848	56	3855
2026-01-17 06:35:15.92	39.31	12.21	-42.2	-43.1	20.8	0.00e+00	0	34	0	659554304	56	3901
2026-01-17 06:35:16.92	39.19	12.28	-42.2	-43.1	20.8	0.00e+00	0	34	0	664797184	56	3886
2026-01-17 06:35:17.93	39.06	12.35	-42.2	-43.2	20.7	0.00e+00	0	34	0	671088640	56	3920
2026-01-17 06:35:18.94	38.93	12.42	-42.4	-43.3	20.6	0.00e+00	0	34	0	676331520	56	3972
2026-01-17 06:35:19.95	38.80	12.50	-42.4	-43.4	20.5	0.00e+00	0	34	0	682622976	56	4015
2026-01-17 06:35:20.96	38.67	12.57	-42.3	-43.3	20.6	0.00e+00	0	34	0	687865856	56	3969
2026-01-17 06:35:21.97	38.54	12.64	-42.3	-43.2	20.7	0.00e+00	0	34	0	693108736	56	3931
2026-01-17 06:35:22.97	38.41	12.71	-42.2	-43.2	20.8	0.00e+00	0	34	0	699400192	56	3916
2026-01-17 06:35:23.98	38.28	12.79	-42.1	-43.0	20.9	0.00e+00	0	34	0	704643072	56	3856
2026-01-17 06:35:24.99	38.15	12.86	-42.1	-43.0	21.0	0.00e+00	0	34	0	709885952	56	3837
2026-01-17 06:35:26.00	38.01	12.93	-42.1	-43.1	20.9	0.00e+00	0	34	0	716177408	56	3871
2026-01-17 06:35:27.00	37.88	13.01	-42.2	-43.1	20.8	0.00e+00	0	34	0	721420288	56	3884
2026-01-17 06:35:28.01	37.74	13.08	-42.0	-42.9	21.0	0.00e+00	0	34	0	726663168	56	3821
2026-01-17 06:35:29.02	37.61	13.15	-42.1	-43.0	20.9	0.00e+00	0	34	0	732954624	56	3837
2026-01-17 06:35:30.03	37.47	13.23	-42.2	-43.2	20.8	0.00e+00	0	34	0	739246080	56	3924
2026-01-17 06:35:31.04	37.34	13.30	-42.1	-43.0	20.9	0.00e+00	0	34	0	744488960	56	3850
2026-01-17 06:35:32.04	37.20	13.37	-42.2	-43.1	20.9	0.00e+00	0	34	0	749731840	56	3884
2026-01-17 06:35:33.05	37.06	13.45	-42.2	-43.1	20.9	0.00e+00	0	34	0	756023296	56	3887
2026-01-17 06:35:34.06	36.92	13.52	-42.3	-43.2	20.7	0.00e+00	0	34	0	761266176	56	3941
2026-01-17 06:35:35.07	36.78	13.59	-42.0	-42.9	21.0	0.00e+00	0	34	0	767557632	56	3814
2026-01-17 06:35:36.08	36.64	13.67	-41.9	-42.8	21.0	0.00e+00	0	34	0	772800512	55	3987
2026-01-17 06:35:37.09	36.50	13.74	-41.8	-42.7	21.2	0.00e+00	0	34	0	778043392	55	3919
2026-01-17 06:35:38.09	36.36	13.81	-41.8	-42.7	21.2	0.00e+00	0	34	0	784334848	55	3930
2026-01-17 06:35:39.10	36.22	13.89	-41.8	-42.7	21.1	0.00e+00	0	34	0	789577728	55	3946
2026-01-17 06:35:40.10	36.08	13.96	-41.7	-42.6	21.2	0.00e+00	0	34	0	794820608	55	3892
2026-01-17 06:35:41.11	35.93	14.04	-41.6	-42.5	21.4	0.00e+00	0	34	0	801112064	55	3827
2026-01-17 06:35:42.12	35.79	14.11	-41.5	-42.4	21.5	0.00e+00	0	34	0	807403520	55	3800
2026-01-17 06:35:43.13	35.64	14.18	-41.5	-42.4	21.5	0.00e+00	0	34	0	812646400	54	4012
2026-01-17 06:35:44.14	35.49	14.26	-41.6	-42.5	21.3	0.00e+00	0	34	0	817889280	54	4081
2026-01-17 06:35:45.15	35.35	14.33	-41.5	-42.3	21.5	0.00e+00	0	34	0	824180736	54	4003
2026-01-17 06:35:46.15	35.20	14.41	-41.5	-42.4	21.4	0.00e+00	0	34	0	829423616	54	4029
2026-01-17 06:35:47.16	35.05	14.48	-41.6	-42.4	21.4	0.00e+00	0	34	0	834666496	54	4050
2026-01-17 06:35:48.17	34.90	14.55	-41.4	-42.3	21.6	0.00e+00	0	34	0	840957952	54	3969
2026-01-17 06:35:49.18	34.75	14.63	-41.4	-42.3	21.6	0.00e+00	0	34	0	846200832	54	3965
2026-01-17 06:35:50.18	34.60	14.70	-41.4	-42.2	21.6	0.00e+00	0	34	0	852492288	54	3953
2026-01-17 06:35:51.19	34.45	14.78	-41.4	-42.3	21.6	0.00e+00	0	34	0	857735168	54	3972
2026-01-17 06:35:52.20	34.30	14.85	-41.4	-42.3	21.6	0.00e+00	0	34	0	862978048	54	3973
2026-01-17 06:35:53.21	34.15	14.93	-41.4	-42.2	21.6	0.00e+00	0	34	0	869269504	54	3947
2026-01-17 06:35:54.22	33.99	15.00	-41.5	-42.3	21.5	0.00e+00	0	34	0	874512384	54	4002
2026-01-17 06:35:55.22	33.84	15.07	-41.3	-42.1	21.7	0.00e+00	0	34	0	880803840	54	3902
2026-01-17 06:35:56.23	33.68	15.15	-41.3	-42.1	21.7	0.00e+00	0	34	0	886046720	54	3912
2026-01-17 06:35:57.24	33.53	15.22	-41.1	-42.0	21.9	0.00e+00	0	34	0	892338176	54	3836
2026-01-17 06:35:58.25	33.37	15.30	-41.2	-42.0	21.8	0.00e+00	0	34	0	897581056	54	3868
2026-01-17 06:35:59.26	33.21	15.37	-41.2	-42.0	21.8	0.00e+00	0	34	0	902823936	54	3855
2026-01-17 06:36:00.27	33.05	15.45	-41.2	-42.1	21.8	0.00e+00	0	34	0	909115392	54	3880
2026-01-17 06:36:01.27	32.90	15.52	-41.2	-42.0	21.9	0.00e+00	0	34	0	914358272	54	3853
2026-01-17 06:36:02.28	32.74	15.59	-41.1	-42.0	21.9	0.00e+00	0	34	0	919601152	54	3832
2026-01-17 06:36:03.29	32.57	15.67	-41.0	-41.9	22.0	0.00e+00	0	34	0	925892608	54	3795
2026-01-17 06:36:04.30	32.41	15.74	-41.1	-41.9	21.9	0.00e+00	0	34	0	931135488	54	3819
2026-01-17 06:36:05.30	32.25	15.82	-41.1	-42.0	21.9	0.00e+00	0	34	0	937426944	54	3836
2026-01-17 06:36:06.31	32.09	15.89	-40.9	-41.8	22.1	0.00e+00	0	34	0	942669824	53	3976
2026-01-17 06:36:07.32	31.92	15.97	-41.2	-42.0	21.8	0.00e+00	0	34	0	947912704	53	4077
2026-01-17 06:36:08.33	31.76	16.04	-41.1	-41.9	21.9	0.00e+00	0	34	0	954204160	53	4051
2026-01-17 06:36:09.34	31.59	16.12	-41.2	-42.0	21.9	0.00e+00	0	34	0	960495616	53	4078
2026-01-17 06:36:10.34	31.43	16.19	-41.1	-41.9	22.0	0.00e+00	0	34	0	965738496	53	4026
2026-01-17 06:36:11.35	31.26	16.26	-41.1	-41.9	21.9	0.00e+00	0	34	0	970981376	53	4048
2026-01-17 06:36:12.36	31.09	16.34	-41.1	-41.9	21.9	0.00e+00	0	34	0	977272832	53	4049
2026-01-17 06:36:13.37	30.92	16.41	-40.9	-41.7	22.1	0.00e+00	0	34	0	982515712	53	3958
2026-01-17 06:36:14.38	30.75	16.49	-41.1	-41.9	22.0	0.00e+00	0	34	0	987758592	53	4024
2026-01-17 06:36:15.39	30.58	16.56	-41.1	-42.0	21.9	0.00e+00	0	34	0	994050048	53	4059
2026-01-17 06:36:16.40	30.41	16.63	-41.0	-41.8	22.1	0.00e+00	0	34	0	999292928	53	3986
2026-01-17 06:36:17.40	30.24	16.71	-41.1	-42.0	21.9	0.00e+00	0	34	0	1004535808	53	4064
2026-01-17 06:36:18.41	30.06	16.78	-40.9	-41.7	22.1	0.00e+00	0	34	0	1010827264	53	3957
2026-01-17 06:36:19.42	29.89	16.86	-41.0	-41.8	22.1	0.00e+00	0	34	0	1016070144	53	3984
2026-01-17 06:36:20.43	29.71	16.93	-41.0	-41.9	22.0	0.00e+00	0	34	0	1022361600	53	4016
2026-01-17 06:36:21.44	29.54	17.00	-40.8	-41.6	22.3	0.00e+00	0	34	0	1027604480	53	3899
2026-01-17 06:36:22.44	29.36	17.08	-40.7	-41.5	22.4	0.00e+00	0	34	0	1033895936	53	3843
2026-01-17 06:36:23.45	29.18	17.15	-40.8	-41.6	22.3	0.00e+00	0	34	0	1039138816	53	3897
2026-01-17 06:36:24.46	29.00	17.23	-40.9	-41.8	22.1	0.00e+00	0	34	0	1045430272	53	3963
2026-01-17 06:36:25.47	28.82	17.30	-40.8	-41.6	22.3	0.00e+00	0	34	0	1050673152	53	3908
2026-01-17 06:36:26.48	28.64	17.37	-40.9	-41.7	22.2	0.00e+00	0	34	0	1055916032	53	3937
2026-01-17 06:36:27.48	28.46	17.45	-40.9	-41.7	22.2	0.00e+00	0	34	0	1062207488	53	3937
2026-01-17 06:36:28.49	28.28	17.52	-40.8	-41.6	22.3	0.00e+00	0	34	0	1067450368	53	3890
2026-01-17 06:36:29.50	28.10	17.59	-40.8	-41.6	22.3	0.00e+00	0	34	0	1072693248	53	3885
2026-01-17 06:36:30.51	27.91	17.67	-40.8	-41.6	22.3	0.00e+00	0	34	0	1078984704	53	3893
2026-01-17 06:36:31.52	27.73	17.74	-40.6	-41.4	22.5	0.00e+00	0	34	0	1084227584	53	3806
2026-01-17 06:36:32.52	27.54	17.81	-40.7	-41.5	22.4	0.00e+00	0	34	0	1090519040	53	3860
2026-01-17 06:36:33.53	27.35	17.88	-40.6	-41.4	22.5	0.00e+00	0	34	0	1095761920	53	3797
2026-01-17 06:36:34.54	27.17	17.96	-40.7	-41.5	22.3	0.00e+00	0	34	0	1102053376	53	3866
2026-01-17 06:36:35.55	26.98	18.03	-40.8	-41.6	22.3	0.00e+00	0	34	0	1107296256	53	3898
2026-01-17 06:36:36.56	26.79	18.10	-40.7	-41.5	22.4	0.00e+00	0	34	0	1112539136	53	3861
2026-01-17 06:36:37.57	26.60	18.18	-40.6	-41.4	22.5	0.00e+00	0	34	0	1118830592	53	3810
2026-01-17 06:36:38.57	26.41	18.25	-40.4	-41.3	22.6	0.00e+00	0	34	0	1124073472	52	3959
2026-01-17 06:36:39.58	26.21	18.32	-40.3	-41.1	22.8	0.00e+00	0	34	0	1130364928	52	3904
2026-01-17 06:36:40.59	26.02	18.39	-40.4	-41.2	22.7	0.00e+00	0	34	0	1135607808	52	3933
2026-01-17 06:36:41.60	25.83	18.46	-40.4	-41.2	22.7	0.00e+00	0	34	0	1140850688	52	3936
2026-01-17 06:36:42.61	25.63	18.54	-40.5	-41.3	22.6	0.00e+00	0	34	0	1147142144	52	3981
2026-01-17 06:36:43.61	25.44	18.61	-40.3	-41.1	22.8	0.00e+00	0	34	0	1152385024	52	3895
2026-01-17 06:36:44.62	25.24	18.68	-40.4	-41.2	22.7	0.00e+00	0	34	0	1157627904	52	3923
2026-01-17 06:36:45.63	25.04	18.75	-40.2	-41.0	22.9	0.00e+00	0	33	0	1163919360	52	3863
2026-01-17 06:36:46.64	24.84	18.82	-40.1	-40.9	22.9	0.00e+00	0	34	0	1170210816	52	3818
2026-01-17 06:36:47.65	24.64	18.89	-40.3	-41.1	22.9	0.00e+00	0	34	0	1175453696	52	3869
2026-01-17 06:36:48.65	24.44	18.96	-40.0	-40.8	23.1	0.00e+00	0	34	0	1180696576	52	3762
2026-01-17 06:36:49.66	24.24	19.03	-40.0	-40.8	23.2	0.00e+00	0	34	0	1186988032	51	3964
2026-01-17 06:36:50.67	24.04	19.10	-40.2	-41.0	23.0	0.00e+00	0	34	0	1192230912	51	4062
2026-01-17 06:36:51.68	23.83	19.18	-40.0	-40.8	23.2	0.00e+00	0	34	0	1198522368	51	3978
2026-01-17 06:36:52.68	23.63	19.24	-40.0	-40.7	23.2	0.00e+00	0	34	0	1203765248	51	3950
2026-01-17 06:36:53.69	23.42	19.32	-39.8	-40.6	23.4	0.00e+00	0	34	0	1209008128	51	3892
2026-01-17 06:36:54.71	23.21	19.39	-39.8	-40.6	23.4	0.00e+00	0	34	0	1215299584	51	3888
2026-01-17 06:36:55.71	23.01	19.45	-39.8	-40.6	23.4	0.00e+00	0	34	0	1220542464	51	3872
2026-01-17 06:36:56.72	22.80	19.52	-39.8	-40.6	23.4	0.00e+00	0	34	0	1226833920	51	3892
2026-01-17 06:36:57.73	22.59	19.59	-39.9	-40.7	23.3	0.00e+00	0	34	0	1232076800	51	3945
2026-01-17 06:36:58.74	22.38	19.66	-40.0	-40.7	23.3	0.00e+00	0	34	0	1238368256	51	3947
2026-01-17 06:36:59.75	22.17	19.73	-40.0	-40.8	23.2	0.00e+00	0	34	0	1243611136	51	3979
2026-01-17 06:37:00.75	21.96	19.80	-40.0	-40.7	23.3	0.00e+00	0	34	0	1248854016	51	3953
2026-01-17 06:37:01.77	21.74	19.87	-39.9	-40.7	23.3	0.00e+00	0	34	0	1255145472	51	3929
2026-01-17 06:37:02.77	21.53	19.94	-39.9	-40.7	23.3	0.00e+00	0	34	0	1260388352	51	3936
2026-01-17 06:37:03.78	21.31	20.00	-40.0	-40.8	23.2	0.00e+00	0	34	0	1265631232	51	3973
2026-01-17 06:37:04.79	21.09	20.07	-40.1	-40.9	23.1	0.00e+00	0	34	0	1271922688	51	4006
2026-01-17 06:37:05.80	20.88	20.14	-40.1	-40.9	23.1	0.00e+00	0	34	0	1277165568	51	4026
2026-01-17 06:37:06.81	20.66	20.21	-40.1	-40.9	23.1	0.00e+00	0	34	0	1283457024	51	4035
2026-01-17 06:37:07.81	20.44	20.27	-40.0	-40.8	23.2	0.00e+00	0	34	0	1288699904	51	3980
2026-01-17 06:37:08.82	20.22	20.34	-40.0	-40.8	23.3	0.00e+00	0	34	0	1294991360	51	3962
2026-01-17 06:37:09.83	20.00	20.41	-40.0	-40.8	23.2	0.00e+00	0	34	0	1300234240	51	3994
2026-01-17 06:37:10.84	19.78	20.47	-40.0	-40.8	23.2	0.00e+00	0	34	0	1305477120	51	3992
2026-01-17 06:37:11.84	19.56	20.54	-40.0	-40.8	23.2	0.00e+00	0	34	0	1311768576	51	3981
2026-01-17 06:37:12.85	19.33	20.60	-40.0	-40.8	23.2	0.00e+00	0	34	0	1317011456	51	3986
2026-01-17 06:37:13.86	19.11	20.67	-40.0	-40.8	23.2	0.00e+00	0	34	0	1323302912	51	3974
2026-01-17 06:37:14.87	18.88	20.73	-40.1	-40.9	23.1	0.00e+00	0	34	0	1328545792	51	4014
2026-01-17 06:37:15.88	18.65	20.80	-39.8	-40.6	23.4	0.00e+00	0	34	0	1333788672	51	3886
2026-01-17 06:37:16.88	18.43	20.86	-39.9	-40.6	23.4	0.00e+00	0	34	0	1340080128	51	3908
2026-01-17 06:37:17.89	18.20	20.93	-39.7	-40.5	23.5	0.00e+00	0	34	0	1345323008	51	3835
2026-01-17 06:37:18.90	17.97	20.99	-39.7	-40.5	23.5	0.00e+00	0	34	0	1350565888	51	3841
2026-01-17 06:37:19.91	17.74	21.05	-39.9	-40.6	23.4	0.00e+00	0	34	0	1356857344	51	3913
2026-01-17 06:37:20.92	17.50	21.12	-39.9	-40.6	23.4	0.00e+00	0	34	0	1362100224	51	3904
2026-01-17 06:37:21.93	17.27	21.18	-40.0	-40.8	23.3	0.00e+00	0	34	0	1368391680	51	3960
2026-01-17 06:37:22.93	17.04	21.24	-39.9	-40.7	23.4	0.00e+00	0	34	0	1373634560	51	3918
2026-01-17 06:37:23.94	16.81	21.30	-40.0	-40.8	23.3	0.00e+00	0	34	0	1379926016	51	3961
2026-01-17 06:37:24.95	16.57	21.36	-39.9	-40.7	23.3	0.00e+00	0	34	0	1385168896	51	3932
2026-01-17 06:37:25.96	16.33	21.43	-39.9	-40.7	23.3	0.00e+00	0	34	0	1391460352	51	3940
2026-01-17 06:37:26.97	16.09	21.49	-39.8	-40.5	23.5	0.00e+00	0	34	0	1396703232	51	3868
2026-01-17 06:37:27.97	15.86	21.55	-39.8	-40.6	23.5	0.00e+00	0	34	0	1401946112	51	3871
2026-01-17 06:37:28.98	15.62	21.61	-39.8	-40.6	23.5	0.00e+00	0	34	0	1408237568	51	3878
2026-01-17 06:37:29.99	15.38	21.67	-39.8	-40.6	23.4	0.00e+00	0	34	0	1413480448	51	3899
2026-01-17 06:37:31.00	15.14	21.73	-39.6	-40.4	23.6	0.00e+00	0	34	0	1418723328	51	3805
2026-01-17 06:37:32.00	14.90	21.78	-39.7	-40.5	23.6	0.00e+00	0	34	0	1425014784	51	3827
2026-01-17 06:37:33.01	14.65	21.84	-39.7	-40.5	23.6	0.00e+00	0	34	0	1430257664	51	3831
2026-01-17 06:37:34.02	14.41	21.90	-39.7	-40.5	23.5	0.00e+00	0	34	0	1435500544	51	3853
2026-01-17 06:37:35.03	14.16	21.96	-39.6	-40.4	23.7	0.00e+00	0	34	0	1441792000	51	3788
2026-01-17 06:37:36.04	13.92	22.02	-39.7	-40.5	23.5	0.00e+00	0	34	0	1448083456	51	3845
2026-01-17 06:37:37.04	13.67	22.07	-39.8	-40.5	23.5	0.00e+00	0	34	0	1453326336	51	3856
2026-01-17 06:37:38.05	13.43	22.13	-39.8	-40.5	23.5	0.00e+00	0	34	0	1458569216	51	3853
2026-01-17 06:37:39.06	13.18	22.18	-39.8	-40.6	23.4	0.00e+00	0	34	0	1464860672	51	3899
2026-01-17 06:37:40.07	12.93	22.24	-39.9	-40.6	23.4	0.00e+00	0	34	0	1470103552	51	3902
2026-01-17 06:37:41.08	12.68	22.29	-39.9	-40.7	23.4	0.00e+00	0	34	0	1476395008	51	3919
2026-01-17 06:37:42.09	12.42	22.35	-39.8	-40.6	23.5	0.00e+00	0	34	0	1481637888	51	3893
2026-01-17 06:37:43.10	12.17	22.40	-39.6	-40.4	23.6	0.00e+00	0	34	0	1486880768	51	3801
2026-01-17 06:37:44.11	11.92	22.46	-39.6	-40.4	23.6	0.00e+00	0	34	0	1493172224	51	3801
2026-01-17 06:37:45.11	11.67	22.51	-39.7	-40.5	23.6	0.00e+00	0	34	0	1498415104	51	3827
2026-01-17 06:37:46.12	11.41	22.56	-39.7	-40.5	23.6	0.00e+00	0	34	0	1503657984	51	3827
2026-01-17 06:37:47.13	11.16	22.61	-39.6	-40.3	23.7	0.00e+00	0	34	0	1509949440	51	3773
2026-01-17 06:37:48.14	10.90	22.67	-39.6	-40.4	23.7	0.00e+00	0	34	0	1516240896	51	3781
2026-01-17 06:37:49.14	10.64	22.72	-39.5	-40.3	23.7	0.00e+00	0	34	0	1521483776	50	3965
2026-01-17 06:37:50.15	10.39	22.77	-39.4	-40.1	23.9	0.00e+00	0	34	0	1526726656	50	3909
2026-01-17 06:37:51.16	10.13	22.82	-39.4	-40.1	23.8	0.00e+00	0	34	0	1533018112	50	3912
2026-01-17 06:37:52.17	9.87	22.87	-39.4	-40.1	23.9	0.00e+00	0	34	0	1538260992	50	3890
2026-01-17 06:37:53.18	9.61	22.91	-39.3	-40.1	23.9	0.00e+00	0	34	0	1543503872	50	3874
2026-01-17 06:37:54.18	9.35	22.96	-39.3	-40.0	24.0	0.00e+00	0	34	0	1549795328	50	3857
2026-01-17 06:37:55.19	9.08	23.01	-39.3	-40.0	24.0	0.00e+00	0	34	0	1555038208	50	3845
2026-01-17 06:37:56.20	8.82	23.06	-39.2	-40.0	24.0	0.00e+00	0	34	0	1561329664	50	3835
2026-01-17 06:37:57.21	8.56	23.10	-39.3	-40.0	24.0	0.00e+00	0	34	0	1566572544	50	3866
2026-01-17 06:37:58.22	8.29	23.15	-39.3	-40.0	24.0	0.00e+00	0	34	0	1571815424	50	3850
2026-01-17 06:37:59.22	8.03	23.20	-39.3	-40.0	24.0	0.00e+00	0	34	0	1578106880	50	3864
2026-01-17 06:38:00.23	7.76	23.24	-39.2	-40.0	24.1	0.00e+00	0	34	0	1584398336	50	3829
2026-01-17 06:38:01.24	7.49	23.28	-39.2	-40.0	24.0	0.00e+00	0	34	0	1589641216	50	3836
2026-01-17 06:38:02.25	7.23	23.33	-39.2	-40.0	24.0	0.00e+00	0	34	0	1594884096	50	3838
2026-01-17 06:38:03.26	6.96	23.37	-39.3	-40.0	24.0	0.00e+00	0	34	0	1601175552	50	3862
2026-01-17 06:38:04.26	6.69	23.41	-39.3	-40.0	24.0	0.00e+00	0	34	0	1606418432	50	3865
2026-01-17 06:38:05.27	6.42	23.46	-39.2	-40.0	24.0	0.00e+00	0	34	0	1611661312	50	3831
2026-01-17 06:38:06.28	6.15	23.50	-39.2	-39.9	24.1	0.00e+00	0	34	0	1617952768	50	3810
2026-01-17 06:38:07.29	5.88	23.54	-39.1	-39.8	24.2	0.00e+00	0	34	0	1623195648	50	3760
2026-01-17 06:38:08.30	5.60	23.58	-39.0	-39.7	24.3	0.00e+00	0	34	0	1628438528	50	3713
2026-01-17 06:38:09.31	5.33	23.62	-38.9	-39.6	24.4	0.00e+00	0	34	0	1634729984	49	3891
2026-01-17 06:38:10.31	5.06	23.65	-39.0	-39.7	24.3	0.00e+00	0	34	0	1639972864	49	3941
2026-01-17 06:38:11.32	4.79	23.69	-39.1	-39.9	24.1	0.00e+00	0	34	0	1646264320	49	4011
2026-01-17 06:38:12.33	4.51	23.73	-39.2	-39.9	24.1	0.00e+00	0	34	0	1651507200	49	4047
2026-01-17 06:38:13.34	4.23	23.77	-39.3	-40.0	24.0	0.00e+00	0	34	0	1657798656	49	4094
2026-01-17 06:38:14.34	3.96	23.80	-39.4	-40.2	23.8	0.00e+00	0	34	0	1663041536	49	4151
2026-01-17 06:38:15.35	3.68	23.84	-39.4	-40.1	23.9	0.00e+00	0	34	0	1669332992	49	4136
2026-01-17 06:38:16.36	3.41	23.87	-39.4	-40.1	23.9	0.00e+00	0	34	0	1674575872	49	4132
2026-01-17 06:38:17.36	3.13	23.91	-39.4	-40.1	23.9	0.00e+00	0	34	0	1679818752	49	4117
2026-01-17 06:38:18.37	2.85	23.94	-39.3	-40.0	24.0	0.00e+00	0	34	0	1686110208	49	4075
2026-01-17 06:38:19.38	2.57	23.97	-39.4	-40.1	23.9	0.00e+00	0	34	0	1691353088	49	4125
2026-01-17 06:38:20.39	2.29	24.00	-39.4	-40.1	23.9	0.00e+00	0	34	0	1696595968	49	4141
2026-01-17 06:38:21.40	2.01	24.03	-39.5	-40.2	23.8	0.00e+00	0	34	0	1702887424	49	4174
2026-01-17 06:38:22.40	1.73	24.07	-39.3	-40.1	24.0	0.00e+00	0	34	0	1708130304	49	4109
2026-01-17 06:38:23.41	1.45	24.09	-39.1	-39.8	24.2	0.00e+00	0	34	0	1713373184	49	3983
2026-01-17 06:38:24.42	1.17	24.12	-39.1	-39.9	24.1	0.00e+00	0	34	0	1719664640	49	4009
2026-01-17 06:38:25.43	0.88	24.15	-39.0	-39.7	24.2	0.00e+00	0	34	0	1725956096	49	3956
2026-01-17 06:38:26.44	0.60	24.18	-39.0	-39.7	24.3	0.00e+00	0	34	0	1731198976	49	3932
2026-01-17 06:38:27.44	0.32	24.21	-39.0	-39.7	24.3	0.00e+00	0	34	0	1736441856	49	3937
2026-01-17 06:38:28.45	0.04	24.23	-39.0	-39.7	24.3	0.00e+00	0	34	0	1742733312	49	3949
2026-01-17 06:38:29.46	359.75	24.26	-38.9	-39.7	24.3	0.00e+00	0	34	0	1747976192	49	3924
2026-01-17 06:38:30.47	359.47	24.28	-38.9	-39.6	24.4	0.00e+00	0	34	0	1754267648	49	3896
2026-01-17 06:38:31.48	359.18	24.31	-38.8	-39.5	24.5	0.00e+00	0	34	0	1759510528	49	3830
2026-01-17 06:38:32.48	358.90	24.33	-38.7	-39.4	24.6	0.00e+00	0	34	0	1764753408	49	3795
2026-01-17 06:38:33.49	358.61	24.35	-38.8	-39.5	24.5	0.00e+00	0	34	0	1771044864	49	3839
2026-01-17 06:38:34.50	358.32	24.37	-38.9	-39.7	24.3	0.00e+00	0	34	0	1776287744	49	3917
2026-01-17 06:38:35.51	358.04	24.39	-39.0	-39.7	24.2	0.00e+00	0	34	0	1781530624	49	3947
2026-01-17 06:38:36.52	357.75	24.41	-39.0	-39.7	24.3	0.00e+00	0	34	0	1787822080	49	3948
2026-01-17 06:38:37.52	357.46	24.43	-39.1	-39.9	24.1	0.00e+00	0	34	0	1794113536	49	4007
2026-01-17 06:38:38.53	357.17	24.45	-39.2	-40.0	24.1	0.00e+00	0	34	0	1799356416	49	4062
2026-01-17 06:38:39.54	356.88	24.47	-39.3	-40.1	24.0	0.00e+00	0	34	0	1804599296	49	4101
2026-01-17 06:38:40.55	356.60	24.49	-39.3	-40.0	24.0	0.00e+00	0	34	0	1810890752	49	4085
2026-01-17 06:38:41.56	356.31	24.50	-39.3	-40.0	24.1	0.00e+00	0	34	0	1816133632	49	4072
2026-01-17 06:38:42.56	356.02	24.52	-39.3	-40.0	24.0	0.00e+00	0	34	0	1821376512	49	4070
2026-01-17 06:38:43.57	355.73	24.53	-39.2	-39.9	24.1	0.00e+00	0	34	0	1827667968	49	4031
2026-01-17 06:38:44.58	355.44	24.55	-39.1	-39.8	24.2	0.00e+00	0	34	0	1832910848	49	3972
2026-01-17 06:38:45.59	355.15	24.56	-39.1	-39.8	24.2	0.00e+00	0	34	0	1839202304	49	3997
2026-01-17 06:38:46.60	354.86	24.57	-38.9	-39.7	24.4	0.00e+00	0	34	0	1844445184	49	3920
2026-01-17 06:38:47.60	354.57	24.58	-38.9	-39.6	24.3	0.00e+00	0	34	0	1849688064	49	3905
2026-01-17 06:38:48.61	354.28	24.59	-39.1	-39.8	24.2	0.00e+00	0	34	0	1855979520	49	3978
2026-01-17 06:38:49.62	353.99	24.60	-38.9	-39.6	24.4	0.00e+00	0	34	0	1861222400	49	3904
2026-01-17 06:38:50.63	353.70	24.61	-38.7	-39.4	24.6	0.00e+00	0	34	0	1867513856	49	3811
2026-01-17 06:38:51.64	353.40	24.62	-38.7	-39.4	24.6	0.00e+00	0	34	0	1872756736	49	3793
2026-01-17 06:38:52.64	353.11	24.63	-38.7	-39.4	24.5	0.00e+00	0	34	0	1879048192	49	3824
2026-01-17 06:38:53.65	352.82	24.63	-38.8	-39.6	24.4	0.00e+00	0	34	0	1884291072	49	3876
2026-01-17 06:38:54.66	352.53	24.64	-38.9	-39.6	24.4	0.00e+00	0	34	0	1889533952	49	3905
2026-01-17 06:38:55.67	352.24	24.65	-38.9	-39.6	24.4	0.00e+00	0	34	0	1895825408	49	3907
2026-01-17 06:38:56.68	351.95	24.65	-38.9	-39.7	24.3	0.00e+00	0	34	0	1901068288	49	3918
2026-01-17 06:38:57.68	351.66	24.65	-38.9	-39.7	24.4	0.00e+00	0	34	0	1906311168	49	3917
2026-01-17 06:38:58.69	351.36	24.66	-38.9	-39.6	24.4	0.00e+00	0	34	0	1912602624	49	3903
2026-01-17 06:38:59.70	351.07	24.66	-39.0	-39.7	24.3	0.00e+00	0	34	0	1917845504	49	3938
2026-01-17 06:39:00.71	350.78	24.66	-39.0	-39.7	24.3	0.00e+00	0	34	0	1924136960	49	3947
2026-01-17 06:39:01.71	350.49	24.66	-39.0	-39.7	24.3	0.00e+00	0	34	0	1929379840	49	3946
2026-01-17 06:39:02.72	350.20	24.66	-38.9	-39.6	24.4	0.00e+00	0	34	0	1935671296	49	3913
2026-01-17 06:39:03.73	349.90	24.66	-38.9	-39.6	24.4	0.00e+00	0	34	0	1940914176	49	3907
2026-01-17 06:39:04.74	349.61	24.65	-38.8	-39.6	24.4	0.00e+00	0	34	0	1947205632	49	3872
2026-01-17 06:39:05.75	349.32	24.65	-38.8	-39.5	24.5	0.00e+00	0	34	0	1952448512	49	3844
2026-01-17 06:39:06.76	349.03	24.65	-38.9	-39.6	24.4	0.00e+00	0	34	0	1957691392	49	3904
2026-01-17 06:39:07.76	348.74	24.64	-38.8	-39.5	24.5	0.00e+00	0	34	0	1963982848	49	3849
2026-01-17 06:39:08.77	348.45	24.64	-38.8	-39.5	24.5	0.00e+00	0	34	0	1969225728	49	3848
2026-01-17 06:39:09.78	348.15	24.63	-38.8	-39.5	24.5	0.00e+00	0	34	0	1974468608	49	3836
2026-01-17 06:39:10.79	347.86	24.62	-38.8	-39.5	24.5	0.00e+00	0	34	0	1980760064	49	3844
2026-01-17 06:39:11.80	347.57	24.62	-38.8	-39.5	24.5	0.00e+00	0	34	0	1986002944	49	3837
2026-01-17 06:39:12.80	347.28	24.61	-38.8	-39.5	24.5	0.00e+00	0	34	0	1991245824	49	3831
2026-01-17 06:39:13.81	346.99	24.60	-38.8	-39.6	24.4	0.00e+00	0	34	0	1997537280	49	3873
2026-01-17 06:39:14.82	346.70	24.59	-38.8	-39.5	24.5	0.00e+00	0	34	0	2002780160	49	3861
2026-01-17 06:39:15.83	346.41	24.58	-38.9	-39.6	24.4	0.00e+00	0	34	0	2009071616	49	3879
2026-01-17 06:39:16.84	346.12	24.56	-38.9	-39.6	24.4	0.00e+00	0	34	0	2014314496	49	3907
2026-01-17 06:39:17.84	345.83	24.55	-38.9	-39.6	24.4	0.00e+00	0	34	0	2020605952	49	3904
2026-01-17 06:39:18.85	345.54	24.54	-38.8	-39.5	24.5	0.00e+00	0	34	0	2025848832	49	3858
2026-01-17 06:39:19.86	345.25	24.52	-38.9	-39.6	24.4	0.00e+00	0	34	0	2032140288	49	3893
2026-01-17 06:39:20.87	344.96	24.51	-38.9	-39.7	24.3	0.00e+00	0	34	0	2037383168	49	3931
2026-01-17 06:39:21.88	344.67	24.49	-39.0	-39.7	24.3	0.00e+00	0	34	0	2042626048	49	3948
2026-01-17 06:39:22.89	344.38	24.47	-39.1	-39.8	24.2	0.00e+00	0	34	0	2048917504	49	3981
2026-01-17 06:39:23.90	344.09	24.46	-38.9	-39.7	24.4	0.00e+00	0	34	0	2054160384	49	3926
2026-01-17 06:39:24.90	343.80	24.44	-39.0	-39.7	24.3	0.00e+00	0	34	0	2059403264	49	3926
2026-01-17 06:39:25.91	343.52	24.42	-38.9	-39.6	24.4	0.00e+00	0	34	0	2065694720	49	3907
2026-01-17 06:39:26.92	343.23	24.40	-38.9	-39.6	24.5	0.00e+00	0	34	0	2071986176	49	3872
2026-01-17 06:39:27.93	342.94	24.38	-38.9	-39.6	24.4	0.00e+00	0	34	0	2077229056	49	3904
2026-01-17 06:39:28.94	342.65	24.36	-38.9	-39.6	24.4	0.00e+00	0	34	0	2082471936	49	3896
2026-01-17 06:39:29.95	342.37	24.34	-38.9	-39.6	24.4	0.00e+00	0	34	0	2088763392	49	3908
2026-01-17 06:39:30.96	342.08	24.31	-38.8	-39.6	24.5	0.00e+00	0	34	0	2094006272	49	3878
2026-01-17 06:39:31.97	341.79	24.29	-38.7	-39.4	24.6	0.00e+00	0	34	0	2099249152	49	3818
2026-01-17 06:39:32.97	341.51	24.27	-38.7	-39.4	24.6	0.00e+00	0	34	0	2105540608	49	3811
2026-01-17 06:39:33.98	341.23	24.24	-38.6	-39.3	24.7	0.00e+00	0	34	0	2110783488	49	3739
2026-01-17 06:39:34.99	340.94	24.21	-38.7	-39.4	24.6	0.00e+00	0	34	0	2117074944	49	3809
2026-01-17 06:39:36.00	340.66	24.19	-38.8	-39.5	24.5	0.00e+00	0	34	0	2122317824	49	3864
2026-01-17 06:39:37.01	340.37	24.16	-38.9	-39.6	24.4	0.00e+00	0	34	0	2127560704	49	3887
2026-01-17 06:39:38.02	340.09	24.13	-38.9	-39.6	24.4	0.00e+00	0	34	0	2133852160	49	3883
2026-01-17 06:39:39.03	339.81	24.10	-38.9	-39.6	24.4	0.00e+00	0	34	0	2140143616	49	3880
2026-01-17 06:39:40.03	339.53	24.07	-38.9	-39.6	24.5	0.00e+00	0	34	0	2145386496	49	3874
2026-01-17 06:39:41.04	339.25	24.04	-38.9	-39.6	24.4	0.00e+00	0	34	0	2150629376	49	3909
2026-01-17 06:39:42.05	338.97	24.01	-39.0	-39.7	24.3	0.00e+00	0	34	0	2156920832	49	3953
2026-01-17 06:39:43.06	338.69	23.98	-39.0	-39.8	24.3	0.00e+00	0	34	0	2162163712	49	3967
2026-01-17 06:39:44.07	338.41	23.95	-39.1	-39.9	24.2	0.00e+00	0	34	0	2167406592	49	4016
2026-01-17 06:39:45.08	338.13	23.92	-39.0	-39.8	24.3	0.00e+00	0	34	0	2173698048	49	3966
2026-01-17 06:39:46.09	337.85	23.88	-39.1	-39.9	24.2	0.00e+00	0	34	0	2178940928	49	4010
2026-01-17 06:39:47.10	337.57	23.85	-39.1	-39.8	24.3	0.00e+00	0	34	0	2184183808	49	3974
2026-01-17 06:39:48.11	337.29	23.81	-39.0	-39.7	24.3	0.00e+00	0	34	0	2190475264	49	3927
2026-01-17 06:39:49.11	337.02	23.78	-39.1	-39.8	24.3	0.00e+00	0	34	0	2195718144	49	3986
2026-01-17 06:39:50.12	336.74	23.74	-39.0	-39.7	24.3	0.00e+00	0	34	0	2202009600	49	3948
2026-01-17 06:39:51.13	336.47	23.70	-38.8	-39.5	24.5	0.00e+00	0	34	0	2207252480	49	3861
2026-01-17 06:39:52.14	336.19	23.67	-38.8	-39.5	24.5	0.00e+00	0	34	0	2213543936	49	3863
2026-01-17 06:39:53.14	335.92	23.63	-39.0	-39.7	24.3	0.00e+00	0	34	0	2218786816	49	3941
2026-01-17 06:39:54.15	335.65	23.59	-38.9	-39.6	24.4	0.00e+00	0	34	0	2225078272	49	3890
2026-01-17 06:39:55.16	335.37	23.55	-39.0	-39.7	24.3	0.00e+00	0	34	0	2230321152	49	3935
2026-01-17 06:39:56.17	335.10	23.51	-39.0	-39.7	24.3	0.00e+00	0	34	0	2235564032	49	3931
2026-01-17 06:39:57.18	334.83	23.47	-39.0	-39.7	24.3	0.00e+00	0	34	0	2241855488	49	3935
2026-01-17 06:39:58.18	334.56	23.43	-39.1	-39.8	24.2	0.00e+00	0	34	0	2247098368	49	3995
2026-01-17 06:39:59.19	334.29	23.38	-39.1	-39.9	24.2	0.00e+00	0	34	0	2252341248	49	4021
2026-01-17 06:40:00.20	334.02	23.34	-39.1	-39.8	24.2	0.00e+00	0	34	0	2258632704	49	3984
2026-01-17 06:40:01.21	333.76	23.30	-39.2	-39.9	24.2	0.00e+00	0	34	0	2263875584	49	4016
2026-01-17 06:40:02.22	333.49	23.25	-39.1	-39.9	24.2	0.00e+00	0	34	0	2270167040	49	4013
2026-01-17 06:40:03.23	333.22	23.21	-39.0	-39.7	24.3	0.00e+00	0	34	0	2275409920	49	3957
2026-01-17 06:40:04.24	332.95	23.16	-38.9	-39.6	24.4	0.00e+00	0	34	0	2281701376	49	3883
2026-01-17 06:40:05.25	332.69	23.12	-38.8	-39.5	24.5	0.00e+00	0	34	0	2286944256	49	3852
2026-01-17 06:40:06.26	332.42	23.07	-39.0	-39.7	24.3	0.00e+00	0	34	0	2292187136	49	3946
2026-01-17 06:40:07.27	332.16	23.02	-38.8	-39.6	24.5	0.00e+00	0	34	0	2298478592	49	3870
2026-01-17 06:40:08.28	331.90	22.98	-38.8	-39.5	24.5	0.00e+00	0	34	0	2303721472	49	3842
2026-01-17 06:40:09.29	331.64	22.93	-38.8	-39.5	24.5	0.00e+00	0	34	0	2310012928	49	3833
2026-01-17 06:40:10.29	331.38	22.88	-38.8	-39.6	24.5	0.00e+00	0	34	0	2315255808	49	3873
2026-01-17 06:40:11.30	331.12	22.83	-39.0	-39.7	24.3	0.00e+00	0	34	0	2320498688	49	3939
2026-01-17 06:40:12.31	330.86	22.78	-39.0	-39.7	24.3	0.00e+00	0	34	0	2326790144	49	3958
2026-01-17 06:40:13.32	330.60	22.73	-39.1	-39.9	24.2	0.00e+00	0	34	0	2332033024	49	4013
2026-01-17 06:40:14.33	330.34	22.68	-39.1	-39.8	24.2	0.00e+00	0	34	0	2338324480	49	4001
2026-01-17 06:40:15.34	330.08	22.63	-39.1	-39.9	24.2	0.00e+00	0	34	0	2343567360	49	4016
2026-01-17 06:40:16.35	329.83	22.57	-39.2	-39.9	24.1	0.00e+00	0	34	0	2349858816	49	4029
2026-01-17 06:40:17.36	329.57	22.52	-39.3	-40.0	24.1	0.00e+00	0	34	0	2355101696	49	4075
2026-01-17 06:40:18.36	329.32	22.47	-39.3	-40.1	24.0	0.00e+00	0	34	0	2360344576	49	4115
2026-01-17 06:40:19.37	329.06	22.42	-39.2	-40.0	24.1	0.00e+00	0	34	0	2366636032	49	4052
2026-01-17 06:40:20.38	328.81	22.36	-39.1	-39.8	24.2	0.00e+00	0	34	0	2371878912	49	3989
2026-01-17 06:40:21.39	328.56	22.31	-39.1	-39.8	24.3	0.00e+00	0	34	0	2377121792	49	3973
2026-01-17 06:40:22.40	328.31	22.25	-39.2	-39.9	24.2	0.00e+00	0	34	0	2383413248	49	4022
2026-01-17 06:40:23.41	328.06	22.20	-39.2	-39.9	24.1	0.00e+00	0	34	0	2388656128	49	4044
2026-01-17 06:40:24.41	327.81	22.14	-39.2	-40.0	24.1	0.00e+00	0	34	0	2394947584	49	4056
2026-01-17 06:40:25.42	327.56	22.09	-39.3	-40.1	24.0	0.00e+00	0	34	0	2400190464	49	4099
2026-01-17 06:40:26.43	327.32	22.03	-39.2	-40.0	24.0	0.00e+00	0	34	0	2406481920	49	4063
2026-01-17 06:40:27.44	327.07	21.97	-39.3	-40.0	24.0	0.00e+00	0	34	0	2411724800	49	4072
2026-01-17 06:40:28.45	326.82	21.92	-39.2	-40.0	24.1	0.00e+00	0	34	0	2418016256	49	4062
2026-01-17 06:40:29.46	326.58	21.86	-39.1	-39.8	24.2	0.00e+00	0	34	0	2423259136	49	3989
2026-01-17 06:40:30.47	326.34	21.80	-39.1	-39.8	24.2	0.00e+00	0	34	0	2428502016	49	3988
2026-01-17 06:40:31.48	326.09	21.74	-39.0	-39.7	24.3	0.00e+00	0	34	0	2434793472	49	3944
2026-01-17 06:40:32.49	325.85	21.68	-39.0	-39.7	24.3	0.00e+00	0	34	0	2440036352	49	3932
2026-01-17 06:40:33.50	325.61	21.62	-38.9	-39.7	24.3	0.00e+00	0	34	0	2445279232	49	3918
2026-01-17 06:40:34.50	325.37	21.56	-39.1	-39.8	24.2	0.00e+00	0	34	0	2451570688	49	3978
2026-01-17 06:40:35.51	325.13	21.50	-39.2	-40.0	24.1	0.00e+00	0	34	0	2456813568	49	4057
2026-01-17 06:40:36.52	324.90	21.44	-39.3	-40.0	24.0	0.00e+00	0	34	0	2462056448	49	4075
2026-01-17 06:40:37.53	324.66	21.38	-39.3	-40.0	24.0	0.00e+00	0	34	0	2468347904	49	4079
2026-01-17 06:40:38.54	324.42	21.32	-39.3	-40.1	24.0	0.00e+00	0	34	0	2474639360	49	4105
2026-01-17 06:40:39.54	324.19	21.26	-39.3	-40.0	24.0	0.00e+00	0	34	0	2479882240	49	4069
2026-01-17 06:40:40.55	323.95	21.19	-39.3	-40.0	24.0	0.00e+00	0	34	0	2485125120	49	4098
2026-01-17 06:40:41.56	323.72	21.13	-39.5	-40.3	23.8	0.00e+00	0	34	0	2491416576	49	4203
2026-01-17 06:40:42.57	323.49	21.07	-39.7	-40.5	23.6	0.00e+00	0	34	0	2496659456	49	4303
2026-01-17 06:40:43.58	323.26	21.00	-39.8	-40.6	23.5	0.00e+00	0	34	0	2502950912	50	4113
2026-01-17 06:40:44.59	323.03	20.94	-39.8	-40.6	23.5	0.00e+00	0	34	0	2508193792	50	4120
2026-01-17 06:40:45.60	322.80	20.88	-39.7	-40.5	23.6	0.00e+00	0	34	0	2513436672	50	4079
2026-01-17 06:40:46.61	322.57	20.81	-39.7	-40.5	23.6	0.00e+00	0	34	0	2519728128	50	4054
2026-01-17 06:40:47.62	322.34	20.75	-39.6	-40.4	23.7	0.00e+00	0	34	0	2524971008	50	4027
2026-01-17 06:40:48.62	322.12	20.68	-39.6	-40.3	23.8	0.00e+00	0	34	0	2531262464	50	3992
2026-01-17 06:40:49.63	321.89	20.62	-39.6	-40.3	23.7	0.00e+00	0	34	0	2536505344	50	4003
2026-01-17 06:40:50.64	321.67	20.55	-39.6	-40.3	23.8	0.00e+00	0	34	0	2542796800	50	3985
2026-01-17 06:40:51.65	321.44	20.49	-39.6	-40.3	23.7	0.00e+00	0	34	0	2548039680	50	3992
2026-01-17 06:40:52.65	321.22	20.42	-39.6	-40.3	23.7	0.00e+00	0	34	0	2553282560	50	3999
2026-01-17 06:40:53.67	321.00	20.35	-39.6	-40.3	23.7	0.00e+00	0	34	0	2559574016	50	3996
2026-01-17 06:40:54.67	320.78	20.29	-39.8	-40.5	23.6	0.00e+00	0	34	0	2564816896	50	4083
2026-01-17 06:40:55.68	320.56	20.22	-39.9	-40.6	23.5	0.00e+00	0	34	0	2570059776	50	4139
2026-01-17 06:40:56.69	320.34	20.15	-40.0	-40.7	23.3	0.00e+00	0	34	0	2576351232	50	4188
2026-01-17 06:40:57.70	320.12	20.09	-40.1	-40.9	23.2	0.00e+00	0	34	0	2581594112	50	4257
2026-01-17 06:40:58.71	319.91	20.02	-40.0	-40.8	23.3	0.00e+00	0	34	0	2587885568	50	4198
2026-01-17 06:40:59.72	319.69	19.95	-40.0	-40.8	23.3	0.00e+00	0	34	0	2593128448	50	4214
2026-01-17 06:41:00.73	319.47	19.88	-40.1	-40.8	23.2	0.00e+00	0	34	0	2599419904	50	4242
2026-01-17 06:41:01.74	319.26	19.81	-40.1	-40.9	23.2	0.00e+00	0	34	0	2604662784	50	4270
2026-01-17 06:41:02.74	319.05	19.75	-40.1	-40.9	23.2	0.00e+00	0	34	0	2610954240	50	4264
2026-01-17 06:41:03.75	318.84	19.68	-40.0	-40.8	23.3	0.00e+00	0	34	0	2616197120	50	4214
2026-01-17 06:41:04.76	318.63	19.61	-40.1	-40.8	23.2	0.00e+00	0	34	0	2621440000	50	4235
2026-01-17 06:41:05.77	318.42	19.54	-40.2	-41.0	23.1	0.00e+00	0	34	0	2627731456	51	4081
2026-01-17 06:41:06.78	318.21	19.47	-40.3	-41.1	23.0	0.00e+00	0	34	0	2632974336	51	4131
2026-01-17 06:41:07.78	318.00	19.40	-40.2	-41.0	23.1	0.00e+00	0	34	0	2638217216	51	4093
2026-01-17 06:41:08.79	317.79	19.33	-40.3	-41.1	23.0	0.00e+00	0	34	0	2644508672	51	4106
2026-01-17 06:41:09.80	317.59	19.26	-40.2	-40.9	23.1	0.00e+00	0	34	0	2649751552	51	4050
2026-01-17 06:41:10.81	317.38	19.19	-40.1	-40.9	23.2	0.00e+00	0	34	0	2654994432	51	4029
2026-01-17 06:41:11.82	317.18	19.12	-40.2	-40.9	23.1	0.00e+00	0	34	0	2661285888	51	4049
2026-01-17 06:41:12.82	316.97	19.05	-40.0	-40.8	23.3	0.00e+00	0	34	0	2667577344	51	3976
2026-01-17 06:41:13.83	316.77	18.98	-40.2	-41.0	23.1	0.00e+00	0	34	0	2672820224	51	4052
2026-01-17 06:41:14.84	316.57	18.91	-40.3	-41.1	23.1	0.00e+00	0	34	0	2678063104	51	4105
2026-01-17 06:41:15.85	316.37	18.84	-40.3	-41.1	23.0	0.00e+00	0	34	0	2684354560	51	4100
2026-01-17 06:41:16.86	316.17	18.76	-40.2	-41.0	23.1	0.00e+00	0	34	0	2689597440	51	4084
2026-01-17 06:41:17.86	315.97	18.69	-40.1	-40.9	23.2	0.00e+00	0	34	0	2695888896	51	4032
2026-01-17 06:41:18.87	315.78	18.62	-40.2	-41.0	23.1	0.00e+00	0	34	0	2701131776	51	4052
2026-01-17 06:41:19.88	315.58	18.55	-40.2	-41.0	23.1	0.00e+00	0	34	0	2706374656	51	4064
2026-01-17 06:41:20.89	315.38	18.48	-40.3	-41.1	23.0	0.00e+00	0	34	0	2712666112	51	4099
2026-01-17 06:41:21.90	315.19	18.41	-40.3	-41.1	23.0	0.00e+00	0	34	0	2717908992	51	4123
2026-01-17 06:41:22.91	314.99	18.33	-40.5	-41.3	22.8	0.00e+00	0	34	0	2723151872	51	4225
2026-01-17 06:41:23.92	314.80	18.26	-40.4	-41.2	22.9	0.00e+00	0	34	0	2729443328	51	4161
2026-01-17 06:41:24.92	314.61	18.19	-40.3	-41.1	23.0	0.00e+00	0	34	0	2735734784	51	4103
2026-01-17 06:41:25.93	314.42	18.12	-40.2	-40.9	23.1	0.00e+00	0	34	0	2740977664	51	4045
2026-01-17 06:41:26.94	314.23	18.04	-40.2	-40.9	23.1	0.00e+00	0	34	0	2746220544	51	4051
2026-01-17 06:41:27.95	314.04	17.97	-40.2	-41.0	23.0	0.00e+00	0	34	0	2752512000	51	4076
2026-01-17 06:41:28.96	313.85	17.90	-40.2	-41.0	23.1	0.00e+00	0	34	0	2757754880	51	4052
2026-01-17 06:41:29.97	313.66	17.82	-40.2	-41.0	23.0	0.00e+00	0	34	0	2762997760	51	4079
2026-01-17 06:41:30.98	313.48	17.75	-40.3	-41.1	22.9	0.00e+00	0	34	0	2769289216	51	4133
2026-01-17 06:41:31.99	313.29	17.68	-40.2	-41.0	23.0	0.00e+00	0	34	0	2774532096	51	4072
2026-01-17 06:41:33.00	313.11	17.60	-40.2	-41.0	23.0	0.00e+00	0	34	0	2780823552	51	4083
2026-01-17 06:41:34.00	312.92	17.53	-40.2	-40.9	23.1	0.00e+00	0	34	0	2786066432	51	4046
2026-01-17 06:41:35.01	312.74	17.46	-40.2	-41.0	23.1	0.00e+00	0	34	0	2791309312	51	4060
2026-01-17 06:41:36.02	312.56	17.39	-40.3	-41.1	23.0	0.00e+00	0	34	0	2797600768	51	4107
2026-01-17 06:41:37.03	312.38	17.31	-40.3	-41.1	23.0	0.00e+00	0	34	0	2803892224	51	4113
2026-01-17 06:41:38.04	312.20	17.24	-40.4	-41.2	22.8	0.00e+00	0	34	0	2809135104	51	4168
2026-01-17 06:41:39.04	312.02	17.16	-40.4	-41.2	22.8	0.00e+00	0	34	0	2814377984	51	4158
2026-01-17 06:41:40.05	311.84	17.09	-40.4	-41.1	22.9	0.00e+00	0	34	0	2820669440	51	4141
2026-01-17 06:41:41.06	311.66	17.02	-40.4	-41.2	22.8	0.00e+00	0	34	0	2825912320	51	4187
2026-01-17 06:41:42.07	311.49	16.94	-40.5	-41.2	22.8	0.00e+00	0	34	0	2831155200	51	4192
2026-01-17 06:41:43.08	311.31	16.87	-40.5	-41.3	22.7	0.00e+00	0	34	0	2837446656	51	4236
2026-01-17 06:41:44.09	311.13	16.79	-40.7	-41.5	22.5	0.00e+00	0	34	0	2842689536	51	4315
2026-01-17 06:41:45.10	310.96	16.72	-40.7	-41.5	22.4	0.00e+00	0	34	0	2847932416	52	4087
2026-01-17 06:41:46.11	310.79	16.65	-40.7	-41.5	22.5	0.00e+00	0	34	0	2854223872	52	4061
2026-01-17 06:41:47.11	310.62	16.57	-40.7	-41.5	22.4	0.00e+00	0	34	0	2859466752	52	4076
2026-01-17 06:41:48.12	310.44	16.50	-40.8	-41.6	22.4	0.00e+00	0	34	0	2865758208	52	4116
2026-01-17 06:41:49.13	310.27	16.42	-40.8	-41.6	22.3	0.00e+00	0	34	0	2871001088	52	4138
2026-01-17 06:41:50.13	310.11	16.35	-40.8	-41.6	22.4	0.00e+00	0	34	0	2877292544	52	4111
2026-01-17 06:41:51.14	309.94	16.28	-40.8	-41.6	22.4	0.00e+00	0	34	0	2882535424	52	4126
2026-01-17 06:41:52.15	309.77	16.20	-40.8	-41.6	22.3	0.00e+00	0	34	0	2888826880	52	4126
2026-01-17 06:41:53.16	309.60	16.13	-40.9	-41.7	22.3	0.00e+00	0	34	0	2894069760	52	4171
2026-01-17 06:41:54.17	309.43	16.05	-40.9	-41.8	22.2	0.00e+00	0	34	0	2899312640	52	4201
2026-01-17 06:41:55.18	309.27	15.98	-40.7	-41.5	22.4	0.00e+00	0	34	0	2905604096	52	4058
2026-01-17 06:41:56.18	309.11	15.90	-40.7	-41.5	22.4	0.00e+00	0	34	0	2910846976	52	4070
2026-01-17 06:41:57.19	308.94	15.83	-40.6	-41.5	22.5	0.00e+00	0	34	0	2916089856	52	4052
2026-01-17 06:41:58.20	308.78	15.75	-40.6	-41.4	22.5	0.00e+00	0	34	0	2922381312	52	4038
2026-01-17 06:41:59.21	308.62	15.68	-40.6	-41.4	22.5	0.00e+00	0	34	0	2927624192	52	4006
2026-01-17 06:42:00.21	308.46	15.61	-40.7	-41.5	22.4	0.00e+00	0	34	0	2932867072	52	4094
2026-01-17 06:42:01.22	308.30	15.53	-40.8	-41.6	22.3	0.00e+00	0	34	0	2939158528	52	4109
2026-01-17 06:42:02.23	308.14	15.46	-40.9	-41.7	22.2	0.00e+00	0	34	0	2945449984	52	4172
2026-01-17 06:42:03.24	307.98	15.38	-40.9	-41.7	22.2	0.00e+00	0	34	0	2950692864	52	4180
2026-01-17 06:42:04.25	307.82	15.31	-40.9	-41.7	22.2	0.00e+00	0	34	0	2955935744	52	4165
2026-01-17 06:42:05.26	307.66	15.23	-40.9	-41.7	22.2	0.00e+00	0	34	0	2962227200	52	4184
2026-01-17 06:42:06.27	307.50	15.16	-40.9	-41.8	22.1	0.00e+00	0	34	0	2967470080	52	4210
2026-01-17 06:42:07.28	307.35	15.08	-41.1	-41.9	22.0	0.00e+00	0	34	0	2973761536	52	4264
2026-01-17 06:42:08.29	307.19	15.01	-41.2	-42.1	21.9	0.00e+00	0	34	0	2979004416	52	4341
2026-01-17 06:42:09.30	307.04	14.94	-41.1	-41.9	22.0	0.00e+00	0	34	0	2984247296	52	4269
2026-01-17 06:42:10.31	306.89	14.86	-41.1	-42.0	21.9	0.00e+00	0	34	0	2990538752	52	4312
2026-01-17 06:42:11.31	306.73	14.79	-41.3	-42.1	21.8	0.00e+00	0	34	0	2995781632	53	4130
2026-01-17 06:42:12.32	306.58	14.71	-41.0	-41.9	22.0	0.00e+00	0	34	0	3002073088	53	4010
2026-01-17 06:42:13.33	306.43	14.64	-41.2	-42.0	21.9	0.00e+00	0	34	0	3007315968	53	4074
2026-01-17 06:42:14.34	306.28	14.56	-41.2	-42.0	21.9	0.00e+00	0	34	0	3013607424	53	4073
2026-01-17 06:42:15.35	306.13	14.49	-41.2	-42.0	21.9	0.00e+00	0	34	0	3018850304	53	4075
2026-01-17 06:42:16.36	305.98	14.42	-41.2	-42.1	21.8	0.00e+00	0	34	0	3024093184	53	4126
2026-01-17 06:42:17.36	305.84	14.34	-41.2	-42.1	21.8	0.00e+00	0	34	0	3030384640	53	4118
2026-01-17 06:42:18.37	305.69	14.27	-41.3	-42.2	21.7	0.00e+00	0	34	0	3035627520	53	4153
2026-01-17 06:42:19.38	305.54	14.19	-41.4	-42.2	21.7	0.00e+00	0	34	0	3040870400	53	4179
2026-01-17 06:42:20.39	305.40	14.12	-41.4	-42.3	21.6	0.00e+00	0	34	0	3047161856	53	4199
2026-01-17 06:42:21.39	305.25	14.05	-41.3	-42.1	21.8	0.00e+00	0	34	0	3052404736	53	4119
2026-01-17 06:42:22.40	305.11	13.97	-41.2	-42.1	21.8	0.00e+00	0	34	0	3058696192	53	4105
2026-01-17 06:42:23.41	304.96	13.90	-41.4	-42.2	21.7	0.00e+00	0	34	0	3063939072	53	4172
2026-01-17 06:42:24.42	304.82	13.82	-41.4	-42.3	21.6	0.00e+00	0	34	0	3069181952	53	4205
2026-01-17 06:42:25.43	304.68	13.75	-41.5	-42.4	21.5	0.00e+00	0	34	0	3075473408	53	4253
2026-01-17 06:42:26.44	304.54	13.68	-41.5	-42.3	21.6	0.00e+00	0	34	0	3081764864	53	4230
2026-01-17 06:42:27.44	304.40	13.60	-41.6	-42.4	21.4	0.00e+00	0	34	0	3087007744	53	4283
2026-01-17 06:42:28.45	304.26	13.53	-41.7	-42.6	21.3	0.00e+00	0	34	0	3092250624	53	4368
2026-01-17 06:42:29.46	304.12	13.45	-41.7	-42.7	21.3	0.00e+00	0	34	0	3098542080	54	4146
2026-01-17 06:42:30.47	303.98	13.38	-41.5	-42.4	21.5	0.00e+00	0	34	0	3103784960	54	4016
2026-01-17 06:42:31.48	303.84	13.31	-41.4	-42.2	21.7	0.00e+00	0	34	0	3109027840	54	3951
2026-01-17 06:42:32.48	303.71	13.23	-41.4	-42.3	21.6	0.00e+00	0	34	0	3115319296	54	3967
2026-01-17 06:42:33.49	303.57	13.16	-41.4	-42.3	21.6	0.00e+00	0	34	0	3120562176	54	3981
2026-01-17 06:42:34.49	303.43	13.09	-41.5	-42.3	21.5	0.00e+00	0	34	0	3125805056	54	4002
2026-01-17 06:42:35.50	303.30	13.01	-41.5	-42.4	21.5	0.00e+00	0	34	0	3132096512	54	4010
2026-01-17 06:42:36.51	303.16	12.94	-41.6	-42.4	21.5	0.00e+00	0	34	0	3137339392	54	4046
2026-01-17 06:42:37.52	303.03	12.87	-41.6	-42.5	21.4	0.00e+00	0	34	0	3143630848	54	4079
2026-01-17 06:42:38.53	302.90	12.79	-41.8	-42.7	21.3	0.00e+00	0	34	0	3148873728	54	4148
2026-01-17 06:42:39.54	302.77	12.72	-41.9	-42.8	21.1	0.00e+00	0	34	0	3155165184	54	4199
2026-01-17 06:42:40.55	302.63	12.65	-41.9	-42.8	21.1	0.00e+00	0	34	0	3160408064	54	4219
2026-01-17 06:42:41.55	302.50	12.58	-41.9	-42.8	21.1	0.00e+00	0	34	0	3166699520	54	4197
2026-01-17 06:42:42.56	302.37	12.50	-41.9	-42.8	21.1	0.00e+00	0	34	0	3171942400	54	4204
2026-01-17 06:42:43.57	302.24	12.43	-41.8	-42.7	21.2	0.00e+00	0	34	0	3177185280	54	4163
2026-01-17 06:42:44.58	302.11	12.36	-41.8	-42.7	21.2	0.00e+00	0	34	0	3183476736	54	4149
2026-01-17 06:42:45.59	301.99	12.28	-41.8	-42.7	21.2	0.00e+00	0	34	0	3188719616	54	4161
2026-01-17 06:42:46.59	301.86	12.21	-41.9	-42.8	21.1	0.00e+00	0	34	0	3193962496	54	4221
2026-01-17 06:42:47.60	301.73	12.14	-41.9	-42.8	21.0	0.00e+00	0	34	0	3200253952	54	4234
2026-01-17 06:42:48.61	301.61	12.07	-42.0	-42.9	21.0	0.00e+00	0	34	0	3205496832	54	4271
2026-01-17 06:42:49.62	301.48	11.99	-41.9	-42.8	21.1	0.00e+00	0	34	0	3210739712	54	4204
2026-01-17 06:42:50.63	301.35	11.92	-41.9	-42.8	21.1	0.00e+00	0	34	0	3217031168	54	4217
2026-01-17 06:42:51.64	301.23	11.85	-41.9	-42.8	21.1	0.00e+00	0	34	0	3223322624	54	4198
2026-01-17 06:42:52.64	301.11	11.78	-41.9	-42.8	21.1	0.00e+00	0	34	0	3228565504	54	4204
2026-01-17 06:42:53.65	300.98	11.71	-42.1	-43.0	20.9	0.00e+00	0	34	0	3233808384	54	4297
2026-01-17 06:42:54.66	300.86	11.63	-41.9	-42.9	21.0	0.00e+00	0	34	0	3240099840	54	4243
2026-01-17 06:42:55.67	300.74	11.56	-42.1	-43.0	20.9	0.00e+00	0	34	0	3245342720	54	4310
2026-01-17 06:42:56.68	300.62	11.49	-42.1	-43.1	20.8	0.00e+00	0	34	0	3251634176	54	4347
2026-01-17 06:42:57.68	300.50	11.42	-42.2	-43.1	20.8	0.00e+00	0	34	0	3256877056	54	4351
2026-01-17 06:42:58.69	300.38	11.35	-42.3	-43.2	20.6	0.00e+00	0	34	0	3262119936	55	4185
2026-01-17 06:42:59.70	300.26	11.28	-42.5	-43.4	20.4	0.00e+00	0	34	0	3268411392	55	4276
2026-01-17 06:43:00.71	300.14	11.20	-42.5	-43.4	20.4	0.00e+00	0	34	0	3273654272	55	4272
2026-01-17 06:43:01.72	300.02	11.13	-42.4	-43.4	20.5	0.00e+00	0	34	0	3279945728	55	4244
2026-01-17 06:43:02.73	299.90	11.06	-42.3	-43.3	20.6	0.00e+00	0	34	0	3285188608	55	4206
2026-01-17 06:43:03.74	299.78	10.99	-42.5	-43.5	20.4	0.00e+00	0	34	0	3291480064	55	4303
2026-01-17 06:43:04.75	299.67	10.92	-42.5	-43.4	20.4	0.00e+00	0	34	0	3296722944	55	4278
2026-01-17 06:43:05.75	299.55	10.85	-42.3	-43.3	20.6	0.00e+00	0	34	0	3301965824	55	4200
2026-01-17 06:43:06.76	299.44	10.78	-42.4	-43.4	20.5	0.00e+00	0	34	0	3308257280	55	4247
2026-01-17 06:43:07.77	299.32	10.71	-42.5	-43.4	20.4	0.00e+00	0	34	0	3313500160	55	4279
2026-01-17 06:43:08.78	299.21	10.64	-42.5	-43.5	20.3	0.00e+00	0	34	0	3318743040	55	4320
2026-01-17 06:43:09.79	299.09	10.57	-42.5	-43.5	20.4	0.00e+00	0	34	0	3325034496	55	4307
2026-01-17 06:43:10.80	298.98	10.49	-42.5	-43.4	20.4	0.00e+00	0	34	0	3330277376	55	4283
2026-01-17 06:43:11.80	298.87	10.42	-42.4	-43.3	20.5	0.00e+00	0	34	0	3336568832	55	4230
2026-01-17 06:43:12.81	298.75	10.35	-42.4	-43.4	20.5	0.00e+00	0	34	0	3341811712	55	4249
2026-01-17 06:43:13.82	298.64	10.28	-42.5	-43.4	20.4	0.00e+00	0	34	0	3347054592	55	4282
2026-01-17 06:43:14.83	298.53	10.21	-42.3	-43.3	20.5	0.00e+00	0	34	0	3353346048	55	4203
2026-01-17 06:43:15.84	298.42	10.14	-42.4	-43.4	20.4	0.00e+00	0	34	0	3359637504	55	4247
2026-01-17 06:43:16.85	298.31	10.07	-42.4	-43.4	20.4	0.00e+00	0	34	0	3364880384	55	4267
2026-01-17 06:43:17.86	298.20	10.00	-42.5	-43.4	20.4	0.00e+00	0	34	0	3370123264	55	4277
2026-01-17 06:43:18.86	298.09	9.93	-42.5	-43.4	20.4	0.00e+00	0	34	0	3376414720	55	4291
2026-01-17 06:43:19.87	297.99	9.86	-42.7	-43.6	20.2	0.00e+00	0	34	0	3381657600	55	4388
2026-01-17 06:43:20.88	297.88	9.79	-42.7	-43.6	20.2	0.00e+00	0	34	0	3386900480	56	4140
2026-01-17 06:43:21.89	297.77	9.72	-42.7	-43.6	20.3	0.00e+00	0	34	0	3393191936	56	4143
2026-01-17 06:43:22.90	297.66	9.65	-42.9	-43.8	20.1	0.00e+00	0	34	0	3398434816	56	4237
2026-01-17 06:43:23.90	297.56	9.59	-42.9	-43.9	20.0	0.00e+00	0	34	0	3403677696	56	4263
2026-01-17 06:43:24.91	297.45	9.52	-42.8	-43.8	20.1	0.00e+00	0	34	0	3409969152	56	4223
2026-01-17 06:43:25.92	297.35	9.45	-42.8	-43.8	20.1	0.00e+00	0	34	0	3416260608	56	4218
2026-01-17 06:43:26.93	297.24	9.38	-42.9	-43.9	20.0	0.00e+00	0	34	0	3421503488	56	4268
2026-01-17 06:43:27.94	297.14	9.31	-42.8	-43.8	20.0	0.00e+00	0	34	0	3426746368	56	4226
2026-01-17 06:43:28.94	297.03	9.24	-42.8	-43.8	20.1	0.00e+00	0	34	0	3433037824	56	4216
2026-01-17 06:43:29.95	296.93	9.17	-43.1	-44.1	19.8	0.00e+00	0	34	0	3438280704	56	4376
2026-01-17 06:43:30.96	296.83	9.10	-43.0	-44.0	19.9	0.00e+00	0	34	0	3444572160	56	4300
2026-01-17 06:43:31.97	296.73	9.03	-43.0	-44.0	19.9	0.00e+00	0	34	0	3449815040	56	4293
2026-01-17 06:43:32.98	296.62	8.97	-42.9	-43.9	20.0	0.00e+00	0	34	0	3455057920	56	4251
2026-01-17 06:43:33.98	296.52	8.90	-42.9	-43.9	19.9	0.00e+00	0	34	0	3461349376	56	4282
2026-01-17 06:43:34.99	296.42	8.83	-43.1	-44.1	19.7	0.00e+00	0	34	0	3466592256	56	4361
2026-01-17 06:43:36.00	296.32	8.76	-43.1	-44.1	19.7	0.00e+00	0	34	0	3471835136	56	4381
2026-01-17 06:43:37.01	296.22	8.69	-43.2	-44.3	19.5	0.00e+00	0	34	0	3478126592	57	4211
2026-01-17 06:43:38.02	296.12	8.63	-43.3	-44.4	19.4	0.00e+00	0	34	0	3483369472	57	4272
2026-01-17 06:43:39.02	296.03	8.56	-43.5	-44.5	19.3	0.00e+00	0	34	0	3489660928	57	4330
2026-01-17 06:43:40.03	295.93	8.49	-43.3	-44.3	19.6	0.00e+00	0	34	0	3494903808	57	4218
2026-01-17 06:43:41.04	295.83	8.42	-43.6	-44.7	19.2	0.00e+00	0	34	0	3501195264	57	4393
2026-01-17 06:43:42.05	295.73	8.35	-43.0	-44.1	19.8	0.00e+00	0	34	0	3506438144	57	4102
2026-01-17 06:43:43.06	295.63	8.29	-43.0	-44.1	19.7	0.00e+00	0	34	0	3511681024	57	4102
2026-01-17 06:43:44.07	295.54	8.22	-43.1	-44.1	19.7	0.00e+00	0	34	0	3517972480	57	4130
2026-01-17 06:43:45.08	295.44	8.15	-43.0	-44.1	19.8	0.00e+00	0	34	0	3523215360	57	4103
2026-01-17 06:43:46.08	295.35	8.09	-43.5	-44.6	19.2	0.00e+00	0	34	0	3529506816	57	4343
2026-01-17 06:43:47.09	295.25	8.02	-42.9	-43.9	19.9	0.00e+00	0	34	0	3534749696	57	4042
2026-01-17 06:43:48.10	295.16	7.95	-43.7	-44.8	19.0	0.00e+00	0	34	0	3539992576	58	4225
2026-01-17 06:43:49.11	295.06	7.88	-43.6	-44.6	19.2	0.00e+00	0	34	0	3546284032	58	4143
2026-01-17 06:43:50.12	294.97	7.82	-43.5	-44.6	19.3	0.00e+00	0	34	0	3551526912	58	4113
2026-01-17 06:43:51.13	294.88	7.75	-43.7	-44.9	19.0	0.00e+00	0	34	0	3557818368	58	4246
2026-01-17 06:43:52.13	294.78	7.69	-43.7	-44.9	19.0	0.00e+00	0	34	0	3563061248	58	4246
2026-01-17 06:43:53.14	294.69	7.62	-43.6	-44.7	19.1	0.00e+00	0	34	0	3569352704	58	4186
2026-01-17 06:43:54.15	294.60	7.55	-43.6	-44.7	19.1	0.00e+00	0	34	0	3574595584	58	4181
2026-01-17 06:43:55.16	294.51	7.49	-43.4	-44.5	19.4	0.00e+00	0	34	0	3579838464	58	4053
2026-01-17 06:43:56.17	294.42	7.42	-43.6	-44.7	19.1	0.00e+00	0	34	0	3586129920	58	4175
2026-01-17 06:43:57.17	294.33	7.35	-43.5	-44.6	19.2	0.00e+00	0	34	0	3591372800	58	4123
2026-01-17 06:43:58.18	294.24	7.29	-43.8	-44.9	18.9	0.00e+00	0	34	0	3596615680	58	4251
2026-01-17 06:43:59.19	294.15	7.22	-43.9	-45.1	18.7	0.00e+00	0	34	0	3602907136	58	4350
2026-01-17 06:44:00.20	294.06	7.16	-43.4	-44.4	19.3	0.00e+00	0	34	0	3608150016	58	4041
2026-01-17 06:44:01.20	293.97	7.09	-43.4	-44.4	19.4	0.00e+00	0	34	0	3614441472	58	4035
2026-01-17 06:44:02.21	293.88	7.03	-43.4	-44.4	19.3	0.00e+00	0	34	0	3619684352	58	4036
2026-01-17 06:44:03.22	293.79	6.96	-43.8	-44.9	18.9	0.00e+00	0	34	0	3624927232	58	4259
2026-01-17 06:44:04.23	293.70	6.89	-43.6	-44.7	19.1	0.00e+00	0	34	0	3631218688	58	4150
2026-01-17 06:44:05.24	293.62	6.83	-43.7	-44.8	18.9	0.00e+00	0	34	0	3637510144	58	4227
2026-01-17 06:44:06.24	293.53	6.76	-43.8	-44.9	18.8	0.00e+00	0	34	0	3642753024	58	4257
2026-01-17 06:44:07.25	293.44	6.70	-43.4	-44.5	19.2	0.00e+00	0	34	0	3647995904	58	4054
2026-01-17 06:44:08.26	293.36	6.63	-43.4	-44.5	19.2	0.00e+00	0	34	0	3654287360	58	4082
2026-01-17 06:44:09.27	293.27	6.57	-43.4	-44.4	19.2	0.00e+00	0	34	0	3659530240	58	4050
2026-01-17 06:44:10.28	293.19	6.50	-43.7	-44.9	18.8	0.00e+00	0	34	0	3664773120	58	4245
