passes_logs/2026/01/17/R3.2S_Murmansk/R3.2S_Murmansk__20260117_225512_NOAA_20_JPSS-1_rec.log

#Pass ID: 20260117_225512_NOAA 20 (JPSS-1)
#Satellite: NOAA 20 (JPSS-1)
#Configuration: NOAA 20
#almurnet v.1.7.20251203
#Start time: 2026-01-17 22:55:14

#Version: 2.2.20231116
#Station: R3.2S_Murmansk
#Location: 33.079688 lon 68.888172 lat
#TLE: 1 43013U 17073A   26017.58553584  .00000066  00000+0  52288-4 0  9998
#TLE: 2 43013  98.7639 318.4977 0001406  35.6039 324.5231 14.19536575423107

#Time	Az	El	Level	Level2	SNR	BER	BlckErr	Temp	State	Recorded	gain1	gain2
2026-01-17 22:55:14.71	19.74	2.11	-52.0	-67.0	3.8	1.49e+00	0	34	0	0	76	19239
2026-01-17 22:55:15.72	19.80	2.17	-52.0	-66.9	3.8	1.49e+00	0	34	104	0	74	21474
2026-01-17 22:55:16.73	19.85	2.23	-52.0	-66.9	3.8	1.49e+00	0	34	104	0	74	21429
2026-01-17 22:55:17.74	19.91	2.29	-52.0	-66.9	3.8	1.49e+00	0	34	104	0	74	21446
2026-01-17 22:55:18.74	19.96	2.35	-52.0	-66.9	3.8	1.49e+00	0	34	104	0	74	21454
2026-01-17 22:55:19.75	20.02	2.41	-52.0	-67.0	3.8	1.49e+00	0	34	104	0	74	21548
2026-01-17 22:55:20.76	20.07	2.47	-52.0	-67.0	3.8	1.49e+00	0	34	104	0	74	21521
2026-01-17 22:55:21.77	20.13	2.53	-52.0	-67.0	3.8	1.49e+00	0	34	104	0	74	21524
2026-01-17 22:55:22.78	20.18	2.59	-52.0	-66.9	3.8	1.49e+00	0	34	104	0	74	21453
2026-01-17 22:55:23.79	20.24	2.65	-52.0	-66.8	3.8	1.49e+00	0	34	104	0	74	21162
2026-01-17 22:55:24.79	20.29	2.71	-52.0	-66.8	3.8	1.49e+00	0	34	104	0	74	21064
2026-01-17 22:55:25.80	20.35	2.77	-52.0	-66.7	3.8	1.49e+00	0	34	104	0	74	20956
2026-01-17 22:55:26.81	20.41	2.83	-52.0	-66.6	3.8	1.49e+00	0	34	104	0	74	20776
2026-01-17 22:55:27.82	20.46	2.89	-52.0	-66.5	3.8	1.49e+00	0	34	104	0	74	20468
2026-01-17 22:55:28.83	20.52	2.95	-52.0	-66.5	3.8	1.49e+00	0	34	104	0	74	20438
2026-01-17 22:55:29.84	20.58	3.01	-52.0	-66.6	3.8	1.49e+00	0	34	104	0	74	20607
2026-01-17 22:55:30.85	20.64	3.07	-51.9	-66.5	3.8	1.49e+00	0	34	104	0	74	20402
2026-01-17 22:55:31.85	20.69	3.13	-51.9	-66.6	3.8	1.49e+00	0	34	104	0	74	20649
2026-01-17 22:55:32.86	20.75	3.19	-52.0	-66.7	3.8	1.49e+00	0	34	104	0	74	20811
2026-01-17 22:55:33.87	20.81	3.25	-52.0	-66.6	3.8	1.49e+00	0	34	104	0	74	20700
2026-01-17 22:55:34.88	20.87	3.32	-51.9	-66.5	3.8	1.49e+00	0	34	104	0	74	20457
2026-01-17 22:55:35.88	20.93	3.38	-51.9	-66.4	3.8	1.49e+00	0	34	104	0	74	20266
2026-01-17 22:55:36.89	20.98	3.44	-51.9	-66.4	3.8	1.49e+00	0	34	104	0	74	20077
2026-01-17 22:55:37.90	21.04	3.50	-51.9	-65.9	3.8	1.49e+00	0	34	104	0	74	19111
2026-01-17 22:55:38.90	21.10	3.56	-51.9	-66.0	3.8	1.49e+00	0	35	104	0	74	19287
2026-01-17 22:55:39.91	21.16	3.63	-51.9	-65.8	3.8	1.49e+00	0	34	104	0	74	18912
2026-01-17 22:55:40.92	21.22	3.69	-51.9	-65.7	3.8	1.49e+00	0	34	104	0	74	18612
2026-01-17 22:55:41.93	21.28	3.75	-51.9	-65.9	3.8	1.49e+00	0	34	104	0	74	19029
2026-01-17 22:55:42.94	21.34	3.81	-51.9	-66.0	3.8	1.49e+00	0	35	104	0	74	19366
2026-01-17 22:55:43.94	21.40	3.87	-51.9	-66.1	3.8	1.49e+00	0	34	104	0	74	19427
2026-01-17 22:55:44.95	21.46	3.94	-51.9	-66.2	3.8	1.49e+00	0	35	104	0	74	19750
2026-01-17 22:55:45.96	21.52	4.00	-51.9	-65.9	3.8	1.49e+00	0	35	104	0	74	19007
2026-01-17 22:55:46.97	21.58	4.06	-51.9	-65.7	3.8	1.49e+00	0	35	104	0	74	18712
2026-01-17 22:55:47.98	21.64	4.13	-51.9	-65.1	3.8	1.49e+00	0	35	104	0	74	17352
2026-01-17 22:55:48.98	21.71	4.19	-51.8	-64.2	4.0	1.49e+00	0	35	104	0	74	15634
2026-01-17 22:55:49.99	21.77	4.25	-51.8	-63.5	4.2	1.44e+00	0	35	0	0	74	14442
2026-01-17 22:55:51.00	21.83	4.32	-51.7	-62.8	4.4	1.34e+00	157	35	0	0	74	13361
2026-01-17 22:55:52.01	21.89	4.38	-51.7	-62.2	4.6	1.00e+00	0	35	0	2097152	74	12472
2026-01-17 22:55:53.02	21.95	4.44	-51.6	-61.8	4.8	8.79e-01	0	35	0	4194304	74	11944
2026-01-17 22:55:54.02	22.02	4.51	-51.6	-61.5	5.0	6.79e-01	0	35	0	5242880	74	11439
2026-01-17 22:55:55.03	22.08	4.57	-51.6	-61.3	5.1	6.26e-01	0	35	0	7340032	74	11217
2026-01-17 22:55:56.04	22.14	4.63	-51.6	-61.7	4.8	7.97e-01	0	35	0	9437184	74	11742
2026-01-17 22:55:57.05	22.21	4.70	-51.6	-61.5	4.9	7.61e-01	0	35	0	11534336	74	11522
2026-01-17 22:55:58.06	22.27	4.76	-51.6	-61.4	5.1	5.92e-01	0	35	0	13631488	74	11290
2026-01-17 22:55:59.06	22.33	4.83	-51.6	-61.4	5.0	6.54e-01	0	35	0	14680064	74	11290
2026-01-17 22:56:00.07	22.40	4.89	-51.6	-61.2	5.1	6.56e-01	0	35	0	16777216	74	11089
2026-01-17 22:56:01.08	22.46	4.96	-51.6	-61.0	5.2	5.68e-01	0	35	0	18874368	74	10859
2026-01-17 22:56:02.09	22.53	5.02	-51.6	-61.4	5.0	7.31e-01	0	35	0	20971520	74	11329
2026-01-17 22:56:03.10	22.59	5.09	-51.9	-63.6	4.1	1.25e+00	0	35	0	22020096	74	14640
2026-01-17 22:56:04.10	22.66	5.15	-51.7	-66.0	3.8	1.46e+00	0	35	104	22020096	74	19205
2026-01-17 22:56:05.11	22.72	5.22	-50.7	-56.2	9.6	4.13e-02	0	35	0	22020096	73	6634
2026-01-17 22:56:06.12	22.79	5.28	-49.1	-52.3	13.9	1.29e-05	0	35	0	24117248	70	5041
2026-01-17 22:56:07.12	22.86	5.35	-51.6	-60.3	5.7	1.03e-01	0	35	0	26214400	73	10622
2026-01-17 22:56:08.13	22.92	5.41	-49.4	-52.9	13.3	4.73e-02	0	35	0	27262976	70	5342
2026-01-17 22:56:09.14	22.99	5.48	-49.0	-52.1	14.2	4.50e-06	0	35	0	29360128	70	4889
2026-01-17 22:56:10.15	23.06	5.54	-49.1	-52.2	14.1	1.50e-06	0	35	0	31457280	69	5250
2026-01-17 22:56:11.16	23.12	5.61	-48.9	-51.8	14.5	7.00e-07	0	35	0	33554432	69	5019
2026-01-17 22:56:12.16	23.19	5.68	-48.7	-51.5	14.9	0.00e+00	0	35	0	35651584	69	4818
2026-01-17 22:56:13.17	23.26	5.74	-48.8	-51.8	14.6	1.50e-06	0	35	0	36700160	69	4995
2026-01-17 22:56:14.18	23.33	5.81	-49.0	-52.0	14.4	0.00e+00	0	35	0	38797312	69	5105
2026-01-17 22:56:15.19	23.39	5.88	-48.6	-51.3	15.1	7.00e-07	0	35	0	40894464	69	4717
2026-01-17 22:56:16.19	23.46	5.94	-48.7	-51.5	14.8	0.00e+00	0	35	0	42991616	69	4869
2026-01-17 22:56:17.20	23.53	6.01	-48.6	-51.3	15.1	0.00e+00	0	35	0	45088768	69	4715
2026-01-17 22:56:18.21	23.60	6.08	-48.8	-51.6	14.8	0.00e+00	0	35	0	47185920	69	4895
2026-01-17 22:56:19.22	23.67	6.14	-48.6	-51.3	15.2	0.00e+00	0	35	0	48234496	69	4709
2026-01-17 22:56:20.22	23.74	6.21	-48.7	-51.5	15.0	0.00e+00	0	35	0	50331648	69	4815
2026-01-17 22:56:21.23	23.81	6.28	-48.6	-51.3	15.2	7.00e-07	0	35	0	52428800	69	4741
2026-01-17 22:56:22.24	23.88	6.35	-48.6	-51.3	15.1	0.00e+00	0	35	0	54525952	69	4759
2026-01-17 22:56:23.25	23.95	6.41	-48.6	-51.3	15.2	0.00e+00	0	35	0	55574528	69	4709
2026-01-17 22:56:24.25	24.02	6.48	-48.6	-51.2	15.3	0.00e+00	0	35	0	57671680	69	4692
2026-01-17 22:56:25.26	24.09	6.55	-48.5	-51.1	15.4	0.00e+00	0	35	0	59768832	68	4897
2026-01-17 22:56:26.27	24.17	6.62	-48.4	-51.0	15.5	0.00e+00	0	35	0	61865984	68	4850
2026-01-17 22:56:27.28	24.24	6.69	-48.5	-51.2	15.4	0.00e+00	0	35	0	63963136	68	4936
2026-01-17 22:56:28.28	24.31	6.75	-48.4	-50.9	15.6	0.00e+00	0	35	0	65011712	68	4782
2026-01-17 22:56:29.29	24.38	6.82	-48.3	-50.8	15.7	0.00e+00	0	35	0	67108864	68	4752
2026-01-17 22:56:30.30	24.46	6.89	-48.4	-50.9	15.6	0.00e+00	0	35	0	69206016	68	4786
2026-01-17 22:56:31.31	24.53	6.96	-48.2	-50.5	16.0	0.00e+00	0	35	0	71303168	68	4586
2026-01-17 22:56:32.32	24.60	7.03	-48.1	-50.5	16.1	0.00e+00	0	35	0	73400320	68	4580
2026-01-17 22:56:33.32	24.68	7.10	-48.1	-50.5	16.1	0.00e+00	0	35	0	75497472	68	4571
2026-01-17 22:56:34.33	24.75	7.17	-48.1	-50.5	16.1	0.00e+00	0	35	0	76546048	68	4566
2026-01-17 22:56:35.34	24.82	7.24	-47.8	-50.0	16.5	0.00e+00	0	35	0	78643200	67	4563
2026-01-17 22:56:36.35	24.90	7.31	-47.9	-50.2	16.3	0.00e+00	0	35	0	80740352	67	4678
2026-01-17 22:56:37.36	24.97	7.38	-47.9	-50.2	16.3	0.00e+00	0	35	0	82837504	67	4687
2026-01-17 22:56:38.36	25.05	7.45	-48.0	-50.3	16.2	0.00e+00	0	35	0	83886080	67	4718
2026-01-17 22:56:39.37	25.13	7.52	-47.6	-49.8	16.7	0.00e+00	0	35	0	85983232	67	4458
2026-01-17 22:56:40.38	25.20	7.59	-47.7	-49.8	16.7	0.00e+00	0	35	0	88080384	67	4468
2026-01-17 22:56:41.39	25.28	7.66	-47.7	-49.8	16.8	0.00e+00	0	35	0	90177536	67	4476
2026-01-17 22:56:42.39	25.36	7.73	-47.5	-49.6	17.0	0.00e+00	0	35	0	92274688	67	4356
2026-01-17 22:56:43.40	25.43	7.80	-47.6	-49.6	16.9	0.00e+00	0	35	0	93323264	67	4386
2026-01-17 22:56:44.41	25.51	7.87	-47.5	-49.5	17.1	0.00e+00	0	35	0	95420416	66	4564
2026-01-17 22:56:45.42	25.59	7.94	-47.4	-49.4	17.2	0.00e+00	0	35	0	97517568	66	4515
2026-01-17 22:56:46.43	25.67	8.01	-47.4	-49.4	17.1	0.00e+00	0	35	0	99614720	66	4532
2026-01-17 22:56:47.43	25.75	8.08	-47.4	-49.3	17.2	0.00e+00	0	35	0	101711872	66	4489
2026-01-17 22:56:48.44	25.82	8.15	-47.3	-49.2	17.3	0.00e+00	0	35	0	103809024	66	4440
2026-01-17 22:56:49.45	25.90	8.22	-47.3	-49.2	17.4	0.00e+00	0	35	0	104857600	66	4431
2026-01-17 22:56:50.46	25.98	8.30	-47.3	-49.2	17.4	0.00e+00	0	35	0	106954752	66	4428
2026-01-17 22:56:51.47	26.06	8.37	-47.2	-49.2	17.4	0.00e+00	0	35	0	109051904	66	4404
2026-01-17 22:56:52.47	26.14	8.44	-47.2	-49.1	17.5	0.00e+00	0	35	0	111149056	66	4370
2026-01-17 22:56:53.48	26.23	8.51	-47.1	-49.0	17.6	0.00e+00	0	35	0	112197632	66	4330
2026-01-17 22:56:54.49	26.31	8.59	-47.1	-49.0	17.6	0.00e+00	0	35	0	114294784	66	4331
2026-01-17 22:56:55.50	26.39	8.66	-47.2	-49.1	17.6	0.00e+00	0	35	0	116391936	66	4346
2026-01-17 22:56:56.50	26.47	8.73	-47.1	-49.0	17.7	0.00e+00	0	35	0	118489088	66	4312
2026-01-17 22:56:57.51	26.55	8.80	-47.2	-49.0	17.6	0.00e+00	0	35	0	120586240	66	4340
2026-01-17 22:56:58.52	26.64	8.88	-47.1	-49.0	17.7	0.00e+00	0	35	0	122683392	66	4317
2026-01-17 22:56:59.53	26.72	8.95	-47.3	-49.2	17.4	0.00e+00	0	35	0	123731968	66	4424
2026-01-17 22:57:00.54	26.80	9.02	-47.2	-49.1	17.6	0.00e+00	0	35	0	125829120	66	4362
2026-01-17 22:57:01.55	26.89	9.10	-47.2	-49.1	17.6	0.00e+00	0	35	0	127926272	66	4363
2026-01-17 22:57:02.56	26.97	9.17	-47.1	-48.9	17.8	0.00e+00	0	35	0	130023424	66	4278
2026-01-17 22:57:03.56	27.06	9.24	-47.0	-48.8	17.9	0.00e+00	0	35	0	132120576	66	4241
2026-01-17 22:57:04.57	27.14	9.32	-47.1	-48.9	17.8	0.00e+00	0	35	0	133169152	66	4264
2026-01-17 22:57:05.58	27.23	9.39	-47.1	-48.9	17.8	0.00e+00	0	35	0	135266304	66	4277
2026-01-17 22:57:06.58	27.31	9.47	-47.1	-48.9	17.8	0.00e+00	0	35	0	137363456	66	4271
2026-01-17 22:57:07.59	27.40	9.54	-47.1	-49.0	17.8	0.00e+00	0	35	0	139460608	66	4297
2026-01-17 22:57:08.60	27.49	9.62	-47.1	-49.0	17.8	0.00e+00	0	35	0	140509184	66	4292
2026-01-17 22:57:09.61	27.57	9.69	-46.9	-48.7	18.0	0.00e+00	0	35	0	142606336	65	4409
2026-01-17 22:57:10.62	27.66	9.77	-46.8	-48.6	18.1	0.00e+00	0	35	0	144703488	65	4354
2026-01-17 22:57:11.62	27.75	9.84	-46.9	-48.7	18.1	0.00e+00	0	35	0	146800640	65	4398
2026-01-17 22:57:12.63	27.84	9.92	-46.8	-48.5	18.2	0.00e+00	0	35	0	148897792	65	4316
2026-01-17 22:57:13.64	27.93	9.99	-46.8	-48.6	18.1	0.00e+00	0	35	0	150994944	65	4371
2026-01-17 22:57:14.65	28.02	10.07	-46.8	-48.5	18.3	0.00e+00	0	35	0	152043520	65	4315
2026-01-17 22:57:15.65	28.11	10.14	-46.8	-48.6	18.2	0.00e+00	0	35	0	154140672	65	4364
2026-01-17 22:57:16.66	28.20	10.22	-46.7	-48.4	18.3	0.00e+00	0	35	0	156237824	65	4269
2026-01-17 22:57:17.67	28.29	10.30	-46.7	-48.4	18.3	0.00e+00	0	35	0	158334976	65	4282
2026-01-17 22:57:18.68	28.38	10.37	-46.7	-48.3	18.4	0.00e+00	0	35	0	160432128	65	4241
2026-01-17 22:57:19.69	28.47	10.45	-46.7	-48.4	18.3	0.00e+00	0	35	0	161480704	65	4277
2026-01-17 22:57:20.70	28.56	10.53	-46.8	-48.5	18.2	0.00e+00	0	35	0	163577856	65	4331
2026-01-17 22:57:21.70	28.65	10.60	-46.8	-48.6	18.2	0.00e+00	0	35	0	165675008	65	4355
2026-01-17 22:57:22.71	28.75	10.68	-46.9	-48.7	18.0	0.00e+00	0	35	0	167772160	65	4437
2026-01-17 22:57:23.72	28.84	10.76	-46.8	-48.6	18.2	0.00e+00	0	35	0	169869312	65	4365
2026-01-17 22:57:24.73	28.94	10.84	-46.7	-48.5	18.3	0.00e+00	0	35	0	170917888	65	4294
2026-01-17 22:57:25.74	29.03	10.91	-46.8	-48.6	18.2	0.00e+00	0	35	0	173015040	65	4350
2026-01-17 22:57:26.74	29.12	10.99	-46.9	-48.6	18.1	0.00e+00	0	35	0	175112192	65	4375
2026-01-17 22:57:27.75	29.22	11.07	-46.8	-48.6	18.2	0.00e+00	0	35	0	177209344	65	4349
2026-01-17 22:57:28.76	29.32	11.15	-46.9	-48.7	18.1	0.00e+00	0	35	0	179306496	65	4419
2026-01-17 22:57:29.77	29.41	11.23	-46.7	-48.5	18.3	0.00e+00	0	35	0	180355072	65	4292
2026-01-17 22:57:30.78	29.51	11.31	-46.6	-48.3	18.5	0.00e+00	0	35	0	182452224	65	4204
2026-01-17 22:57:31.79	29.61	11.38	-46.5	-48.1	18.7	0.00e+00	0	35	0	184549376	65	4130
2026-01-17 22:57:32.80	29.71	11.46	-46.6	-48.3	18.5	0.00e+00	0	35	0	186646528	65	4213
2026-01-17 22:57:33.80	29.80	11.54	-46.6	-48.2	18.6	0.00e+00	0	35	0	188743680	65	4179
2026-01-17 22:57:34.81	29.90	11.62	-46.6	-48.2	18.6	0.00e+00	0	35	0	190840832	65	4179
2026-01-17 22:57:35.82	30.00	11.70	-46.6	-48.2	18.6	0.00e+00	0	35	0	191889408	65	4175
2026-01-17 22:57:36.83	30.10	11.78	-46.4	-48.0	18.8	0.00e+00	0	35	0	193986560	64	4336
2026-01-17 22:57:37.84	30.20	11.86	-46.3	-47.9	18.9	0.00e+00	0	35	0	196083712	64	4282
2026-01-17 22:57:38.85	30.30	11.94	-46.2	-47.8	19.0	0.00e+00	0	35	0	198180864	64	4214
2026-01-17 22:57:39.86	30.41	12.02	-46.3	-47.9	18.9	0.00e+00	0	35	0	199229440	64	4277
2026-01-17 22:57:40.86	30.51	12.10	-46.3	-47.9	18.9	0.00e+00	0	35	0	201326592	64	4268
2026-01-17 22:57:41.87	30.61	12.18	-46.2	-47.8	19.1	0.00e+00	0	35	0	203423744	64	4212
2026-01-17 22:57:42.88	30.71	12.26	-46.2	-47.7	19.1	0.00e+00	0	35	0	205520896	64	4177
2026-01-17 22:57:43.89	30.82	12.35	-46.2	-47.8	19.1	0.00e+00	0	35	0	207618048	64	4214
2026-01-17 22:57:44.90	30.92	12.43	-46.3	-47.8	19.0	0.00e+00	0	35	0	208666624	64	4230
2026-01-17 22:57:45.90	31.02	12.51	-46.3	-47.8	19.0	0.00e+00	0	35	0	210763776	64	4235
2026-01-17 22:57:46.91	31.13	12.59	-46.2	-47.7	19.1	0.00e+00	0	35	0	212860928	64	4192
2026-01-17 22:57:47.92	31.24	12.67	-46.3	-47.9	19.0	0.00e+00	0	35	0	214958080	64	4271
2026-01-17 22:57:48.93	31.34	12.75	-46.3	-47.8	19.1	0.00e+00	0	35	0	217055232	64	4219
2026-01-17 22:57:49.94	31.45	12.84	-46.3	-47.9	19.0	0.00e+00	0	35	0	219152384	64	4247
2026-01-17 22:57:50.94	31.56	12.92	-46.3	-47.9	19.0	0.00e+00	0	35	0	220200960	64	4272
2026-01-17 22:57:51.95	31.66	13.00	-46.4	-48.0	19.0	0.00e+00	0	35	0	222298112	64	4296
2026-01-17 22:57:52.96	31.77	13.08	-46.3	-47.8	19.1	0.00e+00	0	35	0	224395264	64	4233
2026-01-17 22:57:53.97	31.88	13.17	-46.5	-48.1	18.8	0.00e+00	0	35	0	226492416	64	4378
2026-01-17 22:57:54.98	31.99	13.25	-46.4	-48.0	18.9	0.00e+00	0	35	0	227540992	64	4298
2026-01-17 22:57:55.98	32.10	13.33	-46.3	-47.9	19.0	0.00e+00	0	35	0	229638144	64	4266
2026-01-17 22:57:56.99	32.21	13.42	-46.4	-48.0	18.9	0.00e+00	0	35	0	231735296	64	4320
2026-01-17 22:57:58.00	32.33	13.50	-46.4	-48.0	18.9	0.00e+00	0	35	0	233832448	64	4324
2026-01-17 22:57:59.01	32.44	13.58	-46.5	-48.1	18.8	0.00e+00	0	35	0	235929600	64	4352
2026-01-17 22:58:00.02	32.55	13.67	-46.6	-48.2	18.7	0.00e+00	0	35	0	238026752	64	4408
2026-01-17 22:58:01.02	32.66	13.75	-46.5	-48.1	18.8	0.00e+00	0	35	0	239075328	64	4382
2026-01-17 22:58:02.03	32.78	13.84	-46.5	-48.1	18.8	0.00e+00	0	35	0	241172480	64	4371
2026-01-17 22:58:03.04	32.89	13.92	-46.6	-48.2	18.7	0.00e+00	0	35	0	243269632	64	4431
2026-01-17 22:58:04.05	33.01	14.01	-46.6	-48.3	18.7	0.00e+00	0	35	0	245366784	64	4454
2026-01-17 22:58:05.06	33.12	14.09	-46.7	-48.4	18.6	0.00e+00	0	35	0	247463936	64	4494
2026-01-17 22:58:06.06	33.24	14.18	-46.6	-48.2	18.7	0.00e+00	0	35	0	248512512	64	4424
2026-01-17 22:58:07.07	33.36	14.26	-46.6	-48.3	18.7	0.00e+00	0	35	0	250609664	64	4459
2026-01-17 22:58:08.08	33.48	14.35	-46.6	-48.2	18.7	0.00e+00	0	35	0	252706816	64	4427
2026-01-17 22:58:09.09	33.59	14.43	-46.6	-48.3	18.7	0.00e+00	0	35	0	254803968	64	4458
2026-01-17 22:58:10.10	33.71	14.52	-46.6	-48.2	18.7	0.00e+00	0	35	0	255852544	64	4440
2026-01-17 22:58:11.10	33.83	14.61	-46.7	-48.3	18.7	0.00e+00	0	35	0	257949696	64	4462
2026-01-17 22:58:12.11	33.95	14.69	-46.7	-48.3	18.7	0.00e+00	0	35	0	260046848	64	4463
2026-01-17 22:58:13.12	34.08	14.78	-46.7	-48.3	18.6	0.00e+00	0	35	0	262144000	64	4486
2026-01-17 22:58:14.12	34.20	14.87	-46.7	-48.3	18.7	0.00e+00	0	35	0	264241152	64	4482
2026-01-17 22:58:15.13	34.32	14.95	-46.6	-48.2	18.8	0.00e+00	0	35	0	266338304	64	4402
2026-01-17 22:58:16.14	34.44	15.04	-46.6	-48.2	18.8	0.00e+00	0	35	0	267386880	64	4430
2026-01-17 22:58:17.15	34.57	15.13	-46.6	-48.3	18.8	0.00e+00	0	35	0	269484032	64	4445
2026-01-17 22:58:18.16	34.69	15.22	-46.7	-48.4	18.6	0.00e+00	0	35	0	271581184	64	4498
2026-01-17 22:58:19.16	34.82	15.30	-46.7	-48.4	18.6	0.00e+00	0	35	0	273678336	64	4511
2026-01-17 22:58:20.17	34.94	15.39	-46.9	-48.6	18.4	0.00e+00	0	35	0	275775488	64	4601
2026-01-17 22:58:21.18	35.07	15.48	-46.8	-48.5	18.5	0.00e+00	0	35	0	276824064	64	4577
2026-01-17 22:58:22.19	35.20	15.57	-46.8	-48.5	18.5	0.00e+00	0	35	0	278921216	64	4588
2026-01-17 22:58:23.20	35.33	15.66	-46.8	-48.5	18.5	0.00e+00	0	35	0	281018368	64	4579
2026-01-17 22:58:24.20	35.45	15.75	-46.8	-48.5	18.5	0.00e+00	0	35	0	283115520	64	4585
2026-01-17 22:58:25.21	35.58	15.83	-46.8	-48.5	18.5	0.00e+00	0	36	0	285212672	64	4569
2026-01-17 22:58:26.22	35.71	15.92	-46.8	-48.5	18.5	0.00e+00	0	35	0	286261248	64	4555
2026-01-17 22:58:27.23	35.85	16.01	-46.8	-48.5	18.5	0.00e+00	0	35	0	288358400	64	4560
2026-01-17 22:58:28.24	35.98	16.10	-46.9	-48.5	18.5	0.00e+00	0	35	0	290455552	64	4595
2026-01-17 22:58:29.24	36.11	16.19	-46.8	-48.5	18.5	0.00e+00	0	35	0	292552704	64	4581
2026-01-17 22:58:30.25	36.24	16.28	-46.8	-48.4	18.6	0.00e+00	0	35	0	294649856	64	4543
2026-01-17 22:58:31.26	36.38	16.37	-46.8	-48.5	18.6	0.00e+00	0	35	0	295698432	64	4561
2026-01-17 22:58:32.27	36.51	16.46	-46.8	-48.5	18.5	0.00e+00	0	35	0	297795584	64	4560
2026-01-17 22:58:33.28	36.65	16.55	-46.8	-48.5	18.5	0.00e+00	0	35	0	299892736	64	4582
2026-01-17 22:58:34.28	36.78	16.64	-46.9	-48.6	18.4	0.00e+00	0	35	0	301989888	64	4636
2026-01-17 22:58:35.29	36.92	16.74	-46.9	-48.6	18.4	0.00e+00	0	35	0	304087040	64	4648
2026-01-17 22:58:36.30	37.06	16.83	-46.9	-48.6	18.4	0.00e+00	0	35	0	305135616	64	4651
2026-01-17 22:58:37.30	37.20	16.92	-46.8	-48.5	18.6	0.00e+00	0	35	0	307232768	64	4546
2026-01-17 22:58:38.31	37.34	17.01	-46.9	-48.6	18.5	0.00e+00	0	35	0	309329920	64	4600
2026-01-17 22:58:39.32	37.48	17.10	-46.7	-48.4	18.7	0.00e+00	0	36	0	311427072	64	4508
2026-01-17 22:58:40.32	37.62	17.19	-46.6	-48.2	18.9	0.00e+00	0	35	0	313524224	64	4395
2026-01-17 22:58:41.33	37.76	17.28	-46.5	-48.1	19.0	0.00e+00	0	35	0	314572800	64	4359
2026-01-17 22:58:42.34	37.91	17.38	-46.3	-47.8	19.2	0.00e+00	0	35	0	316669952	64	4234
2026-01-17 22:58:43.35	38.05	17.47	-46.3	-47.8	19.3	0.00e+00	0	35	0	318767104	64	4197
2026-01-17 22:58:44.36	38.20	17.56	-46.4	-47.9	19.2	0.00e+00	0	35	0	320864256	64	4277
2026-01-17 22:58:45.36	38.34	17.65	-46.5	-48.0	19.0	0.00e+00	0	35	0	322961408	64	4320
2026-01-17 22:58:46.37	38.49	17.75	-46.4	-47.9	19.1	0.00e+00	0	35	0	324009984	64	4282
2026-01-17 22:58:47.38	38.64	17.84	-46.5	-48.0	19.0	0.00e+00	0	35	0	326107136	64	4326
2026-01-17 22:58:48.39	38.78	17.93	-46.5	-48.1	19.0	0.00e+00	0	35	0	328204288	64	4362
2026-01-17 22:58:49.40	38.93	18.03	-46.5	-48.1	19.0	0.00e+00	0	35	0	330301440	64	4346
2026-01-17 22:58:50.40	39.08	18.12	-46.6	-48.2	18.9	0.00e+00	0	35	0	332398592	64	4425
2026-01-17 22:58:51.41	39.23	18.21	-46.6	-48.1	18.9	0.00e+00	0	35	0	333447168	64	4388
2026-01-17 22:58:52.42	39.39	18.31	-46.5	-48.1	19.0	0.00e+00	0	36	0	335544320	64	4364
2026-01-17 22:58:53.42	39.54	18.40	-46.5	-48.1	19.1	0.00e+00	0	35	0	337641472	64	4341
2026-01-17 22:58:54.43	39.69	18.50	-46.4	-48.0	19.1	0.00e+00	0	36	0	339738624	64	4316
2026-01-17 22:58:55.44	39.85	18.59	-46.4	-47.9	19.2	0.00e+00	0	35	0	341835776	64	4260
2026-01-17 22:58:56.45	40.00	18.68	-46.3	-47.8	19.3	0.00e+00	0	35	0	342884352	64	4197
2026-01-17 22:58:57.46	40.16	18.78	-46.3	-47.8	19.3	0.00e+00	0	35	0	344981504	64	4218
2026-01-17 22:58:58.46	40.32	18.87	-46.3	-47.8	19.3	0.00e+00	0	36	0	347078656	64	4213
2026-01-17 22:58:59.47	40.47	18.97	-46.3	-47.8	19.3	0.00e+00	0	35	0	349175808	64	4222
2026-01-17 22:59:00.48	40.63	19.06	-46.3	-47.9	19.2	0.00e+00	0	35	0	351272960	64	4248
2026-01-17 22:59:01.49	40.79	19.16	-46.4	-48.0	19.1	0.00e+00	0	35	0	352321536	64	4306
2026-01-17 22:59:02.50	40.96	19.26	-46.4	-48.0	19.1	0.00e+00	0	35	0	354418688	64	4294
2026-01-17 22:59:03.50	41.12	19.35	-46.5	-48.1	19.0	0.00e+00	0	36	0	356515840	64	4373
2026-01-17 22:59:04.51	41.28	19.45	-46.6	-48.1	19.0	0.00e+00	0	35	0	358612992	64	4390
2026-01-17 22:59:05.52	41.45	19.54	-46.5	-48.1	19.0	0.00e+00	0	35	0	360710144	64	4353
2026-01-17 22:59:06.53	41.61	19.64	-46.5	-48.1	19.0	0.00e+00	0	35	0	361758720	64	4362
2026-01-17 22:59:07.54	41.78	19.74	-46.4	-47.9	19.2	0.00e+00	0	35	0	363855872	64	4254
2026-01-17 22:59:08.54	41.94	19.83	-46.3	-47.8	19.3	0.00e+00	0	35	0	365953024	64	4227
2026-01-17 22:59:09.55	42.11	19.93	-46.2	-47.7	19.4	0.00e+00	0	35	0	368050176	64	4172
2026-01-17 22:59:10.56	42.28	20.03	-46.1	-47.5	19.6	0.00e+00	0	35	0	370147328	64	4098
2026-01-17 22:59:11.57	42.45	20.12	-46.1	-47.6	19.6	0.00e+00	0	36	0	371195904	63	4359
2026-01-17 22:59:12.58	42.63	20.22	-46.1	-47.5	19.7	0.00e+00	0	35	0	373293056	63	4318
2026-01-17 22:59:13.58	42.80	20.32	-46.0	-47.5	19.7	0.00e+00	0	35	0	375390208	63	4300
2026-01-17 22:59:14.59	42.97	20.41	-46.2	-47.6	19.6	0.00e+00	0	35	0	377487360	63	4368
2026-01-17 22:59:15.60	43.15	20.51	-46.2	-47.6	19.6	0.00e+00	0	35	0	379584512	63	4373
2026-01-17 22:59:16.61	43.32	20.61	-46.2	-47.7	19.5	0.00e+00	0	35	0	381681664	63	4418
2026-01-17 22:59:17.61	43.50	20.71	-46.2	-47.6	19.6	0.00e+00	0	35	0	382730240	63	4390
2026-01-17 22:59:18.62	43.68	20.80	-46.2	-47.7	19.6	0.00e+00	0	35	0	384827392	63	4400
2026-01-17 22:59:19.63	43.85	20.90	-46.0	-47.5	19.7	0.00e+00	0	35	0	386924544	63	4295
2026-01-17 22:59:20.64	44.04	21.00	-46.0	-47.3	19.9	0.00e+00	0	35	0	389021696	63	4242
2026-01-17 22:59:21.65	44.22	21.10	-45.8	-47.2	20.0	0.00e+00	0	35	0	390070272	63	4159
2026-01-17 22:59:22.65	44.40	21.19	-45.9	-47.2	20.0	0.00e+00	0	35	0	392167424	63	4189
2026-01-17 22:59:23.66	44.58	21.29	-45.8	-47.1	20.1	0.00e+00	0	35	0	394264576	63	4141
2026-01-17 22:59:24.67	44.77	21.39	-45.6	-47.0	20.2	0.00e+00	0	35	0	396361728	63	4054
2026-01-17 22:59:25.68	44.95	21.49	-45.7	-47.1	20.2	0.00e+00	0	35	0	398458880	63	4108
2026-01-17 22:59:26.69	45.14	21.59	-45.6	-46.9	20.3	0.00e+00	0	35	0	399507456	63	4041
2026-01-17 22:59:27.70	45.33	21.69	-45.7	-47.1	20.1	0.00e+00	0	35	0	401604608	63	4115
2026-01-17 22:59:28.70	45.52	21.79	-45.6	-46.9	20.3	0.00e+00	0	35	0	403701760	63	4025
2026-01-17 22:59:29.71	45.71	21.88	-45.7	-47.0	20.3	0.00e+00	0	35	0	405798912	63	4070
2026-01-17 22:59:30.72	45.90	21.98	-45.4	-46.7	20.5	0.00e+00	0	36	0	407896064	62	4172
2026-01-17 22:59:31.73	46.09	22.08	-45.2	-46.5	20.7	0.00e+00	0	35	0	409993216	62	4068
2026-01-17 22:59:32.74	46.29	22.18	-45.3	-46.6	20.7	0.00e+00	0	35	0	411041792	62	4110
2026-01-17 22:59:33.74	46.48	22.28	-45.0	-46.3	20.9	0.00e+00	0	35	0	413138944	62	3968
2026-01-17 22:59:34.75	46.68	22.38	-45.1	-46.3	20.9	0.00e+00	0	35	0	415236096	62	3969
2026-01-17 22:59:35.76	46.88	22.48	-45.1	-46.4	20.8	0.00e+00	0	35	0	417333248	62	4008
2026-01-17 22:59:36.77	47.08	22.58	-45.1	-46.4	20.8	0.00e+00	0	35	0	418381824	62	4020
2026-01-17 22:59:37.78	47.28	22.68	-45.3	-46.5	20.7	0.00e+00	0	35	0	420478976	62	4076
2026-01-17 22:59:38.79	47.48	22.78	-45.3	-46.6	20.6	0.00e+00	0	35	0	422576128	62	4132
2026-01-17 22:59:39.79	47.68	22.87	-45.3	-46.6	20.6	0.00e+00	0	35	0	424673280	62	4123
2026-01-17 22:59:40.80	47.88	22.97	-45.4	-46.7	20.6	0.00e+00	0	35	0	426770432	62	4153
2026-01-17 22:59:41.81	48.09	23.07	-45.3	-46.6	20.6	0.00e+00	0	35	0	428867584	62	4123
2026-01-17 22:59:42.82	48.30	23.17	-45.2	-46.4	20.8	0.00e+00	0	35	0	429916160	62	4044
2026-01-17 22:59:43.82	48.50	23.27	-45.1	-46.4	20.8	0.00e+00	0	36	0	432013312	62	4021
2026-01-17 22:59:44.83	48.71	23.37	-45.1	-46.4	20.8	0.00e+00	0	35	0	434110464	62	4015
2026-01-17 22:59:45.84	48.92	23.47	-45.2	-46.5	20.7	0.00e+00	0	36	0	436207616	62	4071
2026-01-17 22:59:46.85	49.13	23.57	-45.3	-46.5	20.8	0.00e+00	0	35	0	438304768	62	4080
2026-01-17 22:59:47.86	49.35	23.67	-45.3	-46.6	20.6	0.00e+00	0	35	0	439353344	62	4118
2026-01-17 22:59:48.86	49.56	23.77	-45.4	-46.7	20.6	0.00e+00	0	35	0	441450496	62	4149
2026-01-17 22:59:49.87	49.78	23.87	-45.5	-46.8	20.4	0.00e+00	0	35	0	443547648	62	4233
2026-01-17 22:59:50.88	49.99	23.97	-45.5	-46.8	20.4	0.00e+00	0	35	0	445644800	62	4240
2026-01-17 22:59:51.88	50.21	24.06	-45.6	-46.9	20.4	0.00e+00	0	35	0	446693376	62	4271
2026-01-17 22:59:52.89	50.43	24.16	-45.7	-47.1	20.2	0.00e+00	0	35	0	448790528	62	4350
2026-01-17 22:59:53.90	50.65	24.26	-45.6	-46.9	20.4	0.00e+00	0	35	0	450887680	62	4273
2026-01-17 22:59:54.91	50.87	24.36	-45.5	-46.8	20.6	0.00e+00	0	35	0	452984832	62	4195
2026-01-17 22:59:55.92	51.10	24.46	-45.5	-46.8	20.4	0.00e+00	0	36	0	455081984	62	4224
2026-01-17 22:59:56.92	51.32	24.56	-45.5	-46.8	20.4	0.00e+00	0	35	0	457179136	62	4236
2026-01-17 22:59:57.93	51.55	24.66	-45.5	-46.8	20.4	0.00e+00	0	35	0	458227712	62	4220
2026-01-17 22:59:58.94	51.78	24.76	-45.6	-46.9	20.4	0.00e+00	0	36	0	460324864	62	4274
2026-01-17 22:59:59.95	52.01	24.86	-45.6	-46.9	20.3	0.00e+00	0	36	0	462422016	62	4285
2026-01-17 23:00:00.91	52.23	24.95	-45.7	-47.0	20.3	0.00e+00	0	35	0	464519168	62	4322
2026-01-17 23:00:01.92	52.46	25.05	-45.6	-46.9	20.4	0.00e+00	0	35	0	466616320	62	4272
2026-01-17 23:00:02.92	52.69	25.15	-45.6	-46.9	20.4	0.00e+00	0	35	0	467664896	62	4289
2026-01-17 23:00:03.93	52.93	25.24	-45.7	-47.0	20.3	0.00e+00	0	36	0	469762048	62	4305
2026-01-17 23:00:04.94	53.16	25.34	-45.6	-47.0	20.3	0.00e+00	0	35	0	471859200	62	4292
2026-01-17 23:00:05.95	53.40	25.44	-45.6	-46.9	20.3	0.00e+00	0	35	0	473956352	62	4288
2026-01-17 23:00:06.96	53.64	25.54	-45.8	-47.1	20.2	0.00e+00	0	35	0	475004928	62	4385
2026-01-17 23:00:07.96	53.88	25.63	-46.0	-47.4	19.5	0.00e+00	0	35	0	477102080	62	4507
2026-01-17 23:00:08.97	54.12	25.73	-46.2	-47.6	19.7	0.00e+00	0	35	0	479199232	62	4627
2026-01-17 23:00:09.98	54.37	25.83	-46.3	-47.7	19.6	0.00e+00	0	35	0	481296384	63	4424
2026-01-17 23:00:10.98	54.61	25.93	-46.4	-47.8	19.5	0.00e+00	0	35	0	483393536	63	4483
2026-01-17 23:00:11.99	54.86	26.02	-46.4	-47.9	19.4	0.00e+00	0	35	0	484442112	63	4535
2026-01-17 23:00:13.00	55.10	26.12	-46.5	-48.0	19.4	0.00e+00	0	35	0	486539264	63	4551
2026-01-17 23:00:14.01	55.35	26.22	-46.4	-47.9	19.4	0.00e+00	0	35	0	488636416	63	4520
2026-01-17 23:00:15.02	55.61	26.31	-46.4	-47.9	19.4	0.00e+00	0	36	0	490733568	63	4522
2026-01-17 23:00:16.02	55.86	26.41	-46.3	-47.7	19.6	0.00e+00	0	35	0	492830720	63	4418
2026-01-17 23:00:17.03	56.11	26.50	-46.4	-47.9	19.4	0.00e+00	0	35	0	494927872	63	4523
2026-01-17 23:00:18.04	56.37	26.60	-46.5	-48.0	19.4	0.00e+00	0	36	0	495976448	63	4565
2026-01-17 23:00:19.05	56.62	26.69	-46.5	-48.0	19.3	0.00e+00	0	35	0	498073600	63	4559
2026-01-17 23:00:20.06	56.88	26.79	-46.6	-48.1	19.3	0.00e+00	0	36	0	500170752	63	4634
2026-01-17 23:00:21.06	57.14	26.88	-46.7	-48.3	19.0	0.00e+00	0	35	0	502267904	64	4454
2026-01-17 23:00:22.07	57.40	26.98	-46.9	-48.6	18.7	0.00e+00	0	35	0	503316480	64	4616
2026-01-17 23:00:23.08	57.67	27.07	-47.0	-48.6	18.7	0.00e+00	0	35	0	505413632	64	4630
2026-01-17 23:00:24.08	57.93	27.16	-47.0	-48.7	18.6	0.00e+00	0	35	0	507510784	64	4684
2026-01-17 23:00:25.10	58.20	27.26	-47.0	-48.6	18.6	0.00e+00	0	35	0	509607936	64	4640
2026-01-17 23:00:26.10	58.46	27.35	-47.0	-48.6	18.7	0.00e+00	0	35	0	511705088	64	4612
2026-01-17 23:00:27.11	58.73	27.44	-47.1	-48.7	18.6	0.00e+00	0	35	0	513802240	64	4681
2026-01-17 23:00:28.12	59.00	27.54	-47.3	-49.0	18.3	0.00e+00	0	35	0	514850816	65	4586
2026-01-17 23:00:29.13	59.28	27.63	-47.5	-49.4	17.9	0.00e+00	0	35	0	516947968	65	4761
2026-01-17 23:00:30.14	59.55	27.72	-48.0	-50.0	17.3	0.00e+00	0	35	0	519045120	66	4856
2026-01-17 23:00:31.15	59.83	27.81	-48.2	-50.3	17.0	0.00e+00	0	35	0	521142272	67	4717
2026-01-17 23:00:32.16	60.10	27.90	-48.4	-50.5	16.8	0.00e+00	0	35	0	523239424	67	4863
2026-01-17 23:00:33.16	60.38	27.99	-48.5	-50.6	16.7	0.00e+00	0	35	0	524288000	67	4918
2026-01-17 23:00:34.17	60.66	28.08	-48.3	-50.4	17.0	0.00e+00	0	35	0	526385152	67	4768
2026-01-17 23:00:35.18	60.94	28.17	-48.3	-50.4	17.0	0.00e+00	0	35	0	528482304	67	4763
2026-01-17 23:00:36.19	61.23	28.26	-48.3	-50.3	17.0	0.00e+00	0	35	0	530579456	67	4754
2026-01-17 23:00:37.19	61.51	28.35	-48.3	-50.3	17.0	0.00e+00	0	35	0	531628032	67	4744
2026-01-17 23:00:38.20	61.80	28.44	-48.3	-50.4	17.0	0.00e+00	0	35	0	533725184	67	4783
2026-01-17 23:00:39.21	62.08	28.53	-48.3	-50.5	16.9	0.00e+00	0	35	0	535822336	67	4815
2026-01-17 23:00:40.22	62.37	28.61	-48.4	-50.5	16.9	0.00e+00	0	35	0	537919488	67	4828
2026-01-17 23:00:41.22	62.66	28.70	-48.2	-50.3	17.1	0.00e+00	0	36	0	540016640	67	4720
2026-01-17 23:00:42.23	62.95	28.79	-48.1	-50.1	17.2	0.00e+00	0	35	0	542113792	67	4648
2026-01-17 23:00:43.24	63.25	28.87	-48.2	-50.2	17.1	0.00e+00	0	35	0	543162368	67	4703
2026-01-17 23:00:44.24	63.54	28.96	-48.1	-50.0	17.3	0.00e+00	0	35	0	545259520	67	4586
2026-01-17 23:00:45.25	63.84	29.04	-48.0	-50.0	17.4	0.00e+00	0	35	0	547356672	67	4561
2026-01-17 23:00:46.26	64.14	29.13	-48.2	-50.3	17.1	0.00e+00	0	35	0	549453824	67	4710
2026-01-17 23:00:47.27	64.44	29.21	-48.5	-50.6	16.8	0.00e+00	0	35	0	551550976	67	4905
2026-01-17 23:00:48.28	64.74	29.29	-48.5	-50.6	16.8	0.00e+00	0	36	0	552599552	67	4901
2026-01-17 23:00:49.28	65.04	29.37	-48.3	-50.4	17.0	0.00e+00	0	35	0	554696704	67	4789
2026-01-17 23:00:50.29	65.35	29.46	-48.1	-50.2	17.2	0.00e+00	0	35	0	556793856	67	4657
2026-01-17 23:00:51.30	65.65	29.54	-47.9	-49.8	17.7	0.00e+00	0	35	0	558891008	67	4442
2026-01-17 23:00:52.31	65.96	29.62	-47.6	-49.3	18.0	0.00e+00	0	35	0	560988160	67	4240
2026-01-17 23:00:53.32	66.27	29.70	-47.5	-49.2	18.1	0.00e+00	0	35	0	562036736	66	4434
2026-01-17 23:00:54.32	66.58	29.78	-47.4	-49.1	18.3	0.00e+00	0	35	0	564133888	66	4358
2026-01-17 23:00:55.33	66.89	29.85	-47.4	-49.2	18.2	0.00e+00	0	35	0	566231040	66	4396
2026-01-17 23:00:56.34	67.21	29.93	-47.7	-49.6	17.8	0.00e+00	0	35	0	568328192	66	4609
2026-01-17 23:00:57.35	67.52	30.01	-48.0	-50.0	17.4	0.00e+00	0	35	0	570425344	66	4834
2026-01-17 23:00:58.36	67.84	30.09	-48.3	-50.4	17.0	0.00e+00	0	35	0	571473920	67	4804
2026-01-17 23:00:59.37	68.16	30.16	-48.4	-50.5	16.9	0.00e+00	0	35	0	573571072	67	4849
2026-01-17 23:01:00.38	68.48	30.24	-48.3	-50.4	17.0	0.00e+00	0	35	0	575668224	67	4764
2026-01-17 23:01:01.38	68.80	30.31	-48.1	-50.1	17.2	0.00e+00	0	36	0	577765376	67	4630
2026-01-17 23:01:02.39	69.12	30.38	-47.9	-49.8	17.6	0.00e+00	0	35	0	579862528	67	4489
2026-01-17 23:01:03.40	69.44	30.46	-47.7	-49.6	17.8	0.00e+00	0	35	0	580911104	67	4347
2026-01-17 23:01:04.41	69.77	30.53	-47.9	-49.7	17.7	0.00e+00	0	35	0	583008256	67	4435
2026-01-17 23:01:05.41	70.09	30.60	-48.3	-50.4	17.1	0.00e+00	0	35	0	585105408	67	4766
2026-01-17 23:01:06.42	70.42	30.67	-48.9	-51.2	16.3	0.00e+00	0	35	0	587202560	68	4951
2026-01-17 23:01:07.43	70.75	30.74	-49.5	-52.1	15.4	0.00e+00	0	35	0	589299712	69	5202
2026-01-17 23:01:08.44	71.08	30.81	-50.0	-52.9	14.6	0.00e+00	0	35	0	590348288	70	5366
2026-01-17 23:01:09.45	71.42	30.87	-50.0	-53.0	14.4	0.00e+00	0	35	0	592445440	70	5453
2026-01-17 23:01:10.46	71.75	30.94	-49.7	-52.4	15.1	0.00e+00	0	36	0	594542592	70	5063
2026-01-17 23:01:11.46	72.08	31.00	-49.3	-51.8	15.7	0.00e+00	0	36	0	596639744	70	4729
2026-01-17 23:01:12.47	72.42	31.07	-49.1	-51.5	16.0	0.00e+00	0	35	0	598736896	70	4576
2026-01-17 23:01:13.48	72.76	31.13	-49.0	-51.3	16.2	0.00e+00	0	36	0	599785472	70	4493
2026-01-17 23:01:14.49	73.10	31.20	-49.1	-51.4	16.1	0.00e+00	0	35	0	601882624	70	4523
2026-01-17 23:01:15.50	73.44	31.26	-49.0	-51.3	16.2	0.00e+00	0	35	0	603979776	70	4459
2026-01-17 23:01:16.50	73.78	31.32	-49.0	-51.4	16.1	0.00e+00	0	35	0	606076928	69	4784
2026-01-17 23:01:17.51	74.12	31.38	-49.1	-51.5	16.0	0.00e+00	0	35	0	608174080	69	4829
2026-01-17 23:01:18.51	74.46	31.44	-49.1	-51.5	15.9	0.00e+00	0	35	0	610271232	69	4854
2026-01-17 23:01:19.52	74.81	31.49	-49.2	-51.6	15.9	0.00e+00	0	35	0	611319808	69	4887
2026-01-17 23:01:20.53	75.16	31.55	-49.1	-51.6	15.9	0.00e+00	0	36	0	613416960	69	4873
2026-01-17 23:01:21.54	75.50	31.61	-49.0	-51.4	16.1	0.00e+00	0	35	0	615514112	69	4782
2026-01-17 23:01:22.55	75.85	31.66	-48.8	-51.0	16.5	0.00e+00	0	36	0	617611264	69	4575
2026-01-17 23:01:23.56	76.20	31.72	-48.4	-50.4	17.0	0.00e+00	0	35	0	618659840	68	4541
2026-01-17 23:01:24.56	76.55	31.77	-48.3	-50.4	17.2	0.00e+00	0	35	0	620756992	68	4494
2026-01-17 23:01:25.57	76.91	31.82	-48.4	-50.4	17.1	0.00e+00	0	35	0	622854144	68	4538
2026-01-17 23:01:26.58	77.26	31.87	-48.5	-50.7	16.8	0.00e+00	0	35	0	624951296	68	4656
2026-01-17 23:01:27.59	77.61	31.92	-48.8	-51.0	16.5	0.00e+00	0	35	0	627048448	68	4860
2026-01-17 23:01:28.60	77.97	31.97	-48.9	-51.2	16.2	0.00e+00	0	35	0	628097024	68	4970
2026-01-17 23:01:29.60	78.32	32.02	-48.9	-51.1	16.4	0.00e+00	0	36	0	630194176	68	4905
2026-01-17 23:01:30.61	78.68	32.06	-48.9	-51.2	16.2	0.00e+00	0	35	0	632291328	68	4971
2026-01-17 23:01:31.62	79.04	32.11	-48.8	-51.1	16.4	0.00e+00	0	35	0	634388480	68	4898
2026-01-17 23:01:32.62	79.40	32.15	-48.7	-50.9	16.6	0.00e+00	0	36	0	636485632	68	4807
2026-01-17 23:01:33.63	79.76	32.19	-48.3	-50.3	17.1	0.00e+00	0	35	0	638582784	68	4491
2026-01-17 23:01:34.64	80.12	32.24	-48.3	-50.3	17.2	0.00e+00	0	35	0	639631360	68	4450
2026-01-17 23:01:35.65	80.48	32.28	-48.2	-50.2	17.3	0.00e+00	0	35	0	641728512	68	4418
2026-01-17 23:01:36.66	80.85	32.31	-48.3	-50.4	17.1	0.00e+00	0	35	0	643825664	68	4508
2026-01-17 23:01:37.66	81.21	32.35	-48.3	-50.3	17.2	0.00e+00	0	35	0	645922816	68	4461
2026-01-17 23:01:38.67	81.58	32.39	-48.4	-50.5	17.0	0.00e+00	0	35	0	646971392	68	4565
2026-01-17 23:01:39.68	81.94	32.42	-48.5	-50.6	16.9	0.00e+00	0	35	0	649068544	68	4650
2026-01-17 23:01:40.69	82.31	32.46	-48.5	-50.6	17.0	0.00e+00	0	35	0	651165696	68	4603
2026-01-17 23:01:41.69	82.67	32.49	-48.5	-50.6	16.9	0.00e+00	0	36	0	653262848	68	4638
2026-01-17 23:01:42.70	83.04	32.52	-48.3	-50.3	17.2	0.00e+00	0	35	0	655360000	68	4488
2026-01-17 23:01:43.71	83.41	32.55	-48.3	-50.3	17.2	0.00e+00	0	35	0	657457152	68	4472
2026-01-17 23:01:44.72	83.78	32.58	-48.4	-50.5	17.0	0.00e+00	0	36	0	658505728	68	4581
2026-01-17 23:01:45.72	84.15	32.61	-48.6	-50.8	16.7	0.00e+00	0	35	0	660602880	68	4732
2026-01-17 23:01:46.73	84.52	32.64	-49.0	-51.3	16.2	0.00e+00	0	35	0	662700032	68	5028
2026-01-17 23:01:47.74	84.89	32.66	-49.2	-51.6	15.9	0.00e+00	0	35	0	664797184	69	4913
2026-01-17 23:01:48.75	85.26	32.69	-49.2	-51.6	15.8	0.00e+00	0	35	0	666894336	69	4912
2026-01-17 23:01:49.75	85.63	32.71	-49.1	-51.5	16.0	0.00e+00	0	36	0	667942912	69	4851
2026-01-17 23:01:50.76	86.01	32.73	-48.9	-51.3	16.2	0.00e+00	0	35	0	670040064	69	4714
2026-01-17 23:01:51.77	86.38	32.75	-48.7	-50.9	16.6	0.00e+00	0	35	0	672137216	69	4521
2026-01-17 23:01:52.78	86.75	32.77	-48.7	-50.9	16.6	0.00e+00	0	35	0	674234368	69	4515
2026-01-17 23:01:53.79	87.13	32.79	-48.5	-50.6	16.9	0.00e+00	0	35	0	675282944	69	4382
2026-01-17 23:01:54.80	87.50	32.81	-48.3	-50.4	17.1	0.00e+00	0	36	0	677380096	68	4504
2026-01-17 23:01:55.80	87.88	32.82	-48.4	-50.5	17.1	0.00e+00	0	36	0	679477248	68	4552
2026-01-17 23:01:56.81	88.25	32.83	-48.6	-50.8	16.7	0.00e+00	0	35	0	681574400	68	4715
2026-01-17 23:01:57.82	88.63	32.85	-48.6	-50.8	16.7	0.00e+00	0	36	0	683671552	68	4712
2026-01-17 23:01:58.82	89.00	32.86	-48.6	-50.8	16.7	0.00e+00	0	35	0	685768704	68	4718
2026-01-17 23:01:59.83	89.38	32.87	-48.6	-50.7	16.8	0.00e+00	0	36	0	686817280	68	4676
2026-01-17 23:02:00.84	89.76	32.88	-48.4	-50.4	17.1	0.00e+00	0	36	0	688914432	68	4535
2026-01-17 23:02:01.84	90.13	32.88	-48.2	-50.1	17.3	0.00e+00	0	36	0	691011584	68	4370
2026-01-17 23:02:02.84	90.50	32.89	-47.8	-49.7	17.7	0.00e+00	0	36	0	693108736	67	4412
2026-01-17 23:02:03.85	90.88	32.89	-47.9	-49.8	17.6	0.00e+00	0	36	0	695205888	67	4456
2026-01-17 23:02:04.86	91.26	32.90	-48.1	-50.1	17.3	0.00e+00	0	35	0	696254464	67	4604
2026-01-17 23:02:05.87	91.63	32.90	-48.5	-50.6	16.8	0.00e+00	0	35	0	698351616	67	4894
2026-01-17 23:02:06.88	92.01	32.90	-49.0	-51.4	16.1	0.00e+00	0	35	0	700448768	68	5060
2026-01-17 23:02:07.89	92.39	32.90	-49.0	-51.4	16.1	0.00e+00	0	35	0	702545920	68	5070
2026-01-17 23:02:08.90	92.77	32.89	-49.0	-51.3	16.1	0.00e+00	0	35	0	703594496	68	5012
2026-01-17 23:02:09.90	93.14	32.89	-48.7	-50.9	16.5	0.00e+00	0	36	0	705691648	68	4773
2026-01-17 23:02:10.91	93.52	32.88	-48.6	-50.7	16.9	0.00e+00	0	36	0	707788800	68	4681
2026-01-17 23:02:11.92	93.90	32.88	-48.1	-50.1	17.4	0.00e+00	0	35	0	709885952	68	4347
2026-01-17 23:02:12.93	94.27	32.87	-47.5	-49.3	18.0	0.00e+00	0	36	0	711983104	67	4221
2026-01-17 23:02:13.94	94.65	32.86	-47.3	-49.0	18.4	0.00e+00	0	35	0	714080256	66	4293
2026-01-17 23:02:14.94	95.02	32.85	-47.4	-49.1	18.3	0.00e+00	0	35	0	715128832	66	4342
2026-01-17 23:02:15.95	95.40	32.84	-47.7	-49.5	17.9	0.00e+00	0	36	0	717225984	66	4560
2026-01-17 23:02:16.96	95.78	32.83	-48.1	-50.0	17.4	0.00e+00	0	35	0	719323136	66	4842
2026-01-17 23:02:17.97	96.15	32.81	-48.4	-50.5	16.8	0.00e+00	0	35	0	721420288	67	4859
2026-01-17 23:02:18.98	96.53	32.80	-48.9	-51.2	16.3	0.00e+00	0	35	0	723517440	68	4939
2026-01-17 23:02:19.98	96.90	32.78	-49.0	-51.4	16.1	0.00e+00	0	35	0	724566016	68	5077
2026-01-17 23:02:20.99	97.27	32.76	-49.2	-51.7	15.8	0.00e+00	0	35	0	726663168	68	5275
2026-01-17 23:02:21.99	97.64	32.74	-49.4	-52.0	15.5	0.00e+00	0	35	0	728760320	69	5131
2026-01-17 23:02:23.01	98.02	32.72	-49.2	-51.7	15.7	0.00e+00	0	35	0	730857472	69	4982
2026-01-17 23:02:24.01	98.39	32.70	-49.2	-51.7	15.8	0.00e+00	0	35	0	732954624	69	4934
2026-01-17 23:02:25.02	98.76	32.67	-49.1	-51.6	15.9	0.00e+00	0	35	0	734003200	69	4883
2026-01-17 23:02:26.03	99.14	32.65	-49.1	-51.6	15.9	0.00e+00	0	35	0	736100352	69	4872
2026-01-17 23:02:27.04	99.51	32.62	-49.0	-51.3	16.2	0.00e+00	0	36	0	738197504	69	4724
2026-01-17 23:02:28.05	99.88	32.59	-48.8	-51.1	16.4	0.00e+00	0	35	0	740294656	69	4634
2026-01-17 23:02:29.06	100.25	32.56	-48.8	-51.0	16.5	0.00e+00	0	36	0	742391808	69	4581
2026-01-17 23:02:30.06	100.62	32.53	-48.8	-51.1	16.4	0.00e+00	0	36	0	743440384	69	4611
2026-01-17 23:02:31.07	100.98	32.50	-48.9	-51.2	16.3	0.00e+00	0	36	0	745537536	69	4703
2026-01-17 23:02:32.08	101.35	32.47	-48.9	-51.2	16.3	0.00e+00	0	35	0	747634688	69	4693
2026-01-17 23:02:33.09	101.72	32.44	-49.1	-51.5	15.9	0.00e+00	0	35	0	749731840	69	4865
2026-01-17 23:02:34.10	102.09	32.40	-49.2	-51.7	15.8	0.00e+00	0	36	0	751828992	69	4936
2026-01-17 23:02:35.10	102.45	32.37	-49.4	-52.0	15.5	0.00e+00	0	36	0	752877568	69	5135
2026-01-17 23:02:36.11	102.82	32.33	-49.5	-52.1	15.3	0.00e+00	0	36	0	754974720	69	5200
2026-01-17 23:02:37.12	103.18	32.29	-49.6	-52.4	15.1	0.00e+00	0	35	0	757071872	69	5355
2026-01-17 23:02:38.13	103.54	32.25	-49.7	-52.5	14.9	0.00e+00	0	35	0	759169024	70	5147
2026-01-17 23:02:39.14	103.91	32.21	-49.9	-52.7	14.8	7.00e-07	0	35	0	761266176	70	5279
2026-01-17 23:02:40.14	104.27	32.17	-49.8	-52.6	14.9	0.00e+00	0	35	0	762314752	70	5169
2026-01-17 23:02:41.15	104.63	32.12	-49.7	-52.4	15.1	0.00e+00	0	36	0	764411904	70	5090
2026-01-17 23:02:42.16	104.99	32.08	-49.4	-51.9	15.6	0.00e+00	0	36	0	766509056	70	4800
2026-01-17 23:02:43.16	105.34	32.03	-49.1	-51.4	16.1	0.00e+00	0	36	0	768606208	70	4537
2026-01-17 23:02:44.17	105.70	31.99	-48.6	-50.7	16.8	0.00e+00	0	35	0	770703360	69	4437
2026-01-17 23:02:45.18	106.06	31.94	-48.4	-50.4	17.1	0.00e+00	0	36	0	771751936	68	4535
2026-01-17 23:02:46.19	106.41	31.89	-48.1	-50.1	17.4	0.00e+00	0	35	0	773849088	68	4341
2026-01-17 23:02:47.20	106.77	31.84	-48.2	-50.2	17.3	0.00e+00	0	36	0	775946240	68	4401
2026-01-17 23:02:48.20	107.12	31.79	-48.4	-50.4	17.1	0.00e+00	0	36	0	778043392	68	4510
2026-01-17 23:02:49.21	107.47	31.73	-48.5	-50.5	17.0	0.00e+00	0	36	0	780140544	68	4593
2026-01-17 23:02:50.22	107.82	31.68	-48.4	-50.5	17.0	0.00e+00	0	36	0	782237696	68	4546
2026-01-17 23:02:51.22	108.17	31.63	-48.4	-50.4	17.0	0.00e+00	0	35	0	783286272	68	4532
2026-01-17 23:02:52.23	108.52	31.57	-48.5	-50.6	16.9	0.00e+00	0	35	0	785383424	68	4611
2026-01-17 23:02:53.24	108.87	31.51	-48.6	-50.7	16.8	0.00e+00	0	35	0	787480576	68	4698
2026-01-17 23:02:54.24	109.21	31.46	-48.8	-51.1	16.4	0.00e+00	0	36	0	789577728	68	4908
2026-01-17 23:02:55.25	109.56	31.40	-48.8	-51.1	16.4	0.00e+00	0	36	0	790626304	68	4885
2026-01-17 23:02:56.26	109.90	31.34	-48.9	-51.2	16.2	0.00e+00	0	35	0	792723456	68	4961
2026-01-17 23:02:57.27	110.24	31.28	-48.7	-51.0	16.4	0.00e+00	0	35	0	794820608	68	4833
2026-01-17 23:02:58.28	110.59	31.21	-48.7	-50.9	16.6	0.00e+00	0	35	0	796917760	68	4769
2026-01-17 23:02:59.28	110.92	31.15	-48.6	-50.7	16.7	0.00e+00	0	36	0	799014912	68	4700
2026-01-17 23:03:00.29	111.26	31.09	-48.4	-50.5	16.9	0.00e+00	0	36	0	800063488	68	4585
2026-01-17 23:03:01.30	111.60	31.02	-48.2	-50.2	17.3	0.00e+00	0	35	0	802160640	68	4438
2026-01-17 23:03:02.31	111.94	30.96	-48.1	-50.1	17.4	0.00e+00	0	36	0	804257792	68	4348
2026-01-17 23:03:03.32	112.27	30.89	-48.1	-50.1	17.3	0.00e+00	0	36	0	806354944	68	4369
2026-01-17 23:03:04.32	112.60	30.83	-48.3	-50.3	17.2	0.00e+00	0	36	0	808452096	68	4453
2026-01-17 23:03:05.33	112.94	30.76	-48.5	-50.6	16.8	0.00e+00	0	36	0	810549248	68	4649
2026-01-17 23:03:06.34	113.27	30.69	-48.9	-51.2	16.3	0.00e+00	0	36	0	811597824	68	4948
2026-01-17 23:03:07.35	113.60	30.62	-49.1	-51.5	15.9	0.00e+00	0	35	0	813694976	68	5158
2026-01-17 23:03:08.35	113.92	30.55	-48.9	-51.3	16.1	0.00e+00	0	35	0	815792128	68	5009
2026-01-17 23:03:09.36	114.25	30.48	-48.9	-51.1	16.3	0.00e+00	0	35	0	817889280	68	4925
2026-01-17 23:03:10.37	114.58	30.40	-48.7	-50.9	16.5	0.00e+00	0	35	0	818937856	68	4812
2026-01-17 23:03:11.38	114.90	30.33	-48.4	-50.5	16.9	0.00e+00	0	36	0	821035008	68	4559
2026-01-17 23:03:12.38	115.22	30.26	-48.3	-50.3	17.2	0.00e+00	0	36	0	823132160	68	4447
2026-01-17 23:03:13.39	115.54	30.18	-48.2	-50.2	17.3	0.00e+00	0	36	0	825229312	68	4421
2026-01-17 23:03:14.40	115.86	30.11	-48.1	-50.0	17.4	0.00e+00	0	35	0	827326464	68	4338
2026-01-17 23:03:15.41	116.18	30.03	-48.1	-50.1	17.4	0.00e+00	0	36	0	829423616	68	4358
2026-01-17 23:03:16.41	116.49	29.95	-48.2	-50.2	17.3	0.00e+00	0	36	0	830472192	68	4395
2026-01-17 23:03:17.42	116.81	29.88	-48.2	-50.2	17.2	0.00e+00	0	35	0	832569344	68	4433
2026-01-17 23:03:18.43	117.12	29.80	-48.3	-50.4	17.0	0.00e+00	0	35	0	834666496	68	4510
2026-01-17 23:03:19.44	117.43	29.72	-48.5	-50.6	16.8	0.00e+00	0	36	0	836763648	68	4651
2026-01-17 23:03:20.44	117.74	29.64	-48.8	-51.2	16.3	0.00e+00	0	35	0	838860800	68	4934
2026-01-17 23:03:21.45	118.05	29.56	-49.1	-51.5	15.9	0.00e+00	0	36	0	839909376	68	5145
2026-01-17 23:03:22.46	118.36	29.48	-49.3	-51.8	15.7	0.00e+00	0	36	0	842006528	69	5004
2026-01-17 23:03:23.47	118.67	29.40	-49.3	-51.8	15.6	0.00e+00	0	36	0	844103680	69	5012
2026-01-17 23:03:24.47	118.97	29.31	-49.1	-51.5	15.9	0.00e+00	0	36	0	846200832	69	4834
2026-01-17 23:03:25.48	119.27	29.23	-49.1	-51.5	15.9	0.00e+00	0	36	0	847249408	69	4839
2026-01-17 23:03:26.49	119.57	29.15	-49.0	-51.4	16.0	0.00e+00	0	36	0	849346560	69	4786
2026-01-17 23:03:27.50	119.87	29.06	-49.0	-51.3	16.1	0.00e+00	0	35	0	851443712	69	4746
2026-01-17 23:03:28.51	120.17	28.98	-48.9	-51.2	16.2	0.00e+00	0	36	0	853540864	69	4664
2026-01-17 23:03:29.52	120.47	28.89	-48.4	-50.5	16.9	0.00e+00	0	35	0	855638016	68	4577
2026-01-17 23:03:30.53	120.77	28.81	-48.1	-50.1	17.3	0.00e+00	0	36	0	857735168	68	4385
2026-01-17 23:03:31.53	121.06	28.72	-47.9	-49.8	17.5	0.00e+00	0	36	0	858783744	67	4469
2026-01-17 23:03:32.54	121.35	28.63	-47.8	-49.6	17.7	0.00e+00	0	36	0	860880896	67	4391
2026-01-17 23:03:33.54	121.64	28.55	-48.0	-50.0	17.3	0.00e+00	0	36	0	862978048	67	4553
2026-01-17 23:03:34.55	121.93	28.46	-48.3	-50.4	16.9	0.00e+00	0	36	0	865075200	67	4802
2026-01-17 23:03:35.56	122.22	28.37	-48.3	-50.3	17.0	0.00e+00	0	36	0	867172352	67	4751
2026-01-17 23:03:36.57	122.50	28.28	-48.2	-50.2	17.0	0.00e+00	0	36	0	868220928	67	4705
2026-01-17 23:03:37.58	122.79	28.19	-48.2	-50.3	17.0	0.00e+00	0	36	0	870318080	67	4712
2026-01-17 23:03:38.58	123.07	28.10	-48.4	-50.5	16.7	0.00e+00	0	36	0	872415232	67	4863
2026-01-17 23:03:39.59	123.35	28.01	-48.6	-50.9	16.4	0.00e+00	0	36	0	874512384	67	5060
2026-01-17 23:03:40.60	123.63	27.92	-49.0	-51.5	15.9	0.00e+00	0	36	0	875560960	68	5116
2026-01-17 23:03:41.61	123.91	27.83	-48.9	-51.3	16.0	0.00e+00	0	35	0	877658112	68	5032
2026-01-17 23:03:42.62	124.18	27.74	-48.4	-50.5	16.9	0.00e+00	0	36	0	879755264	68	4563
2026-01-17 23:03:43.62	124.46	27.65	-48.1	-50.0	17.3	0.00e+00	0	36	0	881852416	68	4340
2026-01-17 23:03:44.63	124.73	27.55	-47.8	-49.6	17.6	0.00e+00	0	36	0	883949568	67	4386
2026-01-17 23:03:45.64	125.00	27.46	-47.5	-49.3	17.9	0.00e+00	0	36	0	886046720	67	4224
2026-01-17 23:03:46.65	125.27	27.37	-47.4	-49.2	18.1	0.00e+00	0	35	0	887095296	66	4433
2026-01-17 23:03:47.66	125.54	27.27	-48.0	-50.0	17.3	0.00e+00	0	35	0	889192448	66	4819
2026-01-17 23:03:48.66	125.81	27.18	-47.8	-49.8	17.5	0.00e+00	0	36	0	891289600	66	4715
2026-01-17 23:03:49.67	126.08	27.09	-47.5	-49.3	17.9	0.00e+00	0	36	0	893386752	66	4480
2026-01-17 23:03:50.68	126.34	26.99	-47.4	-49.1	18.1	0.00e+00	0	36	0	895483904	66	4364
2026-01-17 23:03:51.69	126.60	26.90	-47.1	-48.8	18.4	0.00e+00	0	35	0	896532480	66	4226
2026-01-17 23:03:52.70	126.86	26.80	-47.1	-48.7	18.5	0.00e+00	0	35	0	898629632	66	4180
2026-01-17 23:03:53.70	127.12	26.71	-47.4	-49.2	18.1	0.00e+00	0	36	0	900726784	66	4426
2026-01-17 23:03:54.71	127.38	26.61	-48.1	-50.1	17.2	0.00e+00	0	35	0	902823936	66	4876
2026-01-17 23:03:55.72	127.64	26.52	-48.8	-51.2	16.2	0.00e+00	0	36	0	904921088	68	4948
2026-01-17 23:03:56.73	127.89	26.42	-49.2	-51.8	15.6	0.00e+00	0	35	0	905969664	68	5304
2026-01-17 23:03:57.73	128.15	26.32	-48.8	-51.2	16.2	0.00e+00	0	35	0	908066816	69	4668
2026-01-17 23:03:58.74	128.40	26.23	-48.1	-50.2	17.2	0.00e+00	0	35	0	910163968	68	4395
2026-01-17 23:03:59.75	128.65	26.13	-47.7	-49.5	17.7	0.00e+00	0	36	0	912261120	67	4334
2026-01-17 23:04:00.76	128.90	26.03	-47.6	-49.4	17.8	0.00e+00	0	35	0	914358272	67	4261
2026-01-17 23:04:01.76	129.14	25.94	-47.7	-49.6	17.6	0.00e+00	0	36	0	915406848	67	4369
2026-01-17 23:04:02.77	129.39	25.84	-48.0	-50.0	17.2	0.00e+00	0	36	0	917504000	67	4591
2026-01-17 23:04:03.78	129.64	25.74	-48.0	-50.0	17.2	0.00e+00	0	36	0	919601152	67	4589
2026-01-17 23:04:04.78	129.88	25.64	-47.9	-49.9	17.3	0.00e+00	0	36	0	921698304	67	4509
2026-01-17 23:04:05.79	130.12	25.55	-47.5	-49.4	17.8	0.00e+00	0	36	0	923795456	67	4251
2026-01-17 23:04:06.80	130.36	25.45	-47.4	-49.2	18.0	0.00e+00	0	35	0	924844032	66	4417
2026-01-17 23:04:07.81	130.60	25.35	-47.2	-49.0	18.2	0.00e+00	0	35	0	926941184	66	4296
2026-01-17 23:04:08.82	130.84	25.25	-47.5	-49.3	17.9	0.00e+00	0	35	0	929038336	66	4454
2026-01-17 23:04:09.82	131.07	25.15	-47.9	-49.8	17.3	0.00e+00	0	35	0	931135488	66	4742
2026-01-17 23:04:10.83	131.31	25.05	-48.1	-50.2	17.0	0.00e+00	0	36	0	933232640	66	4968
2026-01-17 23:04:11.84	131.54	24.95	-48.1	-50.1	17.0	0.00e+00	0	36	0	934281216	67	4650
2026-01-17 23:04:12.84	131.77	24.86	-47.5	-49.4	17.8	0.00e+00	0	35	0	936378368	67	4244
2026-01-17 23:04:13.85	132.00	24.76	-47.1	-48.8	18.3	0.00e+00	0	36	0	938475520	66	4209
2026-01-17 23:04:14.86	132.23	24.66	-47.0	-48.7	18.5	0.00e+00	0	35	0	940572672	66	4157
2026-01-17 23:04:15.86	132.46	24.56	-47.2	-48.9	18.2	0.00e+00	0	36	0	942669824	66	4267
2026-01-17 23:04:16.87	132.68	24.46	-47.4	-49.2	17.9	0.00e+00	0	35	0	943718400	66	4420
2026-01-17 23:04:17.88	132.91	24.36	-47.9	-49.9	17.3	0.00e+00	0	35	0	945815552	66	4794
2026-01-17 23:04:18.89	133.13	24.26	-48.2	-50.3	16.8	0.00e+00	0	35	0	947912704	67	4739
2026-01-17 23:04:19.90	133.35	24.16	-48.1	-50.2	16.9	0.00e+00	0	35	0	950009856	67	4675
2026-01-17 23:04:20.91	133.57	24.06	-47.3	-49.1	18.0	0.00e+00	0	36	0	952107008	66	4346
2026-01-17 23:04:21.92	133.79	23.96	-46.7	-48.3	18.8	0.00e+00	0	36	0	953155584	65	4225
2026-01-17 23:04:22.92	134.01	23.86	-46.5	-48.1	19.0	0.00e+00	0	35	0	955252736	65	4133
2026-01-17 23:04:23.94	134.23	23.76	-46.5	-48.1	19.0	0.00e+00	0	35	0	957349888	65	4117
2026-01-17 23:04:24.95	134.45	23.66	-46.7	-48.3	18.8	0.00e+00	0	35	0	959447040	65	4236
2026-01-17 23:04:25.95	134.66	23.56	-47.0	-48.7	18.4	0.00e+00	0	35	0	961544192	65	4408
2026-01-17 23:04:26.96	134.87	23.46	-47.2	-49.0	18.2	0.00e+00	0	35	0	962592768	65	4552
2026-01-17 23:04:27.97	135.08	23.36	-47.0	-48.8	18.3	0.00e+00	0	36	0	964689920	65	4455
2026-01-17 23:04:28.97	135.29	23.26	-47.0	-48.7	18.4	0.00e+00	0	35	0	966787072	65	4406
2026-01-17 23:04:29.98	135.50	23.16	-46.6	-48.2	18.8	0.00e+00	0	36	0	968884224	65	4190
2026-01-17 23:04:30.99	135.71	23.06	-46.5	-48.0	19.0	0.00e+00	0	36	0	970981376	65	4088
2026-01-17 23:04:32.00	135.91	22.96	-46.3	-47.8	19.2	0.00e+00	0	36	0	972029952	64	4231
2026-01-17 23:04:33.00	136.12	22.87	-46.0	-47.4	19.7	0.00e+00	0	36	0	974127104	63	4261
2026-01-17 23:04:34.01	136.32	22.77	-45.9	-47.3	19.8	0.00e+00	0	35	0	976224256	63	4229
2026-01-17 23:04:35.02	136.52	22.67	-46.0	-47.5	19.7	0.00e+00	0	36	0	978321408	63	4301
2026-01-17 23:04:36.03	136.72	22.57	-46.1	-47.6	19.5	0.00e+00	0	36	0	980418560	63	4368
2026-01-17 23:04:37.04	136.92	22.47	-46.0	-47.5	19.7	0.00e+00	0	36	0	981467136	63	4298
2026-01-17 23:04:38.05	137.12	22.37	-45.9	-47.3	19.8	0.00e+00	0	35	0	983564288	63	4229
2026-01-17 23:04:39.06	137.32	22.27	-45.7	-47.1	20.0	0.00e+00	0	35	0	985661440	63	4126
2026-01-17 23:04:40.06	137.52	22.17	-45.6	-47.0	20.1	0.00e+00	0	35	0	987758592	63	4060
2026-01-17 23:04:41.07	137.71	22.07	-45.4	-46.7	20.3	0.00e+00	0	36	0	989855744	62	4182
2026-01-17 23:04:42.08	137.90	21.97	-45.2	-46.5	20.6	0.00e+00	0	35	0	990904320	62	4063
2026-01-17 23:04:43.09	138.10	21.87	-45.3	-46.6	20.5	0.00e+00	0	36	0	993001472	62	4107
2026-01-17 23:04:44.10	138.29	21.77	-45.3	-46.6	20.4	0.00e+00	0	36	0	995098624	62	4134
2026-01-17 23:04:45.10	138.48	21.67	-45.4	-46.7	20.3	0.00e+00	0	35	0	997195776	62	4189
2026-01-17 23:04:46.11	138.67	21.57	-45.5	-46.9	20.2	0.00e+00	0	36	0	999292928	62	4257
2026-01-17 23:04:47.12	138.85	21.47	-45.4	-46.7	20.3	0.00e+00	0	35	0	1001390080	62	4193
2026-01-17 23:04:48.13	139.04	21.37	-45.4	-46.7	20.3	0.00e+00	0	36	0	1002438656	62	4176
2026-01-17 23:04:49.14	139.23	21.27	-45.2	-46.5	20.6	0.00e+00	0	36	0	1004535808	62	4062
2026-01-17 23:04:50.14	139.41	21.18	-45.1	-46.4	20.6	0.00e+00	0	36	0	1006632960	62	4024
2026-01-17 23:04:51.15	139.59	21.08	-45.3	-46.6	20.4	0.00e+00	0	35	0	1008730112	62	4123
2026-01-17 23:04:52.16	139.78	20.98	-45.2	-46.5	20.5	0.00e+00	0	36	0	1009778688	62	4072
2026-01-17 23:04:53.17	139.96	20.88	-45.3	-46.6	20.5	0.00e+00	0	36	0	1011875840	62	4102
2026-01-17 23:04:54.18	140.14	20.78	-45.3	-46.6	20.4	0.00e+00	0	36	0	1013972992	62	4109
2026-01-17 23:04:55.19	140.32	20.68	-45.4	-46.7	20.3	0.00e+00	0	36	0	1016070144	62	4161
2026-01-17 23:04:56.19	140.49	20.58	-45.4	-46.7	20.3	0.00e+00	0	35	0	1018167296	62	4186
2026-01-17 23:04:57.20	140.67	20.49	-45.4	-46.7	20.3	0.00e+00	0	35	0	1019215872	62	4175
2026-01-17 23:04:58.20	140.84	20.39	-45.5	-46.8	20.2	0.00e+00	0	36	0	1021313024	62	4217
2026-01-17 23:04:59.21	141.02	20.29	-45.3	-46.6	20.4	0.00e+00	0	35	0	1023410176	62	4115
2026-01-17 23:05:00.22	141.19	20.19	-45.1	-46.4	20.6	0.00e+00	0	35	0	1025507328	62	4023
2026-01-17 23:05:01.23	141.36	20.10	-45.1	-46.3	20.6	0.00e+00	0	36	0	1027604480	62	4003
2026-01-17 23:05:02.24	141.53	20.00	-44.9	-46.2	20.8	0.00e+00	0	35	0	1029701632	61	4157
2026-01-17 23:05:03.25	141.70	19.90	-45.0	-46.2	20.7	0.00e+00	0	36	0	1030750208	61	4190
2026-01-17 23:05:04.26	141.87	19.80	-45.0	-46.2	20.7	0.00e+00	0	36	0	1032847360	61	4174
2026-01-17 23:05:05.26	142.04	19.71	-45.2	-46.4	20.5	0.00e+00	0	36	0	1034944512	61	4281
2026-01-17 23:05:06.27	142.21	19.61	-45.4	-46.7	20.2	0.00e+00	0	35	0	1037041664	61	4436
2026-01-17 23:05:07.28	142.37	19.51	-45.6	-47.0	19.9	0.00e+00	0	36	0	1038090240	61	4559
2026-01-17 23:05:08.29	142.54	19.42	-45.9	-47.3	19.7	0.00e+00	0	35	0	1040187392	62	4465
2026-01-17 23:05:09.30	142.70	19.32	-46.1	-47.6	19.5	0.00e+00	0	36	0	1042284544	62	4601
2026-01-17 23:05:10.30	142.87	19.22	-46.1	-47.6	19.4	0.00e+00	0	35	0	1044381696	62	4602
2026-01-17 23:05:11.31	143.03	19.13	-46.0	-47.5	19.5	0.00e+00	0	36	0	1046478848	62	4554
2026-01-17 23:05:12.32	143.19	19.03	-45.9	-47.4	19.6	0.00e+00	0	35	0	1048576000	62	4516
2026-01-17 23:05:13.32	143.35	18.94	-45.9	-47.3	19.6	0.00e+00	0	35	0	1049624576	62	4488
2026-01-17 23:05:14.33	143.51	18.84	-45.9	-47.3	19.6	0.00e+00	0	35	0	1051721728	62	4484
2026-01-17 23:05:15.34	143.66	18.75	-45.7	-47.2	19.8	0.00e+00	0	35	0	1053818880	62	4392
2026-01-17 23:05:16.35	143.82	18.65	-45.7	-47.1	19.9	0.00e+00	0	35	0	1055916032	62	4344
2026-01-17 23:05:17.36	143.98	18.55	-45.8	-47.2	19.7	0.00e+00	0	35	0	1058013184	62	4425
2026-01-17 23:05:18.36	144.13	18.46	-45.8	-47.2	19.8	0.00e+00	0	35	0	1059061760	62	4421
2026-01-17 23:05:19.38	144.29	18.36	-45.9	-47.4	19.6	0.00e+00	0	36	0	1061158912	62	4496
2026-01-17 23:05:20.38	144.44	18.27	-45.9	-47.4	19.6	0.00e+00	0	36	0	1063256064	62	4504
2026-01-17 23:05:21.39	144.59	18.18	-46.0	-47.5	19.5	0.00e+00	0	35	0	1065353216	62	4563
2026-01-17 23:05:22.40	144.74	18.08	-46.1	-47.6	19.4	0.00e+00	0	35	0	1066401792	62	4619
2026-01-17 23:05:23.41	144.90	17.99	-46.0	-47.5	19.5	0.00e+00	0	35	0	1068498944	62	4546
2026-01-17 23:05:24.42	145.05	17.89	-46.2	-47.7	19.3	0.00e+00	0	36	0	1070596096	62	4667
2026-01-17 23:05:25.42	145.19	17.80	-46.2	-47.7	19.3	0.00e+00	0	36	0	1072693248	62	4684
2026-01-17 23:05:26.43	145.34	17.71	-46.0	-47.4	19.5	0.00e+00	0	36	0	1074790400	62	4532
2026-01-17 23:05:27.44	145.49	17.61	-45.9	-47.4	19.5	0.00e+00	0	36	0	1076887552	62	4519
2026-01-17 23:05:28.45	145.63	17.52	-46.0	-47.5	19.4	0.00e+00	0	36	0	1077936128	62	4574
2026-01-17 23:05:29.46	145.78	17.42	-46.1	-47.6	19.3	0.00e+00	0	35	0	1080033280	62	4644
2026-01-17 23:05:30.46	145.92	17.33	-46.2	-47.8	19.2	0.00e+00	0	36	0	1082130432	63	4453
2026-01-17 23:05:31.47	146.07	17.24	-46.3	-47.8	19.1	0.00e+00	0	35	0	1084227584	63	4481
2026-01-17 23:05:32.48	146.21	17.15	-46.4	-47.9	19.0	0.00e+00	0	35	0	1086324736	63	4538
2026-01-17 23:05:33.49	146.35	17.05	-46.4	-48.0	18.9	0.00e+00	0	36	0	1087373312	63	4582
2026-01-17 23:05:34.50	146.49	16.96	-46.5	-48.1	18.8	0.00e+00	0	36	0	1089470464	63	4617
2026-01-17 23:05:35.50	146.63	16.87	-46.6	-48.3	18.7	0.00e+00	0	36	0	1091567616	63	4715
2026-01-17 23:05:36.51	146.77	16.78	-46.6	-48.3	18.5	0.00e+00	0	35	0	1093664768	64	4478
2026-01-17 23:05:37.52	146.91	16.69	-46.7	-48.4	18.4	0.00e+00	0	36	0	1095761920	64	4532
2026-01-17 23:05:38.53	147.05	16.59	-46.9	-48.7	18.1	0.00e+00	0	36	0	1096810496	64	4685
2026-01-17 23:05:39.53	147.18	16.50	-47.2	-49.0	17.8	0.00e+00	0	36	0	1098907648	64	4865
2026-01-17 23:05:40.54	147.32	16.41	-47.3	-49.2	17.6	0.00e+00	0	36	0	1101004800	65	4655
2026-01-17 23:05:41.55	147.46	16.32	-47.2	-49.1	17.7	0.00e+00	0	36	0	1103101952	65	4634
2026-01-17 23:05:42.56	147.59	16.23	-47.2	-49.1	17.8	0.00e+00	0	36	0	1105199104	65	4607
2026-01-17 23:05:43.57	147.72	16.14	-47.1	-48.9	18.0	0.00e+00	0	36	0	1106247680	65	4516
2026-01-17 23:05:44.58	147.86	16.05	-47.1	-49.0	17.9	0.00e+00	0	36	0	1108344832	65	4552
2026-01-17 23:05:45.59	147.99	15.96	-47.0	-48.8	18.0	0.00e+00	0	35	0	1110441984	65	4445
2026-01-17 23:05:46.59	148.12	15.87	-46.5	-48.2	18.6	0.00e+00	0	36	0	1112539136	65	4164
2026-01-17 23:05:47.60	148.25	15.78	-46.4	-47.9	18.8	0.00e+00	0	36	0	1114636288	64	4289
2026-01-17 23:05:48.61	148.38	15.69	-46.4	-48.0	18.8	0.00e+00	0	35	0	1116733440	64	4310
2026-01-17 23:05:49.62	148.51	15.60	-46.3	-47.9	18.9	0.00e+00	0	36	0	1117782016	64	4268
2026-01-17 23:05:50.63	148.64	15.51	-46.4	-48.0	18.7	0.00e+00	0	36	0	1119879168	64	4331
2026-01-17 23:05:51.63	148.77	15.42	-46.5	-48.2	18.6	0.00e+00	0	36	0	1121976320	64	4395
2026-01-17 23:05:52.64	148.89	15.33	-46.7	-48.4	18.3	0.00e+00	0	35	0	1124073472	64	4534
2026-01-17 23:05:53.65	149.02	15.25	-46.8	-48.5	18.2	0.00e+00	0	36	0	1125122048	64	4592
2026-01-17 23:05:54.66	149.15	15.16	-46.9	-48.7	18.1	0.00e+00	0	36	0	1127219200	64	4676
2026-01-17 23:05:55.67	149.27	15.07	-47.0	-48.8	17.9	0.00e+00	0	36	0	1129316352	64	4755
2026-01-17 23:05:56.68	149.40	14.98	-47.0	-48.9	17.9	0.00e+00	0	35	0	1131413504	64	4772
2026-01-17 23:05:57.68	149.52	14.89	-47.0	-48.8	18.0	0.00e+00	0	36	0	1133510656	64	4742
2026-01-17 23:05:58.69	149.64	14.81	-47.0	-48.8	18.0	0.00e+00	0	36	0	1134559232	64	4723
2026-01-17 23:05:59.70	149.76	14.72	-46.8	-48.5	18.2	0.00e+00	0	36	0	1136656384	64	4585
2026-01-17 23:06:00.71	149.88	14.63	-46.8	-48.6	18.2	0.00e+00	0	36	0	1138753536	64	4605
2026-01-17 23:06:01.72	150.01	14.54	-46.6	-48.3	18.4	0.00e+00	0	36	0	1140850688	64	4482
2026-01-17 23:06:02.73	150.13	14.46	-46.6	-48.3	18.5	0.00e+00	0	35	0	1142947840	64	4446
2026-01-17 23:06:03.74	150.25	14.37	-46.4	-48.1	18.6	0.00e+00	0	35	0	1145044992	64	4358
2026-01-17 23:06:04.75	150.36	14.28	-46.5	-48.1	18.6	0.00e+00	0	36	0	1146093568	64	4377
2026-01-17 23:06:05.76	150.48	14.20	-46.5	-48.2	18.6	0.00e+00	0	36	0	1148190720	64	4399
2026-01-17 23:06:06.76	150.60	14.11	-46.7	-48.4	18.4	0.00e+00	0	36	0	1150287872	64	4506
2026-01-17 23:06:07.77	150.72	14.03	-46.8	-48.5	18.3	0.00e+00	0	35	0	1152385024	64	4568
2026-01-17 23:06:08.78	150.83	13.94	-47.0	-48.8	17.9	0.00e+00	0	36	0	1153433600	64	4730
2026-01-17 23:06:09.79	150.95	13.85	-47.1	-48.9	17.8	0.00e+00	0	36	0	1155530752	64	4814
2026-01-17 23:06:10.80	151.06	13.77	-47.1	-49.0	17.8	0.00e+00	0	36	0	1157627904	64	4835
2026-01-17 23:06:11.81	151.18	13.68	-47.2	-49.1	17.6	0.00e+00	0	36	0	1159725056	64	4925
2026-01-17 23:06:12.82	151.29	13.60	-47.2	-49.1	17.6	0.00e+00	0	36	0	1161822208	65	4604
2026-01-17 23:06:13.82	151.40	13.51	-47.2	-49.1	17.6	0.00e+00	0	35	0	1163919360	65	4619
2026-01-17 23:06:14.83	151.51	13.43	-47.2	-49.2	17.6	0.00e+00	0	36	0	1164967936	65	4653
2026-01-17 23:06:15.84	151.63	13.35	-47.1	-48.9	17.8	0.00e+00	0	36	0	1167065088	65	4544
2026-01-17 23:06:16.85	151.74	13.26	-46.9	-48.7	18.0	0.00e+00	0	35	0	1169162240	65	4432
2026-01-17 23:06:17.86	151.85	13.18	-46.8	-48.5	18.2	0.00e+00	0	36	0	1171259392	65	4320
2026-01-17 23:06:18.86	151.96	13.09	-46.8	-48.6	18.1	0.00e+00	0	35	0	1173356544	65	4362
2026-01-17 23:06:19.87	152.07	13.01	-46.6	-48.3	18.4	0.00e+00	0	36	0	1174405120	65	4236
2026-01-17 23:06:20.88	152.18	12.93	-46.3	-48.0	18.7	0.00e+00	0	36	0	1176502272	64	4295
2026-01-17 23:06:21.89	152.28	12.84	-46.2	-47.8	18.8	0.00e+00	0	35	0	1178599424	64	4240
2026-01-17 23:06:22.90	152.39	12.76	-46.4	-48.0	18.7	0.00e+00	0	36	0	1180696576	64	4306
2026-01-17 23:06:23.90	152.50	12.68	-46.4	-48.1	18.6	0.00e+00	0	36	0	1181745152	64	4344
2026-01-17 23:06:24.91	152.60	12.60	-46.3	-48.0	18.7	0.00e+00	0	36	0	1183842304	64	4302
2026-01-17 23:06:25.92	152.71	12.51	-46.5	-48.1	18.5	0.00e+00	0	35	0	1185939456	64	4383
2026-01-17 23:06:26.93	152.82	12.43	-46.4	-48.1	18.5	0.00e+00	0	36	0	1188036608	64	4365
2026-01-17 23:06:27.94	152.92	12.35	-46.6	-48.3	18.3	0.00e+00	0	36	0	1190133760	64	4482
2026-01-17 23:06:28.94	153.02	12.27	-46.6	-48.3	18.4	0.00e+00	0	36	0	1192230912	64	4448
2026-01-17 23:06:29.95	153.13	12.19	-46.7	-48.5	18.2	0.00e+00	0	36	0	1193279488	64	4559
2026-01-17 23:06:30.96	153.23	12.10	-46.8	-48.6	17.9	0.00e+00	0	35	0	1195376640	64	4617
2026-01-17 23:06:31.97	153.33	12.02	-46.8	-48.5	18.1	0.00e+00	0	36	0	1197473792	64	4594
2026-01-17 23:06:32.97	153.43	11.94	-46.8	-48.6	18.0	0.00e+00	0	35	0	1199570944	64	4629
2026-01-17 23:06:33.98	153.54	11.86	-46.7	-48.5	18.1	0.00e+00	0	36	0	1201668096	64	4573
2026-01-17 23:06:34.99	153.64	11.78	-46.8	-48.6	18.1	0.00e+00	0	36	0	1202716672	64	4618
2026-01-17 23:06:36.00	153.74	11.70	-46.7	-48.5	18.1	0.00e+00	0	36	0	1204813824	64	4561
2026-01-17 23:06:37.01	153.84	11.62	-46.6	-48.3	18.3	0.00e+00	0	36	0	1206910976	64	4477
2026-01-17 23:06:38.02	153.94	11.54	-46.6	-48.3	18.3	0.00e+00	0	36	0	1209008128	64	4478
2026-01-17 23:06:39.03	154.04	11.46	-46.5	-48.1	18.4	0.00e+00	0	35	0	1211105280	64	4383
2026-01-17 23:06:40.03	154.13	11.38	-46.4	-48.1	18.4	0.00e+00	0	36	0	1212153856	64	4387
2026-01-17 23:06:41.04	154.23	11.30	-46.4	-48.0	18.5	0.00e+00	0	36	0	1214251008	64	4329
2026-01-17 23:06:42.05	154.33	11.22	-46.3	-48.0	18.6	0.00e+00	0	36	0	1216348160	64	4294
2026-01-17 23:06:43.06	154.43	11.14	-46.3	-48.0	18.6	0.00e+00	0	36	0	1218445312	64	4319
2026-01-17 23:06:44.07	154.52	11.06	-46.4	-48.1	18.5	0.00e+00	0	35	0	1220542464	64	4359
2026-01-17 23:06:45.08	154.62	10.98	-46.3	-48.0	18.6	0.00e+00	0	36	0	1221591040	64	4319
2026-01-17 23:06:46.08	154.71	10.91	-46.5	-48.2	18.4	0.00e+00	0	35	0	1223688192	64	4433
2026-01-17 23:06:47.09	154.81	10.83	-46.5	-48.2	18.3	0.00e+00	0	36	0	1225785344	64	4439
2026-01-17 23:06:48.10	154.90	10.75	-46.6	-48.4	18.2	0.00e+00	0	36	0	1227882496	64	4519
2026-01-17 23:06:49.11	155.00	10.67	-46.6	-48.4	18.2	0.00e+00	0	36	0	1229979648	64	4510
2026-01-17 23:06:50.12	155.09	10.59	-46.6	-48.4	18.1	0.00e+00	0	36	0	1231028224	64	4520
2026-01-17 23:06:51.12	155.18	10.52	-46.8	-48.6	17.9	0.00e+00	0	35	0	1233125376	64	4616
