passes_logs/2026/01/17/R3.2S_Murmansk/R3.2S_Murmansk__20260117_055327_NOAA_20_JPSS-1_rec.log

#Pass ID: 20260117_055327_NOAA 20 (JPSS-1)
#Satellite: NOAA 20 (JPSS-1)
#Configuration: NOAA 20
#almurnet v.1.7.20251203
#Start time: 2026-01-17 05:53:27

#Version: 2.2.20231116
#Station: R3.2S_Murmansk
#Location: 33.079688 lon 68.888172 lat
#TLE: 1 43013U 17073A   26016.52825843  .00000039  00000+0  39346-4 0  9991
#TLE: 2 43013  98.7637 317.4515 0001446  37.2648 322.8628 14.19536276422951

#Time	Az	El	Level	Level2	SNR	BER	BlckErr	Temp	State	Recorded	gain1	gain2
2026-01-17 05:53:27.88	73.86	2.04	-51.6	-66.6	3.8	1.49e+00	0	32	0	0	75	19399
2026-01-17 05:53:28.90	73.79	2.10	-51.6	-66.6	3.8	1.49e+00	0	32	104	0	73	21765
2026-01-17 05:53:29.90	73.73	2.15	-51.6	-66.5	3.8	1.49e+00	0	32	104	0	73	21725
2026-01-17 05:53:30.91	73.67	2.21	-51.6	-66.5	3.8	1.49e+00	0	32	104	0	73	21713
2026-01-17 05:53:31.92	73.61	2.27	-51.6	-66.6	3.8	1.49e+00	0	32	104	0	73	21762
2026-01-17 05:53:32.93	73.54	2.33	-51.6	-66.5	3.8	1.49e+00	0	32	104	0	73	21701
2026-01-17 05:53:33.94	73.48	2.39	-51.6	-66.5	3.8	1.49e+00	0	32	104	0	73	21708
2026-01-17 05:53:34.95	73.41	2.45	-51.6	-66.5	3.8	1.49e+00	0	33	104	0	73	21681
2026-01-17 05:53:35.96	73.35	2.50	-51.6	-66.5	3.8	1.49e+00	0	32	104	0	73	21715
2026-01-17 05:53:36.97	73.29	2.56	-51.6	-66.5	3.8	1.49e+00	0	32	104	0	73	21708
2026-01-17 05:53:37.98	73.22	2.62	-51.6	-66.5	3.8	1.49e+00	0	32	104	0	73	21726
2026-01-17 05:53:38.99	73.16	2.68	-51.6	-66.5	3.8	1.49e+00	0	32	104	0	73	21754
2026-01-17 05:53:39.99	73.09	2.74	-51.6	-66.5	3.8	1.49e+00	0	32	104	0	73	21749
2026-01-17 05:53:41.00	73.02	2.80	-51.6	-66.5	3.8	1.49e+00	0	32	104	0	73	21701
2026-01-17 05:53:42.01	72.96	2.86	-51.6	-66.5	3.8	1.49e+00	0	32	104	0	73	21754
2026-01-17 05:53:43.02	72.89	2.91	-51.6	-66.5	3.8	1.49e+00	0	32	104	0	73	21706
2026-01-17 05:53:44.02	72.83	2.97	-51.6	-66.5	3.8	1.49e+00	0	33	104	0	73	21645
2026-01-17 05:53:45.03	72.76	3.03	-51.6	-66.5	3.8	1.49e+00	0	32	104	0	73	21594
2026-01-17 05:53:46.04	72.69	3.09	-51.6	-66.5	3.8	1.49e+00	0	32	104	0	73	21679
2026-01-17 05:53:47.05	72.63	3.15	-51.6	-66.5	3.8	1.49e+00	0	33	104	0	73	21606
2026-01-17 05:53:48.06	72.56	3.21	-51.6	-66.5	3.8	1.49e+00	0	33	104	0	73	21667
2026-01-17 05:53:49.07	72.49	3.27	-51.6	-66.5	3.8	1.49e+00	0	32	104	0	73	21698
2026-01-17 05:53:50.07	72.42	3.33	-51.6	-66.5	3.8	1.49e+00	0	33	104	0	73	21617
2026-01-17 05:53:51.08	72.35	3.39	-51.6	-66.5	3.8	1.49e+00	0	33	104	0	73	21672
2026-01-17 05:53:52.09	72.28	3.45	-51.6	-66.5	3.8	1.49e+00	0	33	104	0	73	21538
2026-01-17 05:53:53.10	72.22	3.51	-51.6	-66.4	3.8	1.49e+00	0	33	104	0	73	21477
2026-01-17 05:53:54.11	72.15	3.57	-51.6	-66.5	3.8	1.49e+00	0	33	104	0	73	21520
2026-01-17 05:53:55.12	72.08	3.63	-51.6	-66.5	3.8	1.49e+00	0	33	104	0	73	21551
2026-01-17 05:53:56.12	72.01	3.69	-51.6	-66.5	3.8	1.49e+00	0	33	104	0	73	21646
2026-01-17 05:53:57.13	71.94	3.75	-51.6	-66.6	3.8	1.49e+00	0	33	104	0	73	21789
2026-01-17 05:53:58.14	71.87	3.81	-51.6	-66.5	3.8	1.49e+00	0	33	104	0	73	21714
2026-01-17 05:53:59.15	71.79	3.87	-51.6	-66.4	3.8	1.49e+00	0	33	104	0	73	21447
2026-01-17 05:54:00.16	71.72	3.93	-51.5	-66.2	3.8	1.49e+00	0	33	104	0	73	20832
2026-01-17 05:54:01.16	71.65	3.99	-51.5	-65.7	3.8	1.49e+00	0	33	104	0	73	19701
2026-01-17 05:54:02.17	71.58	4.05	-51.5	-65.3	3.8	1.49e+00	0	33	104	0	73	18868
2026-01-17 05:54:03.18	71.51	4.11	-51.5	-64.7	3.8	1.49e+00	0	33	104	0	73	17656
2026-01-17 05:54:04.19	71.44	4.17	-51.4	-64.1	3.8	1.49e+00	0	33	104	0	73	16317
2026-01-17 05:54:05.20	71.36	4.23	-51.4	-63.1	4.2	1.41e+00	0	33	0	0	73	14668
2026-01-17 05:54:06.21	71.29	4.29	-51.3	-62.2	4.4	1.27e+00	141	33	0	0	73	13208
2026-01-17 05:54:07.22	71.22	4.36	-51.2	-61.5	4.8	9.85e-01	0	33	0	2097152	73	12108
2026-01-17 05:54:08.22	71.14	4.42	-51.2	-60.8	5.1	7.60e-01	0	33	0	4194304	73	11180
2026-01-17 05:54:09.23	71.07	4.48	-51.1	-60.0	5.6	4.93e-01	0	33	0	6291456	73	10186
2026-01-17 05:54:10.24	71.00	4.54	-51.0	-59.3	6.2	3.76e-01	0	33	0	8388608	73	9397
2026-01-17 05:54:11.25	70.92	4.60	-51.0	-59.3	6.1	3.16e-01	0	33	0	9437184	73	9463
2026-01-17 05:54:12.26	70.85	4.66	-50.9	-58.8	6.5	2.41e-01	0	33	0	11534336	73	8939
2026-01-17 05:54:13.27	70.77	4.72	-50.9	-59.0	6.4	2.25e-01	0	33	0	13631488	73	9081
2026-01-17 05:54:14.28	70.69	4.79	-50.9	-59.1	6.3	2.20e-01	0	33	0	15728640	73	9184
2026-01-17 05:54:15.29	70.62	4.85	-51.0	-59.6	5.9	2.91e-01	0	33	0	17825792	73	9771
2026-01-17 05:54:16.30	70.54	4.91	-51.0	-59.8	5.8	3.91e-01	0	33	0	18874368	73	9993
2026-01-17 05:54:17.31	70.46	4.97	-51.1	-60.1	5.5	4.54e-01	0	33	0	20971520	73	10378
2026-01-17 05:54:18.31	70.39	5.03	-51.2	-60.8	5.1	7.38e-01	0	33	0	23068672	73	11158
2026-01-17 05:54:19.32	70.31	5.10	-50.8	-58.1	7.3	2.04e-01	0	33	0	25165824	73	8196
2026-01-17 05:54:20.33	70.23	5.16	-50.8	-57.6	8.0	6.11e-03	0	33	0	27262976	72	8268
2026-01-17 05:54:21.34	70.16	5.22	-51.4	-63.8	3.9	1.28e+00	0	33	104	27262976	73	15854
2026-01-17 05:54:22.34	70.08	5.28	-49.5	-53.5	12.3	5.47e-04	0	33	0	27262976	71	5417
2026-01-17 05:54:23.35	70.00	5.35	-51.4	-61.3	4.8	1.02e+00	59	34	0	29360128	73	11938
2026-01-17 05:54:24.36	69.92	5.41	-49.6	-53.8	11.9	5.52e-03	0	33	0	30408704	71	5606
2026-01-17 05:54:25.37	69.84	5.47	-50.0	-54.7	11.0	1.45e-03	0	33	0	32505856	71	6234
2026-01-17 05:54:26.38	69.76	5.53	-49.7	-54.0	11.8	6.63e-04	0	33	0	34603008	71	5747
2026-01-17 05:54:27.38	69.68	5.60	-49.7	-53.9	11.9	7.48e-04	0	33	0	36700160	71	5662
2026-01-17 05:54:28.39	69.60	5.66	-49.5	-53.5	12.4	9.91e-05	0	34	0	38797312	70	5741
2026-01-17 05:54:29.40	69.52	5.72	-49.7	-53.8	12.0	2.56e-04	0	33	0	40894464	70	5963
2026-01-17 05:54:30.41	69.44	5.79	-49.6	-53.5	12.4	3.45e-04	0	34	0	41943040	70	5761
2026-01-17 05:54:31.42	69.36	5.85	-49.1	-52.5	13.4	1.22e-05	0	33	0	44040192	70	5146
2026-01-17 05:54:32.43	69.27	5.91	-48.8	-51.9	14.1	5.30e-06	0	33	0	46137344	69	5054
2026-01-17 05:54:33.44	69.19	5.98	-48.8	-51.9	14.1	7.00e-07	0	33	0	48234496	69	5069
2026-01-17 05:54:34.44	69.11	6.04	-48.8	-51.9	14.0	2.20e-06	0	33	0	49283072	69	5094
2026-01-17 05:54:35.45	69.03	6.11	-48.6	-51.6	14.4	7.00e-07	0	34	0	51380224	69	4913
2026-01-17 05:54:36.46	68.94	6.17	-48.7	-51.6	14.5	7.00e-07	0	34	0	53477376	69	4913
2026-01-17 05:54:37.47	68.86	6.23	-48.7	-51.8	14.4	7.00e-07	0	33	0	55574528	69	4987
2026-01-17 05:54:38.48	68.77	6.30	-48.6	-51.5	14.6	0.00e+00	0	34	0	57671680	69	4819
2026-01-17 05:54:39.48	68.69	6.36	-48.4	-51.2	14.8	0.00e+00	0	34	0	58720256	68	4977
2026-01-17 05:54:40.49	68.60	6.43	-48.5	-51.4	14.7	0.00e+00	0	34	0	60817408	68	5073
2026-01-17 05:54:41.50	68.52	6.49	-48.4	-51.2	14.9	0.00e+00	0	33	0	62914560	68	4959
2026-01-17 05:54:42.51	68.43	6.55	-48.5	-51.4	14.7	0.00e+00	0	34	0	65011712	68	5044
2026-01-17 05:54:43.52	68.35	6.62	-48.4	-51.2	15.0	0.00e+00	0	34	0	67108864	68	4936
2026-01-17 05:54:44.53	68.26	6.68	-48.3	-51.0	15.1	0.00e+00	0	34	0	69206016	68	4867
2026-01-17 05:54:45.54	68.17	6.75	-48.3	-50.9	15.2	0.00e+00	0	34	0	70254592	68	4810
2026-01-17 05:54:46.54	68.09	6.81	-48.4	-51.1	15.2	0.00e+00	0	33	0	72351744	68	4871
2026-01-17 05:54:47.55	68.00	6.88	-48.4	-51.2	15.0	0.00e+00	0	34	0	74448896	68	4939
2026-01-17 05:54:48.56	67.91	6.94	-48.3	-50.9	15.3	0.00e+00	0	34	0	76546048	68	4803
2026-01-17 05:54:49.57	67.82	7.01	-48.3	-51.0	15.2	7.00e-07	0	34	0	77594624	68	4832
2026-01-17 05:54:50.58	67.73	7.07	-48.4	-51.1	15.2	0.00e+00	0	34	0	79691776	68	4888
2026-01-17 05:54:51.58	67.64	7.14	-48.3	-51.0	15.3	0.00e+00	0	34	0	81788928	68	4816
2026-01-17 05:54:52.59	67.55	7.20	-48.4	-51.0	15.2	0.00e+00	0	34	0	83886080	68	4851
2026-01-17 05:54:53.60	67.46	7.27	-48.3	-50.9	15.4	0.00e+00	0	34	0	85983232	68	4762
2026-01-17 05:54:54.61	67.37	7.34	-48.4	-51.0	15.2	0.00e+00	0	34	0	88080384	68	4858
2026-01-17 05:54:55.62	67.28	7.40	-48.4	-51.1	15.2	0.00e+00	0	34	0	89128960	68	4904
2026-01-17 05:54:56.62	67.19	7.47	-48.4	-51.0	15.2	0.00e+00	0	34	0	91226112	68	4870
2026-01-17 05:54:57.63	67.10	7.53	-48.4	-51.1	15.3	0.00e+00	0	34	0	93323264	68	4879
2026-01-17 05:54:58.64	67.01	7.60	-48.4	-51.0	15.3	0.00e+00	0	34	0	95420416	68	4840
2026-01-17 05:54:59.65	66.91	7.67	-48.5	-51.2	15.1	0.00e+00	0	34	0	97517568	68	4937
2026-01-17 05:55:00.66	66.82	7.73	-48.2	-50.8	15.5	0.00e+00	0	34	0	98566144	68	4730
2026-01-17 05:55:01.66	66.73	7.80	-48.3	-50.9	15.4	0.00e+00	0	34	0	100663296	68	4793
2026-01-17 05:55:02.67	66.63	7.86	-48.4	-51.0	15.3	0.00e+00	0	33	0	102760448	68	4847
2026-01-17 05:55:03.68	66.54	7.93	-48.4	-51.0	15.3	0.00e+00	0	34	0	104857600	68	4825
2026-01-17 05:55:04.69	66.44	8.00	-48.3	-50.9	15.5	0.00e+00	0	34	0	106954752	68	4779
2026-01-17 05:55:05.70	66.35	8.06	-48.3	-50.9	15.5	0.00e+00	0	34	0	108003328	68	4760
2026-01-17 05:55:06.71	66.25	8.13	-48.4	-51.0	15.4	0.00e+00	0	34	0	110100480	68	4831
2026-01-17 05:55:07.72	66.15	8.20	-48.3	-50.9	15.5	0.00e+00	0	34	0	112197632	68	4786
2026-01-17 05:55:08.72	66.06	8.26	-48.3	-50.9	15.5	0.00e+00	0	34	0	114294784	68	4776
2026-01-17 05:55:09.73	65.96	8.33	-48.4	-51.0	15.4	0.00e+00	0	34	0	116391936	68	4837
2026-01-17 05:55:10.75	65.86	8.40	-48.2	-50.7	15.7	0.00e+00	0	34	0	117440512	68	4696
2026-01-17 05:55:11.75	65.76	8.47	-48.2	-50.6	15.8	0.00e+00	0	34	0	119537664	68	4631
2026-01-17 05:55:12.76	65.67	8.53	-48.2	-50.7	15.7	0.00e+00	0	34	0	121634816	68	4692
2026-01-17 05:55:13.77	65.57	8.60	-48.1	-50.6	15.9	0.00e+00	0	34	0	123731968	68	4600
2026-01-17 05:55:14.78	65.47	8.67	-48.2	-50.6	15.8	0.00e+00	0	34	0	125829120	68	4642
2026-01-17 05:55:15.79	65.37	8.74	-48.1	-50.6	15.8	0.00e+00	0	34	0	126877696	68	4614
2026-01-17 05:55:16.80	65.26	8.81	-48.1	-50.5	15.9	0.00e+00	0	34	0	128974848	68	4591
2026-01-17 05:55:17.80	65.16	8.87	-48.1	-50.5	16.0	0.00e+00	0	34	0	131072000	68	4562
2026-01-17 05:55:18.81	65.06	8.94	-47.9	-50.2	16.1	0.00e+00	0	34	0	133169152	67	4674
2026-01-17 05:55:19.82	64.96	9.01	-47.8	-50.1	16.3	0.00e+00	0	34	0	135266304	67	4617
2026-01-17 05:55:20.83	64.86	9.08	-47.8	-50.1	16.2	0.00e+00	0	34	0	136314880	67	4625
2026-01-17 05:55:21.84	64.75	9.15	-47.8	-50.1	16.2	0.00e+00	0	34	0	138412032	67	4638
2026-01-17 05:55:22.85	64.65	9.21	-47.9	-50.2	16.1	0.00e+00	0	34	0	140509184	67	4696
2026-01-17 05:55:23.86	64.55	9.28	-47.9	-50.3	16.1	0.00e+00	0	34	0	142606336	67	4721
2026-01-17 05:55:24.87	64.44	9.35	-47.8	-50.1	16.2	0.00e+00	0	34	0	144703488	67	4643
2026-01-17 05:55:25.88	64.34	9.42	-47.8	-50.1	16.2	0.00e+00	0	34	0	145752064	67	4643
2026-01-17 05:55:26.89	64.23	9.49	-47.8	-50.0	16.3	0.00e+00	0	34	0	147849216	67	4594
2026-01-17 05:55:27.89	64.13	9.56	-47.7	-49.9	16.5	0.00e+00	0	34	0	149946368	67	4541
2026-01-17 05:55:28.90	64.02	9.63	-47.8	-50.0	16.4	0.00e+00	0	34	0	152043520	67	4575
2026-01-17 05:55:29.91	63.91	9.70	-47.8	-50.0	16.4	0.00e+00	0	34	0	154140672	67	4575
2026-01-17 05:55:30.92	63.80	9.77	-47.7	-50.0	16.4	0.00e+00	0	34	0	155189248	67	4548
2026-01-17 05:55:31.92	63.70	9.83	-47.8	-50.0	16.4	0.00e+00	0	34	0	157286400	67	4597
2026-01-17 05:55:32.93	63.59	9.90	-47.8	-50.0	16.3	0.00e+00	0	34	0	159383552	67	4597
2026-01-17 05:55:33.94	63.48	9.97	-47.7	-50.0	16.4	0.00e+00	0	34	0	161480704	67	4560
2026-01-17 05:55:34.95	63.37	10.04	-47.9	-50.2	16.2	0.00e+00	0	34	0	163577856	67	4662
2026-01-17 05:55:35.96	63.26	10.11	-47.8	-50.1	16.3	0.00e+00	0	34	0	164626432	67	4612
2026-01-17 05:55:36.97	63.15	10.18	-47.9	-50.1	16.3	0.00e+00	0	34	0	166723584	67	4648
2026-01-17 05:55:37.98	63.03	10.25	-47.9	-50.3	16.2	0.00e+00	0	34	0	168820736	67	4708
2026-01-17 05:55:38.99	62.92	10.32	-47.9	-50.2	16.2	0.00e+00	0	34	0	170917888	67	4682
2026-01-17 05:55:40.00	62.81	10.39	-48.0	-50.3	16.2	0.00e+00	0	34	0	173015040	67	4723
2026-01-17 05:55:41.00	62.70	10.46	-48.0	-50.4	16.0	0.00e+00	0	34	0	175112192	67	4769
2026-01-17 05:55:42.01	62.58	10.53	-47.9	-50.2	16.2	0.00e+00	0	34	0	176160768	67	4694
2026-01-17 05:55:43.02	62.47	10.60	-47.9	-50.3	16.2	0.00e+00	0	34	0	178257920	67	4711
2026-01-17 05:55:44.03	62.35	10.67	-47.9	-50.2	16.3	0.00e+00	0	34	0	180355072	67	4699
2026-01-17 05:55:45.04	62.24	10.74	-47.9	-50.2	16.3	0.00e+00	0	34	0	182452224	67	4654
2026-01-17 05:55:46.05	62.12	10.81	-47.8	-50.1	16.4	0.00e+00	0	34	0	183500800	67	4606
2026-01-17 05:55:47.06	62.01	10.88	-47.9	-50.3	16.2	0.00e+00	0	34	0	185597952	67	4709
2026-01-17 05:55:48.06	61.89	10.95	-47.8	-50.1	16.4	0.00e+00	0	34	0	187695104	67	4603
2026-01-17 05:55:49.07	61.77	11.03	-47.9	-50.2	16.3	0.00e+00	0	34	0	189792256	67	4691
2026-01-17 05:55:50.08	61.65	11.10	-47.9	-50.1	16.3	0.00e+00	0	34	0	191889408	67	4630
2026-01-17 05:55:51.09	61.53	11.17	-47.8	-50.0	16.5	0.00e+00	0	34	0	193986560	67	4585
2026-01-17 05:55:52.10	61.42	11.24	-47.7	-49.9	16.6	0.00e+00	0	34	0	195035136	67	4524
2026-01-17 05:55:53.11	61.30	11.31	-47.7	-49.8	16.7	0.00e+00	0	34	0	197132288	67	4485
2026-01-17 05:55:54.11	61.18	11.38	-47.7	-49.8	16.7	0.00e+00	0	34	0	199229440	67	4484
2026-01-17 05:55:55.12	61.05	11.45	-47.7	-49.9	16.6	0.00e+00	0	34	0	201326592	67	4527
2026-01-17 05:55:56.13	60.93	11.52	-47.8	-50.0	16.6	0.00e+00	0	34	0	203423744	67	4550
2026-01-17 05:55:57.14	60.81	11.60	-47.7	-49.8	16.7	0.00e+00	0	34	0	204472320	67	4471
2026-01-17 05:55:58.15	60.69	11.67	-47.6	-49.7	16.8	0.00e+00	0	34	0	206569472	67	4434
2026-01-17 05:55:59.16	60.56	11.74	-47.6	-49.8	16.7	0.00e+00	0	34	0	208666624	67	4455
2026-01-17 05:56:00.16	60.44	11.81	-47.6	-49.7	16.9	0.00e+00	0	34	0	210763776	67	4397
2026-01-17 05:56:01.17	60.31	11.88	-47.5	-49.6	16.9	0.00e+00	0	34	0	211812352	66	4634
2026-01-17 05:56:02.18	60.19	11.95	-47.5	-49.6	16.9	0.00e+00	0	34	0	213909504	66	4632
2026-01-17 05:56:03.19	60.06	12.03	-47.5	-49.6	16.8	0.00e+00	0	34	0	216006656	66	4646
2026-01-17 05:56:04.20	59.94	12.10	-47.5	-49.6	16.9	0.00e+00	0	34	0	218103808	66	4610
2026-01-17 05:56:05.21	59.81	12.17	-47.4	-49.4	17.1	0.00e+00	0	34	0	220200960	66	4514
2026-01-17 05:56:06.21	59.68	12.24	-47.3	-49.3	17.2	0.00e+00	0	34	0	222298112	66	4465
2026-01-17 05:56:07.22	59.55	12.31	-47.3	-49.3	17.2	0.00e+00	0	34	0	223346688	66	4481
2026-01-17 05:56:08.23	59.42	12.39	-47.3	-49.2	17.3	0.00e+00	0	34	0	225443840	66	4435
2026-01-17 05:56:09.24	59.29	12.46	-47.2	-49.2	17.3	0.00e+00	0	34	0	227540992	66	4395
2026-01-17 05:56:10.24	59.16	12.53	-47.3	-49.2	17.2	0.00e+00	0	34	0	229638144	66	4430
2026-01-17 05:56:11.25	59.03	12.60	-47.3	-49.3	17.2	0.00e+00	0	34	0	231735296	66	4461
2026-01-17 05:56:12.26	58.90	12.67	-47.3	-49.2	17.3	0.00e+00	0	34	0	232783872	66	4435
2026-01-17 05:56:13.27	58.77	12.75	-47.2	-49.2	17.3	0.00e+00	0	34	0	234881024	66	4402
2026-01-17 05:56:14.28	58.63	12.82	-47.2	-49.2	17.3	0.00e+00	0	34	0	236978176	66	4418
2026-01-17 05:56:15.29	58.50	12.89	-47.3	-49.3	17.3	0.00e+00	0	34	0	239075328	66	4460
2026-01-17 05:56:16.30	58.36	12.97	-47.3	-49.3	17.3	0.00e+00	0	34	0	241172480	66	4460
2026-01-17 05:56:17.31	58.23	13.04	-47.3	-49.3	17.3	0.00e+00	0	34	0	242221056	66	4476
2026-01-17 05:56:18.31	58.09	13.11	-47.4	-49.4	17.2	0.00e+00	0	34	0	244318208	66	4495
2026-01-17 05:56:19.32	57.96	13.18	-47.3	-49.2	17.3	0.00e+00	0	34	0	246415360	66	4433
2026-01-17 05:56:20.33	57.82	13.26	-47.3	-49.2	17.4	0.00e+00	0	34	0	248512512	66	4423
2026-01-17 05:56:21.34	57.68	13.33	-47.2	-49.2	17.4	0.00e+00	0	34	0	250609664	66	4395
2026-01-17 05:56:22.34	57.54	13.40	-47.1	-49.0	17.6	0.00e+00	0	34	0	251658240	66	4303
2026-01-17 05:56:23.35	57.40	13.48	-47.1	-49.0	17.6	0.00e+00	0	34	0	253755392	66	4314
2026-01-17 05:56:24.36	57.26	13.55	-46.9	-48.8	17.7	0.00e+00	0	34	0	255852544	65	4484
2026-01-17 05:56:25.37	57.12	13.62	-46.9	-48.8	17.6	0.00e+00	0	34	0	257949696	65	4485
2026-01-17 05:56:26.37	56.98	13.69	-47.0	-48.9	17.4	0.00e+00	0	34	0	260046848	65	4536
2026-01-17 05:56:27.38	56.84	13.77	-46.9	-48.8	17.6	0.00e+00	0	34	0	261095424	65	4483
2026-01-17 05:56:28.39	56.70	13.84	-46.8	-48.6	17.9	0.00e+00	0	34	0	263192576	65	4362
2026-01-17 05:56:29.40	56.55	13.92	-46.9	-48.7	17.5	0.00e+00	0	34	0	265289728	65	4406
2026-01-17 05:56:30.41	56.41	13.99	-46.8	-48.6	17.7	0.00e+00	0	34	0	267386880	65	4371
2026-01-17 05:56:31.42	56.26	14.06	-46.7	-48.5	18.1	0.00e+00	0	34	0	269484032	65	4317
2026-01-17 05:56:32.42	56.12	14.14	-46.7	-48.5	18.0	0.00e+00	0	34	0	270532608	65	4306
2026-01-17 05:56:33.43	55.97	14.21	-46.7	-48.5	17.6	0.00e+00	0	34	0	272629760	65	4292
2026-01-17 05:56:34.44	55.82	14.28	-46.7	-48.5	16.6	0.00e+00	0	34	0	274726912	65	4303
2026-01-17 05:56:35.44	55.68	14.36	-46.8	-48.6	16.7	0.00e+00	0	34	0	276824064	65	4365
2026-01-17 05:56:36.45	55.53	14.43	-46.3	-48.3	11.8	0.00e+00	0	34	0	278921216	64	4461
2026-01-17 05:56:37.46	55.38	14.50	-44.6	-47.5	5.7	8.77e-02	0	34	0	279969792	61	4846
2026-01-17 05:56:38.47	55.23	14.58	-44.6	-47.6	5.4	4.82e-01	0	34	0	282066944	60	5215
2026-01-17 05:56:39.48	55.07	14.65	-45.5	-48.2	7.1	2.54e-01	0	34	0	284164096	61	5220
2026-01-17 05:56:40.48	54.92	14.72	-46.3	-48.5	10.5	3.08e-03	0	34	0	286261248	63	4834
2026-01-17 05:56:41.49	54.77	14.80	-46.9	-48.7	16.4	3.00e-06	0	34	0	288358400	64	4688
2026-01-17 05:56:42.50	54.62	14.87	-47.0	-48.8	17.2	0.00e+00	0	34	0	290455552	64	4752
2026-01-17 05:56:43.51	54.46	14.94	-46.9	-48.8	17.0	0.00e+00	0	34	0	291504128	64	4720
2026-01-17 05:56:44.52	54.31	15.02	-47.0	-48.9	17.2	0.00e+00	0	34	0	293601280	64	4761
2026-01-17 05:56:45.53	54.15	15.09	-47.0	-48.9	17.1	0.00e+00	0	34	0	295698432	64	4778
2026-01-17 05:56:46.54	53.99	15.17	-47.1	-48.9	17.6	0.00e+00	0	34	0	297795584	64	4808
2026-01-17 05:56:47.54	53.84	15.24	-47.2	-49.0	17.6	0.00e+00	0	34	0	298844160	64	4861
2026-01-17 05:56:48.55	53.68	15.31	-47.1	-49.0	17.1	0.00e+00	0	34	0	300941312	64	4866
2026-01-17 05:56:49.56	53.52	15.39	-47.1	-49.0	17.3	0.00e+00	0	34	0	303038464	64	4828
2026-01-17 05:56:50.57	53.36	15.46	-47.1	-48.9	17.8	0.00e+00	0	34	0	305135616	64	4793
2026-01-17 05:56:51.58	53.20	15.54	-47.1	-49.0	17.7	0.00e+00	0	34	0	307232768	64	4822
2026-01-17 05:56:52.58	53.04	15.61	-47.1	-48.9	17.7	0.00e+00	0	34	0	308281344	64	4800
2026-01-17 05:56:53.59	52.88	15.68	-47.2	-49.1	17.5	0.00e+00	0	34	0	310378496	64	4899
2026-01-17 05:56:54.60	52.71	15.76	-47.2	-49.1	17.5	0.00e+00	0	34	0	312475648	65	4647
2026-01-17 05:56:55.61	52.55	15.83	-47.3	-49.2	17.3	0.00e+00	0	34	0	314572800	65	4703
2026-01-17 05:56:56.62	52.39	15.90	-47.3	-49.3	17.2	0.00e+00	0	34	0	316669952	65	4733
2026-01-17 05:56:57.63	52.22	15.98	-47.3	-49.2	17.2	0.00e+00	0	34	0	318767104	65	4704
2026-01-17 05:56:58.64	52.05	16.05	-47.3	-49.2	17.5	0.00e+00	0	34	0	319815680	65	4670
2026-01-17 05:56:59.64	51.89	16.12	-47.3	-49.2	17.5	0.00e+00	0	34	0	321912832	65	4698
2026-01-17 05:57:00.65	51.72	16.20	-47.3	-49.2	17.4	0.00e+00	0	34	0	324009984	65	4674
2026-01-17 05:57:01.66	51.55	16.27	-47.3	-49.2	17.4	0.00e+00	0	34	0	326107136	65	4700
2026-01-17 05:57:02.67	51.38	16.34	-47.3	-49.3	17.4	0.00e+00	0	34	0	327155712	65	4718
2026-01-17 05:57:03.68	51.21	16.42	-47.4	-49.4	17.4	0.00e+00	0	34	0	329252864	65	4779
2026-01-17 05:57:04.69	51.04	16.49	-47.3	-49.3	17.4	0.00e+00	0	34	0	331350016	65	4728
2026-01-17 05:57:05.70	50.87	16.57	-47.4	-49.4	17.3	0.00e+00	0	34	0	333447168	65	4768
2026-01-17 05:57:06.71	50.69	16.64	-47.4	-49.3	17.5	0.00e+00	0	34	0	335544320	65	4725
2026-01-17 05:57:07.72	50.52	16.71	-47.4	-49.3	17.4	0.00e+00	0	34	0	337641472	65	4736
2026-01-17 05:57:08.72	50.35	16.79	-47.5	-49.5	17.2	0.00e+00	0	34	0	338690048	65	4816
2026-01-17 05:57:09.73	50.17	16.86	-47.5	-49.5	17.2	0.00e+00	0	34	0	340787200	65	4831
2026-01-17 05:57:10.74	49.99	16.93	-47.5	-49.5	17.2	0.00e+00	0	34	0	342884352	65	4866
2026-01-17 05:57:11.75	49.81	17.00	-47.4	-49.3	17.4	0.00e+00	0	34	0	344981504	65	4733
2026-01-17 05:57:12.76	49.64	17.08	-47.4	-49.4	17.4	0.00e+00	0	34	0	347078656	65	4766
2026-01-17 05:57:13.77	49.46	17.15	-47.4	-49.4	17.4	0.00e+00	0	34	0	348127232	65	4789
2026-01-17 05:57:14.78	49.28	17.22	-47.5	-49.5	17.3	0.00e+00	0	34	0	350224384	65	4834
2026-01-17 05:57:15.78	49.10	17.30	-47.5	-49.5	17.3	0.00e+00	0	34	0	352321536	65	4822
2026-01-17 05:57:16.79	48.92	17.37	-47.5	-49.5	17.3	0.00e+00	0	34	0	354418688	65	4843
2026-01-17 05:57:17.80	48.73	17.44	-47.5	-49.5	17.3	0.00e+00	0	34	0	356515840	65	4815
2026-01-17 05:57:18.81	48.55	17.51	-47.3	-49.2	17.6	0.00e+00	0	34	0	357564416	65	4672
2026-01-17 05:57:19.82	48.36	17.59	-47.3	-49.2	17.6	0.00e+00	0	34	0	359661568	65	4674
2026-01-17 05:57:20.82	48.18	17.66	-47.3	-49.3	17.5	0.00e+00	0	34	0	361758720	65	4716
2026-01-17 05:57:21.83	47.99	17.73	-47.3	-49.3	17.5	0.00e+00	0	34	0	363855872	65	4714
2026-01-17 05:57:22.84	47.81	17.80	-47.4	-49.4	17.4	0.00e+00	0	34	0	365953024	65	4792
2026-01-17 05:57:23.85	47.62	17.88	-47.4	-49.3	17.5	0.00e+00	0	34	0	367001600	65	4723
2026-01-17 05:57:24.86	47.43	17.95	-47.5	-49.4	17.4	0.00e+00	0	34	0	369098752	65	4796
2026-01-17 05:57:25.87	47.24	18.02	-47.2	-49.1	17.7	0.00e+00	0	34	0	371195904	65	4630
2026-01-17 05:57:26.88	47.05	18.09	-47.0	-48.8	18.0	0.00e+00	0	34	0	373293056	65	4482
2026-01-17 05:57:27.88	46.86	18.16	-47.1	-48.9	17.9	0.00e+00	0	34	0	375390208	65	4509
2026-01-17 05:57:28.89	46.66	18.23	-47.0	-48.9	17.9	0.00e+00	0	34	0	376438784	65	4503
2026-01-17 05:57:29.90	46.47	18.30	-46.9	-48.7	18.0	0.00e+00	0	34	0	378535936	65	4422
2026-01-17 05:57:30.91	46.28	18.38	-46.9	-48.6	18.2	0.00e+00	0	34	0	380633088	65	4376
2026-01-17 05:57:31.92	46.08	18.45	-46.8	-48.5	18.3	0.00e+00	0	34	0	382730240	65	4324
2026-01-17 05:57:32.92	45.89	18.52	-46.7	-48.4	18.5	0.00e+00	0	34	0	384827392	65	4243
2026-01-17 05:57:33.93	45.69	18.59	-46.6	-48.2	18.6	0.00e+00	0	34	0	385875968	65	4172
2026-01-17 05:57:34.94	45.49	18.66	-46.6	-48.3	18.5	0.00e+00	0	34	0	387973120	65	4217
2026-01-17 05:57:35.95	45.29	18.73	-46.4	-48.1	18.8	0.00e+00	0	34	0	390070272	64	4346
2026-01-17 05:57:36.96	45.09	18.80	-46.5	-48.1	18.7	0.00e+00	0	34	0	392167424	64	4364
2026-01-17 05:57:37.96	44.89	18.87	-46.2	-47.7	19.1	0.00e+00	0	34	0	394264576	64	4181
2026-01-17 05:57:38.97	44.69	18.94	-46.0	-47.6	19.2	0.00e+00	0	34	0	395313152	64	4103
2026-01-17 05:57:39.98	44.49	19.01	-46.0	-47.5	19.2	0.00e+00	0	34	0	397410304	64	4089
2026-01-17 05:57:40.99	44.28	19.08	-45.9	-47.3	19.5	0.00e+00	0	34	0	399507456	63	4212
2026-01-17 05:57:42.00	44.08	19.15	-45.8	-47.2	19.7	0.00e+00	0	34	0	401604608	63	4157
2026-01-17 05:57:43.01	43.87	19.22	-45.9	-47.3	19.6	0.00e+00	0	34	0	403701760	63	4224
2026-01-17 05:57:44.01	43.67	19.29	-45.7	-47.1	19.7	0.00e+00	0	34	0	404750336	63	4139
2026-01-17 05:57:45.02	43.46	19.35	-45.6	-47.0	19.9	0.00e+00	0	34	0	406847488	63	4091
2026-01-17 05:57:46.02	43.25	19.42	-45.6	-47.1	19.8	0.00e+00	0	34	0	408944640	63	4101
2026-01-17 05:57:47.03	43.04	19.49	-45.5	-46.9	19.9	0.00e+00	0	34	0	411041792	63	4042
2026-01-17 05:57:48.04	42.83	19.56	-45.6	-47.0	19.9	0.00e+00	0	34	0	413138944	63	4072
2026-01-17 05:57:49.05	42.62	19.63	-45.6	-47.0	19.8	0.00e+00	0	34	0	414187520	63	4091
2026-01-17 05:57:50.06	42.41	19.69	-45.4	-46.8	20.1	0.00e+00	0	34	0	416284672	62	4209
2026-01-17 05:57:51.07	42.19	19.76	-45.4	-46.8	20.1	0.00e+00	0	34	0	418381824	62	4208
2026-01-17 05:57:52.07	41.98	19.83	-45.4	-46.8	20.1	0.00e+00	0	34	0	420478976	62	4201
2026-01-17 05:57:53.09	41.76	19.90	-45.4	-46.7	20.1	0.00e+00	0	34	0	422576128	62	4179
2026-01-17 05:57:54.09	41.55	19.96	-45.4	-46.8	20.1	0.00e+00	0	34	0	424673280	62	4201
2026-01-17 05:57:55.10	41.33	20.03	-45.3	-46.6	20.2	0.00e+00	0	34	0	425721856	62	4142
2026-01-17 05:57:56.11	41.11	20.10	-45.2	-46.5	20.3	0.00e+00	0	34	0	427819008	62	4086
2026-01-17 05:57:57.12	40.89	20.16	-45.2	-46.5	20.4	0.00e+00	0	34	0	429916160	62	4073
2026-01-17 05:57:58.12	40.68	20.23	-45.2	-46.5	20.3	0.00e+00	0	34	0	432013312	62	4082
2026-01-17 05:57:59.13	40.46	20.29	-45.2	-46.5	20.4	0.00e+00	0	34	0	433061888	62	4075
2026-01-17 05:58:00.14	40.23	20.36	-45.3	-46.6	20.3	0.00e+00	0	34	0	435159040	62	4115
2026-01-17 05:58:01.15	40.01	20.42	-45.2	-46.5	20.4	0.00e+00	0	34	0	437256192	62	4075
2026-01-17 05:58:02.16	39.79	20.49	-45.1	-46.3	20.5	0.00e+00	0	34	0	439353344	62	4000
2026-01-17 05:58:03.17	39.56	20.55	-44.9	-46.2	20.7	0.00e+00	0	34	0	441450496	61	4160
2026-01-17 05:58:04.17	39.34	20.61	-44.9	-46.2	20.7	0.00e+00	0	34	0	442499072	61	4161
2026-01-17 05:58:05.18	39.11	20.68	-45.0	-46.3	20.6	0.00e+00	0	34	0	444596224	61	4212
2026-01-17 05:58:06.19	38.88	20.74	-45.0	-46.2	20.6	0.00e+00	0	35	0	446693376	61	4185
2026-01-17 05:58:07.20	38.65	20.80	-45.0	-46.2	20.6	0.00e+00	0	34	0	448790528	61	4180
2026-01-17 05:58:08.21	38.42	20.87	-45.0	-46.3	20.5	0.00e+00	0	34	0	450887680	61	4225
2026-01-17 05:58:09.22	38.19	20.93	-45.0	-46.2	20.6	0.00e+00	0	34	0	452984832	61	4183
2026-01-17 05:58:10.23	37.96	20.99	-45.0	-46.3	20.6	0.00e+00	0	34	0	454033408	61	4229
2026-01-17 05:58:11.24	37.73	21.05	-45.0	-46.3	20.6	0.00e+00	0	34	0	456130560	61	4210
2026-01-17 05:58:12.25	37.50	21.12	-45.1	-46.4	20.5	0.00e+00	0	34	0	458227712	61	4277
2026-01-17 05:58:13.26	37.26	21.18	-45.1	-46.4	20.5	0.00e+00	0	34	0	460324864	61	4257
2026-01-17 05:58:14.27	37.03	21.24	-45.2	-46.4	20.4	0.00e+00	0	34	0	461373440	61	4289
2026-01-17 05:58:15.28	36.79	21.30	-45.4	-46.7	20.2	0.00e+00	0	34	0	463470592	61	4416
2026-01-17 05:58:16.28	36.56	21.36	-45.3	-46.6	20.3	0.00e+00	0	34	0	465567744	61	4371
2026-01-17 05:58:17.29	36.32	21.42	-45.2	-46.5	20.4	0.00e+00	0	34	0	467664896	61	4331
2026-01-17 05:58:18.30	36.08	21.47	-45.1	-46.4	20.5	0.00e+00	0	34	0	469762048	61	4274
2026-01-17 05:58:19.31	35.84	21.53	-45.1	-46.4	20.5	0.00e+00	0	34	0	471859200	61	4243
2026-01-17 05:58:20.32	35.60	21.59	-45.2	-46.5	20.4	0.00e+00	0	34	0	472907776	61	4311
2026-01-17 05:58:21.32	35.36	21.65	-45.2	-46.5	20.4	0.00e+00	0	34	0	475004928	61	4299
2026-01-17 05:58:22.33	35.12	21.71	-45.3	-46.6	20.3	0.00e+00	0	34	0	477102080	61	4384
2026-01-17 05:58:23.34	34.87	21.76	-45.4	-46.7	20.2	0.00e+00	0	34	0	479199232	61	4423
2026-01-17 05:58:24.35	34.63	21.82	-45.4	-46.7	20.2	0.00e+00	0	34	0	481296384	61	4429
2026-01-17 05:58:25.36	34.38	21.88	-45.3	-46.6	20.3	0.00e+00	0	34	0	482344960	61	4389
2026-01-17 05:58:26.37	34.14	21.93	-45.2	-46.5	20.4	0.00e+00	0	34	0	484442112	61	4301
2026-01-17 05:58:27.38	33.89	21.99	-45.2	-46.4	20.5	0.00e+00	0	34	0	486539264	61	4291
2026-01-17 05:58:28.38	33.64	22.04	-45.1	-46.4	20.5	0.00e+00	0	34	0	488636416	61	4250
2026-01-17 05:58:29.39	33.40	22.10	-45.0	-46.3	20.6	0.00e+00	0	34	0	490733568	61	4214
2026-01-17 05:58:30.40	33.15	22.15	-45.1	-46.4	20.5	0.00e+00	0	34	0	491782144	61	4247
2026-01-17 05:58:31.41	32.90	22.20	-44.8	-46.1	20.8	0.00e+00	0	34	0	493879296	61	4100
2026-01-17 05:58:32.42	32.64	22.26	-44.8	-46.0	20.9	0.00e+00	0	34	0	495976448	61	4091
2026-01-17 05:58:33.43	32.39	22.31	-44.9	-46.1	20.7	0.00e+00	0	34	0	498073600	61	4137
2026-01-17 05:58:34.44	32.14	22.36	-45.0	-46.3	20.6	0.00e+00	0	34	0	500170752	61	4209
2026-01-17 05:58:35.45	31.88	22.41	-45.1	-46.4	20.6	0.00e+00	0	34	0	501219328	61	4246
2026-01-17 05:58:36.45	31.63	22.46	-45.0	-46.3	20.6	0.00e+00	0	34	0	503316480	61	4210
2026-01-17 05:58:37.46	31.38	22.51	-45.0	-46.2	20.7	0.00e+00	0	34	0	505413632	61	4188
2026-01-17 05:58:38.47	31.12	22.56	-44.9	-46.1	20.8	0.00e+00	0	34	0	507510784	61	4127
2026-01-17 05:58:39.48	30.86	22.61	-44.8	-46.1	20.8	0.00e+00	0	34	0	509607936	61	4108
2026-01-17 05:58:40.48	30.61	22.66	-44.8	-46.0	20.9	0.00e+00	0	34	0	510656512	61	4091
2026-01-17 05:58:41.49	30.35	22.71	-44.6	-45.8	21.1	0.00e+00	0	34	0	512753664	61	3999
2026-01-17 05:58:42.50	30.09	22.76	-44.6	-45.8	21.1	0.00e+00	0	34	0	514850816	61	3978
2026-01-17 05:58:43.51	29.83	22.80	-44.7	-45.9	21.0	0.00e+00	0	34	0	516947968	61	4022
2026-01-17 05:58:44.52	29.57	22.85	-44.6	-45.9	21.0	0.00e+00	0	34	0	519045120	61	4008
2026-01-17 05:58:45.53	29.30	22.90	-44.8	-46.0	20.9	0.00e+00	0	34	0	520093696	61	4079
2026-01-17 05:58:46.54	29.04	22.94	-44.7	-45.9	21.0	0.00e+00	0	34	0	522190848	61	4043
2026-01-17 05:58:47.55	28.78	22.99	-44.8	-46.0	20.9	0.00e+00	0	34	0	524288000	61	4065
2026-01-17 05:58:48.56	28.51	23.03	-44.7	-45.9	21.0	0.00e+00	0	34	0	526385152	61	4016
2026-01-17 05:58:49.57	28.25	23.08	-44.8	-46.0	21.0	0.00e+00	0	34	0	528482304	61	4065
2026-01-17 05:58:50.57	27.98	23.12	-44.8	-46.1	20.9	0.00e+00	0	34	0	529530880	61	4109
2026-01-17 05:58:51.58	27.72	23.16	-45.0	-46.3	20.6	0.00e+00	0	34	0	531628032	61	4224
2026-01-17 05:58:52.59	27.45	23.20	-45.1	-46.4	20.6	0.00e+00	0	34	0	533725184	61	4265
2026-01-17 05:58:53.60	27.18	23.25	-45.1	-46.4	20.6	0.00e+00	0	34	0	535822336	61	4259
2026-01-17 05:58:54.61	26.91	23.29	-44.9	-46.2	20.7	0.00e+00	0	34	0	537919488	61	4168
2026-01-17 05:58:55.62	26.64	23.33	-44.9	-46.1	20.8	0.00e+00	0	34	0	540016640	61	4118
2026-01-17 05:58:56.62	26.38	23.37	-44.9	-46.2	20.8	0.00e+00	0	34	0	541065216	61	4155
2026-01-17 05:58:57.63	26.10	23.40	-45.1	-46.3	20.6	0.00e+00	0	34	0	543162368	61	4227
2026-01-17 05:58:58.64	25.83	23.44	-45.0	-46.3	20.7	0.00e+00	0	34	0	545259520	61	4197
2026-01-17 05:58:59.65	25.56	23.48	-45.2	-46.5	20.5	0.00e+00	0	34	0	547356672	61	4309
2026-01-17 05:59:00.66	25.29	23.52	-45.2	-46.5	20.4	0.00e+00	0	34	0	548405248	61	4321
2026-01-17 05:59:01.67	25.01	23.55	-45.4	-46.7	20.2	0.00e+00	0	34	0	550502400	61	4430
2026-01-17 05:59:02.68	24.74	23.59	-45.6	-46.9	20.1	0.00e+00	0	34	0	552599552	61	4525
2026-01-17 05:59:03.68	24.47	23.62	-45.7	-47.1	19.9	0.00e+00	0	34	0	554696704	62	4386
2026-01-17 05:59:04.69	24.19	23.66	-46.0	-47.4	19.6	0.00e+00	0	34	0	556793856	62	4526
2026-01-17 05:59:05.70	23.92	23.69	-46.0	-47.5	19.5	0.00e+00	0	34	0	558891008	62	4573
2026-01-17 05:59:06.71	23.64	23.73	-46.1	-47.6	19.4	0.00e+00	0	34	0	559939584	62	4617
2026-01-17 05:59:07.72	23.36	23.76	-46.1	-47.6	19.4	0.00e+00	0	34	0	562036736	62	4608
2026-01-17 05:59:08.73	23.08	23.79	-46.3	-47.9	19.1	0.00e+00	0	34	0	564133888	63	4516
2026-01-17 05:59:09.74	22.81	23.82	-46.4	-47.9	19.0	0.00e+00	0	34	0	566231040	63	4541
2026-01-17 05:59:10.75	22.53	23.85	-46.5	-48.0	19.0	0.00e+00	0	34	0	568328192	63	4597
2026-01-17 05:59:11.76	22.25	23.88	-46.4	-47.9	19.1	0.00e+00	0	34	0	569376768	63	4530
2026-01-17 05:59:12.77	21.97	23.91	-46.4	-47.9	19.1	0.00e+00	0	34	0	571473920	63	4545
2026-01-17 05:59:13.78	21.69	23.94	-46.4	-48.0	19.1	0.00e+00	0	34	0	573571072	63	4565
2026-01-17 05:59:14.78	21.41	23.97	-46.5	-48.0	19.0	0.00e+00	0	34	0	575668224	63	4597
2026-01-17 05:59:15.79	21.13	23.99	-46.5	-48.0	19.0	0.00e+00	0	34	0	577765376	63	4584
2026-01-17 05:59:16.80	20.85	24.02	-46.4	-47.9	19.1	0.00e+00	0	34	0	578813952	63	4535
2026-01-17 05:59:17.81	20.56	24.04	-46.5	-48.1	18.9	0.00e+00	0	34	0	580911104	63	4635
2026-01-17 05:59:18.82	20.28	24.07	-46.5	-48.1	18.9	0.00e+00	0	34	0	583008256	63	4628
2026-01-17 05:59:19.83	20.00	24.09	-46.6	-48.2	18.9	0.00e+00	0	34	0	585105408	63	4652
2026-01-17 05:59:20.84	19.71	24.11	-46.6	-48.2	18.9	0.00e+00	0	34	0	587202560	63	4664
2026-01-17 05:59:21.85	19.43	24.14	-46.6	-48.2	18.8	0.00e+00	0	34	0	588251136	63	4705
2026-01-17 05:59:22.86	19.15	24.16	-46.6	-48.3	18.7	0.00e+00	0	34	0	590348288	64	4454
2026-01-17 05:59:23.86	18.86	24.18	-46.8	-48.5	18.5	0.00e+00	0	34	0	592445440	64	4549
2026-01-17 05:59:24.87	18.58	24.20	-46.8	-48.5	18.5	0.00e+00	0	34	0	594542592	64	4557
2026-01-17 05:59:25.88	18.29	24.22	-46.9	-48.6	18.3	0.00e+00	0	34	0	596639744	64	4635
2026-01-17 05:59:26.89	18.01	24.24	-46.9	-48.6	18.4	0.00e+00	0	34	0	597688320	64	4641
2026-01-17 05:59:27.90	17.72	24.25	-47.0	-48.7	18.3	0.00e+00	0	34	0	599785472	64	4666
2026-01-17 05:59:28.91	17.43	24.27	-46.8	-48.5	18.5	0.00e+00	0	34	0	601882624	64	4565
2026-01-17 05:59:29.91	17.15	24.29	-46.6	-48.2	18.7	0.00e+00	0	34	0	603979776	64	4439
2026-01-17 05:59:30.92	16.86	24.30	-46.6	-48.2	18.8	0.00e+00	0	34	0	606076928	64	4408
2026-01-17 05:59:31.92	16.58	24.32	-46.4	-48.0	19.0	0.00e+00	0	34	0	607125504	64	4305
2026-01-17 05:59:32.93	16.29	24.33	-46.3	-47.9	19.0	0.00e+00	0	34	0	609222656	64	4259
2026-01-17 05:59:33.94	16.00	24.35	-46.4	-48.0	18.9	0.00e+00	0	34	0	611319808	64	4323
2026-01-17 05:59:34.95	15.71	24.36	-46.5	-48.1	18.9	0.00e+00	0	34	0	613416960	64	4363
2026-01-17 05:59:35.96	15.43	24.37	-46.6	-48.2	18.8	0.00e+00	0	34	0	615514112	64	4406
2026-01-17 05:59:36.97	15.14	24.38	-46.6	-48.2	18.8	0.00e+00	0	34	0	616562688	64	4398
2026-01-17 05:59:37.97	14.85	24.39	-46.6	-48.2	18.7	0.00e+00	0	34	0	618659840	64	4424
2026-01-17 05:59:38.98	14.56	24.40	-46.6	-48.2	18.7	0.00e+00	0	34	0	620756992	64	4417
2026-01-17 05:59:39.99	14.27	24.41	-46.7	-48.3	18.7	0.00e+00	0	34	0	622854144	64	4470
2026-01-17 05:59:41.00	13.98	24.42	-46.7	-48.3	18.7	0.00e+00	0	34	0	624951296	64	4470
2026-01-17 05:59:42.00	13.70	24.42	-46.6	-48.2	18.8	0.00e+00	0	34	0	625999872	64	4401
2026-01-17 05:59:43.01	13.41	24.43	-46.5	-48.1	18.9	0.00e+00	0	34	0	628097024	64	4361
2026-01-17 05:59:44.02	13.12	24.43	-46.3	-47.8	19.1	0.00e+00	0	34	0	630194176	64	4227
2026-01-17 05:59:45.03	12.83	24.44	-46.2	-47.7	19.2	0.00e+00	0	34	0	632291328	64	4174
2026-01-17 05:59:46.04	12.54	24.44	-46.2	-47.8	19.2	0.00e+00	0	34	0	634388480	64	4197
2026-01-17 05:59:47.05	12.25	24.44	-46.3	-47.8	19.2	0.00e+00	0	34	0	635437056	64	4210
2026-01-17 05:59:48.06	11.96	24.45	-46.4	-48.0	18.9	0.00e+00	0	34	0	637534208	64	4316
2026-01-17 05:59:49.06	11.67	24.45	-46.4	-48.0	19.0	0.00e+00	0	34	0	639631360	64	4300
2026-01-17 05:59:50.07	11.38	24.45	-46.3	-47.8	19.1	0.00e+00	0	34	0	641728512	64	4234
2026-01-17 05:59:51.08	11.09	24.45	-46.2	-47.7	19.3	0.00e+00	0	34	0	643825664	64	4146
2026-01-17 05:59:52.09	10.80	24.45	-46.2	-47.7	19.2	0.00e+00	0	34	0	645922816	64	4180
2026-01-17 05:59:53.10	10.51	24.45	-46.0	-47.5	19.5	0.00e+00	0	34	0	646971392	64	4075
2026-01-17 05:59:54.11	10.22	24.44	-46.0	-47.5	19.6	0.00e+00	0	34	0	649068544	63	4313
2026-01-17 05:59:55.12	9.93	24.44	-46.0	-47.5	19.6	0.00e+00	0	34	0	651165696	63	4305
2026-01-17 05:59:56.12	9.64	24.43	-45.9	-47.4	19.7	0.00e+00	0	34	0	653262848	63	4247
2026-01-17 05:59:57.13	9.35	24.43	-45.8	-47.2	19.8	0.00e+00	0	34	0	654311424	63	4166
2026-01-17 05:59:58.14	9.06	24.42	-45.9	-47.3	19.7	0.00e+00	0	34	0	656408576	63	4218
2026-01-17 05:59:59.15	8.77	24.42	-45.7	-47.1	19.9	0.00e+00	0	34	0	658505728	63	4135
2026-01-17 06:00:00.16	8.49	24.41	-45.5	-46.9	20.2	0.00e+00	0	34	0	660602880	63	4021
2026-01-17 06:00:01.17	8.20	24.40	-45.5	-46.8	20.2	0.00e+00	0	34	0	662700032	62	4234
2026-01-17 06:00:02.18	7.91	24.39	-45.3	-46.6	20.4	0.00e+00	0	34	0	663748608	62	4137
2026-01-17 06:00:03.19	7.62	24.38	-45.4	-46.7	20.3	0.00e+00	0	34	0	665845760	62	4156
2026-01-17 06:00:04.20	7.33	24.37	-45.3	-46.6	20.4	0.00e+00	0	34	0	667942912	62	4130
2026-01-17 06:00:05.20	7.04	24.36	-45.2	-46.5	20.5	0.00e+00	0	34	0	670040064	62	4086
2026-01-17 06:00:06.21	6.76	24.35	-45.1	-46.4	20.6	0.00e+00	0	34	0	672137216	62	4033
2026-01-17 06:00:07.22	6.47	24.34	-44.9	-46.2	20.8	0.00e+00	0	34	0	674234368	61	4160
2026-01-17 06:00:08.23	6.18	24.32	-44.7	-45.9	21.1	0.00e+00	0	34	0	675282944	61	4014
2026-01-17 06:00:09.23	5.90	24.31	-44.6	-45.8	21.2	0.00e+00	0	34	0	677380096	61	3992
2026-01-17 06:00:10.24	5.61	24.29	-44.6	-45.8	21.2	0.00e+00	0	34	0	679477248	61	3977
2026-01-17 06:00:11.25	5.32	24.28	-44.8	-46.0	21.0	0.00e+00	0	34	0	681574400	61	4056
2026-01-17 06:00:12.26	5.03	24.26	-44.7	-45.9	21.1	0.00e+00	0	34	0	682622976	61	4019
2026-01-17 06:00:13.27	4.75	24.24	-44.7	-46.0	21.0	0.00e+00	0	34	0	684720128	61	4054
2026-01-17 06:00:14.28	4.46	24.22	-44.5	-45.6	21.3	0.00e+00	0	34	0	686817280	60	4127
2026-01-17 06:00:15.29	4.18	24.20	-44.3	-45.5	21.5	0.00e+00	0	34	0	688914432	60	4063
2026-01-17 06:00:16.29	3.89	24.18	-44.3	-45.4	21.5	0.00e+00	0	34	0	691011584	60	4043
2026-01-17 06:00:17.30	3.61	24.16	-44.3	-45.5	21.5	0.00e+00	0	35	0	693108736	60	4055
2026-01-17 06:00:18.31	3.33	24.14	-44.4	-45.6	21.4	0.00e+00	0	34	0	694157312	60	4118
2026-01-17 06:00:19.32	3.04	24.12	-44.4	-45.5	21.4	0.00e+00	0	34	0	696254464	60	4086
2026-01-17 06:00:20.33	2.76	24.10	-44.3	-45.4	21.5	0.00e+00	0	34	0	698351616	60	4035
2026-01-17 06:00:21.34	2.47	24.07	-44.2	-45.4	21.6	0.00e+00	0	34	0	700448768	60	4008
2026-01-17 06:00:22.35	2.19	24.05	-44.4	-45.5	21.4	0.00e+00	0	34	0	702545920	60	4081
2026-01-17 06:00:23.35	1.91	24.02	-44.4	-45.5	21.4	0.00e+00	0	34	0	703594496	60	4091
2026-01-17 06:00:24.36	1.63	24.00	-44.5	-45.6	21.3	0.00e+00	0	34	0	705691648	60	4135
2026-01-17 06:00:25.37	1.35	23.97	-44.5	-45.7	21.2	0.00e+00	0	34	0	707788800	60	4147
2026-01-17 06:00:26.38	1.07	23.94	-44.5	-45.6	21.3	0.00e+00	0	34	0	709885952	60	4141
2026-01-17 06:00:27.39	0.79	23.92	-44.6	-45.7	21.2	0.00e+00	0	34	0	711983104	60	4186
2026-01-17 06:00:28.40	0.51	23.89	-44.6	-45.8	21.2	0.00e+00	0	34	0	713031680	60	4213
2026-01-17 06:00:29.41	0.23	23.86	-44.6	-45.8	21.2	0.00e+00	0	34	0	715128832	60	4229
2026-01-17 06:00:30.42	359.95	23.83	-44.7	-45.9	21.1	0.00e+00	0	34	0	717225984	60	4251
2026-01-17 06:00:31.43	359.67	23.80	-44.7	-45.9	21.1	0.00e+00	0	34	0	719323136	60	4266
2026-01-17 06:00:32.44	359.39	23.77	-44.8	-46.0	21.0	0.00e+00	0	34	0	721420288	60	4296
2026-01-17 06:00:33.44	359.12	23.73	-44.8	-46.0	21.0	0.00e+00	0	34	0	722468864	60	4314
2026-01-17 06:00:34.45	358.84	23.70	-44.8	-46.1	20.9	0.00e+00	0	34	0	724566016	60	4357
2026-01-17 06:00:35.46	358.57	23.67	-44.9	-46.2	20.8	0.00e+00	0	34	0	726663168	60	4396
2026-01-17 06:00:36.47	358.29	23.63	-45.0	-46.2	20.8	0.00e+00	0	34	0	728760320	60	4416
2026-01-17 06:00:37.48	358.01	23.60	-45.1	-46.4	20.6	0.00e+00	0	34	0	730857472	60	4510
2026-01-17 06:00:38.48	357.74	23.56	-45.1	-46.4	20.6	0.00e+00	0	34	0	731906048	60	4522
2026-01-17 06:00:39.49	357.47	23.53	-45.3	-46.6	20.4	0.00e+00	0	34	0	734003200	61	4364
2026-01-17 06:00:40.50	357.20	23.49	-45.4	-46.7	20.3	0.00e+00	0	34	0	736100352	61	4441
2026-01-17 06:00:41.51	356.92	23.45	-45.5	-46.8	20.2	0.00e+00	0	34	0	738197504	61	4485
2026-01-17 06:00:42.52	356.65	23.41	-45.6	-47.0	20.1	0.00e+00	0	34	0	740294656	61	4551
2026-01-17 06:00:43.52	356.38	23.38	-45.6	-47.0	20.0	0.00e+00	0	34	0	741343232	61	4576
2026-01-17 06:00:44.53	356.11	23.34	-45.6	-46.9	20.1	0.00e+00	0	34	0	743440384	61	4527
2026-01-17 06:00:45.54	355.84	23.30	-45.6	-46.9	20.1	0.00e+00	0	34	0	745537536	61	4526
2026-01-17 06:00:46.55	355.58	23.26	-45.6	-47.0	20.0	0.00e+00	0	34	0	747634688	61	4569
2026-01-17 06:00:47.56	355.31	23.21	-45.7	-47.1	20.0	0.00e+00	0	34	0	749731840	61	4601
2026-01-17 06:00:48.57	355.04	23.17	-45.7	-47.0	20.0	0.00e+00	0	34	0	750780416	61	4595
2026-01-17 06:00:49.57	354.78	23.13	-45.7	-47.1	20.0	0.00e+00	0	34	0	752877568	61	4600
2026-01-17 06:00:50.58	354.51	23.09	-45.9	-47.3	19.8	0.00e+00	0	34	0	754974720	62	4451
2026-01-17 06:00:51.59	354.25	23.04	-45.9	-47.3	19.7	0.00e+00	0	34	0	757071872	62	4482
2026-01-17 06:00:52.60	353.98	23.00	-46.1	-47.5	19.5	0.00e+00	0	34	0	759169024	62	4577
2026-01-17 06:00:53.61	353.72	22.95	-46.2	-47.6	19.4	0.00e+00	0	34	0	761266176	62	4646
2026-01-17 06:00:54.62	353.45	22.91	-46.2	-47.7	19.4	0.00e+00	0	34	0	762314752	62	4668
2026-01-17 06:00:55.63	353.19	22.86	-46.2	-47.7	19.3	0.00e+00	0	34	0	764411904	63	4413
2026-01-17 06:00:56.64	352.93	22.82	-46.3	-47.8	19.3	0.00e+00	0	34	0	766509056	63	4442
2026-01-17 06:00:57.64	352.67	22.77	-46.2	-47.7	19.4	0.00e+00	0	34	0	768606208	63	4406
2026-01-17 06:00:58.65	352.41	22.72	-46.1	-47.6	19.5	0.00e+00	0	34	0	769654784	63	4360
2026-01-17 06:00:59.66	352.15	22.67	-46.1	-47.5	19.5	0.00e+00	0	34	0	771751936	63	4329
2026-01-17 06:01:00.67	351.90	22.62	-46.2	-47.6	19.4	0.00e+00	0	34	0	773849088	63	4380
2026-01-17 06:01:01.68	351.64	22.58	-46.2	-47.7	19.3	0.00e+00	0	34	0	775946240	63	4426
2026-01-17 06:01:02.69	351.38	22.53	-46.4	-48.0	19.1	0.00e+00	0	34	0	778043392	63	4557
2026-01-17 06:01:03.70	351.13	22.48	-46.5	-48.1	19.0	0.00e+00	0	34	0	780140544	63	4606
2026-01-17 06:01:04.71	350.87	22.42	-46.6	-48.2	18.9	0.00e+00	0	34	0	781189120	63	4671
2026-01-17 06:01:05.72	350.62	22.37	-46.6	-48.2	18.9	0.00e+00	0	34	0	783286272	63	4672
2026-01-17 06:01:06.73	350.36	22.32	-46.7	-48.3	18.8	0.00e+00	0	34	0	785383424	63	4718
2026-01-17 06:01:07.73	350.11	22.27	-46.6	-48.2	18.8	0.00e+00	0	34	0	787480576	63	4704
2026-01-17 06:01:08.74	349.86	22.22	-46.5	-48.1	18.9	0.00e+00	0	34	0	789577728	63	4642
2026-01-17 06:01:09.75	349.61	22.16	-46.6	-48.2	18.8	0.00e+00	0	34	0	790626304	63	4679
2026-01-17 06:01:10.76	349.36	22.11	-46.5	-48.1	18.9	0.00e+00	0	34	0	792723456	63	4618
2026-01-17 06:01:11.77	349.11	22.06	-46.4	-47.9	19.2	0.00e+00	0	34	0	794820608	63	4537
2026-01-17 06:01:12.78	348.87	22.00	-46.4	-47.9	19.1	0.00e+00	0	34	0	796917760	63	4535
2026-01-17 06:01:13.78	348.62	21.95	-46.5	-48.1	18.9	0.00e+00	0	34	0	797966336	63	4632
2026-01-17 06:01:14.79	348.37	21.89	-46.7	-48.4	18.6	0.00e+00	0	34	0	800063488	64	4509
2026-01-17 06:01:15.80	348.13	21.83	-46.7	-48.3	18.6	0.00e+00	0	34	0	802160640	64	4471
2026-01-17 06:01:16.81	347.89	21.78	-46.6	-48.3	18.7	0.00e+00	0	34	0	804257792	64	4456
2026-01-17 06:01:17.82	347.64	21.72	-46.5	-48.1	18.8	0.00e+00	0	34	0	806354944	64	4385
2026-01-17 06:01:18.82	347.40	21.66	-46.3	-47.9	19.1	0.00e+00	0	34	0	808452096	64	4249
2026-01-17 06:01:19.83	347.16	21.61	-46.2	-47.7	19.2	0.00e+00	0	34	0	809500672	64	4180
2026-01-17 06:01:20.84	346.92	21.55	-46.2	-47.8	19.1	0.00e+00	0	34	0	811597824	64	4201
2026-01-17 06:01:21.85	346.68	21.49	-46.3	-47.8	19.2	0.00e+00	0	34	0	813694976	64	4213
2026-01-17 06:01:22.86	346.44	21.43	-46.3	-47.9	19.0	0.00e+00	0	34	0	815792128	64	4261
2026-01-17 06:01:23.86	346.20	21.37	-46.4	-48.0	18.9	0.00e+00	0	34	0	817889280	64	4313
2026-01-17 06:01:24.87	345.97	21.31	-46.5	-48.1	18.8	0.00e+00	0	34	0	818937856	64	4354
2026-01-17 06:01:25.88	345.73	21.25	-46.3	-47.8	19.1	0.00e+00	0	34	0	821035008	64	4208
2026-01-17 06:01:26.89	345.50	21.19	-46.3	-47.8	19.1	0.00e+00	0	34	0	823132160	64	4222
2026-01-17 06:01:27.90	345.26	21.13	-46.2	-47.8	19.0	0.00e+00	0	34	0	825229312	64	4201
2026-01-17 06:01:28.90	345.03	21.07	-46.1	-47.6	19.3	0.00e+00	0	34	0	827326464	64	4107
2026-01-17 06:01:29.91	344.80	21.01	-46.1	-47.6	19.3	0.00e+00	0	34	0	828375040	64	4143
2026-01-17 06:01:30.92	344.57	20.95	-46.1	-47.6	19.5	0.00e+00	0	35	0	830472192	63	4351
2026-01-17 06:01:31.93	344.34	20.89	-46.1	-47.6	19.4	0.00e+00	0	34	0	832569344	63	4350
2026-01-17 06:01:32.94	344.11	20.82	-46.1	-47.5	19.4	0.00e+00	0	34	0	834666496	63	4337
2026-01-17 06:01:33.94	343.88	20.76	-46.0	-47.5	19.5	0.00e+00	0	34	0	836763648	63	4313
2026-01-17 06:01:34.95	343.65	20.70	-46.0	-47.5	19.5	0.00e+00	0	35	0	837812224	63	4325
2026-01-17 06:01:35.96	343.43	20.63	-46.1	-47.6	19.4	0.00e+00	0	34	0	839909376	63	4372
2026-01-17 06:01:36.97	343.20	20.57	-45.9	-47.4	19.6	0.00e+00	0	34	0	842006528	63	4252
2026-01-17 06:01:37.98	342.97	20.51	-45.8	-47.3	19.7	0.00e+00	0	35	0	844103680	63	4196
2026-01-17 06:01:38.98	342.75	20.44	-45.9	-47.4	19.7	0.00e+00	0	34	0	846200832	63	4252
2026-01-17 06:01:39.99	342.53	20.38	-45.9	-47.3	19.7	0.00e+00	0	34	0	847249408	63	4223
2026-01-17 06:01:41.00	342.31	20.31	-45.9	-47.3	19.6	0.00e+00	0	34	0	849346560	63	4232
2026-01-17 06:01:42.01	342.09	20.25	-46.0	-47.4	19.6	0.00e+00	0	34	0	851443712	63	4286
2026-01-17 06:01:43.02	341.87	20.18	-46.0	-47.4	19.6	0.00e+00	0	34	0	853540864	63	4280
2026-01-17 06:01:44.02	341.65	20.12	-46.0	-47.5	19.5	0.00e+00	0	34	0	855638016	63	4295
2026-01-17 06:01:45.03	341.43	20.05	-45.9	-47.4	19.6	0.00e+00	0	34	0	856686592	63	4258
2026-01-17 06:01:46.03	341.22	19.98	-45.9	-47.4	19.6	0.00e+00	0	34	0	858783744	63	4265
2026-01-17 06:01:47.04	341.00	19.92	-45.9	-47.3	19.7	0.00e+00	0	34	0	860880896	63	4225
2026-01-17 06:01:48.05	340.78	19.85	-45.9	-47.3	19.7	0.00e+00	0	34	0	862978048	63	4208
2026-01-17 06:01:49.06	340.57	19.78	-45.9	-47.4	19.6	0.00e+00	0	34	0	865075200	63	4246
2026-01-17 06:01:50.07	340.36	19.72	-45.8	-47.3	19.7	0.00e+00	0	34	0	866123776	63	4198
2026-01-17 06:01:51.08	340.14	19.65	-45.8	-47.3	19.7	0.00e+00	0	34	0	868220928	63	4198
2026-01-17 06:01:52.09	339.93	19.58	-45.8	-47.3	19.7	0.00e+00	0	34	0	870318080	63	4200
2026-01-17 06:01:53.10	339.72	19.51	-45.9	-47.3	19.5	0.00e+00	0	34	0	872415232	63	4238
2026-01-17 06:01:54.10	339.51	19.44	-46.0	-47.4	19.6	0.00e+00	0	34	0	874512384	63	4285
2026-01-17 06:01:55.11	339.31	19.38	-45.9	-47.4	19.6	0.00e+00	0	34	0	875560960	63	4260
2026-01-17 06:01:56.12	339.10	19.31	-46.0	-47.5	19.5	0.00e+00	0	34	0	877658112	63	4302
2026-01-17 06:01:57.13	338.89	19.24	-46.0	-47.5	19.5	0.00e+00	0	34	0	879755264	63	4312
2026-01-17 06:01:58.14	338.68	19.17	-46.1	-47.6	19.4	0.00e+00	0	34	0	881852416	63	4358
2026-01-17 06:01:59.14	338.48	19.10	-46.1	-47.6	19.4	0.00e+00	0	34	0	883949568	63	4353
2026-01-17 06:02:00.15	338.28	19.03	-46.1	-47.6	19.4	0.00e+00	0	34	0	884998144	63	4363
2026-01-17 06:02:01.16	338.07	18.96	-46.1	-47.7	19.3	0.00e+00	0	34	0	887095296	63	4394
2026-01-17 06:02:02.17	337.87	18.89	-46.1	-47.6	19.3	0.00e+00	0	34	0	889192448	63	4383
2026-01-17 06:02:03.18	337.67	18.82	-46.2	-47.7	19.3	0.00e+00	0	34	0	891289600	63	4400
2026-01-17 06:02:04.18	337.47	18.75	-45.9	-47.4	19.6	0.00e+00	0	34	0	893386752	63	4255
2026-01-17 06:02:05.19	337.27	18.68	-45.9	-47.3	19.6	0.00e+00	0	34	0	895483904	63	4231
2026-01-17 06:02:06.20	337.08	18.61	-45.9	-47.3	19.7	0.00e+00	0	34	0	896532480	63	4213
2026-01-17 06:02:07.21	336.88	18.54	-45.8	-47.2	19.7	0.00e+00	0	34	0	898629632	63	4186
2026-01-17 06:02:08.22	336.68	18.47	-45.8	-47.2	19.7	0.00e+00	0	34	0	900726784	63	4193
2026-01-17 06:02:09.22	336.49	18.40	-45.9	-47.3	19.6	0.00e+00	0	34	0	902823936	63	4216
2026-01-17 06:02:10.23	336.29	18.33	-45.9	-47.3	19.6	0.00e+00	0	34	0	903872512	63	4233
2026-01-17 06:02:11.24	336.10	18.26	-45.9	-47.3	19.6	0.00e+00	0	34	0	905969664	63	4227
2026-01-17 06:02:12.25	335.91	18.19	-45.9	-47.4	19.6	0.00e+00	0	34	0	908066816	63	4252
2026-01-17 06:02:13.25	335.72	18.11	-45.8	-47.2	19.7	0.00e+00	0	34	0	910163968	63	4184
2026-01-17 06:02:14.26	335.53	18.04	-45.8	-47.2	19.7	0.00e+00	0	34	0	912261120	63	4168
2026-01-17 06:02:15.27	335.33	17.97	-45.8	-47.2	19.8	0.00e+00	0	34	0	913309696	63	4161
2026-01-17 06:02:16.28	335.15	17.90	-45.8	-47.2	19.7	0.00e+00	0	34	0	915406848	63	4168
2026-01-17 06:02:17.28	334.96	17.83	-45.6	-47.0	19.9	0.00e+00	0	34	0	917504000	63	4056
2026-01-17 06:02:18.29	334.77	17.76	-45.7	-47.1	19.8	0.00e+00	0	34	0	919601152	63	4109
2026-01-17 06:02:19.30	334.59	17.68	-45.7	-47.1	19.8	0.00e+00	0	34	0	921698304	63	4135
2026-01-17 06:02:20.31	334.40	17.61	-45.6	-46.9	20.0	0.00e+00	0	34	0	923795456	63	4045
2026-01-17 06:02:21.32	334.22	17.54	-45.4	-46.7	20.2	0.00e+00	0	34	0	924844032	62	4159
2026-01-17 06:02:22.32	334.03	17.47	-45.4	-46.7	20.1	0.00e+00	0	34	0	926941184	62	4174
2026-01-17 06:02:23.33	333.85	17.39	-45.3	-46.6	20.2	0.00e+00	0	34	0	929038336	62	4139
2026-01-17 06:02:24.34	333.67	17.32	-45.2	-46.5	20.3	0.00e+00	0	34	0	931135488	62	4087
2026-01-17 06:02:25.35	333.49	17.25	-45.2	-46.5	20.3	0.00e+00	0	34	0	932184064	62	4098
2026-01-17 06:02:26.36	333.31	17.18	-45.3	-46.6	20.3	0.00e+00	0	34	0	934281216	62	4108
2026-01-17 06:02:27.37	333.13	17.10	-45.4	-46.7	20.2	0.00e+00	0	34	0	936378368	62	4164
2026-01-17 06:02:28.38	332.95	17.03	-45.4	-46.7	20.1	0.00e+00	0	34	0	938475520	62	4176
2026-01-17 06:02:29.39	332.77	16.96	-45.3	-46.7	20.2	0.00e+00	0	34	0	940572672	62	4155
2026-01-17 06:02:30.40	332.59	16.88	-45.3	-46.6	20.2	0.00e+00	0	34	0	942669824	62	4138
2026-01-17 06:02:31.40	332.42	16.81	-45.3	-46.7	20.2	0.00e+00	0	34	0	943718400	62	4149
2026-01-17 06:02:32.41	332.25	16.74	-45.3	-46.6	20.3	0.00e+00	0	34	0	945815552	62	4124
2026-01-17 06:02:33.42	332.07	16.67	-45.1	-46.4	20.4	0.00e+00	0	34	0	947912704	62	4049
2026-01-17 06:02:34.43	331.90	16.59	-45.1	-46.5	20.4	0.00e+00	0	34	0	950009856	62	4052
2026-01-17 06:02:35.44	331.73	16.52	-45.1	-46.4	20.4	0.00e+00	0	34	0	952107008	62	4032
2026-01-17 06:02:36.44	331.56	16.45	-45.0	-46.2	20.6	0.00e+00	0	34	0	953155584	61	4184
2026-01-17 06:02:37.45	331.39	16.37	-45.0	-46.2	20.6	0.00e+00	0	34	0	955252736	61	4185
2026-01-17 06:02:38.46	331.22	16.30	-45.0	-46.3	20.5	0.00e+00	0	34	0	957349888	61	4209
2026-01-17 06:02:39.47	331.05	16.22	-45.1	-46.3	20.4	0.00e+00	0	34	0	959447040	61	4242
2026-01-17 06:02:40.48	330.88	16.15	-45.1	-46.4	20.4	0.00e+00	0	34	0	961544192	61	4278
2026-01-17 06:02:41.48	330.71	16.08	-45.2	-46.5	20.3	0.00e+00	0	34	0	962592768	61	4339
2026-01-17 06:02:42.49	330.55	16.00	-45.3	-46.7	20.1	0.00e+00	0	34	0	964689920	61	4410
2026-01-17 06:02:43.50	330.38	15.93	-45.2	-46.5	20.3	0.00e+00	0	34	0	966787072	61	4312
2026-01-17 06:02:44.51	330.22	15.86	-45.3	-46.6	20.2	0.00e+00	0	34	0	968884224	61	4383
2026-01-17 06:02:45.52	330.05	15.78	-45.3	-46.6	20.2	0.00e+00	0	34	0	970981376	61	4367
2026-01-17 06:02:46.52	329.89	15.71	-45.3	-46.6	20.2	0.00e+00	0	34	0	972029952	61	4389
2026-01-17 06:02:47.53	329.73	15.64	-45.2	-46.5	20.3	0.00e+00	0	34	0	974127104	61	4327
2026-01-17 06:02:48.54	329.57	15.56	-45.1	-46.5	20.3	0.00e+00	0	34	0	976224256	61	4297
2026-01-17 06:02:49.55	329.41	15.49	-45.2	-46.6	20.3	0.00e+00	0	34	0	978321408	61	4352
2026-01-17 06:02:50.56	329.25	15.42	-45.2	-46.6	20.2	0.00e+00	0	34	0	980418560	61	4341
2026-01-17 06:02:51.57	329.09	15.34	-45.2	-46.5	20.3	0.00e+00	0	34	0	981467136	61	4311
2026-01-17 06:02:52.57	328.93	15.27	-45.2	-46.6	20.2	0.00e+00	0	34	0	983564288	61	4345
2026-01-17 06:02:53.58	328.77	15.20	-45.1	-46.4	20.3	0.00e+00	0	34	0	985661440	61	4290
2026-01-17 06:02:54.59	328.61	15.12	-45.2	-46.5	20.3	0.00e+00	0	34	0	987758592	61	4325
2026-01-17 06:02:55.60	328.46	15.05	-45.3	-46.6	20.1	0.00e+00	0	34	0	989855744	61	4378
2026-01-17 06:02:56.61	328.30	14.97	-45.2	-46.6	20.2	0.00e+00	0	34	0	990904320	61	4353
2026-01-17 06:02:57.61	328.15	14.90	-45.3	-46.7	20.0	0.00e+00	0	34	0	993001472	61	4420
2026-01-17 06:02:58.62	328.00	14.83	-45.4	-46.8	20.0	0.00e+00	0	34	0	995098624	61	4460
2026-01-17 06:02:59.63	327.84	14.75	-45.4	-46.8	20.0	0.00e+00	0	34	0	997195776	61	4475
2026-01-17 06:03:00.64	327.69	14.68	-45.5	-46.9	19.8	0.00e+00	0	34	0	999292928	61	4545
2026-01-17 06:03:01.65	327.54	14.61	-45.6	-47.1	19.7	0.00e+00	0	34	0	1000341504	61	4606
2026-01-17 06:03:02.66	327.39	14.53	-45.8	-47.2	19.6	0.00e+00	0	34	0	1002438656	62	4422
2026-01-17 06:03:03.66	327.24	14.46	-45.8	-47.3	19.5	0.00e+00	0	34	0	1004535808	62	4455
2026-01-17 06:03:04.67	327.09	14.39	-45.9	-47.4	19.4	0.00e+00	0	34	0	1006632960	62	4538
2026-01-17 06:03:05.68	326.94	14.31	-46.0	-47.5	19.3	0.00e+00	0	34	0	1008730112	62	4550
2026-01-17 06:03:06.68	326.80	14.24	-45.9	-47.4	19.3	0.00e+00	0	34	0	1009778688	62	4545
2026-01-17 06:03:07.69	326.65	14.17	-46.0	-47.5	19.2	0.00e+00	0	34	0	1011875840	62	4582
2026-01-17 06:03:08.71	326.50	14.09	-46.0	-47.5	19.3	0.00e+00	0	34	0	1013972992	62	4560
2026-01-17 06:03:09.71	326.36	14.02	-46.0	-47.5	19.3	0.00e+00	0	34	0	1016070144	62	4582
2026-01-17 06:03:10.72	326.22	13.95	-46.0	-47.5	19.3	0.00e+00	0	34	0	1018167296	62	4557
2026-01-17 06:03:11.73	326.07	13.87	-45.9	-47.4	19.3	0.00e+00	0	34	0	1019215872	62	4537
2026-01-17 06:03:12.74	325.93	13.80	-45.9	-47.4	19.4	0.00e+00	0	34	0	1021313024	62	4517
2026-01-17 06:03:13.74	325.79	13.73	-45.9	-47.4	19.3	0.00e+00	0	34	0	1023410176	62	4541
2026-01-17 06:03:14.75	325.65	13.65	-45.9	-47.4	19.3	0.00e+00	0	34	0	1025507328	62	4540
2026-01-17 06:03:15.76	325.50	13.58	-45.9	-47.4	19.3	0.00e+00	0	34	0	1027604480	62	4545
2026-01-17 06:03:16.77	325.36	13.51	-46.0	-47.5	19.2	0.00e+00	0	34	0	1028653056	62	4584
2026-01-17 06:03:17.78	325.22	13.43	-46.0	-47.5	19.3	0.00e+00	0	34	0	1030750208	62	4572
2026-01-17 06:03:18.79	325.09	13.36	-46.1	-47.7	19.0	0.00e+00	0	34	0	1032847360	62	4685
2026-01-17 06:03:19.80	324.95	13.29	-46.2	-47.7	19.0	0.00e+00	0	34	0	1034944512	62	4694
2026-01-17 06:03:20.81	324.81	13.21	-46.3	-47.9	18.9	0.00e+00	0	34	0	1037041664	63	4509
2026-01-17 06:03:21.81	324.67	13.14	-46.2	-47.8	18.9	0.00e+00	0	34	0	1039138816	63	4481
2026-01-17 06:03:22.82	324.54	13.07	-46.2	-47.8	18.9	0.00e+00	0	34	0	1040187392	63	4475
2026-01-17 06:03:23.83	324.40	13.00	-46.3	-47.9	18.8	0.00e+00	0	34	0	1042284544	63	4513
2026-01-17 06:03:24.84	324.27	12.92	-46.2	-47.7	19.0	0.00e+00	0	34	0	1044381696	63	4440
2026-01-17 06:03:25.85	324.13	12.85	-46.2	-47.8	18.9	0.00e+00	0	34	0	1046478848	63	4460
2026-01-17 06:03:26.85	324.00	12.78	-46.3	-47.9	18.8	0.00e+00	0	34	0	1047527424	63	4534
2026-01-17 06:03:27.86	323.87	12.71	-46.3	-47.9	18.8	0.00e+00	0	34	0	1049624576	63	4534
2026-01-17 06:03:28.87	323.74	12.63	-46.3	-47.9	18.8	0.00e+00	0	34	0	1051721728	63	4516
2026-01-17 06:03:29.88	323.61	12.56	-46.5	-48.1	18.6	0.00e+00	0	34	0	1053818880	63	4642
2026-01-17 06:03:30.89	323.47	12.49	-46.5	-48.2	18.5	0.00e+00	0	34	0	1055916032	63	4659
2026-01-17 06:03:31.89	323.35	12.42	-46.5	-48.2	18.5	0.00e+00	0	34	0	1058013184	63	4666
2026-01-17 06:03:32.90	323.22	12.34	-46.4	-48.1	18.6	0.00e+00	0	34	0	1059061760	63	4614
2026-01-17 06:03:33.91	323.09	12.27	-46.6	-48.3	18.4	0.00e+00	0	34	0	1061158912	63	4724
2026-01-17 06:03:34.92	322.96	12.20	-46.4	-48.0	18.7	0.00e+00	0	34	0	1063256064	63	4567
2026-01-17 06:03:35.92	322.83	12.13	-46.4	-48.0	18.6	0.00e+00	0	34	0	1065353216	63	4596
2026-01-17 06:03:36.93	322.71	12.06	-46.6	-48.3	18.4	0.00e+00	0	34	0	1067450368	63	4741
2026-01-17 06:03:37.94	322.58	11.99	-46.5	-48.2	18.4	0.00e+00	0	34	0	1068498944	63	4687
2026-01-17 06:03:38.95	322.45	11.91	-46.4	-48.1	18.6	0.00e+00	0	34	0	1070596096	63	4604
2026-01-17 06:03:39.96	322.33	11.84	-46.6	-48.3	18.4	0.00e+00	0	34	0	1072693248	63	4742
2026-01-17 06:03:40.96	322.21	11.77	-46.6	-48.3	18.4	0.00e+00	0	34	0	1074790400	63	4730
2026-01-17 06:03:41.97	322.08	11.70	-46.6	-48.3	18.3	0.00e+00	0	34	0	1075838976	63	4756
2026-01-17 06:03:42.98	321.96	11.63	-46.8	-48.6	18.0	0.00e+00	0	34	0	1077936128	64	4603
2026-01-17 06:03:43.98	321.84	11.56	-46.6	-48.4	18.2	0.00e+00	0	34	0	1080033280	64	4511
2026-01-17 06:03:44.99	321.72	11.49	-46.7	-48.5	18.1	0.00e+00	0	34	0	1082130432	64	4585
2026-01-17 06:03:46.00	321.59	11.41	-46.8	-48.6	17.9	0.00e+00	0	34	0	1084227584	64	4649
2026-01-17 06:03:47.01	321.47	11.34	-46.9	-48.7	17.9	0.00e+00	0	34	0	1086324736	64	4663
2026-01-17 06:03:48.02	321.35	11.27	-46.6	-48.4	18.1	0.00e+00	0	34	0	1087373312	64	4525
2026-01-17 06:03:49.03	321.23	11.20	-46.6	-48.4	18.2	0.00e+00	0	34	0	1089470464	64	4495
2026-01-17 06:03:50.03	321.12	11.13	-46.8	-48.6	18.0	0.00e+00	0	34	0	1091567616	64	4604
2026-01-17 06:03:51.04	321.00	11.06	-46.7	-48.5	18.1	0.00e+00	0	34	0	1093664768	64	4584
2026-01-17 06:03:52.05	320.88	10.99	-46.7	-48.5	18.1	0.00e+00	0	34	0	1095761920	64	4563
2026-01-17 06:03:53.06	320.76	10.92	-46.9	-48.7	17.8	0.00e+00	0	34	0	1096810496	64	4676
2026-01-17 06:03:54.07	320.65	10.85	-46.9	-48.7	17.9	0.00e+00	0	34	0	1098907648	64	4677
2026-01-17 06:03:55.08	320.53	10.78	-46.9	-48.8	17.8	0.00e+00	0	34	0	1101004800	64	4722
2026-01-17 06:03:56.08	320.42	10.71	-46.9	-48.7	17.8	0.00e+00	0	34	0	1103101952	64	4700
2026-01-17 06:03:57.09	320.30	10.64	-47.1	-49.0	17.5	0.00e+00	0	34	0	1105199104	64	4845
2026-01-17 06:03:58.10	320.19	10.57	-46.8	-48.6	17.9	0.00e+00	0	34	0	1106247680	64	4651
2026-01-17 06:03:59.11	320.07	10.50	-46.9	-48.8	17.8	0.00e+00	0	34	0	1108344832	64	4706
2026-01-17 06:04:00.12	319.96	10.43	-47.0	-48.9	17.6	0.00e+00	0	34	0	1110441984	64	4789
2026-01-17 06:04:01.13	319.85	10.36	-47.2	-49.2	17.3	0.00e+00	0	34	0	1112539136	64	4955
2026-01-17 06:04:02.14	319.74	10.29	-47.2	-49.2	17.3	0.00e+00	0	34	0	1114636288	65	4691
2026-01-17 06:04:03.14	319.63	10.22	-47.2	-49.1	17.4	0.00e+00	0	35	0	1115684864	65	4635
2026-01-17 06:04:04.15	319.51	10.15	-47.3	-49.3	17.2	0.00e+00	0	34	0	1117782016	65	4725
2026-01-17 06:04:05.16	319.40	10.08	-47.2	-49.2	17.3	0.00e+00	0	34	0	1119879168	65	4662
2026-01-17 06:04:06.17	319.29	10.01	-47.4	-49.4	17.1	0.00e+00	0	34	0	1121976320	65	4788
2026-01-17 06:04:07.18	319.18	9.94	-47.3	-49.4	17.1	0.00e+00	0	34	0	1124073472	65	4774
2026-01-17 06:04:08.19	319.08	9.87	-47.4	-49.5	17.0	0.00e+00	0	34	0	1125122048	65	4829
2026-01-17 06:04:09.20	318.97	9.80	-47.4	-49.5	17.0	0.00e+00	0	34	0	1127219200	65	4846
2026-01-17 06:04:10.20	318.86	9.73	-47.5	-49.6	16.9	0.00e+00	0	34	0	1129316352	65	4890
2026-01-17 06:04:11.21	318.75	9.66	-47.4	-49.5	17.0	0.00e+00	0	34	0	1131413504	65	4851
2026-01-17 06:04:12.22	318.65	9.59	-47.3	-49.3	17.1	0.00e+00	0	34	0	1133510656	65	4746
2026-01-17 06:04:13.23	318.54	9.52	-47.4	-49.5	16.9	0.00e+00	0	34	0	1134559232	65	4855
2026-01-17 06:04:14.24	318.43	9.46	-47.6	-49.7	16.7	0.00e+00	0	34	0	1136656384	65	4975
2026-01-17 06:04:15.25	318.33	9.39	-47.4	-49.5	16.9	0.00e+00	0	34	0	1138753536	65	4860
2026-01-17 06:04:16.26	318.22	9.32	-47.6	-49.8	16.7	0.00e+00	0	35	0	1140850688	65	5003
2026-01-17 06:04:17.27	318.12	9.25	-47.7	-50.0	16.5	0.00e+00	0	34	0	1142947840	66	4822
2026-01-17 06:04:18.27	318.02	9.18	-47.8	-50.1	16.4	0.00e+00	0	34	0	1143996416	66	4876
2026-01-17 06:04:19.28	317.91	9.11	-47.8	-50.0	16.4	0.00e+00	0	34	0	1146093568	66	4837
2026-01-17 06:04:20.29	317.81	9.04	-47.9	-50.3	16.2	0.00e+00	0	34	0	1148190720	66	4996
2026-01-17 06:04:21.30	317.71	8.98	-47.8	-50.0	16.5	0.00e+00	0	34	0	1150287872	66	4832
2026-01-17 06:04:22.31	317.61	8.91	-47.8	-50.1	16.4	0.00e+00	0	34	0	1152385024	66	4876
2026-01-17 06:04:23.32	317.51	8.84	-48.0	-50.4	16.1	0.00e+00	0	34	0	1153433600	66	5059
2026-01-17 06:04:24.33	317.41	8.77	-47.8	-50.1	16.4	0.00e+00	0	34	0	1155530752	66	4880
2026-01-17 06:04:25.33	317.31	8.71	-47.9	-50.2	16.2	0.00e+00	0	34	0	1157627904	66	4979
2026-01-17 06:04:26.34	317.21	8.64	-47.8	-50.0	16.4	0.00e+00	0	34	0	1159725056	66	4860
2026-01-17 06:04:27.35	317.11	8.57	-47.5	-49.7	16.7	0.00e+00	0	34	0	1161822208	66	4673
2026-01-17 06:04:28.36	317.01	8.50	-47.6	-49.8	16.6	0.00e+00	0	34	0	1162870784	66	4728
2026-01-17 06:04:29.36	316.91	8.44	-47.7	-49.9	16.5	0.00e+00	0	34	0	1164967936	66	4813
2026-01-17 06:04:30.37	316.81	8.37	-47.7	-50.0	16.4	0.00e+00	0	35	0	1167065088	66	4829
2026-01-17 06:04:31.39	316.72	8.30	-47.7	-49.9	16.5	0.00e+00	0	34	0	1169162240	66	4783
2026-01-17 06:04:32.39	316.62	8.23	-47.5	-49.7	16.7	0.00e+00	0	34	0	1171259392	66	4679
2026-01-17 06:04:33.40	316.52	8.17	-47.7	-50.0	16.4	0.00e+00	0	34	0	1173356544	66	4837
2026-01-17 06:04:34.41	316.43	8.10	-47.7	-49.9	16.5	0.00e+00	0	34	0	1174405120	66	4776
2026-01-17 06:04:35.42	316.33	8.03	-47.7	-49.9	16.5	0.00e+00	0	34	0	1176502272	66	4803
2026-01-17 06:04:36.42	316.24	7.97	-47.6	-49.8	16.5	0.00e+00	0	34	0	1178599424	66	4743
2026-01-17 06:04:37.43	316.14	7.90	-48.0	-50.4	15.9	0.00e+00	0	34	0	1180696576	66	5091
2026-01-17 06:04:38.44	316.05	7.83	-47.7	-50.0	16.4	0.00e+00	0	34	0	1181745152	66	4824
2026-01-17 06:04:39.45	315.95	7.77	-47.9	-50.2	16.2	0.00e+00	0	34	0	1183842304	66	4962
2026-01-17 06:04:40.46	315.86	7.70	-47.8	-50.0	16.3	0.00e+00	0	34	0	1185939456	66	4860
2026-01-17 06:04:41.47	315.77	7.64	-48.1	-50.6	15.8	0.00e+00	0	34	0	1188036608	67	4875
2026-01-17 06:04:42.48	315.68	7.57	-47.7	-49.9	16.4	0.00e+00	0	35	0	1190133760	67	4511
2026-01-17 06:04:43.48	315.59	7.50	-47.8	-50.2	16.1	0.00e+00	0	34	0	1191182336	67	4656
2026-01-17 06:04:44.49	315.49	7.44	-48.2	-50.7	15.7	0.00e+00	0	34	0	1193279488	67	4931
2026-01-17 06:04:45.50	315.40	7.37	-48.1	-50.6	15.8	0.00e+00	0	34	0	1195376640	67	4871
2026-01-17 06:04:46.51	315.31	7.31	-48.2	-50.8	15.5	0.00e+00	0	35	0	1197473792	67	4998
2026-01-17 06:04:47.52	315.22	7.24	-47.6	-49.8	16.5	0.00e+00	0	34	0	1199570944	66	4741
2026-01-17 06:04:48.52	315.13	7.18	-48.1	-50.5	15.8	0.00e+00	0	34	0	1201668096	67	4832
2026-01-17 06:04:49.53	315.04	7.11	-48.1	-50.6	15.7	0.00e+00	0	34	0	1202716672	67	4913
2026-01-17 06:04:50.55	314.95	7.04	-48.3	-50.9	15.4	7.00e-07	0	34	0	1204813824	67	5063
2026-01-17 06:04:51.55	314.87	6.98	-48.2	-50.7	15.6	0.00e+00	0	34	0	1206910976	67	4927
2026-01-17 06:04:52.56	314.78	6.92	-48.1	-50.6	15.7	0.00e+00	0	34	0	1209008128	67	4907
2026-01-17 06:04:53.57	314.69	6.85	-48.3	-50.8	15.4	0.00e+00	0	34	0	1210056704	67	5030
2026-01-17 06:04:54.58	314.60	6.79	-48.2	-50.8	15.4	0.00e+00	0	34	0	1212153856	67	5019
2026-01-17 06:04:55.59	314.51	6.72	-48.3	-50.9	15.3	0.00e+00	0	34	0	1214251008	67	5079
2026-01-17 06:04:56.60	314.43	6.66	-48.2	-50.8	15.4	0.00e+00	0	34	0	1216348160	67	5012
2026-01-17 06:04:57.60	314.34	6.59	-48.6	-51.4	14.8	0.00e+00	0	34	0	1218445312	67	5353
2026-01-17 06:04:58.61	314.26	6.53	-48.6	-51.4	14.9	0.00e+00	0	34	0	1220542464	67	5368
2026-01-17 06:04:59.62	314.17	6.46	-48.5	-51.2	15.0	0.00e+00	0	34	0	1221591040	67	5261
2026-01-17 06:05:00.63	314.09	6.40	-48.6	-51.5	14.7	0.00e+00	0	34	0	1223688192	67	5445
2026-01-17 06:05:01.64	314.00	6.33	-49.1	-52.2	14.1	0.00e+00	0	34	0	1225785344	68	5548
2026-01-17 06:05:02.65	313.92	6.27	-48.7	-51.6	14.7	0.00e+00	0	34	0	1227882496	68	5189
2026-01-17 06:05:03.66	313.83	6.21	-48.8	-51.8	14.4	7.00e-07	0	34	0	1229979648	68	5309
2026-01-17 06:05:04.67	313.75	6.14	-48.7	-51.5	14.8	0.00e+00	0	34	0	1231028224	68	5145
2026-01-17 06:05:05.68	313.67	6.08	-48.6	-51.5	14.8	0.00e+00	0	34	0	1233125376	68	5122
