passes_logs/2026/01/17/R3.2S_Murmansk/R3.2S_Murmansk__20260117_085105_SUOMI_NPP_rec.log

#Pass ID: 20260117_085105_SUOMI NPP
#Satellite: SUOMI NPP
#Configuration: NPP
#almurnet v.1.7.20251203
#Start time: 2026-01-17 08:51:07

#Version: 2.2.20231116
#Station: R3.2S_Murmansk
#Location: 33.079688 lon 68.888172 lat
#TLE: 1 37849U 11061A   26016.58419598  .00000058  00000+0  48257-4 0  9996
#TLE: 2 37849  98.7812 318.6192 0002422  60.8544 299.2874 14.19525580736934

#Time	Az	El	Level	Level2	SNR	BER	BlckErr	Temp	State	Recorded	gain1	gain2
2026-01-17 08:51:07.10	134.02	2.08	-51.8	-66.8	3.8	1.49e+00	0	32	0	0	75	19842
2026-01-17 08:51:08.10	134.00	2.14	-51.7	-66.8	3.8	1.49e+00	0	32	104	0	74	21057
2026-01-17 08:51:09.11	133.98	2.21	-51.8	-66.8	3.8	1.49e+00	0	32	104	0	74	21036
2026-01-17 08:51:10.11	133.97	2.27	-51.8	-66.7	3.8	1.49e+00	0	32	104	0	74	20980
2026-01-17 08:51:11.12	133.95	2.34	-51.8	-66.8	3.8	1.49e+00	0	32	104	0	74	21023
2026-01-17 08:51:12.13	133.94	2.40	-51.8	-66.7	3.8	1.49e+00	0	32	104	0	74	20962
2026-01-17 08:51:13.14	133.92	2.47	-51.8	-66.7	3.8	1.49e+00	0	32	104	0	74	20995
2026-01-17 08:51:14.15	133.90	2.53	-51.8	-66.7	3.8	1.49e+00	0	32	104	0	74	20992
2026-01-17 08:51:15.16	133.88	2.60	-51.8	-66.7	3.8	1.49e+00	0	32	104	0	74	20973
2026-01-17 08:51:16.16	133.87	2.67	-51.8	-66.7	3.8	1.49e+00	0	32	104	0	74	20935
2026-01-17 08:51:17.17	133.85	2.73	-51.8	-66.7	3.8	1.49e+00	0	32	104	0	74	20936
2026-01-17 08:51:18.18	133.83	2.80	-51.7	-66.7	3.8	1.49e+00	0	33	104	0	74	20896
2026-01-17 08:51:19.19	133.82	2.86	-51.8	-66.7	3.8	1.49e+00	0	32	104	0	74	20920
2026-01-17 08:51:20.20	133.80	2.93	-51.8	-66.7	3.8	1.49e+00	0	33	104	0	74	20936
2026-01-17 08:51:21.21	133.78	3.00	-51.8	-66.7	3.8	1.49e+00	0	32	104	0	74	20835
2026-01-17 08:51:22.22	133.76	3.06	-51.8	-66.7	3.8	1.49e+00	0	32	104	0	74	20832
2026-01-17 08:51:23.23	133.74	3.13	-51.8	-66.7	3.8	1.49e+00	0	33	104	0	74	20858
2026-01-17 08:51:24.23	133.73	3.20	-51.8	-66.7	3.8	1.49e+00	0	33	104	0	74	20798
2026-01-17 08:51:25.24	133.71	3.26	-51.8	-66.7	3.8	1.49e+00	0	33	104	0	74	20790
2026-01-17 08:51:26.25	133.69	3.33	-51.8	-66.6	3.8	1.49e+00	0	33	104	0	74	20704
2026-01-17 08:51:27.26	133.67	3.40	-51.8	-66.5	3.8	1.49e+00	0	33	104	0	74	20519
2026-01-17 08:51:28.27	133.65	3.47	-51.7	-66.5	3.8	1.49e+00	0	33	104	0	74	20378
2026-01-17 08:51:29.28	133.64	3.54	-51.7	-66.3	3.8	1.49e+00	0	33	104	0	74	19975
2026-01-17 08:51:30.29	133.62	3.60	-51.7	-66.1	3.8	1.49e+00	0	33	104	0	74	19469
2026-01-17 08:51:31.30	133.60	3.67	-51.7	-65.6	3.8	1.49e+00	0	33	104	0	74	18344
2026-01-17 08:51:32.31	133.58	3.74	-51.7	-64.9	3.8	1.49e+00	0	33	104	0	74	17011
2026-01-17 08:51:33.31	133.56	3.81	-51.7	-64.7	3.8	1.49e+00	0	33	104	0	74	16622
2026-01-17 08:51:34.32	133.54	3.88	-51.6	-64.1	4.0	1.48e+00	0	33	104	0	74	15578
2026-01-17 08:51:35.32	133.52	3.94	-51.6	-63.9	4.0	1.47e+00	0	33	104	0	74	15116
2026-01-17 08:51:36.33	133.51	4.01	-51.6	-63.4	4.1	1.44e+00	0	33	0	0	74	14314
2026-01-17 08:51:37.34	133.49	4.08	-51.6	-63.5	4.1	1.40e+00	0	33	0	0	74	14445
2026-01-17 08:51:38.35	133.47	4.15	-51.5	-62.5	4.4	1.27e+00	126	33	0	0	74	12850
2026-01-17 08:51:39.36	133.45	4.22	-51.4	-61.4	4.9	8.95e-01	0	33	0	2097152	74	11299
2026-01-17 08:51:40.37	133.43	4.29	-51.2	-60.0	5.8	6.04e-01	0	33	0	4194304	74	9640
2026-01-17 08:51:41.38	133.41	4.36	-51.0	-58.8	6.6	3.38e-01	0	33	0	5242880	74	8429
2026-01-17 08:51:42.38	133.39	4.43	-50.7	-57.3	8.1	1.06e-01	0	33	0	7340032	73	7480
2026-01-17 08:51:43.39	133.37	4.50	-50.5	-56.6	8.7	4.56e-02	0	33	0	9437184	73	6952
2026-01-17 08:51:44.40	133.35	4.57	-49.8	-54.4	11.2	3.82e-03	0	33	0	11534336	71	6000
2026-01-17 08:51:45.41	133.33	4.64	-49.6	-53.7	11.8	1.40e-03	0	33	0	13631488	71	5589
2026-01-17 08:51:46.42	133.31	4.71	-49.1	-52.7	13.0	4.27e-05	0	33	0	15728640	69	5536
2026-01-17 08:51:47.43	133.29	4.78	-48.7	-51.9	13.7	6.10e-06	0	33	0	16777216	69	5089
2026-01-17 08:51:48.44	133.27	4.86	-48.3	-51.2	14.5	2.20e-06	0	33	0	18874368	68	4952
2026-01-17 08:51:49.45	133.25	4.93	-47.7	-50.3	15.3	0.00e+00	0	33	0	20971520	67	4722
2026-01-17 08:51:50.46	133.23	5.00	-47.4	-49.9	15.7	0.00e+00	0	33	0	23068672	66	4760
2026-01-17 08:51:51.47	133.21	5.07	-48.9	-52.3	13.5	0.00e+00	0	33	0	25165824	68	5637
2026-01-17 08:51:52.48	133.19	5.14	-49.3	-53.1	12.2	2.28e-01	0	33	0	26214400	70	5487
2026-01-17 08:51:53.49	133.16	5.21	-47.1	-49.3	16.4	0.00e+00	0	33	0	28311552	65	4730
2026-01-17 08:51:54.49	133.14	5.29	-49.4	-53.1	12.5	5.19e-03	0	33	0	30408704	70	5504
2026-01-17 08:51:55.50	133.12	5.36	-47.1	-49.2	16.4	2.10e-03	0	33	0	32505856	66	4429
2026-01-17 08:51:56.51	133.10	5.43	-47.8	-50.4	15.1	4.04e-05	0	33	0	34603008	67	4761
2026-01-17 08:51:57.52	133.08	5.50	-47.1	-49.4	16.3	0.00e+00	0	33	0	35651584	65	4768
2026-01-17 08:51:58.52	133.06	5.58	-47.3	-49.7	16.0	0.00e+00	0	33	0	37748736	65	4953
2026-01-17 08:51:59.53	133.04	5.65	-47.1	-49.3	16.4	0.00e+00	0	33	0	39845888	65	4728
2026-01-17 08:52:00.54	133.01	5.72	-47.1	-49.2	16.4	0.00e+00	0	33	0	41943040	65	4705
2026-01-17 08:52:01.55	132.99	5.80	-47.2	-49.5	16.3	0.00e+00	0	33	0	44040192	65	4819
2026-01-17 08:52:02.56	132.97	5.87	-47.1	-49.3	16.5	0.00e+00	0	33	0	45088768	65	4712
2026-01-17 08:52:03.56	132.95	5.95	-47.1	-49.3	16.5	0.00e+00	0	33	0	47185920	65	4709
2026-01-17 08:52:04.57	132.93	6.02	-46.9	-49.0	16.9	0.00e+00	0	33	0	49283072	65	4563
2026-01-17 08:52:05.58	132.90	6.09	-46.8	-48.9	16.9	0.00e+00	0	33	0	51380224	65	4515
2026-01-17 08:52:06.59	132.88	6.17	-46.7	-48.7	17.2	0.00e+00	0	33	0	53477376	65	4410
2026-01-17 08:52:07.60	132.86	6.24	-46.7	-48.6	17.2	0.00e+00	0	33	0	54525952	65	4389
2026-01-17 08:52:08.61	132.84	6.32	-46.7	-48.8	17.1	0.00e+00	0	34	0	56623104	65	4447
2026-01-17 08:52:09.61	132.81	6.39	-46.8	-48.8	17.1	0.00e+00	0	33	0	58720256	65	4446
2026-01-17 08:52:10.62	132.79	6.47	-46.5	-48.5	17.4	0.00e+00	0	33	0	60817408	65	4293
2026-01-17 08:52:11.63	132.77	6.55	-46.6	-48.6	17.3	0.00e+00	0	33	0	62914560	64	4606
2026-01-17 08:52:12.64	132.74	6.62	-46.7	-48.6	17.2	0.00e+00	0	33	0	63963136	64	4641
2026-01-17 08:52:13.65	132.72	6.70	-46.5	-48.4	17.6	0.00e+00	0	33	0	66060288	64	4497
2026-01-17 08:52:14.66	132.70	6.77	-46.6	-48.5	17.4	0.00e+00	0	33	0	68157440	64	4561
2026-01-17 08:52:15.66	132.67	6.85	-46.6	-48.6	17.4	0.00e+00	0	33	0	70254592	64	4603
2026-01-17 08:52:16.67	132.65	6.93	-46.6	-48.4	17.6	0.00e+00	0	34	0	72351744	64	4539
2026-01-17 08:52:17.68	132.62	7.00	-46.5	-48.4	17.6	0.00e+00	0	33	0	73400320	64	4522
2026-01-17 08:52:18.69	132.60	7.08	-46.4	-48.2	17.8	0.00e+00	0	33	0	75497472	64	4408
2026-01-17 08:52:19.70	132.57	7.16	-46.4	-48.3	17.7	0.00e+00	0	33	0	77594624	64	4461
2026-01-17 08:52:20.70	132.55	7.24	-46.4	-48.3	17.8	0.00e+00	0	33	0	79691776	64	4442
2026-01-17 08:52:21.71	132.53	7.31	-46.5	-48.3	17.7	0.00e+00	0	33	0	81788928	64	4488
2026-01-17 08:52:22.72	132.50	7.39	-46.4	-48.3	17.8	0.00e+00	0	33	0	82837504	64	4452
2026-01-17 08:52:23.73	132.48	7.47	-46.1	-47.9	18.1	0.00e+00	0	33	0	84934656	64	4249
2026-01-17 08:52:24.74	132.45	7.55	-46.4	-48.2	17.9	0.00e+00	0	33	0	87031808	64	4398
2026-01-17 08:52:25.75	132.43	7.63	-46.2	-48.0	18.0	0.00e+00	0	33	0	89128960	64	4325
2026-01-17 08:52:26.76	132.40	7.71	-46.5	-48.3	17.8	0.00e+00	0	33	0	91226112	64	4487
2026-01-17 08:52:27.76	132.37	7.79	-46.3	-48.1	17.9	0.00e+00	0	33	0	92274688	64	4391
2026-01-17 08:52:28.77	132.35	7.87	-46.3	-48.1	18.0	0.00e+00	0	33	0	94371840	64	4361
2026-01-17 08:52:29.79	132.32	7.95	-46.3	-48.1	18.0	0.00e+00	0	33	0	96468992	64	4382
2026-01-17 08:52:30.79	132.30	8.03	-46.2	-48.0	18.1	0.00e+00	0	33	0	98566144	64	4308
2026-01-17 08:52:31.80	132.27	8.11	-46.2	-47.9	18.2	0.00e+00	0	33	0	100663296	64	4284
2026-01-17 08:52:32.81	132.24	8.19	-46.2	-48.0	18.1	0.00e+00	0	34	0	102760448	64	4307
2026-01-17 08:52:33.82	132.22	8.27	-46.4	-48.2	18.0	0.00e+00	0	33	0	103809024	64	4420
2026-01-17 08:52:34.82	132.19	8.35	-46.2	-47.9	18.3	0.00e+00	0	34	0	105906176	64	4259
2026-01-17 08:52:35.83	132.16	8.43	-46.1	-47.8	18.3	0.00e+00	0	34	0	108003328	64	4236
2026-01-17 08:52:36.84	132.14	8.51	-46.1	-47.8	18.4	0.00e+00	0	33	0	110100480	64	4225
2026-01-17 08:52:37.85	132.11	8.60	-46.1	-47.7	18.4	0.00e+00	0	34	0	111149056	64	4191
2026-01-17 08:52:38.86	132.08	8.68	-45.7	-47.3	18.9	0.00e+00	0	33	0	113246208	63	4208
2026-01-17 08:52:39.86	132.05	8.76	-46.1	-47.8	18.5	0.00e+00	0	33	0	115343360	63	4449
2026-01-17 08:52:40.87	132.03	8.84	-46.0	-47.6	18.6	0.00e+00	0	34	0	117440512	63	4363
2026-01-17 08:52:41.88	132.00	8.93	-45.8	-47.3	18.9	0.00e+00	0	34	0	119537664	63	4216
2026-01-17 08:52:42.89	131.97	9.01	-45.6	-47.1	19.1	0.00e+00	0	34	0	120586240	63	4121
2026-01-17 08:52:43.90	131.94	9.09	-46.0	-47.6	18.7	0.00e+00	0	34	0	122683392	63	4371
2026-01-17 08:52:44.90	131.91	9.18	-46.0	-47.6	18.7	0.00e+00	0	34	0	124780544	63	4361
2026-01-17 08:52:45.91	131.88	9.26	-45.9	-47.4	18.9	0.00e+00	0	33	0	126877696	63	4279
2026-01-17 08:52:46.92	131.86	9.34	-45.7	-47.3	19.0	0.00e+00	0	34	0	128974848	63	4195
2026-01-17 08:52:47.93	131.83	9.43	-45.6	-47.1	19.2	0.00e+00	0	33	0	131072000	63	4125
2026-01-17 08:52:48.94	131.80	9.51	-45.7	-47.3	19.1	0.00e+00	0	34	0	132120576	63	4198
2026-01-17 08:52:49.95	131.77	9.60	-45.9	-47.5	18.9	0.00e+00	0	34	0	134217728	63	4303
2026-01-17 08:52:50.96	131.74	9.68	-46.0	-47.6	18.8	0.00e+00	0	34	0	136314880	63	4345
2026-01-17 08:52:51.96	131.71	9.77	-45.6	-47.2	19.2	0.00e+00	0	34	0	138412032	63	4150
2026-01-17 08:52:52.97	131.68	9.86	-45.7	-47.3	19.1	0.00e+00	0	33	0	139460608	63	4198
2026-01-17 08:52:53.98	131.65	9.94	-45.7	-47.2	19.1	0.00e+00	0	33	0	141557760	63	4173
2026-01-17 08:52:54.99	131.62	10.03	-45.5	-47.0	19.3	0.00e+00	0	34	0	143654912	63	4062
2026-01-17 08:52:56.00	131.59	10.12	-45.4	-46.8	19.5	0.00e+00	0	34	0	145752064	62	4231
2026-01-17 08:52:57.00	131.56	10.20	-45.5	-47.0	19.3	0.00e+00	0	34	0	147849216	62	4315
2026-01-17 08:52:58.01	131.53	10.29	-45.5	-46.9	19.4	0.00e+00	0	34	0	149946368	62	4286
2026-01-17 08:52:59.02	131.49	10.38	-45.5	-47.0	19.4	0.00e+00	0	33	0	150994944	62	4308
2026-01-17 08:53:00.03	131.46	10.47	-45.4	-46.9	19.4	0.00e+00	0	34	0	153092096	62	4244
2026-01-17 08:53:01.03	131.43	10.55	-45.5	-46.9	19.4	0.00e+00	0	34	0	155189248	62	4286
2026-01-17 08:53:02.04	131.40	10.64	-45.5	-47.0	19.4	0.00e+00	0	34	0	157286400	62	4308
2026-01-17 08:53:03.04	131.37	10.73	-45.5	-47.0	19.4	0.00e+00	0	34	0	159383552	62	4316
2026-01-17 08:53:04.05	131.34	10.82	-45.6	-47.1	19.3	0.00e+00	0	33	0	160432128	62	4347
2026-01-17 08:53:05.06	131.30	10.91	-45.5	-46.9	19.4	0.00e+00	0	33	0	162529280	62	4270
2026-01-17 08:53:06.06	131.27	11.00	-45.4	-46.9	19.5	0.00e+00	0	33	0	164626432	62	4246
2026-01-17 08:53:07.07	131.24	11.09	-45.5	-47.0	19.4	0.00e+00	0	34	0	166723584	62	4292
2026-01-17 08:53:08.08	131.20	11.18	-45.3	-46.8	19.6	0.00e+00	0	34	0	167772160	62	4208
2026-01-17 08:53:09.09	131.17	11.27	-45.5	-46.9	19.4	0.00e+00	0	34	0	169869312	62	4280
2026-01-17 08:53:10.10	131.14	11.36	-45.5	-46.9	19.4	0.00e+00	0	33	0	171966464	62	4288
2026-01-17 08:53:11.10	131.10	11.45	-45.4	-46.8	19.6	0.00e+00	0	34	0	174063616	62	4224
2026-01-17 08:53:12.11	131.07	11.55	-45.3	-46.8	19.6	0.00e+00	0	34	0	176160768	62	4196
2026-01-17 08:53:13.12	131.03	11.64	-45.4	-46.9	19.5	0.00e+00	0	34	0	178257920	62	4255
2026-01-17 08:53:14.13	131.00	11.73	-45.2	-46.6	19.8	0.00e+00	0	34	0	179306496	62	4128
2026-01-17 08:53:15.13	130.97	11.82	-45.1	-46.5	19.9	0.00e+00	0	34	0	181403648	62	4067
2026-01-17 08:53:16.15	130.93	11.92	-45.3	-46.7	19.7	0.00e+00	0	34	0	183500800	62	4150
2026-01-17 08:53:17.15	130.90	12.01	-45.2	-46.6	19.8	0.00e+00	0	34	0	185597952	62	4131
2026-01-17 08:53:18.16	130.86	12.11	-45.2	-46.6	19.8	0.00e+00	0	34	0	187695104	62	4130
2026-01-17 08:53:19.17	130.82	12.20	-45.3	-46.7	19.7	0.00e+00	0	34	0	188743680	62	4185
2026-01-17 08:53:20.18	130.79	12.29	-45.2	-46.6	19.8	0.00e+00	0	34	0	190840832	62	4135
2026-01-17 08:53:21.18	130.75	12.39	-45.3	-46.7	19.8	0.00e+00	0	34	0	192937984	62	4148
2026-01-17 08:53:22.19	130.72	12.48	-45.4	-46.9	19.5	0.00e+00	0	34	0	195035136	62	4259
2026-01-17 08:53:23.20	130.68	12.58	-45.4	-46.9	19.6	0.00e+00	0	34	0	197132288	62	4257
2026-01-17 08:53:24.21	130.64	12.68	-45.2	-46.7	19.7	0.00e+00	0	34	0	198180864	62	4151
2026-01-17 08:53:25.22	130.60	12.77	-45.3	-46.8	19.6	0.00e+00	0	34	0	200278016	62	4225
2026-01-17 08:53:26.23	130.57	12.87	-45.2	-46.6	19.8	0.00e+00	0	34	0	202375168	62	4135
2026-01-17 08:53:27.23	130.53	12.97	-45.4	-46.8	19.5	0.00e+00	0	34	0	204472320	62	4237
2026-01-17 08:53:28.24	130.49	13.06	-45.1	-46.5	19.8	0.00e+00	0	34	0	206569472	62	4084
2026-01-17 08:53:29.25	130.45	13.16	-45.2	-46.6	19.8	0.00e+00	0	34	0	207618048	62	4127
2026-01-17 08:53:30.26	130.41	13.26	-45.2	-46.6	19.8	0.00e+00	0	34	0	209715200	62	4128
2026-01-17 08:53:31.27	130.37	13.36	-45.1	-46.5	19.8	0.00e+00	0	34	0	211812352	62	4090
2026-01-17 08:53:32.28	130.34	13.46	-45.3	-46.8	19.6	0.00e+00	0	34	0	213909504	62	4205
2026-01-17 08:53:33.29	130.30	13.56	-45.3	-46.7	19.6	0.00e+00	0	34	0	216006656	62	4188
2026-01-17 08:53:34.30	130.26	13.66	-45.3	-46.8	19.6	0.00e+00	0	34	0	217055232	62	4217
2026-01-17 08:53:35.30	130.22	13.76	-45.2	-46.6	19.8	0.00e+00	0	34	0	219152384	62	4141
2026-01-17 08:53:36.31	130.18	13.86	-45.2	-46.7	19.7	0.00e+00	0	34	0	221249536	62	4158
2026-01-17 08:53:37.32	130.13	13.96	-45.2	-46.6	19.8	0.00e+00	0	34	0	223346688	62	4131
2026-01-17 08:53:38.33	130.09	14.06	-45.2	-46.7	19.8	0.00e+00	0	34	0	225443840	62	4148
2026-01-17 08:53:39.34	130.05	14.16	-45.2	-46.7	19.7	0.00e+00	0	34	0	226492416	62	4176
2026-01-17 08:53:40.34	130.01	14.27	-45.1	-46.6	19.8	0.00e+00	0	34	0	228589568	62	4120
2026-01-17 08:53:41.35	129.97	14.37	-45.3	-46.8	19.6	0.00e+00	0	34	0	230686720	62	4213
2026-01-17 08:53:42.36	129.93	14.47	-45.2	-46.6	19.7	0.00e+00	0	34	0	232783872	62	4125
2026-01-17 08:53:43.37	129.88	14.58	-45.2	-46.7	19.7	0.00e+00	0	34	0	234881024	62	4169
2026-01-17 08:53:44.38	129.84	14.68	-45.1	-46.5	19.9	0.00e+00	0	34	0	235929600	62	4066
2026-01-17 08:53:45.38	129.80	14.78	-45.0	-46.4	20.0	0.00e+00	0	34	0	238026752	61	4247
2026-01-17 08:53:46.39	129.75	14.89	-45.2	-46.6	19.8	0.00e+00	0	34	0	240123904	61	4380
2026-01-17 08:53:47.40	129.71	15.00	-44.9	-46.3	20.1	0.00e+00	0	34	0	242221056	61	4230
2026-01-17 08:53:48.41	129.67	15.10	-45.0	-46.4	20.0	0.00e+00	0	34	0	244318208	61	4276
2026-01-17 08:53:49.42	129.62	15.21	-44.9	-46.3	20.1	0.00e+00	0	34	0	246415360	61	4210
2026-01-17 08:53:50.42	129.58	15.31	-44.8	-46.2	20.2	0.00e+00	0	34	0	247463936	61	4157
2026-01-17 08:53:51.43	129.53	15.42	-44.9	-46.2	20.2	0.00e+00	0	34	0	249561088	61	4180
2026-01-17 08:53:52.44	129.49	15.53	-44.8	-46.1	20.3	0.00e+00	0	34	0	251658240	61	4117
2026-01-17 08:53:53.45	129.44	15.64	-44.8	-46.1	20.3	0.00e+00	0	34	0	253755392	61	4143
2026-01-17 08:53:54.45	129.39	15.74	-45.0	-46.4	20.1	0.00e+00	0	34	0	254803968	61	4259
2026-01-17 08:53:55.46	129.35	15.85	-44.8	-46.2	20.2	0.00e+00	0	34	0	256901120	61	4173
2026-01-17 08:53:56.47	129.30	15.96	-44.9	-46.3	20.2	0.00e+00	0	34	0	258998272	61	4201
2026-01-17 08:53:57.48	129.25	16.07	-44.9	-46.3	20.2	0.00e+00	0	34	0	261095424	61	4197
2026-01-17 08:53:58.49	129.21	16.18	-44.9	-46.3	20.2	0.00e+00	0	34	0	263192576	61	4212
2026-01-17 08:53:59.50	129.16	16.29	-45.0	-46.4	20.1	0.00e+00	0	34	0	264241152	61	4264
2026-01-17 08:54:00.50	129.11	16.41	-45.0	-46.4	20.1	0.00e+00	0	34	0	266338304	61	4248
2026-01-17 08:54:01.51	129.06	16.52	-45.0	-46.4	20.1	0.00e+00	0	34	0	268435456	61	4247
2026-01-17 08:54:02.52	129.01	16.63	-45.1	-46.5	20.0	0.00e+00	0	34	0	270532608	61	4294
2026-01-17 08:54:03.53	128.96	16.74	-44.9	-46.2	20.2	0.00e+00	0	34	0	272629760	61	4173
2026-01-17 08:54:04.54	128.91	16.86	-44.9	-46.2	20.3	0.00e+00	0	34	0	274726912	61	4184
2026-01-17 08:54:05.55	128.86	16.97	-44.8	-46.2	20.3	0.00e+00	0	34	0	275775488	61	4159
2026-01-17 08:54:06.56	128.81	17.08	-44.9	-46.2	20.3	0.00e+00	0	34	0	277872640	61	4178
2026-01-17 08:54:07.57	128.76	17.20	-45.1	-46.4	20.1	0.00e+00	0	34	0	279969792	61	4287
2026-01-17 08:54:08.58	128.71	17.32	-44.9	-46.2	20.3	0.00e+00	0	34	0	282066944	61	4173
2026-01-17 08:54:09.58	128.65	17.43	-44.9	-46.3	20.3	0.00e+00	0	34	0	283115520	61	4209
2026-01-17 08:54:10.59	128.60	17.55	-45.1	-46.5	20.0	0.00e+00	0	34	0	285212672	61	4332
2026-01-17 08:54:11.60	128.55	17.66	-45.0	-46.3	20.2	0.00e+00	0	34	0	287309824	61	4233
2026-01-17 08:54:12.61	128.49	17.78	-45.0	-46.4	20.1	0.00e+00	0	34	0	289406976	61	4259
2026-01-17 08:54:13.62	128.44	17.90	-45.0	-46.4	20.1	0.00e+00	0	34	0	291504128	61	4251
2026-01-17 08:54:14.63	128.39	18.02	-45.2	-46.6	19.9	0.00e+00	0	34	0	293601280	61	4377
2026-01-17 08:54:15.64	128.33	18.14	-45.0	-46.4	20.2	0.00e+00	0	34	0	294649856	61	4258
2026-01-17 08:54:16.64	128.28	18.26	-45.0	-46.4	20.1	0.00e+00	0	34	0	296747008	61	4267
2026-01-17 08:54:17.65	128.22	18.38	-45.1	-46.5	20.1	0.00e+00	0	34	0	298844160	61	4294
2026-01-17 08:54:18.66	128.16	18.50	-45.1	-46.5	20.1	0.00e+00	0	34	0	300941312	61	4296
2026-01-17 08:54:19.67	128.11	18.62	-45.1	-46.5	20.0	0.00e+00	0	34	0	303038464	61	4326
2026-01-17 08:54:20.68	128.05	18.74	-45.1	-46.4	20.1	0.00e+00	0	34	0	304087040	61	4283
2026-01-17 08:54:21.68	127.99	18.86	-45.0	-46.3	20.3	0.00e+00	0	34	0	306184192	61	4211
2026-01-17 08:54:22.69	127.94	18.99	-45.1	-46.4	20.2	0.00e+00	0	34	0	308281344	61	4270
2026-01-17 08:54:23.70	127.88	19.11	-45.3	-46.7	19.9	0.00e+00	0	34	0	310378496	61	4430
2026-01-17 08:54:24.71	127.82	19.23	-45.1	-46.4	20.1	0.00e+00	0	34	0	312475648	61	4286
2026-01-17 08:54:25.72	127.76	19.36	-44.9	-46.2	20.4	0.00e+00	0	34	0	313524224	61	4183
2026-01-17 08:54:26.72	127.70	19.48	-45.1	-46.5	20.1	0.00e+00	0	34	0	315621376	61	4317
2026-01-17 08:54:27.73	127.64	19.61	-45.1	-46.4	20.2	0.00e+00	0	34	0	317718528	61	4290
2026-01-17 08:54:28.74	127.58	19.74	-44.9	-46.2	20.3	0.00e+00	0	34	0	319815680	61	4184
2026-01-17 08:54:29.75	127.51	19.86	-44.9	-46.2	20.3	0.00e+00	0	34	0	321912832	61	4184
2026-01-17 08:54:30.76	127.45	19.99	-44.9	-46.2	20.4	0.00e+00	0	34	0	322961408	61	4158
2026-01-17 08:54:31.77	127.39	20.12	-44.9	-46.3	20.3	0.00e+00	0	34	0	325058560	61	4209
2026-01-17 08:54:32.78	127.33	20.25	-45.0	-46.3	20.3	0.00e+00	0	34	0	327155712	61	4224
2026-01-17 08:54:33.78	127.26	20.38	-45.2	-46.5	20.1	0.00e+00	0	34	0	329252864	61	4337
2026-01-17 08:54:34.79	127.20	20.51	-45.2	-46.6	20.0	0.00e+00	0	34	0	331350016	61	4373
2026-01-17 08:54:35.80	127.13	20.64	-45.1	-46.5	20.1	0.00e+00	0	34	0	332398592	61	4315
2026-01-17 08:54:36.81	127.07	20.77	-45.2	-46.6	20.0	0.00e+00	0	34	0	334495744	61	4377
2026-01-17 08:54:37.82	127.00	20.90	-45.3	-46.7	19.9	0.00e+00	0	34	0	336592896	61	4414
2026-01-17 08:54:38.83	126.93	21.04	-45.2	-46.6	20.0	0.00e+00	0	34	0	338690048	61	4383
2026-01-17 08:54:39.83	126.87	21.17	-45.6	-47.1	19.6	0.00e+00	0	34	0	340787200	61	4619
2026-01-17 08:54:40.84	126.80	21.30	-45.6	-47.1	19.6	0.00e+00	0	34	0	341835776	61	4615
2026-01-17 08:54:41.85	126.73	21.44	-45.5	-46.9	19.7	0.00e+00	0	34	0	343932928	61	4542
2026-01-17 08:54:42.86	126.66	21.58	-45.6	-47.1	19.6	0.00e+00	0	34	0	346030080	62	4342
2026-01-17 08:54:43.86	126.59	21.71	-45.7	-47.3	19.4	0.00e+00	0	34	0	348127232	62	4452
2026-01-17 08:54:44.87	126.52	21.85	-45.9	-47.4	19.2	0.00e+00	0	34	0	350224384	62	4526
2026-01-17 08:54:45.88	126.45	21.99	-45.9	-47.5	19.2	0.00e+00	0	34	0	351272960	62	4563
2026-01-17 08:54:46.89	126.38	22.12	-45.8	-47.3	19.3	0.00e+00	0	34	0	353370112	62	4486
2026-01-17 08:54:47.90	126.30	22.26	-46.0	-47.7	19.1	0.00e+00	0	34	0	355467264	62	4657
2026-01-17 08:54:48.91	126.23	22.40	-45.9	-47.5	19.2	0.00e+00	0	34	0	357564416	62	4566
2026-01-17 08:54:49.92	126.16	22.54	-45.8	-47.3	19.4	0.00e+00	0	34	0	359661568	62	4466
2026-01-17 08:54:50.92	126.08	22.68	-45.6	-47.1	19.6	0.00e+00	0	34	0	360710144	62	4389
2026-01-17 08:54:51.93	126.01	22.83	-45.8	-47.3	19.4	0.00e+00	0	34	0	362807296	62	4453
2026-01-17 08:54:52.94	125.93	22.97	-45.5	-47.0	19.7	0.00e+00	0	34	0	364904448	62	4301
2026-01-17 08:54:53.95	125.85	23.11	-45.5	-47.0	19.7	0.00e+00	0	34	0	367001600	62	4309
2026-01-17 08:54:54.96	125.78	23.26	-45.5	-46.9	19.8	0.00e+00	0	34	0	369098752	62	4274
2026-01-17 08:54:55.96	125.70	23.40	-45.7	-47.3	19.4	0.00e+00	0	34	0	370147328	62	4444
2026-01-17 08:54:56.97	125.62	23.55	-45.6	-47.1	19.7	0.00e+00	0	34	0	372244480	62	4341
2026-01-17 08:54:57.98	125.54	23.69	-45.7	-47.2	19.5	0.00e+00	0	34	0	374341632	62	4426
2026-01-17 08:54:58.99	125.46	23.84	-45.9	-47.4	19.3	0.00e+00	0	34	0	376438784	62	4518
2026-01-17 08:55:00.00	125.38	23.99	-45.9	-47.4	19.4	0.00e+00	0	34	0	378535936	62	4517
2026-01-17 08:55:01.00	125.29	24.14	-46.0	-47.6	19.1	0.00e+00	0	34	0	380633088	62	4641
2026-01-17 08:55:02.01	125.21	24.29	-46.1	-47.7	19.1	0.00e+00	0	34	0	381681664	62	4665
2026-01-17 08:55:03.02	125.13	24.44	-46.2	-47.8	19.0	0.00e+00	0	34	0	383778816	63	4481
2026-01-17 08:55:04.03	125.04	24.59	-46.3	-48.0	18.8	0.00e+00	0	34	0	385875968	63	4573
2026-01-17 08:55:05.04	124.96	24.74	-46.5	-48.2	18.6	0.00e+00	0	34	0	387973120	63	4702
2026-01-17 08:55:06.04	124.87	24.89	-46.5	-48.1	18.7	0.00e+00	0	34	0	389021696	63	4640
2026-01-17 08:55:07.05	124.78	25.04	-46.6	-48.4	18.4	0.00e+00	0	34	0	391118848	64	4505
2026-01-17 08:55:08.06	124.70	25.20	-46.5	-48.2	18.5	0.00e+00	0	34	0	393216000	64	4440
2026-01-17 08:55:09.07	124.61	25.35	-46.6	-48.3	18.5	0.00e+00	0	34	0	395313152	64	4482
2026-01-17 08:55:10.07	124.52	25.51	-46.6	-48.3	18.5	0.00e+00	0	34	0	397410304	64	4482
2026-01-17 08:55:11.08	124.43	25.67	-46.5	-48.2	18.6	0.00e+00	0	34	0	398458880	64	4434
2026-01-17 08:55:12.09	124.33	25.82	-46.8	-48.6	18.2	0.00e+00	0	34	0	400556032	64	4614
2026-01-17 08:55:13.10	124.24	25.98	-46.6	-48.3	18.4	0.00e+00	0	34	0	402653184	64	4492
2026-01-17 08:55:14.11	124.15	26.14	-46.6	-48.4	18.4	0.00e+00	0	34	0	404750336	64	4498
2026-01-17 08:55:15.11	124.05	26.30	-46.5	-48.2	18.6	0.00e+00	0	34	0	406847488	64	4396
2026-01-17 08:55:16.12	123.96	26.46	-46.4	-48.0	18.7	0.00e+00	0	34	0	408944640	64	4316
2026-01-17 08:55:17.13	123.86	26.63	-46.5	-48.2	18.6	0.00e+00	0	34	0	409993216	64	4435
2026-01-17 08:55:18.14	123.76	26.79	-46.5	-48.2	18.6	0.00e+00	0	34	0	412090368	64	4402
2026-01-17 08:55:19.15	123.66	26.95	-46.7	-48.4	18.4	0.00e+00	0	34	0	414187520	64	4530
2026-01-17 08:55:20.16	123.56	27.12	-47.0	-48.9	18.0	0.00e+00	0	34	0	416284672	64	4770
2026-01-17 08:55:21.17	123.46	27.28	-46.8	-48.6	18.2	0.00e+00	0	34	0	417333248	64	4641
2026-01-17 08:55:22.17	123.36	27.45	-46.9	-48.7	18.1	0.00e+00	0	34	0	419430400	64	4680
2026-01-17 08:55:23.18	123.26	27.62	-47.1	-49.1	17.8	0.00e+00	0	34	0	421527552	65	4602
2026-01-17 08:55:24.19	123.15	27.78	-47.0	-48.8	18.0	0.00e+00	0	34	0	423624704	65	4481
2026-01-17 08:55:25.19	123.05	27.95	-46.9	-48.7	18.2	0.00e+00	0	34	0	425721856	65	4412
2026-01-17 08:55:26.20	122.94	28.12	-47.0	-48.9	18.0	0.00e+00	0	34	0	427819008	65	4508
2026-01-17 08:55:27.21	122.83	28.29	-46.9	-48.7	18.1	0.00e+00	0	34	0	428867584	65	4438
2026-01-17 08:55:28.22	122.73	28.47	-46.6	-48.3	18.5	0.00e+00	0	34	0	430964736	65	4239
2026-01-17 08:55:29.23	122.62	28.64	-46.9	-48.7	18.1	0.00e+00	0	34	0	433061888	65	4423
2026-01-17 08:55:30.24	122.50	28.81	-47.0	-48.9	18.1	0.00e+00	0	34	0	435159040	65	4517
2026-01-17 08:55:31.25	122.39	28.99	-47.0	-48.8	18.1	0.00e+00	0	34	0	437256192	65	4478
2026-01-17 08:55:32.26	122.28	29.16	-47.4	-49.4	17.5	0.00e+00	0	34	0	438304768	65	4772
2026-01-17 08:55:33.26	122.16	29.34	-47.8	-50.0	16.9	0.00e+00	0	34	0	440401920	66	4824
2026-01-17 08:55:34.27	122.05	29.52	-47.8	-49.9	17.0	0.00e+00	0	34	0	442499072	66	4812
2026-01-17 08:55:35.28	121.93	29.70	-47.9	-50.0	17.0	0.00e+00	0	34	0	444596224	66	4847
2026-01-17 08:55:36.29	121.81	29.88	-47.6	-49.6	17.3	0.00e+00	0	34	0	445644800	66	4604
2026-01-17 08:55:37.30	121.69	30.06	-47.7	-49.8	17.2	0.00e+00	0	34	0	447741952	66	4714
2026-01-17 08:55:38.31	121.57	30.24	-47.4	-49.4	17.5	0.00e+00	0	34	0	449839104	66	4511
2026-01-17 08:55:39.32	121.44	30.42	-47.6	-49.5	17.4	0.00e+00	0	34	0	451936256	66	4597
2026-01-17 08:55:40.32	121.32	30.60	-47.4	-49.3	17.6	0.00e+00	0	34	0	454033408	66	4455
2026-01-17 08:55:41.33	121.19	30.79	-47.9	-50.1	16.8	0.00e+00	0	34	0	456130560	66	4881
2026-01-17 08:55:42.34	121.07	30.97	-47.9	-50.0	16.9	0.00e+00	0	34	0	457179136	66	4856
2026-01-17 08:55:43.34	120.94	31.16	-48.1	-50.3	16.7	0.00e+00	0	34	0	459276288	66	5017
2026-01-17 08:55:44.35	120.81	31.35	-48.2	-50.5	16.5	0.00e+00	0	34	0	461373440	67	4835
2026-01-17 08:55:45.36	120.67	31.54	-48.4	-50.7	16.3	0.00e+00	0	34	0	463470592	67	4981
2026-01-17 08:55:46.37	120.54	31.73	-48.2	-50.5	16.4	0.00e+00	0	34	0	465567744	67	4847
2026-01-17 08:55:47.38	120.40	31.92	-48.0	-50.2	16.7	0.00e+00	0	34	0	466616320	67	4685
2026-01-17 08:55:48.38	120.27	32.11	-47.7	-49.8	17.1	0.00e+00	0	34	0	468713472	67	4476
2026-01-17 08:55:49.39	120.13	32.30	-47.9	-50.1	16.8	0.00e+00	0	34	0	470810624	67	4623
2026-01-17 08:55:50.40	119.99	32.50	-47.5	-49.6	17.3	0.00e+00	0	34	0	472907776	66	4631
2026-01-17 08:55:51.41	119.85	32.69	-47.6	-49.8	17.2	0.00e+00	0	34	0	475004928	66	4706
2026-01-17 08:55:52.42	119.70	32.89	-47.8	-49.9	17.1	0.00e+00	0	34	0	476053504	66	4777
2026-01-17 08:55:53.43	119.56	33.09	-47.6	-49.7	17.2	0.00e+00	0	34	0	478150656	66	4696
2026-01-17 08:55:54.43	119.41	33.28	-48.4	-50.9	16.2	0.00e+00	0	34	0	480247808	67	5078
2026-01-17 08:55:55.44	119.26	33.48	-48.1	-50.3	16.7	0.00e+00	0	34	0	482344960	67	4740
2026-01-17 08:55:56.45	119.11	33.68	-48.0	-50.2	16.7	0.00e+00	0	34	0	484442112	67	4682
2026-01-17 08:55:57.46	118.95	33.88	-48.0	-50.2	16.7	0.00e+00	0	34	0	485490688	67	4677
2026-01-17 08:55:58.46	118.80	34.09	-47.7	-49.8	17.2	0.00e+00	0	34	0	487587840	67	4467
2026-01-17 08:55:59.47	118.64	34.29	-47.7	-49.7	17.2	0.00e+00	0	34	0	489684992	67	4404
2026-01-17 08:56:00.48	118.48	34.49	-47.5	-49.5	17.4	0.00e+00	0	34	0	491782144	67	4313
2026-01-17 08:56:01.49	118.32	34.70	-47.4	-49.4	17.5	0.00e+00	0	34	0	493879296	66	4525
2026-01-17 08:56:02.50	118.16	34.91	-47.5	-49.5	17.5	0.00e+00	0	34	0	494927872	66	4573
2026-01-17 08:56:03.50	117.99	35.11	-47.5	-49.5	17.5	0.00e+00	0	34	0	497025024	66	4558
2026-01-17 08:56:04.51	117.83	35.32	-47.8	-50.0	17.0	0.00e+00	0	34	0	499122176	66	4833
2026-01-17 08:56:05.52	117.66	35.53	-48.3	-50.8	16.2	0.00e+00	0	34	0	501219328	67	4996
2026-01-17 08:56:06.52	117.49	35.74	-48.8	-51.5	15.5	0.00e+00	0	34	0	503316480	68	5138
2026-01-17 08:56:07.53	117.31	35.96	-48.9	-51.8	15.3	0.00e+00	0	34	0	504365056	68	5298
2026-01-17 08:56:08.54	117.13	36.17	-48.7	-51.5	15.4	0.00e+00	0	34	0	506462208	68	5150
2026-01-17 08:56:09.55	116.95	36.38	-48.7	-51.7	15.4	0.00e+00	0	34	0	508559360	68	5222
2026-01-17 08:56:10.55	116.77	36.60	-48.9	-52.1	15.1	0.00e+00	0	34	0	510656512	68	5469
2026-01-17 08:56:11.56	116.59	36.82	-48.9	-52.0	15.0	0.00e+00	0	34	0	512753664	68	5420
2026-01-17 08:56:12.57	116.40	37.03	-49.2	-52.7	14.4	0.00e+00	0	34	0	513802240	69	5559
2026-01-17 08:56:13.58	116.21	37.25	-49.6	-53.4	13.6	3.80e-06	0	34	0	515899392	70	5704
2026-01-17 08:56:14.59	116.02	37.47	-50.0	-54.2	12.8	5.03e-05	0	34	0	517996544	70	6257
2026-01-17 08:56:15.60	115.83	37.69	-49.9	-54.0	13.0	3.28e-05	0	34	0	520093696	70	6111
2026-01-17 08:56:16.61	115.63	37.92	-49.4	-52.8	14.1	3.00e-06	0	34	0	522190848	70	5325
2026-01-17 08:56:17.62	115.43	38.14	-48.9	-51.9	15.0	7.00e-07	0	34	0	524288000	69	5095
2026-01-17 08:56:18.62	115.23	38.36	-48.6	-51.2	15.7	0.00e+00	0	34	0	525336576	69	4701
2026-01-17 08:56:19.63	115.02	38.59	-48.1	-50.5	16.5	0.00e+00	0	34	0	527433728	68	4574
2026-01-17 08:56:20.64	114.82	38.82	-47.7	-49.9	17.1	0.00e+00	0	34	0	529530880	67	4501
2026-01-17 08:56:21.65	114.60	39.04	-47.4	-49.4	17.5	0.00e+00	0	34	0	531628032	66	4545
2026-01-17 08:56:22.66	114.39	39.27	-47.5	-49.6	17.4	0.00e+00	0	34	0	532676608	66	4601
2026-01-17 08:56:23.66	114.17	39.50	-47.1	-49.0	17.9	0.00e+00	0	34	0	534773760	66	4313
2026-01-17 08:56:24.67	113.95	39.73	-47.0	-49.0	17.9	0.00e+00	0	34	0	536870912	65	4553
2026-01-17 08:56:25.68	113.73	39.96	-47.2	-49.2	17.7	0.00e+00	0	34	0	538968064	65	4678
2026-01-17 08:56:26.69	113.50	40.20	-47.0	-48.9	18.0	0.00e+00	0	34	0	541065216	65	4538
2026-01-17 08:56:27.70	113.27	40.43	-47.8	-50.1	17.1	0.00e+00	0	34	0	543162368	66	4880
2026-01-17 08:56:28.71	113.04	40.67	-48.1	-50.5	16.5	0.00e+00	0	34	0	544210944	66	5116
2026-01-17 08:56:29.72	112.80	40.90	-47.9	-50.1	16.8	0.00e+00	0	34	0	546308096	66	4926
2026-01-17 08:56:30.72	112.56	41.14	-47.7	-49.9	17.1	0.00e+00	0	34	0	548405248	66	4769
2026-01-17 08:56:31.73	112.32	41.37	-47.4	-49.4	17.5	0.00e+00	0	34	0	550502400	66	4544
2026-01-17 08:56:32.74	112.07	41.61	-47.7	-49.8	17.1	0.00e+00	0	34	0	552599552	66	4747
2026-01-17 08:56:33.75	111.82	41.85	-48.1	-50.5	16.5	0.00e+00	0	34	0	553648128	66	5151
2026-01-17 08:56:34.76	111.56	42.09	-48.6	-51.3	15.8	0.00e+00	0	34	0	555745280	68	5016
2026-01-17 08:56:35.77	111.30	42.34	-48.5	-51.0	16.0	0.00e+00	0	34	0	557842432	68	4866
2026-01-17 08:56:36.78	111.04	42.58	-48.5	-51.0	16.0	0.00e+00	0	34	0	559939584	68	4832
2026-01-17 08:56:37.78	110.77	42.82	-48.4	-50.7	16.4	0.00e+00	0	34	0	560988160	68	4700
2026-01-17 08:56:38.79	110.50	43.06	-48.1	-50.3	16.8	0.00e+00	0	34	0	563085312	68	4463
2026-01-17 08:56:39.80	110.22	43.31	-48.7	-51.3	16.0	0.00e+00	0	34	0	565182464	68	4985
2026-01-17 08:56:40.81	109.94	43.56	-48.4	-50.8	16.3	0.00e+00	0	33	0	567279616	68	4747
2026-01-17 08:56:41.82	109.66	43.80	-48.6	-51.0	16.0	0.00e+00	0	34	0	569376768	68	4860
2026-01-17 08:56:42.82	109.37	44.05	-48.5	-50.9	16.2	0.00e+00	0	34	0	571473920	68	4805
2026-01-17 08:56:43.83	109.08	44.30	-48.4	-50.8	16.5	0.00e+00	0	34	0	572522496	68	4710
2026-01-17 08:56:44.84	108.78	44.54	-47.8	-49.9	17.0	0.00e+00	0	34	0	574619648	67	4520
2026-01-17 08:56:45.85	108.48	44.79	-48.3	-50.7	16.3	0.00e+00	0	34	0	576716800	67	4976
2026-01-17 08:56:46.86	108.17	45.04	-48.3	-50.7	16.3	0.00e+00	0	34	0	578813952	67	4981
2026-01-17 08:56:47.86	107.86	45.29	-47.9	-50.1	16.9	0.00e+00	0	34	0	580911104	67	4601
2026-01-17 08:56:48.87	107.54	45.54	-47.7	-49.9	17.1	0.00e+00	0	34	0	581959680	67	4508
2026-01-17 08:56:49.88	107.22	45.80	-48.0	-50.2	16.7	0.00e+00	0	34	0	584056832	67	4705
2026-01-17 08:56:50.89	106.89	46.05	-47.4	-49.5	17.5	0.00e+00	0	34	0	586153984	66	4551
2026-01-17 08:56:51.90	106.56	46.30	-46.9	-48.7	18.2	0.00e+00	0	34	0	588251136	65	4435
2026-01-17 08:56:52.90	106.22	46.55	-46.6	-48.4	18.5	0.00e+00	0	34	0	590348288	65	4279
2026-01-17 08:56:53.91	105.88	46.81	-46.8	-48.6	18.3	0.00e+00	0	34	0	591396864	64	4641
2026-01-17 08:56:54.92	105.52	47.06	-46.6	-48.4	18.6	0.00e+00	0	34	0	593494016	64	4495
2026-01-17 08:56:55.93	105.17	47.32	-46.8	-48.6	18.4	0.00e+00	0	34	0	595591168	64	4616
2026-01-17 08:56:56.94	104.81	47.57	-46.8	-48.7	18.3	0.00e+00	0	33	0	597688320	64	4668
2026-01-17 08:56:57.94	104.44	47.82	-46.6	-48.4	18.4	0.00e+00	0	34	0	599785472	64	4534
2026-01-17 08:56:58.95	104.07	48.08	-46.7	-48.6	18.3	0.00e+00	0	34	0	600834048	64	4610
2026-01-17 08:56:59.96	103.69	48.34	-46.8	-48.7	18.3	0.00e+00	0	34	0	602931200	64	4669
2026-01-17 08:57:00.97	103.30	48.59	-47.2	-49.2	17.6	0.00e+00	0	34	0	605028352	65	4677
2026-01-17 08:57:01.97	102.91	48.84	-47.5	-49.6	17.3	0.00e+00	0	34	0	607125504	65	4924
2026-01-17 08:57:02.98	102.51	49.10	-47.9	-50.2	16.8	0.00e+00	0	34	0	609222656	66	4944
2026-01-17 08:57:03.99	102.10	49.36	-48.2	-50.8	16.2	0.00e+00	0	34	0	610271232	67	5010
2026-01-17 08:57:05.00	101.69	49.61	-47.5	-49.6	17.2	0.00e+00	0	34	0	612368384	67	4380
2026-01-17 08:57:06.01	101.27	49.87	-47.0	-48.9	17.8	0.00e+00	0	34	0	614465536	65	4533
2026-01-17 08:57:07.02	100.84	50.12	-46.5	-48.3	18.6	0.00e+00	0	34	0	616562688	64	4447
2026-01-17 08:57:08.02	100.41	50.37	-46.2	-47.9	18.7	0.00e+00	0	34	0	618659840	64	4264
2026-01-17 08:57:09.03	99.97	50.63	-46.4	-48.1	18.8	0.00e+00	0	34	0	619708416	63	4622
2026-01-17 08:57:10.04	99.52	50.88	-46.3	-48.0	18.9	0.00e+00	0	34	0	621805568	63	4547
2026-01-17 08:57:11.05	99.06	51.14	-45.8	-47.4	19.4	0.00e+00	0	34	0	623902720	63	4266
2026-01-17 08:57:12.06	98.59	51.39	-44.9	-46.2	20.5	0.00e+00	0	34	0	625999872	61	4168
2026-01-17 08:57:13.06	98.13	51.64	-44.1	-45.2	21.4	0.00e+00	0	34	0	628097024	60	3951
2026-01-17 08:57:14.07	97.64	51.89	-44.6	-45.9	20.9	0.00e+00	0	34	0	629145600	60	4251
2026-01-17 08:57:15.08	97.15	52.14	-45.3	-46.7	20.2	0.00e+00	0	34	0	631242752	61	4399
2026-01-17 08:57:16.09	96.66	52.39	-45.5	-47.0	19.8	0.00e+00	0	34	0	633339904	61	4558
2026-01-17 08:57:17.10	96.15	52.64	-45.3	-46.8	20.1	0.00e+00	0	34	0	635437056	61	4456
2026-01-17 08:57:18.10	95.64	52.88	-45.5	-47.0	19.9	0.00e+00	0	34	0	637534208	61	4548
2026-01-17 08:57:19.11	95.11	53.13	-46.3	-48.1	18.9	0.00e+00	0	34	0	638582784	63	4600
2026-01-17 08:57:20.12	94.58	53.37	-47.2	-49.3	17.7	0.00e+00	0	34	0	640679936	64	5023
2026-01-17 08:57:21.13	94.04	53.62	-47.5	-49.8	17.3	0.00e+00	0	34	0	642777088	65	5013
2026-01-17 08:57:22.14	93.49	53.86	-47.4	-49.6	17.3	0.00e+00	0	34	0	644874240	65	4910
2026-01-17 08:57:23.14	92.93	54.10	-46.5	-48.3	18.5	0.00e+00	0	34	0	646971392	65	4238
2026-01-17 08:57:24.15	92.36	54.34	-45.9	-47.4	19.5	0.00e+00	0	34	0	648019968	63	4280
2026-01-17 08:57:25.16	91.78	54.57	-45.3	-46.6	20.2	0.00e+00	0	34	0	650117120	62	4139
2026-01-17 08:57:26.17	91.19	54.81	-45.6	-47.0	19.9	0.00e+00	0	34	0	652214272	62	4333
2026-01-17 08:57:27.18	90.60	55.04	-46.5	-48.2	18.7	0.00e+00	0	34	0	654311424	63	4685
2026-01-17 08:57:28.18	89.99	55.27	-46.7	-48.6	18.3	0.00e+00	0	34	0	656408576	64	4617
2026-01-17 08:57:29.19	89.37	55.50	-46.2	-47.9	19.0	0.00e+00	0	34	0	657457152	64	4257
2026-01-17 08:57:30.20	88.74	55.72	-45.9	-47.5	19.6	0.00e+00	0	34	0	659554304	63	4296
2026-01-17 08:57:31.20	88.11	55.94	-46.1	-47.7	19.5	0.00e+00	0	34	0	661651456	63	4401
2026-01-17 08:57:32.21	87.46	56.17	-46.0	-47.5	19.5	0.00e+00	0	34	0	663748608	63	4332
2026-01-17 08:57:33.22	86.80	56.38	-45.7	-47.1	19.8	0.00e+00	0	34	0	665845760	63	4131
2026-01-17 08:57:34.23	86.13	56.60	-45.9	-47.4	19.6	0.00e+00	0	34	0	666894336	63	4275
2026-01-17 08:57:35.23	85.46	56.81	-46.3	-48.0	19.1	0.00e+00	0	34	0	668991488	63	4550
2026-01-17 08:57:36.24	84.77	57.02	-46.2	-47.7	19.3	0.00e+00	0	34	0	671088640	63	4425
2026-01-17 08:57:37.25	84.07	57.22	-46.1	-47.7	19.3	0.00e+00	0	34	0	673185792	63	4401
2026-01-17 08:57:38.26	83.35	57.43	-46.2	-47.8	19.6	0.00e+00	0	34	0	675282944	63	4465
2026-01-17 08:57:39.27	82.63	57.62	-46.3	-47.9	19.1	0.00e+00	0	34	0	676331520	63	4511
2026-01-17 08:57:40.28	81.90	57.82	-45.9	-47.4	19.6	0.00e+00	0	34	0	678428672	63	4249
2026-01-17 08:57:41.28	81.16	58.01	-45.6	-47.0	20.1	0.00e+00	0	34	0	680525824	62	4305
2026-01-17 08:57:42.29	80.41	58.19	-45.7	-47.2	19.8	0.00e+00	0	34	0	682622976	62	4411
2026-01-17 08:57:43.30	79.64	58.38	-46.3	-48.0	19.2	0.00e+00	0	34	0	684720128	63	4557
2026-01-17 08:57:44.31	78.86	58.56	-46.9	-48.9	18.3	0.00e+00	0	34	0	686817280	64	4765
2026-01-17 08:57:45.32	78.08	58.73	-46.8	-48.7	18.3	0.00e+00	0	34	0	687865856	64	4682
2026-01-17 08:57:46.32	77.29	58.90	-46.7	-48.6	18.4	0.00e+00	0	34	0	689963008	64	4602
2026-01-17 08:57:47.33	76.48	59.06	-46.5	-48.3	18.6	0.00e+00	0	34	0	692060160	64	4479
2026-01-17 08:57:48.34	75.67	59.22	-46.3	-48.1	18.8	0.00e+00	0	34	0	694157312	64	4357
2026-01-17 08:57:49.35	74.84	59.38	-46.4	-48.3	18.7	0.00e+00	0	34	0	696254464	63	4711
2026-01-17 08:57:50.36	74.01	59.53	-45.8	-47.3	19.5	0.00e+00	0	34	0	697303040	63	4229
2026-01-17 08:57:51.37	73.16	59.67	-45.5	-46.9	20.0	0.00e+00	0	34	0	699400192	62	4268
2026-01-17 08:57:52.38	72.30	59.81	-45.6	-47.1	19.8	0.00e+00	0	34	0	701497344	62	4377
2026-01-17 08:57:53.38	71.45	59.94	-46.6	-48.5	18.6	0.00e+00	0	33	0	703594496	63	4815
2026-01-17 08:57:54.39	70.58	60.07	-47.0	-49.0	18.0	0.00e+00	0	34	0	704643072	65	4580
2026-01-17 08:57:55.40	69.70	60.19	-46.0	-47.5	19.3	0.00e+00	0	34	0	706740224	63	4336
2026-01-17 08:57:56.41	68.81	60.31	-45.6	-47.1	19.7	0.00e+00	0	34	0	708837376	62	4349
2026-01-17 08:57:57.42	67.91	60.42	-46.4	-48.2	18.7	0.00e+00	0	33	0	710934528	63	4664
2026-01-17 08:57:58.43	67.00	60.52	-46.7	-48.7	18.3	0.00e+00	0	34	0	713031680	64	4676
2026-01-17 08:57:59.44	66.09	60.62	-46.2	-47.9	18.9	0.00e+00	0	34	0	715128832	64	4276
2026-01-17 08:58:00.44	65.18	60.71	-45.7	-47.2	19.7	0.00e+00	0	33	0	716177408	63	4154
2026-01-17 08:58:01.45	64.26	60.80	-45.9	-47.5	19.6	0.00e+00	0	34	0	718274560	63	4299
2026-01-17 08:58:02.46	63.32	60.87	-46.1	-47.7	19.4	0.00e+00	0	34	0	720371712	63	4415
2026-01-17 08:58:03.47	62.39	60.95	-46.2	-47.8	19.3	0.00e+00	0	34	0	722468864	63	4462
2026-01-17 08:58:04.48	61.45	61.01	-45.7	-47.3	19.7	0.00e+00	0	34	0	724566016	63	4195
2026-01-17 08:58:05.48	60.51	61.07	-45.0	-46.3	20.4	0.00e+00	0	34	0	725614592	62	3985
2026-01-17 08:58:06.49	59.56	61.12	-44.5	-45.7	21.0	0.00e+00	0	34	0	727711744	60	4175
2026-01-17 08:58:07.50	58.60	61.16	-45.0	-46.4	20.5	0.00e+00	0	34	0	729808896	60	4520
2026-01-17 08:58:08.51	57.65	61.20	-44.5	-45.8	20.9	0.00e+00	0	34	0	731906048	60	4227
2026-01-17 08:58:09.52	56.69	61.23	-44.3	-45.5	21.5	0.00e+00	0	34	0	734003200	59	4311
2026-01-17 08:58:10.52	55.73	61.26	-44.0	-45.1	21.8	0.00e+00	0	34	0	735051776	59	4129
2026-01-17 08:58:11.53	54.77	61.27	-43.8	-44.9	22.1	0.00e+00	0	34	0	737148928	59	4021
2026-01-17 08:58:12.54	53.80	61.28	-44.2	-45.5	21.7	0.00e+00	0	34	0	739246080	59	4292
2026-01-17 08:58:13.55	52.84	61.28	-44.7	-46.0	20.9	0.00e+00	0	34	0	741343232	60	4335
2026-01-17 08:58:14.56	51.87	61.28	-45.0	-46.4	20.5	0.00e+00	0	33	0	743440384	60	4507
2026-01-17 08:58:15.57	50.91	61.27	-44.8	-46.1	20.8	0.00e+00	0	34	0	744488960	60	4374
2026-01-17 08:58:16.57	49.96	61.25	-44.0	-45.1	21.6	0.00e+00	0	34	0	746586112	60	3904
2026-01-17 08:58:17.58	49.00	61.22	-43.6	-44.7	22.2	0.00e+00	0	33	0	748683264	59	3945
2026-01-17 08:58:18.59	48.04	61.19	-43.9	-45.0	21.9	0.00e+00	0	34	0	750780416	59	4084
2026-01-17 08:58:19.60	47.08	61.15	-44.7	-45.9	20.9	0.00e+00	0	34	0	752877568	60	4291
2026-01-17 08:58:20.60	46.14	61.10	-45.4	-46.8	20.2	0.00e+00	0	34	0	753926144	61	4473
2026-01-17 08:58:21.61	45.19	61.05	-45.0	-46.4	20.6	0.00e+00	0	33	0	756023296	61	4254
2026-01-17 08:58:22.62	44.24	60.99	-45.4	-46.9	20.0	0.00e+00	0	34	0	758120448	61	4520
2026-01-17 08:58:23.63	43.30	60.92	-45.1	-46.4	20.4	0.00e+00	0	33	0	760217600	61	4266
2026-01-17 08:58:24.64	42.37	60.84	-44.1	-45.2	21.8	0.00e+00	0	33	0	762314752	59	4168
2026-01-17 08:58:25.64	41.45	60.76	-44.6	-45.9	21.3	0.00e+00	0	34	0	763363328	59	4497
2026-01-17 08:58:26.65	40.53	60.68	-45.8	-47.3	19.9	0.00e+00	0	34	0	765460480	62	4480
2026-01-17 08:58:27.66	39.61	60.58	-46.1	-47.6	19.5	0.00e+00	0	34	0	767557632	63	4386
2026-01-17 08:58:28.67	38.70	60.48	-45.7	-47.1	20.0	0.00e+00	0	34	0	769654784	63	4131
2026-01-17 08:58:29.68	37.80	60.38	-45.4	-46.8	20.3	0.00e+00	0	34	0	771751936	62	4226
2026-01-17 08:58:30.69	36.91	60.26	-45.4	-46.8	20.3	0.00e+00	0	34	0	772800512	62	4219
2026-01-17 08:58:31.69	36.03	60.15	-45.2	-46.5	20.5	0.00e+00	0	34	0	774897664	62	4092
2026-01-17 08:58:32.70	35.15	60.02	-45.3	-46.7	20.2	0.00e+00	0	33	0	776994816	61	4397
2026-01-17 08:58:33.71	34.29	59.89	-46.5	-48.3	18.8	0.00e+00	0	33	0	779091968	64	4442
2026-01-17 08:58:34.71	33.43	59.76	-46.3	-48.0	18.9	0.00e+00	0	34	0	781189120	64	4324
2026-01-17 08:58:35.72	32.58	59.62	-45.2	-46.5	20.5	0.00e+00	0	33	0	782237696	62	4062
2026-01-17 08:58:36.73	31.74	59.47	-44.9	-46.1	20.9	0.00e+00	0	33	0	784334848	61	4136
2026-01-17 08:58:37.74	30.91	59.32	-45.2	-46.5	20.5	0.00e+00	0	34	0	786432000	61	4303
2026-01-17 08:58:38.74	30.10	59.16	-45.6	-47.0	20.1	0.00e+00	0	34	0	788529152	61	4580
2026-01-17 08:58:39.75	29.29	59.00	-45.6	-47.0	20.3	0.00e+00	0	34	0	790626304	62	4326
2026-01-17 08:58:40.76	28.48	58.84	-44.6	-45.8	21.1	0.00e+00	0	33	0	791674880	61	3993
2026-01-17 08:58:41.77	27.69	58.66	-44.2	-45.3	21.5	0.00e+00	0	34	0	793772032	60	3980
2026-01-17 08:58:42.78	26.91	58.49	-44.8	-46.0	21.0	0.00e+00	0	34	0	795869184	60	4312
2026-01-17 08:58:43.79	26.14	58.31	-45.5	-46.9	20.2	0.00e+00	0	34	0	797966336	61	4505
2026-01-17 08:58:44.79	25.39	58.13	-46.3	-47.9	19.4	0.00e+00	0	34	0	800063488	63	4517
2026-01-17 08:58:45.80	24.64	57.94	-46.4	-48.0	19.1	0.00e+00	0	34	0	802160640	63	4559
2026-01-17 08:58:46.81	23.90	57.75	-45.7	-47.1	20.1	0.00e+00	0	33	0	803209216	63	4128
2026-01-17 08:58:47.82	23.17	57.55	-45.9	-47.3	19.8	0.00e+00	0	34	0	805306368	62	4478
2026-01-17 08:58:48.83	22.45	57.35	-46.4	-48.1	18.8	0.00e+00	0	34	0	807403520	64	4383
2026-01-17 08:58:49.83	21.75	57.15	-47.7	-49.9	17.3	0.00e+00	0	33	0	809500672	65	5072
2026-01-17 08:58:50.84	21.05	56.94	-48.4	-50.9	16.3	0.00e+00	0	34	0	810549248	67	5090
2026-01-17 08:58:51.85	20.37	56.73	-47.3	-49.1	18.0	0.00e+00	0	34	0	812646400	66	4391
2026-01-17 08:58:52.86	19.69	56.52	-46.5	-48.1	19.0	0.00e+00	0	34	0	814743552	64	4354
2026-01-17 08:58:53.86	19.03	56.31	-47.0	-48.8	18.2	0.00e+00	0	33	0	816840704	64	4739
2026-01-17 08:58:54.87	18.38	56.09	-47.8	-49.9	17.2	0.00e+00	0	33	0	818937856	66	4809
2026-01-17 08:58:55.88	17.73	55.87	-46.5	-48.1	19.0	0.00e+00	0	34	0	819986432	65	4134
2026-01-17 08:58:56.89	17.10	55.64	-46.1	-47.6	19.5	0.00e+00	0	34	0	822083584	63	4371
2026-01-17 08:58:57.90	16.48	55.42	-46.1	-47.5	19.6	0.00e+00	0	34	0	824180736	63	4335
2026-01-17 08:58:58.90	15.87	55.19	-45.7	-47.0	20.0	0.00e+00	0	34	0	826277888	63	4094
2026-01-17 08:58:59.91	15.26	54.96	-45.6	-46.9	20.0	0.00e+00	0	34	0	828375040	62	4281
2026-01-17 08:59:00.92	14.67	54.73	-45.4	-46.7	20.6	0.00e+00	0	34	0	830472192	62	4177
2026-01-17 08:59:01.93	14.08	54.49	-44.9	-46.2	20.8	0.00e+00	0	33	0	831520768	61	4147
2026-01-17 08:59:02.94	13.51	54.25	-45.2	-46.5	20.5	0.00e+00	0	34	0	833617920	61	4306
2026-01-17 08:59:03.95	12.94	54.01	-45.9	-47.4	19.8	0.00e+00	0	34	0	835715072	62	4504
2026-01-17 08:59:04.95	12.39	53.78	-45.4	-46.8	20.2	0.00e+00	0	34	0	837812224	62	4222
2026-01-17 08:59:05.96	11.85	53.53	-45.3	-46.6	20.5	0.00e+00	0	34	0	838860800	62	4111
2026-01-17 08:59:06.97	11.31	53.29	-46.3	-48.0	19.2	0.00e+00	0	34	0	840957952	63	4566
2026-01-17 08:59:07.98	10.78	53.05	-46.6	-48.4	18.7	0.00e+00	0	33	0	843055104	64	4500
2026-01-17 08:59:08.99	10.26	52.80	-45.9	-47.4	19.6	0.00e+00	0	34	0	845152256	63	4285
2026-01-17 08:59:10.00	9.75	52.55	-44.7	-45.9	20.9	0.00e+00	0	33	0	847249408	61	4032
2026-01-17 08:59:11.00	9.25	52.31	-44.5	-45.7	21.2	0.00e+00	0	33	0	849346560	60	4154
2026-01-17 08:59:12.01	8.76	52.06	-45.2	-46.5	20.5	0.00e+00	0	33	0	850395136	61	4317
2026-01-17 08:59:13.02	8.27	51.81	-46.9	-48.7	18.4	0.00e+00	0	34	0	852492288	64	4683
2026-01-17 08:59:14.03	7.79	51.56	-47.7	-49.8	17.4	0.00e+00	0	34	0	854589440	66	4720
2026-01-17 08:59:15.04	7.32	51.30	-47.2	-49.1	17.9	0.00e+00	0	34	0	856686592	66	4390
2026-01-17 08:59:16.05	6.86	51.05	-46.1	-47.7	19.2	0.00e+00	0	33	0	858783744	64	4155
2026-01-17 08:59:17.06	6.41	50.80	-45.9	-47.4	19.5	0.00e+00	0	34	0	859832320	63	4259
2026-01-17 08:59:18.06	5.96	50.55	-45.3	-46.6	20.3	0.00e+00	0	34	0	861929472	62	4129
2026-01-17 08:59:19.07	5.53	50.29	-45.8	-47.3	19.9	0.00e+00	0	34	0	864026624	62	4454
2026-01-17 08:59:20.08	5.09	50.04	-45.8	-47.3	19.7	0.00e+00	0	34	0	866123776	62	4470
2026-01-17 08:59:21.09	4.67	49.79	-46.8	-48.6	18.4	0.00e+00	0	34	0	867172352	64	4619
2026-01-17 08:59:22.10	4.25	49.53	-48.0	-50.3	16.9	0.00e+00	0	34	0	869269504	66	5002
2026-01-17 08:59:23.11	3.84	49.28	-47.9	-50.1	17.0	0.00e+00	0	33	0	871366656	67	4601
2026-01-17 08:59:24.11	3.44	49.02	-46.3	-47.8	19.2	0.00e+00	0	34	0	873463808	64	4241
2026-01-17 08:59:25.12	3.05	48.77	-45.8	-47.2	19.9	0.00e+00	0	34	0	875560960	63	4166
2026-01-17 08:59:26.13	2.66	48.51	-46.2	-47.7	19.5	0.00e+00	0	34	0	877658112	63	4418
2026-01-17 08:59:27.14	2.27	48.26	-46.3	-47.8	19.3	0.00e+00	0	34	0	878706688	63	4469
2026-01-17 08:59:28.14	1.90	48.01	-46.5	-48.0	19.2	0.00e+00	0	34	0	880803840	63	4578
2026-01-17 08:59:29.15	1.53	47.75	-47.6	-49.5	17.7	0.00e+00	0	34	0	882900992	65	4845
2026-01-17 08:59:30.16	1.16	47.50	-47.7	-49.7	17.5	0.00e+00	0	34	0	884998144	66	4678
2026-01-17 08:59:31.17	0.80	47.24	-47.1	-48.8	18.3	0.00e+00	0	34	0	887095296	66	4224
2026-01-17 08:59:32.18	0.45	46.99	-46.8	-48.5	18.7	0.00e+00	0	34	0	888143872	65	4297
2026-01-17 08:59:33.19	0.10	46.73	-47.7	-49.7	17.3	0.00e+00	0	34	0	890241024	65	4980
2026-01-17 08:59:34.20	359.76	46.48	-47.9	-49.9	17.2	0.00e+00	0	34	0	892338176	66	4813
2026-01-17 08:59:35.21	359.42	46.23	-47.1	-48.8	18.2	0.00e+00	0	34	0	894435328	66	4240
2026-01-17 08:59:36.21	359.10	45.98	-46.9	-48.7	18.4	0.00e+00	0	34	0	896532480	65	4409
2026-01-17 08:59:37.22	358.77	45.73	-47.3	-49.1	18.0	0.00e+00	0	33	0	897581056	65	4634
2026-01-17 08:59:38.23	358.45	45.48	-47.4	-49.3	17.7	0.00e+00	0	33	0	899678208	66	4480
2026-01-17 08:59:39.24	358.13	45.23	-47.2	-49.0	18.0	0.00e+00	0	34	0	901775360	66	4314
2026-01-17 08:59:40.25	357.82	44.98	-46.9	-48.6	18.5	0.00e+00	0	34	0	903872512	65	4363
2026-01-17 08:59:41.25	357.52	44.73	-46.8	-48.5	18.6	0.00e+00	0	34	0	905969664	65	4310
2026-01-17 08:59:42.26	357.22	44.48	-47.1	-49.0	18.1	0.00e+00	0	34	0	907018240	65	4563
2026-01-17 08:59:43.27	356.92	44.23	-47.9	-50.1	17.1	0.00e+00	0	34	0	909115392	66	4878
2026-01-17 08:59:44.28	356.63	43.98	-48.1	-50.5	16.7	0.00e+00	0	34	0	911212544	67	4829
2026-01-17 08:59:45.29	356.35	43.74	-48.4	-50.9	16.4	0.00e+00	0	33	0	913309696	67	5061
2026-01-17 08:59:46.30	356.06	43.49	-48.3	-50.7	16.7	0.00e+00	0	33	0	915406848	68	4672
2026-01-17 08:59:47.31	355.78	43.25	-46.9	-49.2	17.7	0.00e+00	0	33	0	916455424	66	4433
2026-01-17 08:59:48.32	355.51	43.00	-47.1	-48.9	18.2	0.00e+00	0	34	0	918552576	66	4250
2026-01-17 08:59:49.33	355.24	42.76	-47.2	-49.0	18.1	0.00e+00	0	33	0	920649728	65	4568
2026-01-17 08:59:50.33	354.98	42.52	-47.1	-48.9	18.3	0.00e+00	0	33	0	922746880	65	4495
2026-01-17 08:59:51.34	354.72	42.28	-47.4	-49.2	17.9	0.00e+00	0	33	0	924844032	65	4693
2026-01-17 08:59:52.35	354.46	42.04	-47.9	-50.0	17.2	0.00e+00	0	33	0	925892608	66	4822
2026-01-17 08:59:53.36	354.20	41.80	-48.3	-50.5	16.7	0.00e+00	0	34	0	927989760	67	4852
2026-01-17 08:59:54.36	353.96	41.56	-48.7	-51.0	16.3	0.00e+00	0	34	0	930086912	68	4858
2026-01-17 08:59:55.37	353.71	41.32	-48.9	-51.3	16.0	0.00e+00	0	34	0	932184064	68	5032
2026-01-17 08:59:56.38	353.47	41.09	-49.0	-51.4	15.9	0.00e+00	0	34	0	934281216	68	5062
2026-01-17 08:59:57.39	353.23	40.85	-48.8	-51.1	16.1	0.00e+00	0	34	0	935329792	68	4908
2026-01-17 08:59:58.40	352.99	40.62	-48.7	-50.9	16.4	0.00e+00	0	34	0	937426944	68	4812
2026-01-17 08:59:59.40	352.76	40.38	-49.2	-51.8	15.6	7.00e-07	0	34	0	939524096	68	5286
2026-01-17 09:00:00.41	352.53	40.15	-49.7	-52.7	14.7	0.00e+00	0	34	0	941621248	69	5552
2026-01-17 09:00:01.42	352.31	39.92	-50.7	-54.8	12.5	1.52e-05	0	34	0	943718400	72	5988
2026-01-17 09:00:02.43	352.09	39.69	-50.6	-54.6	12.6	1.71e-04	0	33	0	944766976	72	5832
2026-01-17 09:00:03.44	351.87	39.46	-51.0	-55.4	11.8	4.28e-04	0	34	0	946864128	72	6410
2026-01-17 09:00:04.45	351.65	39.23	-50.8	-54.9	12.4	5.31e-04	0	34	0	948961280	73	5704
2026-01-17 09:00:05.46	351.44	39.00	-50.4	-54.1	13.2	8.85e-05	0	34	0	951058432	72	5485
2026-01-17 09:00:06.46	351.23	38.78	-49.3	-52.0	15.4	7.00e-07	0	34	0	953155584	70	4824
2026-01-17 09:00:07.47	351.02	38.55	-49.2	-51.8	15.5	0.00e+00	0	33	0	954204160	70	4754
2026-01-17 09:00:08.48	350.82	38.33	-49.7	-52.6	14.7	0.00e+00	0	33	0	956301312	70	5186
2026-01-17 09:00:09.49	350.62	38.10	-49.9	-53.0	14.5	0.00e+00	0	33	0	958398464	70	5433
2026-01-17 09:00:10.49	350.42	37.88	-50.3	-53.9	13.5	6.80e-06	0	34	0	960495616	71	5674
2026-01-17 09:00:11.50	350.23	37.66	-50.3	-53.9	13.4	1.52e-05	0	34	0	962592768	71	5686
2026-01-17 09:00:12.51	350.03	37.44	-49.9	-53.0	14.2	8.30e-06	0	34	0	964689920	71	5154
2026-01-17 09:00:13.52	349.84	37.22	-49.3	-52.1	15.2	0.00e+00	0	34	0	965738496	70	4885
2026-01-17 09:00:14.52	349.66	37.01	-49.3	-52.0	15.4	0.00e+00	0	34	0	967835648	70	4842
2026-01-17 09:00:15.53	349.47	36.79	-49.3	-52.0	15.5	0.00e+00	0	33	0	969932800	70	4821
2026-01-17 09:00:16.54	349.29	36.57	-49.6	-52.5	14.8	0.00e+00	0	34	0	972029952	70	5153
2026-01-17 09:00:17.55	349.11	36.36	-49.4	-52.3	15.1	0.00e+00	0	34	0	974127104	70	4992
2026-01-17 09:00:18.56	348.93	36.14	-49.4	-52.1	15.2	0.00e+00	0	34	0	975175680	70	4890
2026-01-17 09:00:19.56	348.76	35.93	-49.5	-52.3	14.9	0.00e+00	0	34	0	977272832	70	5008
2026-01-17 09:00:20.57	348.58	35.72	-49.4	-52.2	15.1	0.00e+00	0	34	0	979369984	70	4928
2026-01-17 09:00:21.58	348.41	35.51	-49.4	-52.3	15.0	0.00e+00	0	33	0	981467136	70	4989
2026-01-17 09:00:22.59	348.24	35.30	-49.8	-52.9	14.4	0.00e+00	0	34	0	982515712	70	5357
2026-01-17 09:00:23.60	348.08	35.09	-49.5	-52.4	14.6	1.50e-06	0	34	0	984612864	70	5050
2026-01-17 09:00:24.60	347.91	34.89	-49.0	-51.5	15.6	0.00e+00	0	34	0	986710016	70	4596
2026-01-17 09:00:25.61	347.75	34.68	-48.5	-50.9	16.3	0.00e+00	0	34	0	988807168	69	4522
2026-01-17 09:00:26.62	347.59	34.48	-49.0	-51.6	15.7	0.00e+00	0	34	0	990904320	69	4918
2026-01-17 09:00:27.63	347.43	34.27	-49.0	-51.7	15.5	0.00e+00	0	34	0	993001472	69	4973
2026-01-17 09:00:28.64	347.28	34.07	-49.1	-51.9	15.3	0.00e+00	0	34	0	994050048	69	5064
2026-01-17 09:00:29.65	347.12	33.87	-49.0	-51.7	15.4	0.00e+00	0	33	0	996147200	69	4981
2026-01-17 09:00:30.65	346.97	33.67	-48.5	-50.9	16.3	0.00e+00	0	34	0	998244352	69	4495
2026-01-17 09:00:31.66	346.82	33.47	-47.8	-49.8	17.2	0.00e+00	0	34	0	1000341504	67	4482
2026-01-17 09:00:32.67	346.67	33.27	-47.5	-49.4	17.6	0.00e+00	0	33	0	1001390080	66	4541
2026-01-17 09:00:33.68	346.53	33.07	-47.4	-49.3	17.8	0.00e+00	0	33	0	1003487232	66	4464
2026-01-17 09:00:34.68	346.38	32.88	-47.7	-49.7	17.4	0.00e+00	0	34	0	1005584384	66	4677
2026-01-17 09:00:35.69	346.24	32.68	-48.4	-50.7	16.4	0.00e+00	0	34	0	1007681536	67	4980
2026-01-17 09:00:36.70	346.10	32.49	-48.4	-50.7	16.3	0.00e+00	0	34	0	1009778688	67	4975
2026-01-17 09:00:37.71	345.96	32.29	-48.5	-50.8	16.3	0.00e+00	0	34	0	1011875840	67	5032
2026-01-17 09:00:38.72	345.82	32.10	-47.8	-49.9	17.2	0.00e+00	0	33	0	1012924416	67	4524
2026-01-17 09:00:39.73	345.68	31.91	-48.2	-50.5	16.6	0.00e+00	0	34	0	1015021568	67	4858
2026-01-17 09:00:40.73	345.55	31.72	-48.3	-50.6	16.6	0.00e+00	0	34	0	1017118720	67	4885
2026-01-17 09:00:41.74	345.42	31.53	-48.7	-51.3	15.9	0.00e+00	0	34	0	1019215872	67	5291
2026-01-17 09:00:42.75	345.29	31.35	-49.3	-52.2	15.0	0.00e+00	0	33	0	1021313024	69	5269
2026-01-17 09:00:43.76	345.16	31.16	-49.1	-51.8	15.4	0.00e+00	0	34	0	1022361600	69	5039
2026-01-17 09:00:44.77	345.03	30.97	-48.5	-50.9	16.4	0.00e+00	0	34	0	1024458752	68	4769
2026-01-17 09:00:45.77	344.90	30.79	-47.3	-49.1	17.9	0.00e+00	0	34	0	1026555904	66	4360
2026-01-17 09:00:46.78	344.78	30.60	-46.7	-48.4	18.6	0.00e+00	0	34	0	1028653056	65	4268
2026-01-17 09:00:47.79	344.65	30.42	-46.3	-47.8	19.2	0.00e+00	0	34	0	1030750208	64	4222
2026-01-17 09:00:48.80	344.53	30.24	-46.1	-47.6	19.4	0.00e+00	0	34	0	1031798784	64	4116
2026-01-17 09:00:49.80	344.41	30.06	-46.3	-47.8	19.2	0.00e+00	0	34	0	1033895936	64	4220
2026-01-17 09:00:50.81	344.29	29.88	-46.7	-48.3	18.7	0.00e+00	0	34	0	1035993088	64	4477
2026-01-17 09:00:51.82	344.17	29.70	-46.7	-48.4	18.6	0.00e+00	0	33	0	1038090240	64	4529
2026-01-17 09:00:52.83	344.05	29.52	-47.2	-49.0	18.0	0.00e+00	0	34	0	1040187392	64	4863
2026-01-17 09:00:53.84	343.94	29.35	-46.9	-48.7	18.3	0.00e+00	0	34	0	1041235968	65	4400
2026-01-17 09:00:54.85	343.82	29.17	-47.3	-49.2	17.8	0.00e+00	0	34	0	1043333120	65	4678
2026-01-17 09:00:55.86	343.71	28.99	-47.0	-48.8	18.2	0.00e+00	0	34	0	1045430272	65	4479
2026-01-17 09:00:56.86	343.60	28.82	-47.7	-49.8	17.3	0.00e+00	0	34	0	1047527424	65	4987
2026-01-17 09:00:57.87	343.49	28.65	-48.1	-50.3	16.7	0.00e+00	0	34	0	1049624576	66	5029
2026-01-17 09:00:58.88	343.38	28.48	-48.8	-51.3	15.8	0.00e+00	0	34	0	1050673152	68	5006
2026-01-17 09:00:59.89	343.27	28.31	-49.3	-52.2	15.0	0.00e+00	0	34	0	1052770304	69	5241
2026-01-17 09:01:00.90	343.17	28.13	-49.5	-52.6	14.6	7.00e-07	0	34	0	1054867456	69	5474
2026-01-17 09:01:01.90	343.06	27.97	-49.7	-52.9	14.2	7.00e-07	0	34	0	1056964608	70	5389
2026-01-17 09:01:02.91	342.96	27.80	-49.5	-52.6	14.6	0.00e+00	0	34	0	1059061760	70	5160
2026-01-17 09:01:03.92	342.85	27.63	-49.1	-51.7	15.4	0.00e+00	0	34	0	1060110336	69	4981
2026-01-17 09:01:04.93	342.75	27.46	-48.6	-51.0	16.1	0.00e+00	0	34	0	1062207488	69	4576
2026-01-17 09:01:05.94	342.65	27.30	-48.4	-50.7	16.4	0.00e+00	0	34	0	1064304640	68	4692
2026-01-17 09:01:06.95	342.55	27.13	-48.1	-50.2	16.8	0.00e+00	0	33	0	1066401792	68	4434
2026-01-17 09:01:07.95	342.45	26.97	-47.8	-49.9	17.1	0.00e+00	0	34	0	1068498944	67	4503
2026-01-17 09:01:08.96	342.35	26.81	-47.7	-49.7	17.2	0.00e+00	0	34	0	1069547520	67	4420
2026-01-17 09:01:09.97	342.25	26.65	-47.3	-49.2	17.8	0.00e+00	0	34	0	1071644672	66	4398
2026-01-17 09:01:10.98	342.16	26.48	-47.1	-48.9	18.1	0.00e+00	0	34	0	1073741824	66	4267
2026-01-17 09:01:11.99	342.06	26.32	-46.8	-48.5	18.4	0.00e+00	0	34	0	1075838976	65	4340
2026-01-17 09:01:12.99	341.97	26.17	-46.9	-48.6	18.3	0.00e+00	0	34	0	1077936128	65	4379
2026-01-17 09:01:14.00	341.88	26.01	-46.8	-48.4	18.5	0.00e+00	0	34	0	1080033280	65	4288
2026-01-17 09:01:15.01	341.78	25.85	-46.9	-48.6	18.3	0.00e+00	0	34	0	1081081856	65	4381
2026-01-17 09:01:16.02	341.69	25.69	-47.0	-48.8	18.1	0.00e+00	0	34	0	1083179008	65	4489
2026-01-17 09:01:17.03	341.60	25.53	-47.1	-48.9	18.0	0.00e+00	0	34	0	1085276160	65	4542
2026-01-17 09:01:18.03	341.51	25.38	-47.5	-49.5	17.5	0.00e+00	0	34	0	1087373312	65	4825
2026-01-17 09:01:19.04	341.43	25.23	-47.6	-49.7	17.2	0.00e+00	0	33	0	1088421888	65	4975
2026-01-17 09:01:20.05	341.34	25.07	-47.8	-49.9	17.0	0.00e+00	0	34	0	1090519040	66	4797
2026-01-17 09:01:21.06	341.25	24.92	-48.1	-50.4	16.7	0.00e+00	0	34	0	1092616192	66	5042
2026-01-17 09:01:22.07	341.17	24.77	-48.0	-50.3	16.7	0.00e+00	0	34	0	1094713344	66	4998
2026-01-17 09:01:23.08	341.08	24.62	-47.7	-49.8	17.1	0.00e+00	0	34	0	1096810496	66	4712
2026-01-17 09:01:24.09	341.00	24.47	-47.7	-49.9	17.1	1.50e-06	0	34	0	1097859072	66	4768
2026-01-17 09:01:25.10	340.91	24.32	-47.7	-49.8	17.2	0.00e+00	0	34	0	1099956224	66	4717
2026-01-17 09:01:26.10	340.83	24.17	-47.4	-49.4	17.3	0.00e+00	0	34	0	1102053376	66	4510
2026-01-17 09:01:27.11	340.75	24.02	-47.6	-49.6	17.3	0.00e+00	0	34	0	1104150528	66	4638
2026-01-17 09:01:28.12	340.67	23.87	-47.9	-50.1	16.8	0.00e+00	0	34	0	1106247680	66	4910
2026-01-17 09:01:29.13	340.59	23.73	-47.9	-50.0	16.9	0.00e+00	0	34	0	1108344832	66	4864
2026-01-17 09:01:30.14	340.51	23.58	-48.2	-50.5	16.4	0.00e+00	0	34	0	1109393408	67	4851
2026-01-17 09:01:31.14	340.43	23.44	-48.7	-51.3	15.8	0.00e+00	0	34	0	1111490560	68	5002
2026-01-17 09:01:32.15	340.35	23.29	-48.9	-51.6	15.5	0.00e+00	0	34	0	1113587712	68	5168
2026-01-17 09:01:33.16	340.28	23.15	-49.0	-51.8	15.3	0.00e+00	0	34	0	1115684864	68	5304
2026-01-17 09:01:34.17	340.20	23.00	-48.9	-51.6	15.5	0.00e+00	0	34	0	1116733440	68	5161
2026-01-17 09:01:35.18	340.13	22.86	-48.8	-51.4	15.7	0.00e+00	0	34	0	1118830592	68	5052
2026-01-17 09:01:36.18	340.05	22.72	-48.6	-51.0	16.0	0.00e+00	0	34	0	1120927744	68	4868
2026-01-17 09:01:37.19	339.98	22.58	-48.3	-50.6	16.4	0.00e+00	0	34	0	1123024896	68	4618
2026-01-17 09:01:38.20	339.90	22.44	-47.5	-49.5	17.3	0.00e+00	0	34	0	1125122048	67	4310
2026-01-17 09:01:39.21	339.83	22.30	-47.5	-49.5	17.4	0.00e+00	0	34	0	1127219200	66	4559
2026-01-17 09:01:40.22	339.76	22.16	-47.2	-49.0	17.8	0.00e+00	0	34	0	1128267776	66	4331
2026-01-17 09:01:41.23	339.69	22.03	-46.8	-48.5	18.3	0.00e+00	0	34	0	1130364928	65	4335
2026-01-17 09:01:42.23	339.62	21.89	-46.8	-48.5	18.4	0.00e+00	0	34	0	1132462080	65	4316
2026-01-17 09:01:43.24	339.55	21.75	-46.9	-48.6	18.2	0.00e+00	0	33	0	1134559232	65	4379
2026-01-17 09:01:44.25	339.48	21.62	-46.3	-48.0	18.8	0.00e+00	0	34	0	1136656384	64	4293
2026-01-17 09:01:45.26	339.41	21.48	-46.4	-48.1	18.7	0.00e+00	0	34	0	1137704960	64	4364
2026-01-17 09:01:46.27	339.34	21.35	-46.4	-48.1	18.8	0.00e+00	0	34	0	1139802112	64	4345
2026-01-17 09:01:47.27	339.28	21.21	-46.1	-47.6	19.1	0.00e+00	0	33	0	1141899264	64	4141
2026-01-17 09:01:48.28	339.21	21.08	-46.2	-47.7	19.1	0.00e+00	0	34	0	1143996416	64	4179
2026-01-17 09:01:49.29	339.14	20.95	-46.1	-47.7	19.1	0.00e+00	0	34	0	1145044992	64	4165
2026-01-17 09:01:50.30	339.08	20.82	-46.0	-47.5	19.2	0.00e+00	0	34	0	1147142144	64	4097
2026-01-17 09:01:51.31	339.01	20.69	-46.1	-47.7	19.1	0.00e+00	0	34	0	1149239296	64	4157
2026-01-17 09:01:52.32	338.95	20.56	-46.2	-47.8	18.9	0.00e+00	0	34	0	1151336448	64	4236
2026-01-17 09:01:53.33	338.88	20.43	-46.3	-47.9	18.8	0.00e+00	0	34	0	1153433600	64	4266
2026-01-17 09:01:54.34	338.82	20.30	-46.6	-48.3	18.5	0.00e+00	0	34	0	1155530752	64	4464
2026-01-17 09:01:55.35	338.76	20.17	-46.6	-48.3	18.5	0.00e+00	0	34	0	1156579328	64	4446
2026-01-17 09:01:56.36	338.69	20.04	-46.8	-48.6	18.2	0.00e+00	0	34	0	1158676480	64	4612
2026-01-17 09:01:57.36	338.63	19.91	-46.8	-48.6	18.2	0.00e+00	0	34	0	1160773632	64	4614
2026-01-17 09:01:58.37	338.57	19.79	-47.0	-48.9	17.9	0.00e+00	0	34	0	1162870784	64	4788
2026-01-17 09:01:59.38	338.51	19.66	-47.0	-48.8	17.9	0.00e+00	0	34	0	1164967936	64	4759
2026-01-17 09:02:00.39	338.45	19.53	-47.3	-49.3	17.5	0.00e+00	0	34	0	1166016512	65	4743
2026-01-17 09:02:01.40	338.39	19.41	-47.3	-49.2	17.6	0.00e+00	0	34	0	1168113664	65	4705
2026-01-17 09:02:02.41	338.33	19.28	-47.1	-49.0	17.9	0.00e+00	0	34	0	1170210816	65	4547
2026-01-17 09:02:03.42	338.27	19.16	-47.0	-48.9	17.9	0.00e+00	0	34	0	1172307968	65	4529
2026-01-17 09:02:04.42	338.22	19.04	-47.1	-49.0	17.8	0.00e+00	0	34	0	1174405120	65	4596
2026-01-17 09:02:05.43	338.16	18.92	-46.8	-48.6	18.1	0.00e+00	0	34	0	1175453696	65	4388
2026-01-17 09:02:06.44	338.10	18.79	-47.0	-48.9	17.9	0.00e+00	0	34	0	1177550848	65	4514
2026-01-17 09:02:07.45	338.05	18.67	-47.1	-48.9	17.8	0.00e+00	0	34	0	1179648000	65	4544
2026-01-17 09:02:08.45	337.99	18.55	-46.8	-48.6	18.2	0.00e+00	0	33	0	1181745152	65	4367
2026-01-17 09:02:09.46	337.93	18.43	-47.1	-49.0	17.7	0.00e+00	0	34	0	1183842304	65	4594
2026-01-17 09:02:10.46	337.88	18.31	-47.3	-49.2	17.5	0.00e+00	0	34	0	1184890880	65	4684
2026-01-17 09:02:11.47	337.82	18.19	-47.4	-49.4	17.4	0.00e+00	0	34	0	1186988032	65	4767
2026-01-17 09:02:12.48	337.77	18.07	-47.3	-49.3	17.5	0.00e+00	0	34	0	1189085184	65	4725
2026-01-17 09:02:13.49	337.72	17.96	-47.7	-49.8	16.9	0.00e+00	0	34	0	1191182336	65	5033
2026-01-17 09:02:14.50	337.66	17.84	-47.8	-50.0	16.8	0.00e+00	0	34	0	1193279488	66	4838
2026-01-17 09:02:15.50	337.61	17.72	-47.9	-50.1	16.7	0.00e+00	0	34	0	1194328064	66	4888
2026-01-17 09:02:16.51	337.56	17.61	-48.0	-50.2	16.5	0.00e+00	0	34	0	1196425216	66	4981
2026-01-17 09:02:17.52	337.51	17.49	-48.0	-50.3	16.4	7.00e-07	0	34	0	1198522368	66	5007
2026-01-17 09:02:18.53	337.45	17.37	-47.9	-50.2	16.6	0.00e+00	0	34	0	1200619520	66	4937
2026-01-17 09:02:19.54	337.40	17.26	-47.9	-50.1	16.6	3.80e-06	0	34	0	1202716672	66	4916
2026-01-17 09:02:20.55	337.35	17.14	-47.7	-49.8	16.9	3.80e-06	0	34	0	1203765248	66	4728
2026-01-17 09:02:21.55	337.30	17.03	-47.8	-50.0	16.8	1.50e-06	0	33	0	1205862400	66	4817
2026-01-17 09:02:22.56	337.25	16.92	-47.5	-49.6	17.1	0.00e+00	0	34	0	1207959552	66	4617
2026-01-17 09:02:23.57	337.20	16.81	-47.3	-49.3	17.4	0.00e+00	0	34	0	1210056704	66	4482
2026-01-17 09:02:24.58	337.15	16.69	-47.1	-49.0	17.7	0.00e+00	0	34	0	1212153856	66	4317
2026-01-17 09:02:25.59	337.11	16.58	-46.7	-48.5	18.1	0.00e+00	0	33	0	1213202432	65	4309
2026-01-17 09:02:26.59	337.06	16.47	-46.5	-48.2	18.4	0.00e+00	0	34	0	1215299584	65	4177
2026-01-17 09:02:27.60	337.01	16.36	-46.3	-47.9	18.7	4.50e-06	0	34	0	1217396736	64	4280
2026-01-17 09:02:28.61	336.96	16.25	-46.3	-47.9	18.7	0.00e+00	0	34	0	1219493888	64	4286
2026-01-17 09:02:29.62	336.91	16.14	-46.3	-48.0	18.6	7.60e-06	0	34	0	1221591040	64	4315
2026-01-17 09:02:30.62	336.87	16.03	-46.2	-47.8	18.8	0.00e+00	0	34	0	1222639616	64	4207
2026-01-17 09:02:31.63	336.82	15.92	-46.4	-48.0	18.6	9.10e-06	0	34	0	1224736768	64	4337
2026-01-17 09:02:32.64	336.78	15.81	-46.3	-48.0	18.6	3.00e-06	0	34	0	1226833920	64	4295
2026-01-17 09:02:33.65	336.73	15.70	-46.4	-48.1	18.5	0.00e+00	0	34	0	1228931072	64	4391
2026-01-17 09:02:34.66	336.68	15.60	-46.6	-48.4	18.0	0.00e+00	0	34	0	1231028224	64	4530
2026-01-17 09:02:35.66	336.64	15.49	-46.9	-48.9	17.7	0.00e+00	0	34	0	1232076800	64	4760
2026-01-17 09:02:36.67	336.60	15.38	-47.0	-49.0	17.3	0.00e+00	0	33	0	1234173952	64	4841
2026-01-17 09:02:37.68	336.55	15.28	-46.9	-48.9	17.5	0.00e+00	0	34	0	1236271104	64	4761
2026-01-17 09:02:38.69	336.51	15.17	-47.2	-49.3	17.1	0.00e+00	0	34	0	1238368256	64	5021
2026-01-17 09:02:39.70	336.46	15.06	-47.3	-49.4	17.0	3.80e-06	0	33	0	1240465408	65	4763
2026-01-17 09:02:40.70	336.42	14.96	-47.3	-49.4	17.1	0.00e+00	0	34	0	1242562560	65	4783
