passes_logs/2026/01/17/R3.2S_Murmansk/R3.2S_Murmansk__20260117_005433_NOAA_20_JPSS-1_rec.log

#Pass ID: 20260117_005433_NOAA 20 (JPSS-1)
#Satellite: NOAA 20 (JPSS-1)
#Configuration: NOAA 20
#almurnet v.1.7.20251203
#Start time: 2026-01-17 00:54:35

#Version: 2.2.20231116
#Station: R3.2S_Murmansk
#Location: 33.079688 lon 68.888172 lat
#TLE: 1 43013U 17073A   26015.89389188  .00000026  00000+0  33113-4 0  9999
#TLE: 2 43013  98.7636 316.8238 0001460  37.8997 322.2282 14.19536128422860

#Time	Az	El	Level	Level2	SNR	BER	BlckErr	Temp	State	Recorded	gain1	gain2
2026-01-17 00:54:35.83	25.38	2.14	-51.3	-66.2	3.8	1.49e+00	0	32	0	0	74	19829
2026-01-17 00:54:36.83	25.37	2.20	-51.3	-66.3	3.8	1.49e+00	0	32	104	0	73	21036
2026-01-17 00:54:37.83	25.37	2.27	-51.3	-66.2	3.8	1.49e+00	0	32	104	0	73	20986
2026-01-17 00:54:38.84	25.37	2.33	-51.3	-66.3	3.8	1.49e+00	0	32	104	0	73	21019
2026-01-17 00:54:39.85	25.37	2.40	-51.3	-66.2	3.8	1.49e+00	0	32	104	0	73	20974
2026-01-17 00:54:40.86	25.36	2.46	-51.3	-66.2	3.8	1.49e+00	0	32	104	0	73	20976
2026-01-17 00:54:41.86	25.36	2.53	-51.3	-66.2	3.8	1.49e+00	0	32	104	0	73	20978
2026-01-17 00:54:42.87	25.36	2.59	-51.3	-66.2	3.8	1.49e+00	0	32	104	0	73	21002
2026-01-17 00:54:43.88	25.36	2.66	-51.3	-66.3	3.8	1.49e+00	0	32	104	0	73	21027
2026-01-17 00:54:44.89	25.35	2.72	-51.3	-66.3	3.8	1.49e+00	0	32	104	0	73	21026
2026-01-17 00:54:45.90	25.35	2.79	-51.3	-66.2	3.8	1.49e+00	0	32	104	0	73	21009
2026-01-17 00:54:46.91	25.35	2.86	-51.3	-66.2	3.8	1.49e+00	0	32	104	0	73	20922
2026-01-17 00:54:47.92	25.35	2.92	-51.3	-66.2	3.8	1.49e+00	0	32	104	0	73	20847
2026-01-17 00:54:48.92	25.35	2.99	-51.3	-66.1	3.8	1.49e+00	0	32	104	0	73	20775
2026-01-17 00:54:49.93	25.34	3.06	-51.3	-66.1	3.8	1.49e+00	0	32	104	0	73	20559
2026-01-17 00:54:50.94	25.34	3.12	-51.3	-65.9	3.8	1.49e+00	0	32	104	0	73	20079
2026-01-17 00:54:51.95	25.34	3.19	-51.2	-65.6	3.8	1.49e+00	0	32	104	0	73	19431
2026-01-17 00:54:52.96	25.33	3.26	-51.2	-65.1	3.8	1.49e+00	0	32	104	0	73	18517
2026-01-17 00:54:53.97	25.33	3.32	-51.2	-64.5	3.8	1.49e+00	0	32	104	0	73	17146
2026-01-17 00:54:54.98	25.33	3.39	-51.1	-63.4	3.9	1.47e+00	0	32	104	0	73	15191
2026-01-17 00:54:55.98	25.33	3.46	-51.0	-62.1	4.4	1.41e+00	134	33	0	0	73	12974
2026-01-17 00:54:56.99	25.32	3.53	-51.0	-61.7	4.5	1.15e+00	16	32	0	1048576	73	12418
2026-01-17 00:54:58.00	25.32	3.60	-50.9	-60.4	5.2	6.56e-01	0	33	0	3145728	73	10670
2026-01-17 00:54:59.01	25.32	3.66	-50.7	-59.2	5.9	5.74e-01	0	32	0	5242880	73	9383
2026-01-17 00:55:00.02	25.32	3.73	-50.6	-58.4	6.5	1.71e-01	0	32	0	7340032	73	8540
2026-01-17 00:55:01.03	25.31	3.80	-50.4	-57.4	7.5	1.78e-01	0	32	0	9437184	72	8017
2026-01-17 00:55:02.04	25.31	3.87	-50.0	-55.8	9.2	6.47e-02	0	33	0	11534336	71	7092
2026-01-17 00:55:03.05	25.31	3.94	-49.9	-55.5	9.6	1.57e-02	0	32	0	12582912	71	6846
2026-01-17 00:55:04.06	25.30	4.01	-49.4	-54.1	11.0	5.15e-03	0	33	0	14680064	70	6160
2026-01-17 00:55:05.07	25.30	4.08	-49.9	-55.2	9.8	5.60e-03	0	33	0	16777216	70	7040
2026-01-17 00:55:06.07	25.30	4.15	-49.3	-53.7	11.4	2.99e-03	0	33	0	18874368	70	5920
2026-01-17 00:55:07.08	25.29	4.22	-49.5	-54.2	10.9	1.22e-03	0	33	0	19922944	70	6258
2026-01-17 00:55:08.09	25.29	4.29	-49.2	-53.5	11.7	5.17e-04	0	33	0	22020096	70	5744
2026-01-17 00:55:09.10	25.29	4.36	-49.5	-54.2	11.0	3.60e-03	0	33	0	24117248	70	6252
2026-01-17 00:55:10.11	25.28	4.43	-49.6	-54.5	10.7	3.45e-03	0	33	0	26214400	70	6432
2026-01-17 00:55:11.12	25.28	4.50	-49.6	-54.6	10.6	3.79e-03	0	33	0	28311552	70	6497
2026-01-17 00:55:12.12	25.28	4.57	-49.8	-55.2	9.8	6.67e-03	0	33	0	29360128	70	7014
2026-01-17 00:55:13.13	25.27	4.64	-49.8	-55.1	10.0	1.54e-02	0	33	0	31457280	70	6887
2026-01-17 00:55:14.14	25.27	4.71	-50.2	-56.4	8.5	4.87e-02	0	33	0	33554432	71	7628
2026-01-17 00:55:15.15	25.27	4.78	-50.4	-57.4	7.7	2.95e-02	0	33	0	35651584	71	8524
2026-01-17 00:55:16.16	25.26	4.85	-50.5	-57.9	7.2	9.24e-02	0	33	0	37748736	71	9027
2026-01-17 00:55:17.16	25.26	4.92	-50.5	-58.0	7.1	9.63e-02	0	33	0	39845888	71	9118
2026-01-17 00:55:18.17	25.26	4.99	-50.6	-58.5	6.6	2.31e-01	0	33	0	40894464	71	9712
2026-01-17 00:55:19.18	25.25	5.07	-50.7	-58.8	6.3	2.72e-01	0	33	0	42991616	72	9433
2026-01-17 00:55:20.19	25.25	5.14	-50.0	-54.8	10.7	3.90e-03	0	33	0	45088768	71	6319
2026-01-17 00:55:21.20	25.25	5.21	-50.9	-60.4	5.2	2.55e-01	0	33	0	47185920	72	11325
2026-01-17 00:55:22.21	25.24	5.28	-51.0	-60.4	5.2	3.73e-01	0	33	0	48234496	72	11367
2026-01-17 00:55:23.21	25.24	5.35	-50.2	-55.6	9.9	1.76e-01	0	33	0	50331648	72	6511
2026-01-17 00:55:24.22	25.23	5.43	-51.1	-64.2	3.8	1.41e+00	0	33	104	51380224	72	17620
2026-01-17 00:55:25.23	25.23	5.50	-50.0	-54.7	10.9	6.44e-02	0	33	0	52428800	71	6226
2026-01-17 00:55:26.24	25.23	5.57	-50.1	-54.9	10.6	2.39e-03	0	33	0	54525952	71	6419
2026-01-17 00:55:27.25	25.22	5.65	-49.9	-54.5	11.2	1.10e-03	0	33	0	55574528	71	6070
2026-01-17 00:55:28.26	25.22	5.72	-50.0	-54.8	10.9	1.16e-03	0	33	0	57671680	71	6314
2026-01-17 00:55:29.27	25.22	5.79	-49.8	-54.2	11.6	1.05e-03	0	33	0	59768832	71	5859
2026-01-17 00:55:30.28	25.21	5.87	-49.7	-53.9	11.9	4.16e-04	0	33	0	61865984	71	5678
2026-01-17 00:55:31.28	25.21	5.94	-49.9	-54.5	11.3	9.61e-04	0	33	0	63963136	71	6084
2026-01-17 00:55:32.29	25.20	6.02	-49.7	-53.9	12.0	4.46e-04	0	33	0	65011712	71	5670
2026-01-17 00:55:33.30	25.20	6.09	-49.6	-53.7	12.1	3.91e-04	0	33	0	67108864	71	5544
2026-01-17 00:55:34.31	25.19	6.17	-49.4	-53.3	12.6	7.32e-05	0	33	0	69206016	70	5595
2026-01-17 00:55:35.32	25.19	6.24	-49.4	-53.2	12.7	1.22e-04	0	33	0	71303168	70	5546
2026-01-17 00:55:36.32	25.19	6.32	-49.2	-52.8	13.1	3.43e-05	0	33	0	72351744	70	5302
2026-01-17 00:55:37.33	25.18	6.39	-49.0	-52.4	13.5	2.21e-05	0	33	0	74448896	70	5080
2026-01-17 00:55:38.34	25.18	6.47	-48.9	-52.0	13.9	7.60e-06	0	33	0	76546048	69	5156
2026-01-17 00:55:39.35	25.17	6.54	-48.8	-52.0	13.9	1.50e-06	0	33	0	78643200	69	5145
2026-01-17 00:55:40.36	25.17	6.62	-48.9	-52.1	13.8	5.30e-06	0	33	0	80740352	69	5203
2026-01-17 00:55:41.37	25.16	6.70	-48.8	-52.0	13.9	6.10e-06	0	33	0	82837504	69	5147
2026-01-17 00:55:42.38	25.16	6.77	-48.7	-51.7	14.3	3.00e-06	0	33	0	83886080	69	4966
2026-01-17 00:55:43.39	25.15	6.85	-48.4	-51.3	14.8	7.00e-07	0	33	0	85983232	68	4987
2026-01-17 00:55:44.40	25.15	6.93	-48.6	-51.5	14.5	0.00e+00	0	33	0	88080384	68	5138
2026-01-17 00:55:45.40	25.14	7.00	-48.6	-51.5	14.5	0.00e+00	0	33	0	90177536	68	5118
2026-01-17 00:55:46.41	25.14	7.08	-48.5	-51.4	14.7	0.00e+00	0	33	0	92274688	68	5080
2026-01-17 00:55:47.42	25.14	7.16	-48.3	-50.9	15.2	7.00e-07	0	33	0	93323264	68	4813
2026-01-17 00:55:48.43	25.13	7.24	-48.5	-51.4	14.8	0.00e+00	0	33	0	95420416	68	5059
2026-01-17 00:55:49.44	25.13	7.32	-48.5	-51.3	14.9	0.00e+00	0	33	0	97517568	68	4988
2026-01-17 00:55:50.45	25.12	7.40	-48.4	-51.1	15.1	7.00e-07	0	33	0	99614720	68	4884
2026-01-17 00:55:51.45	25.12	7.47	-48.5	-51.4	14.8	0.00e+00	0	33	0	101711872	68	5050
2026-01-17 00:55:52.46	25.11	7.55	-48.6	-51.5	14.7	0.00e+00	0	33	0	102760448	68	5118
2026-01-17 00:55:53.47	25.11	7.63	-48.6	-51.5	14.7	0.00e+00	0	33	0	104857600	68	5134
2026-01-17 00:55:54.48	25.10	7.71	-48.5	-51.3	14.9	0.00e+00	0	33	0	106954752	68	5009
2026-01-17 00:55:55.49	25.09	7.79	-48.5	-51.2	15.0	0.00e+00	0	33	0	109051904	68	4968
2026-01-17 00:55:56.50	25.09	7.87	-48.5	-51.4	14.9	0.00e+00	0	33	0	111149056	68	5043
2026-01-17 00:55:57.50	25.08	7.95	-48.5	-51.3	14.9	0.00e+00	0	33	0	112197632	68	5040
2026-01-17 00:55:58.51	25.08	8.03	-48.5	-51.2	15.0	0.00e+00	0	33	0	114294784	68	4978
2026-01-17 00:55:59.52	25.07	8.11	-48.4	-51.2	15.1	0.00e+00	0	33	0	116391936	68	4940
2026-01-17 00:56:00.53	25.07	8.19	-48.3	-51.0	15.3	0.00e+00	0	33	0	118489088	68	4827
2026-01-17 00:56:01.54	25.06	8.28	-48.4	-51.1	15.2	0.00e+00	0	33	0	120586240	68	4914
2026-01-17 00:56:02.55	25.06	8.36	-48.3	-50.9	15.4	0.00e+00	0	33	0	122683392	68	4799
2026-01-17 00:56:03.55	25.05	8.44	-48.5	-51.2	15.0	0.00e+00	0	33	0	123731968	68	4961
2026-01-17 00:56:04.57	25.05	8.52	-48.5	-51.3	15.0	0.00e+00	0	33	0	125829120	68	5022
2026-01-17 00:56:05.57	25.04	8.60	-48.4	-51.0	15.3	7.00e-07	0	33	0	127926272	68	4851
2026-01-17 00:56:06.58	25.03	8.69	-48.3	-50.9	15.4	0.00e+00	0	33	0	130023424	68	4809
2026-01-17 00:56:07.59	25.03	8.77	-48.2	-50.7	15.6	0.00e+00	0	33	0	131072000	68	4691
2026-01-17 00:56:08.60	25.02	8.85	-48.3	-50.9	15.5	0.00e+00	0	33	0	133169152	68	4764
2026-01-17 00:56:09.61	25.02	8.94	-48.3	-50.8	15.5	0.00e+00	0	33	0	135266304	68	4750
2026-01-17 00:56:10.62	25.01	9.02	-48.2	-50.7	15.6	0.00e+00	0	33	0	137363456	68	4699
2026-01-17 00:56:11.63	25.00	9.10	-48.3	-50.8	15.5	0.00e+00	0	33	0	139460608	68	4748
2026-01-17 00:56:12.64	25.00	9.19	-48.3	-50.9	15.5	0.00e+00	0	33	0	141557760	68	4768
2026-01-17 00:56:13.64	24.99	9.27	-48.0	-50.5	15.9	0.00e+00	0	34	0	142606336	68	4546
2026-01-17 00:56:14.65	24.98	9.36	-48.2	-50.8	15.6	0.00e+00	0	33	0	144703488	68	4715
2026-01-17 00:56:15.66	24.98	9.44	-48.1	-50.6	15.8	0.00e+00	0	34	0	146800640	68	4616
2026-01-17 00:56:16.67	24.97	9.53	-48.1	-50.6	15.8	0.00e+00	0	33	0	148897792	68	4624
2026-01-17 00:56:17.68	24.97	9.61	-48.2	-50.7	15.7	0.00e+00	0	33	0	150994944	68	4672
2026-01-17 00:56:18.69	24.96	9.70	-48.1	-50.5	15.9	0.00e+00	0	33	0	152043520	68	4570
2026-01-17 00:56:19.70	24.95	9.79	-48.1	-50.6	15.9	0.00e+00	0	34	0	154140672	68	4602
2026-01-17 00:56:20.70	24.95	9.87	-48.1	-50.5	15.9	0.00e+00	0	34	0	156237824	68	4554
2026-01-17 00:56:21.71	24.94	9.96	-48.1	-50.5	15.9	0.00e+00	0	34	0	158334976	68	4580
2026-01-17 00:56:22.72	24.93	10.05	-48.2	-50.7	15.7	0.00e+00	0	33	0	159383552	68	4670
2026-01-17 00:56:23.73	24.93	10.13	-48.1	-50.5	16.0	0.00e+00	0	34	0	161480704	68	4567
2026-01-17 00:56:24.74	24.92	10.22	-48.1	-50.5	16.0	0.00e+00	0	34	0	163577856	68	4554
2026-01-17 00:56:25.75	24.91	10.31	-48.1	-50.4	16.0	0.00e+00	0	33	0	165675008	68	4536
2026-01-17 00:56:26.76	24.90	10.40	-47.9	-50.2	16.2	0.00e+00	0	34	0	167772160	67	4664
2026-01-17 00:56:27.77	24.90	10.49	-47.9	-50.3	16.1	0.00e+00	0	34	0	169869312	67	4713
2026-01-17 00:56:28.77	24.89	10.58	-47.9	-50.2	16.1	0.00e+00	0	34	0	170917888	67	4702
2026-01-17 00:56:29.79	24.88	10.67	-47.9	-50.2	16.2	0.00e+00	0	34	0	173015040	67	4670
2026-01-17 00:56:30.79	24.87	10.76	-47.9	-50.2	16.2	0.00e+00	0	33	0	175112192	67	4690
2026-01-17 00:56:31.80	24.87	10.85	-47.9	-50.1	16.3	0.00e+00	0	34	0	177209344	67	4648
2026-01-17 00:56:32.81	24.86	10.94	-47.9	-50.2	16.2	0.00e+00	0	33	0	179306496	67	4675
2026-01-17 00:56:33.82	24.85	11.03	-47.9	-50.2	16.3	0.00e+00	0	34	0	180355072	67	4665
2026-01-17 00:56:34.83	24.84	11.12	-47.9	-50.2	16.3	0.00e+00	0	33	0	182452224	67	4652
2026-01-17 00:56:35.83	24.84	11.21	-48.0	-50.3	16.2	0.00e+00	0	33	0	184549376	67	4731
2026-01-17 00:56:36.84	24.83	11.30	-47.9	-50.2	16.3	0.00e+00	0	34	0	186646528	67	4656
2026-01-17 00:56:37.85	24.82	11.39	-47.9	-50.3	16.2	0.00e+00	0	34	0	188743680	67	4712
2026-01-17 00:56:38.86	24.81	11.49	-48.0	-50.4	16.1	0.00e+00	0	34	0	189792256	67	4762
2026-01-17 00:56:39.87	24.80	11.58	-47.8	-50.0	16.4	0.00e+00	0	34	0	191889408	67	4575
2026-01-17 00:56:40.88	24.80	11.67	-47.8	-50.0	16.5	0.00e+00	0	34	0	193986560	67	4572
2026-01-17 00:56:41.89	24.79	11.77	-47.6	-49.8	16.7	0.00e+00	0	34	0	196083712	67	4452
2026-01-17 00:56:42.89	24.78	11.86	-47.7	-49.9	16.6	0.00e+00	0	33	0	198180864	67	4510
2026-01-17 00:56:43.90	24.77	11.95	-47.7	-50.0	16.5	0.00e+00	0	34	0	199229440	67	4553
2026-01-17 00:56:44.91	24.76	12.05	-47.6	-49.8	16.7	0.00e+00	0	34	0	201326592	67	4477
2026-01-17 00:56:45.92	24.75	12.14	-47.6	-49.7	16.8	0.00e+00	0	33	0	203423744	67	4433
2026-01-17 00:56:46.92	24.75	12.24	-47.6	-49.7	16.8	0.00e+00	0	34	0	205520896	67	4407
2026-01-17 00:56:47.93	24.74	12.33	-47.5	-49.6	16.9	0.00e+00	0	34	0	207618048	67	4383
2026-01-17 00:56:48.94	24.73	12.43	-47.6	-49.8	16.7	0.00e+00	0	34	0	208666624	66	4720
2026-01-17 00:56:49.95	24.72	12.53	-47.5	-49.6	16.9	0.00e+00	0	34	0	210763776	66	4612
2026-01-17 00:56:50.96	24.71	12.62	-47.5	-49.6	16.9	0.00e+00	0	34	0	212860928	66	4619
2026-01-17 00:56:51.97	24.70	12.72	-47.4	-49.5	17.0	0.00e+00	0	34	0	214958080	66	4576
2026-01-17 00:56:52.97	24.69	12.82	-47.5	-49.6	16.9	0.00e+00	0	33	0	217055232	66	4622
2026-01-17 00:56:53.98	24.68	12.92	-47.5	-49.6	16.9	0.00e+00	0	34	0	218103808	66	4623
2026-01-17 00:56:54.99	24.67	13.01	-47.5	-49.6	16.9	0.00e+00	0	34	0	220200960	66	4628
2026-01-17 00:56:56.00	24.66	13.11	-47.5	-49.5	17.0	0.00e+00	0	34	0	222298112	66	4595
2026-01-17 00:56:57.00	24.66	13.21	-47.5	-49.5	17.0	0.00e+00	0	34	0	224395264	66	4598
2026-01-17 00:56:58.01	24.65	13.31	-47.5	-49.5	17.0	0.00e+00	0	34	0	226492416	66	4591
2026-01-17 00:56:59.02	24.64	13.41	-47.6	-49.7	16.9	0.00e+00	0	34	0	227540992	66	4663
2026-01-17 00:57:00.03	24.63	13.51	-47.4	-49.5	17.1	0.00e+00	0	34	0	229638144	66	4554
2026-01-17 00:57:01.04	24.62	13.61	-47.5	-49.5	17.0	0.00e+00	0	34	0	231735296	66	4586
2026-01-17 00:57:02.04	24.61	13.71	-47.4	-49.5	17.1	0.00e+00	0	34	0	233832448	66	4550
2026-01-17 00:57:03.05	24.60	13.82	-47.4	-49.4	17.1	0.00e+00	0	34	0	235929600	66	4534
2026-01-17 00:57:04.06	24.59	13.92	-47.3	-49.2	17.3	0.00e+00	0	34	0	236978176	66	4436
2026-01-17 00:57:05.07	24.58	14.02	-47.2	-49.1	17.5	0.00e+00	0	34	0	239075328	66	4360
2026-01-17 00:57:06.08	24.57	14.12	-47.1	-49.1	17.5	0.00e+00	0	34	0	241172480	66	4361
2026-01-17 00:57:07.09	24.56	14.23	-47.2	-49.2	17.4	0.00e+00	0	34	0	243269632	66	4421
2026-01-17 00:57:08.09	24.54	14.33	-47.1	-49.0	17.5	0.00e+00	0	34	0	245366784	66	4339
2026-01-17 00:57:09.10	24.53	14.44	-47.2	-49.1	17.5	0.00e+00	0	34	0	246415360	66	4379
2026-01-17 00:57:10.11	24.52	14.54	-47.3	-49.2	17.4	0.00e+00	0	34	0	248512512	66	4427
2026-01-17 00:57:11.12	24.51	14.65	-47.1	-49.0	17.6	0.00e+00	0	34	0	250609664	66	4310
2026-01-17 00:57:12.12	24.50	14.75	-47.1	-49.0	17.6	0.00e+00	0	34	0	252706816	66	4329
2026-01-17 00:57:13.13	24.49	14.86	-47.0	-48.9	17.7	0.00e+00	0	34	0	254803968	66	4262
2026-01-17 00:57:14.14	24.48	14.96	-47.0	-48.9	17.7	0.00e+00	0	34	0	256901120	66	4271
2026-01-17 00:57:15.15	24.47	15.07	-47.0	-48.9	17.8	0.00e+00	0	34	0	257949696	65	4508
2026-01-17 00:57:16.16	24.46	15.18	-46.9	-48.7	17.9	0.00e+00	0	34	0	260046848	65	4432
2026-01-17 00:57:17.17	24.44	15.29	-46.9	-48.8	17.8	0.00e+00	0	34	0	262144000	65	4467
2026-01-17 00:57:18.18	24.43	15.39	-47.1	-48.9	17.7	0.00e+00	0	34	0	264241152	65	4538
2026-01-17 00:57:19.19	24.42	15.50	-47.0	-48.9	17.7	0.00e+00	0	34	0	265289728	65	4529
2026-01-17 00:57:20.20	24.41	15.61	-46.8	-48.6	18.0	0.00e+00	0	34	0	267386880	65	4371
2026-01-17 00:57:21.21	24.40	15.72	-46.8	-48.6	18.0	0.00e+00	0	34	0	269484032	65	4372
2026-01-17 00:57:22.21	24.38	15.83	-46.9	-48.7	17.9	0.00e+00	0	34	0	271581184	65	4406
2026-01-17 00:57:23.22	24.37	15.94	-46.9	-48.7	18.0	0.00e+00	0	34	0	273678336	65	4400
2026-01-17 00:57:24.23	24.36	16.06	-46.8	-48.6	18.0	0.00e+00	0	34	0	275775488	65	4367
2026-01-17 00:57:25.24	24.35	16.17	-46.8	-48.5	18.1	0.00e+00	0	33	0	276824064	65	4340
2026-01-17 00:57:26.24	24.34	16.28	-46.7	-48.5	18.2	0.00e+00	0	34	0	278921216	65	4295
2026-01-17 00:57:27.25	24.32	16.39	-46.6	-48.4	18.3	0.00e+00	0	34	0	281018368	65	4259
2026-01-17 00:57:28.26	24.31	16.51	-46.6	-48.4	18.3	0.00e+00	0	34	0	283115520	65	4243
2026-01-17 00:57:29.27	24.30	16.62	-46.6	-48.3	18.3	0.00e+00	0	34	0	285212672	65	4234
2026-01-17 00:57:30.28	24.28	16.74	-46.6	-48.3	18.4	0.00e+00	0	34	0	286261248	65	4222
2026-01-17 00:57:31.29	24.27	16.85	-46.5	-48.2	18.5	0.00e+00	0	34	0	288358400	64	4402
2026-01-17 00:57:32.30	24.26	16.97	-46.5	-48.1	18.5	0.00e+00	0	34	0	290455552	64	4386
2026-01-17 00:57:33.31	24.24	17.08	-46.4	-48.1	18.6	0.00e+00	0	34	0	292552704	64	4350
2026-01-17 00:57:34.31	24.23	17.20	-46.4	-48.1	18.6	0.00e+00	0	33	0	294649856	64	4347
2026-01-17 00:57:35.32	24.22	17.32	-46.4	-48.0	18.7	0.00e+00	0	34	0	295698432	64	4306
2026-01-17 00:57:36.33	24.20	17.43	-46.4	-48.0	18.7	0.00e+00	0	34	0	297795584	64	4327
2026-01-17 00:57:37.34	24.19	17.55	-46.3	-47.9	18.8	0.00e+00	0	34	0	299892736	64	4273
2026-01-17 00:57:38.35	24.17	17.67	-46.3	-47.9	18.8	0.00e+00	0	34	0	301989888	64	4250
2026-01-17 00:57:39.36	24.16	17.79	-46.2	-47.8	18.9	0.00e+00	0	34	0	304087040	64	4202
2026-01-17 00:57:40.36	24.14	17.91	-46.2	-47.7	19.0	0.00e+00	0	34	0	305135616	64	4176
2026-01-17 00:57:41.37	24.13	18.03	-46.2	-47.7	19.0	0.00e+00	0	34	0	307232768	64	4187
2026-01-17 00:57:42.38	24.11	18.15	-46.2	-47.8	18.9	0.00e+00	0	34	0	309329920	64	4210
2026-01-17 00:57:43.39	24.10	18.28	-46.3	-47.9	18.8	0.00e+00	0	34	0	311427072	64	4267
2026-01-17 00:57:44.40	24.08	18.40	-46.3	-47.9	18.8	0.00e+00	0	34	0	313524224	64	4283
2026-01-17 00:57:45.40	24.07	18.52	-46.3	-47.9	18.8	0.00e+00	0	34	0	314572800	64	4273
2026-01-17 00:57:46.41	24.05	18.64	-46.2	-47.8	19.0	0.00e+00	0	34	0	316669952	64	4200
2026-01-17 00:57:47.42	24.04	18.77	-46.1	-47.7	19.1	0.00e+00	0	34	0	318767104	64	4153
2026-01-17 00:57:48.43	24.02	18.89	-46.1	-47.6	19.2	0.00e+00	0	34	0	320864256	63	4349
2026-01-17 00:57:49.44	24.01	19.02	-46.0	-47.5	19.3	0.00e+00	0	34	0	322961408	63	4325
2026-01-17 00:57:50.45	23.99	19.15	-46.0	-47.5	19.3	0.00e+00	0	34	0	324009984	63	4326
2026-01-17 00:57:51.46	23.97	19.27	-46.0	-47.6	19.3	0.00e+00	0	34	0	326107136	63	4341
2026-01-17 00:57:52.46	23.96	19.40	-46.0	-47.5	19.3	0.00e+00	0	34	0	328204288	63	4320
2026-01-17 00:57:53.47	23.94	19.53	-46.0	-47.5	19.3	0.00e+00	0	34	0	330301440	63	4313
2026-01-17 00:57:54.48	23.92	19.66	-46.1	-47.6	19.2	0.00e+00	0	34	0	332398592	63	4347
2026-01-17 00:57:55.49	23.91	19.79	-45.9	-47.4	19.4	0.00e+00	0	34	0	333447168	63	4259
2026-01-17 00:57:56.50	23.89	19.92	-46.0	-47.5	19.3	0.00e+00	0	34	0	335544320	63	4306
2026-01-17 00:57:57.51	23.87	20.05	-46.0	-47.5	19.3	0.00e+00	0	34	0	337641472	63	4318
2026-01-17 00:57:58.51	23.85	20.18	-46.0	-47.4	19.4	0.00e+00	0	34	0	339738624	63	4288
2026-01-17 00:57:59.52	23.84	20.31	-45.8	-47.2	19.6	0.00e+00	0	34	0	341835776	63	4179
2026-01-17 00:58:00.53	23.82	20.45	-45.9	-47.4	19.5	0.00e+00	0	34	0	342884352	63	4259
2026-01-17 00:58:01.54	23.80	20.58	-45.8	-47.3	19.6	0.00e+00	0	34	0	344981504	63	4213
2026-01-17 00:58:02.54	23.78	20.71	-45.9	-47.4	19.5	0.00e+00	0	34	0	347078656	63	4244
2026-01-17 00:58:03.55	23.76	20.85	-45.9	-47.3	19.5	0.00e+00	0	34	0	349175808	63	4228
2026-01-17 00:58:04.56	23.75	20.98	-45.8	-47.2	19.6	0.00e+00	0	34	0	351272960	63	4177
2026-01-17 00:58:05.57	23.73	21.12	-45.7	-47.1	19.7	0.00e+00	0	34	0	352321536	63	4136
2026-01-17 00:58:06.58	23.71	21.26	-45.7	-47.1	19.8	0.00e+00	0	34	0	354418688	63	4106
2026-01-17 00:58:07.58	23.69	21.40	-45.7	-47.1	19.7	0.00e+00	0	34	0	356515840	63	4118
2026-01-17 00:58:08.59	23.67	21.54	-45.9	-47.3	19.5	0.00e+00	0	34	0	358612992	63	4225
2026-01-17 00:58:09.60	23.65	21.67	-45.7	-47.1	19.7	0.00e+00	0	34	0	360710144	63	4141
2026-01-17 00:58:10.61	23.63	21.82	-45.8	-47.3	19.6	0.00e+00	0	34	0	361758720	63	4195
2026-01-17 00:58:11.62	23.61	21.96	-45.8	-47.2	19.7	0.00e+00	0	34	0	363855872	63	4182
2026-01-17 00:58:12.63	23.59	22.10	-45.7	-47.1	19.7	0.00e+00	0	34	0	365953024	63	4140
2026-01-17 00:58:13.63	23.57	22.24	-45.8	-47.2	19.7	0.00e+00	0	34	0	368050176	63	4193
2026-01-17 00:58:14.64	23.55	22.38	-45.8	-47.2	19.7	0.00e+00	0	34	0	370147328	63	4171
2026-01-17 00:58:15.65	23.53	22.53	-45.7	-47.1	19.8	0.00e+00	0	34	0	372244480	63	4135
2026-01-17 00:58:16.66	23.50	22.67	-45.8	-47.2	19.7	0.00e+00	0	34	0	373293056	63	4181
2026-01-17 00:58:17.67	23.48	22.82	-45.7	-47.1	19.8	0.00e+00	0	34	0	375390208	63	4137
2026-01-17 00:58:18.68	23.46	22.97	-45.8	-47.2	19.7	0.00e+00	0	34	0	377487360	63	4166
2026-01-17 00:58:19.68	23.44	23.11	-45.9	-47.3	19.6	0.00e+00	0	34	0	379584512	63	4216
2026-01-17 00:58:20.69	23.42	23.26	-45.8	-47.2	19.7	0.00e+00	0	34	0	380633088	63	4185
2026-01-17 00:58:21.70	23.39	23.41	-45.9	-47.3	19.6	0.00e+00	0	34	0	382730240	63	4236
2026-01-17 00:58:22.71	23.37	23.56	-45.8	-47.3	19.6	0.00e+00	0	34	0	384827392	63	4213
2026-01-17 00:58:23.72	23.35	23.71	-45.9	-47.3	19.6	0.00e+00	0	34	0	386924544	63	4230
2026-01-17 00:58:24.73	23.32	23.87	-45.8	-47.3	19.7	0.00e+00	0	34	0	389021696	63	4200
2026-01-17 00:58:25.74	23.30	24.02	-46.0	-47.4	19.5	0.00e+00	0	34	0	391118848	63	4275
2026-01-17 00:58:26.74	23.28	24.17	-45.9	-47.3	19.6	0.00e+00	0	34	0	392167424	63	4234
2026-01-17 00:58:27.75	23.25	24.33	-45.9	-47.4	19.6	0.00e+00	0	34	0	394264576	63	4250
2026-01-17 00:58:28.76	23.23	24.48	-46.0	-47.4	19.5	0.00e+00	0	34	0	396361728	63	4291
2026-01-17 00:58:29.77	23.20	24.64	-46.1	-47.6	19.4	0.00e+00	0	34	0	398458880	63	4346
2026-01-17 00:58:30.78	23.18	24.80	-46.0	-47.5	19.4	0.00e+00	0	34	0	400556032	63	4322
2026-01-17 00:58:31.78	23.15	24.95	-46.1	-47.5	19.4	0.00e+00	0	34	0	401604608	63	4338
2026-01-17 00:58:32.79	23.13	25.11	-46.1	-47.6	19.4	0.00e+00	0	34	0	403701760	63	4372
2026-01-17 00:58:33.80	23.10	25.27	-46.0	-47.5	19.5	0.00e+00	0	34	0	405798912	63	4309
2026-01-17 00:58:34.81	23.08	25.44	-46.0	-47.5	19.5	0.00e+00	0	34	0	407896064	63	4310
2026-01-17 00:58:35.82	23.05	25.60	-46.1	-47.5	19.4	0.00e+00	0	34	0	408944640	63	4336
2026-01-17 00:58:36.83	23.02	25.76	-46.1	-47.6	19.4	0.00e+00	0	34	0	411041792	63	4354
2026-01-17 00:58:37.84	23.00	25.93	-46.1	-47.5	19.4	0.00e+00	0	34	0	413138944	63	4335
2026-01-17 00:58:38.85	22.97	26.09	-46.2	-47.6	19.3	0.00e+00	0	34	0	415236096	63	4388
2026-01-17 00:58:39.86	22.94	26.26	-46.2	-47.7	19.4	0.00e+00	0	34	0	417333248	63	4396
2026-01-17 00:58:40.86	22.91	26.42	-46.2	-47.7	19.3	0.00e+00	0	34	0	419430400	63	4429
2026-01-17 00:58:41.87	22.88	26.59	-46.3	-47.8	19.2	0.00e+00	0	34	0	420478976	63	4473
2026-01-17 00:58:42.88	22.85	26.76	-46.3	-47.8	19.1	0.00e+00	0	34	0	422576128	63	4485
2026-01-17 00:58:43.89	22.83	26.93	-46.3	-47.8	19.2	0.00e+00	0	34	0	424673280	63	4446
2026-01-17 00:58:44.90	22.80	27.11	-46.3	-47.9	19.1	0.00e+00	0	34	0	426770432	63	4504
2026-01-17 00:58:45.91	22.77	27.28	-46.3	-47.9	19.1	0.00e+00	0	34	0	428867584	63	4500
2026-01-17 00:58:46.91	22.74	27.45	-46.5	-48.1	19.0	0.00e+00	0	34	0	429916160	63	4607
2026-01-17 00:58:47.92	22.71	27.63	-46.7	-48.3	18.8	0.00e+00	0	34	0	432013312	63	4733
2026-01-17 00:58:48.93	22.67	27.80	-46.6	-48.2	18.7	0.00e+00	0	34	0	434110464	64	4429
2026-01-17 00:58:49.94	22.64	27.98	-46.7	-48.3	18.7	0.00e+00	0	34	0	436207616	64	4464
2026-01-17 00:58:50.95	22.61	28.16	-46.7	-48.4	18.6	0.00e+00	0	34	0	438304768	64	4513
2026-01-17 00:58:51.96	22.58	28.34	-46.8	-48.5	18.4	0.00e+00	0	34	0	439353344	64	4589
2026-01-17 00:58:52.97	22.55	28.52	-46.9	-48.7	18.3	0.00e+00	0	34	0	441450496	64	4658
2026-01-17 00:58:53.98	22.51	28.70	-46.9	-48.7	18.2	0.00e+00	0	34	0	443547648	64	4660
2026-01-17 00:58:54.98	22.48	28.88	-47.2	-49.0	18.0	0.00e+00	0	34	0	445644800	64	4855
2026-01-17 00:58:55.99	22.45	29.06	-47.3	-49.2	17.8	0.00e+00	0	34	0	447741952	65	4653
2026-01-17 00:58:57.00	22.41	29.25	-47.5	-49.3	17.6	0.00e+00	0	34	0	448790528	65	4759
2026-01-17 00:58:58.01	22.38	29.44	-47.6	-49.5	17.5	0.00e+00	0	34	0	450887680	65	4843
2026-01-17 00:58:59.02	22.34	29.62	-47.7	-49.6	17.4	0.00e+00	0	34	0	452984832	66	4640
2026-01-17 00:59:00.03	22.31	29.81	-47.8	-49.8	17.2	0.00e+00	0	34	0	455081984	66	4738
2026-01-17 00:59:01.04	22.27	30.00	-47.9	-49.9	17.1	0.00e+00	0	34	0	457179136	66	4795
2026-01-17 00:59:02.04	22.23	30.19	-48.0	-50.0	17.0	0.00e+00	0	34	0	459276288	66	4863
2026-01-17 00:59:03.05	22.20	30.39	-48.2	-50.3	16.7	0.00e+00	0	34	0	460324864	66	5012
2026-01-17 00:59:04.06	22.16	30.58	-48.2	-50.4	16.6	0.00e+00	0	34	0	462422016	67	4788
2026-01-17 00:59:05.07	22.12	30.78	-48.4	-50.7	16.3	0.00e+00	0	34	0	464519168	67	4942
2026-01-17 00:59:06.08	22.08	30.97	-48.4	-50.6	16.4	0.00e+00	0	34	0	466616320	67	4909
2026-01-17 00:59:07.09	22.04	31.17	-48.5	-50.9	16.1	0.00e+00	0	34	0	467664896	67	5050
2026-01-17 00:59:08.10	22.00	31.37	-48.5	-50.9	16.2	0.00e+00	0	34	0	469762048	67	5044
2026-01-17 00:59:09.10	21.96	31.57	-48.6	-51.0	16.0	0.00e+00	0	34	0	471859200	67	5134
2026-01-17 00:59:10.11	21.92	31.77	-48.9	-51.3	15.8	0.00e+00	0	34	0	473956352	68	5034
2026-01-17 00:59:11.12	21.88	31.98	-48.8	-51.2	15.9	0.00e+00	0	34	0	476053504	68	4955
2026-01-17 00:59:12.13	21.84	32.18	-48.7	-51.0	16.1	0.00e+00	0	34	0	478150656	68	4854
2026-01-17 00:59:13.14	21.80	32.39	-48.7	-51.1	16.1	0.00e+00	0	34	0	479199232	68	4876
2026-01-17 00:59:14.14	21.75	32.59	-48.6	-50.9	16.3	0.00e+00	0	34	0	481296384	68	4773
2026-01-17 00:59:15.15	21.71	32.80	-48.5	-50.8	16.4	0.00e+00	0	34	0	483393536	68	4728
2026-01-17 00:59:16.16	21.66	33.01	-48.5	-50.8	16.4	0.00e+00	0	34	0	485490688	68	4722
2026-01-17 00:59:17.17	21.62	33.22	-48.4	-50.6	16.5	0.00e+00	0	34	0	487587840	68	4630
2026-01-17 00:59:18.18	21.57	33.44	-48.2	-50.3	16.9	0.00e+00	0	34	0	488636416	68	4445
2026-01-17 00:59:19.19	21.53	33.65	-48.2	-50.3	16.9	0.00e+00	0	33	0	490733568	68	4449
2026-01-17 00:59:20.20	21.48	33.87	-48.2	-50.3	16.9	0.00e+00	0	34	0	492830720	68	4465
2026-01-17 00:59:21.21	21.43	34.09	-48.1	-50.2	17.0	0.00e+00	0	33	0	494927872	68	4409
2026-01-17 00:59:22.22	21.38	34.31	-47.8	-49.7	17.4	0.00e+00	0	34	0	495976448	67	4435
2026-01-17 00:59:23.23	21.33	34.53	-47.6	-49.6	17.5	0.00e+00	0	34	0	498073600	67	4345
2026-01-17 00:59:24.24	21.29	34.75	-47.4	-49.2	17.8	0.00e+00	0	34	0	500170752	66	4437
2026-01-17 00:59:25.24	21.24	34.97	-47.1	-48.9	18.2	0.00e+00	0	34	0	502267904	66	4273
2026-01-17 00:59:26.25	21.18	35.20	-47.0	-48.8	18.3	0.00e+00	0	34	0	504365056	65	4459
2026-01-17 00:59:27.26	21.13	35.43	-46.7	-48.4	18.7	0.00e+00	0	34	0	506462208	65	4249
2026-01-17 00:59:28.27	21.08	35.65	-46.6	-48.2	18.9	0.00e+00	0	34	0	507510784	65	4176
2026-01-17 00:59:29.28	21.03	35.89	-46.6	-48.2	18.9	0.00e+00	0	34	0	509607936	65	4166
2026-01-17 00:59:30.29	20.97	36.12	-46.2	-47.7	19.3	0.00e+00	0	34	0	511705088	64	4173
2026-01-17 00:59:31.30	20.92	36.35	-45.9	-47.3	19.8	0.00e+00	0	34	0	513802240	63	4235
2026-01-17 00:59:32.31	20.86	36.59	-45.9	-47.3	19.8	0.00e+00	0	34	0	515899392	63	4241
2026-01-17 00:59:33.32	20.80	36.82	-45.7	-47.1	20.0	0.00e+00	0	34	0	516947968	63	4104
2026-01-17 00:59:34.32	20.74	37.06	-45.7	-47.1	20.0	0.00e+00	0	34	0	519045120	63	4099
2026-01-17 00:59:35.33	20.69	37.30	-45.7	-47.0	20.1	0.00e+00	0	34	0	521142272	63	4083
2026-01-17 00:59:36.34	20.63	37.54	-45.6	-46.9	20.2	0.00e+00	0	34	0	523239424	63	4033
2026-01-17 00:59:37.35	20.56	37.79	-45.5	-46.8	20.3	0.00e+00	0	34	0	525336576	63	3988
2026-01-17 00:59:38.36	20.50	38.03	-45.6	-46.9	20.2	0.00e+00	0	34	0	526385152	63	4043
2026-01-17 00:59:39.36	20.44	38.28	-45.6	-46.9	20.2	0.00e+00	0	34	0	528482304	63	4025
2026-01-17 00:59:40.37	20.38	38.53	-45.6	-46.9	20.3	0.00e+00	0	34	0	530579456	62	4253
2026-01-17 00:59:41.38	20.31	38.78	-45.6	-46.9	20.2	0.00e+00	0	34	0	532676608	62	4278
2026-01-17 00:59:42.39	20.25	39.03	-45.7	-47.0	20.1	0.00e+00	0	34	0	534773760	62	4339
2026-01-17 00:59:43.40	20.18	39.29	-45.8	-47.1	20.0	0.00e+00	0	34	0	535822336	62	4373
2026-01-17 00:59:44.41	20.11	39.54	-45.8	-47.1	20.0	0.00e+00	0	34	0	537919488	62	4376
2026-01-17 00:59:45.42	20.04	39.80	-45.8	-47.2	19.9	0.00e+00	0	34	0	540016640	62	4421
2026-01-17 00:59:46.43	19.97	40.06	-46.2	-47.6	19.6	0.00e+00	0	34	0	542113792	62	4635
2026-01-17 00:59:47.44	19.90	40.33	-46.4	-48.0	19.2	0.00e+00	0	34	0	544210944	63	4548
2026-01-17 00:59:48.45	19.83	40.59	-46.5	-48.0	19.1	0.00e+00	0	34	0	545259520	63	4588
2026-01-17 00:59:49.46	19.75	40.86	-46.6	-48.1	19.1	0.00e+00	0	34	0	547356672	63	4644
2026-01-17 00:59:50.47	19.68	41.12	-46.6	-48.2	19.0	0.00e+00	0	34	0	549453824	63	4671
2026-01-17 00:59:51.47	19.60	41.39	-46.6	-48.2	19.0	0.00e+00	0	34	0	551550976	64	4393
2026-01-17 00:59:52.48	19.52	41.66	-46.7	-48.3	18.9	0.00e+00	0	34	0	553648128	64	4462
2026-01-17 00:59:53.49	19.44	41.94	-46.7	-48.4	18.8	0.00e+00	0	34	0	554696704	64	4504
2026-01-17 00:59:54.50	19.36	42.21	-46.7	-48.4	18.8	0.00e+00	0	34	0	556793856	64	4496
2026-01-17 00:59:55.50	19.28	42.49	-46.8	-48.5	18.7	0.00e+00	0	34	0	558891008	64	4547
2026-01-17 00:59:56.51	19.20	42.77	-46.7	-48.2	18.9	0.00e+00	0	34	0	560988160	64	4437
2026-01-17 00:59:57.52	19.11	43.05	-46.5	-48.1	19.0	0.00e+00	0	34	0	563085312	64	4359
2026-01-17 00:59:58.53	19.02	43.33	-46.6	-48.1	19.1	0.00e+00	0	34	0	565182464	64	4381
2026-01-17 00:59:59.54	18.94	43.62	-46.7	-48.3	18.9	0.00e+00	0	33	0	566231040	64	4478
2026-01-17 01:00:00.55	18.84	43.91	-47.0	-48.6	18.6	0.00e+00	0	33	0	568328192	64	4638
2026-01-17 01:00:01.56	18.75	44.20	-47.2	-49.0	18.2	0.00e+00	0	33	0	570425344	65	4554
2026-01-17 01:00:02.57	18.66	44.49	-47.1	-48.9	18.3	0.00e+00	0	34	0	572522496	65	4496
2026-01-17 01:00:03.57	18.56	44.78	-47.1	-48.8	18.4	0.00e+00	0	34	0	573571072	65	4470
2026-01-17 01:00:04.58	18.47	45.08	-47.6	-49.5	17.8	0.00e+00	0	34	0	575668224	65	4820
2026-01-17 01:00:05.59	18.37	45.38	-48.0	-50.0	17.3	0.00e+00	0	34	0	577765376	66	4856
2026-01-17 01:00:06.60	18.27	45.68	-48.5	-50.7	16.6	0.00e+00	0	34	0	579862528	67	4942
2026-01-17 01:00:07.60	18.16	45.98	-48.6	-50.9	16.4	0.00e+00	0	34	0	581959680	67	5051
2026-01-17 01:00:08.61	18.06	46.28	-48.6	-50.8	16.4	0.00e+00	0	34	0	583008256	67	5017
2026-01-17 01:00:09.62	17.95	46.59	-48.7	-51.0	16.3	0.00e+00	0	34	0	585105408	67	5102
2026-01-17 01:00:10.63	17.84	46.90	-48.9	-51.3	16.1	0.00e+00	0	34	0	587202560	68	5001
2026-01-17 01:00:11.64	17.73	47.21	-49.2	-51.7	15.6	0.00e+00	0	34	0	589299712	68	5256
2026-01-17 01:00:12.65	17.61	47.52	-49.2	-51.8	15.6	0.00e+00	0	34	0	591396864	69	4985
2026-01-17 01:00:13.66	17.50	47.84	-49.3	-51.9	15.5	0.00e+00	0	34	0	593494016	69	5098
2026-01-17 01:00:14.66	17.38	48.15	-49.2	-51.7	15.6	0.00e+00	0	34	0	594542592	69	4964
2026-01-17 01:00:15.67	17.26	48.47	-48.9	-51.3	16.1	0.00e+00	0	34	0	596639744	69	4728
2026-01-17 01:00:16.68	17.13	48.80	-48.8	-51.1	16.2	0.00e+00	0	34	0	598736896	69	4649
2026-01-17 01:00:17.69	17.00	49.12	-48.3	-50.3	17.0	0.00e+00	0	34	0	600834048	68	4469
2026-01-17 01:00:18.70	16.87	49.45	-48.0	-50.0	17.3	0.00e+00	0	34	0	601882624	68	4316
2026-01-17 01:00:19.71	16.74	49.78	-47.4	-49.2	18.1	0.00e+00	0	34	0	603979776	66	4401
2026-01-17 01:00:20.72	16.60	50.11	-46.8	-48.3	18.9	0.00e+00	0	34	0	606076928	65	4232
2026-01-17 01:00:21.73	16.46	50.44	-46.2	-47.7	19.5	0.00e+00	0	34	0	608174080	64	4161
2026-01-17 01:00:22.74	16.32	50.78	-45.7	-47.0	20.3	0.00e+00	0	34	0	610271232	63	4063
2026-01-17 01:00:23.74	16.18	51.11	-45.2	-46.4	20.8	0.00e+00	0	34	0	612368384	62	4029
2026-01-17 01:00:24.75	16.03	51.45	-44.8	-46.0	21.2	0.00e+00	0	34	0	613416960	61	4072
2026-01-17 01:00:25.76	15.88	51.80	-44.8	-45.9	21.3	0.00e+00	0	34	0	615514112	61	4050
2026-01-17 01:00:26.77	15.72	52.14	-44.7	-45.9	21.4	0.00e+00	0	34	0	617611264	61	4007
2026-01-17 01:00:27.78	15.56	52.49	-44.8	-46.0	21.2	0.00e+00	0	34	0	619708416	61	4082
2026-01-17 01:00:28.78	15.40	52.84	-44.9	-46.1	21.1	0.00e+00	0	34	0	621805568	61	4130
2026-01-17 01:00:29.79	15.23	53.19	-45.2	-46.4	20.9	0.00e+00	0	34	0	622854144	61	4265
2026-01-17 01:00:30.80	15.06	53.54	-45.5	-46.8	20.5	0.00e+00	0	34	0	624951296	61	4452
2026-01-17 01:00:31.81	14.88	53.90	-45.6	-46.9	20.3	0.00e+00	0	34	0	627048448	61	4534
2026-01-17 01:00:32.82	14.70	54.26	-45.6	-46.9	20.4	0.00e+00	0	34	0	629145600	61	4503
2026-01-17 01:00:33.83	14.51	54.62	-45.4	-46.7	20.6	0.00e+00	0	34	0	631242752	61	4392
2026-01-17 01:00:34.84	14.32	54.98	-45.5	-46.8	20.5	0.00e+00	0	34	0	632291328	61	4450
2026-01-17 01:00:35.84	14.13	55.34	-46.0	-47.4	19.9	0.00e+00	0	34	0	634388480	62	4500
2026-01-17 01:00:36.85	13.93	55.71	-46.1	-47.5	19.9	0.00e+00	0	34	0	636485632	62	4548
2026-01-17 01:00:37.86	13.72	56.08	-46.4	-47.9	19.5	0.00e+00	0	34	0	638582784	63	4500
2026-01-17 01:00:38.87	13.51	56.45	-46.9	-48.5	18.8	0.00e+00	0	34	0	640679936	64	4558
2026-01-17 01:00:39.88	13.29	56.82	-47.5	-49.3	17.9	0.00e+00	0	34	0	641728512	65	4730
2026-01-17 01:00:40.89	13.07	57.20	-47.9	-49.8	17.5	0.00e+00	0	34	0	643825664	66	4731
2026-01-17 01:00:41.90	12.83	57.57	-47.9	-49.9	17.3	0.00e+00	0	34	0	645922816	66	4789
2026-01-17 01:00:42.90	12.60	57.95	-48.1	-50.1	17.3	0.00e+00	0	34	0	648019968	66	4876
2026-01-17 01:00:43.92	12.35	58.33	-48.3	-50.4	16.9	0.00e+00	0	34	0	650117120	67	4809
2026-01-17 01:00:44.93	12.10	58.72	-48.7	-50.9	16.3	0.00e+00	0	34	0	651165696	67	5098
2026-01-17 01:00:45.93	11.85	59.10	-48.6	-50.8	16.6	0.00e+00	0	34	0	653262848	68	4737
2026-01-17 01:00:46.94	11.58	59.49	-48.5	-50.6	16.8	0.00e+00	0	34	0	655360000	68	4635
2026-01-17 01:00:47.95	11.30	59.87	-48.0	-49.9	17.4	0.00e+00	0	34	0	657457152	68	4284
2026-01-17 01:00:48.96	11.02	60.27	-47.3	-49.0	18.3	0.00e+00	0	34	0	659554304	66	4303
2026-01-17 01:00:49.97	10.73	60.66	-46.9	-48.6	18.8	0.00e+00	0	34	0	660602880	65	4345
2026-01-17 01:00:50.98	10.43	61.05	-46.8	-48.4	18.8	0.00e+00	0	34	0	662700032	65	4263
2026-01-17 01:00:51.98	10.12	61.44	-46.4	-47.9	19.3	0.00e+00	0	34	0	664797184	64	4270
2026-01-17 01:00:52.99	9.80	61.84	-46.0	-47.3	20.0	0.00e+00	0	34	0	666894336	63	4237
2026-01-17 01:00:54.00	9.46	62.24	-45.6	-47.0	20.3	0.00e+00	0	34	0	668991488	63	4059
2026-01-17 01:00:55.01	9.12	62.64	-45.0	-46.3	21.0	0.00e+00	0	34	0	670040064	62	3963
2026-01-17 01:00:56.02	8.77	63.04	-44.6	-45.7	21.5	0.00e+00	0	34	0	672137216	61	3941
2026-01-17 01:00:57.03	8.40	63.45	-44.5	-45.6	21.6	0.00e+00	0	34	0	674234368	60	4127
2026-01-17 01:00:58.04	8.02	63.85	-44.7	-45.8	21.5	0.00e+00	0	34	0	676331520	60	4238
2026-01-17 01:00:59.04	7.63	64.25	-44.8	-46.0	21.3	0.00e+00	0	34	0	678428672	60	4318
2026-01-17 01:01:00.05	7.22	64.66	-45.1	-46.3	21.0	0.00e+00	0	34	0	680525824	60	4462
2026-01-17 01:01:01.06	6.80	65.07	-45.8	-47.2	20.2	0.00e+00	0	34	0	681574400	62	4427
2026-01-17 01:01:02.07	6.36	65.48	-46.2	-47.6	19.7	0.00e+00	0	34	0	683671552	63	4384
2026-01-17 01:01:03.08	5.90	65.89	-46.3	-47.8	19.5	0.00e+00	0	34	0	685768704	63	4472
2026-01-17 01:01:04.08	5.43	66.29	-46.6	-48.1	19.3	0.00e+00	0	34	0	687865856	63	4636
2026-01-17 01:01:05.09	4.94	66.70	-46.6	-48.2	19.2	0.00e+00	0	34	0	688914432	64	4395
2026-01-17 01:01:06.10	4.43	67.11	-46.5	-48.0	19.3	0.00e+00	0	34	0	691011584	64	4325
2026-01-17 01:01:07.11	3.90	67.53	-46.2	-47.7	19.6	0.00e+00	0	34	0	693108736	64	4147
2026-01-17 01:01:08.11	3.35	67.93	-46.3	-47.7	19.6	0.00e+00	0	34	0	695205888	64	4189
2026-01-17 01:01:09.12	2.77	68.35	-46.1	-47.6	19.8	0.00e+00	0	34	0	697303040	64	4103
2026-01-17 01:01:10.13	2.17	68.76	-46.1	-47.4	19.9	0.00e+00	0	34	0	699400192	63	4287
2026-01-17 01:01:11.14	1.54	69.17	-46.2	-47.6	19.8	0.00e+00	0	34	0	700448768	63	4364
2026-01-17 01:01:12.15	0.89	69.58	-46.3	-47.8	19.6	0.00e+00	0	34	0	702545920	63	4462
2026-01-17 01:01:13.16	0.20	69.99	-46.0	-47.4	20.0	0.00e+00	0	34	0	704643072	63	4255
2026-01-17 01:01:14.17	359.49	70.40	-45.9	-47.2	20.2	0.00e+00	0	34	0	706740224	63	4181
2026-01-17 01:01:15.17	358.75	70.80	-46.3	-47.7	19.7	0.00e+00	0	34	0	708837376	63	4420
2026-01-17 01:01:16.18	357.97	71.20	-46.1	-47.5	19.9	0.00e+00	0	34	0	709885952	63	4319
2026-01-17 01:01:17.19	357.15	71.61	-45.6	-46.9	20.4	0.00e+00	0	34	0	711983104	63	4028
2026-01-17 01:01:18.20	356.29	72.01	-45.5	-46.8	20.6	0.00e+00	0	34	0	714080256	62	4196
2026-01-17 01:01:19.21	355.40	72.41	-45.2	-46.4	20.8	0.00e+00	0	34	0	716177408	62	4047
2026-01-17 01:01:20.22	354.45	72.80	-45.8	-47.1	20.3	0.00e+00	0	34	0	717225984	62	4359
2026-01-17 01:01:21.23	353.47	73.20	-46.6	-48.1	19.4	0.00e+00	0	34	0	719323136	63	4599
2026-01-17 01:01:22.23	352.44	73.58	-47.3	-49.0	18.3	0.00e+00	0	34	0	721420288	65	4572
2026-01-17 01:01:23.24	351.35	73.97	-48.5	-50.8	16.7	0.00e+00	0	34	0	723517440	67	4990
2026-01-17 01:01:24.25	350.20	74.35	-49.0	-51.4	16.1	0.00e+00	0	34	0	725614592	68	5096
2026-01-17 01:01:25.26	348.99	74.72	-48.5	-50.6	16.8	0.00e+00	0	34	0	727711744	68	4636
2026-01-17 01:01:26.27	347.72	75.09	-48.3	-50.4	17.1	0.00e+00	0	34	0	728760320	68	4502
2026-01-17 01:01:27.27	346.40	75.45	-47.9	-49.8	17.5	0.00e+00	0	34	0	730857472	67	4472
2026-01-17 01:01:28.28	345.00	75.81	-47.8	-49.8	17.6	0.00e+00	0	34	0	732954624	67	4448
2026-01-17 01:01:29.29	343.52	76.15	-47.8	-49.7	17.6	0.00e+00	0	34	0	735051776	67	4397
2026-01-17 01:01:30.30	341.96	76.49	-47.6	-49.4	17.9	0.00e+00	0	34	0	737148928	67	4270
2026-01-17 01:01:31.31	340.32	76.82	-47.3	-49.0	18.3	0.00e+00	0	34	0	738197504	66	4306
2026-01-17 01:01:32.32	338.60	77.14	-47.4	-49.1	18.2	0.00e+00	0	34	0	740294656	66	4378
2026-01-17 01:01:33.32	336.80	77.45	-47.6	-49.4	18.0	0.00e+00	0	34	0	742391808	66	4518
2026-01-17 01:01:34.33	334.90	77.74	-47.6	-49.4	17.9	0.00e+00	0	34	0	744488960	66	4538
2026-01-17 01:01:35.34	332.90	78.03	-47.2	-48.9	18.5	0.00e+00	0	34	0	746586112	66	4257
2026-01-17 01:01:36.35	330.80	78.29	-46.3	-47.7	19.6	0.00e+00	0	34	0	747634688	64	4167
2026-01-17 01:01:37.36	328.61	78.55	-46.2	-47.7	19.6	0.00e+00	0	34	0	749731840	64	4156
2026-01-17 01:01:38.37	326.31	78.78	-46.5	-48.0	19.4	0.00e+00	0	34	0	751828992	64	4318
2026-01-17 01:01:39.37	323.95	79.00	-46.6	-48.2	19.1	0.00e+00	0	34	0	753926144	64	4413
2026-01-17 01:01:40.39	321.44	79.20	-46.5	-48.1	19.2	0.00e+00	0	34	0	756023296	64	4352
2026-01-17 01:01:41.39	318.89	79.37	-46.4	-47.9	19.5	0.00e+00	0	34	0	757071872	64	4250
2026-01-17 01:01:42.40	316.24	79.53	-46.4	-47.9	19.5	0.00e+00	0	34	0	759169024	64	4256
2026-01-17 01:01:43.41	313.51	79.66	-47.1	-48.8	18.6	0.00e+00	0	34	0	761266176	64	4714
2026-01-17 01:01:44.42	310.71	79.77	-47.5	-49.4	18.0	0.00e+00	0	34	0	763363328	65	4760
2026-01-17 01:01:45.43	307.86	79.86	-46.8	-48.4	18.9	0.00e+00	0	34	0	765460480	65	4281
2026-01-17 01:01:46.44	304.96	79.92	-46.5	-48.0	19.3	0.00e+00	0	34	0	766509056	65	4093
2026-01-17 01:01:47.44	302.07	79.95	-46.2	-47.6	19.7	0.00e+00	0	34	0	768606208	64	4112
2026-01-17 01:01:48.45	299.13	79.96	-46.3	-47.8	19.6	0.00e+00	0	34	0	770703360	64	4214
2026-01-17 01:01:49.46	296.20	79.94	-46.2	-47.6	19.8	0.00e+00	0	34	0	772800512	63	4391
2026-01-17 01:01:50.47	293.28	79.90	-45.7	-47.0	20.3	0.00e+00	0	34	0	774897664	63	4087
2026-01-17 01:01:51.48	290.40	79.83	-45.3	-46.5	20.8	0.00e+00	0	34	0	775946240	62	4083
2026-01-17 01:01:52.49	287.56	79.74	-45.4	-46.6	20.8	0.00e+00	0	34	0	778043392	62	4116
2026-01-17 01:01:53.49	284.81	79.62	-45.2	-46.4	21.0	0.00e+00	0	34	0	780140544	62	4009
2026-01-17 01:01:54.50	282.10	79.48	-45.1	-46.3	21.0	0.00e+00	0	34	0	782237696	62	3997
2026-01-17 01:01:55.51	279.47	79.32	-45.7	-47.0	20.4	0.00e+00	0	34	0	784334848	62	4308
2026-01-17 01:01:56.52	276.93	79.14	-46.0	-47.4	20.0	0.00e+00	0	34	0	785383424	62	4515
2026-01-17 01:01:57.53	274.47	78.93	-46.1	-47.4	20.0	0.00e+00	0	34	0	787480576	62	4530
2026-01-17 01:01:58.54	272.11	78.71	-46.6	-48.2	19.3	0.00e+00	0	34	0	789577728	63	4658
2026-01-17 01:01:59.54	269.87	78.47	-47.2	-48.8	18.5	0.00e+00	0	34	0	791674880	64	4754
2026-01-17 01:02:00.55	267.71	78.21	-47.5	-49.2	18.1	0.00e+00	0	34	0	793772032	65	4688
2026-01-17 01:02:01.56	265.64	77.94	-48.3	-50.4	16.9	0.00e+00	0	34	0	794820608	67	4803
2026-01-17 01:02:02.57	263.67	77.65	-49.1	-51.5	16.0	0.00e+00	0	34	0	796917760	68	5125
2026-01-17 01:02:03.58	261.79	77.35	-49.5	-52.1	15.3	0.00e+00	0	34	0	799014912	69	5218
2026-01-17 01:02:04.59	260.01	77.04	-50.2	-53.4	14.0	0.00e+00	0	34	0	801112064	71	5371
2026-01-17 01:02:05.59	258.33	76.72	-50.2	-53.3	14.0	0.00e+00	0	34	0	803209216	71	5307
2026-01-17 01:02:06.61	256.70	76.38	-49.2	-51.7	15.8	0.00e+00	0	34	0	804257792	70	4683
2026-01-17 01:02:07.61	255.18	76.04	-48.9	-51.3	16.2	0.00e+00	0	34	0	806354944	69	4713
2026-01-17 01:02:08.62	253.72	75.69	-49.0	-51.3	16.2	0.00e+00	0	34	0	808452096	69	4723
2026-01-17 01:02:09.63	252.34	75.34	-49.0	-51.4	16.0	0.00e+00	0	34	0	810549248	69	4776
2026-01-17 01:02:10.65	251.01	74.97	-48.6	-50.8	16.7	0.00e+00	0	34	0	812646400	69	4460
2026-01-17 01:02:11.65	249.77	74.60	-48.1	-50.1	17.4	0.00e+00	0	34	0	814743552	68	4353
2026-01-17 01:02:12.66	248.59	74.22	-47.8	-49.7	17.7	0.00e+00	0	34	0	815792128	67	4393
2026-01-17 01:02:13.67	247.46	73.84	-47.1	-48.7	18.7	0.00e+00	0	34	0	817889280	66	4161
2026-01-17 01:02:14.68	246.38	73.45	-46.9	-48.4	19.0	0.00e+00	0	34	0	819986432	65	4285
2026-01-17 01:02:15.68	245.37	73.07	-46.1	-47.5	19.8	0.00e+00	0	34	0	822083584	64	4094
2026-01-17 01:02:16.69	244.40	72.67	-46.0	-47.4	20.1	0.00e+00	0	34	0	823132160	63	4251
2026-01-17 01:02:17.70	243.47	72.27	-45.8	-47.1	20.3	0.00e+00	0	34	0	825229312	63	4107
2026-01-17 01:02:18.71	242.58	71.87	-45.3	-46.5	20.9	0.00e+00	0	34	0	827326464	62	4085
2026-01-17 01:02:19.72	241.74	71.47	-45.4	-46.6	20.7	0.00e+00	0	34	0	829423616	62	4130
2026-01-17 01:02:20.73	240.93	71.07	-45.7	-47.0	20.4	0.00e+00	0	34	0	831520768	62	4311
2026-01-17 01:02:21.74	240.16	70.66	-46.3	-47.7	19.7	0.00e+00	0	34	0	833617920	63	4428
2026-01-17 01:02:22.75	239.43	70.25	-46.9	-48.5	19.0	0.00e+00	0	34	0	834666496	64	4554
2026-01-17 01:02:23.75	238.73	69.85	-47.0	-48.7	18.7	0.00e+00	0	34	0	836763648	64	4671
2026-01-17 01:02:24.76	238.06	69.44	-46.8	-48.4	18.9	0.00e+00	0	34	0	838860800	65	4270
2026-01-17 01:02:25.77	237.41	69.03	-46.5	-47.9	19.4	0.00e+00	0	34	0	840957952	65	4041
2026-01-17 01:02:26.78	236.79	68.61	-47.0	-48.6	18.8	0.00e+00	0	34	0	843055104	65	4342
2026-01-17 01:02:27.78	236.20	68.21	-48.3	-50.3	17.1	0.00e+00	0	34	0	844103680	67	4748
2026-01-17 01:02:28.79	235.63	67.79	-49.1	-51.5	16.0	0.00e+00	0	34	0	846200832	68	5152
2026-01-17 01:02:29.80	235.09	67.38	-49.2	-51.7	15.8	0.00e+00	0	34	0	848297984	69	4928
2026-01-17 01:02:30.81	234.56	66.97	-48.9	-51.2	16.3	0.00e+00	0	34	0	850395136	69	4669
2026-01-17 01:02:31.82	234.05	66.56	-48.3	-50.3	17.2	0.00e+00	0	34	0	851443712	68	4470
2026-01-17 01:02:32.83	233.57	66.15	-47.6	-49.4	18.0	0.00e+00	0	34	0	853540864	67	4275
2026-01-17 01:02:33.84	233.10	65.74	-46.8	-48.4	18.9	0.00e+00	0	34	0	855638016	65	4269
2026-01-17 01:02:34.85	232.65	65.33	-46.1	-47.5	19.8	0.00e+00	0	34	0	857735168	64	4066
2026-01-17 01:02:35.86	232.22	64.92	-45.9	-47.2	20.2	0.00e+00	0	34	0	859832320	63	4159
2026-01-17 01:02:36.86	231.80	64.51	-45.3	-46.5	20.9	0.00e+00	0	34	0	861929472	62	4083
2026-01-17 01:02:37.87	231.40	64.11	-45.0	-46.1	21.2	0.00e+00	0	34	0	862978048	61	4128
2026-01-17 01:02:38.88	231.01	63.70	-44.8	-46.0	21.3	0.00e+00	0	34	0	865075200	61	4064
2026-01-17 01:02:39.89	230.63	63.29	-45.0	-46.2	21.2	0.00e+00	0	34	0	867172352	61	4180
2026-01-17 01:02:40.90	230.27	62.89	-44.8	-45.9	21.4	0.00e+00	0	34	0	869269504	61	4047
2026-01-17 01:02:41.91	229.92	62.49	-44.6	-45.7	21.6	0.00e+00	0	34	0	871366656	61	3943
2026-01-17 01:02:42.91	229.58	62.09	-44.7	-45.8	21.5	0.00e+00	0	34	0	872415232	61	4004
2026-01-17 01:02:43.92	229.25	61.69	-45.3	-46.6	20.8	0.00e+00	0	34	0	874512384	61	4367
2026-01-17 01:02:44.93	228.93	61.29	-45.6	-46.9	20.4	0.00e+00	0	34	0	876609536	61	4544
2026-01-17 01:02:45.94	228.62	60.90	-46.5	-48.0	19.5	0.00e+00	0	34	0	878706688	63	4547
2026-01-17 01:02:46.95	228.32	60.50	-47.3	-49.0	18.3	0.00e+00	0	34	0	880803840	65	4583
2026-01-17 01:02:47.96	228.04	60.11	-48.0	-49.9	17.5	0.00e+00	0	34	0	881852416	66	4803
2026-01-17 01:02:48.96	227.76	59.72	-48.1	-50.1	17.3	0.00e+00	0	34	0	883949568	66	4887
2026-01-17 01:02:49.97	227.48	59.34	-48.2	-50.2	17.2	0.00e+00	0	34	0	886046720	66	4963
2026-01-17 01:02:50.98	227.22	58.95	-48.3	-50.4	17.0	0.00e+00	0	34	0	888143872	67	4792
2026-01-17 01:02:51.99	226.96	58.56	-48.8	-51.1	16.4	0.00e+00	0	34	0	890241024	68	4893
2026-01-17 01:02:53.00	226.72	58.18	-48.9	-51.2	16.4	0.00e+00	0	34	0	891289600	68	4943
2026-01-17 01:02:54.01	226.47	57.80	-49.1	-51.5	16.0	0.00e+00	0	34	0	893386752	68	5117
2026-01-17 01:02:55.02	226.24	57.42	-49.0	-51.3	16.1	0.00e+00	0	34	0	895483904	68	5036
2026-01-17 01:02:56.02	226.01	57.04	-48.7	-50.9	16.5	0.00e+00	0	34	0	897581056	68	4785
2026-01-17 01:02:57.03	225.79	56.67	-48.3	-50.3	17.1	0.00e+00	0	34	0	899678208	68	4455
2026-01-17 01:02:58.04	225.57	56.30	-47.7	-49.5	17.8	0.00e+00	0	34	0	901775360	67	4332
2026-01-17 01:02:59.05	225.36	55.92	-47.4	-49.1	18.2	0.00e+00	0	34	0	902823936	66	4362
2026-01-17 01:03:00.06	225.16	55.56	-46.8	-48.3	19.0	0.00e+00	0	34	0	904921088	65	4229
2026-01-17 01:03:01.07	224.96	55.19	-46.2	-47.6	19.6	0.00e+00	0	34	0	907018240	64	4136
2026-01-17 01:03:02.07	224.77	54.83	-45.8	-47.1	20.2	0.00e+00	0	34	0	909115392	63	4131
2026-01-17 01:03:03.08	224.58	54.46	-45.5	-46.8	20.5	0.00e+00	0	34	0	910163968	63	3961
2026-01-17 01:03:04.09	224.39	54.10	-45.4	-46.6	20.7	0.00e+00	0	34	0	912261120	62	4126
2026-01-17 01:03:05.10	224.21	53.75	-45.1	-46.3	20.9	0.00e+00	0	34	0	914358272	62	3990
2026-01-17 01:03:06.10	224.04	53.39	-45.0	-46.2	21.1	0.00e+00	0	34	0	916455424	61	4149
2026-01-17 01:03:07.11	223.87	53.04	-44.8	-46.0	21.1	0.00e+00	0	34	0	918552576	61	4079
2026-01-17 01:03:08.12	223.70	52.69	-45.5	-46.8	20.6	0.00e+00	0	34	0	919601152	61	4445
2026-01-17 01:03:09.13	223.54	52.34	-45.7	-47.0	20.3	0.00e+00	0	34	0	921698304	61	4557
2026-01-17 01:03:10.14	223.38	51.99	-46.0	-47.4	20.0	0.00e+00	0	34	0	923795456	62	4502
2026-01-17 01:03:11.15	223.22	51.65	-46.0	-47.4	20.0	0.00e+00	0	34	0	925892608	62	4500
2026-01-17 01:03:12.16	223.07	51.30	-46.1	-47.5	19.8	0.00e+00	0	34	0	927989760	62	4596
2026-01-17 01:03:13.17	222.92	50.96	-46.4	-47.8	19.6	0.00e+00	0	34	0	930086912	63	4476
2026-01-17 01:03:14.17	222.78	50.63	-46.7	-48.2	19.2	0.00e+00	0	34	0	931135488	63	4692
2026-01-17 01:03:15.19	222.64	50.29	-46.9	-48.5	18.8	0.00e+00	0	34	0	933232640	64	4556
2026-01-17 01:03:16.19	222.50	49.96	-47.6	-49.4	17.8	0.00e+00	0	34	0	935329792	65	4812
2026-01-17 01:03:17.20	222.36	49.63	-48.2	-50.3	17.1	0.00e+00	0	34	0	937426944	66	4993
2026-01-17 01:03:18.21	222.23	49.30	-48.7	-50.9	16.3	0.00e+00	0	34	0	938475520	67	5092
2026-01-17 01:03:19.22	222.10	48.97	-48.8	-51.1	16.3	0.00e+00	0	34	0	940572672	68	4888
2026-01-17 01:03:20.23	221.97	48.65	-48.8	-51.1	16.3	0.00e+00	0	34	0	942669824	68	4906
2026-01-17 01:03:21.24	221.85	48.32	-48.8	-51.1	16.3	0.00e+00	0	34	0	944766976	68	4885
2026-01-17 01:03:22.24	221.73	48.01	-48.8	-51.1	16.3	0.00e+00	0	34	0	946864128	68	4887
2026-01-17 01:03:23.25	221.61	47.69	-48.6	-50.8	16.6	0.00e+00	0	34	0	948961280	68	4755
2026-01-17 01:03:24.26	221.49	47.37	-48.9	-51.2	16.2	0.00e+00	0	34	0	950009856	68	4964
2026-01-17 01:03:25.27	221.38	47.06	-49.4	-52.0	15.4	0.00e+00	0	34	0	952107008	69	5143
2026-01-17 01:03:26.28	221.27	46.75	-49.3	-52.0	15.4	0.00e+00	0	34	0	954204160	69	5120
2026-01-17 01:03:27.28	221.16	46.44	-49.3	-51.9	15.5	0.00e+00	0	34	0	956301312	69	5051
2026-01-17 01:03:28.29	221.05	46.13	-49.0	-51.5	15.8	0.00e+00	0	34	0	958398464	69	4854
2026-01-17 01:03:29.30	220.95	45.83	-48.8	-51.1	16.3	0.00e+00	0	34	0	959447040	69	4611
2026-01-17 01:03:30.31	220.84	45.53	-48.5	-50.7	16.7	0.00e+00	0	34	0	961544192	69	4407
2026-01-17 01:03:31.32	220.74	45.23	-48.2	-50.3	17.1	0.00e+00	0	34	0	963641344	68	4454
2026-01-17 01:03:32.33	220.64	44.93	-48.1	-50.1	17.3	0.00e+00	0	34	0	965738496	68	4362
2026-01-17 01:03:33.34	220.55	44.63	-48.1	-50.1	17.3	0.00e+00	0	34	0	967835648	68	4378
2026-01-17 01:03:34.34	220.45	44.34	-48.3	-50.4	17.0	0.00e+00	0	34	0	968884224	68	4512
2026-01-17 01:03:35.35	220.36	44.05	-48.8	-51.1	16.3	0.00e+00	0	34	0	970981376	68	4879
2026-01-17 01:03:36.36	220.27	43.76	-48.9	-51.3	16.1	0.00e+00	0	34	0	973078528	68	5000
2026-01-17 01:03:37.37	220.18	43.47	-49.0	-51.5	15.9	0.00e+00	0	34	0	975175680	68	5117
2026-01-17 01:03:38.38	220.09	43.18	-49.0	-51.5	15.9	0.00e+00	0	34	0	977272832	68	5110
2026-01-17 01:03:39.39	220.00	42.90	-49.1	-51.6	15.7	0.00e+00	0	34	0	978321408	68	5210
2026-01-17 01:03:40.40	219.92	42.62	-49.1	-51.6	15.8	0.00e+00	0	34	0	980418560	68	5175
2026-01-17 01:03:41.41	219.83	42.34	-49.0	-51.4	15.9	0.00e+00	0	34	0	982515712	68	5047
2026-01-17 01:03:42.41	219.75	42.06	-48.9	-51.3	16.1	0.00e+00	0	34	0	984612864	68	4991
2026-01-17 01:03:43.42	219.67	41.79	-49.1	-51.6	15.7	0.00e+00	0	34	0	986710016	68	5195
2026-01-17 01:03:44.43	219.59	41.51	-48.9	-51.3	16.0	0.00e+00	0	34	0	987758592	68	5036
2026-01-17 01:03:45.44	219.51	41.24	-49.1	-51.6	15.8	0.00e+00	0	34	0	989855744	68	5185
2026-01-17 01:03:46.45	219.44	40.97	-49.0	-51.5	15.9	0.00e+00	0	34	0	991952896	68	5115
2026-01-17 01:03:47.46	219.36	40.70	-49.1	-51.5	15.8	0.00e+00	0	34	0	994050048	68	5138
2026-01-17 01:03:48.46	219.29	40.44	-49.1	-51.5	15.8	0.00e+00	0	34	0	996147200	68	5143
2026-01-17 01:03:49.47	219.22	40.17	-49.2	-51.7	15.6	0.00e+00	0	34	0	997195776	68	5277
2026-01-17 01:03:50.48	219.14	39.91	-49.5	-52.3	15.0	0.00e+00	0	34	0	999292928	69	5322
2026-01-17 01:03:51.49	219.07	39.65	-49.6	-52.5	14.8	0.00e+00	0	34	0	1001390080	69	5405
2026-01-17 01:03:52.50	219.00	39.39	-49.7	-52.6	14.7	0.00e+00	0	34	0	1003487232	69	5492
2026-01-17 01:03:53.51	218.94	39.14	-49.5	-52.4	14.9	7.00e-07	0	34	0	1005584384	69	5343
2026-01-17 01:03:54.51	218.87	38.88	-49.3	-52.0	15.3	0.00e+00	0	34	0	1006632960	69	5140
2026-01-17 01:03:55.52	218.80	38.63	-49.1	-51.6	15.7	0.00e+00	0	34	0	1008730112	69	4914
2026-01-17 01:03:56.53	218.74	38.38	-48.8	-51.2	16.1	0.00e+00	0	34	0	1010827264	69	4677
2026-01-17 01:03:57.54	218.68	38.13	-48.6	-50.8	16.5	0.00e+00	0	34	0	1012924416	69	4466
2026-01-17 01:03:58.55	218.61	37.88	-48.5	-50.8	16.5	0.00e+00	0	34	0	1015021568	68	4716
2026-01-17 01:03:59.56	218.55	37.64	-47.9	-49.9	17.3	0.00e+00	0	34	0	1016070144	67	4501
2026-01-17 01:04:00.56	218.49	37.40	-47.5	-49.4	17.7	0.00e+00	0	34	0	1018167296	67	4260
2026-01-17 01:04:01.57	218.43	37.15	-47.5	-49.3	17.8	0.00e+00	0	34	0	1020264448	67	4236
2026-01-17 01:04:02.58	218.37	36.91	-47.5	-49.3	17.9	0.00e+00	0	34	0	1022361600	66	4451
2026-01-17 01:04:03.59	218.32	36.67	-47.5	-49.4	17.8	0.00e+00	0	34	0	1024458752	66	4502
2026-01-17 01:04:04.60	218.26	36.44	-47.5	-49.4	17.8	0.00e+00	0	34	0	1025507328	66	4497
2026-01-17 01:04:05.60	218.20	36.20	-47.6	-49.5	17.6	0.00e+00	0	34	0	1027604480	66	4571
2026-01-17 01:04:06.61	218.15	35.97	-47.7	-49.6	17.5	0.00e+00	0	34	0	1029701632	66	4632
2026-01-17 01:04:07.62	218.09	35.74	-47.9	-49.8	17.3	0.00e+00	0	34	0	1031798784	66	4751
2026-01-17 01:04:08.63	218.04	35.51	-47.9	-49.9	17.3	0.00e+00	0	34	0	1033895936	66	4768
2026-01-17 01:04:09.64	217.99	35.28	-47.9	-49.9	17.3	0.00e+00	0	34	0	1035993088	66	4793
2026-01-17 01:04:10.65	217.93	35.05	-47.8	-49.8	17.4	0.00e+00	0	34	0	1037041664	66	4745
2026-01-17 01:04:11.66	217.88	34.82	-47.9	-49.9	17.2	0.00e+00	0	34	0	1039138816	66	4777
2026-01-17 01:04:12.66	217.83	34.60	-47.7	-49.7	17.4	0.00e+00	0	34	0	1041235968	66	4665
2026-01-17 01:04:13.67	217.78	34.38	-47.9	-49.9	17.2	0.00e+00	0	34	0	1043333120	66	4798
2026-01-17 01:04:14.68	217.73	34.16	-47.8	-49.7	17.4	0.00e+00	0	34	0	1044381696	66	4681
2026-01-17 01:04:15.69	217.68	33.94	-47.8	-49.8	17.4	0.00e+00	0	34	0	1046478848	66	4706
2026-01-17 01:04:16.70	217.64	33.72	-47.7	-49.6	17.5	0.00e+00	0	34	0	1048576000	66	4604
2026-01-17 01:04:17.71	217.59	33.51	-47.7	-49.6	17.6	0.00e+00	0	34	0	1050673152	66	4618
2026-01-17 01:04:18.72	217.54	33.29	-47.8	-49.8	17.3	0.00e+00	0	34	0	1052770304	66	4731
2026-01-17 01:04:19.72	217.50	33.08	-47.7	-49.7	17.4	0.00e+00	0	34	0	1053818880	66	4680
2026-01-17 01:04:20.73	217.45	32.87	-47.8	-49.8	17.3	0.00e+00	0	34	0	1055916032	66	4709
2026-01-17 01:04:21.74	217.41	32.66	-47.9	-49.9	17.2	0.00e+00	0	34	0	1058013184	66	4765
2026-01-17 01:04:22.75	217.36	32.45	-48.0	-50.1	17.0	0.00e+00	0	34	0	1060110336	66	4885
2026-01-17 01:04:23.76	217.32	32.24	-48.2	-50.4	16.8	0.00e+00	0	34	0	1062207488	66	5044
2026-01-17 01:04:24.76	217.28	32.03	-48.4	-50.6	16.5	0.00e+00	0	34	0	1064304640	67	4894
2026-01-17 01:04:25.77	217.24	31.83	-48.6	-50.9	16.2	0.00e+00	0	34	0	1065353216	67	5081
2026-01-17 01:04:26.78	217.20	31.63	-48.7	-51.1	16.0	0.00e+00	0	34	0	1067450368	67	5178
2026-01-17 01:04:27.79	217.15	31.42	-49.0	-51.6	15.6	0.00e+00	0	34	0	1069547520	68	5177
2026-01-17 01:04:28.80	217.11	31.22	-49.0	-51.6	15.6	0.00e+00	0	34	0	1071644672	68	5171
2026-01-17 01:04:29.81	217.07	31.02	-49.0	-51.5	15.7	0.00e+00	0	34	0	1072693248	68	5126
2026-01-17 01:04:30.82	217.03	30.83	-48.9	-51.5	15.7	0.00e+00	0	34	0	1074790400	68	5110
2026-01-17 01:04:31.83	217.00	30.63	-48.9	-51.4	15.7	0.00e+00	0	34	0	1076887552	68	5087
2026-01-17 01:04:32.84	216.96	30.43	-48.9	-51.4	15.8	0.00e+00	0	34	0	1078984704	68	5055
2026-01-17 01:04:33.84	216.92	30.24	-48.9	-51.4	15.8	0.00e+00	0	34	0	1081081856	68	5073
2026-01-17 01:04:34.85	216.88	30.05	-48.9	-51.4	15.7	0.00e+00	0	34	0	1083179008	68	5087
2026-01-17 01:04:35.86	216.85	29.86	-48.7	-51.0	16.1	0.00e+00	0	34	0	1084227584	68	4857
2026-01-17 01:04:36.87	216.81	29.67	-48.6	-50.9	16.2	0.00e+00	0	34	0	1086324736	68	4804
2026-01-17 01:04:37.87	216.77	29.48	-48.5	-50.8	16.3	0.00e+00	0	34	0	1088421888	68	4713
2026-01-17 01:04:38.88	216.74	29.29	-48.4	-50.7	16.4	0.00e+00	0	34	0	1090519040	68	4681
2026-01-17 01:04:39.89	216.70	29.10	-48.1	-50.2	16.9	0.00e+00	0	34	0	1092616192	68	4393
2026-01-17 01:04:40.90	216.67	28.92	-47.7	-49.7	17.3	0.00e+00	0	34	0	1093664768	67	4430
2026-01-17 01:04:41.91	216.63	28.74	-47.7	-49.7	17.3	0.00e+00	0	34	0	1095761920	67	4428
2026-01-17 01:04:42.92	216.60	28.55	-47.7	-49.7	17.4	0.00e+00	0	34	0	1097859072	67	4403
2026-01-17 01:04:43.93	216.57	28.37	-47.8	-49.8	17.2	0.00e+00	0	34	0	1099956224	67	4457
2026-01-17 01:04:44.94	216.53	28.19	-47.6	-49.5	17.5	0.00e+00	0	34	0	1102053376	67	4339
2026-01-17 01:04:45.94	216.50	28.01	-47.6	-49.6	17.4	0.00e+00	0	34	0	1103101952	67	4358
2026-01-17 01:04:46.96	216.47	27.83	-47.7	-49.6	17.4	0.00e+00	0	34	0	1105199104	67	4387
2026-01-17 01:04:47.96	216.44	27.66	-47.7	-49.7	17.3	0.00e+00	0	34	0	1107296256	67	4418
2026-01-17 01:04:48.97	216.41	27.48	-47.6	-49.6	17.4	0.00e+00	0	34	0	1109393408	67	4343
2026-01-17 01:04:49.98	216.38	27.30	-47.6	-49.5	17.4	0.00e+00	0	34	0	1111490560	67	4322
2026-01-17 01:04:50.99	216.35	27.13	-47.6	-49.5	17.5	0.00e+00	0	34	0	1112539136	67	4318
2026-01-17 01:04:52.00	216.32	26.96	-47.5	-49.5	17.5	0.00e+00	0	34	0	1114636288	67	4304
2026-01-17 01:04:53.00	216.29	26.79	-47.5	-49.4	17.5	0.00e+00	0	34	0	1116733440	67	4291
2026-01-17 01:04:54.01	216.26	26.62	-47.4	-49.3	17.7	0.00e+00	0	34	0	1118830592	66	4453
2026-01-17 01:04:55.02	216.23	26.45	-47.4	-49.3	17.7	0.00e+00	0	34	0	1120927744	66	4478
2026-01-17 01:04:56.03	216.20	26.28	-47.3	-49.2	17.8	0.00e+00	0	34	0	1123024896	66	4410
2026-01-17 01:04:57.04	216.17	26.11	-47.2	-49.0	17.9	0.00e+00	0	34	0	1124073472	66	4339
2026-01-17 01:04:58.05	216.14	25.95	-47.1	-48.9	18.0	0.00e+00	0	34	0	1126170624	66	4270
2026-01-17 01:04:59.06	216.11	25.78	-47.0	-48.7	18.2	0.00e+00	0	34	0	1128267776	66	4187
2026-01-17 01:05:00.07	216.09	25.62	-46.9	-48.6	18.3	0.00e+00	0	34	0	1130364928	65	4357
2026-01-17 01:05:01.07	216.06	25.45	-46.8	-48.4	18.5	0.00e+00	0	34	0	1131413504	65	4287
2026-01-17 01:05:02.08	216.03	25.29	-46.7	-48.4	18.6	0.00e+00	0	34	0	1133510656	65	4246
2026-01-17 01:05:03.09	216.01	25.13	-46.5	-48.1	18.8	0.00e+00	0	34	0	1135607808	65	4142
2026-01-17 01:05:04.10	215.98	24.97	-46.5	-48.1	18.8	0.00e+00	0	34	0	1137704960	65	4143
2026-01-17 01:05:05.10	215.96	24.81	-46.6	-48.2	18.7	0.00e+00	0	34	0	1139802112	65	4163
2026-01-17 01:05:06.11	215.93	24.65	-46.5	-48.1	18.8	0.00e+00	0	34	0	1140850688	64	4377
2026-01-17 01:05:07.12	215.90	24.49	-46.6	-48.2	18.7	0.00e+00	0	34	0	1142947840	64	4433
2026-01-17 01:05:08.13	215.88	24.34	-46.5	-48.2	18.7	0.00e+00	0	34	0	1145044992	64	4393
2026-01-17 01:05:09.14	215.85	24.18	-46.6	-48.2	18.7	0.00e+00	0	34	0	1147142144	64	4433
2026-01-17 01:05:10.14	215.83	24.03	-46.6	-48.3	18.6	0.00e+00	0	34	0	1149239296	64	4479
2026-01-17 01:05:11.15	215.81	23.87	-46.6	-48.3	18.6	0.00e+00	0	34	0	1151336448	64	4474
2026-01-17 01:05:12.16	215.78	23.72	-46.8	-48.5	18.4	0.00e+00	0	34	0	1152385024	64	4547
2026-01-17 01:05:13.17	215.76	23.57	-46.9	-48.6	18.2	0.00e+00	0	34	0	1154482176	64	4646
2026-01-17 01:05:14.18	215.74	23.42	-47.0	-48.7	18.1	0.00e+00	0	34	0	1156579328	64	4698
2026-01-17 01:05:15.18	215.71	23.27	-47.0	-48.8	18.1	0.00e+00	0	34	0	1158676480	64	4741
2026-01-17 01:05:16.19	215.69	23.12	-47.2	-49.0	17.9	0.00e+00	0	34	0	1159725056	64	4835
2026-01-17 01:05:17.20	215.67	22.97	-47.1	-48.9	18.0	0.00e+00	0	34	0	1161822208	64	4782
2026-01-17 01:05:18.21	215.64	22.82	-47.1	-48.9	18.0	0.00e+00	0	34	0	1163919360	64	4773
2026-01-17 01:05:19.22	215.62	22.68	-47.1	-48.9	18.0	0.00e+00	0	34	0	1166016512	64	4781
2026-01-17 01:05:20.23	215.60	22.53	-47.0	-48.7	18.1	0.00e+00	0	34	0	1168113664	64	4703
2026-01-17 01:05:21.24	215.58	22.38	-47.1	-48.9	17.9	0.00e+00	0	34	0	1170210816	64	4793
2026-01-17 01:05:22.25	215.56	22.24	-47.0	-48.8	18.1	0.00e+00	0	34	0	1171259392	64	4707
2026-01-17 01:05:23.25	215.54	22.10	-46.9	-48.7	18.1	0.00e+00	0	34	0	1173356544	64	4685
2026-01-17 01:05:24.27	215.51	21.95	-46.8	-48.5	18.3	0.00e+00	0	34	0	1175453696	64	4591
2026-01-17 01:05:25.28	215.49	21.81	-46.8	-48.6	18.3	0.00e+00	0	34	0	1177550848	64	4612
2026-01-17 01:05:26.28	215.47	21.67	-46.7	-48.4	18.5	0.00e+00	0	34	0	1179648000	64	4507
2026-01-17 01:05:27.29	215.45	21.53	-46.7	-48.3	18.5	0.00e+00	0	34	0	1180696576	64	4493
2026-01-17 01:05:28.30	215.43	21.39	-46.7	-48.3	18.4	0.00e+00	0	34	0	1182793728	64	4486
2026-01-17 01:05:29.31	215.41	21.25	-46.7	-48.4	18.5	0.00e+00	0	34	0	1184890880	64	4505
2026-01-17 01:05:30.32	215.39	21.11	-46.6	-48.3	18.5	0.00e+00	0	34	0	1186988032	64	4478
2026-01-17 01:05:31.33	215.37	20.97	-46.7	-48.4	18.4	0.00e+00	0	34	0	1189085184	64	4519
2026-01-17 01:05:32.34	215.35	20.84	-46.7	-48.5	18.4	0.00e+00	0	34	0	1190133760	64	4548
2026-01-17 01:05:33.35	215.34	20.70	-46.8	-48.6	18.3	0.00e+00	0	34	0	1192230912	64	4600
2026-01-17 01:05:34.35	215.32	20.57	-46.9	-48.7	18.2	0.00e+00	0	34	0	1194328064	64	4674
2026-01-17 01:05:35.36	215.30	20.43	-47.0	-48.8	18.0	0.00e+00	0	34	0	1196425216	64	4745
2026-01-17 01:05:36.37	215.28	20.30	-47.1	-49.0	17.9	0.00e+00	0	34	0	1198522368	64	4817
2026-01-17 01:05:37.38	215.26	20.17	-47.2	-49.1	17.7	0.00e+00	0	34	0	1199570944	65	4644
2026-01-17 01:05:38.39	215.24	20.03	-47.3	-49.2	17.6	0.00e+00	0	34	0	1201668096	65	4659
2026-01-17 01:05:39.40	215.23	19.90	-47.3	-49.2	17.6	0.00e+00	0	34	0	1203765248	65	4677
2026-01-17 01:05:40.41	215.21	19.77	-47.3	-49.2	17.5	0.00e+00	0	34	0	1205862400	65	4700
2026-01-17 01:05:41.42	215.19	19.64	-47.4	-49.4	17.4	0.00e+00	0	34	0	1207959552	65	4772
2026-01-17 01:05:42.43	215.17	19.51	-47.5	-49.5	17.2	0.00e+00	0	34	0	1209008128	65	4854
2026-01-17 01:05:43.43	215.16	19.38	-47.5	-49.5	17.3	0.00e+00	0	34	0	1211105280	65	4846
2026-01-17 01:05:44.44	215.14	19.25	-47.5	-49.5	17.3	0.00e+00	0	34	0	1213202432	65	4821
2026-01-17 01:05:45.45	215.12	19.13	-47.5	-49.5	17.2	0.00e+00	0	34	0	1215299584	65	4853
2026-01-17 01:05:46.46	215.10	19.00	-47.5	-49.5	17.3	0.00e+00	0	34	0	1217396736	65	4822
2026-01-17 01:05:47.47	215.09	18.87	-47.4	-49.4	17.4	0.00e+00	0	34	0	1218445312	65	4795
2026-01-17 01:05:48.47	215.07	18.75	-47.5	-49.4	17.3	0.00e+00	0	34	0	1220542464	65	4814
2026-01-17 01:05:49.48	215.06	18.62	-47.4	-49.4	17.4	0.00e+00	0	34	0	1222639616	65	4786
2026-01-17 01:05:50.49	215.04	18.50	-47.4	-49.4	17.4	0.00e+00	0	34	0	1224736768	65	4775
2026-01-17 01:05:51.50	215.02	18.37	-47.4	-49.4	17.4	0.00e+00	0	34	0	1226833920	65	4766
2026-01-17 01:05:52.50	215.01	18.25	-47.4	-49.3	17.5	0.00e+00	0	34	0	1227882496	65	4732
2026-01-17 01:05:53.51	214.99	18.13	-47.4	-49.3	17.4	0.00e+00	0	34	0	1229979648	65	4726
2026-01-17 01:05:54.52	214.98	18.01	-47.4	-49.3	17.4	0.00e+00	0	34	0	1232076800	65	4734
2026-01-17 01:05:55.53	214.96	17.88	-47.3	-49.2	17.5	0.00e+00	0	34	0	1234173952	65	4701
2026-01-17 01:05:56.54	214.95	17.76	-47.4	-49.4	17.3	0.00e+00	0	34	0	1236271104	65	4790
2026-01-17 01:05:57.54	214.93	17.64	-47.4	-49.3	17.4	0.00e+00	0	34	0	1237319680	65	4746
2026-01-17 01:05:58.55	214.92	17.52	-47.4	-49.4	17.3	0.00e+00	0	34	0	1239416832	65	4789
2026-01-17 01:05:59.56	214.90	17.41	-47.5	-49.5	17.2	0.00e+00	0	34	0	1241513984	65	4832
2026-01-17 01:06:00.57	214.89	17.29	-47.5	-49.6	17.2	0.00e+00	0	34	0	1243611136	65	4883
2026-01-17 01:06:01.58	214.87	17.17	-47.8	-49.9	16.8	0.00e+00	0	34	0	1245708288	66	4786
2026-01-17 01:06:02.58	214.86	17.05	-47.6	-49.6	17.1	0.00e+00	0	34	0	1246756864	66	4627
2026-01-17 01:06:03.59	214.85	16.94	-47.6	-49.6	17.1	0.00e+00	0	34	0	1248854016	66	4637
2026-01-17 01:06:04.60	214.83	16.82	-47.7	-49.8	16.8	0.00e+00	0	34	0	1250951168	66	4750
2026-01-17 01:06:05.61	214.82	16.70	-47.7	-49.7	16.9	0.00e+00	0	34	0	1253048320	66	4705
2026-01-17 01:06:06.62	214.80	16.59	-47.7	-49.8	16.8	0.00e+00	0	34	0	1255145472	66	4752
2026-01-17 01:06:07.62	214.79	16.47	-47.8	-49.9	16.8	0.00e+00	0	34	0	1256194048	66	4782
2026-01-17 01:06:08.63	214.78	16.36	-47.9	-50.0	16.6	0.00e+00	0	34	0	1258291200	66	4869
2026-01-17 01:06:09.64	214.76	16.25	-47.9	-50.0	16.6	0.00e+00	0	34	0	1260388352	66	4868
2026-01-17 01:06:10.65	214.75	16.13	-47.8	-50.0	16.7	0.00e+00	0	34	0	1262485504	66	4835
