passes_logs/2026/01/17/R3.2S_Murmansk/R3.2S_Murmansk__20260117_000410_NOAA_21_JPSS-2_rec.log

#Pass ID: 20260117_000410_NOAA 21 (JPSS-2)
#Satellite: NOAA 21 (JPSS-2)
#Configuration: NOAA-21
#almurnet v.1.7.20251203
#Start time: 2026-01-17 00:04:11

#Version: 2.2.20231116
#Station: R3.2S_Murmansk
#Location: 33.079688 lon 68.888172 lat
#TLE: 1 54234U 22150A   26015.92901934  .00000025  00000+0  32700-4 0  9991
#TLE: 2 54234  98.7499 316.8175 0000634 284.8145  75.2961 14.19534841164946

#Time	Az	El	Level	Level2	SNR	BER	BlckErr	Temp	State	Recorded	gain1	gain2
2026-01-17 00:04:11.58	22.41	2.09	-51.2	-62.3	3.8	1.49e+00	0	32	0	0	74	12614
2026-01-17 00:04:12.58	22.43	2.16	-51.3	-63.0	3.8	1.49e+00	0	32	104	0	73	14401
2026-01-17 00:04:13.59	22.45	2.22	-51.3	-63.1	3.8	1.49e+00	0	32	104	0	73	14647
2026-01-17 00:04:14.60	22.47	2.28	-51.3	-62.9	3.8	1.49e+00	0	32	104	0	73	14268
2026-01-17 00:04:15.61	22.49	2.35	-51.3	-63.2	3.8	1.49e+00	0	32	104	0	73	14714
2026-01-17 00:04:16.62	22.51	2.41	-51.3	-63.0	3.8	1.49e+00	0	32	104	0	73	14382
2026-01-17 00:04:17.62	22.53	2.48	-51.2	-62.7	3.8	1.49e+00	0	32	104	0	73	13928
2026-01-17 00:04:18.63	22.55	2.54	-51.2	-61.9	4.0	1.49e+00	0	32	104	0	73	12722
2026-01-17 00:04:19.64	22.58	2.61	-51.2	-61.6	4.0	1.49e+00	0	32	104	0	73	12340
2026-01-17 00:04:20.65	22.60	2.67	-51.0	-60.3	4.3	1.47e+00	0	32	104	0	73	10571
2026-01-17 00:04:21.66	22.62	2.74	-51.0	-60.4	4.2	1.46e+00	0	32	104	0	73	10757
2026-01-17 00:04:22.67	22.64	2.80	-50.9	-59.2	4.6	9.98e-01	2	32	104	0	73	9382
2026-01-17 00:04:23.68	22.66	2.87	-50.8	-59.0	4.8	1.47e+00	2	32	104	1048576	73	9098
2026-01-17 00:04:24.68	22.68	2.93	-50.9	-59.3	4.6	1.43e+00	11	32	104	1048576	73	9436
2026-01-17 00:04:25.69	22.70	3.00	-50.6	-57.9	5.3	5.64e-01	0	32	0	2097152	73	8046
2026-01-17 00:04:26.70	22.73	3.07	-50.6	-57.7	5.6	4.72e-01	0	32	0	5242880	73	7812
2026-01-17 00:04:27.71	22.75	3.13	-50.3	-56.3	6.5	2.29e-01	0	32	0	8388608	72	7088
2026-01-17 00:04:28.72	22.77	3.20	-50.6	-57.6	5.6	3.86e-01	0	32	0	11534336	72	8186
2026-01-17 00:04:29.72	22.79	3.26	-50.3	-56.5	6.4	2.00e-01	0	32	0	14680064	72	7231
2026-01-17 00:04:30.73	22.81	3.33	-50.2	-56.0	6.9	1.16e-01	0	32	0	17825792	71	7264
2026-01-17 00:04:31.74	22.84	3.40	-49.9	-55.0	7.8	8.70e-02	0	32	0	20971520	71	6494
2026-01-17 00:04:32.75	22.86	3.46	-49.9	-55.0	7.9	8.85e-02	0	32	0	24117248	71	6441
2026-01-17 00:04:33.76	22.88	3.53	-49.6	-54.3	8.6	3.97e-02	0	32	0	27262976	71	5940
2026-01-17 00:04:34.77	22.90	3.60	-49.5	-53.9	9.0	1.47e-02	0	32	0	30408704	70	5994
2026-01-17 00:04:35.78	22.93	3.67	-48.9	-52.5	10.4	8.37e-03	0	32	0	33554432	69	5439
2026-01-17 00:04:36.78	22.95	3.73	-48.6	-51.9	11.0	2.98e-03	0	32	0	36700160	69	5049
2026-01-17 00:04:37.79	22.97	3.80	-47.6	-50.3	12.7	4.65e-04	0	32	0	39845888	67	4707
2026-01-17 00:04:38.80	22.99	3.87	-47.4	-49.9	13.1	1.90e-05	0	32	0	42991616	66	4783
2026-01-17 00:04:39.81	23.02	3.94	-46.9	-49.2	13.8	1.29e-05	0	32	0	46137344	65	4672
2026-01-17 00:04:40.82	23.04	4.01	-46.9	-49.2	13.8	3.80e-06	0	32	0	49283072	65	4677
2026-01-17 00:04:41.83	23.06	4.07	-47.6	-50.3	12.6	3.81e-05	0	32	0	52428800	65	5306
2026-01-17 00:04:42.84	23.09	4.14	-46.9	-49.1	13.8	4.50e-06	0	32	0	55574528	65	4641
2026-01-17 00:04:43.85	23.11	4.21	-46.8	-49.0	13.9	9.90e-06	0	32	0	58720256	65	4551
2026-01-17 00:04:44.85	23.13	4.28	-46.5	-48.6	14.4	7.00e-07	0	33	0	61865984	64	4641
2026-01-17 00:04:45.86	23.16	4.35	-47.1	-49.4	13.5	7.60e-06	0	33	0	65011712	64	5097
2026-01-17 00:04:46.87	23.18	4.42	-47.0	-49.4	13.5	1.75e-05	0	33	0	68157440	64	5054
2026-01-17 00:04:47.88	23.20	4.49	-47.6	-50.4	12.5	5.18e-05	0	33	0	71303168	65	5352
2026-01-17 00:04:48.89	23.23	4.56	-48.1	-51.1	11.7	3.20e-04	0	33	0	74448896	66	5526
2026-01-17 00:04:49.90	23.25	4.63	-48.3	-51.4	11.4	3.90e-04	0	33	0	77594624	67	5398
2026-01-17 00:04:50.91	23.27	4.70	-49.0	-52.8	10.0	8.14e-03	0	33	0	80740352	68	5983
2026-01-17 00:04:51.92	23.30	4.77	-49.4	-53.7	9.2	1.15e-02	0	33	0	83886080	69	6215
2026-01-17 00:04:52.93	23.32	4.84	-49.6	-54.1	8.8	2.81e-02	0	33	0	87031808	69	6537
2026-01-17 00:04:53.94	23.35	4.91	-49.9	-55.2	7.6	8.18e-02	0	33	0	90177536	70	7004
2026-01-17 00:04:54.95	23.37	4.98	-50.2	-56.0	6.9	1.16e-01	0	33	0	93323264	70	7690
2026-01-17 00:04:55.96	23.39	5.05	-50.3	-56.5	6.4	1.63e-01	0	33	0	96468992	71	7680
2026-01-17 00:04:56.96	23.42	5.12	-49.4	-53.4	9.6	2.48e-02	0	33	0	99614720	70	5698
2026-01-17 00:04:57.97	23.44	5.19	-48.0	-50.7	12.5	5.82e-04	0	33	0	102760448	68	4663
2026-01-17 00:04:58.98	23.47	5.26	-50.9	-60.9	3.9	8.71e-01	0	33	104	105906176	72	11965
2026-01-17 00:04:59.99	23.49	5.33	-51.1	-60.1	4.4	1.48e+00	0	33	104	105906176	72	10969
2026-01-17 00:05:01.00	23.52	5.41	-46.4	-48.2	15.1	0.00e+00	0	33	0	108003328	63	4682
2026-01-17 00:05:02.01	23.54	5.48	-46.3	-48.0	15.4	0.00e+00	0	33	0	111149056	63	4591
2026-01-17 00:05:03.02	23.57	5.55	-46.1	-47.8	15.6	0.00e+00	0	33	0	114294784	63	4466
2026-01-17 00:05:04.03	23.59	5.62	-45.9	-47.6	15.9	0.00e+00	0	33	0	117440512	63	4361
2026-01-17 00:05:05.04	23.62	5.70	-46.3	-48.1	15.4	0.00e+00	0	33	0	120586240	63	4602
2026-01-17 00:05:06.04	23.64	5.77	-45.8	-47.4	16.1	0.00e+00	0	33	0	123731968	63	4266
2026-01-17 00:05:07.05	23.67	5.84	-45.9	-47.5	16.0	0.00e+00	0	33	0	126877696	62	4588
2026-01-17 00:05:08.07	23.69	5.91	-45.5	-47.1	16.4	0.00e+00	0	33	0	130023424	62	4364
2026-01-17 00:05:09.07	23.72	5.99	-45.6	-47.2	16.3	0.00e+00	0	33	0	133169152	62	4418
2026-01-17 00:05:10.08	23.74	6.06	-45.8	-47.4	16.1	0.00e+00	0	33	0	136314880	62	4518
2026-01-17 00:05:11.09	23.77	6.13	-45.5	-47.1	16.5	0.00e+00	0	33	0	139460608	62	4341
2026-01-17 00:05:12.10	23.80	6.21	-46.0	-47.6	15.9	0.00e+00	0	33	0	142606336	62	4650
2026-01-17 00:05:13.10	23.82	6.28	-45.4	-46.9	16.7	0.00e+00	0	33	0	145752064	62	4269
2026-01-17 00:05:14.11	23.85	6.36	-45.7	-47.2	16.3	0.00e+00	0	33	0	148897792	62	4428
2026-01-17 00:05:15.12	23.87	6.43	-45.5	-47.0	16.6	0.00e+00	0	33	0	152043520	62	4320
2026-01-17 00:05:16.13	23.90	6.51	-45.6	-47.1	16.5	0.00e+00	0	33	0	155189248	62	4374
2026-01-17 00:05:17.14	23.93	6.58	-45.3	-46.7	16.9	0.00e+00	0	33	0	158334976	62	4187
2026-01-17 00:05:18.15	23.95	6.66	-45.1	-46.6	17.1	0.00e+00	0	33	0	161480704	62	4109
2026-01-17 00:05:19.16	23.98	6.73	-45.1	-46.5	17.1	0.00e+00	0	33	0	164626432	62	4094
2026-01-17 00:05:20.16	24.01	6.81	-45.3	-46.7	17.0	0.00e+00	0	33	0	167772160	62	4190
2026-01-17 00:05:21.17	24.03	6.88	-45.0	-46.4	17.3	0.00e+00	0	33	0	170917888	62	4044
2026-01-17 00:05:22.18	24.06	6.96	-45.3	-46.7	17.0	0.00e+00	0	33	0	174063616	62	4171
2026-01-17 00:05:23.19	24.09	7.04	-45.0	-46.3	17.3	0.00e+00	0	33	0	177209344	61	4240
2026-01-17 00:05:24.20	24.11	7.11	-45.1	-46.5	17.2	0.00e+00	0	33	0	180355072	61	4329
2026-01-17 00:05:25.21	24.14	7.19	-45.1	-46.5	17.2	0.00e+00	0	33	0	183500800	61	4310
2026-01-17 00:05:26.21	24.17	7.27	-45.1	-46.5	17.3	0.00e+00	0	33	0	186646528	61	4297
2026-01-17 00:05:27.22	24.20	7.34	-45.0	-46.3	17.4	0.00e+00	0	33	0	189792256	61	4225
2026-01-17 00:05:28.23	24.22	7.42	-45.1	-46.4	17.3	0.00e+00	0	33	0	192937984	61	4284
2026-01-17 00:05:29.24	24.25	7.50	-45.0	-46.3	17.4	0.00e+00	0	33	0	196083712	61	4225
2026-01-17 00:05:30.24	24.28	7.58	-45.0	-46.4	17.4	0.00e+00	0	33	0	199229440	61	4247
2026-01-17 00:05:31.25	24.31	7.65	-44.8	-46.1	17.6	0.00e+00	0	33	0	202375168	61	4120
2026-01-17 00:05:32.26	24.34	7.73	-44.9	-46.2	17.5	0.00e+00	0	33	0	205520896	61	4181
2026-01-17 00:05:33.27	24.36	7.81	-45.0	-46.4	17.4	0.00e+00	0	33	0	208666624	61	4271
2026-01-17 00:05:34.28	24.39	7.89	-45.1	-46.5	17.3	0.00e+00	0	33	0	211812352	61	4317
2026-01-17 00:05:35.28	24.42	7.97	-45.0	-46.4	17.4	0.00e+00	0	33	0	214958080	61	4265
2026-01-17 00:05:36.29	24.45	8.05	-44.9	-46.2	17.6	0.00e+00	0	33	0	218103808	61	4179
2026-01-17 00:05:37.30	24.48	8.13	-44.7	-46.0	17.8	0.00e+00	0	33	0	221249536	61	4080
2026-01-17 00:05:38.31	24.51	8.21	-44.9	-46.2	17.5	0.00e+00	0	33	0	224395264	61	4191
2026-01-17 00:05:39.32	24.54	8.29	-45.0	-46.3	17.5	0.00e+00	0	33	0	227540992	61	4213
2026-01-17 00:05:40.33	24.57	8.37	-44.9	-46.2	17.6	0.00e+00	0	33	0	230686720	61	4164
2026-01-17 00:05:41.34	24.60	8.45	-44.7	-46.0	17.8	0.00e+00	0	33	0	233832448	61	4081
2026-01-17 00:05:42.35	24.62	8.53	-44.7	-46.0	17.8	0.00e+00	0	33	0	236978176	61	4054
2026-01-17 00:05:43.36	24.65	8.61	-44.5	-45.8	18.0	0.00e+00	0	33	0	240123904	61	3973
2026-01-17 00:05:44.37	24.68	8.69	-44.4	-45.6	18.2	0.00e+00	0	33	0	243269632	60	4115
2026-01-17 00:05:45.38	24.71	8.78	-44.6	-45.9	17.9	0.00e+00	0	33	0	246415360	60	4265
2026-01-17 00:05:46.39	24.74	8.86	-44.5	-45.8	18.1	0.00e+00	0	33	0	249561088	60	4200
2026-01-17 00:05:47.40	24.77	8.94	-44.4	-45.6	18.3	0.00e+00	0	33	0	252706816	60	4114
2026-01-17 00:05:48.40	24.80	9.02	-44.5	-45.7	18.1	0.00e+00	0	33	0	255852544	60	4189
2026-01-17 00:05:49.41	24.84	9.10	-44.3	-45.5	18.3	0.00e+00	0	33	0	258998272	60	4089
2026-01-17 00:05:50.42	24.87	9.19	-44.2	-45.3	18.5	0.00e+00	0	33	0	262144000	60	4004
2026-01-17 00:05:51.43	24.90	9.27	-44.3	-45.5	18.4	0.00e+00	0	33	0	265289728	60	4079
2026-01-17 00:05:52.44	24.93	9.35	-44.2	-45.4	18.5	0.00e+00	0	33	0	268435456	60	4028
2026-01-17 00:05:53.45	24.96	9.44	-44.3	-45.5	18.4	0.00e+00	0	33	0	271581184	60	4061
2026-01-17 00:05:54.46	24.99	9.52	-44.3	-45.5	18.4	0.00e+00	0	33	0	274726912	60	4062
2026-01-17 00:05:55.46	25.02	9.61	-44.2	-45.4	18.4	0.00e+00	0	33	0	277872640	60	4031
2026-01-17 00:05:56.47	25.05	9.69	-44.1	-45.3	18.6	0.00e+00	0	33	0	281018368	60	3985
2026-01-17 00:05:57.48	25.08	9.78	-44.2	-45.4	18.5	0.00e+00	0	33	0	284164096	60	4013
2026-01-17 00:05:58.49	25.12	9.86	-44.1	-45.3	18.6	0.00e+00	0	33	0	287309824	60	3980
2026-01-17 00:05:59.50	25.15	9.95	-44.1	-45.3	18.6	0.00e+00	0	33	0	290455552	60	3968
2026-01-17 00:06:00.51	25.18	10.03	-44.1	-45.3	18.6	0.00e+00	0	33	0	293601280	60	3981
2026-01-17 00:06:01.52	25.21	10.12	-44.3	-45.5	18.8	0.00e+00	0	33	0	296747008	59	4295
2026-01-17 00:06:02.53	25.25	10.20	-44.4	-45.5	18.7	0.00e+00	0	33	0	299892736	59	4334
2026-01-17 00:06:03.54	25.28	10.29	-44.5	-45.6	18.6	0.00e+00	0	33	0	303038464	59	4388
2026-01-17 00:06:04.55	25.31	10.38	-44.4	-45.6	18.6	0.00e+00	0	33	0	306184192	59	4371
2026-01-17 00:06:05.56	25.34	10.47	-44.3	-45.5	18.7	0.00e+00	0	33	0	309329920	59	4310
2026-01-17 00:06:06.57	25.38	10.55	-44.2	-45.4	18.9	0.00e+00	0	33	0	312475648	59	4262
2026-01-17 00:06:07.58	25.41	10.64	-44.3	-45.5	18.8	0.00e+00	0	34	0	315621376	59	4295
2026-01-17 00:06:08.59	25.45	10.73	-44.3	-45.5	18.8	0.00e+00	0	33	0	318767104	59	4299
2026-01-17 00:06:09.60	25.48	10.82	-44.3	-45.4	18.8	0.00e+00	0	33	0	321912832	59	4285
2026-01-17 00:06:10.60	25.51	10.91	-44.3	-45.5	18.8	0.00e+00	0	33	0	325058560	59	4294
2026-01-17 00:06:11.61	25.55	11.00	-44.3	-45.4	18.8	0.00e+00	0	33	0	328204288	59	4278
2026-01-17 00:06:12.62	25.58	11.09	-44.2	-45.3	19.0	0.00e+00	0	34	0	331350016	59	4216
2026-01-17 00:06:13.63	25.62	11.18	-44.2	-45.3	18.9	0.00e+00	0	33	0	334495744	59	4241
2026-01-17 00:06:14.64	25.65	11.27	-44.2	-45.3	18.9	0.00e+00	0	33	0	337641472	59	4217
2026-01-17 00:06:15.65	25.68	11.36	-44.3	-45.5	18.8	0.00e+00	0	33	0	340787200	59	4297
2026-01-17 00:06:16.65	25.72	11.45	-44.3	-45.5	18.8	0.00e+00	0	34	0	343932928	59	4310
2026-01-17 00:06:17.67	25.76	11.54	-44.3	-45.4	18.9	0.00e+00	0	33	0	347078656	59	4272
2026-01-17 00:06:18.67	25.79	11.63	-44.1	-45.3	19.1	0.00e+00	0	33	0	350224384	59	4197
2026-01-17 00:06:19.68	25.83	11.72	-44.2	-45.4	18.9	0.00e+00	0	33	0	353370112	59	4247
2026-01-17 00:06:20.69	25.86	11.81	-43.9	-45.0	19.3	0.00e+00	0	33	0	356515840	59	4057
2026-01-17 00:06:21.70	25.90	11.91	-43.9	-44.9	19.4	0.00e+00	0	33	0	359661568	59	4042
2026-01-17 00:06:22.71	25.93	12.00	-43.8	-44.9	19.4	0.00e+00	0	34	0	362807296	59	4031
2026-01-17 00:06:23.72	25.97	12.09	-43.9	-44.9	19.4	0.00e+00	0	34	0	365953024	59	4050
2026-01-17 00:06:24.72	26.01	12.18	-43.8	-44.8	19.5	0.00e+00	0	33	0	369098752	59	3990
2026-01-17 00:06:25.73	26.04	12.28	-43.8	-44.9	19.4	0.00e+00	0	34	0	372244480	59	4026
2026-01-17 00:06:26.74	26.08	12.37	-43.8	-44.8	19.5	0.00e+00	0	34	0	375390208	59	3991
2026-01-17 00:06:27.75	26.12	12.47	-43.9	-44.9	19.4	0.00e+00	0	34	0	378535936	59	4045
2026-01-17 00:06:28.76	26.15	12.56	-43.7	-44.8	19.6	0.00e+00	0	34	0	381681664	59	3963
2026-01-17 00:06:29.76	26.19	12.66	-43.7	-44.8	19.5	0.00e+00	0	33	0	384827392	59	3980
2026-01-17 00:06:30.77	26.23	12.75	-43.9	-44.9	19.4	0.00e+00	0	33	0	387973120	59	4050
2026-01-17 00:06:31.78	26.27	12.85	-43.7	-44.8	19.6	0.00e+00	0	33	0	391118848	59	3979
2026-01-17 00:06:32.79	26.31	12.94	-43.9	-45.0	19.4	0.00e+00	0	34	0	394264576	59	4068
2026-01-17 00:06:33.80	26.34	13.04	-43.8	-44.9	19.5	0.00e+00	0	33	0	397410304	59	4028
2026-01-17 00:06:34.80	26.38	13.14	-43.8	-44.9	19.5	0.00e+00	0	34	0	400556032	59	4014
2026-01-17 00:06:35.81	26.42	13.23	-43.8	-44.9	19.5	0.00e+00	0	34	0	403701760	59	4029
2026-01-17 00:06:36.82	26.46	13.33	-43.9	-44.9	19.4	0.00e+00	0	33	0	406847488	59	4047
2026-01-17 00:06:37.83	26.50	13.43	-43.7	-44.8	19.6	0.00e+00	0	33	0	409993216	59	3981
2026-01-17 00:06:38.84	26.54	13.53	-43.6	-44.6	19.7	0.00e+00	0	33	0	413138944	59	3907
2026-01-17 00:06:39.84	26.58	13.63	-43.6	-44.7	19.7	0.00e+00	0	34	0	416284672	59	3927
2026-01-17 00:06:40.85	26.62	13.73	-43.6	-44.6	19.8	0.00e+00	0	34	0	419430400	59	3889
2026-01-17 00:06:41.86	26.66	13.83	-43.5	-44.5	19.8	0.00e+00	0	34	0	422576128	59	3866
2026-01-17 00:06:42.87	26.70	13.93	-43.7	-44.7	19.7	0.00e+00	0	34	0	425721856	59	3941
2026-01-17 00:06:43.88	26.74	14.03	-43.5	-44.5	19.8	0.00e+00	0	34	0	428867584	59	3858
2026-01-17 00:06:44.89	26.78	14.13	-43.5	-44.5	19.9	0.00e+00	0	34	0	432013312	58	4068
2026-01-17 00:06:45.90	26.82	14.23	-43.4	-44.4	19.9	0.00e+00	0	34	0	435159040	58	4030
2026-01-17 00:06:46.91	26.87	14.33	-43.5	-44.5	19.9	0.00e+00	0	34	0	438304768	58	4089
2026-01-17 00:06:47.92	26.91	14.44	-43.4	-44.5	19.9	0.00e+00	0	34	0	441450496	58	4054
2026-01-17 00:06:48.92	26.95	14.54	-43.5	-44.5	19.9	0.00e+00	0	34	0	444596224	58	4098
2026-01-17 00:06:49.93	26.99	14.64	-43.6	-44.6	19.8	0.00e+00	0	34	0	447741952	58	4105
2026-01-17 00:06:50.94	27.03	14.74	-43.6	-44.6	19.8	0.00e+00	0	34	0	450887680	58	4128
2026-01-17 00:06:51.95	27.08	14.85	-43.5	-44.5	19.9	0.00e+00	0	34	0	454033408	58	4071
2026-01-17 00:06:52.96	27.12	14.95	-43.6	-44.6	19.8	0.00e+00	0	34	0	457179136	58	4134
2026-01-17 00:06:53.97	27.16	15.06	-43.6	-44.6	19.9	0.00e+00	0	34	0	460324864	58	4104
2026-01-17 00:06:54.98	27.21	15.16	-43.7	-44.7	19.7	0.00e+00	0	34	0	463470592	58	4180
2026-01-17 00:06:55.99	27.25	15.27	-43.7	-44.7	19.8	0.00e+00	0	34	0	466616320	58	4159
2026-01-17 00:06:57.00	27.30	15.38	-43.6	-44.6	19.9	0.00e+00	0	34	0	469762048	58	4131
2026-01-17 00:06:58.01	27.34	15.48	-43.7	-44.8	19.7	0.00e+00	0	34	0	472907776	58	4195
2026-01-17 00:06:59.01	27.38	15.59	-43.7	-44.8	19.7	0.00e+00	0	33	0	476053504	58	4205
2026-01-17 00:07:00.02	27.43	15.70	-43.6	-44.6	19.8	0.00e+00	0	34	0	479199232	58	4136
2026-01-17 00:07:01.03	27.48	15.80	-43.7	-44.8	19.7	0.00e+00	0	34	0	482344960	58	4204
2026-01-17 00:07:02.04	27.52	15.91	-43.7	-44.7	19.8	0.00e+00	0	34	0	485490688	58	4164
2026-01-17 00:07:03.04	27.57	16.02	-43.6	-44.7	19.8	0.00e+00	0	34	0	488636416	58	4151
2026-01-17 00:07:04.05	27.61	16.13	-43.7	-44.7	19.7	0.00e+00	0	34	0	491782144	58	4181
2026-01-17 00:07:05.06	27.66	16.24	-43.6	-44.7	19.8	0.00e+00	0	34	0	494927872	58	4152
2026-01-17 00:07:06.07	27.71	16.35	-43.7	-44.8	19.7	0.00e+00	0	34	0	498073600	58	4196
2026-01-17 00:07:07.08	27.75	16.46	-43.7	-44.7	19.8	0.00e+00	0	34	0	501219328	58	4187
2026-01-17 00:07:08.08	27.80	16.57	-43.8	-44.8	19.7	0.00e+00	0	34	0	505413632	58	4218
2026-01-17 00:07:09.09	27.85	16.68	-43.7	-44.7	19.8	0.00e+00	0	34	0	507510784	58	4183
2026-01-17 00:07:10.10	27.90	16.80	-43.6	-44.6	19.9	0.00e+00	0	34	0	510656512	58	4138
2026-01-17 00:07:11.11	27.95	16.91	-43.7	-44.7	19.8	0.00e+00	0	34	0	513802240	58	4164
2026-01-17 00:07:12.12	27.99	17.02	-43.8	-44.8	19.7	0.00e+00	0	34	0	516947968	58	4232
2026-01-17 00:07:13.12	28.04	17.14	-43.8	-44.8	19.7	0.00e+00	0	34	0	520093696	58	4235
2026-01-17 00:07:14.13	28.09	17.25	-43.8	-44.9	19.7	0.00e+00	0	34	0	523239424	58	4250
2026-01-17 00:07:15.14	28.14	17.37	-43.8	-44.9	19.7	0.00e+00	0	34	0	526385152	58	4260
2026-01-17 00:07:16.15	28.19	17.48	-43.9	-45.0	19.6	0.00e+00	0	34	0	529530880	58	4303
2026-01-17 00:07:17.16	28.24	17.60	-43.9	-44.9	19.6	0.00e+00	0	34	0	532676608	58	4287
2026-01-17 00:07:18.17	28.29	17.71	-43.9	-45.0	19.6	0.00e+00	0	34	0	535822336	58	4294
2026-01-17 00:07:19.18	28.35	17.83	-43.8	-44.9	19.7	0.00e+00	0	34	0	538968064	58	4253
2026-01-17 00:07:20.19	28.40	17.95	-43.9	-44.9	19.6	0.00e+00	0	34	0	543162368	58	4274
2026-01-17 00:07:21.19	28.45	18.07	-43.9	-45.0	19.6	0.00e+00	0	34	0	546308096	58	4311
2026-01-17 00:07:22.21	28.50	18.19	-43.9	-44.9	19.6	0.00e+00	0	34	0	549453824	58	4288
2026-01-17 00:07:23.21	28.55	18.30	-43.9	-44.9	19.7	0.00e+00	0	34	0	552599552	58	4281
2026-01-17 00:07:24.22	28.61	18.42	-43.9	-44.9	19.7	0.00e+00	0	34	0	554696704	58	4269
2026-01-17 00:07:25.23	28.66	18.54	-43.9	-45.0	19.7	0.00e+00	0	34	0	557842432	58	4305
2026-01-17 00:07:26.24	28.71	18.66	-44.0	-45.0	19.6	0.00e+00	0	34	0	560988160	58	4328
2026-01-17 00:07:27.25	28.77	18.79	-43.9	-44.9	19.7	0.00e+00	0	34	0	564133888	58	4270
2026-01-17 00:07:28.26	28.82	18.91	-43.7	-44.8	19.9	0.00e+00	0	34	0	567279616	58	4196
2026-01-17 00:07:29.27	28.88	19.03	-43.8	-44.8	19.8	0.00e+00	0	33	0	570425344	58	4242
2026-01-17 00:07:30.28	28.93	19.15	-43.8	-44.8	19.8	0.00e+00	0	34	0	573571072	58	4241
2026-01-17 00:07:31.28	28.99	19.28	-43.8	-44.8	19.9	0.00e+00	0	34	0	577765376	58	4211
2026-01-17 00:07:32.29	29.05	19.40	-43.9	-44.9	19.8	0.00e+00	0	34	0	580911104	58	4270
2026-01-17 00:07:33.30	29.10	19.53	-43.7	-44.8	19.9	0.00e+00	0	34	0	584056832	58	4196
2026-01-17 00:07:34.31	29.16	19.65	-43.5	-44.5	20.1	0.00e+00	0	34	0	587202560	58	4077
2026-01-17 00:07:35.31	29.22	19.78	-43.5	-44.5	20.1	0.00e+00	0	34	0	590348288	58	4052
2026-01-17 00:07:36.33	29.28	19.91	-43.4	-44.3	20.2	0.00e+00	0	34	0	593494016	58	4000
2026-01-17 00:07:37.34	29.33	20.03	-43.3	-44.3	20.3	0.00e+00	0	34	0	596639744	58	3988
2026-01-17 00:07:38.34	29.39	20.16	-43.3	-44.3	20.3	0.00e+00	0	34	0	599785472	58	3983
2026-01-17 00:07:39.35	29.45	20.29	-43.3	-44.3	20.3	0.00e+00	0	34	0	601882624	58	3976
2026-01-17 00:07:40.36	29.51	20.42	-43.2	-44.1	20.5	0.00e+00	0	34	0	605028352	58	3899
2026-01-17 00:07:41.37	29.57	20.55	-43.1	-44.0	20.6	0.00e+00	0	34	0	608174080	58	3860
2026-01-17 00:07:42.38	29.63	20.68	-43.0	-43.9	20.7	0.00e+00	0	34	0	611319808	57	4019
2026-01-17 00:07:43.39	29.69	20.81	-42.9	-43.8	20.7	0.00e+00	0	34	0	615514112	57	3992
2026-01-17 00:07:44.40	29.76	20.94	-42.9	-43.9	20.7	0.00e+00	0	34	0	618659840	57	4007
2026-01-17 00:07:45.40	29.82	21.08	-42.7	-43.6	20.9	0.00e+00	0	34	0	621805568	57	3884
2026-01-17 00:07:46.41	29.88	21.21	-42.8	-43.7	20.8	0.00e+00	0	34	0	624951296	57	3924
2026-01-17 00:07:47.42	29.94	21.34	-42.6	-43.5	20.9	0.00e+00	0	34	0	628097024	57	3867
2026-01-17 00:07:48.43	30.01	21.48	-42.6	-43.4	21.1	0.00e+00	0	34	0	631242752	57	3822
2026-01-17 00:07:49.45	30.07	21.62	-42.6	-43.5	21.0	0.00e+00	0	34	0	634388480	57	3842
2026-01-17 00:07:50.46	30.14	21.75	-42.5	-43.4	21.1	0.00e+00	0	34	0	637534208	56	4008
2026-01-17 00:07:51.46	30.20	21.89	-42.4	-43.3	21.2	0.00e+00	0	34	0	640679936	56	3991
2026-01-17 00:07:52.47	30.27	22.02	-42.4	-43.3	21.2	0.00e+00	0	34	0	643825664	56	3982
2026-01-17 00:07:53.48	30.34	22.16	-42.5	-43.4	21.1	0.00e+00	0	34	0	646971392	56	4023
2026-01-17 00:07:54.49	30.40	22.30	-42.4	-43.3	21.2	0.00e+00	0	34	0	650117120	56	3996
2026-01-17 00:07:55.50	30.47	22.44	-42.4	-43.3	21.2	0.00e+00	0	34	0	653262848	56	3965
2026-01-17 00:07:56.51	30.54	22.58	-42.5	-43.3	21.2	0.00e+00	0	34	0	656408576	56	3999
2026-01-17 00:07:57.52	30.61	22.72	-42.4	-43.2	21.2	0.00e+00	0	34	0	659554304	56	3958
2026-01-17 00:07:58.52	30.68	22.86	-42.3	-43.2	21.3	0.00e+00	0	34	0	662700032	56	3923
2026-01-17 00:07:59.53	30.75	23.01	-42.3	-43.1	21.4	0.00e+00	0	34	0	665845760	56	3910
2026-01-17 00:08:00.54	30.82	23.15	-42.3	-43.1	21.4	0.00e+00	0	34	0	668991488	56	3913
2026-01-17 00:08:01.55	30.89	23.30	-42.3	-43.2	21.3	0.00e+00	0	34	0	672137216	56	3940
2026-01-17 00:08:02.56	30.96	23.44	-42.3	-43.2	21.4	0.00e+00	0	34	0	675282944	56	3923
2026-01-17 00:08:03.57	31.03	23.59	-42.3	-43.1	21.4	0.00e+00	0	34	0	678428672	56	3904
2026-01-17 00:08:04.58	31.10	23.73	-42.3	-43.1	21.4	0.00e+00	0	34	0	681574400	56	3906
2026-01-17 00:08:05.59	31.18	23.88	-42.4	-43.3	21.3	0.00e+00	0	34	0	684720128	56	3965
2026-01-17 00:08:06.59	31.25	24.03	-42.4	-43.3	21.3	0.00e+00	0	34	0	687865856	56	3982
2026-01-17 00:08:07.60	31.33	24.18	-42.6	-43.5	21.1	0.00e+00	0	34	0	691011584	56	4069
2026-01-17 00:08:08.61	31.40	24.33	-42.6	-43.5	21.1	0.00e+00	0	34	0	694157312	56	4054
2026-01-17 00:08:09.62	31.48	24.48	-42.5	-43.4	21.2	0.00e+00	0	34	0	697303040	56	4022
2026-01-17 00:08:10.63	31.56	24.63	-42.5	-43.4	21.2	0.00e+00	0	34	0	700448768	56	4032
2026-01-17 00:08:11.64	31.63	24.78	-42.5	-43.3	21.3	0.00e+00	0	34	0	703594496	56	3999
2026-01-17 00:08:12.65	31.71	24.93	-42.5	-43.4	21.2	0.00e+00	0	34	0	706740224	56	4011
2026-01-17 00:08:13.66	31.79	25.09	-42.6	-43.5	21.2	0.00e+00	0	34	0	709885952	56	4058
2026-01-17 00:08:14.66	31.87	25.24	-42.6	-43.5	21.1	0.00e+00	0	34	0	713031680	56	4078
2026-01-17 00:08:15.67	31.95	25.40	-42.7	-43.6	21.1	0.00e+00	0	34	0	716177408	56	4112
2026-01-17 00:08:16.69	32.03	25.55	-42.7	-43.7	21.0	0.00e+00	0	34	0	719323136	56	4146
2026-01-17 00:08:17.69	32.11	25.71	-42.7	-43.7	21.0	0.00e+00	0	34	0	722468864	56	4148
2026-01-17 00:08:18.71	32.20	25.87	-42.9	-43.8	20.9	0.00e+00	0	34	0	725614592	56	4207
2026-01-17 00:08:19.71	32.28	26.03	-42.9	-43.9	20.8	0.00e+00	0	34	0	728760320	56	4244
2026-01-17 00:08:20.72	32.37	26.19	-43.0	-43.9	20.8	0.00e+00	0	34	0	731906048	56	4261
2026-01-17 00:08:21.73	32.45	26.35	-43.1	-44.1	20.6	0.00e+00	0	34	0	735051776	56	4361
2026-01-17 00:08:22.74	32.54	26.51	-43.3	-44.3	20.5	0.00e+00	0	34	0	738197504	57	4205
2026-01-17 00:08:23.75	32.62	26.67	-43.4	-44.4	20.4	0.00e+00	0	34	0	741343232	57	4251
2026-01-17 00:08:24.76	32.71	26.84	-43.5	-44.5	20.2	0.00e+00	0	34	0	744488960	57	4330
2026-01-17 00:08:25.77	32.80	27.00	-43.5	-44.5	20.3	0.00e+00	0	34	0	747634688	57	4306
2026-01-17 00:08:26.78	32.89	27.17	-43.6	-44.6	20.2	0.00e+00	0	34	0	750780416	57	4365
2026-01-17 00:08:27.79	32.98	27.33	-43.5	-44.5	20.3	0.00e+00	0	34	0	753926144	57	4316
2026-01-17 00:08:28.79	33.07	27.50	-43.7	-44.7	20.1	0.00e+00	0	34	0	757071872	57	4431
2026-01-17 00:08:29.80	33.16	27.67	-43.7	-44.7	20.1	0.00e+00	0	34	0	760217600	58	4184
2026-01-17 00:08:30.81	33.26	27.84	-43.9	-44.9	19.9	0.00e+00	0	34	0	763363328	58	4267
2026-01-17 00:08:31.82	33.35	28.01	-43.8	-44.8	20.0	0.00e+00	0	34	0	766509056	58	4229
2026-01-17 00:08:32.83	33.45	28.18	-43.8	-44.8	20.0	0.00e+00	0	34	0	769654784	58	4229
2026-01-17 00:08:33.84	33.54	28.35	-43.8	-44.8	20.0	0.00e+00	0	34	0	772800512	58	4239
2026-01-17 00:08:34.84	33.64	28.52	-43.8	-44.8	20.0	0.00e+00	0	34	0	775946240	58	4211
2026-01-17 00:08:35.85	33.74	28.70	-43.5	-44.5	20.3	0.00e+00	0	34	0	779091968	58	4080
2026-01-17 00:08:36.86	33.84	28.87	-43.7	-44.7	20.1	0.00e+00	0	34	0	782237696	58	4176
2026-01-17 00:08:37.87	33.94	29.05	-43.7	-44.7	20.1	0.00e+00	0	34	0	785383424	58	4150
2026-01-17 00:08:38.88	34.04	29.23	-43.8	-44.8	20.0	0.00e+00	0	34	0	788529152	58	4218
2026-01-17 00:08:39.89	34.14	29.41	-43.7	-44.7	20.1	0.00e+00	0	34	0	791674880	58	4176
2026-01-17 00:08:40.90	34.24	29.59	-43.7	-44.7	20.2	0.00e+00	0	34	0	794820608	58	4149
2026-01-17 00:08:41.91	34.35	29.77	-43.7	-44.6	20.2	0.00e+00	0	34	0	797966336	58	4140
2026-01-17 00:08:42.91	34.45	29.95	-43.6	-44.6	20.2	0.00e+00	0	34	0	801112064	58	4137
2026-01-17 00:08:43.92	34.56	30.13	-43.4	-44.4	20.4	0.00e+00	0	34	0	804257792	58	4012
2026-01-17 00:08:44.93	34.67	30.31	-43.4	-44.4	20.4	0.00e+00	0	34	0	807403520	58	4026
2026-01-17 00:08:45.94	34.78	30.50	-43.4	-44.3	20.5	0.00e+00	0	34	0	810549248	58	4003
2026-01-17 00:08:46.94	34.89	30.68	-43.2	-44.1	20.7	0.00e+00	0	34	0	813694976	58	3913
2026-01-17 00:08:47.95	35.00	30.87	-43.2	-44.1	20.7	0.00e+00	0	34	0	816840704	58	3892
2026-01-17 00:08:48.96	35.11	31.06	-43.1	-44.1	20.7	0.00e+00	0	34	0	819986432	58	3881
2026-01-17 00:08:49.97	35.22	31.24	-43.0	-43.9	20.9	0.00e+00	0	34	0	823132160	58	3793
2026-01-17 00:08:50.98	35.34	31.43	-43.0	-43.9	20.9	0.00e+00	0	34	0	826277888	57	4015
2026-01-17 00:08:51.99	35.46	31.63	-43.1	-44.0	20.8	0.00e+00	0	34	0	829423616	57	4070
2026-01-17 00:08:53.00	35.57	31.82	-43.1	-44.0	20.8	0.00e+00	0	34	0	832569344	57	4062
2026-01-17 00:08:54.01	35.69	32.01	-43.1	-44.0	20.8	0.00e+00	0	34	0	835715072	57	4076
2026-01-17 00:08:55.02	35.81	32.21	-43.2	-44.1	20.7	0.00e+00	0	34	0	838860800	57	4121
2026-01-17 00:08:56.02	35.94	32.40	-43.3	-44.3	20.5	0.00e+00	0	34	0	842006528	57	4209
2026-01-17 00:08:57.03	36.06	32.60	-43.6	-44.5	20.3	0.00e+00	0	34	0	845152256	57	4332
2026-01-17 00:08:58.04	36.18	32.80	-43.8	-44.8	20.0	0.00e+00	0	34	0	848297984	58	4224
2026-01-17 00:08:59.05	36.31	33.00	-43.8	-44.8	20.1	0.00e+00	0	34	0	851443712	58	4229
2026-01-17 00:09:00.06	36.44	33.20	-43.9	-44.9	20.0	0.00e+00	0	34	0	854589440	58	4266
2026-01-17 00:09:01.07	36.57	33.40	-43.9	-44.9	20.0	0.00e+00	0	34	0	857735168	58	4262
2026-01-17 00:09:02.07	36.70	33.60	-43.9	-44.9	20.0	0.00e+00	0	34	0	860880896	58	4267
2026-01-17 00:09:03.08	36.83	33.80	-43.8	-44.8	20.0	0.00e+00	0	34	0	864026624	58	4230
2026-01-17 00:09:04.09	36.97	34.01	-43.8	-44.7	20.1	0.00e+00	0	34	0	867172352	58	4191
2026-01-17 00:09:05.10	37.10	34.22	-43.9	-44.9	20.0	0.00e+00	0	34	0	870318080	58	4254
2026-01-17 00:09:06.11	37.24	34.42	-44.0	-45.0	19.9	0.00e+00	0	34	0	873463808	58	4308
2026-01-17 00:09:07.12	37.38	34.63	-44.2	-45.2	19.7	0.00e+00	0	34	0	876609536	58	4424
2026-01-17 00:09:08.13	37.52	34.84	-44.6	-45.6	19.4	0.00e+00	0	34	0	879755264	59	4386
2026-01-17 00:09:09.14	37.66	35.05	-44.6	-45.7	19.3	0.00e+00	0	34	0	882900992	59	4414
2026-01-17 00:09:10.14	37.81	35.27	-44.7	-45.8	19.2	0.00e+00	0	34	0	886046720	59	4456
2026-01-17 00:09:11.15	37.95	35.48	-44.5	-45.6	19.1	0.00e+00	0	34	0	889192448	60	4111
2026-01-17 00:09:12.16	38.10	35.69	-44.7	-45.8	18.9	0.00e+00	0	34	0	892338176	60	4209
2026-01-17 00:09:13.17	38.25	35.91	-44.7	-45.8	18.9	0.00e+00	0	34	0	895483904	60	4217
2026-01-17 00:09:14.18	38.40	36.13	-44.7	-45.8	18.9	0.00e+00	0	34	0	898629632	60	4232
2026-01-17 00:09:15.19	38.56	36.35	-44.8	-45.9	18.8	0.00e+00	0	34	0	901775360	60	4259
2026-01-17 00:09:16.20	38.71	36.57	-45.0	-46.2	18.6	0.00e+00	0	34	0	904921088	60	4417
2026-01-17 00:09:17.21	38.87	36.79	-44.9	-46.1	18.6	0.00e+00	0	34	0	908066816	60	4361
2026-01-17 00:09:18.21	39.03	37.01	-45.0	-46.2	18.6	0.00e+00	0	34	0	911212544	60	4400
2026-01-17 00:09:19.22	39.19	37.23	-45.1	-46.3	18.5	0.00e+00	0	34	0	914358272	60	4447
2026-01-17 00:09:20.23	39.36	37.46	-45.2	-46.5	18.4	0.00e+00	0	34	0	917504000	61	4292
2026-01-17 00:09:21.24	39.53	37.69	-45.3	-46.6	18.3	0.00e+00	0	34	0	920649728	61	4342
2026-01-17 00:09:22.24	39.69	37.91	-45.5	-46.7	18.1	0.00e+00	0	34	0	923795456	61	4436
2026-01-17 00:09:23.25	39.87	38.14	-45.5	-46.8	18.0	0.00e+00	0	34	0	926941184	61	4442
2026-01-17 00:09:24.26	40.04	38.37	-45.7	-47.0	17.9	0.00e+00	0	34	0	930086912	62	4299
2026-01-17 00:09:25.27	40.22	38.60	-45.5	-46.7	18.1	0.00e+00	0	34	0	933232640	62	4173
2026-01-17 00:09:26.28	40.40	38.84	-45.4	-46.6	18.1	0.00e+00	0	34	0	936378368	62	4130
2026-01-17 00:09:27.28	40.57	39.07	-45.4	-46.6	18.1	0.00e+00	0	34	0	939524096	62	4135
2026-01-17 00:09:28.29	40.76	39.30	-45.3	-46.6	18.2	0.00e+00	0	34	0	942669824	62	4109
2026-01-17 00:09:29.30	40.95	39.54	-45.4	-46.6	18.2	0.00e+00	0	34	0	945815552	62	4126
2026-01-17 00:09:30.31	41.13	39.78	-45.4	-46.6	18.2	0.00e+00	0	34	0	948961280	62	4114
2026-01-17 00:09:31.32	41.33	40.02	-45.0	-46.1	18.7	0.00e+00	0	34	0	952107008	61	4132
2026-01-17 00:09:32.32	41.52	40.26	-45.1	-46.3	18.5	0.00e+00	0	34	0	955252736	61	4199
2026-01-17 00:09:33.33	41.72	40.50	-45.2	-46.4	18.4	0.00e+00	0	34	0	958398464	61	4279
2026-01-17 00:09:34.34	41.92	40.74	-45.2	-46.3	18.5	0.00e+00	0	34	0	961544192	61	4241
2026-01-17 00:09:35.35	42.12	40.99	-45.1	-46.3	18.5	0.00e+00	0	34	0	964689920	61	4227
2026-01-17 00:09:36.36	42.33	41.23	-45.3	-46.5	18.3	0.00e+00	0	34	0	967835648	61	4320
2026-01-17 00:09:37.36	42.54	41.48	-45.2	-46.4	18.4	0.00e+00	0	34	0	970981376	61	4282
2026-01-17 00:09:38.37	42.75	41.73	-45.3	-46.5	18.4	0.00e+00	0	34	0	974127104	61	4295
2026-01-17 00:09:39.38	42.97	41.98	-45.1	-46.3	18.5	0.00e+00	0	34	0	977272832	61	4195
2026-01-17 00:09:40.39	43.18	42.23	-44.9	-46.1	18.6	0.00e+00	0	34	0	980418560	61	4102
2026-01-17 00:09:41.39	43.41	42.48	-45.1	-46.3	18.5	0.00e+00	0	34	0	983564288	61	4198
2026-01-17 00:09:42.40	43.63	42.73	-45.1	-46.3	18.5	0.00e+00	0	34	0	986710016	61	4216
2026-01-17 00:09:43.41	43.86	42.99	-45.2	-46.4	18.4	0.00e+00	0	34	0	989855744	61	4283
2026-01-17 00:09:44.42	44.09	43.24	-45.4	-46.6	18.2	0.00e+00	0	34	0	993001472	61	4370
2026-01-17 00:09:45.42	44.33	43.50	-45.6	-46.8	18.0	0.00e+00	0	34	0	996147200	61	4470
2026-01-17 00:09:46.43	44.57	43.76	-45.7	-47.0	17.9	0.00e+00	0	34	0	999292928	62	4323
2026-01-17 00:09:47.44	44.81	44.02	-45.8	-47.1	17.8	0.00e+00	0	34	0	1002438656	62	4383
2026-01-17 00:09:48.45	45.06	44.28	-45.6	-46.9	18.0	0.00e+00	0	34	0	1005584384	62	4258
2026-01-17 00:09:49.46	45.32	44.54	-45.5	-46.7	18.1	0.00e+00	0	34	0	1008730112	62	4153
2026-01-17 00:09:50.46	45.57	44.80	-45.2	-46.4	18.4	0.00e+00	0	34	0	1011875840	62	4024
2026-01-17 00:09:51.47	45.83	45.06	-45.1	-46.2	18.5	0.00e+00	0	34	0	1015021568	62	3939
2026-01-17 00:09:52.48	46.10	45.33	-44.9	-46.0	18.8	0.00e+00	0	34	0	1018167296	61	4088
2026-01-17 00:09:53.49	46.37	45.60	-45.0	-46.1	18.7	0.00e+00	0	34	0	1021313024	61	4125
2026-01-17 00:09:54.50	46.64	45.86	-45.1	-46.3	18.6	0.00e+00	0	34	0	1024458752	61	4196
2026-01-17 00:09:55.51	46.92	46.13	-45.5	-46.8	18.1	0.00e+00	0	34	0	1027604480	61	4477
2026-01-17 00:09:56.52	47.20	46.40	-45.9	-47.3	17.6	0.00e+00	0	34	0	1030750208	62	4449
2026-01-17 00:09:57.53	47.49	46.67	-45.9	-47.3	17.7	0.00e+00	0	34	0	1033895936	62	4466
2026-01-17 00:09:58.54	47.79	46.94	-45.7	-47.1	17.9	0.00e+00	0	34	0	1037041664	62	4343
2026-01-17 00:09:59.55	48.08	47.22	-45.5	-46.8	18.2	0.00e+00	0	34	0	1040187392	62	4202
2026-01-17 00:10:00.56	48.39	47.49	-45.4	-46.6	18.3	0.00e+00	0	34	0	1043333120	62	4107
2026-01-17 00:10:01.56	48.69	47.76	-45.4	-46.6	18.3	0.00e+00	0	34	0	1046478848	62	4120
2026-01-17 00:10:02.57	49.01	48.04	-45.3	-46.5	18.4	0.00e+00	0	34	0	1049624576	62	4086
2026-01-17 00:10:03.58	49.33	48.32	-45.1	-46.2	18.7	0.00e+00	0	34	0	1052770304	62	3950
2026-01-17 00:10:04.59	49.65	48.59	-45.1	-46.3	18.6	0.00e+00	0	34	0	1056964608	62	3975
2026-01-17 00:10:05.59	49.98	48.87	-45.1	-46.2	18.7	0.00e+00	0	34	0	1060110336	62	3956
2026-01-17 00:10:06.60	50.32	49.15	-45.3	-46.6	18.3	0.00e+00	0	34	0	1062207488	62	4111
2026-01-17 00:10:07.61	50.66	49.43	-45.7	-47.0	18.0	0.00e+00	0	34	0	1065353216	62	4315
2026-01-17 00:10:08.62	51.01	49.71	-46.0	-47.3	17.6	0.00e+00	0	34	0	1068498944	62	4484
2026-01-17 00:10:09.63	51.37	49.99	-45.6	-46.9	18.0	0.00e+00	0	34	0	1071644672	62	4277
2026-01-17 00:10:10.64	51.73	50.27	-45.3	-46.5	18.2	0.00e+00	0	34	0	1074790400	62	4098
2026-01-17 00:10:11.65	52.10	50.55	-45.0	-46.2	18.6	0.00e+00	0	34	0	1077936128	62	3922
2026-01-17 00:10:12.66	52.48	50.83	-44.7	-45.8	19.1	0.00e+00	0	34	0	1081081856	61	3967
2026-01-17 00:10:13.67	52.86	51.11	-44.3	-45.3	19.5	0.00e+00	0	34	0	1084227584	60	3982
2026-01-17 00:10:14.68	53.25	51.40	-44.1	-45.1	19.6	0.00e+00	0	34	0	1087373312	60	3904
2026-01-17 00:10:15.69	53.65	51.68	-44.2	-45.2	19.6	0.00e+00	0	34	0	1091567616	60	3954
2026-01-17 00:10:16.70	54.06	51.96	-44.1	-45.1	19.7	0.00e+00	0	34	0	1094713344	60	3889
2026-01-17 00:10:17.70	54.46	52.25	-44.1	-45.1	19.7	0.00e+00	0	34	0	1097859072	60	3902
2026-01-17 00:10:18.71	54.89	52.53	-44.3	-45.3	19.8	0.00e+00	0	34	0	1101004800	59	4214
2026-01-17 00:10:19.72	55.32	52.81	-44.2	-45.2	19.8	0.00e+00	0	34	0	1104150528	59	4193
2026-01-17 00:10:20.73	55.75	53.10	-43.9	-44.9	20.1	0.00e+00	0	34	0	1107296256	59	4008
2026-01-17 00:10:21.74	56.20	53.38	-43.7	-44.7	20.4	0.00e+00	0	34	0	1109393408	59	3928
2026-01-17 00:10:22.74	56.65	53.66	-43.5	-44.4	20.6	0.00e+00	0	34	0	1112539136	58	4022
2026-01-17 00:10:23.75	57.11	53.95	-43.2	-44.1	20.9	0.00e+00	0	34	0	1115684864	58	3874
2026-01-17 00:10:24.76	57.59	54.23	-43.4	-44.3	20.7	0.00e+00	0	34	0	1118830592	58	3986
2026-01-17 00:10:25.77	58.07	54.51	-43.9	-44.9	20.2	0.00e+00	0	34	0	1121976320	58	4248
2026-01-17 00:10:26.78	58.56	54.79	-43.9	-44.9	20.2	0.00e+00	0	34	0	1125122048	58	4274
2026-01-17 00:10:27.78	59.06	55.07	-43.8	-44.8	20.3	0.00e+00	0	34	0	1129316352	58	4215
2026-01-17 00:10:28.79	59.57	55.35	-43.5	-44.5	20.5	0.00e+00	0	34	0	1132462080	58	4071
2026-01-17 00:10:29.80	60.09	55.63	-43.2	-44.1	20.9	0.00e+00	0	34	0	1135607808	58	3909
2026-01-17 00:10:30.81	60.62	55.91	-42.8	-43.7	21.2	0.00e+00	0	34	0	1138753536	57	3922
2026-01-17 00:10:31.81	61.16	56.19	-42.7	-43.5	21.4	0.00e+00	0	34	0	1141899264	57	3858
2026-01-17 00:10:32.83	61.72	56.47	-42.8	-43.6	21.3	0.00e+00	0	34	0	1145044992	57	3900
2026-01-17 00:10:33.84	62.28	56.75	-42.6	-43.5	21.4	0.00e+00	0	34	0	1148190720	57	3837
2026-01-17 00:10:34.84	62.85	57.02	-42.9	-43.8	21.2	0.00e+00	0	34	0	1151336448	57	3963
2026-01-17 00:10:35.85	63.44	57.29	-43.0	-43.8	21.0	0.00e+00	0	34	0	1154482176	57	4000
2026-01-17 00:10:36.86	64.04	57.56	-42.9	-43.8	20.9	0.00e+00	0	34	0	1156579328	57	3987
2026-01-17 00:10:37.87	64.65	57.83	-42.8	-43.7	21.1	0.00e+00	0	34	0	1159725056	57	3919
2026-01-17 00:10:38.87	65.27	58.10	-42.7	-43.6	21.2	0.00e+00	0	34	0	1162870784	57	3891
2026-01-17 00:10:39.88	65.90	58.37	-42.3	-43.2	21.7	0.00e+00	0	34	0	1167065088	56	3921
2026-01-17 00:10:40.89	66.55	58.63	-42.2	-43.0	21.9	0.00e+00	0	34	0	1170210816	56	3829
2026-01-17 00:10:41.90	67.21	58.89	-42.2	-43.1	21.8	0.00e+00	0	34	0	1173356544	56	3872
2026-01-17 00:10:42.91	67.89	59.15	-42.4	-43.2	21.6	0.00e+00	0	34	0	1176502272	56	3939
2026-01-17 00:10:43.92	68.58	59.41	-42.7	-43.5	21.4	0.00e+00	0	34	0	1179648000	56	4098
2026-01-17 00:10:44.93	69.28	59.66	-42.6	-43.4	21.5	0.00e+00	0	34	0	1182793728	56	4047
2026-01-17 00:10:45.94	69.99	59.92	-42.1	-42.9	21.9	0.00e+00	0	34	0	1185939456	56	3822
2026-01-17 00:10:46.94	70.71	60.16	-41.7	-42.4	22.2	0.00e+00	0	34	0	1189085184	55	3821
2026-01-17 00:10:47.95	71.46	60.41	-41.7	-42.4	22.2	0.00e+00	0	34	0	1192230912	55	3822
2026-01-17 00:10:48.96	72.22	60.65	-41.7	-42.5	22.2	0.00e+00	0	34	0	1195376640	55	3836
2026-01-17 00:10:49.97	72.99	60.89	-41.7	-42.5	22.1	0.00e+00	0	34	0	1198522368	55	3850
2026-01-17 00:10:50.97	73.77	61.12	-42.0	-42.8	22.0	0.00e+00	0	34	0	1201668096	55	3971
2026-01-17 00:10:51.98	74.57	61.35	-42.0	-42.8	22.0	0.00e+00	0	34	0	1203765248	55	3971
2026-01-17 00:10:52.99	75.38	61.58	-41.8	-42.6	22.1	0.00e+00	0	34	0	1207959552	55	3887
2026-01-17 00:10:54.00	76.21	61.80	-41.6	-42.4	22.3	0.00e+00	0	34	0	1211105280	55	3781
2026-01-17 00:10:55.01	77.06	62.02	-41.7	-42.5	22.1	0.00e+00	0	34	0	1214251008	55	3858
2026-01-17 00:10:56.02	77.92	62.23	-41.8	-42.6	22.0	0.00e+00	0	34	0	1217396736	55	3897
2026-01-17 00:10:57.02	78.79	62.44	-41.8	-42.6	22.0	0.00e+00	0	34	0	1220542464	55	3886
2026-01-17 00:10:58.03	79.68	62.64	-41.9	-42.7	21.9	0.00e+00	0	34	0	1223688192	55	3926
2026-01-17 00:10:59.04	80.58	62.84	-41.6	-42.3	22.2	0.00e+00	0	34	0	1226833920	55	3778
2026-01-17 00:11:00.05	81.50	63.03	-41.7	-42.4	22.2	0.00e+00	0	34	0	1229979648	55	3819
2026-01-17 00:11:01.06	82.44	63.22	-41.6	-42.4	22.2	0.00e+00	0	34	0	1233125376	55	3808
2026-01-17 00:11:02.07	83.39	63.40	-41.7	-42.5	22.1	0.00e+00	0	34	0	1236271104	55	3859
2026-01-17 00:11:03.08	84.35	63.58	-42.3	-43.1	21.6	0.00e+00	0	34	0	1239416832	55	4142
2026-01-17 00:11:04.08	85.32	63.74	-42.4	-43.3	21.5	0.00e+00	0	34	0	1242562560	55	4229
2026-01-17 00:11:05.09	86.31	63.91	-42.4	-43.2	21.5	0.00e+00	0	34	0	1245708288	55	4188
2026-01-17 00:11:06.10	87.31	64.06	-42.0	-42.8	22.0	0.00e+00	0	34	0	1248854016	55	3963
2026-01-17 00:11:07.11	88.33	64.21	-41.9	-42.7	21.8	0.00e+00	0	34	0	1251999744	55	3929
2026-01-17 00:11:08.12	89.37	64.35	-41.8	-42.6	22.1	0.00e+00	0	34	0	1255145472	55	3871
2026-01-17 00:11:09.12	90.40	64.49	-41.7	-42.5	22.2	0.00e+00	0	34	0	1258291200	55	3833
2026-01-17 00:11:10.13	91.46	64.61	-41.7	-42.5	22.2	0.00e+00	0	34	0	1261436928	55	3831
2026-01-17 00:11:11.14	92.52	64.73	-41.6	-42.3	22.2	0.00e+00	0	34	0	1264582656	55	3780
2026-01-17 00:11:12.15	93.60	64.85	-41.5	-42.3	22.1	0.00e+00	0	34	0	1267728384	54	3992
2026-01-17 00:11:13.16	94.69	64.95	-41.4	-42.2	22.4	0.00e+00	0	34	0	1270874112	54	3917
2026-01-17 00:11:14.16	95.78	65.05	-41.3	-42.1	22.5	0.00e+00	0	34	0	1274019840	54	3892
2026-01-17 00:11:15.17	96.89	65.14	-41.3	-42.1	22.4	0.00e+00	0	34	0	1277165568	54	3887
2026-01-17 00:11:16.18	98.00	65.22	-41.9	-42.7	22.0	0.00e+00	0	34	0	1280311296	54	4154
2026-01-17 00:11:17.19	99.13	65.29	-42.0	-42.9	21.8	0.00e+00	0	34	0	1283457024	54	4261
2026-01-17 00:11:18.20	100.26	65.35	-42.0	-42.8	21.8	0.00e+00	0	34	0	1286602752	54	4212
2026-01-17 00:11:19.20	101.38	65.41	-41.7	-42.5	22.1	0.00e+00	0	34	0	1289748480	54	4081
2026-01-17 00:11:20.21	102.52	65.45	-41.8	-42.6	22.1	0.00e+00	0	34	0	1292894208	54	4108
2026-01-17 00:11:21.22	103.67	65.49	-41.7	-42.5	22.2	0.00e+00	0	34	0	1296039936	54	4063
2026-01-17 00:11:22.22	104.81	65.52	-41.8	-42.6	22.1	0.00e+00	0	34	0	1299185664	54	4126
2026-01-17 00:11:23.23	105.96	65.54	-42.2	-43.0	21.8	0.00e+00	0	34	0	1302331392	54	4313
2026-01-17 00:11:24.24	107.11	65.55	-42.2	-43.0	21.7	0.00e+00	0	34	0	1305477120	55	4064
2026-01-17 00:11:25.25	108.27	65.55	-42.0	-42.8	21.7	0.00e+00	0	34	0	1308622848	55	3988
2026-01-17 00:11:26.26	109.42	65.54	-42.0	-42.8	21.8	0.00e+00	0	34	0	1311768576	55	3981
2026-01-17 00:11:27.26	110.56	65.53	-42.4	-43.3	21.5	0.00e+00	0	34	0	1314914304	55	4204
2026-01-17 00:11:28.27	111.71	65.50	-43.2	-44.1	20.9	0.00e+00	0	34	0	1318060032	57	4127
2026-01-17 00:11:29.28	112.86	65.47	-43.0	-43.9	21.1	0.00e+00	0	34	0	1321205760	57	4018
2026-01-17 00:11:30.29	114.01	65.43	-42.4	-43.3	21.5	0.00e+00	0	34	0	1324351488	56	3980
2026-01-17 00:11:31.30	115.15	65.38	-41.8	-42.6	22.1	0.00e+00	0	34	0	1327497216	55	3880
2026-01-17 00:11:32.30	116.27	65.32	-41.5	-42.3	22.3	0.00e+00	0	34	0	1330642944	54	3982
2026-01-17 00:11:33.31	117.40	65.25	-41.7	-42.5	22.2	0.00e+00	0	34	0	1333788672	54	4061
2026-01-17 00:11:34.32	118.52	65.18	-42.0	-42.8	21.8	0.00e+00	0	34	0	1336934400	54	4239
2026-01-17 00:11:35.33	119.63	65.09	-42.3	-43.1	21.6	0.00e+00	0	34	0	1340080128	55	4137
2026-01-17 00:11:36.34	120.73	65.00	-41.8	-42.7	22.0	0.00e+00	0	34	0	1343225856	55	3915
2026-01-17 00:11:37.34	121.82	64.90	-41.5	-42.3	22.3	0.00e+00	0	34	0	1346371584	54	3974
2026-01-17 00:11:38.35	122.90	64.79	-41.4	-42.2	22.4	0.00e+00	0	34	0	1349517312	54	3933
2026-01-17 00:11:39.36	123.98	64.67	-41.9	-42.7	21.8	0.00e+00	0	34	0	1352663040	54	4172
2026-01-17 00:11:40.37	125.04	64.55	-42.4	-43.3	21.4	0.00e+00	0	34	0	1355808768	55	4223
2026-01-17 00:11:41.38	126.09	64.42	-42.3	-43.1	21.6	0.00e+00	0	34	0	1358954496	55	4119
2026-01-17 00:11:42.39	127.13	64.28	-42.0	-42.8	21.4	0.00e+00	0	34	0	1362100224	55	3995
2026-01-17 00:11:43.40	128.15	64.13	-42.0	-42.9	21.7	0.00e+00	0	34	0	1365245952	55	4012
2026-01-17 00:11:44.40	129.16	63.98	-42.0	-42.8	21.8	0.00e+00	0	34	0	1368391680	55	3986
2026-01-17 00:11:45.41	130.16	63.82	-41.7	-42.5	21.8	0.00e+00	0	34	0	1371537408	55	3851
2026-01-17 00:11:46.42	131.14	63.66	-42.0	-42.8	21.8	0.00e+00	0	34	0	1374683136	55	3971
2026-01-17 00:11:47.43	132.11	63.48	-42.5	-43.3	21.5	0.00e+00	0	34	0	1377828864	55	4235
2026-01-17 00:11:48.44	133.07	63.31	-42.1	-42.9	21.8	0.00e+00	0	34	0	1380974592	55	4030
2026-01-17 00:11:49.45	134.01	63.12	-41.6	-42.4	22.2	0.00e+00	0	34	0	1384120320	55	3805
2026-01-17 00:11:50.46	134.94	62.93	-41.2	-42.0	22.5	0.00e+00	0	34	0	1387266048	54	3833
2026-01-17 00:11:51.47	135.85	62.73	-42.0	-42.8	21.8	0.00e+00	0	34	0	1390411776	54	4233
2026-01-17 00:11:52.48	136.75	62.53	-42.5	-43.4	21.2	0.00e+00	0	34	0	1393557504	55	4267
2026-01-17 00:11:53.48	137.63	62.33	-43.0	-43.9	21.0	0.00e+00	0	34	0	1396703232	56	4286
2026-01-17 00:11:54.49	138.50	62.12	-43.1	-44.0	20.6	0.00e+00	0	34	0	1399848960	56	4320
2026-01-17 00:11:55.50	139.35	61.90	-42.7	-43.6	21.0	0.00e+00	0	34	0	1402994688	56	4117
2026-01-17 00:11:56.51	140.19	61.68	-42.3	-43.1	21.6	0.00e+00	0	34	0	1406140416	56	3897
2026-01-17 00:11:57.52	141.01	61.46	-41.7	-42.4	22.2	0.00e+00	0	34	0	1409286144	55	3823
2026-01-17 00:11:58.53	141.82	61.23	-42.5	-43.3	21.5	0.00e+00	0	34	0	1412431872	55	4222
2026-01-17 00:11:59.54	142.61	60.99	-43.4	-44.4	20.5	0.00e+00	0	34	0	1415577600	57	4268
2026-01-17 00:12:00.54	143.39	60.76	-43.9	-45.0	20.0	0.00e+00	0	34	0	1418723328	58	4295
2026-01-17 00:12:01.55	144.15	60.52	-42.8	-43.7	21.2	0.00e+00	0	34	0	1421869056	57	3936
2026-01-17 00:12:02.56	144.90	60.27	-41.6	-42.4	22.0	0.00e+00	0	34	0	1425014784	55	3798
2026-01-17 00:12:03.57	145.64	60.03	-41.3	-42.0	22.4	0.00e+00	0	34	0	1428160512	54	3854
2026-01-17 00:12:04.58	146.36	59.77	-41.3	-42.0	22.5	0.00e+00	0	34	0	1431306240	54	3842
2026-01-17 00:12:05.59	147.07	59.52	-42.1	-42.9	21.7	0.00e+00	0	34	0	1434451968	54	4285
2026-01-17 00:12:06.59	147.76	59.27	-43.4	-44.3	20.5	0.00e+00	0	34	0	1437597696	57	4233
2026-01-17 00:12:07.60	148.44	59.01	-44.0	-45.0	20.1	0.00e+00	0	34	0	1440743424	58	4305
2026-01-17 00:12:08.61	149.11	58.75	-43.3	-44.2	20.6	0.00e+00	0	34	0	1443889152	58	3943
2026-01-17 00:12:09.62	149.76	58.48	-42.2	-43.0	21.4	0.00e+00	0	34	0	1447034880	56	3849
2026-01-17 00:12:10.62	150.40	58.22	-41.5	-42.2	22.0	0.00e+00	0	34	0	1450180608	54	3946
2026-01-17 00:12:11.63	151.03	57.95	-41.6	-42.4	22.2	0.00e+00	0	34	0	1453326336	54	4013
2026-01-17 00:12:12.64	151.65	57.68	-42.5	-43.3	21.4	0.00e+00	0	34	0	1456472064	55	4212
2026-01-17 00:12:13.65	152.25	57.41	-43.6	-44.5	20.3	0.00e+00	0	34	0	1459617792	57	4336
2026-01-17 00:12:14.66	152.85	57.13	-44.2	-45.3	19.6	0.00e+00	0	34	0	1462763520	59	4207
2026-01-17 00:12:15.67	153.43	56.86	-44.1	-45.1	19.8	0.00e+00	0	34	0	1465909248	59	4144
2026-01-17 00:12:16.68	154.00	56.58	-43.7	-44.7	20.0	0.00e+00	0	34	0	1469054976	59	3919
2026-01-17 00:12:17.68	154.55	56.31	-43.2	-44.1	20.6	0.00e+00	0	34	0	1472200704	58	3910
2026-01-17 00:12:18.69	155.10	56.03	-42.4	-43.3	21.5	0.00e+00	0	34	0	1475346432	56	3959
2026-01-17 00:12:19.70	155.64	55.75	-42.7	-43.5	21.3	0.00e+00	0	34	0	1478492160	56	4074
2026-01-17 00:12:20.71	156.17	55.47	-43.8	-44.8	19.8	0.00e+00	0	34	0	1481637888	58	4209
2026-01-17 00:12:21.72	156.68	55.19	-44.6	-45.7	18.1	0.00e+00	0	34	0	1484783616	60	4183
2026-01-17 00:12:22.72	157.19	54.91	-44.6	-45.7	18.7	0.00e+00	0	34	0	1487929344	60	4179
2026-01-17 00:12:23.73	157.68	54.63	-44.5	-45.6	19.0	0.00e+00	0	34	0	1491075072	60	4104
2026-01-17 00:12:24.74	158.17	54.34	-44.2	-45.2	18.9	0.00e+00	0	34	0	1494220800	60	3944
2026-01-17 00:12:25.75	158.65	54.06	-44.0	-45.1	19.1	0.00e+00	0	34	0	1497366528	60	3869
2026-01-17 00:12:26.76	159.12	53.77	-43.5	-44.4	20.2	0.00e+00	0	34	0	1500512256	59	3819
2026-01-17 00:12:27.77	159.58	53.49	-43.3	-44.2	20.6	0.00e+00	0	34	0	1503657984	58	3949
2026-01-17 00:12:28.78	160.03	53.20	-43.5	-44.5	20.5	0.00e+00	0	34	0	1506803712	58	4056
2026-01-17 00:12:29.79	160.47	52.92	-44.2	-45.2	19.8	0.00e+00	0	34	0	1509949440	58	4427
2026-01-17 00:12:30.80	160.90	52.63	-44.6	-45.7	19.4	0.00e+00	0	34	0	1513095168	59	4419
2026-01-17 00:12:31.81	161.33	52.35	-44.6	-45.7	19.0	0.00e+00	0	34	0	1516240896	59	4419
2026-01-17 00:12:32.82	161.74	52.07	-44.6	-45.7	18.5	0.00e+00	0	34	0	1519386624	59	4441
2026-01-17 00:12:33.83	162.15	51.78	-44.4	-45.5	18.4	0.00e+00	0	34	0	1522532352	60	4075
2026-01-17 00:12:34.83	162.55	51.50	-44.5	-45.6	18.8	0.00e+00	0	34	0	1525678080	60	4142
2026-01-17 00:12:35.84	162.95	51.21	-44.3	-45.4	19.2	0.00e+00	0	34	0	1528823808	60	4019
2026-01-17 00:12:36.85	163.33	50.93	-44.3	-45.4	19.2	0.00e+00	0	34	0	1531969536	60	4037
2026-01-17 00:12:37.86	163.71	50.65	-44.8	-45.9	18.8	0.00e+00	0	34	0	1535115264	60	4289
2026-01-17 00:12:38.87	164.09	50.36	-45.4	-46.7	18.1	0.00e+00	0	34	0	1538260992	61	4404
2026-01-17 00:12:39.87	164.45	50.09	-45.6	-46.8	18.0	0.00e+00	0	34	0	1541406720	61	4483
2026-01-17 00:12:40.88	164.81	49.80	-46.1	-47.4	17.4	0.00e+00	0	34	0	1544552448	62	4541
2026-01-17 00:12:41.89	165.16	49.52	-46.3	-47.7	17.3	0.00e+00	0	34	0	1547698176	63	4433
2026-01-17 00:12:42.90	165.51	49.24	-45.8	-47.1	17.8	0.00e+00	0	34	0	1550843904	63	4145
2026-01-17 00:12:43.91	165.85	48.96	-45.0	-46.2	18.6	0.00e+00	0	34	0	1553989632	62	3918
2026-01-17 00:12:44.92	166.18	48.68	-44.4	-45.5	19.3	0.00e+00	0	34	0	1557135360	60	4057
2026-01-17 00:12:45.93	166.51	48.40	-44.1	-45.1	19.9	0.00e+00	0	34	0	1560281088	59	4129
2026-01-17 00:12:46.93	166.83	48.13	-44.4	-45.4	19.6	0.00e+00	0	34	0	1563426816	59	4287
2026-01-17 00:12:47.94	167.15	47.85	-45.1	-46.3	18.4	0.00e+00	0	34	0	1566572544	60	4457
2026-01-17 00:12:48.95	167.46	47.58	-45.8	-47.1	17.7	0.00e+00	0	34	0	1569718272	62	4383
2026-01-17 00:12:49.96	167.77	47.30	-45.8	-47.2	17.6	0.00e+00	0	34	0	1572864000	62	4406
2026-01-17 00:12:50.97	168.07	47.03	-45.6	-46.9	17.8	0.00e+00	0	34	0	1576009728	62	4249
2026-01-17 00:12:51.98	168.36	46.75	-45.4	-46.6	18.0	0.00e+00	0	34	0	1579155456	62	4141
2026-01-17 00:12:52.98	168.65	46.48	-45.4	-46.6	18.1	0.00e+00	0	34	0	1582301184	62	4115
2026-01-17 00:12:54.00	168.94	46.21	-45.3	-46.5	18.2	0.00e+00	0	34	0	1585446912	62	4095
2026-01-17 00:12:55.00	169.22	45.94	-45.3	-46.5	18.3	0.00e+00	0	34	0	1588592640	62	4085
2026-01-17 00:12:56.01	169.50	45.67	-45.2	-46.4	18.3	0.00e+00	0	34	0	1591738368	62	4025
2026-01-17 00:12:57.02	169.77	45.41	-45.5	-46.8	18.0	0.00e+00	0	34	0	1594884096	62	4200
2026-01-17 00:12:58.03	170.04	45.14	-45.8	-47.1	17.7	0.00e+00	0	34	0	1598029824	62	4362
2026-01-17 00:12:59.04	170.30	44.87	-45.9	-47.2	17.6	0.00e+00	0	34	0	1601175552	62	4431
2026-01-17 00:13:00.05	170.56	44.61	-45.9	-47.2	17.6	0.00e+00	0	34	0	1604321280	62	4412
2026-01-17 00:13:01.05	170.81	44.35	-46.0	-47.4	17.3	0.00e+00	0	34	0	1607467008	62	4541
2026-01-17 00:13:02.06	171.06	44.09	-46.3	-47.8	16.8	0.00e+00	0	34	0	1610612736	63	4471
2026-01-17 00:13:03.07	171.31	43.82	-46.5	-48.0	16.6	0.00e+00	0	34	0	1613758464	63	4583
2026-01-17 00:13:04.08	171.55	43.56	-46.3	-47.7	17.1	0.00e+00	0	34	0	1616904192	63	4415
2026-01-17 00:13:05.09	171.79	43.31	-45.8	-47.1	17.7	0.00e+00	0	34	0	1620049920	63	4131
2026-01-17 00:13:06.10	172.02	43.05	-45.4	-46.7	18.1	0.00e+00	0	34	0	1623195648	62	4148
2026-01-17 00:13:07.10	172.25	42.79	-45.1	-46.3	18.5	0.00e+00	0	34	0	1626341376	62	3975
2026-01-17 00:13:08.11	172.48	42.54	-45.5	-46.7	18.1	0.00e+00	0	34	0	1629487104	62	4193
2026-01-17 00:13:09.12	172.71	42.29	-45.5	-46.7	18.1	0.00e+00	0	34	0	1632632832	62	4187
2026-01-17 00:13:10.13	172.93	42.03	-45.4	-46.7	18.1	0.00e+00	0	34	0	1635778560	62	4152
2026-01-17 00:13:11.14	173.15	41.78	-45.1	-46.3	18.5	0.00e+00	0	34	0	1638924288	62	3969
2026-01-17 00:13:12.15	173.36	41.53	-44.8	-46.0	18.8	0.00e+00	0	34	0	1642070016	61	4067
2026-01-17 00:13:13.16	173.57	41.28	-44.8	-45.9	18.8	0.00e+00	0	34	0	1645215744	61	4044
2026-01-17 00:13:14.16	173.78	41.04	-44.9	-46.0	18.7	0.00e+00	0	34	0	1648361472	61	4097
2026-01-17 00:13:15.17	173.98	40.79	-44.8	-45.9	18.8	0.00e+00	0	34	0	1651507200	61	4025
2026-01-17 00:13:16.18	174.18	40.55	-44.6	-45.7	19.0	0.00e+00	0	34	0	1654652928	61	3956
2026-01-17 00:13:17.19	174.38	40.30	-44.6	-45.7	19.0	0.00e+00	0	34	0	1658847232	61	3946
2026-01-17 00:13:18.20	174.58	40.06	-44.7	-45.8	18.9	0.00e+00	0	34	0	1660944384	61	3982
2026-01-17 00:13:19.20	174.77	39.82	-45.0	-46.2	18.5	0.00e+00	0	34	0	1664090112	61	4166
2026-01-17 00:13:20.21	174.96	39.58	-45.3	-46.5	18.2	0.00e+00	0	34	0	1667235840	61	4300
2026-01-17 00:13:21.22	175.15	39.34	-45.4	-46.6	18.1	0.00e+00	0	34	0	1670381568	61	4388
2026-01-17 00:13:22.23	175.33	39.11	-45.4	-46.6	18.1	0.00e+00	0	34	0	1673527296	61	4386
2026-01-17 00:13:23.24	175.52	38.87	-45.2	-46.4	18.3	0.00e+00	0	34	0	1676673024	61	4286
2026-01-17 00:13:24.24	175.69	38.64	-45.1	-46.3	18.3	0.00e+00	0	34	0	1679818752	61	4239
2026-01-17 00:13:25.25	175.87	38.41	-45.0	-46.2	18.5	0.00e+00	0	34	0	1682964480	61	4155
2026-01-17 00:13:26.26	176.05	38.17	-45.0	-46.2	18.4	0.00e+00	0	34	0	1686110208	61	4148
2026-01-17 00:13:27.27	176.22	37.94	-44.9	-46.1	18.4	0.00e+00	0	34	0	1689255936	61	4103
2026-01-17 00:13:28.28	176.39	37.71	-44.8	-46.0	18.4	0.00e+00	0	34	0	1692401664	61	4070
2026-01-17 00:13:29.29	176.56	37.49	-44.7	-45.8	18.6	0.00e+00	0	34	0	1696595968	61	3985
2026-01-17 00:13:30.30	176.72	37.26	-44.3	-45.4	19.0	0.00e+00	0	34	0	1699741696	60	4044
2026-01-17 00:13:31.30	176.89	37.04	-44.1	-45.2	19.3	0.00e+00	0	34	0	1702887424	60	3940
2026-01-17 00:13:32.31	177.05	36.81	-44.1	-45.2	19.3	0.00e+00	0	34	0	1706033152	60	3938
2026-01-17 00:13:33.32	177.21	36.59	-43.9	-44.9	19.9	0.00e+00	0	34	0	1709178880	59	4008
2026-01-17 00:13:34.33	177.36	36.37	-43.7	-44.7	20.1	0.00e+00	0	34	0	1711276032	59	3916
2026-01-17 00:13:35.34	177.52	36.15	-43.7	-44.7	20.0	0.00e+00	0	34	0	1714421760	59	3949
2026-01-17 00:13:36.35	177.67	35.93	-43.7	-44.7	20.0	0.00e+00	0	34	0	1717567488	59	3956
2026-01-17 00:13:37.36	177.82	35.71	-43.8	-44.8	20.0	0.00e+00	0	34	0	1720713216	59	3967
2026-01-17 00:13:38.36	177.97	35.50	-43.9	-44.9	19.9	0.00e+00	0	34	0	1723858944	59	4042
2026-01-17 00:13:39.37	178.12	35.28	-43.9	-44.9	19.9	0.00e+00	0	34	0	1727004672	59	4040
2026-01-17 00:13:40.38	178.26	35.07	-43.8	-44.8	19.9	0.00e+00	0	34	0	1730150400	59	4002
2026-01-17 00:13:41.39	178.41	34.85	-43.8	-44.8	19.9	0.00e+00	0	34	0	1734344704	59	3977
2026-01-17 00:13:42.40	178.55	34.64	-43.7	-44.7	20.0	0.00e+00	0	34	0	1737490432	59	3943
2026-01-17 00:13:43.41	178.69	34.43	-43.8	-44.8	20.1	0.00e+00	0	34	0	1740636160	59	3970
2026-01-17 00:13:44.42	178.83	34.22	-44.2	-45.2	19.6	0.00e+00	0	34	0	1743781888	59	4188
2026-01-17 00:13:45.42	178.96	34.02	-44.7	-45.8	19.1	0.00e+00	0	34	0	1746927616	59	4466
2026-01-17 00:13:46.43	179.10	33.81	-44.7	-45.9	18.7	0.00e+00	0	34	0	1750073344	60	4255
2026-01-17 00:13:47.44	179.23	33.60	-44.8	-46.1	18.6	0.00e+00	0	34	0	1753219072	60	4341
2026-01-17 00:13:48.45	179.36	33.40	-44.7	-45.9	18.7	0.00e+00	0	34	0	1756364800	60	4246
2026-01-17 00:13:49.46	179.49	33.20	-44.6	-45.8	18.7	0.00e+00	0	34	0	1758461952	60	4210
2026-01-17 00:13:50.47	179.62	33.00	-44.5	-45.6	18.8	0.00e+00	0	34	0	1761607680	60	4120
2026-01-17 00:13:51.48	179.75	32.79	-44.4	-45.6	18.9	0.00e+00	0	34	0	1764753408	60	4100
2026-01-17 00:13:52.49	179.87	32.60	-44.0	-45.1	19.6	0.00e+00	0	34	0	1768947712	59	4102
2026-01-17 00:13:53.50	180.00	32.40	-43.3	-44.2	20.4	0.00e+00	0	34	0	1772093440	58	3958
2026-01-17 00:13:54.50	180.12	32.20	-43.0	-43.9	20.6	0.00e+00	0	34	0	1775239168	58	3805
2026-01-17 00:13:55.51	180.24	32.01	-43.1	-44.0	20.5	0.00e+00	0	34	0	1778384896	57	4083
2026-01-17 00:13:56.52	180.36	31.81	-43.0	-43.9	20.6	0.00e+00	0	34	0	1781530624	57	4041
2026-01-17 00:13:57.53	180.48	31.62	-42.9	-43.8	20.7	0.00e+00	0	34	0	1784676352	57	3998
2026-01-17 00:13:58.54	180.60	31.42	-43.1	-44.0	20.6	0.00e+00	0	34	0	1787822080	57	4074
2026-01-17 00:13:59.55	180.71	31.23	-43.0	-43.9	20.6	0.00e+00	0	34	0	1790967808	57	4044
2026-01-17 00:14:00.56	180.83	31.04	-43.1	-44.0	20.6	0.00e+00	0	34	0	1794113536	57	4067
2026-01-17 00:14:01.57	180.94	30.85	-42.8	-43.7	20.8	0.00e+00	0	34	0	1797259264	57	3949
2026-01-17 00:14:02.58	181.05	30.67	-42.9	-43.8	20.8	0.00e+00	0	34	0	1800404992	57	3974
2026-01-17 00:14:03.59	181.16	30.48	-42.9	-43.8	20.8	0.00e+00	0	34	0	1803550720	57	3988
2026-01-17 00:14:04.59	181.27	30.29	-42.9	-43.9	20.7	0.00e+00	0	34	0	1806696448	57	4006
2026-01-17 00:14:05.60	181.38	30.11	-43.0	-43.9	20.7	0.00e+00	0	34	0	1809842176	57	4030
2026-01-17 00:14:06.61	181.49	29.93	-43.1	-44.1	20.5	0.00e+00	0	34	0	1812987904	57	4105
2026-01-17 00:14:07.62	181.59	29.74	-43.3	-44.3	20.4	0.00e+00	0	34	0	1816133632	57	4202
2026-01-17 00:14:08.63	181.70	29.56	-43.5	-44.4	20.2	0.00e+00	0	34	0	1819279360	57	4282
2026-01-17 00:14:09.64	181.80	29.38	-43.7	-44.7	20.0	0.00e+00	0	34	0	1822425088	57	4395
2026-01-17 00:14:10.64	181.90	29.20	-43.7	-44.7	20.0	0.00e+00	0	34	0	1825570816	58	4192
2026-01-17 00:14:11.65	182.00	29.03	-43.8	-44.8	19.9	0.00e+00	0	34	0	1828716544	58	4239
2026-01-17 00:14:12.66	182.10	28.85	-43.9	-44.9	19.9	0.00e+00	0	34	0	1831862272	58	4263
2026-01-17 00:14:13.67	182.20	28.67	-43.9	-45.0	19.8	0.00e+00	0	34	0	1835008000	58	4307
2026-01-17 00:14:14.68	182.30	28.50	-44.0	-45.0	19.7	0.00e+00	0	34	0	1838153728	58	4316
2026-01-17 00:14:15.68	182.40	28.32	-44.0	-45.0	19.7	0.00e+00	0	34	0	1841299456	58	4317
2026-01-17 00:14:16.69	182.49	28.15	-43.8	-44.9	19.9	0.00e+00	0	34	0	1844445184	58	4251
2026-01-17 00:14:17.70	182.59	27.98	-43.9	-44.9	19.8	0.00e+00	0	34	0	1847590912	58	4273
2026-01-17 00:14:18.71	182.68	27.81	-43.8	-44.8	19.9	0.00e+00	0	34	0	1850736640	58	4215
2026-01-17 00:14:19.72	182.78	27.64	-43.7	-44.7	20.0	0.00e+00	0	34	0	1853882368	58	4192
2026-01-17 00:14:20.72	182.87	27.47	-43.7	-44.7	20.0	0.00e+00	0	34	0	1857028096	58	4181
2026-01-17 00:14:21.73	182.96	27.30	-43.6	-44.6	20.0	0.00e+00	0	34	0	1860173824	58	4135
2026-01-17 00:14:22.74	183.05	27.13	-43.4	-44.3	20.3	0.00e+00	0	34	0	1863319552	58	4002
2026-01-17 00:14:23.75	183.14	26.97	-43.2	-44.1	20.5	0.00e+00	0	34	0	1866465280	58	3902
2026-01-17 00:14:24.76	183.23	26.80	-43.2	-44.1	20.5	0.00e+00	0	34	0	1869611008	58	3894
2026-01-17 00:14:25.77	183.32	26.64	-43.1	-44.1	20.5	0.00e+00	0	34	0	1872756736	58	3872
2026-01-17 00:14:26.78	183.40	26.47	-43.0	-44.0	20.6	0.00e+00	0	34	0	1875902464	58	3830
2026-01-17 00:14:27.78	183.49	26.31	-42.7	-43.6	21.0	0.00e+00	0	34	0	1879048192	57	3881
2026-01-17 00:14:28.79	183.58	26.15	-42.6	-43.5	21.1	0.00e+00	0	34	0	1882193920	57	3828
2026-01-17 00:14:29.80	183.66	25.99	-42.5	-43.4	21.1	0.00e+00	0	34	0	1885339648	57	3801
2026-01-17 00:14:30.81	183.74	25.83	-42.3	-43.2	21.3	0.00e+00	0	34	0	1888485376	56	3926
2026-01-17 00:14:31.82	183.83	25.67	-42.1	-42.9	21.5	0.00e+00	0	34	0	1891631104	56	3821
2026-01-17 00:14:32.83	183.91	25.51	-41.9	-42.7	21.5	0.00e+00	0	34	0	1894776832	55	3946
2026-01-17 00:14:33.84	183.99	25.35	-41.9	-42.7	21.6	0.00e+00	0	34	0	1897922560	55	3940
2026-01-17 00:14:34.85	184.07	25.20	-42.0	-42.8	21.5	0.00e+00	0	34	0	1901068288	55	3996
2026-01-17 00:14:35.86	184.15	25.04	-42.1	-43.0	21.3	0.00e+00	0	34	0	1904214016	55	4069
2026-01-17 00:14:36.87	184.23	24.89	-42.2	-43.0	21.3	0.00e+00	0	34	0	1907359744	55	4098
2026-01-17 00:14:37.88	184.31	24.73	-42.3	-43.2	21.2	0.00e+00	0	34	0	1910505472	55	4161
2026-01-17 00:14:38.89	184.39	24.58	-42.5	-43.4	21.0	0.00e+00	0	34	0	1913651200	55	4247
2026-01-17 00:14:39.89	184.46	24.43	-42.5	-43.4	21.0	0.00e+00	0	34	0	1916796928	55	4271
2026-01-17 00:14:40.90	184.54	24.28	-42.5	-43.4	21.0	0.00e+00	0	34	0	1919942656	55	4261
2026-01-17 00:14:41.91	184.61	24.13	-42.5	-43.3	21.0	0.00e+00	0	34	0	1923088384	55	4240
2026-01-17 00:14:42.92	184.69	23.98	-42.6	-43.4	20.9	0.00e+00	0	34	0	1926234112	55	4291
2026-01-17 00:14:43.93	184.76	23.83	-42.6	-43.5	21.0	0.00e+00	0	34	0	1929379840	55	4302
2026-01-17 00:14:44.94	184.84	23.68	-42.6	-43.5	20.9	0.00e+00	0	34	0	1932525568	55	4329
2026-01-17 00:14:45.94	184.91	23.53	-42.8	-43.8	20.8	0.00e+00	0	34	0	1935671296	56	4198
2026-01-17 00:14:46.95	184.98	23.39	-42.8	-43.7	20.8	0.00e+00	0	34	0	1938817024	56	4187
2026-01-17 00:14:47.96	185.05	23.24	-43.0	-43.9	20.6	0.00e+00	0	34	0	1941962752	56	4268
2026-01-17 00:14:48.97	185.12	23.09	-42.9	-43.8	20.7	0.00e+00	0	34	0	1945108480	56	4239
2026-01-17 00:14:49.98	185.20	22.95	-42.9	-43.8	20.7	0.00e+00	0	34	0	1948254208	56	4215
2026-01-17 00:14:50.99	185.27	22.81	-43.0	-43.9	20.6	0.00e+00	0	34	0	1951399936	56	4290
2026-01-17 00:14:52.00	185.33	22.66	-43.0	-43.9	20.6	0.00e+00	0	34	0	1954545664	56	4259
2026-01-17 00:14:53.01	185.40	22.52	-43.0	-43.9	20.6	0.00e+00	0	34	0	1957691392	56	4269
2026-01-17 00:14:54.01	185.47	22.38	-43.0	-44.0	20.5	0.00e+00	0	34	0	1960837120	56	4306
2026-01-17 00:14:55.02	185.54	22.24	-43.0	-43.9	20.6	0.00e+00	0	34	0	1963982848	56	4268
2026-01-17 00:14:56.03	185.60	22.10	-43.0	-44.0	20.5	0.00e+00	0	34	0	1967128576	56	4308
2026-01-17 00:14:57.04	185.67	21.96	-43.1	-44.1	20.4	0.00e+00	0	34	0	1970274304	56	4358
2026-01-17 00:14:58.05	185.74	21.82	-43.2	-44.1	20.4	0.00e+00	0	34	0	1973420032	56	4376
2026-01-17 00:14:59.06	185.80	21.69	-43.1	-44.1	20.4	0.00e+00	0	34	0	1976565760	56	4353
2026-01-17 00:15:00.07	185.87	21.55	-43.1	-44.1	20.4	0.00e+00	0	34	0	1979711488	56	4363
2026-01-17 00:15:01.08	185.93	21.41	-43.0	-44.0	20.5	0.00e+00	0	34	0	1982857216	56	4317
2026-01-17 00:15:02.09	185.99	21.28	-43.1	-44.1	20.4	0.00e+00	0	34	0	1986002944	56	4342
2026-01-17 00:15:03.10	186.06	21.14	-42.9	-43.9	20.6	0.00e+00	0	34	0	1989148672	56	4252
2026-01-17 00:15:04.10	186.12	21.01	-43.0	-43.9	20.6	0.00e+00	0	34	0	1992294400	56	4273
2026-01-17 00:15:05.11	186.18	20.88	-43.0	-43.9	20.6	0.00e+00	0	34	0	1995440128	56	4290
2026-01-17 00:15:06.12	186.24	20.74	-42.9	-43.9	20.6	0.00e+00	0	34	0	1998585856	56	4259
2026-01-17 00:15:07.13	186.31	20.61	-43.0	-43.9	20.6	0.00e+00	0	34	0	2001731584	56	4269
2026-01-17 00:15:08.14	186.37	20.48	-42.9	-43.9	20.6	0.00e+00	0	34	0	2004877312	56	4261
2026-01-17 00:15:09.15	186.43	20.35	-43.1	-44.1	20.4	0.00e+00	0	34	0	2008023040	56	4361
2026-01-17 00:15:10.16	186.49	20.22	-43.3	-44.3	20.2	0.00e+00	0	34	0	2011168768	57	4221
2026-01-17 00:15:11.16	186.54	20.09	-43.0	-44.0	20.5	0.00e+00	0	34	0	2014314496	57	4073
2026-01-17 00:15:12.17	186.60	19.96	-42.9	-43.9	20.5	0.00e+00	0	34	0	2017460224	57	4026
2026-01-17 00:15:13.18	186.66	19.83	-43.0	-43.9	20.5	0.00e+00	0	34	0	2020605952	57	4050
2026-01-17 00:15:14.19	186.72	19.71	-43.0	-44.0	20.5	0.00e+00	0	34	0	2023751680	57	4063
2026-01-17 00:15:15.20	186.78	19.58	-43.0	-43.9	20.4	0.00e+00	0	34	0	2026897408	57	4050
2026-01-17 00:15:16.21	186.83	19.45	-43.0	-43.9	20.4	0.00e+00	0	34	0	2030043136	57	4039
2026-01-17 00:15:17.21	186.89	19.33	-43.0	-44.0	20.4	0.00e+00	0	34	0	2033188864	57	4080
2026-01-17 00:15:18.22	186.95	19.20	-43.0	-44.0	20.4	0.00e+00	0	34	0	2036334592	57	4064
2026-01-17 00:15:19.23	187.00	19.08	-43.1	-44.1	20.3	0.00e+00	0	34	0	2039480320	57	4099
2026-01-17 00:15:20.24	187.06	18.95	-43.0	-44.0	20.4	0.00e+00	0	34	0	2042626048	57	4054
2026-01-17 00:15:21.25	187.11	18.83	-43.1	-44.1	20.3	0.00e+00	0	34	0	2045771776	57	4119
2026-01-17 00:15:22.26	187.17	18.71	-43.0	-44.0	20.4	0.00e+00	0	34	0	2048917504	57	4052
2026-01-17 00:15:23.27	187.22	18.59	-43.1	-44.1	20.3	0.00e+00	0	34	0	2052063232	57	4110
2026-01-17 00:15:24.28	187.27	18.46	-43.1	-44.1	20.3	0.00e+00	0	34	0	2055208960	57	4115
2026-01-17 00:15:25.29	187.33	18.34	-43.1	-44.1	20.2	0.00e+00	0	34	0	2058354688	57	4110
2026-01-17 00:15:26.29	187.38	18.22	-43.3	-44.3	20.0	0.00e+00	0	34	0	2061500416	57	4231
2026-01-17 00:15:27.30	187.43	18.10	-43.3	-44.3	20.0	0.00e+00	0	34	0	2064646144	57	4213
2026-01-17 00:15:28.31	187.48	17.98	-43.1	-44.1	20.2	0.00e+00	0	34	0	2067791872	57	4111
2026-01-17 00:15:29.32	187.54	17.87	-43.2	-44.2	20.1	0.00e+00	0	34	0	2070937600	57	4154
2026-01-17 00:15:30.33	187.59	17.75	-43.1	-44.1	20.2	0.00e+00	0	34	0	2074083328	57	4114
2026-01-17 00:15:31.34	187.64	17.63	-43.1	-44.0	20.2	0.00e+00	0	34	0	2077229056	57	4094
2026-01-17 00:15:32.34	187.69	17.51	-43.3	-44.3	20.1	0.00e+00	0	34	0	2080374784	57	4196
2026-01-17 00:15:33.35	187.74	17.40	-43.2	-44.1	20.2	0.00e+00	0	34	0	2083520512	57	4143
2026-01-17 00:15:34.36	187.79	17.28	-43.1	-44.1	20.2	0.00e+00	0	34	0	2086666240	57	4120
2026-01-17 00:15:35.37	187.84	17.17	-43.2	-44.2	20.1	0.00e+00	0	34	0	2089811968	57	4182
2026-01-17 00:15:36.38	187.89	17.05	-43.2	-44.2	20.2	0.00e+00	0	34	0	2092957696	57	4155
2026-01-17 00:15:37.39	187.94	16.94	-43.3	-44.3	20.0	0.00e+00	0	34	0	2096103424	57	4217
2026-01-17 00:15:38.40	187.98	16.82	-43.4	-44.4	19.9	0.00e+00	0	34	0	2099249152	57	4289
2026-01-17 00:15:39.41	188.03	16.71	-43.4	-44.4	19.9	0.00e+00	0	34	0	2102394880	57	4274
2026-01-17 00:15:40.42	188.08	16.60	-43.3	-44.3	20.0	0.00e+00	0	34	0	2105540608	57	4241
2026-01-17 00:15:41.43	188.13	16.48	-43.4	-44.4	20.0	0.00e+00	0	34	0	2108686336	57	4275
2026-01-17 00:15:42.44	188.18	16.37	-43.3	-44.2	20.1	0.00e+00	0	34	0	2111832064	57	4190
2026-01-17 00:15:43.44	188.22	16.26	-43.3	-44.3	20.0	0.00e+00	0	34	0	2114977792	57	4235
