passes_logs/2026/01/12/PlanumMoscow/PlanumMoscow__20260112_073850_METOP-C_rec.log

#Pass ID: 20260112_073850_METOP-C
#Satellite: METOP-C
#Configuration: METOP-C
#Start time: 2026-01-12 07:38:55.724941

#LorettStation: 1.0.0 05.05.2024
#Station: PlanumMoscow
#Location: 37.6253844 lon 55.6713361 lat
#TLE: 1 43689U 18087A   25293.88981035  .00000265  00000+0  14109-3 0  9997
#TLE: 2 43689  98.7006 352.4487 0002041 122.1097 238.0279 14.21482740360838

#Time	Az	El	Level	SNR
2026-01-12 07:42:34.149551	20.9	29.2	-60.8	0.0
2026-01-12 07:42:35.271813	21.0	29.5	-60.6	0.0
2026-01-12 07:42:36.393074	21.0	29.7	-63.3	0.0
2026-01-12 07:42:37.515833	21.1	29.9	-63.0	0.0
2026-01-12 07:42:38.637590	21.1	30.1	-63.7	0.0
2026-01-12 07:42:39.759844	21.2	30.3	-62.2	0.0
2026-01-12 07:42:40.881106	21.2	30.5	-60.5	0.0
2026-01-12 07:42:42.003368	21.2	30.7	-61.1	0.0
2026-01-12 07:42:43.127126	21.3	31.0	-61.4	0.0
2026-01-12 07:42:44.249379	21.3	31.2	-62.4	0.0
2026-01-12 07:42:45.371137	21.4	31.4	-61.8	0.0
2026-01-12 07:42:46.491906	21.4	31.6	-61.0	0.0
2026-01-12 07:42:47.613664	21.5	31.9	-61.2	0.0
2026-01-12 07:42:48.734925	21.5	32.1	-62.5	0.0
2026-01-12 07:42:49.857179	21.5	32.3	-60.8	0.0
2026-01-12 07:42:50.979432	21.6	32.5	-61.4	0.0
2026-01-12 07:42:52.101191	21.6	32.8	-60.8	0.0
2026-01-12 07:42:53.222948	21.7	33.0	-61.6	0.0
2026-01-12 07:42:54.344215	21.7	33.3	-62.0	0.0
2026-01-12 07:42:55.465972	21.8	33.5	-61.0	0.0
2026-01-12 07:42:56.587730	21.8	33.7	-61.0	0.0
2026-01-12 07:42:57.709488	21.9	34.0	-61.3	0.0
2026-01-12 07:42:58.831742	21.9	34.2	-61.1	0.0
2026-01-12 07:42:59.953500	22.0	34.5	-60.7	0.0
2026-01-12 07:43:01.075259	22.1	34.7	-59.2	0.0
2026-01-12 07:43:02.197017	22.1	35.0	-60.9	0.0
2026-01-12 07:43:03.319774	22.2	35.2	-60.3	0.0
2026-01-12 07:43:04.441036	22.2	35.5	-59.3	0.0
2026-01-12 07:43:05.562803	22.3	35.7	-60.5	0.0
2026-01-12 07:43:06.684066	22.3	36.0	-60.5	0.0
2026-01-12 07:43:07.804834	22.4	36.2	-61.6	0.0
2026-01-12 07:43:08.926601	22.4	36.5	-61.1	0.0
2026-01-12 07:43:10.047872	22.5	36.8	-61.0	0.0
2026-01-12 07:43:11.168639	22.6	37.0	-57.7	0.0
2026-01-12 07:43:12.289405	22.6	37.3	-60.6	0.0
2026-01-12 07:43:13.412162	22.7	37.6	-60.0	0.0
2026-01-12 07:43:14.534416	22.8	37.9	-60.2	0.0
2026-01-12 07:43:15.656174	22.8	38.1	-58.9	0.0
2026-01-12 07:43:16.778427	22.9	38.4	-59.9	0.0
2026-01-12 07:43:17.900185	23.0	38.7	-59.8	0.0
2026-01-12 07:43:19.022438	23.0	39.0	-60.4	0.0
2026-01-12 07:43:20.144196	23.1	39.3	-60.0	0.0
2026-01-12 07:43:21.268963	23.2	39.6	-59.0	0.0
2026-01-12 07:43:22.390224	23.2	39.8	-61.1	0.0
2026-01-12 07:43:23.511486	23.3	40.1	-60.1	0.0
2026-01-12 07:43:24.632253	23.4	40.4	-60.5	0.0
2026-01-12 07:43:25.753514	23.5	40.7	-60.4	0.0
2026-01-12 07:43:26.874280	23.5	41.0	-61.4	0.0
2026-01-12 07:43:27.996542	23.6	41.3	-60.3	0.0
2026-01-12 07:43:29.121805	23.7	41.6	-59.7	0.0
2026-01-12 07:43:30.244058	23.8	41.9	-59.6	0.0
2026-01-12 07:43:31.366312	23.8	42.3	-59.1	0.0
2026-01-12 07:43:32.488565	23.9	42.6	-59.9	0.0
2026-01-12 07:43:33.610323	24.0	42.9	-61.5	0.0
2026-01-12 07:43:34.732576	24.1	43.2	-59.0	0.0
2026-01-12 07:43:35.853838	24.2	43.5	-60.6	0.0
2026-01-12 07:43:36.976595	24.3	43.8	-60.5	0.0
2026-01-12 07:43:38.098352	24.4	44.2	-59.4	0.0
2026-01-12 07:43:39.219615	24.5	44.5	-60.1	0.0
2026-01-12 07:43:40.341868	24.6	44.8	-59.8	0.0
2026-01-12 07:43:41.463626	24.7	45.2	-60.1	0.0
2026-01-12 07:43:42.585880	24.8	45.5	-61.8	0.0
2026-01-12 07:43:43.707637	24.9	45.8	-59.4	0.0
2026-01-12 07:43:44.828899	25.0	46.2	-59.7	0.0
2026-01-12 07:43:45.950161	25.1	46.5	-59.8	0.0
2026-01-12 07:43:47.072414	25.2	46.9	-59.5	0.0
2026-01-12 07:43:48.194172	25.3	47.2	-61.6	0.0
2026-01-12 07:43:49.315929	25.4	47.6	-60.4	0.0
2026-01-12 07:43:50.438183	25.5	47.9	-61.2	0.0
2026-01-12 07:43:51.559941	25.6	48.3	-61.2	0.0
2026-01-12 07:43:52.683699	25.8	48.7	-61.5	0.0
2026-01-12 07:43:53.804960	25.9	49.0	-60.1	0.0
2026-01-12 07:43:54.927223	26.0	49.4	-58.9	0.0
2026-01-12 07:43:56.048980	26.1	49.8	-60.9	0.0
2026-01-12 07:43:57.171242	26.3	50.1	-60.6	0.0
2026-01-12 07:43:58.293495	26.4	50.5	-61.8	0.0
2026-01-12 07:43:59.415748	26.5	50.9	-61.2	0.0
2026-01-12 07:44:00.537011	26.7	51.3	-60.7	0.0
2026-01-12 07:44:01.659264	26.8	51.7	-62.1	0.0
2026-01-12 07:44:02.781022	27.0	52.0	-61.8	0.0
2026-01-12 07:44:03.903275	27.1	52.4	-61.9	0.0
2026-01-12 07:44:05.025528	27.3	52.8	-61.2	0.0
2026-01-12 07:44:06.146791	27.5	53.2	-62.3	0.0
2026-01-12 07:44:07.268549	27.6	53.6	-62.8	0.0
2026-01-12 07:44:08.390306	27.8	54.0	-61.9	0.0
2026-01-12 07:44:09.511568	28.0	54.4	-62.6	0.0
2026-01-12 07:44:10.633822	28.2	54.8	-61.9	0.0
2026-01-12 07:44:11.755579	28.3	55.3	-61.8	0.0
2026-01-12 07:44:12.876840	28.5	55.7	-62.7	0.0
2026-01-12 07:44:13.998112	28.7	56.1	-63.5	0.0
2026-01-12 07:44:15.120870	28.9	56.5	-62.5	0.0
2026-01-12 07:44:16.241636	29.1	56.9	-61.1	0.0
2026-01-12 07:44:17.363889	29.4	57.4	-63.2	0.0
2026-01-12 07:44:18.485647	29.6	57.8	-63.2	0.0
2026-01-12 07:44:19.608405	29.8	58.2	-61.4	0.0
2026-01-12 07:44:20.730658	30.0	58.7	-63.6	0.0
2026-01-12 07:44:21.851920	30.3	59.1	-63.8	0.0
2026-01-12 07:44:22.974173	30.5	59.5	-64.2	0.0
2026-01-12 07:44:24.094940	30.8	60.0	-64.4	0.0
2026-01-12 07:44:25.215707	31.1	60.4	-64.5	0.0
2026-01-12 07:44:26.337960	31.4	60.9	-63.5	0.0
2026-01-12 07:44:27.459718	31.6	61.3	-63.7	0.0
2026-01-12 07:44:28.581476	31.9	61.8	-64.1	0.0
2026-01-12 07:44:29.703233	32.3	62.2	-64.2	0.0
2026-01-12 07:44:30.824991	32.6	62.7	-64.6	0.0
2026-01-12 07:44:31.946253	32.9	63.2	-65.3	0.0
2026-01-12 07:44:33.068010	33.3	63.6	-64.3	0.0
2026-01-12 07:44:34.190264	33.6	64.1	-65.1	0.0
2026-01-12 07:44:35.312021	34.0	64.5	-64.8	0.0
2026-01-12 07:44:36.434275	34.4	65.0	-65.5	0.0
2026-01-12 07:44:37.556528	34.8	65.5	-65.7	0.0
2026-01-12 07:44:38.677790	35.2	66.0	-65.9	0.0
2026-01-12 07:44:39.799548	35.7	66.4	-65.3	0.0
2026-01-12 07:44:40.921305	36.1	66.9	-65.7	0.0
2026-01-12 07:44:42.043559	36.6	67.4	-65.9	0.0
2026-01-12 07:44:43.164821	37.1	67.9	-65.3	0.0
2026-01-12 07:44:44.286578	37.7	68.3	-65.8	0.0
2026-01-12 07:44:45.408831	38.2	68.8	-66.2	0.0
2026-01-12 07:44:46.529597	38.8	69.3	-66.1	0.0
2026-01-12 07:44:47.650860	39.5	69.8	-66.7	0.0
2026-01-12 07:44:48.777122	40.1	70.3	-66.3	0.0
2026-01-12 07:44:49.898889	40.8	70.7	-66.1	0.0
2026-01-12 07:44:51.021151	41.5	71.2	-66.2	0.0
2026-01-12 07:44:52.143404	42.3	71.7	-67.4	0.0
2026-01-12 07:44:53.264668	43.1	72.2	-67.7	0.0
2026-01-12 07:44:54.385930	43.9	72.7	-66.5	0.0
2026-01-12 07:44:55.506698	44.8	73.1	-66.6	0.0
2026-01-12 07:44:56.628455	45.8	73.6	-67.0	0.0
2026-01-12 07:44:57.749717	46.8	74.1	-67.2	0.0
2026-01-12 07:44:58.871971	47.9	74.5	-67.2	0.0
2026-01-12 07:44:59.993233	49.1	75.0	-67.5	0.0
2026-01-12 07:45:01.114494	50.3	75.5	-67.2	0.0
2026-01-12 07:45:02.236252	51.6	75.9	-66.9	0.0
2026-01-12 07:45:03.357515	53.0	76.4	-67.4	0.0
2026-01-12 07:45:04.479768	54.5	76.8	-67.2	0.0
2026-01-12 07:45:05.601031	56.1	77.2	-67.3	0.0
2026-01-12 07:45:06.723293	57.8	77.7	-67.5	0.0
2026-01-12 07:45:07.844594	59.7	78.1	-67.6	0.0
2026-01-12 07:45:08.965361	61.6	78.5	-67.9	0.0
2026-01-12 07:45:10.087118	63.8	78.9	-67.8	0.0
2026-01-12 07:45:11.208381	66.0	79.2	-68.2	0.0
2026-01-12 07:45:12.330634	68.5	79.6	-68.2	0.0
2026-01-12 07:45:13.451925	71.1	79.9	-68.1	0.0
2026-01-12 07:45:14.574179	73.8	80.3	-68.1	0.0
2026-01-12 07:45:15.696441	76.8	80.5	-68.2	0.0
2026-01-12 07:45:16.818207	80.0	80.8	-68.7	0.0
2026-01-12 07:45:17.939508	83.3	81.0	-68.8	0.0
2026-01-12 07:45:19.060770	86.8	81.3	-68.9	0.0
2026-01-12 07:45:20.182535	90.4	81.4	-69.1	0.0
2026-01-12 07:45:21.304293	94.2	81.6	-68.8	0.0
2026-01-12 07:45:22.426555	98.1	81.7	-69.4	0.0
2026-01-12 07:45:23.548351	102.1	81.7	-69.4	0.0
2026-01-12 07:45:24.670604	106.1	81.7	-68.9	0.0
2026-01-12 07:45:25.792362	110.1	81.7	-69.4	0.0
2026-01-12 07:45:26.915120	114.1	81.7	-69.6	0.0
2026-01-12 07:45:28.035924	118.0	81.6	-69.2	0.0
2026-01-12 07:45:29.158682	121.8	81.4	-69.4	0.0
2026-01-12 07:45:30.280944	125.5	81.3	-69.9	0.0
2026-01-12 07:45:31.402701	129.0	81.1	-69.6	0.0
2026-01-12 07:45:32.524955	132.3	80.8	-70.2	0.0
2026-01-12 07:45:33.646256	135.5	80.6	-70.5	0.0
2026-01-12 07:45:34.767518	138.5	80.3	-70.1	0.0
2026-01-12 07:45:35.888292	141.3	80.0	-70.4	0.0
2026-01-12 07:45:37.010555	143.9	79.6	-70.4	0.0
2026-01-12 07:45:38.131848	146.3	79.3	-70.5	0.0
2026-01-12 07:45:39.254101	148.6	78.9	-70.1	0.0
2026-01-12 07:45:40.375372	150.7	78.5	-70.5	0.0
2026-01-12 07:45:41.496635	152.7	78.1	-70.5	0.9
2026-01-12 07:45:42.617897	154.6	77.7	-70.6	0.6
2026-01-12 07:45:43.739192	156.3	77.3	-70.3	0.0
2026-01-12 07:45:44.863446	157.9	76.8	-70.3	0.9
2026-01-12 07:45:45.985213	159.4	76.4	-70.1	2.9
2026-01-12 07:45:47.106528	160.8	75.9	-70.3	3.5
2026-01-12 07:45:48.228782	162.1	75.5	-69.7	1.9
2026-01-12 07:45:49.350045	163.4	75.0	-70.2	1.5
2026-01-12 07:45:50.471802	164.5	74.6	-70.2	1.7
2026-01-12 07:45:51.594064	165.6	74.1	-70.3	0.0
2026-01-12 07:45:52.715327	166.6	73.6	-70.6	0.0
2026-01-12 07:45:53.837114	167.6	73.2	-71.0	0.0
2026-01-12 07:45:54.958377	168.5	72.7	-70.9	0.0
2026-01-12 07:45:56.079648	169.4	72.2	-70.9	0.0
2026-01-12 07:45:57.201910	170.2	71.7	-70.8	0.0
2026-01-12 07:45:58.322214	170.9	71.2	-70.5	0.0
2026-01-12 07:45:59.443973	171.7	70.8	-71.1	0.0
2026-01-12 07:46:00.564244	172.4	70.3	-71.2	0.0
2026-01-12 07:46:01.686001	173.0	69.8	-71.1	0.0
2026-01-12 07:46:02.807768	173.6	69.3	-71.6	0.0
2026-01-12 07:46:03.928088	174.2	68.8	-71.2	0.0
2026-01-12 07:46:05.050342	174.8	68.4	-71.3	0.0
2026-01-12 07:46:06.172100	175.3	67.9	-71.2	0.0
2026-01-12 07:46:07.293857	175.8	67.4	-71.0	0.0
2026-01-12 07:46:08.415119	176.3	66.9	-70.9	0.0
2026-01-12 07:46:09.537916	176.8	66.4	-71.2	0.0
2026-01-12 07:46:10.659178	177.2	66.0	-71.2	0.0
2026-01-12 07:46:11.780448	177.7	65.5	-70.9	0.0
2026-01-12 07:46:12.901216	178.1	65.0	-70.9	0.0
2026-01-12 07:46:14.021517	178.5	64.5	-70.8	0.0
2026-01-12 07:46:15.143275	178.9	64.1	-70.7	0.0
2026-01-12 07:46:16.264547	179.2	63.6	-70.6	0.0
2026-01-12 07:46:17.386335	179.6	63.1	-70.8	0.0
2026-01-12 07:46:18.507597	179.9	62.7	-70.5	0.0
2026-01-12 07:46:19.629395	180.2	62.2	-70.4	0.0
2026-01-12 07:46:20.751649	180.5	61.8	-70.3	0.0
2026-01-12 07:46:21.873415	180.8	61.3	-70.2	0.0
2026-01-12 07:46:22.995679	181.1	60.9	-70.3	0.0
2026-01-12 07:46:24.117932	181.4	60.4	-70.3	0.0
2026-01-12 07:46:25.239719	181.7	60.0	-69.8	0.0
2026-01-12 07:46:26.360486	181.9	59.5	-69.9	0.0
2026-01-12 07:46:27.482276	182.2	59.1	-70.2	0.0
2026-01-12 07:46:28.604032	182.4	58.6	-69.9	0.0
2026-01-12 07:46:29.725819	182.7	58.2	-69.9	0.0
2026-01-12 07:46:30.847577	182.9	57.8	-69.4	0.0
2026-01-12 07:46:31.969335	183.1	57.3	-69.5	0.0
2026-01-12 07:46:33.091596	183.3	56.9	-69.2	0.0
2026-01-12 07:46:34.213355	183.6	56.5	-69.7	0.0
2026-01-12 07:46:35.334648	183.8	56.1	-69.5	0.0
2026-01-12 07:46:36.455909	184.0	55.6	-69.5	0.0
2026-01-12 07:46:37.577674	184.1	55.2	-69.7	0.0
2026-01-12 07:46:38.699927	184.3	54.8	-69.4	0.0
2026-01-12 07:46:39.821685	184.5	54.4	-69.3	0.0
2026-01-12 07:46:40.942976	184.7	54.0	-68.9	0.0
2026-01-12 07:46:42.065229	184.9	53.6	-69.0	0.0
2026-01-12 07:46:43.186005	185.0	53.2	-69.0	0.0
2026-01-12 07:46:44.308258	185.2	52.8	-69.0	0.0
2026-01-12 07:46:45.428561	185.3	52.4	-68.4	0.0
2026-01-12 07:46:46.550318	185.5	52.0	-68.8	0.0
2026-01-12 07:46:47.672085	185.7	51.6	-68.9	0.0
2026-01-12 07:46:48.793841	185.8	51.2	-69.1	0.0
2026-01-12 07:46:49.916095	185.9	50.8	-68.7	0.0
2026-01-12 07:46:51.036891	186.1	50.4	-69.5	0.0
2026-01-12 07:46:52.158154	186.2	50.1	-69.1	0.0
2026-01-12 07:46:53.280408	186.3	49.7	-68.7	0.0
2026-01-12 07:46:54.402166	186.5	49.3	-68.5	0.0
2026-01-12 07:46:55.524419	186.6	49.0	-67.9	0.0
2026-01-12 07:46:56.646672	186.7	48.6	-68.8	0.0
2026-01-12 07:46:57.767943	186.8	48.2	-67.9	0.0
2026-01-12 07:46:58.890196	187.0	47.9	-68.6	0.0
2026-01-12 07:47:00.012963	187.1	47.5	-67.0	0.0
2026-01-12 07:47:01.135254	187.2	47.1	-66.8	0.0
2026-01-12 07:47:02.257012	187.3	46.8	-68.1	0.0
2026-01-12 07:47:03.379274	187.4	46.4	-67.9	0.0
2026-01-12 07:47:04.501031	187.5	46.1	-68.4	0.0
2026-01-12 07:47:05.622789	187.6	45.8	-68.1	0.0
2026-01-12 07:47:06.744101	187.7	45.4	-68.6	0.0
2026-01-12 07:47:07.869365	187.8	45.1	-68.3	0.0
2026-01-12 07:47:08.992626	187.9	44.7	-68.4	0.0
2026-01-12 07:47:10.114384	188.0	44.4	-68.5	0.0
2026-01-12 07:47:11.235181	188.1	44.1	-67.2	0.0
2026-01-12 07:47:12.356940	188.2	43.8	-67.3	0.0
2026-01-12 07:47:13.478209	188.3	43.4	-66.4	0.0
2026-01-12 07:47:14.599988	188.4	43.1	-66.9	0.0
2026-01-12 07:47:15.720755	188.5	42.8	-68.2	0.0
2026-01-12 07:47:16.842017	188.6	42.5	-66.2	0.0
2026-01-12 07:47:17.964270	188.6	42.2	-66.8	0.0
2026-01-12 07:47:19.085541	188.7	41.8	-66.6	0.0
2026-01-12 07:47:20.207795	188.8	41.5	-67.8	0.0
2026-01-12 07:47:21.328630	188.9	41.2	-68.0	0.0
2026-01-12 07:47:22.450884	189.0	40.9	-67.0	0.0
2026-01-12 07:47:23.572650	189.0	40.6	-68.0	0.0
2026-01-12 07:47:24.694903	189.1	40.3	-68.1	0.0
2026-01-12 07:47:25.817157	189.2	40.0	-67.2	0.0
2026-01-12 07:47:26.939448	189.3	39.7	-66.1	0.0
2026-01-12 07:47:28.062206	189.3	39.4	-66.4	0.0
2026-01-12 07:47:29.183469	189.4	39.2	-64.7	0.0
2026-01-12 07:47:30.305723	189.5	38.9	-66.6	0.0
2026-01-12 07:47:31.427529	189.5	38.6	-67.1	0.0
2026-01-12 07:47:32.548295	189.6	38.3	-65.2	0.0
2026-01-12 07:47:33.670548	189.7	38.0	-63.8	0.0
2026-01-12 07:47:34.792810	189.7	37.7	-66.1	0.0
2026-01-12 07:47:35.915094	189.8	37.5	-65.1	0.0
2026-01-12 07:47:37.037347	189.8	37.2	-66.4	0.0
2026-01-12 07:47:38.159106	189.9	36.9	-66.1	0.0
2026-01-12 07:47:39.280375	190.0	36.7	-66.1	0.0
2026-01-12 07:47:40.406134	190.0	36.4	-65.7	0.0
2026-01-12 07:47:41.527892	190.1	36.1	-65.5	0.0
2026-01-12 07:47:42.650184	190.1	35.9	-66.8	0.0
2026-01-12 07:47:43.771445	190.2	35.6	-64.9	0.0
2026-01-12 07:47:44.893706	190.3	35.3	-66.6	0.0
2026-01-12 07:47:46.015959	190.3	35.1	-65.4	0.0
2026-01-12 07:47:47.137755	190.4	34.8	-66.9	0.0
2026-01-12 07:47:48.263018	190.4	34.6	-65.7	0.0
2026-01-12 07:47:49.384783	190.5	34.3	-66.2	0.0
2026-01-12 07:47:50.506541	190.5	34.1	-66.4	0.0
2026-01-12 07:47:51.628795	190.6	33.8	-66.7	0.0
2026-01-12 07:47:52.749111	190.6	33.6	-66.0	0.0
2026-01-12 07:47:53.871365	190.7	33.3	-67.1	0.0
2026-01-12 07:47:54.993627	190.7	33.1	-61.2	0.0
2026-01-12 07:47:56.115384	190.8	32.9	-62.2	0.0
2026-01-12 07:47:57.236703	190.8	32.6	-60.6	0.0
2026-01-12 07:47:58.358462	190.9	32.4	-64.0	0.0
2026-01-12 07:47:59.480220	190.9	32.2	-66.5	0.0
2026-01-12 07:48:00.601490	191.0	31.9	-66.5	0.0
2026-01-12 07:48:01.723752	191.0	31.7	-66.6	0.0
2026-01-12 07:48:02.846051	191.1	31.5	-64.4	0.0
2026-01-12 07:48:03.967313	191.1	31.3	-61.5	0.0
2026-01-12 07:48:05.089071	191.1	31.0	-60.2	0.0
2026-01-12 07:48:06.210829	191.2	30.8	-66.0	0.0
2026-01-12 07:48:07.333145	191.2	30.6	-65.3	0.0
2026-01-12 07:48:08.454903	191.3	30.4	-65.4	0.0
2026-01-12 07:48:09.577165	191.3	30.1	-65.6	0.0
2026-01-12 07:48:10.698955	191.4	29.9	-66.1	0.0
2026-01-12 07:48:11.821208	191.4	29.7	-65.7	0.0
2026-01-12 07:48:12.942966	191.4	29.5	-66.0	0.0
2026-01-12 07:48:14.068724	191.5	29.3	-65.3	0.0
2026-01-12 07:48:15.190986	191.5	29.1	-65.4	0.0
2026-01-12 07:48:16.312744	191.6	28.9	-65.5	0.0
2026-01-12 07:48:17.435036	191.6	28.7	-65.4	0.0
2026-01-12 07:48:18.557289	191.6	28.5	-65.6	0.0
2026-01-12 07:48:19.679543	191.7	28.3	-64.9	0.0
2026-01-12 07:48:20.801796	191.7	28.1	-60.7	0.0
2026-01-12 07:48:21.930556	191.7	27.9	-60.2	0.0
2026-01-12 07:48:23.052313	191.8	27.7	-61.2	0.0
2026-01-12 07:48:24.174566	191.8	27.5	-61.7	0.0
2026-01-12 07:48:25.295829	191.8	27.3	-65.4	0.0
2026-01-12 07:48:26.418083	191.9	27.1	-65.0	0.0
2026-01-12 07:48:27.539872	191.9	26.9	-64.7	0.0
2026-01-12 07:48:28.661629	192.0	26.7	-64.4	0.0
2026-01-12 07:48:29.783395	192.0	26.5	-63.8	0.0
2026-01-12 07:48:30.905648	192.0	26.3	-65.9	1.1
2026-01-12 07:48:32.027901	192.1	26.1	-64.5	1.4
2026-01-12 07:48:33.149193	192.1	25.9	-63.6	0.0
2026-01-12 07:48:34.271447	192.1	25.7	-65.3	0.0
2026-01-12 07:48:35.393708	192.2	25.6	-62.1	0.0
2026-01-12 07:48:36.515962	192.2	25.4	-66.1	0.0
2026-01-12 07:48:37.637255	192.2	25.2	-64.8	2.6
2026-01-12 07:48:38.761517	192.2	25.0	-64.5	0.0
2026-01-12 07:48:39.883770	192.3	24.8	-63.7	3.0
2026-01-12 07:48:41.006024	192.3	24.7	-65.1	0.0
2026-01-12 07:48:42.127803	192.3	24.5	-63.8	0.0
2026-01-12 07:48:43.249065	192.4	24.3	-60.8	0.0
2026-01-12 07:48:44.371318	192.4	24.1	-64.9	2.1
2026-01-12 07:48:45.493115	192.4	24.0	-63.4	1.9
2026-01-12 07:48:46.615872	192.5	23.8	-62.8	0.0
2026-01-12 07:48:47.738660	192.5	23.6	-62.8	0.0
2026-01-12 07:48:48.860418	192.5	23.4	-62.0	0.0
2026-01-12 07:48:49.982671	192.5	23.3	-64.4	0.0
2026-01-12 07:48:51.104933	192.6	23.1	-61.8	0.0
2026-01-12 07:48:52.227187	192.6	22.9	-64.2	0.0
2026-01-12 07:48:53.349478	192.6	22.8	-65.7	2.6
2026-01-12 07:48:54.472743	192.7	22.6	-63.2	0.0
2026-01-12 07:48:55.597509	192.7	22.4	-60.8	0.0
2026-01-12 07:48:56.719267	192.7	22.3	-61.6	0.0
2026-01-12 07:48:57.841521	192.7	22.1	-65.1	4.5
2026-01-12 07:48:58.963812	192.8	22.0	-64.9	4.0
2026-01-12 07:49:00.086066	192.8	21.8	-65.4	3.2
2026-01-12 07:49:01.208327	192.8	21.6	-64.7	3.4
2026-01-12 07:49:02.330085	192.8	21.5	-64.4	2.0
2026-01-12 07:49:03.450387	192.9	21.3	-64.5	0.0
2026-01-12 07:49:04.572640	192.9	21.2	-65.0	0.0
2026-01-12 07:49:05.694902	192.9	21.0	-64.6	2.6
2026-01-12 07:49:06.817156	192.9	20.9	-64.3	4.7
2026-01-12 07:49:07.939409	193.0	20.7	-65.1	5.6
2026-01-12 07:49:09.061198	193.0	20.6	-64.5	3.3
2026-01-12 07:49:10.183452	193.0	20.4	-64.2	1.4
2026-01-12 07:49:11.304721	193.0	20.3	-63.9	4.9
2026-01-12 07:49:12.426974	193.1	20.1	-63.1	4.7
2026-01-12 07:49:13.549228	193.1	20.0	-62.6	2.2
2026-01-12 07:49:14.673015	193.1	19.8	-64.8	2.8
2026-01-12 07:49:15.795269	193.1	19.7	-64.7	2.4
2026-01-12 07:49:16.917531	193.1	19.5	-64.5	3.7
2026-01-12 07:49:18.039785	193.2	19.4	-64.0	2.2
2026-01-12 07:49:19.161083	193.2	19.2	-63.3	3.9
2026-01-12 07:49:20.282840	193.2	19.1	-63.8	2.1
2026-01-12 07:49:21.405102	193.2	19.0	-64.1	0.0
2026-01-12 07:49:22.527355	193.3	18.8	-63.9	2.7
2026-01-12 07:49:23.649608	193.3	18.7	-63.4	3.2
2026-01-12 07:49:24.771899	193.3	18.5	-64.5	0.0
2026-01-12 07:49:25.894152	193.3	18.4	-64.4	4.1
2026-01-12 07:49:27.016406	193.3	18.3	-63.9	4.9
2026-01-12 07:49:28.138172	193.4	18.1	-64.3	3.4
2026-01-12 07:49:29.259929	193.4	18.0	-64.0	4.2
2026-01-12 07:49:30.382222	193.4	17.8	-63.0	1.3
2026-01-12 07:49:31.504475	193.4	17.7	-63.4	4.9
2026-01-12 07:49:32.626729	193.5	17.6	-63.3	0.0
2026-01-12 07:49:33.748982	193.5	17.4	-62.6	1.0
2026-01-12 07:49:34.871236	193.5	17.3	-62.4	2.4
2026-01-12 07:49:35.998042	193.5	17.2	-62.9	0.0
2026-01-12 07:49:37.120296	193.5	17.0	-64.1	3.6
2026-01-12 07:49:38.241070	193.6	16.9	-64.0	3.9
2026-01-12 07:49:39.363323	193.6	16.8	-63.5	4.2
2026-01-12 07:49:40.485110	193.6	16.7	-63.7	2.8
2026-01-12 07:49:41.607363	193.6	16.5	-63.8	2.6
2026-01-12 07:49:42.729625	193.6	16.4	-64.2	4.6
2026-01-12 07:49:43.851878	193.6	16.3	-64.0	4.3
2026-01-12 07:49:44.973140	193.7	16.1	-64.0	3.3
2026-01-12 07:49:46.094937	193.7	16.0	-64.1	4.4
2026-01-12 07:49:47.217191	193.7	15.9	-64.4	3.3
2026-01-12 07:49:48.339444	193.7	15.8	-64.5	3.3
2026-01-12 07:49:49.460714	193.7	15.6	-64.0	3.8
2026-01-12 07:49:50.582472	193.8	15.5	-63.2	4.7
2026-01-12 07:49:51.704258	193.8	15.4	-64.0	4.1
2026-01-12 07:49:52.826016	193.8	15.3	-64.5	4.4
2026-01-12 07:49:53.948278	193.8	15.2	-64.1	3.7
2026-01-12 07:49:55.070531	193.8	15.0	-63.5	4.0
2026-01-12 07:49:56.192822	193.8	14.9	-64.0	3.1
2026-01-12 07:49:57.315076	193.9	14.8	-64.5	5.2
2026-01-12 07:49:58.437329	193.9	14.7	-64.5	4.8
2026-01-12 07:49:59.559583	193.9	14.6	-62.6	0.0
2026-01-12 07:50:00.681340	193.9	14.4	-63.5	3.6
2026-01-12 07:50:01.804137	193.9	14.3	-63.8	5.8
2026-01-12 07:50:02.926391	194.0	14.2	-63.6	3.9
2026-01-12 07:50:04.048156	194.0	14.1	-64.0	5.3
2026-01-12 07:50:05.169951	194.0	14.0	-64.3	3.5
2026-01-12 07:50:06.291212	194.0	13.9	-63.7	3.5
2026-01-12 07:50:07.412016	194.0	13.7	-64.6	5.0
2026-01-12 07:50:08.533773	194.0	13.6	-63.9	2.7
2026-01-12 07:50:09.661533	194.1	13.5	-63.0	3.7
2026-01-12 07:50:10.783786	194.1	13.4	-63.2	4.2
2026-01-12 07:50:11.905544	194.1	13.3	-61.5	0.7
2026-01-12 07:50:13.026340	194.1	13.2	-63.7	3.7
2026-01-12 07:50:14.148593	194.1	13.1	-63.0	0.4
2026-01-12 07:50:15.270855	194.1	12.9	-63.0	3.3
2026-01-12 07:50:16.393109	194.1	12.8	-64.6	4.5
2026-01-12 07:50:17.519411	194.2	12.7	-62.4	0.0
2026-01-12 07:50:18.640673	194.2	12.6	-62.6	0.0
2026-01-12 07:50:19.762927	194.2	12.5	-64.0	3.7
2026-01-12 07:50:20.885180	194.2	12.4	-62.8	2.2
2026-01-12 07:50:22.007433	194.2	12.3	-60.6	0.0
2026-01-12 07:50:23.128726	194.2	12.2	-60.6	0.0
2026-01-12 07:50:24.250980	194.3	12.1	-61.3	0.0
2026-01-12 07:50:25.374746	194.3	12.0	-61.3	0.0
2026-01-12 07:50:26.498000	194.3	11.9	-61.5	0.0
2026-01-12 07:50:27.619795	194.3	11.8	-61.0	0.0
2026-01-12 07:50:28.742049	194.3	11.7	-61.4	0.0
2026-01-12 07:50:29.864311	194.3	11.5	-63.9	3.3
2026-01-12 07:50:30.986564	194.3	11.4	-63.1	3.1
2026-01-12 07:50:32.108345	194.4	11.3	-63.9	4.5
2026-01-12 07:50:33.230103	194.4	11.2	-63.2	4.7
2026-01-12 07:50:34.356357	194.4	11.1	-63.3	2.3
2026-01-12 07:50:35.478618	194.4	11.0	-62.9	2.1
2026-01-12 07:50:36.600872	194.4	10.9	-62.9	1.6
2026-01-12 07:50:37.723125	194.4	10.8	-63.5	2.5
2026-01-12 07:50:38.845416	194.4	10.7	-62.6	4.4
2026-01-12 07:50:39.967670	194.5	10.6	-63.3	1.9
2026-01-12 07:50:41.089435	194.5	10.5	-60.2	0.0
2026-01-12 07:50:42.210202	194.5	10.4	-63.3	0.1
2026-01-12 07:50:43.331494	194.5	10.3	-63.4	1.9
2026-01-12 07:50:44.453747	194.5	10.2	-63.0	2.5
2026-01-12 07:50:45.576000	194.5	10.1	-62.8	0.0
2026-01-12 07:50:46.698254	194.5	10.0	-63.2	3.7
2026-01-12 07:50:47.820019	194.6	9.9	-63.0	2.0
2026-01-12 07:50:48.940815	194.6	9.8	-62.8	1.7
2026-01-12 07:50:50.063068	194.6	9.7	-62.2	0.0
2026-01-12 07:50:51.187835	194.6	9.6	-62.5	0.0
2026-01-12 07:50:52.310089	194.6	9.5	-62.9	3.2
2026-01-12 07:50:53.431847	194.6	9.4	-62.6	0.0
2026-01-12 07:50:54.595133	194.6	9.3	-63.7	0.0
2026-01-12 07:50:55.716395	194.7	9.2	-62.0	1.4
2026-01-12 07:50:56.838161	194.7	9.2	-63.7	1.8
2026-01-12 07:50:57.960414	194.7	9.1	-63.4	0.0
2026-01-12 07:50:59.081698	194.7	9.0	-63.6	0.0
2026-01-12 07:51:00.203456	194.7	8.9	-61.0	0.8
2026-01-12 07:51:01.325221	194.7	8.8	-62.9	0.0
2026-01-12 07:51:02.447474	194.7	8.7	-61.7	0.0
2026-01-12 07:51:03.569728	194.7	8.6	-62.7	0.5
2026-01-12 07:51:04.692029	194.8	8.5	-62.0	0.0
2026-01-12 07:51:05.814282	194.8	8.4	-62.4	0.0
2026-01-12 07:51:06.936543	194.8	8.3	-58.7	0.0
2026-01-12 07:51:08.058796	194.8	8.2	-60.8	0.0
2026-01-12 07:51:09.181050	194.8	8.1	-60.2	0.0
2026-01-12 07:51:10.302837	194.8	8.0	-61.4	0.0
2026-01-12 07:51:11.425091	194.8	8.0	-62.9	0.0
2026-01-12 07:51:12.546857	194.8	7.9	-62.7	0.0
2026-01-12 07:51:13.670111	194.9	7.8	-62.2	0.0
2026-01-12 07:51:14.792364	194.9	7.7	-62.1	0.0
2026-01-12 07:51:15.914155	194.9	7.6	-60.7	0.0
2026-01-12 07:51:17.036409	194.9	7.5	-62.3	0.0
2026-01-12 07:51:18.158670	194.9	7.4	-62.7	0.0
2026-01-12 07:51:19.280924	194.9	7.3	-61.5	0.0
2026-01-12 07:51:20.402727	194.9	7.2	-62.7	0.0
2026-01-12 07:51:21.524484	194.9	7.1	-62.5	0.0
2026-01-12 07:51:22.646753	194.9	7.1	-63.5	0.0
2026-01-12 07:51:23.769007	195.0	7.0	-62.5	0.0
2026-01-12 07:51:24.891260	195.0	6.9	-63.4	0.0
2026-01-12 07:51:26.013551	195.0	6.8	-63.4	0.0
2026-01-12 07:51:27.135308	195.0	6.7	-60.2	0.0
2026-01-12 07:51:28.257570	195.0	6.6	-63.7	0.0
2026-01-12 07:51:29.379824	195.0	6.5	-62.0	0.0
2026-01-12 07:51:30.503116	195.0	6.5	-63.1	0.0
2026-01-12 07:51:31.625369	195.0	6.4	-62.9	0.0
2026-01-12 07:51:32.747134	195.0	6.3	-60.8	0.0
2026-01-12 07:51:33.868893	195.1	6.2	-62.1	0.0
2026-01-12 07:51:34.991146	195.1	6.1	-62.1	0.0
2026-01-12 07:51:36.112942	195.1	6.0	-62.7	0.6
2026-01-12 07:51:37.235196	195.1	6.0	-65.0	1.7
2026-01-12 07:51:38.356954	195.1	5.9	-68.0	0.0
2026-01-12 07:51:39.478718	195.1	5.8	-69.7	0.0
2026-01-12 07:51:40.600504	195.1	5.7	-70.1	0.0
2026-01-12 07:51:41.722758	195.1	5.6	-71.0	0.0
2026-01-12 07:51:42.845019	195.1	5.5	-71.9	0.0
2026-01-12 07:51:43.967272	195.2	5.5	-71.7	0.0
2026-01-12 07:51:45.089526	195.2	5.4	-71.4	0.0
2026-01-12 07:51:46.210324	195.2	5.3	-70.8	0.0
2026-01-12 07:51:47.332578	195.2	5.2	-71.3	0.0
2026-01-12 07:51:48.454343	195.2	5.1	-71.2	0.0
2026-01-12 07:51:49.576100	195.2	5.0	-71.3	0.0
2026-01-12 07:51:50.698386	195.2	5.0	-71.4	0.0
#Closed at: 2026-01-12 07:38:50.726907