passes_logs/2026/01/12/PlanumMoscow/PlanumMoscow__20260112_105047_METEOR-M2_4_rec.log

#Pass ID: 20260112_105047_METEOR-M2 4
#Satellite: METEOR-M2 4
#Configuration: METEOR-M2 4
#Start time: 2026-01-12 10:50:52.350462

#LorettStation: 1.0.0 05.05.2024
#Station: PlanumMoscow
#Location: 37.6253844 lon 55.6713361 lat
#TLE: 1 59051U 24039A   25293.94737965  .00000087  00000+0  58459-4 0  9998
#TLE: 2 59051  98.6671 251.7071 0007726 135.4772 224.7028 14.22388966 85257

#Time	Az	El	Level	SNR
2026-01-12 10:54:30.791257	134.8	28.6	-63.3	10.7
2026-01-12 10:54:31.913510	134.6	28.8	-64.0	11.3
2026-01-12 10:54:33.035763	134.5	29.0	-63.7	11.3
2026-01-12 10:54:34.157522	134.4	29.2	-64.2	11.3
2026-01-12 10:54:35.279775	134.2	29.4	-64.4	11.3
2026-01-12 10:54:36.401533	134.1	29.6	-63.8	10.4
2026-01-12 10:54:37.523291	133.9	29.8	-63.2	11.0
2026-01-12 10:54:38.645544	133.8	30.0	-63.8	10.6
2026-01-12 10:54:39.767798	133.7	30.2	-63.9	12.4
2026-01-12 10:54:40.889556	133.5	30.4	-63.6	10.8
2026-01-12 10:54:42.011810	133.4	30.6	-63.3	12.0
2026-01-12 10:54:43.133568	133.2	30.8	-63.6	11.8
2026-01-12 10:54:44.257326	133.0	31.0	-63.5	11.6
2026-01-12 10:54:45.381097	132.9	31.2	-63.4	11.6
2026-01-12 10:54:46.503855	132.7	31.4	-63.8	10.1
2026-01-12 10:54:47.625612	132.6	31.6	-64.1	11.8
2026-01-12 10:54:48.747370	132.4	31.9	-64.0	10.9
2026-01-12 10:54:49.868633	132.2	32.1	-64.1	10.7
2026-01-12 10:54:50.990399	132.1	32.3	-63.9	10.8
2026-01-12 10:54:52.112157	131.9	32.5	-63.7	10.3
2026-01-12 10:54:53.233915	131.7	32.7	-63.8	10.9
2026-01-12 10:54:54.355679	131.6	32.9	-63.9	10.9
2026-01-12 10:54:55.477933	131.4	33.1	-64.3	12.1
2026-01-12 10:54:56.599692	131.2	33.4	-64.2	12.0
2026-01-12 10:54:57.721945	131.0	33.6	-63.8	10.6
2026-01-12 10:54:58.843208	130.8	33.8	-64.4	12.1
2026-01-12 10:54:59.966471	130.7	34.0	-64.0	10.8
2026-01-12 10:55:01.087733	130.5	34.3	-64.3	12.2
2026-01-12 10:55:02.209491	130.3	34.5	-64.5	11.8
2026-01-12 10:55:03.331249	130.1	34.7	-63.6	12.2
2026-01-12 10:55:04.453502	129.9	34.9	-63.6	11.6
2026-01-12 10:55:05.575756	129.7	35.2	-63.6	9.7
2026-01-12 10:55:06.697514	129.5	35.4	-64.0	10.4
2026-01-12 10:55:07.819272	129.3	35.6	-63.8	10.2
2026-01-12 10:55:08.941040	129.1	35.9	-62.9	8.3
2026-01-12 10:55:10.062797	128.9	36.1	-63.4	9.9
2026-01-12 10:55:11.185051	128.6	36.3	-63.4	10.9
2026-01-12 10:55:12.307314	128.4	36.6	-63.9	9.8
2026-01-12 10:55:13.429072	128.2	36.8	-64.3	10.9
2026-01-12 10:55:14.550830	128.0	37.0	-63.6	10.2
2026-01-12 10:55:15.673083	127.8	37.3	-63.7	10.1
2026-01-12 10:55:16.794841	127.5	37.5	-63.1	8.2
2026-01-12 10:55:17.917094	127.3	37.8	-63.0	9.3
2026-01-12 10:55:19.038852	127.1	38.0	-64.1	9.2
2026-01-12 10:55:20.164611	126.8	38.3	-63.6	8.5
2026-01-12 10:55:21.287369	126.6	38.5	-64.3	9.9
2026-01-12 10:55:22.408631	126.3	38.8	-63.6	8.1
2026-01-12 10:55:23.530884	126.1	39.0	-63.7	9.9
2026-01-12 10:55:24.652642	125.8	39.3	-64.0	9.8
2026-01-12 10:55:25.774401	125.5	39.5	-63.7	9.7
2026-01-12 10:55:26.897160	125.3	39.8	-64.1	10.5
2026-01-12 10:55:28.018423	125.0	40.0	-63.7	10.3
2026-01-12 10:55:29.143686	124.7	40.3	-62.9	8.1
2026-01-12 10:55:30.265443	124.5	40.5	-63.5	10.2
2026-01-12 10:55:31.386705	124.2	40.8	-63.4	8.6
2026-01-12 10:55:32.508958	123.9	41.0	-63.9	10.1
2026-01-12 10:55:33.630717	123.6	41.3	-63.5	7.7
2026-01-12 10:55:34.751979	123.3	41.6	-63.5	8.6
2026-01-12 10:55:35.874737	123.0	41.8	-63.5	8.1
2026-01-12 10:55:36.997495	122.7	42.1	-62.8	8.3
2026-01-12 10:55:38.118768	122.4	42.4	-63.2	10.2
2026-01-12 10:55:39.240535	122.1	42.6	-63.8	9.4
2026-01-12 10:55:40.360806	121.7	42.9	-63.4	9.5
2026-01-12 10:55:41.482069	121.4	43.1	-62.2	6.6
2026-01-12 10:55:42.603827	121.1	43.4	-62.7	8.1
2026-01-12 10:55:43.725090	120.7	43.7	-63.4	8.3
2026-01-12 10:55:44.848848	120.4	44.0	-63.4	7.2
2026-01-12 10:55:45.971101	120.1	44.2	-63.4	7.7
2026-01-12 10:55:47.093355	119.7	44.5	-62.9	7.2
2026-01-12 10:55:48.215113	119.3	44.8	-63.4	7.1
2026-01-12 10:55:49.336390	119.0	45.0	-62.9	5.3
2026-01-12 10:55:50.458149	118.6	45.3	-64.3	7.7
2026-01-12 10:55:51.580402	118.2	45.6	-63.3	7.8
2026-01-12 10:55:52.702655	117.8	45.8	-63.4	8.1
2026-01-12 10:55:53.824413	117.4	46.1	-63.2	8.5
2026-01-12 10:55:54.946667	117.0	46.4	-63.0	7.6
2026-01-12 10:55:56.068425	116.6	46.7	-63.7	8.8
2026-01-12 10:55:57.190191	116.2	46.9	-63.2	9.8
2026-01-12 10:55:58.312445	115.8	47.2	-63.1	8.7
2026-01-12 10:55:59.434203	115.3	47.5	-63.6	10.0
2026-01-12 10:56:00.555961	114.9	47.8	-63.4	7.7
2026-01-12 10:56:01.677719	114.5	48.0	-62.7	6.8
2026-01-12 10:56:02.799476	114.0	48.3	-62.2	4.3
2026-01-12 10:56:03.921234	113.5	48.6	-63.3	6.1
2026-01-12 10:56:05.042992	113.1	48.8	-63.8	7.2
2026-01-12 10:56:06.165254	112.6	49.1	-63.3	4.9
2026-01-12 10:56:07.287508	112.1	49.4	-61.7	5.2
2026-01-12 10:56:08.408770	111.6	49.7	-63.1	8.1
2026-01-12 10:56:09.529538	111.1	49.9	-62.4	6.4
2026-01-12 10:56:10.651791	110.6	50.2	-62.6	6.9
2026-01-12 10:56:11.772559	110.1	50.5	-62.2	5.9
2026-01-12 10:56:12.894812	109.5	50.7	-62.7	5.1
2026-01-12 10:56:14.017066	109.0	51.0	-62.5	5.7
2026-01-12 10:56:15.138328	108.4	51.3	-62.7	6.9
2026-01-12 10:56:16.260591	107.9	51.5	-63.3	8.2
2026-01-12 10:56:17.382349	107.3	51.8	-62.4	6.5
2026-01-12 10:56:18.504602	106.7	52.0	-62.4	4.7
2026-01-12 10:56:19.626855	106.1	52.3	-62.7	3.5
2026-01-12 10:56:20.748118	105.5	52.5	-63.1	5.1
2026-01-12 10:56:21.869876	104.9	52.8	-62.9	6.7
2026-01-12 10:56:22.991138	104.3	53.1	-62.6	6.1
2026-01-12 10:56:24.112897	103.7	53.3	-63.2	6.6
2026-01-12 10:56:25.235150	103.0	53.6	-62.6	4.6
2026-01-12 10:56:26.357403	102.4	53.8	-63.4	5.8
2026-01-12 10:56:27.478666	101.7	54.0	-62.5	4.3
2026-01-12 10:56:28.600919	101.0	54.3	-62.8	3.3
2026-01-12 10:56:29.722181	100.3	54.5	-62.8	4.3
2026-01-12 10:56:30.843939	99.6	54.7	-62.9	4.6
2026-01-12 10:56:31.965697	98.9	55.0	-62.4	1.6
2026-01-12 10:56:33.087456	98.2	55.2	-62.9	3.6
2026-01-12 10:56:34.209709	97.4	55.4	-63.0	3.8
2026-01-12 10:56:35.330971	96.7	55.6	-62.6	4.1
2026-01-12 10:56:36.453225	95.9	55.9	-63.1	4.7
2026-01-12 10:56:37.574983	95.2	56.1	-63.1	2.8
2026-01-12 10:56:38.696741	94.4	56.3	-63.1	3.7
2026-01-12 10:56:39.818003	93.6	56.5	-64.5	5.8
2026-01-12 10:56:40.939762	92.8	56.7	-63.0	4.7
2026-01-12 10:56:42.062015	92.0	56.9	-63.8	5.4
2026-01-12 10:56:43.182286	91.1	57.0	-61.6	0.8
2026-01-12 10:56:44.304539	90.3	57.2	-62.0	2.5
2026-01-12 10:56:45.426793	89.5	57.4	-63.1	3.8
2026-01-12 10:56:46.548551	88.6	57.6	-63.0	2.4
2026-01-12 10:56:47.670804	87.7	57.7	-62.7	1.8
2026-01-12 10:56:48.792066	86.8	57.9	-62.8	1.1
2026-01-12 10:56:49.914320	85.9	58.0	-62.4	0.1
2026-01-12 10:56:51.036078	85.0	58.2	-63.2	0.5
2026-01-12 10:56:52.157837	84.1	58.3	-63.2	0.3
2026-01-12 10:56:53.280090	83.2	58.5	-63.4	0.1
2026-01-12 10:56:54.401849	82.3	58.6	-63.4	0.7
2026-01-12 10:56:55.524102	81.3	58.7	-63.3	0.0
2026-01-12 10:56:56.645859	80.4	58.8	-62.8	2.1
2026-01-12 10:56:57.768618	79.4	58.9	-63.9	3.4
2026-01-12 10:56:58.890871	78.5	59.0	-62.8	1.8
2026-01-12 10:57:00.012140	77.5	59.1	-63.9	4.2
2026-01-12 10:57:01.134393	76.5	59.2	-63.5	2.8
2026-01-12 10:57:02.256647	75.5	59.3	-64.2	4.0
2026-01-12 10:57:03.377909	74.5	59.3	-63.6	1.8
2026-01-12 10:57:04.499667	73.6	59.4	-64.7	4.9
2026-01-12 10:57:05.622425	72.6	59.5	-64.6	5.3
2026-01-12 10:57:06.744679	71.6	59.5	-64.0	3.0
2026-01-12 10:57:07.865941	70.5	59.5	-64.2	3.2
2026-01-12 10:57:08.986709	69.5	59.6	-63.6	1.8
2026-01-12 10:57:10.107971	68.5	59.6	-63.4	0.0
2026-01-12 10:57:11.229729	67.5	59.6	-63.9	4.3
2026-01-12 10:57:12.351487	66.5	59.6	-63.8	3.4
2026-01-12 10:57:13.473740	65.5	59.6	-63.8	2.3
2026-01-12 10:57:14.595499	64.5	59.6	-63.0	3.3
2026-01-12 10:57:15.717752	63.5	59.6	-64.1	3.2
2026-01-12 10:57:16.839014	62.5	59.5	-63.8	2.8
2026-01-12 10:57:17.961268	61.5	59.5	-63.7	3.4
2026-01-12 10:57:19.083521	60.5	59.5	-63.7	3.7
2026-01-12 10:57:20.205774	59.5	59.4	-63.6	2.6
2026-01-12 10:57:21.328532	58.5	59.3	-63.5	4.3
2026-01-12 10:57:22.450290	57.5	59.3	-63.8	6.0
2026-01-12 10:57:23.572544	56.5	59.2	-62.3	3.6
2026-01-12 10:57:24.694797	55.5	59.1	-63.1	4.2
2026-01-12 10:57:25.816555	54.6	59.0	-62.8	4.2
2026-01-12 10:57:26.939313	53.6	58.9	-63.5	5.1
2026-01-12 10:57:28.061567	52.7	58.8	-63.9	4.8
2026-01-12 10:57:29.184325	51.7	58.7	-63.4	4.6
2026-01-12 10:57:30.306082	50.8	58.6	-63.2	3.3
2026-01-12 10:57:31.427841	49.8	58.5	-62.6	2.8
2026-01-12 10:57:32.549598	48.9	58.3	-62.5	2.6
2026-01-12 10:57:33.671852	48.0	58.2	-62.8	2.5
2026-01-12 10:57:34.794105	47.1	58.1	-63.4	2.5
2026-01-12 10:57:35.916359	46.2	57.9	-63.0	1.8
2026-01-12 10:57:37.038117	45.3	57.7	-63.0	1.7
2026-01-12 10:57:38.159875	44.5	57.6	-63.2	1.7
2026-01-12 10:57:39.281633	43.6	57.4	-63.6	0.8
2026-01-12 10:57:40.403391	42.7	57.2	-63.5	4.3
2026-01-12 10:57:41.525149	41.9	57.1	-62.3	1.9
2026-01-12 10:57:42.645422	41.1	56.9	-61.7	2.1
2026-01-12 10:57:43.766685	40.3	56.7	-63.0	1.8
2026-01-12 10:57:44.887452	39.5	56.5	-63.8	4.9
2026-01-12 10:57:46.010724	38.7	56.3	-63.1	4.0
2026-01-12 10:57:47.132482	37.9	56.1	-62.1	3.4
2026-01-12 10:57:48.255745	37.1	55.9	-62.3	2.2
2026-01-12 10:57:49.378008	36.4	55.7	-62.8	2.8
2026-01-12 10:57:50.498775	35.6	55.4	-62.7	1.3
2026-01-12 10:57:51.620037	34.9	55.2	-62.4	2.0
2026-01-12 10:57:52.740804	34.2	55.0	-62.2	2.8
2026-01-12 10:57:53.864075	33.4	54.8	-62.4	2.0
2026-01-12 10:57:54.985338	32.7	54.5	-62.3	1.2
2026-01-12 10:57:56.106106	32.0	54.3	-62.0	2.3
2026-01-12 10:57:57.227863	31.4	54.1	-59.1	0.0
2026-01-12 10:57:58.349632	30.7	53.8	-60.0	0.0
2026-01-12 10:57:59.472391	30.0	53.6	-60.8	0.0
2026-01-12 10:58:00.594148	29.4	53.3	-61.6	0.9
2026-01-12 10:58:01.716402	28.8	53.1	-62.0	0.6
2026-01-12 10:58:02.838655	28.1	52.8	-61.4	0.5
2026-01-12 10:58:03.960413	27.5	52.6	-61.6	2.0
2026-01-12 10:58:05.082666	26.9	52.3	-62.5	2.4
2026-01-12 10:58:06.204424	26.3	52.1	-61.8	0.0
2026-01-12 10:58:07.326677	25.8	51.8	-61.8	0.9
2026-01-12 10:58:08.448930	25.2	51.5	-62.2	3.3
2026-01-12 10:58:09.570193	24.6	51.3	-61.3	0.0
2026-01-12 10:58:10.692447	24.1	51.0	-61.9	1.1
2026-01-12 10:58:11.813214	23.5	50.8	-61.1	0.0
2026-01-12 10:58:12.934476	23.0	50.5	-61.5	0.0
2026-01-12 10:58:14.055738	22.5	50.2	-60.2	0.0
2026-01-12 10:58:15.177002	22.0	50.0	-60.6	0.5
2026-01-12 10:58:16.298273	21.5	49.7	-60.3	0.0
2026-01-12 10:58:17.421555	21.0	49.4	-60.6	0.0
2026-01-12 10:58:18.543809	20.5	49.2	-61.0	0.0
2026-01-12 10:58:19.665576	20.0	48.9	-62.0	1.0
2026-01-12 10:58:20.786838	19.5	48.6	-60.9	0.0
2026-01-12 10:58:21.908100	19.1	48.3	-60.8	0.0
2026-01-12 10:58:23.029857	18.6	48.1	-61.1	0.4
2026-01-12 10:58:24.150624	18.2	47.8	-60.5	0.9
2026-01-12 10:58:25.272382	17.7	47.5	-60.0	0.0
2026-01-12 10:58:26.396140	17.3	47.3	-60.8	0.0
2026-01-12 10:58:27.518394	16.9	47.0	-60.5	0.0
2026-01-12 10:58:28.640152	16.5	46.7	-61.2	2.8
2026-01-12 10:58:29.762405	16.1	46.4	-60.9	0.6
2026-01-12 10:58:30.883668	15.7	46.2	-60.7	0.0
2026-01-12 10:58:32.005921	15.3	45.9	-60.1	0.1
2026-01-12 10:58:33.127185	14.9	45.6	-61.5	0.0
2026-01-12 10:58:34.248449	14.5	45.4	-61.0	0.0
2026-01-12 10:58:35.369711	14.1	45.1	-62.1	0.6
2026-01-12 10:58:36.490983	13.8	44.8	-61.0	0.4
2026-01-12 10:58:37.612245	13.4	44.6	-61.0	1.2
2026-01-12 10:58:38.733508	13.0	44.3	-61.1	0.0
2026-01-12 10:58:39.854275	12.7	44.0	-61.7	1.0
2026-01-12 10:58:40.976033	12.4	43.7	-60.2	0.6
2026-01-12 10:58:42.097790	12.0	43.5	-59.6	0.0
2026-01-12 10:58:43.220044	11.7	43.2	-61.3	2.5
2026-01-12 10:58:44.342297	11.4	43.0	-61.0	5.3
2026-01-12 10:58:45.464056	11.0	42.7	-61.4	3.6
2026-01-12 10:58:46.586309	10.7	42.4	-57.9	0.0
2026-01-12 10:58:47.708067	10.4	42.2	-59.9	1.5
2026-01-12 10:58:48.829824	10.1	41.9	-62.2	4.6
2026-01-12 10:58:49.952582	9.8	41.6	-61.3	3.5
2026-01-12 10:58:51.074835	9.5	41.4	-61.0	3.6
2026-01-12 10:58:52.196097	9.2	41.1	-60.4	2.7
2026-01-12 10:58:53.317359	8.9	40.9	-60.9	4.1
2026-01-12 10:58:54.439117	8.6	40.6	-61.0	1.7
2026-01-12 10:58:55.559894	8.4	40.4	-61.9	3.6
2026-01-12 10:58:56.682147	8.1	40.1	-59.4	3.8
2026-01-12 10:58:57.804409	7.8	39.9	-59.2	1.4
2026-01-12 10:58:58.926663	7.6	39.6	-62.0	3.4
2026-01-12 10:59:00.047430	7.3	39.3	-61.4	5.1
2026-01-12 10:59:01.168692	7.0	39.1	-60.8	4.5
2026-01-12 10:59:02.290451	6.8	38.9	-60.4	1.2
2026-01-12 10:59:03.412704	6.5	38.6	-61.3	4.8
2026-01-12 10:59:04.534958	6.3	38.4	-61.7	5.5
2026-01-12 10:59:05.658233	6.1	38.1	-62.0	6.1
2026-01-12 10:59:06.781487	5.8	37.9	-61.4	3.1
2026-01-12 10:59:07.903245	5.6	37.6	-62.5	6.2
2026-01-12 10:59:09.025498	5.4	37.4	-61.7	4.1
2026-01-12 10:59:10.149257	5.1	37.1	-60.8	4.4
2026-01-12 10:59:11.271510	4.9	36.9	-59.5	0.7
2026-01-12 10:59:12.392773	4.7	36.7	-59.2	1.8
2026-01-12 10:59:13.514531	4.5	36.4	-62.1	4.7
2026-01-12 10:59:14.636289	4.3	36.2	-61.2	5.5
2026-01-12 10:59:15.757551	4.0	36.0	-61.7	5.2
2026-01-12 10:59:16.879805	3.8	35.7	-61.1	4.4
2026-01-12 10:59:18.002058	3.6	35.5	-61.2	4.3
2026-01-12 10:59:19.123816	3.4	35.3	-62.0	5.5
2026-01-12 10:59:20.245079	3.2	35.0	-62.1	5.1
2026-01-12 10:59:21.366837	3.0	34.8	-61.2	3.1
2026-01-12 10:59:22.488595	2.8	34.6	-60.8	3.5
2026-01-12 10:59:23.610848	2.7	34.4	-61.7	5.4
2026-01-12 10:59:24.732606	2.5	34.1	-60.7	3.2
2026-01-12 10:59:25.854365	2.3	33.9	-61.9	5.9
2026-01-12 10:59:26.976618	2.1	33.7	-59.8	2.8
2026-01-12 10:59:28.097880	1.9	33.5	-61.8	6.7
2026-01-12 10:59:29.219638	1.7	33.3	-61.5	7.0
2026-01-12 10:59:30.340900	1.6	33.0	-61.8	6.3
2026-01-12 10:59:31.462163	1.4	32.8	-60.3	3.0
2026-01-12 10:59:32.584416	1.2	32.6	-61.6	5.6
2026-01-12 10:59:33.706174	1.1	32.4	-62.5	6.2
2026-01-12 10:59:34.828428	0.9	32.2	-61.3	6.3
2026-01-12 10:59:35.950681	0.7	32.0	-61.8	6.2
2026-01-12 10:59:37.071449	0.6	31.8	-61.8	5.7
2026-01-12 10:59:38.193207	0.4	31.6	-61.5	5.9
2026-01-12 10:59:39.314966	0.2	31.3	-61.8	5.6
2026-01-12 10:59:40.436724	0.1	31.1	-61.8	6.2
2026-01-12 10:59:41.558977	359.9	30.9	-59.7	1.5
2026-01-12 10:59:42.680736	359.8	30.7	-62.1	5.5
2026-01-12 10:59:43.802493	359.6	30.5	-62.5	4.6
2026-01-12 10:59:44.924251	359.5	30.3	-62.6	6.4
2026-01-12 10:59:46.045513	359.3	30.1	-61.7	4.5
2026-01-12 10:59:47.167271	359.2	29.9	-61.6	5.1
2026-01-12 10:59:48.289524	359.1	29.7	-62.2	6.6
2026-01-12 10:59:49.411777	358.9	29.5	-61.7	5.9
2026-01-12 10:59:50.533544	358.8	29.3	-62.4	6.3
2026-01-12 10:59:51.655302	358.6	29.1	-61.6	5.1
2026-01-12 10:59:52.776070	358.5	29.0	-61.8	4.8
2026-01-12 10:59:53.897828	358.4	28.8	-61.2	4.5
2026-01-12 10:59:55.020081	358.2	28.6	-62.3	4.9
2026-01-12 10:59:56.141839	358.1	28.4	-61.2	5.5
2026-01-12 10:59:57.263597	358.0	28.2	-60.3	2.6
2026-01-12 10:59:58.385354	357.9	28.0	-61.2	2.8
2026-01-12 10:59:59.507608	357.7	27.8	-62.0	4.1
2026-01-12 11:00:00.629861	357.6	27.6	-61.8	5.5
2026-01-12 11:00:01.751619	357.5	27.4	-61.4	4.1
2026-01-12 11:00:02.873872	357.4	27.3	-62.4	4.3
2026-01-12 11:00:03.995629	357.2	27.1	-61.5	3.2
2026-01-12 11:00:05.117386	357.1	26.9	-61.9	4.2
2026-01-12 11:00:06.239175	357.0	26.7	-61.3	5.9
2026-01-12 11:00:07.360933	356.9	26.5	-60.7	1.9
2026-01-12 11:00:08.483195	356.8	26.4	-61.8	5.5
2026-01-12 11:00:09.604954	356.7	26.2	-62.1	5.2
2026-01-12 11:00:10.729255	356.6	26.0	-62.7	6.5
2026-01-12 11:00:11.852013	356.4	25.8	-61.9	5.1
2026-01-12 11:00:12.973797	356.3	25.7	-62.9	5.9
2026-01-12 11:00:14.096050	356.2	25.5	-63.6	6.0
2026-01-12 11:00:15.218304	356.1	25.3	-62.6	6.0
2026-01-12 11:00:16.340108	356.0	25.2	-61.1	3.0
2026-01-12 11:00:17.462866	355.9	25.0	-61.4	2.7
2026-01-12 11:00:18.588633	355.8	24.8	-62.4	5.6
2026-01-12 11:00:19.710392	355.7	24.6	-62.0	4.4
2026-01-12 11:00:20.831694	355.6	24.5	-63.3	6.8
2026-01-12 11:00:21.952955	355.5	24.3	-61.2	1.3
2026-01-12 11:00:23.074720	355.4	24.1	-61.7	3.8
2026-01-12 11:00:24.196974	355.3	24.0	-61.4	3.9
2026-01-12 11:00:25.319260	355.2	23.8	-61.9	0.3
2026-01-12 11:00:26.441018	355.1	23.7	-62.0	3.7
2026-01-12 11:00:27.562288	355.0	23.5	-61.1	0.0
2026-01-12 11:00:28.683557	354.9	23.3	-62.5	5.0
2026-01-12 11:00:29.804819	354.8	23.2	-63.2	7.2
2026-01-12 11:00:30.926608	354.7	23.0	-62.8	6.3
2026-01-12 11:00:32.048861	354.6	22.9	-63.0	5.4
2026-01-12 11:00:33.170627	354.6	22.7	-62.7	5.9
2026-01-12 11:00:34.291395	354.5	22.6	-62.4	5.6
2026-01-12 11:00:35.412657	354.4	22.4	-63.1	4.8
2026-01-12 11:00:36.534438	354.3	22.2	-63.1	4.2
2026-01-12 11:00:37.656197	354.2	22.1	-62.2	2.6
2026-01-12 11:00:38.777962	354.1	21.9	-62.8	5.0
2026-01-12 11:00:39.899720	354.0	21.8	-62.9	5.1
2026-01-12 11:00:41.021974	354.0	21.6	-63.4	4.1
2026-01-12 11:00:42.143770	353.9	21.5	-62.7	4.6
2026-01-12 11:00:43.265528	353.8	21.3	-63.2	4.8
2026-01-12 11:00:44.387295	353.7	21.2	-63.4	5.4
2026-01-12 11:00:45.510053	353.6	21.0	-62.6	3.3
2026-01-12 11:00:46.632339	353.6	20.9	-62.1	3.3
2026-01-12 11:00:47.753106	353.5	20.7	-63.3	5.7
2026-01-12 11:00:48.875359	353.4	20.6	-62.1	3.8
2026-01-12 11:00:49.997117	353.3	20.5	-63.0	4.5
2026-01-12 11:00:51.119397	353.2	20.3	-63.1	5.0
2026-01-12 11:00:52.241186	353.2	20.2	-61.6	4.3
2026-01-12 11:00:53.366944	353.1	20.0	-62.5	5.5
2026-01-12 11:00:54.488213	353.0	19.9	-62.5	5.5
2026-01-12 11:00:55.610467	352.9	19.7	-63.3	6.6
2026-01-12 11:00:56.731274	352.9	19.6	-61.9	4.5
2026-01-12 11:00:57.853527	352.8	19.5	-63.1	5.7
2026-01-12 11:00:58.975293	352.7	19.3	-63.2	3.0
2026-01-12 11:01:00.097051	352.7	19.2	-63.0	5.5
2026-01-12 11:01:01.219818	352.6	19.1	-62.5	3.6
2026-01-12 11:01:02.342608	352.5	18.9	-62.8	3.4
2026-01-12 11:01:03.464366	352.5	18.8	-62.2	1.6
2026-01-12 11:01:04.586667	352.4	18.7	-62.3	0.3
2026-01-12 11:01:05.708426	352.3	18.5	-62.9	3.8
2026-01-12 11:01:06.829729	352.3	18.4	-62.5	3.5
2026-01-12 11:01:07.952486	352.2	18.3	-62.9	4.4
2026-01-12 11:01:09.074739	352.1	18.1	-63.5	4.9
2026-01-12 11:01:10.198003	352.1	18.0	-62.9	3.8
2026-01-12 11:01:11.320265	352.0	17.9	-62.3	2.7
2026-01-12 11:01:12.442559	351.9	17.7	-62.5	4.8
2026-01-12 11:01:13.563822	351.9	17.6	-62.4	2.3
2026-01-12 11:01:14.686075	351.8	17.5	-61.7	0.4
2026-01-12 11:01:15.807833	351.7	17.3	-62.3	3.8
2026-01-12 11:01:16.929591	351.7	17.2	-62.7	4.6
2026-01-12 11:01:18.054894	351.6	17.1	-62.6	1.8
2026-01-12 11:01:19.176652	351.6	17.0	-63.1	4.5
2026-01-12 11:01:20.298914	351.5	16.8	-62.2	2.6
2026-01-12 11:01:21.421167	351.4	16.7	-61.7	2.2
2026-01-12 11:01:22.542461	351.4	16.6	-62.4	3.4
2026-01-12 11:01:23.664715	351.3	16.5	-63.2	2.7
2026-01-12 11:01:24.785985	351.3	16.3	-63.0	3.0
2026-01-12 11:01:25.906257	351.2	16.2	-62.2	2.5
2026-01-12 11:01:27.028015	351.2	16.1	-62.1	0.7
2026-01-12 11:01:28.149814	351.1	16.0	-63.3	3.2
2026-01-12 11:01:29.272068	351.0	15.9	-64.0	4.9
2026-01-12 11:01:30.392834	351.0	15.7	-63.0	2.7
2026-01-12 11:01:31.515624	350.9	15.6	-61.4	0.7
2026-01-12 11:01:32.636392	350.9	15.5	-61.1	0.0
2026-01-12 11:01:33.757654	350.8	15.4	-62.7	1.8
2026-01-12 11:01:34.878428	350.8	15.3	-62.3	0.1
2026-01-12 11:01:36.000682	350.7	15.1	-61.5	0.0
2026-01-12 11:01:37.122935	350.7	15.0	-63.1	1.3
2026-01-12 11:01:38.245725	350.6	14.9	-61.7	0.6
2026-01-12 11:01:39.366986	350.6	14.8	-63.2	1.4
2026-01-12 11:01:40.489265	350.5	14.7	-62.6	1.5
2026-01-12 11:01:41.611518	350.5	14.6	-61.1	0.0
2026-01-12 11:01:42.732820	350.4	14.4	-62.1	2.1
2026-01-12 11:01:43.855073	350.4	14.3	-62.3	0.9
2026-01-12 11:01:44.976831	350.3	14.2	-61.4	0.0
2026-01-12 11:01:46.099084	350.3	14.1	-62.4	1.9
2026-01-12 11:01:47.221338	350.2	14.0	-62.0	1.4
2026-01-12 11:01:48.342640	350.2	13.9	-62.6	2.4
2026-01-12 11:01:49.464894	350.1	13.8	-62.4	1.6
2026-01-12 11:01:50.586205	350.1	13.7	-62.0	1.7
2026-01-12 11:01:51.707963	350.0	13.6	-62.0	2.2
2026-01-12 11:01:52.829225	350.0	13.4	-61.7	1.4
2026-01-12 11:01:53.950983	349.9	13.3	-61.8	1.7
2026-01-12 11:01:55.072741	349.9	13.2	-63.3	3.5
2026-01-12 11:01:56.193518	349.8	13.1	-62.4	1.3
2026-01-12 11:01:57.314780	349.8	13.0	-61.3	1.8
2026-01-12 11:01:58.436598	349.7	12.9	-61.7	1.5
2026-01-12 11:01:59.558355	349.7	12.8	-62.1	1.3
2026-01-12 11:02:00.680121	349.7	12.7	-62.6	5.0
2026-01-12 11:02:01.802374	349.6	12.6	-62.2	4.9
2026-01-12 11:02:02.923667	349.6	12.5	-62.8	2.4
2026-01-12 11:02:04.044930	349.5	12.4	-63.0	3.9
2026-01-12 11:02:05.166688	349.5	12.3	-61.8	3.4
2026-01-12 11:02:06.288942	349.4	12.2	-64.1	3.3
2026-01-12 11:02:07.410699	349.4	12.1	-63.1	3.3
2026-01-12 11:02:08.534019	349.4	12.0	-62.5	2.2
2026-01-12 11:02:09.656272	349.3	11.9	-62.8	3.6
2026-01-12 11:02:10.778039	349.3	11.7	-63.2	3.0
2026-01-12 11:02:11.898806	349.2	11.6	-61.6	2.3
2026-01-12 11:02:13.020603	349.2	11.5	-61.9	1.5
2026-01-12 11:02:14.142857	349.2	11.4	-60.8	1.4
2026-01-12 11:02:15.265110	349.1	11.3	-60.7	0.0
2026-01-12 11:02:16.386381	349.1	11.2	-62.5	2.8
2026-01-12 11:02:17.508152	349.0	11.1	-62.7	2.8
2026-01-12 11:02:18.629455	349.0	11.0	-62.8	1.2
2026-01-12 11:02:19.750717	349.0	10.9	-62.9	1.4
2026-01-12 11:02:20.872505	348.9	10.8	-62.3	0.6
2026-01-12 11:02:21.994262	348.9	10.7	-61.4	0.0
2026-01-12 11:02:23.115060	348.8	10.6	-63.4	1.6
2026-01-12 11:02:24.237314	348.8	10.5	-63.8	3.9
2026-01-12 11:02:25.361090	348.8	10.5	-63.6	0.9
2026-01-12 11:02:26.482848	348.7	10.4	-61.3	0.0
2026-01-12 11:02:27.604606	348.7	10.3	-63.1	0.0
2026-01-12 11:02:28.726908	348.7	10.2	-64.6	1.7
2026-01-12 11:02:29.848170	348.6	10.1	-62.6	0.0
2026-01-12 11:02:30.968945	348.6	10.0	-63.8	2.0
2026-01-12 11:02:32.090207	348.6	9.9	-63.4	0.0
2026-01-12 11:02:33.211024	348.5	9.8	-63.0	0.0
2026-01-12 11:02:34.332782	348.5	9.7	-64.2	0.0
2026-01-12 11:02:35.454548	348.4	9.6	-63.8	0.0
2026-01-12 11:02:36.575833	348.4	9.5	-63.8	0.0
2026-01-12 11:02:37.697600	348.4	9.4	-63.7	0.0
2026-01-12 11:02:38.818872	348.3	9.3	-63.9	0.0
2026-01-12 11:02:39.941126	348.3	9.2	-61.8	0.0
2026-01-12 11:02:41.062893	348.3	9.1	-62.6	0.0
2026-01-12 11:02:42.184154	348.2	9.0	-62.3	0.0
2026-01-12 11:02:43.306448	348.2	8.9	-64.0	0.0
2026-01-12 11:02:44.428205	348.2	8.8	-63.8	0.0
2026-01-12 11:02:45.550469	348.1	8.8	-64.0	0.0
2026-01-12 11:02:46.671235	348.1	8.7	-63.8	0.0
2026-01-12 11:02:47.792498	348.1	8.6	-63.9	0.0
2026-01-12 11:02:48.915304	348.0	8.5	-63.1	0.0
2026-01-12 11:02:50.037062	348.0	8.4	-62.3	0.0
2026-01-12 11:02:51.158821	348.0	8.3	-63.6	0.0
2026-01-12 11:02:52.281075	348.0	8.2	-62.9	0.0
2026-01-12 11:02:53.401850	347.9	8.1	-63.2	0.0
2026-01-12 11:02:54.523649	347.9	8.0	-61.9	0.0
2026-01-12 11:02:55.645902	347.9	7.9	-63.0	0.2
2026-01-12 11:02:56.767172	347.8	7.9	-63.0	0.0
2026-01-12 11:02:57.889458	347.8	7.8	-62.7	0.0
2026-01-12 11:02:59.010721	347.8	7.7	-63.3	0.0
2026-01-12 11:03:00.132479	347.7	7.6	-64.1	0.5
2026-01-12 11:03:01.254732	347.7	7.5	-63.3	0.0
2026-01-12 11:03:02.375499	347.7	7.4	-61.9	0.0
2026-01-12 11:03:03.496770	347.7	7.3	-62.9	0.0
2026-01-12 11:03:04.618559	347.6	7.3	-62.9	0.0
2026-01-12 11:03:05.738831	347.6	7.2	-63.0	0.0
2026-01-12 11:03:06.859605	347.6	7.1	-62.9	0.0
2026-01-12 11:03:07.983373	347.5	7.0	-63.2	0.0
2026-01-12 11:03:09.105172	347.5	6.9	-62.5	0.0
2026-01-12 11:03:10.227425	347.5	6.8	-63.3	0.0
2026-01-12 11:03:11.349679	347.5	6.7	-63.2	0.0
2026-01-12 11:03:12.471940	347.4	6.7	-60.5	0.0
2026-01-12 11:03:13.594193	347.4	6.6	-62.6	0.0
2026-01-12 11:03:14.716486	347.4	6.5	-63.2	0.0
2026-01-12 11:03:15.838244	347.3	6.4	-63.9	0.0
2026-01-12 11:03:16.960009	347.3	6.3	-62.3	0.0
2026-01-12 11:03:18.082262	347.3	6.2	-62.4	0.0
2026-01-12 11:03:19.203555	347.3	6.2	-63.7	0.0
2026-01-12 11:03:20.325809	347.2	6.1	-63.8	0.0
2026-01-12 11:03:21.448062	347.2	6.0	-63.5	0.0
2026-01-12 11:03:22.570316	347.2	5.9	-64.4	0.0
2026-01-12 11:03:23.692081	347.2	5.8	-67.5	0.0
2026-01-12 11:03:24.812383	347.1	5.7	-67.4	0.0
2026-01-12 11:03:25.934636	347.1	5.7	-67.9	0.0
2026-01-12 11:03:27.056899	347.1	5.6	-68.0	0.0
2026-01-12 11:03:28.179152	347.1	5.5	-68.7	0.0
2026-01-12 11:03:29.301445	347.0	5.4	-69.3	0.0
2026-01-12 11:03:30.423699	347.0	5.3	-69.1	0.0
2026-01-12 11:03:31.544985	347.0	5.3	-70.0	0.0
2026-01-12 11:03:32.668230	347.0	5.2	-69.1	0.0
2026-01-12 11:03:33.789493	346.9	5.1	-71.4	0.0
2026-01-12 11:03:34.911787	346.9	5.0	-71.6	0.0
#Closed at: 2026-01-12 10:50:47.351535