passes_logs/2026/01/21/R2.0S_Moscow/R2.0S_Moscow__20260121_193051_FENGYUN_3G_rec.log

#Pass ID: 20260121_193051_FENGYUN 3G
#Satellite: FENGYUN 3G
#Configuration: FENGYUN 3G
#almurnet v.1.7.20251203
#Start time: 2026-01-21 19:30:52

#Version: 2.2.20231116
#Station: R2.0S_Moscow
#Location: 37.707566 lon 55.798166 lat
#TLE: 1 56232U 23055A   26020.45159834  .00088200  00000+0  13354-2 0  9997
#TLE: 2 56232  49.9936  27.7990 0004112  56.3402 303.7958 15.53862613157044

#Time	Az	El	Level	Level2	SNR	BER	BlckErr	Temp	State	Recorded	gain1	gain2
2026-01-21 19:30:52.25	233.00	2.08	-44.0	-62.1	3.8	8.46e-01	0	48	0	0	60	27692
2026-01-21 19:30:53.25	232.92	2.14	-44.1	-62.1	3.8	8.43e-01	0	49	104	0	59	29285
2026-01-21 19:30:54.26	232.85	2.21	-44.1	-62.1	3.8	8.46e-01	0	49	104	0	59	29216
2026-01-21 19:30:55.26	232.77	2.27	-44.1	-62.1	3.8	8.46e-01	0	49	104	0	59	29179
2026-01-21 19:30:56.27	232.69	2.34	-44.1	-62.1	3.8	8.46e-01	0	49	104	0	59	29031
2026-01-21 19:30:57.28	232.61	2.40	-44.1	-61.9	3.8	8.47e-01	0	49	104	0	59	28580
2026-01-21 19:30:58.29	232.53	2.47	-44.1	-61.9	3.8	8.47e-01	0	49	104	0	59	28654
2026-01-21 19:30:59.29	232.45	2.53	-44.1	-62.0	3.8	8.47e-01	0	49	104	0	59	28703
2026-01-21 19:31:00.30	232.37	2.60	-44.1	-62.0	3.8	8.46e-01	0	49	104	0	59	28707
2026-01-21 19:31:01.31	232.29	2.66	-44.1	-62.0	3.8	8.47e-01	0	49	104	0	59	28934
2026-01-21 19:31:02.31	232.21	2.73	-44.1	-62.0	3.8	8.47e-01	0	49	104	0	59	28832
2026-01-21 19:31:03.31	232.13	2.80	-44.1	-62.0	3.8	8.47e-01	0	49	104	0	59	28858
2026-01-21 19:31:04.32	232.05	2.86	-44.1	-62.0	3.8	8.46e-01	0	50	104	0	59	28846
2026-01-21 19:31:05.33	231.97	2.93	-44.1	-62.0	3.8	8.46e-01	0	50	104	0	59	28959
2026-01-21 19:31:06.34	231.88	3.00	-44.1	-62.1	3.8	8.46e-01	0	50	104	0	59	29096
2026-01-21 19:31:07.35	231.80	3.07	-44.1	-62.1	3.8	8.47e-01	0	50	104	0	59	29145
2026-01-21 19:31:08.35	231.72	3.13	-44.1	-62.1	3.8	8.47e-01	0	50	104	0	59	29235
2026-01-21 19:31:09.36	231.63	3.20	-44.1	-62.1	3.8	8.47e-01	0	50	104	0	59	29263
2026-01-21 19:31:10.36	231.54	3.27	-44.1	-62.2	3.8	8.46e-01	0	50	104	0	59	29355
2026-01-21 19:31:11.37	231.46	3.34	-44.1	-62.1	3.8	8.45e-01	0	50	104	0	59	29344
2026-01-21 19:31:12.38	231.37	3.41	-44.1	-62.1	3.8	8.45e-01	0	50	104	0	59	29196
2026-01-21 19:31:13.38	231.28	3.47	-44.1	-62.1	3.8	8.46e-01	0	50	104	0	59	29033
2026-01-21 19:31:14.39	231.20	3.54	-44.1	-62.0	3.8	8.46e-01	0	50	104	0	59	29005
2026-01-21 19:31:15.40	231.11	3.61	-44.1	-62.0	3.8	8.46e-01	0	50	104	0	59	28819
2026-01-21 19:31:16.41	231.02	3.68	-44.1	-62.0	3.8	8.46e-01	0	50	104	0	59	28765
2026-01-21 19:31:17.41	230.93	3.75	-44.1	-62.0	3.8	8.47e-01	0	50	104	0	59	28839
2026-01-21 19:31:18.42	230.84	3.82	-44.1	-61.9	3.8	8.47e-01	0	50	104	0	59	28674
2026-01-21 19:31:19.43	230.75	3.89	-44.1	-62.0	3.8	8.46e-01	0	51	104	0	59	28844
2026-01-21 19:31:20.44	230.66	3.96	-44.1	-62.0	3.8	8.46e-01	0	50	104	0	59	28994
2026-01-21 19:31:21.45	230.56	4.03	-44.1	-62.1	3.8	8.46e-01	0	51	104	0	59	29152
2026-01-21 19:31:22.46	230.47	4.10	-44.1	-62.1	3.8	8.46e-01	0	51	104	0	59	29309
2026-01-21 19:31:23.46	230.38	4.17	-44.1	-62.1	3.8	8.45e-01	0	51	104	0	59	29313
2026-01-21 19:31:24.47	230.28	4.24	-44.1	-62.2	3.8	8.46e-01	0	50	104	0	59	29387
2026-01-21 19:31:25.48	230.19	4.31	-44.1	-62.2	3.8	8.46e-01	0	51	104	0	59	29368
2026-01-21 19:31:26.48	230.09	4.39	-44.1	-62.1	3.8	8.46e-01	0	51	104	0	59	29280
2026-01-21 19:31:27.49	230.00	4.46	-44.1	-62.1	3.8	8.46e-01	0	51	104	0	59	29233
2026-01-21 19:31:28.50	229.90	4.53	-44.1	-62.1	3.8	8.46e-01	0	51	104	0	59	29331
2026-01-21 19:31:29.50	229.80	4.60	-44.1	-62.1	3.8	8.46e-01	0	51	104	0	59	29208
2026-01-21 19:31:30.51	229.70	4.67	-44.1	-62.2	3.8	8.44e-01	0	51	104	0	59	29352
2026-01-21 19:31:31.52	229.60	4.75	-44.1	-62.1	3.8	8.44e-01	0	51	104	0	59	29318
2026-01-21 19:31:32.52	229.50	4.82	-44.1	-62.1	3.8	8.47e-01	0	51	104	0	59	29142
2026-01-21 19:31:33.53	229.40	4.89	-44.1	-61.9	3.8	8.46e-01	0	51	104	0	59	28602
2026-01-21 19:31:34.54	229.30	4.97	-44.1	-61.8	3.8	8.46e-01	0	52	104	0	59	28034
2026-01-21 19:31:35.54	229.20	5.04	-44.1	-61.5	3.8	8.45e-01	0	51	104	0	59	27198
2026-01-21 19:31:36.55	229.10	5.11	-44.1	-61.3	3.8	8.46e-01	0	51	104	0	59	26608
2026-01-21 19:31:37.56	228.99	5.19	-44.1	-61.3	3.8	8.47e-01	0	52	104	0	59	26661
2026-01-21 19:31:38.56	228.89	5.26	-44.1	-61.2	3.8	8.47e-01	0	52	104	0	59	26259
2026-01-21 19:31:39.57	228.78	5.34	-44.1	-61.1	3.8	8.46e-01	0	52	104	0	59	26034
2026-01-21 19:31:40.58	228.68	5.41	-44.1	-61.3	3.8	8.46e-01	0	52	104	0	59	26686
2026-01-21 19:31:41.59	228.57	5.49	-44.1	-61.6	3.8	8.46e-01	0	52	104	0	59	27426
2026-01-21 19:31:42.60	228.46	5.56	-44.1	-61.9	3.8	8.47e-01	0	52	104	0	59	28515
2026-01-21 19:31:43.60	228.36	5.64	-44.1	-61.7	3.8	8.45e-01	0	52	104	0	59	27938
2026-01-21 19:31:44.61	228.25	5.71	-44.1	-61.4	3.8	8.45e-01	0	52	104	0	59	26959
2026-01-21 19:31:45.62	228.14	5.79	-44.1	-61.1	3.8	8.46e-01	0	52	104	0	59	25889
2026-01-21 19:31:46.62	228.03	5.87	-44.1	-60.6	3.8	8.46e-01	0	52	104	0	59	24619
2026-01-21 19:31:47.63	227.92	5.94	-44.1	-60.2	3.8	8.46e-01	0	52	104	0	59	23373
2026-01-21 19:31:48.64	227.80	6.02	-44.1	-59.8	3.8	8.44e-01	0	52	104	0	59	22449
2026-01-21 19:31:49.65	227.69	6.10	-44.0	-59.4	4.0	8.44e-01	0	52	104	0	59	21444
2026-01-21 19:31:50.65	227.58	6.17	-44.0	-59.2	4.0	8.44e-01	0	52	0	0	59	20904
2026-01-21 19:31:51.66	227.46	6.25	-44.0	-59.0	4.1	8.44e-01	0	52	0	0	59	20313
2026-01-21 19:31:52.67	227.34	6.33	-44.0	-59.0	4.1	8.41e-01	0	52	0	0	59	20368
2026-01-21 19:31:53.67	227.23	6.41	-44.0	-58.9	4.1	8.42e-01	0	52	104	0	59	20189
2026-01-21 19:31:54.68	227.11	6.49	-44.0	-59.0	4.1	8.42e-01	0	52	0	0	59	20314
2026-01-21 19:31:55.69	226.99	6.57	-44.0	-58.5	4.2	8.39e-01	0	52	0	0	59	19382
2026-01-21 19:31:56.70	226.87	6.65	-44.0	-57.8	4.4	8.35e-01	0	52	0	0	59	17872
2026-01-21 19:31:57.71	226.75	6.73	-43.9	-56.5	5.0	8.35e-01	0	52	0	0	59	15393
2026-01-21 19:31:58.73	226.63	6.81	-43.8	-54.9	6.0	8.04e-01	0	52	0	0	59	12770
2026-01-21 19:31:59.74	226.51	6.89	-43.6	-53.7	7.1	4.44e-01	0	53	0	1048576	59	11145
2026-01-21 19:32:00.75	226.38	6.97	-43.5	-52.6	8.2	4.44e-01	0	53	0	2621440	59	9796
2026-01-21 19:32:01.75	226.26	7.05	-43.3	-51.7	9.1	1.20e-01	0	53	0	3670016	58	9289
2026-01-21 19:32:02.76	226.13	7.13	-43.2	-51.1	9.8	3.51e-02	0	53	0	4718592	58	8683
2026-01-21 19:32:03.78	226.01	7.21	-43.2	-50.9	10.0	1.19e-02	0	53	0	5767168	58	8530
2026-01-21 19:32:04.79	225.88	7.29	-43.2	-51.3	9.6	1.19e-02	0	53	0	6815744	58	8912
2026-01-21 19:32:05.80	225.75	7.37	-43.4	-52.1	8.9	1.33e-02	0	53	0	7864320	58	9755
2026-01-21 19:32:06.80	225.62	7.46	-43.7	-54.2	6.8	5.63e-02	0	53	0	9437184	58	12478
2026-01-21 19:32:07.81	225.49	7.54	-43.9	-57.2	4.8	5.63e-02	0	53	0	9961472	58	17544
2026-01-21 19:32:08.82	225.36	7.62	-44.1	-60.7	3.8	5.27e-01	0	53	104	9961472	58	26233
2026-01-21 19:32:09.83	225.23	7.71	-44.0	-58.4	4.2	8.43e-01	0	53	104	9961472	58	20092
2026-01-21 19:32:10.83	225.09	7.79	-43.6	-53.7	7.0	8.43e-01	0	53	0	9961472	58	11733
2026-01-21 19:32:11.84	224.96	7.87	-43.1	-50.5	10.3	5.80e-01	0	53	0	11534336	58	8174
2026-01-21 19:32:12.85	224.82	7.96	-42.5	-48.4	12.6	2.06e-02	0	53	0	12582912	57	6740
2026-01-21 19:32:13.85	224.69	8.04	-41.7	-46.5	14.4	2.06e-02	0	53	0	13631488	55	6081
2026-01-21 19:32:14.85	224.55	8.12	-44.2	-59.2	4.1	1.22e-04	0	53	0	14680064	58	22055
2026-01-21 19:32:15.86	224.41	8.21	-43.5	-51.9	9.0	3.75e-01	0	53	0	14680064	58	9594
2026-01-21 19:32:16.87	224.27	8.29	-43.6	-53.9	7.6	7.13e-02	0	53	0	15728640	57	12744
2026-01-21 19:32:17.88	224.13	8.38	-44.2	-59.4	4.1	7.13e-02	0	53	0	16777216	58	22586
2026-01-21 19:32:18.89	223.99	8.47	-41.8	-46.6	14.5	4.44e-01	0	53	0	16777216	54	6558
2026-01-21 19:32:19.90	223.84	8.55	-41.4	-45.8	15.1	8.94e-03	0	53	0	18350080	54	5973
2026-01-21 19:32:20.91	223.70	8.64	-41.2	-45.4	15.7	8.94e-03	0	53	0	19398656	54	5658
2026-01-21 19:32:21.92	223.55	8.73	-41.2	-45.3	15.7	0.00e+00	0	53	0	20447232	54	5626
2026-01-21 19:32:22.93	223.40	8.81	-41.3	-45.5	15.6	0.00e+00	0	53	0	21495808	54	5744
2026-01-21 19:32:23.94	223.26	8.90	-41.3	-45.5	15.6	0.00e+00	0	54	0	22544384	54	5769
2026-01-21 19:32:24.95	223.11	8.99	-41.2	-45.4	15.7	0.00e+00	0	54	0	23592960	54	5657
2026-01-21 19:32:25.96	222.95	9.08	-41.1	-45.0	16.1	0.00e+00	0	54	0	25165824	54	5429
2026-01-21 19:32:26.97	222.80	9.17	-40.9	-44.7	16.4	0.00e+00	0	54	0	26214400	53	5582
2026-01-21 19:32:27.98	222.65	9.25	-40.9	-44.7	16.4	0.00e+00	0	54	0	27262976	53	5562
2026-01-21 19:32:28.98	222.50	9.34	-40.8	-44.5	16.7	0.00e+00	0	53	0	28311552	53	5430
2026-01-21 19:32:29.99	222.34	9.43	-40.9	-44.7	16.5	0.00e+00	0	54	0	29360128	53	5546
2026-01-21 19:32:31.00	222.18	9.52	-40.9	-44.6	16.5	0.00e+00	0	54	0	30408704	53	5503
2026-01-21 19:32:32.01	222.02	9.61	-40.7	-44.3	16.8	0.00e+00	0	54	0	31981568	53	5322
2026-01-21 19:32:33.02	221.86	9.70	-40.8	-44.5	16.7	0.00e+00	0	54	0	33030144	53	5441
2026-01-21 19:32:34.03	221.70	9.79	-40.8	-44.4	16.7	0.00e+00	0	54	0	34078720	53	5396
2026-01-21 19:32:35.04	221.54	9.89	-40.7	-44.3	16.9	0.00e+00	0	54	0	35127296	53	5312
2026-01-21 19:32:36.05	221.37	9.98	-40.8	-44.4	16.8	0.00e+00	0	54	0	36175872	53	5355
2026-01-21 19:32:37.06	221.21	10.07	-40.8	-44.4	16.8	0.00e+00	0	54	0	37224448	53	5380
2026-01-21 19:32:38.06	221.04	10.16	-40.8	-44.4	16.8	0.00e+00	0	54	0	38797312	53	5395
2026-01-21 19:32:39.08	220.87	10.25	-40.9	-44.6	16.6	0.00e+00	0	54	0	39845888	53	5507
2026-01-21 19:32:40.09	220.70	10.35	-40.9	-44.6	16.7	0.00e+00	0	54	0	40894464	53	5475
2026-01-21 19:32:41.10	220.53	10.44	-40.9	-44.6	16.6	0.00e+00	0	54	0	41943040	53	5490
2026-01-21 19:32:42.11	220.36	10.53	-40.8	-44.3	16.9	0.00e+00	0	54	0	42991616	53	5338
2026-01-21 19:32:43.11	220.18	10.63	-40.7	-44.2	17.0	0.00e+00	0	54	0	44040192	53	5271
2026-01-21 19:32:44.12	220.01	10.72	-40.6	-44.1	17.1	0.00e+00	0	54	0	45613056	53	5175
2026-01-21 19:32:45.13	219.83	10.81	-40.6	-43.9	17.3	0.00e+00	0	54	0	46661632	53	5093
2026-01-21 19:32:46.14	219.65	10.91	-40.4	-43.7	17.6	0.00e+00	0	54	0	47710208	52	5272
2026-01-21 19:32:47.15	219.47	11.01	-40.5	-43.8	17.5	0.00e+00	0	54	0	48758784	52	5325
2026-01-21 19:32:48.16	219.29	11.10	-40.4	-43.7	17.6	0.00e+00	0	54	0	49807360	52	5271
2026-01-21 19:32:49.17	219.10	11.20	-40.4	-43.7	17.6	0.00e+00	0	54	0	50855936	52	5247
2026-01-21 19:32:50.18	218.92	11.29	-40.5	-43.8	17.5	0.00e+00	0	54	0	52428800	52	5332
2026-01-21 19:32:51.19	218.73	11.39	-40.5	-43.8	17.6	0.00e+00	0	54	0	53477376	52	5326
2026-01-21 19:32:52.20	218.54	11.49	-40.4	-43.7	17.7	0.00e+00	0	54	0	54525952	52	5256
2026-01-21 19:32:53.21	218.35	11.58	-40.4	-43.7	17.7	0.00e+00	0	54	0	55574528	52	5259
2026-01-21 19:32:54.21	218.16	11.68	-40.4	-43.6	17.7	0.00e+00	0	54	0	56623104	52	5208
2026-01-21 19:32:55.22	217.96	11.78	-40.4	-43.6	17.8	0.00e+00	0	54	0	57671680	52	5188
2026-01-21 19:32:56.23	217.77	11.88	-40.3	-43.5	17.9	0.00e+00	0	54	0	58720256	52	5126
2026-01-21 19:32:57.24	217.57	11.98	-40.2	-43.4	18.0	0.00e+00	0	54	0	60293120	52	5057
2026-01-21 19:32:58.25	217.37	12.07	-40.2	-43.3	18.1	0.00e+00	0	54	0	61341696	52	4988
2026-01-21 19:32:59.26	217.17	12.17	-40.0	-43.0	18.4	0.00e+00	0	55	0	62390272	52	4870
2026-01-21 19:33:00.27	216.97	12.27	-40.0	-43.0	18.4	0.00e+00	0	54	0	63438848	52	4848
2026-01-21 19:33:01.28	216.76	12.37	-40.0	-42.9	18.6	0.00e+00	0	54	0	64487424	51	5060
2026-01-21 19:33:02.29	216.56	12.47	-40.0	-42.9	18.6	0.00e+00	0	54	0	65536000	51	5073
2026-01-21 19:33:03.30	216.35	12.57	-40.0	-42.9	18.7	0.00e+00	0	54	0	67108864	51	5050
2026-01-21 19:33:04.30	216.14	12.67	-40.0	-42.9	18.6	0.00e+00	0	54	0	68157440	51	5086
2026-01-21 19:33:05.32	215.93	12.78	-40.0	-42.9	18.6	0.00e+00	0	55	0	69206016	51	5090
2026-01-21 19:33:06.32	215.71	12.88	-40.2	-43.2	18.4	0.00e+00	0	54	0	70254592	51	5222
2026-01-21 19:33:07.33	215.50	12.98	-40.2	-43.2	18.4	0.00e+00	0	55	0	71303168	51	5253
2026-01-21 19:33:08.34	215.28	13.08	-40.1	-43.1	18.5	0.00e+00	0	55	0	72351744	51	5172
2026-01-21 19:33:09.35	215.06	13.18	-40.0	-42.9	18.6	0.00e+00	0	55	0	73924608	51	5097
2026-01-21 19:33:10.36	214.84	13.29	-40.0	-42.8	18.8	0.00e+00	0	55	0	74973184	51	5025
2026-01-21 19:33:11.37	214.61	13.39	-39.9	-42.8	18.8	0.00e+00	0	55	0	76021760	51	5008
2026-01-21 19:33:12.38	214.39	13.49	-39.8	-42.6	19.0	0.00e+00	0	55	0	77070336	51	4903
2026-01-21 19:33:13.39	214.16	13.59	-39.8	-42.5	19.0	0.00e+00	0	55	0	78118912	51	4870
2026-01-21 19:33:14.40	213.93	13.70	-39.7	-42.4	19.2	0.00e+00	0	55	0	79691776	51	4796
2026-01-21 19:33:15.41	213.70	13.80	-39.7	-42.4	19.2	0.00e+00	0	55	0	80740352	51	4809
2026-01-21 19:33:16.42	213.46	13.91	-39.9	-42.7	19.0	0.00e+00	0	55	0	81788928	51	4939
2026-01-21 19:33:17.43	213.23	14.01	-39.9	-42.8	18.9	0.00e+00	0	55	0	82837504	51	4985
2026-01-21 19:33:18.44	212.99	14.12	-40.0	-42.8	18.8	0.00e+00	0	55	0	83886080	51	5021
2026-01-21 19:33:19.45	212.75	14.22	-39.9	-42.8	18.9	0.00e+00	0	55	0	84934656	51	4986
2026-01-21 19:33:20.46	212.50	14.33	-40.0	-42.8	18.8	0.00e+00	0	55	0	86507520	51	5015
2026-01-21 19:33:21.47	212.26	14.43	-39.9	-42.6	19.0	0.00e+00	0	55	0	87556096	51	4920
2026-01-21 19:33:22.48	212.01	14.54	-39.7	-42.4	19.2	0.00e+00	0	55	0	88604672	51	4807
2026-01-21 19:33:23.49	211.76	14.65	-39.6	-42.2	19.4	0.00e+00	0	55	0	89653248	51	4694
2026-01-21 19:33:24.50	211.51	14.75	-39.4	-42.0	19.6	0.00e+00	0	55	0	90701824	50	4857
2026-01-21 19:33:25.51	211.25	14.86	-39.4	-42.0	19.7	0.00e+00	0	55	0	91750400	50	4840
2026-01-21 19:33:26.52	210.99	14.97	-39.5	-42.1	19.6	0.00e+00	0	55	0	93323264	50	4891
2026-01-21 19:33:27.53	210.74	15.07	-39.5	-42.1	19.6	0.00e+00	0	55	0	94371840	50	4880
2026-01-21 19:33:28.54	210.47	15.18	-39.5	-42.1	19.6	0.00e+00	0	55	0	95420416	50	4918
2026-01-21 19:33:29.55	210.21	15.29	-39.5	-42.2	19.6	0.00e+00	0	55	0	96468992	50	4932
2026-01-21 19:33:30.56	209.94	15.39	-39.5	-42.1	19.6	0.00e+00	0	55	0	97517568	50	4925
2026-01-21 19:33:31.57	209.67	15.50	-39.6	-42.2	19.5	0.00e+00	0	55	0	98566144	50	4963
2026-01-21 19:33:32.58	209.40	15.61	-39.5	-42.1	19.7	0.00e+00	0	55	0	99614720	50	4902
2026-01-21 19:33:33.59	209.13	15.72	-39.3	-41.8	20.0	0.00e+00	0	55	0	101187584	50	4727
2026-01-21 19:33:34.60	208.85	15.83	-39.2	-41.7	20.1	0.00e+00	0	55	0	102236160	50	4680
2026-01-21 19:33:35.60	208.57	15.93	-39.0	-41.4	20.4	0.00e+00	0	55	0	103284736	50	4506
2026-01-21 19:33:36.61	208.29	16.04	-38.8	-41.1	20.7	0.00e+00	0	55	0	104333312	49	4628
2026-01-21 19:33:37.62	208.01	16.15	-38.8	-41.1	20.6	0.00e+00	0	55	0	105381888	49	4649
2026-01-21 19:33:38.63	207.72	16.26	-38.9	-41.2	20.6	0.00e+00	0	55	0	106430464	49	4685
2026-01-21 19:33:39.64	207.43	16.37	-39.0	-41.4	20.3	0.00e+00	0	55	0	108003328	49	4814
2026-01-21 19:33:40.65	207.14	16.48	-39.2	-41.6	20.2	0.00e+00	0	55	0	109051904	49	4907
2026-01-21 19:33:41.66	206.84	16.59	-39.2	-41.7	20.0	0.00e+00	0	55	0	110100480	49	4967
2026-01-21 19:33:42.67	206.55	16.70	-39.3	-41.8	19.9	0.00e+00	0	55	0	111149056	49	5041
2026-01-21 19:33:43.68	206.25	16.80	-39.4	-41.9	19.8	0.00e+00	0	55	0	112197632	49	5093
2026-01-21 19:33:44.69	205.94	16.91	-39.2	-41.7	20.1	0.00e+00	0	55	0	113246208	49	4934
2026-01-21 19:33:45.70	205.64	17.02	-39.1	-41.6	20.2	0.00e+00	0	55	0	114819072	49	4880
2026-01-21 19:33:46.71	205.33	17.13	-38.9	-41.2	20.5	0.00e+00	0	55	0	115867648	49	4703
2026-01-21 19:33:47.72	205.02	17.24	-38.9	-41.2	20.6	0.00e+00	0	55	0	116916224	49	4687
2026-01-21 19:33:48.72	204.71	17.35	-38.8	-41.2	20.6	0.00e+00	0	55	0	117964800	49	4667
2026-01-21 19:33:49.74	204.39	17.46	-38.8	-41.1	20.7	0.00e+00	0	55	0	119013376	49	4629
2026-01-21 19:33:50.75	204.07	17.57	-38.9	-41.2	20.6	0.00e+00	0	55	0	120061952	49	4682
2026-01-21 19:33:51.76	203.74	17.68	-38.9	-41.2	20.6	0.00e+00	0	55	0	121634816	49	4669
2026-01-21 19:33:52.77	203.42	17.79	-39.1	-41.5	20.3	0.00e+00	0	55	0	122683392	49	4860
2026-01-21 19:33:53.77	203.09	17.89	-39.1	-41.5	20.3	0.00e+00	0	55	0	123731968	49	4831
2026-01-21 19:33:54.78	202.76	18.00	-39.1	-41.5	20.3	0.00e+00	0	55	0	124780544	49	4865
2026-01-21 19:33:55.79	202.43	18.11	-39.1	-41.5	20.3	0.00e+00	0	55	0	125829120	49	4869
2026-01-21 19:33:56.80	202.09	18.22	-39.1	-41.5	20.3	0.00e+00	0	56	0	127401984	49	4843
2026-01-21 19:33:57.81	201.75	18.33	-38.9	-41.3	20.5	0.00e+00	0	56	0	128450560	49	4724
2026-01-21 19:33:58.82	201.41	18.43	-38.8	-41.1	20.8	0.00e+00	0	56	0	129499136	49	4616
2026-01-21 19:33:59.83	201.06	18.54	-38.7	-40.9	20.9	0.00e+00	0	55	0	130547712	49	4519
2026-01-21 19:34:00.84	200.71	18.65	-38.4	-40.6	21.2	0.00e+00	0	56	0	131596288	48	4610
2026-01-21 19:34:01.85	200.36	18.76	-38.2	-40.3	21.6	0.00e+00	0	56	0	132644864	48	4448
2026-01-21 19:34:02.86	200.00	18.86	-38.1	-40.2	21.6	0.00e+00	0	55	0	133693440	48	4430
2026-01-21 19:34:03.87	199.64	18.97	-38.1	-40.2	21.6	0.00e+00	0	55	0	135266304	48	4402
2026-01-21 19:34:04.88	199.28	19.07	-38.4	-40.5	21.3	0.00e+00	0	56	0	136314880	48	4577
2026-01-21 19:34:05.88	198.92	19.18	-38.4	-40.6	21.2	0.00e+00	0	56	0	137363456	48	4645
2026-01-21 19:34:06.89	198.55	19.28	-38.6	-40.8	21.0	0.00e+00	0	56	0	138412032	48	4719
2026-01-21 19:34:07.90	198.18	19.39	-38.6	-40.8	21.1	0.00e+00	0	56	0	139460608	48	4719
2026-01-21 19:34:08.91	197.81	19.49	-38.6	-40.8	21.0	0.00e+00	0	56	0	140509184	48	4737
2026-01-21 19:34:09.92	197.43	19.60	-38.6	-40.8	21.0	0.00e+00	0	56	0	142082048	48	4756
2026-01-21 19:34:10.93	197.05	19.70	-38.6	-40.8	21.1	0.00e+00	0	56	0	143130624	48	4709
2026-01-21 19:34:11.94	196.67	19.80	-38.5	-40.6	21.2	0.00e+00	0	56	0	144179200	48	4646
2026-01-21 19:34:12.95	196.28	19.91	-38.4	-40.6	21.2	0.00e+00	0	55	0	145227776	48	4636
2026-01-21 19:34:13.96	195.89	20.01	-38.4	-40.5	21.3	0.00e+00	0	56	0	146276352	48	4576
2026-01-21 19:34:14.97	195.50	20.11	-38.2	-40.4	21.5	0.00e+00	0	56	0	147324928	48	4498
2026-01-21 19:34:15.98	195.10	20.21	-38.3	-40.4	21.4	0.00e+00	0	56	0	148897792	48	4514
2026-01-21 19:34:16.99	194.70	20.31	-38.2	-40.3	21.6	0.00e+00	0	56	0	149946368	48	4462
2026-01-21 19:34:18.00	194.30	20.41	-38.1	-40.2	21.7	0.00e+00	0	56	0	150994944	48	4392
2026-01-21 19:34:19.01	193.90	20.51	-38.1	-40.2	21.7	0.00e+00	0	56	0	152043520	48	4400
2026-01-21 19:34:20.02	193.49	20.60	-38.1	-40.2	21.6	0.00e+00	0	56	0	153092096	48	4425
2026-01-21 19:34:21.02	193.08	20.70	-38.1	-40.2	21.6	0.00e+00	0	56	0	154140672	48	4400
2026-01-21 19:34:22.03	192.67	20.79	-37.9	-40.0	21.8	0.00e+00	0	56	0	155713536	47	4575
2026-01-21 19:34:23.04	192.25	20.89	-38.3	-40.5	21.4	0.00e+00	0	56	0	156762112	47	4821
2026-01-21 19:34:24.05	191.83	20.98	-38.3	-40.5	21.4	0.00e+00	0	56	0	157810688	47	4821
2026-01-21 19:34:25.06	191.40	21.08	-38.2	-40.4	21.4	0.00e+00	0	56	0	158859264	47	4767
2026-01-21 19:34:26.07	190.98	21.17	-38.3	-40.4	21.4	0.00e+00	0	56	0	159907840	47	4801
2026-01-21 19:34:27.08	190.55	21.26	-38.2	-40.3	21.5	0.00e+00	0	56	0	160956416	47	4736
2026-01-21 19:34:28.09	190.11	21.35	-38.0	-40.0	21.8	0.00e+00	0	56	0	162529280	47	4592
2026-01-21 19:34:29.10	189.68	21.44	-38.0	-40.1	21.7	0.00e+00	0	56	0	163577856	47	4638
2026-01-21 19:34:30.11	189.24	21.53	-37.9	-40.0	21.8	0.00e+00	0	56	0	164626432	47	4579
2026-01-21 19:34:31.12	188.80	21.62	-38.1	-40.2	21.6	0.00e+00	0	56	0	165675008	47	4683
2026-01-21 19:34:32.13	188.35	21.70	-38.0	-40.1	21.7	0.00e+00	0	56	0	166723584	47	4612
2026-01-21 19:34:33.14	187.91	21.79	-37.9	-39.9	22.0	0.00e+00	0	56	0	167772160	47	4523
2026-01-21 19:34:34.15	187.45	21.87	-37.6	-39.6	22.2	0.00e+00	0	56	0	169345024	47	4380
2026-01-21 19:34:35.16	187.00	21.95	-37.6	-39.5	22.3	0.00e+00	0	56	0	170393600	47	4332
2026-01-21 19:34:36.17	186.54	22.03	-37.5	-39.4	22.3	0.00e+00	0	56	0	171442176	46	4528
2026-01-21 19:34:37.18	186.09	22.11	-37.4	-39.4	22.4	0.00e+00	0	56	0	172490752	46	4506
2026-01-21 19:34:38.19	185.62	22.19	-37.4	-39.4	22.4	0.00e+00	0	56	0	173539328	46	4515
2026-01-21 19:34:39.20	185.16	22.27	-37.5	-39.4	22.4	0.00e+00	0	56	0	174587904	46	4542
2026-01-21 19:34:40.21	184.69	22.34	-37.4	-39.4	22.4	0.00e+00	0	56	0	176160768	46	4508
2026-01-21 19:34:41.22	184.22	22.42	-37.5	-39.4	22.4	0.00e+00	0	56	0	177209344	46	4522
2026-01-21 19:34:42.23	183.75	22.49	-37.4	-39.3	22.5	0.00e+00	0	56	0	178257920	46	4486
2026-01-21 19:34:43.24	183.27	22.56	-37.6	-39.6	22.1	0.00e+00	0	56	0	179306496	46	4613
2026-01-21 19:34:44.25	182.80	22.63	-37.8	-39.9	22.0	0.00e+00	0	56	0	180355072	46	4767
2026-01-21 19:34:45.26	182.32	22.70	-37.6	-39.6	22.2	0.00e+00	0	56	0	181403648	46	4622
2026-01-21 19:34:46.26	181.84	22.76	-37.6	-39.6	22.3	0.00e+00	0	56	0	182976512	46	4618
2026-01-21 19:34:47.27	181.35	22.83	-37.6	-39.6	22.2	0.00e+00	0	56	0	184025088	46	4626
2026-01-21 19:34:48.28	180.87	22.89	-37.6	-39.6	22.2	0.00e+00	0	56	0	185073664	46	4630
2026-01-21 19:34:49.29	180.38	22.95	-37.6	-39.6	22.2	0.00e+00	0	56	0	186122240	46	4630
2026-01-21 19:34:50.30	179.89	23.01	-37.5	-39.4	22.5	0.00e+00	0	56	0	187170816	46	4521
2026-01-21 19:34:51.31	179.39	23.07	-37.4	-39.3	22.5	0.00e+00	0	56	0	188219392	46	4465
2026-01-21 19:34:52.32	178.90	23.12	-37.3	-39.2	22.6	0.00e+00	0	56	0	189792256	46	4406
2026-01-21 19:34:53.33	178.40	23.17	-37.4	-39.3	22.3	0.00e+00	0	56	0	190840832	46	4492
2026-01-21 19:34:54.34	177.90	23.23	-37.5	-39.4	22.4	0.00e+00	0	56	0	191889408	46	4543
2026-01-21 19:34:55.35	177.40	23.28	-37.3	-39.2	22.6	0.00e+00	0	56	0	192937984	46	4435
2026-01-21 19:34:56.36	176.89	23.32	-37.2	-39.1	22.7	0.00e+00	0	56	0	193986560	46	4382
2026-01-21 19:34:57.37	176.39	23.37	-37.1	-38.9	23.0	0.00e+00	0	56	0	195035136	46	4258
2026-01-21 19:34:58.38	175.88	23.41	-37.0	-38.9	22.9	0.00e+00	0	56	0	196608000	46	4267
2026-01-21 19:34:59.39	175.37	23.46	-37.1	-38.9	23.0	0.00e+00	0	56	0	197656576	46	4273
2026-01-21 19:35:00.40	174.86	23.50	-37.1	-39.0	22.9	0.00e+00	0	56	0	198705152	46	4299
2026-01-21 19:35:01.41	174.35	23.53	-37.3	-39.2	22.7	0.00e+00	0	56	0	199753728	46	4417
2026-01-21 19:35:02.42	173.83	23.57	-37.3	-39.1	22.7	0.00e+00	0	56	0	200802304	46	4389
2026-01-21 19:35:03.43	173.32	23.60	-37.4	-39.3	22.8	0.00e+00	0	56	0	201850880	46	4443
2026-01-21 19:35:04.43	172.81	23.64	-37.1	-39.0	22.9	0.00e+00	0	56	0	203423744	46	4318
2026-01-21 19:35:05.44	172.29	23.66	-37.1	-38.9	23.0	0.00e+00	0	56	0	204472320	46	4290
2026-01-21 19:35:06.45	171.77	23.69	-37.1	-39.0	23.0	0.00e+00	0	56	0	205520896	46	4307
2026-01-21 19:35:07.46	171.25	23.72	-37.4	-39.3	22.7	0.00e+00	0	56	0	206569472	46	4459
2026-01-21 19:35:08.47	170.73	23.74	-37.6	-39.5	22.4	0.00e+00	0	56	0	207618048	46	4578
2026-01-21 19:35:09.48	170.21	23.76	-38.0	-40.0	22.0	0.00e+00	0	56	0	208666624	46	4842
2026-01-21 19:35:10.49	169.69	23.78	-37.9	-39.9	22.0	0.00e+00	0	56	0	210239488	46	4801
2026-01-21 19:35:11.50	169.17	23.80	-38.2	-40.3	21.7	0.00e+00	0	56	0	211288064	46	4987
2026-01-21 19:35:12.51	168.65	23.81	-38.2	-40.3	21.7	0.00e+00	0	56	0	212336640	47	4731
2026-01-21 19:35:13.52	168.12	23.82	-38.4	-40.6	21.4	0.00e+00	0	56	0	213385216	47	4875
2026-01-21 19:35:14.53	167.60	23.83	-38.3	-40.4	21.6	0.00e+00	0	56	0	214433792	47	4806
2026-01-21 19:35:15.54	167.07	23.84	-38.4	-40.6	21.5	0.00e+00	0	56	0	215482368	47	4871
2026-01-21 19:35:16.55	166.55	23.85	-38.1	-40.2	21.8	0.00e+00	0	56	0	217055232	47	4690
2026-01-21 19:35:17.56	166.03	23.85	-38.0	-40.1	22.0	0.00e+00	0	56	0	218103808	47	4599
2026-01-21 19:35:18.57	165.50	23.85	-38.0	-40.1	22.0	0.00e+00	0	56	0	219152384	47	4607
2026-01-21 19:35:19.58	164.98	23.85	-37.9	-40.0	22.1	0.00e+00	0	56	0	220200960	47	4553
2026-01-21 19:35:20.59	164.45	23.84	-37.7	-39.6	22.4	0.00e+00	0	56	0	221249536	47	4356
2026-01-21 19:35:21.60	163.93	23.84	-37.8	-39.7	22.3	0.00e+00	0	57	0	222298112	47	4435
2026-01-21 19:35:22.61	163.40	23.83	-37.8	-39.8	22.2	0.00e+00	0	56	0	223870976	47	4476
2026-01-21 19:35:23.62	162.88	23.82	-38.0	-40.0	22.0	0.00e+00	0	56	0	224919552	47	4578
2026-01-21 19:35:24.62	162.36	23.81	-37.9	-39.9	22.2	0.00e+00	0	56	0	225968128	47	4523
2026-01-21 19:35:25.63	161.84	23.79	-37.9	-39.9	22.2	0.00e+00	0	56	0	227016704	47	4513
2026-01-21 19:35:26.64	161.32	23.77	-37.8	-39.8	22.2	0.00e+00	0	56	0	228065280	47	4459
2026-01-21 19:35:27.65	160.80	23.75	-37.9	-40.0	22.0	0.00e+00	0	57	0	229113856	47	4563
2026-01-21 19:35:28.66	160.28	23.73	-37.9	-39.9	22.2	0.00e+00	0	57	0	230686720	47	4525
2026-01-21 19:35:29.68	159.75	23.71	-37.8	-39.8	22.2	0.00e+00	0	56	0	231735296	46	4758
2026-01-21 19:35:30.69	159.23	23.68	-37.7	-39.7	22.4	0.00e+00	0	56	0	232783872	46	4697
2026-01-21 19:35:31.70	158.71	23.65	-37.5	-39.5	22.5	0.00e+00	0	56	0	233832448	46	4568
2026-01-21 19:35:32.71	158.20	23.62	-37.5	-39.5	22.5	0.00e+00	0	56	0	234881024	46	4575
2026-01-21 19:35:33.71	157.69	23.59	-37.7	-39.7	22.4	0.00e+00	0	56	0	235929600	46	4671
2026-01-21 19:35:34.73	157.17	23.56	-37.5	-39.5	22.6	0.00e+00	0	56	0	237502464	46	4560
2026-01-21 19:35:35.74	156.66	23.52	-37.5	-39.4	22.7	0.00e+00	0	56	0	238551040	46	4508
2026-01-21 19:35:36.75	156.15	23.48	-37.6	-39.5	22.6	0.00e+00	0	56	0	239599616	46	4587
2026-01-21 19:35:37.75	155.64	23.44	-37.7	-39.8	22.3	0.00e+00	0	56	0	240648192	46	4706
2026-01-21 19:35:38.77	155.13	23.40	-37.9	-39.9	22.2	0.00e+00	0	56	0	241696768	46	4778
2026-01-21 19:35:39.78	154.62	23.35	-37.8	-39.8	22.3	0.00e+00	0	56	0	242745344	46	4710
2026-01-21 19:35:40.78	154.12	23.31	-37.5	-39.5	22.6	0.00e+00	0	56	0	244318208	46	4571
2026-01-21 19:35:41.79	153.62	23.26	-37.5	-39.4	22.6	0.00e+00	0	57	0	245366784	46	4541
2026-01-21 19:35:42.80	153.12	23.21	-37.5	-39.4	22.7	0.00e+00	0	57	0	246415360	46	4518
2026-01-21 19:35:43.81	152.62	23.16	-37.7	-39.7	22.4	0.00e+00	0	56	0	247463936	46	4694
2026-01-21 19:35:44.82	152.12	23.10	-37.8	-39.8	22.2	0.00e+00	0	56	0	248512512	46	4756
2026-01-21 19:35:45.83	151.63	23.05	-37.8	-39.8	22.3	0.00e+00	0	56	0	249561088	46	4753
2026-01-21 19:35:46.84	151.14	22.99	-37.6	-39.6	22.6	0.00e+00	0	57	0	251133952	46	4609
2026-01-21 19:35:47.85	150.65	22.93	-37.5	-39.5	22.7	0.00e+00	0	56	0	252182528	46	4547
2026-01-21 19:35:48.86	150.16	22.87	-37.5	-39.5	22.6	0.00e+00	0	57	0	253231104	46	4562
2026-01-21 19:35:49.87	149.67	22.80	-37.4	-39.4	22.7	0.00e+00	0	56	0	254279680	46	4508
2026-01-21 19:35:50.88	149.19	22.74	-37.3	-39.2	22.9	0.00e+00	0	57	0	255328256	46	4441
2026-01-21 19:35:51.89	148.71	22.67	-37.3	-39.2	22.9	0.00e+00	0	57	0	256376832	46	4416
2026-01-21 19:35:52.90	148.23	22.60	-37.5	-39.4	22.7	0.00e+00	0	57	0	257949696	46	4526
2026-01-21 19:35:53.91	147.75	22.53	-37.5	-39.4	22.7	0.00e+00	0	56	0	258998272	46	4526
2026-01-21 19:35:54.92	147.28	22.46	-37.6	-39.6	22.6	0.00e+00	0	57	0	260046848	46	4607
2026-01-21 19:35:55.93	146.81	22.39	-37.6	-39.6	22.5	0.00e+00	0	56	0	261095424	46	4635
2026-01-21 19:35:56.94	146.34	22.32	-37.7	-39.7	22.4	0.00e+00	0	56	0	262144000	46	4688
2026-01-21 19:35:57.94	145.88	22.24	-37.5	-39.5	22.6	0.00e+00	0	57	0	263192576	46	4569
2026-01-21 19:35:58.95	145.41	22.16	-37.6	-39.5	22.6	0.00e+00	0	56	0	264765440	46	4598
2026-01-21 19:35:59.96	144.95	22.09	-37.6	-39.6	22.5	0.00e+00	0	57	0	265814016	46	4643
2026-01-21 19:36:00.97	144.50	22.01	-37.7	-39.7	22.4	0.00e+00	0	57	0	266862592	46	4677
2026-01-21 19:36:01.98	144.04	21.93	-37.7	-39.7	22.4	0.00e+00	0	56	0	267911168	46	4692
2026-01-21 19:36:02.99	143.59	21.84	-37.8	-39.8	22.4	0.00e+00	0	57	0	268959744	46	4715
2026-01-21 19:36:04.00	143.14	21.76	-37.7	-39.7	22.4	0.00e+00	0	56	0	270008320	46	4686
2026-01-21 19:36:05.01	142.70	21.67	-37.8	-39.9	22.3	0.00e+00	0	57	0	271581184	46	4766
2026-01-21 19:36:06.02	142.25	21.59	-38.0	-40.0	22.1	0.00e+00	0	56	0	272629760	46	4856
2026-01-21 19:36:07.03	141.81	21.50	-38.0	-40.1	22.0	0.00e+00	0	57	0	273678336	46	4909
2026-01-21 19:36:08.04	141.38	21.41	-38.0	-40.0	22.1	0.00e+00	0	57	0	274726912	46	4866
2026-01-21 19:36:09.05	140.94	21.32	-38.0	-40.1	22.0	0.00e+00	0	57	0	275775488	46	4909
2026-01-21 19:36:10.06	140.51	21.23	-38.2	-40.3	21.8	0.00e+00	0	57	0	276824064	47	4750
2026-01-21 19:36:11.07	140.08	21.14	-38.4	-40.6	21.6	0.00e+00	0	57	0	278396928	47	4913
2026-01-21 19:36:12.08	139.66	21.05	-38.4	-40.6	21.6	0.00e+00	0	57	0	279445504	47	4899
2026-01-21 19:36:13.09	139.24	20.96	-38.3	-40.5	21.7	0.00e+00	0	57	0	280494080	47	4838
2026-01-21 19:36:14.10	138.82	20.86	-38.3	-40.4	21.7	0.00e+00	0	56	0	281542656	47	4801
2026-01-21 19:36:15.11	138.40	20.77	-38.0	-40.0	22.1	0.00e+00	0	57	0	282591232	47	4588
2026-01-21 19:36:16.11	137.99	20.67	-37.9	-39.9	22.2	0.00e+00	0	57	0	283639808	47	4530
2026-01-21 19:36:17.12	137.58	20.57	-38.2	-40.3	21.9	0.00e+00	0	56	0	285212672	47	4715
2026-01-21 19:36:18.13	137.18	20.48	-38.6	-40.8	21.4	0.00e+00	0	56	0	286261248	47	5020
2026-01-21 19:36:19.14	136.77	20.38	-39.1	-41.4	20.9	0.00e+00	0	57	0	287309824	48	5068
2026-01-21 19:36:20.15	136.37	20.28	-39.0	-41.4	20.8	0.00e+00	0	57	0	288358400	48	5065
2026-01-21 19:36:21.16	135.98	20.18	-38.8	-41.0	21.2	0.00e+00	0	57	0	289406976	48	4860
2026-01-21 19:36:22.17	135.58	20.08	-38.7	-40.9	21.3	0.00e+00	0	56	0	290455552	48	4778
2026-01-21 19:36:23.18	135.19	19.98	-38.6	-40.9	21.3	0.00e+00	0	57	0	292028416	48	4767
2026-01-21 19:36:24.19	134.80	19.88	-38.6	-40.8	21.4	0.00e+00	0	57	0	293076992	48	4750
2026-01-21 19:36:25.20	134.42	19.77	-38.5	-40.6	21.5	0.00e+00	0	57	0	294125568	48	4636
2026-01-21 19:36:26.21	134.04	19.67	-38.5	-40.7	21.5	0.00e+00	0	57	0	295174144	48	4683
2026-01-21 19:36:27.22	133.66	19.57	-38.7	-40.9	21.2	0.00e+00	0	57	0	296222720	48	4796
2026-01-21 19:36:28.22	133.29	19.47	-38.7	-40.9	21.3	0.00e+00	0	56	0	297271296	48	4782
2026-01-21 19:36:29.23	132.92	19.36	-38.9	-41.2	21.0	0.00e+00	0	57	0	298844160	48	4947
2026-01-21 19:36:30.24	132.55	19.26	-38.8	-41.1	21.0	0.00e+00	0	57	0	299892736	48	4926
2026-01-21 19:36:31.25	132.18	19.15	-38.7	-41.0	21.2	0.00e+00	0	57	0	300941312	48	4817
2026-01-21 19:36:32.26	131.82	19.05	-38.7	-41.0	21.1	2.20e-06	0	57	0	301989888	47	5126
2026-01-21 19:36:33.27	131.46	18.94	-38.5	-41.0	20.3	0.00e+00	0	57	0	303038464	47	5105
2026-01-21 19:36:34.28	131.10	18.83	-38.6	-41.1	20.4	0.00e+00	0	57	0	304087040	48	4885
2026-01-21 19:36:35.29	130.75	18.73	-38.7	-41.0	20.8	1.10e-06	0	57	0	305659904	47	5153
2026-01-21 19:36:36.30	130.40	18.62	-38.4	-41.0	21.0	3.40e-06	0	57	0	306708480	47	5138
2026-01-21 19:36:37.31	130.05	18.51	-38.8	-41.3	20.4	3.40e-06	0	57	0	307757056	48	5030
2026-01-21 19:36:38.31	129.71	18.41	-39.0	-41.4	20.7	3.40e-06	0	57	0	308805632	48	5064
2026-01-21 19:36:39.32	129.37	18.30	-39.0	-41.4	20.2	1.10e-06	0	57	0	309854208	48	5084
2026-01-21 19:36:40.33	129.03	18.19	-38.8	-41.1	20.9	1.10e-06	0	57	0	310902784	48	4883
2026-01-21 19:36:41.34	128.69	18.09	-38.3	-40.8	21.0	5.70e-06	0	57	0	311951360	47	5024
2026-01-21 19:36:42.35	128.36	17.98	-38.6	-40.9	21.0	1.79e-04	0	57	0	313524224	47	5065
2026-01-21 19:36:43.36	128.03	17.87	-38.4	-41.2	20.5	1.10e-06	0	57	0	314572800	48	4954
2026-01-21 19:36:44.37	127.70	17.76	-38.4	-41.4	19.7	1.10e-06	0	57	0	315621376	48	5051
2026-01-21 19:36:45.38	127.38	17.65	-38.2	-41.3	20.2	5.70e-06	0	57	0	316669952	48	4997
2026-01-21 19:36:46.40	127.05	17.54	-38.7	-41.1	20.8	1.02e-05	0	57	0	317718528	48	4899
2026-01-21 19:36:47.40	126.74	17.43	-38.7	-41.0	20.7	1.02e-05	0	57	0	319291392	47	5144
2026-01-21 19:36:48.41	126.42	17.33	-38.6	-41.0	20.9	4.50e-06	0	57	0	320339968	47	5136
2026-01-21 19:36:49.42	126.11	17.22	-38.9	-41.3	20.7	2.20e-06	0	57	0	321388544	48	5002
2026-01-21 19:36:50.43	125.80	17.11	-38.9	-41.4	20.4	2.20e-06	0	57	0	322437120	48	5068
2026-01-21 19:36:51.44	125.49	17.00	-39.0	-41.5	20.5	0.00e+00	0	57	0	323485696	48	5105
2026-01-21 19:36:52.45	125.19	16.89	-39.0	-41.4	20.2	0.00e+00	0	57	0	324534272	48	5088
2026-01-21 19:36:53.46	124.89	16.78	-38.9	-41.4	20.4	0.00e+00	0	57	0	326107136	48	5076
2026-01-21 19:36:54.47	124.59	16.67	-38.9	-41.5	20.2	0.00e+00	0	57	0	327155712	48	5126
2026-01-21 19:36:55.48	124.29	16.56	-39.0	-41.6	20.3	0.00e+00	0	57	0	328204288	48	5160
2026-01-21 19:36:56.49	124.00	16.46	-39.2	-41.7	20.2	0.00e+00	0	57	0	329252864	48	5256
2026-01-21 19:36:57.50	123.71	16.35	-39.2	-41.7	20.2	0.00e+00	0	57	0	330301440	48	5243
2026-01-21 19:36:58.51	123.42	16.24	-39.0	-41.5	20.3	0.00e+00	0	57	0	331350016	48	5105
2026-01-21 19:36:59.52	123.14	16.13	-39.0	-41.6	20.1	0.00e+00	0	57	0	332922880	48	5187
2026-01-21 19:37:00.53	122.85	16.02	-38.8	-41.4	20.1	0.00e+00	0	57	0	333971456	48	5076
2026-01-21 19:37:01.54	122.57	15.91	-39.1	-41.6	20.2	0.00e+00	0	57	0	335020032	48	5181
2026-01-21 19:37:02.55	122.30	15.81	-39.1	-41.7	19.9	0.00e+00	0	57	0	336068608	48	5270
2026-01-21 19:37:03.56	122.02	15.70	-39.3	-42.0	19.4	0.00e+00	0	57	0	337117184	49	5114
2026-01-21 19:37:04.56	121.75	15.59	-38.0	-42.0	18.6	0.00e+00	0	57	0	338165760	47	5751
2026-01-21 19:37:05.57	121.48	15.48	-39.3	-42.2	18.9	1.02e-05	0	57	0	339738624	49	5265
2026-01-21 19:37:06.58	121.21	15.38	-38.8	-42.1	19.2	1.02e-05	0	57	0	340787200	49	5196
2026-01-21 19:37:07.59	120.95	15.27	-38.3	-42.4	18.3	2.20e-06	0	57	0	341835776	48	5698
2026-01-21 19:37:08.60	120.69	15.16	-37.9	-42.1	18.0	1.02e-05	0	57	0	342884352	46	6161
2026-01-21 19:37:09.61	120.43	15.05	-38.6	-42.3	18.5	1.83e-05	0	57	0	343932928	48	5616
2026-01-21 19:37:10.62	120.17	14.95	-38.8	-42.3	18.1	1.83e-05	0	57	0	344981504	48	5651
2026-01-21 19:37:11.63	119.91	14.84	-35.0	-41.8	17.5	8.46e-05	0	57	0	346554368	44	6702
2026-01-21 19:37:12.64	119.66	14.74	-37.1	-42.1	18.6	2.63e-04	0	57	0	347602944	46	6151
2026-01-21 19:37:13.65	119.41	14.63	-35.7	-41.9	15.6	2.63e-04	0	57	0	348651520	42	7544
2026-01-21 19:37:14.65	119.16	14.52	-36.1	-41.9	15.5	6.03e-04	0	57	0	349700096	44	6760
2026-01-21 19:37:15.66	118.92	14.42	-38.6	-42.4	17.7	2.22e-03	0	57	0	350748672	47	6059
2026-01-21 19:37:16.67	118.67	14.31	-38.5	-42.6	16.8	2.22e-03	0	57	0	351797248	48	5807
2026-01-21 19:37:17.68	118.43	14.21	-38.1	-42.5	15.3	2.89e-04	0	57	0	352845824	47	6127
2026-01-21 19:37:18.69	118.19	14.10	-37.4	-42.6	15.8	2.22e-03	0	57	0	354418688	47	6155
2026-01-21 19:37:19.70	117.95	14.00	-38.9	-42.8	17.3	2.22e-03	0	57	0	355467264	47	6282
2026-01-21 19:37:20.71	117.72	13.89	-39.0	-42.8	17.4	7.79e-04	0	57	0	356515840	48	5950
2026-01-21 19:37:21.72	117.48	13.79	-38.2	-42.6	16.8	9.15e-04	0	57	0	357564416	47	6202
2026-01-21 19:37:22.73	117.25	13.69	-35.7	-43.1	17.0	1.91e-03	0	57	0	358612992	47	6508
2026-01-21 19:37:23.74	117.02	13.58	-38.0	-43.1	16.3	1.91e-03	0	57	0	359661568	45	7327
2026-01-21 19:37:24.74	116.80	13.48	-35.9	-42.7	16.9	9.72e-04	0	57	0	361234432	44	7450
2026-01-21 19:37:25.75	116.57	13.38	-36.7	-42.5	16.2	8.22e-04	0	57	0	362283008	41	8584
2026-01-21 19:37:26.76	116.35	13.28	-37.2	-43.0	16.7	8.22e-04	0	57	0	363331584	46	6833
2026-01-21 19:37:27.77	116.13	13.17	-37.3	-43.1	15.6	1.06e-03	0	57	0	364380160	45	7318
2026-01-21 19:37:28.78	115.91	13.07	-35.6	-42.9	16.0	1.12e-03	0	57	0	365428736	44	7622
2026-01-21 19:37:29.79	115.69	12.97	-37.4	-43.2	16.0	1.12e-03	0	57	0	366477312	43	8346
2026-01-21 19:37:30.80	115.48	12.87	-36.1	-43.0	16.3	2.83e-02	0	57	0	368050176	42	8607
2026-01-21 19:37:31.81	115.27	12.77	-35.5	-43.3	16.5	9.67e-04	0	57	0	369098752	46	7058
2026-01-21 19:37:32.81	115.06	12.67	-33.4	-43.1	15.1	9.67e-04	0	57	0	370147328	38	10986
2026-01-21 19:37:33.82	114.85	12.57	-33.5	-43.1	16.8	1.19e-02	0	57	0	371195904	45	7362
2026-01-21 19:37:34.84	114.64	12.47	-37.6	-42.9	17.2	6.48e-04	0	57	0	372244480	45	7183
2026-01-21 19:37:35.85	114.43	12.37	-38.2	-43.1	17.2	3.15e-04	0	57	0	373293056	47	6565
2026-01-21 19:37:36.86	114.23	12.27	-37.8	-42.7	16.7	3.15e-04	0	57	0	374865920	45	7018
2026-01-21 19:37:37.86	114.03	12.17	-38.9	-43.2	17.2	2.25e-04	0	57	0	375914496	48	6251
2026-01-21 19:37:38.88	113.83	12.07	-38.5	-43.7	17.0	1.99e-04	0	57	0	376963072	48	6631
2026-01-21 19:37:39.89	113.63	11.97	-38.9	-43.2	16.5	1.99e-04	0	57	0	378011648	47	6612
2026-01-21 19:37:40.90	113.43	11.87	-38.7	-43.9	15.5	3.48e-04	0	57	0	379060224	47	7189
2026-01-21 19:37:41.91	113.24	11.77	-38.4	-43.9	16.3	1.16e-03	0	57	0	380108800	48	6787
2026-01-21 19:37:42.92	113.05	11.68	-38.9	-43.7	14.7	1.16e-03	0	57	0	381681664	48	6643
2026-01-21 19:37:43.93	112.85	11.58	-35.5	-43.0	14.9	1.88e-03	0	57	0	382730240	45	7246
2026-01-21 19:37:44.94	112.67	11.48	-38.0	-43.9	13.6	6.49e-03	0	57	0	383778816	46	7588
2026-01-21 19:37:45.95	112.48	11.39	-37.1	-44.0	13.1	6.49e-03	0	57	0	384827392	43	9149
2026-01-21 19:37:46.96	112.29	11.29	-36.6	-43.6	13.7	2.38e-02	0	57	0	385875968	43	8701
2026-01-21 19:37:47.97	112.11	11.19	-31.3	-42.7	11.4	1.73e-02	0	57	0	386924544	36	11811
2026-01-21 19:37:48.98	111.92	11.10	-33.9	-43.4	12.6	8.36e-02	0	57	0	387973120	41	9499
2026-01-21 19:37:49.99	111.74	11.00	-34.8	-43.6	12.8	8.36e-02	0	57	0	389545984	43	8743
2026-01-21 19:37:51.00	111.56	10.91	-37.2	-43.5	13.4	3.73e-02	0	57	0	390594560	43	8631
2026-01-21 19:37:52.01	111.38	10.81	-36.5	-44.0	10.8	2.86e-02	0	57	0	391643136	42	9686
2026-01-21 19:37:53.02	111.21	10.72	-32.9	-43.8	9.1	2.86e-02	0	57	0	392691712	36	13274
2026-01-21 19:37:54.03	111.03	10.62	-36.7	-43.8	13.1	1.37e-01	0	57	0	393740288	43	8898
2026-01-21 19:37:55.04	110.86	10.53	-27.3	-42.6	10.1	4.90e-02	0	57	0	394788864	31	15548
2026-01-21 19:37:56.05	110.69	10.44	-34.3	-43.6	10.9	4.90e-02	0	57	0	395837440	36	12999
2026-01-21 19:37:57.05	110.52	10.35	-31.9	-44.2	8.2	2.45e-01	0	57	0	396886016	37	13151
2026-01-21 19:37:58.06	110.35	10.25	-29.3	-43.4	9.8	1.15e-01	0	57	0	397934592	37	12022
2026-01-21 19:37:59.07	110.18	10.16	-34.2	-43.9	13.1	1.07e-01	0	57	0	398983168	42	9524
2026-01-21 19:38:00.08	110.01	10.07	-33.0	-43.9	11.3	1.07e-01	0	57	0	400031744	42	9517
2026-01-21 19:38:01.09	109.85	9.98	-27.2	-41.0	6.5	8.39e-02	0	57	0	401080320	22	21746
2026-01-21 19:38:02.10	109.69	9.89	-34.8	-44.4	10.6	3.14e-01	0	57	0	402128896	39	12072
2026-01-21 19:38:03.11	109.52	9.80	-37.2	-44.4	12.9	3.14e-01	0	57	0	403177472	45	8506
2026-01-21 19:38:04.12	109.36	9.71	-30.3	-43.2	7.5	7.34e-02	0	57	0	404226048	31	16539
2026-01-21 19:38:05.13	109.20	9.61	-34.8	-44.6	11.5	2.48e-01	0	57	0	405274624	41	10910
2026-01-21 19:38:06.14	109.05	9.52	-37.2	-44.9	12.3	2.48e-01	0	57	0	406323200	45	9035
2026-01-21 19:38:07.15	108.89	9.44	-35.2	-44.4	12.5	4.37e-02	0	57	0	407371776	42	10129
2026-01-21 19:38:08.16	108.73	9.35	-35.0	-44.0	11.7	3.80e-02	0	57	0	408420352	40	10889
2026-01-21 19:38:09.17	108.58	9.26	-37.0	-44.6	12.5	3.80e-02	0	57	0	409468928	42	10311
2026-01-21 19:38:10.18	108.43	9.17	-37.3	-44.2	12.7	3.80e-02	0	57	0	410517504	42	9895
2026-01-21 19:38:11.19	108.27	9.08	-37.5	-44.1	14.0	2.34e-02	0	57	0	411566080	45	8214
2026-01-21 19:38:12.19	108.13	8.99	-38.2	-44.6	14.0	1.87e-02	0	57	0	413138944	46	8181
2026-01-21 19:38:13.20	107.98	8.91	-36.6	-44.4	13.6	1.87e-02	0	57	0	414187520	45	8530
2026-01-21 19:38:14.21	107.83	8.82	-38.4	-44.8	14.0	1.43e-02	0	57	0	415236096	47	7956
2026-01-21 19:38:15.22	107.68	8.73	-35.9	-45.2	11.5	1.70e-02	0	57	0	416284672	43	10419
2026-01-21 19:38:16.23	107.54	8.64	-37.6	-45.2	13.0	1.70e-02	0	57	0	417333248	47	8282
2026-01-21 19:38:17.24	107.39	8.56	-38.0	-44.7	13.6	1.68e-02	0	57	0	418381824	47	7871
2026-01-21 19:38:18.25	107.25	8.47	-38.2	-44.8	13.5	7.49e-03	0	57	0	419954688	47	7941
2026-01-21 19:38:19.26	107.11	8.39	-38.4	-45.5	13.0	7.49e-03	0	57	0	421003264	48	8141
2026-01-21 19:38:20.27	106.97	8.30	-38.6	-45.0	14.0	6.17e-03	0	57	0	422051840	48	7659
2026-01-21 19:38:21.28	106.83	8.22	-37.8	-44.9	14.0	3.72e-03	0	57	0	423100416	47	7995
2026-01-21 19:38:22.29	106.69	8.13	-38.4	-45.0	13.5	3.72e-03	0	57	0	424148992	48	7675
2026-01-21 19:38:23.30	106.55	8.05	-38.8	-44.9	13.0	1.65e-03	0	57	0	425721856	48	7610
2026-01-21 19:38:24.31	106.42	7.96	-42.5	-58.2	4.1	6.61e-02	0	57	104	425721856	49	33267
2026-01-21 19:38:25.32	106.28	7.88	-44.7	-62.8	3.8	8.38e-01	0	57	104	425721856	60	29982
2026-01-21 19:38:26.33	106.15	7.80	-44.9	-63.1	3.8	8.38e-01	0	57	104	425721856	60	31082
2026-01-21 19:38:27.34	106.01	7.71	-45.2	-63.4	3.8	8.48e-01	0	57	104	425721856	60	32043
2026-01-21 19:38:28.34	105.88	7.63	-45.4	-63.6	3.8	8.47e-01	0	57	104	425721856	61	31029
2026-01-21 19:38:29.35	105.75	7.55	-45.5	-63.8	3.8	8.47e-01	0	57	104	425721856	61	31646
2026-01-21 19:38:30.36	105.62	7.46	-45.6	-63.9	3.8	8.46e-01	0	57	104	425721856	61	32003
2026-01-21 19:38:31.37	105.49	7.38	-45.7	-64.1	3.8	8.46e-01	0	57	104	425721856	62	30839
2026-01-21 19:38:32.38	105.37	7.30	-45.8	-64.1	3.8	8.46e-01	0	57	104	425721856	62	30867
2026-01-21 19:38:33.39	105.24	7.22	-45.8	-64.0	3.8	8.47e-01	0	57	104	425721856	62	30719
2026-01-21 19:38:34.40	105.11	7.14	-45.7	-64.0	3.8	8.47e-01	0	57	104	425721856	62	30525
2026-01-21 19:38:35.41	104.99	7.06	-45.6	-63.8	3.8	8.47e-01	0	57	104	425721856	62	29877
2026-01-21 19:38:36.41	104.87	6.98	-45.6	-63.7	3.8	8.47e-01	0	57	104	425721856	62	29648
2026-01-21 19:38:37.42	104.74	6.90	-45.5	-63.7	3.8	8.45e-01	0	57	104	425721856	62	29442
2026-01-21 19:38:38.43	104.62	6.82	-45.5	-63.6	3.8	8.46e-01	0	57	104	425721856	62	29215
2026-01-21 19:38:39.44	104.50	6.74	-45.5	-63.6	3.8	8.46e-01	0	57	104	425721856	62	29213
2026-01-21 19:38:40.45	104.38	6.66	-45.4	-63.4	3.8	8.46e-01	0	57	104	425721856	62	28618
2026-01-21 19:38:41.45	104.26	6.58	-45.4	-63.5	3.8	8.45e-01	0	57	104	425721856	62	28720
2026-01-21 19:38:42.46	104.14	6.50	-45.4	-63.4	3.8	8.45e-01	0	57	104	425721856	62	28657
2026-01-21 19:38:43.47	104.03	6.42	-45.4	-63.5	3.8	8.47e-01	0	57	104	425721856	62	28718
2026-01-21 19:38:44.48	103.91	6.34	-45.3	-63.4	3.8	8.47e-01	0	57	104	425721856	62	28668
2026-01-21 19:38:45.48	103.80	6.27	-45.4	-63.5	3.8	8.47e-01	0	57	104	425721856	62	28680
2026-01-21 19:38:46.49	103.68	6.19	-45.3	-63.4	3.8	8.45e-01	0	58	104	425721856	62	28598
2026-01-21 19:38:47.49	103.57	6.11	-45.3	-63.4	3.8	8.46e-01	0	57	104	425721856	62	28576
2026-01-21 19:38:48.50	103.46	6.04	-45.3	-63.4	3.8	8.46e-01	0	57	104	425721856	62	28529
2026-01-21 19:38:49.50	103.35	5.96	-45.3	-63.4	3.8	8.46e-01	0	57	104	425721856	62	28506
2026-01-21 19:38:50.51	103.23	5.88	-45.4	-63.4	3.8	8.47e-01	0	57	104	425721856	62	28521
2026-01-21 19:38:51.52	103.12	5.81	-45.3	-63.4	3.8	8.46e-01	0	57	104	425721856	62	28566
2026-01-21 19:38:52.53	103.02	5.73	-45.3	-63.4	3.8	8.46e-01	0	57	104	425721856	62	28608
2026-01-21 19:38:53.53	102.91	5.65	-45.3	-63.4	3.8	8.48e-01	0	57	104	425721856	62	28577
2026-01-21 19:38:54.54	102.80	5.58	-45.3	-63.4	3.8	8.47e-01	0	57	104	425721856	62	28573
2026-01-21 19:38:55.55	102.69	5.50	-45.3	-63.4	3.8	8.47e-01	0	57	104	425721856	62	28608
2026-01-21 19:38:56.56	102.59	5.43	-45.3	-63.4	3.8	8.46e-01	0	57	104	425721856	62	28550
2026-01-21 19:38:57.57	102.48	5.35	-45.3	-63.4	3.8	8.46e-01	0	57	104	425721856	61	30111
2026-01-21 19:38:58.58	102.38	5.28	-45.3	-63.4	3.8	8.46e-01	0	57	104	425721856	61	30134
2026-01-21 19:38:59.58	102.27	5.20	-45.3	-63.4	3.8	8.46e-01	0	57	104	425721856	61	30235
2026-01-21 19:39:00.59	102.17	5.13	-45.3	-63.4	3.8	8.46e-01	0	57	104	425721856	61	30116
2026-01-21 19:39:01.59	102.07	5.06	-45.3	-63.4	3.8	8.46e-01	0	57	104	425721856	61	30100
2026-01-21 19:39:02.60	101.97	4.98	-45.3	-63.4	3.8	8.46e-01	0	57	104	425721856	61	30213
2026-01-21 19:39:03.61	101.87	4.91	-45.3	-63.4	3.8	8.47e-01	0	57	104	425721856	61	30084
2026-01-21 19:39:04.61	101.77	4.84	-45.3	-63.3	3.8	8.46e-01	0	57	104	425721856	61	30018
2026-01-21 19:39:05.62	101.67	4.77	-45.3	-63.4	3.8	8.46e-01	0	57	104	425721856	61	30078
2026-01-21 19:39:06.63	101.57	4.69	-45.3	-63.3	3.8	8.46e-01	0	57	104	425721856	61	30009
2026-01-21 19:39:07.63	101.47	4.62	-45.3	-63.4	3.8	8.46e-01	0	57	104	425721856	61	30083
2026-01-21 19:39:08.64	101.37	4.55	-45.3	-63.4	3.8	8.46e-01	0	57	104	425721856	61	30055
2026-01-21 19:39:09.64	101.28	4.48	-45.3	-63.4	3.8	8.46e-01	0	57	104	425721856	61	30033
2026-01-21 19:39:10.65	101.18	4.41	-45.3	-63.4	3.8	8.46e-01	0	57	104	425721856	61	30139
2026-01-21 19:39:11.66	101.09	4.33	-45.3	-63.4	3.8	8.46e-01	0	57	104	425721856	61	30056
2026-01-21 19:39:12.67	100.99	4.26	-45.3	-63.3	3.8	8.46e-01	0	57	104	425721856	61	30007
2026-01-21 19:39:13.68	100.90	4.19	-45.3	-63.4	3.8	8.46e-01	0	57	104	425721856	61	30077
2026-01-21 19:39:14.68	100.81	4.12	-45.3	-63.4	3.8	8.46e-01	0	57	104	425721856	61	30113
2026-01-21 19:39:15.69	100.71	4.05	-45.3	-63.4	3.8	8.46e-01	0	57	104	425721856	61	30066
2026-01-21 19:39:16.70	100.62	3.98	-45.3	-63.4	3.8	8.47e-01	0	57	104	425721856	61	30069
2026-01-21 19:39:17.71	100.53	3.91	-45.2	-63.3	3.8	8.46e-01	0	58	104	425721856	61	30001
2026-01-21 19:39:18.71	100.44	3.84	-45.3	-63.4	3.8	8.46e-01	0	57	104	425721856	61	30077
2026-01-21 19:39:19.72	100.35	3.77	-45.3	-63.4	3.8	8.47e-01	0	57	104	425721856	61	30061
2026-01-21 19:39:20.73	100.26	3.70	-45.3	-63.3	3.8	8.47e-01	0	57	104	425721856	61	29910
2026-01-21 19:39:21.74	100.17	3.63	-45.3	-63.3	3.8	8.47e-01	0	58	104	425721856	61	30012
2026-01-21 19:39:22.74	100.08	3.56	-45.3	-63.3	3.8	8.46e-01	0	58	104	425721856	61	29971
2026-01-21 19:39:23.75	100.00	3.50	-45.3	-63.3	3.8	8.46e-01	0	57	104	425721856	61	30004
2026-01-21 19:39:24.76	99.91	3.43	-45.2	-63.3	3.8	8.46e-01	0	58	104	425721856	61	30008
2026-01-21 19:39:25.76	99.82	3.36	-45.2	-63.3	3.8	8.48e-01	0	57	104	425721856	61	29959
2026-01-21 19:39:26.77	99.74	3.29	-45.3	-63.4	3.8	8.47e-01	0	58	104	425721856	61	30036
2026-01-21 19:39:27.78	99.65	3.22	-45.3	-63.3	3.8	8.47e-01	0	58	104	425721856	61	29977
2026-01-21 19:39:28.78	99.57	3.16	-45.3	-63.3	3.8	8.45e-01	0	57	104	425721856	61	29928
2026-01-21 19:39:29.79	99.49	3.09	-45.3	-63.4	3.8	8.47e-01	0	57	104	425721856	61	30043
2026-01-21 19:39:30.80	99.40	3.02	-45.3	-63.3	3.8	8.47e-01	0	57	104	425721856	61	30016
2026-01-21 19:39:31.81	99.32	2.95	-45.3	-63.3	3.8	8.47e-01	0	57	104	425721856	61	30007
2026-01-21 19:39:32.81	99.24	2.89	-45.3	-63.4	3.8	8.47e-01	0	57	104	425721856	61	30032
2026-01-21 19:39:33.82	99.16	2.82	-45.3	-63.3	3.8	8.46e-01	0	57	104	425721856	61	29960
2026-01-21 19:39:34.82	99.08	2.76	-45.3	-63.3	3.8	8.46e-01	0	57	104	425721856	61	29960
2026-01-21 19:39:35.83	98.99	2.69	-45.3	-63.3	3.8	8.45e-01	0	57	104	425721856	61	29940
2026-01-21 19:39:36.84	98.91	2.62	-45.3	-63.3	3.8	8.46e-01	0	57	104	425721856	61	29979
2026-01-21 19:39:37.84	98.84	2.56	-45.3	-63.3	3.8	8.46e-01	0	58	104	425721856	61	29936
2026-01-21 19:39:38.85	98.76	2.49	-45.3	-63.3	3.8	8.46e-01	0	57	104	425721856	61	29988
2026-01-21 19:39:39.86	98.68	2.43	-45.3	-63.4	3.8	8.45e-01	0	57	104	425721856	61	30052
2026-01-21 19:39:40.87	98.60	2.36	-45.2	-63.3	3.8	8.45e-01	0	58	104	425721856	61	29988
2026-01-21 19:39:41.87	98.52	2.30	-45.3	-63.3	3.8	8.47e-01	0	58	104	425721856	61	29931
2026-01-21 19:39:42.88	98.45	2.23	-45.2	-63.3	3.8	8.45e-01	0	58	104	425721856	61	29993
2026-01-21 19:39:43.88	98.37	2.17	-45.2	-63.3	3.8	8.45e-01	0	58	104	425721856	61	29890
2026-01-21 19:39:44.89	98.29	2.10	-45.3	-63.3	3.8	8.45e-01	0	58	104	425721856	61	29930
2026-01-21 19:39:45.90	98.22	2.04	-45.3	-63.3	3.8	8.45e-01	0	57	104	425721856	61	29937
2026-01-21 19:39:46.91	98.14	1.97	-45.2	-63.3	3.8	8.46e-01	0	57	104	425721856	61	29933
2026-01-21 19:39:47.92	98.07	1.91	-45.3	-63.3	3.8	8.46e-01	0	57	104	425721856	61	29977

#Closed at: 2026-01-21 19:39:48
#Recorded file [425 MB]: D:/lorett/data/31039_260121_223052.dat