passes_logs/2026/01/21/R2.0S_Moscow/R2.0S_Moscow__20260121_111422_NOAA_20_JPSS-1_rec.log

#Pass ID: 20260121_111422_NOAA 20 (JPSS-1)
#Satellite: NOAA 20 (JPSS-1)
#Configuration: NOAA 20
#almurnet v.1.7.20251203
#Start time: 2026-01-21 11:14:22

#Version: 2.2.20231116
#Station: R2.0S_Moscow
#Location: 37.707566 lon 55.798166 lat
#TLE: 1 43013U 17073A   26020.26397077  .00000127  00000+0  80954-4 0  9999
#TLE: 2 43013  98.7643 321.1479 0001288  31.3158 328.8095 14.19537595423482

#Time	Az	El	Level	Level2	SNR	BER	BlckErr	Temp	State	Recorded	gain1	gain2
2026-01-21 11:14:22.23	200.14	1.98	-44.0	-58.5	3.8	1.49e+00	0	52	0	0	59	19180
2026-01-21 11:14:23.24	200.20	2.04	-44.0	-58.5	3.8	1.49e+00	0	52	104	0	59	19169
2026-01-21 11:14:24.25	200.26	2.09	-44.0	-58.5	3.8	1.49e+00	0	52	104	0	59	19169
2026-01-21 11:14:25.26	200.32	2.15	-44.0	-58.5	3.8	1.49e+00	0	52	104	0	59	19221
2026-01-21 11:14:26.27	200.39	2.21	-44.0	-58.4	3.8	1.49e+00	0	52	104	0	59	19141
2026-01-21 11:14:27.28	200.45	2.27	-44.0	-58.4	3.8	1.49e+00	0	53	104	0	59	19162
2026-01-21 11:14:28.29	200.51	2.33	-44.0	-58.5	3.8	1.49e+00	0	53	104	0	59	19200
2026-01-21 11:14:29.30	200.58	2.39	-44.0	-58.4	3.8	1.49e+00	0	53	104	0	59	19150
2026-01-21 11:14:30.31	200.64	2.44	-44.0	-58.4	3.8	1.49e+00	0	53	104	0	59	19140
2026-01-21 11:14:31.32	200.71	2.50	-44.0	-58.5	3.8	1.49e+00	0	53	104	0	59	19195
2026-01-21 11:14:32.33	200.77	2.56	-44.0	-58.4	3.8	1.49e+00	0	53	104	0	59	19139
2026-01-21 11:14:33.34	200.83	2.62	-44.0	-58.4	3.8	1.49e+00	0	53	104	0	59	19140
2026-01-21 11:14:34.35	200.90	2.68	-44.0	-58.4	3.8	1.49e+00	0	53	104	0	59	19141
2026-01-21 11:14:35.36	200.97	2.74	-44.0	-58.4	3.8	1.49e+00	0	53	104	0	59	19123
2026-01-21 11:14:36.38	201.03	2.80	-44.0	-58.5	3.8	1.49e+00	0	53	104	0	59	19191
2026-01-21 11:14:37.39	201.10	2.86	-44.0	-58.4	3.8	1.49e+00	0	54	104	0	59	19154
2026-01-21 11:14:38.40	201.16	2.92	-44.0	-58.4	3.8	1.49e+00	0	53	104	0	59	19140
2026-01-21 11:14:39.41	201.23	2.98	-44.0	-58.4	3.8	1.49e+00	0	53	104	0	59	19125
2026-01-21 11:14:40.42	201.30	3.04	-44.0	-58.4	3.8	1.49e+00	0	54	104	0	59	19154
2026-01-21 11:14:41.43	201.36	3.10	-44.0	-58.4	3.8	1.49e+00	0	54	104	0	59	19107
2026-01-21 11:14:42.44	201.43	3.16	-44.0	-58.4	3.8	1.49e+00	0	54	104	0	59	19059
2026-01-21 11:14:43.45	201.50	3.22	-44.0	-58.4	3.8	1.49e+00	0	54	104	0	59	19109
2026-01-21 11:14:44.46	201.56	3.28	-44.0	-58.5	3.8	1.49e+00	0	54	104	0	59	19186
2026-01-21 11:14:45.47	201.63	3.34	-44.0	-58.4	3.8	1.49e+00	0	54	104	0	59	19163
2026-01-21 11:14:46.48	201.70	3.40	-44.0	-58.4	3.8	1.49e+00	0	54	104	0	59	19106
2026-01-21 11:14:47.49	201.77	3.46	-44.0	-58.4	3.8	1.49e+00	0	54	104	0	59	19111
2026-01-21 11:14:48.50	201.84	3.52	-44.0	-58.4	3.8	1.49e+00	0	54	104	0	59	19131
2026-01-21 11:14:49.51	201.91	3.58	-44.0	-58.4	3.8	1.49e+00	0	54	104	0	59	19091
2026-01-21 11:14:50.52	201.98	3.64	-44.0	-58.4	3.8	1.49e+00	0	54	104	0	59	19084
2026-01-21 11:14:51.53	202.04	3.70	-44.0	-58.4	3.8	1.49e+00	0	54	104	0	59	19103
2026-01-21 11:14:52.54	202.11	3.76	-44.0	-58.4	3.8	1.49e+00	0	54	104	0	59	19131
2026-01-21 11:14:53.55	202.18	3.83	-44.0	-58.4	3.8	1.49e+00	0	55	104	0	59	19156
2026-01-21 11:14:54.56	202.25	3.89	-44.0	-58.4	3.8	1.49e+00	0	54	104	0	59	19124
2026-01-21 11:14:55.57	202.33	3.95	-44.0	-58.4	3.8	1.49e+00	0	54	104	0	59	19124
2026-01-21 11:14:56.58	202.40	4.01	-44.0	-58.4	3.8	1.49e+00	0	54	104	0	59	19102
2026-01-21 11:14:57.59	202.47	4.07	-44.0	-58.4	3.8	1.49e+00	0	55	104	0	59	19081
2026-01-21 11:14:58.60	202.54	4.13	-44.0	-58.4	3.8	1.49e+00	0	55	104	0	59	19102
2026-01-21 11:14:59.61	202.61	4.19	-44.0	-58.4	3.8	1.49e+00	0	54	104	0	59	19107
2026-01-21 11:15:00.62	202.68	4.26	-44.0	-58.4	3.8	1.49e+00	0	55	104	0	59	19097
2026-01-21 11:15:01.63	202.75	4.32	-44.0	-58.4	3.8	1.49e+00	0	55	104	0	59	19134
2026-01-21 11:15:02.64	202.83	4.38	-44.0	-58.4	3.8	1.49e+00	0	55	104	0	59	19085
2026-01-21 11:15:03.65	202.90	4.44	-44.0	-58.4	3.8	1.49e+00	0	55	104	0	59	19092
2026-01-21 11:15:04.66	202.97	4.50	-44.0	-58.4	3.8	1.49e+00	0	55	104	0	59	19087
2026-01-21 11:15:05.67	203.05	4.57	-44.0	-58.4	3.8	1.49e+00	0	55	104	0	59	19147
2026-01-21 11:15:06.68	203.12	4.63	-44.0	-58.4	3.8	1.49e+00	0	55	104	0	59	19147
2026-01-21 11:15:07.70	203.20	4.69	-44.0	-58.4	3.8	1.49e+00	0	55	104	0	59	19107
2026-01-21 11:15:08.71	203.27	4.76	-44.0	-58.5	3.8	1.49e+00	0	55	104	0	59	19178
2026-01-21 11:15:09.72	203.34	4.82	-44.0	-58.4	3.8	1.49e+00	0	55	104	0	59	19019
2026-01-21 11:15:10.73	203.42	4.88	-44.0	-58.4	3.8	1.49e+00	0	55	104	0	59	19136
2026-01-21 11:15:11.74	203.49	4.94	-44.0	-58.4	3.8	1.49e+00	0	55	104	0	59	19044
2026-01-21 11:15:12.75	203.57	5.01	-44.0	-58.4	3.8	1.49e+00	0	55	104	0	59	19127
2026-01-21 11:15:13.76	203.65	5.07	-44.0	-58.4	3.8	1.49e+00	0	55	104	0	59	19074
2026-01-21 11:15:14.77	203.72	5.13	-44.0	-58.4	3.8	1.49e+00	0	56	104	0	59	19150
2026-01-21 11:15:15.78	203.80	5.20	-44.0	-58.4	3.8	1.49e+00	0	55	104	0	59	19031
2026-01-21 11:15:16.79	203.88	5.26	-44.0	-58.4	3.8	1.49e+00	0	55	104	0	59	19078
2026-01-21 11:15:17.80	203.95	5.32	-44.0	-58.4	3.8	1.49e+00	0	55	104	0	59	19038
2026-01-21 11:15:18.81	204.03	5.39	-44.0	-58.4	3.8	1.49e+00	0	56	104	0	59	18967
2026-01-21 11:15:19.82	204.11	5.45	-44.0	-58.4	3.8	1.49e+00	0	56	104	0	59	18972
2026-01-21 11:15:20.83	204.19	5.52	-44.0	-58.3	3.8	1.49e+00	0	56	104	0	59	18832
2026-01-21 11:15:21.84	204.27	5.58	-44.0	-58.2	3.8	1.49e+00	0	56	104	0	59	18690
2026-01-21 11:15:22.85	204.34	5.64	-44.0	-58.1	3.8	1.49e+00	0	56	104	0	59	18365
2026-01-21 11:15:23.86	204.42	5.71	-44.0	-58.0	3.8	1.49e+00	0	56	104	0	59	18239
2026-01-21 11:15:24.87	204.50	5.77	-43.9	-57.9	3.8	1.49e+00	0	56	104	0	59	17973
2026-01-21 11:15:25.88	204.58	5.84	-43.9	-57.7	3.8	1.49e+00	0	56	104	0	59	17493
2026-01-21 11:15:26.89	204.66	5.90	-43.9	-57.3	3.8	1.49e+00	0	56	104	0	59	16800
2026-01-21 11:15:27.90	204.74	5.97	-43.9	-57.1	3.8	1.49e+00	0	56	104	0	59	16317
2026-01-21 11:15:28.91	204.82	6.03	-43.9	-56.6	3.8	1.49e+00	0	56	104	0	59	15451
2026-01-21 11:15:29.92	204.91	6.10	-43.8	-56.1	3.8	1.49e+00	0	56	104	0	59	14601
2026-01-21 11:15:30.93	204.99	6.16	-43.8	-55.8	4.0	1.48e+00	0	56	104	0	59	14067
2026-01-21 11:15:31.94	205.07	6.23	-43.8	-55.5	3.9	1.47e+00	0	56	104	0	59	13721
2026-01-21 11:15:32.95	205.15	6.29	-43.8	-55.0	4.1	1.47e+00	0	56	104	0	59	12939
2026-01-21 11:15:33.96	205.23	6.36	-43.7	-54.4	4.3	1.38e+00	0	56	0	0	59	12043
2026-01-21 11:15:34.97	205.32	6.42	-43.6	-53.8	4.5	1.04e+00	3	56	0	1048576	59	11270
2026-01-21 11:15:35.98	205.40	6.49	-43.6	-53.8	4.5	9.86e-01	0	56	0	3145728	59	11282
2026-01-21 11:15:36.99	205.48	6.56	-43.6	-53.6	4.6	9.77e-01	0	56	0	5242880	59	10928
2026-01-21 11:15:38.00	205.57	6.62	-43.6	-53.2	4.8	8.75e-01	0	56	0	7340032	59	10524
2026-01-21 11:15:39.02	205.65	6.69	-43.6	-53.2	4.8	8.06e-01	0	56	0	8388608	59	10488
2026-01-21 11:15:40.03	205.74	6.75	-43.5	-53.0	4.9	7.65e-01	0	57	0	10485760	59	10232
2026-01-21 11:15:41.04	205.82	6.82	-43.6	-53.6	4.6	8.98e-01	0	56	0	12582912	59	10960
2026-01-21 11:15:42.05	205.91	6.89	-43.6	-53.6	4.6	9.35e-01	0	57	0	14680064	59	11004
2026-01-21 11:15:43.06	205.99	6.95	-43.6	-53.7	4.6	9.30e-01	0	57	0	16777216	59	11081
2026-01-21 11:15:44.07	206.08	7.02	-43.7	-53.9	4.5	9.61e-01	3	57	0	17825792	59	11398
2026-01-21 11:15:45.07	206.17	7.09	-43.6	-53.8	4.6	1.03e+00	0	57	0	19922944	59	11158
2026-01-21 11:15:46.08	206.25	7.15	-43.6	-53.5	4.7	9.55e-01	0	57	0	22020096	59	10879
2026-01-21 11:15:47.09	206.34	7.22	-43.5	-52.9	5.0	8.37e-01	0	57	0	24117248	59	10153
2026-01-21 11:15:48.10	206.43	7.29	-43.4	-52.4	5.3	6.17e-01	0	57	0	26214400	58	10064
2026-01-21 11:15:49.11	206.52	7.36	-43.3	-51.6	5.8	4.54e-01	0	57	0	28311552	58	9224
2026-01-21 11:15:50.12	206.61	7.42	-43.2	-51.0	6.2	3.17e-01	0	57	0	29360128	58	8605
2026-01-21 11:15:51.13	206.70	7.49	-43.0	-49.9	7.2	1.69e-01	0	57	0	31457280	58	7549
2026-01-21 11:15:52.14	206.78	7.56	-42.8	-49.2	7.8	9.15e-02	0	57	0	33554432	57	7449
2026-01-21 11:15:53.15	206.87	7.63	-42.7	-48.7	8.3	7.41e-02	0	57	0	35651584	57	7024
2026-01-21 11:15:54.16	206.96	7.69	-42.5	-48.2	8.9	3.26e-02	0	57	0	37748736	57	6583
2026-01-21 11:15:55.17	207.06	7.76	-42.4	-47.9	9.2	2.20e-02	0	57	0	38797312	56	6772
2026-01-21 11:15:56.18	207.15	7.83	-42.3	-47.6	9.5	1.50e-02	0	57	0	40894464	56	6541
2026-01-21 11:15:57.19	207.24	7.90	-42.3	-47.7	9.5	1.47e-02	0	57	0	42991616	56	6571
2026-01-21 11:15:58.20	207.33	7.97	-42.2	-47.5	9.6	1.30e-02	0	57	0	45088768	56	6487
2026-01-21 11:15:59.21	207.42	8.04	-42.4	-47.9	9.2	1.59e-02	0	57	0	47185920	56	6756
2026-01-21 11:16:00.22	207.51	8.10	-42.6	-48.2	9.1	1.37e-02	0	57	0	48234496	56	6977
2026-01-21 11:16:01.23	207.61	8.17	-43.7	-56.2	3.8	1.37e+00	0	57	104	49283072	58	15756
2026-01-21 11:16:02.24	207.70	8.24	-43.5	-52.2	5.4	1.71e-01	0	57	0	49283072	57	10527
2026-01-21 11:16:03.25	207.80	8.31	-43.0	-49.5	7.7	1.98e-01	0	57	0	51380224	57	7643
2026-01-21 11:16:04.26	207.89	8.38	-43.6	-53.6	4.6	9.63e-01	26	57	0	52428800	58	11570
2026-01-21 11:16:05.27	207.98	8.45	-42.6	-48.4	8.8	5.04e-02	0	57	0	54525952	57	6777
2026-01-21 11:16:06.28	208.08	8.52	-42.7	-48.6	8.6	3.24e-02	0	57	0	56623104	57	6918
2026-01-21 11:16:07.29	208.18	8.59	-42.5	-48.0	9.2	2.27e-02	0	57	0	58720256	57	6478
2026-01-21 11:16:08.30	208.27	8.66	-42.3	-47.6	9.8	1.13e-02	0	57	0	60817408	56	6495
2026-01-21 11:16:09.31	208.37	8.73	-42.4	-47.7	9.6	1.22e-02	0	57	0	61865984	56	6613
2026-01-21 11:16:10.32	208.47	8.80	-42.5	-47.8	9.5	1.09e-02	0	57	0	63963136	56	6709
2026-01-21 11:16:11.32	208.56	8.87	-42.3	-47.3	10.0	9.89e-03	0	58	0	66060288	56	6344
2026-01-21 11:16:12.33	208.66	8.94	-42.3	-47.2	10.2	6.38e-03	0	58	0	68157440	56	6244
2026-01-21 11:16:13.34	208.76	9.01	-42.3	-47.3	10.1	6.50e-03	0	58	0	70254592	56	6314
2026-01-21 11:16:14.35	208.86	9.08	-42.4	-47.5	9.9	7.32e-03	0	58	0	72351744	56	6454
2026-01-21 11:16:15.36	208.96	9.15	-42.2	-47.0	10.5	5.88e-03	0	58	0	73400320	56	6070
2026-01-21 11:16:16.37	209.06	9.22	-42.2	-47.1	10.4	5.43e-03	0	58	0	75497472	56	6144
2026-01-21 11:16:17.38	209.16	9.29	-42.3	-47.2	10.3	5.77e-03	0	58	0	77594624	56	6209
2026-01-21 11:16:18.39	209.26	9.36	-42.2	-47.0	10.4	4.54e-03	0	58	0	79691776	56	6115
2026-01-21 11:16:19.40	209.36	9.43	-42.2	-47.0	10.5	4.33e-03	0	58	0	81788928	56	6108
2026-01-21 11:16:20.41	209.46	9.50	-42.2	-47.0	10.5	3.78e-03	0	58	0	82837504	56	6062
2026-01-21 11:16:21.42	209.56	9.57	-42.3	-47.1	10.4	4.47e-03	0	58	0	84934656	56	6154
2026-01-21 11:16:22.43	209.66	9.65	-42.3	-47.0	10.5	4.26e-03	0	58	0	87031808	56	6110
2026-01-21 11:16:23.44	209.77	9.72	-42.2	-46.9	10.6	4.44e-03	0	58	0	89128960	56	6056
2026-01-21 11:16:24.45	209.87	9.79	-42.3	-47.0	10.5	4.18e-03	0	58	0	91226112	56	6131
2026-01-21 11:16:25.46	209.98	9.86	-42.3	-47.1	10.5	3.63e-03	0	58	0	92274688	56	6142
2026-01-21 11:16:26.47	210.08	9.93	-42.3	-47.1	10.5	3.74e-03	0	58	0	94371840	56	6161
2026-01-21 11:16:27.48	210.19	10.00	-42.3	-46.9	10.6	3.28e-03	0	58	0	96468992	56	6056
2026-01-21 11:16:28.49	210.29	10.08	-42.3	-47.0	10.6	3.28e-03	0	58	0	98566144	56	6121
2026-01-21 11:16:29.50	210.40	10.15	-42.3	-46.9	10.8	2.43e-03	0	58	0	100663296	56	6013
2026-01-21 11:16:30.50	210.50	10.22	-42.2	-46.8	10.8	2.81e-03	0	58	0	101711872	56	5990
2026-01-21 11:16:31.51	210.61	10.29	-42.3	-46.9	10.7	2.47e-03	0	58	0	103809024	56	6032
2026-01-21 11:16:32.52	210.72	10.37	-42.2	-46.8	10.9	2.44e-03	0	58	0	105906176	56	5954
2026-01-21 11:16:33.53	210.83	10.44	-42.2	-46.7	11.0	2.11e-03	0	58	0	108003328	56	5901
2026-01-21 11:16:34.54	210.93	10.51	-42.2	-46.8	10.9	2.04e-03	0	58	0	110100480	56	5945
2026-01-21 11:16:35.55	211.04	10.59	-42.3	-46.9	10.8	2.13e-03	0	58	0	111149056	56	6017
2026-01-21 11:16:36.56	211.15	10.66	-42.1	-46.5	11.2	1.51e-03	0	58	0	113246208	56	5757
2026-01-21 11:16:37.57	211.26	10.73	-42.2	-46.6	11.1	1.40e-03	0	58	0	115343360	56	5835
2026-01-21 11:16:38.58	211.37	10.80	-42.1	-46.5	11.2	1.71e-03	0	58	0	117440512	56	5776
2026-01-21 11:16:39.59	211.49	10.88	-42.1	-46.5	11.3	1.08e-03	0	58	0	119537664	56	5729
2026-01-21 11:16:40.60	211.60	10.95	-42.2	-46.6	11.2	1.49e-03	0	58	0	120586240	56	5800
2026-01-21 11:16:41.61	211.71	11.03	-42.1	-46.5	11.2	1.17e-03	0	58	0	122683392	56	5777
2026-01-21 11:16:42.62	211.82	11.10	-42.2	-46.6	11.2	1.30e-03	0	58	0	124780544	56	5790
2026-01-21 11:16:43.63	211.94	11.17	-42.1	-46.4	11.4	1.20e-03	0	58	0	126877696	56	5691
2026-01-21 11:16:44.64	212.05	11.25	-42.1	-46.5	11.3	1.02e-03	0	58	0	128974848	56	5754
2026-01-21 11:16:45.65	212.16	11.32	-42.2	-46.6	11.2	1.33e-03	0	59	0	130023424	56	5790
2026-01-21 11:16:46.66	212.28	11.40	-42.2	-46.6	11.2	1.19e-03	0	58	0	132120576	56	5811
2026-01-21 11:16:47.67	212.40	11.47	-42.2	-46.6	11.2	1.47e-03	0	58	0	134217728	56	5815
2026-01-21 11:16:48.68	212.51	11.55	-42.2	-46.7	11.1	1.43e-03	0	58	0	136314880	56	5878
2026-01-21 11:16:49.69	212.63	11.62	-42.3	-46.9	10.9	2.05e-03	0	58	0	138412032	56	6009
2026-01-21 11:16:50.70	212.75	11.70	-42.3	-46.8	11.0	1.87e-03	0	59	0	140509184	56	5951
2026-01-21 11:16:51.71	212.86	11.77	-42.2	-46.7	11.1	1.75e-03	0	59	0	141557760	56	5875
2026-01-21 11:16:52.72	212.98	11.85	-42.3	-46.7	11.1	1.59e-03	0	58	0	143654912	56	5875
2026-01-21 11:16:53.73	213.10	11.92	-42.3	-46.7	11.1	1.52e-03	0	58	0	145752064	56	5893
2026-01-21 11:16:54.74	213.22	12.00	-42.3	-46.7	11.1	1.70e-03	0	58	0	147849216	56	5901
2026-01-21 11:16:55.75	213.34	12.07	-42.3	-46.7	11.1	1.48e-03	0	58	0	149946368	56	5880
2026-01-21 11:16:56.76	213.46	12.15	-42.3	-46.7	11.1	1.63e-03	0	59	0	150994944	56	5913
2026-01-21 11:16:57.77	213.59	12.22	-42.3	-46.8	11.1	1.48e-03	0	59	0	153092096	56	5945
2026-01-21 11:16:58.78	213.71	12.30	-42.3	-46.6	11.2	1.48e-03	0	59	0	155189248	56	5854
2026-01-21 11:16:59.78	213.83	12.38	-42.2	-46.5	11.3	1.27e-03	0	59	0	157286400	56	5786
2026-01-21 11:17:00.79	213.95	12.45	-42.2	-46.5	11.3	1.23e-03	0	59	0	159383552	56	5787
2026-01-21 11:17:01.80	214.08	12.53	-42.0	-46.3	11.4	1.07e-03	0	58	0	160432128	55	5934
2026-01-21 11:17:02.81	214.20	12.60	-42.1	-46.4	11.3	9.78e-04	0	59	0	162529280	55	6034
2026-01-21 11:17:03.82	214.33	12.68	-42.1	-46.4	11.3	1.27e-03	0	59	0	164626432	55	6023
2026-01-21 11:17:04.83	214.45	12.76	-42.0	-46.2	11.5	1.06e-03	0	59	0	166723584	55	5896
2026-01-21 11:17:05.84	214.58	12.83	-42.0	-46.2	11.5	7.94e-04	0	59	0	168820736	55	5898
2026-01-21 11:17:06.85	214.71	12.91	-42.0	-46.3	11.5	8.40e-04	0	59	0	169869312	55	5936
2026-01-21 11:17:07.86	214.83	12.99	-42.1	-46.3	11.4	9.47e-04	0	59	0	171966464	55	5977
2026-01-21 11:17:08.86	214.96	13.06	-42.1	-46.3	11.4	9.73e-04	0	59	0	174063616	55	5992
2026-01-21 11:17:09.87	215.09	13.14	-42.1	-46.4	11.4	9.69e-04	0	59	0	176160768	55	6002
2026-01-21 11:17:10.88	215.22	13.22	-42.1	-46.3	11.5	1.02e-03	0	59	0	178257920	55	5940
2026-01-21 11:17:11.89	215.35	13.30	-42.1	-46.3	11.4	9.27e-04	0	59	0	179306496	55	5990
2026-01-21 11:17:12.90	215.48	13.37	-42.1	-46.3	11.4	8.84e-04	0	59	0	181403648	55	5987
2026-01-21 11:17:13.91	215.61	13.45	-42.0	-46.2	11.5	9.20e-04	0	59	0	183500800	55	5909
2026-01-21 11:17:14.92	215.75	13.53	-42.0	-46.2	11.5	7.15e-04	0	59	0	185597952	55	5917
2026-01-21 11:17:15.93	215.88	13.61	-42.0	-46.1	11.7	6.23e-04	0	59	0	187695104	55	5807
2026-01-21 11:17:16.94	216.01	13.69	-42.0	-46.2	11.6	6.65e-04	0	59	0	188743680	55	5874
2026-01-21 11:17:17.95	216.15	13.76	-42.0	-46.1	11.7	6.14e-04	0	59	0	190840832	55	5844
2026-01-21 11:17:18.96	216.28	13.84	-42.1	-46.2	11.6	7.00e-04	0	59	0	192937984	55	5893
2026-01-21 11:17:19.97	216.42	13.92	-42.1	-46.2	11.6	7.03e-04	0	59	0	195035136	55	5923
2026-01-21 11:17:20.98	216.56	14.00	-42.1	-46.3	11.6	7.79e-04	0	59	0	197132288	55	5929
2026-01-21 11:17:21.99	216.69	14.08	-42.2	-46.4	11.4	8.67e-04	0	59	0	198180864	55	6043
2026-01-21 11:17:23.00	216.83	14.16	-42.2	-46.5	11.3	1.22e-03	0	59	0	200278016	55	6086
2026-01-21 11:17:24.01	216.97	14.23	-42.2	-46.6	11.3	1.14e-03	0	59	0	202375168	55	6152
2026-01-21 11:17:25.02	217.11	14.31	-42.2	-46.6	11.3	1.19e-03	0	59	0	204472320	55	6139
2026-01-21 11:17:26.03	217.25	14.39	-42.3	-46.6	11.2	1.29e-03	0	59	0	206569472	55	6176
2026-01-21 11:17:27.03	217.39	14.47	-42.3	-46.6	11.3	1.35e-03	0	59	0	208666624	55	6171
2026-01-21 11:17:28.04	217.53	14.55	-42.3	-46.6	11.2	1.39e-03	0	59	0	209715200	55	6190
2026-01-21 11:17:29.06	217.67	14.63	-42.3	-46.6	11.3	1.19e-03	0	59	0	211812352	55	6132
2026-01-21 11:17:30.06	217.82	14.71	-42.2	-46.4	11.5	1.01e-03	0	59	0	213909504	55	6020
2026-01-21 11:17:31.07	217.96	14.79	-42.0	-46.4	11.4	8.86e-04	0	59	0	216006656	55	6041
2026-01-21 11:17:32.08	218.10	14.87	-42.2	-46.4	11.5	9.25e-04	0	59	0	218103808	55	5997
2026-01-21 11:17:33.09	218.25	14.95	-42.2	-46.3	11.6	6.69e-04	0	59	0	219152384	55	5958
2026-01-21 11:17:34.10	218.40	15.03	-42.1	-46.3	11.6	7.98e-04	0	59	0	221249536	55	5960
2026-01-21 11:17:35.11	218.54	15.11	-42.2	-46.3	11.5	6.68e-04	0	59	0	223346688	55	5991
2026-01-21 11:17:36.12	218.69	15.19	-42.2	-46.4	11.5	8.83e-04	0	59	0	225443840	55	6014
2026-01-21 11:17:37.13	218.84	15.27	-42.2	-46.3	11.6	7.65e-04	0	59	0	227540992	55	5977
2026-01-21 11:17:38.14	218.99	15.35	-42.2	-46.4	11.5	8.48e-04	0	59	0	228589568	55	6059
2026-01-21 11:17:39.15	219.14	15.43	-42.2	-46.4	11.5	8.46e-04	0	59	0	230686720	55	6044
2026-01-21 11:17:40.16	219.29	15.51	-42.2	-46.3	11.6	9.39e-04	0	59	0	232783872	55	5970
2026-01-21 11:17:41.17	219.44	15.59	-42.2	-46.3	11.6	7.24e-04	0	59	0	234881024	55	5977
2026-01-21 11:17:42.18	219.59	15.67	-42.2	-46.3	11.6	6.80e-04	0	60	0	236978176	55	5967
2026-01-21 11:17:43.19	219.74	15.75	-42.1	-46.2	11.7	6.00e-04	0	59	0	238026752	55	5907
2026-01-21 11:17:44.20	219.90	15.83	-42.1	-46.3	11.7	6.15e-04	0	59	0	240123904	55	5935
2026-01-21 11:17:45.21	220.05	15.91	-42.1	-46.2	11.8	5.87e-04	0	60	0	242221056	55	5860
2026-01-21 11:17:46.22	220.21	15.99	-42.1	-46.1	11.8	4.71e-04	0	59	0	244318208	55	5830
2026-01-21 11:17:47.23	220.36	16.07	-42.0	-46.0	12.0	3.90e-04	0	59	0	246415360	55	5768
2026-01-21 11:17:48.24	220.52	16.15	-42.0	-46.0	12.0	3.55e-04	0	59	0	247463936	55	5775
2026-01-21 11:17:49.24	220.68	16.23	-42.1	-46.1	11.8	4.00e-04	0	59	0	249561088	55	5851
2026-01-21 11:17:50.25	220.84	16.31	-42.1	-46.1	11.8	3.99e-04	0	60	0	251658240	55	5844
2026-01-21 11:17:51.27	221.00	16.39	-42.1	-46.0	11.9	4.04e-04	0	59	0	253755392	55	5788
2026-01-21 11:17:52.27	221.16	16.47	-42.0	-46.0	12.0	3.09e-04	0	59	0	255852544	55	5732
2026-01-21 11:17:53.28	221.32	16.55	-42.1	-46.0	12.0	3.14e-04	0	59	0	256901120	55	5784
2026-01-21 11:17:54.29	221.48	16.63	-42.0	-46.0	12.0	3.25e-04	0	60	0	258998272	55	5748
2026-01-21 11:17:55.30	221.64	16.72	-42.0	-46.0	12.1	3.20e-04	0	60	0	261095424	55	5731
2026-01-21 11:17:56.31	221.81	16.80	-41.9	-45.8	12.2	2.56e-04	0	59	0	263192576	55	5630
2026-01-21 11:17:57.32	221.97	16.88	-41.8	-45.8	12.2	2.33e-04	0	59	0	265289728	55	5639
2026-01-21 11:17:58.33	222.14	16.96	-41.7	-45.7	12.3	2.20e-04	0	60	0	266338304	55	5575
2026-01-21 11:17:59.34	222.30	17.04	-41.8	-45.8	12.2	2.07e-04	0	60	0	268435456	55	5616
2026-01-21 11:18:00.35	222.47	17.12	-41.8	-45.8	12.1	2.01e-04	0	60	0	270532608	55	5646
2026-01-21 11:18:01.36	222.64	17.20	-41.8	-45.9	12.1	2.45e-04	0	60	0	272629760	55	5659
2026-01-21 11:18:02.37	222.81	17.29	-41.7	-45.7	12.3	2.04e-04	0	59	0	274726912	55	5557
2026-01-21 11:18:03.38	222.98	17.37	-41.7	-45.5	12.5	1.46e-04	0	60	0	276824064	55	5447
2026-01-21 11:18:04.39	223.15	17.45	-41.7	-45.6	12.4	1.42e-04	0	59	0	277872640	55	5499
2026-01-21 11:18:05.40	223.32	17.53	-41.7	-45.6	12.4	1.26e-04	0	60	0	279969792	55	5524
2026-01-21 11:18:06.41	223.49	17.61	-41.7	-45.5	12.5	1.22e-04	0	60	0	282066944	55	5454
2026-01-21 11:18:07.42	223.67	17.69	-41.7	-45.6	12.5	1.27e-04	0	59	0	284164096	55	5498
2026-01-21 11:18:08.43	223.84	17.78	-41.7	-45.6	12.4	1.62e-04	0	60	0	285212672	55	5489
2026-01-21 11:18:09.43	224.02	17.86	-41.7	-45.5	12.5	1.54e-04	0	59	0	287309824	55	5448
2026-01-21 11:18:10.44	224.19	17.94	-41.8	-45.5	12.5	1.07e-04	0	60	0	289406976	55	5464
2026-01-21 11:18:11.45	224.37	18.02	-41.8	-45.5	12.5	9.38e-05	0	59	0	291504128	55	5445
2026-01-21 11:18:12.46	224.55	18.10	-41.7	-45.5	12.5	8.69e-05	0	60	0	293601280	55	5441
2026-01-21 11:18:13.47	224.73	18.18	-41.8	-45.5	12.5	1.11e-04	0	60	0	294649856	55	5453
2026-01-21 11:18:14.48	224.91	18.26	-41.8	-45.5	12.6	1.20e-04	0	60	0	296747008	55	5415
2026-01-21 11:18:15.49	225.09	18.35	-41.8	-45.5	12.7	9.15e-05	0	60	0	298844160	55	5403
2026-01-21 11:18:16.50	225.27	18.43	-41.6	-45.4	12.7	8.23e-05	0	60	0	300941312	55	5379
2026-01-21 11:18:17.51	225.45	18.51	-41.7	-45.4	12.7	9.07e-05	0	60	0	303038464	55	5361
2026-01-21 11:18:18.52	225.64	18.59	-41.8	-45.5	12.6	7.70e-05	0	60	0	305135616	55	5413
2026-01-21 11:18:19.53	225.82	18.67	-41.8	-45.4	12.7	8.54e-05	0	60	0	306184192	55	5376
2026-01-21 11:18:20.54	226.01	18.75	-41.7	-45.3	12.8	6.56e-05	0	60	0	308281344	55	5311
2026-01-21 11:18:21.55	226.19	18.84	-41.7	-45.3	12.8	4.34e-05	0	60	0	310378496	55	5333
2026-01-21 11:18:22.55	226.38	18.92	-41.7	-45.3	12.8	5.64e-05	0	60	0	312475648	55	5331
2026-01-21 11:18:23.56	226.57	19.00	-41.7	-45.3	12.8	6.48e-05	0	60	0	314572800	55	5328
2026-01-21 11:18:24.57	226.76	19.08	-41.6	-45.2	12.9	5.64e-05	0	60	0	315621376	54	5530
2026-01-21 11:18:25.58	226.95	19.16	-41.6	-45.1	13.0	5.26e-05	0	60	0	317718528	54	5514
2026-01-21 11:18:26.59	227.14	19.24	-41.6	-45.2	12.9	5.11e-05	0	59	0	319815680	54	5544
2026-01-21 11:18:27.60	227.33	19.32	-41.6	-45.1	13.0	4.34e-05	0	60	0	321912832	54	5493
2026-01-21 11:18:28.61	227.53	19.40	-41.6	-45.1	13.1	4.19e-05	0	60	0	324009984	54	5468
2026-01-21 11:18:29.62	227.72	19.49	-41.5	-45.0	13.1	2.13e-05	0	60	0	325058560	54	5464
2026-01-21 11:18:30.63	227.92	19.57	-41.6	-45.1	13.1	3.50e-05	0	60	0	327155712	54	5469
2026-01-21 11:18:31.64	228.11	19.65	-41.6	-45.1	13.1	3.81e-05	0	60	0	329252864	54	5465
2026-01-21 11:18:32.65	228.31	19.73	-41.6	-45.1	13.0	3.05e-05	0	60	0	331350016	54	5523
2026-01-21 11:18:33.66	228.51	19.81	-41.6	-45.1	13.0	3.96e-05	0	60	0	333447168	54	5483
2026-01-21 11:18:34.67	228.71	19.89	-41.5	-45.0	13.1	2.59e-05	0	60	0	334495744	54	5438
2026-01-21 11:18:35.68	228.91	19.97	-41.3	-45.0	13.1	3.20e-05	0	60	0	336592896	54	5434
2026-01-21 11:18:36.69	229.11	20.05	-41.5	-45.0	13.1	3.35e-05	0	60	0	338690048	54	5444
2026-01-21 11:18:37.70	229.31	20.13	-41.5	-45.0	13.1	3.43e-05	0	60	0	340787200	54	5411
2026-01-21 11:18:38.71	229.52	20.21	-41.4	-44.7	13.4	2.74e-05	0	60	0	342884352	54	5263
2026-01-21 11:18:39.72	229.72	20.29	-41.4	-44.8	13.3	2.13e-05	0	60	0	343932928	54	5298
2026-01-21 11:18:40.73	229.93	20.37	-41.5	-44.9	13.2	2.36e-05	0	60	0	346030080	54	5344
2026-01-21 11:18:41.74	230.14	20.45	-41.5	-45.0	13.1	2.28e-05	0	60	0	348127232	54	5416
2026-01-21 11:18:42.75	230.34	20.53	-41.6	-45.1	13.0	3.12e-05	0	60	0	350224384	54	5470
2026-01-21 11:18:43.76	230.55	20.61	-41.4	-44.8	13.4	1.44e-05	0	60	0	352321536	54	5289
2026-01-21 11:18:44.77	230.76	20.69	-41.4	-44.7	13.5	1.06e-05	0	60	0	353370112	54	5245
2026-01-21 11:18:45.77	230.97	20.77	-41.4	-44.8	13.4	6.80e-06	0	60	0	355467264	54	5287
2026-01-21 11:18:46.78	231.19	20.85	-41.4	-44.8	13.4	1.29e-05	0	60	0	357564416	54	5281
2026-01-21 11:18:47.79	231.40	20.93	-41.4	-44.7	13.4	1.60e-05	0	60	0	359661568	54	5277
2026-01-21 11:18:48.80	231.61	21.01	-41.5	-44.9	13.2	9.90e-06	0	60	0	361758720	54	5384
2026-01-21 11:18:49.81	231.83	21.09	-41.5	-44.9	13.2	1.90e-05	0	60	0	362807296	54	5396
2026-01-21 11:18:50.82	232.05	21.17	-41.5	-44.9	13.2	1.83e-05	0	60	0	364904448	54	5380
2026-01-21 11:18:51.83	232.26	21.25	-41.5	-44.9	13.2	3.20e-05	0	60	0	367001600	54	5396
2026-01-21 11:18:52.84	232.48	21.33	-41.4	-44.9	13.3	2.05e-05	0	60	0	369098752	54	5355
2026-01-21 11:18:53.85	232.70	21.41	-41.4	-44.9	13.2	1.67e-05	0	60	0	371195904	54	5387
2026-01-21 11:18:54.86	232.92	21.48	-41.4	-44.9	13.2	1.75e-05	0	60	0	373293056	54	5389
2026-01-21 11:18:55.87	233.14	21.56	-41.4	-44.8	13.3	1.22e-05	0	60	0	374341632	54	5316
2026-01-21 11:18:56.88	233.37	21.64	-41.4	-44.8	13.3	1.37e-05	0	60	0	376438784	54	5336
2026-01-21 11:18:57.89	233.59	21.72	-41.5	-44.9	13.3	1.52e-05	0	60	0	378535936	54	5382
2026-01-21 11:18:58.90	233.82	21.80	-41.5	-44.9	13.2	2.51e-05	0	60	0	380633088	54	5400
2026-01-21 11:18:59.91	234.04	21.87	-41.4	-44.8	13.4	1.98e-05	0	60	0	382730240	54	5298
2026-01-21 11:19:00.92	234.27	21.95	-41.3	-44.7	13.5	1.37e-05	0	60	0	383778816	54	5253
2026-01-21 11:19:01.92	234.50	22.03	-41.3	-44.7	13.5	1.44e-05	0	60	0	385875968	54	5240
2026-01-21 11:19:02.93	234.73	22.10	-41.4	-44.8	13.4	1.29e-05	0	60	0	387973120	54	5299
2026-01-21 11:19:03.94	234.96	22.18	-41.3	-44.7	13.5	1.37e-05	0	60	0	390070272	54	5228
2026-01-21 11:19:04.95	235.19	22.26	-41.3	-44.6	13.5	9.90e-06	0	60	0	392167424	54	5203
2026-01-21 11:19:05.96	235.42	22.33	-41.2	-44.5	13.7	5.30e-06	0	60	0	393216000	54	5133
2026-01-21 11:19:06.97	235.66	22.41	-41.3	-44.5	13.7	6.80e-06	0	60	0	395313152	54	5139
2026-01-21 11:19:07.98	235.89	22.48	-41.3	-44.5	13.7	9.10e-06	0	60	0	397410304	54	5122
2026-01-21 11:19:08.99	236.13	22.56	-41.3	-44.5	13.7	7.60e-06	0	60	0	399507456	54	5110
2026-01-21 11:19:10.00	236.37	22.63	-41.3	-44.5	13.7	2.20e-06	0	60	0	401604608	54	5127
2026-01-21 11:19:11.01	236.61	22.71	-41.3	-44.6	13.6	1.06e-05	0	60	0	402653184	54	5207
2026-01-21 11:19:12.02	236.85	22.78	-41.4	-44.8	13.4	7.60e-06	0	60	0	404750336	54	5313
2026-01-21 11:19:13.03	237.09	22.85	-41.5	-44.9	13.3	2.05e-05	0	60	0	406847488	54	5345
2026-01-21 11:19:14.04	237.33	22.93	-41.5	-44.8	13.4	1.06e-05	0	60	0	408944640	54	5308
2026-01-21 11:19:15.05	237.57	23.00	-41.5	-44.8	13.4	1.52e-05	0	60	0	411041792	54	5318
2026-01-21 11:19:16.06	237.82	23.07	-41.5	-44.8	13.4	2.44e-05	0	60	0	412090368	54	5310
2026-01-21 11:19:17.07	238.06	23.15	-41.5	-44.9	13.3	1.67e-05	0	60	0	414187520	54	5375
2026-01-21 11:19:18.08	238.31	23.22	-41.7	-45.2	13.0	3.43e-05	0	60	0	416284672	54	5558
2026-01-21 11:19:19.09	238.55	23.29	-41.7	-45.2	13.0	3.28e-05	0	60	0	418381824	54	5543
2026-01-21 11:19:20.10	238.80	23.36	-41.8	-45.4	12.8	4.34e-05	0	60	0	420478976	54	5663
2026-01-21 11:19:21.11	239.05	23.43	-41.9	-45.5	12.7	5.49e-05	0	60	0	421527552	54	5770
2026-01-21 11:19:22.12	239.30	23.51	-41.9	-45.6	12.6	9.38e-05	0	60	0	423624704	54	5797
2026-01-21 11:19:23.13	239.56	23.58	-42.0	-45.8	12.4	1.08e-04	0	60	0	425721856	54	5949
2026-01-21 11:19:24.14	239.81	23.65	-42.0	-45.8	12.3	1.64e-04	0	60	0	427819008	54	5962
2026-01-21 11:19:25.14	240.06	23.72	-42.0	-45.9	12.3	1.62e-04	0	60	0	429916160	54	5996
2026-01-21 11:19:26.16	240.32	23.79	-42.0	-45.7	12.5	1.23e-04	0	60	0	430964736	54	5902
2026-01-21 11:19:27.16	240.57	23.85	-41.9	-45.6	12.6	1.20e-04	0	60	0	433061888	54	5799
2026-01-21 11:19:28.17	240.83	23.92	-42.0	-45.6	12.6	1.05e-04	0	60	0	435159040	54	5850
2026-01-21 11:19:29.18	241.09	23.99	-41.9	-45.6	12.6	9.53e-05	0	60	0	437256192	54	5811
2026-01-21 11:19:30.19	241.35	24.06	-41.9	-45.5	12.7	8.62e-05	0	60	0	439353344	54	5733
2026-01-21 11:19:31.20	241.61	24.13	-41.8	-45.4	12.8	5.87e-05	0	60	0	441450496	54	5666
2026-01-21 11:19:32.21	241.87	24.19	-41.9	-45.5	12.8	7.24e-05	0	60	0	442499072	54	5733
2026-01-21 11:19:33.22	242.13	24.26	-41.9	-45.5	12.7	6.63e-05	0	60	0	444596224	54	5755
2026-01-21 11:19:34.23	242.40	24.33	-41.9	-45.6	12.6	6.86e-05	0	60	0	446693376	54	5824
2026-01-21 11:19:35.24	242.66	24.39	-42.0	-45.7	12.5	9.99e-05	0	60	0	448790528	54	5865
2026-01-21 11:19:36.25	242.93	24.46	-42.0	-45.7	12.5	1.06e-04	0	60	0	450887680	54	5863
2026-01-21 11:19:37.25	243.19	24.52	-42.0	-45.6	12.5	1.38e-04	0	60	0	451936256	54	5851
2026-01-21 11:19:38.26	243.46	24.58	-42.1	-45.9	12.3	1.64e-04	0	60	0	454033408	54	5995
2026-01-21 11:19:39.27	243.73	24.65	-42.1	-45.9	12.3	1.56e-04	0	60	0	456130560	54	6044
2026-01-21 11:19:40.29	244.00	24.71	-42.0	-45.7	12.5	1.48e-04	0	60	0	458227712	54	5907
2026-01-21 11:19:41.30	244.28	24.77	-42.0	-45.8	12.5	1.37e-04	0	60	0	460324864	54	5927
2026-01-21 11:19:42.30	244.55	24.84	-42.0	-45.7	12.4	1.08e-04	0	60	0	461373440	54	5914
2026-01-21 11:19:43.31	244.82	24.90	-42.0	-45.8	12.4	1.53e-04	0	60	0	463470592	54	5972
2026-01-21 11:19:44.32	245.09	24.96	-42.1	-46.0	12.2	1.88e-04	0	60	0	465567744	54	6084
2026-01-21 11:19:45.33	245.37	25.02	-42.2	-46.1	12.0	3.15e-04	0	60	0	467664896	54	6179
2026-01-21 11:19:46.34	245.65	25.08	-42.3	-46.3	11.9	3.73e-04	0	60	0	469762048	55	5959
2026-01-21 11:19:47.35	245.92	25.14	-42.3	-46.5	11.7	4.97e-04	0	60	0	470810624	55	6073
2026-01-21 11:19:48.36	246.20	25.20	-42.4	-46.6	11.6	6.44e-04	0	60	0	472907776	55	6148
2026-01-21 11:19:49.37	246.48	25.25	-42.4	-46.6	11.5	7.07e-04	0	60	0	475004928	55	6176
2026-01-21 11:19:50.38	246.76	25.31	-42.5	-46.7	11.5	8.35e-04	0	60	0	477102080	55	6217
2026-01-21 11:19:51.39	247.05	25.37	-42.5	-46.7	11.4	9.29e-04	0	60	0	479199232	55	6247
2026-01-21 11:19:52.40	247.33	25.43	-42.4	-46.7	11.5	8.60e-04	0	60	0	480247808	55	6213
2026-01-21 11:19:53.41	247.61	25.48	-42.5	-46.7	11.4	1.09e-03	0	60	0	482344960	55	6252
2026-01-21 11:19:54.42	247.90	25.54	-42.5	-46.8	11.4	1.04e-03	0	60	0	484442112	55	6282
2026-01-21 11:19:55.42	248.18	25.59	-42.5	-46.8	11.3	1.08e-03	0	60	0	486539264	55	6328
2026-01-21 11:19:56.43	248.47	25.64	-42.6	-47.0	11.1	1.21e-03	0	60	0	488636416	55	6452
2026-01-21 11:19:57.44	248.75	25.70	-42.6	-47.1	11.0	1.89e-03	0	60	0	489684992	55	6538
2026-01-21 11:19:58.46	249.04	25.75	-42.9	-47.5	10.8	2.38e-03	0	60	0	491782144	56	6442
2026-01-21 11:19:59.46	249.33	25.80	-43.0	-47.7	10.6	3.06e-03	0	60	0	493879296	56	6590
2026-01-21 11:20:00.47	249.62	25.85	-43.0	-47.8	10.6	3.61e-03	0	60	0	495976448	56	6656
2026-01-21 11:20:01.48	249.91	25.90	-43.1	-47.9	10.3	5.26e-03	0	61	0	498073600	56	6771
2026-01-21 11:20:02.49	250.20	25.95	-43.1	-47.9	10.3	5.04e-03	0	60	0	499122176	56	6789
2026-01-21 11:20:03.50	250.50	26.00	-43.1	-48.0	10.3	5.05e-03	0	60	0	501219328	56	6826
2026-01-21 11:20:04.51	250.79	26.05	-43.1	-48.1	10.2	6.15e-03	0	60	0	503316480	56	6913
2026-01-21 11:20:05.52	251.09	26.10	-43.2	-48.3	9.9	7.47e-03	0	60	0	505413632	57	6685
2026-01-21 11:20:06.53	251.38	26.15	-43.3	-48.5	9.8	9.00e-03	0	60	0	507510784	57	6819
2026-01-21 11:20:07.54	251.68	26.19	-43.3	-48.6	9.7	1.16e-02	0	61	0	509607936	57	6893
2026-01-21 11:20:08.55	251.98	26.24	-43.4	-48.7	9.5	1.28e-02	0	60	0	510656512	57	7019
2026-01-21 11:20:09.56	252.27	26.28	-43.4	-48.8	9.4	1.49e-02	0	61	0	512753664	57	7075
2026-01-21 11:20:10.57	252.57	26.33	-43.4	-48.8	9.3	1.62e-02	0	60	0	514850816	57	7114
2026-01-21 11:20:11.58	252.87	26.37	-43.3	-48.6	9.6	1.33e-02	0	60	0	516947968	57	6927
2026-01-21 11:20:12.59	253.17	26.41	-43.3	-48.6	9.6	1.22e-02	0	60	0	519045120	57	6884
2026-01-21 11:20:13.60	253.47	26.46	-43.3	-48.6	9.7	1.16e-02	0	60	0	520093696	57	6889
2026-01-21 11:20:14.61	253.78	26.50	-43.3	-48.4	9.8	9.91e-03	0	60	0	522190848	57	6767
2026-01-21 11:20:15.62	254.08	26.54	-43.2	-48.3	9.9	9.36e-03	0	60	0	524288000	57	6659
2026-01-21 11:20:16.63	254.38	26.58	-43.3	-48.5	9.8	8.86e-03	0	60	0	526385152	57	6810
2026-01-21 11:20:17.64	254.69	26.62	-43.3	-48.5	9.7	1.05e-02	0	60	0	528482304	57	6860
2026-01-21 11:20:18.65	254.99	26.65	-43.4	-48.7	9.5	1.22e-02	0	60	0	529530880	57	6985
2026-01-21 11:20:19.65	255.30	26.69	-43.4	-48.7	9.6	1.23e-02	0	60	0	531628032	57	6973
2026-01-21 11:20:20.66	255.60	26.73	-43.4	-48.7	9.5	1.45e-02	0	60	0	533725184	57	6999
2026-01-21 11:20:21.67	255.91	26.76	-43.4	-48.7	9.5	1.46e-02	0	60	0	535822336	57	7030
2026-01-21 11:20:22.68	256.22	26.80	-43.5	-48.9	9.2	1.69e-02	0	60	0	537919488	57	7204
2026-01-21 11:20:23.69	256.52	26.83	-43.4	-48.8	9.4	1.61e-02	0	60	0	538968064	57	7086
2026-01-21 11:20:24.70	256.83	26.86	-43.5	-49.0	9.2	1.71e-02	0	60	0	541065216	57	7206
2026-01-21 11:20:25.71	257.14	26.90	-43.4	-48.9	9.3	1.77e-02	0	60	0	543162368	57	7150
2026-01-21 11:20:26.72	257.45	26.93	-43.4	-48.9	9.3	1.74e-02	0	60	0	545259520	57	7159
2026-01-21 11:20:27.73	257.76	26.96	-43.4	-48.8	9.4	1.69e-02	0	60	0	547356672	57	7079
2026-01-21 11:20:28.74	258.08	26.99	-43.4	-48.8	9.4	1.70e-02	0	60	0	548405248	57	7077
2026-01-21 11:20:29.75	258.39	27.02	-43.3	-48.6	9.6	1.46e-02	0	60	0	550502400	57	6910
2026-01-21 11:20:30.76	258.70	27.05	-43.3	-48.5	9.7	1.07e-02	0	60	0	552599552	57	6804
2026-01-21 11:20:31.77	259.01	27.07	-43.1	-48.0	10.3	6.94e-03	0	60	0	554696704	57	6479
2026-01-21 11:20:32.78	259.33	27.10	-43.0	-47.7	10.5	4.31e-03	0	60	0	556793856	57	6250
2026-01-21 11:20:33.79	259.64	27.12	-42.9	-47.6	10.7	3.61e-03	0	60	0	557842432	57	6149
2026-01-21 11:20:34.80	259.96	27.15	-42.9	-47.5	10.8	2.61e-03	0	60	0	559939584	57	6081
2026-01-21 11:20:35.81	260.27	27.17	-42.9	-47.4	10.9	2.49e-03	0	60	0	562036736	57	6020
2026-01-21 11:20:36.82	260.59	27.19	-43.0	-47.6	10.7	2.66e-03	0	60	0	564133888	57	6162
2026-01-21 11:20:37.82	260.90	27.22	-43.0	-47.8	10.5	3.46e-03	0	61	0	566231040	57	6277
2026-01-21 11:20:38.83	261.21	27.24	-43.1	-48.1	10.2	4.96e-03	0	60	0	567279616	57	6497
2026-01-21 11:20:39.84	261.53	27.26	-43.2	-48.3	9.9	8.17e-03	0	61	0	569376768	57	6700
2026-01-21 11:20:40.85	261.85	27.28	-43.3	-48.4	9.8	8.83e-03	0	61	0	571473920	57	6785
2026-01-21 11:20:41.86	262.17	27.29	-43.2	-48.4	9.9	1.10e-02	0	60	0	573571072	57	6736
2026-01-21 11:20:42.87	262.48	27.31	-43.3	-48.4	9.9	9.80e-03	0	61	0	575668224	57	6737
2026-01-21 11:20:43.88	262.80	27.33	-43.2	-48.3	10.0	8.39e-03	0	61	0	577765376	57	6668
2026-01-21 11:20:44.89	263.12	27.34	-43.2	-48.2	10.1	8.40e-03	0	60	0	578813952	57	6581
2026-01-21 11:20:45.90	263.44	27.36	-43.1	-48.1	10.1	6.78e-03	0	61	0	580911104	57	6549
2026-01-21 11:20:46.91	263.76	27.37	-43.2	-48.2	10.0	7.91e-03	0	60	0	583008256	57	6645
2026-01-21 11:20:47.92	264.08	27.38	-43.3	-48.4	9.8	9.60e-03	0	61	0	585105408	57	6757
2026-01-21 11:20:48.93	264.40	27.40	-43.2	-48.2	10.0	8.07e-03	0	60	0	587202560	57	6577
2026-01-21 11:20:49.94	264.71	27.41	-43.1	-48.1	10.1	7.08e-03	0	60	0	588251136	57	6558
2026-01-21 11:20:50.95	265.03	27.42	-43.1	-47.9	10.4	6.01e-03	0	61	0	590348288	57	6361
2026-01-21 11:20:51.96	265.35	27.42	-43.0	-47.9	10.4	4.98e-03	0	60	0	592445440	57	6360
2026-01-21 11:20:52.97	265.67	27.43	-43.0	-47.7	10.5	3.97e-03	0	61	0	594542592	57	6229
2026-01-21 11:20:53.98	265.99	27.44	-43.0	-47.7	10.6	3.23e-03	0	60	0	596639744	57	6219
2026-01-21 11:20:54.99	266.31	27.45	-43.0	-47.7	10.6	4.14e-03	0	60	0	597688320	57	6236
2026-01-21 11:20:56.00	266.64	27.45	-43.0	-47.6	10.7	3.83e-03	0	60	0	599785472	57	6141
2026-01-21 11:20:57.00	266.95	27.45	-42.8	-47.3	11.0	2.12e-03	0	60	0	601882624	57	5956
2026-01-21 11:20:58.01	267.27	27.46	-42.7	-47.0	11.3	1.56e-03	0	60	0	603979776	57	5737
2026-01-21 11:20:59.02	267.59	27.46	-42.6	-46.9	11.4	9.53e-04	0	61	0	606076928	57	5675
2026-01-21 11:21:00.03	267.91	27.46	-42.7	-46.9	11.4	1.02e-03	0	61	0	607125504	57	5714
2026-01-21 11:21:01.04	268.23	27.46	-42.6	-46.9	11.4	1.17e-03	0	60	0	609222656	57	5688
2026-01-21 11:21:02.05	268.56	27.46	-42.7	-47.1	11.2	1.11e-03	0	60	0	611319808	57	5829
2026-01-21 11:21:03.06	268.88	27.46	-42.8	-47.2	11.1	1.49e-03	0	61	0	613416960	57	5902
2026-01-21 11:21:04.07	269.20	27.46	-42.8	-47.2	11.1	1.92e-03	0	60	0	615514112	57	5903
2026-01-21 11:21:05.08	269.52	27.45	-42.8	-47.3	11.1	1.87e-03	0	60	0	616562688	57	5924
2026-01-21 11:21:06.09	269.84	27.45	-42.7	-47.0	11.3	1.39e-03	0	60	0	618659840	57	5748
2026-01-21 11:21:07.10	270.16	27.44	-42.5	-46.6	11.7	7.90e-04	0	61	0	620756992	57	5514
2026-01-21 11:21:08.11	270.48	27.44	-42.3	-46.3	12.1	4.03e-04	0	61	0	622854144	56	5595
2026-01-21 11:21:09.12	270.80	27.43	-42.3	-46.2	12.1	2.55e-04	0	61	0	624951296	56	5571
2026-01-21 11:21:10.13	271.12	27.42	-42.4	-46.4	11.9	3.29e-04	0	61	0	625999872	56	5713
2026-01-21 11:21:11.14	271.44	27.41	-42.4	-46.4	12.0	2.96e-04	0	60	0	628097024	56	5671
2026-01-21 11:21:12.15	271.76	27.40	-42.5	-46.6	11.7	4.07e-04	0	61	0	630194176	56	5824
2026-01-21 11:21:13.16	272.08	27.39	-42.6	-46.8	11.5	7.22e-04	0	60	0	632291328	56	5980
2026-01-21 11:21:14.17	272.39	27.38	-42.7	-47.0	11.3	1.11e-03	0	60	0	634388480	56	6120
2026-01-21 11:21:15.18	272.71	27.37	-42.7	-47.1	11.2	1.30e-03	0	61	0	635437056	56	6145
2026-01-21 11:21:16.19	273.03	27.35	-42.8	-47.2	11.1	1.41e-03	0	61	0	637534208	56	6222
2026-01-21 11:21:17.20	273.35	27.34	-42.7	-47.1	11.2	1.51e-03	0	60	0	639631360	56	6144
2026-01-21 11:21:18.21	273.67	27.32	-42.7	-47.1	11.2	1.31e-03	0	60	0	641728512	56	6146
2026-01-21 11:21:19.22	273.99	27.31	-42.7	-47.1	11.2	1.21e-03	0	60	0	643825664	56	6169
2026-01-21 11:21:20.23	274.30	27.29	-42.6	-46.9	11.5	1.15e-03	0	60	0	645922816	56	6019
2026-01-21 11:21:21.24	274.62	27.27	-42.7	-47.0	11.2	1.07e-03	0	61	0	646971392	56	6128
2026-01-21 11:21:22.25	274.94	27.25	-42.8	-47.3	11.0	1.68e-03	0	61	0	649068544	56	6293
2026-01-21 11:21:23.26	275.25	27.23	-42.9	-47.5	10.7	2.50e-03	0	61	0	651165696	56	6470
2026-01-21 11:21:24.27	275.57	27.21	-43.0	-47.9	10.4	3.41e-03	0	61	0	653262848	56	6728
2026-01-21 11:21:25.27	275.88	27.19	-43.1	-47.9	10.4	4.44e-03	0	60	0	654311424	56	6766
2026-01-21 11:21:26.28	276.19	27.16	-43.1	-47.9	10.3	4.94e-03	0	61	0	656408576	56	6789
2026-01-21 11:21:27.29	276.51	27.14	-43.1	-47.9	10.4	5.21e-03	0	61	0	658505728	56	6737
2026-01-21 11:21:28.30	276.82	27.12	-43.0	-47.7	10.6	4.84e-03	0	61	0	660602880	56	6609
2026-01-21 11:21:29.31	277.14	27.09	-42.8	-47.4	10.9	2.62e-03	0	61	0	662700032	56	6378
2026-01-21 11:21:30.32	277.45	27.06	-42.7	-47.0	11.3	1.42e-03	0	61	0	663748608	56	6104
2026-01-21 11:21:31.33	277.76	27.04	-42.6	-46.8	11.5	9.16e-04	0	60	0	665845760	56	5959
2026-01-21 11:21:32.34	278.07	27.01	-42.6	-46.8	11.5	6.23e-04	0	61	0	667942912	56	5943
2026-01-21 11:21:33.35	278.38	26.98	-42.6	-46.8	11.5	8.06e-04	0	61	0	670040064	56	5931
2026-01-21 11:21:34.36	278.70	26.95	-42.7	-47.0	11.3	8.95e-04	0	61	0	672137216	56	6102
2026-01-21 11:21:35.37	279.01	26.92	-42.7	-47.2	11.1	1.62e-03	0	61	0	674234368	56	6222
2026-01-21 11:21:36.38	279.31	26.89	-42.8	-47.3	11.0	1.67e-03	0	61	0	675282944	56	6296
2026-01-21 11:21:37.39	279.62	26.86	-42.9	-47.4	10.8	2.11e-03	0	61	0	677380096	56	6387
2026-01-21 11:21:38.40	279.93	26.82	-42.8	-47.2	11.0	1.74e-03	0	60	0	679477248	56	6266
2026-01-21 11:21:39.40	280.24	26.79	-42.7	-47.1	11.1	1.76e-03	0	60	0	681574400	56	6191
2026-01-21 11:21:40.41	280.54	26.75	-42.8	-47.2	11.1	1.90e-03	0	61	0	683671552	56	6242
2026-01-21 11:21:41.42	280.85	26.72	-42.7	-47.1	11.2	1.92e-03	0	61	0	684720128	56	6162
2026-01-21 11:21:42.43	281.15	26.68	-42.6	-46.8	11.5	1.03e-03	0	61	0	686817280	56	5946
2026-01-21 11:21:43.44	281.46	26.64	-42.6	-46.7	11.5	6.82e-04	0	61	0	688914432	56	5912
2026-01-21 11:21:44.45	281.76	26.61	-42.6	-46.8	11.5	8.75e-04	0	61	0	691011584	56	5986
2026-01-21 11:21:45.46	282.07	26.57	-42.6	-46.8	11.5	8.48e-04	0	61	0	693108736	56	5960
2026-01-21 11:21:46.47	282.37	26.53	-42.7	-47.0	11.3	1.06e-03	0	61	0	694157312	56	6073
2026-01-21 11:21:47.48	282.67	26.49	-42.7	-47.0	11.2	1.21e-03	0	61	0	696254464	56	6127
2026-01-21 11:21:48.49	282.97	26.45	-42.7	-47.1	11.3	1.17e-03	0	61	0	698351616	56	6138
2026-01-21 11:21:49.50	283.27	26.40	-42.7	-47.1	11.2	1.27e-03	0	61	0	700448768	56	6151
2026-01-21 11:21:50.51	283.57	26.36	-42.7	-47.0	11.2	1.28e-03	0	61	0	702545920	56	6117
2026-01-21 11:21:51.52	283.87	26.32	-42.6	-46.9	11.3	1.05e-03	0	61	0	703594496	56	6053
2026-01-21 11:21:52.53	284.17	26.27	-42.6	-46.8	11.5	8.77e-04	0	61	0	705691648	56	5932
2026-01-21 11:21:53.54	284.47	26.23	-42.5	-46.6	11.7	7.91e-04	0	61	0	707788800	56	5834
2026-01-21 11:21:54.55	284.76	26.18	-42.4	-46.4	11.9	4.46e-04	0	60	0	709885952	56	5680
2026-01-21 11:21:55.56	285.06	26.14	-42.4	-46.5	11.9	3.84e-04	0	61	0	711983104	56	5725
2026-01-21 11:21:56.56	285.35	26.09	-42.4	-46.4	11.9	4.39e-04	0	61	0	713031680	56	5670
2026-01-21 11:21:57.57	285.64	26.04	-42.3	-46.2	12.1	3.07e-04	0	60	0	715128832	56	5544
2026-01-21 11:21:58.58	285.94	25.99	-42.3	-46.2	12.2	2.49e-04	0	61	0	717225984	56	5537
2026-01-21 11:21:59.59	286.23	25.94	-42.1	-45.8	12.5	1.71e-04	0	60	0	719323136	56	5306
2026-01-21 11:22:00.60	286.52	25.89	-42.0	-45.7	12.6	1.27e-04	0	61	0	721420288	56	5232
2026-01-21 11:22:01.61	286.81	25.84	-41.8	-45.3	12.8	5.26e-05	0	61	0	722468864	55	5320
2026-01-21 11:22:02.62	287.10	25.79	-41.8	-45.4	12.7	7.09e-05	0	60	0	724566016	55	5385
2026-01-21 11:22:03.63	287.39	25.74	-41.8	-45.4	12.7	7.32e-05	0	60	0	726663168	55	5366
2026-01-21 11:22:04.64	287.67	25.69	-41.8	-45.4	12.7	6.02e-05	0	60	0	728760320	55	5400
2026-01-21 11:22:05.64	287.96	25.64	-41.9	-45.5	12.7	9.07e-05	0	60	0	730857472	55	5438
2026-01-21 11:22:06.65	288.24	25.58	-41.9	-45.5	12.6	1.02e-04	0	61	0	731906048	55	5428
2026-01-21 11:22:07.66	288.53	25.53	-41.8	-45.3	12.9	8.39e-05	0	61	0	734003200	55	5331
2026-01-21 11:22:08.67	288.81	25.47	-41.8	-45.4	12.7	5.41e-05	0	61	0	736100352	55	5374
2026-01-21 11:22:09.68	289.09	25.42	-41.9	-45.5	12.6	6.56e-05	0	61	0	738197504	55	5457
2026-01-21 11:22:10.69	289.37	25.36	-41.9	-45.6	12.5	1.15e-04	0	61	0	740294656	55	5516
2026-01-21 11:22:11.70	289.65	25.30	-41.9	-45.5	12.6	1.04e-04	0	61	0	742391808	55	5461
2026-01-21 11:22:12.71	289.93	25.25	-41.6	-45.1	13.0	5.34e-05	0	60	0	743440384	55	5189
2026-01-21 11:22:13.72	290.21	25.19	-41.5	-44.9	13.3	2.51e-05	0	60	0	745537536	55	5062
2026-01-21 11:22:14.73	290.49	25.13	-41.5	-44.8	13.4	1.14e-05	0	60	0	747634688	54	5316
2026-01-21 11:22:15.74	290.77	25.07	-41.6	-44.9	13.2	2.05e-05	0	61	0	749731840	54	5378
2026-01-21 11:22:16.75	291.04	25.01	-41.6	-44.9	13.2	1.67e-05	0	61	0	751828992	54	5394
2026-01-21 11:22:17.76	291.32	24.95	-41.6	-45.1	13.1	2.89e-05	0	61	0	752877568	54	5470
2026-01-21 11:22:18.77	291.59	24.89	-41.8	-45.3	12.9	4.57e-05	0	61	0	754974720	54	5608
2026-01-21 11:22:19.78	291.86	24.83	-41.8	-45.4	12.7	8.01e-05	0	61	0	757071872	54	5679
2026-01-21 11:22:20.79	292.13	24.77	-41.8	-45.4	12.8	6.48e-05	0	61	0	759169024	54	5659
2026-01-21 11:22:21.80	292.40	24.70	-41.7	-45.2	12.9	5.03e-05	0	61	0	761266176	54	5579
2026-01-21 11:22:22.81	292.67	24.64	-41.7	-45.1	13.0	3.05e-05	0	61	0	762314752	54	5501
2026-01-21 11:22:23.82	292.94	24.58	-41.6	-45.0	13.2	3.12e-05	0	61	0	764411904	54	5439
2026-01-21 11:22:24.83	293.21	24.51	-41.7	-45.1	13.0	2.97e-05	0	60	0	766509056	54	5496
2026-01-21 11:22:25.84	293.47	24.45	-41.7	-45.2	13.0	2.82e-05	0	60	0	768606208	54	5529
2026-01-21 11:22:26.84	293.73	24.39	-41.5	-44.9	13.2	2.89e-05	0	61	0	770703360	54	5377
2026-01-21 11:22:27.86	294.00	24.32	-41.6	-45.0	13.1	2.51e-05	0	61	0	771751936	54	5440
2026-01-21 11:22:28.86	294.26	24.25	-41.6	-45.0	13.1	2.89e-05	0	60	0	773849088	54	5439
2026-01-21 11:22:29.87	294.52	24.19	-41.7	-45.1	13.0	3.05e-05	0	61	0	775946240	54	5515
2026-01-21 11:22:30.88	294.78	24.12	-41.7	-45.3	12.8	5.49e-05	0	60	0	778043392	54	5621
2026-01-21 11:22:31.89	295.04	24.06	-41.9	-45.5	12.6	6.56e-05	0	61	0	780140544	54	5749
2026-01-21 11:22:32.90	295.30	23.99	-42.0	-45.7	12.4	1.04e-04	0	60	0	781189120	54	5905
2026-01-21 11:22:33.91	295.56	23.92	-42.1	-46.0	12.1	2.37e-04	0	61	0	783286272	54	6113
2026-01-21 11:22:34.92	295.81	23.85	-42.2	-46.2	11.9	3.93e-04	0	61	0	785383424	54	6232
2026-01-21 11:22:35.93	296.07	23.78	-42.2	-46.3	11.7	4.58e-04	0	61	0	787480576	55	5968
2026-01-21 11:22:36.94	296.32	23.71	-42.1	-46.1	12.0	3.82e-04	0	60	0	789577728	55	5799
2026-01-21 11:22:37.94	296.57	23.65	-42.1	-46.0	12.1	3.19e-04	0	60	0	790626304	55	5725
2026-01-21 11:22:38.95	296.83	23.58	-42.1	-46.0	12.0	3.12e-04	0	61	0	792723456	55	5779
2026-01-21 11:22:39.96	297.08	23.51	-42.1	-46.0	12.1	3.58e-04	0	60	0	794820608	55	5758
2026-01-21 11:22:40.97	297.33	23.43	-42.0	-45.9	12.2	2.62e-04	0	61	0	796917760	55	5668
2026-01-21 11:22:41.98	297.57	23.36	-42.0	-45.9	12.2	2.11e-04	0	61	0	799014912	55	5681
2026-01-21 11:22:42.99	297.82	23.29	-42.1	-46.0	12.1	2.80e-04	0	60	0	800063488	55	5733
2026-01-21 11:22:44.00	298.07	23.22	-42.0	-45.9	12.2	2.71e-04	0	61	0	802160640	55	5678
2026-01-21 11:22:45.01	298.31	23.15	-42.0	-45.9	12.2	2.43e-04	0	61	0	804257792	55	5687
2026-01-21 11:22:46.02	298.56	23.08	-42.1	-46.0	12.1	2.09e-04	0	61	0	806354944	55	5726
2026-01-21 11:22:47.03	298.80	23.00	-42.1	-46.1	11.9	4.06e-04	0	60	0	808452096	55	5846
2026-01-21 11:22:48.04	299.04	22.93	-42.1	-46.1	11.9	3.69e-04	0	60	0	810549248	55	5851
2026-01-21 11:22:49.05	299.28	22.86	-42.1	-46.1	11.9	4.26e-04	0	61	0	811597824	55	5827
2026-01-21 11:22:50.06	299.52	22.79	-42.1	-46.1	11.9	3.47e-04	0	61	0	813694976	55	5800
2026-01-21 11:22:51.06	299.76	22.71	-42.0	-45.9	12.1	2.81e-04	0	61	0	815792128	55	5695
2026-01-21 11:22:52.08	300.00	22.64	-42.0	-45.9	12.2	2.73e-04	0	60	0	817889280	55	5666
2026-01-21 11:22:53.09	300.23	22.56	-42.1	-46.0	12.0	3.61e-04	0	61	0	819986432	55	5746
2026-01-21 11:22:54.10	300.47	22.49	-41.9	-45.7	12.3	2.11e-04	0	61	0	821035008	55	5555
2026-01-21 11:22:55.10	300.70	22.41	-42.0	-45.8	12.3	1.65e-04	0	61	0	823132160	55	5605
2026-01-21 11:22:56.11	300.93	22.34	-42.0	-45.9	12.1	2.53e-04	0	61	0	825229312	55	5668
2026-01-21 11:22:57.12	301.16	22.26	-42.0	-45.9	12.0	3.14e-04	0	60	0	827326464	55	5719
2026-01-21 11:22:58.14	301.40	22.19	-42.1	-46.0	12.0	3.00e-04	0	60	0	829423616	55	5761
2026-01-21 11:22:59.15	301.63	22.11	-42.1	-46.0	12.0	3.38e-04	0	61	0	830472192	55	5766
2026-01-21 11:23:00.16	301.86	22.04	-42.0	-45.9	12.1	2.97e-04	0	61	0	832569344	55	5691
2026-01-21 11:23:01.17	302.08	21.96	-42.0	-45.8	12.2	2.21e-04	0	61	0	834666496	55	5601
2026-01-21 11:23:02.18	302.31	21.88	-41.9	-45.7	12.3	1.96e-04	0	61	0	836763648	55	5580
2026-01-21 11:23:03.19	302.53	21.81	-42.0	-45.9	12.1	2.30e-04	0	61	0	838860800	55	5675
2026-01-21 11:23:04.20	302.76	21.73	-42.0	-45.9	12.1	2.84e-04	0	61	0	839909376	55	5706
2026-01-21 11:23:05.21	302.98	21.65	-42.1	-46.2	11.8	3.92e-04	0	61	0	842006528	55	5865
2026-01-21 11:23:06.22	303.20	21.57	-42.0	-45.9	12.0	4.58e-04	0	61	0	844103680	55	5721
2026-01-21 11:23:07.22	303.42	21.50	-42.0	-45.8	12.2	2.32e-04	0	61	0	846200832	55	5616
2026-01-21 11:23:08.23	303.64	21.42	-41.9	-45.7	12.3	2.67e-04	0	61	0	848297984	55	5568
2026-01-21 11:23:09.24	303.86	21.34	-41.9	-45.7	12.3	1.78e-04	0	61	0	849346560	55	5580
2026-01-21 11:23:10.25	304.08	21.26	-41.8	-45.5	12.5	1.26e-04	0	61	0	851443712	55	5432
2026-01-21 11:23:11.26	304.29	21.19	-41.8	-45.5	12.4	1.32e-04	0	61	0	853540864	55	5455
2026-01-21 11:23:12.27	304.51	21.11	-41.9	-45.7	12.3	1.51e-04	0	61	0	855638016	55	5560
2026-01-21 11:23:13.28	304.72	21.03	-42.0	-45.9	12.1	2.75e-04	0	61	0	857735168	55	5699
2026-01-21 11:23:14.29	304.94	20.95	-42.0	-46.0	11.9	3.30e-04	0	60	0	858783744	55	5766
2026-01-21 11:23:15.30	305.15	20.87	-42.1	-46.0	11.9	3.74e-04	0	60	0	860880896	55	5776
2026-01-21 11:23:16.31	305.36	20.79	-42.1	-46.1	11.9	3.77e-04	0	61	0	862978048	55	5789
2026-01-21 11:23:17.32	305.57	20.71	-42.0	-45.9	12.1	3.26e-04	0	61	0	865075200	55	5699
2026-01-21 11:23:18.33	305.78	20.64	-42.0	-45.9	12.0	3.42e-04	0	61	0	867172352	55	5708
2026-01-21 11:23:19.34	305.99	20.56	-42.2	-46.3	11.6	4.96e-04	0	61	0	868220928	55	5954
2026-01-21 11:23:20.35	306.20	20.48	-42.4	-46.7	11.2	1.03e-03	0	60	0	870318080	55	6261
2026-01-21 11:23:21.36	306.40	20.40	-42.5	-47.1	10.7	2.06e-03	0	60	0	872415232	55	6550
2026-01-21 11:23:22.37	306.61	20.32	-42.9	-47.9	10.2	4.04e-03	0	61	0	874512384	56	6726
2026-01-21 11:23:23.38	306.81	20.24	-42.9	-47.8	10.2	7.01e-03	0	61	0	876609536	56	6716
2026-01-21 11:23:24.38	307.01	20.16	-42.8	-47.5	10.5	5.18e-03	0	61	0	878706688	56	6492
2026-01-21 11:23:25.39	307.21	20.08	-42.6	-47.0	11.0	3.15e-03	0	61	0	879755264	56	6100
2026-01-21 11:23:26.40	307.41	20.00	-42.4	-46.7	11.4	1.07e-03	0	61	0	881852416	56	5875
2026-01-21 11:23:27.41	307.61	19.92	-42.4	-46.6	11.5	8.45e-04	0	61	0	883949568	56	5813
2026-01-21 11:23:28.42	307.81	19.84	-42.4	-46.6	11.5	9.63e-04	0	61	0	886046720	56	5793
2026-01-21 11:23:29.43	308.01	19.76	-42.5	-46.9	11.1	1.29e-03	0	61	0	888143872	56	6023
2026-01-21 11:23:30.44	308.21	19.68	-42.7	-47.2	10.8	1.91e-03	0	61	0	889192448	56	6253
2026-01-21 11:23:31.45	308.40	19.60	-42.7	-47.4	10.6	2.85e-03	0	61	0	891289600	56	6394
2026-01-21 11:23:32.46	308.60	19.52	-42.7	-47.4	10.7	3.49e-03	0	61	0	893386752	56	6349
2026-01-21 11:23:33.47	308.79	19.44	-42.6	-47.2	10.8	2.67e-03	0	61	0	895483904	56	6224
2026-01-21 11:23:34.48	308.98	19.36	-42.5	-46.9	11.1	2.12e-03	0	61	0	897581056	56	6041
2026-01-21 11:23:35.49	309.17	19.28	-42.4	-46.6	11.4	1.08e-03	0	61	0	898629632	56	5826
2026-01-21 11:23:36.50	309.36	19.19	-42.3	-46.4	11.6	8.32e-04	0	60	0	900726784	56	5721
2026-01-21 11:23:37.51	309.55	19.11	-42.3	-46.4	11.7	5.90e-04	0	61	0	902823936	56	5679
2026-01-21 11:23:38.52	309.74	19.03	-42.3	-46.4	11.6	7.15e-04	0	61	0	904921088	56	5676
2026-01-21 11:23:39.53	309.93	18.95	-42.4	-46.8	11.3	9.67e-04	0	61	0	907018240	56	5928
2026-01-21 11:23:40.54	310.12	18.87	-42.5	-47.0	11.0	1.50e-03	0	61	0	908066816	56	6077
2026-01-21 11:23:41.55	310.30	18.79	-42.5	-47.0	11.0	2.01e-03	0	61	0	910163968	56	6071
2026-01-21 11:23:42.56	310.49	18.71	-42.5	-46.8	11.2	1.56e-03	0	61	0	912261120	56	5991
2026-01-21 11:23:43.57	310.67	18.63	-42.4	-46.6	11.4	1.23e-03	0	61	0	914358272	56	5818
2026-01-21 11:23:44.58	310.85	18.55	-42.3	-46.5	11.5	8.37e-04	0	61	0	916455424	56	5729
2026-01-21 11:23:45.59	311.04	18.47	-42.2	-46.3	11.7	6.46e-04	0	61	0	917504000	56	5649
2026-01-21 11:23:46.60	311.22	18.39	-42.3	-46.4	11.6	5.72e-04	0	61	0	919601152	56	5699
2026-01-21 11:23:47.60	311.40	18.31	-42.4	-46.7	11.2	8.07e-04	0	61	0	921698304	56	5913
2026-01-21 11:23:48.62	311.58	18.22	-42.6	-47.1	10.9	2.08e-03	0	61	0	923795456	56	6167
2026-01-21 11:23:49.62	311.75	18.14	-42.7	-47.5	10.4	3.57e-03	0	61	0	925892608	56	6467
2026-01-21 11:23:50.63	311.93	18.06	-42.8	-47.6	10.3	5.07e-03	0	61	0	926941184	56	6541
2026-01-21 11:23:51.64	312.11	17.98	-42.7	-47.5	10.5	4.58e-03	0	61	0	929038336	56	6434
2026-01-21 11:23:52.65	312.28	17.90	-42.6	-47.2	10.8	3.24e-03	0	61	0	931135488	56	6204
2026-01-21 11:23:53.66	312.46	17.82	-42.5	-46.9	11.0	2.11e-03	0	60	0	933232640	56	6045
2026-01-21 11:23:54.67	312.63	17.74	-42.4	-46.8	11.1	1.79e-03	0	61	0	935329792	56	5979
2026-01-21 11:23:55.68	312.80	17.66	-42.5	-46.9	11.1	1.45e-03	0	61	0	936378368	56	6000
2026-01-21 11:23:56.69	312.98	17.58	-42.2	-46.3	11.6	7.77e-04	0	61	0	938475520	56	5640
2026-01-21 11:23:57.70	313.15	17.50	-42.2	-46.3	11.7	5.79e-04	0	61	0	940572672	56	5628
2026-01-21 11:23:58.71	313.32	17.42	-42.4	-46.7	11.3	9.68e-04	0	61	0	942669824	56	5866
2026-01-21 11:23:59.72	313.49	17.34	-42.6	-47.2	10.7	1.96e-03	0	61	0	944766976	56	6274
2026-01-21 11:24:00.71	313.65	17.26	-42.7	-47.6	10.3	4.67e-03	0	61	0	945815552	56	6508
2026-01-21 11:24:01.72	313.82	17.18	-42.9	-48.0	9.9	8.62e-03	0	61	0	947912704	56	6867
2026-01-21 11:24:02.73	313.98	17.10	-42.9	-48.1	9.7	1.20e-02	0	61	0	950009856	56	6938
2026-01-21 11:24:03.73	314.15	17.02	-42.8	-47.7	10.2	7.81e-03	0	61	0	952107008	56	6593
2026-01-21 11:24:04.74	314.31	16.94	-42.6	-47.4	10.5	4.20e-03	0	61	0	954204160	56	6356
2026-01-21 11:24:05.76	314.48	16.85	-42.5	-47.0	10.9	2.31e-03	0	61	0	955252736	56	6063
2026-01-21 11:24:06.77	314.64	16.77	-42.4	-46.7	11.2	1.63e-03	0	61	0	957349888	56	5895
2026-01-21 11:24:07.77	314.80	16.69	-42.4	-46.8	11.2	1.34e-03	0	61	0	959447040	56	5928
2026-01-21 11:24:08.79	314.97	16.61	-42.3	-46.7	11.3	1.24e-03	0	61	0	961544192	56	5870
2026-01-21 11:24:09.80	315.13	16.53	-42.4	-46.8	11.1	1.27e-03	0	61	0	963641344	56	5939
2026-01-21 11:24:10.80	315.29	16.45	-42.4	-46.9	11.0	1.70e-03	0	61	0	964689920	56	6037
2026-01-21 11:24:11.81	315.44	16.37	-42.5	-47.1	10.8	2.37e-03	0	61	0	966787072	56	6163
2026-01-21 11:24:12.82	315.60	16.29	-42.5	-47.0	10.9	2.46e-03	0	61	0	968884224	56	6073
2026-01-21 11:24:13.83	315.76	16.21	-42.4	-47.0	10.9	2.44e-03	0	61	0	970981376	56	6065
2026-01-21 11:24:14.84	315.92	16.13	-42.3	-46.7	11.2	1.66e-03	0	61	0	973078528	56	5886
2026-01-21 11:24:15.85	316.07	16.05	-42.2	-46.5	11.4	9.80e-04	0	61	0	975175680	56	5759
2026-01-21 11:24:16.86	316.23	15.97	-42.3	-46.6	11.3	9.94e-04	0	61	0	976224256	56	5824
2026-01-21 11:24:17.87	316.38	15.89	-42.2	-46.4	11.5	1.07e-03	0	61	0	978321408	56	5691
2026-01-21 11:24:18.88	316.53	15.81	-42.2	-46.4	11.5	7.77e-04	0	61	0	980418560	56	5662
2026-01-21 11:24:19.89	316.69	15.73	-42.2	-46.5	11.4	8.90e-04	0	61	0	982515712	56	5754
2026-01-21 11:24:20.89	316.84	15.66	-42.3	-46.7	11.2	1.11e-03	0	61	0	984612864	56	5868
2026-01-21 11:24:21.90	316.99	15.58	-42.4	-46.8	11.1	1.71e-03	0	61	0	985661440	56	5959
2026-01-21 11:24:22.92	317.14	15.50	-42.4	-47.0	10.8	2.11e-03	0	61	0	987758592	56	6130
2026-01-21 11:24:23.93	317.29	15.42	-42.4	-47.0	10.8	2.74e-03	0	61	0	989855744	56	6106
2026-01-21 11:24:24.93	317.44	15.34	-42.5	-47.1	10.8	2.89e-03	0	61	0	991952896	56	6151
2026-01-21 11:24:25.94	317.58	15.26	-42.4	-47.0	10.8	2.66e-03	0	61	0	994050048	56	6070
2026-01-21 11:24:26.95	317.73	15.18	-42.4	-47.0	10.8	2.60e-03	0	61	0	995098624	56	6110
2026-01-21 11:24:27.96	317.88	15.10	-42.4	-46.9	10.9	2.16e-03	0	61	0	997195776	56	6005
2026-01-21 11:24:28.97	318.02	15.02	-42.3	-46.7	11.2	1.64e-03	0	61	0	999292928	56	5871
2026-01-21 11:24:29.98	318.17	14.94	-42.2	-46.6	11.2	1.34e-03	0	61	0	1001390080	56	5821
2026-01-21 11:24:30.99	318.31	14.86	-42.2	-46.6	11.2	1.39e-03	0	61	0	1003487232	56	5819
2026-01-21 11:24:32.00	318.46	14.79	-42.2	-46.6	11.2	1.20e-03	0	61	0	1004535808	56	5800
2026-01-21 11:24:33.01	318.60	14.71	-42.3	-46.7	11.0	1.67e-03	0	61	0	1006632960	56	5921
2026-01-21 11:24:34.02	318.74	14.63	-42.3	-46.7	11.1	1.52e-03	0	61	0	1008730112	56	5872
2026-01-21 11:24:35.03	318.88	14.55	-42.3	-46.8	11.0	1.76e-03	0	61	0	1010827264	56	5974
2026-01-21 11:24:36.04	319.02	14.47	-42.4	-47.0	10.8	2.12e-03	0	61	0	1012924416	56	6090
2026-01-21 11:24:37.05	319.16	14.39	-42.4	-47.0	10.8	2.55e-03	0	61	0	1013972992	56	6076
2026-01-21 11:24:38.05	319.30	14.32	-42.4	-47.0	10.8	2.50e-03	0	61	0	1016070144	56	6064
2026-01-21 11:24:39.06	319.44	14.24	-42.3	-46.8	11.0	2.07e-03	0	61	0	1018167296	56	5934
2026-01-21 11:24:40.07	319.58	14.16	-42.2	-46.7	11.1	1.67e-03	0	61	0	1020264448	56	5891
2026-01-21 11:24:41.08	319.71	14.08	-42.3	-46.7	11.0	1.73e-03	0	61	0	1022361600	56	5916
2026-01-21 11:24:42.09	319.85	14.01	-42.2	-46.7	11.0	1.97e-03	0	61	0	1023410176	56	5890
2026-01-21 11:24:43.10	319.98	13.93	-42.2	-46.6	11.2	1.66e-03	0	61	0	1025507328	56	5795
2026-01-21 11:24:44.11	320.12	13.85	-42.2	-46.5	11.2	1.41e-03	0	61	0	1027604480	56	5784
2026-01-21 11:24:45.12	320.25	13.77	-42.1	-46.5	11.3	1.29e-03	0	61	0	1029701632	56	5748
2026-01-21 11:24:46.13	320.39	13.70	-42.2	-46.6	11.2	1.46e-03	0	61	0	1031798784	56	5801
2026-01-21 11:24:47.14	320.52	13.62	-42.2	-46.6	11.2	1.40e-03	0	61	0	1032847360	56	5798
2026-01-21 11:24:48.15	320.65	13.54	-42.2	-46.7	11.0	1.87e-03	0	61	0	1034944512	56	5894
2026-01-21 11:24:49.16	320.78	13.47	-42.3	-46.8	10.9	1.96e-03	0	61	0	1037041664	56	5949
2026-01-21 11:24:50.17	320.91	13.39	-42.3	-46.9	10.7	2.25e-03	0	61	0	1039138816	56	6058
2026-01-21 11:24:51.18	321.05	13.31	-42.3	-47.0	10.6	3.02e-03	0	61	0	1041235968	56	6101
2026-01-21 11:24:52.19	321.17	13.24	-42.4	-47.1	10.6	3.60e-03	0	61	0	1043333120	56	6183
2026-01-21 11:24:53.20	321.30	13.16	-42.4	-47.2	10.5	3.96e-03	0	60	0	1044381696	56	6213
2026-01-21 11:24:54.21	321.43	13.08	-42.4	-47.1	10.5	3.78e-03	0	61	0	1046478848	56	6189
2026-01-21 11:24:55.22	321.56	13.01	-42.4	-47.1	10.6	3.36e-03	0	61	0	1048576000	56	6153
2026-01-21 11:24:56.22	321.69	12.93	-42.4	-47.2	10.4	4.26e-03	0	61	0	1050673152	56	6217
2026-01-21 11:24:57.23	321.81	12.85	-42.3	-47.0	10.6	3.29e-03	0	61	0	1052770304	56	6124
2026-01-21 11:24:58.24	321.94	12.78	-42.4	-47.1	10.5	4.11e-03	0	61	0	1053818880	56	6202
2026-01-21 11:24:59.25	322.06	12.70	-42.4	-47.1	10.5	3.79e-03	0	61	0	1055916032	56	6198
2026-01-21 11:25:00.26	322.19	12.63	-42.4	-47.3	10.4	4.52e-03	0	61	0	1058013184	56	6278
2026-01-21 11:25:01.27	322.31	12.55	-42.4	-47.3	10.3	5.17e-03	0	61	0	1060110336	56	6334
2026-01-21 11:25:02.28	322.43	12.48	-42.4	-47.2	10.4	5.50e-03	0	61	0	1062207488	56	6252
2026-01-21 11:25:03.28	322.56	12.40	-42.4	-47.4	10.2	6.02e-03	0	61	0	1063256064	56	6351
2026-01-21 11:25:04.29	322.68	12.33	-42.4	-47.4	10.2	6.09e-03	0	61	0	1065353216	56	6352
2026-01-21 11:25:05.30	322.80	12.25	-42.5	-47.4	10.2	5.55e-03	0	61	0	1067450368	56	6391
2026-01-21 11:25:06.31	322.92	12.18	-42.5	-47.4	10.2	6.46e-03	0	61	0	1069547520	56	6388
2026-01-21 11:25:07.32	323.04	12.10	-42.4	-47.4	10.2	6.08e-03	0	61	0	1071644672	56	6386
2026-01-21 11:25:08.33	323.16	12.03	-42.5	-47.5	10.0	6.43e-03	0	61	0	1072693248	56	6487
2026-01-21 11:25:09.34	323.28	11.95	-42.4	-47.3	10.2	6.40e-03	0	61	0	1074790400	56	6339
2026-01-21 11:25:10.35	323.40	11.88	-42.3	-47.1	10.4	5.12e-03	0	61	0	1076887552	56	6190
2026-01-21 11:25:11.36	323.52	11.80	-42.4	-47.2	10.4	4.70e-03	0	61	0	1078984704	56	6225
2026-01-21 11:25:12.37	323.63	11.73	-42.4	-47.3	10.3	5.48e-03	0	61	0	1081081856	56	6310
2026-01-21 11:25:13.38	323.75	11.66	-42.4	-47.3	10.3	5.69e-03	0	61	0	1082130432	56	6285
2026-01-21 11:25:14.39	323.87	11.58	-42.4	-47.3	10.2	6.11e-03	0	61	0	1084227584	56	6298
2026-01-21 11:25:15.39	323.98	11.51	-42.4	-47.2	10.3	4.76e-03	0	61	0	1086324736	56	6235
2026-01-21 11:25:16.40	324.10	11.43	-42.4	-47.4	10.1	6.28e-03	0	61	0	1088421888	56	6386
2026-01-21 11:25:17.41	324.21	11.36	-42.5	-47.5	10.0	7.84e-03	0	61	0	1090519040	56	6455
2026-01-21 11:25:18.42	324.33	11.29	-42.5	-47.6	9.9	9.04e-03	0	61	0	1091567616	56	6566
2026-01-21 11:25:19.43	324.44	11.21	-42.6	-47.8	9.7	9.39e-03	0	61	0	1093664768	56	6661
2026-01-21 11:25:20.44	324.55	11.14	-42.6	-47.9	9.5	1.19e-02	0	61	0	1095761920	56	6789
2026-01-21 11:25:21.45	324.66	11.07	-42.7	-48.0	9.4	1.37e-02	0	61	0	1097859072	56	6859
2026-01-21 11:25:22.46	324.78	11.00	-42.7	-48.2	9.2	1.65e-02	0	61	0	1099956224	56	7008
2026-01-21 11:25:23.47	324.89	10.92	-42.7	-48.3	9.2	2.11e-02	0	61	0	1101004800	56	7046
2026-01-21 11:25:24.48	325.00	10.85	-42.8	-48.5	9.0	2.34e-02	0	61	0	1103101952	56	7243
2026-01-21 11:25:25.49	325.11	10.78	-42.9	-48.7	8.7	2.91e-02	0	61	0	1105199104	56	7422
2026-01-21 11:25:26.50	325.22	10.70	-42.9	-48.8	8.6	3.66e-02	0	61	0	1107296256	56	7480
2026-01-21 11:25:27.51	325.33	10.63	-42.9	-49.0	8.4	4.39e-02	0	61	0	1109393408	56	7668
2026-01-21 11:25:28.52	325.44	10.56	-42.9	-49.0	8.4	4.64e-02	0	61	0	1110441984	56	7675
2026-01-21 11:25:29.53	325.55	10.49	-42.9	-48.9	8.4	4.29e-02	0	61	0	1112539136	56	7630
2026-01-21 11:25:30.54	325.65	10.42	-42.9	-49.0	8.4	4.35e-02	0	61	0	1114636288	56	7692
2026-01-21 11:25:31.55	325.76	10.34	-42.9	-49.0	8.4	4.83e-02	0	61	0	1116733440	56	7666
2026-01-21 11:25:32.56	325.87	10.27	-43.0	-49.1	8.2	5.32e-02	0	61	0	1118830592	56	7794
2026-01-21 11:25:33.57	325.97	10.20	-42.9	-49.0	8.4	4.66e-02	0	61	0	1119879168	56	7658
2026-01-21 11:25:34.58	326.08	10.13	-42.9	-49.0	8.4	5.30e-02	0	61	0	1121976320	56	7643
2026-01-21 11:25:35.59	326.18	10.06	-42.8	-48.8	8.5	4.55e-02	0	61	0	1124073472	56	7511
2026-01-21 11:25:36.60	326.29	9.99	-42.8	-48.9	8.4	4.36e-02	0	61	0	1126170624	56	7571
2026-01-21 11:25:37.61	326.39	9.92	-42.9	-49.0	8.3	4.37e-02	0	61	0	1128267776	56	7697
2026-01-21 11:25:38.62	326.50	9.84	-42.9	-49.1	8.3	5.05e-02	0	61	0	1129316352	56	7722
2026-01-21 11:25:39.63	326.60	9.77	-42.8	-48.9	8.4	5.04e-02	0	61	0	1131413504	56	7581
2026-01-21 11:25:40.64	326.70	9.70	-42.8	-48.7	8.6	4.31e-02	0	61	0	1133510656	56	7390
2026-01-21 11:25:41.64	326.80	9.63	-42.8	-48.8	8.5	3.85e-02	0	61	0	1135607808	56	7469
2026-01-21 11:25:42.65	326.91	9.56	-42.8	-48.9	8.4	4.36e-02	0	61	0	1137704960	56	7577
2026-01-21 11:25:43.66	327.01	9.49	-42.8	-48.8	8.4	4.54e-02	0	61	0	1139802112	56	7543
2026-01-21 11:25:44.67	327.11	9.42	-42.8	-48.7	8.6	4.15e-02	0	61	0	1140850688	56	7422
2026-01-21 11:25:45.68	327.21	9.35	-42.8	-48.7	8.6	3.89e-02	0	61	0	1142947840	56	7423
2026-01-21 11:25:46.69	327.31	9.28	-42.7	-48.4	8.8	3.32e-02	0	61	0	1145044992	56	7168
2026-01-21 11:25:47.70	327.41	9.21	-42.7	-48.5	8.8	3.31e-02	0	61	0	1147142144	56	7213
2026-01-21 11:25:48.71	327.51	9.14	-42.6	-48.3	8.9	3.14e-02	0	61	0	1149239296	56	7120
2026-01-21 11:25:49.72	327.61	9.07	-42.6	-48.4	8.9	3.06e-02	0	61	0	1150287872	56	7125
2026-01-21 11:25:50.73	327.71	9.00	-42.7	-48.4	8.8	3.14e-02	0	61	0	1152385024	56	7197
2026-01-21 11:25:51.74	327.80	8.93	-42.6	-48.3	9.0	2.75e-02	0	61	0	1154482176	56	7075
2026-01-21 11:25:52.75	327.90	8.86	-42.6	-48.3	8.9	2.66e-02	0	61	0	1156579328	56	7077
2026-01-21 11:25:53.76	328.00	8.80	-42.6	-48.3	8.9	2.62e-02	0	61	0	1158676480	56	7119
2026-01-21 11:25:54.77	328.09	8.73	-42.6	-48.3	8.8	2.88e-02	0	61	0	1159725056	56	7100
2026-01-21 11:25:55.78	328.19	8.66	-42.6	-48.3	8.8	2.92e-02	0	61	0	1161822208	56	7112
2026-01-21 11:25:56.79	328.29	8.59	-42.7	-48.6	8.6	3.43e-02	0	61	0	1163919360	56	7303
2026-01-21 11:25:57.80	328.38	8.52	-42.7	-48.9	8.3	4.70e-02	0	61	0	1166016512	56	7581
2026-01-21 11:25:58.81	328.48	8.45	-42.7	-48.8	8.3	4.92e-02	0	61	0	1168113664	56	7535
