passes_logs/2026/01/21/R2.0S_Moscow/R2.0S_Moscow__20260121_025658_AQUA_rec.log

#Pass ID: 20260121_025658_AQUA
#Satellite: AQUA
#Configuration: AQUA
#almurnet v.1.7.20251203
#Start time: 2026-01-21 02:57:00

#Version: 2.2.20231116
#Station: R2.0S_Moscow
#Location: 37.707566 lon 55.798166 lat
#TLE: 1 27424U 02022A   26020.30984080  .00001497  00000+0  30942-3 0  9998
#TLE: 2 27424  98.4092 346.8266 0001984  71.7888  69.0903 14.61835321261661

#Time	Az	El	Level	Level2	SNR	BER	BlckErr	Temp	State	Recorded	gain1	gain2
2026-01-21 02:57:00.01	6.69	2.11	-39.6	-60.1	3.8	7.45e-01	0	49	0	0	51	36690
2026-01-21 02:57:01.01	6.61	2.17	-39.6	-60.1	3.8	7.44e-01	0	49	104	0	49	41108
2026-01-21 02:57:02.02	6.53	2.23	-39.5	-60.1	3.8	7.47e-01	0	49	104	0	49	41180
2026-01-21 02:57:03.03	6.46	2.29	-39.6	-60.1	3.8	7.45e-01	0	49	104	0	49	41011
2026-01-21 02:57:04.05	6.38	2.35	-39.6	-60.1	3.8	7.48e-01	0	49	104	0	49	41020
2026-01-21 02:57:05.06	6.30	2.40	-39.5	-60.1	3.8	7.45e-01	0	49	104	0	49	41039
2026-01-21 02:57:06.07	6.22	2.46	-39.5	-60.1	3.8	7.45e-01	0	49	104	0	49	41107
2026-01-21 02:57:07.08	6.14	2.52	-39.5	-60.1	3.8	7.43e-01	0	49	104	0	49	41046
2026-01-21 02:57:08.09	6.06	2.58	-39.6	-60.1	3.8	7.47e-01	0	49	104	0	49	41035
2026-01-21 02:57:09.10	5.98	2.64	-39.6	-60.1	3.8	7.46e-01	0	49	104	0	49	40999
2026-01-21 02:57:10.11	5.90	2.70	-39.6	-60.1	3.8	7.48e-01	0	49	104	0	49	41017
2026-01-21 02:57:11.12	5.82	2.76	-39.5	-60.0	3.8	7.44e-01	0	50	104	0	49	40961
2026-01-21 02:57:12.13	5.74	2.82	-39.6	-60.0	3.8	7.47e-01	0	50	104	0	49	40915
2026-01-21 02:57:13.14	5.66	2.88	-39.6	-60.0	3.8	7.46e-01	0	50	104	0	49	40946
2026-01-21 02:57:14.15	5.57	2.93	-39.6	-60.0	3.8	7.45e-01	0	50	104	0	49	40907
2026-01-21 02:57:15.17	5.49	2.99	-39.6	-60.0	3.8	7.46e-01	0	50	104	0	49	40952
2026-01-21 02:57:16.18	5.41	3.05	-39.6	-60.0	3.8	7.45e-01	0	50	104	0	49	40962
2026-01-21 02:57:17.19	5.32	3.11	-39.5	-60.0	3.8	7.44e-01	0	50	104	0	49	40959
2026-01-21 02:57:18.20	5.24	3.17	-39.5	-60.0	3.8	7.46e-01	0	50	104	0	49	40889
2026-01-21 02:57:19.21	5.16	3.23	-39.6	-60.0	3.8	7.46e-01	0	50	104	0	49	40814
2026-01-21 02:57:20.22	5.07	3.29	-39.6	-60.0	3.8	7.45e-01	0	50	104	0	49	40898
2026-01-21 02:57:21.23	4.99	3.35	-39.5	-60.0	3.8	7.46e-01	0	50	104	0	49	40956
2026-01-21 02:57:22.24	4.90	3.41	-39.5	-60.0	3.8	7.48e-01	0	50	104	0	49	40913
2026-01-21 02:57:23.25	4.82	3.47	-39.5	-60.0	3.8	7.45e-01	0	50	104	0	49	40929
2026-01-21 02:57:24.26	4.73	3.53	-39.5	-60.0	3.8	7.48e-01	0	50	104	0	49	40924
2026-01-21 02:57:25.27	4.64	3.59	-39.5	-60.0	3.8	7.44e-01	0	50	104	0	49	40906
2026-01-21 02:57:26.28	4.56	3.65	-39.6	-60.0	3.8	7.46e-01	0	51	104	0	49	40920
2026-01-21 02:57:27.29	4.47	3.71	-39.6	-60.0	3.8	7.46e-01	0	50	104	0	49	40961
2026-01-21 02:57:28.30	4.38	3.77	-39.6	-60.0	3.8	7.46e-01	0	51	104	0	49	40892
2026-01-21 02:57:29.31	4.29	3.83	-39.6	-60.0	3.8	7.46e-01	0	51	104	0	49	40922
2026-01-21 02:57:30.32	4.21	3.90	-39.6	-60.0	3.8	7.45e-01	0	51	104	0	49	40893
2026-01-21 02:57:31.33	4.12	3.96	-39.6	-60.0	3.8	7.47e-01	0	51	104	0	49	40886
2026-01-21 02:57:32.34	4.03	4.02	-39.5	-60.0	3.8	7.46e-01	0	51	104	0	49	40925
2026-01-21 02:57:33.35	3.94	4.08	-39.5	-60.0	3.8	7.46e-01	0	51	104	0	49	40940
2026-01-21 02:57:34.36	3.85	4.14	-39.5	-60.0	3.8	7.45e-01	0	51	104	0	49	40929
2026-01-21 02:57:35.37	3.76	4.20	-39.5	-60.0	3.8	7.46e-01	0	51	104	0	49	40882
2026-01-21 02:57:36.38	3.67	4.26	-39.5	-60.0	3.8	7.43e-01	0	51	104	0	49	40913
2026-01-21 02:57:37.39	3.57	4.32	-39.5	-60.0	3.8	7.46e-01	0	51	104	0	49	40940
2026-01-21 02:57:38.41	3.48	4.38	-39.5	-60.0	3.8	7.45e-01	0	51	104	0	49	40938
2026-01-21 02:57:39.42	3.39	4.45	-39.5	-60.0	3.8	7.43e-01	0	51	104	0	49	40934
2026-01-21 02:57:40.43	3.30	4.51	-39.5	-60.0	3.8	7.43e-01	0	51	104	0	49	40911
2026-01-21 02:57:41.44	3.20	4.57	-39.6	-60.0	3.8	7.45e-01	0	51	104	0	49	40881
2026-01-21 02:57:42.45	3.11	4.63	-39.5	-60.0	3.8	7.42e-01	0	52	104	0	49	40926
2026-01-21 02:57:43.46	3.02	4.69	-39.5	-60.0	3.8	7.45e-01	0	52	104	0	49	40965
2026-01-21 02:57:44.47	2.92	4.75	-39.5	-60.0	3.8	7.42e-01	0	51	104	0	49	40944
2026-01-21 02:57:45.48	2.83	4.82	-39.5	-60.0	3.8	7.46e-01	0	51	104	0	49	40948
2026-01-21 02:57:46.49	2.73	4.88	-39.6	-60.0	3.8	7.46e-01	0	52	104	0	49	40957
2026-01-21 02:57:47.50	2.63	4.94	-39.6	-60.0	3.8	7.45e-01	0	52	104	0	49	40956
2026-01-21 02:57:48.51	2.54	5.00	-39.5	-60.0	3.8	7.46e-01	0	52	104	0	49	40868
2026-01-21 02:57:49.52	2.44	5.07	-39.6	-60.0	3.8	7.50e-01	0	52	104	0	49	40858
2026-01-21 02:57:50.53	2.34	5.13	-39.5	-60.0	3.8	7.45e-01	0	52	104	0	49	40942
2026-01-21 02:57:51.54	2.25	5.19	-39.5	-60.0	3.8	7.46e-01	0	52	104	0	49	40917
2026-01-21 02:57:52.55	2.15	5.25	-39.6	-60.0	3.8	7.40e-01	0	52	104	0	49	40838
2026-01-21 02:57:53.56	2.05	5.32	-39.5	-60.0	3.8	7.47e-01	0	52	104	0	49	40839
2026-01-21 02:57:54.57	1.95	5.38	-39.5	-60.0	3.8	7.43e-01	0	52	104	0	49	40828
2026-01-21 02:57:55.58	1.85	5.44	-39.5	-60.0	3.8	7.46e-01	0	52	104	0	49	40863
2026-01-21 02:57:56.59	1.75	5.50	-39.5	-60.0	3.8	7.44e-01	0	52	104	0	49	40754
2026-01-21 02:57:57.60	1.65	5.57	-39.5	-60.0	3.8	7.45e-01	0	52	104	0	49	40819
2026-01-21 02:57:58.61	1.55	5.63	-39.6	-60.0	3.8	7.46e-01	0	52	104	0	49	40799
2026-01-21 02:57:59.63	1.45	5.69	-39.5	-60.0	3.8	7.46e-01	0	52	104	0	49	40923
2026-01-21 02:58:00.64	1.34	5.76	-39.5	-60.0	3.8	7.44e-01	0	52	104	0	49	40936
2026-01-21 02:58:01.65	1.24	5.82	-39.5	-60.0	3.8	7.45e-01	0	52	104	0	49	40846
2026-01-21 02:58:02.66	1.14	5.88	-39.6	-60.0	3.8	7.46e-01	0	52	104	0	49	40907
2026-01-21 02:58:03.67	1.03	5.95	-39.5	-60.0	3.8	7.42e-01	0	53	104	0	49	40870
2026-01-21 02:58:04.68	0.93	6.01	-39.5	-60.0	3.8	7.42e-01	0	53	104	0	49	40931
2026-01-21 02:58:05.69	0.82	6.08	-39.5	-60.0	3.8	7.46e-01	0	53	104	0	49	40817
2026-01-21 02:58:06.70	0.72	6.14	-39.5	-60.0	3.8	7.46e-01	0	53	104	0	49	40884
2026-01-21 02:58:07.71	0.61	6.20	-39.5	-60.0	3.8	7.46e-01	0	53	104	0	49	40815
2026-01-21 02:58:08.72	0.51	6.27	-39.6	-60.0	3.8	7.45e-01	0	53	104	0	49	40802
2026-01-21 02:58:09.73	0.40	6.33	-39.5	-60.0	3.8	7.47e-01	0	53	104	0	49	40882
2026-01-21 02:58:10.74	0.29	6.40	-39.5	-60.0	3.8	7.43e-01	0	53	104	0	49	40902
2026-01-21 02:58:11.75	0.18	6.46	-39.5	-60.0	3.8	7.47e-01	0	53	104	0	49	40931
2026-01-21 02:58:12.77	0.07	6.53	-39.5	-60.0	3.8	7.42e-01	0	53	104	0	49	40820
2026-01-21 02:58:13.78	359.97	6.59	-39.5	-60.0	3.8	7.45e-01	0	53	104	0	49	40788
2026-01-21 02:58:14.79	359.86	6.65	-39.5	-60.0	3.8	7.45e-01	0	53	104	0	49	40862
2026-01-21 02:58:15.80	359.75	6.72	-39.5	-60.0	3.8	7.44e-01	0	53	104	0	49	40810
2026-01-21 02:58:16.81	359.63	6.78	-39.6	-60.0	3.8	7.45e-01	0	53	104	0	49	40834
2026-01-21 02:58:17.82	359.52	6.85	-39.5	-60.0	3.8	7.42e-01	0	53	104	0	49	40793
2026-01-21 02:58:18.83	359.41	6.91	-39.5	-60.0	3.8	7.43e-01	0	53	104	0	49	40782
2026-01-21 02:58:19.84	359.30	6.98	-39.5	-60.0	3.8	7.42e-01	0	53	104	0	49	40827
2026-01-21 02:58:20.84	359.19	7.04	-39.6	-60.0	3.8	7.46e-01	0	53	104	0	49	40841
2026-01-21 02:58:21.85	359.07	7.11	-39.6	-60.0	3.8	7.44e-01	0	53	104	0	49	40867
2026-01-21 02:58:22.86	358.96	7.17	-39.5	-60.0	3.8	7.46e-01	0	53	104	0	49	40849
2026-01-21 02:58:23.87	358.85	7.24	-39.6	-60.0	3.8	7.45e-01	0	54	104	0	49	40838
2026-01-21 02:58:24.88	358.73	7.30	-39.5	-60.0	3.8	7.44e-01	0	54	104	0	49	40899
2026-01-21 02:58:25.89	358.61	7.37	-39.5	-60.0	3.8	7.47e-01	0	54	104	0	49	40805
2026-01-21 02:58:26.91	358.50	7.44	-39.5	-60.0	3.8	7.45e-01	0	53	104	0	49	40848
2026-01-21 02:58:27.92	358.38	7.50	-39.5	-60.0	3.8	7.45e-01	0	53	104	0	49	40809
2026-01-21 02:58:28.93	358.26	7.57	-39.6	-60.0	3.8	7.44e-01	0	54	104	0	49	40783
2026-01-21 02:58:29.94	358.14	7.63	-39.5	-60.0	3.8	7.47e-01	0	54	104	0	49	40866
2026-01-21 02:58:30.95	358.02	7.70	-39.5	-60.0	3.8	7.50e-01	0	54	104	0	49	40836
2026-01-21 02:58:31.96	357.91	7.77	-39.5	-60.0	3.8	7.48e-01	0	54	104	0	49	40793
2026-01-21 02:58:32.97	357.79	7.83	-39.5	-60.0	3.8	7.44e-01	0	54	104	0	49	40762
2026-01-21 02:58:33.98	357.66	7.90	-39.6	-60.0	3.8	7.51e-01	0	54	104	0	49	40811
2026-01-21 02:58:34.99	357.54	7.96	-39.5	-60.0	3.8	7.48e-01	0	54	104	0	49	40810
2026-01-21 02:58:36.00	357.42	8.03	-39.6	-60.0	3.8	7.46e-01	0	54	104	0	49	40813
2026-01-21 02:58:37.01	357.30	8.10	-39.6	-60.0	3.8	7.44e-01	0	54	104	0	49	40677
2026-01-21 02:58:38.02	357.18	8.16	-40.0	-60.2	3.8	7.43e-01	0	54	104	0	50	39177
2026-01-21 02:58:39.03	357.05	8.23	-39.7	-60.1	3.8	7.44e-01	0	54	104	0	50	39096
2026-01-21 02:58:40.03	356.93	8.30	-39.6	-60.2	3.8	7.43e-01	0	54	104	0	50	39576
2026-01-21 02:58:41.04	356.80	8.36	-40.2	-60.1	3.8	7.45e-01	0	54	104	0	50	38743
2026-01-21 02:58:42.05	356.68	8.43	-40.3	-60.2	3.8	7.43e-01	0	54	104	0	51	37271
2026-01-21 02:58:43.06	356.55	8.50	-39.6	-60.1	3.8	7.44e-01	0	54	104	0	51	36840
2026-01-21 02:58:44.07	356.43	8.56	-39.9	-60.2	3.8	7.43e-01	0	54	104	0	51	37119
2026-01-21 02:58:45.08	356.30	8.63	-40.0	-60.1	3.8	7.47e-01	0	54	104	0	51	36678
2026-01-21 02:58:46.09	356.17	8.70	-40.5	-60.2	3.8	7.46e-01	0	54	104	0	51	37280
2026-01-21 02:58:47.10	356.04	8.76	-39.9	-60.1	3.8	7.48e-01	0	54	104	0	51	36780
2026-01-21 02:58:48.11	355.91	8.83	-39.9	-60.2	3.8	7.47e-01	0	54	104	0	51	37170
2026-01-21 02:58:49.12	355.78	8.90	-40.3	-60.2	3.8	7.47e-01	0	54	104	0	51	37025
2026-01-21 02:58:50.13	355.65	8.97	-40.8	-60.2	3.8	7.50e-01	0	54	104	0	52	35190
2026-01-21 02:58:51.14	355.52	9.03	-40.0	-60.0	3.8	7.50e-01	0	54	104	0	52	34465
2026-01-21 02:58:52.15	355.39	9.10	-40.5	-60.3	3.8	7.48e-01	0	54	104	0	52	35325
2026-01-21 02:58:53.16	355.25	9.17	-40.5	-60.2	3.8	7.50e-01	0	54	104	0	52	34920
2026-01-21 02:58:54.17	355.12	9.24	-41.0	-60.3	3.8	7.45e-01	0	54	104	0	52	35536
2026-01-21 02:58:55.18	354.99	9.30	-40.3	-60.1	3.8	7.46e-01	0	54	104	0	52	34741
2026-01-21 02:58:56.19	354.85	9.37	-41.1	-60.4	3.8	7.45e-01	0	54	104	0	52	35695
2026-01-21 02:58:57.20	354.71	9.44	-40.7	-60.2	3.8	7.46e-01	0	54	104	0	52	35090
2026-01-21 02:58:58.21	354.58	9.51	-41.0	-60.4	3.8	7.45e-01	0	54	104	0	52	35820
2026-01-21 02:58:59.22	354.44	9.57	-40.8	-60.2	3.8	7.47e-01	0	54	104	0	52	35095
2026-01-21 02:59:00.23	354.30	9.64	-41.0	-60.4	3.8	7.46e-01	0	55	104	0	52	35917
2026-01-21 02:59:01.24	354.16	9.71	-40.9	-60.3	3.8	7.46e-01	0	54	104	0	52	35292
2026-01-21 02:59:02.25	354.03	9.78	-41.2	-60.4	3.8	7.45e-01	0	55	104	0	52	35983
2026-01-21 02:59:03.25	353.89	9.85	-41.0	-60.3	3.8	7.46e-01	0	55	104	0	52	35445
2026-01-21 02:59:04.26	353.75	9.91	-41.1	-60.4	3.8	7.45e-01	0	55	104	0	52	35839
2026-01-21 02:59:05.27	353.60	9.98	-41.2	-60.3	3.8	7.46e-01	0	55	104	0	52	35569
2026-01-21 02:59:06.28	353.46	10.05	-41.2	-60.4	3.8	7.45e-01	0	55	104	0	53	34010
2026-01-21 02:59:07.29	353.32	10.12	-41.0	-60.4	3.8	7.45e-01	0	55	104	0	53	33839
2026-01-21 02:59:08.30	353.18	10.19	-40.9	-60.4	3.8	7.46e-01	0	55	104	0	53	33832
2026-01-21 02:59:09.31	353.03	10.26	-41.3	-60.5	3.8	7.46e-01	0	55	104	0	53	34403
2026-01-21 02:59:10.32	352.89	10.32	-41.1	-60.6	3.8	7.45e-01	0	55	104	0	53	34627
2026-01-21 02:59:11.33	352.74	10.39	-41.2	-60.4	3.8	7.44e-01	0	55	104	0	53	33900
2026-01-21 02:59:12.34	352.59	10.46	-41.1	-60.5	3.8	7.46e-01	0	55	104	0	53	34380
2026-01-21 02:59:13.35	352.45	10.53	-41.0	-60.7	3.8	7.43e-01	0	55	104	0	53	34945
2026-01-21 02:59:14.36	352.30	10.60	-41.1	-60.7	3.8	7.49e-01	0	55	104	0	53	35061
2026-01-21 02:59:15.36	352.15	10.67	-41.1	-60.5	3.8	7.42e-01	0	55	104	0	53	34263
2026-01-21 02:59:16.37	352.00	10.74	-41.4	-60.8	3.8	7.47e-01	0	55	104	0	53	35378
2026-01-21 02:59:17.38	351.85	10.80	-40.8	-60.6	3.8	7.46e-01	0	55	104	0	53	34504
2026-01-21 02:59:18.39	351.70	10.87	-41.2	-60.7	3.8	7.45e-01	0	55	104	0	53	35208
2026-01-21 02:59:19.40	351.55	10.94	-41.2	-60.7	3.8	7.47e-01	0	55	104	0	53	34968
2026-01-21 02:59:20.41	351.39	11.01	-41.3	-60.7	3.8	7.48e-01	0	55	104	0	53	35044
2026-01-21 02:59:21.42	351.24	11.08	-41.2	-60.7	3.8	7.48e-01	0	55	104	0	53	34903
2026-01-21 02:59:22.43	351.09	11.15	-41.7	-60.9	3.8	7.43e-01	0	55	104	0	54	34046
2026-01-21 02:59:23.44	350.93	11.22	-41.3	-60.7	3.8	7.47e-01	0	55	104	0	54	33128
2026-01-21 02:59:24.45	350.77	11.29	-41.8	-60.8	3.8	7.45e-01	0	55	104	0	54	33655
2026-01-21 02:59:25.46	350.62	11.35	-41.5	-60.8	3.8	7.46e-01	0	55	104	0	54	33428
2026-01-21 02:59:26.47	350.46	11.42	-41.9	-61.0	3.8	7.45e-01	0	55	104	0	54	34211
2026-01-21 02:59:27.48	350.30	11.49	-41.8	-60.9	3.8	7.43e-01	0	55	104	0	54	33858
2026-01-21 02:59:28.49	350.14	11.56	-41.8	-60.9	3.8	7.44e-01	0	55	104	0	54	33857
2026-01-21 02:59:29.50	349.98	11.63	-41.6	-60.9	3.8	7.45e-01	0	55	104	0	54	33772
2026-01-21 02:59:30.51	349.82	11.70	-41.8	-60.9	3.8	7.43e-01	0	55	104	0	54	33710
2026-01-21 02:59:31.52	349.66	11.77	-41.7	-60.8	3.8	7.47e-01	0	55	104	0	54	33537
2026-01-21 02:59:32.53	349.50	11.84	-41.7	-60.8	3.8	7.48e-01	0	55	104	0	54	33595
2026-01-21 02:59:33.54	349.33	11.91	-41.7	-61.1	3.8	7.45e-01	0	55	104	0	54	34532
2026-01-21 02:59:34.55	349.17	11.97	-41.7	-61.0	3.8	7.45e-01	0	55	104	0	54	34256
2026-01-21 02:59:35.56	349.00	12.04	-41.5	-60.9	3.8	7.44e-01	0	55	104	0	54	33845
2026-01-21 02:59:36.57	348.84	12.11	-41.7	-61.1	3.8	7.46e-01	0	55	104	0	54	34502
2026-01-21 02:59:37.58	348.67	12.18	-41.7	-61.1	3.8	7.46e-01	0	55	104	0	54	34676
2026-01-21 02:59:38.59	348.50	12.25	-41.8	-61.1	3.8	7.45e-01	0	55	104	0	54	34830
2026-01-21 02:59:39.60	348.33	12.32	-41.8	-61.2	3.8	7.48e-01	0	56	104	0	54	34930
2026-01-21 02:59:40.61	348.16	12.39	-41.9	-61.1	3.8	7.48e-01	0	55	104	0	54	34784
2026-01-21 02:59:41.62	347.99	12.46	-41.9	-61.2	3.8	7.45e-01	0	56	104	0	54	35001
2026-01-21 02:59:42.63	347.82	12.53	-42.0	-61.2	3.8	7.48e-01	0	56	104	0	54	34981
2026-01-21 02:59:43.64	347.65	12.59	-42.1	-61.3	3.8	7.45e-01	0	56	104	0	54	35316
2026-01-21 02:59:44.64	347.48	12.66	-41.9	-61.2	3.8	7.48e-01	0	56	104	0	54	35109
2026-01-21 02:59:45.65	347.31	12.73	-42.1	-61.2	3.8	7.46e-01	0	55	104	0	54	34935
2026-01-21 02:59:46.66	347.13	12.80	-42.0	-61.3	3.8	7.48e-01	0	56	104	0	54	35351
2026-01-21 02:59:47.67	346.96	12.87	-42.0	-61.3	3.8	7.46e-01	0	56	104	0	54	35680
2026-01-21 02:59:48.68	346.78	12.94	-42.1	-61.2	3.8	7.45e-01	0	56	104	0	54	34930
2026-01-21 02:59:49.69	346.60	13.01	-42.0	-61.1	3.8	7.47e-01	0	56	104	0	54	34722
2026-01-21 02:59:50.70	346.42	13.08	-42.1	-61.3	3.8	7.46e-01	0	56	104	0	54	35344
2026-01-21 02:59:51.71	346.24	13.14	-42.1	-61.3	3.8	7.44e-01	0	56	104	0	54	35437
2026-01-21 02:59:52.72	346.06	13.21	-41.8	-61.0	3.8	7.49e-01	0	56	104	0	54	34400
2026-01-21 02:59:53.72	345.88	13.28	-41.8	-61.0	3.8	7.48e-01	0	56	104	0	54	34333
2026-01-21 02:59:54.73	345.70	13.35	-42.1	-61.2	3.8	7.45e-01	0	56	104	0	54	34931
2026-01-21 02:59:55.74	345.52	13.42	-41.9	-61.1	3.8	7.41e-01	0	56	104	0	54	34664
2026-01-21 02:59:56.75	345.34	13.49	-41.6	-61.0	3.8	7.40e-01	0	56	104	0	54	34348
2026-01-21 02:59:57.76	345.15	13.55	-41.8	-61.1	3.8	7.48e-01	0	56	104	0	54	34768
2026-01-21 02:59:58.77	344.97	13.62	-41.8	-61.0	3.8	7.47e-01	0	56	104	0	54	34282
2026-01-21 02:59:59.78	344.78	13.69	-41.5	-61.0	3.8	7.48e-01	0	56	104	0	54	34122
2026-01-21 03:00:00.79	344.59	13.76	-41.5	-61.1	3.8	7.46e-01	0	56	104	0	54	34772
2026-01-21 03:00:01.80	344.40	13.83	-41.6	-60.9	3.8	7.46e-01	0	56	104	0	54	33951
2026-01-21 03:00:02.81	344.21	13.89	-41.8	-61.0	3.8	7.48e-01	0	56	104	0	54	34437
2026-01-21 03:00:03.82	344.02	13.96	-41.6	-61.0	3.8	7.44e-01	0	56	104	0	54	34388
2026-01-21 03:00:04.82	343.83	14.03	-41.8	-60.9	3.8	7.45e-01	0	56	104	0	54	33804
2026-01-21 03:00:05.83	343.64	14.10	-41.5	-60.9	3.8	7.45e-01	0	56	104	0	54	33817
2026-01-21 03:00:06.84	343.45	14.16	-41.6	-61.0	3.8	7.45e-01	0	56	104	0	54	34100
2026-01-21 03:00:07.85	343.25	14.23	-41.7	-60.9	3.8	7.44e-01	0	56	104	0	54	33872
2026-01-21 03:00:08.86	343.06	14.30	-41.8	-61.0	3.8	7.45e-01	0	56	104	0	54	34140
2026-01-21 03:00:09.87	342.86	14.36	-41.6	-60.8	3.8	7.42e-01	0	56	104	0	54	33514
2026-01-21 03:00:10.88	342.66	14.43	-41.4	-60.9	3.8	7.44e-01	0	56	104	0	54	33748
2026-01-21 03:00:11.89	342.47	14.50	-41.8	-61.0	3.8	7.47e-01	0	56	104	0	54	34469
2026-01-21 03:00:12.90	342.27	14.56	-41.5	-60.9	3.8	7.44e-01	0	56	104	0	54	33698
2026-01-21 03:00:13.90	342.07	14.63	-41.5	-60.8	3.8	7.45e-01	0	56	104	0	54	33635
2026-01-21 03:00:14.91	341.87	14.70	-41.5	-60.9	3.8	7.45e-01	0	56	104	0	54	33811
2026-01-21 03:00:15.92	341.67	14.76	-41.7	-60.9	3.8	7.47e-01	0	56	104	0	54	33849
2026-01-21 03:00:16.93	341.46	14.83	-41.6	-61.0	3.8	7.44e-01	0	56	104	0	54	34185
2026-01-21 03:00:17.94	341.26	14.90	-41.5	-61.1	3.8	7.48e-01	0	56	104	0	54	34792
2026-01-21 03:00:18.95	341.05	14.96	-41.6	-60.8	3.8	7.46e-01	0	56	104	0	54	33324
2026-01-21 03:00:19.97	340.85	15.03	-41.1	-61.1	3.8	7.47e-01	0	56	104	0	54	34561
2026-01-21 03:00:20.98	340.64	15.09	-42.0	-61.2	3.8	7.47e-01	0	56	104	0	54	34950
2026-01-21 03:00:21.99	340.43	15.16	-42.3	-61.5	3.9	7.46e-01	0	56	104	0	55	34288
2026-01-21 03:00:22.99	340.23	15.22	-41.4	-60.9	3.8	7.45e-01	0	56	104	0	54	33978
2026-01-21 03:00:24.00	340.02	15.29	-41.0	-61.1	3.8	7.45e-01	0	56	104	0	54	34688
2026-01-21 03:00:25.01	339.80	15.35	-42.0	-61.0	3.8	7.46e-01	0	56	104	0	54	34125
2026-01-21 03:00:26.02	339.59	15.42	-41.6	-61.2	3.8	7.45e-01	0	56	104	0	54	35138
2026-01-21 03:00:27.03	339.38	15.48	-41.7	-61.3	3.8	7.46e-01	0	56	104	0	54	35299
2026-01-21 03:00:28.04	339.17	15.55	-41.8	-61.2	3.8	7.45e-01	0	56	104	0	54	34990
2026-01-21 03:00:29.05	338.95	15.61	-42.1	-57.7	3.8	7.45e-01	0	56	104	0	54	23542
2026-01-21 03:00:30.06	338.74	15.68	-42.0	-58.8	3.8	7.44e-01	0	56	104	0	54	26658
2026-01-21 03:00:31.07	338.52	15.74	-43.4	-58.8	3.8	7.46e-01	0	56	104	0	57	22510
2026-01-21 03:00:32.07	338.30	15.80	-44.2	-62.9	3.8	7.43e-01	0	56	104	0	59	31820
2026-01-21 03:00:33.08	338.08	15.87	-44.1	-61.7	3.8	7.45e-01	0	56	104	0	58	29445
2026-01-21 03:00:34.09	337.86	15.93	-41.5	-54.8	3.8	7.42e-01	0	56	104	0	55	15826
2026-01-21 03:00:35.10	337.64	15.99	-42.0	-55.5	3.8	7.45e-01	0	56	104	0	55	17203
2026-01-21 03:00:36.11	337.42	16.05	-42.0	-55.4	3.8	7.47e-01	0	56	104	0	55	16914
2026-01-21 03:00:37.12	337.20	16.12	-43.2	-57.3	3.8	7.44e-01	0	56	104	0	57	18937
2026-01-21 03:00:38.13	336.97	16.18	-43.2	-57.3	3.8	7.42e-01	0	56	104	0	57	18854
2026-01-21 03:00:39.14	336.75	16.24	-43.4	-58.6	3.8	7.43e-01	0	56	104	0	57	21968
2026-01-21 03:00:40.15	336.52	16.30	-44.8	-62.6	3.8	7.44e-01	0	56	104	0	60	29017
2026-01-21 03:00:41.16	336.30	16.36	-44.4	-61.3	3.9	7.45e-01	0	57	104	0	60	25126
2026-01-21 03:00:42.17	336.07	16.43	-42.1	-55.4	3.8	7.43e-01	0	56	104	0	56	15985
2026-01-21 03:00:43.18	335.84	16.49	-42.1	-55.1	3.8	7.43e-01	0	56	104	0	56	15535
2026-01-21 03:00:44.19	335.61	16.55	-42.0	-55.0	3.8	7.42e-01	0	56	104	0	56	15336
2026-01-21 03:00:45.19	335.38	16.61	-42.9	-56.5	3.8	7.46e-01	0	56	104	0	56	18127
2026-01-21 03:00:46.21	335.15	16.67	-44.3	-60.8	3.9	7.45e-01	0	56	104	0	60	23773
2026-01-21 03:00:47.21	334.92	16.73	-45.1	-62.9	3.8	7.46e-01	0	56	104	0	60	30066
2026-01-21 03:00:48.22	334.68	16.79	-43.9	-58.4	3.8	7.47e-01	0	57	104	0	59	19105
2026-01-21 03:00:49.23	334.45	16.84	-44.0	-59.2	3.8	7.45e-01	0	57	104	0	58	22149
2026-01-21 03:00:50.24	334.21	16.90	-42.7	-55.9	3.8	7.44e-01	0	57	104	0	57	16000
2026-01-21 03:00:51.25	333.98	16.96	-42.6	-55.7	3.8	7.44e-01	0	57	104	0	57	15676
2026-01-21 03:00:52.26	333.74	17.02	-42.3	-55.3	3.8	7.45e-01	0	57	104	0	56	15890
2026-01-21 03:00:53.27	333.50	17.08	-43.9	-58.1	3.8	7.45e-01	0	56	104	0	58	19412
2026-01-21 03:00:54.28	333.26	17.14	-44.5	-60.7	3.9	7.43e-01	0	56	104	0	61	22170
2026-01-21 03:00:55.29	333.02	17.19	-44.7	-61.4	3.8	7.43e-01	0	57	104	0	60	25522
2026-01-21 03:00:56.30	332.78	17.25	-43.3	-57.1	3.9	7.47e-01	0	57	104	0	58	17376
2026-01-21 03:00:57.31	332.53	17.31	-43.9	-58.6	3.8	7.46e-01	0	57	104	0	58	20694
2026-01-21 03:00:58.32	332.29	17.36	-42.5	-55.5	3.8	7.47e-01	0	57	104	0	56	16269
2026-01-21 03:00:59.33	332.05	17.42	-42.5	-55.6	3.8	7.46e-01	0	57	104	0	56	16431
2026-01-21 03:01:00.34	331.80	17.47	-42.8	-56.0	3.8	7.48e-01	0	56	104	0	56	17205
2026-01-21 03:01:01.35	331.55	17.53	-44.4	-59.9	3.8	7.44e-01	0	57	104	0	60	21447
2026-01-21 03:01:02.36	331.31	17.58	-43.0	-56.3	3.8	7.46e-01	0	57	104	0	58	15886
2026-01-21 03:01:03.37	331.06	17.64	-43.9	-58.4	3.8	7.45e-01	0	57	104	0	58	20202
2026-01-21 03:01:04.37	330.81	17.69	-43.8	-58.1	3.9	7.43e-01	0	57	104	0	59	18406
2026-01-21 03:01:05.38	330.56	17.74	-44.5	-60.6	3.9	7.41e-01	0	56	104	0	60	23174
2026-01-21 03:01:06.39	330.31	17.80	-42.5	-55.6	3.8	7.44e-01	0	56	104	0	57	15521
2026-01-21 03:01:07.40	330.06	17.85	-42.3	-55.3	3.8	7.42e-01	0	57	104	0	56	15870
2026-01-21 03:01:08.41	329.80	17.90	-42.5	-55.4	3.8	7.44e-01	0	57	104	0	56	16025
2026-01-21 03:01:09.42	329.55	17.95	-43.5	-57.3	3.8	7.40e-01	0	57	104	0	57	18732
2026-01-21 03:01:10.43	329.29	18.00	-42.9	-56.1	3.9	7.45e-01	0	57	104	0	57	16347
2026-01-21 03:01:11.44	329.04	18.05	-45.1	-62.1	3.8	7.43e-01	0	57	104	0	61	25972
2026-01-21 03:01:12.45	328.78	18.10	-43.2	-56.6	3.9	7.45e-01	0	57	104	0	58	16493
2026-01-21 03:01:13.46	328.52	18.15	-43.7	-58.0	3.8	7.44e-01	0	57	104	0	59	18285
2026-01-21 03:01:14.47	328.26	18.20	-43.0	-56.4	3.8	7.44e-01	0	57	104	0	57	16997
2026-01-21 03:01:15.48	328.00	18.25	-42.8	-56.1	3.8	7.44e-01	0	57	104	0	57	16458
2026-01-21 03:01:16.49	327.74	18.30	-42.6	-55.6	3.8	7.46e-01	0	57	104	0	57	15433
2026-01-21 03:01:17.50	327.48	18.35	-42.4	-55.3	3.8	7.46e-01	0	57	104	0	56	15865
2026-01-21 03:01:18.51	327.22	18.40	-42.4	-55.2	3.8	7.45e-01	0	57	104	0	56	15624
2026-01-21 03:01:19.52	326.96	18.44	-44.7	-60.2	3.7	7.43e-01	0	57	104	0	60	22041
2026-01-21 03:01:20.52	326.69	18.49	-42.6	-55.7	3.9	7.47e-01	0	57	104	0	57	15642
2026-01-21 03:01:21.53	326.43	18.54	-44.0	-58.9	3.8	7.44e-01	0	57	104	0	60	19154
2026-01-21 03:01:22.54	326.16	18.58	-42.8	-56.0	3.8	7.48e-01	0	57	104	0	57	16162
2026-01-21 03:01:23.55	325.90	18.63	-42.6	-55.6	3.8	7.41e-01	0	57	104	0	57	15417
2026-01-21 03:01:24.56	325.63	18.67	-43.2	-56.5	3.8	7.44e-01	0	57	104	0	57	17232
2026-01-21 03:01:25.57	325.36	18.72	-44.4	-59.2	3.8	7.43e-01	0	57	104	0	59	20916
2026-01-21 03:01:26.58	325.09	18.76	-42.4	-55.3	3.8	7.44e-01	0	57	104	0	56	15938
2026-01-21 03:01:27.59	324.82	18.80	-44.3	-59.1	3.8	7.44e-01	0	57	104	0	59	20719
2026-01-21 03:01:28.60	324.55	18.84	-42.6	-55.7	3.9	7.42e-01	0	57	104	0	57	15740
2026-01-21 03:01:29.61	324.28	18.89	-43.9	-58.6	3.9	7.39e-01	0	57	104	0	59	19514
2026-01-21 03:01:30.62	324.01	18.93	-42.6	-55.9	3.8	7.47e-01	0	57	104	0	57	15947
2026-01-21 03:01:31.63	323.73	18.97	-42.6	-55.7	3.8	7.46e-01	0	57	104	0	57	15592
2026-01-21 03:01:32.64	323.46	19.01	-42.9	-56.1	3.8	7.46e-01	0	57	104	0	57	16400
2026-01-21 03:01:33.64	323.19	19.05	-42.9	-56.4	3.8	7.44e-01	0	57	104	0	57	16955
2026-01-21 03:01:34.65	322.91	19.09	-42.6	-55.6	3.8	7.43e-01	0	57	104	0	56	16439
2026-01-21 03:01:35.66	322.64	19.12	-45.2	-62.2	3.7	7.48e-01	0	57	104	0	60	27983
2026-01-21 03:01:36.67	322.36	19.16	-43.6	-57.5	3.8	7.48e-01	0	57	104	0	57	19320
2026-01-21 03:01:37.69	322.08	19.20	-43.6	-57.8	3.9	7.41e-01	0	57	104	0	59	17750
2026-01-21 03:01:38.69	321.80	19.23	-43.0	-56.3	3.8	7.45e-01	0	57	104	0	57	16803
2026-01-21 03:01:39.70	321.52	19.27	-42.9	-56.1	3.8	7.47e-01	0	57	104	0	57	16474
2026-01-21 03:01:40.71	321.24	19.31	-44.3	-59.0	3.8	7.46e-01	0	57	104	0	59	20407
2026-01-21 03:01:41.72	320.96	19.34	-44.5	-59.8	3.8	7.45e-01	0	57	104	0	60	21195
2026-01-21 03:01:42.73	320.68	19.37	-42.9	-56.3	3.8	7.44e-01	0	57	104	0	56	17700
2026-01-21 03:01:43.74	320.40	19.41	-44.7	-60.6	3.7	7.49e-01	0	57	104	0	60	23257
2026-01-21 03:01:44.75	320.12	19.44	-44.2	-58.6	3.7	7.47e-01	0	57	104	0	58	20728
2026-01-21 03:01:45.76	319.83	19.47	-43.2	-56.8	3.8	7.47e-01	0	57	104	0	58	16738
2026-01-21 03:01:46.77	319.55	19.50	-42.7	-55.9	3.8	7.45e-01	0	57	104	0	57	15996
2026-01-21 03:01:47.78	319.26	19.53	-42.6	-55.8	3.8	7.41e-01	0	57	104	0	57	15815
2026-01-21 03:01:48.79	318.98	19.56	-43.5	-57.3	3.8	7.44e-01	0	57	104	0	57	18793
2026-01-21 03:01:49.80	318.69	19.59	-43.4	-57.3	3.8	7.45e-01	0	57	104	0	57	18773
2026-01-21 03:01:50.81	318.41	19.62	-44.1	-58.2	3.8	7.46e-01	0	57	104	0	58	19691
2026-01-21 03:01:51.82	318.12	19.65	-45.5	-63.2	3.8	7.48e-01	0	57	104	0	61	29535
2026-01-21 03:01:52.83	317.83	19.68	-45.0	-61.1	3.8	7.47e-01	0	57	104	0	60	24692
2026-01-21 03:01:53.84	317.55	19.70	-43.3	-56.9	3.9	7.42e-01	0	57	104	0	58	17030
2026-01-21 03:01:54.85	317.26	19.73	-43.1	-56.5	3.8	7.49e-01	0	57	104	0	58	16268
2026-01-21 03:01:55.86	316.97	19.76	-42.9	-56.3	3.8	7.43e-01	0	57	104	0	57	16700
2026-01-21 03:01:56.87	316.68	19.78	-44.6	-59.8	3.8	7.44e-01	0	57	104	0	59	22318
2026-01-21 03:01:57.88	316.39	19.80	-44.6	-60.0	3.8	7.45e-01	0	57	104	0	60	21659
2026-01-21 03:01:58.89	316.10	19.83	-43.6	-57.5	3.8	7.44e-01	0	57	104	0	57	19380
2026-01-21 03:01:59.90	315.81	19.85	-45.2	-62.8	3.7	7.48e-01	0	57	104	0	61	28059
2026-01-21 03:02:00.91	315.52	19.87	-45.0	-61.9	3.9	7.51e-01	0	57	104	0	60	26916
2026-01-21 03:02:01.92	315.22	19.89	-42.9	-56.2	3.8	7.46e-01	0	57	104	0	57	16651
2026-01-21 03:02:02.93	314.93	19.91	-42.6	-55.8	3.8	7.47e-01	0	57	104	0	57	15846
2026-01-21 03:02:03.94	314.64	19.93	-42.7	-56.1	3.8	7.45e-01	0	57	104	0	57	16442
2026-01-21 03:02:04.95	314.35	19.95	-43.4	-57.3	3.8	7.42e-01	0	57	104	0	57	18807
2026-01-21 03:02:05.96	314.05	19.97	-43.7	-58.0	3.8	7.44e-01	0	57	104	0	57	20393
2026-01-21 03:02:06.97	313.76	19.99	-44.5	-60.1	3.8	7.45e-01	0	57	104	0	60	21816
2026-01-21 03:02:07.98	313.46	20.00	-45.3	-63.1	3.9	7.43e-01	0	57	104	0	61	29277
2026-01-21 03:02:08.99	313.17	20.02	-45.4	-63.4	3.7	7.45e-01	0	57	104	0	61	30044
2026-01-21 03:02:10.00	312.88	20.03	-42.9	-56.1	3.8	7.45e-01	0	57	104	0	57	16501
2026-01-21 03:02:11.01	312.58	20.05	-42.8	-56.1	3.8	7.43e-01	0	57	104	0	57	16369
2026-01-21 03:02:12.02	312.28	20.06	-42.7	-55.7	3.8	7.42e-01	0	57	104	0	57	15597
2026-01-21 03:02:13.03	311.99	20.07	-43.9	-58.3	3.8	7.44e-01	0	57	104	0	58	19987
2026-01-21 03:02:14.04	311.69	20.09	-45.4	-63.6	3.8	7.45e-01	0	57	104	0	61	30944
2026-01-21 03:02:15.05	311.40	20.10	-45.5	-63.3	3.8	7.49e-01	0	57	104	0	61	29799
2026-01-21 03:02:16.05	311.10	20.11	-45.0	-61.5	3.8	7.48e-01	0	57	104	0	61	24329
2026-01-21 03:02:17.06	310.81	20.12	-44.1	-58.7	3.8	7.46e-01	0	57	104	0	58	21008
2026-01-21 03:02:18.07	310.51	20.13	-43.0	-56.5	3.8	7.46e-01	0	57	104	0	57	17185
2026-01-21 03:02:19.08	310.21	20.13	-42.9	-55.8	3.8	7.51e-01	0	57	104	0	57	15818
2026-01-21 03:02:20.09	309.92	20.14	-42.9	-56.5	3.8	7.44e-01	0	57	104	0	57	17178
2026-01-21 03:02:21.10	309.62	20.15	-43.8	-57.5	3.8	7.43e-01	0	57	104	0	58	18161
2026-01-21 03:02:22.11	309.32	20.15	-45.4	-63.2	3.8	7.43e-01	0	57	104	0	61	29646
2026-01-21 03:02:23.12	309.02	20.16	-45.4	-63.7	3.8	7.44e-01	0	57	104	0	61	31416
2026-01-21 03:02:24.13	308.73	20.16	-44.4	-59.5	3.8	7.42e-01	0	57	104	0	60	20409
2026-01-21 03:02:25.14	308.43	20.17	-44.2	-59.4	3.8	7.43e-01	0	57	104	0	59	21272
2026-01-21 03:02:26.15	308.13	20.17	-42.9	-56.1	3.8	7.44e-01	0	57	104	0	57	16403
2026-01-21 03:02:27.16	307.83	20.17	-43.1	-56.6	3.8	7.44e-01	0	57	104	0	57	17344
2026-01-21 03:02:28.17	307.53	20.17	-43.3	-57.3	3.8	7.48e-01	0	57	104	0	57	18899
2026-01-21 03:02:29.18	307.24	20.17	-44.4	-58.9	3.8	7.44e-01	0	57	104	0	59	20301
2026-01-21 03:02:30.19	306.94	20.17	-45.3	-63.0	3.9	7.44e-01	0	57	104	0	61	28910
2026-01-21 03:02:31.19	306.64	20.17	-45.4	-62.9	3.9	7.46e-01	0	57	104	0	61	28650
2026-01-21 03:02:32.20	306.35	20.17	-44.7	-60.4	3.9	7.44e-01	0	57	104	0	61	21279
2026-01-21 03:02:33.21	306.05	20.17	-44.0	-58.5	3.8	7.42e-01	0	57	104	0	58	20393
2026-01-21 03:02:34.22	305.75	20.16	-42.9	-56.1	3.8	7.44e-01	0	57	104	0	57	16484
2026-01-21 03:02:35.23	305.45	20.16	-42.9	-56.2	3.8	7.45e-01	0	57	104	0	57	16557
2026-01-21 03:02:36.24	305.15	20.16	-43.0	-56.2	3.8	7.45e-01	0	57	104	0	57	16518
2026-01-21 03:02:37.25	304.86	20.15	-44.4	-59.3	3.8	7.45e-01	0	57	104	0	59	21224
2026-01-21 03:02:38.26	304.56	20.14	-44.9	-61.2	3.8	7.39e-01	0	57	104	0	61	23427
2026-01-21 03:02:39.27	304.26	20.14	-45.2	-62.7	3.9	7.40e-01	0	57	104	0	61	27726
2026-01-21 03:02:40.28	303.96	20.13	-44.1	-58.3	3.9	7.47e-01	0	57	104	0	59	18905
2026-01-21 03:02:41.29	303.67	20.12	-43.7	-58.1	3.8	7.44e-01	0	57	104	0	58	19545
2026-01-21 03:02:42.30	303.37	20.11	-42.5	-55.2	3.8	7.47e-01	0	57	104	0	57	14727
2026-01-21 03:02:43.31	303.07	20.10	-42.7	-55.9	3.8	7.43e-01	0	57	104	0	57	16108
2026-01-21 03:02:44.32	302.78	20.09	-42.6	-55.8	3.8	7.43e-01	0	57	104	0	57	15869
2026-01-21 03:02:45.33	302.48	20.08	-42.9	-56.0	3.8	7.44e-01	0	57	104	0	57	16211
2026-01-21 03:02:46.34	302.18	20.06	-43.0	-56.3	3.8	7.42e-01	0	57	104	0	58	15775
2026-01-21 03:02:47.34	301.89	20.05	-44.3	-59.7	3.8	7.45e-01	0	57	104	0	60	20821
2026-01-21 03:02:48.35	301.60	20.04	-44.1	-58.1	3.9	7.43e-01	0	57	104	0	59	18313
2026-01-21 03:02:49.36	301.30	20.02	-44.7	-60.9	3.9	7.43e-01	0	57	104	0	61	22758
2026-01-21 03:02:50.37	301.01	20.01	-42.6	-55.6	3.8	7.45e-01	0	57	104	0	57	15556
2026-01-21 03:02:51.38	300.71	19.99	-42.7	-55.8	3.8	7.44e-01	0	57	104	0	57	15803
2026-01-21 03:02:52.39	300.42	19.97	-42.6	-55.5	3.8	7.42e-01	0	57	104	0	57	15307
2026-01-21 03:02:53.40	300.12	19.95	-43.3	-57.0	3.8	7.44e-01	0	57	104	0	58	17142
2026-01-21 03:02:54.41	299.83	19.94	-43.7	-57.8	3.9	7.39e-01	0	57	104	0	59	17886
2026-01-21 03:02:55.42	299.54	19.92	-45.0	-61.8	3.8	7.42e-01	0	57	104	0	61	25008
2026-01-21 03:02:56.43	299.24	19.90	-43.5	-57.4	3.9	7.48e-01	0	57	104	0	59	16943
2026-01-21 03:02:57.44	298.95	19.88	-43.6	-57.7	3.8	7.44e-01	0	57	104	0	58	18561
2026-01-21 03:02:58.44	298.66	19.85	-43.1	-56.8	3.8	7.45e-01	0	57	104	0	58	16730
2026-01-21 03:02:59.46	298.37	19.83	-43.0	-56.3	3.8	7.47e-01	0	57	104	0	58	15862
2026-01-21 03:03:00.47	298.08	19.81	-42.7	-56.1	3.8	7.44e-01	0	57	104	0	57	16458
2026-01-21 03:03:01.48	297.79	19.78	-42.6	-55.2	3.8	7.40e-01	0	57	104	0	57	14732
2026-01-21 03:03:02.49	297.50	19.76	-42.7	-56.7	3.8	7.45e-01	0	57	104	0	57	17588
2026-01-21 03:03:03.50	297.21	19.74	-44.2	-58.5	3.9	7.47e-01	0	57	104	0	60	18205
2026-01-21 03:03:04.50	296.92	19.71	-42.7	-56.4	3.9	7.45e-01	0	57	104	0	57	17047
2026-01-21 03:03:05.51	296.63	19.68	-44.0	-58.1	3.8	7.45e-01	0	58	104	0	59	18379
2026-01-21 03:03:06.52	296.35	19.66	-42.6	-55.8	3.8	7.45e-01	0	57	104	0	57	15818
2026-01-21 03:03:07.53	296.06	19.63	-42.6	-55.8	3.8	7.43e-01	0	57	104	0	57	15831
2026-01-21 03:03:08.54	295.77	19.60	-43.7	-57.1	3.8	7.47e-01	0	57	104	0	57	18446
2026-01-21 03:03:09.55	295.48	19.57	-43.8	-58.2	3.8	7.46e-01	0	58	104	0	59	18680
2026-01-21 03:03:10.56	295.20	19.54	-42.6	-54.9	3.8	7.46e-01	0	58	104	0	57	14291
2026-01-21 03:03:11.57	294.91	19.51	-44.6	-61.0	3.8	7.44e-01	0	58	104	0	61	22787
2026-01-21 03:03:12.58	294.63	19.48	-42.9	-55.8	3.9	7.47e-01	0	58	104	0	57	15818
2026-01-21 03:03:13.59	294.34	19.45	-43.2	-57.1	3.8	7.45e-01	0	57	104	0	58	17466
2026-01-21 03:03:14.60	294.06	19.41	-43.0	-56.4	3.8	7.42e-01	0	57	104	0	58	15953
2026-01-21 03:03:15.61	293.78	19.38	-43.1	-56.4	3.8	7.40e-01	0	57	104	0	58	16023
2026-01-21 03:03:16.62	293.50	19.35	-43.0	-56.6	3.8	7.44e-01	0	57	104	0	57	17400
2026-01-21 03:03:17.62	293.22	19.31	-44.7	-59.8	3.8	7.46e-01	0	58	104	0	59	22276
2026-01-21 03:03:18.63	292.94	19.28	-43.0	-56.1	3.8	7.45e-01	0	57	104	0	57	16395
2026-01-21 03:03:19.64	292.66	19.24	-44.9	-61.0	3.8	7.45e-01	0	57	104	0	61	22951
2026-01-21 03:03:20.65	292.38	19.21	-42.8	-55.6	3.9	7.40e-01	0	58	104	0	57	15454
2026-01-21 03:03:21.66	292.10	19.17	-42.9	-56.5	3.9	7.39e-01	0	57	104	0	57	17180
2026-01-21 03:03:22.67	291.82	19.13	-42.8	-55.8	3.8	7.46e-01	0	57	104	0	57	15911
2026-01-21 03:03:23.68	291.54	19.09	-42.7	-55.7	3.9	7.43e-01	0	58	104	0	57	15707
2026-01-21 03:03:24.69	291.27	19.05	-42.9	-46.8	16.6	6.01e-01	0	57	104	0	56	5978
2026-01-21 03:03:25.70	290.99	19.01	-42.9	-46.9	16.7	6.02e-01	0	57	0	1572864	57	5719
2026-01-21 03:03:26.71	290.72	18.97	-43.1	-47.3	16.6	5.97e-01	0	58	0	3145728	56	6341
2026-01-21 03:03:27.72	290.44	18.93	-44.8	-53.0	10.5	6.12e-01	0	58	0	5242880	60	9621
2026-01-21 03:03:28.73	290.17	18.89	-44.4	-50.7	14.2	6.04e-01	0	57	0	6815744	59	7863
2026-01-21 03:03:29.74	289.90	18.85	-42.8	-46.7	16.4	6.02e-01	0	57	0	7340032	57	5576
2026-01-21 03:03:30.75	289.63	18.81	-42.4	-46.0	17.5	6.01e-01	0	57	0	9437184	56	5441
2026-01-21 03:03:31.76	289.35	18.77	-42.5	-46.2	17.3	6.01e-01	0	57	0	11010048	56	5559
2026-01-21 03:03:32.77	289.08	18.72	-42.3	-45.8	17.6	6.03e-01	0	57	0	13107200	56	5340
2026-01-21 03:03:33.78	288.82	18.68	-42.3	-45.9	17.5	6.02e-01	0	57	0	15204352	56	5376
2026-01-21 03:03:34.79	288.55	18.63	-42.2	-45.7	17.9	6.04e-01	0	57	0	16777216	56	5256
2026-01-21 03:03:35.79	288.28	18.59	-42.4	-46.1	17.5	6.00e-01	0	57	0	18874368	56	5493
2026-01-21 03:03:36.80	288.01	18.54	-42.4	-46.1	17.4	6.01e-01	0	58	0	20447232	56	5488
2026-01-21 03:03:37.81	287.75	18.50	-42.3	-45.9	17.6	6.02e-01	0	57	0	22544384	56	5391
2026-01-21 03:03:38.82	287.48	18.45	-42.2	-45.7	17.8	6.03e-01	0	58	0	24641536	56	5258
2026-01-21 03:03:39.83	287.22	18.40	-42.4	-46.1	17.4	6.02e-01	0	58	0	26214400	56	5507
2026-01-21 03:03:40.84	286.96	18.36	-42.1	-45.5	18.0	6.03e-01	0	57	0	28311552	56	5151
2026-01-21 03:03:41.85	286.69	18.31	-42.4	-46.0	17.6	6.01e-01	0	57	0	29884416	56	5423
2026-01-21 03:03:42.86	286.43	18.26	-42.4	-46.2	17.3	6.03e-01	0	58	0	31981568	56	5529
2026-01-21 03:03:43.87	286.17	18.21	-42.0	-45.4	18.2	6.01e-01	0	57	0	34078720	56	5052
2026-01-21 03:03:44.88	285.91	18.16	-42.5	-46.3	17.3	6.01e-01	0	57	0	35651584	56	5615
2026-01-21 03:03:45.89	285.65	18.11	-42.4	-46.1	17.3	5.99e-01	0	57	0	37748736	56	5516
2026-01-21 03:03:46.90	285.39	18.06	-41.8	-45.1	18.3	6.01e-01	0	58	0	39845888	55	5211
2026-01-21 03:03:47.91	285.14	18.01	-42.3	-46.0	17.4	6.01e-01	0	57	0	41418752	55	5759
2026-01-21 03:03:48.92	284.88	17.96	-42.1	-45.6	17.7	6.04e-01	0	58	0	43515904	55	5515
2026-01-21 03:03:49.93	284.62	17.91	-42.1	-45.6	17.8	5.98e-01	0	58	0	45088768	55	5526
2026-01-21 03:03:50.94	284.37	17.86	-42.5	-46.4	17.0	6.02e-01	0	58	0	47185920	55	6005
2026-01-21 03:03:51.95	284.12	17.80	-42.2	-45.8	17.5	6.03e-01	0	57	0	49283072	55	5646
2026-01-21 03:03:52.96	283.86	17.75	-42.3	-46.1	17.4	6.03e-01	0	57	0	50855936	55	5800
2026-01-21 03:03:53.96	283.62	17.70	-42.8	-47.0	16.5	6.00e-01	0	57	0	52953088	56	6062
2026-01-21 03:03:54.97	283.36	17.64	-42.1	-45.6	17.8	6.03e-01	0	58	0	54525952	56	5178
2026-01-21 03:03:55.98	283.11	17.59	-41.9	-45.3	18.0	6.01e-01	0	57	0	56623104	55	5328
2026-01-21 03:03:56.99	282.87	17.53	-42.5	-46.4	17.0	6.02e-01	0	57	0	58720256	55	6020
2026-01-21 03:03:58.00	282.62	17.48	-42.2	-45.8	17.5	6.02e-01	0	58	0	60293120	55	5649
2026-01-21 03:03:59.01	282.37	17.42	-42.0	-45.4	18.0	6.03e-01	0	57	0	62390272	55	5342
2026-01-21 03:04:00.02	282.13	17.37	-42.6	-46.7	16.7	6.03e-01	0	58	0	64487424	55	6218
2026-01-21 03:04:01.03	281.88	17.31	-42.5	-46.3	17.1	6.02e-01	0	57	0	66060288	56	5617
2026-01-21 03:04:02.04	281.64	17.25	-41.8	-45.1	18.2	6.00e-01	0	57	0	68157440	55	5206
2026-01-21 03:04:03.05	281.39	17.20	-42.1	-45.7	17.7	6.01e-01	0	57	0	69730304	55	5532
2026-01-21 03:04:04.06	281.15	17.14	-42.4	-46.2	17.1	6.01e-01	0	57	0	71827456	55	5897
2026-01-21 03:04:05.07	280.91	17.08	-42.0	-45.5	17.8	6.00e-01	0	57	0	73924608	55	5408
2026-01-21 03:04:06.08	280.67	17.02	-42.1	-45.6	17.7	6.02e-01	0	57	0	75497472	55	5520
2026-01-21 03:04:07.09	280.43	16.97	-42.5	-46.4	17.0	6.01e-01	0	58	0	77594624	55	6009
2026-01-21 03:04:08.10	280.19	16.91	-42.2	-45.9	17.4	6.00e-01	0	57	0	79167488	55	5677
2026-01-21 03:04:09.11	279.96	16.85	-42.0	-45.4	17.9	5.99e-01	0	58	0	81264640	55	5363
2026-01-21 03:04:10.12	279.72	16.79	-42.2	-45.9	17.5	6.00e-01	0	57	0	83361792	55	5666
2026-01-21 03:04:11.12	279.49	16.73	-42.3	-46.1	17.2	6.02e-01	0	57	0	84934656	55	5819
2026-01-21 03:04:12.13	279.25	16.67	-42.0	-45.5	17.8	6.00e-01	0	57	0	87031808	55	5420
2026-01-21 03:04:13.14	279.02	16.61	-41.9	-45.3	18.0	6.04e-01	0	58	0	88604672	55	5319
2026-01-21 03:04:14.15	278.79	16.55	-42.1	-45.6	17.7	6.01e-01	0	58	0	90701824	55	5493
2026-01-21 03:04:15.16	278.56	16.49	-42.2	-45.9	17.4	5.99e-01	0	58	0	92798976	55	5675
2026-01-21 03:04:16.17	278.33	16.43	-42.0	-45.4	17.8	6.02e-01	0	57	0	94371840	55	5399
2026-01-21 03:04:17.18	278.10	16.37	-41.9	-45.3	18.0	6.01e-01	0	58	0	96468992	55	5296
2026-01-21 03:04:18.19	277.87	16.31	-42.1	-45.6	17.7	6.03e-01	0	58	0	98041856	55	5518
2026-01-21 03:04:19.20	277.64	16.24	-42.2	-45.8	17.5	6.01e-01	0	58	0	100139008	55	5607
2026-01-21 03:04:20.21	277.42	16.18	-42.0	-45.5	17.8	6.01e-01	0	58	0	102236160	55	5422
2026-01-21 03:04:21.22	277.19	16.12	-42.0	-45.5	17.8	6.02e-01	0	57	0	103809024	55	5432
2026-01-21 03:04:22.23	276.97	16.06	-42.2	-45.9	17.5	6.01e-01	0	57	0	105906176	55	5661
2026-01-21 03:04:23.24	276.74	15.99	-42.3	-46.0	17.3	6.00e-01	0	58	0	108003328	55	5742
2026-01-21 03:04:24.25	276.52	15.93	-42.2	-45.8	17.5	6.01e-01	0	58	0	109576192	55	5617
2026-01-21 03:04:25.26	276.30	15.87	-42.1	-45.6	17.7	5.99e-01	0	58	0	111673344	55	5511
2026-01-21 03:04:26.27	276.08	15.80	-42.0	-45.5	17.8	6.02e-01	0	58	0	113246208	55	5431
2026-01-21 03:04:27.28	275.86	15.74	-42.0	-45.6	17.7	6.02e-01	0	58	0	115343360	55	5481
2026-01-21 03:04:28.28	275.65	15.68	-42.0	-45.5	17.7	6.02e-01	0	58	0	117440512	55	5457
2026-01-21 03:04:29.29	275.43	15.61	-42.0	-45.5	17.7	6.03e-01	0	58	0	119013376	55	5464
2026-01-21 03:04:30.30	275.21	15.55	-42.2	-45.8	17.5	6.03e-01	0	57	0	121110528	55	5626
2026-01-21 03:04:31.31	275.00	15.48	-42.2	-45.8	17.5	6.02e-01	0	58	0	122683392	55	5632
2026-01-21 03:04:32.32	274.78	15.42	-42.2	-45.8	17.4	6.02e-01	0	58	0	124780544	55	5651
2026-01-21 03:04:33.33	274.57	15.35	-42.0	-45.5	17.7	6.03e-01	0	58	0	126877696	55	5457
2026-01-21 03:04:34.34	274.36	15.29	-42.0	-45.5	17.8	6.02e-01	0	58	0	128450560	55	5449
2026-01-21 03:04:35.35	274.15	15.22	-42.1	-45.6	17.6	6.02e-01	0	57	0	130547712	55	5517
2026-01-21 03:04:36.36	273.94	15.16	-42.1	-45.7	17.6	5.99e-01	0	58	0	132644864	55	5540
2026-01-21 03:04:37.37	273.73	15.09	-42.0	-45.6	17.6	6.02e-01	0	58	0	134217728	55	5492
2026-01-21 03:04:38.38	273.52	15.03	-42.0	-45.6	17.7	5.99e-01	0	58	0	136314880	55	5467
2026-01-21 03:04:39.39	273.31	14.96	-42.0	-45.6	17.6	6.01e-01	0	58	0	137887744	55	5483
2026-01-21 03:04:40.40	273.11	14.89	-42.0	-45.6	17.6	6.02e-01	0	58	0	139984896	55	5523
2026-01-21 03:04:41.41	272.90	14.83	-42.1	-45.8	17.5	5.99e-01	0	58	0	141557760	55	5594
2026-01-21 03:04:42.42	272.70	14.76	-42.2	-45.9	17.4	6.03e-01	0	58	0	143654912	55	5660
2026-01-21 03:04:43.43	272.49	14.70	-42.1	-45.7	17.5	6.00e-01	0	58	0	145752064	55	5567
2026-01-21 03:04:44.43	272.29	14.63	-42.0	-45.6	17.7	6.01e-01	0	58	0	147324928	55	5487
2026-01-21 03:04:45.44	272.09	14.56	-42.1	-45.7	17.5	6.01e-01	0	58	0	149422080	55	5569
2026-01-21 03:04:46.45	271.89	14.50	-42.1	-45.7	17.5	6.03e-01	0	58	0	150994944	55	5552
2026-01-21 03:04:47.47	271.69	14.43	-42.0	-45.5	17.7	6.02e-01	0	58	0	153092096	55	5460
2026-01-21 03:04:48.47	271.49	14.36	-42.0	-45.7	17.5	6.00e-01	0	58	0	155189248	55	5540
2026-01-21 03:04:49.48	271.30	14.29	-42.1	-45.8	17.4	5.99e-01	0	58	0	156762112	55	5610
2026-01-21 03:04:50.49	271.10	14.23	-42.1	-45.8	17.4	6.03e-01	0	58	0	158859264	55	5619
2026-01-21 03:04:51.50	270.90	14.16	-42.1	-45.8	17.3	6.01e-01	0	58	0	160956416	55	5638
2026-01-21 03:04:52.51	270.71	14.09	-42.1	-45.8	17.4	6.01e-01	0	58	0	162529280	55	5614
2026-01-21 03:04:53.52	270.52	14.02	-42.0	-45.7	17.5	5.98e-01	0	58	0	164626432	55	5558
2026-01-21 03:04:54.53	270.32	13.95	-42.0	-45.6	17.5	5.99e-01	0	58	0	166199296	55	5525
2026-01-21 03:04:55.54	270.13	13.89	-42.1	-45.7	17.5	6.02e-01	0	58	0	168296448	55	5554
2026-01-21 03:04:56.55	269.94	13.82	-42.1	-45.7	17.4	6.00e-01	0	58	0	170393600	55	5586
2026-01-21 03:04:57.56	269.75	13.75	-42.1	-45.8	17.4	6.04e-01	0	58	0	171966464	55	5597
2026-01-21 03:04:58.57	269.56	13.68	-42.0	-45.7	17.5	6.03e-01	0	58	0	174063616	55	5566
2026-01-21 03:04:59.58	269.37	13.61	-42.0	-45.7	17.5	6.00e-01	0	58	0	176160768	55	5529
2026-01-21 03:05:00.59	269.19	13.55	-42.0	-45.7	17.5	5.98e-01	0	58	0	177733632	55	5534
2026-01-21 03:05:01.60	269.00	13.48	-42.1	-45.7	17.4	6.06e-01	0	58	0	179830784	55	5581
2026-01-21 03:05:02.61	268.82	13.41	-42.0	-45.7	17.4	6.01e-01	0	57	0	181403648	55	5551
2026-01-21 03:05:03.62	268.63	13.34	-42.1	-45.8	17.4	5.98e-01	0	58	0	183500800	55	5607
2026-01-21 03:05:04.63	268.45	13.27	-42.1	-45.9	17.3	5.99e-01	0	58	0	185597952	55	5658
2026-01-21 03:05:05.64	268.27	13.20	-42.0	-45.7	17.4	6.02e-01	0	58	0	187170816	55	5542
2026-01-21 03:05:06.65	268.08	13.13	-42.1	-45.8	17.3	6.00e-01	0	58	0	189267968	55	5625
2026-01-21 03:05:07.66	267.90	13.07	-42.2	-46.0	17.1	6.02e-01	0	58	0	190840832	55	5738
2026-01-21 03:05:08.67	267.72	13.00	-42.2	-46.0	17.1	6.01e-01	0	58	0	192937984	55	5733
2026-01-21 03:05:09.68	267.55	12.93	-42.1	-45.8	17.3	6.00e-01	0	58	0	195035136	55	5637
2026-01-21 03:05:10.69	267.37	12.86	-42.0	-45.7	17.4	6.01e-01	0	58	0	196608000	55	5572
2026-01-21 03:05:11.69	267.19	12.79	-42.0	-45.7	17.4	6.00e-01	0	58	0	198705152	55	5559
2026-01-21 03:05:12.70	267.02	12.72	-42.0	-45.7	17.4	5.99e-01	0	58	0	200278016	55	5585
2026-01-21 03:05:13.71	266.84	12.65	-42.2	-46.0	17.1	6.00e-01	0	58	0	202375168	55	5740
2026-01-21 03:05:14.72	266.67	12.58	-42.2	-46.1	17.0	6.01e-01	0	58	0	204472320	55	5794
2026-01-21 03:05:15.73	266.49	12.51	-42.1	-45.9	17.1	5.99e-01	0	58	0	206045184	55	5708
2026-01-21 03:05:16.74	266.32	12.44	-42.0	-45.8	17.3	6.00e-01	0	58	0	208142336	55	5597
2026-01-21 03:05:17.75	266.15	12.38	-42.0	-45.7	17.4	6.02e-01	0	58	0	209715200	55	5545
2026-01-21 03:05:18.76	265.98	12.31	-42.1	-45.8	17.3	6.00e-01	0	58	0	211812352	55	5614
2026-01-21 03:05:19.77	265.81	12.24	-42.1	-45.9	17.1	6.00e-01	0	58	0	213909504	55	5712
2026-01-21 03:05:20.78	265.64	12.17	-42.1	-45.9	17.1	6.00e-01	0	58	0	215482368	55	5716
2026-01-21 03:05:21.79	265.47	12.10	-42.1	-46.0	17.1	6.00e-01	0	58	0	217579520	55	5731
2026-01-21 03:05:22.80	265.30	12.03	-42.1	-45.9	17.1	6.01e-01	0	58	0	219152384	55	5720
2026-01-21 03:05:23.81	265.14	11.96	-42.1	-45.9	17.1	6.01e-01	0	58	0	221249536	55	5712
2026-01-21 03:05:24.82	264.97	11.89	-42.1	-45.9	17.1	6.00e-01	0	58	0	223346688	55	5692
2026-01-21 03:05:25.83	264.81	11.82	-42.1	-46.0	17.0	6.00e-01	0	58	0	224919552	55	5746
2026-01-21 03:05:26.84	264.64	11.75	-42.1	-46.0	17.0	6.04e-01	0	58	0	227016704	55	5768
2026-01-21 03:05:27.85	264.48	11.68	-42.2	-46.1	17.0	5.99e-01	0	58	0	229113856	55	5790
2026-01-21 03:05:28.85	264.32	11.61	-42.2	-46.1	16.9	5.99e-01	0	58	0	230686720	55	5812
2026-01-21 03:05:29.86	264.16	11.55	-42.2	-46.1	17.0	6.02e-01	0	58	0	232783872	55	5797
2026-01-21 03:05:30.88	264.00	11.48	-42.2	-46.1	16.9	5.99e-01	0	58	0	234356736	55	5822
2026-01-21 03:05:31.89	263.84	11.41	-42.2	-46.2	16.8	6.00e-01	0	58	0	236453888	55	5887
2026-01-21 03:05:32.90	263.68	11.34	-42.2	-46.1	16.9	6.02e-01	0	58	0	238551040	55	5800
2026-01-21 03:05:33.90	263.52	11.27	-42.1	-46.0	16.9	6.03e-01	0	58	0	240123904	55	5785
2026-01-21 03:05:34.91	263.36	11.20	-42.2	-46.1	16.8	5.98e-01	0	58	0	242221056	55	5852
2026-01-21 03:05:35.92	263.21	11.13	-42.1	-46.1	16.9	5.99e-01	0	58	0	244318208	55	5812
2026-01-21 03:05:36.93	263.05	11.06	-42.2	-46.2	16.7	6.02e-01	0	58	0	245891072	55	5921
2026-01-21 03:05:37.94	262.90	10.99	-42.2	-46.1	16.8	6.02e-01	0	58	0	247988224	55	5823
2026-01-21 03:05:38.95	262.74	10.92	-42.2	-46.2	16.8	6.00e-01	0	58	0	249561088	55	5866
2026-01-21 03:05:39.96	262.59	10.85	-42.3	-46.3	16.7	6.01e-01	0	58	0	251658240	55	5964
2026-01-21 03:05:40.97	262.44	10.78	-42.3	-46.3	16.7	6.01e-01	0	58	0	253755392	55	5949
2026-01-21 03:05:41.98	262.28	10.72	-42.2	-46.1	16.9	6.01e-01	0	58	0	255328256	55	5820
2026-01-21 03:05:42.99	262.13	10.65	-42.2	-46.1	16.8	6.03e-01	0	58	0	257425408	55	5836
2026-01-21 03:05:44.00	261.98	10.58	-42.2	-46.2	16.7	6.00e-01	0	58	0	258998272	55	5891
2026-01-21 03:05:45.01	261.83	10.51	-42.2	-46.2	16.7	6.02e-01	0	58	0	261095424	55	5917
2026-01-21 03:05:46.02	261.69	10.44	-42.2	-46.3	16.7	6.02e-01	0	58	0	263192576	55	5939
2026-01-21 03:05:47.02	261.54	10.37	-42.3	-46.4	16.6	6.01e-01	0	58	0	264765440	55	5999
2026-01-21 03:05:48.03	261.39	10.30	-42.3	-46.4	16.5	6.01e-01	0	58	0	266862592	55	6011
2026-01-21 03:05:49.04	261.25	10.23	-42.3	-46.4	16.6	6.03e-01	0	58	0	268435456	55	6013
2026-01-21 03:05:50.05	261.10	10.17	-42.3	-46.3	16.6	6.00e-01	0	58	0	270532608	55	5977
2026-01-21 03:05:51.06	260.95	10.10	-42.3	-46.4	16.5	6.00e-01	0	58	0	272629760	55	6023
2026-01-21 03:05:52.07	260.81	10.03	-42.2	-46.2	16.7	6.00e-01	0	58	0	274202624	55	5906
2026-01-21 03:05:53.08	260.67	9.96	-42.3	-46.4	16.5	6.02e-01	0	58	0	276299776	55	6030
2026-01-21 03:05:54.09	260.52	9.89	-42.3	-46.4	16.5	6.00e-01	0	58	0	277872640	55	6010
2026-01-21 03:05:55.10	260.38	9.82	-42.3	-46.5	16.4	6.00e-01	0	58	0	279969792	55	6107
2026-01-21 03:05:56.11	260.24	9.76	-42.4	-46.6	16.2	5.99e-01	0	58	0	282066944	55	6201
2026-01-21 03:05:57.12	260.10	9.69	-42.4	-46.6	16.2	6.01e-01	0	58	0	283639808	55	6195
2026-01-21 03:05:58.13	259.96	9.62	-42.3	-46.6	16.3	6.03e-01	0	58	0	285736960	55	6148
2026-01-21 03:05:59.14	259.82	9.55	-42.4	-46.6	16.2	6.01e-01	0	58	0	287309824	55	6174
2026-01-21 03:06:00.15	259.68	9.48	-42.3	-46.4	16.4	6.02e-01	0	58	0	289406976	55	6055
2026-01-21 03:06:01.15	259.55	9.41	-42.3	-46.4	16.4	6.02e-01	0	58	0	291504128	55	6056
2026-01-21 03:06:02.16	259.41	9.35	-42.3	-46.4	16.5	5.98e-01	0	58	0	293076992	55	6019
2026-01-21 03:06:03.17	259.27	9.28	-42.3	-46.5	16.3	6.01e-01	0	58	0	295174144	55	6130
2026-01-21 03:06:04.19	259.14	9.21	-42.3	-46.6	16.3	6.02e-01	0	58	0	297271296	55	6133
2026-01-21 03:06:05.19	259.00	9.14	-42.4	-46.6	16.2	6.00e-01	0	58	0	298844160	55	6172
2026-01-21 03:06:06.20	258.87	9.08	-42.4	-46.6	16.2	6.00e-01	0	58	0	300941312	55	6182
2026-01-21 03:06:07.21	258.74	9.01	-42.4	-46.7	16.2	5.99e-01	0	58	0	302514176	55	6212
2026-01-21 03:06:08.22	258.60	8.94	-42.3	-46.5	16.3	6.01e-01	0	58	0	304611328	55	6108
2026-01-21 03:06:09.23	258.47	8.87	-42.3	-46.6	16.2	6.02e-01	0	58	0	306708480	55	6168
2026-01-21 03:06:10.24	258.34	8.80	-42.3	-46.5	16.3	6.02e-01	0	58	0	308281344	55	6097
2026-01-21 03:06:11.25	258.21	8.74	-42.3	-46.6	16.2	6.02e-01	0	58	0	310378496	55	6168
2026-01-21 03:06:12.26	258.08	8.67	-42.4	-46.8	16.1	6.04e-01	0	58	0	311951360	55	6295
2026-01-21 03:06:13.27	257.95	8.60	-42.5	-46.9	15.9	6.02e-01	0	58	0	314048512	55	6384
2026-01-21 03:06:14.28	257.82	8.54	-42.5	-46.9	15.8	6.01e-01	0	58	0	316145664	55	6420
2026-01-21 03:06:15.29	257.69	8.47	-42.5	-46.9	15.9	6.01e-01	0	58	0	317718528	55	6395
2026-01-21 03:06:16.30	257.56	8.40	-42.5	-46.9	15.9	6.00e-01	0	58	0	319815680	55	6350
2026-01-21 03:06:17.31	257.44	8.33	-42.4	-46.7	16.1	5.99e-01	0	58	0	321388544	55	6213
2026-01-21 03:06:18.32	257.31	8.27	-42.4	-46.8	16.0	6.01e-01	0	58	0	323485696	55	6307
2026-01-21 03:06:19.33	257.19	8.20	-42.5	-47.0	15.8	6.01e-01	0	58	0	325582848	55	6473
2026-01-21 03:06:20.34	257.06	8.13	-42.5	-46.9	15.9	6.00e-01	0	58	0	327155712	55	6388
2026-01-21 03:06:21.35	256.94	8.07	-42.5	-47.0	15.8	6.02e-01	0	58	0	329252864	55	6456
2026-01-21 03:06:22.36	256.81	8.00	-42.9	-47.7	15.4	6.03e-01	0	58	0	330825728	56	6597
2026-01-21 03:06:23.37	256.69	7.93	-45.4	-63.6	3.8	7.46e-01	0	58	104	331874304	61	30872
2026-01-21 03:06:24.38	256.57	7.87	-45.7	-64.2	3.8	7.45e-01	0	58	104	331874304	61	33160
2026-01-21 03:06:25.39	256.45	7.80	-45.9	-64.5	3.8	7.43e-01	0	58	104	331874304	62	32218
2026-01-21 03:06:26.40	256.32	7.73	-46.1	-64.6	3.8	7.46e-01	0	58	104	331874304	62	32919
2026-01-21 03:06:27.41	256.20	7.67	-46.1	-64.8	3.8	7.47e-01	0	58	104	331874304	62	33337
2026-01-21 03:06:28.42	256.08	7.60	-46.2	-64.8	3.8	7.44e-01	0	58	104	331874304	62	33575
2026-01-21 03:06:29.43	255.96	7.54	-46.2	-64.9	3.8	7.46e-01	0	58	104	331874304	63	31824
2026-01-21 03:06:30.44	255.85	7.47	-46.3	-64.9	3.8	7.43e-01	0	58	104	331874304	63	31953
2026-01-21 03:06:31.45	255.73	7.40	-46.3	-64.9	3.8	7.42e-01	0	58	104	331874304	63	32004
2026-01-21 03:06:32.46	255.61	7.34	-46.3	-64.9	3.8	7.48e-01	0	58	104	331874304	63	32098
2026-01-21 03:06:33.47	255.49	7.27	-46.3	-64.9	3.8	7.45e-01	0	58	104	331874304	63	31942
2026-01-21 03:06:34.48	255.38	7.21	-46.3	-64.9	3.8	7.45e-01	0	58	104	331874304	63	31826
2026-01-21 03:06:35.49	255.26	7.14	-46.2	-64.8	3.8	7.48e-01	0	58	104	331874304	63	31612
2026-01-21 03:06:36.50	255.14	7.07	-46.2	-64.8	3.8	7.45e-01	0	58	104	331874304	63	31586
2026-01-21 03:06:37.51	255.03	7.01	-46.3	-64.8	3.8	7.45e-01	0	58	104	331874304	63	31689
2026-01-21 03:06:38.52	254.92	6.94	-46.3	-64.9	3.8	7.44e-01	0	58	104	331874304	63	31847
2026-01-21 03:06:39.53	254.80	6.88	-46.2	-64.8	3.8	7.44e-01	0	58	104	331874304	63	31526
2026-01-21 03:06:40.55	254.69	6.81	-46.2	-64.8	3.8	7.47e-01	0	58	104	331874304	63	31484
2026-01-21 03:06:41.56	254.58	6.75	-46.2	-64.8	3.8	7.45e-01	0	58	104	331874304	63	31528
2026-01-21 03:06:42.57	254.46	6.68	-46.2	-64.8	3.8	7.44e-01	0	58	104	331874304	63	31481
2026-01-21 03:06:43.58	254.35	6.62	-46.2	-64.8	3.8	7.43e-01	0	58	104	331874304	63	31474
2026-01-21 03:06:44.59	254.24	6.55	-46.2	-64.8	3.8	7.46e-01	0	58	104	331874304	63	31507
2026-01-21 03:06:45.60	254.13	6.49	-46.2	-64.8	3.8	7.46e-01	0	58	104	331874304	63	31466
2026-01-21 03:06:46.61	254.02	6.42	-46.2	-64.8	3.8	7.45e-01	0	58	104	331874304	63	31524
2026-01-21 03:06:47.62	253.91	6.36	-46.2	-64.7	3.8	7.48e-01	0	58	104	331874304	63	31443
2026-01-21 03:06:48.63	253.80	6.29	-46.2	-64.8	3.8	7.45e-01	0	58	104	331874304	63	31490
2026-01-21 03:06:49.63	253.70	6.23	-46.2	-64.8	3.8	7.44e-01	0	58	104	331874304	63	31465
2026-01-21 03:06:50.64	253.59	6.17	-46.2	-64.8	3.8	7.50e-01	0	58	104	331874304	63	31484
2026-01-21 03:06:51.65	253.48	6.10	-46.2	-64.8	3.8	7.47e-01	0	58	104	331874304	63	31473
2026-01-21 03:06:52.67	253.37	6.04	-46.2	-64.7	3.8	7.47e-01	0	58	104	331874304	63	31399
2026-01-21 03:06:53.68	253.27	5.97	-46.2	-64.8	3.8	7.45e-01	0	58	104	331874304	63	31492
2026-01-21 03:06:54.69	253.16	5.91	-46.2	-64.8	3.8	7.44e-01	0	58	104	331874304	63	31458
2026-01-21 03:06:55.70	253.06	5.85	-46.2	-64.8	3.8	7.45e-01	0	58	104	331874304	63	31478
2026-01-21 03:06:56.71	252.95	5.78	-46.2	-64.7	3.8	7.45e-01	0	58	104	331874304	63	31430
2026-01-21 03:06:57.72	252.85	5.72	-46.2	-64.7	3.8	7.43e-01	0	58	104	331874304	63	31431
2026-01-21 03:06:58.73	252.75	5.65	-46.2	-64.7	3.8	7.45e-01	0	58	104	331874304	63	31415
2026-01-21 03:06:59.74	252.64	5.59	-46.2	-64.7	3.8	7.45e-01	0	58	104	331874304	63	31403
2026-01-21 03:07:00.75	252.54	5.53	-46.2	-64.7	3.8	7.43e-01	0	58	104	331874304	63	31382
2026-01-21 03:07:01.76	252.44	5.46	-46.2	-64.8	3.8	7.40e-01	0	58	104	331874304	63	31461
2026-01-21 03:07:02.77	252.34	5.40	-46.2	-64.7	3.8	7.47e-01	0	58	104	331874304	63	31431
2026-01-21 03:07:03.78	252.24	5.34	-46.2	-64.7	3.8	7.45e-01	0	58	104	331874304	63	31386
2026-01-21 03:07:04.79	252.14	5.28	-46.2	-64.7	3.8	7.47e-01	0	58	104	331874304	63	31401
2026-01-21 03:07:05.80	252.04	5.21	-46.2	-64.7	3.8	7.43e-01	0	58	104	331874304	63	31420
2026-01-21 03:07:06.81	251.94	5.15	-46.2	-64.7	3.8	7.42e-01	0	58	104	331874304	63	31392
2026-01-21 03:07:07.82	251.84	5.09	-46.2	-64.7	3.8	7.44e-01	0	58	104	331874304	63	31315
2026-01-21 03:07:08.83	251.74	5.02	-46.2	-64.8	3.8	7.46e-01	0	58	104	331874304	63	31454
2026-01-21 03:07:09.84	251.64	4.96	-46.2	-64.8	3.8	7.45e-01	0	58	104	331874304	63	31514
2026-01-21 03:07:10.85	251.54	4.90	-46.2	-64.7	3.8	7.43e-01	0	58	104	331874304	63	31407
2026-01-21 03:07:11.87	251.44	4.84	-46.2	-64.7	3.8	7.46e-01	0	58	104	331874304	63	31342
2026-01-21 03:07:12.88	251.35	4.77	-46.2	-64.7	3.8	7.43e-01	0	58	104	331874304	63	31410
2026-01-21 03:07:13.89	251.25	4.71	-46.2	-64.7	3.8	7.48e-01	0	58	104	331874304	63	31363
2026-01-21 03:07:14.90	251.16	4.65	-46.2	-64.7	3.8	7.47e-01	0	58	104	331874304	63	31402
2026-01-21 03:07:15.91	251.06	4.59	-46.2	-64.7	3.8	7.47e-01	0	58	104	331874304	63	31327
2026-01-21 03:07:16.92	250.97	4.53	-46.2	-64.7	3.8	7.44e-01	0	58	104	331874304	63	31380
2026-01-21 03:07:17.93	250.87	4.46	-46.2	-64.7	3.8	7.42e-01	0	58	104	331874304	63	31350
2026-01-21 03:07:18.94	250.78	4.40	-46.2	-64.7	3.8	7.41e-01	0	58	104	331874304	63	31376
2026-01-21 03:07:19.95	250.68	4.34	-46.2	-64.7	3.8	7.43e-01	0	58	104	331874304	63	31385
2026-01-21 03:07:20.96	250.59	4.28	-46.2	-64.8	3.8	7.43e-01	0	58	104	331874304	63	31448
2026-01-21 03:07:21.97	250.50	4.22	-46.2	-64.7	3.8	7.46e-01	0	58	104	331874304	63	31378
2026-01-21 03:07:22.98	250.41	4.16	-46.2	-64.7	3.8	7.40e-01	0	58	104	331874304	63	31383
2026-01-21 03:07:23.99	250.31	4.09	-46.2	-64.7	3.8	7.45e-01	0	58	104	331874304	63	31411
2026-01-21 03:07:25.00	250.22	4.03	-46.2	-64.7	3.8	7.41e-01	0	58	104	331874304	62	33248
2026-01-21 03:07:26.01	250.13	3.97	-46.2	-64.7	3.8	7.47e-01	0	58	104	331874304	62	33250
2026-01-21 03:07:27.02	250.04	3.91	-46.2	-64.7	3.8	7.44e-01	0	58	104	331874304	62	33256
2026-01-21 03:07:28.03	249.95	3.85	-46.2	-64.7	3.8	7.47e-01	0	58	104	331874304	62	33233
2026-01-21 03:07:29.05	249.86	3.79	-46.2	-64.7	3.8	7.46e-01	0	58	104	331874304	62	33175
2026-01-21 03:07:30.05	249.77	3.73	-46.2	-64.7	3.8	7.45e-01	0	58	104	331874304	62	33137
2026-01-21 03:07:31.07	249.68	3.67	-46.2	-64.7	3.8	7.46e-01	0	58	104	331874304	62	33224
2026-01-21 03:07:32.08	249.59	3.61	-46.2	-64.7	3.8	7.44e-01	0	58	104	331874304	62	33182
2026-01-21 03:07:33.09	249.51	3.55	-46.2	-64.7	3.8	7.43e-01	0	58	104	331874304	62	33207
2026-01-21 03:07:34.10	249.42	3.49	-46.2	-64.7	3.8	7.46e-01	0	58	104	331874304	62	33187
2026-01-21 03:07:35.11	249.33	3.43	-46.2	-64.7	3.8	7.47e-01	0	58	104	331874304	62	33205
2026-01-21 03:07:36.12	249.24	3.36	-46.2	-64.7	3.8	7.46e-01	0	58	104	331874304	62	33154
2026-01-21 03:07:37.13	249.16	3.30	-46.2	-64.7	3.8	7.47e-01	0	58	104	331874304	62	33140
2026-01-21 03:07:38.14	249.07	3.24	-46.2	-64.7	3.8	7.45e-01	0	58	104	331874304	62	33134
2026-01-21 03:07:39.15	248.99	3.18	-46.1	-64.7	3.8	7.46e-01	0	58	104	331874304	62	33165
2026-01-21 03:07:40.16	248.90	3.13	-46.2	-64.7	3.8	7.44e-01	0	58	104	331874304	62	33115
2026-01-21 03:07:41.17	248.82	3.07	-46.2	-64.7	3.8	7.49e-01	0	58	104	331874304	62	33189
2026-01-21 03:07:42.18	248.73	3.01	-46.2	-64.7	3.8	7.47e-01	0	58	104	331874304	62	33126
2026-01-21 03:07:43.19	248.65	2.95	-46.2	-64.7	3.8	7.48e-01	0	58	104	331874304	62	33190
2026-01-21 03:07:44.20	248.56	2.89	-46.2	-64.7	3.8	7.47e-01	0	58	104	331874304	62	33136
2026-01-21 03:07:45.21	248.48	2.83	-46.2	-64.7	3.8	7.45e-01	0	58	104	331874304	62	33173
2026-01-21 03:07:46.23	248.40	2.77	-46.2	-64.7	3.8	7.46e-01	0	58	104	331874304	62	33169
2026-01-21 03:07:47.24	248.31	2.71	-46.2	-64.7	3.8	7.47e-01	0	58	104	331874304	62	33174
2026-01-21 03:07:48.25	248.23	2.65	-46.1	-64.7	3.8	7.45e-01	0	58	104	331874304	62	33138
2026-01-21 03:07:49.26	248.15	2.59	-46.2	-64.7	3.8	7.45e-01	0	58	104	331874304	62	33182
2026-01-21 03:07:50.27	248.07	2.53	-46.2	-64.7	3.8	7.47e-01	0	58	104	331874304	62	33107
2026-01-21 03:07:51.28	247.99	2.47	-46.1	-64.7	3.8	7.41e-01	0	58	104	331874304	62	33133
2026-01-21 03:07:52.29	247.91	2.41	-46.2	-64.7	3.8	7.45e-01	0	58	104	331874304	62	33199
2026-01-21 03:07:53.30	247.83	2.35	-46.1	-64.7	3.8	7.45e-01	0	58	104	331874304	62	33094
2026-01-21 03:07:54.31	247.75	2.30	-46.1	-64.7	3.8	7.44e-01	0	58	104	331874304	62	33123
2026-01-21 03:07:55.32	247.67	2.24	-46.1	-64.7	3.8	7.41e-01	0	58	104	331874304	62	33118
2026-01-21 03:07:56.33	247.59	2.18	-46.1	-64.7	3.8	7.47e-01	0	58	104	331874304	62	33128
2026-01-21 03:07:57.34	247.51	2.12	-46.1	-64.7	3.8	7.49e-01	0	58	104	331874304	62	33128
2026-01-21 03:07:58.35	247.43	2.06	-46.1	-64.7	3.8	7.49e-01	0	58	104	331874304	62	33145
2026-01-21 03:07:59.36	247.35	2.00	-46.1	-64.7	3.8	7.47e-01	0	58	104	331874304	62	33148
2026-01-21 03:08:00.37	247.27	1.95	-46.1	-64.7	3.8	7.46e-01	0	58	104	331874304	62	33077
2026-01-21 03:08:01.38	247.20	1.89	-46.2	-64.7	3.8	7.45e-01	0	58	104	331874304	62	33186

#Closed at: 2026-01-21 03:08:02
#Recorded file [331 MB]: D:/lorett/data/31039_260121_055659.dat