passes_logs/2026/01/21/R2.0S_Moscow/R2.0S_Moscow__20260121_003238_NOAA_21_JPSS-2_rec.log

#Pass ID: 20260121_003238_NOAA 21 (JPSS-2)
#Satellite: NOAA 21 (JPSS-2)
#Configuration: NOAA-21
#almurnet v.1.7.20251203
#Start time: 2026-01-21 00:33:22

#Version: 2.2.20231116
#Station: R2.0S_Moscow
#Location: 37.707566 lon 55.798166 lat
#TLE: 1 54234U 22150A   26020.29910383  .00000141  00000+0  87571-4 0  9990
#TLE: 2 54234  98.7506 321.1348 0000615 250.8428 109.2682 14.19536295165564

#Time	Az	El	Level	Level2	SNR	BER	BlckErr	Temp	State	Recorded	gain1	gain2
2026-01-21 00:33:22.89	11.08	4.86	-45.2	-56.9	3.8	8.46e-01	0	58	0	0	61	14229
2026-01-21 00:33:23.91	11.04	4.93	-45.6	-58.0	3.8	1.49e+00	0	58	104	0	63	14517
2026-01-21 00:33:24.92	11.00	5.00	-45.6	-58.0	3.8	1.49e+00	0	58	104	0	63	14467
2026-01-21 00:33:25.93	10.95	5.07	-45.5	-58.0	3.8	1.49e+00	0	59	104	0	63	14462
2026-01-21 00:33:26.94	10.91	5.14	-45.5	-58.0	3.8	1.49e+00	0	58	104	0	63	14438
2026-01-21 00:33:27.95	10.87	5.21	-45.4	-57.9	3.8	1.49e+00	0	58	104	0	62	15158
2026-01-21 00:33:28.96	10.82	5.28	-45.3	-57.8	3.8	1.49e+00	0	58	104	0	62	14917
2026-01-21 00:33:29.97	10.78	5.35	-45.3	-57.8	3.8	1.49e+00	0	59	104	0	62	14948
2026-01-21 00:33:30.98	10.74	5.42	-44.7	-57.3	3.8	1.49e+00	0	58	104	0	61	14954
2026-01-21 00:33:31.99	10.69	5.49	-44.0	-56.3	3.8	1.49e+00	0	58	104	0	59	15047
2026-01-21 00:33:33.00	10.65	5.56	-40.5	-53.0	3.8	1.49e+00	0	58	104	0	53	14449
2026-01-21 00:33:34.01	10.61	5.63	-40.4	-52.9	3.8	1.49e+00	0	58	104	0	52	15052
2026-01-21 00:33:35.02	10.56	5.70	-40.4	-52.8	3.8	1.49e+00	0	58	104	0	52	14918
2026-01-21 00:33:36.04	10.52	5.77	-40.4	-52.8	3.8	1.49e+00	0	58	104	0	52	14980
2026-01-21 00:33:37.04	10.47	5.84	-40.4	-52.8	3.8	1.49e+00	0	58	104	0	52	14987
2026-01-21 00:33:38.06	10.43	5.91	-40.4	-52.8	3.8	1.49e+00	0	58	104	0	52	14911
2026-01-21 00:33:39.07	10.38	5.98	-40.4	-52.8	3.8	1.49e+00	0	58	104	0	52	14920
2026-01-21 00:33:40.08	10.34	6.05	-40.4	-52.8	3.8	1.49e+00	0	58	104	0	52	14943
2026-01-21 00:33:41.09	10.29	6.12	-40.4	-52.8	3.8	1.49e+00	0	58	104	0	52	14913
2026-01-21 00:33:42.10	10.24	6.20	-40.4	-52.8	3.8	1.49e+00	0	58	104	0	52	14979
2026-01-21 00:33:43.11	10.20	6.27	-40.4	-52.8	3.8	1.49e+00	0	58	104	0	52	14949
2026-01-21 00:33:44.12	10.15	6.34	-40.3	-52.8	3.8	1.49e+00	0	58	104	0	52	14924
2026-01-21 00:33:45.13	10.10	6.41	-40.3	-52.8	3.8	1.49e+00	0	58	104	0	52	14954
2026-01-21 00:33:46.14	10.06	6.49	-40.3	-52.8	3.8	1.49e+00	0	58	104	0	52	14978
2026-01-21 00:33:47.15	10.01	6.56	-40.3	-52.8	3.8	1.49e+00	0	58	104	0	52	14971
2026-01-21 00:33:48.16	9.96	6.63	-40.3	-52.8	3.8	1.49e+00	0	58	104	0	52	14948
2026-01-21 00:33:49.17	9.91	6.70	-40.3	-52.8	3.8	1.49e+00	0	58	104	0	52	14939
2026-01-21 00:33:50.18	9.86	6.78	-40.3	-52.8	3.8	1.49e+00	0	58	104	0	52	14929
2026-01-21 00:33:51.19	9.82	6.85	-40.3	-52.8	3.8	1.49e+00	0	58	104	0	52	14941
2026-01-21 00:33:52.20	9.77	6.92	-40.3	-52.8	3.8	1.49e+00	0	58	104	0	52	14899
2026-01-21 00:33:53.21	9.72	7.00	-40.3	-52.8	3.8	1.49e+00	0	58	104	0	52	14910
2026-01-21 00:33:54.22	9.67	7.07	-40.3	-52.8	3.8	1.49e+00	0	58	104	0	52	14917
2026-01-21 00:33:55.23	9.62	7.15	-40.3	-52.8	3.8	1.49e+00	0	58	104	0	52	14904
2026-01-21 00:33:56.24	9.57	7.22	-40.3	-52.8	3.8	1.49e+00	0	58	104	0	52	14891
2026-01-21 00:33:57.25	9.52	7.30	-40.3	-52.8	3.8	1.49e+00	0	58	104	0	52	14883
2026-01-21 00:33:58.27	9.47	7.37	-40.3	-52.8	3.8	1.49e+00	0	58	104	0	52	14954
2026-01-21 00:33:59.28	9.42	7.45	-40.3	-52.8	3.8	1.49e+00	0	58	104	0	52	14961
2026-01-21 00:34:00.29	9.37	7.52	-40.3	-52.8	3.8	1.49e+00	0	58	104	0	52	14929
2026-01-21 00:34:01.30	9.32	7.60	-40.3	-52.7	3.8	1.49e+00	0	58	104	0	52	14871
2026-01-21 00:34:02.31	9.27	7.67	-40.3	-52.8	3.8	1.49e+00	0	58	104	0	52	14896
2026-01-21 00:34:03.32	9.21	7.75	-40.3	-52.7	3.8	1.49e+00	0	58	104	0	52	14879
2026-01-21 00:34:04.33	9.16	7.82	-40.3	-52.8	3.8	1.49e+00	0	58	104	0	52	14901
2026-01-21 00:34:05.34	9.11	7.90	-40.3	-52.8	3.8	1.49e+00	0	58	104	0	52	14911
2026-01-21 00:34:06.35	9.06	7.98	-40.3	-52.8	3.8	1.49e+00	0	58	104	0	52	14955
2026-01-21 00:34:07.36	9.00	8.05	-40.3	-52.8	3.8	1.49e+00	0	58	104	0	52	14966
2026-01-21 00:34:08.37	8.95	8.13	-40.3	-52.8	3.8	1.49e+00	0	58	104	0	52	14881
2026-01-21 00:34:09.38	8.90	8.21	-40.3	-52.7	3.8	1.49e+00	0	58	104	0	52	14858
2026-01-21 00:34:10.39	8.84	8.28	-40.3	-52.8	3.8	1.49e+00	0	58	104	0	52	14939
2026-01-21 00:34:11.40	8.79	8.36	-40.3	-52.7	3.8	1.49e+00	0	58	104	0	52	14860
2026-01-21 00:34:12.41	8.73	8.44	-40.3	-52.7	3.8	1.49e+00	0	58	104	0	52	14860
2026-01-21 00:34:13.42	8.68	8.52	-40.3	-52.8	3.8	1.49e+00	0	58	104	0	52	14889
2026-01-21 00:34:14.43	8.62	8.59	-40.3	-52.8	3.8	1.49e+00	0	58	104	0	52	14961
2026-01-21 00:34:15.44	8.57	8.67	-40.3	-52.8	3.8	1.49e+00	0	58	104	0	52	14909
2026-01-21 00:34:16.45	8.51	8.75	-40.3	-52.8	3.8	1.49e+00	0	58	104	0	52	14920
2026-01-21 00:34:17.46	8.46	8.83	-40.3	-52.8	3.8	1.49e+00	0	59	104	0	52	14908
2026-01-21 00:34:18.47	8.40	8.91	-40.4	-52.9	3.8	1.49e+00	0	58	104	0	52	15138
2026-01-21 00:34:19.48	8.34	8.99	-40.4	-52.9	3.8	1.49e+00	0	59	104	0	52	15084
2026-01-21 00:34:20.49	8.29	9.07	-40.3	-52.7	3.8	1.49e+00	0	58	104	0	52	14776
2026-01-21 00:34:21.50	8.23	9.15	-40.4	-52.9	3.8	1.49e+00	0	58	104	0	52	15072
2026-01-21 00:34:22.51	8.17	9.23	-40.5	-52.9	3.8	1.49e+00	0	58	104	0	52	15192
2026-01-21 00:34:23.52	8.11	9.31	-40.4	-52.8	3.8	1.49e+00	0	58	104	0	52	14977
2026-01-21 00:34:24.53	8.06	9.39	-40.2	-52.6	3.8	1.49e+00	0	58	104	0	52	14678
2026-01-21 00:34:25.54	8.00	9.47	-40.2	-52.6	3.8	1.49e+00	0	58	104	0	52	14605
2026-01-21 00:34:26.54	7.94	9.55	-40.2	-52.6	3.8	1.49e+00	0	59	104	0	52	14618
2026-01-21 00:34:27.55	7.88	9.63	-40.1	-52.6	3.8	1.49e+00	0	58	104	0	52	14563
2026-01-21 00:34:28.56	7.82	9.71	-40.1	-52.6	3.8	1.49e+00	0	58	104	0	52	14576
2026-01-21 00:34:29.58	7.76	9.79	-40.2	-52.6	3.8	1.49e+00	0	58	104	0	52	14671
2026-01-21 00:34:30.59	7.70	9.87	-40.2	-52.6	3.8	1.49e+00	0	58	104	0	52	14666
2026-01-21 00:34:31.59	7.64	9.95	-40.5	-53.0	3.8	1.49e+00	0	58	104	0	52	15292
2026-01-21 00:34:32.60	7.58	10.04	-40.6	-53.1	3.8	1.49e+00	0	58	104	0	52	15469
2026-01-21 00:34:33.61	7.51	10.12	-40.3	-52.7	3.8	1.49e+00	0	58	104	0	52	14780
2026-01-21 00:34:34.62	7.45	10.20	-40.3	-52.6	3.8	1.49e+00	0	58	104	0	52	14618
2026-01-21 00:34:35.63	7.39	10.28	-40.3	-52.7	3.8	1.49e+00	0	58	104	0	52	14777
2026-01-21 00:34:36.64	7.33	10.37	-40.3	-52.7	3.8	1.49e+00	0	58	104	0	52	14799
2026-01-21 00:34:37.65	7.26	10.45	-40.5	-53.0	3.8	1.49e+00	0	58	104	0	52	15226
2026-01-21 00:34:38.66	7.20	10.53	-40.4	-52.8	3.8	1.49e+00	0	59	104	0	52	14921
2026-01-21 00:34:39.67	7.14	10.62	-40.8	-53.3	3.8	1.49e+00	0	58	104	0	52	15873
2026-01-21 00:34:40.67	7.07	10.70	-40.9	-53.3	3.8	1.49e+00	0	58	104	0	53	14977
2026-01-21 00:34:41.68	7.01	10.79	-40.4	-52.8	3.8	1.49e+00	0	58	104	0	52	14973
2026-01-21 00:34:42.69	6.94	10.87	-40.4	-52.8	3.8	1.49e+00	0	58	104	0	52	14997
2026-01-21 00:34:43.70	6.88	10.95	-40.5	-52.9	3.8	1.49e+00	0	59	104	0	52	15133
2026-01-21 00:34:44.71	6.81	11.04	-40.5	-52.9	3.8	1.49e+00	0	59	104	0	52	15148
2026-01-21 00:34:45.72	6.75	11.13	-40.7	-53.2	3.8	1.49e+00	0	59	104	0	52	15599
2026-01-21 00:34:46.73	6.68	11.21	-40.6	-53.0	3.8	1.49e+00	0	59	104	0	52	15290
2026-01-21 00:34:47.74	6.61	11.30	-41.3	-52.4	3.9	1.49e+00	0	58	104	0	53	13508
2026-01-21 00:34:48.75	6.55	11.38	-42.0	-51.3	4.1	1.46e+00	0	58	104	0	54	11236
2026-01-21 00:34:49.76	6.48	11.47	-41.4	-53.6	3.8	1.49e+00	0	58	104	0	54	14688
2026-01-21 00:34:50.77	6.41	11.56	-41.9	-52.3	3.9	1.49e+00	0	58	104	0	54	12559
2026-01-21 00:34:51.78	6.34	11.64	-41.9	-51.2	4.1	1.47e+00	0	59	104	0	54	11103
2026-01-21 00:34:52.79	6.27	11.73	-41.9	-50.8	4.2	1.47e+00	0	58	104	0	54	10636
2026-01-21 00:34:53.80	6.20	11.82	-42.3	-52.2	4.0	1.13e+00	0	59	104	0	55	11735
2026-01-21 00:34:54.81	6.13	11.91	-42.1	-51.5	3.9	9.64e-01	0	59	104	0	55	10899
2026-01-21 00:34:55.82	6.06	11.99	-40.9	-52.0	3.8	1.32e+00	0	59	104	0	53	12861
2026-01-21 00:34:56.83	5.99	12.08	-40.8	-46.4	6.8	1.48e+00	0	59	104	0	53	6781
2026-01-21 00:34:57.84	5.92	12.17	-41.4	-53.3	3.8	3.05e-01	0	59	104	1048576	53	14902
2026-01-21 00:34:58.85	5.85	12.26	-40.1	-44.6	8.4	1.47e+00	0	59	104	1048576	52	5824
2026-01-21 00:34:59.85	5.77	12.35	-39.6	-43.3	10.0	1.14e-02	0	59	0	3145728	51	5313
2026-01-21 00:35:00.86	5.70	12.44	-39.4	-42.8	10.7	3.73e-03	0	59	0	6291456	50	5328
2026-01-21 00:35:01.88	5.63	12.53	-39.2	-42.6	11.0	2.29e-03	0	58	0	9437184	50	5169
2026-01-21 00:35:02.88	5.56	12.62	-39.2	-42.5	11.0	1.84e-03	0	58	0	12582912	50	5133
2026-01-21 00:35:03.90	5.48	12.71	-39.1	-42.3	11.2	1.52e-03	0	59	0	15728640	50	5026
2026-01-21 00:35:04.91	5.41	12.80	-39.1	-42.3	11.2	1.17e-03	0	58	0	18874368	50	5038
2026-01-21 00:35:05.92	5.33	12.89	-39.2	-42.5	11.1	1.29e-03	0	58	0	22020096	50	5102
2026-01-21 00:35:06.92	5.26	12.98	-39.4	-42.6	11.0	1.84e-03	0	58	0	25165824	50	5217
2026-01-21 00:35:07.93	5.18	13.07	-39.4	-42.6	11.1	1.68e-03	0	58	0	28311552	50	5217
2026-01-21 00:35:08.94	5.10	13.16	-39.5	-42.8	10.9	2.05e-03	0	59	0	31457280	50	5329
2026-01-21 00:35:09.95	5.03	13.25	-39.6	-43.0	10.8	2.39e-03	0	58	0	34603008	50	5419
2026-01-21 00:35:10.96	4.95	13.35	-39.6	-42.8	11.1	2.15e-03	0	59	0	37748736	50	5328
2026-01-21 00:35:11.97	4.87	13.44	-39.4	-42.5	11.5	1.05e-03	0	59	0	40894464	50	5120
2026-01-21 00:35:12.99	4.79	13.53	-39.5	-42.4	11.8	5.41e-04	0	59	0	44040192	50	5079
2026-01-21 00:35:14.00	4.71	13.63	-39.5	-42.4	11.8	4.52e-04	0	59	0	47185920	50	5065
2026-01-21 00:35:15.01	4.63	13.72	-39.4	-42.3	12.0	3.91e-04	0	58	0	50331648	50	4996
2026-01-21 00:35:16.01	4.55	13.81	-39.3	-42.2	12.0	3.26e-04	0	59	0	53477376	50	4964
2026-01-21 00:35:17.03	4.47	13.91	-39.5	-42.5	11.7	4.94e-04	0	59	0	56623104	50	5136
2026-01-21 00:35:18.04	4.39	14.00	-39.6	-42.6	11.7	5.45e-04	0	59	0	59768832	50	5193
2026-01-21 00:35:19.05	4.31	14.10	-39.8	-42.9	11.4	7.47e-04	0	58	0	62914560	50	5351
2026-01-21 00:35:20.06	4.23	14.19	-40.0	-43.2	11.1	1.60e-03	0	59	0	66060288	50	5564
2026-01-21 00:35:21.07	4.14	14.29	-40.1	-43.3	11.0	1.77e-03	0	59	0	69206016	50	5650
2026-01-21 00:35:22.08	4.06	14.38	-39.9	-43.1	11.2	1.48e-03	0	59	0	72351744	50	5507
2026-01-21 00:35:23.09	3.97	14.48	-39.9	-43.0	11.4	9.99e-04	0	59	0	75497472	50	5419
2026-01-21 00:35:24.10	3.89	14.57	-39.8	-42.8	11.6	6.58e-04	0	59	0	78643200	50	5294
2026-01-21 00:35:25.11	3.80	14.67	-39.7	-42.6	11.9	4.37e-04	0	59	0	81788928	50	5218
2026-01-21 00:35:26.11	3.72	14.77	-40.0	-43.1	11.5	6.74e-04	0	59	0	84934656	50	5502
2026-01-21 00:35:27.12	3.63	14.86	-40.3	-43.5	11.0	1.58e-03	0	59	0	88080384	51	5441
2026-01-21 00:35:28.13	3.55	14.96	-40.1	-43.2	11.5	1.02e-03	0	58	0	91226112	51	5237
2026-01-21 00:35:29.14	3.46	15.06	-39.9	-42.8	12.1	3.34e-04	0	59	0	94371840	51	4994
2026-01-21 00:35:30.16	3.37	15.16	-39.9	-42.7	12.2	2.10e-04	0	58	0	97517568	51	4951
2026-01-21 00:35:31.16	3.28	15.25	-40.2	-43.1	11.9	2.91e-04	0	59	0	100663296	51	5194
2026-01-21 00:35:32.17	3.19	15.35	-40.2	-43.1	11.8	4.75e-04	0	59	0	103809024	51	5181
2026-01-21 00:35:33.18	3.10	15.45	-40.0	-42.9	12.1	3.04e-04	0	58	0	106954752	51	5061
2026-01-21 00:35:34.19	3.01	15.55	-40.2	-43.1	11.9	3.27e-04	0	59	0	110100480	51	5163
2026-01-21 00:35:35.21	2.92	15.65	-40.2	-43.1	11.9	3.70e-04	0	59	0	113246208	51	5209
2026-01-21 00:35:36.22	2.83	15.75	-40.1	-42.9	12.2	2.40e-04	0	59	0	116391936	51	5056
2026-01-21 00:35:37.23	2.74	15.85	-40.1	-42.8	12.3	2.03e-04	0	59	0	119537664	51	5040
2026-01-21 00:35:38.23	2.64	15.95	-39.9	-42.7	12.5	1.53e-04	0	59	0	122683392	51	4928
2026-01-21 00:35:39.24	2.55	16.05	-40.0	-42.7	12.4	1.21e-04	0	59	0	125829120	51	4965
2026-01-21 00:35:40.25	2.45	16.16	-40.0	-42.7	12.5	1.41e-04	0	59	0	128974848	51	4943
2026-01-21 00:35:41.26	2.36	16.26	-39.9	-42.6	12.5	1.11e-04	0	58	0	132120576	51	4897
2026-01-21 00:35:42.27	2.26	16.36	-40.1	-42.8	12.3	1.96e-04	0	58	0	135266304	51	5039
2026-01-21 00:35:43.28	2.17	16.46	-40.0	-42.7	12.4	1.49e-04	0	59	0	138412032	51	4974
2026-01-21 00:35:44.29	2.07	16.57	-40.2	-43.1	12.1	2.44e-04	0	59	0	141557760	51	5172
2026-01-21 00:35:45.30	1.97	16.67	-40.2	-43.1	12.1	2.75e-04	0	59	0	144703488	51	5167
2026-01-21 00:35:46.31	1.87	16.77	-40.3	-43.1	12.0	2.62e-04	0	59	0	147849216	51	5199
2026-01-21 00:35:47.32	1.77	16.88	-40.2	-43.0	12.2	2.32e-04	0	58	0	150994944	51	5152
2026-01-21 00:35:48.34	1.67	16.98	-40.3	-43.1	12.2	2.20e-04	0	58	0	154140672	51	5187
2026-01-21 00:35:49.35	1.57	17.09	-40.4	-43.3	12.0	3.42e-04	0	59	0	158334976	51	5288
2026-01-21 00:35:50.36	1.47	17.19	-40.4	-43.2	12.0	2.78e-04	0	59	0	161480704	51	5259
2026-01-21 00:35:51.37	1.37	17.30	-40.5	-43.4	11.9	3.97e-04	0	59	0	163577856	51	5355
2026-01-21 00:35:52.38	1.27	17.40	-40.5	-43.4	11.9	3.86e-04	0	59	0	166723584	51	5345
2026-01-21 00:35:53.38	1.16	17.51	-40.5	-43.4	11.9	3.85e-04	0	58	0	169869312	51	5375
2026-01-21 00:35:54.39	1.06	17.61	-40.4	-43.3	12.0	3.23e-04	0	58	0	174063616	51	5318
2026-01-21 00:35:55.40	0.95	17.72	-40.4	-43.3	12.1	2.78e-04	0	59	0	177209344	51	5330
2026-01-21 00:35:56.41	0.85	17.83	-40.5	-43.4	12.0	2.59e-04	0	59	0	180355072	51	5356
2026-01-21 00:35:57.42	0.74	17.93	-40.5	-43.4	12.0	3.36e-04	0	59	0	183500800	51	5347
2026-01-21 00:35:58.43	0.63	18.04	-40.4	-43.2	12.2	2.75e-04	0	59	0	186646528	51	5276
2026-01-21 00:35:59.44	0.52	18.15	-40.5	-43.3	12.1	2.19e-04	0	59	0	188743680	51	5307
2026-01-21 00:36:00.45	0.42	18.26	-40.5	-43.4	12.0	3.21e-04	0	59	0	192937984	51	5348
2026-01-21 00:36:01.46	0.31	18.37	-40.4	-43.2	12.3	2.18e-04	0	58	0	196083712	51	5223
2026-01-21 00:36:02.47	0.19	18.48	-40.4	-43.1	12.3	1.73e-04	0	58	0	199229440	51	5215
2026-01-21 00:36:03.48	0.08	18.59	-40.4	-43.2	12.2	2.10e-04	0	59	0	202375168	51	5253
2026-01-21 00:36:04.49	359.97	18.70	-40.4	-43.1	12.3	1.96e-04	0	59	0	205520896	51	5218
2026-01-21 00:36:05.49	359.86	18.81	-40.4	-43.2	12.2	2.24e-04	0	59	0	208666624	51	5249
2026-01-21 00:36:06.50	359.74	18.92	-40.5	-43.4	12.0	3.18e-04	0	58	0	211812352	51	5350
2026-01-21 00:36:07.51	359.63	19.03	-40.4	-43.2	12.2	2.06e-04	0	59	0	214958080	51	5221
2026-01-21 00:36:08.53	359.51	19.14	-40.4	-43.2	12.2	2.36e-04	0	58	0	218103808	51	5266
2026-01-21 00:36:09.54	359.40	19.25	-40.5	-43.3	12.1	2.43e-04	0	58	0	221249536	51	5283
2026-01-21 00:36:10.55	359.28	19.37	-40.4	-43.2	12.2	2.31e-04	0	59	0	224395264	51	5251
2026-01-21 00:36:11.56	359.16	19.48	-40.4	-43.1	12.3	1.62e-04	0	58	0	227540992	51	5183
2026-01-21 00:36:12.57	359.04	19.59	-40.4	-43.1	12.2	2.15e-04	0	59	0	230686720	51	5202
2026-01-21 00:36:13.58	358.92	19.70	-40.3	-43.0	12.4	1.88e-04	0	59	0	233832448	51	5138
2026-01-21 00:36:14.59	358.80	19.82	-40.2	-42.9	12.5	1.29e-04	0	59	0	236978176	51	5067
2026-01-21 00:36:15.60	358.68	19.93	-40.2	-42.9	12.6	9.84e-05	0	59	0	240123904	51	5049
2026-01-21 00:36:16.61	358.55	20.05	-40.2	-42.8	12.6	1.14e-04	0	58	0	243269632	51	5022
2026-01-21 00:36:17.62	358.43	20.16	-40.1	-42.7	12.7	7.09e-05	0	59	0	246415360	51	4978
2026-01-21 00:36:18.63	358.30	20.28	-40.0	-42.6	12.8	7.01e-05	0	59	0	249561088	51	4894
2026-01-21 00:36:19.64	358.18	20.39	-39.9	-42.4	13.0	3.81e-05	0	59	0	252706816	51	4795
2026-01-21 00:36:20.65	358.05	20.51	-39.8	-42.3	13.1	5.03e-05	0	59	0	255852544	51	4711
2026-01-21 00:36:21.66	357.92	20.63	-39.7	-42.2	13.1	3.12e-05	0	58	0	258998272	51	4665
2026-01-21 00:36:22.67	357.79	20.74	-39.7	-42.2	13.0	2.97e-05	0	59	0	262144000	51	4657
2026-01-21 00:36:23.68	357.66	20.86	-39.6	-42.0	13.1	2.82e-05	0	58	0	265289728	51	4597
2026-01-21 00:36:24.69	357.53	20.98	-39.6	-42.0	13.1	2.05e-05	0	59	0	268435456	51	4586
2026-01-21 00:36:25.70	357.40	21.10	-39.5	-42.0	13.2	3.12e-05	0	59	0	271581184	51	4566
2026-01-21 00:36:26.71	357.27	21.21	-39.5	-42.0	13.1	2.74e-05	0	59	0	274726912	51	4574
2026-01-21 00:36:27.72	357.13	21.33	-39.5	-42.0	13.1	3.96e-05	0	59	0	277872640	51	4555
2026-01-21 00:36:28.73	357.00	21.45	-39.5	-42.0	13.1	3.66e-05	0	59	0	281018368	51	4553
2026-01-21 00:36:29.74	356.86	21.57	-39.5	-41.9	13.2	2.51e-05	0	59	0	284164096	50	4806
2026-01-21 00:36:30.75	356.72	21.69	-39.5	-41.9	13.2	2.59e-05	0	58	0	287309824	50	4793
2026-01-21 00:36:31.76	356.59	21.81	-39.5	-41.9	13.3	1.67e-05	0	58	0	290455552	50	4806
2026-01-21 00:36:32.77	356.45	21.93	-39.4	-41.8	13.4	2.21e-05	0	59	0	293601280	50	4741
2026-01-21 00:36:33.78	356.31	22.05	-39.3	-41.6	13.6	6.80e-06	0	59	0	296747008	50	4640
2026-01-21 00:36:34.79	356.16	22.18	-39.1	-41.4	13.9	3.80e-06	0	59	0	299892736	50	4516
2026-01-21 00:36:35.80	356.02	22.30	-39.1	-41.4	13.9	6.10e-06	0	59	0	303038464	50	4506
2026-01-21 00:36:36.81	355.88	22.42	-39.2	-41.4	13.9	1.50e-06	0	59	0	306184192	50	4522
2026-01-21 00:36:37.82	355.73	22.54	-39.4	-41.6	13.8	2.20e-06	0	59	0	309329920	50	4639
2026-01-21 00:36:38.83	355.59	22.67	-39.3	-41.5	13.9	1.50e-06	0	59	0	312475648	50	4564
2026-01-21 00:36:39.84	355.44	22.79	-39.1	-41.2	14.2	7.00e-07	0	59	0	315621376	50	4430
2026-01-21 00:36:40.85	355.29	22.91	-39.1	-41.2	14.3	1.50e-06	0	59	0	318767104	50	4419
2026-01-21 00:36:41.86	355.14	23.04	-39.2	-41.4	14.1	7.00e-07	0	59	0	321912832	50	4501
2026-01-21 00:36:42.87	354.99	23.16	-39.2	-41.4	14.2	3.00e-06	0	59	0	325058560	50	4494
2026-01-21 00:36:43.89	354.83	23.29	-39.1	-41.3	14.2	1.50e-06	0	59	0	328204288	50	4443
2026-01-21 00:36:44.89	354.68	23.41	-39.2	-41.3	14.2	3.00e-06	0	59	0	331350016	50	4484
2026-01-21 00:36:45.90	354.53	23.54	-39.3	-41.5	14.0	2.20e-06	0	58	0	334495744	50	4574
2026-01-21 00:36:46.91	354.37	23.67	-39.3	-41.5	14.0	3.00e-06	0	59	0	337641472	50	4581
2026-01-21 00:36:47.92	354.21	23.79	-39.3	-41.5	14.1	3.80e-06	0	59	0	340787200	50	4560
2026-01-21 00:36:48.93	354.05	23.92	-39.4	-41.6	14.0	4.50e-06	0	58	0	343932928	50	4614
2026-01-21 00:36:49.94	353.89	24.05	-39.3	-41.5	14.1	2.20e-06	0	59	0	347078656	50	4577
2026-01-21 00:36:50.95	353.73	24.18	-39.3	-41.4	14.1	7.00e-07	0	59	0	350224384	50	4534
2026-01-21 00:36:51.96	353.57	24.30	-39.3	-41.5	14.1	1.50e-06	0	59	0	353370112	50	4589
2026-01-21 00:36:52.97	353.40	24.43	-39.4	-41.6	14.1	3.80e-06	0	59	0	356515840	50	4615
2026-01-21 00:36:53.98	353.24	24.56	-39.4	-41.6	14.0	2.20e-06	0	59	0	359661568	50	4644
2026-01-21 00:36:54.99	353.07	24.69	-39.4	-41.6	14.1	0.00e+00	0	59	0	362807296	50	4620
2026-01-21 00:36:56.00	352.90	24.82	-39.4	-41.6	14.0	3.00e-06	0	58	0	365953024	50	4645
2026-01-21 00:36:57.01	352.73	24.95	-39.4	-41.6	14.1	7.00e-07	0	59	0	369098752	50	4610
2026-01-21 00:36:58.02	352.56	25.08	-39.3	-41.5	14.1	3.80e-06	0	58	0	372244480	50	4583
2026-01-21 00:36:59.03	352.39	25.21	-39.4	-41.6	14.1	3.80e-06	0	58	0	375390208	50	4599
2026-01-21 00:37:00.04	352.21	25.34	-39.4	-41.5	14.1	7.00e-07	0	59	0	378535936	50	4593
2026-01-21 00:37:01.05	352.04	25.47	-39.5	-41.7	14.0	3.00e-06	0	59	0	381681664	50	4666
2026-01-21 00:37:02.06	351.86	25.61	-39.6	-41.8	13.9	3.80e-06	0	59	0	384827392	50	4724
2026-01-21 00:37:03.07	351.68	25.74	-39.7	-42.0	13.7	6.10e-06	0	59	0	387973120	50	4818
2026-01-21 00:37:04.08	351.50	25.87	-39.7	-42.0	13.7	4.50e-06	0	59	0	391118848	50	4852
2026-01-21 00:37:05.09	351.32	26.00	-39.9	-42.2	13.5	1.29e-05	0	59	0	394264576	50	4976
2026-01-21 00:37:06.10	351.14	26.14	-39.9	-42.2	13.5	5.30e-06	0	58	0	397410304	50	4972
2026-01-21 00:37:07.10	350.95	26.27	-39.9	-42.3	13.5	1.44e-05	0	59	0	400556032	50	5000
2026-01-21 00:37:08.12	350.76	26.40	-39.9	-42.2	13.6	6.80e-06	0	59	0	403701760	50	4972
2026-01-21 00:37:09.12	350.58	26.54	-39.9	-42.3	13.5	9.90e-06	0	59	0	406847488	50	5004
2026-01-21 00:37:10.14	350.39	26.67	-39.9	-42.2	13.6	6.10e-06	0	58	0	409993216	50	4962
2026-01-21 00:37:11.15	350.19	26.81	-39.9	-42.2	13.6	1.22e-05	0	59	0	413138944	50	4978
2026-01-21 00:37:12.16	350.00	26.94	-40.1	-42.5	13.4	1.06e-05	0	59	0	416284672	50	5110
2026-01-21 00:37:13.16	349.81	27.08	-40.2	-42.6	13.2	1.90e-05	0	59	0	419430400	50	5213
2026-01-21 00:37:14.17	349.61	27.21	-40.3	-42.8	13.0	3.28e-05	0	59	0	422576128	51	5028
2026-01-21 00:37:15.18	349.41	27.35	-40.4	-42.9	12.9	4.88e-05	0	58	0	425721856	51	5088
2026-01-21 00:37:16.19	349.21	27.48	-40.5	-43.1	12.8	5.49e-05	0	59	0	428867584	51	5187
2026-01-21 00:37:17.20	349.01	27.62	-40.5	-43.1	12.7	6.86e-05	0	59	0	432013312	51	5208
2026-01-21 00:37:18.21	348.81	27.76	-40.5	-43.0	12.9	4.65e-05	0	59	0	435159040	51	5127
2026-01-21 00:37:19.22	348.60	27.89	-40.5	-43.0	12.9	5.56e-05	0	58	0	438304768	51	5115
2026-01-21 00:37:20.23	348.40	28.03	-40.5	-43.1	12.9	4.80e-05	0	59	0	441450496	51	5165
2026-01-21 00:37:21.24	348.19	28.17	-40.5	-42.9	13.0	4.80e-05	0	59	0	444596224	51	5094
2026-01-21 00:37:22.25	347.98	28.31	-40.3	-42.7	13.3	2.44e-05	0	59	0	447741952	51	4948
2026-01-21 00:37:23.26	347.76	28.45	-40.1	-42.5	13.5	1.67e-05	0	59	0	450887680	51	4820
2026-01-21 00:37:24.26	347.55	28.58	-40.2	-42.6	13.3	1.22e-05	0	59	0	454033408	51	4908
2026-01-21 00:37:25.27	347.34	28.72	-40.3	-42.8	13.2	2.28e-05	0	59	0	457179136	51	5007
2026-01-21 00:37:26.28	347.12	28.86	-40.4	-42.9	13.0	2.82e-05	0	59	0	460324864	51	5054
2026-01-21 00:37:27.29	346.90	29.00	-40.5	-43.0	13.0	4.27e-05	0	59	0	463470592	51	5110
2026-01-21 00:37:28.30	346.68	29.14	-40.5	-43.0	13.0	4.50e-05	0	58	0	466616320	51	5144
2026-01-21 00:37:29.31	346.45	29.28	-40.4	-42.8	13.2	3.05e-05	0	59	0	469762048	51	5019
2026-01-21 00:37:30.32	346.23	29.42	-40.3	-42.7	13.3	2.89e-05	0	59	0	472907776	51	4950
2026-01-21 00:37:31.33	346.00	29.56	-40.2	-42.5	13.5	7.60e-06	0	59	0	476053504	51	4858
2026-01-21 00:37:32.34	345.77	29.70	-40.2	-42.6	13.4	1.22e-05	0	59	0	480247808	51	4876
2026-01-21 00:37:33.36	345.53	29.84	-40.1	-42.5	13.6	9.90e-06	0	59	0	482344960	51	4816
2026-01-21 00:37:34.37	345.30	29.98	-40.1	-42.5	13.6	9.90e-06	0	59	0	485490688	51	4822
2026-01-21 00:37:35.38	345.06	30.12	-40.2	-42.6	13.4	1.37e-05	0	59	0	488636416	51	4889
2026-01-21 00:37:36.39	344.83	30.26	-40.3	-42.6	13.4	1.83e-05	0	59	0	491782144	51	4924
2026-01-21 00:37:37.40	344.59	30.40	-40.2	-42.5	13.5	1.06e-05	0	59	0	495976448	51	4867
2026-01-21 00:37:38.41	344.34	30.54	-40.2	-42.5	13.6	3.80e-06	0	59	0	499122176	51	4832
2026-01-21 00:37:39.41	344.10	30.68	-40.2	-42.5	13.5	6.80e-06	0	59	0	502267904	51	4844
2026-01-21 00:37:40.42	343.85	30.82	-40.1	-42.4	13.7	6.10e-06	0	59	0	504365056	51	4775
2026-01-21 00:37:41.43	343.60	30.97	-40.0	-42.3	13.8	3.80e-06	0	59	0	507510784	51	4707
2026-01-21 00:37:42.44	343.35	31.11	-40.0	-42.2	13.9	6.10e-06	0	59	0	510656512	51	4685
2026-01-21 00:37:43.45	343.10	31.25	-40.0	-42.2	13.8	6.10e-06	0	58	0	514850816	51	4704
2026-01-21 00:37:44.46	342.84	31.39	-40.0	-42.2	13.9	2.20e-06	0	59	0	517996544	51	4670
2026-01-21 00:37:45.47	342.59	31.53	-40.1	-42.3	13.8	3.80e-06	0	59	0	521142272	51	4741
2026-01-21 00:37:46.48	342.33	31.67	-40.0	-42.2	13.9	4.50e-06	0	58	0	524288000	51	4681
2026-01-21 00:37:47.49	342.06	31.81	-40.1	-42.3	13.8	9.90e-06	0	59	0	527433728	51	4740
2026-01-21 00:37:48.50	341.80	31.95	-40.0	-42.1	13.9	2.20e-06	0	59	0	530579456	51	4649
2026-01-21 00:37:49.51	341.53	32.10	-40.0	-42.2	13.8	3.00e-06	0	58	0	533725184	51	4703
2026-01-21 00:37:50.52	341.26	32.24	-40.1	-42.3	13.7	9.90e-06	0	59	0	536870912	51	4751
2026-01-21 00:37:51.53	340.99	32.38	-40.2	-42.5	13.7	6.10e-06	0	59	0	540016640	51	4819
2026-01-21 00:37:52.54	340.72	32.52	-40.2	-42.5	13.7	9.10e-06	0	59	0	543162368	51	4815
2026-01-21 00:37:53.55	340.44	32.66	-40.1	-42.4	13.7	6.10e-06	0	59	0	546308096	51	4771
2026-01-21 00:37:54.56	340.16	32.80	-40.1	-42.4	13.7	6.10e-06	0	59	0	549453824	51	4775
2026-01-21 00:37:55.57	339.88	32.94	-40.2	-42.5	13.6	1.14e-05	0	59	0	552599552	51	4833
2026-01-21 00:37:56.58	339.59	33.08	-40.3	-42.6	13.5	9.90e-06	0	59	0	555745280	51	4914
2026-01-21 00:37:57.59	339.31	33.22	-40.5	-42.9	13.1	2.74e-05	0	59	0	558891008	51	5061
2026-01-21 00:37:58.60	339.02	33.37	-40.6	-43.1	13.0	3.96e-05	0	59	0	562036736	51	5175
2026-01-21 00:37:59.61	338.73	33.51	-40.7	-43.2	12.8	6.86e-05	0	59	0	565182464	52	4964
2026-01-21 00:38:00.62	338.43	33.65	-40.9	-43.5	12.5	1.10e-04	0	59	0	568328192	52	5145
2026-01-21 00:38:01.63	338.13	33.79	-41.0	-43.8	12.2	1.90e-04	0	59	0	571473920	52	5302
2026-01-21 00:38:02.64	337.83	33.92	-41.1	-43.9	12.0	2.91e-04	0	59	0	574619648	52	5389
2026-01-21 00:38:03.65	337.53	34.06	-41.0	-43.7	12.4	1.65e-04	0	59	0	577765376	52	5225
2026-01-21 00:38:04.66	337.23	34.20	-40.9	-43.5	12.5	1.19e-04	0	59	0	580911104	52	5147
2026-01-21 00:38:05.67	336.92	34.34	-40.9	-43.6	12.5	1.37e-04	0	59	0	584056832	52	5189
2026-01-21 00:38:06.68	336.61	34.48	-41.0	-43.7	12.3	1.70e-04	0	59	0	587202560	52	5253
2026-01-21 00:38:07.69	336.30	34.62	-41.0	-43.7	12.4	1.60e-04	0	59	0	590348288	52	5244
2026-01-21 00:38:08.70	335.98	34.76	-40.8	-43.5	12.6	1.14e-04	0	59	0	593494016	52	5109
2026-01-21 00:38:09.71	335.66	34.89	-40.8	-43.4	12.7	7.62e-05	0	59	0	596639744	52	5077
2026-01-21 00:38:10.72	335.34	35.03	-40.8	-43.4	12.7	7.09e-05	0	59	0	599785472	52	5073
2026-01-21 00:38:11.73	335.02	35.17	-40.9	-43.5	12.5	9.46e-05	0	59	0	602931200	52	5157
2026-01-21 00:38:12.74	334.69	35.30	-41.1	-43.8	12.2	1.82e-04	0	59	0	606076928	52	5340
2026-01-21 00:38:13.75	334.36	35.44	-41.3	-44.1	12.0	3.13e-04	0	58	0	609222656	53	5198
2026-01-21 00:38:14.76	334.03	35.57	-41.3	-44.2	11.8	4.53e-04	0	59	0	612368384	53	5268
2026-01-21 00:38:15.77	333.70	35.71	-41.5	-44.5	11.5	6.31e-04	0	59	0	615514112	53	5443
2026-01-21 00:38:16.77	333.36	35.84	-41.6	-44.7	11.4	8.76e-04	0	59	0	618659840	53	5536
2026-01-21 00:38:17.78	333.02	35.97	-41.5	-44.5	11.5	8.20e-04	0	59	0	621805568	53	5455
2026-01-21 00:38:18.79	332.68	36.11	-41.6	-44.6	11.5	7.65e-04	0	59	0	624951296	53	5511
2026-01-21 00:38:19.80	332.34	36.24	-41.4	-44.4	11.6	7.34e-04	0	59	0	628097024	53	5384
2026-01-21 00:38:20.81	331.99	36.37	-41.4	-44.3	11.8	5.22e-04	0	59	0	631242752	53	5299
2026-01-21 00:38:21.82	331.64	36.50	-41.4	-44.3	11.8	4.54e-04	0	59	0	634388480	53	5303
2026-01-21 00:38:22.83	331.28	36.63	-41.3	-44.2	11.9	4.59e-04	0	59	0	637534208	53	5279
2026-01-21 00:38:23.84	330.92	36.76	-41.3	-44.2	12.0	3.69e-04	0	59	0	640679936	53	5235
2026-01-21 00:38:24.85	330.56	36.89	-41.3	-44.2	11.9	3.48e-04	0	59	0	643825664	53	5255
2026-01-21 00:38:25.86	330.20	37.01	-41.3	-44.2	11.9	3.97e-04	0	59	0	646971392	53	5253
2026-01-21 00:38:26.87	329.84	37.14	-41.3	-44.2	11.9	3.69e-04	0	59	0	650117120	53	5226
2026-01-21 00:38:27.88	329.47	37.27	-41.3	-44.1	11.9	4.02e-04	0	59	0	653262848	53	5212
2026-01-21 00:38:28.89	329.10	37.39	-41.3	-44.1	12.0	3.38e-04	0	59	0	656408576	53	5182
2026-01-21 00:38:29.90	328.72	37.52	-41.2	-43.9	12.1	2.94e-04	0	59	0	659554304	53	5088
2026-01-21 00:38:30.91	328.34	37.64	-41.2	-44.0	12.0	2.78e-04	0	59	0	662700032	53	5140
2026-01-21 00:38:31.92	327.96	37.76	-41.2	-43.9	12.2	2.66e-04	0	59	0	665845760	53	5082
2026-01-21 00:38:32.93	327.58	37.88	-41.1	-43.8	12.3	1.96e-04	0	59	0	668991488	53	5015
2026-01-21 00:38:33.95	327.19	38.00	-41.1	-43.9	12.1	2.28e-04	0	59	0	672137216	53	5054
2026-01-21 00:38:34.96	326.80	38.12	-41.2	-44.0	12.0	3.09e-04	0	59	0	675282944	53	5113
2026-01-21 00:38:35.97	326.41	38.24	-41.3	-44.2	11.8	3.93e-04	0	59	0	678428672	53	5241
2026-01-21 00:38:36.97	326.02	38.36	-41.4	-44.3	11.8	4.58e-04	0	59	0	681574400	53	5303
2026-01-21 00:38:37.98	325.62	38.47	-41.4	-44.3	11.8	5.41e-04	0	59	0	684720128	53	5287
2026-01-21 00:38:38.99	325.22	38.59	-41.4	-44.3	11.8	5.05e-04	0	59	0	687865856	53	5286
2026-01-21 00:38:40.00	324.82	38.70	-41.4	-44.4	11.7	5.66e-04	0	59	0	691011584	53	5371
2026-01-21 00:38:41.01	324.41	38.81	-41.6	-44.7	11.4	8.73e-04	0	59	0	694157312	53	5531
2026-01-21 00:38:42.02	324.01	38.92	-41.8	-45.0	11.1	1.48e-03	0	59	0	697303040	54	5457
2026-01-21 00:38:43.03	323.59	39.03	-41.9	-45.2	10.8	2.17e-03	0	59	0	700448768	54	5578
2026-01-21 00:38:44.04	323.18	39.14	-41.9	-45.2	10.9	2.23e-03	0	59	0	703594496	54	5545
2026-01-21 00:38:45.05	322.76	39.25	-41.9	-45.1	11.0	2.09e-03	0	59	0	706740224	54	5497
2026-01-21 00:38:46.05	322.35	39.35	-41.8	-45.0	11.1	1.69e-03	0	59	0	709885952	54	5415
2026-01-21 00:38:47.06	321.92	39.46	-41.8	-45.0	11.1	1.47e-03	0	59	0	713031680	54	5426
2026-01-21 00:38:48.07	321.50	39.56	-41.9	-45.1	11.0	1.96e-03	0	59	0	716177408	54	5508
2026-01-21 00:38:49.08	321.07	39.66	-41.9	-45.2	10.8	2.67e-03	0	59	0	719323136	54	5582
2026-01-21 00:38:50.09	320.64	39.76	-41.8	-45.0	11.1	2.14e-03	0	59	0	722468864	54	5426
2026-01-21 00:38:51.10	320.21	39.86	-41.7	-44.8	11.3	1.15e-03	0	59	0	725614592	54	5289
2026-01-21 00:38:52.11	319.77	39.95	-41.8	-44.9	11.2	1.38e-03	0	59	0	728760320	54	5367
2026-01-21 00:38:53.13	319.33	40.05	-41.8	-45.0	11.0	1.89e-03	0	59	0	731906048	54	5459
2026-01-21 00:38:54.13	318.89	40.14	-41.8	-45.0	11.1	1.58e-03	0	59	0	735051776	54	5405
2026-01-21 00:38:55.14	318.45	40.23	-41.8	-44.9	11.1	1.44e-03	0	59	0	738197504	54	5394
2026-01-21 00:38:56.15	318.00	40.32	-41.6	-44.7	11.4	1.13e-03	0	59	0	741343232	54	5230
2026-01-21 00:38:57.17	317.55	40.41	-41.6	-44.5	11.5	7.74e-04	0	59	0	744488960	54	5154
2026-01-21 00:38:58.18	317.10	40.50	-41.3	-44.1	12.0	3.58e-04	0	59	0	747634688	54	4881
2026-01-21 00:38:59.19	316.65	40.58	-41.4	-44.3	11.8	4.36e-04	0	59	0	750780416	54	5017
2026-01-21 00:39:00.20	316.19	40.66	-41.5	-44.4	11.6	6.24e-04	0	59	0	753926144	54	5087
2026-01-21 00:39:01.21	315.73	40.74	-41.7	-44.8	11.3	9.49e-04	0	59	0	757071872	54	5296
2026-01-21 00:39:02.21	315.28	40.82	-41.7	-44.9	11.2	1.30e-03	0	59	0	760217600	54	5341
2026-01-21 00:39:03.22	314.81	40.90	-41.7	-44.8	11.3	1.41e-03	0	59	0	763363328	54	5326
2026-01-21 00:39:04.23	314.35	40.97	-41.8	-44.9	11.2	1.42e-03	0	59	0	766509056	54	5366
2026-01-21 00:39:05.24	313.88	41.04	-41.7	-44.7	11.3	1.32e-03	0	59	0	769654784	54	5278
2026-01-21 00:39:06.25	313.41	41.11	-41.6	-44.6	11.5	1.12e-03	0	59	0	772800512	54	5177
2026-01-21 00:39:07.26	312.94	41.18	-41.5	-44.4	11.7	6.74e-04	0	59	0	775946240	54	5075
2026-01-21 00:39:08.27	312.47	41.25	-41.5	-44.5	11.6	6.83e-04	0	59	0	779091968	54	5115
2026-01-21 00:39:09.28	312.00	41.31	-41.4	-44.4	11.7	7.67e-04	0	59	0	782237696	54	5054
2026-01-21 00:39:10.29	311.52	41.38	-41.4	-44.3	11.7	5.67e-04	0	59	0	785383424	54	5041
2026-01-21 00:39:11.30	311.04	41.44	-41.5	-44.5	11.6	6.50e-04	0	59	0	788529152	54	5126
2026-01-21 00:39:12.31	310.56	41.49	-41.7	-44.7	11.3	9.93e-04	0	59	0	791674880	54	5258
2026-01-21 00:39:13.32	310.08	41.55	-41.7	-44.9	11.1	1.43e-03	0	59	0	794820608	54	5354
2026-01-21 00:39:14.33	309.59	41.60	-42.1	-45.5	10.4	3.93e-03	0	59	0	797966336	54	5776
2026-01-21 00:39:15.34	309.11	41.65	-42.2	-45.8	10.1	7.06e-03	0	59	0	801112064	55	5617
2026-01-21 00:39:16.35	308.62	41.70	-42.1	-45.5	10.5	4.85e-03	0	59	0	804257792	55	5432
2026-01-21 00:39:17.36	308.13	41.75	-42.0	-45.3	10.7	2.94e-03	0	59	0	807403520	55	5287
2026-01-21 00:39:18.37	307.64	41.79	-42.0	-45.3	10.7	2.87e-03	0	59	0	810549248	55	5295
2026-01-21 00:39:19.38	307.15	41.84	-42.0	-45.4	10.5	3.23e-03	0	59	0	813694976	55	5371
2026-01-21 00:39:20.39	306.66	41.88	-42.2	-45.7	10.3	5.07e-03	0	59	0	816840704	55	5552
2026-01-21 00:39:21.40	306.17	41.91	-42.1	-45.6	10.4	4.67e-03	0	59	0	821035008	55	5506
2026-01-21 00:39:22.41	305.67	41.95	-42.0	-45.4	10.6	3.91e-03	0	59	0	823132160	55	5377
2026-01-21 00:39:23.42	305.18	41.98	-42.2	-45.7	10.3	3.99e-03	0	59	0	826277888	55	5560
2026-01-21 00:39:24.43	304.68	42.01	-42.1	-45.5	10.5	4.38e-03	0	59	0	829423616	55	5449
2026-01-21 00:39:25.44	304.18	42.04	-42.1	-45.5	10.6	3.64e-03	0	59	0	832569344	55	5411
2026-01-21 00:39:26.45	303.68	42.06	-42.0	-45.3	10.8	3.24e-03	0	59	0	836763648	55	5296
2026-01-21 00:39:27.46	303.18	42.09	-41.7	-44.7	11.3	1.53e-03	0	59	0	839909376	55	4975
2026-01-21 00:39:28.47	302.68	42.11	-41.6	-44.7	11.2	1.26e-03	0	59	0	843055104	55	4953
2026-01-21 00:39:29.48	302.18	42.13	-41.8	-45.1	10.9	1.98e-03	0	59	0	845152256	55	5164
2026-01-21 00:39:30.49	301.68	42.14	-41.9	-45.1	10.9	2.42e-03	0	59	0	849346560	55	5206
2026-01-21 00:39:31.51	301.18	42.15	-41.9	-45.1	10.8	2.14e-03	0	59	0	852492288	55	5183
2026-01-21 00:39:32.51	300.68	42.17	-42.0	-45.3	10.7	3.18e-03	0	59	0	855638016	55	5291
2026-01-21 00:39:33.52	300.18	42.17	-41.9	-45.1	10.9	2.67e-03	0	59	0	858783744	55	5170
2026-01-21 00:39:34.53	299.67	42.18	-41.7	-44.8	11.1	1.60e-03	0	59	0	861929472	55	5003
2026-01-21 00:39:35.54	299.17	42.18	-41.6	-44.6	11.4	1.09e-03	0	59	0	865075200	55	4907
2026-01-21 00:39:36.56	298.66	42.18	-41.4	-44.2	11.7	6.10e-04	0	59	0	868220928	54	4979
2026-01-21 00:39:37.56	298.17	42.18	-41.6	-44.5	11.4	7.53e-04	0	59	0	871366656	54	5155
2026-01-21 00:39:38.57	297.66	42.18	-41.8	-45.0	11.0	1.55e-03	0	59	0	874512384	54	5441
2026-01-21 00:39:39.58	297.16	42.17	-41.9	-45.1	10.9	1.83e-03	0	59	0	877658112	54	5488
2026-01-21 00:39:40.59	296.66	42.16	-41.9	-45.2	10.8	2.42e-03	0	59	0	880803840	54	5555
2026-01-21 00:39:41.60	296.16	42.15	-41.8	-45.0	11.1	1.83e-03	0	59	0	883949568	54	5404
2026-01-21 00:39:42.61	295.66	42.14	-41.5	-44.5	11.5	9.01e-04	0	59	0	887095296	54	5103
2026-01-21 00:39:43.62	295.16	42.12	-41.4	-44.3	11.7	6.03e-04	0	59	0	890241024	54	5018
2026-01-21 00:39:44.63	294.66	42.10	-41.5	-44.5	11.5	7.62e-04	0	59	0	893386752	54	5103
2026-01-21 00:39:45.64	294.16	42.08	-41.4	-44.3	11.7	6.36e-04	0	59	0	896532480	54	5027
2026-01-21 00:39:46.65	293.66	42.05	-41.6	-44.6	11.5	7.02e-04	0	59	0	899678208	54	5164
2026-01-21 00:39:47.66	293.16	42.03	-41.6	-44.6	11.4	9.22e-04	0	59	0	902823936	54	5203
2026-01-21 00:39:48.67	292.66	42.00	-41.6	-44.7	11.3	1.16e-03	0	59	0	905969664	54	5237
2026-01-21 00:39:49.68	292.16	41.97	-41.5	-44.5	11.5	9.02e-04	0	59	0	909115392	54	5131
2026-01-21 00:39:50.69	291.67	41.93	-41.3	-44.1	12.0	4.83e-04	0	59	0	912261120	54	4898
2026-01-21 00:39:51.70	291.17	41.90	-41.3	-44.1	11.9	3.23e-04	0	59	0	915406848	54	4910
2026-01-21 00:39:52.71	290.68	41.86	-41.4	-44.3	11.7	4.84e-04	0	59	0	918552576	54	5024
2026-01-21 00:39:53.72	290.19	41.82	-41.5	-44.5	11.6	7.92e-04	0	59	0	921698304	54	5119
2026-01-21 00:39:54.73	289.70	41.78	-41.5	-44.5	11.5	8.88e-04	0	59	0	924844032	54	5145
2026-01-21 00:39:55.74	289.21	41.73	-41.6	-44.6	11.5	1.03e-03	0	59	0	927989760	54	5177
2026-01-21 00:39:56.75	288.72	41.68	-41.5	-44.4	11.7	6.36e-04	0	59	0	931135488	54	5044
2026-01-21 00:39:57.76	288.23	41.63	-41.5	-44.4	11.6	6.68e-04	0	59	0	934281216	54	5096
2026-01-21 00:39:58.76	287.75	41.58	-41.6	-44.6	11.4	1.00e-03	0	59	0	937426944	54	5205
2026-01-21 00:39:59.77	287.27	41.53	-41.5	-44.5	11.4	1.07e-03	0	59	0	940572672	54	5149
2026-01-21 00:40:00.78	286.79	41.47	-41.6	-44.6	11.4	1.00e-03	0	59	0	943718400	54	5180
2026-01-21 00:40:01.79	286.31	41.41	-41.7	-44.7	11.2	1.19e-03	0	59	0	946864128	54	5247
2026-01-21 00:40:02.80	285.83	41.35	-41.8	-45.0	11.0	1.77e-03	0	59	0	950009856	54	5418
2026-01-21 00:40:03.81	285.35	41.29	-42.1	-45.5	10.4	3.45e-03	0	59	0	953155584	54	5755
2026-01-21 00:40:04.82	284.88	41.22	-42.3	-45.9	9.9	7.58e-03	0	59	0	956301312	55	5714
2026-01-21 00:40:05.83	284.40	41.15	-42.4	-46.1	9.7	1.17e-02	0	59	0	959447040	55	5847
2026-01-21 00:40:06.84	283.93	41.08	-42.3	-45.9	9.9	1.02e-02	0	59	0	962592768	55	5716
2026-01-21 00:40:07.84	283.47	41.01	-42.1	-45.5	10.4	5.63e-03	0	59	0	965738496	55	5447
2026-01-21 00:40:08.85	283.00	40.94	-41.8	-45.0	11.0	2.28e-03	0	59	0	968884224	55	5132
2026-01-21 00:40:09.86	282.54	40.86	-41.7	-44.8	11.2	1.42e-03	0	59	0	972029952	55	5004
2026-01-21 00:40:10.87	282.07	40.79	-41.6	-44.7	11.3	1.20e-03	0	59	0	975175680	55	4947
2026-01-21 00:40:11.88	281.61	40.71	-41.4	-44.4	11.7	7.29e-04	0	59	0	978321408	54	5046
2026-01-21 00:40:12.89	281.16	40.63	-41.3	-44.1	11.9	4.35e-04	0	59	0	981467136	54	4916
2026-01-21 00:40:13.90	280.70	40.54	-41.4	-44.3	11.7	5.16e-04	0	59	0	984612864	54	5007
2026-01-21 00:40:14.91	280.25	40.46	-41.4	-44.3	11.6	6.71e-04	0	59	0	987758592	54	5028
2026-01-21 00:40:15.92	279.80	40.37	-41.5	-44.5	11.4	9.15e-04	0	59	0	990904320	54	5126
2026-01-21 00:40:16.93	279.35	40.28	-41.5	-44.5	11.5	9.89e-04	0	59	0	994050048	54	5119
2026-01-21 00:40:17.94	278.90	40.19	-41.4	-44.4	11.6	7.20e-04	0	59	0	997195776	54	5043
2026-01-21 00:40:18.95	278.46	40.10	-41.3	-44.1	11.9	4.33e-04	0	59	0	1000341504	54	4889
2026-01-21 00:40:19.96	278.02	40.01	-41.3	-44.2	11.8	4.99e-04	0	59	0	1003487232	54	4942
2026-01-21 00:40:20.97	277.58	39.91	-41.3	-44.2	11.7	5.41e-04	0	59	0	1006632960	54	4952
2026-01-21 00:40:21.98	277.14	39.81	-41.4	-44.3	11.6	6.58e-04	0	59	0	1009778688	54	5033
2026-01-21 00:40:22.99	276.71	39.71	-41.6	-44.6	11.2	1.10e-03	0	59	0	1012924416	54	5204
2026-01-21 00:40:24.00	276.28	39.61	-41.8	-45.1	10.7	2.70e-03	0	59	0	1016070144	54	5507
2026-01-21 00:40:25.01	275.85	39.51	-42.1	-45.6	10.2	4.97e-03	0	59	0	1019215872	54	5853
2026-01-21 00:40:26.02	275.43	39.41	-42.5	-46.4	9.4	1.24e-02	0	59	0	1022361600	55	6015
2026-01-21 00:40:27.03	275.00	39.30	-42.5	-46.3	9.5	1.63e-02	0	59	0	1025507328	55	5988
2026-01-21 00:40:28.04	274.58	39.20	-42.3	-45.9	9.9	9.93e-03	0	59	0	1028653056	55	5718
2026-01-21 00:40:29.05	274.17	39.09	-42.1	-45.5	10.3	5.70e-03	0	59	0	1031798784	55	5425
2026-01-21 00:40:30.06	273.75	38.98	-41.9	-45.1	10.8	3.34e-03	0	59	0	1034944512	55	5218
2026-01-21 00:40:31.07	273.34	38.87	-41.4	-44.4	11.5	8.48e-04	0	59	0	1038090240	54	5074
2026-01-21 00:40:32.08	272.93	38.76	-41.2	-44.1	12.0	3.85e-04	0	59	0	1041235968	54	4874
2026-01-21 00:40:33.09	272.53	38.65	-41.4	-44.3	11.7	4.23e-04	0	59	0	1044381696	54	5021
2026-01-21 00:40:34.10	272.12	38.53	-41.7	-44.9	11.2	1.14e-03	0	59	0	1047527424	54	5352
2026-01-21 00:40:35.11	271.72	38.42	-41.7	-44.9	11.1	1.87e-03	0	59	0	1050673152	54	5363
2026-01-21 00:40:36.12	271.33	38.30	-41.6	-44.6	11.3	1.20e-03	0	59	0	1053818880	54	5205
2026-01-21 00:40:37.13	270.93	38.18	-41.3	-44.2	11.8	5.49e-04	0	59	0	1056964608	54	4954
2026-01-21 00:40:38.14	270.54	38.06	-41.2	-44.0	12.0	3.52e-04	0	59	0	1060110336	54	4831
2026-01-21 00:40:39.15	270.15	37.94	-41.0	-43.7	12.3	2.33e-04	0	59	0	1063256064	54	4702
2026-01-21 00:40:40.16	269.77	37.82	-41.2	-43.9	12.1	2.00e-04	0	59	0	1066401792	54	4802
2026-01-21 00:40:41.17	269.38	37.70	-41.2	-44.1	12.0	2.78e-04	0	59	0	1069547520	54	4884
2026-01-21 00:40:42.18	269.00	37.58	-41.4	-44.4	11.6	6.68e-04	0	59	0	1072693248	54	5068
2026-01-21 00:40:43.19	268.63	37.45	-41.8	-44.9	11.1	1.50e-03	0	59	0	1075838976	54	5399
2026-01-21 00:40:44.20	268.25	37.33	-41.8	-45.0	11.0	2.14e-03	0	59	0	1078984704	54	5444
2026-01-21 00:40:45.21	267.88	37.20	-41.4	-44.4	11.6	9.53e-04	0	59	0	1082130432	54	5081
2026-01-21 00:40:46.22	267.51	37.08	-41.1	-43.8	12.1	3.56e-04	0	59	0	1085276160	54	4745
2026-01-21 00:40:47.23	267.15	36.95	-41.0	-43.7	12.2	2.35e-04	0	59	0	1088421888	54	4698
2026-01-21 00:40:48.24	266.78	36.82	-41.0	-43.8	12.3	2.01e-04	0	59	0	1091567616	54	4709
2026-01-21 00:40:49.25	266.42	36.69	-41.2	-44.0	12.0	2.84e-04	0	59	0	1094713344	54	4843
2026-01-21 00:40:50.26	266.07	36.56	-41.3	-44.2	11.9	4.25e-04	0	59	0	1097859072	54	4945
2026-01-21 00:40:51.27	265.71	36.43	-41.2	-44.0	12.1	3.58e-04	0	59	0	1101004800	54	4833
2026-01-21 00:40:52.28	265.36	36.30	-40.8	-43.3	12.7	1.38e-04	0	59	0	1104150528	53	4754
2026-01-21 00:40:53.29	265.01	36.17	-40.5	-42.9	13.2	2.67e-05	0	59	0	1107296256	52	4768
2026-01-21 00:40:54.30	264.67	36.03	-40.4	-42.7	13.3	2.05e-05	0	59	0	1110441984	52	4692
2026-01-21 00:40:55.31	264.32	35.90	-40.3	-42.6	13.4	6.80e-06	0	59	0	1113587712	52	4635
2026-01-21 00:40:56.32	263.98	35.76	-40.3	-42.6	13.4	1.90e-05	0	59	0	1116733440	52	4650
2026-01-21 00:40:57.33	263.65	35.63	-40.6	-43.0	13.0	1.90e-05	0	59	0	1119879168	52	4844
2026-01-21 00:40:58.34	263.31	35.49	-41.0	-43.6	12.4	9.30e-05	0	59	0	1123024896	52	5212
2026-01-21 00:40:59.34	262.98	35.36	-41.3	-44.3	11.7	3.58e-04	0	59	0	1126170624	53	5283
2026-01-21 00:41:00.35	262.65	35.22	-41.3	-44.2	11.7	8.04e-04	0	59	0	1129316352	53	5269
2026-01-21 00:41:01.36	262.33	35.09	-40.8	-43.5	12.4	2.94e-04	0	59	0	1132462080	53	4820
2026-01-21 00:41:02.37	262.01	34.95	-40.2	-42.5	13.4	2.28e-05	0	59	0	1135607808	52	4551
2026-01-21 00:41:03.38	261.68	34.81	-39.9	-42.0	14.0	3.80e-06	0	59	0	1138753536	51	4573
2026-01-21 00:41:04.39	261.37	34.67	-39.9	-42.0	14.0	1.50e-06	0	59	0	1141899264	51	4576
2026-01-21 00:41:05.40	261.05	34.54	-40.1	-42.4	13.7	5.30e-06	0	59	0	1145044992	51	4771
2026-01-21 00:41:06.41	260.74	34.40	-40.3	-42.7	13.4	9.10e-06	0	59	0	1148190720	51	4936
2026-01-21 00:41:07.42	260.43	34.26	-40.7	-43.2	12.9	4.95e-05	0	59	0	1151336448	51	5252
2026-01-21 00:41:08.43	260.12	34.12	-40.9	-43.5	12.5	1.05e-04	0	59	0	1154482176	52	5134
2026-01-21 00:41:09.44	259.82	33.98	-40.7	-43.3	12.7	1.24e-04	0	59	0	1158676480	52	5033
2026-01-21 00:41:10.44	259.52	33.84	-40.5	-43.0	13.0	3.12e-05	0	59	0	1160773632	52	4819
2026-01-21 00:41:11.46	259.21	33.70	-40.3	-42.7	13.2	1.67e-05	0	59	0	1163919360	52	4683
2026-01-21 00:41:12.47	258.92	33.56	-40.3	-42.6	13.3	3.35e-05	0	59	0	1167065088	52	4644
2026-01-21 00:41:13.48	258.62	33.42	-40.0	-42.2	13.8	6.80e-06	0	59	0	1170210816	51	4684
2026-01-21 00:41:14.49	258.33	33.28	-40.0	-42.2	13.9	2.20e-06	0	59	0	1174405120	51	4698
2026-01-21 00:41:15.50	258.04	33.14	-40.2	-42.5	13.6	1.14e-05	0	59	0	1177550848	51	4849
2026-01-21 00:41:16.51	257.75	32.99	-40.6	-43.0	13.1	1.67e-05	0	59	0	1180696576	51	5136
2026-01-21 00:41:17.52	257.47	32.85	-40.8	-43.5	12.5	9.07e-05	0	59	0	1183842304	52	5126
2026-01-21 00:41:18.53	257.19	32.71	-41.0	-43.7	12.3	2.10e-04	0	59	0	1185939456	52	5277
2026-01-21 00:41:19.54	256.91	32.57	-40.9	-43.6	12.4	1.52e-04	0	59	0	1190133760	52	5207
2026-01-21 00:41:20.55	256.63	32.43	-40.7	-43.3	12.7	9.91e-05	0	59	0	1193279488	52	5020
2026-01-21 00:41:21.56	256.36	32.29	-40.7	-43.3	12.7	6.63e-05	0	59	0	1196425216	52	5006
2026-01-21 00:41:22.57	256.09	32.14	-40.4	-42.9	13.1	3.05e-05	0	59	0	1199570944	52	4783
2026-01-21 00:41:23.58	255.82	32.00	-40.5	-42.9	13.1	2.97e-05	0	59	0	1202716672	52	4791
2026-01-21 00:41:24.59	255.55	31.86	-40.3	-42.7	13.3	1.67e-05	0	59	0	1205862400	52	4687
2026-01-21 00:41:25.60	255.28	31.72	-40.2	-42.6	13.4	1.22e-05	0	59	0	1209008128	52	4616
2026-01-21 00:41:26.61	255.02	31.57	-40.3	-42.6	13.3	1.14e-05	0	59	0	1212153856	52	4647
2026-01-21 00:41:27.61	254.76	31.43	-40.3	-42.7	13.2	1.98e-05	0	59	0	1215299584	52	4674
2026-01-21 00:41:28.62	254.51	31.29	-40.3	-42.8	13.1	2.21e-05	0	59	0	1218445312	52	4706
2026-01-21 00:41:29.63	254.25	31.15	-40.3	-42.7	13.2	3.20e-05	0	59	0	1221591040	52	4678
2026-01-21 00:41:30.64	254.00	31.01	-40.2	-42.5	13.5	1.44e-05	0	59	0	1224736768	52	4560
2026-01-21 00:41:31.65	253.74	30.87	-40.0	-42.3	13.7	8.30e-06	0	59	0	1227882496	52	4458
2026-01-21 00:41:32.66	253.50	30.72	-40.0	-42.2	13.9	6.10e-06	0	59	0	1231028224	51	4658
2026-01-21 00:41:33.67	253.25	30.58	-39.9	-42.1	14.0	3.00e-06	0	59	0	1234173952	51	4606
2026-01-21 00:41:34.68	253.00	30.44	-40.0	-42.2	13.9	4.50e-06	0	59	0	1237319680	51	4680
2026-01-21 00:41:35.69	252.76	30.30	-40.0	-42.2	13.9	9.10e-06	0	59	0	1240465408	51	4694
2026-01-21 00:41:36.70	252.52	30.16	-39.9	-42.1	13.9	3.00e-06	0	59	0	1243611136	51	4636
2026-01-21 00:41:37.71	252.28	30.02	-39.8	-41.9	14.1	2.20e-06	0	59	0	1246756864	51	4529
2026-01-21 00:41:38.72	252.05	29.88	-39.8	-41.9	14.1	7.00e-07	0	59	0	1249902592	51	4531
2026-01-21 00:41:39.73	251.81	29.73	-39.8	-41.9	14.1	1.50e-06	0	59	0	1253048320	51	4521
2026-01-21 00:41:40.74	251.58	29.59	-39.8	-42.0	14.0	2.20e-06	0	59	0	1256194048	51	4561
2026-01-21 00:41:41.75	251.35	29.45	-39.9	-42.1	13.9	7.00e-07	0	59	0	1259339776	51	4605
2026-01-21 00:41:42.76	251.12	29.31	-40.0	-42.2	13.8	2.20e-06	0	59	0	1262485504	51	4680
2026-01-21 00:41:43.77	250.89	29.17	-39.8	-41.9	14.1	1.50e-06	0	59	0	1265631232	51	4527
2026-01-21 00:41:44.78	250.67	29.03	-39.8	-41.9	14.2	0.00e+00	0	59	0	1268776960	51	4512
2026-01-21 00:41:45.79	250.45	28.89	-40.0	-42.2	13.9	1.50e-06	0	59	0	1271922688	51	4672
2026-01-21 00:41:46.80	250.23	28.75	-40.3	-42.7	13.4	5.30e-06	0	59	0	1275068416	51	4954
2026-01-21 00:41:47.81	250.01	28.61	-40.5	-43.1	13.0	2.59e-05	0	59	0	1278214144	51	5165
2026-01-21 00:41:48.82	249.79	28.47	-40.6	-43.1	12.9	4.80e-05	0	59	0	1281359872	51	5178
2026-01-21 00:41:49.83	249.58	28.33	-40.5	-43.0	13.0	4.11e-05	0	59	0	1284505600	51	5158
2026-01-21 00:41:50.84	249.37	28.20	-40.3	-42.7	13.3	2.67e-05	0	59	0	1287651328	51	4956
2026-01-21 00:41:51.85	249.15	28.06	-40.2	-42.4	13.5	8.30e-06	0	59	0	1290797056	51	4810
2026-01-21 00:41:52.86	248.95	27.92	-40.2	-42.4	13.6	1.22e-05	0	59	0	1293942784	51	4798
2026-01-21 00:41:53.87	248.74	27.78	-39.9	-42.1	13.8	4.50e-06	0	59	0	1297088512	51	4640
2026-01-21 00:41:54.88	248.53	27.64	-39.9	-42.1	13.8	3.00e-06	0	59	0	1300234240	51	4645
2026-01-21 00:41:55.89	248.33	27.51	-40.1	-42.3	13.6	5.30e-06	0	59	0	1303379968	51	4758
2026-01-21 00:41:56.90	248.13	27.37	-40.0	-42.2	13.8	3.00e-06	0	59	0	1306525696	51	4683
2026-01-21 00:41:57.91	247.93	27.23	-39.9	-42.0	14.0	1.50e-06	0	59	0	1309671424	51	4579
2026-01-21 00:41:58.92	247.73	27.10	-39.9	-42.0	14.0	5.30e-06	0	59	0	1312817152	51	4586
2026-01-21 00:41:59.92	247.53	26.96	-39.9	-42.1	13.9	3.80e-06	0	59	0	1315962880	51	4635
2026-01-21 00:42:00.93	247.34	26.82	-39.9	-42.1	14.0	1.50e-06	0	59	0	1319108608	51	4615
2026-01-21 00:42:01.94	247.15	26.69	-40.0	-42.2	13.8	5.30e-06	0	59	0	1322254336	51	4704
2026-01-21 00:42:02.95	246.95	26.55	-40.1	-42.4	13.6	6.10e-06	0	59	0	1325400064	51	4763
2026-01-21 00:42:03.96	246.76	26.42	-40.1	-42.5	13.5	9.90e-06	0	59	0	1328545792	51	4833
2026-01-21 00:42:04.97	246.57	26.28	-40.1	-42.4	13.6	7.60e-06	0	59	0	1331691520	51	4802
2026-01-21 00:42:05.98	246.39	26.15	-40.1	-42.4	13.6	9.10e-06	0	59	0	1334837248	51	4777
2026-01-21 00:42:06.99	246.20	26.02	-40.0	-42.3	13.7	3.00e-06	0	59	0	1337982976	51	4714
2026-01-21 00:42:08.00	246.02	25.88	-39.9	-42.1	13.9	4.50e-06	0	59	0	1341128704	51	4605
2026-01-21 00:42:09.01	245.84	25.75	-39.7	-41.9	14.1	1.50e-06	0	59	0	1344274432	51	4495
2026-01-21 00:42:10.02	245.66	25.62	-39.8	-42.0	14.0	3.80e-06	0	59	0	1347420160	51	4571
2026-01-21 00:42:11.03	245.48	25.48	-39.8	-42.0	13.9	6.10e-06	0	59	0	1350565888	51	4575
2026-01-21 00:42:12.04	245.30	25.35	-40.0	-42.3	13.7	8.30e-06	0	59	0	1353711616	51	4722
2026-01-21 00:42:13.05	245.12	25.22	-40.1	-42.4	13.5	1.22e-05	0	59	0	1356857344	51	4804
2026-01-21 00:42:14.06	244.95	25.09	-40.1	-42.4	13.6	6.10e-06	0	59	0	1360003072	51	4777
2026-01-21 00:42:15.07	244.78	24.96	-40.1	-42.4	13.6	6.80e-06	0	59	0	1363148800	51	4762
2026-01-21 00:42:16.08	244.60	24.82	-40.0	-42.3	13.7	3.00e-06	0	59	0	1366294528	51	4717
2026-01-21 00:42:17.09	244.43	24.69	-40.1	-42.4	13.6	6.80e-06	0	59	0	1369440256	51	4786
2026-01-21 00:42:18.10	244.26	24.56	-39.9	-42.1	13.9	3.80e-06	0	59	0	1372585984	51	4635
2026-01-21 00:42:19.11	244.10	24.43	-39.9	-42.0	14.0	3.80e-06	0	59	0	1375731712	51	4597
2026-01-21 00:42:20.12	243.93	24.31	-39.6	-41.7	14.3	7.00e-07	0	59	0	1378877440	51	4438
2026-01-21 00:42:21.13	243.77	24.18	-39.6	-41.7	14.3	7.00e-07	0	59	0	1382023168	51	4408
2026-01-21 00:42:22.14	243.60	24.05	-39.6	-41.7	14.2	1.50e-06	0	59	0	1385168896	51	4438
2026-01-21 00:42:23.15	243.44	23.92	-39.6	-41.7	14.3	0.00e+00	0	59	0	1388314624	51	4403
2026-01-21 00:42:24.16	243.28	23.79	-39.6	-41.7	14.3	7.00e-07	0	59	0	1391460352	51	4437
2026-01-21 00:42:25.17	243.12	23.66	-39.7	-41.8	14.2	3.80e-06	0	59	0	1394606080	51	4480
2026-01-21 00:42:26.18	242.96	23.54	-39.7	-41.9	14.1	7.00e-07	0	59	0	1397751808	51	4507
2026-01-21 00:42:27.19	242.81	23.41	-39.8	-42.0	14.0	4.50e-06	0	59	0	1400897536	51	4572
2026-01-21 00:42:28.20	242.65	23.28	-39.9	-42.1	13.9	1.50e-06	0	59	0	1404043264	51	4601
2026-01-21 00:42:29.21	242.50	23.16	-39.9	-42.1	13.9	3.00e-06	0	59	0	1407188992	51	4610
2026-01-21 00:42:30.22	242.34	23.03	-39.9	-42.1	13.8	5.30e-06	0	59	0	1410334720	51	4648
2026-01-21 00:42:31.23	242.19	22.91	-39.8	-42.0	13.9	1.50e-06	0	59	0	1413480448	51	4590
2026-01-21 00:42:32.24	242.04	22.78	-39.8	-42.0	13.9	3.00e-06	0	59	0	1416626176	51	4597
2026-01-21 00:42:33.25	241.89	22.66	-39.9	-42.1	13.9	3.80e-06	0	59	0	1419771904	51	4617
2026-01-21 00:42:34.25	241.75	22.54	-39.8	-42.0	14.0	1.50e-06	0	59	0	1422917632	51	4566
2026-01-21 00:42:35.26	241.60	22.41	-39.9	-42.1	13.8	3.80e-06	0	59	0	1426063360	51	4634
2026-01-21 00:42:36.27	241.45	22.29	-39.8	-42.0	13.9	7.60e-06	0	59	0	1429209088	51	4598
2026-01-21 00:42:37.29	241.31	22.16	-39.8	-42.1	13.9	1.50e-06	0	59	0	1432354816	51	4599
2026-01-21 00:42:38.30	241.16	22.04	-39.8	-42.0	13.9	7.00e-07	0	59	0	1435500544	51	4592
2026-01-21 00:42:39.30	241.02	21.92	-39.8	-42.0	13.9	4.50e-06	0	59	0	1438646272	51	4588
2026-01-21 00:42:40.31	240.88	21.80	-39.7	-41.9	14.0	4.50e-06	0	59	0	1441792000	51	4524
2026-01-21 00:42:41.32	240.74	21.68	-39.8	-42.0	13.9	3.80e-06	0	59	0	1444937728	51	4577
2026-01-21 00:42:42.33	240.60	21.56	-39.8	-42.0	13.9	5.30e-06	0	59	0	1448083456	51	4582
2026-01-21 00:42:43.34	240.46	21.44	-39.9	-42.2	13.8	8.30e-06	0	59	0	1451229184	51	4655
2026-01-21 00:42:44.35	240.33	21.32	-39.9	-42.1	13.8	2.20e-06	0	59	0	1454374912	51	4623
2026-01-21 00:42:45.36	240.19	21.20	-39.9	-42.2	13.8	5.30e-06	0	59	0	1457520640	51	4654
2026-01-21 00:42:46.37	240.06	21.08	-39.9	-42.1	13.8	6.10e-06	0	59	0	1460666368	51	4644
2026-01-21 00:42:47.38	239.92	20.96	-39.8	-42.0	13.9	6.80e-06	0	59	0	1463812096	51	4576
2026-01-21 00:42:48.39	239.79	20.84	-39.8	-42.1	13.9	4.50e-06	0	59	0	1466957824	51	4599
2026-01-21 00:42:49.40	239.66	20.72	-39.7	-41.9	14.0	4.50e-06	0	59	0	1470103552	51	4529
2026-01-21 00:42:50.41	239.53	20.60	-39.6	-41.7	14.2	7.00e-07	0	59	0	1473249280	51	4434
2026-01-21 00:42:51.41	239.40	20.49	-39.6	-41.7	14.2	1.50e-06	0	59	0	1476395008	51	4408
2026-01-21 00:42:52.42	239.27	20.37	-39.6	-41.8	14.1	7.00e-07	0	59	0	1479540736	51	4458
2026-01-21 00:42:53.43	239.14	20.26	-39.7	-41.8	14.1	7.00e-07	0	59	0	1482686464	51	4482
2026-01-21 00:42:54.44	239.02	20.14	-39.7	-41.8	14.1	2.20e-06	0	59	0	1485832192	51	4473
2026-01-21 00:42:55.45	238.89	20.02	-39.7	-41.9	14.0	3.80e-06	0	59	0	1488977920	51	4530
2026-01-21 00:42:56.46	238.77	19.91	-39.9	-42.1	13.8	7.60e-06	0	59	0	1492123648	51	4619
2026-01-21 00:42:57.47	238.64	19.79	-39.9	-42.2	13.7	6.80e-06	0	59	0	1495269376	51	4670
2026-01-21 00:42:58.48	238.52	19.68	-40.0	-42.3	13.6	1.14e-05	0	59	0	1498415104	51	4730
2026-01-21 00:42:59.49	238.40	19.56	-40.0	-42.3	13.6	1.06e-05	0	59	0	1501560832	51	4738
2026-01-21 00:43:00.50	238.28	19.45	-40.0	-42.4	13.5	6.10e-06	0	59	0	1504706560	51	4765
2026-01-21 00:43:01.51	238.16	19.34	-40.0	-42.3	13.6	6.80e-06	0	59	0	1507852288	51	4718
2026-01-21 00:43:02.52	238.04	19.22	-39.9	-42.1	13.8	6.10e-06	0	59	0	1510998016	51	4623
2026-01-21 00:43:03.53	237.92	19.11	-39.9	-42.1	13.7	3.80e-06	0	59	0	1515192320	51	4640
2026-01-21 00:43:04.54	237.80	19.00	-39.9	-42.1	13.8	6.80e-06	0	59	0	1518338048	51	4624
2026-01-21 00:43:05.56	237.69	18.89	-39.9	-42.1	13.7	6.10e-06	0	59	0	1521483776	51	4651
2026-01-21 00:43:06.57	237.57	18.77	-39.8	-42.1	13.8	2.20e-06	0	59	0	1523580928	51	4600
2026-01-21 00:43:07.57	237.46	18.66	-39.8	-42.0	13.9	7.00e-07	0	59	0	1526726656	51	4565
2026-01-21 00:43:08.58	237.34	18.55	-39.8	-42.1	13.8	3.80e-06	0	59	0	1530920960	51	4600
2026-01-21 00:43:09.59	237.23	18.44	-39.8	-42.1	13.8	1.50e-06	0	59	0	1534066688	51	4603
2026-01-21 00:43:10.60	237.12	18.33	-40.0	-42.3	13.6	1.22e-05	0	59	0	1537212416	51	4706
2026-01-21 00:43:11.61	237.01	18.22	-40.1	-42.4	13.5	1.14e-05	0	59	0	1540358144	51	4783
2026-01-21 00:43:12.62	236.90	18.11	-40.1	-42.4	13.5	1.52e-05	0	59	0	1543503872	51	4788
2026-01-21 00:43:13.63	236.79	18.01	-40.0	-42.3	13.5	9.10e-06	0	59	0	1546649600	51	4745
2026-01-21 00:43:14.64	236.68	17.90	-40.0	-42.3	13.6	1.06e-05	0	59	0	1549795328	51	4714
2026-01-21 00:43:15.65	236.57	17.79	-40.0	-42.3	13.6	6.80e-06	0	59	0	1552941056	51	4713
2026-01-21 00:43:16.66	236.46	17.68	-40.0	-42.4	13.5	1.44e-05	0	59	0	1556086784	51	4765
2026-01-21 00:43:17.67	236.36	17.57	-40.1	-42.4	13.4	1.14e-05	0	59	0	1559232512	51	4807
2026-01-21 00:43:18.68	236.25	17.47	-40.1	-42.4	13.4	1.14e-05	0	59	0	1562378240	51	4809
2026-01-21 00:43:19.69	236.15	17.36	-40.2	-42.6	13.3	2.51e-05	0	59	0	1565523968	51	4882
2026-01-21 00:43:20.70	236.04	17.25	-40.2	-42.6	13.2	1.90e-05	0	59	0	1568669696	51	4900
2026-01-21 00:43:21.71	235.94	17.15	-40.2	-42.7	13.2	2.59e-05	0	59	0	1571815424	51	4933
2026-01-21 00:43:22.72	235.83	17.04	-40.3	-42.7	13.1	2.97e-05	0	59	0	1574961152	51	4972
2026-01-21 00:43:23.73	235.73	16.94	-40.4	-42.9	12.9	3.66e-05	0	59	0	1578106880	51	5061
2026-01-21 00:43:24.73	235.63	16.83	-40.3	-42.8	12.9	5.26e-05	0	59	0	1581252608	51	5037
2026-01-21 00:43:25.74	235.53	16.73	-40.3	-42.8	13.0	3.35e-05	0	59	0	1584398336	51	4995
2026-01-21 00:43:26.75	235.43	16.62	-40.2	-42.7	13.1	3.20e-05	0	59	0	1587544064	51	4960
2026-01-21 00:43:27.76	235.33	16.52	-40.2	-42.7	13.1	3.12e-05	0	59	0	1590689792	51	4934
2026-01-21 00:43:28.77	235.23	16.42	-40.3	-42.7	13.0	3.12e-05	0	59	0	1593835520	51	4974
2026-01-21 00:43:29.78	235.14	16.31	-40.2	-42.6	13.1	2.74e-05	0	59	0	1596981248	51	4912
2026-01-21 00:43:30.79	235.04	16.21	-40.0	-42.4	13.3	1.90e-05	0	59	0	1600126976	51	4777
2026-01-21 00:43:31.80	234.94	16.11	-40.0	-42.4	13.3	1.98e-05	0	59	0	1603272704	51	4782
2026-01-21 00:43:32.81	234.85	16.01	-40.1	-42.5	13.2	2.13e-05	0	59	0	1606418432	51	4818
2026-01-21 00:43:33.82	234.75	15.91	-39.9	-42.2	13.5	1.37e-05	0	59	0	1609564160	51	4691
2026-01-21 00:43:34.83	234.66	15.80	-39.8	-42.1	13.6	8.30e-06	0	59	0	1612709888	51	4633
2026-01-21 00:43:35.84	234.56	15.70	-39.8	-42.1	13.6	7.60e-06	0	59	0	1615855616	51	4626
2026-01-21 00:43:36.85	234.47	15.60	-39.8	-42.0	13.7	1.06e-05	0	59	0	1619001344	51	4580
2026-01-21 00:43:37.86	234.38	15.50	-39.8	-42.0	13.7	3.00e-06	0	59	0	1622147072	51	4584
2026-01-21 00:43:38.87	234.29	15.40	-39.8	-42.1	13.6	6.10e-06	0	59	0	1625292800	51	4609
2026-01-21 00:43:39.88	234.19	15.30	-39.8	-42.1	13.7	9.90e-06	0	59	0	1628438528	51	4605
2026-01-21 00:43:40.89	234.10	15.20	-39.9	-42.1	13.6	9.10e-06	0	59	0	1631584256	51	4651
2026-01-21 00:43:41.90	234.01	15.10	-39.8	-42.1	13.6	9.10e-06	0	59	0	1634729984	51	4622
2026-01-21 00:43:42.92	233.92	15.00	-39.9	-42.2	13.6	9.10e-06	0	59	0	1637875712	51	4667
2026-01-21 00:43:43.93	233.83	14.91	-39.9	-42.3	13.5	7.60e-06	0	59	0	1641021440	51	4718
2026-01-21 00:43:44.94	233.75	14.81	-40.0	-42.4	13.3	1.60e-05	0	59	0	1644167168	51	4792
2026-01-21 00:43:45.95	233.66	14.71	-40.1	-42.5	13.3	2.21e-05	0	59	0	1647312896	51	4822
2026-01-21 00:43:46.96	233.57	14.61	-40.2	-42.6	13.1	3.05e-05	0	59	0	1650458624	51	4904
2026-01-21 00:43:47.97	233.48	14.52	-40.2	-42.6	13.1	3.73e-05	0	59	0	1653604352	51	4918
2026-01-21 00:43:48.98	233.40	14.42	-40.2	-42.8	12.9	3.89e-05	0	59	0	1656750080	51	4985
2026-01-21 00:43:49.99	233.31	14.32	-40.3	-42.9	12.8	5.26e-05	0	59	0	1659895808	51	5056
2026-01-21 00:43:51.00	233.23	14.23	-40.4	-43.0	12.7	4.42e-05	0	59	0	1663041536	51	5108
2026-01-21 00:43:52.01	233.14	14.13	-40.4	-43.0	12.7	7.78e-05	0	59	0	1666187264	51	5116
2026-01-21 00:43:53.02	233.06	14.03	-40.4	-43.0	12.6	1.08e-04	0	59	0	1669332992	51	5135
2026-01-21 00:43:54.03	232.98	13.94	-40.4	-43.0	12.6	8.92e-05	0	59	0	1672478720	51	5123
2026-01-21 00:43:55.04	232.90	13.84	-40.4	-43.0	12.6	9.46e-05	0	59	0	1675624448	51	5138
2026-01-21 00:43:56.05	232.81	13.75	-40.3	-42.9	12.6	8.08e-05	0	59	0	1678770176	51	5093
2026-01-21 00:43:57.05	232.73	13.66	-40.3	-42.9	12.7	9.00e-05	0	59	0	1681915904	51	5043
2026-01-21 00:43:58.06	232.65	13.56	-40.3	-42.8	12.7	7.40e-05	0	59	0	1685061632	51	5031
2026-01-21 00:43:59.07	232.57	13.47	-40.3	-42.9	12.7	8.23e-05	0	59	0	1688207360	51	5055
2026-01-21 00:44:00.08	232.49	13.38	-40.3	-42.9	12.7	7.55e-05	0	59	0	1691353088	51	5048
2026-01-21 00:44:01.09	232.41	13.28	-40.3	-42.8	12.7	6.86e-05	0	59	0	1694498816	51	5026
2026-01-21 00:44:02.10	232.33	13.19	-40.3	-42.9	12.6	7.70e-05	0	59	0	1697644544	51	5069
2026-01-21 00:44:03.11	232.25	13.10	-40.3	-42.9	12.6	1.02e-04	0	59	0	1700790272	51	5084
2026-01-21 00:44:04.13	232.18	13.00	-40.3	-42.9	12.7	8.54e-05	0	59	0	1703936000	51	5059
2026-01-21 00:44:05.14	232.10	12.91	-40.2	-42.8	12.8	7.24e-05	0	59	0	1707081728	51	5008
2026-01-21 00:44:06.15	232.02	12.82	-40.2	-42.7	12.8	5.72e-05	0	59	0	1710227456	51	4957
2026-01-21 00:44:07.16	231.95	12.73	-40.1	-42.6	12.9	4.80e-05	0	59	0	1713373184	51	4913
2026-01-21 00:44:08.17	231.87	12.64	-40.2	-42.6	12.9	4.65e-05	0	59	0	1716518912	51	4922
2026-01-21 00:44:09.18	231.79	12.55	-40.2	-42.7	12.9	5.49e-05	0	59	0	1719664640	51	4943
2026-01-21 00:44:10.19	231.72	12.46	-40.2	-42.7	12.8	7.85e-05	0	59	0	1722810368	51	4976
2026-01-21 00:44:11.20	231.64	12.37	-40.2	-42.8	12.8	7.47e-05	0	59	0	1725956096	51	4990
2026-01-21 00:44:12.20	231.57	12.28	-40.2	-42.8	12.8	7.40e-05	0	59	0	1729101824	51	4993
2026-01-21 00:44:13.21	231.50	12.19	-40.3	-42.9	12.6	7.62e-05	0	59	0	1732247552	51	5073
2026-01-21 00:44:14.22	231.42	12.10	-40.3	-43.0	12.5	9.61e-05	0	59	0	1735393280	51	5109
2026-01-21 00:44:15.23	231.35	12.01	-40.4	-43.1	12.5	1.06e-04	0	59	0	1738539008	51	5168
2026-01-21 00:44:16.24	231.28	11.92	-40.4	-43.1	12.4	1.30e-04	0	59	0	1741684736	51	5196
2026-01-21 00:44:17.25	231.21	11.83	-40.4	-43.1	12.4	1.50e-04	0	59	0	1744830464	51	5193
2026-01-21 00:44:18.26	231.14	11.75	-40.5	-43.2	12.4	1.50e-04	0	59	0	1747976192	51	5233
2026-01-21 00:44:19.27	231.07	11.66	-40.4	-43.2	12.4	1.51e-04	0	59	0	1751121920	51	5219
2026-01-21 00:44:20.28	231.00	11.57	-40.5	-43.3	12.2	1.98e-04	0	59	0	1754267648	51	5290
2026-01-21 00:44:21.29	230.93	11.48	-40.5	-43.3	12.2	2.22e-04	0	59	0	1757413376	51	5289
2026-01-21 00:44:22.30	230.86	11.40	-40.6	-43.4	12.1	2.70e-04	0	59	0	1760559104	51	5359
2026-01-21 00:44:23.31	230.79	11.31	-40.6	-43.5	12.0	3.15e-04	0	59	0	1763704832	51	5414
2026-01-21 00:44:24.32	230.72	11.22	-40.6	-43.5	12.0	3.01e-04	0	59	0	1766850560	51	5414
2026-01-21 00:44:25.33	230.65	11.14	-40.7	-43.5	12.0	3.19e-04	0	59	0	1769996288	51	5437
2026-01-21 00:44:26.34	230.58	11.05	-40.7	-43.6	11.8	3.87e-04	0	59	0	1773142016	52	5164
2026-01-21 00:44:27.36	230.51	10.96	-40.7	-43.6	11.8	4.37e-04	0	59	0	1776287744	52	5166
2026-01-21 00:44:28.36	230.45	10.88	-40.6	-43.5	11.9	4.20e-04	0	59	0	1779433472	52	5144
2026-01-21 00:44:29.37	230.38	10.79	-40.7	-43.7	11.7	5.39e-04	0	59	0	1782579200	52	5221
2026-01-21 00:44:30.38	230.31	10.71	-40.7	-43.7	11.7	5.97e-04	0	59	0	1785724928	52	5252
2026-01-21 00:44:31.39	230.25	10.62	-40.7	-43.8	11.6	7.26e-04	0	59	0	1788870656	52	5284
2026-01-21 00:44:32.40	230.18	10.54	-40.7	-43.7	11.6	5.84e-04	0	59	0	1792016384	52	5265
2026-01-21 00:44:33.41	230.12	10.45	-40.8	-43.8	11.5	7.13e-04	0	59	0	1795162112	52	5309
2026-01-21 00:44:34.42	230.05	10.37	-40.7	-43.8	11.6	7.40e-04	0	59	0	1798307840	52	5285
2026-01-21 00:44:35.43	229.99	10.29	-40.8	-43.9	11.5	8.58e-04	0	59	0	1801453568	52	5345
2026-01-21 00:44:36.44	229.93	10.20	-40.8	-43.9	11.4	9.18e-04	0	59	0	1804599296	52	5366
2026-01-21 00:44:37.45	229.86	10.12	-40.8	-43.9	11.3	1.07e-03	0	59	0	1807745024	52	5396
2026-01-21 00:44:38.46	229.80	10.04	-40.8	-44.0	11.3	1.14e-03	0	59	0	1810890752	52	5435
2026-01-21 00:44:39.47	229.74	9.95	-40.8	-44.0	11.3	1.00e-03	0	59	0	1814036480	52	5430
2026-01-21 00:44:40.48	229.67	9.87	-40.9	-44.1	11.2	1.20e-03	0	59	0	1817182208	52	5471
2026-01-21 00:44:41.49	229.61	9.79	-40.8	-44.0	11.3	1.37e-03	0	59	0	1820327936	52	5447
2026-01-21 00:44:42.50	229.55	9.71	-40.9	-44.1	11.2	1.52e-03	0	59	0	1823473664	52	5481
2026-01-21 00:44:43.51	229.49	9.63	-40.9	-44.2	11.1	1.77e-03	0	59	0	1826619392	52	5536
2026-01-21 00:44:44.52	229.43	9.54	-40.9	-44.2	11.0	1.75e-03	0	59	0	1829765120	52	5568
2026-01-21 00:44:45.52	229.37	9.46	-41.0	-44.3	11.0	2.06e-03	0	59	0	1832910848	52	5596
2026-01-21 00:44:46.53	229.31	9.38	-41.0	-44.3	10.9	2.07e-03	0	59	0	1837105152	52	5603
2026-01-21 00:44:47.54	229.25	9.30	-41.0	-44.3	10.9	2.24e-03	0	59	0	1839202304	52	5621
2026-01-21 00:44:48.55	229.19	9.22	-41.0	-44.3	10.8	2.36e-03	0	59	0	1842348032	52	5644
2026-01-21 00:44:49.56	229.13	9.14	-41.0	-44.3	10.8	2.45e-03	0	59	0	1845493760	52	5655
2026-01-21 00:44:50.57	229.07	9.06	-41.0	-44.4	10.8	2.48e-03	0	59	0	1848639488	52	5658
2026-01-21 00:44:51.58	229.01	8.98	-41.1	-44.4	10.7	2.96e-03	0	59	0	1851785216	52	5706
2026-01-21 00:44:52.59	228.95	8.90	-41.1	-44.5	10.7	2.94e-03	0	59	0	1855979520	52	5746
2026-01-21 00:44:53.60	228.89	8.82	-41.1	-44.5	10.7	2.97e-03	0	59	0	1859125248	52	5723
2026-01-21 00:44:54.61	228.84	8.74	-41.1	-44.5	10.6	3.21e-03	0	59	0	1861222400	52	5761
2026-01-21 00:44:55.62	228.78	8.66	-41.1	-44.6	10.6	3.61e-03	0	59	0	1864368128	52	5798
2026-01-21 00:44:56.63	228.72	8.58	-41.2	-44.6	10.5	3.83e-03	0	59	0	1867513856	52	5842
2026-01-21 00:44:57.64	228.67	8.51	-41.2	-44.7	10.3	4.90e-03	0	59	0	1871708160	53	5575
2026-01-21 00:44:58.65	228.61	8.43	-41.2	-44.7	10.4	4.66e-03	0	59	0	1874853888	53	5536
2026-01-21 00:44:59.66	228.55	8.35	-41.2	-44.8	10.3	5.08e-03	0	59	0	1877999616	53	5608
2026-01-21 00:45:00.67	228.50	8.27	-41.3	-44.9	10.2	6.40e-03	0	59	0	1881145344	53	5674
