passes_logs/2026/01/21/R2.0S_Moscow/R2.0S_Moscow__20260121_115048_FENGYUN_3D_rec.log

#Pass ID: 20260121_115048_FENGYUN 3D
#Satellite: FENGYUN 3D
#Configuration: FENGYUN 3D
#almurnet v.1.7.20251203
#Start time: 2026-01-21 11:50:47

#Version: 2.2.20231116
#Station: R2.0S_Moscow
#Location: 37.707566 lon 55.798166 lat
#TLE: 1 43010U 17072A   26020.28933472  .00000051  00000+0  46008-4 0  9990
#TLE: 2 43010  98.9944 352.1871 0002476  99.7001 260.4455 14.19696838424006

#Time	Az	El	Level	Level2	SNR	BER	BlckErr	Temp	State	Recorded	gain1	gain2
2026-01-21 11:50:47.96	156.63	1.97	-44.0	-55.7	3.8	8.46e-01	0	51	0	0	59	13928
2026-01-21 11:50:48.96	156.63	2.04	-44.0	-55.7	3.8	8.46e-01	0	51	104	0	59	13924
2026-01-21 11:50:49.97	156.62	2.10	-44.0	-55.7	3.8	8.45e-01	0	52	104	0	59	13924
2026-01-21 11:50:50.99	156.62	2.17	-44.0	-55.6	3.8	8.47e-01	0	51	104	0	59	13884
2026-01-21 11:50:52.00	156.62	2.23	-44.0	-55.7	3.8	8.45e-01	0	51	104	0	59	13935
2026-01-21 11:50:53.01	156.61	2.30	-44.0	-55.7	3.8	8.46e-01	0	52	104	0	59	13910
2026-01-21 11:50:54.02	156.61	2.36	-44.0	-55.6	3.8	8.46e-01	0	52	104	0	59	13875
2026-01-21 11:50:55.03	156.61	2.43	-44.0	-55.7	3.8	8.45e-01	0	52	104	0	59	13914
2026-01-21 11:50:56.04	156.60	2.50	-44.0	-55.7	3.8	8.46e-01	0	52	104	0	59	13916
2026-01-21 11:50:57.05	156.60	2.56	-44.0	-55.7	3.8	8.46e-01	0	52	104	0	59	13897
2026-01-21 11:50:58.06	156.60	2.63	-44.0	-55.7	3.8	8.46e-01	0	52	104	0	59	13898
2026-01-21 11:50:59.07	156.59	2.69	-44.0	-55.7	3.8	8.47e-01	0	52	104	0	59	13891
2026-01-21 11:51:00.08	156.59	2.76	-44.0	-55.7	3.8	8.46e-01	0	52	104	0	59	13906
2026-01-21 11:51:01.09	156.59	2.83	-44.0	-55.6	3.8	8.47e-01	0	52	104	0	59	13880
2026-01-21 11:51:02.10	156.58	2.90	-44.0	-55.7	3.8	8.47e-01	0	52	104	0	59	13912
2026-01-21 11:51:03.11	156.58	2.96	-44.0	-55.6	3.8	8.46e-01	0	52	104	0	59	13865
2026-01-21 11:51:04.12	156.58	3.03	-44.0	-55.6	3.8	8.46e-01	0	52	104	0	59	13854
2026-01-21 11:51:05.14	156.57	3.10	-44.0	-55.7	3.8	8.46e-01	0	52	104	0	59	13895
2026-01-21 11:51:06.15	156.57	3.17	-44.0	-55.7	3.8	8.46e-01	0	53	104	0	59	13946
2026-01-21 11:51:07.16	156.57	3.23	-44.0	-55.7	3.8	8.46e-01	0	52	104	0	59	13928
2026-01-21 11:51:08.17	156.56	3.30	-44.0	-55.6	3.8	8.46e-01	0	52	104	0	59	13873
2026-01-21 11:51:09.18	156.56	3.37	-44.0	-55.6	3.8	8.47e-01	0	53	104	0	59	13876
2026-01-21 11:51:10.19	156.56	3.44	-44.0	-55.6	3.8	8.46e-01	0	53	104	0	59	13850
2026-01-21 11:51:11.20	156.55	3.51	-44.0	-55.6	3.8	8.47e-01	0	53	104	0	59	13866
2026-01-21 11:51:12.21	156.55	3.58	-44.0	-55.7	3.8	8.46e-01	0	53	104	0	59	13936
2026-01-21 11:51:13.22	156.55	3.64	-44.0	-55.6	3.8	8.46e-01	0	53	104	0	59	13878
2026-01-21 11:51:14.23	156.54	3.71	-44.0	-55.7	3.8	8.47e-01	0	53	104	0	59	13898
2026-01-21 11:51:15.24	156.54	3.78	-44.0	-55.6	3.8	8.45e-01	0	53	104	0	59	13852
2026-01-21 11:51:16.25	156.53	3.85	-44.0	-55.6	3.8	8.46e-01	0	53	104	0	59	13879
2026-01-21 11:51:17.26	156.53	3.92	-44.0	-55.7	3.8	8.45e-01	0	53	104	0	59	13892
2026-01-21 11:51:18.27	156.53	3.99	-44.0	-55.6	3.8	8.46e-01	0	53	104	0	59	13872
2026-01-21 11:51:19.28	156.52	4.06	-44.0	-55.6	3.8	8.46e-01	0	54	104	0	59	13850
2026-01-21 11:51:20.29	156.52	4.13	-44.0	-55.6	3.8	8.47e-01	0	53	104	0	59	13880
2026-01-21 11:51:21.30	156.52	4.20	-44.0	-55.6	3.8	8.46e-01	0	54	104	0	59	13881
2026-01-21 11:51:22.31	156.51	4.27	-44.0	-55.6	3.8	8.46e-01	0	53	104	0	59	13868
2026-01-21 11:51:23.32	156.51	4.34	-44.0	-55.6	3.8	8.46e-01	0	54	104	0	59	13878
2026-01-21 11:51:24.34	156.50	4.41	-44.0	-55.6	3.8	8.45e-01	0	54	104	0	59	13876
2026-01-21 11:51:25.35	156.50	4.48	-44.0	-55.6	3.8	8.45e-01	0	54	104	0	59	13851
2026-01-21 11:51:26.36	156.50	4.56	-44.0	-55.6	3.8	8.45e-01	0	54	104	0	59	13821
2026-01-21 11:51:27.37	156.49	4.63	-44.0	-55.6	3.8	8.47e-01	0	54	104	0	59	13854
2026-01-21 11:51:28.38	156.49	4.70	-44.0	-55.6	3.8	8.46e-01	0	54	104	0	59	13880
2026-01-21 11:51:29.39	156.48	4.77	-44.0	-55.6	3.8	8.47e-01	0	54	104	0	59	13826
2026-01-21 11:51:30.40	156.48	4.84	-44.0	-55.6	3.8	8.46e-01	0	54	104	0	59	13836
2026-01-21 11:51:31.41	156.47	4.92	-44.0	-55.6	3.8	8.46e-01	0	54	104	0	59	13809
2026-01-21 11:51:32.42	156.47	4.99	-44.0	-55.6	3.8	8.46e-01	0	54	104	0	59	13853
2026-01-21 11:51:33.43	156.47	5.06	-44.0	-55.6	3.8	8.45e-01	0	54	104	0	59	13831
2026-01-21 11:51:34.44	156.46	5.13	-44.0	-55.6	3.8	8.45e-01	0	55	104	0	59	13790
2026-01-21 11:51:35.45	156.46	5.21	-44.0	-55.5	3.8	8.46e-01	0	54	104	0	59	13720
2026-01-21 11:51:36.46	156.45	5.28	-44.0	-55.5	3.8	8.46e-01	0	54	104	0	59	13650
2026-01-21 11:51:37.47	156.45	5.35	-44.0	-55.4	3.8	8.46e-01	0	54	104	0	59	13537
2026-01-21 11:51:38.48	156.44	5.43	-44.0	-55.3	3.8	8.46e-01	0	55	104	0	59	13281
2026-01-21 11:51:39.49	156.44	5.50	-43.9	-55.0	3.8	8.45e-01	0	55	104	0	59	12843
2026-01-21 11:51:40.50	156.43	5.57	-43.9	-54.6	3.8	8.47e-01	0	55	104	0	59	12306
2026-01-21 11:51:41.51	156.43	5.65	-43.8	-54.1	3.8	8.47e-01	0	55	104	0	59	11665
2026-01-21 11:51:42.53	156.43	5.72	-43.8	-53.6	3.8	8.46e-01	0	55	104	0	59	10952
2026-01-21 11:51:43.54	156.42	5.80	-43.7	-52.8	4.0	8.44e-01	0	55	104	0	59	9962
2026-01-21 11:51:44.55	156.42	5.87	-43.6	-52.0	4.2	8.39e-01	0	55	0	0	59	9149
2026-01-21 11:51:45.56	156.41	5.95	-43.5	-51.5	4.4	8.30e-01	0	55	0	0	58	9098
2026-01-21 11:51:46.57	156.41	6.02	-43.4	-51.0	4.5	8.21e-01	0	55	0	0	58	8656
2026-01-21 11:51:47.58	156.40	6.10	-43.3	-50.9	4.6	8.16e-01	0	55	0	0	58	8466
2026-01-21 11:51:48.59	156.40	6.17	-43.4	-51.1	4.5	8.18e-01	0	55	0	0	58	8701
2026-01-21 11:51:49.60	156.39	6.25	-43.4	-51.1	4.5	8.18e-01	0	55	0	0	58	8675
2026-01-21 11:51:50.61	156.39	6.33	-43.4	-51.2	4.5	8.18e-01	0	55	0	0	58	8786
2026-01-21 11:51:51.62	156.38	6.40	-43.4	-51.3	4.5	8.22e-01	0	55	0	0	58	8903
2026-01-21 11:51:52.63	156.38	6.48	-43.3	-50.9	4.6	8.16e-01	0	55	0	0	58	8475
2026-01-21 11:51:53.64	156.37	6.56	-43.4	-51.2	4.5	8.23e-01	0	55	0	0	58	8851
2026-01-21 11:51:54.65	156.37	6.63	-43.5	-51.6	4.3	8.28e-01	0	55	0	0	58	9199
2026-01-21 11:51:55.66	156.36	6.71	-43.6	-52.7	4.0	8.40e-01	0	56	0	0	58	10443
2026-01-21 11:51:56.67	156.36	6.79	-43.8	-53.4	3.9	8.44e-01	0	55	104	0	58	11370
2026-01-21 11:51:57.68	156.35	6.87	-43.8	-54.3	3.8	8.45e-01	0	55	104	0	58	12538
2026-01-21 11:51:58.69	156.35	6.94	-44.0	-55.2	3.8	8.46e-01	0	55	104	0	58	13906
2026-01-21 11:51:59.70	156.34	7.02	-44.0	-55.1	3.8	8.48e-01	0	55	104	0	58	13869
2026-01-21 11:52:00.71	156.34	7.10	-43.9	-54.5	3.8	8.46e-01	0	56	104	0	58	12844
2026-01-21 11:52:01.72	156.33	7.18	-43.7	-53.4	3.8	8.46e-01	0	56	104	0	58	11289
2026-01-21 11:52:02.73	156.32	7.26	-43.5	-51.7	4.3	8.40e-01	0	56	0	0	58	9330
2026-01-21 11:52:03.75	156.32	7.34	-43.1	-50.1	5.0	7.87e-01	0	56	0	0	58	7778
2026-01-21 11:52:04.76	156.31	7.42	-42.7	-48.7	5.9	5.99e-01	0	56	0	1048576	57	6969
2026-01-21 11:52:05.77	156.31	7.50	-42.3	-47.5	6.8	2.23e-01	0	56	0	6291456	56	6463
2026-01-21 11:52:06.78	156.30	7.58	-41.7	-46.2	8.0	1.04e-01	0	56	0	12582912	55	5864
2026-01-21 11:52:07.79	156.30	7.66	-41.1	-44.9	9.2	4.12e-02	0	56	0	17825792	54	5397
2026-01-21 11:52:08.80	156.29	7.74	-40.7	-44.2	9.9	1.47e-02	0	56	0	24117248	53	5260
2026-01-21 11:52:09.81	156.29	7.82	-40.4	-43.6	10.6	6.76e-03	0	56	0	29360128	52	5206
2026-01-21 11:52:10.82	156.28	7.90	-40.1	-43.1	11.1	2.42e-03	0	56	0	35651584	52	4910
2026-01-21 11:52:11.83	156.27	7.98	-40.0	-42.9	11.4	1.68e-03	0	56	0	40894464	51	5080
2026-01-21 11:52:12.84	156.27	8.06	-39.9	-42.8	11.5	1.01e-03	0	56	0	46137344	51	5003
2026-01-21 11:52:13.84	156.26	8.14	-40.8	-44.2	10.0	1.57e-03	0	56	0	52428800	52	5581
2026-01-21 11:52:14.85	156.26	8.23	-42.2	-47.3	7.1	4.57e-02	0	56	0	57671680	54	7060
2026-01-21 11:52:15.86	156.25	8.31	-39.8	-42.6	11.7	3.28e-03	0	56	0	62914560	51	4923
2026-01-21 11:52:16.87	156.24	8.39	-43.5	-51.0	4.7	3.25e-01	0	56	0	68157440	57	9149
2026-01-21 11:52:17.88	156.24	8.47	-42.5	-48.7	5.8	1.93e-03	0	56	0	72351744	55	7881
2026-01-21 11:52:18.89	156.23	8.56	-39.9	-42.7	11.6	4.05e-03	0	56	0	76546048	51	4982
2026-01-21 11:52:19.90	156.23	8.64	-39.9	-42.7	11.6	8.48e-04	0	56	0	81788928	51	4982
2026-01-21 11:52:20.91	156.22	8.72	-39.9	-42.7	11.6	9.28e-04	0	56	0	87031808	51	4978
2026-01-21 11:52:21.92	156.21	8.81	-40.0	-42.9	11.4	1.36e-03	0	56	0	93323264	51	5082
2026-01-21 11:52:22.93	156.21	8.89	-39.7	-42.4	11.9	6.65e-04	0	56	0	98566144	51	4804
2026-01-21 11:52:23.94	156.20	8.98	-39.6	-42.3	12.1	4.43e-04	0	57	0	104857600	51	4756
2026-01-21 11:52:24.95	156.19	9.06	-39.8	-42.5	11.9	5.70e-04	0	57	0	110100480	51	4860
2026-01-21 11:52:25.96	156.19	9.15	-39.7	-42.4	12.1	4.84e-04	0	56	0	116391936	51	4770
2026-01-21 11:52:26.97	156.18	9.23	-39.6	-42.2	12.3	2.93e-04	0	57	0	121634816	51	4682
2026-01-21 11:52:27.98	156.17	9.32	-39.5	-42.2	12.3	2.92e-04	0	57	0	126877696	51	4666
2026-01-21 11:52:28.99	156.17	9.40	-39.4	-42.0	12.6	1.72e-04	0	56	0	133169152	50	4815
2026-01-21 11:52:30.01	156.16	9.49	-39.3	-41.8	12.7	9.84e-05	0	56	0	138412032	50	4725
2026-01-21 11:52:31.01	156.15	9.58	-39.4	-42.0	12.6	1.29e-04	0	57	0	144703488	50	4817
2026-01-21 11:52:32.02	156.15	9.66	-39.4	-41.9	12.7	1.35e-04	0	57	0	149946368	50	4765
2026-01-21 11:52:33.03	156.14	9.75	-39.3	-41.8	12.8	6.40e-05	0	57	0	155189248	50	4750
2026-01-21 11:52:34.04	156.13	9.84	-39.2	-41.6	13.0	6.40e-05	0	57	0	161480704	50	4626
2026-01-21 11:52:35.05	156.13	9.93	-39.2	-41.6	13.0	4.11e-05	0	57	0	166723584	50	4626
2026-01-21 11:52:36.06	156.12	10.02	-39.3	-41.8	12.8	1.18e-04	0	57	0	173015040	50	4723
2026-01-21 11:52:37.07	156.11	10.10	-39.1	-41.5	13.2	7.09e-05	0	57	0	178257920	50	4556
2026-01-21 11:52:38.08	156.10	10.19	-39.3	-41.7	13.0	2.97e-05	0	57	0	184549376	50	4688
2026-01-21 11:52:39.09	156.10	10.28	-39.2	-41.6	13.1	7.66e-05	0	57	0	189792256	50	4639
2026-01-21 11:52:40.10	156.09	10.37	-39.1	-41.5	13.2	5.49e-05	0	57	0	195035136	50	4562
2026-01-21 11:52:41.11	156.08	10.46	-39.1	-41.4	13.3	3.54e-05	0	57	0	201326592	50	4534
2026-01-21 11:52:42.12	156.08	10.55	-39.1	-41.5	13.2	2.97e-05	0	57	0	206569472	50	4562
2026-01-21 11:52:43.13	156.07	10.64	-39.2	-41.6	13.1	3.66e-05	0	57	0	212860928	50	4605
2026-01-21 11:52:44.14	156.06	10.73	-39.1	-41.5	13.3	2.51e-05	0	57	0	218103808	50	4559
2026-01-21 11:52:45.15	156.05	10.82	-39.1	-41.5	13.3	2.17e-05	0	57	0	223346688	50	4553
2026-01-21 11:52:46.16	156.05	10.91	-39.1	-41.4	13.3	2.74e-05	0	57	0	229638144	50	4522
2026-01-21 11:52:47.17	156.04	11.01	-39.1	-41.4	13.4	2.05e-05	0	57	0	234881024	50	4523
2026-01-21 11:52:48.18	156.03	11.10	-39.0	-41.3	13.5	2.17e-05	0	57	0	241172480	50	4463
2026-01-21 11:52:49.19	156.02	11.19	-39.1	-41.4	13.4	2.97e-05	0	57	0	246415360	50	4507
2026-01-21 11:52:50.20	156.01	11.28	-39.0	-41.3	13.5	2.74e-05	0	57	0	251658240	50	4486
2026-01-21 11:52:51.21	156.01	11.38	-39.0	-41.4	13.4	2.17e-05	0	57	0	257949696	49	4770
2026-01-21 11:52:52.22	156.00	11.47	-39.1	-41.4	13.4	2.05e-05	0	57	0	263192576	49	4777
2026-01-21 11:52:53.23	155.99	11.56	-39.0	-41.3	13.6	1.60e-05	0	57	0	269484032	49	4731
2026-01-21 11:52:54.24	155.98	11.66	-39.1	-41.4	13.5	1.60e-05	0	57	0	274726912	49	4809
2026-01-21 11:52:55.25	155.97	11.75	-39.1	-41.4	13.4	2.74e-05	0	57	0	281018368	49	4814
2026-01-21 11:52:56.26	155.96	11.85	-39.2	-41.5	13.4	2.51e-05	0	57	0	286261248	49	4867
2026-01-21 11:52:57.27	155.96	11.94	-39.0	-41.3	13.6	2.51e-05	0	58	0	292552704	49	4712
2026-01-21 11:52:58.28	155.95	12.04	-39.0	-41.3	13.6	1.83e-05	0	58	0	297795584	49	4727
2026-01-21 11:52:59.29	155.94	12.14	-38.9	-41.1	13.8	4.50e-06	0	57	0	303038464	49	4616
2026-01-21 11:53:00.30	155.93	12.23	-38.9	-41.1	13.8	1.14e-05	0	57	0	309329920	49	4644
2026-01-21 11:53:01.31	155.92	12.33	-39.0	-41.2	13.7	5.70e-06	0	58	0	314572800	49	4675
2026-01-21 11:53:02.32	155.91	12.43	-38.9	-41.1	13.8	6.80e-06	0	57	0	320864256	49	4626
2026-01-21 11:53:03.33	155.90	12.52	-38.9	-41.1	13.8	1.14e-05	0	58	0	326107136	49	4648
2026-01-21 11:53:04.34	155.89	12.62	-38.9	-41.2	13.8	4.50e-06	0	58	0	331350016	49	4654
2026-01-21 11:53:05.35	155.89	12.72	-38.9	-41.1	13.8	8.00e-06	0	58	0	337641472	49	4630
2026-01-21 11:53:06.36	155.88	12.82	-38.9	-41.1	13.9	4.50e-06	0	58	0	342884352	49	4624
2026-01-21 11:53:07.37	155.87	12.92	-39.0	-41.2	13.8	8.00e-06	0	58	0	349175808	49	4669
2026-01-21 11:53:08.38	155.86	13.02	-38.8	-40.9	14.0	3.40e-06	0	58	0	354418688	49	4543
2026-01-21 11:53:09.39	155.85	13.12	-38.9	-41.1	13.9	4.50e-06	0	58	0	359661568	49	4613
2026-01-21 11:53:10.40	155.84	13.22	-38.9	-41.1	13.9	5.70e-06	0	58	0	365953024	49	4606
2026-01-21 11:53:11.41	155.83	13.32	-38.8	-40.9	14.1	4.50e-06	0	58	0	371195904	49	4517
2026-01-21 11:53:12.42	155.82	13.42	-38.8	-40.9	14.0	4.50e-06	0	57	0	377487360	49	4535
2026-01-21 11:53:13.43	155.81	13.52	-38.8	-40.9	14.1	3.40e-06	0	58	0	382730240	49	4512
2026-01-21 11:53:14.44	155.80	13.62	-38.8	-40.9	14.1	2.20e-06	0	58	0	389021696	49	4531
2026-01-21 11:53:15.45	155.79	13.73	-38.8	-40.9	14.1	4.50e-06	0	58	0	394264576	49	4527
2026-01-21 11:53:16.46	155.78	13.83	-38.6	-40.7	14.3	0.00e+00	0	58	0	399507456	49	4433
2026-01-21 11:53:17.47	155.77	13.93	-38.7	-40.8	14.2	2.20e-06	0	58	0	405798912	49	4479
2026-01-21 11:53:18.48	155.76	14.04	-38.7	-40.9	14.2	0.00e+00	0	58	0	411041792	49	4499
2026-01-21 11:53:19.49	155.75	14.14	-38.7	-40.8	14.3	0.00e+00	0	58	0	417333248	49	4477
2026-01-21 11:53:20.50	155.74	14.25	-38.6	-40.7	14.3	4.50e-06	0	58	0	422576128	49	4422
2026-01-21 11:53:21.51	155.73	14.35	-38.6	-40.7	14.4	1.10e-06	0	58	0	427819008	49	4401
2026-01-21 11:53:22.52	155.72	14.46	-38.6	-40.7	14.4	1.10e-06	0	58	0	434110464	49	4427
2026-01-21 11:53:23.53	155.71	14.56	-38.5	-40.6	14.5	2.20e-06	0	58	0	439353344	49	4361
2026-01-21 11:53:24.54	155.70	14.67	-38.5	-40.5	14.6	1.10e-06	0	58	0	445644800	48	4587
2026-01-21 11:53:25.54	155.69	14.78	-38.5	-40.5	14.6	1.10e-06	0	58	0	450887680	48	4593
2026-01-21 11:53:26.55	155.68	14.88	-38.5	-40.5	14.6	0.00e+00	0	58	0	456130560	48	4593
2026-01-21 11:53:27.56	155.66	14.99	-38.5	-40.5	14.6	2.20e-06	0	58	0	462422016	48	4598
2026-01-21 11:53:28.57	155.65	15.10	-38.5	-40.4	14.7	0.00e+00	0	58	0	467664896	48	4542
2026-01-21 11:53:29.59	155.64	15.21	-38.4	-40.4	14.8	0.00e+00	0	58	0	473956352	48	4504
2026-01-21 11:53:30.59	155.63	15.32	-38.4	-40.4	14.8	0.00e+00	0	58	0	479199232	48	4509
2026-01-21 11:53:31.61	155.62	15.43	-38.5	-40.5	14.7	0.00e+00	0	58	0	485490688	48	4546
2026-01-21 11:53:32.62	155.61	15.54	-38.5	-40.5	14.7	0.00e+00	0	58	0	490733568	48	4551
2026-01-21 11:53:33.62	155.60	15.65	-38.6	-40.6	14.5	0.00e+00	0	58	0	497025024	48	4626
2026-01-21 11:53:34.63	155.58	15.76	-38.4	-40.4	14.8	1.10e-06	0	58	0	502267904	48	4504
2026-01-21 11:53:35.64	155.57	15.87	-38.4	-40.3	14.8	0.00e+00	0	58	0	507510784	48	4487
2026-01-21 11:53:36.65	155.56	15.99	-38.4	-40.3	14.8	1.10e-06	0	58	0	513802240	48	4484
2026-01-21 11:53:37.66	155.55	16.10	-38.2	-40.1	15.0	0.00e+00	0	58	0	519045120	48	4370
2026-01-21 11:53:38.67	155.54	16.21	-37.9	-39.7	15.3	0.00e+00	0	58	0	525336576	47	4426
2026-01-21 11:53:39.68	155.52	16.33	-37.8	-39.6	15.4	1.10e-06	0	58	0	530579456	47	4384
2026-01-21 11:53:40.69	155.51	16.44	-37.8	-39.6	15.4	0.00e+00	0	58	0	535822336	47	4381
2026-01-21 11:53:41.70	155.50	16.56	-37.9	-39.7	15.3	0.00e+00	0	58	0	542113792	47	4436
2026-01-21 11:53:42.71	155.49	16.67	-37.8	-39.7	15.3	0.00e+00	0	58	0	547356672	47	4421
2026-01-21 11:53:43.72	155.47	16.79	-37.8	-39.7	15.4	0.00e+00	0	58	0	553648128	47	4398
2026-01-21 11:53:44.72	155.46	16.91	-37.9	-39.7	15.4	0.00e+00	0	58	0	558891008	47	4423
2026-01-21 11:53:45.74	155.45	17.02	-37.8	-39.7	15.4	0.00e+00	0	58	0	564133888	47	4406
2026-01-21 11:53:46.75	155.44	17.14	-37.6	-39.5	15.6	0.00e+00	0	59	0	570425344	47	4296
2026-01-21 11:53:47.76	155.42	17.26	-37.7	-39.6	15.5	0.00e+00	0	59	0	575668224	47	4350
2026-01-21 11:53:48.76	155.41	17.38	-37.6	-39.4	15.7	0.00e+00	0	59	0	581959680	47	4281
2026-01-21 11:53:49.77	155.40	17.50	-37.6	-39.4	15.7	0.00e+00	0	59	0	587202560	47	4246
2026-01-21 11:53:50.78	155.38	17.62	-37.5	-39.2	15.8	0.00e+00	0	59	0	593494016	46	4439
2026-01-21 11:53:51.79	155.37	17.74	-37.6	-39.3	15.7	0.00e+00	0	59	0	598736896	46	4493
2026-01-21 11:53:52.80	155.35	17.86	-37.5	-39.3	15.8	0.00e+00	0	59	0	603979776	46	4442
2026-01-21 11:53:53.81	155.34	17.98	-37.5	-39.2	15.9	1.10e-06	0	59	0	610271232	46	4432
2026-01-21 11:53:54.82	155.33	18.11	-37.5	-39.3	15.8	0.00e+00	0	59	0	615514112	46	4451
2026-01-21 11:53:55.83	155.31	18.23	-37.4	-39.2	15.9	0.00e+00	0	59	0	621805568	46	4427
2026-01-21 11:53:56.84	155.30	18.35	-37.5	-39.2	15.8	0.00e+00	0	59	0	627048448	46	4438
2026-01-21 11:53:57.85	155.28	18.48	-37.4	-39.2	15.9	0.00e+00	0	58	0	632291328	46	4404
2026-01-21 11:53:58.86	155.27	18.60	-37.4	-39.2	15.9	0.00e+00	0	59	0	638582784	46	4394
2026-01-21 11:53:59.87	155.25	18.73	-37.5	-39.3	15.8	0.00e+00	0	59	0	643825664	46	4455
2026-01-21 11:54:00.88	155.24	18.85	-37.5	-39.3	15.8	0.00e+00	0	59	0	650117120	46	4461
2026-01-21 11:54:01.89	155.22	18.98	-37.5	-39.3	15.8	0.00e+00	0	59	0	655360000	46	4485
2026-01-21 11:54:02.90	155.21	19.11	-37.5	-39.3	15.7	0.00e+00	0	59	0	660602880	46	4488
2026-01-21 11:54:03.91	155.19	19.24	-37.4	-39.2	15.9	0.00e+00	0	59	0	666894336	46	4413
2026-01-21 11:54:04.92	155.18	19.37	-37.4	-39.2	15.9	0.00e+00	0	59	0	672137216	46	4425
2026-01-21 11:54:05.93	155.16	19.50	-37.5	-39.3	15.8	0.00e+00	0	59	0	678428672	46	4452
2026-01-21 11:54:06.94	155.14	19.63	-37.4	-39.2	15.9	0.00e+00	0	59	0	683671552	46	4430
2026-01-21 11:54:07.95	155.13	19.76	-37.4	-39.2	15.9	0.00e+00	0	59	0	689963008	46	4414
2026-01-21 11:54:08.97	155.11	19.89	-37.4	-39.2	15.9	0.00e+00	0	59	0	695205888	46	4414
2026-01-21 11:54:09.98	155.10	20.02	-37.4	-39.2	15.8	0.00e+00	0	59	0	701497344	46	4429
2026-01-21 11:54:10.99	155.08	20.16	-37.4	-39.2	15.8	0.00e+00	0	59	0	706740224	46	4431
2026-01-21 11:54:12.00	155.06	20.29	-37.4	-39.2	15.9	0.00e+00	0	59	0	711983104	46	4417
2026-01-21 11:54:13.01	155.05	20.43	-37.4	-39.1	16.0	0.00e+00	0	59	0	718274560	46	4380
2026-01-21 11:54:14.02	155.03	20.56	-37.3	-39.1	16.0	0.00e+00	0	59	0	723517440	46	4373
2026-01-21 11:54:15.03	155.01	20.70	-37.3	-39.1	16.0	0.00e+00	0	59	0	729808896	46	4367
2026-01-21 11:54:16.04	154.99	20.83	-37.1	-38.9	16.2	0.00e+00	0	59	0	735051776	46	4248
2026-01-21 11:54:17.05	154.98	20.97	-37.1	-38.8	16.3	0.00e+00	0	59	0	740294656	46	4218
2026-01-21 11:54:18.06	154.96	21.11	-37.1	-38.8	16.3	0.00e+00	0	59	0	746586112	46	4200
2026-01-21 11:54:19.07	154.94	21.25	-37.1	-38.8	16.3	0.00e+00	0	59	0	751828992	46	4199
2026-01-21 11:54:20.08	154.92	21.39	-37.0	-38.7	16.4	0.00e+00	0	59	0	758120448	46	4173
2026-01-21 11:54:21.09	154.90	21.53	-37.0	-38.7	16.4	0.00e+00	0	59	0	763363328	46	4167
2026-01-21 11:54:22.10	154.88	21.67	-37.0	-38.7	16.4	0.00e+00	0	59	0	768606208	46	4180
2026-01-21 11:54:23.11	154.87	21.81	-37.0	-38.7	16.4	0.00e+00	0	59	0	774897664	46	4166
2026-01-21 11:54:24.11	154.85	21.96	-37.0	-38.7	16.4	0.00e+00	0	59	0	780140544	46	4168
2026-01-21 11:54:25.12	154.83	22.10	-37.0	-38.7	16.4	0.00e+00	0	59	0	786432000	46	4162
2026-01-21 11:54:26.13	154.81	22.24	-37.0	-38.7	16.4	0.00e+00	0	59	0	791674880	46	4181
2026-01-21 11:54:27.14	154.79	22.39	-36.9	-38.6	16.5	0.00e+00	0	59	0	797966336	45	4347
2026-01-21 11:54:28.15	154.77	22.54	-36.9	-38.6	16.5	0.00e+00	0	59	0	803209216	45	4353
2026-01-21 11:54:29.17	154.75	22.68	-36.9	-38.6	16.5	0.00e+00	0	59	0	809500672	45	4371
2026-01-21 11:54:30.17	154.73	22.83	-36.8	-38.5	16.6	0.00e+00	0	59	0	814743552	45	4292
2026-01-21 11:54:31.18	154.71	22.98	-36.8	-38.5	16.6	0.00e+00	0	59	0	819986432	45	4299
2026-01-21 11:54:32.20	154.69	23.13	-36.9	-38.5	16.6	0.00e+00	0	59	0	826277888	45	4324
2026-01-21 11:54:33.21	154.67	23.28	-36.9	-38.5	16.6	0.00e+00	0	59	0	831520768	45	4323
2026-01-21 11:54:34.21	154.65	23.43	-36.8	-38.4	16.7	0.00e+00	0	59	0	836763648	45	4277
2026-01-21 11:54:35.22	154.62	23.58	-36.7	-38.4	16.7	0.00e+00	0	59	0	843055104	45	4257
2026-01-21 11:54:36.23	154.60	23.74	-36.8	-38.5	16.7	0.00e+00	0	59	0	848297984	45	4307
2026-01-21 11:54:37.24	154.58	23.89	-36.8	-38.5	16.7	0.00e+00	0	59	0	854589440	45	4303
2026-01-21 11:54:38.25	154.56	24.05	-36.8	-38.4	16.7	0.00e+00	0	59	0	859832320	45	4261
2026-01-21 11:54:39.26	154.54	24.20	-36.8	-38.5	16.7	0.00e+00	0	59	0	865075200	45	4294
2026-01-21 11:54:40.27	154.51	24.36	-36.7	-38.4	16.8	0.00e+00	0	59	0	871366656	45	4246
2026-01-21 11:54:41.28	154.49	24.52	-36.7	-38.3	16.8	0.00e+00	0	59	0	876609536	45	4219
2026-01-21 11:54:42.29	154.47	24.68	-36.7	-38.3	16.8	0.00e+00	0	59	0	882900992	45	4211
2026-01-21 11:54:43.30	154.44	24.84	-36.8	-38.4	16.8	0.00e+00	0	59	0	888143872	45	4258
2026-01-21 11:54:44.31	154.42	25.00	-36.8	-38.5	16.7	0.00e+00	0	59	0	894435328	45	4293
2026-01-21 11:54:45.33	154.40	25.16	-36.7	-38.3	16.9	0.00e+00	0	59	0	899678208	45	4196
2026-01-21 11:54:46.34	154.37	25.32	-36.6	-38.2	17.0	0.00e+00	0	59	0	905969664	45	4155
2026-01-21 11:54:47.34	154.35	25.48	-36.5	-38.0	17.1	0.00e+00	0	59	0	911212544	45	4092
2026-01-21 11:54:48.36	154.32	25.65	-36.4	-37.9	17.2	0.00e+00	0	59	0	916455424	44	4284
2026-01-21 11:54:49.37	154.30	25.82	-36.4	-37.9	17.2	0.00e+00	0	59	0	922746880	44	4269
2026-01-21 11:54:50.38	154.27	25.98	-36.4	-38.0	17.2	0.00e+00	0	59	0	927989760	44	4295
2026-01-21 11:54:51.39	154.25	26.15	-36.3	-37.8	17.3	0.00e+00	0	59	0	934281216	44	4230
2026-01-21 11:54:52.40	154.22	26.32	-36.3	-37.8	17.3	0.00e+00	0	59	0	939524096	44	4225
2026-01-21 11:54:53.41	154.19	26.49	-36.4	-37.9	17.3	0.00e+00	0	59	0	944766976	44	4263
2026-01-21 11:54:54.42	154.17	26.66	-36.4	-38.0	17.2	0.00e+00	0	59	0	951058432	44	4292
2026-01-21 11:54:55.43	154.14	26.83	-36.4	-37.9	17.2	0.00e+00	0	59	0	956301312	44	4283
2026-01-21 11:54:56.44	154.11	27.01	-36.3	-37.9	17.3	0.00e+00	0	59	0	962592768	44	4245
2026-01-21 11:54:57.45	154.09	27.18	-36.3	-37.9	17.3	0.00e+00	0	59	0	967835648	44	4244
2026-01-21 11:54:58.46	154.06	27.36	-36.4	-38.0	17.2	0.00e+00	0	59	0	973078528	44	4311
2026-01-21 11:54:59.47	154.03	27.53	-36.5	-38.1	17.0	0.00e+00	0	59	0	979369984	44	4381
2026-01-21 11:55:00.48	154.00	27.71	-36.6	-38.2	17.0	0.00e+00	0	59	0	984612864	44	4404
2026-01-21 11:55:01.49	153.97	27.89	-36.6	-38.3	16.9	0.00e+00	0	59	0	990904320	44	4449
2026-01-21 11:55:02.49	153.94	28.07	-36.7	-38.3	16.8	0.00e+00	0	59	0	996147200	44	4490
2026-01-21 11:55:03.50	153.91	28.25	-36.6	-38.3	16.9	0.00e+00	0	59	0	1002438656	44	4449
2026-01-21 11:55:04.52	153.88	28.43	-36.6	-38.3	16.9	0.00e+00	0	60	0	1007681536	44	4450
2026-01-21 11:55:05.53	153.85	28.62	-36.6	-38.3	16.9	0.00e+00	0	59	0	1013972992	44	4457
2026-01-21 11:55:06.54	153.82	28.80	-36.7	-38.3	16.9	0.00e+00	0	60	0	1019215872	44	4465
2026-01-21 11:55:07.55	153.79	28.99	-36.5	-38.1	17.0	0.00e+00	0	60	0	1024458752	44	4383
2026-01-21 11:55:08.56	153.76	29.17	-36.3	-37.9	17.2	0.00e+00	0	59	0	1030750208	44	4270
2026-01-21 11:55:09.56	153.73	29.36	-36.2	-37.7	17.4	0.00e+00	0	60	0	1035993088	44	4192
2026-01-21 11:55:10.57	153.69	29.55	-36.2	-37.7	17.4	0.00e+00	0	59	0	1042284544	44	4169
2026-01-21 11:55:11.58	153.66	29.74	-36.3	-37.8	17.3	0.00e+00	0	59	0	1047527424	44	4223
2026-01-21 11:55:12.59	153.63	29.93	-36.3	-37.8	17.4	0.00e+00	0	60	0	1052770304	44	4230
2026-01-21 11:55:13.60	153.60	30.13	-36.3	-37.8	17.4	0.00e+00	0	59	0	1059061760	44	4217
2026-01-21 11:55:14.61	153.56	30.32	-36.2	-37.7	17.4	0.00e+00	0	60	0	1064304640	44	4192
2026-01-21 11:55:15.62	153.53	30.52	-36.2	-37.7	17.5	0.00e+00	0	60	0	1070596096	44	4165
2026-01-21 11:55:16.63	153.49	30.71	-36.2	-37.7	17.4	0.00e+00	0	60	0	1075838976	44	4192
2026-01-21 11:55:17.64	153.46	30.91	-36.3	-37.8	17.4	0.00e+00	0	59	0	1081081856	44	4215
2026-01-21 11:55:18.65	153.42	31.11	-36.4	-37.9	17.3	0.00e+00	0	60	0	1087373312	44	4269
2026-01-21 11:55:19.66	153.38	31.31	-36.3	-37.8	17.4	0.00e+00	0	59	0	1092616192	44	4219
2026-01-21 11:55:20.66	153.35	31.52	-36.3	-37.8	17.3	0.00e+00	0	60	0	1098907648	44	4233
2026-01-21 11:55:21.68	153.31	31.72	-36.4	-38.0	17.2	0.00e+00	0	60	0	1104150528	44	4295
2026-01-21 11:55:22.69	153.27	31.93	-36.3	-37.9	17.3	0.00e+00	0	59	0	1110441984	44	4260
2026-01-21 11:55:23.70	153.23	32.13	-36.4	-38.0	17.2	0.00e+00	0	59	0	1115684864	44	4301
2026-01-21 11:55:24.71	153.19	32.34	-36.1	-37.6	17.5	0.00e+00	0	60	0	1120927744	44	4144
2026-01-21 11:55:25.72	153.15	32.55	-36.0	-37.5	17.6	0.00e+00	0	60	0	1127219200	44	4081
2026-01-21 11:55:26.73	153.11	32.76	-35.8	-37.3	17.7	0.00e+00	0	60	0	1132462080	43	4220
2026-01-21 11:55:27.74	153.07	32.98	-35.8	-37.3	17.7	0.00e+00	0	60	0	1138753536	43	4203
2026-01-21 11:55:28.75	153.03	33.19	-35.8	-37.3	17.7	0.00e+00	0	60	0	1143996416	43	4210
2026-01-21 11:55:29.76	152.99	33.41	-35.8	-37.3	17.7	0.00e+00	0	60	0	1149239296	43	4220
2026-01-21 11:55:30.77	152.95	33.63	-35.8	-37.3	17.7	0.00e+00	0	60	0	1155530752	43	4228
2026-01-21 11:55:31.78	152.90	33.84	-35.7	-37.2	17.8	0.00e+00	0	59	0	1160773632	43	4166
2026-01-21 11:55:32.79	152.86	34.06	-35.6	-37.1	18.0	0.00e+00	0	60	0	1167065088	43	4103
2026-01-21 11:55:33.80	152.82	34.29	-35.5	-36.9	18.1	0.00e+00	0	60	0	1172307968	43	4029
2026-01-21 11:55:34.81	152.77	34.51	-35.5	-36.9	18.1	0.00e+00	0	60	0	1177550848	43	4042
2026-01-21 11:55:35.81	152.73	34.73	-35.4	-36.8	18.2	0.00e+00	0	60	0	1183842304	42	4232
2026-01-21 11:55:36.82	152.68	34.96	-35.3	-36.7	18.3	0.00e+00	0	60	0	1189085184	42	4173
2026-01-21 11:55:37.83	152.63	35.19	-35.4	-36.8	18.3	0.00e+00	0	60	0	1195376640	42	4198
2026-01-21 11:55:38.85	152.58	35.42	-35.3	-36.7	18.3	0.00e+00	0	60	0	1200619520	42	4189
2026-01-21 11:55:39.86	152.54	35.65	-35.4	-36.9	18.2	0.00e+00	0	59	0	1206910976	42	4248
2026-01-21 11:55:40.87	152.49	35.89	-35.5	-36.9	18.1	0.00e+00	0	60	0	1212153856	42	4285
2026-01-21 11:55:41.88	152.44	36.12	-35.7	-37.1	18.0	0.00e+00	0	60	0	1218445312	42	4388
2026-01-21 11:55:42.89	152.39	36.36	-35.8	-37.3	17.8	0.00e+00	0	60	0	1223688192	42	4448
2026-01-21 11:55:43.90	152.33	36.60	-35.8	-37.3	17.7	0.00e+00	0	60	0	1228931072	42	4489
2026-01-21 11:55:44.91	152.28	36.84	-35.9	-37.4	17.7	0.00e+00	0	60	0	1235222528	42	4516
2026-01-21 11:55:45.92	152.23	37.08	-35.9	-37.4	17.6	0.00e+00	0	60	0	1240465408	42	4538
2026-01-21 11:55:46.93	152.18	37.32	-35.8	-37.3	17.7	0.00e+00	0	60	0	1246756864	42	4485
2026-01-21 11:55:47.94	152.12	37.57	-35.8	-37.3	17.7	0.00e+00	0	60	0	1251999744	42	4489
2026-01-21 11:55:48.95	152.06	37.82	-35.8	-37.3	17.8	0.00e+00	0	60	0	1257242624	42	4474
2026-01-21 11:55:49.96	152.01	38.06	-35.9	-37.3	17.7	0.00e+00	0	60	0	1263534080	42	4490
2026-01-21 11:55:50.96	151.95	38.31	-35.8	-37.3	17.8	0.00e+00	0	60	0	1268776960	42	4448
2026-01-21 11:55:51.97	151.89	38.57	-35.8	-37.2	17.9	0.00e+00	0	60	0	1275068416	42	4419
2026-01-21 11:55:52.98	151.83	38.82	-35.7	-37.1	17.9	0.00e+00	0	60	0	1280311296	42	4379
2026-01-21 11:55:53.99	151.77	39.08	-35.7	-37.1	17.9	0.00e+00	0	60	0	1285554176	42	4386
2026-01-21 11:55:55.00	151.71	39.34	-35.8	-37.3	17.8	0.00e+00	0	60	0	1291845632	42	4444
2026-01-21 11:55:56.01	151.65	39.60	-35.9	-37.4	17.6	0.00e+00	0	60	0	1297088512	42	4545
2026-01-21 11:55:57.03	151.58	39.86	-36.1	-37.6	17.5	0.00e+00	0	60	0	1303379968	42	4638
2026-01-21 11:55:58.04	151.52	40.12	-36.2	-37.8	17.3	0.00e+00	0	60	0	1308622848	43	4458
2026-01-21 11:55:59.05	151.45	40.39	-36.4	-38.0	17.1	0.00e+00	0	60	0	1314914304	43	4556
2026-01-21 11:56:00.05	151.39	40.66	-36.4	-38.0	17.1	0.00e+00	0	60	0	1320157184	43	4574
2026-01-21 11:56:01.06	151.32	40.93	-36.4	-38.0	17.1	0.00e+00	0	60	0	1326448640	43	4576
2026-01-21 11:56:02.07	151.25	41.20	-36.4	-37.9	17.2	0.00e+00	0	60	0	1331691520	43	4528
2026-01-21 11:56:03.08	151.18	41.47	-36.4	-37.9	17.2	0.00e+00	0	60	0	1336934400	43	4539
2026-01-21 11:56:04.09	151.11	41.75	-36.7	-38.3	16.9	0.00e+00	0	60	0	1343225856	43	4721
2026-01-21 11:56:05.10	151.04	42.03	-36.6	-38.2	17.0	0.00e+00	0	60	0	1348468736	43	4663
2026-01-21 11:56:06.11	150.96	42.31	-36.4	-38.0	17.2	0.00e+00	0	60	0	1354760192	43	4555
2026-01-21 11:56:07.12	150.89	42.59	-36.2	-37.7	17.5	0.00e+00	0	60	0	1360003072	43	4433
2026-01-21 11:56:08.13	150.81	42.87	-36.1	-37.6	17.6	0.00e+00	0	60	0	1365245952	43	4357
2026-01-21 11:56:09.15	150.73	43.16	-36.2	-37.7	17.5	0.00e+00	0	60	0	1371537408	43	4420
2026-01-21 11:56:10.16	150.65	43.45	-36.2	-37.7	17.5	0.00e+00	0	60	0	1376780288	43	4396
2026-01-21 11:56:11.17	150.57	43.74	-36.3	-37.8	17.3	0.00e+00	0	60	0	1383071744	43	4488
2026-01-21 11:56:12.18	150.48	44.03	-36.5	-38.1	17.1	0.00e+00	0	60	0	1388314624	43	4604
2026-01-21 11:56:13.19	150.40	44.33	-36.5	-38.0	17.2	0.00e+00	0	60	0	1393557504	43	4567
2026-01-21 11:56:14.20	150.31	44.63	-36.5	-38.0	17.2	0.00e+00	0	60	0	1399848960	43	4571
2026-01-21 11:56:15.20	150.23	44.92	-36.6	-38.2	17.0	0.00e+00	0	60	0	1405091840	43	4655
2026-01-21 11:56:16.21	150.14	45.22	-36.9	-38.5	16.8	0.00e+00	0	60	0	1411383296	44	4588
2026-01-21 11:56:17.22	150.04	45.53	-36.8	-38.3	17.0	0.00e+00	0	60	0	1416626176	44	4489
2026-01-21 11:56:18.23	149.95	45.83	-36.6	-38.2	17.2	0.00e+00	0	60	0	1422917632	44	4396
2026-01-21 11:56:19.24	149.86	46.14	-36.6	-38.1	17.3	0.00e+00	0	60	0	1428160512	44	4366
2026-01-21 11:56:20.25	149.76	46.45	-36.5	-38.0	17.4	0.00e+00	0	60	0	1433403392	44	4294
2026-01-21 11:56:21.26	149.66	46.76	-36.3	-37.8	17.6	0.00e+00	0	60	0	1439694848	44	4208
2026-01-21 11:56:22.27	149.56	47.08	-36.3	-37.8	17.6	0.00e+00	0	60	0	1444937728	44	4200
2026-01-21 11:56:23.28	149.46	47.40	-36.3	-37.8	17.6	0.00e+00	0	60	0	1451229184	44	4219
2026-01-21 11:56:24.29	149.35	47.71	-36.5	-38.1	17.3	0.00e+00	0	60	0	1456472064	44	4342
2026-01-21 11:56:25.30	149.24	48.04	-36.3	-37.8	17.6	0.00e+00	0	60	0	1461714944	44	4205
2026-01-21 11:56:26.31	149.13	48.36	-36.1	-37.5	17.8	0.00e+00	0	60	0	1468006400	44	4097
2026-01-21 11:56:27.32	149.02	48.69	-36.1	-37.6	17.8	0.00e+00	0	60	0	1473249280	44	4111
2026-01-21 11:56:28.33	148.90	49.01	-36.2	-37.7	17.6	0.00e+00	0	60	0	1479540736	44	4179
2026-01-21 11:56:29.34	148.79	49.35	-36.4	-37.9	17.5	0.00e+00	0	60	0	1484783616	44	4260
2026-01-21 11:56:30.35	148.67	49.68	-36.7	-38.2	17.2	0.00e+00	0	60	0	1490026496	44	4431
2026-01-21 11:56:31.36	148.54	50.01	-36.8	-38.4	17.0	0.00e+00	0	60	0	1496317952	44	4529
2026-01-21 11:56:32.37	148.42	50.35	-36.9	-38.4	17.0	0.00e+00	0	60	0	1501560832	44	4542
2026-01-21 11:56:33.38	148.29	50.69	-37.0	-38.5	16.9	0.00e+00	0	60	0	1507852288	44	4590
2026-01-21 11:56:34.39	148.16	51.03	-37.1	-38.7	16.7	0.00e+00	0	60	0	1513095168	44	4685
2026-01-21 11:56:35.40	148.02	51.38	-37.2	-38.9	16.6	0.00e+00	0	60	0	1519386624	45	4497
2026-01-21 11:56:36.41	147.88	51.73	-37.5	-39.2	16.3	0.00e+00	0	60	0	1524629504	45	4662
2026-01-21 11:56:37.42	147.74	52.08	-37.6	-39.3	16.1	0.00e+00	0	60	0	1530920960	45	4720
2026-01-21 11:56:38.43	147.60	52.43	-37.5	-39.2	16.2	0.00e+00	0	60	0	1536163840	45	4670
2026-01-21 11:56:39.44	147.45	52.78	-37.4	-39.1	16.3	0.00e+00	0	60	0	1541406720	45	4628
2026-01-21 11:56:40.44	147.30	53.13	-37.4	-39.1	16.3	0.00e+00	0	60	0	1547698176	45	4614
2026-01-21 11:56:41.45	147.14	53.49	-37.4	-39.1	16.3	0.00e+00	0	60	0	1552941056	45	4637
2026-01-21 11:56:42.46	146.98	53.85	-37.4	-39.0	16.4	0.00e+00	0	60	0	1559232512	45	4591
2026-01-21 11:56:43.47	146.82	54.22	-37.4	-39.1	16.3	0.00e+00	0	60	0	1564475392	45	4609
2026-01-21 11:56:44.48	146.65	54.58	-37.5	-39.2	16.2	0.00e+00	0	60	0	1569718272	45	4662
2026-01-21 11:56:45.49	146.48	54.95	-37.6	-39.3	16.1	0.00e+00	0	60	0	1576009728	45	4731
2026-01-21 11:56:46.50	146.30	55.32	-37.6	-39.3	16.1	0.00e+00	0	60	0	1581252608	45	4727
2026-01-21 11:56:47.51	146.12	55.70	-37.6	-39.3	16.1	0.00e+00	0	60	0	1586495488	45	4743
2026-01-21 11:56:48.52	145.93	56.07	-37.5	-39.2	16.1	0.00e+00	0	60	0	1592786944	45	4705
2026-01-21 11:56:49.53	145.74	56.45	-37.2	-38.9	16.5	0.00e+00	0	60	0	1598029824	45	4511
2026-01-21 11:56:50.53	145.54	56.82	-36.9	-38.6	16.8	0.00e+00	0	60	0	1604321280	45	4345
2026-01-21 11:56:51.54	145.34	57.20	-36.6	-38.1	17.2	0.00e+00	0	60	0	1609564160	45	4136
2026-01-21 11:56:52.55	145.13	57.59	-36.6	-38.1	17.2	0.00e+00	0	60	0	1615855616	45	4130
2026-01-21 11:56:53.56	144.91	57.97	-36.9	-38.5	16.9	0.00e+00	0	60	0	1621098496	45	4326
2026-01-21 11:56:54.57	144.69	58.36	-36.9	-38.6	16.8	0.00e+00	0	60	0	1627389952	45	4345
2026-01-21 11:56:55.58	144.46	58.75	-36.8	-38.4	17.0	0.00e+00	0	60	0	1632632832	45	4264
2026-01-21 11:56:56.59	144.23	59.15	-36.6	-38.1	17.3	0.00e+00	0	60	0	1637875712	45	4118
2026-01-21 11:56:57.60	143.98	59.54	-36.7	-38.2	17.1	0.00e+00	0	60	0	1644167168	45	4192
2026-01-21 11:56:58.61	143.73	59.94	-36.8	-38.4	17.0	0.00e+00	0	60	0	1649410048	45	4275
2026-01-21 11:56:59.62	143.47	60.33	-36.6	-38.1	17.3	0.00e+00	0	60	0	1655701504	45	4137
2026-01-21 11:57:00.63	143.21	60.74	-36.6	-38.1	17.3	0.00e+00	0	60	0	1660944384	45	4108
2026-01-21 11:57:01.64	142.93	61.14	-36.6	-38.1	17.3	0.00e+00	0	60	0	1666187264	45	4145
2026-01-21 11:57:02.65	142.65	61.54	-36.6	-38.1	17.3	0.00e+00	0	60	0	1672478720	45	4114
2026-01-21 11:57:03.66	142.35	61.95	-36.1	-37.5	17.9	0.00e+00	0	60	0	1677721600	44	4065
2026-01-21 11:57:04.67	142.05	62.36	-35.8	-37.2	18.0	0.00e+00	0	60	0	1684013056	43	4161
2026-01-21 11:57:05.68	141.74	62.77	-35.9	-37.3	17.8	0.00e+00	0	60	0	1689255936	43	4219
2026-01-21 11:57:06.68	141.41	63.17	-36.1	-37.6	17.5	0.00e+00	0	60	0	1694498816	43	4389
2026-01-21 11:57:07.69	141.08	63.59	-36.1	-37.6	17.5	0.00e+00	0	60	0	1700790272	43	4370
2026-01-21 11:57:08.70	140.73	64.00	-35.9	-37.4	17.7	0.00e+00	0	60	0	1706033152	43	4263
2026-01-21 11:57:09.71	140.36	64.42	-36.0	-37.5	17.6	0.00e+00	0	60	0	1712324608	43	4307
2026-01-21 11:57:10.72	139.99	64.83	-36.3	-37.8	17.3	0.00e+00	0	60	0	1717567488	43	4482
2026-01-21 11:57:11.73	139.60	65.25	-36.0	-37.6	17.5	0.00e+00	0	60	0	1723858944	43	4351
2026-01-21 11:57:12.74	139.19	65.67	-35.7	-37.2	17.9	0.00e+00	0	60	0	1729101824	43	4161
2026-01-21 11:57:13.75	138.77	66.09	-35.5	-36.9	18.2	0.00e+00	0	60	0	1734344704	43	4018
2026-01-21 11:57:14.76	138.34	66.51	-35.5	-36.9	18.2	0.00e+00	0	60	0	1740636160	43	4025
2026-01-21 11:57:15.77	137.88	66.93	-35.2	-36.6	18.5	0.00e+00	0	60	0	1745879040	42	4109
2026-01-21 11:57:16.78	137.41	67.36	-35.1	-36.5	18.5	0.00e+00	0	60	0	1752170496	42	4075
2026-01-21 11:57:17.79	136.91	67.78	-35.2	-36.6	18.5	0.00e+00	0	60	0	1757413376	42	4101
2026-01-21 11:57:18.80	136.40	68.21	-35.1	-36.4	18.6	0.00e+00	0	60	0	1762656256	42	4041
2026-01-21 11:57:19.81	135.86	68.63	-35.1	-36.5	18.5	0.00e+00	0	60	0	1768947712	42	4069
2026-01-21 11:57:20.82	135.30	69.06	-35.2	-36.6	18.4	0.00e+00	0	60	0	1774190592	42	4108
2026-01-21 11:57:21.83	134.71	69.48	-35.2	-36.5	18.5	0.00e+00	0	60	0	1780482048	42	4095
2026-01-21 11:57:22.84	134.10	69.90	-35.1	-36.5	18.6	0.00e+00	0	60	0	1785724928	42	4052
2026-01-21 11:57:23.85	133.46	70.33	-35.1	-36.5	18.6	0.00e+00	0	60	0	1790967808	42	4055
2026-01-21 11:57:24.86	132.79	70.75	-35.1	-36.4	18.6	0.00e+00	0	60	0	1797259264	42	4036
2026-01-21 11:57:25.87	132.08	71.17	-35.2	-36.5	18.5	0.00e+00	0	60	0	1802502144	42	4094
2026-01-21 11:57:26.88	131.34	71.60	-35.1	-36.5	18.5	0.00e+00	0	60	0	1808793600	42	4077
2026-01-21 11:57:27.89	130.57	72.02	-35.2	-36.6	18.4	0.00e+00	0	60	0	1814036480	42	4113
2026-01-21 11:57:28.90	129.75	72.43	-35.3	-36.7	18.3	0.00e+00	0	60	0	1820327936	42	4175
2026-01-21 11:57:29.91	128.90	72.85	-35.1	-36.5	18.5	0.00e+00	0	60	0	1825570816	42	4061
2026-01-21 11:57:30.92	128.00	73.26	-35.3	-36.7	18.3	0.00e+00	0	60	0	1831862272	42	4170
2026-01-21 11:57:31.93	127.05	73.68	-35.1	-36.5	18.5	0.00e+00	0	60	0	1837105152	42	4090
2026-01-21 11:57:32.94	126.05	74.08	-34.8	-36.1	18.8	0.00e+00	0	60	0	1842348032	41	4133
2026-01-21 11:57:33.95	124.99	74.49	-35.0	-36.4	18.6	0.00e+00	0	60	0	1848639488	41	4248
2026-01-21 11:57:34.96	123.87	74.89	-34.7	-36.0	18.9	0.00e+00	0	60	0	1853882368	41	4092
2026-01-21 11:57:35.97	122.70	75.29	-34.4	-35.7	19.3	0.00e+00	0	60	0	1860173824	40	4157
2026-01-21 11:57:36.98	121.45	75.68	-34.5	-35.9	19.1	0.00e+00	0	60	0	1865416704	40	4243
2026-01-21 11:57:37.99	120.14	76.06	-34.4	-35.7	19.2	0.00e+00	0	60	0	1870659584	40	4175
2026-01-21 11:57:39.00	118.74	76.44	-34.3	-35.5	19.3	0.00e+00	0	60	0	1876951040	40	4093
2026-01-21 11:57:40.01	117.27	76.81	-34.3	-35.5	19.3	0.00e+00	0	60	0	1882193920	40	4093
2026-01-21 11:57:41.01	115.72	77.17	-34.2	-35.5	19.3	0.00e+00	0	60	0	1888485376	40	4097
2026-01-21 11:57:42.02	114.07	77.52	-34.0	-35.3	19.6	0.00e+00	0	60	0	1893728256	39	4210
2026-01-21 11:57:43.03	112.31	77.87	-33.8	-35.1	19.8	0.00e+00	0	60	0	1898971136	39	4104
2026-01-21 11:57:44.04	110.46	78.20	-33.8	-35.0	19.9	0.00e+00	0	60	0	1905262592	39	4088
2026-01-21 11:57:45.05	108.49	78.52	-33.7	-34.9	20.0	0.00e+00	0	60	0	1910505472	39	4040
2026-01-21 11:57:46.06	106.42	78.83	-33.5	-34.7	20.2	0.00e+00	0	60	0	1916796928	39	3928
2026-01-21 11:57:47.07	104.22	79.12	-33.5	-34.7	20.2	0.00e+00	0	60	0	1922039808	39	3926
2026-01-21 11:57:48.08	101.91	79.40	-33.4	-34.6	20.3	0.00e+00	0	60	0	1928331264	38	4115
2026-01-21 11:57:49.09	99.47	79.65	-33.5	-34.8	20.1	0.00e+00	0	60	0	1933574144	38	4196
2026-01-21 11:57:50.10	96.91	79.89	-33.4	-34.7	20.2	0.00e+00	0	60	0	1938817024	38	4147
2026-01-21 11:57:51.11	94.23	80.11	-33.3	-34.5	20.4	0.00e+00	0	60	0	1945108480	38	4082
2026-01-21 11:57:52.12	91.43	80.31	-33.5	-34.7	20.1	0.00e+00	0	60	0	1950351360	38	4188
2026-01-21 11:57:53.13	88.53	80.48	-33.7	-34.9	19.9	0.00e+00	0	60	0	1956642816	38	4284
2026-01-21 11:57:54.14	85.52	80.63	-33.4	-34.5	20.4	0.00e+00	0	60	0	1961885696	38	4092
2026-01-21 11:57:55.14	82.45	80.75	-33.5	-34.7	20.2	0.00e+00	0	60	0	1967128576	38	4168
2026-01-21 11:57:56.15	79.27	80.85	-33.7	-34.9	20.0	0.00e+00	0	60	0	1973420032	38	4290
2026-01-21 11:57:57.16	76.04	80.92	-33.6	-34.8	20.0	0.00e+00	0	60	0	1978662912	38	4239
2026-01-21 11:57:58.16	72.80	80.95	-33.7	-34.9	20.0	0.00e+00	0	60	0	1984954368	38	4270
2026-01-21 11:57:59.17	69.52	80.96	-33.7	-35.0	19.9	0.00e+00	0	60	0	1990197248	38	4300
2026-01-21 11:58:00.18	66.23	80.94	-33.7	-35.0	19.8	0.00e+00	0	60	0	1995440128	38	4324
2026-01-21 11:58:01.18	63.01	80.89	-33.9	-35.2	19.7	0.00e+00	0	60	0	2001731584	38	4419
2026-01-21 11:58:02.19	59.80	80.82	-33.8	-35.1	19.8	0.00e+00	0	60	0	2006974464	38	4351
2026-01-21 11:58:03.19	56.68	80.71	-33.7	-35.0	19.9	0.00e+00	0	60	0	2013265920	38	4293
2026-01-21 11:58:04.20	53.61	80.58	-33.4	-34.6	20.3	0.00e+00	0	60	0	2018508800	38	4116
2026-01-21 11:58:05.21	50.64	80.42	-33.5	-34.7	20.2	0.00e+00	0	60	0	2023751680	38	4166
2026-01-21 11:58:06.21	47.80	80.24	-33.6	-34.9	20.1	0.00e+00	0	60	0	2030043136	38	4253
2026-01-21 11:58:07.21	45.08	80.04	-33.5	-34.7	20.2	0.00e+00	0	60	0	2035286016	38	4172
2026-01-21 11:58:08.22	42.44	79.81	-33.4	-34.6	20.2	0.00e+00	0	60	0	2041577472	38	4145
2026-01-21 11:58:09.23	39.93	79.56	-33.7	-34.9	20.0	0.00e+00	0	60	0	2046820352	38	4288
2026-01-21 11:58:10.23	37.56	79.30	-33.7	-35.0	19.9	0.00e+00	0	60	0	2052063232	38	4295
2026-01-21 11:58:11.24	35.29	79.02	-33.8	-35.0	19.9	0.00e+00	0	60	0	2058354688	38	4333
2026-01-21 11:58:12.25	33.14	78.72	-33.8	-35.1	19.8	0.00e+00	0	60	0	2063597568	38	4348
2026-01-21 11:58:13.25	31.12	78.41	-33.7	-34.9	20.0	0.00e+00	0	60	0	2068840448	38	4262
2026-01-21 11:58:14.26	29.19	78.09	-33.7	-34.9	20.1	0.00e+00	0	60	0	2075131904	38	4269
2026-01-21 11:58:15.26	27.39	77.76	-33.9	-35.2	19.8	0.00e+00	0	60	0	2080374784	38	4398
2026-01-21 11:58:16.27	25.67	77.41	-34.1	-35.3	19.6	0.00e+00	0	60	0	2086666240	38	4485
2026-01-21 11:58:17.27	24.07	77.06	-34.1	-35.3	19.6	0.00e+00	0	60	0	2091909120	38	4476
2026-01-21 11:58:18.28	22.53	76.69	-34.1	-35.3	19.6	0.00e+00	0	60	0	2098200576	38	4487
2026-01-21 11:58:19.28	21.10	76.32	-34.2	-35.5	19.5	0.00e+00	0	60	0	2103443456	38	4546
2026-01-21 11:58:20.29	19.73	75.94	-34.1	-35.4	19.7	0.00e+00	0	60	0	2108686336	38	4506
2026-01-21 11:58:21.29	18.45	75.56	-34.3	-35.6	19.5	0.00e+00	0	60	0	2114977792	39	4345
2026-01-21 11:58:22.30	17.23	75.17	-34.5	-35.8	19.2	0.00e+00	0	60	0	2120220672	39	4491
2026-01-21 11:58:23.31	16.07	74.77	-34.7	-36.0	19.0	0.00e+00	0	60	0	2125463552	40	4313
2026-01-21 11:58:24.31	14.99	74.38	-34.7	-36.0	19.1	0.00e+00	0	60	0	2131755008	40	4297
2026-01-21 11:58:25.32	13.95	73.97	-34.9	-36.2	18.8	0.00e+00	0	60	0	2136997888	40	4426
2026-01-21 11:58:26.33	12.96	73.56	-34.9	-36.3	18.7	0.00e+00	0	60	0	2143289344	40	4454
2026-01-21 11:58:27.34	12.03	73.15	-34.8	-36.2	18.8	0.00e+00	0	60	0	2148532224	40	4400
2026-01-21 11:58:28.35	11.14	72.74	-35.1	-36.5	18.5	0.00e+00	0	60	0	2153775104	40	4553
2026-01-21 11:58:29.36	10.30	72.32	-35.0	-36.4	18.6	0.00e+00	0	60	0	2160066560	40	4496
2026-01-21 11:58:30.36	9.50	71.91	-34.8	-36.2	18.8	0.00e+00	0	60	0	2165309440	40	4424
2026-01-21 11:58:31.37	8.74	71.49	-35.0	-36.3	18.7	0.00e+00	0	60	0	2171600896	40	4481
2026-01-21 11:58:32.37	8.02	71.07	-35.1	-36.5	18.5	0.00e+00	0	60	0	2176843776	40	4590
2026-01-21 11:58:33.38	7.32	70.65	-35.3	-36.8	18.3	0.00e+00	0	60	0	2183135232	41	4448
2026-01-21 11:58:34.38	6.67	70.23	-35.3	-36.7	18.4	0.00e+00	0	60	0	2188378112	41	4397
2026-01-21 11:58:35.39	6.04	69.81	-35.5	-36.9	18.2	0.00e+00	0	60	0	2193620992	41	4506
2026-01-21 11:58:36.39	5.44	69.39	-35.3	-36.8	18.3	0.00e+00	0	60	0	2199912448	41	4452
2026-01-21 11:58:37.40	4.86	68.96	-35.1	-36.4	18.6	0.00e+00	0	60	0	2205155328	41	4288
2026-01-21 11:58:38.41	4.30	68.54	-35.2	-36.5	18.6	0.00e+00	0	60	0	2210398208	41	4325
2026-01-21 11:58:39.41	3.78	68.12	-35.5	-36.9	18.2	0.00e+00	0	60	0	2216689664	41	4539
2026-01-21 11:58:40.42	3.27	67.70	-35.3	-36.8	18.3	0.00e+00	0	60	0	2221932544	41	4447
2026-01-21 11:58:41.42	2.78	67.28	-35.0	-36.4	18.7	0.00e+00	0	60	0	2228224000	41	4256
2026-01-21 11:58:42.43	2.31	66.86	-35.1	-36.4	18.7	0.00e+00	0	60	0	2233466880	40	4520
2026-01-21 11:58:43.43	1.87	66.44	-35.2	-36.6	18.6	0.00e+00	0	60	0	2238709760	41	4362
2026-01-21 11:58:44.44	1.43	66.02	-35.2	-36.6	18.6	0.00e+00	0	60	0	2245001216	41	4343
2026-01-21 11:58:45.45	1.02	65.60	-35.4	-36.7	18.4	0.00e+00	0	60	0	2250244096	41	4428
2026-01-21 11:58:46.45	0.62	65.18	-35.5	-36.9	18.2	0.00e+00	0	60	0	2256535552	41	4540
2026-01-21 11:58:47.46	0.23	64.77	-35.7	-37.1	18.1	0.00e+00	0	60	0	2261778432	41	4617
2026-01-21 11:58:48.47	359.86	64.35	-35.4	-36.9	18.2	1.10e-06	0	61	0	2268069888	41	4508
2026-01-21 11:58:49.47	359.51	63.94	-35.4	-36.8	18.3	0.00e+00	0	60	0	2273312768	41	4459
2026-01-21 11:58:50.48	359.16	63.53	-35.4	-36.8	18.4	0.00e+00	0	61	0	2278555648	41	4451
2026-01-21 11:58:51.49	358.83	63.12	-35.5	-36.9	18.3	0.00e+00	0	60	0	2284847104	41	4514
2026-01-21 11:58:52.49	358.51	62.71	-35.5	-36.9	18.3	0.00e+00	0	60	0	2290089984	41	4538
2026-01-21 11:58:53.50	358.19	62.30	-35.5	-36.9	18.3	0.00e+00	0	60	0	2295332864	41	4509
2026-01-21 11:58:54.51	357.89	61.90	-35.5	-36.9	18.3	0.00e+00	0	60	0	2301624320	41	4524
2026-01-21 11:58:55.52	357.60	61.49	-35.5	-36.9	18.3	0.00e+00	0	60	0	2306867200	41	4519
2026-01-21 11:58:56.53	357.32	61.09	-35.0	-36.9	18.1	1.60e-05	0	60	0	2313158656	41	4536
2026-01-21 11:58:57.54	357.04	60.69	-35.5	-36.8	18.4	0.00e+00	0	60	0	2318401536	41	4478
2026-01-21 11:58:58.55	356.78	60.29	-35.7	-37.0	18.2	1.10e-06	0	60	0	2323644416	41	4595
2026-01-21 11:58:59.56	356.52	59.89	-36.0	-37.5	17.7	0.00e+00	0	60	0	2329935872	42	4563
2026-01-21 11:59:00.57	356.28	59.50	-36.2	-37.7	17.5	1.10e-06	0	61	0	2335178752	43	4436
2026-01-21 11:59:01.58	356.03	59.10	-36.2	-37.8	17.4	0.00e+00	0	60	0	2341470208	43	4452
2026-01-21 11:59:02.59	355.80	58.71	-36.3	-37.9	16.8	1.37e-05	0	60	0	2346713088	42	4781
2026-01-21 11:59:03.60	355.57	58.32	-36.5	-38.1	17.1	0.00e+00	0	61	0	2353004544	43	4611
2026-01-21 11:59:04.61	355.35	57.94	-36.6	-38.2	17.0	0.00e+00	0	60	0	2358247424	43	4684
2026-01-21 11:59:05.62	355.14	57.55	-36.7	-38.2	17.0	0.00e+00	0	60	0	2364538880	43	4694
2026-01-21 11:59:06.62	354.93	57.17	-36.7	-38.2	17.0	0.00e+00	0	60	0	2369781760	43	4687
2026-01-21 11:59:07.63	354.73	56.79	-36.9	-38.4	16.9	0.00e+00	0	60	0	2375024640	44	4529
2026-01-21 11:59:08.64	354.53	56.42	-37.2	-38.8	16.6	0.00e+00	0	60	0	2381316096	44	4720
2026-01-21 11:59:09.65	354.34	56.04	-37.2	-38.8	16.6	0.00e+00	0	61	0	2386558976	44	4723
2026-01-21 11:59:10.66	354.16	55.67	-37.3	-38.9	16.5	0.00e+00	0	60	0	2391801856	45	4531
2026-01-21 11:59:11.67	353.98	55.30	-37.4	-39.0	16.4	6.80e-06	0	60	0	2398093312	45	4597
2026-01-21 11:59:12.68	353.80	54.93	-37.3	-39.0	16.4	0.00e+00	0	60	0	2403336192	45	4571
2026-01-21 11:59:13.69	353.63	54.56	-37.1	-38.7	16.6	0.00e+00	0	60	0	2409627648	45	4440
2026-01-21 11:59:14.70	353.46	54.20	-36.8	-38.4	16.9	0.00e+00	0	60	0	2414870528	45	4274
2026-01-21 11:59:15.71	353.30	53.84	-36.8	-38.3	17.0	0.00e+00	0	60	0	2421161984	45	4240
2026-01-21 11:59:16.72	353.14	53.48	-36.8	-38.3	17.0	0.00e+00	0	60	0	2426404864	45	4231
2026-01-21 11:59:17.73	352.98	53.12	-36.8	-38.3	17.1	0.00e+00	0	60	0	2431647744	45	4238
2026-01-21 11:59:18.74	352.83	52.76	-36.7	-38.2	17.1	0.00e+00	0	60	0	2437939200	45	4188
2026-01-21 11:59:19.75	352.69	52.41	-36.7	-38.2	17.1	0.00e+00	0	60	0	2443182080	45	4183
2026-01-21 11:59:20.76	352.54	52.06	-36.7	-38.3	17.1	0.00e+00	0	60	0	2449473536	45	4226
2026-01-21 11:59:21.77	352.40	51.71	-36.9	-38.4	17.2	0.00e+00	0	60	0	2454716416	45	4245
2026-01-21 11:59:22.78	352.26	51.37	-36.7	-38.1	17.5	0.00e+00	0	60	0	2461007872	45	4123
2026-01-21 11:59:23.79	352.13	51.02	-36.4	-37.8	17.7	0.00e+00	0	60	0	2466250752	44	4229
2026-01-21 11:59:24.80	352.00	50.68	-36.3	-37.7	17.9	0.00e+00	0	60	0	2471493632	44	4169
2026-01-21 11:59:25.81	351.87	50.34	-36.4	-37.8	17.8	0.00e+00	0	61	0	2477785088	44	4202
2026-01-21 11:59:26.82	351.75	50.01	-36.4	-37.9	17.7	0.00e+00	0	61	0	2483027968	44	4249
2026-01-21 11:59:27.83	351.62	49.67	-36.5	-37.9	17.6	0.00e+00	0	60	0	2489319424	44	4279
2026-01-21 11:59:28.84	351.51	49.34	-36.5	-37.9	17.7	0.00e+00	0	60	0	2494562304	44	4261
2026-01-21 11:59:29.85	351.39	49.01	-36.4	-37.8	17.7	0.00e+00	0	60	0	2499805184	44	4221
2026-01-21 11:59:30.86	351.27	48.69	-36.4	-37.7	17.8	0.00e+00	0	61	0	2506096640	44	4182
2026-01-21 11:59:31.87	351.16	48.36	-36.2	-37.6	18.0	0.00e+00	0	60	0	2511339520	44	4112
2026-01-21 11:59:32.88	351.05	48.04	-36.2	-37.6	18.0	0.00e+00	0	60	0	2517630976	44	4119
2026-01-21 11:59:33.89	350.95	47.72	-36.3	-37.6	18.0	0.00e+00	0	61	0	2522873856	44	4127
2026-01-21 11:59:34.90	350.84	47.40	-36.1	-37.5	18.1	0.00e+00	0	60	0	2528116736	44	4055
2026-01-21 11:59:35.91	350.74	47.09	-36.0	-37.4	18.2	0.00e+00	0	60	0	2534408192	44	4016
2026-01-21 11:59:36.92	350.64	46.77	-36.1	-37.4	18.1	0.00e+00	0	60	0	2539651072	44	4047
2026-01-21 11:59:37.93	350.54	46.46	-36.2	-37.6	18.0	0.00e+00	0	60	0	2545942528	44	4100
2026-01-21 11:59:38.94	350.44	46.15	-36.2	-37.6	17.9	0.00e+00	0	61	0	2551185408	44	4123
2026-01-21 11:59:39.95	350.35	45.85	-36.3	-37.7	17.8	0.00e+00	0	60	0	2557476864	44	4174
2026-01-21 11:59:40.96	350.26	45.54	-36.4	-37.7	17.8	0.00e+00	0	60	0	2562719744	44	4188
2026-01-21 11:59:41.97	350.17	45.24	-36.3	-37.7	17.8	0.00e+00	0	60	0	2569011200	44	4165
2026-01-21 11:59:42.98	350.08	44.94	-36.4	-37.8	17.8	0.00e+00	0	60	0	2574254080	44	4201
2026-01-21 11:59:43.99	349.99	44.64	-36.4	-37.8	17.7	0.00e+00	0	60	0	2579496960	44	4242
2026-01-21 11:59:45.00	349.90	44.35	-36.5	-37.9	17.6	0.00e+00	0	61	0	2585788416	44	4268
2026-01-21 11:59:46.01	349.82	44.05	-36.5	-37.9	17.6	0.00e+00	0	60	0	2591031296	44	4287
2026-01-21 11:59:47.03	349.74	43.76	-36.5	-37.9	17.6	0.00e+00	0	60	0	2597322752	44	4281
2026-01-21 11:59:48.04	349.66	43.47	-36.4	-37.8	17.7	0.00e+00	0	60	0	2602565632	44	4239
2026-01-21 11:59:49.05	349.58	43.18	-36.3	-37.7	17.8	0.00e+00	0	60	0	2607808512	44	4177
2026-01-21 11:59:50.06	349.50	42.90	-36.2	-37.5	17.9	0.00e+00	0	60	0	2614099968	44	4092
2026-01-21 11:59:51.07	349.42	42.62	-36.2	-37.5	17.9	0.00e+00	0	60	0	2619342848	44	4095
2026-01-21 11:59:52.08	349.35	42.34	-36.2	-37.5	18.0	0.00e+00	0	60	0	2625634304	44	4074
2026-01-21 11:59:53.09	349.27	42.06	-36.2	-37.6	18.0	0.00e+00	0	60	0	2630877184	44	4109
2026-01-21 11:59:54.10	349.20	41.78	-36.2	-37.6	17.9	0.00e+00	0	60	0	2636120064	44	4132
2026-01-21 11:59:55.11	349.13	41.51	-36.3	-37.6	17.9	0.00e+00	0	60	0	2642411520	44	4139
2026-01-21 11:59:56.12	349.06	41.23	-36.1	-37.5	18.0	0.00e+00	0	60	0	2647654400	44	4082
2026-01-21 11:59:57.13	348.99	40.96	-36.1	-37.5	18.1	0.00e+00	0	60	0	2653945856	44	4052
2026-01-21 11:59:58.14	348.92	40.69	-35.8	-37.1	18.2	0.00e+00	0	61	0	2659188736	43	4121
2026-01-21 11:59:59.15	348.86	40.43	-35.7	-37.0	18.3	0.00e+00	0	60	0	2665480192	43	4069
2026-01-21 12:00:00.16	348.79	40.16	-35.7	-37.0	18.3	0.00e+00	0	60	0	2670723072	43	4094
2026-01-21 12:00:01.17	348.73	39.90	-35.7	-37.0	18.3	0.00e+00	0	61	0	2677014528	43	4093
2026-01-21 12:00:02.18	348.67	39.64	-35.6	-36.9	18.4	0.00e+00	0	61	0	2682257408	43	4028
2026-01-21 12:00:03.19	348.60	39.38	-35.5	-36.8	18.5	0.00e+00	0	61	0	2687500288	43	3981
2026-01-21 12:00:04.20	348.54	39.12	-35.5	-36.8	18.5	0.00e+00	0	60	0	2693791744	43	3992
2026-01-21 12:00:05.21	348.48	38.87	-35.5	-36.8	18.5	0.00e+00	0	60	0	2699034624	43	4000
2026-01-21 12:00:06.22	348.42	38.61	-35.5	-36.8	18.5	0.00e+00	0	61	0	2705326080	42	4212
2026-01-21 12:00:07.23	348.37	38.36	-35.4	-36.7	18.6	0.00e+00	0	60	0	2710568960	42	4168
2026-01-21 12:00:08.24	348.31	38.11	-35.4	-36.7	18.6	0.00e+00	0	61	0	2715811840	42	4177
2026-01-21 12:00:09.25	348.25	37.86	-35.5	-36.8	18.5	0.00e+00	0	60	0	2722103296	42	4196
2026-01-21 12:00:10.26	348.20	37.62	-35.3	-36.5	18.7	0.00e+00	0	60	0	2727346176	42	4084
2026-01-21 12:00:11.27	348.14	37.37	-35.3	-36.6	18.7	0.00e+00	0	61	0	2733637632	42	4108
2026-01-21 12:00:12.28	348.09	37.13	-35.4	-36.6	18.6	0.00e+00	0	60	0	2738880512	42	4144
2026-01-21 12:00:13.29	348.04	36.89	-35.5	-36.8	18.5	0.00e+00	0	61	0	2744123392	42	4226
2026-01-21 12:00:14.30	347.99	36.65	-35.6	-36.9	18.4	0.00e+00	0	60	0	2750414848	42	4247
2026-01-21 12:00:15.31	347.94	36.41	-35.8	-37.1	18.2	0.00e+00	0	61	0	2755657728	42	4384
2026-01-21 12:00:16.32	347.89	36.18	-35.9	-37.3	18.0	0.00e+00	0	60	0	2761949184	42	4453
2026-01-21 12:00:17.33	347.84	35.94	-36.0	-37.4	17.9	0.00e+00	0	61	0	2767192064	42	4536
2026-01-21 12:00:18.34	347.79	35.71	-36.0	-37.4	17.9	0.00e+00	0	60	0	2773483520	42	4502
2026-01-21 12:00:19.35	347.74	35.48	-36.0	-37.4	17.8	0.00e+00	0	60	0	2778726400	42	4519
2026-01-21 12:00:20.36	347.69	35.25	-36.0	-37.4	17.8	0.00e+00	0	60	0	2783969280	42	4532
2026-01-21 12:00:21.37	347.65	35.02	-36.0	-37.4	17.8	0.00e+00	0	61	0	2790260736	42	4517
2026-01-21 12:00:22.38	347.60	34.80	-36.0	-37.4	17.8	0.00e+00	0	61	0	2795503616	42	4528
2026-01-21 12:00:23.39	347.56	34.57	-36.0	-37.3	17.9	0.00e+00	0	60	0	2801795072	42	4478
2026-01-21 12:00:24.39	347.51	34.35	-35.9	-37.2	18.0	0.00e+00	0	61	0	2807037952	42	4417
2026-01-21 12:00:25.40	347.47	34.13	-35.8	-37.1	18.1	0.00e+00	0	61	0	2812280832	42	4383
2026-01-21 12:00:26.41	347.43	33.91	-35.8	-37.2	18.1	0.00e+00	0	60	0	2818572288	42	4397
2026-01-21 12:00:27.42	347.38	33.70	-36.0	-37.3	17.9	0.00e+00	0	61	0	2823815168	42	4483
2026-01-21 12:00:28.43	347.34	33.48	-36.0	-37.3	17.9	0.00e+00	0	60	0	2830106624	42	4485
2026-01-21 12:00:29.44	347.30	33.26	-36.0	-37.4	17.8	0.00e+00	0	60	0	2835349504	42	4519
2026-01-21 12:00:30.45	347.26	33.05	-36.1	-37.5	17.7	0.00e+00	0	60	0	2840592384	42	4592
2026-01-21 12:00:31.46	347.22	32.84	-36.2	-37.6	17.6	0.00e+00	0	60	0	2846883840	42	4638
2026-01-21 12:00:32.47	347.18	32.63	-36.2	-37.6	17.6	0.00e+00	0	61	0	2852126720	43	4379
2026-01-21 12:00:33.48	347.14	32.42	-36.2	-37.6	17.6	0.00e+00	0	60	0	2858418176	43	4390
2026-01-21 12:00:34.49	347.10	32.21	-36.2	-37.6	17.6	0.00e+00	0	61	0	2863661056	43	4378
2026-01-21 12:00:35.50	347.06	32.01	-36.2	-37.7	17.5	0.00e+00	0	60	0	2869952512	43	4397
2026-01-21 12:00:36.51	347.03	31.80	-36.2	-37.6	17.6	0.00e+00	0	60	0	2875195392	43	4366
2026-01-21 12:00:37.52	346.99	31.60	-36.2	-37.6	17.5	0.00e+00	0	61	0	2881486848	43	4389
2026-01-21 12:00:38.53	346.95	31.40	-36.2	-37.5	17.6	0.00e+00	0	60	0	2886729728	43	4338
2026-01-21 12:00:39.54	346.92	31.20	-36.2	-37.6	17.6	0.00e+00	0	61	0	2891972608	43	4348
2026-01-21 12:00:40.55	346.88	31.00	-36.2	-37.6	17.5	0.00e+00	0	60	0	2898264064	43	4383
2026-01-21 12:00:41.56	346.85	30.80	-36.2	-37.6	17.6	0.00e+00	0	60	0	2903506944	43	4352
2026-01-21 12:00:42.57	346.81	30.60	-36.3	-37.7	17.5	0.00e+00	0	60	0	2909798400	43	4406
2026-01-21 12:00:43.58	346.78	30.41	-36.3	-37.7	17.4	0.00e+00	0	61	0	2915041280	43	4420
2026-01-21 12:00:44.59	346.75	30.21	-36.3	-37.7	17.4	0.00e+00	0	60	0	2920284160	43	4438
2026-01-21 12:00:45.60	346.71	30.02	-36.3	-37.7	17.4	0.00e+00	0	61	0	2926575616	43	4411
2026-01-21 12:00:46.61	346.68	29.83	-36.3	-37.8	17.4	0.00e+00	0	60	0	2931818496	43	4442
2026-01-21 12:00:47.62	346.65	29.64	-36.3	-37.8	17.3	0.00e+00	0	61	0	2938109952	43	4460
2026-01-21 12:00:48.63	346.62	29.45	-36.4	-37.8	17.2	0.00e+00	0	61	0	2943352832	43	4491
2026-01-21 12:00:49.64	346.58	29.26	-36.3	-37.8	17.3	0.00e+00	0	61	0	2948595712	43	4466
2026-01-21 12:00:50.65	346.55	29.08	-36.3	-37.7	17.3	0.00e+00	0	60	0	2954887168	43	4441
2026-01-21 12:00:51.66	346.52	28.89	-36.3	-37.8	17.3	0.00e+00	0	61	0	2960130048	43	4466
2026-01-21 12:00:52.67	346.49	28.71	-36.4	-37.8	17.2	0.00e+00	0	61	0	2966421504	43	4488
2026-01-21 12:00:53.68	346.46	28.52	-36.2	-37.6	17.4	0.00e+00	0	60	0	2971664384	43	4374
2026-01-21 12:00:54.69	346.43	28.34	-36.1	-37.5	17.5	0.00e+00	0	60	0	2977955840	43	4336
2026-01-21 12:00:55.71	346.40	28.16	-36.1	-37.5	17.5	0.00e+00	0	60	0	2983198720	43	4316
2026-01-21 12:00:56.71	346.38	27.98	-36.0	-37.4	17.6	0.00e+00	0	60	0	2989490176	43	4248
2026-01-21 12:00:57.72	346.35	27.81	-35.9	-37.3	17.7	0.00e+00	0	61	0	2994733056	43	4197
2026-01-21 12:00:58.73	346.32	27.63	-35.9	-37.3	17.6	0.00e+00	0	61	0	2999975936	43	4217
2026-01-21 12:00:59.75	346.29	27.45	-35.9	-37.3	17.6	0.00e+00	0	61	0	3006267392	43	4228
2026-01-21 12:01:00.75	346.26	27.28	-35.9	-37.2	17.7	0.00e+00	0	60	0	3011510272	43	4188
2026-01-21 12:01:01.77	346.24	27.10	-35.8	-37.2	17.7	0.00e+00	0	61	0	3017801728	43	4170
2026-01-21 12:01:02.78	346.21	26.93	-35.8	-37.2	17.7	0.00e+00	0	61	0	3023044608	43	4179
2026-01-21 12:01:03.79	346.18	26.76	-35.9	-37.2	17.6	0.00e+00	0	61	0	3028287488	43	4193
2026-01-21 12:01:04.79	346.16	26.59	-35.9	-37.4	17.5	0.00e+00	0	61	0	3034578944	43	4247
2026-01-21 12:01:05.80	346.13	26.42	-36.0	-37.4	17.4	0.00e+00	0	61	0	3039821824	43	4270
2026-01-21 12:01:06.81	346.11	26.25	-36.0	-37.4	17.4	0.00e+00	0	61	0	3045064704	43	4271
2026-01-21 12:01:07.82	346.08	26.09	-36.0	-37.5	17.3	0.00e+00	0	60	0	3051356160	43	4306
2026-01-21 12:01:08.83	346.06	25.92	-36.1	-37.6	17.2	0.00e+00	0	60	0	3056599040	43	4343
2026-01-21 12:01:09.84	346.03	25.76	-36.1	-37.6	17.1	0.00e+00	0	60	0	3062890496	43	4385
2026-01-21 12:01:10.85	346.01	25.59	-36.2	-37.7	17.0	0.00e+00	0	60	0	3068133376	43	4404
2026-01-21 12:01:11.86	345.99	25.43	-36.1	-37.6	17.0	0.00e+00	0	60	0	3074424832	43	4391
2026-01-21 12:01:12.87	345.96	25.27	-36.2	-37.7	16.9	0.00e+00	0	61	0	3079667712	43	4429
2026-01-21 12:01:13.87	345.94	25.11	-36.3	-37.8	16.8	0.00e+00	0	61	0	3085959168	43	4473
2026-01-21 12:01:14.89	345.92	24.94	-36.3	-37.8	16.8	0.00e+00	0	61	0	3091202048	43	4462
2026-01-21 12:01:15.90	345.89	24.79	-36.3	-37.8	16.8	0.00e+00	0	61	0	3096444928	43	4486
2026-01-21 12:01:16.90	345.87	24.63	-36.2	-37.7	16.8	0.00e+00	0	61	0	3102736384	43	4420
2026-01-21 12:01:17.91	345.85	24.47	-36.3	-37.8	16.7	0.00e+00	0	61	0	3107979264	43	4462
2026-01-21 12:01:18.93	345.83	24.31	-36.3	-37.9	16.6	0.00e+00	0	61	0	3114270720	43	4507
2026-01-21 12:01:19.94	345.80	24.16	-36.4	-37.9	16.6	0.00e+00	0	61	0	3119513600	43	4542
2026-01-21 12:01:20.95	345.78	24.00	-36.3	-37.9	16.6	0.00e+00	0	61	0	3124756480	43	4496
2026-01-21 12:01:21.96	345.76	23.85	-36.3	-37.9	16.5	0.00e+00	0	61	0	3131047936	43	4515
2026-01-21 12:01:22.97	345.74	23.70	-36.5	-38.1	16.2	0.00e+00	0	61	0	3136290816	43	4621
2026-01-21 12:01:23.98	345.72	23.55	-36.5	-38.0	16.2	0.00e+00	0	60	0	3142582272	43	4594
2026-01-21 12:01:24.99	345.70	23.40	-36.2	-37.7	16.4	0.00e+00	0	60	0	3147825152	43	4429
2026-01-21 12:01:26.00	345.68	23.25	-36.2	-37.8	16.2	0.00e+00	0	60	0	3153068032	43	4466
2026-01-21 12:01:27.01	345.66	23.10	-36.5	-38.2	15.7	0.00e+00	0	61	0	3159359488	43	4653
2026-01-21 12:01:28.02	345.64	22.95	-36.7	-38.4	15.4	0.00e+00	0	61	0	3164602368	43	4799
2026-01-21 12:01:29.03	345.62	22.80	-36.6	-38.3	15.4	0.00e+00	0	61	0	3170893824	43	4721
2026-01-21 12:01:30.04	345.60	22.65	-36.4	-38.1	15.6	0.00e+00	0	61	0	3176136704	43	4637
2026-01-21 12:01:31.05	345.58	22.51	-36.5	-38.2	15.4	0.00e+00	0	60	0	3182428160	43	4677
2026-01-21 12:01:32.06	345.56	22.36	-36.4	-38.1	15.3	0.00e+00	0	61	0	3187671040	43	4651
2026-01-21 12:01:33.07	345.54	22.22	-36.3	-38.0	15.3	0.00e+00	0	60	0	3193962496	43	4579
2026-01-21 12:01:34.08	345.53	22.08	-36.2	-37.9	15.3	0.00e+00	0	61	0	3199205376	43	4534
2026-01-21 12:01:35.09	345.51	21.93	-36.3	-38.1	15.0	0.00e+00	0	61	0	3204448256	43	4604
2026-01-21 12:01:36.10	345.49	21.79	-36.6	-38.5	14.5	0.00e+00	0	61	0	3210739712	43	4829
2026-01-21 12:01:37.11	345.47	21.65	-37.3	-39.4	13.7	4.50e-06	0	61	0	3215982592	45	4781
2026-01-21 12:01:38.12	345.45	21.51	-38.0	-40.4	12.5	1.13e-04	0	61	0	3222274048	46	5068
2026-01-21 12:01:39.13	345.44	21.37	-38.7	-41.6	11.2	1.12e-03	0	61	0	3227516928	47	5472
2026-01-21 12:01:40.14	345.42	21.23	-39.5	-43.1	9.5	7.95e-03	0	60	0	3232759808	49	5816
2026-01-21 12:01:41.15	345.40	21.10	-40.1	-44.5	7.9	6.45e-02	0	61	0	3239051264	50	6435
2026-01-21 12:01:42.16	345.38	20.96	-40.6	-46.1	6.3	1.91e-01	0	61	0	3244294144	51	7334
2026-01-21 12:01:43.17	345.37	20.82	-40.9	-47.7	5.1	7.26e-01	0	61	0	3247439872	52	8282
2026-01-21 12:01:44.17	345.35	20.69	-41.1	-49.2	4.3	8.20e-01	0	61	0	3248488448	52	9865
2026-01-21 12:01:45.18	345.34	20.55	-41.3	-50.7	3.8	8.43e-01	0	61	104	3248488448	53	11066
2026-01-21 12:01:46.19	345.32	20.42	-41.3	-51.8	3.8	8.45e-01	0	61	104	3248488448	53	12522
2026-01-21 12:01:47.20	345.30	20.28	-41.4	-52.3	3.8	8.45e-01	0	61	104	3248488448	53	13303
2026-01-21 12:01:48.21	345.29	20.15	-41.4	-53.0	3.8	8.46e-01	0	61	104	3248488448	53	14385
2026-01-21 12:01:49.22	345.27	20.02	-41.3	-52.4	3.8	8.45e-01	0	61	104	3248488448	53	13466
2026-01-21 12:01:50.23	345.26	19.89	-41.1	-52.2	3.8	8.46e-01	0	61	104	3248488448	53	13115
2026-01-21 12:01:51.24	345.24	19.76	-41.4	-52.6	3.8	8.45e-01	0	61	104	3248488448	53	13786
2026-01-21 12:01:52.25	345.23	19.63	-41.3	-52.5	3.8	8.45e-01	0	61	104	3248488448	53	13640
2026-01-21 12:01:53.26	345.21	19.50	-41.3	-52.5	3.8	8.46e-01	0	61	104	3248488448	53	13684
2026-01-21 12:01:54.26	345.20	19.37	-41.2	-52.5	3.8	8.46e-01	0	61	104	3248488448	53	13698
2026-01-21 12:01:55.27	345.18	19.24	-41.0	-52.5	3.8	8.45e-01	0	61	104	3248488448	53	13692
2026-01-21 12:01:56.28	345.17	19.12	-41.1	-52.6	3.8	8.46e-01	0	61	104	3248488448	53	13790
2026-01-21 12:01:57.29	345.15	18.99	-41.1	-52.6	3.8	8.45e-01	0	61	104	3248488448	53	13880
2026-01-21 12:01:58.30	345.14	18.86	-41.1	-52.6	3.8	8.45e-01	0	61	104	3248488448	53	13871
2026-01-21 12:01:59.31	345.12	18.74	-41.4	-52.9	3.8	8.45e-01	0	61	104	3248488448	53	14363
2026-01-21 12:02:00.32	345.11	18.61	-41.0	-52.6	3.8	8.48e-01	0	61	104	3248488448	53	13785
2026-01-21 12:02:01.33	345.10	18.49	-41.1	-52.7	3.8	8.45e-01	0	61	104	3248488448	53	13952
2026-01-21 12:02:02.33	345.08	18.37	-41.2	-52.7	3.8	8.46e-01	0	61	104	3248488448	53	14030
2026-01-21 12:02:03.34	345.07	18.24	-41.1	-52.7	3.8	8.46e-01	0	61	104	3248488448	53	14039
2026-01-21 12:02:04.35	345.06	18.12	-41.0	-52.6	3.8	8.46e-01	0	61	104	3248488448	53	13785
2026-01-21 12:02:05.36	345.04	18.00	-41.2	-52.8	3.8	8.47e-01	0	61	104	3248488448	53	14088
2026-01-21 12:02:06.37	345.03	17.88	-41.2	-52.8	3.8	8.45e-01	0	61	104	3248488448	53	14107
2026-01-21 12:02:07.39	345.02	17.76	-41.0	-52.6	3.8	8.47e-01	0	61	104	3248488448	53	13801
2026-01-21 12:02:08.39	345.00	17.64	-41.2	-52.7	3.8	8.47e-01	0	61	104	3248488448	53	13997
2026-01-21 12:02:09.40	344.99	17.52	-41.2	-52.8	3.8	8.46e-01	0	61	104	3248488448	53	14089
2026-01-21 12:02:10.41	344.98	17.40	-41.2	-52.7	3.8	8.46e-01	0	61	104	3248488448	53	14003
2026-01-21 12:02:11.42	344.97	17.28	-41.1	-52.6	3.8	8.45e-01	0	61	104	3248488448	53	13864
2026-01-21 12:02:12.43	344.95	17.16	-41.2	-52.8	3.8	8.45e-01	0	61	104	3248488448	53	14096
2026-01-21 12:02:13.44	344.94	17.05	-41.1	-52.7	3.8	8.46e-01	0	61	104	3248488448	53	13893
2026-01-21 12:02:14.45	344.93	16.93	-41.0	-52.6	3.8	8.46e-01	0	61	104	3248488448	53	13834
2026-01-21 12:02:15.46	344.92	16.82	-41.2	-52.7	3.8	8.46e-01	0	61	104	3248488448	53	14021
2026-01-21 12:02:16.47	344.91	16.70	-41.1	-52.6	3.8	8.45e-01	0	61	104	3248488448	53	13883
2026-01-21 12:02:17.48	344.89	16.59	-41.0	-52.6	3.8	8.48e-01	0	61	104	3248488448	53	13769
2026-01-21 12:02:18.49	344.88	16.47	-41.0	-52.5	3.8	8.46e-01	0	61	104	3248488448	53	13690
2026-01-21 12:02:19.50	344.87	16.36	-41.1	-52.7	3.8	8.45e-01	0	61	104	3248488448	53	13964
