passes_logs/2026/01/21/R2.0S_Moscow/R2.0S_Moscow__20260121_232344_NOAA_20_JPSS-1_rec.log

#Pass ID: 20260121_232344_NOAA 20 (JPSS-1)
#Satellite: NOAA 20 (JPSS-1)
#Configuration: NOAA 20
#almurnet v.1.7.20251203
#Start time: 2026-01-21 23:23:44

#Version: 2.2.20231116
#Station: R2.0S_Moscow
#Location: 37.707566 lon 55.798166 lat
#TLE: 1 43013U 17073A   26021.46221703  .00000173  00000+0  10299-3 0  9999
#TLE: 2 43013  98.7644 322.3335 0001238  29.7597 330.3649 14.19538314423652

#Time	Az	El	Level	Level2	SNR	BER	BlckErr	Temp	State	Recorded	gain1	gain2
2026-01-21 23:23:44.40	17.46	2.00	-42.2	-56.9	3.8	1.49e+00	0	49	0	0	56	18971
2026-01-21 23:23:45.40	17.48	2.07	-42.0	-56.7	3.8	1.49e+00	0	50	104	0	55	19660
2026-01-21 23:23:46.41	17.49	2.13	-42.0	-56.7	3.8	1.49e+00	0	50	104	0	55	19661
2026-01-21 23:23:47.42	17.51	2.20	-42.1	-56.7	3.8	1.49e+00	0	50	104	0	55	19624
2026-01-21 23:23:48.43	17.53	2.26	-42.0	-56.6	3.8	1.49e+00	0	50	104	0	55	19614
2026-01-21 23:23:49.44	17.54	2.32	-42.0	-56.7	3.8	1.49e+00	0	50	104	0	55	19675
2026-01-21 23:23:50.45	17.56	2.39	-42.0	-56.7	3.8	1.49e+00	0	50	104	0	55	19652
2026-01-21 23:23:51.46	17.58	2.45	-42.0	-56.7	3.8	1.49e+00	0	50	104	0	55	19655
2026-01-21 23:23:52.47	17.59	2.52	-42.0	-56.7	3.8	1.49e+00	0	50	104	0	55	19673
2026-01-21 23:23:53.48	17.61	2.58	-42.0	-56.7	3.8	1.49e+00	0	50	104	0	55	19643
2026-01-21 23:23:54.49	17.63	2.65	-42.0	-56.7	3.8	1.49e+00	0	50	104	0	55	19632
2026-01-21 23:23:55.50	17.65	2.72	-42.0	-56.7	3.8	1.49e+00	0	50	104	0	55	19663
2026-01-21 23:23:56.51	17.66	2.78	-42.0	-56.7	3.8	1.49e+00	0	50	104	0	55	19652
2026-01-21 23:23:57.52	17.68	2.85	-42.0	-56.6	3.8	1.49e+00	0	50	104	0	55	19607
2026-01-21 23:23:58.53	17.70	2.91	-42.0	-56.7	3.8	1.49e+00	0	50	104	0	55	19627
2026-01-21 23:23:59.54	17.71	2.98	-42.0	-56.7	3.8	1.49e+00	0	50	104	0	55	19621
2026-01-21 23:24:00.55	17.73	3.05	-42.0	-56.6	3.8	1.49e+00	0	50	104	0	55	19613
2026-01-21 23:24:01.56	17.75	3.11	-42.0	-56.6	3.8	1.49e+00	0	51	104	0	55	19614
2026-01-21 23:24:02.57	17.77	3.18	-42.0	-56.6	3.8	1.49e+00	0	51	104	0	55	19581
2026-01-21 23:24:03.58	17.78	3.24	-42.0	-56.6	3.8	1.49e+00	0	51	104	0	55	19584
2026-01-21 23:24:04.59	17.80	3.31	-42.0	-56.7	3.8	1.49e+00	0	51	104	0	55	19632
2026-01-21 23:24:05.60	17.82	3.38	-42.0	-56.7	3.8	1.49e+00	0	51	104	0	55	19659
2026-01-21 23:24:06.61	17.84	3.45	-42.0	-56.6	3.8	1.49e+00	0	51	104	0	55	19608
2026-01-21 23:24:07.62	17.85	3.51	-42.0	-56.6	3.8	1.49e+00	0	51	104	0	55	19611
2026-01-21 23:24:08.63	17.87	3.58	-42.0	-56.7	3.8	1.49e+00	0	51	104	0	55	19640
2026-01-21 23:24:09.64	17.89	3.65	-42.0	-56.7	3.8	1.49e+00	0	51	104	0	55	19639
2026-01-21 23:24:10.65	17.91	3.72	-42.0	-56.7	3.8	1.49e+00	0	51	104	0	55	19620
2026-01-21 23:24:11.66	17.92	3.78	-42.0	-56.6	3.8	1.49e+00	0	51	104	0	55	19609
2026-01-21 23:24:12.67	17.94	3.85	-42.0	-56.7	3.8	1.49e+00	0	51	104	0	55	19649
2026-01-21 23:24:13.69	17.96	3.92	-42.0	-56.6	3.8	1.49e+00	0	51	104	0	55	19606
2026-01-21 23:24:14.69	17.98	3.99	-42.0	-56.6	3.8	1.49e+00	0	51	104	0	55	19592
2026-01-21 23:24:15.70	18.00	4.06	-42.0	-56.7	3.8	1.49e+00	0	52	104	0	55	19626
2026-01-21 23:24:16.71	18.01	4.13	-42.0	-56.7	3.8	1.49e+00	0	51	104	0	55	19624
2026-01-21 23:24:17.72	18.03	4.20	-42.0	-56.6	3.8	1.49e+00	0	52	104	0	55	19606
2026-01-21 23:24:18.73	18.05	4.27	-42.0	-56.6	3.8	1.49e+00	0	52	104	0	55	19610
2026-01-21 23:24:19.74	18.07	4.33	-42.0	-56.6	3.8	1.49e+00	0	52	104	0	55	19566
2026-01-21 23:24:20.75	18.09	4.40	-42.0	-56.7	3.8	1.49e+00	0	52	104	0	55	19646
2026-01-21 23:24:21.76	18.11	4.47	-42.0	-56.7	3.8	1.49e+00	0	52	104	0	55	19617
2026-01-21 23:24:22.77	18.13	4.54	-42.0	-56.6	3.8	1.49e+00	0	52	104	0	55	19576
2026-01-21 23:24:23.78	18.14	4.61	-42.0	-56.6	3.8	1.49e+00	0	52	104	0	55	19572
2026-01-21 23:24:24.79	18.16	4.68	-42.0	-56.6	3.8	1.49e+00	0	52	104	0	55	19609
2026-01-21 23:24:25.80	18.18	4.76	-42.0	-56.6	3.8	1.49e+00	0	52	104	0	55	19592
2026-01-21 23:24:26.81	18.20	4.83	-42.0	-56.6	3.8	1.49e+00	0	52	104	0	55	19587
2026-01-21 23:24:27.83	18.22	4.90	-42.0	-56.6	3.8	1.49e+00	0	52	104	0	55	19606
2026-01-21 23:24:28.84	18.24	4.97	-42.0	-56.6	3.8	1.49e+00	0	52	104	0	55	19599
2026-01-21 23:24:29.85	18.26	5.04	-42.0	-56.6	3.8	1.49e+00	0	52	104	0	55	19601
2026-01-21 23:24:30.86	18.28	5.11	-42.0	-56.6	3.8	1.49e+00	0	52	104	0	55	19595
2026-01-21 23:24:31.87	18.30	5.18	-42.0	-56.6	3.8	1.49e+00	0	52	104	0	55	19565
2026-01-21 23:24:32.88	18.31	5.25	-42.0	-56.6	3.8	1.49e+00	0	52	104	0	55	19595
2026-01-21 23:24:33.89	18.33	5.33	-42.0	-56.7	3.8	1.49e+00	0	52	104	0	55	19625
2026-01-21 23:24:34.90	18.35	5.40	-42.0	-56.6	3.8	1.49e+00	0	52	104	0	55	19589
2026-01-21 23:24:35.91	18.37	5.47	-42.0	-56.6	3.8	1.49e+00	0	53	104	0	55	19583
2026-01-21 23:24:36.92	18.39	5.54	-42.0	-56.6	3.8	1.49e+00	0	53	104	0	55	19564
2026-01-21 23:24:37.93	18.41	5.62	-42.0	-56.6	3.8	1.49e+00	0	53	104	0	55	19586
2026-01-21 23:24:38.94	18.43	5.69	-42.0	-56.6	3.8	1.49e+00	0	53	104	0	55	19541
2026-01-21 23:24:39.95	18.45	5.76	-42.0	-56.6	3.8	1.49e+00	0	53	104	0	55	19559
2026-01-21 23:24:40.96	18.47	5.84	-42.0	-56.6	3.8	1.49e+00	0	53	104	0	55	19553
2026-01-21 23:24:41.97	18.49	5.91	-42.0	-56.6	3.8	1.49e+00	0	53	104	0	55	19538
2026-01-21 23:24:42.98	18.51	5.98	-42.0	-56.6	3.8	1.49e+00	0	53	104	0	55	19612
2026-01-21 23:24:43.99	18.53	6.06	-42.0	-56.6	3.8	1.49e+00	0	53	104	0	55	19570
2026-01-21 23:24:45.00	18.55	6.13	-42.0	-56.6	3.8	1.49e+00	0	53	104	0	55	19575
2026-01-21 23:24:46.01	18.57	6.21	-42.0	-56.6	3.8	1.49e+00	0	53	104	0	55	19506
2026-01-21 23:24:47.02	18.59	6.28	-42.0	-56.6	3.8	1.49e+00	0	53	104	0	55	19501
2026-01-21 23:24:48.03	18.61	6.36	-42.0	-56.6	3.8	1.49e+00	0	53	104	0	55	19543
2026-01-21 23:24:49.04	18.63	6.43	-42.0	-56.7	3.8	1.49e+00	0	53	104	0	55	19619
2026-01-21 23:24:50.05	18.65	6.51	-42.0	-56.6	3.8	1.49e+00	0	53	104	0	55	19484
2026-01-21 23:24:51.06	18.68	6.58	-42.0	-56.6	3.8	1.49e+00	0	53	104	0	55	19595
2026-01-21 23:24:52.07	18.70	6.66	-42.0	-56.6	3.8	1.49e+00	0	53	104	0	55	19525
2026-01-21 23:24:53.08	18.72	6.73	-42.0	-56.6	3.8	1.49e+00	0	53	104	0	55	19523
2026-01-21 23:24:54.09	18.74	6.81	-42.0	-56.6	3.8	1.49e+00	0	53	104	0	55	19423
2026-01-21 23:24:55.10	18.76	6.89	-42.0	-56.6	3.8	1.49e+00	0	53	104	0	55	19426
2026-01-21 23:24:56.11	18.78	6.96	-42.0	-56.6	3.8	1.49e+00	0	54	104	0	55	19420
2026-01-21 23:24:57.12	18.80	7.04	-42.0	-56.5	3.8	1.49e+00	0	53	104	0	55	19367
2026-01-21 23:24:58.13	18.82	7.12	-42.0	-56.5	3.8	1.49e+00	0	54	104	0	55	19310
2026-01-21 23:24:59.15	18.84	7.20	-42.0	-56.5	3.8	1.49e+00	0	54	104	0	55	19277
2026-01-21 23:25:00.15	18.87	7.27	-42.0	-56.5	3.8	1.49e+00	0	54	104	0	55	19168
2026-01-21 23:25:01.15	18.89	7.35	-42.0	-56.3	3.8	1.49e+00	0	54	104	0	55	18934
2026-01-21 23:25:02.16	18.91	7.43	-42.0	-56.3	3.8	1.49e+00	0	54	104	0	55	18765
2026-01-21 23:25:03.17	18.93	7.51	-42.0	-56.1	3.8	1.49e+00	0	54	104	0	55	18476
2026-01-21 23:25:04.18	18.95	7.58	-42.0	-56.1	3.8	1.49e+00	0	54	104	0	55	18388
2026-01-21 23:25:05.19	18.97	7.66	-42.0	-56.0	3.8	1.49e+00	0	54	104	0	55	18287
2026-01-21 23:25:06.20	19.00	7.74	-42.0	-55.8	3.8	1.49e+00	0	54	104	0	55	17738
2026-01-21 23:25:07.21	19.02	7.82	-42.0	-55.5	3.8	1.49e+00	0	54	104	0	55	17144
2026-01-21 23:25:08.22	19.04	7.90	-41.9	-55.0	3.8	1.49e+00	0	54	104	0	55	16184
2026-01-21 23:25:09.24	19.06	7.98	-41.9	-54.4	3.8	1.49e+00	0	54	104	0	55	15103
2026-01-21 23:25:10.24	19.08	8.06	-41.8	-53.5	4.1	1.46e+00	0	54	0	0	55	13683
2026-01-21 23:25:11.26	19.11	8.14	-41.9	-52.5	4.4	1.04e+00	48	54	0	1048576	55	12196
2026-01-21 23:25:12.27	19.13	8.22	-41.8	-55.9	3.8	1.49e+00	0	54	104	1048576	55	18035
2026-01-21 23:25:13.28	19.15	8.30	-42.1	-49.3	6.9	2.24e-01	0	54	0	1048576	55	8455
2026-01-21 23:25:14.29	19.18	8.38	-42.6	-49.7	6.8	5.11e-01	0	54	0	3145728	56	8359
2026-01-21 23:25:15.30	19.20	8.46	-41.8	-52.1	4.5	6.96e-01	15	54	0	4194304	55	11653
2026-01-21 23:25:16.31	19.22	8.55	-41.4	-46.9	9.3	1.85e-02	0	54	0	6291456	54	6750
2026-01-21 23:25:17.32	19.24	8.63	-41.5	-46.9	9.4	1.61e-02	0	54	0	8388608	54	6750
2026-01-21 23:25:18.33	19.27	8.71	-41.6	-47.3	9.0	1.95e-02	0	54	0	10485760	54	7074
2026-01-21 23:25:19.33	19.29	8.79	-41.6	-47.3	9.0	2.90e-02	0	54	0	11534336	54	7085
2026-01-21 23:25:20.34	19.31	8.87	-41.7	-47.4	9.1	2.37e-02	0	54	0	13631488	54	7124
2026-01-21 23:25:21.36	19.34	8.96	-41.8	-47.4	9.1	2.36e-02	0	54	0	15728640	54	7186
2026-01-21 23:25:22.37	19.36	9.04	-41.8	-47.5	9.0	2.52e-02	0	54	0	17825792	54	7279
2026-01-21 23:25:23.38	19.39	9.12	-41.8	-47.4	9.1	2.35e-02	0	54	0	19922944	54	7191
2026-01-21 23:25:24.38	19.41	9.21	-41.8	-47.2	9.4	1.63e-02	0	55	0	20971520	54	7001
2026-01-21 23:25:25.39	19.43	9.29	-41.8	-47.2	9.4	1.68e-02	0	54	0	23068672	54	7037
2026-01-21 23:25:26.40	19.46	9.38	-41.7	-46.9	9.8	1.24e-02	0	55	0	25165824	54	6790
2026-01-21 23:25:27.41	19.48	9.46	-41.7	-46.9	9.8	9.16e-03	0	54	0	27262976	54	6783
2026-01-21 23:25:28.42	19.51	9.54	-41.8	-47.0	9.7	1.14e-02	0	54	0	29360128	54	6860
2026-01-21 23:25:29.43	19.53	9.63	-41.6	-46.5	10.3	5.79e-03	0	55	0	30408704	54	6425
2026-01-21 23:25:30.44	19.56	9.72	-41.6	-46.5	10.3	4.59e-03	0	55	0	32505856	54	6460
2026-01-21 23:25:31.45	19.58	9.80	-41.7	-46.6	10.3	6.08e-03	0	55	0	34603008	54	6515
2026-01-21 23:25:32.46	19.60	9.89	-41.7	-46.7	10.2	6.16e-03	0	55	0	36700160	54	6574
2026-01-21 23:25:33.47	19.63	9.97	-41.6	-46.4	10.6	3.32e-03	0	55	0	38797312	54	6355
2026-01-21 23:25:34.48	19.65	10.06	-41.7	-46.4	10.6	4.66e-03	0	55	0	39845888	54	6392
2026-01-21 23:25:35.49	19.68	10.15	-41.6	-46.3	10.7	2.73e-03	0	55	0	41943040	54	6328
2026-01-21 23:25:36.50	19.71	10.23	-41.7	-46.6	10.5	4.08e-03	0	55	0	44040192	54	6500
2026-01-21 23:25:37.51	19.73	10.32	-41.7	-46.4	10.7	2.99e-03	0	55	0	46137344	54	6367
2026-01-21 23:25:38.52	19.76	10.41	-41.7	-46.3	10.8	2.88e-03	0	55	0	48234496	54	6302
2026-01-21 23:25:39.53	19.78	10.50	-41.7	-46.4	10.7	3.01e-03	0	55	0	50331648	54	6379
2026-01-21 23:25:40.54	19.81	10.59	-41.7	-46.4	10.7	2.37e-03	0	55	0	51380224	54	6416
2026-01-21 23:25:41.55	19.83	10.67	-41.7	-46.2	11.0	2.64e-03	0	55	0	53477376	54	6225
2026-01-21 23:25:42.56	19.86	10.76	-41.7	-46.2	11.0	1.88e-03	0	55	0	55574528	54	6245
2026-01-21 23:25:43.57	19.89	10.85	-41.7	-46.2	11.1	1.46e-03	0	55	0	57671680	54	6205
2026-01-21 23:25:44.58	19.91	10.94	-41.7	-46.1	11.2	1.53e-03	0	55	0	59768832	54	6172
2026-01-21 23:25:45.59	19.94	11.03	-41.7	-46.2	11.1	1.50e-03	0	55	0	60817408	54	6212
2026-01-21 23:25:46.60	19.97	11.12	-41.7	-46.0	11.3	1.14e-03	0	55	0	62914560	54	6110
2026-01-21 23:25:47.61	19.99	11.21	-41.7	-46.1	11.2	1.40e-03	0	55	0	65011712	54	6184
2026-01-21 23:25:48.61	20.02	11.30	-41.7	-46.1	11.2	1.14e-03	0	55	0	67108864	54	6160
2026-01-21 23:25:49.62	20.05	11.40	-41.7	-46.0	11.4	1.34e-03	0	55	0	69206016	54	6092
2026-01-21 23:25:50.63	20.07	11.49	-41.7	-46.0	11.4	8.88e-04	0	55	0	70254592	54	6062
2026-01-21 23:25:51.64	20.10	11.58	-41.7	-46.0	11.4	9.37e-04	0	55	0	72351744	54	6107
2026-01-21 23:25:52.65	20.13	11.67	-41.6	-45.9	11.6	8.29e-04	0	55	0	74448896	54	5998
2026-01-21 23:25:53.66	20.16	11.76	-41.7	-46.0	11.4	8.27e-04	0	55	0	76546048	54	6127
2026-01-21 23:25:54.67	20.18	11.86	-41.7	-46.0	11.4	8.57e-04	0	55	0	78643200	54	6117
2026-01-21 23:25:55.68	20.21	11.95	-41.8	-46.2	11.3	1.02e-03	0	55	0	79691776	54	6232
2026-01-21 23:25:56.69	20.24	12.04	-41.8	-46.0	11.5	9.44e-04	0	55	0	81788928	54	6125
2026-01-21 23:25:57.70	20.27	12.14	-41.8	-46.2	11.4	8.49e-04	0	55	0	83886080	54	6219
2026-01-21 23:25:58.71	20.30	12.23	-41.7	-46.0	11.6	9.20e-04	0	55	0	85983232	54	6080
2026-01-21 23:25:59.72	20.32	12.33	-41.7	-45.9	11.7	5.61e-04	0	55	0	88080384	54	6050
2026-01-21 23:26:00.73	20.35	12.42	-41.8	-46.0	11.6	5.71e-04	0	55	0	89128960	54	6099
2026-01-21 23:26:01.74	20.38	12.52	-41.8	-46.0	11.5	8.64e-04	0	55	0	91226112	54	6130
2026-01-21 23:26:02.75	20.41	12.61	-41.8	-46.0	11.6	7.19e-04	0	55	0	93323264	54	6112
2026-01-21 23:26:03.76	20.44	12.71	-41.7	-45.9	11.6	7.43e-04	0	55	0	95420416	54	6049
2026-01-21 23:26:04.77	20.47	12.81	-41.8	-46.0	11.6	6.61e-04	0	56	0	97517568	54	6097
2026-01-21 23:26:05.77	20.50	12.90	-41.8	-46.0	11.6	6.13e-04	0	55	0	98566144	54	6094
2026-01-21 23:26:06.78	20.53	13.00	-41.8	-45.9	11.7	7.21e-04	0	55	0	100663296	54	6055
2026-01-21 23:26:07.79	20.56	13.10	-41.8	-46.1	11.5	5.81e-04	0	55	0	102760448	54	6152
2026-01-21 23:26:08.80	20.59	13.20	-41.8	-46.0	11.6	8.25e-04	0	55	0	104857600	54	6122
2026-01-21 23:26:09.81	20.62	13.30	-41.8	-46.0	11.6	6.51e-04	0	55	0	106954752	54	6111
2026-01-21 23:26:10.82	20.65	13.40	-41.8	-46.0	11.6	6.83e-04	0	56	0	109051904	54	6130
2026-01-21 23:26:11.83	20.68	13.49	-41.8	-46.0	11.7	5.55e-04	0	55	0	110100480	54	6069
2026-01-21 23:26:12.84	20.71	13.59	-41.9	-46.1	11.5	6.73e-04	0	55	0	112197632	54	6181
2026-01-21 23:26:13.85	20.74	13.70	-41.9	-46.1	11.6	7.68e-04	0	56	0	114294784	54	6146
2026-01-21 23:26:14.86	20.77	13.80	-41.8	-46.1	11.6	7.69e-04	0	56	0	116391936	54	6139
2026-01-21 23:26:15.87	20.80	13.90	-41.9	-46.1	11.5	6.96e-04	0	56	0	118489088	54	6180
2026-01-21 23:26:16.88	20.83	14.00	-41.8	-46.1	11.6	7.86e-04	0	56	0	119537664	54	6134
2026-01-21 23:26:17.89	20.87	14.10	-41.9	-46.1	11.6	6.73e-04	0	56	0	121634816	54	6160
2026-01-21 23:26:18.90	20.90	14.20	-41.9	-46.2	11.5	7.95e-04	0	56	0	123731968	54	6230
2026-01-21 23:26:19.90	20.93	14.30	-42.0	-46.3	11.4	7.80e-04	0	56	0	125829120	54	6275
2026-01-21 23:26:20.92	20.96	14.41	-41.9	-46.1	11.6	9.17e-04	0	56	0	127926272	54	6195
2026-01-21 23:26:21.93	20.99	14.51	-41.9	-46.1	11.6	7.47e-04	0	56	0	128974848	54	6172
2026-01-21 23:26:22.94	21.03	14.62	-42.0	-46.3	11.4	8.59e-04	0	56	0	131072000	54	6288
2026-01-21 23:26:23.95	21.06	14.72	-41.9	-46.1	11.7	7.85e-04	0	56	0	133169152	54	6154
2026-01-21 23:26:24.96	21.09	14.83	-41.9	-46.2	11.5	7.87e-04	0	56	0	135266304	54	6228
2026-01-21 23:26:25.97	21.12	14.93	-41.9	-46.1	11.6	7.78e-04	0	56	0	137363456	54	6196
2026-01-21 23:26:26.97	21.16	15.04	-42.0	-46.2	11.5	6.74e-04	0	56	0	138412032	54	6235
2026-01-21 23:26:27.98	21.19	15.14	-41.9	-46.1	11.7	6.05e-04	0	56	0	140509184	54	6189
2026-01-21 23:26:28.99	21.23	15.25	-42.0	-46.1	11.7	6.66e-04	0	56	0	142606336	54	6196
2026-01-21 23:26:30.00	21.26	15.36	-41.9	-46.1	11.7	5.89e-04	0	56	0	144703488	54	6133
2026-01-21 23:26:31.01	21.29	15.46	-41.9	-46.1	11.8	4.90e-04	0	56	0	146800640	54	6141
2026-01-21 23:26:32.02	21.33	15.57	-42.0	-46.2	11.6	5.98e-04	0	56	0	147849216	54	6231
2026-01-21 23:26:33.03	21.36	15.68	-42.0	-46.3	11.6	6.63e-04	0	56	0	149946368	54	6276
2026-01-21 23:26:34.04	21.40	15.79	-42.0	-46.2	11.7	7.43e-04	0	56	0	152043520	54	6229
2026-01-21 23:26:35.05	21.43	15.90	-42.0	-46.2	11.6	6.00e-04	0	56	0	154140672	54	6239
2026-01-21 23:26:36.06	21.47	16.01	-42.0	-46.2	11.7	5.47e-04	0	56	0	156237824	54	6238
2026-01-21 23:26:37.07	21.50	16.12	-42.0	-46.2	11.7	6.19e-04	0	56	0	157286400	54	6241
2026-01-21 23:26:38.08	21.54	16.23	-42.1	-46.3	11.6	7.13e-04	0	56	0	159383552	54	6310
2026-01-21 23:26:39.09	21.57	16.34	-42.1	-46.3	11.5	7.06e-04	0	56	0	161480704	54	6347
2026-01-21 23:26:40.10	21.61	16.46	-42.1	-46.3	11.6	7.25e-04	0	56	0	163577856	54	6325
2026-01-21 23:26:41.11	21.65	16.57	-42.1	-46.3	11.6	7.29e-04	0	56	0	165675008	54	6324
2026-01-21 23:26:42.12	21.68	16.68	-42.2	-46.4	11.5	9.07e-04	0	56	0	166723584	54	6414
2026-01-21 23:26:43.13	21.72	16.80	-42.2	-46.4	11.5	9.38e-04	0	56	0	168820736	54	6399
2026-01-21 23:26:44.14	21.76	16.91	-42.1	-46.4	11.6	7.47e-04	0	56	0	170917888	54	6351
2026-01-21 23:26:45.15	21.80	17.02	-42.2	-46.6	11.4	9.32e-04	0	56	0	173015040	54	6499
2026-01-21 23:26:46.16	21.83	17.14	-42.2	-46.5	11.4	1.01e-03	0	56	0	175112192	54	6440
2026-01-21 23:26:47.17	21.87	17.26	-42.2	-46.5	11.4	1.05e-03	0	56	0	177209344	54	6464
2026-01-21 23:26:48.18	21.91	17.37	-42.2	-46.5	11.4	1.02e-03	0	56	0	178257920	55	6106
2026-01-21 23:26:49.19	21.95	17.49	-42.1	-46.4	11.5	8.86e-04	0	56	0	180355072	55	6031
2026-01-21 23:26:50.20	21.99	17.61	-42.2	-46.5	11.4	8.73e-04	0	56	0	182452224	55	6130
2026-01-21 23:26:51.21	22.03	17.72	-42.2	-46.5	11.4	8.95e-04	0	56	0	184549376	55	6108
2026-01-21 23:26:52.22	22.07	17.84	-42.2	-46.5	11.5	9.24e-04	0	56	0	186646528	55	6078
2026-01-21 23:26:53.23	22.11	17.96	-42.1	-46.3	11.6	7.80e-04	0	56	0	187695104	55	5990
2026-01-21 23:26:54.24	22.15	18.08	-42.2	-46.4	11.6	6.57e-04	0	56	0	189792256	55	6017
2026-01-21 23:26:55.25	22.19	18.20	-42.1	-46.3	11.6	6.63e-04	0	56	0	191889408	55	5985
2026-01-21 23:26:56.26	22.23	18.32	-42.1	-46.3	11.7	6.58e-04	0	56	0	193986560	55	5972
2026-01-21 23:26:57.26	22.27	18.44	-42.1	-46.3	11.7	5.77e-04	0	56	0	196083712	55	5947
2026-01-21 23:26:58.27	22.31	18.57	-42.2	-46.4	11.6	6.87e-04	0	56	0	197132288	55	6055
2026-01-21 23:26:59.28	22.35	18.69	-42.2	-46.3	11.7	6.27e-04	0	56	0	199229440	55	5970
2026-01-21 23:27:00.29	22.39	18.81	-42.2	-46.5	11.6	6.38e-04	0	56	0	201326592	55	6076
2026-01-21 23:27:01.30	22.43	18.93	-42.2	-46.4	11.6	6.46e-04	0	56	0	203423744	55	6016
2026-01-21 23:27:02.31	22.47	19.06	-42.3	-46.5	11.6	6.45e-04	0	56	0	205520896	55	6080
2026-01-21 23:27:03.32	22.52	19.18	-42.3	-46.5	11.5	6.15e-04	0	56	0	206569472	55	6105
2026-01-21 23:27:04.33	22.56	19.31	-42.3	-46.5	11.6	7.51e-04	0	56	0	208666624	55	6086
2026-01-21 23:27:05.34	22.60	19.44	-42.3	-46.5	11.6	7.39e-04	0	56	0	210763776	55	6105
2026-01-21 23:27:06.35	22.65	19.56	-42.3	-46.5	11.6	7.22e-04	0	56	0	212860928	55	6086
2026-01-21 23:27:07.36	22.69	19.69	-42.3	-46.6	11.4	7.35e-04	0	57	0	214958080	55	6184
2026-01-21 23:27:08.37	22.73	19.82	-42.4	-46.6	11.4	9.26e-04	0	56	0	216006656	55	6194
2026-01-21 23:27:09.38	22.78	19.95	-42.3	-46.6	11.4	9.31e-04	0	56	0	218103808	55	6202
2026-01-21 23:27:10.39	22.82	20.08	-42.4	-46.7	11.4	9.76e-04	0	56	0	220200960	55	6235
2026-01-21 23:27:11.40	22.87	20.21	-42.4	-46.7	11.3	1.11e-03	0	57	0	222298112	55	6273
2026-01-21 23:27:12.41	22.91	20.34	-42.4	-46.7	11.4	1.10e-03	0	56	0	224395264	55	6224
2026-01-21 23:27:13.41	22.96	20.47	-42.4	-46.8	11.3	1.13e-03	0	56	0	225443840	55	6316
2026-01-21 23:27:14.42	23.01	20.60	-42.5	-46.9	11.2	1.22e-03	0	57	0	227540992	55	6376
2026-01-21 23:27:15.43	23.05	20.73	-42.4	-46.8	11.3	1.04e-03	0	57	0	229638144	55	6333
2026-01-21 23:27:16.44	23.10	20.87	-42.5	-46.9	11.2	1.20e-03	0	57	0	231735296	55	6378
2026-01-21 23:27:17.45	23.15	21.00	-42.5	-46.8	11.3	1.12e-03	0	57	0	233832448	55	6343
2026-01-21 23:27:18.46	23.19	21.14	-42.4	-46.8	11.3	1.20e-03	0	57	0	234881024	55	6308
2026-01-21 23:27:19.47	23.24	21.27	-42.4	-46.8	11.4	1.18e-03	0	56	0	236978176	55	6282
2026-01-21 23:27:20.48	23.29	21.41	-42.5	-46.8	11.3	1.03e-03	0	56	0	239075328	55	6309
2026-01-21 23:27:21.49	23.34	21.55	-42.5	-46.8	11.3	1.14e-03	0	57	0	241172480	55	6334
2026-01-21 23:27:22.50	23.39	21.68	-42.4	-46.8	11.3	1.11e-03	0	56	0	243269632	55	6298
2026-01-21 23:27:23.51	23.44	21.82	-42.5	-46.9	11.3	1.11e-03	0	56	0	245366784	55	6354
2026-01-21 23:27:24.52	23.49	21.96	-42.4	-46.7	11.5	1.11e-03	0	56	0	246415360	55	6227
2026-01-21 23:27:25.53	23.54	22.10	-42.5	-46.8	11.4	7.83e-04	0	56	0	248512512	55	6293
2026-01-21 23:27:26.54	23.59	22.24	-42.4	-46.7	11.4	9.24e-04	0	57	0	250609664	55	6273
2026-01-21 23:27:27.55	23.64	22.39	-42.4	-46.7	11.5	9.58e-04	0	57	0	252706816	55	6252
2026-01-21 23:27:28.56	23.69	22.53	-42.4	-46.6	11.6	8.44e-04	0	57	0	254803968	55	6189
2026-01-21 23:27:29.57	23.75	22.67	-42.4	-46.7	11.5	8.50e-04	0	57	0	255852544	55	6242
2026-01-21 23:27:30.58	23.80	22.82	-42.4	-46.7	11.5	9.47e-04	0	57	0	257949696	55	6244
2026-01-21 23:27:31.59	23.85	22.96	-42.4	-46.7	11.5	7.80e-04	0	57	0	260046848	55	6215
2026-01-21 23:27:32.60	23.91	23.11	-42.4	-46.7	11.5	9.16e-04	0	57	0	262144000	55	6250
2026-01-21 23:27:33.61	23.96	23.25	-42.5	-46.8	11.5	8.75e-04	0	57	0	264241152	55	6275
2026-01-21 23:27:34.62	24.01	23.40	-42.4	-46.7	11.5	8.42e-04	0	57	0	265289728	55	6256
2026-01-21 23:27:35.63	24.07	23.55	-42.4	-46.6	11.6	8.06e-04	0	57	0	267386880	55	6178
2026-01-21 23:27:36.64	24.13	23.70	-42.4	-46.6	11.6	6.68e-04	0	57	0	269484032	55	6177
2026-01-21 23:27:37.64	24.18	23.84	-42.4	-46.7	11.6	6.38e-04	0	57	0	271581184	55	6205
2026-01-21 23:27:38.65	24.24	24.00	-42.4	-46.6	11.6	6.37e-04	0	57	0	273678336	55	6158
2026-01-21 23:27:39.66	24.29	24.15	-42.4	-46.6	11.6	6.09e-04	0	57	0	274726912	55	6199
2026-01-21 23:27:40.67	24.35	24.30	-42.4	-46.6	11.6	6.71e-04	0	57	0	276824064	55	6183
2026-01-21 23:27:41.68	24.41	24.45	-42.4	-46.6	11.6	6.64e-04	0	57	0	278921216	55	6170
2026-01-21 23:27:42.69	24.47	24.61	-42.4	-46.6	11.7	6.54e-04	0	57	0	281018368	55	6138
2026-01-21 23:27:43.70	24.53	24.76	-42.4	-46.5	11.8	5.04e-04	0	57	0	283115520	55	6064
2026-01-21 23:27:44.71	24.59	24.92	-42.4	-46.5	11.8	4.45e-04	0	57	0	284164096	55	6098
2026-01-21 23:27:45.72	24.65	25.07	-42.4	-46.6	11.7	5.33e-04	0	57	0	286261248	55	6142
2026-01-21 23:27:46.73	24.71	25.23	-42.4	-46.5	11.7	5.52e-04	0	57	0	288358400	55	6124
2026-01-21 23:27:47.74	24.77	25.39	-42.4	-46.6	11.7	4.39e-04	0	57	0	290455552	55	6149
2026-01-21 23:27:48.75	24.83	25.55	-42.3	-46.4	11.8	4.64e-04	0	57	0	292552704	55	6046
2026-01-21 23:27:49.76	24.89	25.71	-42.3	-46.4	11.9	4.33e-04	0	57	0	293601280	55	6019
2026-01-21 23:27:50.77	24.96	25.87	-42.4	-46.5	11.8	4.97e-04	0	57	0	295698432	55	6086
2026-01-21 23:27:51.78	25.02	26.03	-42.3	-46.4	11.9	4.40e-04	0	57	0	297795584	55	6017
2026-01-21 23:27:52.79	25.08	26.20	-42.3	-46.4	11.9	3.99e-04	0	57	0	299892736	55	6018
2026-01-21 23:27:53.80	25.15	26.36	-42.3	-46.4	11.9	3.96e-04	0	57	0	301989888	55	6006
2026-01-21 23:27:54.81	25.22	26.53	-42.3	-46.4	11.9	3.97e-04	0	57	0	303038464	55	6010
2026-01-21 23:27:55.82	25.28	26.69	-42.3	-46.4	11.9	3.63e-04	0	57	0	305135616	55	6017
2026-01-21 23:27:56.82	25.35	26.86	-42.3	-46.3	12.0	3.38e-04	0	57	0	307232768	55	5988
2026-01-21 23:27:57.83	25.42	27.03	-42.3	-46.3	12.1	3.17e-04	0	57	0	309329920	55	5938
2026-01-21 23:27:58.84	25.48	27.19	-42.2	-46.1	12.2	2.68e-04	0	57	0	311427072	55	5841
2026-01-21 23:27:59.85	25.55	27.37	-42.2	-46.1	12.2	2.46e-04	0	57	0	313524224	55	5842
2026-01-21 23:28:00.86	25.62	27.54	-42.2	-46.0	12.3	2.14e-04	0	57	0	314572800	55	5772
2026-01-21 23:28:01.87	25.69	27.71	-42.2	-46.1	12.2	2.25e-04	0	57	0	316669952	55	5834
2026-01-21 23:28:02.88	25.76	27.88	-42.2	-46.1	12.2	2.27e-04	0	57	0	318767104	55	5852
2026-01-21 23:28:03.89	25.84	28.06	-42.3	-46.2	12.1	2.41e-04	0	57	0	320864256	55	5884
2026-01-21 23:28:04.90	25.91	28.23	-42.3	-46.2	12.1	2.31e-04	0	57	0	322961408	55	5878
2026-01-21 23:28:05.91	25.98	28.41	-42.3	-46.3	12.1	2.91e-04	0	57	0	324009984	55	5926
2026-01-21 23:28:06.92	26.05	28.59	-42.4	-46.5	11.9	3.62e-04	0	57	0	326107136	55	6085
2026-01-21 23:28:07.92	26.13	28.76	-42.5	-46.6	11.7	4.24e-04	0	57	0	328204288	55	6175
2026-01-21 23:28:08.93	26.20	28.94	-42.5	-46.7	11.7	5.52e-04	0	57	0	330301440	55	6206
2026-01-21 23:28:09.94	26.28	29.12	-42.6	-46.9	11.5	8.10e-04	0	57	0	331350016	55	6373
2026-01-21 23:28:10.95	26.36	29.31	-42.6	-46.9	11.4	1.15e-03	0	57	0	333447168	55	6405
2026-01-21 23:28:11.96	26.44	29.49	-42.7	-47.0	11.3	1.20e-03	0	57	0	335544320	55	6492
2026-01-21 23:28:12.97	26.51	29.67	-42.7	-47.1	11.2	1.23e-03	0	57	0	337641472	55	6516
2026-01-21 23:28:13.98	26.59	29.86	-42.9	-47.4	11.1	1.37e-03	0	57	0	339738624	56	6367
2026-01-21 23:28:14.99	26.68	30.05	-43.0	-47.6	10.9	1.78e-03	0	57	0	341835776	56	6498
2026-01-21 23:28:16.00	26.76	30.23	-43.1	-47.7	10.8	2.46e-03	0	57	0	342884352	56	6614
2026-01-21 23:28:17.01	26.84	30.42	-43.1	-47.9	10.6	2.65e-03	0	57	0	344981504	56	6741
2026-01-21 23:28:18.02	26.92	30.61	-43.2	-48.0	10.4	3.54e-03	0	57	0	347078656	56	6848
2026-01-21 23:28:19.03	27.01	30.80	-43.2	-48.1	10.4	4.81e-03	0	57	0	349175808	57	6519
2026-01-21 23:28:20.04	27.09	31.00	-43.3	-48.3	10.1	6.55e-03	0	57	0	351272960	57	6711
2026-01-21 23:28:21.05	27.18	31.19	-43.3	-48.4	10.0	7.10e-03	0	57	0	352321536	57	6782
2026-01-21 23:28:22.06	27.27	31.38	-43.4	-48.6	9.9	7.95e-03	0	57	0	354418688	57	6885
2026-01-21 23:28:23.07	27.35	31.58	-43.5	-48.7	9.7	1.14e-02	0	57	0	356515840	57	7034
2026-01-21 23:28:24.08	27.44	31.78	-43.5	-48.8	9.6	1.10e-02	0	57	0	358612992	57	7109
2026-01-21 23:28:25.08	27.53	31.98	-43.5	-48.8	9.7	1.17e-02	0	57	0	360710144	57	7117
2026-01-21 23:28:26.09	27.62	32.18	-43.5	-48.9	9.6	1.20e-02	0	57	0	361758720	57	7125
2026-01-21 23:28:27.10	27.72	32.38	-43.4	-48.5	9.9	1.03e-02	0	57	0	363855872	57	6871
2026-01-21 23:28:28.11	27.81	32.58	-43.4	-48.5	9.9	9.17e-03	0	57	0	365953024	57	6847
2026-01-21 23:28:29.12	27.90	32.78	-43.4	-48.4	10.0	8.03e-03	0	57	0	368050176	57	6794
2026-01-21 23:28:30.13	28.00	32.99	-43.3	-48.4	10.1	7.16e-03	0	57	0	370147328	57	6734
2026-01-21 23:28:31.14	28.10	33.20	-43.3	-48.2	10.2	6.68e-03	0	57	0	371195904	57	6644
2026-01-21 23:28:32.15	28.20	33.40	-43.3	-48.3	10.3	6.19e-03	0	57	0	373293056	57	6654
2026-01-21 23:28:33.16	28.29	33.61	-43.2	-48.1	10.4	4.41e-03	0	58	0	375390208	57	6515
2026-01-21 23:28:34.17	28.40	33.82	-43.2	-48.0	10.5	4.22e-03	0	57	0	377487360	57	6439
2026-01-21 23:28:35.18	28.50	34.04	-43.1	-47.9	10.7	3.27e-03	0	57	0	379584512	57	6353
2026-01-21 23:28:36.19	28.60	34.25	-43.2	-48.0	10.5	3.56e-03	0	57	0	380633088	57	6458
2026-01-21 23:28:37.20	28.71	34.46	-43.2	-48.0	10.5	3.87e-03	0	57	0	382730240	57	6439
2026-01-21 23:28:38.21	28.81	34.68	-43.2	-48.0	10.6	3.35e-03	0	57	0	384827392	57	6459
2026-01-21 23:28:39.22	28.92	34.90	-43.3	-48.1	10.4	4.42e-03	0	57	0	386924544	57	6543
2026-01-21 23:28:40.23	29.03	35.12	-43.3	-48.1	10.4	4.80e-03	0	57	0	389021696	57	6566
2026-01-21 23:28:41.24	29.14	35.34	-43.3	-48.1	10.4	4.24e-03	0	57	0	390070272	57	6538
2026-01-21 23:28:42.25	29.25	35.56	-43.3	-48.3	10.3	5.00e-03	0	57	0	392167424	57	6649
2026-01-21 23:28:43.26	29.36	35.78	-43.4	-48.4	10.1	5.59e-03	0	57	0	394264576	57	6766
2026-01-21 23:28:44.27	29.48	36.01	-43.4	-48.6	10.0	7.41e-03	0	57	0	396361728	57	6894
2026-01-21 23:28:45.28	29.59	36.23	-43.4	-48.5	10.0	7.99e-03	0	57	0	398458880	57	6858
2026-01-21 23:28:46.28	29.71	36.46	-43.5	-48.8	9.7	9.33e-03	0	58	0	399507456	57	7086
2026-01-21 23:28:47.29	29.83	36.69	-43.5	-48.8	9.7	1.19e-02	0	57	0	401604608	57	7100
2026-01-21 23:28:48.30	29.95	36.92	-43.5	-48.9	9.7	1.20e-02	0	57	0	403701760	57	7139
2026-01-21 23:28:49.31	30.07	37.15	-43.6	-49.0	9.5	1.36e-02	0	57	0	405798912	57	7243
2026-01-21 23:28:50.32	30.19	37.38	-43.6	-49.0	9.5	1.58e-02	0	57	0	407896064	57	7234
2026-01-21 23:28:51.33	30.32	37.62	-43.7	-49.3	9.2	1.82e-02	0	57	0	409993216	57	7478
2026-01-21 23:28:52.34	30.45	37.86	-43.7	-49.3	9.2	1.98e-02	0	57	0	411041792	57	7525
2026-01-21 23:28:53.35	30.58	38.09	-43.8	-49.4	9.1	2.24e-02	0	58	0	413138944	58	7164
2026-01-21 23:28:54.36	30.71	38.33	-43.8	-49.5	9.0	2.43e-02	0	57	0	415236096	58	7262
2026-01-21 23:28:55.37	30.84	38.57	-43.9	-49.7	8.7	2.92e-02	0	57	0	417333248	58	7454
2026-01-21 23:28:56.38	30.98	38.82	-43.9	-49.8	8.7	3.63e-02	0	57	0	419430400	58	7517
2026-01-21 23:28:57.39	31.11	39.06	-43.9	-50.0	8.5	3.88e-02	0	57	0	420478976	58	7674
2026-01-21 23:28:58.40	31.25	39.31	-44.0	-50.0	8.5	4.30e-02	0	58	0	422576128	58	7703
2026-01-21 23:28:59.41	31.39	39.56	-44.0	-50.2	8.4	4.84e-02	0	57	0	424673280	58	7817
2026-01-21 23:29:00.42	31.54	39.81	-44.0	-50.1	8.4	4.46e-02	0	57	0	426770432	58	7786
2026-01-21 23:29:01.43	31.68	40.06	-43.9	-50.0	8.5	4.49e-02	0	57	0	428867584	58	7682
2026-01-21 23:29:02.44	31.83	40.31	-44.0	-50.0	8.5	4.29e-02	0	57	0	429916160	58	7686
2026-01-21 23:29:03.44	31.98	40.56	-44.0	-50.1	8.4	4.77e-02	0	57	0	432013312	58	7771
2026-01-21 23:29:04.45	32.13	40.82	-43.9	-49.9	8.7	3.85e-02	0	57	0	434110464	58	7549
2026-01-21 23:29:05.46	32.29	41.07	-43.9	-50.0	8.5	3.97e-02	0	58	0	436207616	58	7643
2026-01-21 23:29:06.47	32.44	41.33	-43.9	-49.9	8.6	4.06e-02	0	57	0	438304768	58	7609
2026-01-21 23:29:07.48	32.60	41.59	-43.9	-49.8	8.7	3.40e-02	0	58	0	439353344	58	7479
2026-01-21 23:29:08.50	32.77	41.86	-43.9	-49.9	8.6	3.37e-02	0	57	0	441450496	58	7613
2026-01-21 23:29:09.51	32.93	42.12	-43.8	-49.6	8.8	3.75e-02	0	58	0	443547648	58	7354
2026-01-21 23:29:10.52	33.10	42.39	-43.8	-49.4	9.2	2.12e-02	0	57	0	445644800	58	7151
2026-01-21 23:29:11.52	33.27	42.65	-43.7	-49.1	9.5	1.65e-02	0	58	0	447741952	58	6920
2026-01-21 23:29:12.54	33.44	42.92	-43.6	-49.0	9.6	1.39e-02	0	57	0	448790528	58	6804
2026-01-21 23:29:13.55	33.62	43.19	-43.6	-48.9	9.7	1.22e-02	0	57	0	450887680	58	6782
2026-01-21 23:29:14.56	33.80	43.47	-43.7	-49.1	9.4	1.41e-02	0	57	0	452984832	58	6922
2026-01-21 23:29:15.57	33.98	43.74	-43.8	-49.3	9.2	1.82e-02	0	57	0	455081984	58	7091
2026-01-21 23:29:16.58	34.16	44.01	-43.8	-49.5	9.1	2.04e-02	0	58	0	457179136	58	7206
2026-01-21 23:29:17.59	34.35	44.29	-43.8	-49.5	9.0	2.50e-02	0	58	0	458227712	58	7263
2026-01-21 23:29:18.60	34.54	44.57	-43.8	-49.6	9.0	2.57e-02	0	57	0	460324864	58	7300
2026-01-21 23:29:19.61	34.74	44.85	-44.0	-50.0	8.6	3.44e-02	0	57	0	462422016	58	7649
2026-01-21 23:29:20.61	34.93	45.13	-43.9	-49.8	8.8	3.12e-02	0	57	0	464519168	58	7459
2026-01-21 23:29:21.62	35.13	45.41	-43.8	-49.6	9.0	2.80e-02	0	57	0	466616320	58	7319
2026-01-21 23:29:22.63	35.34	45.70	-43.8	-49.3	9.3	2.12e-02	0	58	0	467664896	58	7103
2026-01-21 23:29:23.64	35.55	45.99	-43.7	-49.2	9.4	1.57e-02	0	57	0	469762048	58	6997
2026-01-21 23:29:24.65	35.76	46.27	-43.8	-49.4	9.2	1.94e-02	0	57	0	471859200	58	7149
2026-01-21 23:29:25.66	35.98	46.56	-43.9	-49.7	8.9	2.67e-02	0	58	0	473956352	58	7379
2026-01-21 23:29:26.67	36.20	46.86	-43.9	-49.8	8.7	2.73e-02	0	57	0	476053504	58	7529
2026-01-21 23:29:27.68	36.42	47.15	-44.0	-49.9	8.6	3.82e-02	0	58	0	478150656	58	7607
2026-01-21 23:29:28.69	36.65	47.44	-43.9	-49.9	8.6	3.45e-02	0	58	0	479199232	58	7580
2026-01-21 23:29:29.70	36.88	47.74	-43.9	-49.7	8.8	3.24e-02	0	57	0	481296384	58	7409
2026-01-21 23:29:30.71	37.12	48.04	-43.9	-49.7	8.9	3.13e-02	0	58	0	483393536	58	7401
2026-01-21 23:29:31.72	37.36	48.34	-43.9	-49.6	9.0	2.64e-02	0	58	0	485490688	58	7325
2026-01-21 23:29:32.73	37.61	48.64	-43.7	-49.2	9.4	1.99e-02	0	57	0	487587840	58	6985
2026-01-21 23:29:33.74	37.86	48.94	-43.8	-49.2	9.4	1.67e-02	0	58	0	488636416	58	7023
2026-01-21 23:29:34.75	38.12	49.25	-43.6	-48.9	9.7	1.48e-02	0	58	0	490733568	58	6785
2026-01-21 23:29:35.76	38.38	49.55	-43.4	-48.2	10.4	8.81e-03	0	58	0	492830720	58	6255
2026-01-21 23:29:36.77	38.64	49.86	-43.0	-47.3	11.4	1.73e-03	0	58	0	494927872	58	5609
2026-01-21 23:29:37.78	38.91	50.17	-42.7	-46.8	11.9	4.94e-04	0	58	0	497025024	57	5619
2026-01-21 23:29:38.79	39.19	50.48	-42.6	-46.5	12.2	2.53e-04	0	58	0	498073600	57	5405
2026-01-21 23:29:39.80	39.48	50.79	-42.4	-46.1	12.6	1.24e-04	0	58	0	500170752	56	5520
2026-01-21 23:29:40.80	39.76	51.10	-42.3	-45.8	12.9	5.11e-05	0	57	0	502267904	56	5313
2026-01-21 23:29:41.81	40.06	51.42	-42.1	-45.5	13.3	3.28e-05	0	58	0	504365056	56	5124
2026-01-21 23:29:42.82	40.36	51.73	-41.8	-45.0	13.6	1.14e-05	0	58	0	506462208	55	5151
2026-01-21 23:29:43.83	40.66	52.05	-41.5	-44.5	14.1	3.00e-06	0	57	0	507510784	54	5128
2026-01-21 23:29:44.84	40.98	52.37	-41.3	-44.2	14.4	0.00e+00	0	57	0	509607936	54	4969
2026-01-21 23:29:45.85	41.30	52.69	-41.2	-44.0	14.6	0.00e+00	0	58	0	511705088	54	4849
2026-01-21 23:29:46.86	41.63	53.01	-40.8	-43.4	15.2	7.00e-07	0	58	0	513802240	53	4806
2026-01-21 23:29:47.87	41.96	53.33	-40.4	-42.9	15.8	0.00e+00	0	57	0	515899392	52	4790
2026-01-21 23:29:48.88	42.31	53.65	-40.3	-42.7	15.9	0.00e+00	0	58	0	516947968	52	4679
2026-01-21 23:29:49.89	42.66	53.97	-40.4	-42.9	15.7	0.00e+00	0	58	0	519045120	52	4783
2026-01-21 23:29:50.90	43.01	54.30	-40.7	-43.2	15.4	0.00e+00	0	58	0	521142272	52	4980
2026-01-21 23:29:51.91	43.38	54.62	-40.8	-43.4	15.3	0.00e+00	0	58	0	523239424	52	5069
2026-01-21 23:29:52.92	43.75	54.95	-41.0	-43.7	14.9	0.00e+00	0	58	0	525336576	52	5247
2026-01-21 23:29:53.93	44.14	55.28	-41.1	-44.0	14.7	0.00e+00	0	58	0	526385152	52	5409
2026-01-21 23:29:54.94	44.53	55.61	-41.3	-44.2	14.4	0.00e+00	0	58	0	528482304	53	5244
2026-01-21 23:29:55.95	44.93	55.94	-41.6	-44.8	13.7	6.10e-06	0	58	0	530579456	53	5650
2026-01-21 23:29:56.96	45.34	56.26	-41.8	-45.1	13.4	7.60e-06	0	58	0	532676608	54	5526
2026-01-21 23:29:57.97	45.76	56.59	-41.9	-45.3	13.3	1.75e-05	0	58	0	534773760	54	5639
2026-01-21 23:29:58.97	46.19	56.92	-42.0	-45.4	13.1	2.59e-05	0	58	0	535822336	54	5720
2026-01-21 23:29:59.98	46.63	57.25	-42.0	-45.4	13.1	2.44e-05	0	58	0	537919488	54	5705
2026-01-21 23:30:00.99	47.08	57.58	-42.2	-45.8	12.8	4.04e-05	0	57	0	540016640	54	5954
2026-01-21 23:30:02.00	47.54	57.92	-42.3	-46.0	12.6	6.48e-05	0	57	0	542113792	55	5761
2026-01-21 23:30:03.01	48.02	58.25	-42.4	-46.2	12.3	1.56e-04	0	58	0	544210944	55	5902
2026-01-21 23:30:04.02	48.50	58.58	-42.4	-46.2	12.3	2.23e-04	0	58	0	546308096	55	5871
2026-01-21 23:30:05.03	49.00	58.91	-42.1	-45.7	12.9	9.53e-05	0	58	0	547356672	55	5558
2026-01-21 23:30:06.04	49.51	59.24	-41.9	-45.3	13.3	2.13e-05	0	58	0	549453824	55	5313
2026-01-21 23:30:07.05	50.04	59.57	-41.7	-44.9	13.7	9.10e-06	0	58	0	551550976	55	5046
2026-01-21 23:30:08.06	50.57	59.90	-41.5	-44.5	14.1	5.30e-06	0	58	0	553648128	54	5122
2026-01-21 23:30:09.07	51.12	60.23	-41.4	-44.4	14.2	3.80e-06	0	58	0	555745280	54	5071
2026-01-21 23:30:10.08	51.69	60.56	-41.4	-44.4	14.2	7.00e-07	0	57	0	556793856	54	5076
2026-01-21 23:30:11.09	52.27	60.89	-41.5	-44.6	14.0	3.80e-06	0	58	0	558891008	54	5179
2026-01-21 23:30:12.10	52.87	61.22	-41.5	-44.5	14.1	0.00e+00	0	58	0	560988160	54	5111
2026-01-21 23:30:13.11	53.48	61.55	-41.4	-44.4	14.2	0.00e+00	0	58	0	563085312	54	5085
2026-01-21 23:30:14.12	54.10	61.87	-41.3	-44.2	14.4	7.00e-07	0	58	0	565182464	54	4969
2026-01-21 23:30:15.12	54.74	62.19	-41.2	-44.0	14.6	0.00e+00	0	58	0	566231040	54	4838
2026-01-21 23:30:16.13	55.40	62.51	-41.1	-44.0	14.7	0.00e+00	0	58	0	568328192	54	4821
2026-01-21 23:30:17.14	56.08	62.83	-41.2	-44.0	14.6	0.00e+00	0	58	0	570425344	54	4846
2026-01-21 23:30:18.15	56.78	63.15	-41.5	-44.6	14.0	7.00e-07	0	58	0	572522496	54	5161
2026-01-21 23:30:19.16	57.49	63.47	-41.7	-44.9	13.7	2.20e-06	0	58	0	574619648	54	5390
2026-01-21 23:30:20.17	58.23	63.78	-41.9	-45.3	13.3	1.37e-05	0	58	0	575668224	54	5609
2026-01-21 23:30:21.18	58.98	64.10	-41.9	-45.2	13.3	2.59e-05	0	58	0	577765376	54	5578
2026-01-21 23:30:22.19	59.76	64.41	-42.1	-45.6	13.0	2.74e-05	0	58	0	579862528	54	5832
2026-01-21 23:30:23.20	60.56	64.71	-42.1	-45.7	12.9	4.88e-05	0	58	0	581959680	54	5892
2026-01-21 23:30:24.21	61.37	65.01	-42.0	-45.5	13.1	5.26e-05	0	58	0	584056832	54	5746
2026-01-21 23:30:25.22	62.21	65.31	-42.0	-45.5	13.1	3.43e-05	0	58	0	585105408	54	5726
2026-01-21 23:30:26.23	63.08	65.61	-42.2	-45.9	12.7	4.80e-05	0	58	0	587202560	55	5691
2026-01-21 23:30:27.24	63.96	65.90	-42.5	-46.5	12.0	2.04e-04	0	58	0	589299712	55	6081
2026-01-21 23:30:28.25	64.87	66.19	-42.5	-46.4	12.0	3.33e-04	0	58	0	591396864	55	6059
2026-01-21 23:30:29.26	65.81	66.47	-42.3	-46.0	12.5	2.01e-04	0	58	0	593494016	55	5744
2026-01-21 23:30:30.27	66.77	66.75	-42.1	-45.6	12.9	7.85e-05	0	58	0	594542592	55	5499
2026-01-21 23:30:31.28	67.75	67.02	-42.1	-45.6	12.9	5.64e-05	0	58	0	596639744	55	5508
2026-01-21 23:30:32.28	68.75	67.29	-42.3	-46.1	12.4	1.02e-04	0	58	0	598736896	55	5823
2026-01-21 23:30:33.29	69.79	67.55	-42.6	-46.6	11.8	3.17e-04	0	58	0	600834048	55	6186
2026-01-21 23:30:34.30	70.85	67.80	-42.9	-47.2	11.4	7.15e-04	0	58	0	602931200	56	6240
2026-01-21 23:30:35.31	71.94	68.05	-43.0	-47.5	11.1	1.26e-03	0	58	0	603979776	56	6432
2026-01-21 23:30:36.32	73.05	68.30	-43.2	-47.8	10.7	2.00e-03	0	58	0	606076928	56	6696
2026-01-21 23:30:37.33	74.19	68.53	-43.3	-48.1	10.4	4.24e-03	0	58	0	608174080	57	6550
2026-01-21 23:30:38.34	75.36	68.76	-43.1	-47.7	10.8	3.06e-03	0	58	0	610271232	57	6238
2026-01-21 23:30:39.35	76.56	68.98	-43.0	-47.4	11.2	1.17e-03	0	58	0	612368384	57	6028
2026-01-21 23:30:40.36	77.78	69.19	-43.0	-47.5	11.1	1.16e-03	0	58	0	614465536	57	6076
2026-01-21 23:30:41.37	79.03	69.40	-43.2	-47.9	10.6	2.59e-03	0	58	0	615514112	57	6414
2026-01-21 23:30:42.38	80.30	69.59	-43.3	-48.1	10.4	3.92e-03	0	58	0	617611264	57	6547
2026-01-21 23:30:43.39	81.60	69.78	-43.3	-48.0	10.4	3.70e-03	0	58	0	619708416	57	6488
2026-01-21 23:30:44.40	82.93	69.95	-43.1	-47.6	10.8	2.72e-03	0	58	0	621805568	57	6154
2026-01-21 23:30:45.41	84.28	70.12	-43.0	-47.3	11.2	1.54e-03	0	58	0	623902720	57	5991
2026-01-21 23:30:46.42	85.65	70.28	-43.0	-47.4	11.2	1.60e-03	0	58	0	624951296	57	5994
2026-01-21 23:30:47.43	87.05	70.42	-43.2	-47.9	10.6	2.41e-03	0	58	0	627048448	57	6353
2026-01-21 23:30:48.44	88.47	70.56	-43.0	-47.4	11.1	2.16e-03	0	58	0	629145600	57	6044
2026-01-21 23:30:49.45	89.91	70.68	-42.9	-47.1	11.5	1.11e-03	0	58	0	631242752	57	5838
2026-01-21 23:30:50.46	91.37	70.80	-42.8	-46.9	11.6	8.28e-04	0	58	0	633339904	57	5698
2026-01-21 23:30:51.46	92.83	70.90	-42.3	-45.9	12.7	1.66e-04	0	58	0	634388480	56	5347
2026-01-21 23:30:52.47	94.32	70.98	-42.0	-45.3	13.3	2.74e-05	0	58	0	636485632	56	5038
2026-01-21 23:30:53.48	95.82	71.06	-41.8	-45.0	13.5	2.05e-05	0	58	0	638582784	55	5155
2026-01-21 23:30:54.49	97.34	71.13	-41.9	-45.3	13.2	1.67e-05	0	58	0	640679936	55	5291
2026-01-21 23:30:55.50	98.86	71.18	-42.0	-45.5	12.9	3.35e-05	0	58	0	642777088	55	5454
2026-01-21 23:30:56.51	100.40	71.22	-42.0	-45.5	12.9	6.94e-05	0	58	0	643825664	55	5457
2026-01-21 23:30:57.52	101.94	71.25	-41.8	-45.1	13.4	2.51e-05	0	58	0	645922816	55	5182
2026-01-21 23:30:58.53	103.48	71.26	-41.5	-44.6	13.8	6.10e-06	0	58	0	648019968	54	5162
2026-01-21 23:30:59.54	105.03	71.26	-41.7	-44.9	13.7	6.80e-06	0	58	0	650117120	54	5349
2026-01-21 23:31:00.55	106.57	71.25	-41.7	-44.9	13.5	1.37e-05	0	58	0	652214272	54	5397
2026-01-21 23:31:01.56	108.12	71.23	-41.5	-44.7	13.9	5.30e-06	0	58	0	653262848	54	5224
2026-01-21 23:31:02.57	109.65	71.19	-41.6	-44.7	13.6	6.80e-06	0	58	0	655360000	54	5277
2026-01-21 23:31:03.58	111.18	71.14	-41.8	-45.2	13.3	1.06e-05	0	58	0	657457152	54	5544
2026-01-21 23:31:04.59	112.70	71.08	-42.3	-46.1	12.4	8.39e-05	0	58	0	659554304	55	5838
2026-01-21 23:31:05.60	114.21	71.01	-42.6	-46.7	11.6	5.09e-04	0	58	0	661651456	55	6255
2026-01-21 23:31:06.61	115.71	70.92	-42.4	-46.4	12.0	4.05e-04	0	58	0	662700032	55	6014
2026-01-21 23:31:07.62	117.19	70.82	-42.5	-46.5	11.9	3.13e-04	0	58	0	664797184	55	6100
2026-01-21 23:31:08.63	118.65	70.71	-42.5	-46.6	11.7	5.53e-04	0	58	0	666894336	55	6142
2026-01-21 23:31:09.63	120.08	70.59	-42.5	-46.4	12.0	5.26e-04	0	58	0	668991488	55	6040
2026-01-21 23:31:10.64	121.50	70.46	-42.9	-47.1	11.4	7.88e-04	0	58	0	671088640	56	6165
2026-01-21 23:31:11.65	122.91	70.32	-43.1	-47.7	10.7	1.99e-03	0	58	0	672137216	56	6627
2026-01-21 23:31:12.66	124.29	70.17	-43.1	-47.6	10.8	2.70e-03	0	58	0	674234368	56	6564
2026-01-21 23:31:13.67	125.65	70.00	-42.9	-47.3	11.3	1.66e-03	0	58	0	676331520	56	6275
2026-01-21 23:31:14.68	126.98	69.83	-43.1	-47.5	11.0	1.65e-03	0	58	0	678428672	56	6484
2026-01-21 23:31:15.69	128.29	69.64	-43.0	-47.4	11.1	2.31e-03	0	58	0	680525824	56	6386
2026-01-21 23:31:16.70	129.58	69.45	-43.1	-47.5	11.0	1.76e-03	0	58	0	682622976	56	6483
2026-01-21 23:31:17.71	130.83	69.25	-43.0	-47.3	11.1	1.98e-03	0	58	0	683671552	56	6344
2026-01-21 23:31:18.72	132.06	69.04	-42.8	-47.0	11.6	1.04e-03	0	58	0	685768704	56	6068
2026-01-21 23:31:19.73	133.27	68.82	-42.7	-46.7	11.8	4.49e-04	0	58	0	687865856	56	5911
2026-01-21 23:31:20.74	134.45	68.59	-42.9	-47.1	11.3	1.14e-03	0	58	0	689963008	56	6196
2026-01-21 23:31:21.75	135.60	68.36	-42.8	-47.0	11.6	8.99e-04	0	58	0	692060160	56	6075
2026-01-21 23:31:22.76	136.72	68.12	-43.0	-47.3	11.2	7.89e-04	0	58	0	693108736	56	6314
2026-01-21 23:31:23.77	137.82	67.87	-43.6	-48.9	9.5	7.28e-03	0	58	0	695205888	57	7159
2026-01-21 23:31:24.78	138.89	67.62	-43.6	-48.8	9.6	1.65e-02	0	58	0	697303040	57	7109
2026-01-21 23:31:25.79	139.93	67.36	-43.5	-48.5	9.9	9.39e-03	0	58	0	699400192	57	6872
2026-01-21 23:31:26.80	140.95	67.09	-43.6	-49.0	9.4	1.44e-02	0	58	0	701497344	57	7249
2026-01-21 23:31:27.81	141.94	66.82	-43.8	-49.3	9.1	1.98e-02	0	58	0	702545920	58	7104
2026-01-21 23:31:28.82	142.91	66.54	-43.7	-49.0	9.4	2.02e-02	0	58	0	704643072	58	6843
2026-01-21 23:31:29.83	143.85	66.26	-43.9	-49.8	8.6	2.38e-02	0	58	0	706740224	58	7539
2026-01-21 23:31:30.84	144.77	65.97	-43.7	-49.2	9.1	3.35e-02	0	58	0	708837376	58	7036
2026-01-21 23:31:31.85	145.66	65.68	-43.2	-47.9	10.6	8.72e-03	0	58	0	710934528	58	6017
2026-01-21 23:31:32.86	146.53	65.39	-43.1	-47.7	10.8	2.51e-03	0	58	0	711983104	58	5875
2026-01-21 23:31:33.87	147.38	65.09	-42.9	-47.2	11.2	1.73e-03	0	58	0	714080256	57	5910
2026-01-21 23:31:34.88	148.20	64.78	-42.8	-46.9	11.5	8.77e-04	0	58	0	716177408	57	5714
2026-01-21 23:31:35.89	149.01	64.48	-42.4	-46.1	12.5	4.74e-04	0	58	0	718274560	56	5514
2026-01-21 23:31:36.90	149.79	64.17	-41.6	-44.9	13.6	2.28e-05	0	58	0	720371712	55	5043
2026-01-21 23:31:37.91	150.55	63.86	-40.7	-43.3	15.2	7.00e-07	0	58	0	721420288	53	4706
2026-01-21 23:31:38.92	151.29	63.54	-40.2	-42.5	16.0	0.00e+00	0	58	0	723517440	52	4567
2026-01-21 23:31:39.93	152.01	63.23	-40.5	-43.0	15.6	0.00e+00	0	58	0	725614592	52	4815
2026-01-21 23:31:40.94	152.72	62.91	-40.6	-43.1	15.4	0.00e+00	0	58	0	727711744	52	4902
2026-01-21 23:31:41.95	153.40	62.59	-40.1	-42.4	16.1	0.00e+00	0	58	0	729808896	52	4525
2026-01-21 23:31:42.96	154.07	62.26	-39.7	-41.9	16.7	0.00e+00	0	58	0	730857472	51	4507
2026-01-21 23:31:43.97	154.72	61.94	-39.6	-41.7	16.9	0.00e+00	0	58	0	732954624	51	4408
2026-01-21 23:31:44.98	155.35	61.61	-40.1	-42.3	16.2	0.00e+00	0	58	0	735051776	51	4753
2026-01-21 23:31:45.99	155.96	61.28	-40.5	-43.0	15.6	0.00e+00	0	58	0	737148928	51	5142
2026-01-21 23:31:47.00	156.56	60.96	-40.6	-43.2	15.4	0.00e+00	0	58	0	739246080	51	5219
2026-01-21 23:31:48.01	157.15	60.63	-40.1	-42.4	16.0	0.00e+00	0	58	0	740294656	51	4804
2026-01-21 23:31:49.02	157.72	60.30	-40.4	-42.8	15.8	0.00e+00	0	58	0	742391808	51	5031
2026-01-21 23:31:50.03	158.27	59.97	-41.2	-44.1	14.4	0.00e+00	0	58	0	744488960	52	5498
2026-01-21 23:31:51.04	158.81	59.63	-42.0	-45.6	12.8	2.36e-05	0	58	0	746586112	54	5801
2026-01-21 23:31:52.05	159.34	59.30	-41.8	-45.3	13.1	6.79e-05	0	58	0	748683264	54	5595
2026-01-21 23:31:53.06	159.86	58.97	-41.5	-44.5	13.9	6.10e-06	0	58	0	750780416	54	5156
2026-01-21 23:31:54.06	160.35	58.64	-41.4	-44.4	14.1	4.50e-06	0	58	0	751828992	54	5076
2026-01-21 23:31:55.08	160.85	58.30	-42.0	-45.4	13.0	3.80e-06	0	58	0	753926144	54	5690
2026-01-21 23:31:56.09	161.33	57.97	-43.0	-47.4	11.1	7.95e-04	0	58	0	756023296	56	6390
2026-01-21 23:31:57.10	161.79	57.64	-43.5	-48.7	9.7	1.08e-02	0	58	0	758120448	57	7019
2026-01-21 23:31:58.10	162.24	57.31	-42.5	-46.5	12.0	4.37e-03	0	58	0	760217600	57	5407
2026-01-21 23:31:59.11	162.69	56.98	-41.2	-44.1	14.4	1.50e-06	0	58	0	761266176	54	4872
2026-01-21 23:32:00.12	163.12	56.65	-40.7	-43.4	15.1	0.00e+00	0	58	0	763363328	53	4765
2026-01-21 23:32:01.13	163.54	56.31	-41.4	-44.3	14.2	0.00e+00	0	58	0	765460480	53	5339
2026-01-21 23:32:02.14	163.96	55.98	-42.1	-45.7	12.7	9.90e-06	0	58	0	767557632	54	5908
2026-01-21 23:32:03.15	164.36	55.65	-42.0	-45.6	12.9	9.76e-05	0	58	0	769654784	54	5797
2026-01-21 23:32:04.16	164.76	55.32	-41.2	-44.2	14.3	1.29e-05	0	58	0	770703360	54	4927
2026-01-21 23:32:05.17	165.14	55.00	-40.4	-42.8	15.6	0.00e+00	0	58	0	772800512	52	4745
2026-01-21 23:32:06.18	165.52	54.67	-39.6	-41.7	16.8	0.00e+00	0	58	0	774897664	51	4440
2026-01-21 23:32:07.19	165.89	54.34	-39.5	-41.6	17.0	0.00e+00	0	58	0	776994816	51	4374
2026-01-21 23:32:08.20	166.25	54.01	-40.0	-42.3	16.3	0.00e+00	0	58	0	779091968	51	4724
2026-01-21 23:32:09.21	166.60	53.69	-40.7	-43.3	15.3	0.00e+00	0	58	0	780140544	51	5320
2026-01-21 23:32:10.22	166.94	53.37	-40.8	-43.5	15.0	0.00e+00	0	58	0	782237696	52	5116
2026-01-21 23:32:11.23	167.28	53.04	-40.3	-42.7	15.8	0.00e+00	0	58	0	784334848	52	4670
2026-01-21 23:32:12.24	167.61	52.72	-39.8	-41.9	16.6	0.00e+00	0	58	0	786432000	51	4543
2026-01-21 23:32:13.25	167.93	52.40	-39.9	-42.1	16.4	0.00e+00	0	58	0	788529152	51	4649
2026-01-21 23:32:14.25	168.25	52.08	-40.4	-42.8	15.8	0.00e+00	0	58	0	789577728	51	4989
2026-01-21 23:32:15.26	168.56	51.76	-40.9	-43.6	14.8	0.00e+00	0	58	0	791674880	52	5190
2026-01-21 23:32:16.27	168.86	51.45	-41.3	-44.3	14.1	0.00e+00	0	58	0	793772032	53	5334
2026-01-21 23:32:17.28	169.16	51.13	-41.8	-45.1	13.3	6.80e-06	0	58	0	795869184	54	5519
2026-01-21 23:32:18.29	169.45	50.82	-42.1	-45.8	12.7	3.20e-05	0	58	0	797966336	54	5944
2026-01-21 23:32:19.30	169.73	50.50	-42.2	-45.8	12.5	1.18e-04	0	58	0	799014912	54	5992
2026-01-21 23:32:20.31	170.01	50.19	-42.2	-45.8	12.5	1.33e-04	0	58	0	801112064	55	5643
2026-01-21 23:32:21.32	170.28	49.88	-42.3	-46.1	12.3	1.07e-04	0	58	0	803209216	55	5802
2026-01-21 23:32:22.33	170.55	49.57	-42.9	-47.3	11.2	7.71e-04	0	58	0	805306368	56	6298
2026-01-21 23:32:23.34	170.81	49.27	-44.0	-50.1	8.4	1.39e-02	0	58	0	807403520	58	7728
2026-01-21 23:32:24.35	171.07	48.96	-44.5	-52.4	6.2	1.48e-01	0	58	0	808452096	59	9514
2026-01-21 23:32:25.36	171.32	48.66	-44.2	-51.1	7.2	2.05e-01	0	58	0	810549248	59	8250
2026-01-21 23:32:26.37	171.57	48.35	-43.6	-48.9	9.5	3.81e-02	0	58	0	812646400	59	6354
2026-01-21 23:32:27.38	171.81	48.05	-43.1	-47.6	10.9	5.48e-03	0	58	0	814743552	58	5803
2026-01-21 23:32:28.39	172.05	47.75	-43.0	-47.3	11.1	1.59e-03	0	58	0	816840704	57	5971
2026-01-21 23:32:29.40	172.29	47.45	-42.8	-47.0	11.5	9.18e-04	0	58	0	818937856	57	5758
2026-01-21 23:32:30.41	172.52	47.16	-43.1	-47.7	10.7	1.60e-03	0	58	0	819986432	57	6270
2026-01-21 23:32:31.42	172.74	46.86	-43.2	-48.0	10.4	2.80e-03	0	58	0	822083584	57	6422
2026-01-21 23:32:32.43	172.96	46.57	-43.6	-48.9	9.5	9.82e-03	0	58	0	824180736	57	7180
2026-01-21 23:32:33.44	173.18	46.28	-43.7	-49.3	9.0	2.24e-02	0	58	0	826277888	57	7526
2026-01-21 23:32:34.44	173.39	45.99	-43.3	-48.2	10.1	1.58e-02	0	58	0	827326464	57	6634
2026-01-21 23:32:35.46	173.60	45.70	-42.6	-46.7	11.7	1.38e-03	0	58	0	829423616	57	5566
2026-01-21 23:32:36.46	173.81	45.41	-42.2	-45.9	12.6	1.94e-04	0	58	0	831520768	56	5348
2026-01-21 23:32:37.47	174.01	45.13	-41.7	-45.0	13.4	3.66e-05	0	58	0	833617920	55	5123
2026-01-21 23:32:38.48	174.21	44.84	-41.8	-45.1	13.3	1.06e-05	0	58	0	835715072	55	5161
2026-01-21 23:32:39.49	174.40	44.56	-41.7	-45.0	13.4	5.30e-06	0	58	0	836763648	55	5108
2026-01-21 23:32:40.50	174.59	44.28	-42.2	-45.8	12.5	3.73e-05	0	58	0	838860800	55	5649
2026-01-21 23:32:41.51	174.78	44.00	-42.6	-46.8	11.6	5.40e-04	0	58	0	840957952	55	6276
2026-01-21 23:32:42.52	174.97	43.73	-42.5	-46.6	11.8	5.61e-04	0	58	0	843055104	55	6137
2026-01-21 23:32:43.53	175.15	43.45	-42.5	-46.5	11.8	5.40e-04	0	58	0	845152256	55	6111
2026-01-21 23:32:44.54	175.33	43.18	-42.1	-45.7	12.6	2.60e-04	0	58	0	847249408	55	5544
2026-01-21 23:32:45.55	175.51	42.91	-41.7	-45.1	13.2	3.89e-05	0	58	0	848297984	55	5190
2026-01-21 23:32:46.56	175.68	42.64	-41.4	-44.4	13.9	6.10e-06	0	58	0	850395136	54	5094
2026-01-21 23:32:47.57	175.85	42.37	-41.2	-44.2	14.2	2.20e-06	0	58	0	852492288	54	4954
2026-01-21 23:32:48.58	176.02	42.10	-41.2	-44.1	14.3	7.00e-07	0	58	0	854589440	54	4890
2026-01-21 23:32:49.59	176.18	41.83	-41.5	-44.6	13.8	3.00e-06	0	58	0	856686592	54	5178
2026-01-21 23:32:50.60	176.34	41.57	-42.0	-45.6	12.7	1.67e-05	0	58	0	857735168	54	5822
2026-01-21 23:32:51.61	176.50	41.31	-42.7	-47.1	11.2	7.19e-04	0	58	0	859832320	55	6529
2026-01-21 23:32:52.62	176.66	41.05	-43.3	-48.5	9.8	5.58e-03	0	58	0	861929472	57	6819
2026-01-21 23:32:53.63	176.82	40.79	-43.6	-49.2	9.1	1.63e-02	0	58	0	864026624	57	7411
2026-01-21 23:32:54.64	176.97	40.53	-43.2	-48.2	10.1	1.02e-02	0	58	0	866123776	57	6641
2026-01-21 23:32:55.65	177.12	40.28	-42.7	-46.9	11.4	2.11e-03	0	58	0	867172352	57	5700
2026-01-21 23:32:56.66	177.27	40.02	-42.3	-46.0	12.4	3.25e-04	0	58	0	869269504	56	5449
2026-01-21 23:32:57.67	177.41	39.77	-42.2	-45.9	12.5	1.29e-04	0	58	0	871366656	56	5374
2026-01-21 23:32:58.67	177.56	39.52	-42.1	-45.6	12.8	7.93e-05	0	58	0	873463808	56	5183
2026-01-21 23:32:59.68	177.70	39.27	-42.1	-45.6	12.9	5.41e-05	0	58	0	875560960	56	5168
2026-01-21 23:33:00.69	177.84	39.03	-42.4	-46.1	12.3	4.57e-05	0	58	0	876609536	56	5512
2026-01-21 23:33:01.70	177.97	38.78	-42.6	-46.7	11.7	4.07e-04	0	58	0	878706688	56	5882
2026-01-21 23:33:02.71	178.11	38.54	-43.0	-47.5	10.9	1.51e-03	0	58	0	880803840	56	6479
2026-01-21 23:33:03.72	178.24	38.29	-43.2	-48.2	10.2	4.36e-03	0	58	0	882900992	56	6961
2026-01-21 23:33:04.73	178.38	38.05	-43.2	-48.2	10.0	6.84e-03	0	58	0	884998144	57	6637
2026-01-21 23:33:05.74	178.50	37.81	-43.2	-48.3	10.0	7.51e-03	0	58	0	886046720	57	6665
2026-01-21 23:33:06.75	178.63	37.57	-43.0	-47.8	10.5	5.62e-03	0	58	0	888143872	57	6283
2026-01-21 23:33:07.76	178.76	37.34	-42.9	-47.3	11.0	2.18e-03	0	58	0	890241024	57	5980
2026-01-21 23:33:08.77	178.88	37.10	-42.8	-47.3	11.0	1.77e-03	0	58	0	892338176	57	5926
2026-01-21 23:33:09.78	179.01	36.87	-42.5	-46.6	11.8	9.11e-04	0	58	0	894435328	57	5468
2026-01-21 23:33:10.79	179.13	36.64	-42.4	-46.2	12.2	3.09e-04	0	58	0	895483904	56	5590
2026-01-21 23:33:11.80	179.25	36.41	-42.1	-45.7	12.7	8.77e-05	0	58	0	897581056	56	5226
2026-01-21 23:33:12.81	179.36	36.18	-42.1	-45.7	12.8	6.48e-05	0	58	0	899678208	56	5230
2026-01-21 23:33:13.82	179.48	35.95	-42.2	-45.9	12.5	1.02e-04	0	58	0	901775360	56	5383
2026-01-21 23:33:14.83	179.59	35.72	-42.4	-46.3	12.2	1.85e-04	0	58	0	903872512	56	5605
2026-01-21 23:33:15.84	179.71	35.50	-42.6	-46.7	11.7	4.57e-04	0	58	0	904921088	56	5863
2026-01-21 23:33:16.84	179.82	35.28	-42.7	-46.9	11.5	6.00e-04	0	58	0	907018240	56	6007
2026-01-21 23:33:17.85	179.93	35.06	-42.7	-47.0	11.3	7.03e-04	0	58	0	909115392	56	6131
2026-01-21 23:33:18.86	180.04	34.84	-42.7	-47.0	11.4	1.20e-03	0	58	0	911212544	56	6089
2026-01-21 23:33:19.87	180.14	34.62	-42.8	-47.1	11.2	1.10e-03	0	58	0	913309696	56	6165
2026-01-21 23:33:20.88	180.25	34.40	-42.9	-47.3	11.0	1.62e-03	0	58	0	915406848	56	6334
2026-01-21 23:33:21.89	180.35	34.19	-42.9	-47.5	10.8	2.12e-03	0	58	0	916455424	56	6465
2026-01-21 23:33:22.90	180.46	33.97	-42.9	-47.5	10.8	2.37e-03	0	58	0	918552576	56	6453
2026-01-21 23:33:23.91	180.56	33.76	-42.9	-47.5	10.8	2.92e-03	0	58	0	920649728	56	6479
2026-01-21 23:33:24.92	180.66	33.55	-42.9	-47.5	10.8	2.36e-03	0	58	0	922746880	56	6442
2026-01-21 23:33:25.93	180.76	33.34	-42.9	-47.4	10.9	2.39e-03	0	58	0	924844032	56	6369
2026-01-21 23:33:26.94	180.86	33.13	-42.8	-47.3	11.0	2.30e-03	0	58	0	925892608	56	6285
2026-01-21 23:33:27.95	180.95	32.92	-42.7	-46.9	11.4	1.10e-03	0	58	0	927989760	56	6061
2026-01-21 23:33:28.96	181.05	32.71	-42.6	-46.7	11.6	6.93e-04	0	58	0	930086912	56	5874
2026-01-21 23:33:29.97	181.14	32.51	-42.6	-46.8	11.5	8.06e-04	0	58	0	932184064	56	5952
2026-01-21 23:33:30.98	181.24	32.30	-42.7	-46.9	11.5	8.85e-04	0	58	0	934281216	56	6028
2026-01-21 23:33:31.99	181.33	32.10	-42.7	-47.1	11.3	9.47e-04	0	58	0	935329792	56	6136
2026-01-21 23:33:33.00	181.42	31.90	-42.8	-47.3	11.1	1.32e-03	0	58	0	937426944	56	6280
2026-01-21 23:33:34.01	181.51	31.70	-42.9	-47.5	10.8	2.47e-03	0	58	0	939524096	56	6482
2026-01-21 23:33:35.02	181.60	31.50	-43.0	-47.8	10.5	3.53e-03	0	58	0	941621248	56	6661
2026-01-21 23:33:36.03	181.69	31.30	-43.1	-47.8	10.4	4.13e-03	0	58	0	943718400	56	6716
2026-01-21 23:33:37.04	181.77	31.11	-43.1	-48.0	10.2	5.86e-03	0	58	0	944766976	56	6834
2026-01-21 23:33:38.05	181.86	30.91	-43.1	-48.0	10.2	6.02e-03	0	58	0	946864128	56	6822
2026-01-21 23:33:39.06	181.95	30.72	-43.2	-48.2	10.1	6.00e-03	0	58	0	948961280	56	6977
2026-01-21 23:33:40.07	182.03	30.53	-43.1	-48.0	10.2	6.11e-03	0	58	0	951058432	56	6838
2026-01-21 23:33:41.08	182.11	30.34	-43.1	-47.9	10.4	5.63e-03	0	58	0	953155584	56	6731
2026-01-21 23:33:42.09	182.20	30.15	-42.9	-47.6	10.7	3.54e-03	0	58	0	954204160	56	6530
2026-01-21 23:33:43.10	182.28	29.96	-42.9	-47.6	10.7	2.60e-03	0	58	0	956301312	56	6498
2026-01-21 23:33:44.11	182.36	29.77	-42.8	-47.2	11.0	1.95e-03	0	58	0	958398464	56	6258
2026-01-21 23:33:45.11	182.44	29.58	-42.6	-46.7	11.6	1.13e-03	0	58	0	960495616	56	5917
2026-01-21 23:33:46.12	182.51	29.40	-42.5	-46.5	11.8	5.57e-04	0	58	0	962592768	56	5751
2026-01-21 23:33:47.13	182.59	29.21	-42.4	-46.3	12.0	4.08e-04	0	58	0	963641344	56	5619
2026-01-21 23:33:48.14	182.67	29.03	-42.4	-46.4	11.9	3.07e-04	0	58	0	965738496	56	5679
2026-01-21 23:33:49.15	182.75	28.85	-42.2	-46.0	12.3	3.36e-04	0	58	0	967835648	56	5455
2026-01-21 23:33:50.16	182.82	28.67	-42.1	-45.7	12.6	9.23e-05	0	58	0	969932800	56	5237
2026-01-21 23:33:51.17	182.89	28.49	-41.8	-45.3	12.8	5.72e-05	0	58	0	972029952	55	5316
2026-01-21 23:33:52.18	182.97	28.31	-41.8	-45.3	12.8	5.26e-05	0	58	0	973078528	55	5311
2026-01-21 23:33:53.19	183.04	28.13	-41.7	-45.2	13.0	4.34e-05	0	58	0	975175680	55	5254
2026-01-21 23:33:54.20	183.11	27.96	-41.6	-45.0	13.1	3.35e-05	0	58	0	977272832	55	5151
2026-01-21 23:33:55.21	183.19	27.78	-41.6	-45.0	13.1	2.28e-05	0	58	0	979369984	55	5143
2026-01-21 23:33:56.22	183.26	27.61	-41.7	-45.1	13.1	2.97e-05	0	58	0	981467136	55	5195
2026-01-21 23:33:57.23	183.33	27.43	-41.6	-45.0	13.1	2.28e-05	0	58	0	982515712	55	5153
2026-01-21 23:33:58.23	183.39	27.26	-41.7	-45.1	13.0	3.12e-05	0	58	0	984612864	55	5199
2026-01-21 23:33:59.24	183.46	27.09	-41.7	-45.1	13.0	3.43e-05	0	58	0	986710016	55	5204
2026-01-21 23:34:00.25	183.53	26.92	-41.7	-45.2	12.9	4.19e-05	0	58	0	988807168	55	5277
2026-01-21 23:34:01.26	183.60	26.75	-41.8	-45.4	12.8	5.41e-05	0	58	0	990904320	55	5358
2026-01-21 23:34:02.27	183.66	26.59	-41.8	-45.4	12.7	4.88e-05	0	58	0	993001472	55	5386
2026-01-21 23:34:03.28	183.73	26.42	-41.9	-45.5	12.7	8.92e-05	0	58	0	994050048	55	5416
2026-01-21 23:34:04.29	183.80	26.25	-41.9	-45.5	12.6	8.39e-05	0	58	0	996147200	55	5433
2026-01-21 23:34:05.30	183.86	26.09	-41.9	-45.6	12.5	1.04e-04	0	58	0	998244352	55	5499
2026-01-21 23:34:06.31	183.92	25.92	-41.9	-45.6	12.5	1.25e-04	0	58	0	1000341504	55	5497
2026-01-21 23:34:07.32	183.99	25.76	-41.9	-45.6	12.6	1.07e-04	0	58	0	1002438656	55	5485
2026-01-21 23:34:08.33	184.05	25.60	-41.9	-45.6	12.5	1.14e-04	0	58	0	1003487232	55	5509
2026-01-21 23:34:09.34	184.11	25.44	-41.8	-45.5	12.6	1.19e-04	0	58	0	1005584384	55	5430
2026-01-21 23:34:10.35	184.17	25.28	-41.7	-45.3	12.8	6.63e-05	0	58	0	1007681536	55	5308
2026-01-21 23:34:11.36	184.23	25.12	-41.7	-45.2	13.0	4.34e-05	0	58	0	1009778688	55	5229
2026-01-21 23:34:12.37	184.29	24.96	-41.7	-45.2	12.9	4.50e-05	0	58	0	1011875840	55	5263
2026-01-21 23:34:13.38	184.35	24.80	-41.7	-45.2	12.9	5.18e-05	0	58	0	1012924416	55	5274
2026-01-21 23:34:14.39	184.41	24.65	-41.6	-45.1	13.0	3.73e-05	0	58	0	1015021568	55	5176
2026-01-21 23:34:15.40	184.47	24.49	-41.5	-44.9	13.3	3.05e-05	0	58	0	1017118720	55	5043
2026-01-21 23:34:16.41	184.53	24.33	-41.5	-44.8	13.4	1.22e-05	0	58	0	1019215872	54	5303
2026-01-21 23:34:17.42	184.59	24.18	-41.5	-44.9	13.3	1.60e-05	0	58	0	1021313024	54	5351
2026-01-21 23:34:18.43	184.64	24.03	-41.4	-44.7	13.4	2.13e-05	0	58	0	1022361600	54	5277
2026-01-21 23:34:19.44	184.70	23.88	-41.4	-44.7	13.5	1.37e-05	0	58	0	1024458752	54	5227
2026-01-21 23:34:20.45	184.76	23.72	-41.4	-44.6	13.6	9.90e-06	0	58	0	1026555904	54	5182
2026-01-21 23:34:21.46	184.81	23.57	-41.4	-44.6	13.5	1.06e-05	0	58	0	1028653056	54	5194
2026-01-21 23:34:22.47	184.87	23.42	-41.3	-44.5	13.6	9.10e-06	0	58	0	1030750208	54	5147
2026-01-21 23:34:23.47	184.92	23.28	-41.3	-44.5	13.6	6.10e-06	0	58	0	1031798784	54	5130
2026-01-21 23:34:24.48	184.98	23.13	-41.3	-44.4	13.7	8.30e-06	0	58	0	1033895936	54	5087
2026-01-21 23:34:25.49	185.03	22.98	-41.3	-44.4	13.7	8.30e-06	0	58	0	1035993088	54	5087
2026-01-21 23:34:26.50	185.08	22.84	-41.2	-44.4	13.8	3.00e-06	0	58	0	1038090240	54	5065
2026-01-21 23:34:27.51	185.14	22.69	-41.2	-44.3	13.8	4.50e-06	0	58	0	1040187392	54	5026
2026-01-21 23:34:28.52	185.19	22.55	-41.2	-44.3	13.8	5.30e-06	0	58	0	1041235968	54	5015
2026-01-21 23:34:29.53	185.24	22.40	-41.2	-44.3	13.8	5.30e-06	0	58	0	1043333120	54	5003
2026-01-21 23:34:30.54	185.29	22.26	-41.2	-44.3	13.9	1.50e-06	0	58	0	1045430272	54	5008
2026-01-21 23:34:31.55	185.34	22.12	-41.2	-44.3	13.8	7.00e-07	0	58	0	1047527424	54	5031
2026-01-21 23:34:32.56	185.39	21.97	-41.2	-44.3	13.8	3.80e-06	0	58	0	1049624576	54	5027
2026-01-21 23:34:33.57	185.44	21.83	-41.2	-44.3	13.8	2.20e-06	0	58	0	1050673152	54	5031
2026-01-21 23:34:34.58	185.49	21.69	-41.2	-44.3	13.8	8.30e-06	0	58	0	1052770304	54	5008
2026-01-21 23:34:35.59	185.54	21.55	-41.2	-44.3	13.9	3.00e-06	0	58	0	1054867456	54	4993
2026-01-21 23:34:36.60	185.59	21.42	-41.2	-44.4	13.8	4.50e-06	0	58	0	1056964608	54	5049
2026-01-21 23:34:37.61	185.64	21.28	-41.2	-44.4	13.7	4.50e-06	0	58	0	1059061760	54	5069
2026-01-21 23:34:38.62	185.69	21.14	-41.2	-44.4	13.7	4.50e-06	0	58	0	1061158912	54	5085
2026-01-21 23:34:39.63	185.73	21.00	-41.3	-44.4	13.7	5.30e-06	0	58	0	1062207488	54	5095
2026-01-21 23:34:40.64	185.78	20.87	-41.3	-44.5	13.6	3.80e-06	0	58	0	1064304640	54	5137
2026-01-21 23:34:41.64	185.83	20.73	-41.3	-44.6	13.5	6.80e-06	0	58	0	1066401792	54	5182
2026-01-21 23:34:42.65	185.87	20.60	-41.3	-44.5	13.6	7.60e-06	0	58	0	1068498944	54	5119
2026-01-21 23:34:43.66	185.92	20.47	-41.3	-44.6	13.5	6.80e-06	0	58	0	1070596096	54	5178
2026-01-21 23:34:44.67	185.96	20.33	-41.3	-44.6	13.5	9.10e-06	0	58	0	1071644672	54	5161
2026-01-21 23:34:45.68	186.01	20.20	-41.3	-44.6	13.5	9.90e-06	0	58	0	1073741824	54	5185
2026-01-21 23:34:46.69	186.05	20.07	-41.4	-44.7	13.4	1.37e-05	0	58	0	1075838976	54	5250
2026-01-21 23:34:47.70	186.10	19.94	-41.5	-44.8	13.2	9.90e-06	0	58	0	1077936128	54	5340
2026-01-21 23:34:48.71	186.14	19.81	-41.5	-44.9	13.2	2.36e-05	0	58	0	1080033280	54	5354
2026-01-21 23:34:49.72	186.19	19.68	-41.5	-44.9	13.2	3.12e-05	0	58	0	1081081856	54	5378
2026-01-21 23:34:50.73	186.23	19.55	-41.5	-45.0	13.1	1.60e-05	0	58	0	1083179008	54	5436
2026-01-21 23:34:51.74	186.27	19.42	-41.6	-45.1	13.0	3.20e-05	0	58	0	1085276160	54	5465
2026-01-21 23:34:52.75	186.32	19.30	-41.5	-45.0	13.1	3.28e-05	0	58	0	1087373312	54	5422
2026-01-21 23:34:53.76	186.36	19.17	-41.6	-45.1	13.0	3.28e-05	0	58	0	1089470464	54	5477
2026-01-21 23:34:54.77	186.40	19.04	-41.6	-45.1	13.0	3.28e-05	0	58	0	1090519040	54	5506
2026-01-21 23:34:55.77	186.44	18.92	-41.6	-45.2	12.9	4.57e-05	0	58	0	1092616192	54	5533
2026-01-21 23:34:56.78	186.48	18.79	-41.7	-45.2	12.8	5.26e-05	0	58	0	1094713344	54	5590
2026-01-21 23:34:57.79	186.53	18.67	-41.7	-45.2	12.8	6.56e-05	0	58	0	1096810496	54	5588
2026-01-21 23:34:58.80	186.57	18.54	-41.6	-45.2	12.9	4.65e-05	0	58	0	1098907648	54	5557
2026-01-21 23:34:59.81	186.61	18.42	-41.7	-45.4	12.7	6.86e-05	0	58	0	1099956224	54	5686
2026-01-21 23:35:00.82	186.65	18.30	-41.7	-45.2	12.8	5.79e-05	0	58	0	1102053376	54	5586
2026-01-21 23:35:01.84	186.69	18.18	-41.6	-45.2	12.9	4.50e-05	0	58	0	1104150528	54	5529
2026-01-21 23:35:02.85	186.73	18.05	-41.6	-45.1	12.9	6.02e-05	0	58	0	1106247680	54	5525
2026-01-21 23:35:03.86	186.77	17.93	-41.6	-45.2	12.8	5.18e-05	0	58	0	1108344832	54	5560
2026-01-21 23:35:04.87	186.81	17.81	-41.7	-45.4	12.7	6.86e-05	0	58	0	1109393408	54	5660
2026-01-21 23:35:05.88	186.85	17.69	-41.7	-45.3	12.7	7.09e-05	0	58	0	1111490560	54	5605
2026-01-21 23:35:06.89	186.88	17.57	-41.7	-45.3	12.8	7.85e-05	0	58	0	1113587712	54	5600
2026-01-21 23:35:07.90	186.92	17.46	-41.7	-45.4	12.6	7.32e-05	0	58	0	1115684864	54	5671
2026-01-21 23:35:08.91	186.96	17.34	-41.8	-45.5	12.5	8.01e-05	0	58	0	1117782016	54	5725
2026-01-21 23:35:09.92	187.00	17.22	-41.8	-45.4	12.6	9.84e-05	0	58	0	1118830592	54	5717
2026-01-21 23:35:10.92	187.04	17.11	-41.8	-45.5	12.5	1.01e-04	0	58	0	1120927744	54	5737
2026-01-21 23:35:11.93	187.07	16.99	-41.8	-45.6	12.4	1.11e-04	0	58	0	1123024896	54	5826
2026-01-21 23:35:12.94	187.11	16.87	-41.8	-45.6	12.3	1.83e-04	0	58	0	1125122048	54	5844
2026-01-21 23:35:13.96	187.15	16.76	-41.8	-45.6	12.4	1.60e-04	0	58	0	1127219200	54	5815
2026-01-21 23:35:14.97	187.18	16.64	-41.9	-45.7	12.3	1.74e-04	0	58	0	1129316352	54	5878
2026-01-21 23:35:15.97	187.22	16.53	-41.8	-45.7	12.3	2.13e-04	0	58	0	1130364928	54	5867
2026-01-21 23:35:16.98	187.26	16.42	-41.8	-45.6	12.4	1.64e-04	0	58	0	1132462080	54	5836
2026-01-21 23:35:17.99	187.29	16.30	-41.8	-45.6	12.4	1.59e-04	0	58	0	1134559232	54	5801
2026-01-21 23:35:19.00	187.33	16.19	-41.8	-45.7	12.3	1.64e-04	0	58	0	1136656384	54	5864
2026-01-21 23:35:20.01	187.36	16.08	-41.9	-45.7	12.2	1.91e-04	0	58	0	1138753536	54	5895
2026-01-21 23:35:21.02	187.40	15.97	-41.9	-45.8	12.1	2.49e-04	0	58	0	1139802112	54	5991
2026-01-21 23:35:22.03	187.43	15.85	-41.9	-45.8	12.1	1.98e-04	0	58	0	1141899264	54	5988
2026-01-21 23:35:23.04	187.47	15.74	-42.0	-45.9	12.1	2.92e-04	0	58	0	1143996416	54	6024
2026-01-21 23:35:24.05	187.50	15.63	-41.9	-45.8	12.1	2.86e-04	0	58	0	1146093568	54	5982
2026-01-21 23:35:25.06	187.53	15.52	-41.9	-45.8	12.1	2.46e-04	0	58	0	1148190720	54	5969
2026-01-21 23:35:26.07	187.57	15.42	-41.9	-45.9	12.1	2.51e-04	0	58	0	1149239296	54	5998
2026-01-21 23:35:27.08	187.60	15.31	-41.9	-45.8	12.2	3.09e-04	0	58	0	1151336448	54	5946
