passes_logs/2026/01/21/R2.0S_Moscow/R2.0S_Moscow__20260121_020017_FENGYUN_3D_rec.log

#Pass ID: 20260121_020017_FENGYUN 3D
#Satellite: FENGYUN 3D
#Configuration: FENGYUN 3D
#almurnet v.1.7.20251203
#Start time: 2026-01-21 02:00:17

#Version: 2.2.20231116
#Station: R2.0S_Moscow
#Location: 37.707566 lon 55.798166 lat
#TLE: 1 43010U 17072A   26020.28933472  .00000051  00000+0  46008-4 0  9990
#TLE: 2 43010  98.9944 352.1871 0002476  99.7001 260.4455 14.19696838424006

#Time	Az	El	Level	Level2	SNR	BER	BlckErr	Temp	State	Recorded	gain1	gain2
2026-01-21 02:00:17.57	15.57	2.00	-42.9	-54.7	3.8	8.46e-01	0	49	0	0	57	13922
2026-01-21 02:00:18.57	15.56	2.06	-42.9	-54.7	3.8	8.46e-01	0	48	104	0	57	13976
2026-01-21 02:00:19.58	15.55	2.13	-42.9	-54.7	3.8	8.46e-01	0	49	104	0	57	13913
2026-01-21 02:00:20.59	15.55	2.19	-42.9	-54.7	3.8	8.47e-01	0	49	104	0	57	13893
2026-01-21 02:00:21.60	15.54	2.26	-42.9	-54.6	3.8	8.46e-01	0	49	104	0	57	13880
2026-01-21 02:00:22.61	15.53	2.32	-42.9	-54.7	3.8	8.47e-01	0	49	104	0	57	13932
2026-01-21 02:00:23.63	15.53	2.39	-42.9	-54.7	3.8	8.46e-01	0	49	104	0	57	13890
2026-01-21 02:00:24.64	15.52	2.45	-42.9	-54.7	3.8	8.46e-01	0	49	104	0	57	13919
2026-01-21 02:00:25.65	15.51	2.52	-42.9	-54.7	3.8	8.47e-01	0	49	104	0	57	13916
2026-01-21 02:00:26.66	15.50	2.58	-42.9	-54.6	3.8	8.45e-01	0	49	104	0	57	13884
2026-01-21 02:00:27.67	15.50	2.65	-42.9	-54.6	3.8	8.46e-01	0	49	104	0	57	13871
2026-01-21 02:00:28.68	15.49	2.72	-42.9	-54.7	3.8	8.46e-01	0	49	104	0	57	13963
2026-01-21 02:00:29.69	15.48	2.78	-42.9	-54.7	3.8	8.46e-01	0	49	104	0	57	13893
2026-01-21 02:00:30.70	15.48	2.85	-42.9	-54.6	3.8	8.45e-01	0	49	104	0	57	13844
2026-01-21 02:00:31.71	15.47	2.91	-42.9	-54.7	3.8	8.46e-01	0	49	104	0	57	13890
2026-01-21 02:00:32.72	15.46	2.98	-42.9	-54.7	3.8	8.45e-01	0	49	104	0	57	13906
2026-01-21 02:00:33.73	15.45	3.05	-42.9	-54.6	3.8	8.47e-01	0	50	104	0	57	13856
2026-01-21 02:00:34.74	15.45	3.11	-42.9	-54.6	3.8	8.45e-01	0	50	104	0	57	13847
2026-01-21 02:00:35.75	15.44	3.18	-42.9	-54.6	3.8	8.46e-01	0	50	104	0	57	13880
2026-01-21 02:00:36.76	15.43	3.25	-42.9	-54.6	3.8	8.46e-01	0	50	104	0	57	13854
2026-01-21 02:00:37.78	15.42	3.32	-42.9	-54.7	3.8	8.46e-01	0	50	104	0	57	13898
2026-01-21 02:00:38.79	15.42	3.38	-42.9	-54.6	3.8	8.46e-01	0	50	104	0	57	13881
2026-01-21 02:00:39.80	15.41	3.45	-42.9	-54.7	3.8	8.47e-01	0	50	104	0	57	13945
2026-01-21 02:00:40.81	15.40	3.52	-42.9	-54.6	3.8	8.45e-01	0	50	104	0	57	13877
2026-01-21 02:00:41.82	15.39	3.59	-42.9	-54.6	3.8	8.47e-01	0	50	104	0	57	13871
2026-01-21 02:00:42.83	15.38	3.66	-42.9	-54.6	3.8	8.46e-01	0	50	104	0	57	13868
2026-01-21 02:00:43.84	15.38	3.72	-42.9	-54.6	3.8	8.46e-01	0	50	104	0	57	13870
2026-01-21 02:00:44.85	15.37	3.79	-42.9	-54.6	3.8	8.46e-01	0	50	104	0	57	13860
2026-01-21 02:00:45.86	15.36	3.86	-42.9	-54.7	3.8	8.45e-01	0	51	104	0	57	13913
2026-01-21 02:00:46.87	15.35	3.93	-42.9	-54.7	3.8	8.45e-01	0	51	104	0	57	13897
2026-01-21 02:00:47.88	15.34	4.00	-42.9	-54.6	3.8	8.46e-01	0	51	104	0	57	13872
2026-01-21 02:00:48.89	15.34	4.07	-42.9	-54.6	3.8	8.46e-01	0	51	104	0	57	13864
2026-01-21 02:00:49.90	15.33	4.14	-42.9	-54.6	3.8	8.46e-01	0	51	104	0	57	13883
2026-01-21 02:00:50.91	15.32	4.21	-42.9	-54.6	3.8	8.46e-01	0	51	104	0	57	13829
2026-01-21 02:00:51.92	15.31	4.28	-42.9	-54.6	3.8	8.47e-01	0	51	104	0	57	13863
2026-01-21 02:00:52.93	15.30	4.35	-42.9	-54.6	3.8	8.46e-01	0	51	104	0	57	13881
2026-01-21 02:00:53.94	15.29	4.42	-42.9	-54.6	3.8	8.46e-01	0	51	104	0	57	13834
2026-01-21 02:00:54.95	15.29	4.49	-42.9	-54.6	3.8	8.46e-01	0	51	104	0	57	13816
2026-01-21 02:00:55.96	15.28	4.56	-42.9	-54.6	3.8	8.47e-01	0	51	104	0	57	13849
2026-01-21 02:00:56.97	15.27	4.63	-42.9	-54.6	3.8	8.46e-01	0	51	104	0	57	13739
2026-01-21 02:00:57.98	15.26	4.70	-42.9	-54.6	3.8	8.46e-01	0	51	104	0	57	13872
2026-01-21 02:00:58.99	15.25	4.77	-42.9	-54.6	3.8	8.46e-01	0	51	104	0	57	13859
2026-01-21 02:01:00.01	15.24	4.84	-42.9	-54.6	3.8	8.46e-01	0	51	104	0	57	13744
2026-01-21 02:01:01.02	15.23	4.91	-42.9	-54.6	3.8	8.46e-01	0	52	104	0	57	13870
2026-01-21 02:01:02.03	15.22	4.99	-42.9	-54.6	3.8	8.46e-01	0	52	104	0	57	13736
2026-01-21 02:01:03.04	15.21	5.06	-42.9	-54.5	3.8	8.47e-01	0	52	104	0	57	13653
2026-01-21 02:01:04.05	15.20	5.13	-42.9	-54.6	3.8	8.45e-01	0	51	104	0	57	13846
2026-01-21 02:01:05.06	15.20	5.20	-42.9	-54.5	3.8	8.47e-01	0	52	104	0	57	13619
2026-01-21 02:01:06.07	15.19	5.27	-42.9	-54.4	3.8	8.47e-01	0	52	104	0	57	13512
2026-01-21 02:01:07.08	15.18	5.35	-42.9	-54.6	3.8	8.47e-01	0	52	104	0	57	13773
2026-01-21 02:01:08.09	15.17	5.42	-42.9	-54.6	3.8	8.46e-01	0	52	104	0	57	13799
2026-01-21 02:01:09.10	15.16	5.49	-42.9	-54.3	3.8	8.47e-01	0	52	104	0	57	13378
2026-01-21 02:01:10.11	15.15	5.57	-42.8	-54.2	3.8	8.46e-01	0	52	104	0	57	13201
2026-01-21 02:01:11.13	15.14	5.64	-42.9	-54.5	3.8	8.45e-01	0	52	104	0	57	13715
2026-01-21 02:01:12.14	15.13	5.71	-42.9	-54.6	3.8	8.46e-01	0	52	104	0	57	13785
2026-01-21 02:01:13.15	15.12	5.79	-42.9	-54.3	3.8	8.46e-01	0	52	104	0	57	13402
2026-01-21 02:01:14.16	15.11	5.86	-42.8	-54.1	3.8	8.46e-01	0	52	104	0	57	13102
2026-01-21 02:01:15.17	15.10	5.94	-42.9	-54.2	3.8	8.47e-01	0	52	104	0	57	13125
2026-01-21 02:01:16.18	15.09	6.01	-42.9	-54.5	3.8	8.46e-01	0	52	104	0	57	13657
2026-01-21 02:01:17.19	15.08	6.08	-42.9	-54.6	3.8	8.47e-01	0	52	104	0	57	13839
2026-01-21 02:01:18.20	15.07	6.16	-42.9	-54.5	3.8	8.46e-01	0	53	104	0	57	13583
2026-01-21 02:01:19.21	15.06	6.23	-42.8	-54.1	3.8	8.46e-01	0	52	104	0	57	13083
2026-01-21 02:01:20.22	15.05	6.31	-42.8	-53.9	3.8	8.47e-01	0	52	104	0	57	12722
2026-01-21 02:01:21.23	15.04	6.39	-42.8	-53.6	3.8	8.46e-01	0	52	104	0	57	12336
2026-01-21 02:01:22.24	15.03	6.46	-42.8	-53.7	3.8	8.46e-01	0	53	104	0	57	12400
2026-01-21 02:01:23.25	15.02	6.54	-42.8	-53.7	3.8	8.46e-01	0	53	104	0	57	12503
2026-01-21 02:01:24.26	15.01	6.61	-42.8	-53.6	3.8	8.46e-01	0	53	104	0	57	12303
2026-01-21 02:01:25.27	15.00	6.69	-42.7	-53.3	3.8	8.46e-01	0	53	104	0	57	11841
2026-01-21 02:01:26.28	14.98	6.77	-42.6	-52.5	3.8	8.45e-01	0	53	104	0	57	10823
2026-01-21 02:01:27.29	14.97	6.84	-42.5	-51.4	4.1	8.40e-01	0	53	0	0	57	9499
2026-01-21 02:01:28.30	14.96	6.92	-42.3	-50.0	4.6	8.28e-01	0	53	0	0	56	8594
2026-01-21 02:01:29.31	14.95	7.00	-41.8	-48.3	5.4	7.47e-01	0	53	0	0	55	7486
2026-01-21 02:01:30.32	14.94	7.07	-41.4	-47.0	6.3	3.76e-01	0	53	0	4194304	54	6827
2026-01-21 02:01:31.34	14.93	7.15	-40.8	-45.4	7.8	1.18e-01	0	53	0	9437184	53	6008
2026-01-21 02:01:32.35	14.92	7.23	-40.2	-44.0	9.2	3.91e-02	0	53	0	15728640	52	5451
2026-01-21 02:01:33.36	14.91	7.31	-39.7	-43.0	10.3	1.08e-02	0	53	0	20971520	51	5128
2026-01-21 02:01:34.37	14.90	7.39	-39.5	-42.7	10.6	5.74e-03	0	53	0	26214400	51	4971
2026-01-21 02:01:35.38	14.88	7.47	-39.1	-42.0	11.4	1.31e-03	0	53	0	32505856	50	4817
2026-01-21 02:01:36.39	14.87	7.55	-39.1	-42.1	11.3	1.49e-03	0	53	0	37748736	50	4882
2026-01-21 02:01:37.40	14.86	7.63	-39.4	-42.6	10.8	3.07e-03	0	53	0	44040192	50	5185
2026-01-21 02:01:38.41	14.85	7.70	-40.0	-43.6	9.7	1.04e-02	0	53	0	49283072	50	5839
2026-01-21 02:01:39.42	14.84	7.78	-40.3	-44.2	9.1	2.36e-02	0	53	0	55574528	51	5889
2026-01-21 02:01:40.43	14.82	7.86	-40.0	-43.6	9.7	1.55e-02	0	53	0	60817408	51	5507
2026-01-21 02:01:41.44	14.81	7.94	-39.9	-43.5	9.8	1.20e-02	0	53	0	66060288	51	5430
2026-01-21 02:01:42.45	14.80	8.03	-40.4	-44.4	8.8	2.95e-02	0	53	0	72351744	51	6061
2026-01-21 02:01:43.47	14.79	8.11	-40.8	-45.1	8.1	8.67e-02	0	53	0	77594624	52	6193
2026-01-21 02:01:44.48	14.78	8.19	-40.1	-43.5	10.0	3.48e-02	0	54	0	83886080	52	5110
2026-01-21 02:01:45.49	14.76	8.27	-40.2	-43.7	10.0	1.39e-02	0	53	0	89128960	51	5555
2026-01-21 02:01:46.50	14.75	8.35	-42.3	-51.5	3.9	8.44e-01	0	53	104	90177536	55	10870
2026-01-21 02:01:47.51	14.74	8.43	-39.9	-43.2	10.3	4.48e-01	0	53	0	91226112	52	4954
2026-01-21 02:01:48.51	14.73	8.51	-40.1	-43.4	10.2	2.57e-02	0	53	0	97517568	51	5364
2026-01-21 02:01:49.52	14.71	8.60	-39.6	-42.5	11.2	2.20e-03	0	54	0	102760448	51	4838
2026-01-21 02:01:50.53	14.70	8.68	-39.6	-42.6	11.2	1.77e-03	0	54	0	109051904	50	5163
2026-01-21 02:01:51.55	14.69	8.76	-39.5	-42.3	11.5	1.49e-03	0	54	0	114294784	50	5009
2026-01-21 02:01:52.55	14.67	8.84	-39.5	-42.3	11.5	1.11e-03	0	54	0	119537664	50	5024
2026-01-21 02:01:53.57	14.66	8.93	-39.5	-42.4	11.4	1.34e-03	0	54	0	125829120	50	5078
2026-01-21 02:01:54.58	14.65	9.01	-39.5	-42.3	11.6	1.23e-03	0	54	0	131072000	50	5028
2026-01-21 02:01:55.59	14.63	9.10	-39.5	-42.3	11.6	8.16e-04	0	54	0	137363456	50	5015
2026-01-21 02:01:56.59	14.62	9.18	-39.4	-42.2	11.8	7.11e-04	0	54	0	142606336	50	4933
2026-01-21 02:01:57.60	14.61	9.26	-39.5	-42.2	11.8	6.90e-04	0	54	0	148897792	50	4971
2026-01-21 02:01:58.61	14.59	9.35	-39.4	-42.1	12.0	6.81e-04	0	54	0	154140672	50	4872
2026-01-21 02:01:59.62	14.58	9.43	-39.5	-42.2	11.8	5.65e-04	0	54	0	160432128	50	4970
2026-01-21 02:02:00.63	14.57	9.52	-39.3	-42.0	12.1	3.89e-04	0	54	0	165675008	50	4831
2026-01-21 02:02:01.64	14.55	9.60	-39.4	-42.1	12.0	5.30e-04	0	54	0	170917888	50	4889
2026-01-21 02:02:02.65	14.54	9.69	-39.4	-42.1	12.0	4.78e-04	0	54	0	177209344	50	4893
2026-01-21 02:02:03.66	14.52	9.78	-39.3	-41.9	12.2	3.42e-04	0	54	0	182452224	50	4785
2026-01-21 02:02:04.67	14.51	9.86	-39.3	-41.9	12.2	3.83e-04	0	54	0	187695104	50	4784
2026-01-21 02:02:05.68	14.49	9.95	-39.3	-41.9	12.2	3.20e-04	0	54	0	193986560	50	4791
2026-01-21 02:02:06.69	14.48	10.04	-39.3	-41.9	12.2	2.56e-04	0	54	0	199229440	50	4785
2026-01-21 02:02:07.70	14.46	10.13	-39.2	-41.7	12.5	2.80e-04	0	54	0	205520896	50	4698
2026-01-21 02:02:08.71	14.45	10.21	-39.1	-41.6	12.6	1.69e-04	0	54	0	210763776	50	4634
2026-01-21 02:02:09.72	14.44	10.30	-39.1	-41.6	12.6	1.80e-04	0	54	0	216006656	50	4608
2026-01-21 02:02:10.72	14.42	10.39	-39.1	-41.5	12.7	1.04e-04	0	54	0	222298112	50	4581
2026-01-21 02:02:11.73	14.41	10.48	-39.1	-41.5	12.7	1.17e-04	0	54	0	227540992	50	4593
2026-01-21 02:02:12.74	14.39	10.57	-39.2	-41.6	12.6	1.27e-04	0	54	0	233832448	50	4637
2026-01-21 02:02:13.75	14.37	10.66	-39.2	-41.7	12.6	1.56e-04	0	54	0	239075328	50	4652
2026-01-21 02:02:14.76	14.36	10.75	-39.1	-41.6	12.7	1.15e-04	0	54	0	245366784	50	4611
2026-01-21 02:02:15.77	14.34	10.84	-39.2	-41.6	12.7	1.30e-04	0	54	0	250609664	50	4643
2026-01-21 02:02:16.78	14.33	10.93	-39.1	-41.6	12.7	1.70e-04	0	55	0	256901120	50	4625
2026-01-21 02:02:17.79	14.31	11.02	-39.1	-41.5	12.8	1.04e-04	0	55	0	262144000	50	4593
2026-01-21 02:02:18.80	14.30	11.11	-39.2	-41.6	12.7	1.15e-04	0	54	0	267386880	50	4620
2026-01-21 02:02:19.81	14.28	11.20	-39.2	-41.6	12.7	1.21e-04	0	55	0	273678336	50	4640
2026-01-21 02:02:20.83	14.26	11.29	-39.2	-41.7	12.6	1.40e-04	0	55	0	278921216	50	4668
2026-01-21 02:02:21.84	14.25	11.38	-39.2	-41.7	12.6	1.18e-04	0	55	0	285212672	50	4679
2026-01-21 02:02:22.84	14.23	11.48	-39.2	-41.6	12.8	1.25e-04	0	55	0	290455552	50	4631
2026-01-21 02:02:23.85	14.21	11.57	-39.2	-41.6	12.7	1.33e-04	0	55	0	295698432	50	4638
2026-01-21 02:02:24.86	14.20	11.66	-39.2	-41.6	12.7	1.15e-04	0	55	0	301989888	50	4648
2026-01-21 02:02:25.87	14.18	11.75	-39.2	-41.6	12.8	8.58e-05	0	55	0	307232768	50	4602
2026-01-21 02:02:26.88	14.16	11.85	-39.1	-41.5	12.9	7.78e-05	0	55	0	313524224	50	4571
2026-01-21 02:02:27.89	14.15	11.94	-39.1	-41.5	12.9	7.20e-05	0	55	0	318767104	50	4559
2026-01-21 02:02:28.90	14.13	12.04	-39.0	-41.3	13.1	5.26e-05	0	55	0	324009984	50	4486
2026-01-21 02:02:29.91	14.11	12.13	-39.1	-41.5	12.9	6.17e-05	0	55	0	330301440	50	4570
2026-01-21 02:02:30.92	14.09	12.23	-39.1	-41.4	13.0	5.83e-05	0	55	0	335544320	50	4524
2026-01-21 02:02:31.93	14.08	12.32	-39.0	-41.3	13.1	7.32e-05	0	55	0	341835776	50	4487
2026-01-21 02:02:32.94	14.06	12.42	-39.0	-41.3	13.1	4.46e-05	0	55	0	347078656	49	4756
2026-01-21 02:02:33.95	14.04	12.52	-38.9	-41.2	13.2	4.80e-05	0	55	0	353370112	49	4692
2026-01-21 02:02:34.96	14.02	12.61	-39.0	-41.4	13.1	3.77e-05	0	55	0	358612992	49	4760
2026-01-21 02:02:35.97	14.00	12.71	-38.9	-41.1	13.3	3.54e-05	0	55	0	363855872	49	4637
2026-01-21 02:02:36.98	13.99	12.81	-38.8	-41.1	13.4	1.60e-05	0	55	0	370147328	49	4609
2026-01-21 02:02:37.99	13.97	12.90	-38.9	-41.2	13.4	2.63e-05	0	55	0	375390208	49	4652
2026-01-21 02:02:39.00	13.95	13.00	-38.9	-41.1	13.4	2.17e-05	0	55	0	381681664	49	4633
2026-01-21 02:02:40.00	13.93	13.10	-38.8	-41.1	13.5	1.71e-05	0	55	0	386924544	49	4606
2026-01-21 02:02:41.01	13.91	13.20	-38.9	-41.1	13.5	1.48e-05	0	55	0	392167424	49	4619
2026-01-21 02:02:42.02	13.89	13.30	-38.9	-41.1	13.6	9.10e-06	0	55	0	398458880	49	4607
2026-01-21 02:02:43.03	13.87	13.40	-38.8	-41.0	13.6	1.48e-05	0	55	0	403701760	49	4557
2026-01-21 02:02:44.04	13.85	13.50	-38.8	-40.9	13.7	8.00e-06	0	55	0	409993216	49	4523
2026-01-21 02:02:45.05	13.83	13.60	-38.8	-40.9	13.7	1.14e-05	0	55	0	415236096	49	4532
2026-01-21 02:02:46.06	13.81	13.70	-38.8	-40.9	13.8	1.37e-05	0	55	0	420478976	49	4513
2026-01-21 02:02:47.07	13.79	13.80	-38.8	-40.9	13.8	8.00e-06	0	55	0	426770432	49	4516
2026-01-21 02:02:48.08	13.77	13.90	-38.7	-40.8	13.9	1.14e-05	0	55	0	432013312	49	4464
2026-01-21 02:02:49.09	13.75	14.01	-38.7	-40.9	13.8	5.70e-06	0	55	0	438304768	49	4499
2026-01-21 02:02:50.10	13.73	14.11	-38.6	-40.7	14.0	5.70e-06	0	55	0	443547648	49	4415
2026-01-21 02:02:51.11	13.71	14.21	-38.7	-40.8	14.0	6.80e-06	0	55	0	449839104	49	4452
2026-01-21 02:02:52.12	13.69	14.32	-38.6	-40.6	14.1	0.00e+00	0	55	0	455081984	49	4368
2026-01-21 02:02:53.13	13.67	14.42	-38.6	-40.7	14.1	4.50e-06	0	55	0	461373440	49	4409
2026-01-21 02:02:54.14	13.65	14.53	-38.5	-40.6	14.2	5.70e-06	0	55	0	466616320	49	4344
2026-01-21 02:02:55.15	13.63	14.63	-38.5	-40.5	14.3	1.10e-06	0	55	0	471859200	48	4561
2026-01-21 02:02:56.16	13.60	14.74	-38.4	-40.4	14.4	0.00e+00	0	55	0	478150656	48	4532
2026-01-21 02:02:57.17	13.58	14.84	-38.5	-40.5	14.3	1.10e-06	0	55	0	483393536	48	4590
2026-01-21 02:02:58.18	13.56	14.95	-38.6	-40.6	14.3	2.20e-06	0	56	0	489684992	48	4624
2026-01-21 02:02:59.19	13.54	15.06	-38.5	-40.5	14.4	2.20e-06	0	55	0	494927872	48	4565
2026-01-21 02:03:00.20	13.52	15.16	-38.5	-40.5	14.5	2.20e-06	0	56	0	500170752	48	4546
2026-01-21 02:03:01.21	13.49	15.27	-38.5	-40.5	14.4	3.40e-06	0	55	0	506462208	48	4596
2026-01-21 02:03:02.22	13.47	15.38	-38.5	-40.5	14.4	1.10e-06	0	56	0	511705088	48	4593
2026-01-21 02:03:03.23	13.45	15.49	-38.4	-40.4	14.5	0.00e+00	0	56	0	517996544	48	4504
2026-01-21 02:03:04.24	13.42	15.60	-38.4	-40.4	14.5	0.00e+00	0	56	0	523239424	48	4523
2026-01-21 02:03:05.24	13.40	15.71	-38.3	-40.3	14.6	0.00e+00	0	56	0	528482304	48	4463
2026-01-21 02:03:06.25	13.38	15.82	-38.4	-40.4	14.6	0.00e+00	0	56	0	534773760	48	4519
2026-01-21 02:03:07.26	13.35	15.93	-38.5	-40.4	14.5	0.00e+00	0	56	0	540016640	48	4540
2026-01-21 02:03:08.27	13.33	16.04	-38.4	-40.4	14.6	0.00e+00	0	56	0	546308096	48	4503
2026-01-21 02:03:09.28	13.31	16.15	-38.4	-40.3	14.7	2.20e-06	0	56	0	551550976	48	4461
2026-01-21 02:03:10.29	13.28	16.26	-38.3	-40.3	14.7	1.10e-06	0	56	0	557842432	48	4444
2026-01-21 02:03:11.30	13.26	16.37	-38.4	-40.4	14.7	1.10e-06	0	56	0	563085312	48	4507
2026-01-21 02:03:12.31	13.23	16.49	-38.3	-40.2	14.9	3.40e-06	0	56	0	568328192	48	4415
2026-01-21 02:03:13.32	13.21	16.60	-38.2	-40.1	14.9	0.00e+00	0	56	0	574619648	48	4375
2026-01-21 02:03:14.33	13.18	16.72	-38.4	-40.3	14.7	0.00e+00	0	56	0	579862528	48	4475
2026-01-21 02:03:15.34	13.16	16.83	-38.3	-40.1	15.0	0.00e+00	0	56	0	586153984	48	4381
2026-01-21 02:03:16.35	13.13	16.95	-38.1	-40.0	15.1	0.00e+00	0	56	0	591396864	48	4308
2026-01-21 02:03:17.36	13.11	17.06	-38.1	-40.0	15.1	0.00e+00	0	56	0	596639744	48	4293
2026-01-21 02:03:18.37	13.08	17.18	-38.1	-39.9	15.3	1.10e-06	0	56	0	602931200	48	4243
2026-01-21 02:03:19.39	13.05	17.30	-38.1	-39.9	15.3	0.00e+00	0	56	0	608174080	48	4271
2026-01-21 02:03:20.40	13.03	17.41	-38.1	-40.0	15.2	0.00e+00	0	56	0	614465536	48	4298
2026-01-21 02:03:21.41	13.00	17.53	-37.9	-39.7	15.4	0.00e+00	0	56	0	619708416	47	4393
2026-01-21 02:03:22.42	12.97	17.65	-37.8	-39.6	15.5	0.00e+00	0	56	0	624951296	47	4357
2026-01-21 02:03:23.43	12.95	17.77	-37.8	-39.6	15.5	0.00e+00	0	56	0	631242752	47	4364
2026-01-21 02:03:24.44	12.92	17.89	-37.8	-39.6	15.5	0.00e+00	0	56	0	636485632	47	4355
2026-01-21 02:03:25.45	12.89	18.01	-37.9	-39.7	15.4	0.00e+00	0	56	0	642777088	47	4404
2026-01-21 02:03:26.46	12.86	18.13	-37.7	-39.4	15.7	0.00e+00	0	56	0	648019968	47	4291
2026-01-21 02:03:27.47	12.83	18.25	-37.6	-39.3	15.8	0.00e+00	0	56	0	654311424	47	4211
2026-01-21 02:03:28.48	12.81	18.38	-37.6	-39.3	15.8	0.00e+00	0	56	0	659554304	47	4207
2026-01-21 02:03:29.49	12.78	18.50	-37.7	-39.4	15.7	0.00e+00	0	56	0	665845760	47	4275
2026-01-21 02:03:30.50	12.75	18.62	-37.6	-39.3	15.9	0.00e+00	0	56	0	671088640	47	4196
2026-01-21 02:03:31.51	12.72	18.75	-37.5	-39.2	15.9	0.00e+00	0	56	0	676331520	47	4172
2026-01-21 02:03:32.52	12.69	18.87	-37.4	-39.0	16.1	0.00e+00	0	56	0	682622976	46	4337
2026-01-21 02:03:33.53	12.66	19.00	-37.4	-39.1	16.1	0.00e+00	0	56	0	687865856	46	4348
2026-01-21 02:03:34.54	12.63	19.12	-37.4	-39.0	16.2	0.00e+00	0	56	0	694157312	46	4312
2026-01-21 02:03:35.55	12.60	19.25	-37.4	-39.1	16.1	0.00e+00	0	56	0	699400192	46	4350
2026-01-21 02:03:36.56	12.57	19.38	-37.4	-39.0	16.2	0.00e+00	0	56	0	704643072	46	4317
2026-01-21 02:03:37.57	12.54	19.50	-37.4	-39.0	16.2	0.00e+00	0	56	0	710934528	46	4303
2026-01-21 02:03:38.58	12.50	19.63	-37.4	-39.1	16.1	0.00e+00	0	56	0	716177408	46	4343
2026-01-21 02:03:39.59	12.47	19.76	-37.4	-39.0	16.2	0.00e+00	0	56	0	722468864	46	4335
2026-01-21 02:03:40.60	12.44	19.89	-37.4	-39.1	16.1	0.00e+00	0	56	0	727711744	46	4357
2026-01-21 02:03:41.61	12.41	20.02	-37.4	-39.0	16.2	0.00e+00	0	56	0	732954624	46	4320
2026-01-21 02:03:42.62	12.38	20.15	-37.4	-39.1	16.1	0.00e+00	0	56	0	739246080	46	4349
2026-01-21 02:03:43.63	12.34	20.29	-37.4	-39.1	16.1	0.00e+00	0	56	0	744488960	46	4365
2026-01-21 02:03:44.64	12.31	20.42	-37.4	-39.0	16.2	0.00e+00	0	56	0	750780416	46	4316
2026-01-21 02:03:45.65	12.28	20.55	-37.4	-39.1	16.2	0.00e+00	0	56	0	756023296	46	4344
2026-01-21 02:03:46.66	12.24	20.69	-37.4	-39.0	16.3	0.00e+00	0	56	0	762314752	46	4314
2026-01-21 02:03:47.67	12.21	20.82	-37.4	-39.0	16.2	0.00e+00	0	56	0	767557632	46	4338
2026-01-21 02:03:48.68	12.17	20.96	-37.5	-39.1	16.1	0.00e+00	0	56	0	773849088	46	4367
2026-01-21 02:03:49.69	12.14	21.09	-37.4	-39.1	16.2	0.00e+00	0	56	0	779091968	46	4359
2026-01-21 02:03:50.70	12.10	21.23	-37.4	-39.0	16.2	0.00e+00	0	56	0	784334848	46	4313
2026-01-21 02:03:51.71	12.07	21.37	-37.3	-38.9	16.4	0.00e+00	0	56	0	790626304	46	4246
2026-01-21 02:03:52.72	12.03	21.50	-37.2	-38.8	16.5	0.00e+00	0	56	0	795869184	46	4209
2026-01-21 02:03:53.73	12.00	21.64	-37.2	-38.8	16.5	0.00e+00	0	56	0	802160640	46	4231
2026-01-21 02:03:54.74	11.96	21.78	-37.2	-38.8	16.5	0.00e+00	0	57	0	807403520	46	4206
2026-01-21 02:03:55.75	11.92	21.92	-37.2	-38.8	16.5	0.00e+00	0	56	0	812646400	46	4213
2026-01-21 02:03:56.76	11.88	22.07	-37.3	-38.9	16.4	0.00e+00	0	56	0	818937856	46	4268
2026-01-21 02:03:57.77	11.85	22.21	-37.1	-38.7	16.6	0.00e+00	0	56	0	824180736	46	4175
2026-01-21 02:03:58.78	11.81	22.35	-37.0	-38.5	16.7	0.00e+00	0	56	0	830472192	46	4098
2026-01-21 02:03:59.79	11.77	22.49	-37.0	-38.5	16.8	0.00e+00	0	56	0	835715072	45	4331
2026-01-21 02:04:00.80	11.73	22.64	-36.9	-38.5	16.9	0.00e+00	0	57	0	840957952	45	4294
2026-01-21 02:04:01.81	11.69	22.78	-36.9	-38.4	16.9	0.00e+00	0	56	0	847249408	45	4266
2026-01-21 02:04:02.82	11.65	22.93	-36.9	-38.4	16.9	0.00e+00	0	56	0	852492288	45	4289
2026-01-21 02:04:03.83	11.61	23.08	-37.0	-38.5	16.8	0.00e+00	0	56	0	858783744	45	4319
2026-01-21 02:04:04.84	11.57	23.22	-36.9	-38.5	16.8	0.00e+00	0	56	0	864026624	45	4300
2026-01-21 02:04:05.85	11.53	23.37	-36.9	-38.4	16.9	0.00e+00	0	57	0	870318080	45	4282
2026-01-21 02:04:06.86	11.49	23.52	-36.9	-38.4	16.9	0.00e+00	0	57	0	875560960	45	4264
2026-01-21 02:04:07.87	11.45	23.67	-36.9	-38.4	16.9	0.00e+00	0	57	0	880803840	45	4273
2026-01-21 02:04:08.87	11.41	23.82	-36.9	-38.4	17.0	0.00e+00	0	56	0	887095296	45	4262
2026-01-21 02:04:09.89	11.36	23.98	-36.9	-38.4	16.9	0.00e+00	0	57	0	892338176	45	4280
2026-01-21 02:04:10.90	11.32	24.13	-36.9	-38.4	16.9	0.00e+00	0	57	0	898629632	45	4277
2026-01-21 02:04:11.91	11.28	24.28	-36.8	-38.3	17.0	0.00e+00	0	57	0	903872512	45	4234
2026-01-21 02:04:12.92	11.23	24.44	-36.8	-38.4	17.0	0.00e+00	0	57	0	909115392	45	4244
2026-01-21 02:04:13.93	11.19	24.59	-36.8	-38.3	17.1	0.00e+00	0	57	0	915406848	45	4210
2026-01-21 02:04:14.94	11.14	24.75	-36.8	-38.3	17.1	0.00e+00	0	57	0	920649728	45	4197
2026-01-21 02:04:15.95	11.10	24.91	-36.7	-38.2	17.1	0.00e+00	0	57	0	926941184	45	4167
2026-01-21 02:04:16.96	11.05	25.07	-36.7	-38.2	17.1	0.00e+00	0	57	0	932184064	45	4182
2026-01-21 02:04:17.97	11.00	25.23	-36.8	-38.4	17.0	0.00e+00	0	57	0	937426944	45	4245
2026-01-21 02:04:18.98	10.96	25.39	-36.8	-38.3	17.1	0.00e+00	0	56	0	943718400	45	4206
2026-01-21 02:04:19.99	10.91	25.55	-36.7	-38.2	17.2	0.00e+00	0	56	0	948961280	45	4148
2026-01-21 02:04:21.00	10.86	25.71	-36.6	-38.1	17.3	0.00e+00	0	56	0	955252736	45	4105
2026-01-21 02:04:22.01	10.81	25.87	-36.5	-38.0	17.4	0.00e+00	0	57	0	960495616	45	4069
2026-01-21 02:04:23.02	10.76	26.04	-36.6	-38.0	17.4	0.00e+00	0	57	0	966787072	45	4087
2026-01-21 02:04:24.02	10.71	26.20	-36.5	-38.0	17.4	0.00e+00	0	57	0	972029952	45	4055
2026-01-21 02:04:25.03	10.66	26.37	-36.4	-37.9	17.5	0.00e+00	0	57	0	978321408	44	4248
2026-01-21 02:04:26.04	10.61	26.53	-36.4	-37.9	17.5	0.00e+00	0	57	0	983564288	44	4258
2026-01-21 02:04:27.05	10.56	26.70	-36.5	-37.9	17.5	0.00e+00	0	57	0	988807168	44	4268
2026-01-21 02:04:28.06	10.51	26.87	-36.5	-37.9	17.5	0.00e+00	0	57	0	995098624	44	4276
2026-01-21 02:04:29.07	10.46	27.04	-36.4	-37.9	17.5	0.00e+00	0	57	0	1000341504	44	4260
2026-01-21 02:04:30.08	10.40	27.21	-36.5	-38.0	17.4	0.00e+00	0	57	0	1006632960	44	4304
2026-01-21 02:04:31.10	10.35	27.39	-36.5	-38.0	17.4	0.00e+00	0	57	0	1011875840	44	4310
2026-01-21 02:04:32.11	10.29	27.56	-36.6	-38.1	17.3	0.00e+00	0	57	0	1017118720	44	4353
2026-01-21 02:04:33.12	10.24	27.73	-36.7	-38.2	17.3	0.00e+00	0	57	0	1023410176	44	4403
2026-01-21 02:04:34.13	10.18	27.91	-36.7	-38.2	17.3	0.00e+00	0	57	0	1028653056	44	4408
2026-01-21 02:04:35.14	10.13	28.09	-36.7	-38.2	17.2	0.00e+00	0	57	0	1034944512	44	4439
2026-01-21 02:04:36.15	10.07	28.26	-36.7	-38.2	17.2	0.00e+00	0	57	0	1040187392	44	4420
2026-01-21 02:04:37.16	10.01	28.44	-36.7	-38.2	17.2	0.00e+00	0	57	0	1045430272	44	4410
2026-01-21 02:04:38.17	9.95	28.62	-36.6	-38.1	17.3	0.00e+00	0	57	0	1051721728	44	4384
2026-01-21 02:04:39.18	9.89	28.80	-36.6	-38.1	17.4	0.00e+00	0	57	0	1056964608	44	4366
2026-01-21 02:04:40.19	9.83	28.99	-36.6	-38.1	17.3	0.00e+00	0	57	0	1063256064	44	4378
2026-01-21 02:04:41.20	9.77	29.17	-36.7	-38.2	17.3	0.00e+00	0	57	0	1068498944	44	4392
2026-01-21 02:04:42.21	9.71	29.35	-36.4	-37.9	17.6	0.00e+00	0	57	0	1074790400	44	4253
2026-01-21 02:04:43.22	9.65	29.54	-36.2	-37.6	17.8	0.00e+00	0	57	0	1080033280	44	4130
2026-01-21 02:04:44.23	9.59	29.73	-36.3	-37.7	17.7	0.00e+00	0	57	0	1086324736	44	4174
2026-01-21 02:04:45.24	9.52	29.92	-36.3	-37.7	17.7	0.00e+00	0	57	0	1091567616	44	4178
2026-01-21 02:04:46.25	9.46	30.11	-36.3	-37.7	17.7	0.00e+00	0	57	0	1096810496	44	4176
2026-01-21 02:04:47.25	9.39	30.29	-36.3	-37.8	17.7	0.00e+00	0	57	0	1103101952	44	4195
2026-01-21 02:04:48.26	9.33	30.49	-36.4	-37.8	17.6	0.00e+00	0	57	0	1108344832	44	4227
2026-01-21 02:04:49.27	9.26	30.68	-36.5	-37.9	17.5	0.00e+00	0	57	0	1114636288	44	4289
2026-01-21 02:04:50.28	9.19	30.87	-36.4	-37.8	17.7	0.00e+00	0	57	0	1119879168	44	4208
2026-01-21 02:04:51.29	9.13	31.07	-36.4	-37.8	17.6	0.00e+00	0	57	0	1125122048	44	4242
2026-01-21 02:04:52.30	9.06	31.27	-36.3	-37.7	17.7	0.00e+00	0	57	0	1131413504	44	4179
2026-01-21 02:04:53.31	8.99	31.46	-36.3	-37.7	17.7	0.00e+00	0	57	0	1136656384	44	4188
2026-01-21 02:04:54.32	8.91	31.66	-36.3	-37.7	17.7	0.00e+00	0	57	0	1142947840	44	4192
2026-01-21 02:04:55.33	8.84	31.86	-36.3	-37.7	17.8	0.00e+00	0	57	0	1148190720	44	4168
2026-01-21 02:04:56.34	8.77	32.07	-36.3	-37.7	17.8	0.00e+00	0	57	0	1153433600	44	4149
2026-01-21 02:04:57.35	8.69	32.27	-36.3	-37.7	17.7	0.00e+00	0	57	0	1159725056	44	4191
2026-01-21 02:04:58.36	8.62	32.47	-36.2	-37.6	17.8	0.00e+00	0	57	0	1164967936	44	4128
2026-01-21 02:04:59.37	8.54	32.68	-36.2	-37.6	17.9	0.00e+00	0	57	0	1171259392	44	4101
2026-01-21 02:05:00.38	8.47	32.89	-36.3	-37.7	17.8	0.00e+00	0	57	0	1176502272	44	4162
2026-01-21 02:05:01.39	8.39	33.10	-36.3	-37.7	17.8	0.00e+00	0	57	0	1182793728	44	4185
2026-01-21 02:05:02.40	8.31	33.31	-36.2	-37.6	17.9	0.00e+00	0	57	0	1188036608	44	4104
2026-01-21 02:05:03.41	8.23	33.52	-36.3	-37.7	17.8	0.00e+00	0	57	0	1193279488	44	4153
2026-01-21 02:05:04.42	8.15	33.73	-36.2	-37.6	17.9	0.00e+00	0	57	0	1199570944	44	4102
2026-01-21 02:05:05.43	8.06	33.95	-36.2	-37.5	17.9	0.00e+00	0	57	0	1204813824	44	4096
2026-01-21 02:05:06.44	7.98	34.16	-36.2	-37.6	17.9	0.00e+00	0	57	0	1211105280	44	4106
2026-01-21 02:05:07.45	7.89	34.38	-36.3	-37.7	17.8	0.00e+00	0	57	0	1216348160	44	4156
2026-01-21 02:05:08.46	7.81	34.60	-36.1	-37.4	18.0	0.00e+00	0	57	0	1221591040	44	4050
2026-01-21 02:05:09.47	7.72	34.82	-35.6	-36.9	18.4	0.00e+00	0	57	0	1227882496	43	4040
2026-01-21 02:05:10.48	7.63	35.04	-35.5	-36.8	18.4	0.00e+00	0	57	0	1233125376	43	3993
2026-01-21 02:05:11.49	7.54	35.26	-35.4	-36.7	18.6	0.00e+00	0	57	0	1239416832	42	4176
2026-01-21 02:05:12.50	7.45	35.49	-35.4	-36.7	18.6	0.00e+00	0	57	0	1244659712	42	4182
2026-01-21 02:05:13.51	7.36	35.72	-35.5	-36.8	18.5	0.00e+00	0	57	0	1249902592	42	4202
2026-01-21 02:05:14.52	7.27	35.94	-35.5	-36.8	18.5	0.00e+00	0	57	0	1256194048	42	4241
2026-01-21 02:05:15.53	7.17	36.17	-35.6	-36.9	18.4	0.00e+00	0	57	0	1261436928	42	4273
2026-01-21 02:05:16.54	7.07	36.40	-35.6	-36.9	18.4	0.00e+00	0	57	0	1267728384	42	4284
2026-01-21 02:05:17.55	6.98	36.64	-35.7	-37.0	18.3	0.00e+00	0	57	0	1272971264	42	4333
2026-01-21 02:05:18.56	6.88	36.87	-35.7	-37.0	18.3	0.00e+00	0	57	0	1279262720	42	4335
2026-01-21 02:05:19.57	6.78	37.11	-35.6	-36.9	18.4	0.00e+00	0	57	0	1284505600	42	4286
2026-01-21 02:05:20.58	6.67	37.34	-35.5	-36.8	18.5	0.00e+00	0	57	0	1290797056	42	4241
2026-01-21 02:05:21.59	6.57	37.58	-35.6	-37.0	18.4	0.00e+00	0	57	0	1296039936	42	4293
2026-01-21 02:05:22.60	6.46	37.82	-35.6	-36.9	18.4	0.00e+00	0	57	0	1301282816	42	4274
2026-01-21 02:05:23.61	6.36	38.06	-35.6	-37.0	18.4	0.00e+00	0	57	0	1307574272	42	4299
2026-01-21 02:05:24.62	6.25	38.31	-35.8	-37.1	18.2	0.00e+00	0	57	0	1312817152	42	4367
2026-01-21 02:05:25.63	6.14	38.55	-35.9	-37.2	18.2	0.00e+00	0	57	0	1319108608	42	4420
2026-01-21 02:05:26.64	6.02	38.80	-35.9	-37.3	18.1	0.00e+00	0	57	0	1324351488	42	4452
2026-01-21 02:05:27.64	5.91	39.05	-36.0	-37.4	17.9	0.00e+00	0	57	0	1329594368	42	4527
2026-01-21 02:05:28.65	5.79	39.30	-36.0	-37.4	17.9	0.00e+00	0	57	0	1335885824	42	4522
2026-01-21 02:05:29.66	5.68	39.55	-36.0	-37.3	18.0	0.00e+00	0	57	0	1341128704	42	4489
2026-01-21 02:05:30.67	5.56	39.80	-35.9	-37.3	18.1	0.00e+00	0	57	0	1347420160	42	4455
2026-01-21 02:05:31.68	5.43	40.06	-35.9	-37.3	18.1	0.00e+00	0	57	0	1352663040	42	4447
2026-01-21 02:05:32.69	5.31	40.32	-35.9	-37.3	18.1	0.00e+00	0	57	0	1357905920	42	4460
2026-01-21 02:05:33.70	5.19	40.58	-36.1	-37.4	18.0	0.00e+00	0	57	0	1364197376	42	4527
2026-01-21 02:05:34.71	5.06	40.84	-36.2	-37.6	17.8	0.00e+00	0	57	0	1369440256	42	4621
2026-01-21 02:05:35.72	4.93	41.10	-36.3	-37.7	17.6	0.00e+00	0	57	0	1375731712	43	4429
2026-01-21 02:05:36.73	4.80	41.36	-36.4	-37.8	17.6	0.00e+00	0	57	0	1380974592	43	4463
2026-01-21 02:05:37.74	4.66	41.63	-36.4	-37.8	17.5	0.00e+00	0	57	0	1387266048	43	4486
2026-01-21 02:05:38.75	4.52	41.90	-36.5	-38.0	17.4	0.00e+00	0	57	0	1392508928	43	4560
2026-01-21 02:05:39.76	4.38	42.17	-36.6	-38.0	17.3	0.00e+00	0	57	0	1397751808	43	4598
2026-01-21 02:05:40.77	4.24	42.44	-36.6	-38.1	17.3	0.00e+00	0	57	0	1404043264	43	4606
2026-01-21 02:05:41.78	4.10	42.71	-36.5	-37.9	17.4	0.00e+00	0	57	0	1409286144	43	4544
2026-01-21 02:05:42.79	3.95	42.99	-36.3	-37.7	17.7	0.00e+00	0	57	0	1415577600	43	4406
2026-01-21 02:05:43.80	3.80	43.26	-36.3	-37.7	17.7	0.00e+00	0	57	0	1420820480	43	4433
2026-01-21 02:05:44.81	3.65	43.54	-36.3	-37.7	17.7	0.00e+00	0	57	0	1426063360	43	4420
2026-01-21 02:05:45.81	3.50	43.82	-36.5	-37.9	17.5	0.00e+00	0	57	0	1432354816	43	4526
2026-01-21 02:05:46.82	3.34	44.10	-36.5	-38.0	17.4	0.00e+00	0	57	0	1437597696	43	4553
2026-01-21 02:05:47.83	3.18	44.38	-36.6	-38.0	17.4	0.00e+00	0	57	0	1443889152	43	4592
2026-01-21 02:05:48.84	3.02	44.67	-36.6	-38.0	17.4	0.00e+00	0	57	0	1449132032	43	4594
2026-01-21 02:05:49.85	2.85	44.96	-36.5	-37.9	17.5	0.00e+00	0	57	0	1454374912	43	4541
2026-01-21 02:05:50.86	2.68	45.25	-36.5	-37.9	17.5	0.00e+00	0	57	0	1460666368	43	4517
2026-01-21 02:05:51.87	2.51	45.54	-36.7	-38.1	17.3	0.00e+00	0	57	0	1465909248	43	4643
2026-01-21 02:05:52.88	2.33	45.83	-36.9	-38.4	17.2	0.00e+00	0	57	0	1472200704	44	4527
2026-01-21 02:05:53.89	2.16	46.13	-36.8	-38.3	17.3	0.00e+00	0	57	0	1477443584	44	4473
2026-01-21 02:05:54.90	1.97	46.42	-36.6	-38.1	17.5	0.00e+00	0	57	0	1483735040	44	4341
2026-01-21 02:05:55.91	1.79	46.72	-36.5	-37.9	17.7	0.00e+00	0	57	0	1488977920	44	4263
2026-01-21 02:05:56.92	1.60	47.02	-36.2	-37.5	18.0	0.00e+00	0	57	0	1495269376	44	4087
2026-01-21 02:05:57.93	1.40	47.32	-35.8	-37.1	18.3	0.00e+00	0	57	0	1500512256	43	4134
2026-01-21 02:05:58.95	1.20	47.63	-35.9	-37.3	18.1	0.00e+00	0	57	0	1505755136	43	4210
2026-01-21 02:05:59.96	1.00	47.94	-36.1	-37.5	17.9	0.00e+00	0	57	0	1512046592	43	4329
2026-01-21 02:06:00.97	0.80	48.24	-36.2	-37.6	17.7	0.00e+00	0	57	0	1517289472	43	4388
2026-01-21 02:06:01.98	0.59	48.55	-36.1	-37.5	17.9	0.00e+00	0	57	0	1523580928	43	4328
2026-01-21 02:06:02.99	0.37	48.86	-36.0	-37.4	18.0	0.00e+00	0	57	0	1528823808	43	4258
2026-01-21 02:06:04.00	0.15	49.18	-36.2	-37.6	17.9	0.00e+00	0	57	0	1534066688	43	4342
2026-01-21 02:06:05.01	359.93	49.49	-36.5	-37.9	17.5	0.00e+00	0	57	0	1540358144	43	4534
2026-01-21 02:06:06.02	359.70	49.81	-37.0	-38.5	17.1	0.00e+00	0	57	0	1545601024	44	4567
2026-01-21 02:06:07.03	359.47	50.13	-37.1	-38.7	16.9	0.00e+00	0	57	0	1551892480	44	4656
2026-01-21 02:06:08.04	359.23	50.45	-37.1	-38.6	17.0	0.00e+00	0	57	0	1557135360	44	4625
2026-01-21 02:06:09.04	358.99	50.76	-37.0	-38.5	17.0	0.00e+00	0	57	0	1562378240	44	4595
2026-01-21 02:06:10.05	358.74	51.09	-37.2	-38.7	16.9	0.00e+00	0	57	0	1568669696	44	4693
2026-01-21 02:06:11.06	358.49	51.41	-37.5	-39.1	16.5	0.00e+00	0	57	0	1573912576	45	4606
2026-01-21 02:06:12.07	358.23	51.74	-37.7	-39.3	16.3	0.00e+00	0	57	0	1580204032	46	4478
2026-01-21 02:06:13.08	357.96	52.07	-37.8	-39.5	16.1	0.00e+00	0	58	0	1585446912	46	4562
2026-01-21 02:06:14.09	357.69	52.40	-37.7	-39.3	16.3	0.00e+00	0	57	0	1591738368	46	4480
2026-01-21 02:06:15.10	357.42	52.73	-37.5	-39.1	16.5	0.00e+00	0	57	0	1596981248	46	4358
2026-01-21 02:06:16.11	357.13	53.06	-37.6	-39.2	16.4	0.00e+00	0	57	0	1602224128	46	4393
2026-01-21 02:06:17.12	356.84	53.39	-37.5	-39.1	16.5	0.00e+00	0	57	0	1608515584	46	4354
2026-01-21 02:06:18.13	356.54	53.73	-37.4	-39.1	16.3	0.00e+00	0	57	0	1613758464	46	4365
2026-01-21 02:06:19.14	356.24	54.07	-37.3	-38.9	16.5	0.00e+00	0	57	0	1620049920	46	4277
2026-01-21 02:06:20.15	355.93	54.41	-37.4	-39.1	16.3	0.00e+00	0	57	0	1625292800	46	4384
2026-01-21 02:06:21.16	355.61	54.75	-37.5	-39.3	16.1	0.00e+00	0	57	0	1630535680	46	4449
2026-01-21 02:06:22.17	355.28	55.09	-37.3	-39.0	16.4	0.00e+00	0	57	0	1636827136	46	4306
2026-01-21 02:06:23.18	354.94	55.43	-37.3	-39.0	16.4	0.00e+00	0	57	0	1642070016	46	4321
2026-01-21 02:06:24.19	354.60	55.77	-37.4	-39.0	16.3	0.00e+00	0	57	0	1648361472	46	4339
2026-01-21 02:06:25.20	354.25	56.12	-37.1	-38.7	16.6	0.00e+00	0	57	0	1653604352	46	4191
2026-01-21 02:06:26.21	353.89	56.46	-36.8	-38.4	17.0	0.00e+00	0	57	0	1658847232	45	4260
2026-01-21 02:06:27.22	353.52	56.81	-36.7	-38.3	17.1	0.00e+00	0	57	0	1665138688	45	4198
2026-01-21 02:06:28.23	353.14	57.16	-36.5	-38.1	17.2	0.00e+00	0	58	0	1670381568	45	4112
2026-01-21 02:06:29.24	352.75	57.51	-36.6	-38.1	17.2	0.00e+00	0	57	0	1676673024	45	4134
2026-01-21 02:06:30.25	352.35	57.86	-36.6	-38.2	17.1	0.00e+00	0	57	0	1681915904	45	4174
2026-01-21 02:06:31.26	351.93	58.21	-36.6	-38.2	17.2	0.00e+00	0	57	0	1688207360	45	4146
2026-01-21 02:06:32.27	351.51	58.56	-36.5	-38.0	17.3	0.00e+00	0	57	0	1693450240	45	4098
2026-01-21 02:06:33.28	351.08	58.91	-36.6	-38.1	17.3	0.00e+00	0	57	0	1699741696	45	4101
2026-01-21 02:06:34.28	350.64	59.26	-36.8	-38.3	17.0	0.00e+00	0	57	0	1704984576	45	4238
2026-01-21 02:06:35.29	350.18	59.61	-36.5	-38.0	17.3	0.00e+00	0	58	0	1710227456	45	4090
2026-01-21 02:06:36.30	349.71	59.96	-36.5	-38.0	17.4	0.00e+00	0	57	0	1716518912	44	4301
2026-01-21 02:06:37.31	349.23	60.31	-36.5	-38.1	17.3	0.00e+00	0	57	0	1721761792	44	4343
2026-01-21 02:06:38.32	348.73	60.67	-36.6	-38.2	17.2	0.00e+00	0	58	0	1728053248	44	4410
2026-01-21 02:06:39.33	348.22	61.02	-36.6	-38.1	17.2	0.00e+00	0	57	0	1733296128	44	4387
2026-01-21 02:06:40.34	347.69	61.37	-36.4	-38.0	17.4	0.00e+00	0	57	0	1738539008	44	4307
2026-01-21 02:06:41.35	347.15	61.73	-36.4	-37.9	17.4	0.00e+00	0	57	0	1744830464	44	4290
2026-01-21 02:06:42.36	346.60	62.08	-36.6	-38.2	17.2	0.00e+00	0	57	0	1750073344	44	4398
2026-01-21 02:06:43.37	346.02	62.43	-36.7	-38.3	17.1	0.00e+00	0	57	0	1755316224	44	4456
2026-01-21 02:06:44.38	345.43	62.78	-36.6	-38.2	17.2	0.00e+00	0	57	0	1761607680	44	4393
2026-01-21 02:06:45.39	344.83	63.13	-36.6	-38.1	17.3	0.00e+00	0	58	0	1766850560	44	4363
2026-01-21 02:06:46.40	344.20	63.48	-36.6	-38.1	17.2	0.00e+00	0	57	0	1773142016	44	4388
2026-01-21 02:06:47.41	343.56	63.83	-36.6	-38.2	17.2	0.00e+00	0	57	0	1778384896	44	4400
2026-01-21 02:06:48.42	342.89	64.17	-36.2	-37.8	17.5	0.00e+00	0	58	0	1784676352	44	4202
2026-01-21 02:06:49.43	342.21	64.52	-36.0	-37.5	17.8	0.00e+00	0	58	0	1789919232	44	4055
2026-01-21 02:06:50.44	341.50	64.86	-35.8	-37.3	17.9	0.00e+00	0	57	0	1796210688	43	4194
2026-01-21 02:06:51.45	340.77	65.20	-35.7	-37.1	17.9	0.00e+00	0	57	0	1801453568	43	4144
2026-01-21 02:06:52.45	340.03	65.54	-35.6	-37.1	18.0	0.00e+00	0	57	0	1806696448	43	4110
2026-01-21 02:06:53.46	339.26	65.87	-35.5	-36.9	18.1	0.00e+00	0	57	0	1812987904	43	4051
2026-01-21 02:06:54.47	338.46	66.21	-35.2	-36.6	18.4	0.00e+00	0	58	0	1818230784	42	4126
2026-01-21 02:06:55.49	337.63	66.54	-35.1	-36.5	18.5	0.00e+00	0	58	0	1824522240	42	4082
2026-01-21 02:06:56.49	336.79	66.86	-35.1	-36.5	18.5	0.00e+00	0	57	0	1829765120	42	4082
2026-01-21 02:06:57.50	335.92	67.19	-35.1	-36.4	18.6	0.00e+00	0	57	0	1835008000	42	4034
2026-01-21 02:06:58.51	335.01	67.51	-35.1	-36.5	18.5	0.00e+00	0	58	0	1841299456	42	4073
2026-01-21 02:06:59.52	334.08	67.82	-35.3	-36.7	18.4	0.00e+00	0	58	0	1846542336	42	4153
2026-01-21 02:07:00.53	333.12	68.13	-34.9	-36.3	18.8	0.00e+00	0	57	0	1852833792	41	4205
2026-01-21 02:07:01.54	332.13	68.44	-34.9	-36.2	18.9	0.00e+00	0	58	0	1858076672	41	4159
2026-01-21 02:07:02.55	331.11	68.74	-34.8	-36.1	19.0	0.00e+00	0	57	0	1863319552	41	4109
2026-01-21 02:07:03.56	330.06	69.04	-34.9	-36.3	18.7	0.00e+00	0	58	0	1869611008	41	4203
2026-01-21 02:07:04.57	328.97	69.33	-35.0	-36.4	18.6	0.00e+00	0	57	0	1874853888	41	4251
2026-01-21 02:07:05.58	327.86	69.61	-35.3	-36.7	18.3	0.00e+00	0	58	0	1881145344	41	4418
2026-01-21 02:07:06.59	326.70	69.89	-35.2	-36.7	18.3	0.00e+00	0	58	0	1886388224	41	4394
2026-01-21 02:07:07.60	325.52	70.16	-35.2	-36.7	18.3	0.00e+00	0	57	0	1892679680	41	4392
2026-01-21 02:07:08.61	324.30	70.42	-35.4	-36.8	18.2	0.00e+00	0	58	0	1897922560	41	4473
2026-01-21 02:07:09.61	323.06	70.68	-35.4	-36.9	18.1	0.00e+00	0	58	0	1903165440	41	4512
2026-01-21 02:07:10.62	321.77	70.92	-35.1	-36.5	18.5	0.00e+00	0	58	0	1909456896	41	4301
2026-01-21 02:07:11.63	320.44	71.16	-35.2	-36.6	18.3	0.00e+00	0	58	0	1914699776	41	4375
2026-01-21 02:07:12.65	319.07	71.39	-35.1	-36.5	18.5	0.00e+00	0	58	0	1920991232	41	4302
2026-01-21 02:07:13.65	317.68	71.61	-34.7	-36.0	18.9	0.00e+00	0	57	0	1926234112	41	4088
2026-01-21 02:07:14.67	316.24	71.82	-34.9	-36.2	18.7	0.00e+00	0	57	0	1931476992	41	4176
2026-01-21 02:07:15.68	314.77	72.02	-35.0	-36.4	18.6	0.00e+00	0	58	0	1937768448	41	4247
2026-01-21 02:07:16.69	313.27	72.20	-34.9	-36.3	18.7	0.00e+00	0	57	0	1943011328	41	4197
2026-01-21 02:07:17.70	311.74	72.38	-34.8	-36.1	18.8	0.00e+00	0	57	0	1949302784	41	4121
2026-01-21 02:07:18.71	310.18	72.54	-34.9	-36.3	18.6	0.00e+00	0	57	0	1954545664	41	4224
2026-01-21 02:07:19.72	308.58	72.69	-34.9	-36.2	18.7	0.00e+00	0	58	0	1959788544	41	4190
2026-01-21 02:07:20.73	306.96	72.83	-34.6	-35.9	19.0	0.00e+00	0	58	0	1966080000	41	4027
2026-01-21 02:07:21.74	305.31	72.95	-34.7	-36.0	18.9	0.00e+00	0	58	0	1971322880	41	4060
2026-01-21 02:07:22.75	303.64	73.07	-35.1	-36.5	18.4	0.00e+00	0	58	0	1977614336	41	4320
2026-01-21 02:07:23.76	301.94	73.16	-35.1	-36.6	18.3	0.00e+00	0	58	0	1982857216	41	4344
2026-01-21 02:07:24.77	300.23	73.25	-34.9	-36.3	18.6	0.00e+00	0	58	0	1989148672	41	4198
2026-01-21 02:07:25.77	298.52	73.31	-34.9	-36.3	18.7	0.00e+00	0	58	0	1994391552	41	4207
2026-01-21 02:07:26.78	296.77	73.37	-34.7	-36.1	18.9	0.00e+00	0	58	0	2000683008	41	4100
2026-01-21 02:07:27.79	295.02	73.41	-34.6	-35.9	19.0	0.00e+00	0	58	0	2005925888	41	4050
2026-01-21 02:07:28.80	293.26	73.43	-34.6	-36.0	19.0	0.00e+00	0	58	0	2011168768	41	4054
2026-01-21 02:07:29.81	291.49	73.44	-34.8	-36.2	18.7	0.00e+00	0	58	0	2017460224	41	4170
2026-01-21 02:07:30.82	289.73	73.44	-35.1	-36.5	18.5	0.00e+00	0	58	0	2022703104	41	4295
2026-01-21 02:07:31.83	287.97	73.42	-35.1	-36.5	18.4	0.00e+00	0	58	0	2028994560	41	4324
2026-01-21 02:07:32.84	286.21	73.38	-34.8	-36.2	18.7	0.00e+00	0	58	0	2034237440	41	4165
2026-01-21 02:07:33.85	284.46	73.33	-34.8	-36.1	18.8	0.00e+00	0	58	0	2039480320	41	4142
2026-01-21 02:07:34.86	282.73	73.26	-35.0	-36.4	18.5	0.00e+00	0	58	0	2045771776	41	4266
2026-01-21 02:07:35.87	281.01	73.18	-34.7	-36.1	18.8	0.00e+00	0	58	0	2051014656	41	4115
2026-01-21 02:07:36.88	279.31	73.09	-34.6	-36.0	18.9	0.00e+00	0	58	0	2057306112	41	4059
2026-01-21 02:07:37.89	277.63	72.98	-34.7	-36.0	18.9	0.00e+00	0	58	0	2062548992	41	4087
2026-01-21 02:07:38.90	275.98	72.86	-34.6	-35.9	19.0	0.00e+00	0	58	0	2067791872	41	4035
2026-01-21 02:07:39.91	274.35	72.73	-34.6	-36.0	18.9	0.00e+00	0	58	0	2074083328	41	4059
2026-01-21 02:07:40.92	272.74	72.58	-34.7	-36.0	18.9	0.00e+00	0	58	0	2079326208	41	4098
2026-01-21 02:07:41.93	271.17	72.42	-34.8	-36.1	18.8	0.00e+00	0	58	0	2085617664	41	4138
2026-01-21 02:07:42.94	269.63	72.25	-34.6	-36.0	18.9	0.00e+00	0	58	0	2090860544	41	4053
2026-01-21 02:07:43.95	268.12	72.06	-34.8	-36.2	18.8	0.00e+00	0	58	0	2097152000	41	4152
2026-01-21 02:07:44.96	266.65	71.87	-34.8	-36.1	18.8	0.00e+00	0	58	0	2102394880	41	4130
2026-01-21 02:07:45.97	265.21	71.66	-34.5	-35.8	19.1	0.00e+00	0	58	0	2107637760	41	3993
2026-01-21 02:07:46.98	263.80	71.44	-34.5	-35.8	19.2	0.00e+00	0	57	0	2113929216	40	4218
2026-01-21 02:07:47.99	262.43	71.22	-34.6	-35.9	19.0	0.00e+00	0	58	0	2119172096	40	4277
2026-01-21 02:07:49.00	261.09	70.98	-34.8	-36.1	18.8	0.00e+00	0	58	0	2125463552	40	4382
2026-01-21 02:07:50.01	259.79	70.74	-34.9	-36.3	18.6	0.00e+00	0	58	0	2130706432	40	4474
2026-01-21 02:07:51.01	258.54	70.49	-34.9	-36.2	18.7	0.00e+00	0	58	0	2135949312	40	4432
2026-01-21 02:07:52.02	257.31	70.23	-35.0	-36.3	18.6	0.00e+00	0	58	0	2142240768	40	4476
2026-01-21 02:07:53.03	256.11	69.96	-34.8	-36.1	18.8	0.00e+00	0	58	0	2147483648	40	4376
2026-01-21 02:07:54.04	254.95	69.68	-34.9	-36.3	18.7	0.00e+00	0	58	0	2153775104	40	4457
2026-01-21 02:07:55.05	253.82	69.40	-34.9	-36.3	18.7	0.00e+00	0	58	0	2159017984	40	4477
2026-01-21 02:07:56.06	252.73	69.11	-34.8	-36.2	18.8	0.00e+00	0	58	0	2164260864	40	4401
2026-01-21 02:07:57.07	251.67	68.81	-34.8	-36.1	18.8	0.00e+00	0	58	0	2170552320	40	4376
2026-01-21 02:07:58.08	250.64	68.51	-34.9	-36.2	18.8	0.00e+00	0	58	0	2175795200	40	4399
2026-01-21 02:07:59.09	249.64	68.21	-35.1	-36.5	18.5	0.00e+00	0	58	0	2182086656	40	4553
2026-01-21 02:08:00.10	248.67	67.90	-35.0	-36.4	18.6	0.00e+00	0	58	0	2187329536	40	4498
2026-01-21 02:08:01.11	247.73	67.58	-34.8	-36.1	18.9	0.00e+00	0	58	0	2193620992	40	4358
2026-01-21 02:08:02.12	246.82	67.26	-34.6	-35.9	19.0	0.00e+00	0	58	0	2198863872	40	4278
2026-01-21 02:08:03.13	245.94	66.94	-34.8	-36.1	18.8	0.00e+00	0	58	0	2205155328	40	4380
2026-01-21 02:08:04.14	245.08	66.61	-35.0	-36.4	18.6	0.00e+00	0	58	0	2210398208	40	4509
2026-01-21 02:08:05.15	244.25	66.28	-35.1	-36.5	18.5	0.00e+00	0	58	0	2215641088	40	4553
2026-01-21 02:08:06.16	243.45	65.95	-35.1	-36.4	18.6	0.00e+00	0	58	0	2221932544	40	4523
2026-01-21 02:08:07.17	242.67	65.61	-35.2	-36.6	18.5	0.00e+00	0	58	0	2227175424	40	4600
2026-01-21 02:08:08.18	241.91	65.27	-35.3	-36.7	18.3	0.00e+00	0	58	0	2233466880	41	4431
2026-01-21 02:08:09.19	241.18	64.93	-35.1	-36.4	18.6	0.00e+00	0	58	0	2238709760	41	4281
2026-01-21 02:08:10.20	240.46	64.59	-35.1	-36.5	18.6	0.00e+00	0	58	0	2243952640	41	4295
2026-01-21 02:08:11.21	239.77	64.24	-35.3	-36.6	18.4	0.00e+00	0	58	0	2250244096	41	4391
2026-01-21 02:08:12.22	239.10	63.90	-35.3	-36.7	18.4	0.00e+00	0	58	0	2255486976	41	4410
2026-01-21 02:08:13.23	238.45	63.55	-35.0	-36.3	18.7	0.00e+00	0	58	0	2261778432	41	4214
2026-01-21 02:08:14.24	237.82	63.20	-35.2	-36.5	18.5	0.00e+00	0	58	0	2267021312	41	4331
2026-01-21 02:08:15.25	237.21	62.85	-35.3	-36.7	18.3	0.00e+00	0	58	0	2272264192	41	4430
2026-01-21 02:08:16.26	236.61	62.50	-35.2	-36.6	18.4	0.00e+00	0	58	0	2278555648	41	4349
2026-01-21 02:08:17.27	236.04	62.14	-35.2	-36.6	18.4	0.00e+00	0	58	0	2283798528	41	4361
2026-01-21 02:08:18.28	235.47	61.79	-35.5	-36.9	18.1	0.00e+00	0	58	0	2290089984	41	4532
2026-01-21 02:08:19.29	234.93	61.44	-35.8	-37.3	17.8	0.00e+00	0	58	0	2295332864	42	4448
2026-01-21 02:08:20.30	234.40	61.08	-35.9	-37.4	17.7	0.00e+00	0	58	0	2301624320	42	4528
2026-01-21 02:08:21.31	233.88	60.73	-35.9	-37.4	17.7	0.00e+00	0	58	0	2306867200	42	4513
2026-01-21 02:08:22.32	233.38	60.38	-35.9	-37.4	17.7	0.00e+00	0	58	0	2312110080	42	4522
2026-01-21 02:08:23.33	232.90	60.02	-36.1	-37.6	17.6	0.00e+00	0	58	0	2318401536	42	4611
2026-01-21 02:08:24.34	232.42	59.67	-35.9	-37.4	17.7	0.00e+00	0	58	0	2323644416	42	4502
2026-01-21 02:08:25.35	231.96	59.32	-35.9	-37.3	17.8	0.00e+00	0	58	0	2329935872	42	4483
2026-01-21 02:08:26.36	231.51	58.96	-35.9	-37.4	17.7	0.00e+00	0	58	0	2335178752	42	4504
2026-01-21 02:08:27.37	231.08	58.61	-35.9	-37.4	17.7	0.00e+00	0	58	0	2340421632	42	4495
2026-01-21 02:08:28.38	230.65	58.26	-35.9	-37.3	17.8	0.00e+00	0	58	0	2346713088	42	4462
2026-01-21 02:08:29.39	230.24	57.91	-35.9	-37.3	17.8	0.00e+00	0	58	0	2351955968	42	4482
2026-01-21 02:08:30.39	229.84	57.56	-35.9	-37.3	17.8	0.00e+00	0	58	0	2358247424	42	4486
2026-01-21 02:08:31.41	229.44	57.21	-36.0	-37.5	17.6	0.00e+00	0	58	0	2363490304	42	4555
2026-01-21 02:08:32.41	229.06	56.86	-36.2	-37.7	17.4	0.00e+00	0	58	0	2368733184	42	4659
2026-01-21 02:08:33.42	228.69	56.51	-36.2	-37.7	17.4	0.00e+00	0	58	0	2375024640	42	4674
2026-01-21 02:08:34.43	228.32	56.16	-36.3	-37.9	17.2	0.00e+00	0	58	0	2380267520	43	4499
2026-01-21 02:08:35.45	227.97	55.82	-36.5	-38.0	17.1	0.00e+00	0	58	0	2386558976	43	4584
2026-01-21 02:08:36.46	227.62	55.47	-36.5	-38.1	17.0	0.00e+00	0	58	0	2391801856	43	4628
2026-01-21 02:08:37.47	227.28	55.13	-36.6	-38.2	16.9	0.00e+00	0	58	0	2398093312	43	4686
2026-01-21 02:08:38.48	226.95	54.78	-36.9	-38.6	16.8	0.00e+00	0	58	0	2403336192	44	4606
2026-01-21 02:08:39.49	226.63	54.44	-37.0	-38.6	16.7	0.00e+00	0	58	0	2409627648	44	4642
2026-01-21 02:08:40.50	226.32	54.10	-36.9	-38.5	16.7	0.00e+00	0	58	0	2414870528	44	4598
2026-01-21 02:08:41.51	226.01	53.76	-36.9	-38.4	16.9	0.00e+00	0	58	0	2420113408	44	4536
2026-01-21 02:08:42.52	225.71	53.43	-36.8	-38.3	17.0	0.00e+00	0	58	0	2426404864	44	4487
2026-01-21 02:08:43.53	225.42	53.09	-36.8	-38.3	17.0	0.00e+00	0	58	0	2431647744	44	4474
2026-01-21 02:08:44.54	225.13	52.76	-36.8	-38.3	17.0	0.00e+00	0	58	0	2437939200	44	4468
2026-01-21 02:08:45.55	224.85	52.43	-36.8	-38.4	17.0	0.00e+00	0	58	0	2443182080	44	4510
2026-01-21 02:08:46.56	224.58	52.09	-36.8	-38.4	16.9	0.00e+00	0	58	0	2448424960	44	4514
2026-01-21 02:08:47.57	224.31	51.76	-36.7	-38.2	17.1	0.00e+00	0	58	0	2454716416	44	4420
2026-01-21 02:08:48.58	224.05	51.44	-36.5	-38.1	17.2	0.00e+00	0	58	0	2459959296	44	4344
2026-01-21 02:08:49.59	223.79	51.11	-36.4	-37.9	17.4	0.00e+00	0	58	0	2466250752	44	4273
2026-01-21 02:08:50.60	223.54	50.79	-36.3	-37.8	17.5	0.00e+00	0	58	0	2471493632	44	4221
2026-01-21 02:08:51.61	223.30	50.46	-36.2	-37.7	17.6	0.00e+00	0	58	0	2476736512	44	4172
2026-01-21 02:08:52.62	223.06	50.14	-36.1	-37.6	17.7	0.00e+00	0	58	0	2483027968	44	4106
2026-01-21 02:08:53.63	222.83	49.82	-36.2	-37.6	17.6	0.00e+00	0	58	0	2488270848	44	4144
2026-01-21 02:08:54.64	222.60	49.50	-36.2	-37.6	17.7	0.00e+00	0	58	0	2494562304	44	4136
2026-01-21 02:08:55.65	222.37	49.19	-36.0	-37.5	17.8	0.00e+00	0	58	0	2499805184	44	4072
2026-01-21 02:08:56.66	222.15	48.87	-36.0	-37.4	17.8	0.00e+00	0	58	0	2506096640	44	4049
2026-01-21 02:08:57.67	221.94	48.56	-35.8	-37.3	17.8	0.00e+00	0	58	0	2511339520	43	4200
2026-01-21 02:08:58.69	221.72	48.25	-35.7	-37.1	18.0	0.00e+00	0	58	0	2516582400	43	4106
2026-01-21 02:08:59.70	221.52	47.94	-35.7	-37.2	18.0	0.00e+00	0	58	0	2522873856	43	4146
2026-01-21 02:09:00.71	221.31	47.63	-35.8	-37.3	17.8	0.00e+00	0	58	0	2528116736	43	4213
2026-01-21 02:09:01.72	221.11	47.33	-35.8	-37.3	17.8	0.00e+00	0	58	0	2534408192	43	4204
2026-01-21 02:09:02.73	220.92	47.02	-35.9	-37.4	17.7	0.00e+00	0	58	0	2539651072	43	4246
2026-01-21 02:09:03.74	220.73	46.72	-35.9	-37.3	17.8	0.00e+00	0	58	0	2545942528	43	4222
2026-01-21 02:09:04.75	220.54	46.42	-35.9	-37.3	17.7	0.00e+00	0	58	0	2551185408	43	4241
2026-01-21 02:09:05.76	220.36	46.12	-35.8	-37.3	17.8	0.00e+00	0	58	0	2556428288	43	4216
2026-01-21 02:09:06.77	220.18	45.83	-35.8	-37.3	17.7	0.00e+00	0	58	0	2562719744	43	4221
2026-01-21 02:09:07.78	220.00	45.53	-35.8	-37.3	17.8	0.00e+00	0	58	0	2567962624	43	4203
2026-01-21 02:09:08.79	219.83	45.24	-35.6	-37.0	18.0	0.00e+00	0	58	0	2574254080	43	4084
2026-01-21 02:09:09.80	219.66	44.95	-35.5	-36.9	18.1	0.00e+00	0	58	0	2579496960	43	4051
2026-01-21 02:09:10.81	219.49	44.66	-35.6	-37.0	18.0	0.00e+00	0	58	0	2584739840	43	4091
2026-01-21 02:09:11.82	219.32	44.37	-35.6	-37.1	18.0	0.00e+00	0	58	0	2591031296	43	4111
2026-01-21 02:09:12.83	219.16	44.09	-35.7	-37.1	17.9	0.00e+00	0	58	0	2596274176	43	4145
2026-01-21 02:09:13.84	219.00	43.80	-35.6	-37.1	18.0	0.00e+00	0	58	0	2602565632	43	4100
2026-01-21 02:09:14.85	218.85	43.52	-35.5	-36.9	18.1	0.00e+00	0	58	0	2607808512	43	4038
2026-01-21 02:09:15.86	218.70	43.24	-35.6	-37.0	18.0	0.00e+00	0	58	0	2613051392	42	4305
2026-01-21 02:09:16.86	218.55	42.97	-35.6	-37.0	18.0	0.00e+00	0	58	0	2619342848	42	4319
2026-01-21 02:09:17.87	218.40	42.69	-35.7	-37.2	17.9	0.00e+00	0	58	0	2624585728	42	4404
2026-01-21 02:09:18.88	218.25	42.42	-35.9	-37.4	17.7	0.00e+00	0	58	0	2630877184	42	4496
2026-01-21 02:09:19.90	218.11	42.14	-35.8	-37.3	17.8	0.00e+00	0	58	0	2636120064	42	4445
2026-01-21 02:09:20.90	217.97	41.87	-35.7	-37.1	17.9	0.00e+00	0	58	0	2642411520	42	4382
2026-01-21 02:09:21.91	217.83	41.60	-35.6	-37.0	18.0	0.00e+00	0	58	0	2647654400	42	4330
2026-01-21 02:09:22.92	217.70	41.34	-35.5	-36.9	18.1	0.00e+00	0	58	0	2653945856	42	4266
2026-01-21 02:09:23.94	217.56	41.07	-35.5	-36.9	18.1	0.00e+00	0	58	0	2659188736	42	4278
2026-01-21 02:09:24.94	217.43	40.81	-35.5	-36.9	18.2	0.00e+00	0	58	0	2664431616	42	4243
2026-01-21 02:09:25.95	217.31	40.54	-35.3	-36.7	18.4	0.00e+00	0	58	0	2670723072	42	4159
2026-01-21 02:09:26.96	217.18	40.28	-35.3	-36.7	18.3	0.00e+00	0	58	0	2675965952	42	4170
2026-01-21 02:09:27.97	217.05	40.03	-35.1	-36.5	18.5	0.00e+00	0	58	0	2682257408	42	4077
2026-01-21 02:09:28.98	216.93	39.77	-35.2	-36.5	18.5	0.00e+00	0	58	0	2687500288	42	4086
2026-01-21 02:09:29.99	216.81	39.51	-35.2	-36.6	18.4	0.00e+00	0	58	0	2692743168	42	4119
2026-01-21 02:09:31.00	216.69	39.26	-35.2	-36.6	18.4	0.00e+00	0	58	0	2699034624	42	4126
2026-01-21 02:09:32.01	216.58	39.01	-35.2	-36.7	18.3	0.00e+00	0	58	0	2704277504	42	4148
2026-01-21 02:09:33.02	216.46	38.76	-35.3	-36.7	18.3	0.00e+00	0	58	0	2709520384	42	4188
2026-01-21 02:09:34.03	216.35	38.51	-35.2	-36.6	18.4	0.00e+00	0	58	0	2715811840	42	4114
2026-01-21 02:09:35.03	216.24	38.27	-35.0	-36.4	18.6	0.00e+00	0	58	0	2721054720	42	4035
2026-01-21 02:09:36.04	216.13	38.02	-35.0	-36.4	18.6	0.00e+00	0	58	0	2727346176	42	4014
2026-01-21 02:09:37.05	216.02	37.78	-35.2	-36.6	18.4	0.00e+00	0	58	0	2732589056	42	4102
2026-01-21 02:09:38.06	215.91	37.54	-35.0	-36.4	18.6	0.00e+00	0	58	0	2738880512	42	4025
2026-01-21 02:09:39.07	215.81	37.30	-35.1	-36.5	18.5	0.00e+00	0	58	0	2744123392	42	4063
2026-01-21 02:09:40.08	215.70	37.06	-35.0	-36.4	18.5	0.00e+00	0	58	0	2750414848	42	4030
2026-01-21 02:09:41.09	215.60	36.82	-35.0	-36.4	18.5	0.00e+00	0	58	0	2755657728	42	4044
2026-01-21 02:09:42.10	215.50	36.59	-35.0	-36.4	18.5	0.00e+00	0	58	0	2760900608	42	4045
2026-01-21 02:09:43.11	215.40	36.35	-35.0	-36.4	18.6	0.00e+00	0	58	0	2767192064	42	4019
2026-01-21 02:09:44.12	215.31	36.12	-35.1	-36.5	18.5	0.00e+00	0	58	0	2772434944	42	4068
2026-01-21 02:09:45.13	215.21	35.89	-35.1	-36.5	18.4	0.00e+00	0	58	0	2778726400	42	4091
2026-01-21 02:09:46.14	215.12	35.66	-35.2	-36.6	18.4	0.00e+00	0	58	0	2783969280	42	4115
2026-01-21 02:09:47.15	215.02	35.43	-35.2	-36.6	18.3	0.00e+00	0	58	0	2789212160	42	4140
2026-01-21 02:09:48.16	214.93	35.21	-35.3	-36.8	18.2	0.00e+00	0	58	0	2795503616	42	4199
2026-01-21 02:09:49.17	214.84	34.98	-35.4	-36.8	18.1	0.00e+00	0	58	0	2800746496	42	4235
2026-01-21 02:09:50.18	214.75	34.76	-35.4	-36.9	18.1	0.00e+00	0	58	0	2807037952	42	4272
2026-01-21 02:09:51.19	214.66	34.54	-35.5	-37.0	18.0	0.00e+00	0	58	0	2812280832	42	4303
2026-01-21 02:09:52.19	214.58	34.32	-35.5	-37.0	18.0	0.00e+00	0	58	0	2817523712	42	4304
2026-01-21 02:09:53.20	214.49	34.10	-35.5	-37.0	18.0	0.00e+00	0	58	0	2823815168	42	4316
2026-01-21 02:09:54.21	214.41	33.88	-35.5	-37.0	18.0	0.00e+00	0	58	0	2829058048	42	4312
2026-01-21 02:09:55.22	214.32	33.67	-35.6	-37.0	18.0	0.00e+00	0	58	0	2835349504	42	4326
2026-01-21 02:09:56.23	214.24	33.45	-35.6	-37.0	17.9	0.00e+00	0	58	0	2840592384	42	4337
2026-01-21 02:09:57.24	214.16	33.24	-35.5	-36.9	18.0	0.00e+00	0	58	0	2846883840	42	4284
2026-01-21 02:09:58.25	214.08	33.03	-35.5	-37.0	18.0	0.00e+00	0	58	0	2852126720	42	4302
2026-01-21 02:09:59.26	214.00	32.82	-35.5	-36.9	18.1	0.00e+00	0	58	0	2857369600	42	4282
2026-01-21 02:10:00.27	213.92	32.61	-35.5	-36.9	18.0	0.00e+00	0	58	0	2863661056	42	4282
2026-01-21 02:10:01.28	213.85	32.41	-35.5	-37.0	18.0	0.00e+00	0	58	0	2868903936	42	4292
2026-01-21 02:10:02.29	213.77	32.20	-35.5	-37.0	18.0	0.00e+00	0	58	0	2875195392	42	4296
2026-01-21 02:10:03.30	213.69	31.99	-35.5	-37.0	18.0	0.00e+00	0	58	0	2880438272	42	4316
2026-01-21 02:10:04.31	213.62	31.79	-35.6	-37.0	17.9	0.00e+00	0	58	0	2885681152	42	4333
2026-01-21 02:10:05.32	213.55	31.59	-35.5	-37.0	17.9	0.00e+00	0	58	0	2891972608	42	4321
2026-01-21 02:10:06.33	213.48	31.39	-35.6	-37.1	17.9	0.00e+00	0	58	0	2897215488	42	4351
2026-01-21 02:10:07.34	213.40	31.19	-35.7	-37.1	17.8	0.00e+00	0	58	0	2903506944	42	4387
2026-01-21 02:10:08.35	213.33	30.99	-35.7	-37.2	17.7	0.00e+00	0	58	0	2908749824	42	4422
2026-01-21 02:10:09.35	213.27	30.80	-35.7	-37.2	17.8	0.00e+00	0	58	0	2913992704	42	4402
2026-01-21 02:10:10.36	213.20	30.60	-35.6	-37.1	17.8	0.00e+00	0	58	0	2920284160	42	4365
2026-01-21 02:10:11.37	213.13	30.41	-35.7	-37.2	17.7	0.00e+00	0	58	0	2925527040	42	4395
2026-01-21 02:10:12.38	213.06	30.22	-35.6	-37.1	17.8	0.00e+00	0	58	0	2931818496	42	4362
2026-01-21 02:10:13.39	213.00	30.02	-35.6	-37.1	17.9	0.00e+00	0	58	0	2937061376	42	4342
2026-01-21 02:10:14.40	212.93	29.83	-35.5	-36.9	18.0	0.00e+00	0	58	0	2943352832	42	4278
2026-01-21 02:10:15.41	212.87	29.65	-35.5	-37.0	17.9	0.00e+00	0	58	0	2948595712	42	4300
2026-01-21 02:10:16.42	212.80	29.46	-35.5	-36.9	18.0	0.00e+00	0	58	0	2953838592	42	4288
2026-01-21 02:10:17.43	212.74	29.27	-35.5	-36.9	18.0	0.00e+00	0	58	0	2960130048	42	4287
2026-01-21 02:10:18.44	212.68	29.08	-35.6	-37.0	17.9	0.00e+00	0	58	0	2965372928	42	4317
2026-01-21 02:10:19.45	212.62	28.90	-35.6	-37.1	17.8	0.00e+00	0	58	0	2971664384	42	4349
2026-01-21 02:10:20.46	212.56	28.72	-35.7	-37.2	17.8	0.00e+00	0	58	0	2976907264	42	4396
2026-01-21 02:10:21.47	212.50	28.54	-35.8	-37.3	17.7	0.00e+00	0	58	0	2982150144	42	4449
2026-01-21 02:10:22.48	212.44	28.35	-35.8	-37.3	17.6	0.00e+00	0	58	0	2988441600	42	4467
2026-01-21 02:10:23.49	212.38	28.17	-35.9	-37.4	17.5	0.00e+00	0	58	0	2993684480	42	4540
2026-01-21 02:10:24.50	212.32	28.00	-35.8	-37.3	17.6	0.00e+00	0	58	0	2999975936	42	4480
2026-01-21 02:10:25.51	212.26	27.82	-35.8	-37.3	17.6	0.00e+00	0	58	0	3005218816	42	4474
2026-01-21 02:10:26.52	212.21	27.64	-35.8	-37.4	17.6	0.00e+00	0	58	0	3010461696	42	4496
2026-01-21 02:10:27.53	212.15	27.47	-35.9	-37.4	17.5	0.00e+00	0	58	0	3016753152	42	4543
2026-01-21 02:10:28.54	212.10	27.29	-35.8	-37.4	17.6	0.00e+00	0	58	0	3021996032	42	4503
2026-01-21 02:10:29.55	212.04	27.12	-35.8	-37.3	17.6	0.00e+00	0	58	0	3028287488	42	4488
2026-01-21 02:10:30.56	211.99	26.95	-35.7	-37.2	17.7	0.00e+00	0	58	0	3033530368	42	4396
2026-01-21 02:10:31.57	211.93	26.78	-35.6	-37.1	17.8	0.00e+00	0	58	0	3039821824	42	4341
2026-01-21 02:10:32.58	211.88	26.61	-35.5	-36.9	17.9	0.00e+00	0	58	0	3045064704	42	4284
2026-01-21 02:10:33.59	211.83	26.44	-35.5	-37.0	17.9	0.00e+00	0	58	0	3051356160	42	4313
2026-01-21 02:10:34.60	211.78	26.27	-35.6	-37.1	17.8	0.00e+00	0	58	0	3056599040	42	4347
2026-01-21 02:10:35.61	211.73	26.10	-35.6	-37.1	17.8	0.00e+00	0	58	0	3061841920	42	4365
2026-01-21 02:10:36.62	211.68	25.94	-35.6	-37.0	17.8	0.00e+00	0	58	0	3068133376	42	4340
2026-01-21 02:10:37.63	211.63	25.77	-35.7	-37.1	17.7	0.00e+00	0	58	0	3073376256	42	4384
2026-01-21 02:10:38.64	211.58	25.61	-35.8	-37.2	17.6	0.00e+00	0	58	0	3079667712	42	4439
2026-01-21 02:10:39.65	211.53	25.45	-35.8	-37.3	17.6	0.00e+00	0	58	0	3084910592	42	4487
2026-01-21 02:10:40.66	211.48	25.28	-35.9	-37.4	17.5	0.00e+00	0	58	0	3090153472	42	4503
2026-01-21 02:10:41.67	211.43	25.12	-35.9	-37.4	17.5	0.00e+00	0	58	0	3096444928	42	4544
2026-01-21 02:10:42.68	211.38	24.96	-36.0	-37.6	17.4	0.00e+00	0	58	0	3101687808	42	4605
2026-01-21 02:10:43.69	211.34	24.80	-36.0	-37.6	17.3	0.00e+00	0	58	0	3107979264	42	4627
2026-01-21 02:10:44.70	211.29	24.65	-36.1	-37.6	17.3	0.00e+00	0	58	0	3113222144	42	4635
2026-01-21 02:10:45.71	211.25	24.49	-36.0	-37.6	17.3	0.00e+00	0	58	0	3118465024	42	4625
2026-01-21 02:10:46.72	211.20	24.33	-36.1	-37.7	17.3	0.00e+00	0	58	0	3124756480	42	4655
2026-01-21 02:10:47.73	211.16	24.18	-36.1	-37.6	17.3	0.00e+00	0	58	0	3129999360	42	4640
2026-01-21 02:10:48.74	211.11	24.02	-36.0	-37.6	17.3	0.00e+00	0	58	0	3136290816	42	4618
2026-01-21 02:10:49.75	211.07	23.87	-36.0	-37.6	17.3	0.00e+00	0	58	0	3141533696	42	4621
2026-01-21 02:10:50.76	211.02	23.72	-36.1	-37.6	17.3	0.00e+00	0	58	0	3147825152	42	4648
2026-01-21 02:10:51.77	210.98	23.56	-36.0	-37.6	17.4	0.00e+00	0	58	0	3153068032	42	4602
2026-01-21 02:10:52.78	210.94	23.41	-36.0	-37.5	17.4	0.00e+00	0	58	0	3159359488	42	4595
2026-01-21 02:10:53.79	210.90	23.26	-36.1	-37.6	17.3	0.00e+00	0	58	0	3164602368	42	4628
2026-01-21 02:10:54.80	210.85	23.11	-36.1	-37.6	17.3	0.00e+00	0	58	0	3169845248	42	4636
2026-01-21 02:10:55.81	210.81	22.96	-36.1	-37.6	17.3	0.00e+00	0	58	0	3176136704	42	4641
2026-01-21 02:10:56.82	210.77	22.82	-36.0	-37.6	17.3	0.00e+00	0	58	0	3181379584	42	4624
2026-01-21 02:10:57.83	210.73	22.67	-36.1	-37.6	17.3	0.00e+00	0	58	0	3187671040	42	4628
2026-01-21 02:10:58.83	210.69	22.53	-36.1	-37.6	17.3	0.00e+00	0	58	0	3192913920	42	4624
2026-01-21 02:10:59.84	210.65	22.38	-36.1	-37.6	17.3	0.00e+00	0	58	0	3198156800	42	4641
2026-01-21 02:11:00.85	210.61	22.24	-36.1	-37.7	17.2	0.00e+00	0	58	0	3204448256	42	4665
2026-01-21 02:11:01.86	210.57	22.09	-36.2	-37.8	17.1	0.00e+00	0	58	0	3209691136	42	4730
2026-01-21 02:11:02.87	210.54	21.95	-36.1	-37.7	17.2	0.00e+00	0	58	0	3215982592	42	4674
2026-01-21 02:11:03.88	210.50	21.81	-36.2	-37.8	17.1	0.00e+00	0	58	0	3221225472	42	4719
2026-01-21 02:11:04.89	210.46	21.67	-36.2	-37.8	17.1	0.00e+00	0	58	0	3226468352	42	4712
2026-01-21 02:11:05.90	210.42	21.53	-36.2	-37.8	17.1	0.00e+00	0	58	0	3232759808	43	4465
2026-01-21 02:11:06.91	210.39	21.39	-36.3	-37.9	17.0	0.00e+00	0	58	0	3238002688	43	4525
2026-01-21 02:11:07.92	210.35	21.25	-36.3	-37.9	17.0	0.00e+00	0	58	0	3244294144	43	4530
2026-01-21 02:11:08.93	210.31	21.11	-36.4	-38.0	16.9	0.00e+00	0	58	0	3249537024	43	4566
2026-01-21 02:11:09.94	210.28	20.97	-36.5	-38.1	16.8	0.00e+00	0	58	0	3255828480	43	4607
2026-01-21 02:11:10.95	210.24	20.84	-36.4	-38.0	16.8	0.00e+00	0	58	0	3261071360	43	4597
2026-01-21 02:11:11.96	210.21	20.70	-36.4	-38.1	16.8	0.00e+00	0	58	0	3267362816	43	4599
2026-01-21 02:11:12.97	210.17	20.56	-36.6	-38.2	16.7	0.00e+00	0	58	0	3272605696	43	4664
2026-01-21 02:11:13.98	210.14	20.43	-36.6	-38.2	16.6	0.00e+00	0	58	0	3277848576	43	4695
2026-01-21 02:11:14.99	210.10	20.30	-36.6	-38.2	16.6	0.00e+00	0	58	0	3284140032	43	4686
2026-01-21 02:11:16.00	210.07	20.16	-36.6	-38.2	16.6	0.00e+00	0	58	0	3289382912	43	4673
2026-01-21 02:11:17.01	210.03	20.03	-36.6	-38.3	16.6	0.00e+00	0	58	0	3295674368	43	4716
2026-01-21 02:11:18.02	210.00	19.90	-36.7	-38.3	16.5	0.00e+00	0	58	0	3300917248	43	4750
2026-01-21 02:11:19.03	209.97	19.77	-36.7	-38.3	16.5	0.00e+00	0	58	0	3306160128	43	4756
2026-01-21 02:11:20.04	209.93	19.64	-36.9	-38.6	16.4	0.00e+00	0	58	0	3312451584	44	4624
2026-01-21 02:11:21.05	209.90	19.51	-36.9	-38.6	16.4	0.00e+00	0	58	0	3317694464	44	4623
2026-01-21 02:11:22.06	209.87	19.38	-37.0	-38.7	16.3	0.00e+00	0	58	0	3322937344	44	4688
2026-01-21 02:11:23.07	209.84	19.25	-37.0	-38.7	16.3	0.00e+00	0	58	0	3329228800	44	4675
2026-01-21 02:11:24.08	209.81	19.12	-37.0	-38.7	16.2	0.00e+00	0	58	0	3334471680	44	4704
2026-01-21 02:11:25.09	209.77	19.00	-37.2	-38.9	16.1	0.00e+00	0	58	0	3340763136	44	4787
2026-01-21 02:11:26.10	209.74	18.87	-37.2	-38.9	16.1	0.00e+00	0	58	0	3346006016	44	4790
2026-01-21 02:11:27.11	209.71	18.74	-37.1	-38.9	16.1	0.00e+00	0	58	0	3352297472	45	4502
2026-01-21 02:11:28.12	209.68	18.62	-37.1	-38.9	16.1	0.00e+00	0	58	0	3357540352	45	4507
2026-01-21 02:11:29.13	209.65	18.49	-37.2	-39.0	16.0	0.00e+00	0	58	0	3363831808	45	4565
2026-01-21 02:11:30.13	209.62	18.37	-37.3	-39.0	15.9	0.00e+00	0	58	0	3369074688	45	4584
2026-01-21 02:11:31.15	209.59	18.25	-37.3	-39.0	15.9	0.00e+00	0	58	0	3374317568	45	4593
2026-01-21 02:11:32.16	209.56	18.12	-37.3	-39.1	15.8	0.00e+00	0	58	0	3380609024	45	4624
2026-01-21 02:11:33.17	209.53	18.00	-37.3	-39.2	15.8	0.00e+00	0	58	0	3385851904	45	4654
2026-01-21 02:11:34.18	209.51	17.88	-37.3	-39.1	15.8	0.00e+00	0	58	0	3392143360	45	4644
2026-01-21 02:11:35.19	209.48	17.76	-37.4	-39.2	15.8	0.00e+00	0	58	0	3397386240	45	4688
2026-01-21 02:11:36.20	209.45	17.64	-37.4	-39.3	15.7	0.00e+00	0	58	0	3402629120	45	4708
2026-01-21 02:11:37.20	209.42	17.52	-37.4	-39.2	15.7	0.00e+00	0	58	0	3408920576	45	4702
2026-01-21 02:11:38.21	209.39	17.40	-37.4	-39.2	15.7	0.00e+00	0	58	0	3414163456	45	4703
2026-01-21 02:11:39.22	209.37	17.28	-37.5	-39.3	15.6	0.00e+00	0	58	0	3420454912	45	4755
2026-01-21 02:11:40.23	209.34	17.16	-37.5	-39.3	15.6	0.00e+00	0	58	0	3425697792	45	4759
2026-01-21 02:11:41.24	209.31	17.05	-37.5	-39.4	15.6	0.00e+00	0	58	0	3430940672	45	4769
2026-01-21 02:11:42.25	209.28	16.93	-37.6	-39.5	15.5	0.00e+00	0	58	0	3437232128	45	4815
2026-01-21 02:11:43.26	209.26	16.81	-37.6	-39.4	15.5	0.00e+00	0	58	0	3442475008	45	4786
2026-01-21 02:11:44.27	209.23	16.70	-37.6	-39.5	15.5	0.00e+00	0	58	0	3448766464	45	4825
2026-01-21 02:11:45.28	209.20	16.58	-37.7	-39.5	15.4	0.00e+00	0	58	0	3454009344	45	4864
2026-01-21 02:11:46.29	209.18	16.47	-37.8	-39.6	15.3	0.00e+00	0	58	0	3460300800	46	4648
2026-01-21 02:11:47.30	209.15	16.35	-37.7	-39.6	15.3	0.00e+00	0	58	0	3465543680	46	4639
2026-01-21 02:11:48.31	209.13	16.24	-37.7	-39.7	15.3	0.00e+00	0	58	0	3471835136	46	4657
2026-01-21 02:11:49.32	209.10	16.13	-37.9	-39.8	15.2	0.00e+00	0	58	0	3477078016	46	4719
2026-01-21 02:11:50.33	209.08	16.01	-37.9	-39.8	15.1	0.00e+00	0	58	0	3482320896	46	4743
2026-01-21 02:11:51.34	209.05	15.90	-37.9	-39.8	15.1	0.00e+00	0	58	0	3488612352	46	4746
2026-01-21 02:11:52.35	209.03	15.79	-37.9	-39.8	15.1	0.00e+00	0	58	0	3493855232	46	4748
2026-01-21 02:11:53.36	209.00	15.68	-37.9	-39.9	15.0	0.00e+00	0	58	0	3500146688	46	4788
