passes_logs/2026/01/21/R2.0S_Moscow/R2.0S_Moscow__20260121_052433_FENGYUN_3E_rec.log

#Pass ID: 20260121_052433_FENGYUN 3E
#Satellite: FENGYUN 3E
#Configuration: FENGYUN 3E
#almurnet v.1.7.20251203
#Start time: 2026-01-21 05:24:33

#Version: 2.2.20231116
#Station: R2.0S_Moscow
#Location: 37.707566 lon 55.798166 lat
#TLE: 1 49008U 21062A   26020.29079360  .00000161  00000+0  96807-4 0  9999
#TLE: 2 49008  98.7481  25.3569 0002259 127.4136 232.7246 14.19885851235592

#Time	Az	El	Level	Level2	SNR	BER	BlckErr	Temp	State	Recorded	gain1	gain2
2026-01-21 05:24:33.91	10.76	2.05	-40.4	-51.3	3.8	8.47e-01	0	48	0	0	51	12581
2026-01-21 05:24:34.91	10.70	2.10	-40.4	-51.3	3.8	8.45e-01	0	49	104	0	51	12539
2026-01-21 05:24:35.93	10.64	2.16	-40.4	-51.3	3.8	8.46e-01	0	49	104	0	51	12559
2026-01-21 05:24:36.94	10.59	2.22	-40.4	-51.3	3.8	8.45e-01	0	49	104	0	51	12570
2026-01-21 05:24:37.95	10.53	2.28	-40.4	-51.3	3.8	8.46e-01	0	49	104	0	51	12544
2026-01-21 05:24:38.96	10.47	2.34	-40.4	-51.3	3.8	8.47e-01	0	49	104	0	51	12580
2026-01-21 05:24:39.97	10.41	2.40	-40.4	-51.3	3.8	8.47e-01	0	49	104	0	51	12555
2026-01-21 05:24:40.98	10.35	2.46	-40.3	-51.3	3.8	8.46e-01	0	49	104	0	51	12555
2026-01-21 05:24:41.99	10.29	2.52	-40.4	-51.3	3.8	8.46e-01	0	49	104	0	51	12531
2026-01-21 05:24:43.00	10.23	2.58	-40.4	-51.3	3.8	8.46e-01	0	49	104	0	51	12540
2026-01-21 05:24:44.01	10.17	2.64	-40.4	-51.3	3.8	8.46e-01	0	50	104	0	51	12522
2026-01-21 05:24:45.02	10.11	2.70	-40.4	-51.2	3.8	8.46e-01	0	50	104	0	51	12512
2026-01-21 05:24:46.03	10.05	2.76	-40.3	-51.3	3.8	8.46e-01	0	50	104	0	51	12560
2026-01-21 05:24:47.04	9.99	2.82	-40.4	-51.3	3.8	8.46e-01	0	50	104	0	51	12539
2026-01-21 05:24:48.05	9.93	2.88	-40.4	-51.3	3.8	8.46e-01	0	50	104	0	51	12542
2026-01-21 05:24:49.06	9.87	2.94	-40.3	-51.3	3.8	8.46e-01	0	50	104	0	51	12541
2026-01-21 05:24:50.07	9.81	3.00	-40.3	-51.2	3.8	8.46e-01	0	50	104	0	51	12510
2026-01-21 05:24:51.08	9.75	3.06	-40.3	-51.2	3.8	8.46e-01	0	50	104	0	51	12507
2026-01-21 05:24:52.10	9.69	3.12	-40.3	-51.2	3.8	8.46e-01	0	50	104	0	51	12510
2026-01-21 05:24:53.11	9.62	3.18	-40.4	-51.3	3.8	8.47e-01	0	50	104	0	51	12539
2026-01-21 05:24:54.12	9.56	3.24	-40.4	-51.3	3.8	8.45e-01	0	50	104	0	51	12536
2026-01-21 05:24:55.13	9.50	3.30	-40.3	-51.3	3.8	8.45e-01	0	50	104	0	51	12523
2026-01-21 05:24:56.14	9.44	3.36	-40.3	-51.2	3.8	8.46e-01	0	50	104	0	51	12505
2026-01-21 05:24:57.15	9.37	3.42	-40.3	-51.2	3.8	8.45e-01	0	50	104	0	51	12511
2026-01-21 05:24:58.16	9.31	3.48	-40.3	-51.3	3.8	8.46e-01	0	50	104	0	51	12524
2026-01-21 05:24:59.17	9.25	3.54	-40.3	-51.2	3.8	8.45e-01	0	51	104	0	51	12481
2026-01-21 05:25:00.18	9.18	3.61	-40.3	-51.3	3.8	8.46e-01	0	51	104	0	51	12527
2026-01-21 05:25:01.18	9.12	3.67	-40.3	-51.2	3.8	8.46e-01	0	51	104	0	51	12486
2026-01-21 05:25:02.19	9.05	3.73	-40.3	-51.3	3.8	8.46e-01	0	51	104	0	51	12534
2026-01-21 05:25:03.20	8.99	3.79	-40.3	-51.2	3.8	8.46e-01	0	51	104	0	51	12519
2026-01-21 05:25:04.21	8.92	3.85	-40.3	-51.2	3.8	8.46e-01	0	51	104	0	51	12516
2026-01-21 05:25:05.22	8.86	3.91	-40.3	-51.3	3.8	8.46e-01	0	51	104	0	51	12548
2026-01-21 05:25:06.23	8.79	3.97	-40.3	-51.3	3.8	8.47e-01	0	51	104	0	51	12532
2026-01-21 05:25:07.24	8.73	4.04	-40.3	-51.2	3.8	8.46e-01	0	51	104	0	51	12516
2026-01-21 05:25:08.26	8.66	4.10	-40.3	-51.2	3.8	8.46e-01	0	51	104	0	51	12497
2026-01-21 05:25:09.27	8.59	4.16	-40.3	-51.2	3.8	8.46e-01	0	51	104	0	51	12507
2026-01-21 05:25:10.28	8.53	4.22	-40.3	-51.3	3.8	8.47e-01	0	51	104	0	51	12533
2026-01-21 05:25:11.29	8.46	4.29	-40.3	-51.2	3.8	8.46e-01	0	51	104	0	51	12484
2026-01-21 05:25:12.30	8.39	4.35	-40.3	-51.2	3.8	8.45e-01	0	51	104	0	51	12517
2026-01-21 05:25:13.31	8.32	4.41	-40.3	-51.3	3.8	8.45e-01	0	52	104	0	51	12553
2026-01-21 05:25:14.32	8.26	4.47	-40.3	-51.3	3.8	8.47e-01	0	52	104	0	51	12526
2026-01-21 05:25:15.33	8.19	4.54	-40.3	-51.2	3.8	8.46e-01	0	52	104	0	51	12505
2026-01-21 05:25:16.34	8.12	4.60	-40.3	-51.2	3.8	8.46e-01	0	52	104	0	51	12513
2026-01-21 05:25:17.35	8.05	4.66	-40.3	-51.3	3.8	8.46e-01	0	52	104	0	51	12520
2026-01-21 05:25:18.36	7.98	4.72	-40.3	-51.3	3.8	8.47e-01	0	52	104	0	51	12525
2026-01-21 05:25:19.37	7.91	4.79	-40.3	-51.2	3.8	8.47e-01	0	52	104	0	51	12518
2026-01-21 05:25:20.38	7.84	4.85	-40.3	-51.2	3.8	8.46e-01	0	52	104	0	51	12485
2026-01-21 05:25:21.39	7.77	4.91	-40.3	-51.3	3.8	8.47e-01	0	52	104	0	51	12523
2026-01-21 05:25:22.40	7.70	4.98	-40.3	-51.3	3.8	8.47e-01	0	52	104	0	51	12529
2026-01-21 05:25:23.41	7.63	5.04	-40.3	-51.2	3.8	8.46e-01	0	52	104	0	51	12504
2026-01-21 05:25:24.42	7.56	5.11	-40.3	-51.2	3.8	8.46e-01	0	52	104	0	51	12502
2026-01-21 05:25:25.43	7.49	5.17	-40.3	-51.3	3.8	8.46e-01	0	52	104	0	51	12548
2026-01-21 05:25:26.44	7.41	5.23	-40.3	-51.2	3.8	8.46e-01	0	52	104	0	51	12512
2026-01-21 05:25:27.45	7.34	5.30	-40.3	-51.2	3.8	8.46e-01	0	52	104	0	51	12454
2026-01-21 05:25:28.46	7.27	5.36	-40.3	-51.2	3.8	8.46e-01	0	52	104	0	51	12497
2026-01-21 05:25:29.47	7.20	5.43	-40.3	-51.3	3.8	8.45e-01	0	53	104	0	51	12542
2026-01-21 05:25:30.48	7.12	5.49	-40.3	-51.2	3.8	8.45e-01	0	52	104	0	51	12495
2026-01-21 05:25:31.49	7.05	5.55	-40.3	-51.2	3.8	8.45e-01	0	52	104	0	51	12504
2026-01-21 05:25:32.50	6.98	5.62	-40.3	-51.2	3.8	8.45e-01	0	53	104	0	51	12494
2026-01-21 05:25:33.51	6.90	5.68	-40.3	-51.2	3.8	8.46e-01	0	53	104	0	51	12474
2026-01-21 05:25:34.52	6.83	5.75	-40.3	-51.3	3.8	8.46e-01	0	53	104	0	51	12530
2026-01-21 05:25:35.53	6.75	5.81	-40.3	-51.2	3.8	8.46e-01	0	53	104	0	51	12486
2026-01-21 05:25:36.54	6.68	5.88	-40.3	-51.2	3.8	8.46e-01	0	53	104	0	51	12504
2026-01-21 05:25:37.55	6.60	5.94	-40.3	-51.2	3.8	8.47e-01	0	53	104	0	51	12491
2026-01-21 05:25:38.56	6.52	6.01	-40.3	-51.3	3.8	8.46e-01	0	53	104	0	51	12529
2026-01-21 05:25:39.57	6.45	6.07	-40.3	-51.2	3.8	8.46e-01	0	53	104	0	51	12502
2026-01-21 05:25:40.58	6.37	6.14	-40.3	-51.2	3.8	8.45e-01	0	53	104	0	51	12498
2026-01-21 05:25:41.60	6.29	6.21	-40.3	-51.2	3.8	8.45e-01	0	53	104	0	51	12511
2026-01-21 05:25:42.61	6.22	6.27	-40.3	-51.2	3.8	8.46e-01	0	53	104	0	51	12491
2026-01-21 05:25:43.62	6.14	6.34	-40.3	-51.2	3.8	8.47e-01	0	53	104	0	51	12452
2026-01-21 05:25:44.63	6.06	6.40	-40.3	-51.2	3.8	8.47e-01	0	53	104	0	51	12464
2026-01-21 05:25:45.64	5.98	6.47	-40.3	-51.3	3.8	8.47e-01	0	53	104	0	51	12548
2026-01-21 05:25:46.65	5.90	6.54	-40.3	-51.2	3.8	8.47e-01	0	53	104	0	51	12487
2026-01-21 05:25:47.66	5.82	6.60	-40.3	-51.3	3.8	8.46e-01	0	53	104	0	51	12551
2026-01-21 05:25:48.67	5.74	6.67	-40.3	-51.2	3.8	8.46e-01	0	53	104	0	51	12464
2026-01-21 05:25:49.68	5.66	6.74	-40.3	-51.2	3.8	8.45e-01	0	53	104	0	51	12484
2026-01-21 05:25:50.69	5.58	6.80	-40.3	-51.2	3.8	8.46e-01	0	54	104	0	51	12475
2026-01-21 05:25:51.70	5.50	6.87	-40.3	-51.2	3.8	8.47e-01	0	54	104	0	51	12492
2026-01-21 05:25:52.71	5.42	6.94	-40.3	-51.2	3.8	8.46e-01	0	54	104	0	51	12458
2026-01-21 05:25:53.73	5.34	7.00	-40.3	-51.2	3.8	8.45e-01	0	54	104	0	51	12516
2026-01-21 05:25:54.74	5.25	7.07	-40.3	-51.2	3.8	8.46e-01	0	54	104	0	51	12446
2026-01-21 05:25:55.74	5.17	7.14	-40.3	-51.2	3.8	8.47e-01	0	53	104	0	51	12493
2026-01-21 05:25:56.75	5.09	7.21	-40.3	-51.2	3.8	8.46e-01	0	54	104	0	51	12502
2026-01-21 05:25:57.77	5.01	7.27	-40.3	-51.2	3.8	8.46e-01	0	54	104	0	51	12515
2026-01-21 05:25:58.78	4.92	7.34	-40.3	-51.2	3.8	8.46e-01	0	54	104	0	51	12463
2026-01-21 05:25:59.79	4.84	7.41	-40.3	-51.2	3.8	8.46e-01	0	54	104	0	51	12489
2026-01-21 05:26:00.80	4.75	7.48	-40.3	-51.2	3.8	8.46e-01	0	54	104	0	51	12492
2026-01-21 05:26:01.81	4.67	7.54	-40.3	-51.2	3.8	8.46e-01	0	54	104	0	51	12503
2026-01-21 05:26:02.82	4.58	7.61	-40.3	-51.2	3.8	8.46e-01	0	54	104	0	51	12487
2026-01-21 05:26:03.83	4.50	7.68	-40.3	-51.2	3.8	8.46e-01	0	54	104	0	51	12488
2026-01-21 05:26:04.84	4.41	7.75	-40.3	-51.2	3.8	8.46e-01	0	54	104	0	51	12504
2026-01-21 05:26:05.85	4.32	7.82	-40.3	-51.2	3.8	8.45e-01	0	54	104	0	51	12503
2026-01-21 05:26:06.86	4.24	7.89	-40.3	-51.3	3.8	8.45e-01	0	54	104	0	51	12530
2026-01-21 05:26:07.87	4.15	7.96	-40.3	-51.2	3.8	8.46e-01	0	54	104	0	51	12492
2026-01-21 05:26:08.88	4.06	8.02	-40.3	-51.2	3.8	8.45e-01	0	54	104	0	51	12505
2026-01-21 05:26:09.89	3.97	8.09	-40.4	-51.3	3.8	8.46e-01	0	54	104	0	51	12538
2026-01-21 05:26:10.90	3.88	8.16	-40.3	-51.3	3.8	8.46e-01	0	54	104	0	51	12632
2026-01-21 05:26:11.91	3.79	8.23	-40.4	-51.3	3.8	8.46e-01	0	54	104	0	51	12645
2026-01-21 05:26:12.92	3.71	8.30	-40.5	-51.5	3.8	8.48e-01	0	54	104	0	51	12824
2026-01-21 05:26:13.93	3.61	8.37	-40.4	-51.3	3.8	8.45e-01	0	54	104	0	51	12553
2026-01-21 05:26:14.94	3.52	8.44	-40.3	-51.3	3.8	8.46e-01	0	54	104	0	51	12615
2026-01-21 05:26:15.95	3.43	8.51	-40.4	-51.3	3.8	8.45e-01	0	54	104	0	51	12650
2026-01-21 05:26:16.96	3.34	8.58	-40.5	-51.4	3.8	8.46e-01	0	55	104	0	51	12806
2026-01-21 05:26:17.97	3.25	8.65	-40.3	-51.2	3.8	8.46e-01	0	54	104	0	51	12490
2026-01-21 05:26:18.98	3.16	8.72	-40.4	-51.3	3.8	8.46e-01	0	54	104	0	51	12659
2026-01-21 05:26:19.99	3.06	8.79	-40.4	-51.3	3.8	8.47e-01	0	55	104	0	51	12559
2026-01-21 05:26:21.00	2.97	8.86	-40.5	-51.5	3.8	8.44e-01	0	55	104	0	51	12814
2026-01-21 05:26:22.01	2.88	8.93	-40.3	-51.2	3.8	8.47e-01	0	55	104	0	51	12441
2026-01-21 05:26:23.01	2.78	9.00	-40.5	-51.4	3.8	8.46e-01	0	55	104	0	51	12758
2026-01-21 05:26:24.02	2.69	9.07	-40.3	-51.3	3.8	8.46e-01	0	55	104	0	51	12581
2026-01-21 05:26:25.03	2.59	9.14	-40.5	-51.5	3.8	8.45e-01	0	55	104	0	51	12815
2026-01-21 05:26:26.04	2.50	9.21	-40.4	-51.3	3.8	8.46e-01	0	55	104	0	51	12598
2026-01-21 05:26:27.05	2.40	9.28	-40.5	-51.4	3.8	8.47e-01	0	55	104	0	51	12759
2026-01-21 05:26:28.06	2.30	9.35	-40.2	-51.2	3.8	8.46e-01	0	55	104	0	51	12499
2026-01-21 05:26:29.07	2.21	9.43	-40.6	-51.5	3.8	8.46e-01	0	55	104	0	51	12846
2026-01-21 05:26:30.08	2.11	9.50	-40.4	-51.3	3.8	8.45e-01	0	55	104	0	51	12631
2026-01-21 05:26:31.09	2.01	9.57	-40.4	-51.4	3.8	8.46e-01	0	55	104	0	51	12725
2026-01-21 05:26:32.10	1.91	9.64	-40.3	-51.3	3.8	8.46e-01	0	55	104	0	51	12531
2026-01-21 05:26:33.11	1.81	9.71	-40.6	-51.5	3.8	8.46e-01	0	55	104	0	51	12865
2026-01-21 05:26:34.12	1.71	9.78	-40.3	-51.3	3.8	8.46e-01	0	55	104	0	51	12567
2026-01-21 05:26:35.13	1.61	9.86	-40.4	-51.4	3.8	8.47e-01	0	55	104	0	51	12759
2026-01-21 05:26:36.14	1.51	9.93	-40.4	-51.4	3.8	8.46e-01	0	55	104	0	51	12671
2026-01-21 05:26:37.15	1.41	10.00	-40.6	-51.4	3.8	8.46e-01	0	55	104	0	51	12796
2026-01-21 05:26:38.16	1.31	10.07	-40.2	-51.3	3.8	8.46e-01	0	55	104	0	51	12545
2026-01-21 05:26:39.17	1.21	10.15	-40.4	-51.4	3.8	8.47e-01	0	55	104	0	51	12795
2026-01-21 05:26:40.18	1.10	10.22	-40.4	-51.3	3.8	8.46e-01	0	55	104	0	51	12651
2026-01-21 05:26:41.19	1.00	10.29	-40.6	-51.5	3.8	8.47e-01	0	55	104	0	51	12865
2026-01-21 05:26:42.19	0.90	10.36	-40.2	-51.3	3.8	8.46e-01	0	55	104	0	51	12566
2026-01-21 05:26:43.20	0.79	10.44	-40.6	-51.4	3.8	8.47e-01	0	55	104	0	51	12771
2026-01-21 05:26:44.21	0.69	10.51	-40.4	-51.3	3.8	8.46e-01	0	55	104	0	51	12652
2026-01-21 05:26:45.22	0.58	10.58	-40.6	-51.6	3.8	8.46e-01	0	55	104	0	51	12963
2026-01-21 05:26:46.23	0.48	10.66	-40.2	-51.3	3.8	8.46e-01	0	55	104	0	51	12615
2026-01-21 05:26:47.24	0.37	10.73	-40.6	-51.5	3.8	8.47e-01	0	56	104	0	51	12898
2026-01-21 05:26:48.25	0.26	10.80	-40.4	-51.4	3.8	8.45e-01	0	55	104	0	51	12692
2026-01-21 05:26:49.26	0.16	10.88	-40.8	-51.7	3.8	8.45e-01	0	55	104	0	51	13198
2026-01-21 05:26:50.27	0.05	10.95	-40.2	-51.4	3.8	8.46e-01	0	55	104	0	51	12665
2026-01-21 05:26:51.28	359.94	11.03	-40.6	-51.6	3.8	8.46e-01	0	55	104	0	51	13034
2026-01-21 05:26:52.29	359.83	11.10	-40.5	-51.5	3.8	8.46e-01	0	55	104	0	51	12830
2026-01-21 05:26:53.30	359.72	11.17	-40.9	-51.8	3.8	8.47e-01	0	55	104	0	51	13337
2026-01-21 05:26:54.31	359.61	11.25	-40.0	-51.3	3.8	8.46e-01	0	56	104	0	51	12572
2026-01-21 05:26:55.32	359.50	11.32	-40.0	-51.3	3.8	8.45e-01	0	56	104	0	50	13374
2026-01-21 05:26:56.33	359.38	11.40	-40.0	-51.3	3.8	8.47e-01	0	56	104	0	50	13323
2026-01-21 05:26:57.33	359.27	11.47	-39.9	-51.3	3.8	8.45e-01	0	55	104	0	50	13287
2026-01-21 05:26:58.34	359.16	11.55	-39.9	-51.3	3.8	8.45e-01	0	56	104	0	50	13366
2026-01-21 05:26:59.35	359.05	11.62	-40.1	-51.4	3.8	8.46e-01	0	56	104	0	50	13539
2026-01-21 05:27:00.36	358.93	11.70	-41.0	-51.9	3.8	8.46e-01	0	56	104	0	51	13526
2026-01-21 05:27:01.37	358.82	11.77	-40.2	-51.5	3.8	8.46e-01	0	55	104	0	51	12873
2026-01-21 05:27:02.38	358.70	11.85	-40.0	-51.3	3.8	8.45e-01	0	56	104	0	51	12629
2026-01-21 05:27:03.39	358.59	11.92	-40.1	-51.4	3.8	8.45e-01	0	56	104	0	51	12721
2026-01-21 05:27:04.40	358.47	12.00	-40.1	-51.4	3.8	8.46e-01	0	56	104	0	51	12768
2026-01-21 05:27:05.41	358.35	12.07	-40.3	-51.4	3.8	8.45e-01	0	56	104	0	51	12777
2026-01-21 05:27:06.42	358.23	12.15	-40.5	-51.5	3.8	8.46e-01	0	56	104	0	51	12816
2026-01-21 05:27:07.43	358.12	12.22	-40.6	-51.6	3.8	8.45e-01	0	56	104	0	51	13102
2026-01-21 05:27:08.44	358.00	12.30	-41.7	-51.4	3.8	8.46e-01	0	56	104	0	52	11980
2026-01-21 05:27:09.45	357.88	12.38	-41.4	-49.8	4.1	8.39e-01	0	56	0	0	53	9414
2026-01-21 05:27:10.46	357.76	12.45	-41.2	-51.4	3.8	8.46e-01	0	56	104	0	53	11373
2026-01-21 05:27:11.47	357.64	12.53	-40.5	-45.7	6.1	3.61e-01	0	56	0	2097152	52	6242
2026-01-21 05:27:12.48	357.51	12.61	-39.9	-44.1	7.7	1.18e-01	0	56	0	9437184	50	5798
2026-01-21 05:27:13.49	357.39	12.68	-39.3	-42.7	9.1	2.39e-02	0	56	0	16777216	49	5274
2026-01-21 05:27:14.50	357.27	12.76	-38.9	-41.9	10.1	8.53e-03	0	56	0	23068672	48	5062
2026-01-21 05:27:15.51	357.15	12.84	-38.3	-41.0	10.9	2.56e-03	0	56	0	30408704	47	4834
2026-01-21 05:27:16.51	357.02	12.91	-37.9	-40.4	11.7	6.16e-04	0	56	0	38797312	46	4763
2026-01-21 05:27:17.52	356.90	12.99	-38.0	-40.5	11.6	4.61e-04	0	56	0	45088768	46	4838
2026-01-21 05:27:18.53	356.77	13.07	-38.1	-40.6	11.5	6.29e-04	0	56	0	52428800	46	4893
2026-01-21 05:27:19.54	356.65	13.14	-38.3	-40.8	11.2	1.11e-03	0	56	0	59768832	46	5030
2026-01-21 05:27:20.55	356.52	13.22	-38.5	-41.2	10.9	1.88e-03	0	56	0	67108864	46	5263
2026-01-21 05:27:21.56	356.39	13.30	-38.4	-41.0	11.0	1.95e-03	0	56	0	74448896	46	5156
2026-01-21 05:27:22.57	356.26	13.38	-38.8	-41.7	10.3	3.19e-03	0	56	0	81788928	47	5237
2026-01-21 05:27:23.58	356.13	13.45	-39.7	-43.3	8.7	2.07e-02	0	56	0	89128960	48	5972
2026-01-21 05:27:24.59	356.00	13.53	-39.8	-43.6	8.3	4.71e-02	0	56	0	96468992	49	5815
2026-01-21 05:27:25.60	355.87	13.61	-40.3	-44.9	7.0	1.09e-01	0	56	0	103809024	50	6379
2026-01-21 05:27:26.60	355.74	13.69	-40.6	-46.1	5.9	3.24e-01	0	56	0	111149056	50	7326
2026-01-21 05:27:27.61	355.61	13.76	-40.8	-47.0	5.2	7.23e-01	0	56	0	115343360	51	7647
2026-01-21 05:27:28.62	355.48	13.84	-41.2	-48.9	4.2	8.30e-01	0	56	0	115343360	51	9567
2026-01-21 05:27:29.63	355.34	13.92	-41.1	-49.1	4.2	8.37e-01	0	56	0	115343360	51	9762
2026-01-21 05:27:30.64	355.21	14.00	-41.2	-50.6	3.9	8.46e-01	0	56	104	115343360	52	11020
2026-01-21 05:27:31.65	355.08	14.08	-41.2	-50.8	3.8	8.46e-01	0	56	104	115343360	52	11251
2026-01-21 05:27:32.66	354.94	14.16	-41.3	-51.4	3.8	8.46e-01	0	56	104	115343360	52	12029
2026-01-21 05:27:33.67	354.80	14.23	-41.0	-52.1	3.8	8.47e-01	0	56	104	115343360	52	12976
2026-01-21 05:27:34.68	354.67	14.31	-41.0	-52.0	3.8	8.46e-01	0	56	104	115343360	52	12812
2026-01-21 05:27:35.69	354.53	14.39	-41.3	-51.9	3.8	8.46e-01	0	56	104	115343360	52	12673
2026-01-21 05:27:36.70	354.39	14.47	-41.2	-52.0	3.8	8.45e-01	0	56	104	115343360	52	12954
2026-01-21 05:27:37.71	354.25	14.55	-41.1	-52.0	3.8	8.47e-01	0	56	104	115343360	52	12890
2026-01-21 05:27:38.72	354.11	14.63	-41.0	-52.0	3.8	8.47e-01	0	56	104	115343360	52	12883
2026-01-21 05:27:39.72	353.97	14.71	-40.7	-51.9	3.8	8.46e-01	0	57	104	115343360	52	12693
2026-01-21 05:27:40.73	353.83	14.79	-40.9	-52.0	3.8	8.46e-01	0	56	104	115343360	52	12858
2026-01-21 05:27:41.74	353.69	14.87	-41.0	-51.9	3.8	8.46e-01	0	56	104	115343360	52	12719
2026-01-21 05:27:42.75	353.54	14.94	-41.0	-52.0	3.8	8.46e-01	0	56	104	115343360	52	12854
2026-01-21 05:27:43.76	353.40	15.02	-40.9	-51.9	3.8	8.47e-01	0	56	104	115343360	52	12731
2026-01-21 05:27:44.77	353.26	15.10	-40.6	-51.9	3.8	8.45e-01	0	57	104	115343360	52	12768
2026-01-21 05:27:45.78	353.11	15.18	-41.0	-51.9	3.8	8.47e-01	0	56	104	115343360	52	12782
2026-01-21 05:27:46.79	352.96	15.26	-41.0	-52.2	3.8	8.45e-01	0	56	104	115343360	52	13204
2026-01-21 05:27:47.80	352.82	15.34	-40.8	-51.9	3.8	8.47e-01	0	56	104	115343360	52	12689
2026-01-21 05:27:48.81	352.67	15.42	-40.6	-52.0	3.8	8.47e-01	0	56	104	115343360	51	13724
2026-01-21 05:27:49.82	352.52	15.50	-41.1	-52.1	3.8	8.44e-01	0	57	104	115343360	51	13830
2026-01-21 05:27:50.83	352.37	15.58	-40.6	-52.2	3.8	8.47e-01	0	57	104	115343360	51	13904
2026-01-21 05:27:51.84	352.22	15.66	-40.9	-52.1	3.8	8.46e-01	0	57	104	115343360	51	13884
2026-01-21 05:27:52.85	352.07	15.74	-41.0	-52.2	3.8	8.47e-01	0	57	104	115343360	51	13912
2026-01-21 05:27:53.86	351.92	15.82	-40.6	-52.1	3.8	8.46e-01	0	57	104	115343360	51	13764
2026-01-21 05:27:54.87	351.76	15.90	-39.9	-52.2	3.8	8.46e-01	0	57	104	115343360	50	14792
2026-01-21 05:27:55.87	351.61	15.98	-41.0	-52.3	3.8	8.45e-01	0	57	104	115343360	51	14050
2026-01-21 05:27:56.89	351.46	16.06	-41.1	-52.1	3.8	8.46e-01	0	56	104	115343360	51	13827
2026-01-21 05:27:57.89	351.30	16.14	-40.5	-52.3	3.8	8.46e-01	0	56	104	115343360	51	14063
2026-01-21 05:27:58.90	351.15	16.22	-39.9	-52.3	3.8	8.46e-01	0	57	104	115343360	50	14930
2026-01-21 05:27:59.91	350.99	16.30	-40.5	-52.1	3.8	8.47e-01	0	57	104	115343360	50	14653
2026-01-21 05:28:00.92	350.83	16.38	-40.9	-52.2	3.8	8.45e-01	0	57	104	115343360	51	14044
2026-01-21 05:28:01.93	350.67	16.46	-40.8	-52.4	3.8	8.45e-01	0	57	104	115343360	51	14298
2026-01-21 05:28:02.94	350.51	16.54	-40.8	-52.2	3.8	8.46e-01	0	57	104	115343360	51	14031
2026-01-21 05:28:03.95	350.35	16.63	-39.9	-52.2	3.8	8.46e-01	0	57	104	115343360	50	14789
2026-01-21 05:28:04.96	350.19	16.71	-41.1	-52.4	3.8	8.46e-01	0	56	104	115343360	51	14308
2026-01-21 05:28:05.97	350.03	16.79	-41.2	-52.3	3.8	8.47e-01	0	57	104	115343360	51	14051
2026-01-21 05:28:06.98	349.87	16.87	-41.5	-52.4	3.8	8.46e-01	0	57	104	115343360	52	13543
2026-01-21 05:28:07.99	349.70	16.95	-40.0	-52.3	3.8	8.47e-01	0	57	104	115343360	50	14942
2026-01-21 05:28:09.00	349.54	17.03	-41.3	-52.2	3.8	8.47e-01	0	57	104	115343360	52	13210
2026-01-21 05:28:10.00	349.37	17.11	-41.3	-52.4	3.8	8.47e-01	0	57	104	115343360	52	13523
2026-01-21 05:28:11.01	349.21	17.19	-41.5	-52.6	3.8	8.46e-01	0	57	104	115343360	52	13883
2026-01-21 05:28:12.02	349.04	17.27	-40.8	-52.2	3.8	8.46e-01	0	57	104	115343360	52	13166
2026-01-21 05:28:13.03	348.87	17.35	-41.2	-52.2	3.8	8.45e-01	0	57	104	115343360	52	13153
2026-01-21 05:28:14.04	348.70	17.43	-41.8	-52.8	3.8	8.45e-01	0	57	104	115343360	53	13303
2026-01-21 05:28:15.05	348.53	17.51	-41.3	-52.3	3.8	8.47e-01	0	57	104	115343360	53	12560
2026-01-21 05:28:16.06	348.36	17.59	-41.3	-52.2	3.8	8.47e-01	0	57	104	115343360	53	12479
2026-01-21 05:28:17.07	348.18	17.67	-41.3	-52.2	3.8	8.45e-01	0	57	104	115343360	53	12507
2026-01-21 05:28:18.08	348.01	17.76	-41.3	-52.2	3.8	8.47e-01	0	57	104	115343360	53	12443
2026-01-21 05:28:19.09	347.84	17.84	-41.3	-52.2	3.8	8.46e-01	0	57	104	115343360	53	12472
2026-01-21 05:28:20.10	347.66	17.92	-41.1	-52.3	3.8	8.45e-01	0	57	104	115343360	53	12552
2026-01-21 05:28:21.11	347.49	18.00	-41.3	-52.4	3.8	8.46e-01	0	57	104	115343360	53	12670
2026-01-21 05:28:22.12	347.31	18.08	-41.8	-52.8	3.8	8.46e-01	0	57	104	115343360	53	13380
2026-01-21 05:28:23.13	347.13	18.16	-41.5	-52.4	3.8	8.46e-01	0	57	104	115343360	53	12678
2026-01-21 05:28:24.14	346.95	18.24	-41.2	-52.3	3.8	8.45e-01	0	57	104	115343360	53	12568
2026-01-21 05:28:25.15	346.77	18.32	-41.3	-52.3	3.8	8.46e-01	0	57	104	115343360	53	12597
2026-01-21 05:28:26.16	346.59	18.40	-41.4	-52.4	3.8	8.46e-01	0	57	104	115343360	53	12674
2026-01-21 05:28:27.17	346.41	18.48	-41.5	-52.3	3.8	8.47e-01	0	57	104	115343360	53	12647
2026-01-21 05:28:28.17	346.23	18.56	-41.4	-52.4	3.8	8.45e-01	0	57	104	115343360	53	12691
2026-01-21 05:28:29.18	346.04	18.64	-41.5	-52.4	3.8	8.46e-01	0	57	104	115343360	53	12730
2026-01-21 05:28:30.19	345.86	18.72	-41.2	-52.3	3.8	8.46e-01	0	57	104	115343360	53	12561
2026-01-21 05:28:31.20	345.67	18.80	-41.2	-52.1	3.8	8.46e-01	0	57	104	115343360	53	12314
2026-01-21 05:28:32.21	345.49	18.88	-41.3	-52.1	3.8	8.47e-01	0	57	104	115343360	53	12273
2026-01-21 05:28:33.22	345.30	18.96	-41.4	-52.4	3.8	8.45e-01	0	57	104	115343360	53	12670
2026-01-21 05:28:34.23	345.11	19.04	-41.2	-52.1	3.8	8.48e-01	0	57	104	115343360	53	12299
2026-01-21 05:28:35.24	344.92	19.12	-41.3	-52.3	3.8	8.46e-01	0	57	104	115343360	53	12616
2026-01-21 05:28:36.25	344.73	19.20	-41.3	-52.2	3.8	8.46e-01	0	57	104	115343360	53	12377
2026-01-21 05:28:37.26	344.53	19.28	-41.5	-52.4	3.8	8.47e-01	0	57	104	115343360	53	12742
2026-01-21 05:28:38.26	344.34	19.36	-41.0	-51.9	3.8	8.45e-01	0	57	104	115343360	53	11974
2026-01-21 05:28:39.27	344.15	19.44	-41.6	-52.4	3.8	8.46e-01	0	57	104	115343360	53	12680
2026-01-21 05:28:40.28	343.95	19.52	-41.2	-52.0	3.8	8.46e-01	0	57	104	115343360	53	12186
2026-01-21 05:28:41.30	343.76	19.60	-41.6	-51.9	3.8	8.46e-01	0	57	104	115343360	53	12079
2026-01-21 05:28:42.31	343.56	19.68	-41.2	-51.8	3.8	8.46e-01	0	57	104	115343360	53	11875
2026-01-21 05:28:43.32	343.36	19.76	-41.9	-50.9	3.8	8.45e-01	0	57	104	115343360	53	10705
2026-01-21 05:28:44.33	343.16	19.84	-41.7	-52.1	3.8	8.47e-01	0	57	104	115343360	53	12352
2026-01-21 05:28:45.33	342.96	19.92	-42.0	-50.6	3.9	8.43e-01	0	57	104	115343360	53	10327
2026-01-21 05:28:46.34	342.76	20.00	-42.0	-50.0	4.1	8.38e-01	0	57	0	115343360	53	9698
2026-01-21 05:28:47.35	342.56	20.08	-42.1	-49.3	4.4	8.30e-01	0	57	0	115343360	53	8920
2026-01-21 05:28:48.36	342.36	20.16	-42.1	-49.0	4.6	8.19e-01	0	57	0	115343360	53	8592
2026-01-21 05:28:49.37	342.15	20.24	-41.9	-48.0	5.2	7.67e-01	0	57	0	115343360	53	7639
2026-01-21 05:28:50.38	341.95	20.32	-41.7	-47.3	5.7	6.70e-01	0	57	0	115343360	53	7072
2026-01-21 05:28:51.39	341.74	20.39	-41.8	-47.4	5.7	4.43e-01	0	57	0	121634816	53	7202
2026-01-21 05:28:52.40	341.53	20.47	-41.1	-46.2	6.2	7.71e-01	0	57	0	122683392	53	6210
2026-01-21 05:28:53.41	341.32	20.55	-41.5	-49.5	3.9	8.45e-01	0	57	104	124780544	52	9644
2026-01-21 05:28:54.42	341.11	20.63	-39.2	-42.1	10.5	2.55e-02	0	57	0	128974848	49	4911
2026-01-21 05:28:55.42	340.90	20.71	-40.0	-43.8	8.1	4.75e-01	0	58	0	134217728	51	5289
2026-01-21 05:28:56.43	340.69	20.78	-37.2	-39.1	13.7	1.14e-05	0	58	0	140509184	45	4374
2026-01-21 05:28:57.45	340.48	20.86	-36.7	-38.4	14.7	0.00e+00	0	57	0	147849216	44	4277
2026-01-21 05:28:58.46	340.26	20.94	-36.3	-37.9	15.2	0.00e+00	0	57	0	155189248	43	4278
2026-01-21 05:28:59.47	340.05	21.02	-36.3	-37.9	15.4	0.00e+00	0	57	0	162529280	43	4252
2026-01-21 05:29:00.48	339.83	21.09	-36.3	-37.9	15.5	0.00e+00	0	57	0	169869312	43	4253
2026-01-21 05:29:01.49	339.61	21.17	-36.6	-38.1	15.3	0.00e+00	0	57	0	177209344	43	4378
2026-01-21 05:29:02.50	339.39	21.25	-36.2	-37.7	15.9	0.00e+00	0	57	0	184549376	43	4149
2026-01-21 05:29:03.51	339.17	21.32	-36.1	-37.5	16.2	0.00e+00	0	57	0	191889408	43	4077
2026-01-21 05:29:04.52	338.95	21.40	-36.3	-37.8	16.0	0.00e+00	0	57	0	199229440	43	4206
2026-01-21 05:29:05.53	338.73	21.47	-36.3	-37.7	16.2	0.00e+00	0	57	0	206569472	43	4157
2026-01-21 05:29:06.54	338.51	21.55	-36.4	-37.8	16.2	0.00e+00	0	57	0	213909504	43	4214
2026-01-21 05:29:07.54	338.28	21.62	-36.4	-37.8	16.3	0.00e+00	0	57	0	221249536	43	4213
2026-01-21 05:29:08.55	338.06	21.70	-36.5	-37.9	16.3	0.00e+00	0	57	0	228589568	43	4266
2026-01-21 05:29:09.57	337.83	21.78	-36.4	-37.8	16.5	0.00e+00	0	57	0	235929600	43	4239
2026-01-21 05:29:10.58	337.60	21.85	-36.5	-37.9	16.4	0.00e+00	0	58	0	243269632	43	4279
2026-01-21 05:29:11.59	337.37	21.92	-36.4	-37.8	16.6	0.00e+00	0	58	0	250609664	43	4218
2026-01-21 05:29:12.59	337.15	22.00	-36.3	-37.6	16.8	0.00e+00	0	58	0	257949696	43	4136
2026-01-21 05:29:13.60	336.92	22.07	-36.4	-37.8	16.7	0.00e+00	0	58	0	264241152	43	4218
2026-01-21 05:29:14.62	336.68	22.15	-36.4	-37.7	16.8	0.00e+00	0	57	0	272629760	43	4183
2026-01-21 05:29:15.62	336.45	22.22	-36.2	-37.4	17.1	0.00e+00	0	57	0	279969792	43	4048
2026-01-21 05:29:16.63	336.22	22.29	-36.0	-37.3	17.3	0.00e+00	0	58	0	286261248	43	3967
2026-01-21 05:29:17.64	335.98	22.36	-35.9	-37.2	17.4	0.00e+00	0	58	0	293601280	42	4155
2026-01-21 05:29:18.65	335.74	22.44	-35.8	-37.0	17.6	0.00e+00	0	58	0	300941312	42	4092
2026-01-21 05:29:19.66	335.51	22.51	-35.8	-37.0	17.7	0.00e+00	0	57	0	308281344	42	4067
2026-01-21 05:29:20.67	335.27	22.58	-35.7	-36.9	17.8	0.00e+00	0	57	0	315621376	42	4043
2026-01-21 05:29:21.68	335.03	22.65	-35.8	-37.0	17.7	0.00e+00	0	57	0	322961408	42	4095
2026-01-21 05:29:22.69	334.79	22.72	-35.8	-37.1	17.7	0.00e+00	0	57	0	330301440	42	4101
2026-01-21 05:29:23.70	334.54	22.79	-35.9	-37.1	17.6	0.00e+00	0	57	0	337641472	42	4128
2026-01-21 05:29:24.71	334.30	22.86	-36.0	-37.2	17.6	0.00e+00	0	58	0	344981504	42	4173
2026-01-21 05:29:25.72	334.06	22.93	-36.0	-37.3	17.5	0.00e+00	0	58	0	352321536	42	4217
2026-01-21 05:29:26.73	333.81	23.00	-36.0	-37.3	17.5	0.00e+00	0	58	0	359661568	42	4208
2026-01-21 05:29:27.74	333.56	23.07	-36.0	-37.2	17.6	0.00e+00	0	58	0	367001600	42	4186
2026-01-21 05:29:28.75	333.32	23.14	-36.0	-37.3	17.5	0.00e+00	0	58	0	374341632	42	4196
2026-01-21 05:29:29.75	333.07	23.21	-36.0	-37.2	17.6	0.00e+00	0	58	0	381681664	42	4173
2026-01-21 05:29:30.77	332.82	23.28	-36.0	-37.2	17.6	0.00e+00	0	58	0	389021696	42	4193
2026-01-21 05:29:31.78	332.57	23.34	-36.0	-37.3	17.6	0.00e+00	0	57	0	396361728	42	4201
2026-01-21 05:29:32.79	332.32	23.41	-35.9	-37.2	17.7	0.00e+00	0	58	0	403701760	42	4149
2026-01-21 05:29:33.80	332.06	23.48	-35.9	-37.1	17.7	0.00e+00	0	58	0	411041792	42	4118
2026-01-21 05:29:34.81	331.81	23.54	-35.8	-36.9	17.9	0.00e+00	0	58	0	417333248	42	4050
2026-01-21 05:29:35.82	331.55	23.61	-35.7	-36.9	18.0	0.00e+00	0	58	0	425721856	42	4026
2026-01-21 05:29:36.82	331.30	23.67	-35.6	-36.8	18.0	0.00e+00	0	57	0	433061888	42	4000
2026-01-21 05:29:37.83	331.04	23.74	-35.5	-36.7	18.1	0.00e+00	0	58	0	439353344	42	3946
2026-01-21 05:29:38.84	330.78	23.80	-35.6	-36.8	18.0	0.00e+00	0	58	0	446693376	42	3990
2026-01-21 05:29:39.85	330.52	23.87	-35.6	-36.8	18.1	0.00e+00	0	58	0	454033408	42	3995
2026-01-21 05:29:40.86	330.26	23.93	-35.7	-36.9	18.0	0.00e+00	0	58	0	461373440	42	4005
2026-01-21 05:29:41.87	330.00	23.99	-35.8	-37.1	17.8	0.00e+00	0	58	0	468713472	42	4101
2026-01-21 05:29:42.88	329.74	24.06	-35.9	-37.1	17.8	0.00e+00	0	58	0	476053504	42	4118
2026-01-21 05:29:43.89	329.47	24.12	-36.0	-37.2	17.6	0.00e+00	0	58	0	483393536	42	4190
2026-01-21 05:29:44.90	329.21	24.18	-36.1	-37.3	17.6	0.00e+00	0	58	0	490733568	42	4225
2026-01-21 05:29:45.91	328.94	24.24	-36.1	-37.4	17.5	0.00e+00	0	58	0	498073600	42	4245
2026-01-21 05:29:46.92	328.67	24.30	-36.1	-37.4	17.5	0.00e+00	0	58	0	505413632	42	4258
2026-01-21 05:29:47.93	328.41	24.36	-35.9	-37.2	17.7	0.00e+00	0	58	0	512753664	42	4147
2026-01-21 05:29:48.94	328.14	24.42	-35.9	-37.2	17.7	0.00e+00	0	58	0	520093696	42	4165
2026-01-21 05:29:49.95	327.87	24.48	-35.8	-37.0	17.9	0.00e+00	0	58	0	527433728	42	4078
2026-01-21 05:29:50.96	327.60	24.54	-35.8	-37.1	17.8	0.00e+00	0	57	0	534773760	42	4101
2026-01-21 05:29:51.97	327.32	24.60	-35.9	-37.1	17.8	0.00e+00	0	58	0	542113792	42	4129
2026-01-21 05:29:52.98	327.05	24.65	-35.8	-37.1	17.9	0.00e+00	0	58	0	549453824	42	4100
2026-01-21 05:29:53.99	326.78	24.71	-35.9	-37.1	17.8	0.00e+00	0	58	0	556793856	42	4113
2026-01-21 05:29:55.00	326.50	24.77	-35.9	-37.1	17.8	0.00e+00	0	58	0	564133888	42	4127
2026-01-21 05:29:56.00	326.23	24.82	-35.7	-36.9	18.0	0.00e+00	0	58	0	570425344	42	4042
2026-01-21 05:29:57.01	325.95	24.87	-35.6	-36.8	18.1	0.00e+00	0	58	0	577765376	42	3968
2026-01-21 05:29:58.02	325.67	24.93	-35.6	-36.8	18.1	0.00e+00	0	58	0	586153984	42	3964
2026-01-21 05:29:59.03	325.39	24.98	-35.6	-36.7	18.2	0.00e+00	0	58	0	592445440	42	3956
2026-01-21 05:30:00.04	325.11	25.04	-35.5	-36.7	18.2	0.00e+00	0	58	0	599785472	42	3937
2026-01-21 05:30:01.05	324.83	25.09	-35.6	-36.7	18.2	0.00e+00	0	58	0	607125504	42	3952
2026-01-21 05:30:02.06	324.55	25.14	-35.6	-36.8	18.1	0.00e+00	0	57	0	614465536	42	3978
2026-01-21 05:30:03.07	324.27	25.19	-35.7	-36.9	18.0	0.00e+00	0	58	0	621805568	42	4034
2026-01-21 05:30:04.08	323.98	25.24	-35.8	-37.0	17.9	0.00e+00	0	58	0	629145600	42	4079
2026-01-21 05:30:05.09	323.70	25.29	-35.8	-37.1	17.8	0.00e+00	0	58	0	636485632	42	4106
2026-01-21 05:30:06.10	323.41	25.34	-35.8	-37.0	17.9	0.00e+00	0	58	0	643825664	42	4094
2026-01-21 05:30:07.11	323.13	25.39	-35.9	-37.2	17.8	0.00e+00	0	57	0	651165696	42	4155
2026-01-21 05:30:08.12	322.84	25.43	-35.9	-37.1	17.8	0.00e+00	0	58	0	658505728	42	4111
2026-01-21 05:30:09.13	322.55	25.48	-35.8	-37.0	17.9	0.00e+00	0	58	0	665845760	42	4091
2026-01-21 05:30:10.14	322.26	25.53	-35.7	-36.9	18.0	0.00e+00	0	58	0	673185792	42	4044
2026-01-21 05:30:11.15	321.97	25.57	-35.8	-37.0	17.9	0.00e+00	0	58	0	680525824	42	4063
2026-01-21 05:30:12.16	321.68	25.62	-35.7	-36.9	18.0	0.00e+00	0	58	0	687865856	42	4043
2026-01-21 05:30:13.17	321.39	25.66	-35.8	-37.0	17.9	0.00e+00	0	58	0	695205888	42	4063
2026-01-21 05:30:14.18	321.10	25.70	-35.8	-37.0	17.9	0.00e+00	0	58	0	702545920	42	4084
2026-01-21 05:30:15.19	320.80	25.75	-35.8	-37.0	18.0	0.00e+00	0	58	0	709885952	42	4056
2026-01-21 05:30:16.20	320.51	25.79	-35.7	-36.9	18.1	0.00e+00	0	58	0	716177408	42	4009
2026-01-21 05:30:17.21	320.21	25.83	-35.7	-36.9	18.0	0.00e+00	0	58	0	723517440	42	4048
2026-01-21 05:30:18.22	319.92	25.87	-35.7	-36.9	18.0	0.00e+00	0	58	0	731906048	42	4012
2026-01-21 05:30:19.23	319.62	25.91	-35.7	-36.9	18.0	0.00e+00	0	58	0	738197504	42	4012
2026-01-21 05:30:20.24	319.32	25.95	-35.7	-36.9	18.0	0.00e+00	0	58	0	745537536	42	4035
2026-01-21 05:30:21.25	319.03	25.98	-35.7	-36.9	18.0	0.00e+00	0	58	0	752877568	42	4021
2026-01-21 05:30:22.26	318.73	26.02	-35.7	-36.9	18.0	0.00e+00	0	58	0	760217600	42	4011
2026-01-21 05:30:23.27	318.43	26.06	-35.6	-36.8	18.1	0.00e+00	0	58	0	767557632	42	3981
2026-01-21 05:30:24.28	318.13	26.09	-35.7	-36.9	18.0	0.00e+00	0	58	0	774897664	42	4048
2026-01-21 05:30:25.29	317.83	26.13	-35.9	-37.1	17.8	0.00e+00	0	58	0	782237696	42	4113
2026-01-21 05:30:26.30	317.53	26.16	-35.9	-37.1	17.9	0.00e+00	0	58	0	789577728	42	4110
2026-01-21 05:30:27.31	317.23	26.19	-35.8	-37.1	17.9	0.00e+00	0	58	0	796917760	42	4102
2026-01-21 05:30:28.32	316.92	26.22	-35.8	-37.1	17.9	0.00e+00	0	58	0	804257792	42	4102
2026-01-21 05:30:29.33	316.62	26.26	-35.9	-37.1	17.9	0.00e+00	0	58	0	811597824	42	4106
2026-01-21 05:30:30.34	316.32	26.29	-35.8	-37.0	17.9	0.00e+00	0	58	0	818937856	42	4080
2026-01-21 05:30:31.35	316.01	26.31	-35.6	-36.8	18.2	0.00e+00	0	58	0	826277888	42	3967
2026-01-21 05:30:32.36	315.71	26.34	-35.5	-36.6	18.3	0.00e+00	0	58	0	833617920	41	4140
2026-01-21 05:30:33.37	315.40	26.37	-35.5	-36.7	18.2	0.00e+00	0	58	0	840957952	41	4170
2026-01-21 05:30:34.38	315.10	26.40	-35.4	-36.6	18.3	0.00e+00	0	58	0	848297984	41	4117
2026-01-21 05:30:35.39	314.79	26.42	-35.3	-36.5	18.4	0.00e+00	0	58	0	855638016	41	4075
2026-01-21 05:30:36.40	314.48	26.45	-35.3	-36.4	18.5	0.00e+00	0	58	0	862978048	41	4041
2026-01-21 05:30:37.41	314.17	26.47	-35.3	-36.4	18.4	0.00e+00	0	58	0	869269504	41	4043
2026-01-21 05:30:38.42	313.87	26.50	-35.5	-36.6	18.3	0.00e+00	0	58	0	877658112	41	4134
2026-01-21 05:30:39.43	313.56	26.52	-35.5	-36.7	18.1	0.00e+00	0	58	0	884998144	41	4183
2026-01-21 05:30:40.44	313.25	26.54	-35.5	-36.7	18.2	0.00e+00	0	58	0	891289600	41	4174
2026-01-21 05:30:41.45	312.94	26.56	-35.5	-36.7	18.2	0.00e+00	0	58	0	898629632	41	4174
2026-01-21 05:30:42.46	312.63	26.58	-35.6	-36.7	18.2	0.00e+00	0	58	0	905969664	41	4185
2026-01-21 05:30:43.47	312.32	26.60	-35.6	-36.8	18.1	0.00e+00	0	58	0	913309696	41	4202
2026-01-21 05:30:44.48	312.01	26.62	-35.4	-36.6	18.3	0.00e+00	0	58	0	920649728	41	4128
2026-01-21 05:30:45.49	311.70	26.63	-35.5	-36.6	18.2	0.00e+00	0	58	0	927989760	41	4139
2026-01-21 05:30:46.50	311.39	26.65	-35.4	-36.6	18.3	0.00e+00	0	58	0	935329792	41	4126
2026-01-21 05:30:47.50	311.08	26.66	-35.4	-36.6	18.3	0.00e+00	0	58	0	942669824	41	4106
2026-01-21 05:30:48.52	310.76	26.68	-35.5	-36.7	18.2	0.00e+00	0	58	0	950009856	41	4147
2026-01-21 05:30:49.53	310.45	26.69	-35.5	-36.7	18.2	0.00e+00	0	58	0	957349888	41	4165
2026-01-21 05:30:50.54	310.14	26.70	-35.5	-36.7	18.2	0.00e+00	0	58	0	964689920	41	4176
2026-01-21 05:30:51.54	309.83	26.72	-35.5	-36.7	18.2	0.00e+00	0	58	0	972029952	41	4161
2026-01-21 05:30:52.55	309.52	26.73	-35.5	-36.7	18.2	0.00e+00	0	58	0	979369984	41	4184
2026-01-21 05:30:53.57	309.20	26.74	-35.5	-36.7	18.2	0.00e+00	0	58	0	986710016	41	4159
2026-01-21 05:30:54.58	308.89	26.74	-35.5	-36.7	18.2	0.00e+00	0	58	0	994050048	41	4153
2026-01-21 05:30:55.59	308.58	26.75	-35.3	-36.5	18.4	0.00e+00	0	58	0	1001390080	41	4077
2026-01-21 05:30:56.60	308.26	26.76	-35.3	-36.4	18.5	0.00e+00	0	58	0	1008730112	41	4031
2026-01-21 05:30:57.61	307.95	26.77	-35.3	-36.4	18.5	0.00e+00	0	58	0	1015021568	41	4036
2026-01-21 05:30:58.62	307.64	26.77	-35.3	-36.4	18.5	0.00e+00	0	58	0	1023410176	41	4043
2026-01-21 05:30:59.62	307.32	26.77	-35.2	-36.4	18.5	0.00e+00	0	58	0	1030750208	41	4017
2026-01-21 05:31:00.63	307.01	26.78	-35.3	-36.4	18.5	0.00e+00	0	58	0	1037041664	41	4032
2026-01-21 05:31:01.64	306.70	26.78	-35.3	-36.5	18.4	0.00e+00	0	58	0	1044381696	41	4071
2026-01-21 05:31:02.65	306.38	26.78	-35.4	-36.6	18.3	0.00e+00	0	58	0	1051721728	41	4112
2026-01-21 05:31:03.66	306.07	26.78	-35.5	-36.7	18.2	0.00e+00	0	58	0	1059061760	41	4152
2026-01-21 05:31:04.67	305.75	26.78	-35.5	-36.6	18.3	0.00e+00	0	58	0	1066401792	41	4143
2026-01-21 05:31:05.68	305.44	26.78	-35.4	-36.5	18.4	0.00e+00	0	58	0	1073741824	41	4086
2026-01-21 05:31:06.69	305.13	26.77	-35.4	-36.5	18.4	0.00e+00	0	58	0	1081081856	41	4092
2026-01-21 05:31:07.70	304.81	26.77	-35.4	-36.5	18.4	0.00e+00	0	58	0	1088421888	41	4087
2026-01-21 05:31:08.71	304.50	26.77	-35.3	-36.4	18.4	0.00e+00	0	58	0	1095761920	41	4046
2026-01-21 05:31:09.72	304.19	26.76	-35.3	-36.4	18.5	0.00e+00	0	58	0	1103101952	41	4026
2026-01-21 05:31:10.73	303.87	26.75	-35.3	-36.4	18.5	0.00e+00	0	58	0	1110441984	41	4047
2026-01-21 05:31:11.74	303.56	26.75	-35.3	-36.4	18.5	0.00e+00	0	58	0	1117782016	41	4051
2026-01-21 05:31:12.75	303.25	26.74	-35.4	-36.6	18.3	0.00e+00	0	58	0	1125122048	41	4103
2026-01-21 05:31:13.76	302.93	26.73	-35.4	-36.6	18.3	0.00e+00	0	58	0	1132462080	41	4123
2026-01-21 05:31:14.77	302.62	26.72	-35.5	-36.7	18.2	0.00e+00	0	58	0	1139802112	41	4154
2026-01-21 05:31:15.78	302.31	26.71	-35.5	-36.7	18.3	0.00e+00	0	58	0	1147142144	41	4160
2026-01-21 05:31:16.79	301.99	26.70	-35.4	-36.6	18.3	0.00e+00	0	58	0	1154482176	41	4109
2026-01-21 05:31:17.80	301.68	26.68	-35.4	-36.6	18.3	0.00e+00	0	58	0	1161822208	41	4122
2026-01-21 05:31:18.81	301.37	26.67	-35.4	-36.6	18.4	0.00e+00	0	58	0	1168113664	41	4101
2026-01-21 05:31:19.82	301.06	26.65	-35.5	-36.6	18.3	0.00e+00	0	58	0	1176502272	41	4137
2026-01-21 05:31:20.83	300.75	26.64	-35.4	-36.5	18.4	0.00e+00	0	58	0	1183842304	41	4075
2026-01-21 05:31:21.84	300.44	26.62	-35.4	-36.5	18.4	0.00e+00	0	58	0	1190133760	41	4088
2026-01-21 05:31:22.85	300.12	26.60	-35.4	-36.5	18.4	0.00e+00	0	58	0	1197473792	41	4084
2026-01-21 05:31:23.86	299.81	26.58	-35.4	-36.6	18.3	0.00e+00	0	58	0	1204813824	41	4103
2026-01-21 05:31:24.87	299.50	26.56	-35.4	-36.5	18.4	0.00e+00	0	58	0	1212153856	41	4089
2026-01-21 05:31:25.88	299.19	26.54	-35.3	-36.4	18.5	0.00e+00	0	58	0	1219493888	41	4048
2026-01-21 05:31:26.89	298.89	26.52	-35.2	-36.4	18.6	0.00e+00	0	58	0	1226833920	41	4010
2026-01-21 05:31:27.90	298.58	26.50	-35.3	-36.5	18.5	0.00e+00	0	58	0	1234173952	41	4052
2026-01-21 05:31:28.90	298.27	26.48	-35.4	-36.5	18.4	0.00e+00	0	58	0	1241513984	41	4093
2026-01-21 05:31:29.91	297.96	26.45	-35.3	-36.4	18.5	0.00e+00	0	58	0	1248854016	41	4033
2026-01-21 05:31:30.92	297.66	26.43	-35.2	-36.4	18.5	0.00e+00	0	58	0	1256194048	41	4015
2026-01-21 05:31:31.93	297.35	26.40	-35.2	-36.3	18.6	0.00e+00	0	58	0	1263534080	41	3990
2026-01-21 05:31:32.94	297.04	26.38	-35.2	-36.3	18.6	0.00e+00	0	58	0	1270874112	41	3980
2026-01-21 05:31:33.95	296.74	26.35	-35.2	-36.3	18.6	0.00e+00	0	58	0	1278214144	41	3997
2026-01-21 05:31:34.96	296.43	26.32	-35.2	-36.3	18.6	0.00e+00	0	58	0	1285554176	41	4000
2026-01-21 05:31:35.97	296.13	26.29	-35.2	-36.3	18.6	0.00e+00	0	58	0	1292894208	41	3986
2026-01-21 05:31:36.98	295.82	26.26	-35.2	-36.4	18.5	0.00e+00	0	58	0	1300234240	41	4025
2026-01-21 05:31:37.99	295.52	26.23	-35.3	-36.4	18.5	0.00e+00	0	58	0	1307574272	41	4048
2026-01-21 05:31:39.00	295.21	26.20	-35.4	-36.5	18.4	0.00e+00	0	58	0	1313865728	41	4076
2026-01-21 05:31:40.01	294.91	26.17	-35.4	-36.6	18.3	0.00e+00	0	58	0	1321205760	41	4122
2026-01-21 05:31:41.02	294.61	26.13	-35.5	-36.7	18.2	0.00e+00	0	58	0	1329594368	41	4162
2026-01-21 05:31:42.03	294.31	26.10	-35.5	-36.6	18.3	0.00e+00	0	58	0	1335885824	41	4136
2026-01-21 05:31:43.04	294.01	26.06	-35.5	-36.6	18.3	0.00e+00	0	58	0	1343225856	41	4135
2026-01-21 05:31:44.05	293.71	26.03	-35.4	-36.5	18.4	0.00e+00	0	58	0	1350565888	41	4081
2026-01-21 05:31:45.06	293.41	25.99	-35.4	-36.6	18.4	0.00e+00	0	58	0	1357905920	41	4102
2026-01-21 05:31:46.06	293.11	25.95	-35.4	-36.5	18.4	0.00e+00	0	58	0	1365245952	41	4083
2026-01-21 05:31:47.07	292.82	25.91	-35.5	-36.7	18.2	0.00e+00	0	58	0	1372585984	41	4178
2026-01-21 05:31:48.09	292.52	25.87	-35.6	-36.8	18.1	0.00e+00	0	58	0	1379926016	41	4214
2026-01-21 05:31:49.10	292.22	25.83	-35.7	-36.9	18.0	0.00e+00	0	58	0	1387266048	41	4279
2026-01-21 05:31:50.11	291.92	25.79	-35.8	-37.0	18.0	0.00e+00	0	58	0	1394606080	41	4299
2026-01-21 05:31:51.12	291.63	25.75	-35.9	-37.1	17.9	0.00e+00	0	58	0	1401946112	41	4358
2026-01-21 05:31:52.13	291.33	25.71	-35.8	-37.0	17.9	0.00e+00	0	58	0	1409286144	41	4330
2026-01-21 05:31:53.14	291.04	25.67	-35.6	-36.8	18.1	0.00e+00	0	58	0	1416626176	41	4238
2026-01-21 05:31:54.15	290.75	25.62	-35.7	-36.8	18.1	0.00e+00	0	58	0	1423966208	41	4242
2026-01-21 05:31:55.16	290.46	25.58	-35.7	-36.9	18.1	0.00e+00	0	58	0	1431306240	41	4252
2026-01-21 05:31:56.17	290.17	25.53	-35.6	-36.8	18.1	0.00e+00	0	58	0	1438646272	41	4205
2026-01-21 05:31:57.17	289.88	25.49	-35.6	-36.8	18.1	0.00e+00	0	58	0	1445986304	41	4196
2026-01-21 05:31:58.19	289.59	25.44	-35.7	-36.9	18.1	0.00e+00	0	58	0	1453326336	41	4265
2026-01-21 05:31:59.20	289.30	25.39	-35.7	-36.9	18.0	0.00e+00	0	58	0	1460666368	41	4267
2026-01-21 05:32:00.21	289.01	25.35	-35.8	-37.0	18.0	0.00e+00	0	58	0	1466957824	41	4293
2026-01-21 05:32:01.22	288.72	25.30	-35.7	-36.9	18.0	0.00e+00	0	58	0	1475346432	41	4276
2026-01-21 05:32:02.23	288.44	25.25	-35.7	-36.9	18.0	0.00e+00	0	58	0	1482686464	41	4267
2026-01-21 05:32:03.24	288.15	25.20	-35.7	-36.9	18.0	0.00e+00	0	58	0	1488977920	41	4261
2026-01-21 05:32:04.25	287.87	25.15	-35.6	-36.7	18.2	0.00e+00	0	58	0	1496317952	41	4187
2026-01-21 05:32:05.25	287.59	25.10	-35.5	-36.7	18.2	0.00e+00	0	58	0	1503657984	41	4154
2026-01-21 05:32:06.26	287.31	25.04	-35.5	-36.7	18.2	0.00e+00	0	58	0	1510998016	41	4174
2026-01-21 05:32:07.27	287.03	24.99	-35.6	-36.8	18.1	0.00e+00	0	58	0	1518338048	41	4202
2026-01-21 05:32:08.28	286.75	24.94	-35.5	-36.7	18.2	0.00e+00	0	58	0	1525678080	41	4173
2026-01-21 05:32:09.29	286.47	24.88	-35.7	-36.9	18.0	0.00e+00	0	58	0	1533018112	41	4253
2026-01-21 05:32:10.31	286.19	24.83	-35.7	-36.9	18.0	0.00e+00	0	58	0	1540358144	41	4248
2026-01-21 05:32:11.32	285.91	24.77	-35.7	-36.9	18.0	0.00e+00	0	58	0	1547698176	41	4281
2026-01-21 05:32:12.33	285.63	24.72	-35.6	-36.8	18.1	0.00e+00	0	58	0	1555038208	41	4212
2026-01-21 05:32:13.34	285.36	24.66	-35.5	-36.7	18.2	0.00e+00	0	58	0	1562378240	41	4161
2026-01-21 05:32:14.35	285.08	24.60	-35.6	-36.7	18.2	0.00e+00	0	58	0	1569718272	41	4183
2026-01-21 05:32:15.36	284.81	24.54	-35.6	-36.8	18.1	0.00e+00	0	58	0	1577058304	41	4196
2026-01-21 05:32:16.37	284.54	24.49	-35.5	-36.7	18.2	0.00e+00	0	58	0	1584398336	41	4168
2026-01-21 05:32:17.38	284.27	24.43	-35.6	-36.7	18.1	0.00e+00	0	58	0	1591738368	41	4192
2026-01-21 05:32:18.39	284.00	24.37	-35.5	-36.7	18.2	0.00e+00	0	58	0	1599078400	41	4153
2026-01-21 05:32:19.40	283.73	24.31	-35.6	-36.8	18.0	0.00e+00	0	58	0	1606418432	41	4225
2026-01-21 05:32:20.41	283.46	24.25	-35.7	-36.9	18.0	0.00e+00	0	58	0	1612709888	41	4279
2026-01-21 05:32:21.41	283.19	24.19	-35.7	-36.9	18.0	0.00e+00	0	58	0	1621098496	41	4246
2026-01-21 05:32:22.42	282.93	24.13	-35.7	-36.9	18.0	0.00e+00	0	58	0	1628438528	41	4254
2026-01-21 05:32:23.43	282.66	24.06	-35.5	-36.7	18.1	0.00e+00	0	58	0	1634729984	41	4178
2026-01-21 05:32:24.44	282.40	24.00	-35.6	-36.8	18.0	0.00e+00	0	58	0	1642070016	41	4231
2026-01-21 05:32:25.45	282.14	23.94	-35.8	-37.0	17.9	0.00e+00	0	58	0	1649410048	41	4318
2026-01-21 05:32:26.46	281.87	23.87	-35.7	-36.9	17.9	0.00e+00	0	58	0	1656750080	41	4282
2026-01-21 05:32:27.47	281.61	23.81	-35.8	-37.0	17.9	0.00e+00	0	58	0	1664090112	41	4302
2026-01-21 05:32:28.48	281.35	23.75	-35.8	-37.0	17.8	0.00e+00	0	58	0	1671430144	41	4316
2026-01-21 05:32:29.49	281.09	23.68	-35.8	-37.0	17.9	0.00e+00	0	58	0	1678770176	41	4299
2026-01-21 05:32:30.50	280.84	23.61	-35.8	-37.0	17.8	0.00e+00	0	58	0	1686110208	41	4327
2026-01-21 05:32:31.51	280.58	23.55	-35.8	-37.0	17.9	0.00e+00	0	58	0	1693450240	41	4317
2026-01-21 05:32:32.52	280.32	23.48	-35.7	-36.9	17.9	0.00e+00	0	58	0	1700790272	41	4280
2026-01-21 05:32:33.53	280.07	23.42	-35.6	-36.8	18.0	0.00e+00	0	58	0	1708130304	41	4237
2026-01-21 05:32:34.54	279.82	23.35	-35.6	-36.9	18.0	0.00e+00	0	58	0	1715470336	41	4243
2026-01-21 05:32:35.55	279.57	23.28	-35.6	-36.8	18.0	0.00e+00	0	58	0	1722810368	41	4226
2026-01-21 05:32:36.56	279.31	23.21	-35.6	-36.8	18.0	0.00e+00	0	58	0	1730150400	41	4240
2026-01-21 05:32:37.57	279.06	23.14	-35.7	-36.9	18.0	0.00e+00	0	58	0	1737490432	41	4247
2026-01-21 05:32:38.58	278.82	23.07	-35.6	-36.8	18.1	0.00e+00	0	58	0	1744830464	41	4201
2026-01-21 05:32:39.59	278.57	23.01	-35.7	-36.9	17.9	0.00e+00	0	58	0	1752170496	41	4248
2026-01-21 05:32:40.60	278.32	22.94	-35.7	-36.9	17.9	0.00e+00	0	58	0	1759510528	41	4273
2026-01-21 05:32:41.61	278.08	22.87	-35.8	-37.0	17.8	0.00e+00	0	58	0	1765801984	41	4318
2026-01-21 05:32:42.62	277.83	22.80	-35.8	-37.0	17.8	0.00e+00	0	58	0	1774190592	41	4337
2026-01-21 05:32:43.63	277.59	22.72	-35.9	-37.2	17.7	0.00e+00	0	58	0	1781530624	41	4395
2026-01-21 05:32:44.64	277.35	22.65	-36.0	-37.2	17.6	0.00e+00	0	58	0	1787822080	41	4440
2026-01-21 05:32:45.65	277.10	22.58	-35.9	-37.1	17.7	0.00e+00	0	58	0	1795162112	41	4372
2026-01-21 05:32:46.66	276.86	22.51	-35.8	-37.1	17.8	0.00e+00	0	58	0	1802502144	41	4365
2026-01-21 05:32:47.67	276.63	22.44	-36.0	-37.2	17.6	0.00e+00	0	58	0	1809842176	41	4416
2026-01-21 05:32:48.68	276.39	22.36	-35.8	-37.0	17.7	0.00e+00	0	58	0	1817182208	41	4338
2026-01-21 05:32:49.69	276.15	22.29	-35.8	-37.0	17.8	0.00e+00	0	58	0	1824522240	41	4299
2026-01-21 05:32:50.70	275.92	22.22	-35.7	-36.9	17.9	0.00e+00	0	58	0	1831862272	41	4283
2026-01-21 05:32:51.71	275.68	22.15	-35.7	-36.9	17.9	0.00e+00	0	58	0	1839202304	41	4271
2026-01-21 05:32:52.72	275.45	22.07	-35.8	-37.0	17.8	0.00e+00	0	58	0	1846542336	41	4333
2026-01-21 05:32:53.73	275.22	22.00	-35.9	-37.1	17.7	0.00e+00	0	58	0	1853882368	41	4374
2026-01-21 05:32:54.74	274.98	21.92	-36.0	-37.2	17.6	0.00e+00	0	58	0	1861222400	41	4435
2026-01-21 05:32:55.75	274.75	21.85	-35.9	-37.1	17.7	0.00e+00	0	58	0	1868562432	41	4373
2026-01-21 05:32:56.76	274.53	21.77	-36.0	-37.2	17.6	0.00e+00	0	58	0	1875902464	41	4420
2026-01-21 05:32:57.77	274.30	21.70	-36.0	-37.2	17.6	0.00e+00	0	58	0	1883242496	41	4419
2026-01-21 05:32:58.78	274.07	21.62	-36.0	-37.3	17.5	0.00e+00	0	58	0	1890582528	41	4462
2026-01-21 05:32:59.79	273.85	21.55	-36.0	-37.3	17.5	0.00e+00	0	58	0	1897922560	41	4462
2026-01-21 05:33:00.80	273.62	21.47	-36.0	-37.3	17.5	0.00e+00	0	58	0	1905262592	41	4447
2026-01-21 05:33:01.81	273.40	21.40	-36.1	-37.3	17.5	0.00e+00	0	58	0	1911554048	41	4484
2026-01-21 05:33:02.81	273.18	21.32	-36.1	-37.3	17.4	0.00e+00	0	58	0	1919942656	41	4491
2026-01-21 05:33:03.82	272.96	21.24	-36.1	-37.3	17.5	0.00e+00	0	58	0	1927282688	41	4479
2026-01-21 05:33:04.83	272.74	21.17	-36.0	-37.3	17.5	0.00e+00	0	58	0	1933574144	41	4461
2026-01-21 05:33:05.84	272.52	21.09	-36.0	-37.2	17.6	0.00e+00	0	58	0	1940914176	41	4434
2026-01-21 05:33:06.85	272.30	21.01	-36.0	-37.2	17.6	0.00e+00	0	58	0	1948254208	41	4432
2026-01-21 05:33:07.85	272.08	20.94	-35.9	-37.1	17.7	0.00e+00	0	58	0	1955594240	41	4367
2026-01-21 05:33:08.86	271.87	20.86	-35.9	-37.1	17.6	0.00e+00	0	58	0	1962934272	41	4390
2026-01-21 05:33:09.87	271.65	20.78	-35.9	-37.1	17.7	0.00e+00	0	58	0	1970274304	41	4359
2026-01-21 05:33:10.88	271.44	20.70	-35.9	-37.1	17.6	0.00e+00	0	58	0	1977614336	41	4390
2026-01-21 05:33:11.89	271.23	20.62	-35.9	-37.1	17.6	0.00e+00	0	58	0	1984954368	41	4389
2026-01-21 05:33:12.90	271.02	20.55	-36.0	-37.3	17.5	0.00e+00	0	58	0	1992294400	41	4442
2026-01-21 05:33:13.91	270.81	20.47	-36.1	-37.3	17.4	0.00e+00	0	58	0	1999634432	41	4485
2026-01-21 05:33:14.92	270.60	20.39	-36.1	-37.4	17.3	0.00e+00	0	58	0	2006974464	41	4533
2026-01-21 05:33:15.93	270.39	20.31	-36.2	-37.5	17.3	0.00e+00	0	58	0	2014314496	42	4318
2026-01-21 05:33:16.94	270.18	20.23	-36.2	-37.5	17.3	0.00e+00	0	58	0	2021654528	42	4333
2026-01-21 05:33:17.95	269.98	20.15	-36.3	-37.6	17.2	0.00e+00	0	58	0	2028994560	42	4346
2026-01-21 05:33:18.96	269.77	20.07	-36.2	-37.5	17.2	0.00e+00	0	58	0	2036334592	42	4334
2026-01-21 05:33:19.97	269.57	19.99	-36.2	-37.5	17.2	0.00e+00	0	58	0	2043674624	42	4334
2026-01-21 05:33:20.98	269.37	19.91	-36.2	-37.5	17.3	0.00e+00	0	58	0	2051014656	42	4315
2026-01-21 05:33:21.99	269.16	19.83	-36.1	-37.4	17.4	0.00e+00	0	58	0	2058354688	42	4275
2026-01-21 05:33:23.00	268.96	19.75	-36.2	-37.5	17.3	0.00e+00	0	58	0	2064646144	42	4292
2026-01-21 05:33:24.01	268.76	19.67	-36.2	-37.5	17.3	0.00e+00	0	58	0	2071986176	42	4311
2026-01-21 05:33:25.02	268.57	19.59	-36.2	-37.5	17.2	0.00e+00	0	58	0	2080374784	42	4329
2026-01-21 05:33:26.03	268.37	19.51	-36.3	-37.6	17.1	0.00e+00	0	58	0	2086666240	42	4389
2026-01-21 05:33:27.04	268.17	19.43	-36.4	-37.7	17.1	0.00e+00	0	58	0	2094006272	42	4414
2026-01-21 05:33:28.05	267.98	19.35	-36.4	-37.7	17.0	0.00e+00	0	58	0	2101346304	42	4429
2026-01-21 05:33:29.05	267.78	19.27	-36.5	-37.8	16.9	0.00e+00	0	58	0	2108686336	42	4487
2026-01-21 05:33:30.07	267.59	19.19	-36.5	-37.8	16.9	0.00e+00	0	58	0	2116026368	42	4475
2026-01-21 05:33:31.08	267.40	19.11	-36.5	-37.8	16.9	0.00e+00	0	58	0	2123366400	42	4489
2026-01-21 05:33:32.09	267.20	19.03	-36.5	-37.9	16.9	0.00e+00	0	58	0	2130706432	42	4499
2026-01-21 05:33:33.10	267.01	18.95	-36.6	-37.9	16.8	0.00e+00	0	58	0	2138046464	42	4526
2026-01-21 05:33:34.11	266.83	18.87	-36.6	-38.0	16.7	0.00e+00	0	58	0	2145386496	42	4560
2026-01-21 05:33:35.11	266.64	18.79	-36.7	-38.0	16.7	0.00e+00	0	58	0	2152726528	42	4593
2026-01-21 05:33:36.12	266.45	18.71	-36.6	-37.9	16.8	0.00e+00	0	58	0	2160066560	42	4528
2026-01-21 05:33:37.13	266.27	18.63	-36.5	-37.8	16.9	0.00e+00	0	58	0	2167406592	42	4480
2026-01-21 05:33:38.14	266.08	18.55	-36.4	-37.7	17.0	0.00e+00	0	58	0	2174746624	42	4436
2026-01-21 05:33:39.15	265.90	18.47	-36.3	-37.6	17.1	0.00e+00	0	58	0	2182086656	42	4389
2026-01-21 05:33:40.16	265.71	18.39	-36.4	-37.7	17.0	0.00e+00	0	58	0	2188378112	42	4403
2026-01-21 05:33:41.17	265.53	18.31	-36.4	-37.7	17.0	0.00e+00	0	58	0	2196766720	42	4421
2026-01-21 05:33:42.18	265.35	18.22	-36.5	-37.9	16.8	0.00e+00	0	58	0	2204106752	42	4503
2026-01-21 05:33:43.19	265.17	18.14	-36.6	-38.0	16.7	0.00e+00	0	58	0	2210398208	42	4547
2026-01-21 05:33:44.20	264.99	18.06	-36.7	-38.1	16.6	0.00e+00	0	58	0	2217738240	43	4354
2026-01-21 05:33:45.21	264.81	17.98	-36.8	-38.2	16.5	0.00e+00	0	58	0	2225078272	43	4421
2026-01-21 05:33:46.22	264.63	17.90	-36.9	-38.4	16.3	0.00e+00	0	58	0	2232418304	43	4496
2026-01-21 05:33:47.23	264.46	17.82	-37.0	-38.4	16.3	0.00e+00	0	58	0	2239758336	43	4496
2026-01-21 05:33:48.23	264.28	17.74	-37.0	-38.5	16.2	0.00e+00	0	58	0	2247098368	43	4557
2026-01-21 05:33:49.24	264.11	17.66	-37.1	-38.5	16.2	0.00e+00	0	58	0	2254438400	43	4559
2026-01-21 05:33:50.25	263.93	17.58	-37.1	-38.5	16.2	0.00e+00	0	58	0	2261778432	43	4568
2026-01-21 05:33:51.26	263.76	17.50	-37.1	-38.5	16.1	0.00e+00	0	58	0	2269118464	43	4582
2026-01-21 05:33:52.27	263.59	17.41	-37.0	-38.5	16.2	0.00e+00	0	58	0	2276458496	43	4547
2026-01-21 05:33:53.28	263.42	17.33	-37.1	-38.5	16.1	0.00e+00	0	58	0	2283798528	43	4595
2026-01-21 05:33:54.29	263.25	17.25	-37.1	-38.5	16.2	0.00e+00	0	58	0	2291138560	43	4576
2026-01-21 05:33:55.29	263.08	17.17	-37.1	-38.5	16.1	0.00e+00	0	58	0	2298478592	43	4591
2026-01-21 05:33:56.30	262.91	17.09	-37.1	-38.6	16.1	0.00e+00	0	58	0	2305818624	43	4607
2026-01-21 05:33:57.31	262.75	17.01	-37.2	-38.7	16.0	0.00e+00	0	58	0	2313158656	43	4654
2026-01-21 05:33:58.32	262.58	16.93	-37.1	-38.5	16.1	0.00e+00	0	58	0	2320498688	43	4588
2026-01-21 05:33:59.33	262.42	16.85	-37.1	-38.6	16.1	0.00e+00	0	58	0	2327838720	43	4602
2026-01-21 05:34:00.34	262.25	16.77	-37.0	-38.4	16.3	0.00e+00	0	58	0	2335178752	43	4505
2026-01-21 05:34:01.35	262.09	16.68	-36.9	-38.4	16.3	0.00e+00	0	58	0	2341470208	43	4494
2026-01-21 05:34:02.36	261.92	16.60	-36.8	-38.2	16.4	0.00e+00	0	58	0	2348810240	43	4437
2026-01-21 05:34:03.37	261.76	16.52	-36.9	-38.3	16.3	0.00e+00	0	58	0	2357198848	43	4469
2026-01-21 05:34:04.38	261.60	16.44	-36.9	-38.3	16.3	0.00e+00	0	58	0	2363490304	43	4484
2026-01-21 05:34:05.39	261.44	16.36	-37.0	-38.4	16.3	0.00e+00	0	58	0	2370830336	43	4504
2026-01-21 05:34:06.39	261.28	16.28	-37.0	-38.4	16.2	0.00e+00	0	58	0	2378170368	43	4521
2026-01-21 05:34:07.40	261.13	16.20	-37.0	-38.4	16.2	0.00e+00	0	58	0	2385510400	43	4536
2026-01-21 05:34:08.41	260.97	16.12	-37.1	-38.5	16.0	0.00e+00	0	58	0	2392850432	43	4596
2026-01-21 05:34:09.42	260.81	16.04	-37.2	-38.7	15.9	0.00e+00	0	58	0	2400190464	43	4665
2026-01-21 05:34:10.43	260.66	15.96	-37.4	-38.9	15.9	0.00e+00	0	58	0	2407530496	44	4510
2026-01-21 05:34:11.44	260.50	15.88	-37.5	-38.9	15.8	0.00e+00	0	58	0	2414870528	44	4545
2026-01-21 05:34:12.45	260.35	15.80	-37.4	-38.9	15.8	0.00e+00	0	58	0	2422210560	44	4538
2026-01-21 05:34:13.46	260.19	15.72	-37.6	-39.1	15.7	0.00e+00	0	58	0	2429550592	44	4616
2026-01-21 05:34:14.47	260.04	15.64	-37.5	-39.0	15.8	0.00e+00	0	58	0	2436890624	44	4560
2026-01-21 05:34:15.48	259.89	15.56	-37.5	-39.1	15.7	0.00e+00	0	58	0	2444230656	44	4601
2026-01-21 05:34:16.48	259.74	15.48	-37.6	-39.1	15.6	0.00e+00	0	58	0	2451570688	44	4642
2026-01-21 05:34:17.49	259.59	15.40	-37.6	-39.1	15.6	0.00e+00	0	58	0	2458910720	44	4639
2026-01-21 05:34:18.50	259.44	15.32	-37.6	-39.1	15.6	0.00e+00	0	58	0	2465202176	44	4625
2026-01-21 05:34:19.51	259.29	15.24	-37.6	-39.2	15.6	0.00e+00	0	58	0	2472542208	44	4664
2026-01-21 05:34:20.52	259.15	15.16	-37.6	-39.1	15.6	0.00e+00	0	58	0	2480930816	44	4640
2026-01-21 05:34:21.53	259.00	15.08	-37.7	-39.2	15.5	0.00e+00	0	58	0	2487222272	45	4416
2026-01-21 05:34:22.54	258.85	15.00	-37.7	-39.3	15.4	0.00e+00	0	58	0	2494562304	45	4472
2026-01-21 05:34:23.55	258.71	14.92	-37.8	-39.3	15.3	0.00e+00	0	58	0	2501902336	45	4479
2026-01-21 05:34:24.55	258.56	14.84	-37.8	-39.3	15.4	0.00e+00	0	58	0	2509242368	45	4489
2026-01-21 05:34:25.56	258.42	14.76	-37.9	-39.5	15.2	0.00e+00	0	58	0	2516582400	45	4558
2026-01-21 05:34:26.57	258.28	14.68	-37.9	-39.4	15.3	0.00e+00	0	58	0	2523922432	45	4545
2026-01-21 05:34:27.58	258.14	14.60	-37.9	-39.6	15.1	0.00e+00	0	58	0	2531262464	45	4604
2026-01-21 05:34:28.59	257.99	14.52	-38.0	-39.6	15.1	0.00e+00	0	58	0	2538602496	45	4617
2026-01-21 05:34:29.60	257.85	14.44	-38.0	-39.6	15.1	0.00e+00	0	58	0	2545942528	45	4642
2026-01-21 05:34:30.61	257.71	14.36	-38.1	-39.8	14.9	0.00e+00	0	58	0	2553282560	45	4721
2026-01-21 05:34:31.62	257.58	14.28	-38.1	-39.7	15.0	0.00e+00	0	58	0	2560622592	45	4683
2026-01-21 05:34:32.63	257.44	14.20	-38.2	-39.8	14.8	0.00e+00	0	58	0	2567962624	45	4758
2026-01-21 05:34:33.64	257.30	14.12	-38.2	-39.9	14.7	0.00e+00	0	58	0	2575302656	46	4529
2026-01-21 05:34:34.65	257.16	14.04	-38.2	-39.9	14.7	0.00e+00	0	58	0	2582642688	46	4532
2026-01-21 05:34:35.66	257.03	13.97	-38.2	-39.9	14.7	0.00e+00	0	58	0	2589982720	46	4530
2026-01-21 05:34:36.66	256.89	13.89	-38.3	-40.0	14.7	0.00e+00	0	58	0	2596274176	46	4546
2026-01-21 05:34:37.67	256.76	13.81	-38.1	-39.8	14.9	0.00e+00	0	58	0	2604662784	46	4450
2026-01-21 05:34:38.68	256.62	13.73	-38.1	-39.7	14.9	0.00e+00	0	58	0	2612002816	46	4424
2026-01-21 05:34:39.69	256.49	13.65	-38.0	-39.6	15.0	0.00e+00	0	58	0	2618294272	46	4363
2026-01-21 05:34:40.70	256.36	13.57	-38.0	-39.6	15.0	0.00e+00	0	58	0	2625634304	46	4376
2026-01-21 05:34:41.71	256.23	13.50	-38.0	-39.6	15.0	0.00e+00	0	58	0	2632974336	46	4387
2026-01-21 05:34:42.72	256.10	13.42	-38.1	-39.8	14.8	0.00e+00	0	58	0	2640314368	46	4453
2026-01-21 05:34:43.73	255.97	13.34	-38.1	-39.7	14.9	0.00e+00	0	58	0	2647654400	46	4413
2026-01-21 05:34:44.74	255.84	13.26	-38.0	-39.7	14.9	1.10e-06	0	58	0	2654994432	46	4396
2026-01-21 05:34:45.75	255.71	13.18	-38.2	-39.9	14.7	0.00e+00	0	58	0	2662334464	46	4512
2026-01-21 05:34:46.76	255.58	13.11	-38.3	-40.0	14.7	0.00e+00	0	58	0	2669674496	46	4550
2026-01-21 05:34:47.77	255.45	13.03	-38.4	-40.2	14.5	1.10e-06	0	58	0	2677014528	46	4655
2026-01-21 05:34:48.78	255.33	12.95	-38.5	-40.3	14.3	0.00e+00	0	58	0	2684354560	46	4730
2026-01-21 05:34:49.79	255.20	12.87	-38.5	-40.3	14.3	0.00e+00	0	58	0	2691694592	46	4724
2026-01-21 05:34:50.80	255.07	12.80	-38.5	-40.3	14.3	0.00e+00	0	58	0	2699034624	46	4722
2026-01-21 05:34:51.81	254.95	12.72	-38.4	-40.1	14.4	0.00e+00	0	58	0	2706374656	46	4650
2026-01-21 05:34:52.82	254.82	12.64	-38.4	-40.2	14.4	0.00e+00	0	58	0	2713714688	46	4653
2026-01-21 05:34:53.82	254.70	12.57	-38.4	-40.1	14.4	0.00e+00	0	58	0	2721054720	46	4651
2026-01-21 05:34:54.83	254.58	12.49	-38.3	-40.1	14.5	0.00e+00	0	59	0	2728394752	46	4607
2026-01-21 05:34:55.84	254.46	12.41	-38.3	-40.1	14.5	0.00e+00	0	58	0	2735734784	46	4613
2026-01-21 05:34:56.85	254.34	12.34	-38.2	-39.8	14.8	0.00e+00	0	58	0	2743074816	46	4484
2026-01-21 05:34:57.86	254.21	12.26	-38.0	-39.6	15.0	0.00e+00	0	59	0	2749366272	46	4378
2026-01-21 05:34:58.87	254.09	12.18	-38.0	-39.6	14.9	0.00e+00	0	58	0	2757754880	46	4391
2026-01-21 05:34:59.88	253.97	12.11	-38.0	-39.7	14.9	0.00e+00	0	58	0	2764046336	46	4397
2026-01-21 05:35:00.89	253.86	12.03	-38.0	-39.7	14.9	0.00e+00	0	58	0	2771386368	46	4400
2026-01-21 05:35:01.90	253.74	11.96	-38.2	-39.8	14.7	0.00e+00	0	58	0	2778726400	46	4493
2026-01-21 05:35:02.91	253.62	11.88	-38.1	-39.8	14.8	1.10e-06	0	58	0	2786066432	46	4456
2026-01-21 05:35:03.91	253.50	11.80	-38.2	-39.9	14.7	0.00e+00	0	58	0	2793406464	46	4495
2026-01-21 05:35:04.92	253.39	11.73	-38.3	-40.0	14.5	1.10e-06	0	58	0	2800746496	46	4574
2026-01-21 05:35:05.94	253.27	11.65	-38.2	-39.9	14.6	0.00e+00	0	58	0	2808086528	46	4541
2026-01-21 05:35:06.94	253.16	11.58	-38.3	-40.0	14.5	0.00e+00	0	58	0	2815426560	46	4556
2026-01-21 05:35:07.95	253.04	11.50	-38.3	-40.0	14.5	0.00e+00	0	58	0	2822766592	46	4579
2026-01-21 05:35:08.96	252.93	11.43	-38.3	-40.0	14.5	0.00e+00	0	58	0	2830106624	46	4598
2026-01-21 05:35:09.97	252.81	11.35	-38.4	-40.1	14.4	0.00e+00	0	58	0	2837446656	46	4622
2026-01-21 05:35:10.98	252.70	11.28	-38.4	-40.2	14.3	0.00e+00	0	58	0	2844786688	46	4671
2026-01-21 05:35:11.99	252.59	11.20	-38.2	-40.0	14.5	0.00e+00	0	58	0	2852126720	46	4556
2026-01-21 05:35:13.00	252.48	11.13	-38.4	-40.2	14.3	1.10e-06	0	58	0	2859466752	46	4674
2026-01-21 05:35:14.01	252.36	11.05	-38.5	-40.3	14.2	0.00e+00	0	58	0	2866806784	46	4707
2026-01-21 05:35:15.02	252.25	10.98	-38.5	-40.3	14.1	0.00e+00	0	58	0	2874146816	46	4759
2026-01-21 05:35:16.03	252.14	10.90	-38.5	-40.4	14.1	2.20e-06	0	58	0	2881486848	46	4774
2026-01-21 05:35:17.04	252.03	10.83	-38.6	-40.4	14.1	2.20e-06	0	58	0	2888826880	46	4774
2026-01-21 05:35:18.05	251.92	10.76	-38.6	-40.4	14.0	1.10e-06	0	58	0	2895118336	46	4813
2026-01-21 05:35:19.06	251.82	10.68	-38.5	-40.4	14.1	1.10e-06	0	58	0	2902458368	46	4769
2026-01-21 05:35:20.07	251.71	10.61	-38.6	-40.5	13.9	0.00e+00	0	58	0	2910846976	46	4847
2026-01-21 05:35:21.08	251.60	10.53	-38.6	-40.4	14.0	1.10e-06	0	58	0	2917138432	46	4786
2026-01-21 05:35:22.09	251.49	10.46	-38.7	-40.6	13.9	0.00e+00	0	58	0	2924478464	46	4874
2026-01-21 05:35:23.10	251.39	10.39	-38.8	-40.7	13.7	4.50e-06	0	58	0	2931818496	47	4682
2026-01-21 05:35:24.11	251.28	10.31	-38.8	-40.7	13.7	5.70e-06	0	58	0	2939158528	47	4671
2026-01-21 05:35:25.12	251.18	10.24	-38.8	-40.7	13.6	4.50e-06	0	58	0	2946498560	47	4695
2026-01-21 05:35:26.13	251.07	10.17	-38.7	-40.7	13.7	6.80e-06	0	59	0	2953838592	47	4654
2026-01-21 05:35:27.14	250.97	10.09	-38.8	-40.8	13.6	6.80e-06	0	58	0	2961178624	47	4715
2026-01-21 05:35:28.15	250.87	10.02	-38.8	-40.7	13.7	6.80e-06	0	59	0	2968518656	47	4662
2026-01-21 05:35:29.16	250.76	9.95	-38.7	-40.5	13.8	3.40e-06	0	58	0	2975858688	47	4595
2026-01-21 05:35:30.17	250.66	9.88	-38.7	-40.6	13.8	9.10e-06	0	58	0	2983198720	47	4615
2026-01-21 05:35:31.18	250.56	9.80	-38.6	-40.5	13.9	3.40e-06	0	58	0	2990538752	47	4547
2026-01-21 05:35:32.18	250.46	9.73	-38.6	-40.4	14.0	1.10e-06	0	58	0	2997878784	47	4524
2026-01-21 05:35:33.20	250.36	9.66	-38.5	-40.3	14.1	1.10e-06	0	58	0	3005218816	47	4453
2026-01-21 05:35:34.21	250.26	9.59	-38.6	-40.4	13.9	0.00e+00	0	58	0	3012558848	47	4523
2026-01-21 05:35:35.22	250.16	9.52	-38.4	-40.2	14.1	2.20e-06	0	58	0	3019898880	47	4419
2026-01-21 05:35:36.22	250.06	9.44	-38.4	-40.2	14.2	2.20e-06	0	58	0	3027238912	47	4412
2026-01-21 05:35:37.23	249.96	9.37	-38.4	-40.2	14.1	2.20e-06	0	58	0	3034578944	47	4435
2026-01-21 05:35:38.24	249.86	9.30	-38.5	-40.3	14.0	1.10e-06	0	58	0	3041918976	47	4454
2026-01-21 05:35:39.25	249.76	9.23	-38.4	-40.3	14.1	2.20e-06	0	58	0	3048210432	47	4442
2026-01-21 05:35:40.26	249.66	9.16	-38.4	-40.2	14.1	1.10e-06	0	58	0	3055550464	47	4398
2026-01-21 05:35:41.27	249.57	9.09	-38.5	-40.3	14.0	1.10e-06	0	58	0	3062890496	47	4477
2026-01-21 05:35:42.28	249.47	9.02	-38.5	-40.4	13.9	2.20e-06	0	58	0	3070230528	47	4497
2026-01-21 05:35:43.29	249.38	8.95	-38.4	-40.2	14.0	2.20e-06	0	58	0	3077570560	47	4433
2026-01-21 05:35:44.30	249.28	8.87	-38.4	-40.3	14.0	5.70e-06	0	58	0	3084910592	47	4456
2026-01-21 05:35:45.30	249.19	8.80	-38.7	-40.6	13.6	5.70e-06	0	58	0	3092250624	47	4625
2026-01-21 05:35:46.31	249.09	8.73	-38.7	-40.6	13.6	4.50e-06	0	58	0	3099590656	47	4612
2026-01-21 05:35:47.32	249.00	8.66	-38.8	-40.7	13.5	1.02e-05	0	58	0	3106930688	47	4677
2026-01-21 05:35:48.33	248.90	8.59	-38.9	-40.9	13.3	1.02e-05	0	58	0	3114270720	47	4771
2026-01-21 05:35:49.34	248.81	8.52	-39.0	-41.0	13.2	2.17e-05	0	58	0	3121610752	47	4869
2026-01-21 05:35:50.35	248.72	8.45	-39.1	-41.1	13.1	2.05e-05	0	58	0	3128950784	47	4905
2026-01-21 05:35:51.36	248.63	8.38	-39.4	-41.6	12.8	3.77e-05	0	58	0	3136290816	48	4886
2026-01-21 05:35:52.37	248.53	8.31	-39.4	-41.6	12.8	5.83e-05	0	59	0	3143630848	48	4894
2026-01-21 05:35:53.38	248.44	8.24	-39.4	-41.5	12.9	5.60e-05	0	58	0	3150970880	48	4834
2026-01-21 05:35:54.38	248.35	8.17	-39.5	-41.7	12.7	6.63e-05	0	58	0	3158310912	48	4937
2026-01-21 05:35:55.39	248.26	8.10	-39.6	-41.8	12.6	8.58e-05	0	58	0	3165650944	48	5004
2026-01-21 05:35:56.40	248.17	8.04	-39.7	-41.9	12.5	6.40e-05	0	58	0	3171942400	48	5071
2026-01-21 05:35:57.41	248.08	7.97	-44.9	-55.8	3.8	8.46e-01	0	59	104	3175088128	59	13398
2026-01-21 05:35:58.42	247.99	7.90	-45.2	-56.2	3.8	8.45e-01	0	59	104	3175088128	59	14023
2026-01-21 05:35:59.43	247.90	7.83	-45.3	-56.6	3.8	8.47e-01	0	58	104	3175088128	60	13877
2026-01-21 05:36:00.44	247.82	7.76	-45.4	-56.8	3.8	8.45e-01	0	59	104	3175088128	60	14074
2026-01-21 05:36:01.45	247.73	7.69	-45.5	-56.9	3.8	8.45e-01	0	58	104	3175088128	60	14216
2026-01-21 05:36:02.46	247.64	7.62	-45.5	-56.9	3.8	8.45e-01	0	59	104	3175088128	60	14315
2026-01-21 05:36:03.47	247.55	7.55	-45.6	-57.0	3.8	8.47e-01	0	58	104	3175088128	60	14380
2026-01-21 05:36:04.49	247.47	7.48	-45.6	-57.0	3.8	8.46e-01	0	58	104	3175088128	60	14432
2026-01-21 05:36:05.50	247.38	7.42	-45.6	-57.0	3.8	8.46e-01	0	59	104	3175088128	60	14464
2026-01-21 05:36:06.51	247.29	7.35	-45.6	-57.0	3.8	8.45e-01	0	58	104	3175088128	60	14494
2026-01-21 05:36:07.52	247.21	7.28	-45.6	-57.0	3.8	8.46e-01	0	58	104	3175088128	60	14443
2026-01-21 05:36:08.53	247.12	7.21	-45.6	-57.0	3.8	8.47e-01	0	59	104	3175088128	60	14397
2026-01-21 05:36:09.54	247.04	7.14	-45.5	-56.9	3.8	8.47e-01	0	58	104	3175088128	60	14316
2026-01-21 05:36:10.55	246.95	7.08	-45.4	-56.9	3.8	8.47e-01	0	58	104	3175088128	60	14283
2026-01-21 05:36:11.56	246.87	7.01	-45.6	-56.9	3.8	8.45e-01	0	59	104	3175088128	60	14365
2026-01-21 05:36:12.57	246.79	6.94	-45.6	-57.0	3.8	8.47e-01	0	59	104	3175088128	60	14437
2026-01-21 05:36:13.58	246.70	6.87	-45.5	-56.9	3.8	8.47e-01	0	58	104	3175088128	60	14314
