passes_logs/2026/01/21/R2.0S_Moscow/R2.0S_Moscow__20260121_011909_AQUA_rec.log

#Pass ID: 20260121_011909_AQUA
#Satellite: AQUA
#Configuration: AQUA
#almurnet v.1.7.20251203
#Start time: 2026-01-21 01:19:12

#Version: 2.2.20231116
#Station: R2.0S_Moscow
#Location: 37.707566 lon 55.798166 lat
#TLE: 1 27424U 02022A   26020.30984080  .00001497  00000+0  30942-3 0  9998
#TLE: 2 27424  98.4092 346.8266 0001984  71.7888  69.0903 14.61835321261661

#Time	Az	El	Level	Level2	SNR	BER	BlckErr	Temp	State	Recorded	gain1	gain2
2026-01-21 01:19:12.00	15.93	2.15	-42.8	-62.6	3.8	7.48e-01	0	51	0	0	57	34745
2026-01-21 01:19:13.00	15.93	2.22	-42.6	-62.5	3.8	7.45e-01	0	51	104	0	55	38480
2026-01-21 01:19:14.01	15.94	2.28	-42.6	-62.5	3.8	7.45e-01	0	52	104	0	55	38404
2026-01-21 01:19:15.02	15.94	2.35	-42.6	-62.5	3.8	7.46e-01	0	52	104	0	55	38511
2026-01-21 01:19:16.03	15.95	2.42	-42.6	-62.5	3.8	7.49e-01	0	52	104	0	55	38416
2026-01-21 01:19:17.04	15.96	2.49	-42.7	-62.5	3.8	7.48e-01	0	52	104	0	55	38447
2026-01-21 01:19:18.05	15.96	2.56	-42.6	-62.5	3.8	7.43e-01	0	52	104	0	55	38528
2026-01-21 01:19:19.06	15.97	2.62	-42.6	-62.5	3.8	7.45e-01	0	52	104	0	55	38446
2026-01-21 01:19:20.07	15.97	2.69	-42.6	-62.5	3.8	7.44e-01	0	52	104	0	55	38492
2026-01-21 01:19:21.08	15.98	2.76	-42.6	-62.5	3.8	7.45e-01	0	52	104	0	55	38477
2026-01-21 01:19:22.09	15.99	2.83	-42.6	-62.5	3.8	7.45e-01	0	52	104	0	55	38462
2026-01-21 01:19:23.10	15.99	2.90	-42.6	-62.5	3.8	7.47e-01	0	52	104	0	55	38461
2026-01-21 01:19:24.12	16.00	2.97	-42.6	-62.5	3.8	7.47e-01	0	52	104	0	55	38431
2026-01-21 01:19:25.13	16.01	3.04	-42.7	-62.5	3.8	7.44e-01	0	52	104	0	55	38480
2026-01-21 01:19:26.14	16.01	3.11	-42.7	-62.5	3.8	7.43e-01	0	52	104	0	55	38465
2026-01-21 01:19:27.15	16.02	3.18	-42.7	-62.5	3.8	7.45e-01	0	52	104	0	55	38443
2026-01-21 01:19:28.16	16.02	3.25	-42.6	-62.5	3.8	7.45e-01	0	52	104	0	55	38545
2026-01-21 01:19:29.17	16.03	3.32	-42.7	-62.5	3.8	7.45e-01	0	52	104	0	55	38420
2026-01-21 01:19:30.17	16.04	3.39	-42.6	-62.5	3.8	7.46e-01	0	53	104	0	55	38431
2026-01-21 01:19:31.18	16.04	3.46	-42.7	-62.5	3.8	7.49e-01	0	52	104	0	55	38470
2026-01-21 01:19:32.19	16.05	3.53	-42.7	-62.5	3.8	7.46e-01	0	53	104	0	55	38490
2026-01-21 01:19:33.21	16.06	3.60	-42.6	-62.5	3.8	7.44e-01	0	53	104	0	55	38534
2026-01-21 01:19:34.22	16.06	3.67	-42.6	-62.5	3.8	7.46e-01	0	53	104	0	55	38448
2026-01-21 01:19:35.23	16.07	3.74	-42.7	-62.5	3.8	7.46e-01	0	52	104	0	55	38378
2026-01-21 01:19:36.24	16.07	3.81	-42.6	-62.5	3.8	7.46e-01	0	53	104	0	55	38469
2026-01-21 01:19:37.25	16.08	3.89	-42.6	-62.5	3.8	7.47e-01	0	53	104	0	55	38417
2026-01-21 01:19:38.26	16.09	3.96	-42.6	-62.5	3.8	7.45e-01	0	53	104	0	55	38390
2026-01-21 01:19:39.27	16.09	4.03	-42.6	-62.5	3.8	7.42e-01	0	53	104	0	55	38392
2026-01-21 01:19:40.28	16.10	4.10	-42.7	-62.5	3.8	7.43e-01	0	53	104	0	55	38391
2026-01-21 01:19:41.29	16.11	4.17	-42.7	-62.5	3.8	7.42e-01	0	53	104	0	55	38412
2026-01-21 01:19:42.30	16.11	4.25	-42.6	-62.5	3.8	7.44e-01	0	53	104	0	55	38425
2026-01-21 01:19:43.31	16.12	4.32	-42.6	-62.5	3.8	7.47e-01	0	53	104	0	55	38378
2026-01-21 01:19:44.32	16.13	4.39	-42.6	-62.5	3.8	7.42e-01	0	53	104	0	55	38368
2026-01-21 01:19:45.33	16.13	4.47	-42.6	-62.5	3.8	7.47e-01	0	53	104	0	55	38417
2026-01-21 01:19:46.34	16.14	4.54	-42.6	-62.5	3.8	7.46e-01	0	53	104	0	55	38316
2026-01-21 01:19:47.35	16.14	4.61	-42.6	-62.5	3.8	7.46e-01	0	53	104	0	55	38449
2026-01-21 01:19:48.36	16.15	4.69	-42.6	-62.5	3.8	7.46e-01	0	53	104	0	55	38296
2026-01-21 01:19:49.37	16.16	4.76	-42.6	-62.5	3.8	7.45e-01	0	53	104	0	55	38349
2026-01-21 01:19:50.38	16.16	4.84	-42.6	-62.5	3.8	7.44e-01	0	53	104	0	55	38369
2026-01-21 01:19:51.39	16.17	4.91	-42.7	-62.5	3.8	7.41e-01	0	53	104	0	55	38364
2026-01-21 01:19:52.40	16.18	4.99	-42.6	-62.5	3.8	7.44e-01	0	53	104	0	55	38327
2026-01-21 01:19:53.41	16.18	5.06	-42.6	-62.5	3.8	7.47e-01	0	53	104	0	55	38404
2026-01-21 01:19:54.43	16.19	5.14	-42.6	-62.5	3.8	7.42e-01	0	54	104	0	55	38454
2026-01-21 01:19:55.43	16.20	5.21	-42.6	-62.5	3.8	7.43e-01	0	53	104	0	55	38430
2026-01-21 01:19:56.45	16.20	5.29	-42.7	-62.5	3.8	7.44e-01	0	54	104	0	55	38319
2026-01-21 01:19:57.45	16.21	5.37	-42.6	-62.5	3.8	7.44e-01	0	54	104	0	55	38356
2026-01-21 01:19:58.47	16.22	5.44	-42.6	-62.5	3.8	7.47e-01	0	54	104	0	55	38312
2026-01-21 01:19:59.48	16.22	5.52	-42.6	-62.5	3.8	7.46e-01	0	54	104	0	55	38340
2026-01-21 01:20:00.49	16.23	5.60	-42.7	-62.5	3.8	7.46e-01	0	54	104	0	55	38401
2026-01-21 01:20:01.50	16.24	5.68	-42.7	-62.5	3.8	7.48e-01	0	54	104	0	55	38421
2026-01-21 01:20:02.51	16.24	5.75	-42.6	-62.5	3.8	7.45e-01	0	54	104	0	55	38334
2026-01-21 01:20:03.52	16.25	5.83	-42.6	-62.5	3.8	7.44e-01	0	54	104	0	55	38467
2026-01-21 01:20:04.53	16.26	5.91	-42.6	-62.5	3.8	7.43e-01	0	54	104	0	55	38394
2026-01-21 01:20:05.54	16.26	5.99	-42.6	-62.5	3.8	7.44e-01	0	54	104	0	55	38374
2026-01-21 01:20:06.55	16.27	6.07	-42.6	-62.4	3.8	7.48e-01	0	54	104	0	55	38241
2026-01-21 01:20:07.56	16.28	6.15	-42.6	-62.4	3.8	7.44e-01	0	54	104	0	55	38076
2026-01-21 01:20:08.57	16.28	6.22	-42.6	-62.4	3.8	7.45e-01	0	54	104	0	55	38052
2026-01-21 01:20:09.58	16.29	6.30	-42.6	-62.4	3.8	7.46e-01	0	54	104	0	55	37986
2026-01-21 01:20:10.59	16.30	6.38	-42.6	-62.4	3.8	7.46e-01	0	54	104	0	55	37990
2026-01-21 01:20:11.60	16.30	6.46	-42.6	-62.4	3.8	7.47e-01	0	54	104	0	55	37890
2026-01-21 01:20:12.61	16.31	6.54	-42.6	-62.4	3.8	7.45e-01	0	54	104	0	55	37899
2026-01-21 01:20:13.62	16.32	6.62	-42.6	-62.3	3.8	7.48e-01	0	54	104	0	55	37713
2026-01-21 01:20:14.63	16.32	6.70	-42.6	-62.3	3.8	7.44e-01	0	54	104	0	55	37404
2026-01-21 01:20:15.64	16.33	6.79	-42.6	-62.3	3.8	7.45e-01	0	54	104	0	55	37423
2026-01-21 01:20:16.66	16.34	6.87	-42.6	-62.2	3.8	7.44e-01	0	54	104	0	55	37077
2026-01-21 01:20:17.67	16.34	6.95	-42.6	-62.0	3.8	7.48e-01	0	55	104	0	55	36242
2026-01-21 01:20:18.68	16.35	7.03	-42.5	-61.8	3.8	7.45e-01	0	54	104	0	55	35382
2026-01-21 01:20:19.68	16.36	7.11	-42.5	-61.5	3.8	7.45e-01	0	55	104	0	55	34144
2026-01-21 01:20:20.69	16.36	7.20	-42.4	-60.9	3.8	7.46e-01	0	54	104	0	55	32105
2026-01-21 01:20:21.71	16.37	7.28	-42.3	-60.3	3.8	7.42e-01	0	55	104	0	55	29882
2026-01-21 01:20:22.72	16.38	7.36	-42.2	-59.7	3.8	7.46e-01	0	55	104	0	55	27716
2026-01-21 01:20:23.73	16.39	7.45	-42.0	-59.1	3.8	7.42e-01	0	55	104	0	55	25988
2026-01-21 01:20:24.74	16.39	7.53	-41.8	-58.3	3.8	7.47e-01	0	55	104	0	55	23584
2026-01-21 01:20:25.75	16.40	7.61	-41.5	-57.3	3.8	7.44e-01	0	55	104	0	55	21117
2026-01-21 01:20:26.76	16.41	7.70	-41.3	-56.4	3.8	7.45e-01	0	55	104	0	54	20258
2026-01-21 01:20:27.77	16.41	7.78	-41.0	-55.9	3.8	7.45e-01	0	55	104	0	54	18996
2026-01-21 01:20:28.78	16.42	7.87	-41.0	-55.8	3.8	7.42e-01	0	55	104	0	54	18738
2026-01-21 01:20:29.79	16.43	7.95	-41.1	-56.1	3.8	7.46e-01	0	55	104	0	54	19612
2026-01-21 01:20:30.80	16.43	8.04	-41.4	-57.2	3.8	7.46e-01	0	55	104	0	54	22035
2026-01-21 01:20:31.81	16.44	8.13	-42.9	-60.2	3.8	7.45e-01	0	55	104	0	56	27930
2026-01-21 01:20:32.82	16.45	8.21	-42.9	-57.8	3.8	7.45e-01	0	55	104	0	56	21078
2026-01-21 01:20:33.83	16.46	8.30	-42.2	-62.0	3.8	7.51e-01	0	55	104	0	56	34334
2026-01-21 01:20:34.84	16.46	8.39	-43.4	-62.0	3.8	7.42e-01	0	55	104	0	57	32383
2026-01-21 01:20:35.85	16.47	8.47	-42.6	-57.1	3.8	7.48e-01	0	55	104	0	56	19409
2026-01-21 01:20:36.86	16.48	8.56	-42.2	-56.4	3.8	7.46e-01	0	55	104	0	56	17911
2026-01-21 01:20:37.87	16.48	8.65	-42.3	-56.4	3.8	7.43e-01	0	55	104	0	56	18042
2026-01-21 01:20:38.88	16.49	8.74	-42.3	-56.4	3.8	7.45e-01	0	55	104	0	56	18093
2026-01-21 01:20:39.89	16.50	8.83	-42.1	-56.0	3.8	7.45e-01	0	55	104	0	56	17136
2026-01-21 01:20:40.90	16.51	8.91	-42.7	-57.6	3.8	7.46e-01	0	55	104	0	56	20604
2026-01-21 01:20:41.91	16.51	9.00	-43.9	-62.5	3.8	7.47e-01	0	55	104	0	58	32235
2026-01-21 01:20:42.92	16.52	9.09	-42.9	-57.4	3.8	7.43e-01	0	55	104	0	57	19062
2026-01-21 01:20:43.93	16.53	9.18	-43.3	-62.3	3.8	7.44e-01	0	55	104	0	57	33532
2026-01-21 01:20:44.94	16.53	9.27	-42.2	-56.0	3.9	7.43e-01	0	55	104	0	56	17228
2026-01-21 01:20:45.95	16.54	9.36	-42.1	-55.7	3.8	7.48e-01	0	55	104	0	56	16688
2026-01-21 01:20:46.96	16.55	9.46	-42.2	-56.0	3.8	7.46e-01	0	55	104	0	56	17208
2026-01-21 01:20:47.97	16.56	9.55	-44.5	-62.1	3.9	7.47e-01	0	55	104	0	60	27635
2026-01-21 01:20:48.97	16.56	9.64	-43.3	-57.8	3.8	7.44e-01	0	55	104	0	58	18927
2026-01-21 01:20:49.98	16.57	9.73	-43.9	-62.6	3.8	7.45e-01	0	55	104	0	58	32745
2026-01-21 01:20:50.99	16.58	9.82	-44.4	-62.8	3.8	7.39e-01	0	55	104	0	59	31717
2026-01-21 01:20:52.00	16.59	9.92	-42.9	-57.5	3.8	7.44e-01	0	56	104	0	56	20343
2026-01-21 01:20:53.01	16.59	10.01	-42.2	-55.8	3.8	7.47e-01	0	55	104	0	56	16709
2026-01-21 01:20:54.02	16.60	10.10	-42.2	-55.7	3.8	7.42e-01	0	55	104	0	56	16597
2026-01-21 01:20:55.03	16.61	10.20	-42.1	-55.6	3.8	7.47e-01	0	56	104	0	56	16373
2026-01-21 01:20:56.04	16.62	10.29	-42.4	-56.2	3.8	7.44e-01	0	56	104	0	56	17676
2026-01-21 01:20:57.05	16.62	10.39	-43.0	-49.5	5.1	7.09e-01	0	55	104	0	56	8103
2026-01-21 01:20:58.05	16.63	10.48	-44.5	-59.7	4.0	7.40e-01	0	55	104	524288	59	22096
2026-01-21 01:20:59.06	16.64	10.58	-43.3	-48.9	14.1	6.04e-01	0	56	0	1048576	57	7153
2026-01-21 01:21:00.07	16.65	10.68	-44.2	-56.5	6.0	6.86e-01	78	56	0	3145728	58	16287
2026-01-21 01:21:01.08	16.65	10.77	-42.0	-46.0	16.9	6.04e-01	0	55	0	4718592	56	5430
2026-01-21 01:21:02.10	16.66	10.87	-41.9	-45.9	16.9	6.03e-01	0	56	0	6815744	55	5663
2026-01-21 01:21:03.10	16.67	10.97	-41.9	-45.8	17.0	6.04e-01	0	56	0	8912896	55	5652
2026-01-21 01:21:04.11	16.68	11.07	-41.9	-45.7	17.1	6.03e-01	0	56	0	10485760	55	5573
2026-01-21 01:21:05.12	16.69	11.16	-41.9	-45.7	17.1	6.03e-01	0	56	0	12582912	55	5553
2026-01-21 01:21:06.13	16.69	11.26	-41.8	-45.6	17.3	6.01e-01	0	56	0	14155776	55	5480
2026-01-21 01:21:07.14	16.70	11.36	-41.9	-45.7	17.2	6.02e-01	0	56	0	16252928	55	5537
2026-01-21 01:21:08.15	16.71	11.46	-41.9	-45.7	17.1	6.03e-01	0	56	0	18350080	55	5580
2026-01-21 01:21:09.16	16.72	11.56	-41.8	-45.5	17.4	6.03e-01	0	56	0	19922944	55	5455
2026-01-21 01:21:10.17	16.73	11.66	-41.9	-45.6	17.3	6.03e-01	0	56	0	22020096	55	5501
2026-01-21 01:21:11.18	16.73	11.77	-41.9	-45.6	17.3	6.03e-01	0	56	0	23592960	55	5514
2026-01-21 01:21:12.19	16.74	11.87	-41.8	-45.5	17.4	6.06e-01	0	56	0	25690112	55	5457
2026-01-21 01:21:13.20	16.75	11.97	-41.9	-45.6	17.4	6.03e-01	0	56	0	27787264	55	5479
2026-01-21 01:21:14.21	16.76	12.07	-41.9	-45.6	17.4	6.02e-01	0	56	0	29360128	55	5484
2026-01-21 01:21:15.22	16.77	12.17	-41.9	-45.6	17.4	6.06e-01	0	56	0	31457280	55	5512
2026-01-21 01:21:16.23	16.77	12.28	-41.9	-45.6	17.4	6.03e-01	0	56	0	33554432	55	5509
2026-01-21 01:21:17.24	16.78	12.38	-41.9	-45.7	17.3	6.05e-01	0	56	0	35127296	55	5540
2026-01-21 01:21:18.25	16.79	12.49	-41.9	-45.6	17.4	6.02e-01	0	56	0	37224448	55	5507
2026-01-21 01:21:19.26	16.80	12.59	-41.8	-45.5	17.5	6.03e-01	0	56	0	38797312	55	5445
2026-01-21 01:21:20.27	16.81	12.70	-41.9	-45.6	17.4	6.03e-01	0	56	0	40894464	55	5469
2026-01-21 01:21:21.28	16.81	12.80	-41.9	-45.6	17.5	6.03e-01	0	56	0	42991616	55	5479
2026-01-21 01:21:22.29	16.82	12.91	-41.9	-45.6	17.4	6.03e-01	0	56	0	44564480	55	5487
2026-01-21 01:21:23.29	16.83	13.02	-41.9	-45.6	17.5	6.03e-01	0	56	0	46661632	55	5470
2026-01-21 01:21:24.30	16.84	13.13	-41.9	-45.5	17.5	6.01e-01	0	56	0	48234496	55	5449
2026-01-21 01:21:25.31	16.85	13.23	-41.9	-45.5	17.6	6.01e-01	0	56	0	50331648	55	5451
2026-01-21 01:21:26.32	16.86	13.34	-41.8	-45.4	17.6	6.05e-01	0	56	0	52428800	55	5389
2026-01-21 01:21:27.33	16.86	13.45	-41.8	-45.4	17.7	6.03e-01	0	56	0	54001664	55	5380
2026-01-21 01:21:28.34	16.87	13.56	-41.8	-45.4	17.7	6.04e-01	0	56	0	56098816	55	5398
2026-01-21 01:21:29.35	16.88	13.67	-41.9	-45.5	17.7	6.03e-01	0	56	0	58195968	55	5403
2026-01-21 01:21:30.36	16.89	13.78	-41.8	-45.3	17.8	6.02e-01	0	56	0	59768832	55	5296
2026-01-21 01:21:31.37	16.90	13.89	-41.8	-45.3	17.9	6.04e-01	0	56	0	61865984	55	5283
2026-01-21 01:21:32.38	16.91	14.01	-41.8	-45.3	17.9	5.99e-01	0	56	0	63438848	55	5288
2026-01-21 01:21:33.39	16.92	14.12	-41.7	-45.1	18.1	6.06e-01	0	56	0	65536000	55	5186
2026-01-21 01:21:34.40	16.92	14.23	-41.7	-45.1	18.1	6.04e-01	0	56	0	67633152	55	5218
2026-01-21 01:21:35.41	16.93	14.35	-41.7	-45.1	18.2	6.05e-01	0	56	0	69206016	55	5168
2026-01-21 01:21:36.42	16.94	14.46	-41.7	-45.0	18.3	6.03e-01	0	56	0	71303168	55	5130
2026-01-21 01:21:37.43	16.95	14.58	-41.6	-44.9	18.4	6.05e-01	0	56	0	72876032	55	5055
2026-01-21 01:21:38.44	16.96	14.69	-41.6	-44.9	18.4	6.05e-01	0	56	0	74973184	55	5078
2026-01-21 01:21:39.45	16.97	14.81	-41.7	-45.0	18.3	6.00e-01	0	56	0	77070336	55	5125
2026-01-21 01:21:40.46	16.98	14.93	-41.7	-45.0	18.3	6.03e-01	0	56	0	78643200	55	5157
2026-01-21 01:21:41.46	16.99	15.04	-41.6	-44.9	18.4	6.05e-01	0	56	0	80740352	55	5062
2026-01-21 01:21:42.47	17.00	15.16	-41.6	-44.9	18.4	6.04e-01	0	56	0	82313216	55	5054
2026-01-21 01:21:43.48	17.00	15.28	-41.6	-44.8	18.5	6.05e-01	0	56	0	84410368	55	5040
2026-01-21 01:21:44.50	17.01	15.40	-41.5	-44.7	18.6	6.02e-01	0	56	0	86507520	55	4971
2026-01-21 01:21:45.50	17.02	15.52	-41.6	-44.8	18.5	6.03e-01	0	56	0	88080384	55	5017
2026-01-21 01:21:46.51	17.03	15.64	-41.6	-44.8	18.5	6.03e-01	0	56	0	90177536	55	5029
2026-01-21 01:21:47.52	17.04	15.76	-41.5	-44.7	18.6	6.02e-01	0	56	0	91750400	55	4961
2026-01-21 01:21:48.53	17.05	15.88	-41.6	-44.8	18.5	6.03e-01	0	56	0	93847552	55	5021
2026-01-21 01:21:49.54	17.06	16.01	-41.6	-44.9	18.4	6.03e-01	0	56	0	95944704	55	5076
2026-01-21 01:21:50.55	17.07	16.13	-41.7	-45.0	18.4	6.02e-01	0	56	0	97517568	55	5128
2026-01-21 01:21:51.56	17.08	16.25	-41.7	-45.0	18.3	6.04e-01	0	56	0	99614720	55	5144
2026-01-21 01:21:52.57	17.09	16.38	-41.6	-44.9	18.5	6.02e-01	0	56	0	101711872	55	5063
2026-01-21 01:21:53.58	17.10	16.50	-41.6	-44.8	18.6	6.06e-01	0	57	0	103284736	55	5023
2026-01-21 01:21:54.58	17.11	16.63	-41.7	-44.9	18.5	6.02e-01	0	56	0	105381888	55	5081
2026-01-21 01:21:55.59	17.12	16.76	-41.7	-44.9	18.5	6.03e-01	0	56	0	106954752	55	5056
2026-01-21 01:21:56.60	17.13	16.88	-41.7	-44.9	18.5	6.03e-01	0	56	0	109051904	55	5073
2026-01-21 01:21:57.61	17.14	17.01	-41.7	-44.9	18.5	6.02e-01	0	56	0	111149056	55	5081
2026-01-21 01:21:58.62	17.15	17.14	-41.7	-44.9	18.5	6.04e-01	0	56	0	112721920	55	5090
2026-01-21 01:21:59.63	17.16	17.27	-41.7	-44.8	18.6	6.02e-01	0	57	0	114819072	55	5033
2026-01-21 01:22:00.64	17.17	17.40	-41.6	-44.8	18.7	6.02e-01	0	57	0	116391936	55	5007
2026-01-21 01:22:01.65	17.18	17.54	-41.6	-44.8	18.7	6.04e-01	0	57	0	118489088	55	5010
2026-01-21 01:22:02.66	17.19	17.67	-41.7	-44.8	18.7	6.03e-01	0	56	0	120586240	55	5032
2026-01-21 01:22:03.67	17.20	17.80	-41.6	-44.7	18.8	6.03e-01	0	56	0	122159104	55	4983
2026-01-21 01:22:04.68	17.21	17.93	-41.6	-44.7	18.8	6.04e-01	0	57	0	124256256	55	4946
2026-01-21 01:22:05.69	17.22	18.07	-41.6	-44.7	18.9	6.06e-01	0	57	0	125829120	55	4953
2026-01-21 01:22:06.70	17.23	18.21	-41.6	-44.8	18.8	6.02e-01	0	57	0	127926272	55	4987
2026-01-21 01:22:07.71	17.24	18.34	-41.6	-44.7	18.8	6.03e-01	0	57	0	130023424	55	4960
2026-01-21 01:22:08.72	17.25	18.48	-41.6	-44.6	18.9	6.04e-01	0	57	0	131596288	55	4917
2026-01-21 01:22:09.73	17.26	18.62	-41.6	-44.7	18.9	6.05e-01	0	56	0	133693440	55	4950
2026-01-21 01:22:10.74	17.27	18.76	-41.7	-44.7	18.8	6.03e-01	0	57	0	135266304	55	4972
2026-01-21 01:22:11.75	17.28	18.90	-41.7	-44.8	18.8	6.03e-01	0	57	0	137363456	55	5007
2026-01-21 01:22:12.76	17.29	19.04	-41.7	-44.8	18.8	6.02e-01	0	57	0	139460608	55	5029
2026-01-21 01:22:13.76	17.30	19.18	-41.7	-44.8	18.8	6.02e-01	0	57	0	141033472	55	5012
2026-01-21 01:22:14.77	17.31	19.32	-41.8	-44.9	18.7	6.02e-01	0	57	0	143130624	55	5072
2026-01-21 01:22:15.78	17.32	19.46	-41.8	-44.9	18.7	6.03e-01	0	57	0	144703488	55	5093
2026-01-21 01:22:16.79	17.33	19.61	-41.8	-44.9	18.7	6.02e-01	0	57	0	146800640	55	5092
2026-01-21 01:22:17.80	17.34	19.75	-41.9	-45.1	18.6	6.04e-01	0	57	0	148897792	55	5171
2026-01-21 01:22:18.81	17.35	19.90	-41.8	-45.0	18.7	6.05e-01	0	57	0	150470656	55	5113
2026-01-21 01:22:19.82	17.36	20.05	-41.9	-45.0	18.6	6.06e-01	0	57	0	152567808	55	5144
2026-01-21 01:22:20.83	17.37	20.19	-41.9	-45.0	18.6	6.04e-01	0	57	0	154664960	55	5141
2026-01-21 01:22:21.84	17.39	20.34	-41.8	-44.9	18.7	6.03e-01	0	57	0	156237824	55	5095
2026-01-21 01:22:22.85	17.40	20.49	-41.8	-44.9	18.7	6.02e-01	0	57	0	158334976	55	5071
2026-01-21 01:22:23.86	17.41	20.64	-41.8	-44.9	18.8	6.04e-01	0	57	0	159907840	55	5055
2026-01-21 01:22:24.87	17.42	20.80	-41.8	-44.9	18.7	6.03e-01	0	57	0	162004992	55	5087
2026-01-21 01:22:25.88	17.43	20.95	-41.9	-45.0	18.7	6.03e-01	0	57	0	164102144	55	5148
2026-01-21 01:22:26.89	17.44	21.10	-41.9	-45.0	18.7	6.03e-01	0	57	0	165675008	55	5140
2026-01-21 01:22:27.90	17.45	21.26	-41.9	-45.0	18.7	6.05e-01	0	57	0	167772160	55	5111
2026-01-21 01:22:28.91	17.47	21.42	-41.8	-45.0	18.8	6.03e-01	0	57	0	169869312	55	5108
2026-01-21 01:22:29.92	17.48	21.57	-41.9	-45.0	18.6	6.01e-01	0	57	0	171442176	55	5159
2026-01-21 01:22:30.93	17.49	21.73	-41.9	-45.0	18.7	6.03e-01	0	57	0	173539328	55	5127
2026-01-21 01:22:31.94	17.50	21.89	-41.9	-45.0	18.7	6.05e-01	0	57	0	175112192	55	5156
2026-01-21 01:22:32.94	17.51	22.05	-41.9	-45.1	18.6	6.03e-01	0	57	0	177209344	55	5175
2026-01-21 01:22:33.96	17.53	22.21	-42.0	-45.2	18.5	6.03e-01	0	57	0	179306496	55	5245
2026-01-21 01:22:34.97	17.54	22.38	-41.9	-44.9	18.8	6.04e-01	0	57	0	180879360	55	5099
2026-01-21 01:22:35.98	17.55	22.54	-41.8	-44.9	18.8	6.04e-01	0	57	0	182976512	55	5066
2026-01-21 01:22:36.98	17.56	22.70	-41.9	-44.9	18.8	6.02e-01	0	57	0	184549376	55	5088
2026-01-21 01:22:37.99	17.58	22.87	-41.9	-45.0	18.8	6.04e-01	0	57	0	186646528	55	5108
2026-01-21 01:22:39.00	17.59	23.04	-41.9	-45.0	18.7	6.04e-01	0	57	0	188743680	55	5142
2026-01-21 01:22:40.01	17.60	23.21	-41.9	-45.0	18.7	6.04e-01	0	57	0	190316544	55	5146
2026-01-21 01:22:41.02	17.61	23.38	-41.9	-45.0	18.8	6.03e-01	0	57	0	192413696	55	5102
2026-01-21 01:22:42.03	17.63	23.55	-41.9	-45.0	18.7	6.02e-01	0	57	0	193986560	55	5151
2026-01-21 01:22:43.04	17.64	23.72	-42.0	-45.1	18.6	6.04e-01	0	57	0	196083712	55	5213
2026-01-21 01:22:44.05	17.65	23.89	-42.1	-45.3	18.5	6.02e-01	0	57	0	198180864	55	5283
2026-01-21 01:22:45.06	17.67	24.07	-42.0	-45.2	18.6	6.05e-01	0	57	0	199753728	55	5266
2026-01-21 01:22:46.07	17.68	24.24	-42.1	-45.3	18.5	6.01e-01	0	57	0	201850880	55	5285
2026-01-21 01:22:47.08	17.69	24.42	-42.1	-45.3	18.4	6.04e-01	0	57	0	203423744	55	5335
2026-01-21 01:22:48.09	17.71	24.60	-42.1	-45.4	18.4	6.03e-01	0	57	0	205520896	55	5371
2026-01-21 01:22:49.10	17.72	24.78	-42.2	-45.6	18.2	6.02e-01	0	57	0	207618048	55	5471
2026-01-21 01:22:50.11	17.73	24.96	-42.2	-45.4	18.4	6.02e-01	0	57	0	209190912	55	5390
2026-01-21 01:22:51.12	17.75	25.14	-42.1	-45.4	18.4	6.03e-01	0	57	0	211288064	55	5352
2026-01-21 01:22:52.13	17.76	25.33	-42.2	-45.4	18.4	6.02e-01	0	57	0	212860928	55	5398
2026-01-21 01:22:53.14	17.78	25.51	-42.2	-45.4	18.4	6.03e-01	0	57	0	214958080	55	5354
2026-01-21 01:22:54.15	17.79	25.70	-42.1	-45.2	18.6	6.01e-01	0	57	0	217055232	55	5259
2026-01-21 01:22:55.16	17.81	25.89	-41.9	-45.0	18.8	6.04e-01	0	57	0	218628096	55	5146
2026-01-21 01:22:56.17	17.82	26.08	-42.0	-45.1	18.7	6.04e-01	0	57	0	220725248	55	5170
2026-01-21 01:22:57.18	17.83	26.27	-41.9	-44.9	18.9	6.03e-01	0	57	0	222822400	55	5070
2026-01-21 01:22:58.19	17.85	26.46	-41.9	-45.0	18.9	6.03e-01	0	57	0	224395264	55	5101
2026-01-21 01:22:59.20	17.86	26.66	-41.9	-45.0	18.9	6.00e-01	0	57	0	226492416	55	5101
2026-01-21 01:23:00.19	17.88	26.85	-41.9	-44.9	18.9	6.04e-01	0	57	0	228065280	55	5091
2026-01-21 01:23:01.19	17.89	27.04	-41.8	-44.8	19.0	6.04e-01	0	57	0	230162432	55	5035
2026-01-21 01:23:02.20	17.91	27.24	-41.7	-44.6	19.2	6.02e-01	0	57	0	232259584	55	4898
2026-01-21 01:23:03.21	17.93	27.44	-41.7	-44.6	19.3	6.02e-01	0	57	0	233832448	55	4881
2026-01-21 01:23:04.22	17.94	27.65	-41.6	-44.5	19.3	6.03e-01	0	57	0	235929600	55	4861
2026-01-21 01:23:05.23	17.96	27.85	-41.6	-44.5	19.4	6.02e-01	0	57	0	237502464	55	4825
2026-01-21 01:23:06.24	17.97	28.06	-41.6	-44.5	19.4	6.04e-01	0	57	0	239599616	55	4847
2026-01-21 01:23:07.25	17.99	28.26	-41.6	-44.5	19.3	6.04e-01	0	57	0	241696768	55	4866
2026-01-21 01:23:08.26	18.01	28.47	-41.7	-44.7	19.2	6.04e-01	0	57	0	243269632	55	4937
2026-01-21 01:23:09.27	18.02	28.68	-41.8	-44.7	19.2	6.03e-01	0	57	0	245366784	55	4975
2026-01-21 01:23:10.28	18.04	28.89	-41.8	-44.8	19.1	6.05e-01	0	57	0	246939648	55	4991
2026-01-21 01:23:11.29	18.06	29.11	-41.9	-44.8	19.1	6.03e-01	0	57	0	249036800	55	5038
2026-01-21 01:23:12.30	18.07	29.32	-41.8	-44.7	19.1	6.04e-01	0	57	0	251133952	55	4973
2026-01-21 01:23:13.31	18.09	29.54	-41.8	-44.7	19.2	6.02e-01	0	57	0	252706816	55	4980
2026-01-21 01:23:14.32	18.11	29.76	-41.7	-44.5	19.4	6.02e-01	0	57	0	254803968	55	4862
2026-01-21 01:23:15.33	18.12	29.98	-41.6	-44.4	19.5	6.03e-01	0	57	0	256376832	55	4795
2026-01-21 01:23:16.34	18.14	30.20	-41.6	-44.4	19.5	6.02e-01	0	57	0	258473984	55	4786
2026-01-21 01:23:17.35	18.16	30.43	-41.7	-44.6	19.4	6.03e-01	0	57	0	260571136	55	4874
2026-01-21 01:23:18.36	18.18	30.66	-41.6	-44.5	19.5	6.02e-01	0	57	0	262144000	55	4816
2026-01-21 01:23:19.37	18.20	30.88	-41.6	-44.5	19.4	6.03e-01	0	57	0	264241152	55	4841
2026-01-21 01:23:20.38	18.22	31.11	-41.6	-44.4	19.5	6.04e-01	0	58	0	266338304	55	4774
2026-01-21 01:23:21.39	18.23	31.35	-41.6	-44.4	19.5	6.03e-01	0	57	0	267911168	55	4798
2026-01-21 01:23:22.40	18.25	31.58	-41.7	-44.5	19.4	6.03e-01	0	57	0	270008320	55	4855
2026-01-21 01:23:23.41	18.27	31.82	-41.7	-44.6	19.4	6.03e-01	0	57	0	271581184	55	4891
2026-01-21 01:23:24.42	18.29	32.06	-41.7	-44.6	19.4	6.02e-01	0	57	0	273678336	55	4891
2026-01-21 01:23:25.43	18.31	32.30	-41.8	-44.7	19.2	6.06e-01	0	57	0	275775488	55	4968
2026-01-21 01:23:26.44	18.33	32.54	-41.8	-44.7	19.2	6.03e-01	0	57	0	277348352	55	4979
2026-01-21 01:23:27.45	18.35	32.78	-42.0	-45.1	18.9	6.02e-01	0	57	0	279445504	55	5161
2026-01-21 01:23:28.45	18.37	33.03	-42.0	-45.1	18.9	6.06e-01	0	57	0	281018368	55	5194
2026-01-21 01:23:29.46	18.39	33.28	-42.1	-45.1	18.8	6.03e-01	0	57	0	283115520	55	5204
2026-01-21 01:23:30.47	18.42	33.53	-42.1	-45.2	18.8	6.06e-01	0	57	0	285212672	55	5255
2026-01-21 01:23:31.48	18.44	33.78	-42.1	-45.3	18.7	6.03e-01	0	57	0	286785536	55	5283
2026-01-21 01:23:32.49	18.46	34.04	-42.1	-45.2	18.8	6.05e-01	0	57	0	288882688	55	5265
2026-01-21 01:23:33.50	18.48	34.30	-42.2	-45.3	18.7	6.02e-01	0	57	0	290979840	55	5290
2026-01-21 01:23:34.51	18.50	34.56	-42.3	-45.4	18.6	6.02e-01	0	57	0	292552704	55	5396
2026-01-21 01:23:35.52	18.53	34.82	-42.3	-45.4	18.6	6.01e-01	0	58	0	294649856	55	5397
2026-01-21 01:23:36.53	18.55	35.09	-42.4	-45.8	18.2	6.05e-01	0	57	0	296222720	55	5596
2026-01-21 01:23:37.54	18.57	35.35	-42.4	-45.8	18.2	6.02e-01	0	57	0	298319872	55	5598
2026-01-21 01:23:38.55	18.59	35.62	-42.5	-45.9	18.0	6.02e-01	0	58	0	300417024	55	5722
2026-01-21 01:23:39.56	18.62	35.90	-42.6	-46.1	17.9	6.01e-01	0	57	0	301989888	55	5817
2026-01-21 01:23:40.57	18.64	36.17	-42.7	-46.2	17.8	6.02e-01	0	57	0	304087040	55	5884
2026-01-21 01:23:41.58	18.67	36.45	-43.0	-46.6	17.5	6.03e-01	0	57	0	305659904	56	5838
2026-01-21 01:23:42.59	18.69	36.73	-43.0	-46.7	17.4	6.03e-01	0	57	0	307757056	56	5875
2026-01-21 01:23:43.60	18.72	37.01	-43.0	-46.6	17.5	6.01e-01	0	57	0	309854208	56	5831
2026-01-21 01:23:44.61	18.74	37.30	-43.1	-46.8	17.3	6.04e-01	0	58	0	311427072	56	5985
2026-01-21 01:23:45.61	18.77	37.58	-43.2	-47.0	17.1	6.05e-01	0	57	0	313524224	56	6089
2026-01-21 01:23:46.62	18.80	37.87	-43.4	-47.5	16.7	6.04e-01	0	58	0	315097088	57	6071
2026-01-21 01:23:47.63	18.82	38.16	-43.5	-47.7	16.5	6.03e-01	0	57	0	317194240	57	6211
2026-01-21 01:23:48.64	18.85	38.46	-43.3	-47.3	16.8	6.03e-01	0	57	0	319291392	57	5934
2026-01-21 01:23:49.65	18.88	38.76	-43.3	-47.2	16.9	6.03e-01	0	57	0	320864256	57	5917
2026-01-21 01:23:50.66	18.91	39.06	-43.4	-47.3	16.8	6.03e-01	0	57	0	322961408	57	5948
2026-01-21 01:23:51.67	18.93	39.36	-43.4	-47.4	16.7	6.04e-01	0	57	0	324534272	57	6044
2026-01-21 01:23:52.68	18.96	39.67	-43.6	-47.7	16.4	6.06e-01	0	57	0	326631424	57	6238
2026-01-21 01:23:53.69	18.99	39.98	-43.5	-47.6	16.5	6.05e-01	0	58	0	328728576	57	6174
2026-01-21 01:23:54.70	19.02	40.29	-43.4	-47.4	16.8	6.05e-01	0	57	0	330301440	57	5995
2026-01-21 01:23:55.71	19.05	40.61	-43.3	-47.2	17.0	6.03e-01	0	57	0	332398592	57	5877
2026-01-21 01:23:56.72	19.09	40.93	-43.3	-47.1	17.0	6.03e-01	0	57	0	334495744	57	5829
2026-01-21 01:23:57.73	19.12	41.25	-43.2	-46.9	17.2	6.04e-01	0	57	0	336068608	57	5696
2026-01-21 01:23:58.74	19.15	41.57	-43.0	-46.5	17.6	6.05e-01	0	57	0	338165760	57	5437
2026-01-21 01:23:59.74	19.18	41.90	-42.9	-46.4	17.7	6.04e-01	0	57	0	339738624	57	5379
2026-01-21 01:24:00.75	19.22	42.23	-42.9	-46.4	17.7	6.03e-01	0	58	0	341835776	57	5384
2026-01-21 01:24:01.76	19.25	42.56	-42.9	-46.3	17.8	6.04e-01	0	57	0	343932928	57	5336
2026-01-21 01:24:02.77	19.29	42.90	-42.8	-46.2	18.0	6.00e-01	0	57	0	345505792	57	5233
2026-01-21 01:24:03.78	19.32	43.24	-42.8	-46.2	17.9	6.03e-01	0	58	0	347602944	57	5260
2026-01-21 01:24:04.79	19.36	43.59	-42.6	-45.9	18.3	6.05e-01	0	58	0	349175808	57	5058
2026-01-21 01:24:05.80	19.39	43.93	-42.4	-45.6	18.6	6.05e-01	0	58	0	351272960	56	5182
2026-01-21 01:24:06.81	19.43	44.28	-42.4	-45.6	18.6	6.03e-01	0	57	0	353370112	56	5174
2026-01-21 01:24:07.82	19.47	44.64	-42.3	-45.4	18.8	6.03e-01	0	58	0	354942976	56	5047
2026-01-21 01:24:08.83	19.51	44.99	-42.1	-45.1	19.1	6.05e-01	0	58	0	357040128	56	4903
2026-01-21 01:24:09.84	19.55	45.35	-42.1	-45.0	19.2	6.02e-01	0	57	0	358612992	56	4864
2026-01-21 01:24:10.85	19.59	45.72	-42.2	-45.2	19.0	6.02e-01	0	57	0	360710144	56	4961
2026-01-21 01:24:11.86	19.63	46.09	-42.2	-45.1	19.1	6.03e-01	0	57	0	362807296	56	4919
2026-01-21 01:24:12.87	19.68	46.46	-42.1	-45.0	19.2	6.05e-01	0	58	0	364380160	56	4845
2026-01-21 01:24:13.88	19.72	46.83	-42.3	-45.4	18.8	6.03e-01	0	58	0	366477312	56	5094
2026-01-21 01:24:14.89	19.76	47.21	-42.4	-45.6	18.6	6.04e-01	0	57	0	368050176	56	5183
2026-01-21 01:24:15.90	19.81	47.59	-42.2	-45.2	18.9	6.04e-01	0	57	0	370147328	56	4975
2026-01-21 01:24:16.91	19.86	47.97	-42.1	-45.0	19.2	6.03e-01	0	58	0	372244480	56	4829
2026-01-21 01:24:17.92	19.91	48.36	-42.1	-45.0	19.2	6.03e-01	0	57	0	373817344	56	4844
2026-01-21 01:24:18.93	19.95	48.75	-42.1	-45.1	19.1	6.05e-01	0	57	0	375914496	56	4912
2026-01-21 01:24:19.94	20.00	49.15	-42.2	-45.2	19.0	6.02e-01	0	58	0	377487360	56	4938
2026-01-21 01:24:20.95	20.06	49.55	-42.2	-45.2	19.1	6.02e-01	0	57	0	379584512	56	4934
2026-01-21 01:24:21.96	20.11	49.95	-42.1	-45.1	19.1	6.06e-01	0	57	0	381681664	56	4898
2026-01-21 01:24:22.97	20.16	50.36	-42.1	-45.1	19.1	6.06e-01	0	58	0	383254528	56	4897
2026-01-21 01:24:23.97	20.22	50.77	-41.8	-44.7	19.4	6.04e-01	0	57	0	385351680	55	4951
2026-01-21 01:24:24.99	20.28	51.19	-41.8	-44.6	19.5	6.05e-01	0	57	0	387448832	55	4911
2026-01-21 01:24:25.99	20.33	51.60	-41.9	-44.8	19.3	6.04e-01	0	57	0	389021696	55	5036
2026-01-21 01:24:27.00	20.39	52.02	-41.7	-44.5	19.6	6.05e-01	0	58	0	391118848	55	4850
2026-01-21 01:24:28.01	20.46	52.45	-41.6	-44.3	19.9	6.03e-01	0	58	0	392691712	55	4728
2026-01-21 01:24:29.02	20.52	52.88	-41.6	-44.4	19.7	6.05e-01	0	58	0	394788864	55	4790
2026-01-21 01:24:30.03	20.58	53.31	-41.6	-44.3	19.8	6.00e-01	0	58	0	396886016	55	4710
2026-01-21 01:24:31.04	20.65	53.75	-41.4	-44.0	20.1	6.04e-01	0	58	0	398458880	54	4863
2026-01-21 01:24:32.05	20.72	54.19	-41.5	-44.2	19.9	6.02e-01	0	57	0	400556032	54	4975
2026-01-21 01:24:33.06	20.79	54.64	-41.7	-44.5	19.6	6.02e-01	0	58	0	402653184	54	5143
2026-01-21 01:24:34.07	20.87	55.09	-41.7	-44.5	19.6	6.03e-01	0	58	0	404226048	54	5145
2026-01-21 01:24:35.08	20.94	55.54	-41.8	-44.6	19.6	6.03e-01	0	58	0	406323200	54	5179
2026-01-21 01:24:36.09	21.02	56.00	-41.8	-44.6	19.5	6.02e-01	0	58	0	407896064	54	5207
2026-01-21 01:24:37.10	21.10	56.46	-42.1	-45.2	19.0	6.01e-01	0	58	0	409993216	54	5538
2026-01-21 01:24:38.11	21.18	56.93	-42.3	-45.4	18.7	6.02e-01	0	58	0	412090368	55	5356
2026-01-21 01:24:39.12	21.27	57.40	-42.2	-45.3	18.8	6.04e-01	0	58	0	413663232	55	5308
2026-01-21 01:24:40.13	21.36	57.87	-42.4	-45.6	18.6	6.07e-01	0	58	0	415760384	55	5485
2026-01-21 01:24:41.14	21.45	58.35	-42.5	-45.8	18.4	6.04e-01	0	58	0	417333248	55	5627
2026-01-21 01:24:42.15	21.54	58.83	-42.6	-46.0	18.1	6.04e-01	0	58	0	419430400	55	5752
2026-01-21 01:24:43.15	21.64	59.31	-42.5	-45.8	18.4	6.02e-01	0	58	0	421527552	55	5613
2026-01-21 01:24:44.16	21.74	59.80	-42.9	-46.3	17.9	6.04e-01	0	57	0	423100416	56	5652
2026-01-21 01:24:45.17	21.85	60.29	-43.0	-46.5	17.8	6.02e-01	0	58	0	425197568	56	5739
2026-01-21 01:24:46.18	21.96	60.79	-43.1	-46.6	17.7	6.03e-01	0	58	0	426770432	56	5827
2026-01-21 01:24:47.19	22.08	61.29	-43.3	-47.1	17.2	6.05e-01	0	58	0	428867584	57	5793
2026-01-21 01:24:48.20	22.19	61.80	-43.3	-47.1	17.1	6.04e-01	0	58	0	430964736	57	5852
2026-01-21 01:24:49.21	22.32	62.31	-43.4	-47.3	17.0	6.04e-01	0	58	0	432537600	57	5924
2026-01-21 01:24:50.22	22.45	62.82	-43.8	-48.2	16.1	6.03e-01	0	58	0	434634752	58	6222
2026-01-21 01:24:51.23	22.58	63.34	-43.7	-47.8	16.4	6.03e-01	0	58	0	436207616	58	5962
2026-01-21 01:24:52.24	22.72	63.86	-44.0	-48.5	15.8	6.03e-01	0	58	0	438304768	58	6425
2026-01-21 01:24:53.25	22.87	64.38	-44.4	-49.5	14.8	6.05e-01	0	58	0	440401920	59	6802
2026-01-21 01:24:54.26	23.02	64.91	-44.3	-49.2	15.0	6.04e-01	0	58	0	441974784	59	6628
2026-01-21 01:24:55.27	23.19	65.44	-44.3	-49.3	14.8	6.04e-01	0	58	0	444071936	59	6692
2026-01-21 01:24:56.28	23.35	65.98	-44.7	-50.3	13.9	6.05e-01	0	58	0	445644800	59	7482
2026-01-21 01:24:57.28	23.53	66.51	-44.5	-50.1	13.6	6.06e-01	0	58	0	447741952	60	6950
2026-01-21 01:24:58.30	23.72	67.06	-44.6	-50.3	13.4	6.06e-01	0	58	0	449839104	60	7104
2026-01-21 01:24:59.31	23.91	67.60	-44.6	-50.6	13.3	6.05e-01	0	58	0	451411968	60	7309
2026-01-21 01:25:00.32	24.12	68.15	-44.8	-51.2	12.6	6.09e-01	0	58	0	453509120	60	7818
2026-01-21 01:25:01.32	24.34	68.70	-44.6	-50.5	13.3	6.06e-01	0	58	0	455606272	60	7244
2026-01-21 01:25:02.33	24.57	69.26	-44.6	-50.6	13.2	6.06e-01	0	58	0	457179136	60	7297
2026-01-21 01:25:03.34	24.81	69.82	-44.5	-50.1	13.7	6.05e-01	0	58	0	459276288	60	6900
2026-01-21 01:25:04.35	25.07	70.38	-44.6	-50.5	13.2	6.09e-01	0	58	0	460849152	60	7271
2026-01-21 01:25:05.36	25.34	70.94	-44.5	-50.1	13.7	6.06e-01	0	58	0	462946304	60	6891
2026-01-21 01:25:06.36	25.63	71.51	-44.4	-49.9	13.8	6.05e-01	0	58	0	465043456	60	6791
2026-01-21 01:25:07.37	25.95	72.08	-44.4	-49.8	13.9	6.04e-01	0	58	0	466616320	60	6715
2026-01-21 01:25:08.38	26.28	72.65	-44.3	-49.6	14.1	6.05e-01	0	58	0	468713472	60	6549
2026-01-21 01:25:09.39	26.64	73.23	-44.1	-49.1	14.6	6.03e-01	0	58	0	470286336	60	6174
2026-01-21 01:25:10.40	27.02	73.80	-44.2	-49.1	15.0	6.06e-01	0	58	0	472383488	59	6548
2026-01-21 01:25:11.41	27.43	74.38	-44.2	-48.9	15.2	6.06e-01	0	58	0	474480640	59	6399
2026-01-21 01:25:12.42	27.88	74.97	-44.3	-49.3	14.8	6.06e-01	0	58	0	476053504	59	6694
2026-01-21 01:25:13.43	28.36	75.55	-44.0	-48.6	15.5	6.03e-01	0	58	0	478150656	59	6171
2026-01-21 01:25:14.44	28.89	76.14	-44.0	-48.7	15.5	6.02e-01	0	58	0	479723520	59	6213
2026-01-21 01:25:15.45	29.46	76.72	-43.9	-48.3	15.8	6.02e-01	0	58	0	481820672	59	5948
2026-01-21 01:25:16.45	30.09	77.30	-43.8	-48.2	15.9	6.05e-01	0	58	0	483917824	59	5907
2026-01-21 01:25:17.46	30.78	77.89	-43.6	-47.7	16.4	6.05e-01	0	58	0	485490688	59	5564
2026-01-21 01:25:18.47	31.54	78.48	-43.5	-47.5	16.6	6.02e-01	0	58	0	487587840	58	5775
2026-01-21 01:25:19.48	32.39	79.07	-43.3	-47.1	17.0	6.02e-01	0	58	0	489160704	58	5527
2026-01-21 01:25:20.49	33.33	79.66	-43.2	-47.0	17.1	6.02e-01	0	58	0	491257856	58	5439
2026-01-21 01:25:21.50	34.39	80.25	-43.0	-46.7	17.5	6.01e-01	0	58	0	493355008	58	5239
2026-01-21 01:25:22.51	35.59	80.83	-42.9	-46.5	17.7	6.04e-01	0	58	0	494927872	57	5425
2026-01-21 01:25:23.52	36.95	81.41	-42.5	-45.8	18.3	6.02e-01	0	58	0	497025024	57	4992
2026-01-21 01:25:24.53	38.51	81.99	-42.5	-45.7	18.5	6.04e-01	0	58	0	499122176	56	5248
2026-01-21 01:25:25.54	40.32	82.57	-42.4	-45.6	18.5	6.03e-01	0	58	0	500695040	56	5184
2026-01-21 01:25:26.55	42.43	83.13	-42.3	-45.4	18.7	6.05e-01	0	58	0	502792192	56	5062
2026-01-21 01:25:27.56	44.92	83.69	-42.4	-45.6	18.5	6.03e-01	0	58	0	504365056	56	5189
2026-01-21 01:25:28.57	47.88	84.23	-42.4	-45.7	18.4	6.01e-01	0	58	0	506462208	56	5225
2026-01-21 01:25:29.58	51.46	84.76	-42.5	-45.7	18.4	6.02e-01	0	58	0	508559360	56	5252
2026-01-21 01:25:30.59	55.81	85.26	-42.7	-46.1	18.0	6.04e-01	0	58	0	510132224	56	5474
2026-01-21 01:25:31.60	61.16	85.73	-42.6	-46.0	18.1	6.02e-01	0	58	0	512229376	56	5427
2026-01-21 01:25:32.61	67.76	86.15	-42.4	-45.7	18.4	6.02e-01	0	58	0	513802240	56	5228
2026-01-21 01:25:33.61	75.76	86.51	-42.4	-45.6	18.5	6.03e-01	0	58	0	515899392	56	5194
2026-01-21 01:25:34.62	85.46	86.79	-42.5	-45.8	18.3	6.02e-01	0	58	0	517996544	56	5297
2026-01-21 01:25:35.63	96.61	86.96	-42.2	-45.3	18.8	6.03e-01	0	58	0	519569408	56	5025
2026-01-21 01:25:36.64	108.57	87.00	-42.4	-45.7	18.4	6.03e-01	0	58	0	521666560	56	5220
2026-01-21 01:25:37.65	120.38	86.92	-42.4	-45.7	18.4	6.02e-01	0	58	0	523763712	56	5226
2026-01-21 01:25:38.66	131.12	86.71	-42.3	-45.5	18.6	6.05e-01	0	58	0	525336576	56	5111
2026-01-21 01:25:39.67	140.31	86.40	-42.4	-45.6	18.4	6.05e-01	0	58	0	527433728	56	5172
2026-01-21 01:25:40.68	147.90	86.02	-42.4	-45.7	18.5	6.01e-01	0	58	0	529006592	56	5226
2026-01-21 01:25:41.69	154.07	85.58	-42.5	-45.8	18.3	6.06e-01	0	58	0	531103744	56	5307
2026-01-21 01:25:42.70	159.07	85.10	-42.5	-45.8	18.3	6.04e-01	0	58	0	533200896	56	5301
2026-01-21 01:25:43.71	163.16	84.59	-42.9	-46.4	17.6	6.04e-01	0	58	0	534773760	56	5718
2026-01-21 01:25:44.72	166.52	84.06	-42.8	-46.2	17.7	6.04e-01	0	58	0	536870912	56	5589
2026-01-21 01:25:45.73	169.32	83.51	-43.0	-46.6	17.4	6.01e-01	0	58	0	538443776	56	5855
2026-01-21 01:25:46.74	171.67	82.95	-42.6	-46.0	18.1	6.05e-01	0	58	0	540540928	56	5421
2026-01-21 01:25:47.75	173.68	82.38	-42.7	-46.1	18.0	6.04e-01	0	58	0	542638080	56	5498
2026-01-21 01:25:48.76	175.40	81.80	-42.8	-46.3	17.7	6.02e-01	0	58	0	544210944	56	5612
2026-01-21 01:25:49.77	176.90	81.22	-42.5	-45.8	18.3	6.04e-01	0	58	0	546308096	56	5303
2026-01-21 01:25:50.78	178.20	80.64	-42.6	-45.9	18.2	6.02e-01	0	58	0	547880960	56	5382
2026-01-21 01:25:51.79	179.36	80.05	-42.8	-46.2	17.8	6.02e-01	0	58	0	549978112	56	5577
2026-01-21 01:25:52.80	180.38	79.47	-42.9	-46.5	17.6	6.01e-01	0	58	0	552075264	56	5727
2026-01-21 01:25:53.81	181.29	78.88	-42.9	-46.4	17.7	6.04e-01	0	58	0	553648128	56	5692
2026-01-21 01:25:54.82	182.11	78.29	-43.5	-47.7	16.4	6.03e-01	0	58	0	555745280	57	6246
2026-01-21 01:25:55.82	182.84	77.70	-43.4	-47.4	16.6	6.03e-01	0	58	0	557318144	57	6050
2026-01-21 01:25:56.83	183.51	77.11	-43.6	-47.9	16.2	6.05e-01	0	58	0	559415296	57	6377
2026-01-21 01:25:57.84	184.12	76.52	-43.9	-48.3	15.5	6.03e-01	0	58	0	561512448	58	6339
2026-01-21 01:25:58.85	184.67	75.94	-44.3	-49.4	14.5	6.05e-01	0	58	0	563085312	59	6801
2026-01-21 01:25:59.86	185.19	75.35	-44.2	-49.0	15.0	6.05e-01	0	58	0	565182464	59	6483
2026-01-21 01:26:00.87	185.66	74.77	-43.9	-48.5	15.6	6.04e-01	0	58	0	567279616	59	6076
2026-01-21 01:26:01.88	186.09	74.18	-44.2	-49.2	14.8	6.03e-01	0	58	0	568852480	59	6598
2026-01-21 01:26:02.89	186.50	73.60	-44.2	-49.2	14.9	6.08e-01	0	58	0	570949632	59	6575
2026-01-21 01:26:03.90	186.87	73.03	-43.8	-48.3	15.8	6.03e-01	0	58	0	572522496	59	5926
2026-01-21 01:26:04.91	187.22	72.45	-44.0	-48.7	15.4	6.05e-01	0	58	0	574619648	59	6233
2026-01-21 01:26:05.92	187.55	71.88	-44.1	-49.0	15.1	6.03e-01	0	58	0	576716800	59	6429
2026-01-21 01:26:06.93	187.85	71.30	-44.3	-49.4	14.7	6.02e-01	0	58	0	578289664	59	6727
2026-01-21 01:26:07.93	188.14	70.74	-44.1	-48.9	15.2	6.02e-01	0	58	0	580386816	59	6375
2026-01-21 01:26:08.94	188.41	70.18	-44.4	-49.7	14.3	6.02e-01	0	58	0	581959680	59	7026
2026-01-21 01:26:09.95	188.66	69.61	-44.6	-50.6	13.0	6.05e-01	0	58	0	584056832	60	7308
2026-01-21 01:26:10.96	188.90	69.06	-44.3	-49.8	13.8	6.02e-01	0	58	0	586153984	60	6714
2026-01-21 01:26:11.97	189.13	68.50	-44.3	-49.9	13.6	6.05e-01	0	58	0	587726848	60	6746
2026-01-21 01:26:12.98	189.34	67.95	-44.4	-50.2	13.5	6.06e-01	0	58	0	589824000	60	6969
2026-01-21 01:26:13.99	189.54	67.40	-44.5	-50.3	13.4	6.05e-01	0	58	0	591396864	60	7047
2026-01-21 01:26:15.00	189.73	66.85	-44.5	-50.3	13.2	6.06e-01	0	58	0	593494016	60	7105
2026-01-21 01:26:16.01	189.92	66.31	-44.0	-48.8	14.8	6.04e-01	0	58	0	595591168	60	5983
2026-01-21 01:26:17.02	190.09	65.77	-44.1	-48.7	15.3	6.01e-01	0	58	0	597164032	59	6237
2026-01-21 01:26:18.03	190.26	65.23	-44.1	-48.8	15.2	6.02e-01	0	58	0	599261184	59	6345
2026-01-21 01:26:19.03	190.41	64.71	-44.3	-49.2	14.8	6.05e-01	0	58	0	600834048	59	6621
2026-01-21 01:26:20.04	190.57	64.18	-44.0	-48.5	15.6	6.04e-01	0	58	0	602931200	59	6079
2026-01-21 01:26:21.05	190.71	63.65	-43.8	-48.2	15.9	6.05e-01	0	58	0	605028352	59	5894
2026-01-21 01:26:22.06	190.85	63.13	-43.5	-47.6	16.5	6.03e-01	0	58	0	606601216	59	5473
2026-01-21 01:26:23.07	190.98	62.62	-43.7	-47.9	16.3	6.03e-01	0	58	0	608698368	59	5658
2026-01-21 01:26:24.08	191.11	62.10	-43.7	-47.9	16.2	6.03e-01	0	58	0	610271232	59	5682
2026-01-21 01:26:25.09	191.23	61.59	-43.5	-47.6	16.5	6.04e-01	0	58	0	612368384	59	5474
2026-01-21 01:26:26.10	191.35	61.09	-43.1	-46.7	17.4	6.03e-01	0	58	0	614465536	58	5255
2026-01-21 01:26:27.11	191.46	60.59	-43.3	-47.0	17.1	6.07e-01	0	58	0	616038400	58	5460
2026-01-21 01:26:28.12	191.57	60.09	-43.5	-47.6	16.5	6.03e-01	0	57	0	618135552	58	5802
2026-01-21 01:26:29.13	191.68	59.60	-43.5	-47.4	16.6	6.02e-01	0	58	0	620232704	58	5722
2026-01-21 01:26:30.14	191.78	59.11	-43.2	-47.0	17.1	6.03e-01	0	58	0	621805568	58	5412
2026-01-21 01:26:31.15	191.87	58.62	-43.0	-46.6	17.5	6.03e-01	0	58	0	623902720	58	5215
2026-01-21 01:26:32.17	191.97	58.13	-42.7	-46.0	18.1	6.04e-01	0	58	0	625475584	57	5158
2026-01-21 01:26:33.18	192.06	57.66	-42.7	-46.1	18.1	6.04e-01	0	58	0	627572736	57	5167
2026-01-21 01:26:34.18	192.15	57.19	-42.8	-46.3	17.8	6.05e-01	0	58	0	629669888	57	5298
2026-01-21 01:26:35.20	192.23	56.71	-42.4	-45.5	18.6	6.04e-01	0	58	0	631242752	56	5138
2026-01-21 01:26:36.20	192.31	56.25	-42.4	-45.5	18.6	6.04e-01	0	58	0	633339904	56	5140
2026-01-21 01:26:37.21	192.39	55.79	-42.1	-45.1	18.9	6.04e-01	0	58	0	635437056	56	4921
2026-01-21 01:26:38.22	192.47	55.33	-41.8	-44.7	19.3	6.03e-01	0	58	0	637009920	55	4933
2026-01-21 01:26:39.23	192.55	54.88	-41.6	-44.4	19.6	6.01e-01	0	58	0	639107072	55	4782
2026-01-21 01:26:40.24	192.62	54.43	-41.7	-44.5	19.5	6.03e-01	0	58	0	640679936	55	4854
2026-01-21 01:26:41.25	192.69	53.98	-41.5	-44.3	19.7	6.03e-01	0	58	0	642777088	55	4721
2026-01-21 01:26:42.26	192.76	53.54	-41.2	-43.8	20.2	6.05e-01	0	58	0	644874240	54	4716
2026-01-21 01:26:43.27	192.82	53.10	-41.2	-43.8	20.2	6.05e-01	0	58	0	646447104	54	4732
2026-01-21 01:26:44.28	192.89	52.67	-41.4	-44.0	20.0	6.04e-01	0	58	0	648544256	54	4848
2026-01-21 01:26:45.29	192.95	52.24	-41.6	-44.4	19.6	6.01e-01	0	58	0	650117120	54	5070
2026-01-21 01:26:46.30	193.01	51.81	-41.5	-44.3	19.7	6.02e-01	0	58	0	652214272	54	4999
2026-01-21 01:26:47.31	193.07	51.39	-41.5	-44.2	19.8	6.06e-01	0	58	0	654311424	54	4937
2026-01-21 01:26:48.32	193.13	50.97	-41.8	-44.7	19.3	6.04e-01	0	58	0	655884288	54	5254
2026-01-21 01:26:49.33	193.18	50.56	-42.1	-45.1	18.9	6.03e-01	0	58	0	657981440	54	5491
2026-01-21 01:26:50.34	193.24	50.15	-42.0	-45.1	18.9	6.04e-01	0	58	0	659554304	54	5472
2026-01-21 01:26:51.35	193.29	49.74	-42.1	-45.2	18.8	6.05e-01	0	58	0	661651456	54	5559
2026-01-21 01:26:52.36	193.34	49.34	-42.2	-45.3	18.7	6.05e-01	0	58	0	663748608	54	5620
2026-01-21 01:26:53.37	193.40	48.94	-42.2	-45.4	18.6	6.04e-01	0	58	0	665321472	54	5657
2026-01-21 01:26:54.38	193.44	48.54	-42.2	-45.2	18.7	6.03e-01	0	58	0	667418624	55	5279
2026-01-21 01:26:55.39	193.49	48.15	-42.1	-45.1	18.8	6.01e-01	0	58	0	668991488	55	5209
2026-01-21 01:26:56.40	193.54	47.76	-42.2	-45.3	18.7	6.03e-01	0	58	0	671088640	55	5285
2026-01-21 01:26:57.41	193.59	47.37	-42.2	-45.4	18.6	6.02e-01	0	58	0	673185792	55	5355
2026-01-21 01:26:58.42	193.63	46.99	-42.2	-45.3	18.6	6.03e-01	0	58	0	674758656	55	5306
2026-01-21 01:26:59.42	193.68	46.62	-42.2	-45.3	18.7	6.05e-01	0	58	0	676855808	55	5303
2026-01-21 01:27:00.43	193.72	46.24	-42.2	-45.4	18.6	6.05e-01	0	58	0	678428672	55	5346
2026-01-21 01:27:01.44	193.76	45.87	-42.2	-45.4	18.5	6.03e-01	0	58	0	680525824	55	5379
2026-01-21 01:27:02.45	193.80	45.51	-42.3	-45.6	18.4	6.03e-01	0	58	0	682622976	55	5467
2026-01-21 01:27:03.46	193.84	45.14	-42.2	-45.3	18.6	6.04e-01	0	58	0	684195840	55	5331
2026-01-21 01:27:04.47	193.88	44.78	-42.2	-45.4	18.6	6.05e-01	0	58	0	686292992	55	5347
2026-01-21 01:27:05.48	193.92	44.43	-42.2	-45.4	18.6	6.03e-01	0	58	0	688390144	55	5357
2026-01-21 01:27:06.49	193.96	44.07	-42.2	-45.3	18.6	6.03e-01	0	58	0	689963008	55	5299
2026-01-21 01:27:07.50	194.00	43.72	-42.2	-45.3	18.6	6.05e-01	0	58	0	692060160	55	5310
2026-01-21 01:27:08.51	194.03	43.37	-42.2	-45.3	18.6	6.05e-01	0	58	0	693633024	55	5332
2026-01-21 01:27:09.51	194.07	43.03	-42.1	-45.2	18.8	6.03e-01	0	58	0	695730176	55	5229
2026-01-21 01:27:10.52	194.10	42.69	-42.2	-45.3	18.7	6.03e-01	0	58	0	697827328	55	5281
2026-01-21 01:27:11.53	194.14	42.36	-42.3	-45.5	18.4	6.04e-01	0	58	0	699400192	55	5421
2026-01-21 01:27:12.54	194.17	42.02	-42.5	-45.8	18.1	6.03e-01	0	58	0	701497344	55	5638
2026-01-21 01:27:13.55	194.20	41.69	-42.6	-46.1	17.8	6.05e-01	0	58	0	703594496	55	5808
2026-01-21 01:27:14.56	194.24	41.36	-42.7	-46.2	17.7	6.06e-01	0	58	0	705167360	55	5910
2026-01-21 01:27:15.57	194.27	41.04	-42.9	-46.5	17.5	6.02e-01	0	58	0	707264512	56	5782
2026-01-21 01:27:16.58	194.30	40.72	-43.1	-46.8	17.3	6.03e-01	0	58	0	708837376	56	5935
2026-01-21 01:27:17.59	194.33	40.40	-43.0	-46.7	17.3	6.04e-01	0	58	0	710934528	56	5872
2026-01-21 01:27:18.60	194.36	40.08	-42.9	-46.5	17.4	6.04e-01	0	58	0	713031680	56	5776
2026-01-21 01:27:19.61	194.39	39.77	-42.9	-46.5	17.5	6.06e-01	0	58	0	714604544	56	5762
2026-01-21 01:27:20.62	194.42	39.46	-42.9	-46.5	17.5	6.03e-01	0	58	0	716701696	56	5773
2026-01-21 01:27:21.63	194.45	39.15	-42.9	-46.4	17.5	6.02e-01	0	58	0	718274560	56	5714
2026-01-21 01:27:22.64	194.48	38.85	-43.0	-46.5	17.5	6.03e-01	0	58	0	720371712	56	5781
2026-01-21 01:27:23.65	194.51	38.55	-43.0	-46.7	17.3	6.03e-01	0	58	0	722468864	56	5867
2026-01-21 01:27:24.66	194.53	38.25	-43.1	-46.9	17.1	6.04e-01	0	58	0	724041728	56	6034
2026-01-21 01:27:25.67	194.56	37.95	-43.1	-46.9	17.1	6.02e-01	0	58	0	726138880	56	6004
2026-01-21 01:27:26.67	194.59	37.66	-43.2	-47.0	17.0	6.03e-01	0	58	0	727711744	56	6071
2026-01-21 01:27:27.69	194.61	37.37	-43.1	-46.8	17.2	6.03e-01	0	58	0	729808896	56	5944
2026-01-21 01:27:28.69	194.64	37.08	-43.0	-46.7	17.3	6.02e-01	0	58	0	731906048	56	5895
2026-01-21 01:27:29.70	194.66	36.80	-42.9	-46.4	17.5	6.03e-01	0	58	0	733478912	56	5706
2026-01-21 01:27:30.71	194.69	36.52	-42.7	-46.1	17.9	6.04e-01	0	58	0	735576064	56	5477
2026-01-21 01:27:31.72	194.71	36.24	-42.5	-45.8	18.1	6.05e-01	0	58	0	737148928	56	5326
2026-01-21 01:27:32.73	194.74	35.96	-42.6	-45.9	18.1	6.04e-01	0	58	0	739246080	56	5358
2026-01-21 01:27:33.74	194.76	35.68	-42.5	-45.7	18.2	6.02e-01	0	58	0	741343232	56	5266
2026-01-21 01:27:34.75	194.78	35.41	-42.4	-45.7	18.3	6.03e-01	0	58	0	742916096	56	5225
2026-01-21 01:27:35.76	194.81	35.14	-42.5	-45.8	18.2	6.04e-01	0	58	0	745013248	56	5297
2026-01-21 01:27:36.77	194.83	34.87	-42.4	-45.7	18.3	6.04e-01	0	58	0	746586112	56	5243
2026-01-21 01:27:37.77	194.85	34.61	-42.4	-45.7	18.3	6.03e-01	0	58	0	748683264	56	5233
2026-01-21 01:27:38.78	194.87	34.35	-42.3	-45.5	18.5	6.03e-01	0	58	0	750780416	56	5102
2026-01-21 01:27:39.79	194.89	34.09	-42.2	-45.3	18.7	6.04e-01	0	58	0	752353280	56	4988
2026-01-21 01:27:40.80	194.92	33.83	-42.0	-45.1	18.9	6.05e-01	0	58	0	754450432	56	4880
2026-01-21 01:27:41.81	194.94	33.57	-42.1	-45.1	18.9	6.04e-01	0	58	0	756547584	56	4900
2026-01-21 01:27:42.82	194.96	33.32	-42.0	-45.0	19.0	6.03e-01	0	58	0	758120448	56	4823
2026-01-21 01:27:43.83	194.98	33.07	-41.8	-44.8	19.0	6.01e-01	0	58	0	760217600	55	4995
2026-01-21 01:27:44.84	195.00	32.82	-41.9	-44.9	18.9	6.04e-01	0	58	0	761790464	55	5062
2026-01-21 01:27:45.85	195.02	32.57	-41.7	-44.5	19.3	6.03e-01	0	58	0	763887616	55	4838
2026-01-21 01:27:46.85	195.04	32.33	-41.5	-44.3	19.5	6.02e-01	0	58	0	765984768	55	4728
2026-01-21 01:27:47.86	195.06	32.09	-41.5	-44.3	19.5	6.04e-01	0	58	0	767557632	55	4725
2026-01-21 01:27:48.87	195.08	31.85	-41.5	-44.3	19.6	6.01e-01	0	58	0	769654784	55	4718
2026-01-21 01:27:49.88	195.10	31.61	-41.4	-44.1	19.8	6.01e-01	0	58	0	771227648	54	4885
2026-01-21 01:27:50.89	195.12	31.37	-41.3	-44.0	19.8	6.02e-01	0	58	0	773324800	54	4861
2026-01-21 01:27:51.90	195.13	31.14	-41.4	-44.1	19.7	6.05e-01	0	58	0	775421952	54	4902
2026-01-21 01:27:52.91	195.15	30.90	-41.4	-44.2	19.6	6.01e-01	0	58	0	776994816	54	4948
2026-01-21 01:27:53.92	195.17	30.67	-41.5	-44.3	19.6	6.04e-01	0	58	0	779091968	54	4989
2026-01-21 01:27:54.93	195.19	30.44	-41.6	-44.4	19.4	6.06e-01	0	58	0	780664832	54	5085
2026-01-21 01:27:55.94	195.21	30.22	-41.4	-44.3	19.6	6.04e-01	0	58	0	782761984	54	4987
2026-01-21 01:27:56.95	195.22	29.99	-41.4	-44.2	19.6	6.02e-01	0	58	0	784859136	54	4973
2026-01-21 01:27:57.96	195.24	29.77	-41.5	-44.2	19.5	6.03e-01	0	58	0	786432000	54	4977
2026-01-21 01:27:58.97	195.26	29.55	-41.4	-44.2	19.5	6.05e-01	0	58	0	788529152	54	4974
2026-01-21 01:27:59.98	195.27	29.33	-41.4	-44.2	19.5	6.04e-01	0	58	0	790102016	54	4967
2026-01-21 01:28:00.98	195.29	29.11	-41.5	-44.2	19.5	6.03e-01	0	58	0	792199168	54	4981
2026-01-21 01:28:02.00	195.31	28.90	-41.4	-44.1	19.6	6.06e-01	0	58	0	794296320	54	4911
2026-01-21 01:28:03.01	195.32	28.68	-41.4	-44.2	19.6	6.06e-01	0	58	0	795869184	54	4927
2026-01-21 01:28:04.02	195.34	28.47	-41.3	-44.0	19.7	6.04e-01	0	58	0	797966336	54	4856
2026-01-21 01:28:05.03	195.36	28.26	-41.2	-43.9	19.8	6.01e-01	0	58	0	799539200	54	4790
2026-01-21 01:28:06.04	195.37	28.05	-41.3	-43.9	19.8	6.01e-01	0	58	0	801636352	54	4808
2026-01-21 01:28:07.05	195.39	27.84	-41.2	-43.8	19.9	6.03e-01	0	58	0	803733504	54	4740
2026-01-21 01:28:08.06	195.40	27.64	-41.2	-43.8	19.9	6.03e-01	0	58	0	805306368	54	4749
2026-01-21 01:28:09.07	195.42	27.43	-41.3	-44.0	19.8	6.04e-01	0	58	0	807403520	54	4830
2026-01-21 01:28:10.07	195.43	27.23	-41.3	-44.1	19.7	6.03e-01	0	58	0	809500672	54	4875
2026-01-21 01:28:11.08	195.45	27.03	-41.4	-44.2	19.6	6.05e-01	0	58	0	811073536	54	4961
2026-01-21 01:28:12.09	195.46	26.83	-41.5	-44.3	19.5	6.07e-01	0	58	0	813170688	54	4989
2026-01-21 01:28:13.10	195.48	26.64	-41.6	-44.4	19.3	6.04e-01	0	58	0	814743552	54	5085
2026-01-21 01:28:14.11	195.49	26.44	-41.7	-44.6	19.2	6.04e-01	0	58	0	816840704	54	5176
2026-01-21 01:28:15.13	195.51	26.24	-41.7	-44.7	19.1	6.02e-01	0	58	0	818937856	54	5242
2026-01-21 01:28:16.13	195.52	26.05	-41.8	-44.7	19.0	6.05e-01	0	58	0	820510720	54	5270
2026-01-21 01:28:17.14	195.54	25.86	-41.8	-44.9	18.9	6.05e-01	0	58	0	822607872	54	5343
2026-01-21 01:28:18.15	195.55	25.67	-41.8	-44.8	18.9	6.06e-01	0	58	0	824705024	54	5327
2026-01-21 01:28:19.16	195.56	25.48	-41.8	-44.8	18.9	6.05e-01	0	58	0	826277888	54	5335
2026-01-21 01:28:20.17	195.58	25.30	-41.8	-44.9	18.9	6.02e-01	0	58	0	828375040	54	5343
2026-01-21 01:28:21.18	195.59	25.11	-41.9	-45.0	18.8	6.05e-01	0	58	0	829947904	54	5433
2026-01-21 01:28:22.19	195.60	24.93	-41.9	-45.0	18.7	6.02e-01	0	58	0	832045056	54	5443
2026-01-21 01:28:23.20	195.62	24.74	-42.0	-45.1	18.6	6.03e-01	0	58	0	834142208	54	5512
2026-01-21 01:28:24.21	195.63	24.56	-42.0	-45.2	18.6	6.04e-01	0	58	0	835715072	54	5530
2026-01-21 01:28:25.22	195.64	24.38	-42.0	-45.2	18.5	6.03e-01	0	58	0	837812224	54	5577
2026-01-21 01:28:26.23	195.66	24.20	-42.1	-45.3	18.4	6.01e-01	0	58	0	839385088	54	5636
2026-01-21 01:28:27.24	195.67	24.03	-42.1	-45.3	18.4	6.03e-01	0	58	0	841482240	54	5643
2026-01-21 01:28:28.25	195.68	23.85	-42.1	-45.3	18.4	6.05e-01	0	58	0	843055104	54	5654
2026-01-21 01:28:29.25	195.70	23.68	-42.1	-45.3	18.4	6.05e-01	0	58	0	845152256	54	5642
2026-01-21 01:28:30.26	195.71	23.50	-42.1	-45.3	18.4	6.02e-01	0	58	0	847249408	54	5640
2026-01-21 01:28:31.27	195.72	23.33	-42.1	-45.3	18.4	6.02e-01	0	58	0	848822272	54	5647
2026-01-21 01:28:32.28	195.73	23.16	-42.1	-45.3	18.4	6.04e-01	0	58	0	850919424	54	5613
2026-01-21 01:28:33.29	195.74	22.99	-42.1	-45.3	18.4	6.04e-01	0	58	0	853016576	54	5597
2026-01-21 01:28:34.30	195.76	22.82	-42.0	-45.2	18.5	6.05e-01	0	58	0	854589440	54	5582
2026-01-21 01:28:35.31	195.77	22.65	-42.0	-45.2	18.4	6.04e-01	0	58	0	856686592	54	5592
2026-01-21 01:28:36.32	195.78	22.49	-42.0	-45.2	18.5	6.05e-01	0	58	0	858259456	54	5558
2026-01-21 01:28:37.33	195.79	22.32	-42.0	-45.1	18.5	6.04e-01	0	58	0	860356608	54	5516
2026-01-21 01:28:38.34	195.80	22.16	-42.0	-45.1	18.5	6.03e-01	0	58	0	862453760	54	5525
2026-01-21 01:28:39.35	195.82	22.00	-42.0	-45.2	18.5	6.02e-01	0	58	0	864026624	54	5534
2026-01-21 01:28:40.36	195.83	21.83	-41.9	-45.1	18.6	6.04e-01	0	58	0	866123776	54	5487
2026-01-21 01:28:41.37	195.84	21.67	-42.0	-45.1	18.6	6.04e-01	0	58	0	867696640	54	5484
2026-01-21 01:28:42.38	195.85	21.51	-41.9	-45.0	18.7	6.04e-01	0	58	0	869793792	54	5442
2026-01-21 01:28:43.39	195.86	21.36	-41.9	-45.0	18.7	6.04e-01	0	58	0	871890944	54	5418
2026-01-21 01:28:44.40	195.87	21.20	-41.9	-45.0	18.6	6.04e-01	0	58	0	873463808	54	5453
2026-01-21 01:28:45.41	195.88	21.04	-41.9	-45.0	18.7	6.03e-01	0	58	0	875560960	54	5461
2026-01-21 01:28:46.42	195.90	20.89	-41.9	-45.0	18.6	6.04e-01	0	58	0	877658112	54	5457
2026-01-21 01:28:47.42	195.91	20.73	-41.9	-45.0	18.6	6.02e-01	0	58	0	879230976	54	5464
2026-01-21 01:28:48.43	195.92	20.58	-41.9	-45.1	18.6	6.04e-01	0	58	0	881328128	54	5468
2026-01-21 01:28:49.44	195.93	20.43	-41.9	-45.1	18.6	6.04e-01	0	58	0	882900992	54	5496
2026-01-21 01:28:50.45	195.94	20.28	-42.0	-45.2	18.5	6.04e-01	0	58	0	884998144	54	5539
2026-01-21 01:28:51.46	195.95	20.13	-42.0	-45.2	18.4	6.01e-01	0	58	0	887095296	54	5566
2026-01-21 01:28:52.47	195.96	19.98	-42.0	-45.2	18.4	6.02e-01	0	58	0	888668160	54	5569
2026-01-21 01:28:53.48	195.97	19.83	-42.0	-45.2	18.4	6.03e-01	0	58	0	890765312	54	5573
2026-01-21 01:28:54.49	195.98	19.68	-42.0	-45.2	18.5	6.04e-01	0	58	0	892338176	54	5530
2026-01-21 01:28:55.50	195.99	19.54	-41.9	-45.1	18.5	6.04e-01	0	58	0	894435328	54	5508
2026-01-21 01:28:56.51	196.00	19.39	-41.9	-45.1	18.5	6.02e-01	0	58	0	896532480	54	5523
2026-01-21 01:28:57.52	196.01	19.25	-42.0	-45.2	18.5	6.02e-01	0	58	0	898105344	54	5534
2026-01-21 01:28:58.53	196.02	19.10	-42.0	-45.2	18.5	6.04e-01	0	58	0	900202496	54	5531
2026-01-21 01:28:59.54	196.03	18.96	-42.0	-45.2	18.5	6.04e-01	0	58	0	901775360	54	5530
2026-01-21 01:29:00.55	196.04	18.82	-41.9	-45.1	18.5	6.05e-01	0	58	0	903872512	54	5507
2026-01-21 01:29:01.56	196.05	18.68	-42.0	-45.2	18.5	6.03e-01	0	58	0	905969664	54	5531
2026-01-21 01:29:02.57	196.06	18.54	-41.9	-45.1	18.5	6.02e-01	0	58	0	907542528	54	5516
2026-01-21 01:29:03.58	196.07	18.40	-41.9	-45.1	18.5	6.03e-01	0	58	0	909639680	54	5492
2026-01-21 01:29:04.58	196.08	18.26	-42.0	-45.2	18.4	6.02e-01	0	58	0	911212544	54	5552
2026-01-21 01:29:05.59	196.09	18.12	-41.9	-45.1	18.5	6.01e-01	0	58	0	913309696	54	5522
2026-01-21 01:29:06.60	196.10	17.99	-41.9	-45.1	18.5	6.03e-01	0	58	0	915406848	54	5473
2026-01-21 01:29:07.61	196.11	17.85	-41.9	-45.0	18.6	6.03e-01	0	58	0	916979712	54	5451
2026-01-21 01:29:08.62	196.12	17.72	-41.9	-45.0	18.6	6.02e-01	0	58	0	919076864	54	5452
2026-01-21 01:29:09.63	196.13	17.58	-41.9	-45.1	18.5	6.04e-01	0	58	0	921174016	54	5472
2026-01-21 01:29:10.64	196.14	17.45	-41.9	-45.1	18.5	6.03e-01	0	58	0	922746880	54	5523
2026-01-21 01:29:11.65	196.15	17.32	-41.9	-45.2	18.4	6.02e-01	0	58	0	924844032	54	5542
2026-01-21 01:29:12.66	196.16	17.19	-42.0	-45.2	18.4	6.01e-01	0	58	0	926416896	54	5561
2026-01-21 01:29:13.67	196.16	17.06	-41.9	-45.1	18.5	6.04e-01	0	58	0	928514048	54	5500
2026-01-21 01:29:14.68	196.17	16.92	-41.9	-45.1	18.5	6.04e-01	0	58	0	930611200	54	5505
2026-01-21 01:29:15.69	196.18	16.80	-41.9	-45.1	18.4	6.02e-01	0	58	0	932184064	54	5526
2026-01-21 01:29:16.70	196.19	16.67	-42.0	-45.2	18.4	6.05e-01	0	58	0	934281216	54	5568
2026-01-21 01:29:17.71	196.20	16.54	-42.0	-45.3	18.4	6.02e-01	0	58	0	935854080	54	5597
2026-01-21 01:29:18.72	196.21	16.41	-42.1	-45.4	18.2	6.05e-01	0	58	0	937951232	54	5686
2026-01-21 01:29:19.73	196.22	16.29	-42.1	-45.5	18.1	6.02e-01	0	58	0	940048384	54	5744
2026-01-21 01:29:20.74	196.23	16.16	-42.0	-45.3	18.3	6.03e-01	0	58	0	941621248	54	5607
2026-01-21 01:29:21.75	196.24	16.03	-41.9	-45.2	18.4	6.05e-01	0	58	0	943718400	54	5535
2026-01-21 01:29:22.75	196.24	15.91	-41.9	-45.1	18.5	6.03e-01	0	58	0	945815552	54	5483
2026-01-21 01:29:23.76	196.25	15.79	-41.9	-45.1	18.4	6.05e-01	0	58	0	947388416	54	5525
2026-01-21 01:29:24.77	196.26	15.67	-41.9	-45.1	18.4	6.04e-01	0	58	0	949485568	54	5483
2026-01-21 01:29:25.78	196.27	15.54	-41.8	-44.9	18.4	6.04e-01	0	58	0	951058432	54	5382
2026-01-21 01:29:26.79	196.28	15.42	-41.8	-45.0	18.5	6.03e-01	0	58	0	953155584	54	5421
2026-01-21 01:29:27.80	196.29	15.30	-41.8	-45.1	18.5	6.02e-01	0	58	0	955252736	54	5465
2026-01-21 01:29:28.81	196.29	15.18	-41.8	-45.0	18.5	6.04e-01	0	58	0	956825600	54	5455
2026-01-21 01:29:29.82	196.30	15.06	-41.9	-45.1	18.4	6.03e-01	0	58	0	958922752	54	5476
2026-01-21 01:29:30.83	196.31	14.94	-41.8	-45.0	18.5	6.02e-01	0	58	0	960495616	54	5457
2026-01-21 01:29:31.84	196.32	14.82	-41.7	-44.9	18.6	6.04e-01	0	58	0	962592768	54	5350
2026-01-21 01:29:32.85	196.33	14.71	-41.7	-44.9	18.6	6.05e-01	0	58	0	964689920	54	5356
2026-01-21 01:29:33.86	196.34	14.59	-41.8	-45.0	18.5	6.04e-01	0	58	0	966262784	54	5428
2026-01-21 01:29:34.87	196.34	14.47	-41.8	-44.9	18.5	6.04e-01	0	58	0	968359936	54	5400
2026-01-21 01:29:35.88	196.35	14.36	-41.7	-44.8	18.7	6.03e-01	0	58	0	969932800	54	5297
2026-01-21 01:29:36.89	196.36	14.24	-41.7	-44.8	18.7	6.02e-01	0	58	0	972029952	54	5297
2026-01-21 01:29:37.90	196.37	14.13	-41.7	-44.8	18.6	6.05e-01	0	58	0	974127104	54	5339
2026-01-21 01:29:38.91	196.38	14.01	-41.6	-44.7	18.7	6.04e-01	0	58	0	975699968	54	5270
2026-01-21 01:29:39.92	196.38	13.90	-41.7	-44.8	18.7	6.02e-01	0	58	0	977797120	54	5298
2026-01-21 01:29:40.93	196.39	13.79	-41.6	-44.7	18.7	6.06e-01	0	58	0	979369984	54	5279
2026-01-21 01:29:41.94	196.40	13.67	-41.7	-44.8	18.3	6.02e-01	0	58	0	981467136	54	5333
2026-01-21 01:29:42.95	196.41	13.56	-41.6	-44.8	18.7	6.02e-01	0	58	0	983564288	54	5285
2026-01-21 01:29:43.96	196.42	13.45	-41.7	-44.8	18.6	6.06e-01	0	58	0	985137152	54	5320
2026-01-21 01:29:44.97	196.42	13.34	-41.6	-44.7	18.7	6.06e-01	0	58	0	987234304	54	5233
2026-01-21 01:29:45.98	196.43	13.23	-41.6	-44.8	18.6	6.05e-01	0	58	0	989331456	54	5286
2026-01-21 01:29:46.99	196.44	13.12	-41.7	-44.8	18.6	6.00e-01	0	58	0	990904320	54	5330
2026-01-21 01:29:48.00	196.45	13.01	-41.7	-44.8	18.5	6.05e-01	0	58	0	993001472	54	5339
2026-01-21 01:29:49.01	196.45	12.90	-41.6	-44.8	18.6	6.03e-01	0	58	0	994574336	54	5293
2026-01-21 01:29:50.02	196.46	12.80	-41.6	-44.7	18.6	6.05e-01	0	58	0	996671488	54	5279
2026-01-21 01:29:51.03	196.47	12.69	-41.6	-44.8	18.6	6.05e-01	0	58	0	998768640	54	5294
2026-01-21 01:29:52.04	196.48	12.58	-41.7	-44.9	18.5	6.07e-01	0	58	0	1000341504	54	5360
2026-01-21 01:29:53.05	196.48	12.48	-41.7	-44.8	18.5	6.03e-01	0	58	0	1002438656	54	5339
2026-01-21 01:29:54.06	196.49	12.37	-41.6	-44.8	18.6	6.01e-01	0	58	0	1004011520	54	5282
2026-01-21 01:29:55.07	196.50	12.27	-41.6	-44.8	18.5	6.06e-01	0	58	0	1006108672	54	5320
2026-01-21 01:29:56.07	196.51	12.16	-41.7	-44.9	18.4	6.04e-01	0	58	0	1008205824	54	5380
2026-01-21 01:29:57.08	196.51	12.06	-41.7	-44.9	18.4	6.04e-01	0	58	0	1009778688	54	5375
2026-01-21 01:29:58.09	196.52	11.95	-41.7	-45.0	18.3	5.98e-01	0	58	0	1011875840	54	5404
2026-01-21 01:29:59.11	196.53	11.85	-41.7	-44.9	18.4	6.04e-01	0	58	0	1013972992	54	5372
2026-01-21 01:30:00.12	196.53	11.75	-41.7	-45.0	18.3	6.02e-01	0	58	0	1015545856	54	5442
2026-01-21 01:30:01.12	196.54	11.65	-41.7	-45.0	18.3	6.04e-01	0	58	0	1017643008	54	5421
2026-01-21 01:30:02.13	196.55	11.54	-41.8	-45.1	18.2	6.04e-01	0	58	0	1019215872	54	5487
2026-01-21 01:30:03.14	196.56	11.44	-41.8	-45.1	18.2	6.04e-01	0	58	0	1021313024	54	5510
2026-01-21 01:30:04.15	196.56	11.34	-41.8	-45.2	18.2	6.04e-01	0	58	0	1023410176	54	5537
2026-01-21 01:30:05.16	196.57	11.24	-41.8	-45.2	18.1	6.03e-01	0	58	0	1024983040	54	5538
2026-01-21 01:30:06.17	196.58	11.14	-41.9	-45.3	18.0	6.04e-01	0	58	0	1027080192	54	5624
2026-01-21 01:30:07.18	196.58	11.04	-41.9	-45.3	18.0	6.04e-01	0	58	0	1028653056	54	5620
2026-01-21 01:30:08.19	196.59	10.94	-41.9	-45.3	17.9	6.05e-01	0	58	0	1030750208	54	5629
2026-01-21 01:30:09.20	196.60	10.84	-41.9	-45.4	17.8	6.05e-01	0	58	0	1032847360	54	5691
2026-01-21 01:30:10.21	196.60	10.75	-42.0	-45.5	17.7	6.06e-01	0	58	0	1034420224	54	5748
2026-01-21 01:30:11.22	196.61	10.65	-41.9	-45.3	17.9	6.05e-01	0	58	0	1036517376	54	5656
2026-01-21 01:30:12.23	196.62	10.55	-42.0	-45.5	17.7	6.03e-01	0	58	0	1038090240	54	5769
2026-01-21 01:30:13.23	196.62	10.46	-42.0	-45.6	17.6	6.03e-01	0	58	0	1040187392	54	5798
2026-01-21 01:30:14.24	196.63	10.36	-41.9	-45.5	17.7	6.05e-01	0	58	0	1042284544	54	5727
2026-01-21 01:30:15.26	196.64	10.26	-41.9	-45.4	17.7	6.05e-01	0	58	0	1043857408	54	5715
2026-01-21 01:30:16.27	196.64	10.17	-41.9	-45.5	17.7	6.04e-01	0	58	0	1045954560	54	5731
2026-01-21 01:30:17.27	196.65	10.07	-42.0	-45.6	17.6	6.04e-01	0	58	0	1047527424	54	5792
2026-01-21 01:30:18.28	196.66	9.98	-42.0	-45.5	17.6	6.03e-01	0	58	0	1049624576	54	5761
2026-01-21 01:30:19.29	196.66	9.88	-42.0	-45.6	17.5	6.03e-01	0	58	0	1051721728	54	5822
2026-01-21 01:30:20.30	196.67	9.79	-42.0	-45.7	17.4	6.05e-01	0	58	0	1053294592	54	5870
2026-01-21 01:30:21.31	196.68	9.70	-42.1	-45.7	17.4	6.05e-01	0	58	0	1055391744	54	5902
2026-01-21 01:30:22.32	196.68	9.60	-42.0	-45.7	17.4	6.03e-01	0	58	0	1057488896	54	5891
2026-01-21 01:30:23.33	196.69	9.51	-42.0	-45.7	17.4	6.03e-01	0	58	0	1059061760	54	5908
2026-01-21 01:30:24.34	196.70	9.42	-42.1	-45.8	17.3	6.03e-01	0	58	0	1061158912	54	5929
2026-01-21 01:30:25.35	196.70	9.32	-42.1	-45.8	17.2	6.03e-01	0	58	0	1062731776	54	5981
2026-01-21 01:30:26.36	196.71	9.23	-42.1	-45.8	17.3	6.02e-01	0	58	0	1064828928	54	5939
2026-01-21 01:30:27.37	196.72	9.14	-42.1	-45.9	17.1	6.04e-01	0	58	0	1066926080	54	6009
2026-01-21 01:30:28.38	196.72	9.05	-42.1	-45.9	17.1	6.02e-01	0	58	0	1068498944	54	6030
2026-01-21 01:30:29.39	196.73	8.96	-42.1	-46.0	17.0	6.02e-01	0	58	0	1070596096	54	6087
2026-01-21 01:30:30.40	196.74	8.87	-42.1	-46.0	17.0	6.01e-01	0	58	0	1072168960	54	6062
2026-01-21 01:30:31.41	196.74	8.78	-42.1	-46.0	17.0	6.05e-01	0	58	0	1074266112	54	6077
2026-01-21 01:30:32.42	196.75	8.69	-42.1	-46.0	17.0	6.02e-01	0	58	0	1076363264	54	6074
2026-01-21 01:30:33.43	196.75	8.60	-42.1	-46.0	16.9	6.04e-01	0	58	0	1077936128	54	6128
2026-01-21 01:30:34.44	196.76	8.51	-42.1	-46.1	16.8	6.04e-01	0	58	0	1080033280	54	6133
2026-01-21 01:30:35.45	196.77	8.42	-42.1	-46.1	16.8	6.04e-01	0	58	0	1082130432	54	6158
2026-01-21 01:30:36.46	196.77	8.34	-42.2	-46.2	16.7	6.04e-01	0	58	0	1083703296	54	6233
2026-01-21 01:30:37.47	196.78	8.25	-42.1	-46.1	16.7	6.04e-01	0	58	0	1085800448	54	6169
2026-01-21 01:30:38.48	196.79	8.16	-42.2	-46.3	16.6	6.01e-01	0	58	0	1087373312	54	6298
2026-01-21 01:30:39.49	196.79	8.07	-42.2	-46.2	16.5	6.03e-01	0	58	0	1089470464	54	6271
2026-01-21 01:30:40.50	196.80	7.99	-43.1	-48.0	15.5	6.04e-01	0	58	0	1091567616	56	6840
2026-01-21 01:30:41.51	196.80	7.90	-45.5	-63.8	3.8	7.48e-01	0	58	104	1092091904	61	31609
2026-01-21 01:30:42.52	196.81	7.81	-45.9	-64.4	3.8	7.44e-01	0	58	104	1092091904	62	31906
2026-01-21 01:30:43.53	196.82	7.73	-46.1	-64.7	3.8	7.45e-01	0	58	104	1092091904	62	33019
2026-01-21 01:30:44.54	196.82	7.64	-46.2	-64.8	3.8	7.46e-01	0	58	104	1092091904	62	33387
2026-01-21 01:30:45.55	196.83	7.56	-46.3	-64.9	3.8	7.45e-01	0	58	104	1092091904	63	31911
2026-01-21 01:30:46.56	196.83	7.47	-46.3	-64.9	3.8	7.42e-01	0	58	104	1092091904	63	32020
2026-01-21 01:30:47.57	196.84	7.39	-46.4	-64.9	3.8	7.45e-01	0	58	104	1092091904	63	32058
2026-01-21 01:30:48.58	196.85	7.31	-46.4	-64.9	3.8	7.43e-01	0	58	104	1092091904	63	32088
2026-01-21 01:30:49.59	196.85	7.22	-46.4	-64.9	3.8	7.44e-01	0	58	104	1092091904	63	32053
2026-01-21 01:30:50.60	196.86	7.14	-46.4	-64.9	3.8	7.46e-01	0	58	104	1092091904	63	32055
2026-01-21 01:30:51.61	196.86	7.05	-46.3	-64.9	3.8	7.46e-01	0	58	104	1092091904	63	31945
2026-01-21 01:30:52.62	196.87	6.97	-46.3	-64.9	3.8	7.47e-01	0	58	104	1092091904	63	31932
2026-01-21 01:30:53.63	196.87	6.89	-46.3	-64.9	3.8	7.46e-01	0	58	104	1092091904	63	31925
2026-01-21 01:30:54.64	196.88	6.81	-46.3	-64.9	3.8	7.47e-01	0	58	104	1092091904	63	31896
