passes_logs/2026/01/21/R2.0S_Moscow/R2.0S_Moscow__20260121_010225_SUOMI_NPP_rec.log

#Pass ID: 20260121_010225_SUOMI NPP
#Satellite: SUOMI NPP
#Configuration: NPP
#almurnet v.1.7.20251203
#Start time: 2026-01-21 01:02:25

#Version: 2.2.20231116
#Station: R2.0S_Moscow
#Location: 37.707566 lon 55.798166 lat
#TLE: 1 37849U 11061A   26020.31993517  .00000142  00000+0  88240-4 0  9990
#TLE: 2 37849  98.7818 322.3228 0002330  54.3778 305.7615 14.19527005737466

#Time	Az	El	Level	Level2	SNR	BER	BlckErr	Temp	State	Recorded	gain1	gain2
2026-01-21 01:02:25.45	11.40	2.02	-40.1	-54.7	3.8	1.49e+00	0	49	0	0	51	19795
2026-01-21 01:02:26.45	11.35	2.07	-40.1	-54.7	3.8	1.49e+00	0	49	104	0	51	19743
2026-01-21 01:02:27.46	11.30	2.13	-40.1	-54.7	3.8	1.49e+00	0	49	104	0	51	19768
2026-01-21 01:02:28.47	11.25	2.20	-40.0	-54.7	3.8	1.49e+00	0	49	104	0	51	19770
2026-01-21 01:02:29.48	11.20	2.26	-40.1	-54.7	3.8	1.49e+00	0	49	104	0	51	19799
2026-01-21 01:02:30.49	11.14	2.32	-40.0	-54.7	3.8	1.49e+00	0	49	104	0	51	19781
2026-01-21 01:02:31.50	11.09	2.38	-40.1	-54.7	3.8	1.49e+00	0	49	104	0	51	19818
2026-01-21 01:02:32.51	11.04	2.44	-40.1	-54.7	3.8	1.49e+00	0	49	104	0	51	19785
2026-01-21 01:02:33.52	10.99	2.50	-40.1	-54.7	3.8	1.49e+00	0	49	104	0	51	19767
2026-01-21 01:02:34.53	10.94	2.56	-40.0	-54.7	3.8	1.49e+00	0	49	104	0	51	19784
2026-01-21 01:02:35.54	10.88	2.62	-40.1	-54.7	3.8	1.49e+00	0	50	104	0	51	19773
2026-01-21 01:02:36.56	10.83	2.68	-40.0	-54.7	3.8	1.49e+00	0	50	104	0	51	19780
2026-01-21 01:02:37.57	10.78	2.74	-40.0	-54.7	3.8	1.49e+00	0	50	104	0	51	19748
2026-01-21 01:02:38.57	10.72	2.80	-40.0	-54.7	3.8	1.49e+00	0	50	104	0	51	19811
2026-01-21 01:02:39.58	10.67	2.86	-40.0	-54.7	3.8	1.49e+00	0	50	104	0	51	19748
2026-01-21 01:02:40.59	10.62	2.93	-40.0	-54.7	3.8	1.49e+00	0	50	104	0	51	19838
2026-01-21 01:02:41.60	10.56	2.99	-40.0	-54.7	3.8	1.49e+00	0	50	104	0	51	19736
2026-01-21 01:02:42.61	10.51	3.05	-40.0	-54.7	3.8	1.49e+00	0	50	104	0	51	19756
2026-01-21 01:02:43.62	10.45	3.11	-40.0	-54.7	3.8	1.49e+00	0	50	104	0	51	19701
2026-01-21 01:02:44.63	10.40	3.17	-40.0	-54.7	3.8	1.49e+00	0	50	104	0	51	19731
2026-01-21 01:02:45.64	10.34	3.24	-40.0	-54.7	3.8	1.49e+00	0	50	104	0	51	19793
2026-01-21 01:02:46.65	10.29	3.30	-40.0	-54.7	3.8	1.49e+00	0	50	104	0	51	19776
2026-01-21 01:02:47.66	10.23	3.36	-40.0	-54.7	3.8	1.49e+00	0	50	104	0	51	19787
2026-01-21 01:02:48.67	10.18	3.42	-40.0	-54.7	3.8	1.49e+00	0	50	104	0	51	19745
2026-01-21 01:02:49.68	10.12	3.48	-40.0	-54.7	3.8	1.49e+00	0	50	104	0	51	19690
2026-01-21 01:02:50.69	10.06	3.55	-40.0	-54.7	3.8	1.49e+00	0	50	104	0	51	19747
2026-01-21 01:02:51.70	10.01	3.61	-40.0	-54.7	3.8	1.49e+00	0	51	104	0	51	19765
2026-01-21 01:02:52.71	9.95	3.67	-40.0	-54.7	3.8	1.49e+00	0	50	104	0	51	19798
2026-01-21 01:02:53.72	9.89	3.74	-40.0	-54.7	3.8	1.49e+00	0	51	104	0	51	19731
2026-01-21 01:02:54.73	9.84	3.80	-40.0	-54.7	3.8	1.49e+00	0	51	104	0	51	19754
2026-01-21 01:02:55.74	9.78	3.86	-40.0	-54.7	3.8	1.49e+00	0	51	104	0	51	19737
2026-01-21 01:02:56.75	9.72	3.93	-40.0	-54.7	3.8	1.49e+00	0	51	104	0	51	19712
2026-01-21 01:02:57.77	9.66	3.99	-40.0	-54.7	3.8	1.49e+00	0	51	104	0	51	19709
2026-01-21 01:02:58.78	9.60	4.05	-40.0	-54.7	3.8	1.49e+00	0	51	104	0	51	19698
2026-01-21 01:02:59.79	9.54	4.12	-40.0	-54.7	3.8	1.49e+00	0	51	104	0	51	19701
2026-01-21 01:03:00.80	9.49	4.18	-40.0	-54.7	3.8	1.49e+00	0	51	104	0	51	19700
2026-01-21 01:03:01.81	9.43	4.24	-40.0	-54.7	3.8	1.49e+00	0	51	104	0	51	19703
2026-01-21 01:03:02.82	9.37	4.31	-40.0	-54.7	3.8	1.49e+00	0	51	104	0	51	19718
2026-01-21 01:03:03.83	9.31	4.37	-40.0	-54.7	3.8	1.49e+00	0	51	104	0	51	19710
2026-01-21 01:03:04.84	9.25	4.44	-40.0	-54.7	3.8	1.49e+00	0	52	104	0	51	19740
2026-01-21 01:03:05.85	9.19	4.50	-40.0	-54.7	3.8	1.49e+00	0	51	104	0	51	19705
2026-01-21 01:03:06.86	9.13	4.57	-40.0	-54.7	3.8	1.49e+00	0	51	104	0	51	19734
2026-01-21 01:03:07.87	9.06	4.63	-40.0	-54.7	3.8	1.49e+00	0	52	104	0	51	19690
2026-01-21 01:03:08.88	9.00	4.70	-40.0	-54.7	3.8	1.49e+00	0	51	104	0	51	19682
2026-01-21 01:03:09.89	8.94	4.76	-40.0	-54.7	3.8	1.49e+00	0	51	104	0	51	19760
2026-01-21 01:03:10.90	8.88	4.83	-40.0	-54.7	3.8	1.49e+00	0	52	104	0	51	19680
2026-01-21 01:03:11.91	8.82	4.89	-40.0	-54.7	3.8	1.49e+00	0	52	104	0	51	19667
2026-01-21 01:03:12.92	8.75	4.96	-40.0	-54.7	3.8	1.49e+00	0	52	104	0	51	19716
2026-01-21 01:03:13.93	8.69	5.02	-40.0	-54.7	3.8	1.49e+00	0	52	104	0	51	19696
2026-01-21 01:03:14.94	8.63	5.09	-40.0	-54.7	3.8	1.49e+00	0	52	104	0	51	19665
2026-01-21 01:03:15.95	8.57	5.15	-40.0	-54.7	3.8	1.49e+00	0	52	104	0	51	19692
2026-01-21 01:03:16.96	8.50	5.22	-40.0	-54.7	3.8	1.49e+00	0	52	104	0	51	19720
2026-01-21 01:03:17.97	8.44	5.28	-40.0	-54.7	3.8	1.49e+00	0	52	104	0	51	19725
2026-01-21 01:03:18.98	8.37	5.35	-40.0	-54.7	3.8	1.49e+00	0	52	104	0	51	19738
2026-01-21 01:03:19.99	8.31	5.42	-40.0	-54.7	3.8	1.49e+00	0	52	104	0	51	19662
2026-01-21 01:03:21.00	8.24	5.48	-40.0	-54.7	3.8	1.49e+00	0	52	104	0	51	19682
2026-01-21 01:03:22.01	8.18	5.55	-40.0	-54.7	3.8	1.49e+00	0	52	104	0	51	19669
2026-01-21 01:03:23.02	8.11	5.62	-40.0	-54.7	3.8	1.49e+00	0	52	104	0	51	19675
2026-01-21 01:03:24.03	8.05	5.68	-40.0	-54.7	3.8	1.49e+00	0	52	104	0	51	19703
2026-01-21 01:03:25.04	7.98	5.75	-40.0	-54.7	3.8	1.49e+00	0	52	104	0	51	19674
2026-01-21 01:03:26.05	7.92	5.82	-40.0	-54.7	3.8	1.49e+00	0	52	104	0	51	19657
2026-01-21 01:03:27.06	7.85	5.88	-40.0	-54.7	3.8	1.49e+00	0	53	104	0	51	19718
2026-01-21 01:03:28.07	7.78	5.95	-40.0	-54.7	3.8	1.49e+00	0	53	104	0	51	19675
2026-01-21 01:03:29.09	7.71	6.02	-40.0	-54.7	3.8	1.49e+00	0	53	104	0	51	19744
2026-01-21 01:03:30.10	7.65	6.09	-40.0	-54.7	3.8	1.49e+00	0	53	104	0	51	19684
2026-01-21 01:03:31.11	7.58	6.15	-40.0	-54.7	3.8	1.49e+00	0	52	104	0	51	19674
2026-01-21 01:03:32.12	7.51	6.22	-40.0	-54.7	3.8	1.49e+00	0	53	104	0	51	19721
2026-01-21 01:03:33.13	7.44	6.29	-40.0	-54.7	3.8	1.49e+00	0	53	104	0	51	19754
2026-01-21 01:03:34.14	7.37	6.36	-40.0	-54.7	3.8	1.49e+00	0	53	104	0	51	19698
2026-01-21 01:03:35.15	7.30	6.43	-40.0	-54.7	3.8	1.49e+00	0	53	104	0	51	19691
2026-01-21 01:03:36.16	7.23	6.50	-40.0	-54.7	3.8	1.49e+00	0	53	104	0	51	19690
2026-01-21 01:03:37.17	7.16	6.56	-40.0	-54.7	3.8	1.49e+00	0	53	104	0	51	19682
2026-01-21 01:03:38.18	7.09	6.63	-40.0	-54.7	3.8	1.49e+00	0	53	104	0	51	19696
2026-01-21 01:03:39.19	7.02	6.70	-40.0	-54.7	3.8	1.49e+00	0	53	104	0	51	19761
2026-01-21 01:03:40.20	6.95	6.77	-40.0	-54.7	3.8	1.49e+00	0	53	104	0	51	19729
2026-01-21 01:03:41.21	6.88	6.84	-40.0	-54.7	3.8	1.49e+00	0	53	104	0	51	19714
2026-01-21 01:03:42.22	6.80	6.91	-40.0	-54.7	3.8	1.49e+00	0	53	104	0	51	19736
2026-01-21 01:03:43.23	6.73	6.98	-40.0	-54.7	3.8	1.49e+00	0	53	104	0	51	19719
2026-01-21 01:03:44.24	6.66	7.05	-40.0	-54.7	3.8	1.49e+00	0	53	104	0	51	19675
2026-01-21 01:03:45.25	6.59	7.12	-40.0	-54.7	3.8	1.49e+00	0	53	104	0	51	19733
2026-01-21 01:03:46.26	6.51	7.19	-40.0	-54.7	3.8	1.49e+00	0	53	104	0	51	19677
2026-01-21 01:03:47.27	6.44	7.26	-40.0	-54.7	3.8	1.49e+00	0	53	104	0	51	19660
2026-01-21 01:03:48.28	6.37	7.33	-40.0	-54.7	3.8	1.49e+00	0	54	104	0	51	19698
2026-01-21 01:03:49.29	6.29	7.40	-40.0	-54.7	3.8	1.49e+00	0	53	104	0	51	19659
2026-01-21 01:03:50.30	6.22	7.47	-40.0	-54.7	3.8	1.49e+00	0	53	104	0	51	19668
2026-01-21 01:03:51.31	6.14	7.54	-40.0	-54.7	3.8	1.49e+00	0	53	104	0	51	19673
2026-01-21 01:03:52.32	6.06	7.61	-40.0	-54.7	3.8	1.49e+00	0	53	104	0	51	19683
2026-01-21 01:03:53.33	5.99	7.68	-40.0	-54.7	3.8	1.49e+00	0	54	104	0	51	19681
2026-01-21 01:03:54.34	5.91	7.75	-40.0	-54.7	3.8	1.49e+00	0	54	104	0	51	19658
2026-01-21 01:03:55.36	5.83	7.82	-40.0	-54.7	3.8	1.49e+00	0	54	104	0	51	19719
2026-01-21 01:03:56.37	5.76	7.89	-40.0	-54.7	3.8	1.49e+00	0	54	104	0	51	19671
2026-01-21 01:03:57.38	5.68	7.96	-40.0	-54.7	3.8	1.49e+00	0	54	104	0	51	19687
2026-01-21 01:03:58.39	5.60	8.04	-40.1	-54.8	3.8	1.49e+00	0	54	104	0	51	19845
2026-01-21 01:03:59.40	5.52	8.11	-40.1	-54.8	3.8	1.49e+00	0	54	104	0	51	19950
2026-01-21 01:04:00.41	5.44	8.18	-40.1	-54.8	3.8	1.49e+00	0	54	104	0	51	19903
2026-01-21 01:04:01.42	5.37	8.25	-40.1	-54.8	3.8	1.49e+00	0	54	104	0	51	19844
2026-01-21 01:04:02.43	5.29	8.32	-40.1	-54.8	3.8	1.49e+00	0	54	104	0	51	19984
2026-01-21 01:04:03.44	5.21	8.40	-40.1	-54.8	3.8	1.49e+00	0	54	104	0	51	19914
2026-01-21 01:04:04.44	5.13	8.47	-40.1	-54.8	3.8	1.49e+00	0	54	104	0	51	19994
2026-01-21 01:04:05.46	5.04	8.54	-40.1	-54.8	3.8	1.49e+00	0	54	104	0	51	19847
2026-01-21 01:04:06.47	4.96	8.61	-40.1	-54.8	3.8	1.49e+00	0	54	104	0	51	19932
2026-01-21 01:04:07.48	4.88	8.69	-40.1	-54.8	3.8	1.49e+00	0	54	104	0	51	19901
2026-01-21 01:04:08.48	4.80	8.76	-40.1	-54.8	3.8	1.49e+00	0	54	104	0	51	19930
2026-01-21 01:04:09.49	4.72	8.83	-40.1	-54.8	3.8	1.49e+00	0	54	104	0	51	19853
2026-01-21 01:04:10.50	4.63	8.91	-40.1	-54.8	3.8	1.49e+00	0	54	104	0	51	19923
2026-01-21 01:04:11.51	4.55	8.98	-40.1	-54.8	3.8	1.49e+00	0	54	104	0	51	19931
2026-01-21 01:04:12.52	4.47	9.05	-40.1	-54.8	3.8	1.49e+00	0	54	104	0	51	19877
2026-01-21 01:04:13.53	4.38	9.13	-40.1	-54.8	3.8	1.49e+00	0	54	104	0	51	19957
2026-01-21 01:04:14.54	4.30	9.20	-40.1	-54.8	3.8	1.49e+00	0	54	104	0	51	19978
2026-01-21 01:04:15.55	4.21	9.27	-40.1	-54.8	3.8	1.49e+00	0	54	104	0	51	19951
2026-01-21 01:04:16.56	4.13	9.35	-40.1	-54.8	3.8	1.49e+00	0	54	104	0	51	20002
2026-01-21 01:04:17.57	4.04	9.42	-40.1	-54.8	3.8	1.49e+00	0	54	104	0	51	20013
2026-01-21 01:04:18.58	3.95	9.50	-40.2	-54.8	3.8	1.49e+00	0	54	104	0	51	20055
2026-01-21 01:04:19.59	3.87	9.57	-40.2	-54.9	3.8	1.49e+00	0	54	104	0	51	20271
2026-01-21 01:04:20.60	3.78	9.65	-40.2	-54.9	3.8	1.49e+00	0	54	104	0	51	20157
2026-01-21 01:04:21.60	3.69	9.72	-40.2	-54.9	3.8	1.49e+00	0	54	104	0	51	20200
2026-01-21 01:04:22.61	3.60	9.80	-40.2	-54.9	3.8	1.49e+00	0	54	104	0	51	20188
2026-01-21 01:04:23.62	3.51	9.87	-40.3	-55.0	3.8	1.49e+00	0	55	104	0	51	20501
2026-01-21 01:04:24.63	3.42	9.95	-40.1	-54.9	3.8	1.49e+00	0	55	104	0	51	20140
2026-01-21 01:04:25.64	3.33	10.02	-40.2	-54.9	3.8	1.49e+00	0	55	104	0	51	20166
2026-01-21 01:04:26.65	3.24	10.10	-40.2	-54.9	3.8	1.49e+00	0	55	104	0	51	20295
2026-01-21 01:04:27.66	3.15	10.18	-40.5	-55.2	3.8	1.49e+00	0	55	104	0	51	20798
2026-01-21 01:04:28.67	3.06	10.25	-40.1	-54.8	3.8	1.49e+00	0	55	104	0	51	20029
2026-01-21 01:04:29.68	2.97	10.33	-40.3	-55.0	3.8	1.49e+00	0	54	104	0	51	20331
2026-01-21 01:04:30.69	2.88	10.41	-40.3	-54.9	3.8	1.49e+00	0	55	104	0	51	20299
2026-01-21 01:04:31.69	2.78	10.48	-40.5	-55.2	3.8	1.49e+00	0	55	104	0	51	20897
2026-01-21 01:04:32.70	2.69	10.56	-40.2	-54.9	3.8	1.49e+00	0	55	104	0	51	20103
2026-01-21 01:04:33.71	2.60	10.64	-40.1	-54.9	3.8	1.49e+00	0	55	104	0	51	20153
2026-01-21 01:04:34.73	2.50	10.71	-40.0	-54.8	3.8	1.49e+00	0	55	104	0	51	19948
2026-01-21 01:04:35.73	2.41	10.79	-40.1	-54.8	3.8	1.49e+00	0	55	104	0	51	19997
2026-01-21 01:04:36.75	2.31	10.87	-40.1	-54.8	3.8	1.49e+00	0	55	104	0	51	19946
2026-01-21 01:04:37.76	2.21	10.95	-40.1	-54.8	3.8	1.49e+00	0	55	104	0	51	19964
2026-01-21 01:04:38.77	2.12	11.02	-40.2	-54.9	3.8	1.49e+00	0	55	104	0	51	20168
2026-01-21 01:04:39.77	2.02	11.10	-40.1	-54.8	3.8	1.49e+00	0	55	104	0	51	20023
2026-01-21 01:04:40.78	1.92	11.18	-40.6	-55.5	3.8	1.49e+00	0	55	104	0	51	21515
2026-01-21 01:04:41.79	1.83	11.26	-40.3	-55.0	3.8	1.49e+00	0	55	104	0	52	19386
2026-01-21 01:04:42.80	1.73	11.34	-40.1	-54.9	3.8	1.49e+00	0	55	104	0	52	18963
2026-01-21 01:04:43.81	1.63	11.41	-40.1	-54.9	3.8	1.49e+00	0	55	104	0	52	18980
2026-01-21 01:04:44.82	1.53	11.49	-40.1	-54.9	3.8	1.49e+00	0	55	104	0	52	18977
2026-01-21 01:04:45.83	1.43	11.57	-40.1	-54.9	3.8	1.49e+00	0	55	104	0	52	18992
2026-01-21 01:04:46.84	1.33	11.65	-40.4	-55.1	3.8	1.49e+00	0	55	104	0	52	19501
2026-01-21 01:04:47.85	1.23	11.73	-40.2	-54.9	3.8	1.49e+00	0	55	104	0	52	19062
2026-01-21 01:04:48.86	1.12	11.81	-40.9	-55.7	3.8	1.49e+00	0	55	104	0	52	20830
2026-01-21 01:04:49.86	1.02	11.89	-40.5	-55.4	3.8	1.49e+00	0	55	104	0	52	20114
2026-01-21 01:04:50.87	0.92	11.97	-40.2	-54.9	3.8	1.49e+00	0	55	104	0	52	19134
2026-01-21 01:04:51.88	0.81	12.05	-40.4	-55.1	3.8	1.49e+00	0	55	104	0	52	19532
2026-01-21 01:04:52.90	0.71	12.13	-40.4	-55.1	3.8	1.49e+00	0	55	104	0	52	19589
2026-01-21 01:04:53.91	0.60	12.21	-40.4	-55.1	3.8	1.49e+00	0	55	104	0	52	19538
2026-01-21 01:04:54.92	0.50	12.29	-40.6	-55.3	3.8	1.49e+00	0	55	104	0	52	19899
2026-01-21 01:04:55.93	0.39	12.37	-40.4	-55.0	3.8	1.49e+00	0	55	104	0	52	19191
2026-01-21 01:04:56.94	0.28	12.45	-41.3	-55.6	3.8	1.49e+00	0	56	104	0	53	19424
2026-01-21 01:04:57.95	0.18	12.53	-40.6	-55.4	3.8	1.49e+00	0	55	104	0	53	18973
2026-01-21 01:04:58.96	0.07	12.62	-40.3	-55.0	3.8	1.49e+00	0	55	104	0	52	19352
2026-01-21 01:04:59.97	359.96	12.70	-40.5	-55.2	3.8	1.49e+00	0	55	104	0	52	19727
2026-01-21 01:05:00.98	359.85	12.78	-40.4	-55.1	3.8	1.49e+00	0	56	104	0	52	19595
2026-01-21 01:05:01.99	359.74	12.86	-40.4	-55.1	3.8	1.49e+00	0	55	104	0	52	19419
2026-01-21 01:05:03.00	359.63	12.94	-40.7	-55.4	3.8	1.49e+00	0	56	104	0	52	20191
2026-01-21 01:05:04.01	359.52	13.02	-40.5	-55.2	3.8	1.49e+00	0	56	104	0	52	19684
2026-01-21 01:05:05.01	359.41	13.11	-42.1	-54.8	3.8	1.49e+00	0	56	104	0	54	16835
2026-01-21 01:05:06.02	359.30	13.19	-42.2	-53.8	4.1	1.38e+00	0	55	0	0	55	14063
2026-01-21 01:05:07.03	359.18	13.27	-41.4	-56.2	3.8	1.43e+00	0	55	104	0	54	19643
2026-01-21 01:05:08.04	359.07	13.35	-41.8	-51.0	5.3	1.48e+00	0	56	0	0	54	10819
2026-01-21 01:05:09.05	358.95	13.44	-41.8	-50.8	5.4	5.02e-01	0	56	0	1048576	54	10576
2026-01-21 01:05:10.06	358.84	13.52	-41.6	-49.6	6.2	3.90e-01	0	56	0	3145728	54	9244
2026-01-21 01:05:11.07	358.72	13.60	-41.3	-48.1	7.6	1.57e-01	0	56	0	5242880	54	7787
2026-01-21 01:05:12.08	358.61	13.69	-41.1	-47.1	8.6	4.72e-02	0	56	0	7340032	54	6928
2026-01-21 01:05:13.09	358.49	13.77	-40.9	-46.7	9.0	2.65e-02	0	56	0	9437184	53	6993
2026-01-21 01:05:14.10	358.37	13.85	-40.9	-46.3	9.6	1.36e-02	0	56	0	10485760	53	6674
2026-01-21 01:05:15.11	358.25	13.94	-40.8	-46.0	9.9	9.88e-03	0	56	0	12582912	53	6483
2026-01-21 01:05:16.12	358.13	14.02	-40.9	-46.3	9.6	9.35e-03	0	56	0	14680064	53	6718
2026-01-21 01:05:17.13	358.02	14.11	-41.0	-46.6	9.4	1.45e-02	0	56	0	16777216	53	6891
2026-01-21 01:05:18.14	357.89	14.19	-41.2	-47.2	8.7	2.39e-02	0	56	0	18874368	53	7446
2026-01-21 01:05:19.15	357.77	14.27	-41.1	-47.0	8.8	3.28e-02	0	56	0	19922944	53	7286
2026-01-21 01:05:20.16	357.65	14.36	-41.0	-46.6	9.3	2.70e-02	0	56	0	22020096	53	6901
2026-01-21 01:05:21.17	357.53	14.44	-40.9	-46.4	9.5	1.56e-02	0	56	0	24117248	53	6762
2026-01-21 01:05:22.18	357.40	14.53	-41.1	-46.8	9.2	1.95e-02	0	56	0	26214400	53	7084
2026-01-21 01:05:23.18	357.28	14.61	-41.2	-46.9	9.0	2.83e-02	0	56	0	28311552	53	7201
2026-01-21 01:05:24.19	357.16	14.70	-41.1	-46.8	9.1	2.77e-02	0	56	0	29360128	53	7091
2026-01-21 01:05:25.20	357.03	14.78	-41.1	-46.6	9.3	2.01e-02	0	56	0	31457280	53	6922
2026-01-21 01:05:26.21	356.90	14.87	-41.1	-46.7	9.2	1.78e-02	0	56	0	33554432	53	6973
2026-01-21 01:05:27.22	356.78	14.96	-41.1	-46.8	9.1	1.64e-02	0	56	0	35651584	53	7121
2026-01-21 01:05:28.23	356.65	15.04	-41.2	-47.2	8.7	2.90e-02	0	56	0	37748736	53	7382
2026-01-21 01:05:29.24	356.52	15.13	-41.2	-47.4	8.3	4.41e-02	0	56	0	38797312	53	7622
2026-01-21 01:05:30.25	356.39	15.21	-41.4	-48.1	7.4	7.56e-02	0	56	0	40894464	53	8267
2026-01-21 01:05:31.26	356.26	15.30	-41.4	-49.0	6.6	1.21e-01	0	56	0	42991616	53	9110
2026-01-21 01:05:32.27	356.13	15.39	-41.4	-49.7	6.0	2.98e-01	0	56	0	45088768	53	9886
2026-01-21 01:05:33.28	356.00	15.47	-41.5	-50.8	5.1	4.70e-01	0	56	0	47185920	53	11258
2026-01-21 01:05:34.29	355.87	15.56	-41.5	-52.3	4.4	8.95e-01	0	56	0	49283072	53	13322
2026-01-21 01:05:35.30	355.73	15.65	-41.4	-53.4	4.0	1.40e+00	0	56	0	49283072	53	15082
2026-01-21 01:05:36.31	355.60	15.73	-41.2	-54.6	3.8	1.49e+00	0	56	104	49283072	53	17458
2026-01-21 01:05:37.32	355.46	15.82	-42.3	-55.5	3.8	1.48e+00	0	56	104	49283072	55	17241
2026-01-21 01:05:38.33	355.33	15.91	-41.5	-54.8	3.8	1.49e+00	0	56	104	49283072	55	15892
2026-01-21 01:05:39.34	355.19	16.00	-41.0	-55.6	3.8	1.49e+00	0	56	104	49283072	53	19600
2026-01-21 01:05:40.35	355.05	16.09	-41.1	-55.5	3.8	1.49e+00	0	56	104	49283072	53	19253
2026-01-21 01:05:41.36	354.92	16.17	-41.1	-55.5	3.8	1.49e+00	0	56	104	49283072	53	19186
2026-01-21 01:05:42.37	354.78	16.26	-41.0	-55.6	3.8	1.49e+00	0	56	104	49283072	53	19507
2026-01-21 01:05:43.38	354.64	16.35	-41.3	-56.0	3.8	1.49e+00	0	56	104	49283072	53	20388
2026-01-21 01:05:44.39	354.50	16.44	-40.8	-55.6	3.8	1.49e+00	0	56	104	49283072	53	19608
2026-01-21 01:05:45.40	354.35	16.53	-40.6	-55.5	3.8	1.49e+00	0	56	104	49283072	53	19255
2026-01-21 01:05:46.41	354.21	16.62	-40.6	-55.5	3.8	1.49e+00	0	56	104	49283072	53	19200
2026-01-21 01:05:47.42	354.07	16.70	-40.8	-55.7	3.8	1.49e+00	0	56	104	49283072	53	19700
2026-01-21 01:05:48.42	353.93	16.79	-40.7	-55.5	3.8	1.49e+00	0	56	104	49283072	53	19302
2026-01-21 01:05:49.43	353.78	16.88	-40.4	-55.4	3.8	1.49e+00	0	56	104	49283072	52	20112
2026-01-21 01:05:50.44	353.63	16.97	-40.7	-55.4	3.8	1.49e+00	0	56	104	49283072	52	20257
2026-01-21 01:05:51.45	353.49	17.06	-40.7	-55.5	3.8	1.49e+00	0	56	104	49283072	52	20452
2026-01-21 01:05:52.46	353.34	17.15	-40.7	-55.4	3.8	1.49e+00	0	57	104	49283072	52	20241
2026-01-21 01:05:53.47	353.19	17.24	-40.6	-55.5	3.8	1.49e+00	0	56	104	49283072	52	20350
2026-01-21 01:05:54.48	353.04	17.33	-40.7	-55.5	3.8	1.49e+00	0	57	104	49283072	52	20436
2026-01-21 01:05:55.49	352.89	17.42	-40.8	-55.5	3.8	1.49e+00	0	57	104	49283072	52	20305
2026-01-21 01:05:56.49	352.74	17.51	-40.6	-55.5	3.8	1.49e+00	0	56	104	49283072	52	20508
2026-01-21 01:05:57.50	352.59	17.60	-40.9	-55.6	3.8	1.49e+00	0	56	104	49283072	52	20593
2026-01-21 01:05:58.51	352.44	17.69	-40.8	-55.6	3.8	1.49e+00	0	56	104	49283072	52	20675
2026-01-21 01:05:59.52	352.28	17.78	-40.6	-55.6	3.8	1.49e+00	0	56	104	49283072	52	20540
2026-01-21 01:06:00.53	352.13	17.87	-40.8	-55.6	3.8	1.49e+00	0	57	104	49283072	52	20595
2026-01-21 01:06:01.54	351.97	17.96	-40.8	-55.5	3.8	1.49e+00	0	57	104	49283072	52	20462
2026-01-21 01:06:02.55	351.81	18.05	-40.8	-55.5	3.8	1.49e+00	0	57	104	49283072	52	20522
2026-01-21 01:06:03.56	351.66	18.14	-40.8	-55.6	3.8	1.49e+00	0	56	104	49283072	52	20557
2026-01-21 01:06:04.57	351.50	18.23	-40.7	-55.5	3.8	1.49e+00	0	57	104	49283072	52	20339
2026-01-21 01:06:05.58	351.34	18.32	-40.9	-55.6	3.8	1.49e+00	0	57	104	49283072	52	20586
2026-01-21 01:06:06.59	351.18	18.41	-40.7	-55.5	3.8	1.49e+00	0	57	104	49283072	52	20475
2026-01-21 01:06:07.59	351.02	18.50	-40.9	-55.7	3.8	1.49e+00	0	57	104	49283072	52	20783
2026-01-21 01:06:08.60	350.85	18.60	-40.9	-55.5	3.8	1.49e+00	0	57	104	49283072	52	20450
2026-01-21 01:06:09.61	350.69	18.69	-40.9	-55.6	3.8	1.49e+00	0	56	104	49283072	52	20636
2026-01-21 01:06:10.62	350.52	18.78	-40.9	-55.6	3.8	1.49e+00	0	57	104	49283072	52	20618
2026-01-21 01:06:11.63	350.36	18.87	-41.2	-55.8	3.8	1.49e+00	0	57	104	49283072	52	21158
2026-01-21 01:06:12.64	350.19	18.96	-40.9	-55.6	3.8	1.49e+00	0	57	104	49283072	53	19464
2026-01-21 01:06:13.65	350.02	19.05	-41.0	-55.8	3.8	1.49e+00	0	56	104	49283072	53	19891
2026-01-21 01:06:14.66	349.85	19.15	-41.0	-55.7	3.8	1.49e+00	0	57	104	49283072	53	19788
2026-01-21 01:06:15.67	349.68	19.24	-41.2	-56.0	3.8	1.49e+00	0	57	104	49283072	53	20331
2026-01-21 01:06:16.68	349.51	19.33	-41.0	-55.7	3.8	1.49e+00	0	57	104	49283072	53	19836
2026-01-21 01:06:17.68	349.34	19.42	-41.2	-55.9	3.8	1.49e+00	0	57	104	49283072	53	20199
2026-01-21 01:06:18.69	349.17	19.51	-41.2	-55.9	3.8	1.49e+00	0	57	104	49283072	53	20079
2026-01-21 01:06:19.70	349.00	19.61	-41.1	-56.0	3.8	1.49e+00	0	56	104	49283072	53	20310
2026-01-21 01:06:20.71	348.82	19.70	-41.2	-55.9	3.8	1.49e+00	0	57	104	49283072	53	20081
2026-01-21 01:06:21.72	348.64	19.79	-41.2	-55.9	3.8	1.49e+00	0	57	104	49283072	53	20263
2026-01-21 01:06:22.73	348.47	19.88	-41.2	-55.9	3.8	1.49e+00	0	57	104	49283072	53	20204
2026-01-21 01:06:23.74	348.29	19.97	-41.4	-56.0	3.8	1.49e+00	0	57	104	49283072	53	20480
2026-01-21 01:06:24.75	348.11	20.07	-41.2	-55.9	3.8	1.49e+00	0	57	104	49283072	54	19136
2026-01-21 01:06:25.76	347.93	20.16	-41.3	-56.0	3.8	1.49e+00	0	57	104	49283072	54	19213
2026-01-21 01:06:26.77	347.75	20.25	-41.3	-55.9	3.8	1.49e+00	0	57	104	49283072	54	19126
2026-01-21 01:06:27.78	347.56	20.34	-41.8	-56.1	3.8	1.49e+00	0	57	104	49283072	54	19405
2026-01-21 01:06:28.79	347.38	20.44	-41.3	-55.9	3.8	1.49e+00	0	57	104	49283072	54	19126
2026-01-21 01:06:29.80	347.19	20.53	-41.5	-56.1	3.8	1.49e+00	0	57	104	49283072	54	19447
2026-01-21 01:06:30.81	347.01	20.62	-41.3	-55.9	3.8	1.49e+00	0	57	104	49283072	54	19161
2026-01-21 01:06:31.82	346.82	20.72	-42.2	-54.7	3.9	1.49e+00	0	57	104	49283072	54	16579
2026-01-21 01:06:32.83	346.63	20.81	-41.2	-55.9	3.8	1.48e+00	0	57	104	49283072	54	19166
2026-01-21 01:06:33.84	346.44	20.90	-42.1	-54.0	3.9	1.49e+00	0	57	104	49283072	54	15241
2026-01-21 01:06:34.85	346.25	20.99	-41.8	-56.1	3.8	1.41e+00	0	57	104	49283072	55	18373
2026-01-21 01:06:35.86	346.06	21.09	-42.1	-52.1	4.7	1.49e+00	0	57	104	49283072	55	11674
2026-01-21 01:06:36.87	345.86	21.18	-42.2	-51.2	5.2	6.51e-01	0	57	0	50331648	55	10472
2026-01-21 01:06:37.88	345.67	21.27	-42.2	-50.6	5.7	4.65e-01	0	57	0	52428800	55	9749
2026-01-21 01:06:38.88	345.48	21.36	-42.1	-49.9	6.3	3.53e-01	0	57	0	54525952	55	8993
2026-01-21 01:06:39.89	345.28	21.46	-42.0	-49.4	6.7	2.39e-01	0	57	0	56623104	55	8560
2026-01-21 01:06:40.90	345.08	21.55	-42.0	-49.1	7.0	1.49e-01	0	57	0	57671680	55	8190
2026-01-21 01:06:41.91	344.88	21.64	-43.3	-56.7	3.8	4.43e-01	0	57	104	59768832	57	17639
2026-01-21 01:06:42.92	344.68	21.73	-42.5	-50.6	5.9	1.49e+00	0	57	104	59768832	57	8732
2026-01-21 01:06:43.93	344.48	21.83	-42.1	-51.2	5.3	8.95e-02	0	57	0	60817408	54	11057
2026-01-21 01:06:44.94	344.28	21.92	-43.5	-56.7	3.8	5.93e-01	0	57	104	61865984	57	17633
2026-01-21 01:06:45.95	344.07	22.01	-41.7	-49.9	6.1	1.41e+00	0	57	0	61865984	54	9532
2026-01-21 01:06:46.96	343.87	22.10	-41.2	-46.4	9.7	4.55e-02	0	57	0	62914560	54	6363
2026-01-21 01:06:47.97	343.66	22.20	-41.1	-46.2	10.0	9.79e-03	0	57	0	65011712	54	6237
2026-01-21 01:06:48.98	343.45	22.29	-41.2	-46.3	9.9	1.12e-02	0	57	0	67108864	54	6302
2026-01-21 01:06:49.99	343.24	22.38	-41.2	-46.2	10.1	5.74e-03	0	57	0	69206016	54	6208
2026-01-21 01:06:51.00	343.03	22.47	-41.3	-46.4	10.0	7.53e-03	0	57	0	71303168	54	6354
2026-01-21 01:06:52.01	342.82	22.56	-41.5	-46.6	9.8	9.36e-03	0	57	0	72351744	54	6559
2026-01-21 01:06:53.02	342.61	22.66	-41.7	-47.0	9.7	1.05e-02	0	57	0	74448896	54	6816
2026-01-21 01:06:54.03	342.39	22.75	-41.9	-47.2	9.5	1.52e-02	0	57	0	76546048	54	7011
2026-01-21 01:06:55.04	342.18	22.84	-41.9	-46.9	10.0	9.14e-03	0	57	0	78643200	54	6733
2026-01-21 01:06:56.04	341.96	22.93	-41.9	-46.8	10.2	6.79e-03	0	57	0	80740352	54	6678
2026-01-21 01:06:57.06	341.74	23.02	-41.8	-46.6	10.5	5.38e-03	0	57	0	82837504	54	6513
2026-01-21 01:06:58.07	341.52	23.11	-41.9	-46.7	10.5	4.77e-03	0	57	0	83886080	54	6608
2026-01-21 01:06:59.07	341.30	23.20	-42.1	-46.9	10.4	5.86e-03	0	57	0	85983232	54	6741
2026-01-21 01:07:00.08	341.08	23.30	-42.0	-46.7	10.7	3.91e-03	0	57	0	88080384	54	6590
2026-01-21 01:07:01.09	340.86	23.39	-42.1	-46.7	10.7	2.35e-03	0	57	0	90177536	54	6628
2026-01-21 01:07:02.10	340.63	23.48	-42.1	-46.7	10.8	1.81e-03	0	57	0	92274688	54	6613
2026-01-21 01:07:03.11	340.41	23.57	-42.2	-46.9	10.6	3.69e-03	0	57	0	93323264	55	6373
2026-01-21 01:07:04.12	340.18	23.66	-42.3	-47.0	10.6	4.13e-03	0	57	0	95420416	55	6439
2026-01-21 01:07:05.13	339.95	23.75	-42.5	-47.4	10.1	4.47e-03	0	57	0	97517568	55	6791
2026-01-21 01:07:06.14	339.72	23.84	-42.5	-47.6	10.1	7.45e-03	0	57	0	99614720	55	6887
2026-01-21 01:07:07.15	339.49	23.93	-42.6	-47.6	9.9	6.43e-03	0	57	0	100663296	55	6953
2026-01-21 01:07:08.16	339.26	24.02	-42.5	-47.5	10.1	6.48e-03	0	57	0	102760448	55	6863
2026-01-21 01:07:09.17	339.02	24.11	-42.3	-46.9	10.7	4.76e-03	0	57	0	104857600	55	6417
2026-01-21 01:07:10.18	338.79	24.20	-42.2	-46.6	11.0	2.33e-03	0	57	0	106954752	55	6191
2026-01-21 01:07:11.19	338.55	24.29	-42.1	-46.2	11.5	9.47e-04	0	57	0	109051904	55	5914
2026-01-21 01:07:12.20	338.31	24.38	-42.0	-46.0	11.7	6.06e-04	0	57	0	111149056	55	5781
2026-01-21 01:07:13.21	338.07	24.46	-42.1	-46.4	11.4	5.79e-04	0	57	0	112197632	55	5994
2026-01-21 01:07:14.22	337.83	24.55	-42.2	-46.4	11.5	8.42e-04	0	57	0	114294784	55	6033
2026-01-21 01:07:15.23	337.59	24.64	-42.2	-46.3	11.5	8.29e-04	0	57	0	116391936	55	5980
2026-01-21 01:07:16.23	337.35	24.73	-42.1	-46.1	11.8	6.48e-04	0	57	0	118489088	55	5805
2026-01-21 01:07:17.25	337.10	24.82	-41.9	-45.7	12.2	2.82e-04	0	57	0	120586240	55	5574
2026-01-21 01:07:18.25	336.86	24.90	-41.6	-45.2	12.7	1.24e-04	0	57	0	121634816	55	5244
2026-01-21 01:07:19.26	336.61	24.99	-41.5	-44.9	13.1	3.28e-05	0	57	0	123731968	54	5377
2026-01-21 01:07:20.27	336.36	25.08	-41.4	-44.7	13.3	2.21e-05	0	57	0	125829120	54	5227
2026-01-21 01:07:21.28	336.11	25.16	-41.3	-44.5	13.5	1.14e-05	0	57	0	127926272	54	5141
2026-01-21 01:07:22.29	335.86	25.25	-41.4	-44.8	13.2	1.60e-05	0	57	0	130023424	54	5285
2026-01-21 01:07:23.30	335.60	25.33	-41.4	-44.8	13.2	3.20e-05	0	57	0	131072000	54	5304
2026-01-21 01:07:24.31	335.35	25.42	-41.7	-45.3	12.7	3.89e-05	0	57	0	133169152	54	5652
2026-01-21 01:07:25.32	335.09	25.50	-42.0	-45.9	12.1	1.77e-04	0	57	0	135266304	54	6005
2026-01-21 01:07:26.33	334.84	25.59	-42.0	-45.8	12.3	1.80e-04	0	57	0	137363456	54	5931
2026-01-21 01:07:27.34	334.58	25.67	-42.0	-45.9	12.2	2.14e-04	0	57	0	139460608	54	6021
2026-01-21 01:07:28.35	334.32	25.76	-42.1	-46.0	12.1	3.00e-04	0	57	0	140509184	54	6082
2026-01-21 01:07:29.36	334.05	25.84	-42.1	-46.0	12.0	2.94e-04	0	57	0	142606336	54	6111
2026-01-21 01:07:30.37	333.79	25.92	-42.0	-45.9	12.2	3.46e-04	0	57	0	144703488	54	6028
2026-01-21 01:07:31.38	333.53	26.01	-42.2	-46.1	11.9	3.68e-04	0	57	0	146800640	54	6190
2026-01-21 01:07:32.38	333.26	26.09	-42.2	-46.3	11.8	4.07e-04	0	57	0	148897792	55	5979
2026-01-21 01:07:33.40	332.99	26.17	-42.2	-46.3	11.8	4.06e-04	0	57	0	149946368	55	5949
2026-01-21 01:07:34.41	332.72	26.25	-42.3	-46.4	11.6	7.59e-04	0	57	0	152043520	55	6058
2026-01-21 01:07:35.41	332.46	26.33	-42.4	-46.7	11.5	7.06e-04	0	57	0	154140672	55	6220
2026-01-21 01:07:36.42	332.19	26.41	-42.3	-46.4	11.6	7.18e-04	0	57	0	156237824	55	6043
2026-01-21 01:07:37.43	331.91	26.49	-42.3	-46.3	11.8	7.75e-04	0	58	0	158334976	55	5948
2026-01-21 01:07:38.44	331.64	26.57	-42.3	-46.3	11.8	4.92e-04	0	58	0	159383552	55	5948
2026-01-21 01:07:39.45	331.36	26.65	-42.1	-46.0	12.1	3.58e-04	0	57	0	161480704	55	5757
2026-01-21 01:07:40.46	331.09	26.73	-42.1	-45.9	12.2	1.74e-04	0	57	0	163577856	55	5697
2026-01-21 01:07:41.47	330.81	26.81	-42.2	-46.2	11.9	2.61e-04	0	57	0	165675008	55	5877
2026-01-21 01:07:42.48	330.53	26.88	-42.4	-46.4	11.7	4.06e-04	0	57	0	167772160	55	6056
2026-01-21 01:07:43.49	330.25	26.96	-42.4	-46.4	11.7	6.04e-04	0	57	0	168820736	55	6046
2026-01-21 01:07:44.50	329.96	27.04	-42.4	-46.4	11.7	5.68e-04	0	57	0	170917888	55	6043
2026-01-21 01:07:45.51	329.68	27.11	-42.3	-46.3	11.8	5.40e-04	0	58	0	173015040	55	5955
2026-01-21 01:07:46.52	329.39	27.19	-41.9	-45.5	12.6	1.71e-04	0	57	0	175112192	55	5457
2026-01-21 01:07:47.53	329.11	27.26	-42.1	-45.8	12.3	1.23e-04	0	57	0	177209344	55	5644
2026-01-21 01:07:48.54	328.82	27.34	-42.2	-46.0	12.1	2.29e-04	0	58	0	179306496	55	5748
2026-01-21 01:07:49.55	328.53	27.41	-42.3	-46.3	11.9	2.27e-04	0	57	0	180355072	55	5958
2026-01-21 01:07:50.56	328.24	27.48	-42.5	-46.8	11.3	7.06e-04	0	57	0	182452224	55	6275
2026-01-21 01:07:51.57	327.95	27.56	-42.7	-47.1	10.9	1.94e-03	0	57	0	184549376	55	6557
2026-01-21 01:07:52.58	327.65	27.63	-43.1	-47.9	10.4	3.72e-03	0	58	0	186646528	56	6724
2026-01-21 01:07:53.59	327.36	27.70	-43.1	-47.9	10.3	4.15e-03	0	57	0	188743680	56	6800
2026-01-21 01:07:54.60	327.06	27.77	-43.0	-47.8	10.5	3.79e-03	0	57	0	189792256	56	6688
2026-01-21 01:07:55.61	326.77	27.84	-42.9	-47.4	10.8	2.82e-03	0	57	0	191889408	56	6419
2026-01-21 01:07:56.61	326.47	27.91	-42.7	-47.0	11.3	1.52e-03	0	57	0	193986560	56	6073
2026-01-21 01:07:57.62	326.17	27.97	-42.6	-46.6	11.6	8.85e-04	0	57	0	196083712	56	5836
2026-01-21 01:07:58.63	325.87	28.04	-42.6	-46.7	11.7	5.13e-04	0	57	0	198180864	56	5887
2026-01-21 01:07:59.65	325.56	28.11	-42.5	-46.5	11.8	4.29e-04	0	58	0	199229440	56	5767
2026-01-21 01:08:00.65	325.26	28.17	-42.6	-46.6	11.6	5.00e-04	0	57	0	201326592	56	5849
2026-01-21 01:08:01.66	324.96	28.24	-42.6	-46.8	11.5	7.29e-04	0	57	0	203423744	56	5965
2026-01-21 01:08:02.67	324.65	28.30	-42.7	-46.9	11.4	6.71e-04	0	57	0	205520896	56	6020
2026-01-21 01:08:03.68	324.34	28.37	-42.7	-47.1	11.2	8.57e-04	0	57	0	207618048	56	6132
2026-01-21 01:08:04.69	324.04	28.43	-42.5	-46.5	11.8	5.10e-04	0	57	0	208666624	56	5783
2026-01-21 01:08:05.70	323.73	28.49	-42.5	-46.6	11.8	3.68e-04	0	57	0	210763776	56	5802
2026-01-21 01:08:06.71	323.42	28.56	-42.4	-46.3	12.0	2.90e-04	0	57	0	212860928	56	5611
2026-01-21 01:08:07.72	323.10	28.62	-42.5	-46.5	11.8	4.69e-04	0	57	0	214958080	56	5777
2026-01-21 01:08:08.73	322.79	28.68	-42.7	-47.1	11.2	8.46e-04	0	58	0	217055232	56	6147
2026-01-21 01:08:09.74	322.47	28.73	-42.9	-47.6	10.7	1.95e-03	0	57	0	218103808	56	6495
2026-01-21 01:08:10.75	322.16	28.79	-43.0	-47.7	10.5	3.73e-03	0	58	0	220200960	56	6624
2026-01-21 01:08:11.76	321.84	28.85	-43.2	-48.2	10.1	6.74e-03	0	58	0	222298112	57	6589
2026-01-21 01:08:12.77	321.52	28.91	-43.1	-47.9	10.2	5.18e-03	0	57	0	224395264	57	6390
2026-01-21 01:08:13.78	321.20	28.96	-42.9	-47.4	10.9	3.43e-03	0	57	0	226492416	57	5994
2026-01-21 01:08:14.79	320.88	29.02	-42.7	-46.9	11.4	1.34e-03	0	58	0	227540992	57	5687
2026-01-21 01:08:15.80	320.56	29.07	-42.5	-46.5	11.8	4.80e-04	0	57	0	229638144	57	5441
2026-01-21 01:08:16.81	320.24	29.12	-42.5	-46.4	12.0	3.29e-04	0	58	0	231735296	56	5708
2026-01-21 01:08:17.82	319.92	29.17	-42.3	-46.1	12.2	2.06e-04	0	57	0	233832448	56	5514
2026-01-21 01:08:18.83	319.59	29.23	-42.4	-46.2	12.1	2.24e-04	0	57	0	235929600	56	5571
2026-01-21 01:08:19.84	319.27	29.28	-42.3	-46.1	12.3	1.56e-04	0	57	0	236978176	56	5475
2026-01-21 01:08:20.85	318.94	29.32	-42.3	-46.1	12.3	1.62e-04	0	58	0	239075328	56	5509
2026-01-21 01:08:21.86	318.61	29.37	-42.3	-46.1	12.3	1.47e-04	0	58	0	241172480	56	5486
2026-01-21 01:08:22.87	318.28	29.42	-42.5	-46.5	11.8	3.13e-04	0	58	0	243269632	56	5738
2026-01-21 01:08:23.88	317.95	29.47	-42.4	-46.3	12.0	2.37e-04	0	57	0	245366784	56	5656
2026-01-21 01:08:24.89	317.62	29.51	-42.3	-46.0	12.3	2.70e-04	0	58	0	247463936	56	5456
2026-01-21 01:08:25.90	317.29	29.56	-42.1	-45.7	12.7	8.23e-05	0	58	0	248512512	56	5229
2026-01-21 01:08:26.90	316.96	29.60	-41.7	-45.1	13.1	3.05e-05	0	58	0	250609664	55	5177
2026-01-21 01:08:27.91	316.63	29.64	-41.7	-45.0	13.1	2.74e-05	0	58	0	252706816	55	5148
2026-01-21 01:08:28.92	316.29	29.68	-41.7	-45.1	13.1	2.21e-05	0	58	0	254803968	55	5182
2026-01-21 01:08:29.93	315.96	29.72	-42.0	-45.6	12.6	4.27e-05	0	58	0	256901120	55	5470
2026-01-21 01:08:30.94	315.62	29.76	-42.1	-45.9	12.2	1.53e-04	0	58	0	257949696	55	5694
2026-01-21 01:08:31.95	315.29	29.80	-42.1	-45.9	12.3	2.31e-04	0	58	0	260046848	55	5658
2026-01-21 01:08:32.96	314.95	29.84	-42.2	-46.0	12.2	1.77e-04	0	57	0	262144000	55	5733
2026-01-21 01:08:33.97	314.61	29.87	-42.1	-45.8	12.4	1.41e-04	0	58	0	264241152	55	5597
2026-01-21 01:08:34.98	314.27	29.91	-42.3	-46.3	11.9	2.17e-04	0	58	0	266338304	55	5960
2026-01-21 01:08:35.99	313.93	29.94	-42.6	-46.9	11.2	6.18e-04	0	58	0	267386880	55	6414
2026-01-21 01:08:37.00	313.59	29.97	-43.0	-47.7	10.6	1.62e-03	0	57	0	269484032	56	6574
2026-01-21 01:08:38.01	313.25	30.00	-43.3	-48.5	9.7	9.27e-03	0	58	0	271581184	57	6835
2026-01-21 01:08:39.02	312.91	30.03	-43.5	-49.1	9.2	1.58e-02	0	58	0	273678336	57	7292
2026-01-21 01:08:40.02	312.57	30.06	-43.6	-49.4	8.7	2.78e-02	0	58	0	275775488	57	7590
2026-01-21 01:08:41.03	312.22	30.09	-43.7	-49.7	8.6	4.46e-02	0	58	0	276824064	58	7372
2026-01-21 01:08:42.05	311.88	30.12	-43.6	-49.2	9.0	2.86e-02	0	58	0	278921216	58	6991
2026-01-21 01:08:43.06	311.53	30.14	-43.4	-48.6	9.6	1.73e-02	0	58	0	281018368	58	6556
2026-01-21 01:08:44.07	311.19	30.17	-43.3	-48.3	10.0	8.58e-03	0	58	0	283115520	58	6314
2026-01-21 01:08:45.08	310.84	30.19	-43.2	-48.2	10.0	6.19e-03	0	58	0	285212672	58	6246
2026-01-21 01:08:46.09	310.50	30.21	-43.1	-47.9	10.3	6.17e-03	0	58	0	286261248	58	6048
2026-01-21 01:08:47.09	310.15	30.24	-42.9	-47.4	10.9	2.83e-03	0	58	0	288358400	57	6012
2026-01-21 01:08:48.10	309.81	30.26	-42.8	-47.1	11.2	1.46e-03	0	58	0	290455552	57	5840
2026-01-21 01:08:49.11	309.46	30.27	-42.6	-46.7	11.7	7.63e-04	0	58	0	292552704	57	5546
2026-01-21 01:08:50.12	309.11	30.29	-42.6	-46.6	11.7	5.17e-04	0	58	0	294649856	56	5822
2026-01-21 01:08:51.13	308.76	30.31	-42.5	-46.5	11.8	4.37e-04	0	58	0	295698432	56	5730
2026-01-21 01:08:52.14	308.42	30.32	-42.7	-46.9	11.4	7.09e-04	0	58	0	297795584	56	6020
2026-01-21 01:08:53.15	308.07	30.34	-42.8	-47.2	11.1	1.02e-03	0	58	0	299892736	56	6260
2026-01-21 01:08:54.16	307.72	30.35	-43.0	-47.6	10.6	2.93e-03	0	58	0	301989888	56	6537
2026-01-21 01:08:55.17	307.37	30.36	-43.1	-47.8	10.4	3.41e-03	0	58	0	304087040	56	6723
2026-01-21 01:08:56.18	307.02	30.37	-43.2	-48.1	10.2	4.37e-03	0	58	0	305135616	56	6892
2026-01-21 01:08:57.19	306.67	30.38	-43.1	-47.9	10.4	4.32e-03	0	58	0	307232768	56	6736
2026-01-21 01:08:58.20	306.32	30.39	-43.0	-47.7	10.6	4.38e-03	0	58	0	309329920	56	6607
2026-01-21 01:08:59.21	305.97	30.40	-43.2	-48.2	10.1	6.49e-03	0	58	0	311427072	57	6581
2026-01-21 01:09:00.22	305.62	30.41	-43.4	-48.7	9.5	1.19e-02	0	58	0	313524224	57	6970
2026-01-21 01:09:01.23	305.27	30.41	-43.5	-49.1	9.0	1.72e-02	0	58	0	315621376	57	7369
2026-01-21 01:09:02.24	304.92	30.41	-43.4	-48.7	9.5	1.89e-02	0	58	0	316669952	57	6980
2026-01-21 01:09:03.25	304.57	30.42	-43.2	-48.2	10.0	8.13e-03	0	58	0	318767104	57	6620
2026-01-21 01:09:04.26	304.22	30.42	-42.9	-47.3	11.0	2.63e-03	0	58	0	320864256	57	5952
2026-01-21 01:09:05.26	303.87	30.42	-42.5	-46.5	11.9	9.22e-04	0	58	0	322961408	56	5727
2026-01-21 01:09:06.27	303.52	30.42	-42.2	-45.8	12.6	1.89e-04	0	58	0	325058560	56	5299
2026-01-21 01:09:07.28	303.17	30.41	-42.3	-46.1	12.2	1.45e-04	0	58	0	326107136	56	5486
2026-01-21 01:09:08.29	302.82	30.41	-42.5	-46.6	11.8	2.59e-04	0	58	0	328204288	56	5800
2026-01-21 01:09:09.30	302.47	30.40	-42.9	-47.3	11.0	7.63e-04	0	58	0	330301440	56	6323
2026-01-21 01:09:10.31	302.12	30.40	-43.0	-47.7	10.5	2.37e-03	0	58	0	332398592	56	6631
2026-01-21 01:09:11.32	301.77	30.39	-43.2	-48.1	10.1	4.76e-03	0	58	0	334495744	56	6933
2026-01-21 01:09:12.33	301.42	30.38	-43.2	-48.3	10.0	8.70e-03	0	58	0	335544320	57	6654
2026-01-21 01:09:13.34	301.07	30.37	-43.2	-48.2	10.1	7.80e-03	0	58	0	337641472	57	6579
2026-01-21 01:09:14.35	300.72	30.36	-43.1	-48.0	10.2	6.73e-03	0	58	0	339738624	57	6465
2026-01-21 01:09:15.36	300.37	30.35	-43.1	-47.9	10.3	5.10e-03	0	58	0	341835776	57	6378
2026-01-21 01:09:16.37	300.02	30.34	-42.9	-47.3	11.0	2.34e-03	0	58	0	343932928	57	5984
2026-01-21 01:09:17.38	299.67	30.32	-42.7	-47.0	11.3	9.76e-04	0	58	0	344981504	57	5731
2026-01-21 01:09:18.39	299.32	30.31	-42.4	-46.4	12.0	5.61e-04	0	58	0	347078656	56	5668
2026-01-21 01:09:19.40	298.97	30.29	-42.4	-46.4	12.0	3.28e-04	0	58	0	349175808	56	5679
2026-01-21 01:09:20.41	298.62	30.27	-42.6	-46.7	11.7	4.59e-04	0	58	0	351272960	56	5894
2026-01-21 01:09:21.42	298.28	30.25	-42.9	-47.4	10.9	1.35e-03	0	58	0	353370112	56	6387
2026-01-21 01:09:22.42	297.93	30.23	-43.0	-47.7	10.6	3.96e-03	0	58	0	354418688	56	6605
2026-01-21 01:09:23.43	297.59	30.21	-43.0	-47.7	10.5	3.97e-03	0	58	0	356515840	56	6628
2026-01-21 01:09:24.44	297.24	30.19	-42.9	-47.4	10.9	3.02e-03	0	58	0	358612992	56	6363
2026-01-21 01:09:25.45	296.90	30.16	-42.8	-47.0	11.3	1.83e-03	0	58	0	360710144	56	6128
2026-01-21 01:09:26.46	296.55	30.14	-42.7	-46.9	11.4	1.10e-03	0	58	0	362807296	56	6035
2026-01-21 01:09:27.47	296.21	30.11	-42.7	-47.0	11.5	8.93e-04	0	58	0	363855872	56	6074
2026-01-21 01:09:28.48	295.86	30.09	-42.8	-47.3	11.1	1.36e-03	0	58	0	365953024	56	6280
2026-01-21 01:09:29.49	295.52	30.06	-42.9	-47.4	10.8	2.04e-03	0	58	0	368050176	56	6419
2026-01-21 01:09:30.50	295.18	30.03	-42.8	-47.3	11.0	4.01e-03	0	58	0	370147328	56	6302
2026-01-21 01:09:31.51	294.83	30.00	-43.0	-47.6	10.6	3.83e-03	0	58	0	372244480	56	6526
2026-01-21 01:09:32.52	294.49	29.96	-42.8	-47.1	11.2	1.61e-03	0	58	0	373293056	56	6161
2026-01-21 01:09:33.53	294.15	29.93	-42.6	-46.8	11.5	5.10e-04	0	58	0	375390208	56	5955
2026-01-21 01:09:34.54	293.81	29.90	-42.4	-46.3	12.0	4.35e-04	0	58	0	377487360	56	5609
2026-01-21 01:09:35.55	293.47	29.86	-42.4	-46.4	12.0	2.72e-04	0	58	0	379584512	56	5671
2026-01-21 01:09:36.56	293.13	29.83	-42.4	-46.4	12.0	4.41e-04	0	58	0	381681664	56	5660
2026-01-21 01:09:37.57	292.80	29.79	-42.6	-46.8	11.5	8.07e-04	0	58	0	383778816	56	5964
2026-01-21 01:09:38.58	292.46	29.75	-42.8	-47.0	11.3	1.23e-03	0	58	0	384827392	56	6130
2026-01-21 01:09:39.59	292.12	29.71	-42.9	-47.3	11.0	2.08e-03	0	58	0	386924544	56	6316
2026-01-21 01:09:40.59	291.79	29.67	-42.8	-47.1	11.2	1.56e-03	0	58	0	389021696	56	6151
2026-01-21 01:09:41.61	291.45	29.63	-42.5	-46.6	11.7	5.52e-04	0	58	0	391118848	56	5793
2026-01-21 01:09:42.62	291.12	29.59	-42.4	-46.3	12.0	3.69e-04	0	58	0	393216000	56	5636
2026-01-21 01:09:43.63	290.79	29.54	-42.3	-46.1	12.2	4.03e-04	0	58	0	394264576	56	5514
2026-01-21 01:09:44.63	290.46	29.50	-42.4	-46.4	11.9	3.23e-04	0	58	0	396361728	56	5657
2026-01-21 01:09:45.64	290.13	29.46	-42.4	-46.3	12.1	3.20e-04	0	58	0	398458880	56	5628
2026-01-21 01:09:46.65	289.80	29.41	-42.4	-46.3	12.0	4.37e-04	0	58	0	400556032	56	5630
2026-01-21 01:09:47.66	289.47	29.36	-42.5	-46.6	11.7	3.62e-04	0	58	0	402653184	56	5812
2026-01-21 01:09:48.67	289.14	29.31	-42.5	-46.4	11.9	3.58e-04	0	58	0	403701760	56	5714
2026-01-21 01:09:49.68	288.81	29.26	-42.6	-46.8	11.6	8.54e-04	0	58	0	405798912	56	5939
2026-01-21 01:09:50.69	288.48	29.21	-42.8	-47.2	11.2	1.81e-03	0	58	0	407896064	56	6227
2026-01-21 01:09:51.70	288.16	29.16	-42.8	-47.1	11.2	1.87e-03	0	58	0	409993216	56	6161
2026-01-21 01:09:52.71	287.84	29.11	-42.7	-47.1	11.3	1.26e-03	0	58	0	412090368	56	6134
2026-01-21 01:09:53.72	287.51	29.06	-42.5	-46.5	11.8	8.24e-04	0	58	0	413138944	56	5766
2026-01-21 01:09:54.73	287.19	29.00	-42.4	-46.2	12.1	3.65e-04	0	58	0	415236096	56	5586
2026-01-21 01:09:55.74	286.87	28.95	-42.2	-45.9	12.4	1.81e-04	0	58	0	417333248	56	5381
2026-01-21 01:09:56.75	286.55	28.89	-42.3	-46.1	12.2	2.32e-04	0	58	0	419430400	56	5525
2026-01-21 01:09:57.76	286.23	28.84	-42.7	-47.1	11.2	5.30e-04	0	58	0	421527552	56	6161
2026-01-21 01:09:58.76	285.92	28.78	-42.8	-47.3	10.9	1.78e-03	0	58	0	422576128	56	6335
2026-01-21 01:09:59.77	285.60	28.72	-42.8	-47.2	11.1	2.37e-03	0	58	0	424673280	56	6259
2026-01-21 01:10:00.78	285.29	28.66	-42.8	-47.1	11.1	1.35e-03	0	58	0	426770432	56	6194
2026-01-21 01:10:01.79	284.97	28.60	-42.6	-46.7	11.6	8.14e-04	0	58	0	428867584	56	5923
2026-01-21 01:10:02.80	284.66	28.54	-42.6	-46.8	11.6	7.08e-04	0	58	0	430964736	56	5930
2026-01-21 01:10:03.81	284.35	28.48	-42.7	-47.0	11.3	9.55e-04	0	58	0	432013312	56	6076
2026-01-21 01:10:04.82	284.04	28.42	-42.8	-47.1	11.3	8.26e-04	0	58	0	434110464	56	6173
2026-01-21 01:10:05.83	283.73	28.35	-42.7	-47.1	11.2	1.68e-03	0	58	0	436207616	56	6151
2026-01-21 01:10:06.84	283.42	28.29	-42.7	-47.0	11.2	1.19e-03	0	58	0	438304768	56	6118
2026-01-21 01:10:07.85	283.11	28.22	-42.8	-47.1	11.1	1.41e-03	0	58	0	440401920	56	6184
2026-01-21 01:10:08.86	282.81	28.16	-42.7	-47.0	11.2	1.52e-03	0	58	0	441450496	56	6089
2026-01-21 01:10:09.87	282.50	28.09	-42.6	-46.8	11.4	1.11e-03	0	58	0	443547648	56	5962
2026-01-21 01:10:10.88	282.20	28.02	-42.8	-47.2	11.1	9.18e-04	0	58	0	445644800	56	6226
2026-01-21 01:10:11.88	281.90	27.96	-42.9	-47.5	10.8	2.00e-03	0	58	0	447741952	56	6439
2026-01-21 01:10:12.89	281.60	27.89	-43.2	-48.1	10.1	4.39e-03	0	58	0	449839104	56	6946
2026-01-21 01:10:13.90	281.30	27.82	-43.3	-48.5	9.6	9.17e-03	0	58	0	451936256	57	6867
2026-01-21 01:10:14.91	281.00	27.75	-43.4	-48.8	9.4	1.62e-02	0	58	0	452984832	57	7101
2026-01-21 01:10:15.92	280.71	27.68	-43.6	-49.4	8.8	2.31e-02	0	58	0	455081984	57	7603
2026-01-21 01:10:16.93	280.41	27.61	-43.6	-49.5	8.6	3.62e-02	0	58	0	457179136	57	7718
2026-01-21 01:10:17.94	280.12	27.54	-43.7	-49.7	8.4	4.35e-02	0	58	0	459276288	57	7883
2026-01-21 01:10:18.95	279.83	27.46	-43.8	-50.3	7.9	7.78e-02	0	58	0	460324864	58	7912
2026-01-21 01:10:19.96	279.53	27.39	-43.7	-49.9	8.3	5.73e-02	0	58	0	462422016	58	7557
2026-01-21 01:10:20.97	279.24	27.32	-43.7	-49.7	8.5	4.30e-02	0	58	0	464519168	58	7403
2026-01-21 01:10:21.98	278.96	27.24	-43.6	-49.6	8.6	3.94e-02	0	58	0	466616320	58	7310
2026-01-21 01:10:22.99	278.67	27.17	-43.6	-49.4	8.7	4.34e-02	0	58	0	468713472	58	7133
2026-01-21 01:10:24.00	278.38	27.09	-43.4	-48.8	9.4	2.39e-02	0	58	0	469762048	58	6659
2026-01-21 01:10:25.01	278.10	27.02	-42.9	-47.6	10.6	6.15e-03	0	58	0	471859200	57	6142
2026-01-21 01:10:26.02	277.82	26.94	-42.7	-47.0	11.1	1.94e-03	0	58	0	473956352	57	5788
2026-01-21 01:10:27.03	277.53	26.86	-42.5	-46.6	11.6	1.47e-03	0	58	0	476053504	57	5480
2026-01-21 01:10:28.04	277.25	26.78	-42.3	-46.2	12.1	3.90e-04	0	58	0	478150656	56	5533
2026-01-21 01:10:29.04	276.98	26.71	-42.1	-45.9	12.4	1.47e-04	0	58	0	480247808	56	5345
2026-01-21 01:10:30.05	276.70	26.63	-41.8	-45.3	12.8	6.10e-05	0	58	0	481296384	55	5293
2026-01-21 01:10:31.06	276.42	26.55	-41.6	-45.0	13.1	3.96e-05	0	58	0	483393536	55	5104
2026-01-21 01:10:32.08	276.15	26.47	-41.9	-45.5	12.7	4.11e-05	0	58	0	485490688	55	5409
2026-01-21 01:10:33.08	275.87	26.39	-42.2	-46.1	12.0	2.01e-04	0	58	0	487587840	55	5834
2026-01-21 01:10:34.09	275.60	26.31	-42.2	-46.2	11.9	4.73e-04	0	58	0	489684992	55	5864
2026-01-21 01:10:35.10	275.33	26.23	-42.1	-45.8	12.2	2.64e-04	0	58	0	490733568	55	5644
2026-01-21 01:10:36.11	275.06	26.14	-41.9	-45.5	12.6	1.61e-04	0	58	0	492830720	55	5455
2026-01-21 01:10:37.12	274.79	26.06	-42.0	-45.8	12.2	1.04e-04	0	58	0	494927872	55	5650
2026-01-21 01:10:38.13	274.53	25.98	-42.1	-46.0	12.1	2.46e-04	0	58	0	497025024	55	5737
2026-01-21 01:10:39.14	274.26	25.90	-42.3	-46.3	11.7	3.71e-04	0	58	0	499122176	55	5992
2026-01-21 01:10:40.15	274.00	25.81	-42.4	-46.7	11.4	8.21e-04	0	58	0	500170752	55	6205
2026-01-21 01:10:41.16	273.74	25.73	-42.5	-46.8	11.2	1.13e-03	0	58	0	502267904	55	6296
2026-01-21 01:10:42.17	273.48	25.64	-42.4	-46.6	11.2	1.50e-03	0	58	0	504365056	55	6200
2026-01-21 01:10:43.18	273.22	25.56	-42.6	-47.0	11.0	9.64e-04	0	58	0	506462208	55	6453
2026-01-21 01:10:44.19	272.96	25.47	-42.7	-47.4	10.5	2.87e-03	0	58	0	508559360	55	6767
2026-01-21 01:10:45.20	272.70	25.39	-42.9	-47.7	10.3	4.50e-03	0	58	0	509607936	56	6644
2026-01-21 01:10:46.21	272.45	25.30	-43.1	-48.2	10.0	7.71e-03	0	58	0	511705088	56	6998
2026-01-21 01:10:47.21	272.19	25.22	-43.0	-48.0	10.1	8.14e-03	0	58	0	513802240	56	6870
2026-01-21 01:10:48.22	271.94	25.13	-43.0	-48.0	10.2	8.11e-03	0	58	0	515899392	56	6818
2026-01-21 01:10:49.23	271.69	25.05	-42.8	-47.5	10.6	4.11e-03	0	58	0	517996544	56	6452
2026-01-21 01:10:50.24	271.44	24.96	-42.7	-47.1	11.1	2.16e-03	0	58	0	519045120	56	6179
2026-01-21 01:10:51.25	271.19	24.87	-42.4	-46.5	11.8	6.97e-04	0	58	0	521142272	56	5740
2026-01-21 01:10:52.26	270.94	24.78	-42.1	-45.8	12.4	3.08e-04	0	58	0	523239424	56	5298
2026-01-21 01:10:53.27	270.70	24.70	-41.5	-44.9	13.2	9.84e-05	0	58	0	525336576	55	5047
2026-01-21 01:10:54.28	270.45	24.61	-41.6	-45.1	13.0	3.81e-05	0	58	0	527433728	55	5181
2026-01-21 01:10:55.29	270.21	24.52	-41.6	-45.1	13.0	5.18e-05	0	58	0	528482304	55	5165
2026-01-21 01:10:56.30	269.97	24.43	-41.7	-45.2	12.9	4.88e-05	0	58	0	530579456	55	5227
2026-01-21 01:10:57.31	269.73	24.34	-41.6	-45.1	12.9	5.03e-05	0	58	0	532676608	55	5195
2026-01-21 01:10:58.32	269.49	24.25	-41.6	-45.0	13.0	2.67e-05	0	58	0	534773760	55	5158
2026-01-21 01:10:59.32	269.26	24.16	-41.6	-44.9	13.1	4.19e-05	0	58	0	536870912	55	5098
2026-01-21 01:11:00.33	269.02	24.07	-41.4	-44.8	13.3	1.60e-05	0	58	0	537919488	54	5283
2026-01-21 01:11:01.34	268.78	23.98	-41.4	-44.6	13.4	9.90e-06	0	58	0	540016640	54	5206
2026-01-21 01:11:02.35	268.55	23.89	-41.4	-44.8	13.3	1.37e-05	0	58	0	542113792	54	5296
2026-01-21 01:11:03.36	268.32	23.80	-41.5	-44.8	13.3	1.83e-05	0	58	0	544210944	54	5302
2026-01-21 01:11:04.36	268.09	23.71	-41.4	-44.6	13.5	6.80e-06	0	58	0	546308096	54	5184
2026-01-21 01:11:05.37	267.86	23.62	-41.3	-44.5	13.6	8.30e-06	0	58	0	548405248	54	5105
2026-01-21 01:11:06.38	267.63	23.53	-41.1	-44.2	13.8	8.30e-06	0	58	0	549453824	54	4955
2026-01-21 01:11:07.39	267.41	23.44	-40.9	-43.9	14.2	2.20e-06	0	58	0	551550976	53	5044
2026-01-21 01:11:08.40	267.18	23.35	-40.9	-43.8	14.3	2.20e-06	0	58	0	553648128	53	4989
2026-01-21 01:11:09.41	266.96	23.26	-40.9	-43.9	14.2	0.00e+00	0	58	0	555745280	53	5050
2026-01-21 01:11:10.42	266.73	23.17	-41.0	-44.0	14.1	7.00e-07	0	58	0	557842432	53	5108
2026-01-21 01:11:11.43	266.51	23.08	-41.1	-44.1	13.9	3.00e-06	0	58	0	558891008	53	5218
2026-01-21 01:11:12.44	266.29	22.98	-41.2	-44.3	13.7	6.10e-06	0	58	0	560988160	53	5335
2026-01-21 01:11:13.45	266.07	22.89	-41.5	-44.8	13.1	9.90e-06	0	58	0	563085312	53	5645
2026-01-21 01:11:14.46	265.86	22.80	-41.7	-45.2	12.8	2.97e-05	0	58	0	565182464	53	5908
2026-01-21 01:11:15.47	265.64	22.71	-41.7	-45.3	12.7	7.40e-05	0	58	0	567279616	54	5629
2026-01-21 01:11:16.48	265.42	22.62	-41.8	-45.5	12.5	1.01e-04	0	58	0	568328192	54	5729
2026-01-21 01:11:17.49	265.21	22.52	-41.8	-45.5	12.5	1.25e-04	0	58	0	570425344	54	5761
2026-01-21 01:11:18.50	265.00	22.43	-41.9	-45.7	12.4	1.36e-04	0	58	0	572522496	54	5864
2026-01-21 01:11:19.51	264.79	22.34	-41.8	-45.4	12.5	1.30e-04	0	58	0	574619648	54	5693
2026-01-21 01:11:20.52	264.58	22.25	-41.7	-45.2	12.8	6.71e-05	0	58	0	576716800	54	5556
2026-01-21 01:11:21.53	264.37	22.15	-41.6	-45.0	13.0	4.95e-05	0	58	0	577765376	54	5453
2026-01-21 01:11:22.53	264.16	22.06	-41.6	-45.1	12.9	3.12e-05	0	58	0	579862528	54	5497
2026-01-21 01:11:23.54	263.96	21.97	-41.6	-45.2	12.8	5.87e-05	0	58	0	581959680	54	5545
2026-01-21 01:11:24.55	263.75	21.88	-41.7	-45.3	12.8	4.27e-05	0	58	0	584056832	54	5601
2026-01-21 01:11:25.56	263.55	21.78	-41.5	-44.9	13.1	5.34e-05	0	58	0	586153984	54	5367
2026-01-21 01:11:26.57	263.35	21.69	-41.2	-44.5	13.6	1.14e-05	0	58	0	587202560	54	5106
2026-01-21 01:11:27.58	263.14	21.60	-41.0	-44.1	14.0	1.06e-05	0	58	0	589299712	54	4883
2026-01-21 01:11:28.59	262.94	21.51	-40.9	-43.9	14.1	1.50e-06	0	58	0	591396864	53	5068
2026-01-21 01:11:29.60	262.75	21.41	-40.8	-43.7	14.3	7.00e-07	0	58	0	593494016	53	4929
2026-01-21 01:11:30.61	262.55	21.32	-40.5	-43.2	14.7	1.50e-06	0	58	0	595591168	53	4700
2026-01-21 01:11:31.62	262.35	21.23	-40.6	-43.4	14.6	0.00e+00	0	58	0	596639744	52	5046
2026-01-21 01:11:32.63	262.16	21.13	-40.7	-43.6	14.5	7.00e-07	0	58	0	598736896	52	5167
2026-01-21 01:11:33.64	261.96	21.04	-40.9	-44.0	14.1	7.00e-07	0	58	0	600834048	52	5406
2026-01-21 01:11:34.65	261.77	20.95	-41.0	-44.1	13.9	1.50e-06	0	58	0	602931200	52	5484
2026-01-21 01:11:35.66	261.58	20.85	-41.1	-44.3	13.7	3.80e-06	0	58	0	605028352	52	5603
2026-01-21 01:11:36.67	261.39	20.76	-41.0	-44.1	13.8	5.30e-06	0	58	0	606076928	52	5520
2026-01-21 01:11:37.68	261.20	20.67	-41.1	-44.2	13.8	5.30e-06	0	58	0	608174080	52	5547
2026-01-21 01:11:38.69	261.01	20.57	-41.1	-44.3	13.7	6.10e-06	0	58	0	610271232	52	5612
2026-01-21 01:11:39.70	260.82	20.48	-41.2	-44.4	13.6	9.10e-06	0	58	0	612368384	52	5660
2026-01-21 01:11:40.71	260.64	20.39	-41.1	-44.2	13.8	9.10e-06	0	58	0	614465536	52	5562
2026-01-21 01:11:41.72	260.45	20.30	-41.0	-44.1	13.9	5.30e-06	0	58	0	616562688	52	5519
2026-01-21 01:11:42.73	260.27	20.20	-41.1	-44.3	13.6	5.30e-06	0	58	0	617611264	52	5631
2026-01-21 01:11:43.74	260.08	20.11	-41.1	-44.2	13.7	9.10e-06	0	58	0	619708416	52	5571
2026-01-21 01:11:44.75	259.90	20.02	-41.1	-44.4	13.6	8.30e-06	0	58	0	621805568	52	5663
2026-01-21 01:11:45.76	259.72	19.92	-41.2	-44.4	13.6	8.30e-06	0	58	0	623902720	52	5659
2026-01-21 01:11:46.77	259.54	19.83	-41.2	-44.5	13.4	8.30e-06	0	58	0	625999872	53	5431
2026-01-21 01:11:47.78	259.36	19.74	-41.2	-44.4	13.6	7.60e-06	0	58	0	627048448	53	5349
2026-01-21 01:11:48.79	259.19	19.65	-41.2	-44.4	13.5	7.60e-06	0	58	0	629145600	53	5393
2026-01-21 01:11:49.80	259.01	19.55	-41.3	-44.6	13.3	2.44e-05	0	58	0	631242752	53	5480
2026-01-21 01:11:50.80	258.84	19.46	-41.3	-44.6	13.3	9.10e-06	0	58	0	633339904	53	5497
2026-01-21 01:11:51.81	258.66	19.37	-41.2	-44.5	13.5	1.29e-05	0	58	0	635437056	53	5415
2026-01-21 01:11:52.82	258.49	19.28	-41.1	-44.3	13.6	8.30e-06	0	58	0	636485632	53	5303
2026-01-21 01:11:53.83	258.32	19.18	-41.1	-44.3	13.7	7.60e-06	0	58	0	638582784	53	5291
2026-01-21 01:11:54.84	258.15	19.09	-40.9	-43.8	14.1	3.00e-06	0	58	0	640679936	53	5030
2026-01-21 01:11:55.85	257.98	19.00	-40.9	-43.9	14.0	3.00e-06	0	58	0	642777088	53	5091
2026-01-21 01:11:56.86	257.81	18.91	-40.9	-43.9	14.0	4.50e-06	0	58	0	644874240	53	5092
2026-01-21 01:11:57.87	257.64	18.82	-40.9	-44.0	13.9	2.20e-06	0	58	0	645922816	53	5129
2026-01-21 01:11:58.88	257.48	18.72	-41.2	-44.4	13.5	6.80e-06	0	58	0	648019968	53	5363
2026-01-21 01:11:59.89	257.31	18.63	-41.3	-44.6	13.4	1.44e-05	0	58	0	650117120	53	5473
2026-01-21 01:12:00.90	257.15	18.54	-41.5	-45.1	12.8	3.12e-05	0	58	0	652214272	53	5821
2026-01-21 01:12:01.91	256.98	18.45	-41.7	-45.3	12.6	7.01e-05	0	58	0	654311424	53	5974
2026-01-21 01:12:02.92	256.82	18.36	-41.8	-45.7	12.2	1.74e-04	0	58	0	655360000	54	5870
2026-01-21 01:12:03.93	256.66	18.27	-41.7	-45.3	12.5	1.42e-04	0	58	0	657457152	54	5652
2026-01-21 01:12:04.94	256.50	18.17	-41.7	-45.4	12.4	1.19e-04	0	58	0	659554304	54	5685
2026-01-21 01:12:05.95	256.34	18.08	-41.6	-45.2	12.7	8.23e-05	0	58	0	661651456	54	5549
2026-01-21 01:12:06.96	256.18	17.99	-41.5	-45.0	12.9	5.34e-05	0	58	0	663748608	54	5464
2026-01-21 01:12:07.97	256.02	17.90	-41.3	-44.7	13.2	3.58e-05	0	58	0	664797184	54	5227
2026-01-21 01:12:08.98	255.86	17.81	-41.3	-44.7	13.2	3.89e-05	0	58	0	666894336	54	5273
2026-01-21 01:12:09.99	255.71	17.72	-41.3	-44.7	13.2	2.21e-05	0	58	0	668991488	54	5243
2026-01-21 01:12:11.00	255.55	17.63	-41.4	-44.8	13.1	2.59e-05	0	58	0	671088640	54	5287
2026-01-21 01:12:12.00	255.40	17.54	-41.4	-44.8	13.1	1.75e-05	0	58	0	673185792	54	5329
2026-01-21 01:12:13.01	255.25	17.45	-41.4	-44.9	13.0	2.97e-05	0	58	0	674234368	54	5363
2026-01-21 01:12:14.02	255.10	17.36	-41.5	-45.0	12.9	5.72e-05	0	58	0	676331520	54	5446
2026-01-21 01:12:15.03	254.94	17.27	-41.6	-45.1	12.7	5.95e-05	0	58	0	678428672	54	5521
2026-01-21 01:12:16.04	254.79	17.18	-41.7	-45.5	12.4	9.15e-05	0	58	0	680525824	54	5752
2026-01-21 01:12:17.05	254.64	17.09	-41.8	-45.5	12.3	1.26e-04	0	58	0	682622976	54	5768
2026-01-21 01:12:18.06	254.50	17.00	-41.8	-45.6	12.2	2.04e-04	0	58	0	683671552	54	5833
2026-01-21 01:12:19.07	254.35	16.91	-42.0	-46.0	11.9	4.25e-04	0	58	0	685768704	54	6064
2026-01-21 01:12:20.08	254.20	16.82	-42.1	-46.3	11.6	5.33e-04	0	58	0	687865856	54	6281
2026-01-21 01:12:21.09	254.06	16.73	-42.1	-46.3	11.5	7.26e-04	0	58	0	689963008	54	6309
2026-01-21 01:12:22.10	253.91	16.64	-42.1	-46.3	11.6	5.62e-04	0	58	0	692060160	54	6277
2026-01-21 01:12:23.11	253.77	16.55	-42.0	-46.1	11.7	5.53e-04	0	58	0	694157312	54	6144
2026-01-21 01:12:24.12	253.62	16.46	-41.7	-45.4	12.4	3.20e-04	0	58	0	695205888	54	5720
2026-01-21 01:12:25.13	253.48	16.37	-41.8	-45.6	12.2	2.21e-04	0	58	0	697303040	54	5831
2026-01-21 01:12:26.14	253.34	16.28	-41.7	-45.5	12.4	1.79e-04	0	58	0	699400192	54	5751
2026-01-21 01:12:27.15	253.20	16.20	-41.6	-45.3	12.5	9.61e-05	0	58	0	701497344	54	5634
2026-01-21 01:12:28.16	253.06	16.11	-41.7	-45.5	12.3	1.36e-04	0	58	0	703594496	54	5748
2026-01-21 01:12:29.17	252.92	16.02	-41.6	-45.2	12.6	1.29e-04	0	58	0	704643072	54	5566
2026-01-21 01:12:30.17	252.78	15.93	-41.7	-45.5	12.3	1.94e-04	0	58	0	706740224	54	5777
2026-01-21 01:12:31.18	252.65	15.84	-41.9	-45.9	11.9	2.89e-04	0	58	0	708837376	54	6028
2026-01-21 01:12:32.19	252.51	15.76	-42.2	-46.4	11.4	7.32e-04	0	58	0	710934528	54	6394
2026-01-21 01:12:33.20	252.37	15.67	-42.0	-46.1	11.7	6.45e-04	0	58	0	713031680	54	6166
2026-01-21 01:12:34.21	252.24	15.58	-42.2	-46.4	11.3	7.60e-04	0	58	0	714080256	54	6408
2026-01-21 01:12:35.22	252.10	15.49	-42.1	-46.3	11.5	9.09e-04	0	58	0	716177408	54	6300
2026-01-21 01:12:36.23	251.97	15.41	-42.0	-46.1	11.7	6.87e-04	0	58	0	718274560	54	6151
2026-01-21 01:12:37.24	251.84	15.32	-41.9	-46.0	11.9	5.53e-04	0	58	0	720371712	54	6068
2026-01-21 01:12:38.25	251.71	15.23	-41.8	-45.7	12.2	2.66e-04	0	58	0	722468864	54	5863
2026-01-21 01:12:39.26	251.58	15.15	-41.7	-45.5	12.3	2.30e-04	0	58	0	723517440	54	5772
2026-01-21 01:12:40.27	251.45	15.06	-41.6	-45.2	12.6	1.30e-04	0	58	0	725614592	54	5572
2026-01-21 01:12:41.28	251.32	14.97	-41.6	-45.4	12.4	1.30e-04	0	58	0	727711744	54	5666
2026-01-21 01:12:42.29	251.19	14.89	-41.5	-45.1	12.7	1.25e-04	0	58	0	729808896	54	5527
2026-01-21 01:12:43.30	251.06	14.80	-41.6	-45.2	12.6	7.47e-05	0	58	0	731906048	54	5579
2026-01-21 01:12:44.30	250.93	14.72	-41.6	-45.3	12.5	1.43e-04	0	58	0	732954624	54	5607
2026-01-21 01:12:45.31	250.81	14.63	-41.6	-45.2	12.6	1.07e-04	0	58	0	735051776	54	5570
2026-01-21 01:12:46.32	250.68	14.54	-41.6	-45.2	12.6	1.23e-04	0	58	0	737148928	54	5568
2026-01-21 01:12:47.33	250.56	14.46	-41.6	-45.3	12.5	1.19e-04	0	58	0	739246080	54	5616
2026-01-21 01:12:48.34	250.43	14.37	-41.6	-45.4	12.4	2.00e-04	0	58	0	741343232	54	5660
2026-01-21 01:12:49.35	250.31	14.29	-41.7	-45.5	12.3	1.48e-04	0	58	0	742391808	54	5732
2026-01-21 01:12:50.36	250.19	14.20	-41.8	-45.8	11.9	1.98e-04	0	58	0	744488960	54	5939
2026-01-21 01:12:51.37	250.06	14.12	-41.8	-45.7	12.0	3.44e-04	0	58	0	746586112	54	5902
2026-01-21 01:12:52.38	249.94	14.03	-41.9	-45.9	11.9	3.91e-04	0	58	0	748683264	54	6003
2026-01-21 01:12:53.39	249.82	13.95	-42.0	-46.1	11.6	5.23e-04	0	58	0	750780416	54	6165
2026-01-21 01:12:54.40	249.70	13.87	-42.0	-46.2	11.5	6.00e-04	0	58	0	751828992	54	6210
2026-01-21 01:12:55.41	249.58	13.78	-42.0	-46.1	11.5	7.48e-04	0	58	0	753926144	54	6202
2026-01-21 01:12:56.42	249.46	13.70	-42.0	-46.2	11.5	6.64e-04	0	58	0	756023296	54	6265
2026-01-21 01:12:57.42	249.35	13.61	-42.0	-46.2	11.5	8.13e-04	0	58	0	758120448	54	6263
2026-01-21 01:12:58.43	249.23	13.53	-42.0	-46.0	11.7	8.71e-04	0	58	0	760217600	54	6130
2026-01-21 01:12:59.44	249.11	13.45	-41.9	-46.0	11.7	5.19e-04	0	58	0	762314752	54	6119
2026-01-21 01:13:00.45	249.00	13.36	-41.9	-46.0	11.7	6.12e-04	0	58	0	763363328	54	6099
2026-01-21 01:13:01.46	248.88	13.28	-42.0	-46.1	11.7	4.46e-04	0	58	0	765460480	54	6133
2026-01-21 01:13:02.47	248.77	13.20	-41.9	-46.0	11.7	5.74e-04	0	58	0	767557632	54	6114
2026-01-21 01:13:03.48	248.65	13.11	-41.9	-46.1	11.6	7.09e-04	0	58	0	769654784	54	6152
2026-01-21 01:13:04.49	248.54	13.03	-42.2	-46.6	11.1	1.54e-03	0	58	0	770703360	54	6513
2026-01-21 01:13:05.50	248.43	12.95	-42.2	-46.7	10.9	1.78e-03	0	58	0	772800512	55	6245
2026-01-21 01:13:06.51	248.32	12.87	-42.3	-47.0	10.7	2.14e-03	0	58	0	774897664	55	6436
2026-01-21 01:13:07.52	248.20	12.79	-42.4	-47.2	10.4	4.22e-03	0	58	0	776994816	55	6596
2026-01-21 01:13:08.53	248.09	12.70	-42.5	-47.3	10.3	5.72e-03	0	58	0	779091968	55	6706
2026-01-21 01:13:09.54	247.98	12.62	-42.5	-47.5	10.1	7.14e-03	0	58	0	780140544	55	6804
2026-01-21 01:13:10.55	247.87	12.54	-42.5	-47.4	10.2	6.59e-03	0	58	0	782237696	55	6787
2026-01-21 01:13:11.56	247.76	12.46	-42.5	-47.4	10.2	6.43e-03	0	58	0	784334848	55	6790
2026-01-21 01:13:12.57	247.66	12.38	-42.4	-47.1	10.5	4.50e-03	0	58	0	786432000	55	6520
2026-01-21 01:13:13.58	247.55	12.30	-42.2	-46.7	10.9	2.48e-03	0	58	0	788529152	55	6215
2026-01-21 01:13:14.59	247.44	12.22	-42.1	-46.4	11.2	1.49e-03	0	58	0	790626304	55	6052
2026-01-21 01:13:15.59	247.34	12.14	-41.9	-46.0	11.6	8.07e-04	0	58	0	791674880	55	5780
2026-01-21 01:13:16.60	247.23	12.05	-41.8	-45.9	11.7	6.14e-04	0	58	0	793772032	55	5691
2026-01-21 01:13:17.61	247.12	11.97	-41.7	-45.7	12.0	4.02e-04	0	58	0	795869184	55	5538
2026-01-21 01:13:18.62	247.02	11.89	-41.7	-45.6	12.1	2.61e-04	0	58	0	797966336	55	5487
2026-01-21 01:13:19.63	246.92	11.81	-41.7	-45.6	12.1	3.32e-04	0	58	0	800063488	55	5471
2026-01-21 01:13:20.64	246.81	11.73	-41.7	-45.6	12.0	3.55e-04	0	58	0	801112064	55	5521
2026-01-21 01:13:21.65	246.71	11.65	-41.7	-45.7	11.9	3.03e-04	0	58	0	803209216	55	5537
2026-01-21 01:13:22.66	246.61	11.57	-41.7	-45.7	11.9	3.84e-04	0	58	0	805306368	55	5587
2026-01-21 01:13:23.67	246.50	11.50	-41.9	-46.1	11.5	7.75e-04	0	58	0	807403520	55	5829
2026-01-21 01:13:24.68	246.40	11.42	-42.0	-46.4	11.2	1.17e-03	0	58	0	809500672	55	6043
2026-01-21 01:13:25.69	246.30	11.34	-42.3	-47.0	10.5	1.90e-03	0	58	0	810549248	55	6444
2026-01-21 01:13:26.70	246.20	11.26	-42.3	-47.1	10.5	3.96e-03	0	58	0	812646400	55	6534
2026-01-21 01:13:27.71	246.10	11.18	-42.5	-47.4	10.1	5.73e-03	0	58	0	814743552	55	6768
2026-01-21 01:13:28.72	246.00	11.10	-42.5	-47.7	9.8	8.85e-03	0	58	0	816840704	55	6976
2026-01-21 01:13:29.73	245.91	11.02	-42.6	-47.9	9.5	1.23e-02	0	58	0	818937856	55	7192
2026-01-21 01:13:30.74	245.81	10.94	-42.7	-48.1	9.4	1.44e-02	0	58	0	819986432	55	7313
2026-01-21 01:13:31.75	245.71	10.87	-42.7	-48.2	9.3	1.58e-02	0	58	0	822083584	55	7376
2026-01-21 01:13:32.76	245.61	10.79	-42.9	-48.5	9.1	2.16e-02	0	58	0	824180736	56	7231
2026-01-21 01:13:33.76	245.52	10.71	-42.9	-48.4	9.2	1.90e-02	0	58	0	826277888	56	7192
2026-01-21 01:13:34.77	245.42	10.63	-42.9	-48.6	8.9	2.18e-02	0	58	0	828375040	56	7365
2026-01-21 01:13:35.78	245.33	10.56	-42.9	-48.5	9.1	2.47e-02	0	58	0	829423616	56	7230
2026-01-21 01:13:36.79	245.23	10.48	-42.9	-48.5	9.1	2.40e-02	0	58	0	831520768	56	7270
2026-01-21 01:13:37.80	245.14	10.40	-42.9	-48.6	8.9	2.60e-02	0	58	0	833617920	56	7367
2026-01-21 01:13:38.81	245.04	10.32	-42.9	-48.5	9.1	2.67e-02	0	58	0	835715072	56	7257
2026-01-21 01:13:39.82	244.95	10.25	-42.9	-48.5	9.2	2.37e-02	0	58	0	837812224	56	7229
2026-01-21 01:13:40.83	244.86	10.17	-42.9	-48.6	9.0	2.49e-02	0	58	0	838860800	56	7340
2026-01-21 01:13:41.84	244.76	10.09	-42.9	-48.4	9.1	2.25e-02	0	58	0	840957952	56	7181
2026-01-21 01:13:42.85	244.67	10.02	-42.8	-48.3	9.3	2.09e-02	0	58	0	843055104	56	7060
2026-01-21 01:13:43.86	244.58	9.94	-42.8	-48.3	9.2	1.76e-02	0	58	0	845152256	56	7054
2026-01-21 01:13:44.87	244.49	9.87	-42.8	-48.3	9.2	2.07e-02	0	58	0	847249408	56	7100
2026-01-21 01:13:45.88	244.40	9.79	-42.7	-48.0	9.5	1.54e-02	0	58	0	848297984	56	6873
2026-01-21 01:13:46.89	244.31	9.72	-42.8	-48.2	9.3	1.63e-02	0	58	0	850395136	56	6987
2026-01-21 01:13:47.89	244.22	9.64	-42.8	-48.2	9.3	1.66e-02	0	58	0	852492288	56	7039
2026-01-21 01:13:48.90	244.13	9.57	-42.8	-48.2	9.4	1.78e-02	0	58	0	854589440	56	7027
2026-01-21 01:13:49.91	244.04	9.49	-42.8	-48.4	9.1	2.05e-02	0	58	0	856686592	56	7156
2026-01-21 01:13:50.92	243.96	9.42	-42.9	-48.5	9.0	2.49e-02	0	58	0	858783744	56	7229
2026-01-21 01:13:51.93	243.87	9.34	-42.9	-48.6	9.0	2.46e-02	0	58	0	859832320	56	7288
2026-01-21 01:13:52.94	243.78	9.27	-42.9	-48.7	8.8	2.61e-02	0	58	0	861929472	56	7417
2026-01-21 01:13:53.96	243.69	9.19	-42.9	-48.8	8.7	3.21e-02	0	58	0	864026624	56	7467
2026-01-21 01:13:54.97	243.61	9.12	-42.9	-48.7	8.8	3.74e-02	0	58	0	866123776	56	7442
2026-01-21 01:13:55.98	243.52	9.04	-43.0	-49.1	8.4	4.70e-02	0	58	0	868220928	56	7750
2026-01-21 01:13:56.99	243.44	8.97	-42.9	-48.9	8.6	4.36e-02	0	58	0	869269504	56	7582
2026-01-21 01:13:58.00	243.35	8.89	-42.9	-48.8	8.6	4.31e-02	0	58	0	871366656	56	7528
2026-01-21 01:13:59.01	243.27	8.82	-42.9	-48.6	8.8	3.45e-02	0	58	0	873463808	56	7351
2026-01-21 01:14:00.02	243.18	8.75	-42.8	-48.5	8.9	3.23e-02	0	58	0	875560960	56	7237
2026-01-21 01:14:01.03	243.10	8.67	-42.8	-48.4	9.1	2.27e-02	0	58	0	877658112	56	7156
2026-01-21 01:14:02.04	243.02	8.60	-42.7	-48.0	9.4	1.92e-02	0	58	0	878706688	56	6864
2026-01-21 01:14:03.04	242.93	8.53	-42.6	-48.0	9.5	1.47e-02	0	58	0	880803840	56	6809
2026-01-21 01:14:04.05	242.85	8.46	-42.5	-47.6	9.9	1.09e-02	0	58	0	882900992	56	6510
2026-01-21 01:14:05.06	242.77	8.38	-42.4	-47.3	10.2	8.44e-03	0	58	0	884998144	56	6289
2026-01-21 01:14:06.07	242.69	8.31	-42.3	-47.2	10.3	5.83e-03	0	58	0	887095296	56	6233
2026-01-21 01:14:07.08	242.61	8.24	-42.2	-46.9	10.6	3.66e-03	0	58	0	888143872	56	6006
2026-01-21 01:14:08.09	242.53	8.16	-42.2	-46.8	10.7	3.41e-03	0	58	0	890241024	56	5961
2026-01-21 01:14:09.10	242.45	8.09	-42.0	-46.5	11.0	2.26e-03	0	58	0	892338176	56	5760
2026-01-21 01:14:10.11	242.37	8.02	-42.1	-46.7	10.9	2.15e-03	0	58	0	894435328	56	5863
2026-01-21 01:14:11.12	242.29	7.95	-44.6	-58.8	3.8	4.21e-01	0	58	104	895483904	59	19937
2026-01-21 01:14:12.13	242.21	7.88	-44.8	-59.4	3.8	1.49e+00	0	58	104	895483904	60	20195
