passes_logs/2026/01/21/R2.0S_Moscow/R2.0S_Moscow__20260121_075508_NOAA_20_JPSS-1_rec.log

#Pass ID: 20260121_075508_NOAA 20 (JPSS-1)
#Satellite: NOAA 20 (JPSS-1)
#Configuration: NOAA 20
#almurnet v.1.7.20251203
#Start time: 2026-01-21 07:55:07

#Version: 2.2.20231116
#Station: R2.0S_Moscow
#Location: 37.707566 lon 55.798166 lat
#TLE: 1 43013U 17073A   26020.26397077  .00000127  00000+0  80954-4 0  9999
#TLE: 2 43013  98.7643 321.1479 0001288  31.3158 328.8095 14.19537595423482

#Time	Az	El	Level	Level2	SNR	BER	BlckErr	Temp	State	Recorded	gain1	gain2
2026-01-21 07:55:07.99	101.49	1.99	-40.0	-55.0	3.8	1.49e+00	0	51	0	0	51	20387
2026-01-21 07:55:08.99	101.41	2.04	-40.4	-55.1	3.8	1.49e+00	0	51	104	0	51	20565
2026-01-21 07:55:10.01	101.33	2.09	-40.2	-55.0	3.8	1.49e+00	0	51	104	0	51	20427
2026-01-21 07:55:11.02	101.25	2.15	-40.4	-55.0	3.8	1.49e+00	0	51	104	0	51	20441
2026-01-21 07:55:12.03	101.17	2.20	-40.1	-55.0	3.8	1.49e+00	0	51	104	0	51	20318
2026-01-21 07:55:13.04	101.09	2.25	-40.3	-55.0	3.8	1.49e+00	0	51	104	0	51	20393
2026-01-21 07:55:14.05	101.01	2.31	-40.4	-55.0	3.8	1.49e+00	0	51	104	0	51	20492
2026-01-21 07:55:15.06	100.93	2.36	-40.2	-55.0	3.8	1.49e+00	0	51	104	0	51	20345
2026-01-21 07:55:16.07	100.85	2.41	-40.4	-55.0	3.8	1.49e+00	0	52	104	0	51	20420
2026-01-21 07:55:17.08	100.76	2.47	-40.1	-55.0	3.8	1.49e+00	0	52	104	0	51	20328
2026-01-21 07:55:18.09	100.68	2.52	-40.4	-55.0	3.8	1.49e+00	0	52	104	0	51	20429
2026-01-21 07:55:19.10	100.60	2.57	-40.4	-55.0	3.8	1.49e+00	0	52	104	0	51	20450
2026-01-21 07:55:20.11	100.52	2.63	-40.4	-55.0	3.8	1.49e+00	0	52	104	0	51	20448
2026-01-21 07:55:21.12	100.43	2.68	-40.4	-55.0	3.8	1.49e+00	0	52	104	0	51	20452
2026-01-21 07:55:22.13	100.35	2.74	-40.3	-55.0	3.8	1.49e+00	0	52	104	0	51	20412
2026-01-21 07:55:23.14	100.27	2.79	-40.4	-55.0	3.8	1.49e+00	0	52	104	0	51	20433
2026-01-21 07:55:24.15	100.18	2.84	-40.4	-55.0	3.8	1.49e+00	0	52	104	0	51	20498
2026-01-21 07:55:25.16	100.10	2.90	-40.4	-55.0	3.8	1.49e+00	0	52	104	0	51	20488
2026-01-21 07:55:26.17	100.01	2.95	-40.3	-55.0	3.8	1.49e+00	0	52	104	0	51	20414
2026-01-21 07:55:27.18	99.93	3.01	-40.3	-55.0	3.8	1.49e+00	0	52	104	0	51	20390
2026-01-21 07:55:28.19	99.84	3.06	-40.4	-55.0	3.8	1.49e+00	0	52	104	0	51	20426
2026-01-21 07:55:29.20	99.76	3.11	-40.3	-55.0	3.8	1.49e+00	0	52	104	0	51	20430
2026-01-21 07:55:30.21	99.67	3.17	-40.4	-55.0	3.8	1.49e+00	0	52	104	0	51	20473
2026-01-21 07:55:31.22	99.58	3.22	-40.4	-55.0	3.8	1.49e+00	0	53	104	0	51	20447
2026-01-21 07:55:32.23	99.50	3.28	-40.4	-55.0	3.8	1.49e+00	0	53	104	0	51	20416
2026-01-21 07:55:33.23	99.41	3.33	-40.4	-55.0	3.8	1.49e+00	0	53	104	0	51	20488
2026-01-21 07:55:34.24	99.32	3.38	-40.3	-55.0	3.8	1.49e+00	0	52	104	0	51	20404
2026-01-21 07:55:35.25	99.24	3.44	-40.1	-55.0	3.8	1.49e+00	0	53	104	0	51	20461
2026-01-21 07:55:36.26	99.15	3.49	-40.4	-55.0	3.8	1.49e+00	0	53	104	0	51	20454
2026-01-21 07:55:37.27	99.06	3.55	-40.4	-55.0	3.8	1.49e+00	0	53	104	0	51	20409
2026-01-21 07:55:38.28	98.97	3.60	-40.4	-55.0	3.8	1.49e+00	0	53	104	0	51	20452
2026-01-21 07:55:39.29	98.88	3.66	-40.4	-55.0	3.8	1.49e+00	0	53	104	0	51	20452
2026-01-21 07:55:40.30	98.79	3.71	-40.4	-55.0	3.8	1.49e+00	0	53	104	0	51	20421
2026-01-21 07:55:41.31	98.70	3.77	-40.3	-55.0	3.8	1.49e+00	0	53	104	0	51	20458
2026-01-21 07:55:42.32	98.61	3.82	-40.3	-55.0	3.8	1.49e+00	0	53	104	0	51	20426
2026-01-21 07:55:43.33	98.52	3.88	-40.4	-55.0	3.8	1.49e+00	0	53	104	0	51	20392
2026-01-21 07:55:44.34	98.43	3.93	-40.4	-55.0	3.8	1.49e+00	0	53	104	0	51	20431
2026-01-21 07:55:45.35	98.34	3.99	-40.3	-55.0	3.8	1.49e+00	0	54	104	0	51	20369
2026-01-21 07:55:46.36	98.25	4.04	-40.4	-55.0	3.8	1.49e+00	0	53	104	0	51	20395
2026-01-21 07:55:47.37	98.16	4.10	-40.4	-55.0	3.8	1.49e+00	0	53	104	0	51	20369
2026-01-21 07:55:48.38	98.06	4.15	-40.4	-55.0	3.8	1.49e+00	0	54	104	0	51	20437
2026-01-21 07:55:49.39	97.97	4.21	-40.4	-55.0	3.8	1.49e+00	0	54	104	0	51	20414
2026-01-21 07:55:50.40	97.88	4.26	-40.2	-55.0	3.8	1.49e+00	0	54	104	0	51	20450
2026-01-21 07:55:51.41	97.79	4.32	-40.4	-55.0	3.8	1.49e+00	0	54	104	0	51	20441
2026-01-21 07:55:52.42	97.69	4.37	-40.4	-55.0	3.8	1.49e+00	0	54	104	0	51	20390
2026-01-21 07:55:53.43	97.60	4.43	-40.4	-55.0	3.8	1.49e+00	0	54	104	0	51	20432
2026-01-21 07:55:54.44	97.50	4.48	-40.4	-55.0	3.8	1.49e+00	0	54	104	0	51	20458
2026-01-21 07:55:55.45	97.41	4.54	-40.4	-55.0	3.8	1.49e+00	0	54	104	0	51	20433
2026-01-21 07:55:56.46	97.31	4.59	-40.3	-55.0	3.8	1.49e+00	0	54	104	0	51	20396
2026-01-21 07:55:57.47	97.22	4.65	-40.4	-55.0	3.8	1.49e+00	0	54	104	0	51	20376
2026-01-21 07:55:58.48	97.12	4.70	-40.1	-55.0	3.8	1.49e+00	0	54	104	0	51	20367
2026-01-21 07:55:59.49	97.03	4.76	-40.4	-55.0	3.8	1.49e+00	0	54	104	0	51	20362
2026-01-21 07:56:00.50	96.93	4.81	-40.4	-55.0	3.8	1.49e+00	0	54	104	0	51	20415
2026-01-21 07:56:01.51	96.83	4.87	-40.3	-55.0	3.8	1.49e+00	0	54	104	0	51	20420
2026-01-21 07:56:02.53	96.73	4.93	-40.2	-54.9	3.8	1.49e+00	0	54	104	0	51	20288
2026-01-21 07:56:03.54	96.64	4.98	-40.4	-55.0	3.8	1.49e+00	0	54	104	0	51	20409
2026-01-21 07:56:04.55	96.54	5.04	-40.4	-55.0	3.8	1.49e+00	0	54	104	0	51	20402
2026-01-21 07:56:05.56	96.44	5.09	-40.3	-55.0	3.8	1.49e+00	0	55	104	0	51	20411
2026-01-21 07:56:06.57	96.34	5.15	-40.4	-55.0	3.8	1.49e+00	0	54	104	0	51	20405
2026-01-21 07:56:07.58	96.24	5.20	-40.4	-55.0	3.8	1.49e+00	0	54	104	0	51	20425
2026-01-21 07:56:08.58	96.14	5.26	-40.4	-55.0	3.8	1.49e+00	0	54	104	0	51	20392
2026-01-21 07:56:09.59	96.04	5.31	-40.4	-55.0	3.8	1.49e+00	0	55	104	0	51	20360
2026-01-21 07:56:10.61	95.94	5.37	-40.4	-55.0	3.8	1.49e+00	0	55	104	0	51	20394
2026-01-21 07:56:11.62	95.84	5.43	-40.2	-55.0	3.8	1.49e+00	0	55	104	0	51	20358
2026-01-21 07:56:12.63	95.74	5.48	-40.4	-55.0	3.8	1.49e+00	0	55	104	0	51	20431
2026-01-21 07:56:13.64	95.64	5.54	-40.1	-55.0	3.8	1.49e+00	0	55	104	0	51	20335
2026-01-21 07:56:14.65	95.54	5.60	-40.4	-55.0	3.8	1.49e+00	0	55	104	0	51	20387
2026-01-21 07:56:15.66	95.43	5.65	-40.4	-55.0	3.8	1.49e+00	0	55	104	0	51	20408
2026-01-21 07:56:16.66	95.33	5.71	-40.4	-55.0	3.8	1.49e+00	0	55	104	0	51	20428
2026-01-21 07:56:17.67	95.23	5.76	-40.4	-55.0	3.8	1.49e+00	0	55	104	0	51	20464
2026-01-21 07:56:18.68	95.13	5.82	-40.4	-55.0	3.8	1.49e+00	0	55	104	0	51	20362
2026-01-21 07:56:19.69	95.02	5.88	-40.4	-55.0	3.8	1.49e+00	0	55	104	0	51	20464
2026-01-21 07:56:20.70	94.92	5.93	-40.4	-55.0	3.8	1.49e+00	0	55	104	0	51	20437
2026-01-21 07:56:21.71	94.81	5.99	-40.4	-55.0	3.8	1.49e+00	0	55	104	0	51	20459
2026-01-21 07:56:22.72	94.71	6.04	-40.4	-55.0	3.8	1.49e+00	0	55	104	0	51	20383
2026-01-21 07:56:23.73	94.60	6.10	-40.4	-55.0	3.8	1.49e+00	0	55	104	0	51	20391
2026-01-21 07:56:24.74	94.50	6.16	-40.4	-55.0	3.8	1.49e+00	0	55	104	0	51	20427
2026-01-21 07:56:25.75	94.39	6.21	-40.4	-55.0	3.8	1.49e+00	0	55	104	0	51	20408
2026-01-21 07:56:26.76	94.28	6.27	-40.4	-55.0	3.8	1.49e+00	0	55	104	0	51	20396
2026-01-21 07:56:27.77	94.17	6.33	-40.3	-55.0	3.8	1.49e+00	0	55	104	0	51	20305
2026-01-21 07:56:28.78	94.07	6.38	-40.4	-55.0	3.8	1.49e+00	0	56	104	0	51	20391
2026-01-21 07:56:29.79	93.96	6.44	-40.4	-55.0	3.8	1.49e+00	0	55	104	0	51	20431
2026-01-21 07:56:30.80	93.85	6.50	-40.3	-55.0	3.8	1.49e+00	0	55	104	0	51	20414
2026-01-21 07:56:31.81	93.74	6.55	-40.4	-55.0	3.8	1.49e+00	0	56	104	0	51	20454
2026-01-21 07:56:32.82	93.63	6.61	-40.4	-55.0	3.8	1.49e+00	0	55	104	0	51	20440
2026-01-21 07:56:33.83	93.52	6.66	-40.4	-55.0	3.8	1.49e+00	0	56	104	0	51	20460
2026-01-21 07:56:34.84	93.41	6.72	-40.3	-55.0	3.8	1.49e+00	0	56	104	0	51	20396
2026-01-21 07:56:35.86	93.30	6.78	-40.4	-55.0	3.8	1.49e+00	0	56	104	0	51	20458
2026-01-21 07:56:36.87	93.19	6.84	-40.4	-55.0	3.8	1.49e+00	0	56	104	0	51	20461
2026-01-21 07:56:37.88	93.08	6.89	-40.3	-55.0	3.8	1.49e+00	0	56	104	0	51	20351
2026-01-21 07:56:38.89	92.96	6.95	-40.4	-55.0	3.8	1.49e+00	0	56	104	0	51	20391
2026-01-21 07:56:39.89	92.85	7.01	-40.1	-54.9	3.8	1.49e+00	0	56	104	0	51	20285
2026-01-21 07:56:40.90	92.74	7.06	-40.2	-55.0	3.8	1.49e+00	0	56	104	0	51	20334
2026-01-21 07:56:41.91	92.63	7.12	-40.3	-55.0	3.8	1.49e+00	0	56	104	0	51	20360
2026-01-21 07:56:42.93	92.51	7.18	-40.4	-55.0	3.8	1.49e+00	0	56	104	0	51	20425
2026-01-21 07:56:43.94	92.40	7.23	-40.4	-55.0	3.8	1.49e+00	0	56	104	0	51	20416
2026-01-21 07:56:44.95	92.28	7.29	-40.4	-55.0	3.8	1.49e+00	0	56	104	0	51	20372
2026-01-21 07:56:45.96	92.17	7.35	-40.4	-55.0	3.8	1.49e+00	0	56	104	0	51	20419
2026-01-21 07:56:46.97	92.05	7.40	-40.4	-55.0	3.8	1.49e+00	0	56	104	0	51	20409
2026-01-21 07:56:47.98	91.93	7.46	-40.4	-55.0	3.8	1.49e+00	0	56	104	0	51	20427
2026-01-21 07:56:48.99	91.82	7.52	-40.3	-55.0	3.8	1.49e+00	0	56	104	0	51	20331
2026-01-21 07:56:50.00	91.70	7.57	-40.4	-55.0	3.8	1.49e+00	0	56	104	0	51	20377
2026-01-21 07:56:51.01	91.58	7.63	-40.4	-55.0	3.8	1.49e+00	0	56	104	0	51	20369
2026-01-21 07:56:52.02	91.47	7.69	-40.4	-55.0	3.8	1.49e+00	0	56	104	0	51	20397
2026-01-21 07:56:53.03	91.35	7.74	-40.4	-55.0	3.8	1.49e+00	0	56	104	0	51	20374
2026-01-21 07:56:54.04	91.23	7.80	-40.4	-55.0	3.8	1.49e+00	0	56	104	0	51	20361
2026-01-21 07:56:55.05	91.11	7.86	-40.4	-54.9	3.8	1.49e+00	0	56	104	0	51	20175
2026-01-21 07:56:56.06	90.99	7.92	-40.4	-54.8	3.8	1.49e+00	0	56	104	0	51	19936
2026-01-21 07:56:57.07	90.87	7.97	-40.4	-54.7	3.8	1.49e+00	0	56	104	0	51	19661
2026-01-21 07:56:58.08	90.75	8.03	-40.4	-54.5	3.8	1.49e+00	0	56	104	0	51	19387
2026-01-21 07:56:59.09	90.63	8.09	-40.8	-55.4	3.8	1.49e+00	0	56	104	0	52	20130
2026-01-21 07:57:00.10	90.50	8.14	-40.6	-55.1	3.8	1.49e+00	0	56	104	0	52	19390
2026-01-21 07:57:01.11	90.38	8.20	-40.3	-54.9	3.8	1.49e+00	0	56	104	0	52	19012
2026-01-21 07:57:02.12	90.26	8.26	-40.6	-55.0	3.8	1.49e+00	0	57	104	0	52	19241
2026-01-21 07:57:03.13	90.14	8.31	-40.3	-54.8	3.8	1.49e+00	0	56	104	0	52	18941
2026-01-21 07:57:04.14	90.01	8.37	-40.5	-55.0	3.8	1.49e+00	0	57	104	0	51	20467
2026-01-21 07:57:05.15	89.89	8.43	-40.5	-55.1	3.8	1.49e+00	0	57	104	0	51	20581
2026-01-21 07:57:06.16	89.76	8.49	-40.6	-55.2	3.8	1.49e+00	0	56	104	0	51	20797
2026-01-21 07:57:07.17	89.64	8.54	-40.4	-55.0	3.8	1.49e+00	0	56	104	0	51	20477
2026-01-21 07:57:08.18	89.51	8.60	-40.3	-54.9	3.8	1.49e+00	0	57	104	0	51	20216
2026-01-21 07:57:09.19	89.38	8.66	-40.8	-55.4	3.9	1.49e+00	0	57	104	0	52	20135
2026-01-21 07:57:10.19	89.26	8.71	-40.5	-55.3	3.8	1.49e+00	0	57	104	0	51	21092
2026-01-21 07:57:11.20	89.13	8.77	-40.6	-55.2	3.8	1.49e+00	0	57	104	0	51	20859
2026-01-21 07:57:12.21	89.00	8.83	-40.8	-55.4	3.8	1.49e+00	0	57	104	0	52	20081
2026-01-21 07:57:13.22	88.88	8.88	-40.1	-55.0	3.8	1.49e+00	0	57	104	0	51	20476
2026-01-21 07:57:14.23	88.75	8.94	-40.4	-55.3	3.8	1.49e+00	0	57	104	0	52	19900
2026-01-21 07:57:15.24	88.62	9.00	-40.6	-55.2	3.8	1.49e+00	0	57	104	0	52	19696
2026-01-21 07:57:16.25	88.49	9.06	-40.8	-55.4	3.8	1.49e+00	0	57	104	0	52	20244
2026-01-21 07:57:17.26	88.36	9.11	-40.5	-55.1	3.8	1.49e+00	0	57	104	0	51	20761
2026-01-21 07:57:18.27	88.23	9.17	-40.6	-55.2	3.8	1.49e+00	0	57	104	0	52	19773
2026-01-21 07:57:19.27	88.10	9.23	-40.6	-55.2	3.8	1.49e+00	0	57	104	0	52	19780
2026-01-21 07:57:20.28	87.96	9.28	-40.8	-55.4	3.8	1.49e+00	0	57	104	0	52	20256
2026-01-21 07:57:21.29	87.83	9.34	-40.4	-55.0	3.8	1.49e+00	0	57	104	0	52	19385
2026-01-21 07:57:22.30	87.70	9.40	-40.6	-55.2	3.8	1.49e+00	0	57	104	0	52	19692
2026-01-21 07:57:23.31	87.56	9.45	-40.6	-55.3	3.8	1.49e+00	0	57	104	0	52	19871
2026-01-21 07:57:24.32	87.43	9.51	-40.7	-55.4	3.7	1.49e+00	0	57	104	0	52	20097
2026-01-21 07:57:25.33	87.30	9.57	-40.6	-55.5	3.8	1.49e+00	0	57	104	0	51	21516
2026-01-21 07:57:26.34	87.16	9.62	-40.6	-55.2	3.9	1.49e+00	0	57	104	0	52	19803
2026-01-21 07:57:27.35	87.03	9.68	-40.4	-55.3	3.8	1.49e+00	0	57	104	0	51	21190
2026-01-21 07:57:28.36	86.89	9.74	-40.7	-55.4	3.8	1.49e+00	0	57	104	0	52	20253
2026-01-21 07:57:29.37	86.75	9.79	-40.6	-55.2	3.8	1.49e+00	0	57	104	0	51	20833
2026-01-21 07:57:30.38	86.62	9.85	-39.9	-55.2	3.8	1.49e+00	0	57	104	0	51	20853
2026-01-21 07:57:31.39	86.48	9.91	-40.5	-55.1	3.8	1.49e+00	0	57	104	0	51	20560
2026-01-21 07:57:32.40	86.34	9.96	-40.4	-55.1	3.8	1.49e+00	0	57	104	0	51	20741
2026-01-21 07:57:33.41	86.20	10.02	-40.6	-55.2	3.8	1.49e+00	0	57	104	0	51	20822
2026-01-21 07:57:34.42	86.06	10.08	-40.6	-55.2	3.9	1.49e+00	0	57	104	0	51	20801
2026-01-21 07:57:35.43	85.92	10.13	-40.2	-55.2	3.8	1.49e+00	0	58	104	0	51	20853
2026-01-21 07:57:36.44	85.78	10.19	-39.8	-55.2	3.9	1.49e+00	0	58	104	0	50	22107
2026-01-21 07:57:37.44	85.64	10.25	-40.6	-55.2	3.8	1.49e+00	0	58	104	0	51	20971
2026-01-21 07:57:38.45	85.50	10.30	-40.6	-55.2	3.8	1.49e+00	0	57	104	0	51	21016
2026-01-21 07:57:39.46	85.36	10.36	-40.5	-55.1	3.8	1.49e+00	0	58	104	0	51	20700
2026-01-21 07:57:40.47	85.21	10.42	-40.5	-55.1	3.8	1.49e+00	0	58	104	0	51	20762
2026-01-21 07:57:41.48	85.07	10.47	-40.7	-55.2	3.8	1.49e+00	0	58	104	0	51	21011
2026-01-21 07:57:42.49	84.93	10.53	-40.6	-55.2	3.8	1.49e+00	0	58	104	0	51	20966
2026-01-21 07:57:43.50	84.78	10.58	-40.1	-55.0	3.8	1.49e+00	0	57	104	0	51	20305
2026-01-21 07:57:44.51	84.64	10.64	-40.3	-55.1	3.8	1.49e+00	0	58	104	0	51	20695
2026-01-21 07:57:45.52	84.49	10.70	-40.6	-55.2	3.8	1.49e+00	0	58	104	0	51	20954
2026-01-21 07:57:46.52	84.35	10.75	-40.4	-55.2	3.8	1.49e+00	0	58	104	0	51	20846
2026-01-21 07:57:47.53	84.20	10.81	-40.5	-55.1	3.8	1.49e+00	0	58	104	0	51	20708
2026-01-21 07:57:48.54	84.05	10.86	-40.4	-55.2	3.8	1.49e+00	0	58	104	0	51	20849
2026-01-21 07:57:49.55	83.90	10.92	-40.4	-55.2	3.8	1.49e+00	0	58	104	0	51	20851
2026-01-21 07:57:50.56	83.76	10.98	-40.4	-55.1	3.8	1.49e+00	0	58	104	0	51	20712
2026-01-21 07:57:51.57	83.61	11.03	-40.5	-55.1	3.8	1.49e+00	0	58	104	0	51	20705
2026-01-21 07:57:52.58	83.46	11.09	-40.6	-55.2	3.8	1.49e+00	0	58	104	0	51	20808
2026-01-21 07:57:53.59	83.31	11.14	-40.6	-55.2	3.8	1.49e+00	0	58	104	0	51	21013
2026-01-21 07:57:54.60	83.16	11.20	-40.5	-55.2	3.8	1.49e+00	0	58	104	0	51	20804
2026-01-21 07:57:55.61	83.01	11.25	-40.5	-55.1	3.8	1.49e+00	0	58	104	0	51	20661
2026-01-21 07:57:56.62	82.85	11.31	-40.5	-55.2	3.8	1.49e+00	0	58	104	0	51	20812
2026-01-21 07:57:57.63	82.70	11.37	-40.6	-55.3	3.8	1.49e+00	0	58	104	0	51	21027
2026-01-21 07:57:58.64	82.55	11.42	-40.5	-55.1	3.8	1.49e+00	0	58	104	0	51	20682
2026-01-21 07:57:59.65	82.39	11.48	-40.5	-55.2	3.8	1.49e+00	0	58	104	0	51	20849
2026-01-21 07:58:00.66	82.24	11.53	-40.5	-55.2	3.8	1.49e+00	0	58	104	0	51	20832
2026-01-21 07:58:01.67	82.09	11.59	-40.6	-55.3	3.8	1.49e+00	0	58	104	0	51	21029
2026-01-21 07:58:02.68	81.93	11.64	-40.4	-55.0	3.8	1.49e+00	0	58	104	0	52	19339
2026-01-21 07:58:03.69	81.77	11.70	-40.5	-55.1	3.8	1.49e+00	0	58	104	0	52	19558
2026-01-21 07:58:04.70	81.62	11.75	-40.5	-55.1	3.8	1.49e+00	0	58	104	0	52	19450
2026-01-21 07:58:05.71	81.46	11.81	-40.7	-55.3	3.8	1.49e+00	0	58	104	0	52	19929
2026-01-21 07:58:06.72	81.30	11.86	-40.4	-55.1	3.8	1.49e+00	0	58	104	0	52	19487
2026-01-21 07:58:07.73	81.14	11.92	-40.6	-55.2	3.8	1.49e+00	0	58	104	0	52	19737
2026-01-21 07:58:08.74	80.99	11.97	-40.5	-55.2	3.8	1.49e+00	0	58	104	0	52	19619
2026-01-21 07:58:09.75	80.83	12.02	-40.7	-55.3	3.8	1.49e+00	0	58	104	0	52	20019
2026-01-21 07:58:10.76	80.67	12.08	-40.5	-55.2	3.8	1.49e+00	0	58	104	0	52	19666
2026-01-21 07:58:11.77	80.51	12.13	-40.7	-55.3	3.8	1.49e+00	0	58	104	0	52	19978
2026-01-21 07:58:12.77	80.35	12.19	-40.6	-55.2	3.8	1.49e+00	0	58	104	0	52	19686
2026-01-21 07:58:13.78	80.18	12.24	-40.8	-55.4	3.8	1.49e+00	0	58	104	0	52	20191
2026-01-21 07:58:14.79	80.02	12.29	-40.6	-55.2	3.8	1.49e+00	0	58	104	0	52	19800
2026-01-21 07:58:15.80	79.86	12.35	-40.7	-55.3	3.8	1.49e+00	0	58	104	0	52	20002
2026-01-21 07:58:16.81	79.69	12.40	-40.6	-55.3	3.8	1.49e+00	0	58	104	0	52	19897
2026-01-21 07:58:17.82	79.53	12.46	-40.9	-55.5	3.8	1.49e+00	0	58	104	0	52	20434
2026-01-21 07:58:18.83	79.37	12.51	-40.5	-55.2	3.8	1.49e+00	0	58	104	0	52	19799
2026-01-21 07:58:19.84	79.20	12.56	-40.8	-55.4	3.8	1.49e+00	0	58	104	0	52	20149
2026-01-21 07:58:20.85	79.03	12.62	-40.7	-55.3	3.8	1.49e+00	0	58	104	0	52	20019
2026-01-21 07:58:21.86	78.87	12.67	-41.0	-55.6	3.8	1.49e+00	0	58	104	0	52	20633
2026-01-21 07:58:22.87	78.70	12.72	-40.7	-55.3	3.8	1.49e+00	0	58	104	0	52	20042
2026-01-21 07:58:23.88	78.53	12.77	-40.9	-55.5	3.8	1.49e+00	0	58	104	0	52	20521
2026-01-21 07:58:24.89	78.36	12.83	-40.7	-55.3	3.8	1.49e+00	0	58	104	0	52	20058
2026-01-21 07:58:25.90	78.19	12.88	-41.1	-55.6	3.8	1.49e+00	0	59	104	0	52	20603
2026-01-21 07:58:26.91	78.02	12.93	-40.8	-55.4	3.8	1.49e+00	0	59	104	0	52	20302
2026-01-21 07:58:27.92	77.85	12.98	-41.0	-55.6	3.8	1.49e+00	0	58	104	0	52	20702
2026-01-21 07:58:28.93	77.68	13.04	-40.8	-55.5	3.8	1.49e+00	0	59	104	0	52	20384
2026-01-21 07:58:29.94	77.51	13.09	-41.2	-55.7	3.9	1.49e+00	0	58	104	0	53	19642
2026-01-21 07:58:30.95	77.34	13.14	-40.9	-55.5	3.8	1.49e+00	0	58	104	0	53	19301
2026-01-21 07:58:31.96	77.17	13.19	-41.1	-55.7	3.8	1.49e+00	0	58	104	0	53	19658
2026-01-21 07:58:32.97	76.99	13.24	-40.9	-55.6	3.8	1.49e+00	0	59	104	0	53	19412
2026-01-21 07:58:33.98	76.82	13.30	-41.4	-55.7	3.8	1.49e+00	0	59	104	0	53	19728
2026-01-21 07:58:34.99	76.64	13.35	-41.0	-55.6	3.8	1.49e+00	0	58	104	0	53	19450
2026-01-21 07:58:36.00	76.47	13.40	-41.3	-55.8	3.8	1.49e+00	0	58	104	0	53	19853
2026-01-21 07:58:37.01	76.29	13.45	-41.0	-55.6	3.8	1.49e+00	0	59	104	0	53	19561
2026-01-21 07:58:38.02	76.12	13.50	-41.4	-55.5	3.8	1.49e+00	0	59	104	0	53	19323
2026-01-21 07:58:39.03	75.94	13.55	-41.1	-55.7	3.8	1.49e+00	0	58	104	0	53	19637
2026-01-21 07:58:40.04	75.76	13.60	-41.3	-55.7	3.8	1.49e+00	0	59	104	0	53	19754
2026-01-21 07:58:41.05	75.58	13.65	-41.1	-55.7	3.8	1.49e+00	0	59	104	0	53	19789
2026-01-21 07:58:42.06	75.40	13.70	-41.4	-55.7	3.8	1.49e+00	0	59	104	0	53	19664
2026-01-21 07:58:43.07	75.22	13.75	-41.2	-55.8	3.8	1.49e+00	0	59	104	0	53	19945
2026-01-21 07:58:44.08	75.04	13.80	-41.3	-55.5	3.8	1.49e+00	0	59	104	0	53	19353
2026-01-21 07:58:45.09	74.86	13.85	-41.3	-55.9	3.8	1.49e+00	0	59	104	0	53	20143
2026-01-21 07:58:46.10	74.68	13.90	-41.3	-55.3	3.8	1.49e+00	0	59	104	0	53	18756
2026-01-21 07:58:47.11	74.50	13.95	-41.3	-55.8	3.8	1.49e+00	0	59	104	0	53	19849
2026-01-21 07:58:48.11	74.32	14.00	-41.3	-53.8	3.8	1.49e+00	0	59	104	0	53	15906
2026-01-21 07:58:49.12	74.14	14.05	-41.2	-53.2	4.0	1.47e+00	0	59	0	0	53	14783
2026-01-21 07:58:50.13	73.95	14.10	-41.2	-53.0	4.1	1.46e+00	0	59	104	0	53	14422
2026-01-21 07:58:51.15	73.77	14.14	-41.2	-53.1	3.9	1.44e+00	0	59	104	0	53	14601
2026-01-21 07:58:52.16	73.58	14.19	-41.2	-52.9	4.1	1.44e+00	0	59	0	0	53	14293
2026-01-21 07:58:53.16	73.40	14.24	-41.1	-52.7	4.1	1.43e+00	0	59	0	0	53	13972
2026-01-21 07:58:54.17	73.21	14.29	-41.1	-52.1	4.3	1.38e+00	0	59	0	0	53	13073
2026-01-21 07:58:55.18	73.02	14.34	-41.1	-52.2	4.2	1.35e+00	0	59	0	0	53	13231
2026-01-21 07:58:56.19	72.84	14.38	-41.0	-54.7	3.8	1.47e+00	0	59	104	0	53	17655
2026-01-21 07:58:57.20	72.65	14.43	-41.1	-52.9	4.1	1.47e+00	0	59	104	0	53	14244
2026-01-21 07:58:58.21	72.46	14.48	-41.3	-54.6	3.8	1.35e+00	0	59	104	0	53	17387
2026-01-21 07:58:59.22	72.27	14.52	-41.3	-54.4	3.8	1.47e+00	0	59	104	0	53	17056
2026-01-21 07:59:00.23	72.08	14.57	-41.1	-55.3	3.8	1.49e+00	0	59	104	0	53	18758
2026-01-21 07:59:01.24	71.89	14.62	-40.9	-51.1	4.6	1.15e+00	0	59	0	0	53	11632
2026-01-21 07:59:02.25	71.70	14.66	-40.9	-50.7	4.8	9.05e-01	0	59	0	2097152	53	11068
2026-01-21 07:59:03.25	71.51	14.71	-41.0	-50.9	4.8	7.89e-01	0	59	0	4194304	53	11302
2026-01-21 07:59:04.26	71.32	14.75	-41.0	-50.8	4.9	8.15e-01	0	59	0	5242880	53	11223
2026-01-21 07:59:05.27	71.12	14.80	-41.1	-50.7	4.9	7.97e-01	0	59	0	7340032	53	11137
2026-01-21 07:59:06.28	70.93	14.84	-41.1	-50.1	5.4	5.48e-01	0	59	0	9437184	53	10308
2026-01-21 07:59:07.29	70.74	14.89	-41.7	-54.0	3.8	1.44e+00	0	59	104	10485760	54	15243
2026-01-21 07:59:08.30	70.54	14.93	-41.3	-50.1	5.4	1.43e+00	0	59	0	10485760	54	9730
2026-01-21 07:59:09.31	70.35	14.98	-41.5	-53.7	3.9	8.93e-01	0	59	104	11534336	54	14767
2026-01-21 07:59:10.32	70.15	15.02	-41.3	-49.4	6.0	5.86e-01	0	59	0	11534336	54	9039
2026-01-21 07:59:11.33	69.96	15.07	-41.7	-54.3	3.8	1.22e+00	0	59	104	12582912	54	15797
2026-01-21 07:59:12.34	69.76	15.11	-41.2	-48.8	6.6	6.12e-01	0	59	0	12582912	54	8410
2026-01-21 07:59:13.35	69.56	15.15	-41.2	-48.8	6.7	2.18e-01	0	59	0	14680064	54	8386
2026-01-21 07:59:14.36	69.36	15.20	-41.3	-48.6	6.8	1.93e-01	0	59	0	16777216	54	8254
2026-01-21 07:59:15.37	69.16	15.24	-41.3	-48.4	7.0	1.70e-01	0	59	0	18874368	54	8078
2026-01-21 07:59:16.38	68.97	15.28	-41.2	-48.0	7.6	1.08e-01	0	59	0	20971520	54	7664
2026-01-21 07:59:17.39	68.77	15.33	-41.2	-47.8	7.9	8.28e-02	0	59	0	22020096	54	7469
2026-01-21 07:59:18.40	68.57	15.37	-41.2	-47.5	8.2	6.13e-02	0	59	0	24117248	54	7269
2026-01-21 07:59:19.41	68.36	15.41	-41.3	-47.6	8.3	5.29e-02	0	59	0	26214400	54	7288
2026-01-21 07:59:20.41	68.17	15.45	-41.4	-47.7	8.3	4.84e-02	0	59	0	28311552	54	7375
2026-01-21 07:59:21.42	67.96	15.49	-41.4	-47.5	8.6	4.73e-02	0	59	0	30408704	54	7208
2026-01-21 07:59:22.43	67.76	15.53	-41.4	-47.3	8.8	3.45e-02	0	59	0	31457280	54	7048
2026-01-21 07:59:23.44	67.56	15.57	-41.4	-47.1	9.1	2.40e-02	0	59	0	33554432	54	6952
2026-01-21 07:59:24.45	67.35	15.61	-41.4	-46.7	9.6	1.94e-02	0	59	0	35651584	54	6625
2026-01-21 07:59:25.46	67.15	15.65	-41.4	-46.5	10.0	1.05e-02	0	59	0	37748736	54	6451
2026-01-21 07:59:26.47	66.94	15.69	-41.5	-46.5	10.2	6.18e-03	0	59	0	39845888	54	6423
2026-01-21 07:59:27.48	66.74	15.73	-41.4	-46.2	10.5	4.63e-03	0	59	0	40894464	54	6210
2026-01-21 07:59:28.49	66.53	15.77	-41.4	-46.1	10.7	3.11e-03	0	59	0	42991616	54	6136
2026-01-21 07:59:29.50	66.33	15.81	-41.5	-46.2	10.7	3.08e-03	0	59	0	45088768	54	6215
2026-01-21 07:59:30.51	66.12	15.85	-41.4	-45.9	11.0	2.08e-03	0	59	0	47185920	54	6055
2026-01-21 07:59:31.52	65.91	15.89	-41.3	-45.6	11.4	1.25e-03	0	59	0	49283072	54	5843
2026-01-21 07:59:32.53	65.70	15.92	-41.4	-45.7	11.4	8.70e-04	0	59	0	50331648	54	5856
2026-01-21 07:59:33.54	65.50	15.96	-41.5	-45.8	11.3	8.67e-04	0	59	0	52428800	54	5970
2026-01-21 07:59:34.55	65.29	16.00	-41.5	-45.9	11.3	1.44e-03	0	59	0	54525952	54	6013
2026-01-21 07:59:35.56	65.08	16.04	-41.5	-45.7	11.6	7.13e-04	0	59	0	56623104	54	5868
2026-01-21 07:59:36.57	64.87	16.07	-41.4	-45.6	11.8	5.34e-04	0	59	0	58720256	54	5800
2026-01-21 07:59:37.58	64.66	16.11	-41.4	-45.5	11.9	3.93e-04	0	59	0	59768832	54	5761
2026-01-21 07:59:38.59	64.45	16.14	-41.5	-45.7	11.8	4.43e-04	0	60	0	61865984	54	5867
2026-01-21 07:59:39.60	64.23	16.18	-41.6	-45.9	11.5	7.06e-04	0	60	0	63963136	54	6023
2026-01-21 07:59:40.61	64.02	16.21	-41.6	-45.8	11.6	8.77e-04	0	59	0	66060288	54	5958
2026-01-21 07:59:41.62	63.81	16.25	-41.6	-45.7	11.8	7.16e-04	0	59	0	68157440	54	5872
2026-01-21 07:59:42.63	63.60	16.28	-41.5	-45.6	11.9	4.25e-04	0	59	0	69206016	54	5821
2026-01-21 07:59:43.64	63.38	16.32	-41.6	-45.7	11.8	4.65e-04	0	59	0	71303168	54	5915
2026-01-21 07:59:44.65	63.17	16.35	-41.6	-45.7	11.8	5.23e-04	0	59	0	73400320	54	5915
2026-01-21 07:59:45.66	62.95	16.39	-41.7	-45.8	11.7	6.00e-04	0	59	0	75497472	54	5977
2026-01-21 07:59:46.67	62.74	16.42	-41.7	-45.8	11.8	5.29e-04	0	59	0	77594624	54	5947
2026-01-21 07:59:47.68	62.52	16.45	-41.6	-45.7	11.9	5.23e-04	0	59	0	79691776	54	5876
2026-01-21 07:59:48.69	62.31	16.48	-41.6	-45.6	12.0	3.16e-04	0	59	0	80740352	54	5834
2026-01-21 07:59:49.70	62.09	16.52	-41.6	-45.6	12.0	3.45e-04	0	59	0	82837504	54	5837
2026-01-21 07:59:50.71	61.87	16.55	-41.6	-45.5	12.1	2.84e-04	0	59	0	84934656	54	5769
2026-01-21 07:59:51.72	61.66	16.58	-41.6	-45.6	12.1	3.12e-04	0	59	0	87031808	54	5802
2026-01-21 07:59:52.73	61.44	16.61	-41.7	-45.7	12.0	2.95e-04	0	59	0	89128960	54	5870
2026-01-21 07:59:53.74	61.22	16.64	-41.6	-45.6	12.1	3.38e-04	0	59	0	90177536	54	5805
2026-01-21 07:59:54.74	61.00	16.67	-41.6	-45.6	12.1	2.52e-04	0	59	0	92274688	54	5805
2026-01-21 07:59:55.75	60.79	16.70	-41.6	-45.6	12.0	2.70e-04	0	59	0	94371840	54	5848
2026-01-21 07:59:56.76	60.57	16.73	-41.7	-45.6	12.1	3.13e-04	0	59	0	96468992	54	5850
2026-01-21 07:59:57.77	60.35	16.76	-41.7	-45.6	12.1	3.07e-04	0	59	0	98566144	54	5836
2026-01-21 07:59:58.78	60.13	16.78	-41.7	-45.7	12.0	3.16e-04	0	60	0	99614720	54	5881
2026-01-21 07:59:59.79	59.91	16.81	-41.8	-45.8	11.9	4.12e-04	0	59	0	101711872	54	5982
2026-01-21 08:00:00.80	59.68	16.84	-41.8	-45.9	11.9	3.98e-04	0	59	0	103809024	54	6032
2026-01-21 08:00:01.81	59.46	16.87	-41.9	-46.0	11.7	5.65e-04	0	59	0	105906176	54	6125
2026-01-21 08:00:02.82	59.24	16.89	-41.9	-46.0	11.7	6.42e-04	0	59	0	108003328	54	6115
2026-01-21 08:00:03.82	59.02	16.92	-42.0	-46.2	11.5	7.07e-04	0	59	0	109051904	54	6263
2026-01-21 08:00:04.83	58.80	16.95	-42.0	-46.3	11.4	8.43e-04	0	59	0	111149056	54	6333
2026-01-21 08:00:05.84	58.57	16.97	-42.1	-46.6	11.2	1.06e-03	0	60	0	113246208	54	6498
2026-01-21 08:00:06.85	58.35	17.00	-42.1	-46.6	11.2	1.36e-03	0	59	0	115343360	54	6507
2026-01-21 08:00:07.86	58.13	17.02	-42.1	-46.5	11.2	1.26e-03	0	59	0	117440512	54	6483
2026-01-21 08:00:08.87	57.90	17.05	-42.1	-46.5	11.2	1.32e-03	0	59	0	118489088	54	6466
2026-01-21 08:00:09.88	57.68	17.07	-42.1	-46.4	11.3	1.26e-03	0	60	0	120586240	54	6417
2026-01-21 08:00:10.89	57.45	17.09	-42.0	-46.2	11.5	1.01e-03	0	60	0	122683392	54	6267
2026-01-21 08:00:11.90	57.23	17.12	-42.0	-46.2	11.6	7.45e-04	0	59	0	124780544	54	6215
2026-01-21 08:00:12.91	57.00	17.14	-41.9	-46.1	11.7	5.68e-04	0	59	0	126877696	54	6152
2026-01-21 08:00:13.92	56.78	17.16	-41.9	-46.0	11.8	5.42e-04	0	59	0	127926272	54	6108
2026-01-21 08:00:14.93	56.55	17.18	-41.9	-46.0	11.8	4.55e-04	0	59	0	130023424	54	6087
2026-01-21 08:00:15.94	56.32	17.20	-41.9	-45.9	11.9	3.93e-04	0	60	0	132120576	54	6037
2026-01-21 08:00:16.95	56.10	17.23	-41.9	-46.1	11.7	4.39e-04	0	60	0	134217728	54	6147
2026-01-21 08:00:17.96	55.87	17.25	-42.0	-46.2	11.7	6.49e-04	0	59	0	136314880	54	6220
2026-01-21 08:00:18.97	55.64	17.27	-42.1	-46.4	11.5	6.65e-04	0	60	0	137363456	54	6369
2026-01-21 08:00:19.98	55.41	17.29	-42.0	-46.3	11.6	7.34e-04	0	59	0	139460608	54	6282
2026-01-21 08:00:20.99	55.19	17.30	-42.1	-46.4	11.5	8.08e-04	0	59	0	141557760	54	6361
2026-01-21 08:00:21.99	54.96	17.32	-42.2	-46.6	11.3	1.07e-03	0	60	0	143654912	54	6500
2026-01-21 08:00:23.00	54.73	17.34	-42.3	-46.8	11.0	1.44e-03	0	59	0	145752064	55	6292
2026-01-21 08:00:24.01	54.50	17.36	-42.2	-46.7	11.2	1.73e-03	0	60	0	147849216	55	6223
2026-01-21 08:00:25.02	54.27	17.38	-42.2	-46.7	11.2	1.46e-03	0	60	0	148897792	55	6204
2026-01-21 08:00:26.03	54.04	17.39	-42.2	-46.6	11.2	1.24e-03	0	59	0	150994944	55	6185
2026-01-21 08:00:27.04	53.81	17.41	-42.2	-46.6	11.2	1.31e-03	0	60	0	153092096	55	6199
2026-01-21 08:00:28.05	53.58	17.42	-42.2	-46.7	11.2	1.34e-03	0	60	0	155189248	55	6221
2026-01-21 08:00:29.06	53.35	17.44	-42.3	-46.8	11.1	1.57e-03	0	60	0	157286400	55	6278
2026-01-21 08:00:30.07	53.12	17.46	-42.3	-46.8	11.0	1.58e-03	0	60	0	158334976	55	6341
2026-01-21 08:00:31.08	52.89	17.47	-42.3	-46.8	11.1	1.69e-03	0	60	0	160432128	55	6284
2026-01-21 08:00:32.09	52.66	17.48	-42.2	-46.6	11.3	1.15e-03	0	60	0	162529280	55	6141
2026-01-21 08:00:33.10	52.43	17.50	-42.2	-46.6	11.3	1.18e-03	0	60	0	164626432	55	6182
2026-01-21 08:00:34.11	52.20	17.51	-42.2	-46.6	11.2	1.28e-03	0	60	0	166723584	55	6179
2026-01-21 08:00:35.12	51.97	17.52	-42.3	-46.7	11.2	1.40e-03	0	60	0	167772160	55	6241
2026-01-21 08:00:36.13	51.74	17.54	-42.3	-46.7	11.2	1.57e-03	0	60	0	169869312	55	6252
2026-01-21 08:00:37.14	51.50	17.55	-42.2	-46.6	11.3	1.26e-03	0	60	0	171966464	55	6137
2026-01-21 08:00:38.15	51.27	17.56	-42.2	-46.6	11.3	1.13e-03	0	60	0	174063616	55	6144
2026-01-21 08:00:39.16	51.04	17.57	-42.2	-46.6	11.3	1.06e-03	0	60	0	176160768	55	6181
2026-01-21 08:00:40.17	50.81	17.58	-42.3	-46.7	11.2	1.24e-03	0	60	0	177209344	55	6271
2026-01-21 08:00:41.18	50.57	17.59	-42.3	-46.7	11.2	1.32e-03	0	60	0	179306496	55	6241
2026-01-21 08:00:42.19	50.34	17.60	-42.3	-46.6	11.3	1.39e-03	0	60	0	181403648	55	6183
2026-01-21 08:00:43.20	50.11	17.61	-42.2	-46.5	11.4	1.23e-03	0	60	0	183500800	55	6118
2026-01-21 08:00:44.21	49.88	17.61	-42.2	-46.4	11.5	8.06e-04	0	60	0	185597952	55	6025
2026-01-21 08:00:45.22	49.64	17.62	-42.1	-46.3	11.6	6.30e-04	0	60	0	186646528	55	5965
2026-01-21 08:00:46.22	49.41	17.63	-42.1	-46.3	11.6	7.37e-04	0	60	0	188743680	55	5985
2026-01-21 08:00:47.24	49.18	17.64	-42.2	-46.5	11.4	8.63e-04	0	60	0	190840832	55	6103
2026-01-21 08:00:48.25	48.94	17.64	-42.2	-46.5	11.4	8.48e-04	0	60	0	192937984	55	6078
2026-01-21 08:00:49.26	48.71	17.65	-42.2	-46.5	11.4	1.03e-03	0	60	0	195035136	55	6095
2026-01-21 08:00:50.27	48.48	17.65	-42.2	-46.5	11.4	8.86e-04	0	60	0	196083712	55	6118
2026-01-21 08:00:51.27	48.25	17.66	-42.2	-46.6	11.4	9.97e-04	0	60	0	198180864	55	6145
2026-01-21 08:00:52.28	48.01	17.66	-42.3	-46.7	11.2	1.13e-03	0	60	0	200278016	55	6247
2026-01-21 08:00:53.29	47.78	17.67	-42.3	-46.8	11.1	1.45e-03	0	60	0	202375168	55	6298
2026-01-21 08:00:54.30	47.54	17.67	-42.3	-46.8	11.1	1.47e-03	0	60	0	204472320	55	6279
2026-01-21 08:00:55.31	47.31	17.67	-42.3	-46.8	11.2	1.58e-03	0	60	0	205520896	55	6275
2026-01-21 08:00:56.32	47.08	17.68	-42.3	-46.7	11.2	1.31e-03	0	60	0	207618048	55	6241
2026-01-21 08:00:57.33	46.84	17.68	-42.2	-46.6	11.4	1.12e-03	0	60	0	209715200	55	6142
2026-01-21 08:00:58.34	46.61	17.68	-42.1	-46.4	11.6	9.12e-04	0	60	0	211812352	55	6007
2026-01-21 08:00:59.35	46.38	17.68	-42.1	-46.3	11.7	6.48e-04	0	60	0	213909504	55	5951
2026-01-21 08:01:00.36	46.14	17.68	-42.1	-46.3	11.7	6.77e-04	0	60	0	216006656	55	5947
2026-01-21 08:01:01.36	45.91	17.68	-42.1	-46.3	11.6	7.00e-04	0	60	0	217055232	55	5969
2026-01-21 08:01:02.37	45.68	17.68	-42.1	-46.3	11.6	6.55e-04	0	60	0	219152384	55	5967
2026-01-21 08:01:03.38	45.44	17.68	-42.1	-46.3	11.7	5.85e-04	0	60	0	221249536	55	5930
2026-01-21 08:01:04.39	45.21	17.68	-42.1	-46.3	11.7	5.63e-04	0	60	0	223346688	55	5952
2026-01-21 08:01:05.40	44.97	17.68	-42.1	-46.3	11.7	5.32e-04	0	60	0	225443840	55	5926
2026-01-21 08:01:06.41	44.74	17.67	-42.1	-46.3	11.7	5.75e-04	0	60	0	226492416	55	5926
2026-01-21 08:01:07.42	44.51	17.67	-42.1	-46.3	11.7	5.26e-04	0	60	0	228589568	55	5936
2026-01-21 08:01:08.43	44.27	17.67	-42.1	-46.3	11.7	5.80e-04	0	60	0	230686720	55	5943
2026-01-21 08:01:09.44	44.04	17.66	-42.1	-46.2	11.7	5.55e-04	0	60	0	232783872	55	5922
2026-01-21 08:01:10.45	43.81	17.66	-42.0	-46.1	11.9	4.78e-04	0	60	0	234881024	55	5834
2026-01-21 08:01:11.46	43.57	17.66	-42.1	-46.2	11.8	4.24e-04	0	60	0	235929600	55	5884
2026-01-21 08:01:12.47	43.34	17.65	-42.1	-46.2	11.8	5.50e-04	0	60	0	238026752	55	5864
2026-01-21 08:01:13.48	43.11	17.64	-42.0	-46.0	11.9	3.78e-04	0	60	0	240123904	55	5786
2026-01-21 08:01:14.49	42.87	17.64	-42.0	-46.0	11.9	3.90e-04	0	60	0	242221056	55	5779
2026-01-21 08:01:15.50	42.64	17.63	-41.9	-45.9	12.1	3.62e-04	0	60	0	244318208	55	5671
2026-01-21 08:01:16.51	42.41	17.62	-41.9	-45.8	12.2	2.37e-04	0	60	0	245366784	55	5632
2026-01-21 08:01:17.52	42.17	17.62	-41.9	-45.8	12.2	1.92e-04	0	60	0	247463936	55	5624
2026-01-21 08:01:18.53	41.94	17.61	-41.9	-45.8	12.2	2.27e-04	0	60	0	249561088	55	5642
2026-01-21 08:01:19.54	41.71	17.60	-41.9	-45.8	12.1	2.38e-04	0	60	0	251658240	55	5654
2026-01-21 08:01:20.55	41.48	17.59	-41.9	-45.8	12.2	2.23e-04	0	60	0	253755392	55	5611
2026-01-21 08:01:21.56	41.24	17.58	-41.9	-45.8	12.1	2.08e-04	0	60	0	254803968	55	5635
2026-01-21 08:01:22.56	41.01	17.57	-41.9	-45.8	12.2	2.51e-04	0	60	0	256901120	55	5645
2026-01-21 08:01:23.57	40.78	17.56	-41.9	-45.7	12.2	1.85e-04	0	60	0	258998272	55	5585
2026-01-21 08:01:24.58	40.55	17.55	-41.9	-45.7	12.3	1.87e-04	0	60	0	261095424	55	5573
2026-01-21 08:01:25.59	40.32	17.54	-41.9	-45.8	12.2	2.06e-04	0	60	0	263192576	55	5594
2026-01-21 08:01:26.60	40.09	17.52	-41.7	-45.5	12.5	1.40e-04	0	60	0	264241152	55	5437
2026-01-21 08:01:27.61	39.86	17.51	-41.7	-45.4	12.6	9.30e-05	0	60	0	266338304	55	5380
2026-01-21 08:01:28.62	39.62	17.50	-41.7	-45.4	12.5	9.00e-05	0	60	0	268435456	55	5398
2026-01-21 08:01:29.63	39.39	17.49	-41.7	-45.4	12.6	1.07e-04	0	60	0	270532608	55	5367
2026-01-21 08:01:30.64	39.16	17.47	-41.7	-45.4	12.6	9.15e-05	0	60	0	272629760	55	5382
2026-01-21 08:01:31.64	38.93	17.46	-41.7	-45.4	12.6	1.01e-04	0	60	0	273678336	55	5373
2026-01-21 08:01:32.65	38.70	17.44	-41.7	-45.4	12.6	9.91e-05	0	60	0	275775488	55	5381
2026-01-21 08:01:33.66	38.47	17.43	-41.6	-45.2	12.8	7.47e-05	0	60	0	277872640	55	5272
2026-01-21 08:01:34.67	38.25	17.41	-41.6	-45.2	12.8	6.48e-05	0	60	0	279969792	55	5230
2026-01-21 08:01:35.68	38.02	17.39	-41.6	-45.2	12.8	4.88e-05	0	60	0	282066944	55	5236
2026-01-21 08:01:36.69	37.79	17.38	-41.6	-45.2	12.8	6.48e-05	0	60	0	283115520	55	5271
2026-01-21 08:01:37.70	37.56	17.36	-41.6	-45.3	12.7	6.48e-05	0	60	0	285212672	55	5325
2026-01-21 08:01:38.71	37.33	17.34	-41.7	-45.5	12.5	1.04e-04	0	60	0	287309824	55	5452
2026-01-21 08:01:39.72	37.10	17.32	-41.7	-45.6	12.4	1.39e-04	0	60	0	289406976	55	5467
2026-01-21 08:01:40.73	36.87	17.31	-41.8	-45.6	12.4	1.36e-04	0	60	0	291504128	55	5522
2026-01-21 08:01:41.74	36.64	17.29	-41.8	-45.6	12.4	1.89e-04	0	60	0	292552704	55	5492
2026-01-21 08:01:42.75	36.42	17.27	-41.8	-45.6	12.4	1.52e-04	0	60	0	294649856	55	5502
2026-01-21 08:01:43.76	36.19	17.25	-41.8	-45.7	12.3	1.58e-04	0	60	0	296747008	55	5543
2026-01-21 08:01:44.77	35.96	17.23	-41.8	-45.7	12.2	1.94e-04	0	60	0	298844160	55	5590
2026-01-21 08:01:45.78	35.74	17.21	-41.9	-45.9	12.1	2.35e-04	0	60	0	300941312	55	5658
2026-01-21 08:01:46.79	35.51	17.19	-41.9	-45.9	12.1	2.95e-04	0	60	0	301989888	55	5709
2026-01-21 08:01:47.80	35.28	17.16	-41.9	-45.9	12.1	2.88e-04	0	60	0	304087040	55	5685
2026-01-21 08:01:48.81	35.06	17.14	-41.9	-45.9	12.1	2.93e-04	0	60	0	306184192	55	5669
2026-01-21 08:01:49.81	34.84	17.12	-41.9	-46.0	12.0	3.36e-04	0	60	0	308281344	55	5734
2026-01-21 08:01:50.82	34.61	17.10	-42.0	-46.0	12.0	3.64e-04	0	60	0	310378496	55	5762
2026-01-21 08:01:51.83	34.39	17.07	-41.9	-45.9	12.0	3.57e-04	0	60	0	311427072	55	5715
2026-01-21 08:01:52.84	34.16	17.05	-41.9	-45.9	12.1	2.95e-04	0	60	0	313524224	55	5675
2026-01-21 08:01:53.85	33.94	17.03	-41.9	-45.8	12.1	2.38e-04	0	60	0	315621376	55	5644
2026-01-21 08:01:54.86	33.71	17.00	-41.9	-45.9	12.0	2.67e-04	0	60	0	317718528	55	5687
2026-01-21 08:01:55.87	33.49	16.98	-42.0	-46.1	11.9	3.83e-04	0	60	0	319815680	55	5798
2026-01-21 08:01:56.88	33.27	16.95	-42.0	-46.2	11.7	5.29e-04	0	60	0	321912832	55	5893
2026-01-21 08:01:57.89	33.05	16.92	-42.1	-46.3	11.6	5.53e-04	0	60	0	322961408	55	5959
2026-01-21 08:01:58.90	32.83	16.90	-42.2	-46.5	11.4	8.76e-04	0	60	0	325058560	55	6070
2026-01-21 08:01:59.91	32.60	16.87	-42.2	-46.5	11.4	9.24e-04	0	60	0	327155712	55	6086
2026-01-21 08:02:00.92	32.38	16.84	-42.2	-46.5	11.4	9.06e-04	0	60	0	329252864	55	6114
2026-01-21 08:02:01.93	32.16	16.82	-42.2	-46.6	11.3	1.11e-03	0	60	0	331350016	55	6133
2026-01-21 08:02:02.94	31.94	16.79	-42.1	-46.4	11.5	8.66e-04	0	60	0	332398592	55	6036
2026-01-21 08:02:03.95	31.72	16.76	-42.1	-46.3	11.6	7.48e-04	0	60	0	334495744	55	5966
2026-01-21 08:02:04.96	31.50	16.73	-42.1	-46.4	11.5	7.63e-04	0	60	0	336592896	55	6019
2026-01-21 08:02:05.97	31.28	16.70	-42.2	-46.5	11.4	8.96e-04	0	60	0	338690048	55	6073
2026-01-21 08:02:06.98	31.06	16.67	-42.1	-46.4	11.5	8.36e-04	0	60	0	340787200	55	6024
2026-01-21 08:02:07.99	30.85	16.64	-42.1	-46.4	11.5	9.01e-04	0	60	0	341835776	55	6015
2026-01-21 08:02:09.00	30.63	16.61	-42.1	-46.4	11.5	7.70e-04	0	60	0	343932928	55	5994
2026-01-21 08:02:10.01	30.41	16.58	-42.1	-46.4	11.5	8.06e-04	0	60	0	346030080	55	6024
2026-01-21 08:02:11.02	30.19	16.55	-42.2	-46.5	11.4	8.90e-04	0	60	0	348127232	55	6079
2026-01-21 08:02:12.03	29.98	16.52	-42.1	-46.4	11.5	9.21e-04	0	60	0	350224384	55	6023
2026-01-21 08:02:13.04	29.76	16.49	-42.0	-46.2	11.6	7.00e-04	0	60	0	351272960	55	5902
2026-01-21 08:02:14.05	29.55	16.46	-42.0	-46.1	11.8	6.31e-04	0	60	0	353370112	55	5830
2026-01-21 08:02:15.05	29.33	16.42	-42.0	-46.1	11.8	4.81e-04	0	60	0	355467264	55	5836
2026-01-21 08:02:16.06	29.12	16.39	-42.0	-46.1	11.7	5.07e-04	0	60	0	357564416	55	5851
2026-01-21 08:02:17.07	28.91	16.36	-42.0	-46.1	11.8	5.92e-04	0	60	0	359661568	55	5829
2026-01-21 08:02:18.09	28.69	16.32	-41.9	-46.0	11.8	4.58e-04	0	60	0	360710144	55	5786
2026-01-21 08:02:19.10	28.48	16.29	-42.0	-46.1	11.8	4.23e-04	0	60	0	362807296	55	5810
2026-01-21 08:02:20.11	28.27	16.25	-41.9	-46.0	11.8	4.97e-04	0	60	0	364904448	55	5765
2026-01-21 08:02:21.12	28.05	16.22	-41.9	-46.0	11.9	5.13e-04	0	60	0	367001600	55	5770
2026-01-21 08:02:22.13	27.84	16.19	-42.0	-46.1	11.8	4.58e-04	0	60	0	369098752	55	5803
2026-01-21 08:02:23.14	27.63	16.15	-41.9	-46.0	11.8	4.37e-04	0	60	0	370147328	55	5788
2026-01-21 08:02:24.15	27.42	16.11	-41.9	-46.0	11.9	4.80e-04	0	60	0	372244480	55	5750
2026-01-21 08:02:25.16	27.21	16.08	-42.0	-46.1	11.8	5.28e-04	0	60	0	374341632	55	5839
2026-01-21 08:02:26.17	27.00	16.04	-42.0	-46.2	11.6	6.40e-04	0	60	0	376438784	55	5919
2026-01-21 08:02:27.18	26.79	16.00	-42.1	-46.3	11.5	8.09e-04	0	60	0	378535936	55	5959
2026-01-21 08:02:28.19	26.58	15.97	-42.1	-46.4	11.4	9.22e-04	0	60	0	379584512	55	6039
2026-01-21 08:02:29.19	26.38	15.93	-42.1	-46.3	11.5	9.95e-04	0	60	0	381681664	55	5987
2026-01-21 08:02:30.20	26.17	15.89	-42.0	-46.2	11.6	7.19e-04	0	60	0	383778816	55	5918
2026-01-21 08:02:31.21	25.96	15.86	-42.0	-46.1	11.7	6.19e-04	0	60	0	385875968	55	5853
2026-01-21 08:02:32.22	25.76	15.82	-42.0	-46.1	11.8	5.42e-04	0	60	0	387973120	55	5812
2026-01-21 08:02:33.23	25.55	15.78	-41.9	-46.0	11.9	5.27e-04	0	60	0	390070272	55	5752
2026-01-21 08:02:34.24	25.35	15.74	-41.9	-46.0	11.9	4.19e-04	0	60	0	391118848	55	5733
2026-01-21 08:02:35.25	25.14	15.70	-41.9	-46.0	11.8	5.10e-04	0	60	0	393216000	55	5760
2026-01-21 08:02:36.26	24.94	15.66	-42.0	-46.2	11.6	5.65e-04	0	60	0	395313152	55	5872
2026-01-21 08:02:37.27	24.73	15.62	-42.0	-46.3	11.5	7.38e-04	0	60	0	397410304	55	5962
2026-01-21 08:02:38.28	24.53	15.58	-42.1	-46.5	11.3	1.14e-03	0	60	0	399507456	55	6105
2026-01-21 08:02:39.29	24.33	15.54	-42.2	-46.8	11.0	1.57e-03	0	60	0	400556032	55	6278
2026-01-21 08:02:40.30	24.13	15.50	-42.3	-46.8	10.9	2.02e-03	0	60	0	402653184	55	6324
2026-01-21 08:02:41.31	23.93	15.46	-42.3	-46.9	10.8	2.45e-03	0	60	0	404750336	55	6400
2026-01-21 08:02:42.32	23.72	15.42	-42.3	-46.9	10.8	2.37e-03	0	60	0	406847488	55	6380
2026-01-21 08:02:43.32	23.53	15.38	-42.3	-46.8	10.9	2.10e-03	0	60	0	408944640	55	6318
2026-01-21 08:02:44.33	23.33	15.33	-42.2	-46.7	11.0	1.80e-03	0	60	0	409993216	55	6254
2026-01-21 08:02:45.34	23.13	15.29	-42.1	-46.5	11.2	1.54e-03	0	60	0	412090368	55	6113
2026-01-21 08:02:46.35	22.93	15.25	-42.1	-46.5	11.2	1.33e-03	0	60	0	414187520	55	6106
2026-01-21 08:02:47.36	22.73	15.21	-42.1	-46.6	11.2	1.38e-03	0	60	0	416284672	55	6136
2026-01-21 08:02:48.38	22.53	15.16	-42.2	-46.8	10.9	1.72e-03	0	60	0	418381824	55	6319
2026-01-21 08:02:49.38	22.34	15.12	-42.3	-46.9	10.9	2.13e-03	0	60	0	419430400	55	6358
2026-01-21 08:02:50.39	22.14	15.08	-42.3	-47.0	10.7	2.39e-03	0	60	0	421527552	55	6481
2026-01-21 08:02:51.40	21.95	15.03	-42.3	-47.1	10.6	3.06e-03	0	60	0	423624704	55	6513
2026-01-21 08:02:52.41	21.75	14.99	-42.3	-47.1	10.7	3.24e-03	0	60	0	425721856	55	6506
2026-01-21 08:02:53.42	21.56	14.94	-42.3	-47.0	10.7	3.17e-03	0	60	0	427819008	55	6487
2026-01-21 08:02:54.43	21.36	14.90	-42.3	-46.9	10.8	2.90e-03	0	60	0	428867584	55	6386
2026-01-21 08:02:55.44	21.17	14.86	-42.3	-47.0	10.7	2.69e-03	0	60	0	430964736	55	6424
2026-01-21 08:02:56.45	20.98	14.81	-42.3	-47.0	10.7	2.63e-03	0	60	0	433061888	55	6439
2026-01-21 08:02:57.46	20.78	14.77	-42.3	-47.0	10.6	3.09e-03	0	60	0	435159040	55	6473
2026-01-21 08:02:58.46	20.60	14.72	-42.3	-47.0	10.6	3.17e-03	0	60	0	437256192	55	6481
2026-01-21 08:02:59.47	20.40	14.67	-42.4	-47.2	10.5	3.71e-03	0	60	0	438304768	55	6613
2026-01-21 08:03:00.48	20.21	14.63	-42.3	-47.1	10.5	3.95e-03	0	60	0	440401920	55	6559
2026-01-21 08:03:01.49	20.02	14.58	-42.4	-47.2	10.4	4.11e-03	0	60	0	442499072	55	6644
2026-01-21 08:03:02.50	19.84	14.54	-42.4	-47.3	10.3	4.91e-03	0	60	0	444596224	55	6697
2026-01-21 08:03:03.51	19.65	14.49	-42.4	-47.4	10.3	5.51e-03	0	60	0	446693376	55	6725
2026-01-21 08:03:04.52	19.46	14.44	-42.5	-47.5	10.1	6.35e-03	0	60	0	447741952	55	6838
2026-01-21 08:03:05.53	19.27	14.40	-42.5	-47.6	10.0	6.49e-03	0	60	0	449839104	55	6905
2026-01-21 08:03:06.54	19.09	14.35	-42.5	-47.6	10.0	7.96e-03	0	60	0	451936256	55	6922
2026-01-21 08:03:07.56	18.90	14.30	-42.5	-47.6	9.9	7.54e-03	0	60	0	454033408	55	6945
2026-01-21 08:03:08.57	18.71	14.25	-42.5	-47.8	9.8	9.20e-03	0	60	0	456130560	55	7071
2026-01-21 08:03:09.57	18.53	14.21	-42.5	-47.7	9.8	1.13e-02	0	60	0	458227712	55	7025
2026-01-21 08:03:10.58	18.34	14.16	-42.5	-47.8	9.8	1.07e-02	0	60	0	459276288	55	7092
2026-01-21 08:03:11.59	18.16	14.11	-42.5	-47.8	9.7	1.16e-02	0	60	0	461373440	55	7060
2026-01-21 08:03:12.60	17.98	14.06	-42.5	-47.7	9.8	1.04e-02	0	60	0	463470592	55	7013
2026-01-21 08:03:13.61	17.80	14.01	-42.5	-47.7	9.8	9.40e-03	0	60	0	465567744	55	6977
2026-01-21 08:03:14.62	17.61	13.96	-42.4	-47.6	9.9	9.00e-03	0	60	0	467664896	55	6953
2026-01-21 08:03:15.63	17.43	13.91	-42.4	-47.5	10.1	7.69e-03	0	60	0	468713472	55	6813
2026-01-21 08:03:16.65	17.25	13.86	-42.4	-47.4	10.1	6.20e-03	0	60	0	470810624	55	6752
2026-01-21 08:03:17.65	17.07	13.81	-42.4	-47.5	10.0	7.61e-03	0	60	0	472907776	55	6847
2026-01-21 08:03:18.66	16.89	13.77	-42.4	-47.6	10.0	7.68e-03	0	60	0	475004928	55	6881
2026-01-21 08:03:19.68	16.71	13.71	-42.5	-47.8	9.7	1.18e-02	0	60	0	477102080	55	7100
2026-01-21 08:03:20.69	16.53	13.67	-42.6	-48.1	9.3	1.54e-02	0	60	0	478150656	55	7336
2026-01-21 08:03:21.69	16.36	13.62	-42.7	-48.3	9.1	1.89e-02	0	60	0	480247808	55	7506
2026-01-21 08:03:22.71	16.18	13.56	-42.7	-48.4	9.1	2.32e-02	0	60	0	482344960	55	7560
2026-01-21 08:03:23.72	16.00	13.51	-42.7	-48.5	9.0	2.49e-02	0	60	0	484442112	55	7646
2026-01-21 08:03:24.73	15.83	13.46	-42.7	-48.5	8.9	2.77e-02	0	60	0	486539264	55	7642
2026-01-21 08:03:25.73	15.66	13.41	-42.7	-48.4	8.9	2.72e-02	0	60	0	487587840	55	7630
2026-01-21 08:03:26.74	15.48	13.36	-42.6	-48.3	9.1	2.47e-02	0	60	0	489684992	55	7495
2026-01-21 08:03:27.75	15.31	13.31	-42.6	-48.3	9.0	2.30e-02	0	60	0	491782144	55	7509
2026-01-21 08:03:28.76	15.13	13.26	-42.7	-48.4	8.9	2.59e-02	0	60	0	493879296	55	7589
2026-01-21 08:03:29.77	14.96	13.21	-42.6	-48.3	9.0	2.57e-02	0	60	0	495976448	55	7528
2026-01-21 08:03:30.78	14.79	13.16	-42.6	-48.4	8.9	2.92e-02	0	60	0	497025024	55	7609
2026-01-21 08:03:31.79	14.62	13.11	-42.6	-48.5	8.8	3.01e-02	0	60	0	499122176	55	7648
2026-01-21 08:03:32.80	14.45	13.05	-42.6	-48.4	8.8	3.13e-02	0	60	0	501219328	55	7591
2026-01-21 08:03:33.81	14.28	13.00	-42.6	-48.4	8.8	2.85e-02	0	60	0	503316480	55	7585
2026-01-21 08:03:34.82	14.11	12.95	-42.6	-48.4	8.8	3.10e-02	0	60	0	505413632	55	7567
2026-01-21 08:03:35.83	13.94	12.90	-42.6	-48.5	8.7	3.22e-02	0	60	0	506462208	55	7646
2026-01-21 08:03:36.84	13.77	12.84	-42.5	-48.3	8.8	3.24e-02	0	60	0	508559360	55	7524
2026-01-21 08:03:37.84	13.60	12.79	-42.5	-48.4	8.7	3.40e-02	0	60	0	510656512	55	7595
2026-01-21 08:03:38.85	13.44	12.74	-42.5	-48.3	8.7	3.27e-02	0	60	0	512753664	55	7537
2026-01-21 08:03:39.86	13.27	12.69	-42.5	-48.3	8.8	3.06e-02	0	60	0	514850816	55	7515
2026-01-21 08:03:40.87	13.10	12.63	-42.5	-48.3	8.7	3.22e-02	0	60	0	515899392	55	7541
2026-01-21 08:03:41.88	12.94	12.58	-42.4	-48.3	8.7	3.56e-02	0	60	0	517996544	55	7543
2026-01-21 08:03:42.89	12.78	12.53	-42.4	-48.4	8.5	4.12e-02	0	60	0	520093696	55	7605
2026-01-21 08:03:43.90	12.61	12.47	-42.5	-48.5	8.4	4.50e-02	0	60	0	522190848	55	7710
2026-01-21 08:03:44.91	12.45	12.42	-42.4	-48.5	8.3	4.92e-02	0	60	0	524288000	55	7690
2026-01-21 08:03:45.92	12.28	12.37	-42.3	-48.4	8.4	4.79e-02	0	60	0	526385152	55	7577
2026-01-21 08:03:46.93	12.12	12.31	-42.3	-48.4	8.3	4.86e-02	0	61	0	527433728	55	7586
2026-01-21 08:03:47.94	11.96	12.26	-42.1	-48.4	8.3	5.28e-02	0	60	0	529530880	55	7558
2026-01-21 08:03:48.95	11.80	12.21	-42.2	-48.3	8.3	4.92e-02	0	60	0	531628032	55	7513
2026-01-21 08:03:49.96	11.64	12.15	-42.1	-48.2	8.3	5.42e-02	0	60	0	533725184	55	7377
2026-01-21 08:03:50.97	11.48	12.10	-41.9	-48.0	8.5	4.54e-02	0	60	0	535822336	55	7224
2026-01-21 08:03:51.98	11.32	12.04	-41.8	-47.8	8.6	4.60e-02	0	60	0	536870912	55	7077
2026-01-21 08:03:52.99	11.16	11.99	-41.7	-47.4	8.9	3.01e-02	0	60	0	538968064	55	6727
2026-01-21 08:03:54.00	11.00	11.94	-41.7	-47.5	8.8	2.89e-02	0	60	0	541065216	55	6841
2026-01-21 08:03:55.01	10.85	11.88	-41.6	-47.5	8.7	3.46e-02	0	60	0	543162368	55	6809
2026-01-21 08:03:56.02	10.69	11.83	-41.6	-47.5	8.5	3.60e-02	0	61	0	545259520	55	6873
2026-01-21 08:03:57.02	10.53	11.77	-41.7	-48.1	7.9	5.51e-02	0	60	0	546308096	55	7342
2026-01-21 08:03:58.03	10.38	11.72	-41.8	-48.5	7.5	8.26e-02	0	60	0	548405248	55	7675
2026-01-21 08:03:59.04	10.22	11.66	-41.8	-48.6	7.3	1.13e-01	0	60	0	550502400	55	7731
2026-01-21 08:04:00.05	10.07	11.61	-41.8	-48.9	7.0	1.29e-01	0	60	0	552599552	55	8040
2026-01-21 08:04:01.06	9.92	11.55	-41.8	-49.5	6.5	1.85e-01	0	60	0	554696704	55	8567
2026-01-21 08:04:02.07	9.76	11.50	-41.8	-49.9	6.0	3.14e-01	0	60	0	555745280	55	8999
2026-01-21 08:04:03.08	9.61	11.44	-41.9	-50.5	5.6	3.93e-01	0	61	0	557842432	55	9634
2026-01-21 08:04:04.09	9.46	11.39	-42.4	-52.0	4.9	5.61e-01	0	60	0	559939584	55	11487
2026-01-21 08:04:05.10	9.31	11.33	-41.0	-55.6	3.8	1.49e+00	0	61	104	560988160	54	18325
2026-01-21 08:04:06.11	9.16	11.28	-41.4	-54.3	3.8	1.49e+00	0	60	104	560988160	54	15827
2026-01-21 08:04:07.12	9.01	11.22	-42.3	-55.8	3.8	1.41e+00	0	60	104	560988160	55	17723
2026-01-21 08:04:08.13	8.86	11.17	-41.7	-53.6	4.0	1.49e+00	0	60	104	560988160	55	13766
2026-01-21 08:04:09.14	8.71	11.11	-41.6	-54.4	3.8	1.48e+00	0	60	104	560988160	55	15173
2026-01-21 08:04:10.14	8.56	11.06	-41.5	-54.7	3.8	1.49e+00	0	60	104	560988160	55	15603
2026-01-21 08:04:11.15	8.41	11.00	-41.6	-54.5	3.8	1.49e+00	0	60	104	560988160	55	15345
2026-01-21 08:04:12.16	8.26	10.95	-41.8	-54.4	3.8	1.48e+00	0	60	104	560988160	55	15180
2026-01-21 08:04:13.17	8.12	10.89	-40.6	-55.2	3.8	1.49e+00	0	60	104	560988160	53	18624
2026-01-21 08:04:14.18	7.97	10.83	-41.1	-55.2	3.8	1.49e+00	0	60	104	560988160	53	18528
2026-01-21 08:04:15.19	7.82	10.78	-41.7	-55.9	3.8	1.49e+00	0	60	104	560988160	54	19149
2026-01-21 08:04:16.20	7.68	10.72	-41.2	-54.9	3.8	1.49e+00	0	60	104	560988160	54	17074
2026-01-21 08:04:17.21	7.53	10.67	-41.1	-55.2	3.8	1.49e+00	0	60	104	560988160	54	17646
2026-01-21 08:04:18.22	7.39	10.61	-41.1	-55.4	3.8	1.49e+00	0	60	104	560988160	54	18016
2026-01-21 08:04:19.23	7.25	10.56	-41.1	-55.6	3.8	1.49e+00	0	60	104	560988160	54	18394
2026-01-21 08:04:20.24	7.10	10.50	-41.2	-55.7	3.8	1.49e+00	0	61	104	560988160	54	18730
2026-01-21 08:04:21.25	6.96	10.44	-40.3	-54.9	3.8	1.49e+00	0	60	104	560988160	52	19016
2026-01-21 08:04:22.26	6.82	10.39	-40.2	-54.8	3.8	1.49e+00	0	60	104	560988160	52	18744
2026-01-21 08:04:23.27	6.68	10.33	-40.3	-54.9	3.8	1.49e+00	0	60	104	560988160	52	19155
2026-01-21 08:04:24.28	6.54	10.27	-40.2	-54.8	3.8	1.49e+00	0	60	104	560988160	52	18823
2026-01-21 08:04:25.29	6.40	10.22	-40.2	-54.8	3.8	1.49e+00	0	60	104	560988160	52	18779
2026-01-21 08:04:26.29	6.26	10.16	-40.1	-54.7	3.8	1.49e+00	0	60	104	560988160	52	18650
2026-01-21 08:04:27.30	6.12	10.11	-40.1	-54.7	3.8	1.49e+00	0	61	104	560988160	52	18568
2026-01-21 08:04:28.31	5.98	10.05	-40.2	-54.8	3.8	1.49e+00	0	60	104	560988160	52	18823
2026-01-21 08:04:29.32	5.84	9.99	-40.7	-55.3	3.8	1.49e+00	0	61	104	560988160	52	19952
2026-01-21 08:04:30.33	5.71	9.94	-40.1	-54.7	3.8	1.49e+00	0	60	104	560988160	52	18664
2026-01-21 08:04:31.34	5.57	9.88	-40.2	-54.8	3.8	1.49e+00	0	61	104	560988160	52	18748
2026-01-21 08:04:32.35	5.43	9.82	-40.1	-54.7	3.8	1.49e+00	0	61	104	560988160	52	18629
2026-01-21 08:04:33.37	5.30	9.77	-40.1	-54.7	3.8	1.49e+00	0	61	104	560988160	52	18608
2026-01-21 08:04:34.37	5.16	9.71	-40.1	-54.7	3.8	1.49e+00	0	60	104	560988160	52	18562
2026-01-21 08:04:35.39	5.03	9.65	-40.0	-54.6	3.8	1.49e+00	0	60	104	560988160	52	18500
2026-01-21 08:04:36.39	4.89	9.60	-40.1	-54.8	3.8	1.49e+00	0	61	104	560988160	52	18754
2026-01-21 08:04:37.40	4.76	9.54	-40.4	-55.0	3.8	1.49e+00	0	61	104	560988160	52	19259
2026-01-21 08:04:38.42	4.63	9.48	-40.2	-54.8	3.8	1.49e+00	0	60	104	560988160	52	18807
2026-01-21 08:04:39.42	4.49	9.43	-40.3	-54.9	3.8	1.49e+00	0	60	104	560988160	52	19074
2026-01-21 08:04:40.43	4.36	9.37	-40.3	-54.9	3.8	1.49e+00	0	60	104	560988160	52	18992
2026-01-21 08:04:41.44	4.23	9.31	-40.1	-54.7	3.8	1.49e+00	0	60	104	560988160	52	18599
2026-01-21 08:04:42.45	4.10	9.26	-40.2	-54.8	3.8	1.49e+00	0	60	104	560988160	52	18786
2026-01-21 08:04:43.46	3.97	9.20	-40.3	-54.9	3.8	1.49e+00	0	61	104	560988160	52	18983
2026-01-21 08:04:44.47	3.84	9.14	-40.2	-54.8	3.8	1.49e+00	0	61	104	560988160	52	18814
2026-01-21 08:04:45.48	3.71	9.09	-40.1	-54.7	3.8	1.49e+00	0	60	104	560988160	52	18580
2026-01-21 08:04:46.49	3.58	9.03	-40.1	-54.7	3.8	1.49e+00	0	61	104	560988160	52	18633
2026-01-21 08:04:47.50	3.45	8.97	-40.2	-54.8	3.8	1.49e+00	0	61	104	560988160	52	18927
2026-01-21 08:04:48.51	3.32	8.92	-40.1	-54.7	3.8	1.49e+00	0	60	104	560988160	52	18665
2026-01-21 08:04:49.52	3.20	8.86	-40.0	-54.6	3.8	1.49e+00	0	60	104	560988160	52	18475
2026-01-21 08:04:50.53	3.07	8.80	-40.1	-54.6	3.8	1.49e+00	0	60	104	560988160	52	18499
2026-01-21 08:04:51.54	2.94	8.75	-40.1	-54.7	3.8	1.49e+00	0	60	104	560988160	52	18699
2026-01-21 08:04:52.55	2.82	8.69	-40.1	-54.6	3.8	1.49e+00	0	61	104	560988160	52	18500
2026-01-21 08:04:53.55	2.69	8.63	-40.1	-54.7	3.8	1.49e+00	0	61	104	560988160	52	18570
2026-01-21 08:04:54.56	2.57	8.58	-40.1	-54.6	3.8	1.49e+00	0	60	104	560988160	52	18501
2026-01-21 08:04:55.57	2.44	8.52	-40.1	-54.7	3.8	1.49e+00	0	61	104	560988160	52	18572
2026-01-21 08:04:56.58	2.32	8.46	-40.1	-54.7	3.8	1.49e+00	0	61	104	560988160	52	18587
2026-01-21 08:04:57.59	2.20	8.41	-40.1	-54.7	3.8	1.49e+00	0	61	104	560988160	52	18648
2026-01-21 08:04:58.60	2.07	8.35	-40.1	-54.7	3.8	1.49e+00	0	61	104	560988160	52	18579
2026-01-21 08:04:59.61	1.95	8.29	-40.2	-54.7	3.8	1.49e+00	0	61	104	560988160	52	18682
2026-01-21 08:05:00.62	1.83	8.24	-40.1	-54.7	3.8	1.49e+00	0	61	104	560988160	52	18660
2026-01-21 08:05:01.63	1.71	8.18	-40.1	-54.7	3.8	1.49e+00	0	60	104	560988160	52	18553
2026-01-21 08:05:02.64	1.59	8.12	-40.1	-54.7	3.8	1.49e+00	0	60	104	560988160	52	18656
2026-01-21 08:05:03.65	1.47	8.06	-40.2	-54.7	3.8	1.49e+00	0	60	104	560988160	52	18659
2026-01-21 08:05:04.66	1.35	8.01	-40.2	-54.9	3.8	1.49e+00	0	61	104	560988160	52	18958
2026-01-21 08:05:05.66	1.23	7.95	-43.6	-58.0	3.8	1.49e+00	0	61	104	560988160	57	20530
2026-01-21 08:05:06.68	1.11	7.89	-44.8	-59.5	3.8	1.49e+00	0	61	104	560988160	60	20479
2026-01-21 08:05:07.69	0.99	7.84	-45.1	-59.9	3.8	1.49e+00	0	61	104	560988160	60	21264
2026-01-21 08:05:08.70	0.87	7.78	-45.3	-60.0	3.8	1.49e+00	0	61	104	560988160	61	20441
2026-01-21 08:05:09.71	0.76	7.72	-45.4	-60.1	3.8	1.49e+00	0	61	104	560988160	61	20687
2026-01-21 08:05:10.72	0.64	7.67	-45.5	-60.2	3.8	1.49e+00	0	60	104	560988160	61	20893
2026-01-21 08:05:11.73	0.52	7.61	-45.5	-60.2	3.8	1.49e+00	0	61	104	560988160	61	20924
2026-01-21 08:05:12.74	0.41	7.55	-45.5	-60.2	3.8	1.49e+00	0	61	104	560988160	61	20843
2026-01-21 08:05:13.75	0.29	7.50	-45.5	-60.2	3.8	1.49e+00	0	60	104	560988160	61	20863
2026-01-21 08:05:14.76	0.17	7.44	-45.5	-60.2	3.8	1.49e+00	0	61	104	560988160	61	20784
2026-01-21 08:05:15.77	0.06	7.38	-45.3	-60.0	3.8	1.49e+00	0	61	104	560988160	61	20496
2026-01-21 08:05:16.78	359.95	7.33	-45.3	-60.0	3.8	1.49e+00	0	61	104	560988160	61	20489
2026-01-21 08:05:17.79	359.83	7.27	-45.4	-60.0	3.8	1.49e+00	0	61	104	560988160	61	20442
2026-01-21 08:05:18.80	359.72	7.21	-45.4	-60.0	3.8	1.49e+00	0	61	104	560988160	61	20373
2026-01-21 08:05:19.81	359.61	7.16	-45.4	-59.9	3.8	1.49e+00	0	61	104	560988160	61	20243
2026-01-21 08:05:20.82	359.49	7.10	-45.3	-59.9	3.8	1.49e+00	0	61	104	560988160	61	20199
2026-01-21 08:05:21.83	359.38	7.04	-45.3	-59.9	3.8	1.49e+00	0	61	104	560988160	61	20096
2026-01-21 08:05:22.84	359.27	6.99	-45.3	-59.9	3.8	1.49e+00	0	61	104	560988160	61	20156
2026-01-21 08:05:23.85	359.16	6.93	-45.3	-59.9	3.8	1.49e+00	0	61	104	560988160	61	20140
2026-01-21 08:05:24.86	359.05	6.87	-45.3	-59.9	3.8	1.49e+00	0	61	104	560988160	61	20122
2026-01-21 08:05:25.87	358.94	6.82	-45.3	-59.9	3.8	1.49e+00	0	61	104	560988160	61	20144
2026-01-21 08:05:26.88	358.83	6.76	-45.2	-59.9	3.8	1.49e+00	0	61	104	560988160	61	20136
2026-01-21 08:05:27.90	358.72	6.70	-45.0	-59.8	3.8	1.49e+00	0	61	104	560988160	61	20029
2026-01-21 08:05:28.90	358.61	6.65	-45.3	-59.9	3.8	1.49e+00	0	61	104	560988160	61	20122
2026-01-21 08:05:29.91	358.50	6.59	-45.3	-59.8	3.8	1.49e+00	0	61	104	560988160	61	20068
2026-01-21 08:05:30.92	358.39	6.54	-45.1	-59.9	3.8	1.49e+00	0	61	104	560988160	61	20072
2026-01-21 08:05:31.94	358.28	6.48	-45.3	-59.9	3.8	1.49e+00	0	60	104	560988160	61	20128
2026-01-21 08:05:32.95	358.18	6.42	-45.1	-59.9	3.7	1.49e+00	0	61	104	560988160	61	20111
2026-01-21 08:05:33.95	358.07	6.37	-45.2	-59.8	3.8	1.49e+00	0	60	104	560988160	61	20057
2026-01-21 08:05:34.96	357.96	6.31	-45.3	-59.9	3.8	1.49e+00	0	61	104	560988160	61	20091
2026-01-21 08:05:35.97	357.86	6.25	-45.3	-59.9	3.8	1.49e+00	0	61	104	560988160	61	20121
2026-01-21 08:05:36.98	357.75	6.20	-45.3	-59.8	3.8	1.49e+00	0	61	104	560988160	61	20041
2026-01-21 08:05:37.99	357.65	6.14	-45.3	-59.8	3.8	1.49e+00	0	61	104	560988160	61	20023
2026-01-21 08:05:39.00	357.54	6.09	-45.3	-59.9	3.8	1.49e+00	0	61	104	560988160	61	20107
2026-01-21 08:05:40.01	357.44	6.03	-45.3	-59.8	3.8	1.49e+00	0	61	104	560988160	61	20040
2026-01-21 08:05:41.02	357.34	5.97	-45.3	-59.8	3.8	1.49e+00	0	61	104	560988160	61	19981
2026-01-21 08:05:42.03	357.23	5.92	-45.3	-59.9	3.8	1.49e+00	0	61	104	560988160	61	20074
2026-01-21 08:05:43.04	357.13	5.86	-45.3	-59.8	3.8	1.49e+00	0	61	104	560988160	61	20016
2026-01-21 08:05:44.05	357.03	5.81	-45.3	-59.8	3.8	1.49e+00	0	61	104	560988160	61	20028
2026-01-21 08:05:45.06	356.92	5.75	-45.2	-59.8	3.8	1.49e+00	0	61	104	560988160	61	19988
2026-01-21 08:05:46.07	356.82	5.69	-44.8	-59.8	3.8	1.49e+00	0	61	104	560988160	61	19998
2026-01-21 08:05:47.08	356.72	5.64	-45.3	-59.8	3.8	1.49e+00	0	60	104	560988160	61	19937
2026-01-21 08:05:48.09	356.62	5.58	-44.9	-59.8	3.8	1.49e+00	0	61	104	560988160	61	20008
2026-01-21 08:05:49.10	356.52	5.53	-45.2	-59.8	3.8	1.49e+00	0	61	104	560988160	61	19987
2026-01-21 08:05:50.11	356.42	5.47	-45.3	-59.8	3.8	1.49e+00	0	61	104	560988160	61	20014
2026-01-21 08:05:51.12	356.32	5.41	-45.3	-59.8	3.8	1.49e+00	0	61	104	560988160	61	20014
2026-01-21 08:05:52.13	356.22	5.36	-45.3	-59.8	3.8	1.49e+00	0	61	104	560988160	61	20016
2026-01-21 08:05:53.14	356.12	5.30	-45.3	-59.8	3.8	1.49e+00	0	61	104	560988160	61	20006
2026-01-21 08:05:54.15	356.02	5.25	-45.3	-59.8	3.8	1.49e+00	0	61	104	560988160	61	20050
2026-01-21 08:05:55.16	355.92	5.19	-45.2	-59.8	3.8	1.49e+00	0	61	104	560988160	61	20013
2026-01-21 08:05:56.17	355.83	5.14	-45.2	-59.8	3.8	1.49e+00	0	60	104	560988160	61	19987
2026-01-21 08:05:57.18	355.73	5.08	-45.2	-59.8	3.8	1.49e+00	0	61	104	560988160	61	20003
2026-01-21 08:05:58.19	355.63	5.03	-45.1	-59.8	3.8	1.49e+00	0	61	104	560988160	61	19950
2026-01-21 08:05:59.20	355.54	4.97	-45.3	-59.8	3.8	1.49e+00	0	61	104	560988160	61	20042
2026-01-21 08:06:00.21	355.44	4.91	-45.3	-59.8	3.8	1.49e+00	0	61	104	560988160	61	20027
2026-01-21 08:06:01.22	355.34	4.86	-45.3	-59.8	3.8	1.49e+00	0	61	104	560988160	61	20030
2026-01-21 08:06:02.23	355.25	4.80	-45.1	-59.8	3.8	1.49e+00	0	61	104	560988160	61	19919
2026-01-21 08:06:03.24	355.15	4.75	-45.2	-59.8	3.8	1.49e+00	0	61	104	560988160	61	19955
2026-01-21 08:06:04.25	355.06	4.69	-45.1	-59.8	3.8	1.49e+00	0	61	104	560988160	61	20005
2026-01-21 08:06:05.26	354.96	4.64	-45.2	-59.8	3.8	1.49e+00	0	61	104	560988160	61	19971
2026-01-21 08:06:06.28	354.87	4.58	-45.2	-59.8	3.8	1.49e+00	0	61	104	560988160	60	21170
2026-01-21 08:06:07.28	354.78	4.53	-44.9	-59.8	3.8	1.49e+00	0	61	104	560988160	61	20027
2026-01-21 08:06:08.29	354.68	4.47	-45.2	-59.8	3.8	1.49e+00	0	61	104	560988160	61	19929
2026-01-21 08:06:09.30	354.59	4.42	-45.2	-59.8	3.8	1.49e+00	0	61	104	560988160	61	19951
2026-01-21 08:06:10.31	354.50	4.36	-45.2	-59.8	3.8	1.49e+00	0	61	104	560988160	61	19965
2026-01-21 08:06:11.32	354.40	4.31	-45.2	-59.8	3.8	1.49e+00	0	61	104	560988160	61	19996
2026-01-21 08:06:12.33	354.31	4.25	-45.2	-59.8	3.8	1.49e+00	0	61	104	560988160	61	20038
2026-01-21 08:06:13.34	354.22	4.20	-45.1	-59.8	3.8	1.49e+00	0	61	104	560988160	61	19943
2026-01-21 08:06:14.35	354.13	4.14	-45.1	-59.8	3.8	1.49e+00	0	61	104	560988160	61	19966
2026-01-21 08:06:15.36	354.04	4.09	-45.2	-59.8	3.8	1.49e+00	0	61	104	560988160	61	19999
2026-01-21 08:06:16.37	353.95	4.03	-45.3	-59.8	3.8	1.49e+00	0	61	104	560988160	61	20003
2026-01-21 08:06:17.38	353.86	3.98	-45.2	-59.8	3.8	1.49e+00	0	61	104	560988160	61	19998
2026-01-21 08:06:18.40	353.77	3.92	-45.3	-60.1	3.7	1.49e+00	0	61	104	560988160	61	20591
2026-01-21 08:06:19.41	353.68	3.87	-45.2	-59.8	3.8	1.49e+00	0	61	104	560988160	61	19992
2026-01-21 08:06:20.42	353.59	3.81	-45.2	-59.8	3.8	1.49e+00	0	61	104	560988160	61	20038
2026-01-21 08:06:21.42	353.50	3.76	-45.2	-59.8	3.8	1.49e+00	0	61	104	560988160	61	19989
2026-01-21 08:06:22.44	353.41	3.71	-45.2	-59.8	3.8	1.49e+00	0	61	104	560988160	61	20010
2026-01-21 08:06:23.45	353.32	3.65	-45.2	-59.8	3.8	1.49e+00	0	61	104	560988160	61	19967
2026-01-21 08:06:24.45	353.24	3.60	-45.2	-59.8	3.8	1.49e+00	0	61	104	560988160	61	19939
2026-01-21 08:06:25.47	353.15	3.54	-45.2	-59.8	3.8	1.49e+00	0	61	104	560988160	61	19903
2026-01-21 08:06:26.48	353.06	3.49	-45.2	-59.8	3.8	1.49e+00	0	61	104	560988160	61	19926
2026-01-21 08:06:27.49	352.98	3.43	-45.2	-59.8	3.8	1.49e+00	0	61	104	560988160	61	19966
2026-01-21 08:06:28.50	352.89	3.38	-45.2	-59.8	3.8	1.49e+00	0	61	104	560988160	61	19928
2026-01-21 08:06:29.51	352.80	3.33	-45.2	-59.8	3.8	1.49e+00	0	61	104	560988160	61	19863
2026-01-21 08:06:30.52	352.72	3.27	-45.2	-59.8	3.8	1.49e+00	0	60	104	560988160	61	19956
2026-01-21 08:06:31.53	352.63	3.22	-45.2	-59.8	3.8	1.49e+00	0	61	104	560988160	61	19979
2026-01-21 08:06:32.54	352.55	3.16	-45.2	-59.8	3.8	1.49e+00	0	61	104	560988160	61	19961
2026-01-21 08:06:33.55	352.46	3.11	-45.2	-59.8	3.8	1.49e+00	0	61	104	560988160	61	19937
2026-01-21 08:06:34.56	352.38	3.06	-45.2	-59.8	3.8	1.49e+00	0	61	104	560988160	61	19976
2026-01-21 08:06:35.57	352.29	3.00	-45.2	-59.8	3.8	1.49e+00	0	61	104	560988160	61	19921
2026-01-21 08:06:36.58	352.21	2.95	-45.2	-59.8	3.8	1.49e+00	0	61	104	560988160	61	19893
2026-01-21 08:06:37.59	352.13	2.89	-45.2	-59.8	3.8	1.49e+00	0	61	104	560988160	61	19979
2026-01-21 08:06:38.60	352.04	2.84	-45.2	-59.8	3.8	1.49e+00	0	61	104	560988160	61	19930
2026-01-21 08:06:39.61	351.96	2.79	-45.2	-59.8	3.8	1.49e+00	0	61	104	560988160	61	19959
2026-01-21 08:06:40.63	351.88	2.73	-44.6	-59.8	3.8	1.49e+00	0	61	104	560988160	61	19885
2026-01-21 08:06:41.64	351.80	2.68	-45.2	-59.8	3.8	1.49e+00	0	61	104	560988160	61	19935
2026-01-21 08:06:42.65	351.71	2.62	-45.2	-59.8	3.8	1.49e+00	0	61	104	560988160	61	19858
2026-01-21 08:06:43.66	351.63	2.57	-45.1	-59.8	3.8	1.49e+00	0	61	104	560988160	60	21076
2026-01-21 08:06:44.67	351.55	2.52	-45.2	-59.8	3.8	1.49e+00	0	61	104	560988160	60	21063
2026-01-21 08:06:45.68	351.47	2.46	-45.2	-59.8	3.8	1.49e+00	0	61	104	560988160	61	19896
2026-01-21 08:06:46.69	351.39	2.41	-45.0	-59.6	3.8	1.49e+00	0	61	104	560988160	60	20585
2026-01-21 08:06:47.70	351.31	2.36	-45.2	-59.8	3.8	1.49e+00	0	61	104	560988160	60	21125
2026-01-21 08:06:48.71	351.23	2.30	-45.2	-59.7	3.8	1.49e+00	0	61	104	560988160	61	19841
2026-01-21 08:06:49.72	351.15	2.25	-45.2	-59.8	3.8	1.49e+00	0	61	104	560988160	61	19879
2026-01-21 08:06:50.73	351.07	2.20	-45.2	-59.8	3.8	1.49e+00	0	61	104	560988160	61	19952
2026-01-21 08:06:51.74	350.99	2.14	-45.2	-59.8	3.8	1.49e+00	0	61	104	560988160	61	19858
2026-01-21 08:06:52.75	350.91	2.09	-45.2	-59.8	3.8	1.49e+00	0	61	104	560988160	60	21092
2026-01-21 08:06:53.76	350.84	2.04	-45.2	-59.7	3.8	1.49e+00	0	61	104	560988160	61	19841
2026-01-21 08:06:54.77	350.76	1.99	-45.2	-59.8	3.8	1.49e+00	0	61	104	560988160	61	19874

#Closed at: 2026-01-21 08:06:55
#Recorded file [560 MB]: D:/lorett/data/31039_260121_105507.dat