passes_logs/2026/01/21/R2.0S_Moscow/R2.0S_Moscow__20260121_105313_SUOMI_NPP_rec.log

#Pass ID: 20260121_105313_SUOMI NPP
#Satellite: SUOMI NPP
#Configuration: NPP
#almurnet v.1.7.20251203
#Start time: 2026-01-21 10:53:13

#Version: 2.2.20231116
#Station: R2.0S_Moscow
#Location: 37.707566 lon 55.798166 lat
#TLE: 1 37849U 11061A   26020.31993517  .00000142  00000+0  88240-4 0  9990
#TLE: 2 37849  98.7818 322.3228 0002330  54.3778 305.7615 14.19527005737466

#Time	Az	El	Level	Level2	SNR	BER	BlckErr	Temp	State	Recorded	gain1	gain2
2026-01-21 10:53:13.91	186.96	2.00	-44.0	-58.5	3.8	1.49e+00	0	51	0	0	59	19249
2026-01-21 10:53:14.91	187.01	2.06	-44.0	-58.5	3.8	1.49e+00	0	51	104	0	59	19252
2026-01-21 10:53:15.92	187.05	2.13	-44.0	-58.5	3.8	1.49e+00	0	51	104	0	59	19250
2026-01-21 10:53:16.93	187.09	2.19	-44.0	-58.5	3.8	1.49e+00	0	51	104	0	59	19222
2026-01-21 10:53:17.94	187.14	2.25	-44.0	-58.5	3.8	1.49e+00	0	51	104	0	59	19229
2026-01-21 10:53:18.95	187.18	2.31	-44.0	-58.5	3.8	1.49e+00	0	51	104	0	59	19226
2026-01-21 10:53:19.96	187.23	2.38	-44.0	-58.5	3.8	1.49e+00	0	51	104	0	59	19188
2026-01-21 10:53:20.98	187.27	2.44	-44.0	-58.5	3.8	1.49e+00	0	51	104	0	59	19183
2026-01-21 10:53:21.99	187.31	2.50	-44.0	-58.5	3.8	1.49e+00	0	52	104	0	59	19264
2026-01-21 10:53:23.00	187.36	2.56	-44.0	-58.5	3.8	1.49e+00	0	52	104	0	59	19266
2026-01-21 10:53:24.01	187.40	2.63	-44.0	-58.5	3.8	1.49e+00	0	52	104	0	59	19221
2026-01-21 10:53:25.02	187.45	2.69	-44.0	-58.5	3.8	1.49e+00	0	52	104	0	59	19241
2026-01-21 10:53:26.03	187.49	2.75	-44.0	-58.5	3.8	1.49e+00	0	52	104	0	59	19179
2026-01-21 10:53:27.04	187.54	2.82	-44.0	-58.5	3.8	1.49e+00	0	52	104	0	59	19217
2026-01-21 10:53:28.05	187.59	2.88	-44.0	-58.5	3.8	1.49e+00	0	52	104	0	59	19236
2026-01-21 10:53:29.06	187.63	2.95	-44.0	-58.5	3.8	1.49e+00	0	52	104	0	59	19187
2026-01-21 10:53:30.07	187.68	3.01	-44.0	-58.5	3.8	1.49e+00	0	52	104	0	59	19224
2026-01-21 10:53:31.08	187.72	3.07	-44.0	-58.5	3.8	1.49e+00	0	52	104	0	59	19198
2026-01-21 10:53:32.09	187.77	3.14	-44.0	-58.5	3.8	1.49e+00	0	52	104	0	59	19270
2026-01-21 10:53:33.10	187.82	3.20	-44.0	-58.5	3.8	1.49e+00	0	53	104	0	59	19237
2026-01-21 10:53:34.11	187.86	3.27	-44.0	-58.5	3.8	1.49e+00	0	52	104	0	59	19237
2026-01-21 10:53:35.12	187.91	3.33	-44.0	-58.5	3.8	1.49e+00	0	52	104	0	59	19215
2026-01-21 10:53:36.13	187.96	3.39	-44.0	-58.5	3.8	1.49e+00	0	52	104	0	59	19231
2026-01-21 10:53:37.14	188.00	3.46	-44.0	-58.5	3.8	1.49e+00	0	53	104	0	59	19220
2026-01-21 10:53:38.15	188.05	3.52	-44.0	-58.5	3.8	1.49e+00	0	53	104	0	59	19262
2026-01-21 10:53:39.16	188.10	3.59	-44.0	-58.5	3.8	1.49e+00	0	53	104	0	59	19231
2026-01-21 10:53:40.17	188.15	3.65	-44.0	-58.5	3.8	1.49e+00	0	53	104	0	59	19189
2026-01-21 10:53:41.18	188.19	3.72	-44.0	-58.5	3.8	1.49e+00	0	53	104	0	59	19239
2026-01-21 10:53:42.19	188.24	3.79	-44.0	-58.5	3.8	1.49e+00	0	53	104	0	59	19263
2026-01-21 10:53:43.20	188.29	3.85	-44.0	-58.5	3.8	1.49e+00	0	53	104	0	59	19284
2026-01-21 10:53:44.21	188.34	3.92	-44.0	-58.5	3.8	1.49e+00	0	53	104	0	59	19248
2026-01-21 10:53:45.22	188.39	3.98	-44.0	-58.5	3.8	1.49e+00	0	53	104	0	59	19220
2026-01-21 10:53:46.23	188.44	4.05	-44.0	-58.5	3.8	1.49e+00	0	53	104	0	59	19234
2026-01-21 10:53:47.24	188.49	4.12	-44.0	-58.5	3.8	1.49e+00	0	53	104	0	59	19183
2026-01-21 10:53:48.25	188.54	4.18	-44.0	-58.5	3.8	1.49e+00	0	53	104	0	59	19213
2026-01-21 10:53:49.26	188.59	4.25	-44.0	-58.5	3.8	1.49e+00	0	53	104	0	59	19182
2026-01-21 10:53:50.27	188.64	4.31	-44.0	-58.4	3.8	1.49e+00	0	53	104	0	59	19138
2026-01-21 10:53:51.28	188.69	4.38	-44.0	-58.4	3.8	1.49e+00	0	54	104	0	59	19121
2026-01-21 10:53:52.29	188.74	4.45	-44.0	-58.4	3.8	1.49e+00	0	54	104	0	59	19012
2026-01-21 10:53:53.30	188.79	4.52	-44.0	-58.4	3.8	1.49e+00	0	54	104	0	59	19035
2026-01-21 10:53:54.31	188.84	4.58	-44.0	-58.4	3.8	1.49e+00	0	54	104	0	59	18994
2026-01-21 10:53:55.33	188.89	4.65	-44.0	-58.3	3.8	1.49e+00	0	54	104	0	59	18933
2026-01-21 10:53:56.33	188.94	4.72	-44.0	-58.3	3.8	1.49e+00	0	54	104	0	59	18931
2026-01-21 10:53:57.35	188.99	4.79	-44.0	-58.4	3.8	1.49e+00	0	54	104	0	59	18957
2026-01-21 10:53:58.36	189.04	4.85	-44.0	-58.3	3.8	1.49e+00	0	54	104	0	59	18915
2026-01-21 10:53:59.37	189.09	4.92	-44.0	-58.3	3.8	1.49e+00	0	54	104	0	59	18893
2026-01-21 10:54:00.38	189.15	4.99	-44.0	-58.3	3.8	1.49e+00	0	54	104	0	59	18866
2026-01-21 10:54:01.39	189.20	5.06	-44.0	-58.2	3.8	1.49e+00	0	54	104	0	59	18723
2026-01-21 10:54:02.40	189.25	5.13	-44.0	-58.2	3.8	1.49e+00	0	54	104	0	59	18522
2026-01-21 10:54:03.41	189.30	5.20	-44.0	-58.1	3.8	1.49e+00	0	54	104	0	59	18339
2026-01-21 10:54:04.42	189.36	5.26	-44.0	-57.9	3.8	1.49e+00	0	54	104	0	59	18004
2026-01-21 10:54:05.43	189.41	5.33	-44.0	-57.8	3.8	1.49e+00	0	54	104	0	59	17760
2026-01-21 10:54:06.44	189.46	5.40	-44.0	-57.5	3.8	1.49e+00	0	54	104	0	59	17237
2026-01-21 10:54:07.45	189.52	5.47	-44.0	-57.3	3.8	1.49e+00	0	54	104	0	59	16847
2026-01-21 10:54:08.46	189.57	5.54	-43.9	-57.2	3.8	1.49e+00	0	54	104	0	59	16532
2026-01-21 10:54:09.47	189.63	5.61	-43.9	-56.9	3.8	1.49e+00	0	54	104	0	59	16094
2026-01-21 10:54:10.48	189.68	5.68	-43.9	-56.6	3.8	1.49e+00	0	55	104	0	59	15526
2026-01-21 10:54:11.49	189.74	5.75	-43.9	-56.2	3.8	1.49e+00	0	55	104	0	59	14781
2026-01-21 10:54:12.50	189.79	5.82	-43.9	-55.9	3.8	1.48e+00	0	55	104	0	59	14268
2026-01-21 10:54:13.51	189.85	5.89	-43.8	-55.5	4.1	1.45e+00	0	55	0	0	59	13686
2026-01-21 10:54:14.52	189.90	5.96	-43.8	-55.2	4.1	1.42e+00	0	55	0	0	59	13224
2026-01-21 10:54:15.53	189.96	6.03	-43.8	-54.9	4.2	1.39e+00	0	55	0	0	59	12704
2026-01-21 10:54:16.54	190.01	6.10	-43.8	-54.6	4.3	1.35e+00	0	55	0	0	59	12350
2026-01-21 10:54:17.55	190.07	6.17	-43.7	-54.4	4.4	1.32e+00	0	55	0	1048576	59	11961
2026-01-21 10:54:18.56	190.13	6.25	-43.7	-54.4	4.4	1.33e+00	0	55	0	2097152	59	12048
2026-01-21 10:54:19.57	190.18	6.32	-43.7	-54.2	4.4	1.28e+00	0	55	0	3145728	59	11753
2026-01-21 10:54:20.58	190.24	6.39	-43.7	-54.4	4.4	1.21e+00	0	55	0	5242880	59	12017
2026-01-21 10:54:21.59	190.30	6.46	-43.7	-54.4	4.4	1.31e+00	0	55	0	7340032	59	12026
2026-01-21 10:54:22.60	190.35	6.53	-43.7	-54.5	4.3	1.23e+00	0	55	0	9437184	59	12150
2026-01-21 10:54:23.61	190.41	6.60	-43.7	-54.5	4.3	1.33e+00	0	55	0	9437184	59	12164
2026-01-21 10:54:24.62	190.47	6.68	-43.8	-54.7	4.3	1.33e+00	0	55	0	10485760	59	12418
2026-01-21 10:54:25.63	190.53	6.75	-43.8	-54.7	4.2	1.35e+00	0	55	0	10485760	59	12512
2026-01-21 10:54:26.64	190.59	6.82	-43.8	-54.6	4.3	1.36e+00	0	55	0	10485760	59	12368
2026-01-21 10:54:27.65	190.65	6.89	-43.7	-54.5	4.3	1.30e+00	0	55	0	11534336	59	12116
2026-01-21 10:54:28.66	190.71	6.97	-43.7	-54.2	4.4	1.30e+00	0	55	0	13631488	59	11686
2026-01-21 10:54:29.67	190.77	7.04	-43.6	-53.3	4.8	8.38e-01	0	55	0	15728640	59	10578
2026-01-21 10:54:30.68	190.83	7.11	-43.6	-53.0	5.0	7.88e-01	0	56	0	17825792	59	10246
2026-01-21 10:54:31.69	190.89	7.19	-43.4	-52.0	5.6	5.98e-01	0	55	0	18874368	58	9614
2026-01-21 10:54:32.70	190.95	7.26	-43.4	-51.6	5.8	4.33e-01	0	56	0	20971520	58	9228
2026-01-21 10:54:33.71	191.01	7.33	-43.2	-51.0	6.3	2.81e-01	0	55	0	23068672	58	8571
2026-01-21 10:54:34.72	191.07	7.41	-43.1	-50.1	7.1	1.76e-01	0	55	0	25165824	58	7784
2026-01-21 10:54:35.73	191.13	7.48	-43.0	-49.8	7.4	1.32e-01	0	56	0	27262976	58	7501
2026-01-21 10:54:36.74	191.19	7.56	-42.8	-49.2	7.9	8.88e-02	0	56	0	28311552	57	7449
2026-01-21 10:54:37.76	191.25	7.63	-42.7	-48.9	8.3	4.90e-02	0	56	0	30408704	57	7129
2026-01-21 10:54:38.77	191.32	7.71	-42.6	-48.4	8.7	4.34e-02	0	56	0	32505856	57	6797
2026-01-21 10:54:39.78	191.38	7.78	-42.6	-48.5	8.7	3.20e-02	0	56	0	34603008	57	6824
2026-01-21 10:54:40.79	191.44	7.86	-42.5	-48.3	8.9	2.66e-02	0	56	0	36700160	57	6652
2026-01-21 10:54:41.80	191.50	7.93	-42.6	-48.6	8.6	2.75e-02	0	56	0	37748736	57	6884
2026-01-21 10:54:42.81	191.57	8.01	-42.6	-48.6	8.5	3.75e-02	0	56	0	39845888	57	6944
2026-01-21 10:54:43.82	191.63	8.08	-44.3	-58.2	3.8	2.98e-01	0	56	104	41943040	59	18696
2026-01-21 10:54:44.82	191.69	8.16	-43.5	-53.0	5.0	1.46e+00	0	56	104	41943040	57	11532
2026-01-21 10:54:45.83	191.76	8.24	-43.4	-51.2	6.5	6.83e-01	0	56	104	41943040	57	9298
2026-01-21 10:54:46.84	191.82	8.31	-43.3	-50.7	6.8	2.66e-01	0	56	0	42991616	58	8273
2026-01-21 10:54:47.85	191.89	8.39	-43.6	-53.1	5.2	6.09e-02	0	56	0	45088768	57	11582
2026-01-21 10:54:48.86	191.95	8.47	-42.7	-48.7	8.6	1.16e+00	0	56	0	46137344	57	6971
2026-01-21 10:54:49.87	192.02	8.54	-42.7	-48.6	8.6	3.32e-02	0	56	0	48234496	57	6931
2026-01-21 10:54:50.88	192.08	8.62	-42.7	-48.7	8.6	3.80e-02	0	56	0	50331648	57	6983
2026-01-21 10:54:51.89	192.15	8.70	-42.7	-48.5	8.7	3.60e-02	0	56	0	52428800	57	6860
2026-01-21 10:54:52.90	192.22	8.77	-42.7	-48.6	8.6	3.49e-02	0	56	0	54525952	57	6914
2026-01-21 10:54:53.91	192.28	8.85	-42.7	-48.5	8.7	4.16e-02	0	56	0	55574528	57	6874
2026-01-21 10:54:54.92	192.35	8.93	-42.6	-48.3	8.9	3.15e-02	0	56	0	57671680	57	6688
2026-01-21 10:54:55.93	192.42	9.01	-42.5	-48.1	9.1	2.47e-02	0	56	0	59768832	57	6529
2026-01-21 10:54:56.94	192.49	9.09	-42.6	-48.1	9.1	2.44e-02	0	56	0	61865984	57	6556
2026-01-21 10:54:57.95	192.56	9.17	-42.6	-48.1	9.2	2.23e-02	0	57	0	63963136	57	6564
2026-01-21 10:54:58.96	192.62	9.24	-42.6	-48.0	9.3	2.06e-02	0	56	0	65011712	57	6494
2026-01-21 10:54:59.97	192.69	9.32	-42.6	-48.3	9.0	1.96e-02	0	56	0	67108864	57	6658
2026-01-21 10:55:00.98	192.76	9.40	-42.6	-48.1	9.2	2.10e-02	0	56	0	69206016	57	6507
2026-01-21 10:55:01.99	192.83	9.48	-42.6	-48.2	9.1	2.36e-02	0	57	0	71303168	57	6590
2026-01-21 10:55:03.00	192.90	9.56	-42.5	-48.2	9.0	2.14e-02	0	57	0	73400320	57	6588
2026-01-21 10:55:04.01	192.97	9.64	-42.4	-48.0	9.1	2.45e-02	0	57	0	74448896	56	6836
2026-01-21 10:55:05.02	193.04	9.72	-42.4	-48.0	9.1	2.37e-02	0	57	0	76546048	56	6865
2026-01-21 10:55:06.03	193.12	9.80	-42.4	-48.0	9.0	2.55e-02	0	57	0	78643200	56	6810
2026-01-21 10:55:07.04	193.19	9.88	-42.3	-48.0	8.9	2.53e-02	0	57	0	80740352	56	6833
2026-01-21 10:55:08.05	193.26	9.96	-42.2	-47.7	9.0	2.51e-02	0	57	0	82837504	56	6634
2026-01-21 10:55:09.06	193.33	10.05	-42.1	-47.5	9.2	2.46e-02	0	57	0	83886080	56	6474
2026-01-21 10:55:10.07	193.41	10.13	-42.1	-47.5	9.2	1.98e-02	0	57	0	85983232	56	6471
2026-01-21 10:55:11.08	193.48	10.21	-42.1	-47.6	9.1	2.05e-02	0	57	0	88080384	56	6504
2026-01-21 10:55:12.09	193.55	10.29	-42.1	-47.4	9.4	1.60e-02	0	57	0	90177536	56	6403
2026-01-21 10:55:13.10	193.63	10.37	-42.1	-47.4	9.5	1.25e-02	0	57	0	92274688	56	6376
2026-01-21 10:55:14.11	193.70	10.46	-42.1	-47.3	9.6	1.37e-02	0	57	0	93323264	56	6293
2026-01-21 10:55:15.12	193.77	10.54	-41.9	-46.9	9.9	9.20e-03	0	57	0	95420416	55	6414
2026-01-21 10:55:16.13	193.85	10.62	-41.9	-47.0	9.8	9.74e-03	0	57	0	97517568	55	6493
2026-01-21 10:55:17.14	193.93	10.70	-42.0	-46.9	10.1	7.97e-03	0	57	0	99614720	55	6358
2026-01-21 10:55:18.14	194.00	10.79	-42.0	-46.9	10.1	6.78e-03	0	57	0	101711872	55	6402
2026-01-21 10:55:19.15	194.08	10.87	-42.0	-46.7	10.6	4.69e-03	0	57	0	102760448	55	6223
2026-01-21 10:55:20.16	194.15	10.95	-42.1	-46.9	10.5	3.35e-03	0	57	0	104857600	55	6360
2026-01-21 10:55:21.17	194.23	11.04	-42.0	-46.6	10.9	3.21e-03	0	57	0	106954752	55	6149
2026-01-21 10:55:22.18	194.31	11.12	-42.0	-46.5	10.9	2.35e-03	0	57	0	109051904	55	6079
2026-01-21 10:55:23.19	194.39	11.21	-42.1	-46.7	10.7	2.62e-03	0	57	0	111149056	55	6245
2026-01-21 10:55:24.20	194.47	11.29	-42.0	-46.6	10.9	2.66e-03	0	57	0	113246208	55	6148
2026-01-21 10:55:25.21	194.54	11.38	-42.0	-46.6	10.7	2.73e-03	0	57	0	114294784	55	6183
2026-01-21 10:55:26.22	194.62	11.46	-42.0	-46.7	10.5	3.44e-03	0	57	0	116391936	55	6251
2026-01-21 10:55:27.23	194.70	11.55	-41.8	-46.6	10.4	4.19e-03	0	57	0	118489088	55	6164
2026-01-21 10:55:28.24	194.78	11.63	-41.8	-46.7	10.2	5.75e-03	0	57	0	120586240	55	6229
2026-01-21 10:55:29.25	194.87	11.72	-41.7	-46.5	10.2	5.29e-03	0	57	0	122683392	55	6120
2026-01-21 10:55:30.26	194.95	11.80	-41.6	-46.6	10.0	7.10e-03	0	58	0	123731968	55	6168
2026-01-21 10:55:31.27	195.03	11.89	-41.5	-46.5	10.0	7.67e-03	0	58	0	125829120	54	6468
2026-01-21 10:55:32.28	195.11	11.98	-41.2	-46.3	10.0	7.93e-03	0	57	0	127926272	54	6304
2026-01-21 10:55:33.29	195.19	12.06	-41.0	-46.4	9.5	1.12e-02	0	57	0	130023424	54	6406
2026-01-21 10:55:34.30	195.28	12.15	-40.7	-46.2	9.6	1.10e-02	0	57	0	132120576	53	6606
2026-01-21 10:55:35.30	195.36	12.24	-40.4	-46.2	9.2	1.87e-02	0	57	0	133169152	52	6970
2026-01-21 10:55:36.31	195.44	12.33	-40.2	-45.8	9.3	2.06e-02	0	57	0	135266304	52	6722
2026-01-21 10:55:37.32	195.53	12.41	-40.0	-45.9	8.9	1.99e-02	0	58	0	137363456	52	6735
2026-01-21 10:55:38.33	195.61	12.50	-39.8	-45.8	8.9	3.02e-02	0	57	0	139460608	51	7044
2026-01-21 10:55:39.34	195.70	12.59	-39.7	-45.5	9.0	2.49e-02	0	58	0	141557760	51	6874
2026-01-21 10:55:40.35	195.78	12.68	-39.4	-45.4	8.6	2.76e-02	0	58	0	142606336	50	7195
2026-01-21 10:55:41.36	195.87	12.77	-39.2	-45.2	8.4	4.66e-02	0	58	0	144703488	50	7037
2026-01-21 10:55:42.37	195.96	12.86	-39.0	-45.3	8.2	5.31e-02	0	58	0	146800640	50	7042
2026-01-21 10:55:43.38	196.04	12.95	-38.9	-45.1	8.1	6.24e-02	0	58	0	148897792	49	7362
2026-01-21 10:55:44.39	196.13	13.04	-38.8	-45.1	8.1	6.02e-02	0	58	0	150994944	49	7306
2026-01-21 10:55:45.40	196.22	13.13	-38.9	-45.1	8.2	6.15e-02	0	58	0	152043520	49	7330
2026-01-21 10:55:46.40	196.31	13.22	-39.0	-45.1	8.3	5.68e-02	0	58	0	154140672	49	7363
2026-01-21 10:55:47.41	196.40	13.31	-39.2	-45.3	8.3	4.71e-02	0	58	0	156237824	49	7516
2026-01-21 10:55:48.42	196.49	13.40	-39.5	-45.5	8.5	3.68e-02	0	58	0	158334976	49	7666
2026-01-21 10:55:49.43	196.58	13.49	-39.8	-45.3	9.4	2.31e-02	0	58	0	160432128	50	7058
2026-01-21 10:55:50.44	196.67	13.58	-40.2	-45.7	9.4	1.75e-02	0	58	0	161480704	50	7422
2026-01-21 10:55:51.45	196.76	13.67	-40.2	-45.5	9.8	1.12e-02	0	58	0	163577856	51	6837
2026-01-21 10:55:52.46	196.85	13.77	-40.5	-45.7	9.9	9.60e-03	0	58	0	165675008	51	7000
2026-01-21 10:55:53.47	196.95	13.86	-40.7	-45.7	10.2	5.09e-03	0	58	0	167772160	51	7019
2026-01-21 10:55:54.48	197.04	13.95	-40.8	-45.5	10.8	3.60e-03	0	58	0	169869312	52	6445
2026-01-21 10:55:55.49	197.13	14.04	-41.0	-45.5	11.2	2.73e-03	0	58	0	170917888	52	6460
2026-01-21 10:55:56.50	197.23	14.14	-41.1	-45.6	11.4	1.11e-03	0	58	0	173015040	52	6525
2026-01-21 10:55:57.51	197.32	14.23	-41.2	-45.6	11.5	8.83e-04	0	58	0	175112192	53	6135
2026-01-21 10:55:58.52	197.42	14.32	-41.3	-45.6	11.5	7.54e-04	0	58	0	177209344	53	6137
2026-01-21 10:55:59.53	197.52	14.42	-41.3	-45.6	11.4	8.35e-04	0	58	0	179306496	53	6152
2026-01-21 10:56:00.53	197.61	14.51	-41.2	-45.5	11.3	1.16e-03	0	58	0	181403648	53	6094
2026-01-21 10:56:01.55	197.71	14.61	-41.2	-45.6	11.1	1.46e-03	0	58	0	182452224	53	6161
2026-01-21 10:56:02.55	197.81	14.70	-41.1	-45.6	10.8	2.12e-03	0	58	0	184549376	53	6149
2026-01-21 10:56:03.56	197.91	14.80	-41.0	-45.7	10.4	3.55e-03	0	58	0	186646528	53	6266
2026-01-21 10:56:04.57	198.01	14.89	-41.0	-45.7	10.3	4.99e-03	0	58	0	188743680	53	6225
2026-01-21 10:56:05.58	198.10	14.99	-41.0	-45.8	10.0	6.49e-03	0	58	0	190840832	53	6290
2026-01-21 10:56:06.59	198.21	15.09	-41.0	-45.8	10.0	8.34e-03	0	58	0	191889408	53	6305
2026-01-21 10:56:07.60	198.31	15.18	-41.0	-45.8	10.1	6.62e-03	0	58	0	193986560	53	6324
2026-01-21 10:56:08.61	198.41	15.28	-41.2	-45.9	10.2	6.77e-03	0	58	0	196083712	53	6396
2026-01-21 10:56:09.62	198.51	15.38	-41.4	-46.2	10.1	7.02e-03	0	58	0	198180864	53	6573
2026-01-21 10:56:10.63	198.61	15.47	-41.6	-46.1	10.5	4.61e-03	0	58	0	200278016	53	6556
2026-01-21 10:56:11.64	198.72	15.57	-41.6	-46.2	10.6	3.29e-03	0	58	0	201326592	53	6593
2026-01-21 10:56:12.65	198.82	15.67	-41.8	-46.3	10.8	2.71e-03	0	58	0	203423744	54	6315
2026-01-21 10:56:13.66	198.93	15.77	-41.9	-46.2	11.2	1.52e-03	0	58	0	205520896	54	6214
2026-01-21 10:56:14.67	199.03	15.87	-41.9	-46.0	11.5	1.22e-03	0	58	0	207618048	54	6100
2026-01-21 10:56:15.68	199.14	15.96	-42.0	-46.1	11.5	7.98e-04	0	58	0	209715200	54	6188
2026-01-21 10:56:16.69	199.25	16.06	-41.9	-46.0	11.6	8.58e-04	0	58	0	210763776	54	6115
2026-01-21 10:56:17.70	199.35	16.16	-42.0	-46.1	11.6	6.83e-04	0	59	0	212860928	54	6144
2026-01-21 10:56:18.71	199.46	16.26	-41.9	-46.0	11.7	5.89e-04	0	58	0	214958080	54	6080
2026-01-21 10:56:19.72	199.57	16.36	-42.0	-46.2	11.4	9.59e-04	0	58	0	217055232	54	6257
2026-01-21 10:56:20.72	199.68	16.46	-41.9	-45.9	11.8	6.23e-04	0	59	0	219152384	54	6004
2026-01-21 10:56:21.73	199.79	16.56	-42.0	-46.3	11.3	7.29e-04	0	58	0	220200960	54	6295
2026-01-21 10:56:22.75	199.90	16.67	-42.1	-46.3	11.3	1.11e-03	0	58	0	222298112	54	6321
2026-01-21 10:56:23.75	200.01	16.77	-42.1	-46.4	11.3	1.09e-03	0	58	0	224395264	54	6366
2026-01-21 10:56:24.76	200.13	16.87	-42.2	-46.5	11.1	1.47e-03	0	58	0	226492416	54	6457
2026-01-21 10:56:25.77	200.24	16.97	-42.2	-46.4	11.3	1.21e-03	0	58	0	228589568	55	6035
2026-01-21 10:56:26.78	200.35	17.07	-42.3	-46.6	11.1	1.38e-03	0	58	0	229638144	55	6171
2026-01-21 10:56:27.79	200.47	17.18	-42.1	-46.2	11.6	8.89e-04	0	58	0	231735296	55	5919
2026-01-21 10:56:28.80	200.58	17.28	-42.1	-46.3	11.6	7.51e-04	0	59	0	233832448	55	5955
2026-01-21 10:56:29.81	200.70	17.38	-42.1	-46.3	11.6	5.33e-04	0	58	0	235929600	55	5933
2026-01-21 10:56:30.82	200.82	17.49	-42.0	-46.1	11.8	5.19e-04	0	58	0	238026752	55	5809
2026-01-21 10:56:31.83	200.94	17.59	-42.0	-46.0	12.0	4.03e-04	0	58	0	239075328	55	5752
2026-01-21 10:56:32.84	201.05	17.70	-41.9	-45.8	12.1	2.91e-04	0	59	0	241172480	55	5655
2026-01-21 10:56:33.85	201.17	17.80	-42.0	-46.0	12.0	3.17e-04	0	58	0	243269632	55	5765
2026-01-21 10:56:34.86	201.29	17.91	-42.0	-46.0	12.0	2.59e-04	0	58	0	245366784	55	5737
2026-01-21 10:56:35.87	201.42	18.01	-42.0	-46.0	11.9	2.37e-04	0	58	0	247463936	55	5770
2026-01-21 10:56:36.88	201.54	18.12	-42.0	-46.0	12.0	3.18e-04	0	59	0	249561088	55	5750
2026-01-21 10:56:37.89	201.66	18.22	-42.0	-46.0	12.0	3.16e-04	0	59	0	250609664	55	5753
2026-01-21 10:56:38.90	201.78	18.33	-42.0	-45.9	12.0	3.88e-04	0	59	0	252706816	55	5720
2026-01-21 10:56:39.91	201.91	18.44	-42.0	-45.9	12.0	3.75e-04	0	58	0	254803968	55	5697
2026-01-21 10:56:40.92	202.03	18.54	-42.1	-46.1	11.9	6.58e-04	0	59	0	256901120	55	5803
2026-01-21 10:56:41.93	202.16	18.65	-42.1	-46.1	11.9	5.44e-04	0	58	0	258998272	55	5797
2026-01-21 10:56:42.94	202.29	18.76	-42.1	-46.1	12.0	3.17e-04	0	59	0	260046848	55	5801
2026-01-21 10:56:43.95	202.42	18.87	-42.1	-46.2	11.9	4.08e-04	0	59	0	262144000	55	5870
2026-01-21 10:56:44.95	202.54	18.97	-42.2	-46.3	11.8	4.69e-04	0	59	0	264241152	55	5925
2026-01-21 10:56:45.96	202.67	19.08	-42.1	-46.0	11.9	4.87e-04	0	59	0	266338304	55	5788
2026-01-21 10:56:46.97	202.80	19.19	-42.2	-46.3	11.7	3.91e-04	0	59	0	268435456	55	5943
2026-01-21 10:56:47.98	202.94	19.30	-42.2	-46.4	11.5	4.98e-04	0	59	0	269484032	55	6048
2026-01-21 10:56:48.99	203.07	19.41	-42.1	-46.1	11.8	5.35e-04	0	59	0	271581184	55	5855
2026-01-21 10:56:50.00	203.20	19.52	-42.3	-46.5	11.5	6.96e-04	0	59	0	273678336	55	6121
2026-01-21 10:56:51.01	203.34	19.63	-42.2	-46.3	11.7	8.83e-04	0	59	0	275775488	55	5950
2026-01-21 10:56:52.02	203.47	19.74	-42.3	-46.6	11.5	7.73e-04	0	59	0	277872640	55	6136
2026-01-21 10:56:53.03	203.61	19.85	-42.3	-46.6	11.4	8.22e-04	0	59	0	278921216	55	6179
2026-01-21 10:56:54.04	203.74	19.96	-42.3	-46.6	11.4	5.62e-04	0	59	0	281018368	55	6157
2026-01-21 10:56:55.05	203.88	20.08	-42.4	-46.6	11.4	7.94e-04	0	59	0	283115520	55	6200
2026-01-21 10:56:56.06	204.02	20.19	-42.4	-46.6	11.4	9.06e-04	0	59	0	285212672	55	6182
2026-01-21 10:56:57.07	204.16	20.30	-42.3	-46.4	11.6	8.03e-04	0	59	0	287309824	55	6038
2026-01-21 10:56:58.08	204.30	20.41	-42.3	-46.4	11.6	4.90e-04	0	59	0	288358400	55	6053
2026-01-21 10:56:59.09	204.45	20.53	-42.4	-46.6	11.4	8.66e-04	0	59	0	290455552	55	6197
2026-01-21 10:57:00.09	204.59	20.64	-42.3	-46.4	11.7	8.86e-04	0	59	0	292552704	55	6013
2026-01-21 10:57:01.10	204.73	20.75	-42.3	-46.4	11.6	1.01e-03	0	59	0	294649856	55	6028
2026-01-21 10:57:02.12	204.88	20.87	-42.5	-46.9	11.1	1.48e-03	0	59	0	296747008	55	6373
2026-01-21 10:57:03.12	205.02	20.98	-42.4	-46.7	11.4	1.40e-03	0	59	0	297795584	55	6244
2026-01-21 10:57:04.13	205.17	21.10	-42.5	-47.0	11.1	1.14e-03	0	59	0	299892736	55	6432
2026-01-21 10:57:05.14	205.32	21.21	-42.6	-47.1	11.0	1.33e-03	0	59	0	301989888	55	6504
2026-01-21 10:57:06.15	205.47	21.33	-42.4	-46.7	11.4	1.46e-03	0	59	0	304087040	55	6267
2026-01-21 10:57:07.16	205.62	21.44	-42.4	-46.7	11.4	1.12e-03	0	59	0	306184192	55	6214
2026-01-21 10:57:08.17	205.77	21.56	-42.4	-46.7	11.4	9.76e-04	0	59	0	307232768	55	6207
2026-01-21 10:57:09.18	205.92	21.68	-42.5	-46.8	11.3	1.23e-03	0	59	0	309329920	55	6284
2026-01-21 10:57:10.19	206.08	21.79	-42.5	-46.9	11.2	8.71e-04	0	59	0	311427072	55	6384
2026-01-21 10:57:11.20	206.23	21.91	-42.5	-47.0	11.1	1.62e-03	0	59	0	313524224	55	6448
2026-01-21 10:57:12.21	206.39	22.03	-42.6	-47.1	11.0	2.08e-03	0	59	0	315621376	55	6524
2026-01-21 10:57:13.21	206.54	22.14	-42.7	-47.3	10.8	2.00e-03	0	59	0	317718528	55	6661
2026-01-21 10:57:14.22	206.70	22.26	-42.9	-47.7	10.5	2.03e-03	0	59	0	318767104	56	6639
2026-01-21 10:57:15.23	206.86	22.38	-42.8	-47.3	10.9	2.96e-03	0	59	0	320864256	56	6344
2026-01-21 10:57:16.24	207.02	22.50	-42.8	-47.4	10.8	2.13e-03	0	59	0	322961408	56	6402
2026-01-21 10:57:17.25	207.19	22.62	-42.8	-47.3	11.0	2.15e-03	0	59	0	325058560	56	6312
2026-01-21 10:57:18.26	207.35	22.74	-42.7	-47.1	11.1	2.39e-03	0	59	0	326107136	56	6200
2026-01-21 10:57:19.27	207.51	22.86	-42.7	-47.2	11.1	1.32e-03	0	59	0	328204288	56	6220
2026-01-21 10:57:20.28	207.68	22.98	-42.7	-47.1	11.2	1.02e-03	0	59	0	330301440	56	6176
2026-01-21 10:57:21.29	207.85	23.10	-42.6	-47.0	11.4	1.26e-03	0	59	0	332398592	56	6080
2026-01-21 10:57:22.30	208.02	23.22	-42.6	-46.8	11.5	8.87e-04	0	59	0	334495744	56	5966
2026-01-21 10:57:23.31	208.19	23.34	-42.5	-46.6	11.7	7.99e-04	0	59	0	335544320	56	5831
2026-01-21 10:57:24.32	208.36	23.46	-42.5	-46.6	11.7	5.33e-04	0	59	0	337641472	56	5816
2026-01-21 10:57:25.33	208.53	23.59	-42.3	-46.3	12.1	4.26e-04	0	59	0	339738624	56	5597
2026-01-21 10:57:26.34	208.70	23.71	-42.2	-46.0	12.4	2.87e-04	0	59	0	341835776	56	5414
2026-01-21 10:57:27.35	208.88	23.83	-42.1	-45.8	12.6	1.20e-04	0	59	0	343932928	56	5280
2026-01-21 10:57:28.36	209.05	23.95	-41.8	-45.4	12.8	5.41e-05	0	59	0	346030080	55	5362
2026-01-21 10:57:29.37	209.23	24.08	-41.7	-45.2	13.0	4.95e-05	0	59	0	347078656	55	5266
2026-01-21 10:57:30.38	209.41	24.20	-41.8	-45.3	12.9	6.33e-05	0	59	0	349175808	55	5297
2026-01-21 10:57:31.38	209.59	24.32	-41.8	-45.4	12.8	4.57e-05	0	59	0	351272960	55	5357
2026-01-21 10:57:32.39	209.77	24.44	-42.0	-45.7	12.4	1.57e-04	0	59	0	353370112	55	5579
2026-01-21 10:57:33.40	209.95	24.57	-42.1	-46.0	12.1	1.37e-04	0	60	0	355467264	55	5775
2026-01-21 10:57:34.41	210.14	24.69	-42.3	-46.5	11.7	3.28e-04	0	59	0	356515840	55	6077
2026-01-21 10:57:35.42	210.32	24.82	-42.4	-46.6	11.5	8.51e-04	0	59	0	358612992	55	6200
2026-01-21 10:57:36.44	210.51	24.94	-42.5	-46.8	11.4	8.73e-04	0	59	0	360710144	55	6301
2026-01-21 10:57:37.45	210.70	25.07	-42.4	-46.5	11.6	8.64e-04	0	59	0	362807296	55	6125
2026-01-21 10:57:38.45	210.89	25.19	-42.5	-46.6	11.5	6.16e-04	0	59	0	364904448	55	6192
2026-01-21 10:57:39.46	211.08	25.32	-42.3	-46.2	11.9	3.71e-04	0	59	0	365953024	55	5914
2026-01-21 10:57:40.48	211.28	25.45	-42.2	-46.0	12.1	2.88e-04	0	59	0	368050176	55	5772
2026-01-21 10:57:41.48	211.47	25.57	-42.1	-45.9	12.3	2.37e-04	0	59	0	370147328	55	5670
2026-01-21 10:57:42.49	211.66	25.70	-42.3	-46.2	12.0	1.89e-04	0	59	0	372244480	55	5908
2026-01-21 10:57:43.50	211.86	25.83	-42.2	-46.2	12.0	2.41e-04	0	59	0	374341632	55	5876
2026-01-21 10:57:44.51	212.06	25.95	-42.4	-46.4	11.7	2.73e-04	0	59	0	375390208	55	6050
2026-01-21 10:57:45.52	212.26	26.08	-42.5	-46.6	11.5	6.12e-04	0	59	0	377487360	55	6188
2026-01-21 10:57:46.53	212.47	26.21	-42.6	-46.9	11.3	1.06e-03	0	59	0	379584512	55	6398
2026-01-21 10:57:47.54	212.67	26.34	-42.9	-47.4	10.9	2.02e-03	0	59	0	381681664	56	6381
2026-01-21 10:57:48.55	212.87	26.46	-42.9	-47.6	10.8	2.76e-03	0	59	0	383778816	56	6510
2026-01-21 10:57:49.56	213.08	26.59	-43.0	-47.8	10.5	3.01e-03	0	59	0	384827392	56	6695
2026-01-21 10:57:50.57	213.29	26.72	-43.0	-47.6	10.7	3.79e-03	0	59	0	386924544	56	6525
2026-01-21 10:57:51.58	213.50	26.85	-42.9	-47.5	10.9	3.03e-03	0	59	0	389021696	56	6448
2026-01-21 10:57:52.59	213.71	26.98	-43.0	-47.6	10.7	2.79e-03	0	60	0	391118848	56	6569
2026-01-21 10:57:53.60	213.93	27.11	-42.9	-47.4	11.0	1.85e-03	0	59	0	393216000	56	6415
2026-01-21 10:57:54.61	214.14	27.24	-42.8	-47.2	11.2	1.96e-03	0	59	0	394264576	56	6245
2026-01-21 10:57:55.62	214.36	27.37	-42.9	-47.6	10.8	1.71e-03	0	60	0	396361728	56	6495
2026-01-21 10:57:56.62	214.58	27.49	-43.0	-47.6	10.7	2.25e-03	0	59	0	398458880	56	6523
2026-01-21 10:57:57.63	214.80	27.62	-42.9	-47.4	11.0	2.31e-03	0	59	0	400556032	56	6384
2026-01-21 10:57:58.64	215.02	27.75	-43.1	-47.9	10.4	4.35e-03	0	60	0	402653184	56	6796
2026-01-21 10:57:59.65	215.25	27.88	-43.1	-47.9	10.4	4.15e-03	0	59	0	403701760	56	6755
2026-01-21 10:58:00.66	215.47	28.01	-43.2	-48.3	10.1	5.26e-03	0	59	0	405798912	57	6655
2026-01-21 10:58:01.67	215.70	28.14	-43.1	-48.0	10.3	6.21e-03	0	59	0	407896064	57	6456
2026-01-21 10:58:02.68	215.93	28.28	-43.1	-48.0	10.3	5.44e-03	0	60	0	409993216	57	6455
2026-01-21 10:58:03.69	216.16	28.41	-43.0	-47.6	10.8	4.69e-03	0	59	0	412090368	57	6163
2026-01-21 10:58:04.70	216.40	28.54	-42.8	-47.2	11.2	1.53e-03	0	59	0	414187520	57	5867
2026-01-21 10:58:05.71	216.63	28.67	-42.6	-46.6	11.7	7.64e-04	0	60	0	415236096	57	5526
2026-01-21 10:58:06.72	216.87	28.80	-42.6	-46.7	11.7	4.32e-04	0	59	0	417333248	56	5866
2026-01-21 10:58:07.73	217.11	28.93	-42.6	-46.8	11.6	6.52e-04	0	60	0	419430400	56	5933
2026-01-21 10:58:08.73	217.35	29.06	-42.7	-46.8	11.5	6.45e-04	0	59	0	421527552	56	5990
2026-01-21 10:58:09.74	217.59	29.19	-42.9	-47.3	11.0	1.48e-03	0	60	0	423624704	56	6344
2026-01-21 10:58:10.75	217.83	29.32	-43.0	-47.6	10.8	2.68e-03	0	60	0	424673280	56	6516
2026-01-21 10:58:11.76	218.08	29.45	-43.0	-47.7	10.6	3.61e-03	0	59	0	426770432	56	6616
2026-01-21 10:58:12.77	218.33	29.58	-43.0	-47.6	10.7	3.01e-03	0	59	0	428867584	56	6555
2026-01-21 10:58:13.78	218.58	29.72	-42.9	-47.3	11.0	2.26e-03	0	59	0	430964736	56	6341
2026-01-21 10:58:14.79	218.83	29.85	-42.8	-47.2	11.1	1.33e-03	0	60	0	433061888	56	6272
2026-01-21 10:58:15.80	219.09	29.98	-42.6	-46.7	11.7	1.51e-03	0	59	0	434110464	56	5892
2026-01-21 10:58:16.81	219.35	30.11	-42.7	-47.0	11.4	9.23e-04	0	60	0	436207616	56	6072
2026-01-21 10:58:17.82	219.60	30.24	-42.9	-47.5	10.9	1.48e-03	0	59	0	438304768	56	6442
2026-01-21 10:58:18.83	219.87	30.37	-42.8	-47.3	11.1	2.32e-03	0	59	0	440401920	56	6275
2026-01-21 10:58:19.84	220.13	30.50	-43.1	-47.8	10.5	2.29e-03	0	60	0	442499072	56	6709
2026-01-21 10:58:20.85	220.39	30.64	-43.1	-47.8	10.6	3.64e-03	0	59	0	443547648	56	6706
2026-01-21 10:58:21.86	220.66	30.77	-43.1	-47.8	10.5	4.40e-03	0	59	0	445644800	57	6324
2026-01-21 10:58:22.87	220.93	30.90	-43.0	-47.5	10.7	3.69e-03	0	59	0	447741952	57	6130
2026-01-21 10:58:23.88	221.20	31.03	-43.0	-47.6	10.8	1.95e-03	0	59	0	449839104	57	6140
2026-01-21 10:58:24.89	221.48	31.16	-42.7	-47.0	11.4	1.10e-03	0	60	0	451936256	57	5748
2026-01-21 10:58:25.90	221.75	31.29	-42.8	-47.1	11.2	1.22e-03	0	59	0	452984832	57	5855
2026-01-21 10:58:26.90	222.03	31.42	-42.9	-47.4	11.0	1.38e-03	0	59	0	455081984	57	6042
2026-01-21 10:58:27.91	222.31	31.55	-42.9	-47.2	11.2	1.65e-03	0	60	0	457179136	57	5905
2026-01-21 10:58:28.92	222.59	31.68	-43.0	-47.5	10.8	1.67e-03	0	59	0	459276288	57	6076
2026-01-21 10:58:29.93	222.88	31.81	-43.0	-47.6	10.8	2.11e-03	0	60	0	461373440	57	6135
2026-01-21 10:58:30.94	223.16	31.94	-43.4	-48.6	9.7	4.83e-03	0	60	0	462422016	57	6892
2026-01-21 10:58:31.95	223.45	32.07	-43.6	-49.2	9.1	1.38e-02	0	60	0	464519168	57	7399
2026-01-21 10:58:32.96	223.75	32.20	-44.0	-50.5	8.0	3.33e-02	0	59	0	466616320	58	8105
2026-01-21 10:58:33.97	224.04	32.33	-44.1	-51.0	7.3	1.19e-01	0	60	0	468713472	58	8634
2026-01-21 10:58:34.98	224.34	32.46	-44.3	-51.8	6.7	1.65e-01	0	60	0	470810624	59	8868
2026-01-21 10:58:35.99	224.63	32.59	-44.1	-50.8	7.5	1.72e-01	0	60	0	471859200	59	7938
2026-01-21 10:58:37.00	224.94	32.71	-43.8	-49.6	8.7	5.20e-02	0	60	0	473956352	59	6957
2026-01-21 10:58:38.01	225.24	32.84	-43.6	-49.2	9.1	2.64e-02	0	60	0	476053504	59	6633
2026-01-21 10:58:39.02	225.54	32.97	-43.6	-49.0	9.4	1.75e-02	0	60	0	478150656	59	6461
2026-01-21 10:58:40.03	225.85	33.10	-43.6	-49.2	9.2	1.84e-02	0	59	0	480247808	58	6972
2026-01-21 10:58:41.04	226.16	33.22	-43.7	-49.5	8.8	2.02e-02	0	60	0	482344960	58	7265
2026-01-21 10:58:42.05	226.48	33.35	-43.9	-49.9	8.4	3.40e-02	0	60	0	483393536	58	7606
2026-01-21 10:58:43.06	226.79	33.48	-43.9	-50.0	8.3	5.80e-02	0	60	0	485490688	58	7697
2026-01-21 10:58:44.07	227.11	33.60	-43.9	-50.1	8.2	5.81e-02	0	60	0	487587840	58	7788
2026-01-21 10:58:45.07	227.43	33.73	-43.9	-50.0	8.2	5.73e-02	0	60	0	489684992	58	7689
2026-01-21 10:58:46.08	227.75	33.85	-44.0	-50.4	7.9	7.39e-02	0	60	0	491782144	58	8039
2026-01-21 10:58:47.09	228.07	33.98	-44.0	-50.3	7.9	7.61e-02	0	60	0	492830720	58	7912
2026-01-21 10:58:48.10	228.40	34.10	-43.9	-50.2	8.1	5.28e-02	0	60	0	494927872	58	7854
2026-01-21 10:58:49.11	228.73	34.22	-43.8	-49.6	8.8	4.82e-02	0	60	0	497025024	58	7307
2026-01-21 10:58:50.12	229.06	34.35	-43.7	-49.4	9.0	3.17e-02	0	60	0	499122176	58	7183
2026-01-21 10:58:51.13	229.40	34.47	-43.9	-49.9	8.5	3.40e-02	0	60	0	501219328	58	7575
2026-01-21 10:58:52.14	229.73	34.59	-43.9	-50.2	8.0	4.36e-02	0	60	0	502267904	58	7864
2026-01-21 10:58:53.15	230.07	34.71	-44.1	-50.6	7.6	9.51e-02	0	60	0	504365056	58	8265
2026-01-21 10:58:54.16	230.41	34.83	-44.2	-51.1	7.3	1.37e-01	0	60	0	506462208	59	8228
2026-01-21 10:58:55.17	230.76	34.95	-44.2	-51.1	7.4	1.35e-01	0	60	0	508559360	59	8204
2026-01-21 10:58:56.18	231.11	35.07	-44.1	-51.0	7.3	1.10e-01	0	60	0	510656512	59	8121
2026-01-21 10:58:57.19	231.46	35.19	-44.0	-50.6	7.8	1.28e-01	0	60	0	511705088	59	7804
2026-01-21 10:58:58.20	231.81	35.30	-44.0	-50.4	7.8	8.10e-02	0	60	0	513802240	59	7601
2026-01-21 10:58:59.21	232.16	35.42	-44.0	-50.4	7.9	7.33e-02	0	60	0	515899392	59	7602
2026-01-21 10:59:00.22	232.52	35.54	-43.9	-49.9	8.4	5.20e-02	0	60	0	517996544	59	7144
2026-01-21 10:59:01.23	232.88	35.65	-44.0	-50.3	8.0	4.80e-02	0	60	0	520093696	59	7491
2026-01-21 10:59:02.24	233.24	35.77	-43.9	-50.1	8.2	5.79e-02	0	60	0	521142272	59	7371
2026-01-21 10:59:03.25	233.61	35.88	-43.9	-50.1	8.2	5.88e-02	0	60	0	523239424	59	7336
2026-01-21 10:59:04.26	233.97	35.99	-44.0	-50.3	8.0	5.33e-02	0	60	0	525336576	59	7467
2026-01-21 10:59:05.27	234.34	36.10	-43.9	-49.9	8.3	6.37e-02	0	60	0	527433728	59	7202
2026-01-21 10:59:06.28	234.71	36.21	-43.7	-49.4	8.7	3.64e-02	0	60	0	529530880	59	6760
2026-01-21 10:59:07.29	235.09	36.32	-43.6	-48.9	9.4	2.12e-02	0	60	0	530579456	59	6416
2026-01-21 10:59:08.30	235.46	36.43	-43.7	-49.3	9.1	1.99e-02	0	60	0	532676608	59	6650
2026-01-21 10:59:09.31	235.84	36.54	-43.9	-50.0	8.3	3.97e-02	0	60	0	534773760	59	7227
2026-01-21 10:59:10.32	236.23	36.65	-43.9	-50.2	8.2	5.05e-02	0	60	0	536870912	59	7372
2026-01-21 10:59:11.33	236.61	36.75	-43.9	-49.9	8.4	4.68e-02	0	60	0	538968064	59	7160
2026-01-21 10:59:12.34	237.00	36.86	-43.8	-49.8	8.5	3.59e-02	0	60	0	540016640	59	7083
2026-01-21 10:59:13.35	237.39	36.96	-43.4	-48.6	9.8	2.13e-02	0	60	0	542113792	58	6533
2026-01-21 10:59:14.36	237.78	37.06	-43.3	-48.2	10.1	6.75e-03	0	60	0	544210944	58	6264
2026-01-21 10:59:15.37	238.17	37.16	-43.1	-47.8	10.6	3.11e-03	0	60	0	546308096	58	5927
2026-01-21 10:59:16.38	238.57	37.26	-43.1	-47.8	10.6	3.26e-03	0	60	0	548405248	58	5928
2026-01-21 10:59:17.39	238.97	37.36	-43.2	-47.8	10.6	3.32e-03	0	60	0	550502400	58	5981
2026-01-21 10:59:18.40	239.37	37.46	-43.1	-47.8	10.6	3.98e-03	0	60	0	551550976	58	5977
2026-01-21 10:59:19.41	239.77	37.55	-43.1	-47.8	10.6	3.26e-03	0	60	0	553648128	58	5960
2026-01-21 10:59:20.42	240.18	37.65	-43.2	-47.8	10.5	3.61e-03	0	60	0	555745280	58	5977
2026-01-21 10:59:21.43	240.58	37.74	-43.2	-48.1	10.4	3.49e-03	0	60	0	557842432	58	6145
2026-01-21 10:59:22.44	240.99	37.83	-43.1	-47.9	10.5	4.38e-03	0	60	0	559939584	57	6358
2026-01-21 10:59:23.45	241.41	37.93	-43.2	-48.1	10.4	4.58e-03	0	60	0	560988160	57	6523
2026-01-21 10:59:24.46	241.82	38.01	-43.1	-47.9	10.4	6.78e-03	0	60	0	563085312	57	6362
2026-01-21 10:59:25.47	242.24	38.10	-43.1	-47.8	10.6	4.59e-03	0	60	0	565182464	57	6276
2026-01-21 10:59:26.48	242.66	38.19	-43.2	-48.0	10.4	4.64e-03	0	60	0	567279616	57	6458
2026-01-21 10:59:27.49	243.08	38.27	-43.4	-48.6	9.8	6.57e-03	0	60	0	569376768	57	6885
2026-01-21 10:59:28.50	243.50	38.36	-43.4	-48.5	9.8	1.27e-02	0	60	0	570425344	57	6858
2026-01-21 10:59:29.51	243.93	38.44	-43.3	-48.3	10.1	8.44e-03	0	60	0	572522496	57	6712
2026-01-21 10:59:30.52	244.36	38.52	-43.1	-47.7	10.7	6.05e-03	0	60	0	574619648	57	6216
2026-01-21 10:59:31.53	244.79	38.60	-42.9	-47.3	11.1	1.97e-03	0	60	0	576716800	57	5930
2026-01-21 10:59:32.54	245.22	38.68	-42.7	-46.9	11.5	1.36e-03	0	60	0	578813952	57	5691
2026-01-21 10:59:33.55	245.65	38.75	-42.8	-47.2	11.3	1.21e-03	0	60	0	579862528	57	5868
2026-01-21 10:59:34.56	246.09	38.82	-43.1	-47.8	10.6	1.97e-03	0	60	0	581959680	57	6279
2026-01-21 10:59:35.57	246.53	38.90	-43.6	-49.0	9.3	1.10e-02	0	60	0	584056832	57	7249
2026-01-21 10:59:36.57	246.96	38.97	-44.0	-50.6	7.8	3.66e-02	0	60	0	586153984	58	8182
2026-01-21 10:59:37.58	247.40	39.04	-44.0	-50.3	8.0	5.75e-02	0	60	0	588251136	58	7937
2026-01-21 10:59:38.59	247.85	39.10	-43.7	-49.5	8.8	4.13e-02	0	60	0	589299712	58	7251
2026-01-21 10:59:39.60	248.29	39.17	-43.5	-48.8	9.5	1.83e-02	0	60	0	591396864	58	6681
2026-01-21 10:59:40.61	248.74	39.23	-43.3	-48.1	10.2	1.08e-02	0	60	0	593494016	58	6197
2026-01-21 10:59:41.62	249.19	39.29	-43.2	-47.9	10.5	3.70e-03	0	60	0	595591168	58	6009
2026-01-21 10:59:42.63	249.64	39.35	-43.1	-47.8	10.6	3.96e-03	0	60	0	597688320	58	5940
2026-01-21 10:59:43.64	250.09	39.41	-43.2	-48.1	10.2	3.99e-03	0	60	0	598736896	58	6162
2026-01-21 10:59:44.65	250.54	39.47	-43.4	-48.7	9.6	6.14e-03	0	60	0	600834048	58	6581
2026-01-21 10:59:45.66	251.00	39.52	-43.6	-49.2	9.2	1.93e-02	0	60	0	602931200	58	6966
2026-01-21 10:59:46.67	251.45	39.57	-43.8	-49.5	8.8	3.13e-02	0	60	0	605028352	58	7253
2026-01-21 10:59:47.68	251.91	39.62	-43.6	-48.8	9.5	2.09e-02	0	60	0	607125504	58	6719
2026-01-21 10:59:48.68	252.37	39.67	-43.5	-48.7	9.6	1.42e-02	0	60	0	608174080	58	6627
2026-01-21 10:59:49.69	252.83	39.72	-43.5	-48.8	9.5	1.29e-02	0	60	0	610271232	58	6674
2026-01-21 10:59:50.70	253.29	39.76	-43.6	-48.9	9.4	1.67e-02	0	60	0	612368384	58	6784
2026-01-21 10:59:51.71	253.75	39.80	-43.3	-48.2	10.2	8.36e-03	0	60	0	614465536	58	6245
2026-01-21 10:59:52.72	254.21	39.84	-42.9	-47.3	11.1	3.11e-03	0	60	0	616562688	57	5991
2026-01-21 10:59:53.73	254.68	39.88	-42.9	-47.3	11.2	1.56e-03	0	60	0	618659840	57	5931
2026-01-21 10:59:54.74	255.14	39.92	-43.3	-48.4	10.1	4.83e-03	0	60	0	619708416	57	6754
2026-01-21 10:59:55.75	255.61	39.95	-43.8	-49.5	8.8	1.88e-02	0	60	0	621805568	58	7285
2026-01-21 10:59:56.76	256.08	39.99	-43.9	-49.9	8.6	4.61e-02	0	60	0	623902720	58	7576
2026-01-21 10:59:57.77	256.55	40.02	-43.8	-49.6	8.8	3.52e-02	0	60	0	625999872	58	7307
2026-01-21 10:59:58.77	257.01	40.04	-43.7	-49.2	9.0	2.54e-02	0	60	0	628097024	58	7018
2026-01-21 10:59:59.78	257.48	40.07	-43.5	-48.6	9.7	1.55e-02	0	60	0	629145600	58	6530
2026-01-21 11:00:00.79	257.96	40.09	-43.5	-48.6	9.8	1.18e-02	0	60	0	631242752	58	6539
2026-01-21 11:00:01.80	258.43	40.11	-43.5	-48.7	9.7	1.13e-02	0	60	0	633339904	58	6609
2026-01-21 11:00:02.81	258.90	40.13	-43.6	-49.0	9.4	1.35e-02	0	60	0	635437056	58	6810
2026-01-21 11:00:03.82	259.37	40.15	-43.9	-49.9	8.5	2.19e-02	0	60	0	637534208	58	7572
2026-01-21 11:00:04.83	259.85	40.17	-44.7	-51.7	7.3	6.79e-02	0	60	0	638582784	59	8813
2026-01-21 11:00:05.84	260.32	40.18	-44.4	-52.0	6.5	1.53e-01	0	60	0	640679936	59	9081
2026-01-21 11:00:06.85	260.79	40.19	-44.4	-51.8	6.5	2.38e-01	0	60	0	642777088	59	8936
2026-01-21 11:00:07.86	261.27	40.20	-44.2	-50.9	7.5	1.25e-01	0	60	0	644874240	59	8057
2026-01-21 11:00:08.87	261.74	40.21	-44.0	-50.3	8.1	9.75e-02	0	60	0	646971392	59	7467
2026-01-21 11:00:09.88	262.22	40.21	-43.8	-49.6	8.7	4.75e-02	0	60	0	648019968	59	6893
2026-01-21 11:00:10.89	262.69	40.21	-43.5	-48.7	9.7	1.31e-02	0	60	0	650117120	59	6206
2026-01-21 11:00:11.90	263.17	40.21	-43.3	-48.3	10.1	5.01e-03	0	60	0	652214272	58	6284
2026-01-21 11:00:12.91	263.64	40.21	-43.4	-48.4	10.0	5.18e-03	0	60	0	654311424	58	6355
2026-01-21 11:00:13.92	264.12	40.21	-43.9	-49.8	8.6	2.43e-02	0	60	0	656408576	58	7462
2026-01-21 11:00:14.93	264.59	40.20	-44.3	-51.4	7.0	9.51e-02	0	60	0	657457152	59	8487
2026-01-21 11:00:15.94	265.07	40.19	-44.4	-52.0	6.4	2.02e-01	0	60	0	659554304	59	9087
2026-01-21 11:00:16.95	265.54	40.18	-44.1	-50.6	7.7	1.82e-01	0	60	0	661651456	59	7777
2026-01-21 11:00:17.96	266.01	40.17	-43.7	-49.3	9.0	3.87e-02	0	60	0	663748608	59	6648
2026-01-21 11:00:18.97	266.49	40.15	-43.3	-48.3	10.0	1.24e-02	0	60	0	665845760	58	6318
2026-01-21 11:00:19.98	266.96	40.14	-43.2	-47.9	10.4	7.54e-03	0	60	0	666894336	58	6048
2026-01-21 11:00:20.99	267.43	40.12	-42.8	-47.0	11.4	1.27e-03	0	60	0	668991488	57	5774
2026-01-21 11:00:21.99	267.90	40.10	-42.6	-46.6	11.9	5.00e-04	0	60	0	671088640	57	5502
2026-01-21 11:00:23.00	268.37	40.07	-42.7	-46.7	11.8	4.57e-04	0	60	0	673185792	57	5577
2026-01-21 11:00:24.02	268.84	40.05	-42.7	-46.9	11.6	9.56e-04	0	60	0	675282944	57	5668
2026-01-21 11:00:25.02	269.31	40.02	-42.5	-46.4	11.9	6.40e-04	0	60	0	676331520	57	5383
2026-01-21 11:00:26.03	269.78	39.99	-42.1	-45.6	12.9	1.05e-04	0	60	0	678428672	56	5181
2026-01-21 11:00:27.04	270.24	39.96	-41.9	-45.4	12.9	3.96e-05	0	60	0	680525824	55	5389
2026-01-21 11:00:28.05	270.71	39.92	-42.6	-46.9	11.4	2.24e-04	0	60	0	682622976	55	6357
2026-01-21 11:00:29.06	271.18	39.89	-43.2	-48.1	10.3	2.86e-03	0	60	0	684720128	57	6496
2026-01-21 11:00:30.07	271.64	39.85	-43.2	-48.1	10.3	5.03e-03	0	60	0	686817280	57	6498
2026-01-21 11:00:31.08	272.11	39.81	-43.0	-47.4	10.9	2.39e-03	0	60	0	687865856	57	6051
2026-01-21 11:00:32.09	272.57	39.77	-42.8	-47.0	11.4	1.35e-03	0	60	0	689963008	57	5747
2026-01-21 11:00:33.10	273.03	39.72	-43.0	-47.4	11.0	1.40e-03	0	60	0	692060160	57	6056
2026-01-21 11:00:34.11	273.49	39.68	-43.0	-47.5	10.8	2.48e-03	0	60	0	694157312	57	6102
2026-01-21 11:00:35.12	273.95	39.63	-43.0	-47.5	10.8	2.48e-03	0	60	0	696254464	57	6112
2026-01-21 11:00:36.13	274.40	39.58	-42.9	-47.2	11.3	1.93e-03	0	60	0	697303040	57	5886
2026-01-21 11:00:37.14	274.86	39.53	-43.0	-47.5	10.9	1.69e-03	0	60	0	699400192	57	6087
2026-01-21 11:00:38.15	275.31	39.47	-43.0	-47.6	10.8	2.12e-03	0	60	0	701497344	57	6194
2026-01-21 11:00:39.16	275.77	39.42	-43.1	-47.8	10.6	3.52e-03	0	60	0	703594496	57	6299
2026-01-21 11:00:40.17	276.22	39.36	-42.9	-47.3	11.0	1.96e-03	0	60	0	705691648	57	5966
2026-01-21 11:00:41.18	276.67	39.30	-42.4	-46.3	12.2	6.93e-04	0	60	0	706740224	56	5620
2026-01-21 11:00:42.19	277.12	39.24	-42.2	-45.9	12.7	1.58e-04	0	60	0	708837376	56	5348
2026-01-21 11:00:43.20	277.56	39.18	-42.4	-46.2	12.2	1.56e-04	0	60	0	710934528	56	5592
2026-01-21 11:00:44.21	278.01	39.11	-42.4	-46.4	12.2	2.51e-04	0	60	0	713031680	56	5658
2026-01-21 11:00:45.22	278.45	39.05	-42.6	-46.7	11.7	5.45e-04	0	60	0	715128832	56	5885
2026-01-21 11:00:46.23	278.89	38.98	-42.7	-46.8	11.7	6.29e-04	0	60	0	716177408	56	5935
2026-01-21 11:00:47.24	279.33	38.91	-42.6	-46.6	11.8	4.47e-04	0	60	0	718274560	56	5820
2026-01-21 11:00:48.25	279.77	38.84	-42.6	-46.6	11.8	3.92e-04	0	60	0	720371712	56	5851
2026-01-21 11:00:49.26	280.20	38.76	-42.4	-46.3	12.2	3.89e-04	0	60	0	722468864	56	5632
2026-01-21 11:00:50.27	280.63	38.69	-42.1	-45.6	12.9	1.20e-04	0	60	0	724566016	56	5211
2026-01-21 11:00:51.28	281.07	38.61	-41.8	-45.3	13.0	4.73e-05	0	60	0	725614592	55	5297
2026-01-21 11:00:52.29	281.49	38.53	-41.9	-45.5	12.8	3.96e-05	0	60	0	727711744	55	5442
2026-01-21 11:00:53.30	281.92	38.45	-41.9	-45.4	12.9	2.21e-05	0	60	0	729808896	55	5363
2026-01-21 11:00:54.31	282.35	38.37	-41.7	-45.1	13.2	1.90e-05	0	60	0	731906048	55	5193
2026-01-21 11:00:55.33	282.77	38.29	-41.5	-44.7	13.6	9.90e-06	0	60	0	734003200	55	4968
2026-01-21 11:00:56.33	283.19	38.20	-41.5	-44.7	13.5	8.30e-06	0	60	0	735051776	54	5267
2026-01-21 11:00:57.35	283.61	38.12	-41.8	-45.2	13.1	1.98e-05	0	60	0	737148928	54	5580
2026-01-21 11:00:58.35	284.03	38.03	-42.2	-46.0	12.3	7.17e-05	0	60	0	739246080	54	6081
2026-01-21 11:00:59.36	284.44	37.94	-42.7	-47.1	11.2	8.32e-04	0	60	0	741343232	55	6500
2026-01-21 11:01:00.37	284.85	37.85	-42.9	-47.3	11.1	1.40e-03	0	60	0	743440384	56	6318
2026-01-21 11:01:01.38	285.26	37.76	-42.6	-46.7	11.7	8.81e-04	0	60	0	744488960	56	5883
2026-01-21 11:01:02.39	285.67	37.67	-42.5	-46.4	12.0	3.28e-04	0	60	0	746586112	56	5679
2026-01-21 11:01:03.40	286.07	37.57	-42.5	-46.5	11.9	3.88e-04	0	60	0	748683264	56	5738
2026-01-21 11:01:04.42	286.48	37.48	-42.3	-46.1	12.3	2.86e-04	0	60	0	750780416	56	5518
2026-01-21 11:01:05.42	286.88	37.38	-41.7	-45.1	13.1	9.07e-05	0	60	0	752877568	55	5212
2026-01-21 11:01:06.44	287.28	37.28	-41.2	-44.2	14.0	8.30e-06	0	60	0	754974720	54	4979
2026-01-21 11:01:07.44	287.67	37.18	-41.0	-43.9	14.4	2.20e-06	0	60	0	756023296	54	4779
2026-01-21 11:01:08.46	288.07	37.08	-41.2	-44.2	14.1	7.00e-07	0	60	0	758120448	54	4978
2026-01-21 11:01:09.47	288.46	36.98	-42.0	-45.6	12.6	3.73e-05	0	60	0	760217600	54	5825
2026-01-21 11:01:10.48	288.84	36.88	-42.6	-46.9	11.4	4.55e-04	0	60	0	762314752	55	6350
2026-01-21 11:01:11.49	289.23	36.77	-42.8	-47.2	11.2	1.65e-03	0	60	0	764411904	56	6209
2026-01-21 11:01:12.50	289.61	36.67	-42.3	-46.0	12.5	2.51e-04	0	60	0	765460480	56	5414
2026-01-21 11:01:13.50	289.99	36.56	-42.0	-45.6	12.9	6.02e-05	0	60	0	767557632	56	5175
2026-01-21 11:01:14.52	290.37	36.46	-41.7	-45.1	13.1	4.27e-05	0	60	0	769654784	55	5203
2026-01-21 11:01:15.52	290.75	36.35	-41.7	-45.0	13.2	3.66e-05	0	60	0	771751936	55	5157
2026-01-21 11:01:16.54	291.12	36.24	-41.2	-44.2	14.1	9.10e-06	0	60	0	773849088	54	4945
2026-01-21 11:01:17.54	291.49	36.13	-40.7	-43.4	14.8	1.50e-06	0	60	0	774897664	53	4793
2026-01-21 11:01:18.55	291.86	36.02	-40.6	-43.2	15.0	0.00e+00	0	60	0	776994816	53	4683
2026-01-21 11:01:19.56	292.23	35.91	-40.9	-43.8	14.5	1.50e-06	0	60	0	779091968	53	4994
2026-01-21 11:01:20.57	292.59	35.80	-41.3	-44.4	13.9	4.50e-06	0	60	0	781189120	53	5353
2026-01-21 11:01:21.58	292.95	35.68	-42.1	-45.7	12.5	2.67e-05	0	60	0	783286272	54	5902
2026-01-21 11:01:22.60	293.31	35.57	-42.3	-46.2	12.1	1.88e-04	0	60	0	784334848	55	5871
2026-01-21 11:01:23.61	293.67	35.45	-42.4	-46.4	11.8	3.43e-04	0	60	0	786432000	55	5997
2026-01-21 11:01:24.62	294.02	35.34	-42.3	-46.2	12.0	4.65e-04	0	60	0	788529152	55	5888
2026-01-21 11:01:25.62	294.37	35.22	-42.4	-46.3	11.9	3.53e-04	0	60	0	790626304	55	5977
2026-01-21 11:01:26.64	294.72	35.10	-42.6	-46.8	11.4	8.21e-04	0	60	0	792723456	55	6297
2026-01-21 11:01:27.65	295.07	34.98	-43.2	-48.1	10.2	2.90e-03	0	60	0	793772032	56	6900
2026-01-21 11:01:28.66	295.41	34.87	-43.5	-48.9	9.3	1.41e-02	0	60	0	795869184	57	7196
2026-01-21 11:01:29.67	295.75	34.75	-43.3	-48.4	9.8	1.59e-02	0	60	0	797966336	57	6765
2026-01-21 11:01:30.68	296.09	34.63	-43.1	-47.7	10.6	8.59e-03	0	60	0	800063488	57	6253
2026-01-21 11:01:31.68	296.42	34.51	-43.0	-47.6	10.7	2.95e-03	0	60	0	802160640	57	6160
2026-01-21 11:01:32.69	296.76	34.38	-43.2	-48.0	10.2	4.92e-03	0	60	0	803209216	57	6462
2026-01-21 11:01:33.70	297.09	34.26	-43.4	-48.6	9.6	1.10e-02	0	60	0	805306368	57	6944
2026-01-21 11:01:34.71	297.42	34.14	-44.0	-50.4	7.9	3.40e-02	0	60	0	807403520	58	8009
2026-01-21 11:01:35.72	297.75	34.02	-44.0	-50.3	7.9	9.39e-02	0	60	0	809500672	58	7989
2026-01-21 11:01:36.73	298.07	33.89	-43.9	-50.1	8.1	7.55e-02	0	60	0	811597824	58	7784
2026-01-21 11:01:37.74	298.39	33.77	-43.7	-49.4	8.7	5.61e-02	0	60	0	812646400	58	7155
2026-01-21 11:01:38.75	298.71	33.65	-43.7	-49.3	9.0	2.55e-02	0	60	0	814743552	58	7043
2026-01-21 11:01:39.76	299.03	33.52	-43.8	-49.7	8.5	3.76e-02	0	60	0	816840704	58	7449
2026-01-21 11:01:40.77	299.34	33.40	-44.2	-51.2	7.2	6.36e-02	0	60	0	818937856	58	8789
2026-01-21 11:01:41.78	299.65	33.27	-44.5	-52.9	5.7	3.46e-01	0	60	0	821035008	59	10162
2026-01-21 11:01:42.79	299.96	33.14	-44.4	-52.3	6.0	4.45e-01	0	60	0	823132160	59	9463
2026-01-21 11:01:43.80	300.27	33.02	-44.1	-50.9	7.3	2.45e-01	0	60	0	824180736	59	8049
2026-01-21 11:01:44.81	300.58	32.89	-43.6	-49.2	8.9	9.50e-02	0	60	0	826277888	59	6621
2026-01-21 11:01:45.82	300.88	32.76	-43.3	-48.2	10.0	9.14e-03	0	60	0	828375040	58	6254
2026-01-21 11:01:46.83	301.18	32.64	-43.4	-48.4	9.9	6.31e-03	0	61	0	830472192	58	6418
2026-01-21 11:01:47.84	301.48	32.51	-43.9	-50.0	8.3	1.54e-02	0	60	0	832569344	58	7707
2026-01-21 11:01:48.85	301.77	32.38	-44.3	-51.8	6.4	1.64e-01	0	60	0	833617920	59	8930
2026-01-21 11:01:49.86	302.07	32.25	-44.3	-51.7	6.5	2.69e-01	0	60	0	835715072	59	8821
2026-01-21 11:01:50.87	302.36	32.12	-44.1	-51.2	7.1	2.47e-01	0	60	0	837812224	59	8306
2026-01-21 11:01:51.88	302.65	31.99	-43.7	-49.7	8.5	6.84e-02	0	60	0	839909376	59	6971
2026-01-21 11:01:52.88	302.93	31.87	-43.4	-48.5	9.7	1.38e-02	0	60	0	842006528	58	6450
2026-01-21 11:01:53.89	303.21	31.74	-43.1	-47.7	10.6	4.65e-03	0	60	0	843055104	58	5896
2026-01-21 11:01:54.90	303.50	31.61	-43.3	-48.2	10.1	5.66e-03	0	60	0	845152256	58	6264
2026-01-21 11:01:55.91	303.78	31.48	-43.2	-48.2	10.0	1.09e-02	0	60	0	847249408	58	6247
2026-01-21 11:01:56.92	304.05	31.35	-43.0	-47.5	10.7	5.36e-03	0	60	0	849346560	57	6104
2026-01-21 11:01:57.93	304.33	31.22	-42.7	-47.0	11.3	2.63e-03	0	60	0	851443712	57	5768
2026-01-21 11:01:58.94	304.60	31.09	-42.4	-46.3	12.0	4.74e-04	0	60	0	852492288	56	5614
2026-01-21 11:01:59.95	304.87	30.96	-42.6	-46.8	11.6	3.68e-04	0	60	0	854589440	56	5929
2026-01-21 11:02:00.96	305.14	30.83	-42.9	-47.4	10.9	1.32e-03	0	60	0	856686592	56	6385
2026-01-21 11:02:01.97	305.41	30.70	-43.2	-48.3	9.9	5.54e-03	0	60	0	858783744	57	6688
2026-01-21 11:02:02.98	305.67	30.57	-43.4	-48.7	9.5	1.17e-02	0	60	0	860880896	57	7038
2026-01-21 11:02:03.99	305.94	30.44	-43.4	-48.8	9.4	1.67e-02	0	60	0	861929472	57	7067
2026-01-21 11:02:05.00	306.20	30.31	-43.1	-48.0	10.2	9.31e-03	0	60	0	864026624	57	6458
2026-01-21 11:02:06.01	306.46	30.18	-42.9	-47.3	10.9	3.24e-03	0	60	0	866123776	57	5985
2026-01-21 11:02:07.02	306.71	30.05	-42.6	-46.7	11.6	1.51e-03	0	60	0	868220928	57	5570
2026-01-21 11:02:08.03	306.97	29.92	-42.5	-46.6	11.7	5.83e-04	0	60	0	870318080	57	5505
2026-01-21 11:02:09.04	307.22	29.79	-42.9	-47.6	10.8	1.29e-03	0	60	0	871366656	57	6132
2026-01-21 11:02:10.05	307.47	29.66	-43.3	-48.6	9.6	6.15e-03	0	60	0	873463808	57	6911
2026-01-21 11:02:11.06	307.72	29.52	-43.1	-48.1	10.1	8.56e-03	0	61	0	875560960	57	6507
2026-01-21 11:02:12.07	307.96	29.39	-42.8	-47.2	11.0	3.18e-03	0	60	0	877658112	57	5886
2026-01-21 11:02:13.08	308.21	29.26	-42.3	-46.2	12.1	7.93e-04	0	60	0	879755264	56	5532
2026-01-21 11:02:14.09	308.45	29.13	-41.7	-45.0	13.1	3.96e-05	0	60	0	880803840	55	5151
2026-01-21 11:02:15.10	308.69	29.00	-41.5	-44.7	13.5	1.06e-05	0	60	0	882900992	54	5278
2026-01-21 11:02:16.10	308.93	28.87	-41.7	-45.1	13.1	1.60e-05	0	60	0	884998144	54	5490
2026-01-21 11:02:17.11	309.17	28.74	-42.2	-46.0	12.1	1.65e-04	0	60	0	887095296	54	6123
2026-01-21 11:02:18.12	309.40	28.61	-42.2	-46.2	12.0	4.71e-04	0	60	0	889192448	55	5889
2026-01-21 11:02:19.13	309.63	28.48	-42.2	-46.1	12.0	4.82e-04	0	60	0	891289600	55	5802
2026-01-21 11:02:20.14	309.87	28.36	-42.0	-45.7	12.4	3.25e-04	0	60	0	892338176	55	5577
2026-01-21 11:02:21.15	310.09	28.23	-41.9	-45.5	12.7	9.53e-05	0	60	0	894435328	55	5428
2026-01-21 11:02:22.16	310.32	28.10	-41.8	-45.2	12.9	6.33e-05	0	60	0	896532480	55	5276
2026-01-21 11:02:23.17	310.55	27.97	-41.6	-45.0	13.1	5.26e-05	0	60	0	898629632	55	5142
2026-01-21 11:02:24.18	310.77	27.84	-41.9	-45.5	12.7	5.34e-05	0	61	0	900726784	55	5445
2026-01-21 11:02:25.18	310.99	27.71	-42.5	-46.8	11.3	6.58e-04	0	60	0	901775360	55	6320
2026-01-21 11:02:26.19	311.21	27.58	-43.1	-47.9	10.3	3.25e-03	0	60	0	903872512	56	6775
2026-01-21 11:02:27.20	311.43	27.45	-43.1	-48.2	10.0	7.45e-03	0	60	0	905969664	56	7016
2026-01-21 11:02:28.21	311.65	27.32	-42.9	-47.5	10.7	4.63e-03	0	61	0	908066816	56	6470
2026-01-21 11:02:29.22	311.86	27.20	-42.3	-46.3	12.0	1.05e-03	0	60	0	910163968	56	5607
2026-01-21 11:02:30.23	312.08	27.07	-41.5	-44.9	13.2	4.73e-05	0	60	0	911212544	55	5051
2026-01-21 11:02:31.24	312.29	26.94	-41.1	-44.1	14.0	5.30e-06	0	60	0	913309696	54	4921
2026-01-21 11:02:32.25	312.50	26.81	-41.1	-44.1	14.0	1.50e-06	0	60	0	915406848	54	4888
2026-01-21 11:02:33.26	312.71	26.68	-40.9	-43.8	14.3	7.00e-07	0	61	0	917504000	53	5005
2026-01-21 11:02:34.27	312.92	26.56	-41.1	-44.2	14.0	3.00e-06	0	60	0	919601152	53	5239
2026-01-21 11:02:35.28	313.12	26.43	-41.4	-44.7	13.5	1.50e-06	0	61	0	920649728	53	5536
2026-01-21 11:02:36.29	313.33	26.30	-41.4	-44.7	13.3	9.10e-06	0	60	0	922746880	53	5554
2026-01-21 11:02:37.30	313.53	26.18	-41.5	-44.9	13.2	4.57e-05	0	60	0	924844032	53	5710
2026-01-21 11:02:38.31	313.73	26.05	-41.3	-44.5	13.6	1.37e-05	0	60	0	926941184	53	5415
2026-01-21 11:02:39.32	313.93	25.92	-41.1	-44.2	13.9	5.30e-06	0	60	0	929038336	53	5220
2026-01-21 11:02:40.33	314.13	25.80	-41.0	-44.0	14.1	7.00e-07	0	60	0	930086912	53	5116
2026-01-21 11:02:41.34	314.32	25.67	-40.9	-43.9	14.2	3.00e-06	0	60	0	932184064	53	5063
2026-01-21 11:02:42.35	314.52	25.55	-41.2	-44.2	13.8	3.00e-06	0	60	0	934281216	53	5277
2026-01-21 11:02:43.36	314.71	25.42	-41.4	-44.6	13.4	4.50e-06	0	60	0	936378368	53	5512
2026-01-21 11:02:44.37	314.90	25.30	-41.7	-45.2	12.9	3.12e-05	0	60	0	938475520	53	5911
2026-01-21 11:02:45.38	315.09	25.17	-42.0	-45.8	12.3	8.01e-05	0	60	0	939524096	54	5932
2026-01-21 11:02:46.39	315.28	25.05	-42.0	-45.8	12.3	1.49e-04	0	60	0	941621248	54	5942
2026-01-21 11:02:47.40	315.47	24.92	-41.8	-45.6	12.5	1.36e-04	0	60	0	943718400	54	5789
2026-01-21 11:02:48.41	315.65	24.80	-41.6	-45.1	13.0	8.85e-05	0	60	0	945815552	54	5492
2026-01-21 11:02:49.42	315.84	24.68	-41.4	-44.7	13.4	4.65e-05	0	60	0	947912704	54	5251
2026-01-21 11:02:50.43	316.02	24.55	-41.1	-44.2	13.8	4.50e-06	0	60	0	948961280	54	4965
2026-01-21 11:02:51.44	316.20	24.43	-40.8	-43.7	14.3	7.00e-07	0	61	0	951058432	53	4970
2026-01-21 11:02:52.45	316.38	24.31	-40.7	-43.5	14.6	7.00e-07	0	61	0	953155584	53	4822
2026-01-21 11:02:53.46	316.56	24.18	-40.7	-43.6	14.4	0.00e+00	0	61	0	955252736	53	4881
2026-01-21 11:02:54.47	316.74	24.06	-40.9	-43.8	14.2	0.00e+00	0	60	0	957349888	53	5006
2026-01-21 11:02:55.48	316.91	23.94	-41.0	-44.0	14.0	3.00e-06	0	60	0	959447040	53	5120
2026-01-21 11:02:56.49	317.09	23.82	-41.2	-44.3	13.7	6.10e-06	0	60	0	960495616	53	5340
2026-01-21 11:02:57.50	317.26	23.70	-41.4	-44.7	13.3	1.14e-05	0	60	0	962592768	53	5564
2026-01-21 11:02:58.51	317.43	23.58	-41.3	-44.7	13.3	1.52e-05	0	60	0	964689920	53	5529
2026-01-21 11:02:59.52	317.61	23.46	-41.3	-44.5	13.5	9.90e-06	0	61	0	966787072	53	5431
2026-01-21 11:03:00.53	317.78	23.34	-41.2	-44.4	13.6	1.29e-05	0	61	0	968884224	53	5374
2026-01-21 11:03:01.54	317.94	23.22	-41.1	-44.3	13.7	1.22e-05	0	60	0	969932800	53	5291
2026-01-21 11:03:02.55	318.11	23.10	-41.0	-44.0	14.0	3.80e-06	0	60	0	972029952	53	5132
2026-01-21 11:03:03.56	318.28	22.98	-41.0	-44.1	13.9	7.00e-07	0	60	0	974127104	53	5201
2026-01-21 11:03:04.57	318.44	22.86	-41.0	-44.0	14.0	1.50e-06	0	61	0	976224256	53	5121
2026-01-21 11:03:05.58	318.60	22.74	-41.0	-44.1	13.9	4.50e-06	0	60	0	978321408	53	5195
2026-01-21 11:03:06.59	318.77	22.62	-41.1	-44.2	13.7	3.00e-06	0	60	0	979369984	53	5279
2026-01-21 11:03:07.59	318.93	22.50	-41.1	-44.3	13.7	6.10e-06	0	60	0	981467136	53	5298
2026-01-21 11:03:08.60	319.09	22.39	-41.3	-44.6	13.4	9.90e-06	0	61	0	983564288	53	5500
2026-01-21 11:03:09.61	319.24	22.27	-41.3	-44.6	13.4	1.83e-05	0	60	0	985661440	53	5473
2026-01-21 11:03:10.62	319.40	22.15	-41.4	-44.7	13.2	1.44e-05	0	61	0	987758592	53	5577
2026-01-21 11:03:11.63	319.56	22.03	-41.4	-44.8	13.2	3.35e-05	0	60	0	988807168	53	5603
2026-01-21 11:03:12.64	319.71	21.92	-41.3	-44.7	13.3	2.05e-05	0	60	0	990904320	53	5559
2026-01-21 11:03:13.65	319.87	21.80	-41.4	-44.8	13.2	1.83e-05	0	60	0	993001472	53	5601
2026-01-21 11:03:14.66	320.02	21.69	-41.4	-44.8	13.2	3.35e-05	0	60	0	995098624	53	5598
2026-01-21 11:03:15.67	320.17	21.57	-41.3	-44.6	13.3	2.13e-05	0	60	0	997195776	53	5514
2026-01-21 11:03:16.67	320.32	21.46	-41.4	-44.8	13.1	2.05e-05	0	60	0	998244352	53	5643
2026-01-21 11:03:17.68	320.47	21.34	-41.4	-44.9	13.0	2.13e-05	0	60	0	1000341504	53	5703
2026-01-21 11:03:18.69	320.62	21.23	-41.4	-44.9	13.0	4.88e-05	0	60	0	1002438656	53	5663
2026-01-21 11:03:19.70	320.77	21.11	-41.4	-44.8	13.1	3.73e-05	0	60	0	1004535808	53	5648
2026-01-21 11:03:20.71	320.91	21.00	-41.4	-44.9	13.0	3.20e-05	0	60	0	1006632960	53	5704
2026-01-21 11:03:21.72	321.06	20.89	-41.4	-44.9	13.0	3.96e-05	0	60	0	1007681536	53	5679
2026-01-21 11:03:22.73	321.20	20.77	-41.5	-45.0	12.9	3.12e-05	0	60	0	1009778688	53	5734
2026-01-21 11:03:23.74	321.35	20.66	-41.4	-44.9	13.0	5.03e-05	0	60	0	1011875840	53	5675
2026-01-21 11:03:24.75	321.49	20.55	-41.4	-44.8	13.1	1.67e-05	0	60	0	1013972992	53	5608
2026-01-21 11:03:25.76	321.63	20.44	-41.5	-44.9	13.0	3.66e-05	0	60	0	1016070144	53	5702
2026-01-21 11:03:26.77	321.77	20.32	-41.4	-44.9	13.0	5.49e-05	0	61	0	1017118720	53	5657
2026-01-21 11:03:27.78	321.91	20.21	-41.6	-45.1	12.7	3.96e-05	0	60	0	1019215872	53	5835
2026-01-21 11:03:28.79	322.05	20.10	-41.8	-45.6	12.3	1.30e-04	0	60	0	1021313024	54	5791
2026-01-21 11:03:29.80	322.19	19.99	-41.8	-45.6	12.3	1.73e-04	0	60	0	1023410176	54	5811
2026-01-21 11:03:30.81	322.32	19.88	-41.8	-45.7	12.1	2.33e-04	0	61	0	1025507328	54	5896
2026-01-21 11:03:31.82	322.46	19.77	-41.9	-45.8	12.1	3.60e-04	0	60	0	1027604480	54	5941
2026-01-21 11:03:32.83	322.59	19.66	-41.7	-45.4	12.3	1.51e-04	0	60	0	1028653056	54	5713
2026-01-21 11:03:33.83	322.73	19.55	-41.9	-45.8	12.0	2.50e-04	0	60	0	1030750208	54	5977
2026-01-21 11:03:34.84	322.86	19.44	-41.7	-45.6	12.2	2.88e-04	0	60	0	1032847360	54	5796
2026-01-21 11:03:35.85	322.99	19.33	-41.8	-45.8	12.0	3.55e-04	0	61	0	1034944512	54	5957
2026-01-21 11:03:36.86	323.12	19.23	-42.2	-46.5	11.3	8.57e-04	0	61	0	1035993088	54	6436
2026-01-21 11:03:37.87	323.25	19.12	-42.2	-46.5	11.3	8.91e-04	0	60	0	1038090240	54	6447
2026-01-21 11:03:38.88	323.38	19.01	-42.5	-47.4	10.3	3.46e-03	0	61	0	1040187392	55	6749
2026-01-21 11:03:39.89	323.51	18.90	-42.6	-47.6	10.1	6.13e-03	0	60	0	1042284544	55	6902
2026-01-21 11:03:40.90	323.64	18.80	-42.9	-48.3	9.7	7.87e-03	0	61	0	1044381696	56	7054
2026-01-21 11:03:41.91	323.76	18.69	-43.1	-48.6	9.2	1.65e-02	0	60	0	1045430272	56	7351
2026-01-21 11:03:42.92	323.89	18.58	-43.0	-48.4	9.4	1.71e-02	0	61	0	1047527424	56	7183
2026-01-21 11:03:43.93	324.01	18.48	-43.0	-48.4	9.4	1.58e-02	0	60	0	1049624576	56	7191
2026-01-21 11:03:44.94	324.14	18.37	-42.9	-48.2	9.6	2.10e-02	0	60	0	1051721728	56	7007
2026-01-21 11:03:45.95	324.26	18.27	-42.7	-47.7	10.1	8.09e-03	0	60	0	1053818880	56	6633
2026-01-21 11:03:46.96	324.38	18.16	-42.6	-47.6	10.2	5.69e-03	0	60	0	1055916032	56	6527
2026-01-21 11:03:47.97	324.50	18.06	-42.3	-46.9	11.0	4.03e-03	0	60	0	1056964608	56	6001
2026-01-21 11:03:48.98	324.63	17.95	-42.2	-46.6	11.2	1.32e-03	0	60	0	1059061760	56	5841
2026-01-21 11:03:49.99	324.75	17.85	-42.2	-46.5	11.4	1.08e-03	0	61	0	1061158912	56	5768
2026-01-21 11:03:50.99	324.86	17.74	-42.0	-46.1	11.8	8.76e-04	0	61	0	1063256064	56	5507
2026-01-21 11:03:52.00	324.98	17.64	-42.1	-46.3	11.5	7.35e-04	0	61	0	1065353216	56	5649
2026-01-21 11:03:53.01	325.10	17.54	-42.1	-46.3	11.5	1.13e-03	0	61	0	1066401792	56	5625
2026-01-21 11:03:54.02	325.22	17.44	-42.0	-46.2	11.6	6.83e-04	0	61	0	1068498944	56	5581
2026-01-21 11:03:55.03	325.33	17.33	-41.9	-46.2	11.4	8.11e-04	0	60	0	1070596096	55	5909
2026-01-21 11:03:56.04	325.45	17.23	-41.9	-46.3	11.4	7.62e-04	0	61	0	1072693248	55	5927
2026-01-21 11:03:57.05	325.56	17.13	-41.9	-46.3	11.4	9.36e-04	0	60	0	1074790400	55	5934
2026-01-21 11:03:58.06	325.68	17.03	-42.0	-46.6	11.1	1.44e-03	0	60	0	1075838976	55	6157
2026-01-21 11:03:59.07	325.79	16.93	-42.1	-46.7	10.9	2.25e-03	0	61	0	1077936128	55	6256
2026-01-21 11:04:00.08	325.90	16.83	-42.1	-46.8	10.9	2.09e-03	0	60	0	1080033280	55	6285
2026-01-21 11:04:01.08	326.01	16.73	-42.1	-46.9	10.7	3.24e-03	0	61	0	1082130432	55	6408
2026-01-21 11:04:02.10	326.12	16.62	-42.0	-46.6	11.0	2.32e-03	0	60	0	1084227584	55	6145
2026-01-21 11:04:03.10	326.23	16.53	-42.0	-46.7	10.9	1.72e-03	0	61	0	1085276160	55	6257
2026-01-21 11:04:04.11	326.34	16.43	-41.8	-46.3	11.3	1.32e-03	0	61	0	1087373312	55	5934
2026-01-21 11:04:05.12	326.45	16.33	-41.7	-45.9	11.7	7.71e-04	0	60	0	1089470464	55	5694
2026-01-21 11:04:06.13	326.56	16.23	-41.7	-45.9	11.7	8.25e-04	0	60	0	1091567616	55	5718
2026-01-21 11:04:07.14	326.67	16.13	-41.7	-45.9	11.6	6.23e-04	0	61	0	1093664768	55	5721
2026-01-21 11:04:08.16	326.78	16.03	-41.7	-45.9	11.7	4.58e-04	0	60	0	1094713344	55	5703
2026-01-21 11:04:09.16	326.88	15.93	-41.7	-45.9	11.6	6.18e-04	0	60	0	1096810496	55	5720
2026-01-21 11:04:10.17	326.99	15.83	-41.7	-46.1	11.5	7.60e-04	0	61	0	1098907648	55	5792
2026-01-21 11:04:11.18	327.09	15.74	-41.7	-46.0	11.5	8.96e-04	0	61	0	1101004800	55	5775
2026-01-21 11:04:12.19	327.19	15.64	-41.7	-46.1	11.4	8.25e-04	0	60	0	1103101952	55	5845
2026-01-21 11:04:13.20	327.30	15.54	-41.7	-46.0	11.5	9.12e-04	0	60	0	1104150528	55	5760
2026-01-21 11:04:14.21	327.40	15.45	-41.7	-46.2	11.4	9.51e-04	0	60	0	1106247680	55	5870
2026-01-21 11:04:15.22	327.50	15.35	-41.8	-46.3	11.2	1.38e-03	0	60	0	1108344832	55	5992
2026-01-21 11:04:16.23	327.61	15.25	-41.9	-46.4	11.1	1.34e-03	0	60	0	1110441984	55	6061
2026-01-21 11:04:17.24	327.71	15.16	-41.9	-46.5	11.1	1.71e-03	0	61	0	1112539136	55	6073
2026-01-21 11:04:18.25	327.81	15.06	-41.8	-46.4	11.0	1.75e-03	0	61	0	1113587712	55	6053
2026-01-21 11:04:19.25	327.91	14.97	-41.8	-46.4	11.2	1.55e-03	0	61	0	1115684864	55	5995
2026-01-21 11:04:20.26	328.00	14.87	-41.8	-46.4	11.1	1.48e-03	0	60	0	1117782016	55	6007
2026-01-21 11:04:21.27	328.10	14.78	-41.8	-46.3	11.3	1.45e-03	0	60	0	1119879168	55	5933
2026-01-21 11:04:22.28	328.20	14.69	-41.8	-46.3	11.2	1.30e-03	0	60	0	1121976320	55	5971
2026-01-21 11:04:23.29	328.30	14.59	-41.8	-46.2	11.3	1.18e-03	0	61	0	1124073472	55	5887
2026-01-21 11:04:24.30	328.40	14.50	-41.7	-46.0	11.4	7.76e-04	0	60	0	1125122048	55	5786
2026-01-21 11:04:25.31	328.49	14.41	-41.7	-45.9	11.6	7.19e-04	0	61	0	1127219200	55	5710
2026-01-21 11:04:26.32	328.59	14.31	-41.6	-45.8	11.7	7.96e-04	0	60	0	1129316352	55	5625
2026-01-21 11:04:27.33	328.68	14.22	-41.7	-45.9	11.6	6.69e-04	0	61	0	1131413504	55	5679
2026-01-21 11:04:28.34	328.78	14.13	-41.7	-46.0	11.5	7.26e-04	0	60	0	1133510656	55	5754
2026-01-21 11:04:29.35	328.87	14.04	-41.7	-45.9	11.6	8.22e-04	0	61	0	1134559232	55	5683
2026-01-21 11:04:30.36	328.96	13.94	-41.8	-46.1	11.4	1.04e-03	0	60	0	1136656384	55	5798
2026-01-21 11:04:31.37	329.06	13.85	-41.9	-46.4	11.1	1.44e-03	0	60	0	1138753536	55	6026
2026-01-21 11:04:32.38	329.15	13.76	-41.9	-46.4	11.0	1.21e-03	0	61	0	1140850688	55	6028
2026-01-21 11:04:33.39	329.24	13.67	-42.0	-46.7	10.8	1.95e-03	0	61	0	1142947840	55	6214
2026-01-21 11:04:34.40	329.33	13.58	-42.1	-46.9	10.5	4.15e-03	0	61	0	1143996416	55	6371
2026-01-21 11:04:35.41	329.42	13.49	-42.2	-47.0	10.4	4.79e-03	0	61	0	1146093568	55	6492
2026-01-21 11:04:36.42	329.51	13.40	-42.4	-47.6	9.8	6.44e-03	0	60	0	1148190720	55	6908
2026-01-21 11:04:37.42	329.60	13.31	-42.3	-47.5	9.9	9.48e-03	0	61	0	1150287872	55	6850
2026-01-21 11:04:38.43	329.69	13.22	-42.5	-48.0	9.3	1.45e-02	0	61	0	1152385024	55	7271
2026-01-21 11:04:39.44	329.78	13.13	-42.6	-48.2	9.1	1.96e-02	0	60	0	1153433600	55	7379
2026-01-21 11:04:40.45	329.87	13.04	-42.6	-48.3	9.0	2.27e-02	0	61	0	1155530752	55	7490
2026-01-21 11:04:41.46	329.96	12.95	-42.6	-48.4	8.8	2.85e-02	0	60	0	1157627904	55	7630
2026-01-21 11:04:42.47	330.04	12.86	-42.6	-48.4	8.9	3.35e-02	0	61	0	1159725056	55	7560
2026-01-21 11:04:43.48	330.13	12.78	-42.7	-48.6	8.7	2.91e-02	0	60	0	1161822208	55	7735
2026-01-21 11:04:44.49	330.22	12.69	-42.7	-48.5	8.7	3.58e-02	0	60	0	1162870784	55	7690
2026-01-21 11:04:45.50	330.30	12.60	-42.6	-48.4	8.9	2.79e-02	0	60	0	1164967936	55	7590
2026-01-21 11:04:46.51	330.39	12.51	-42.6	-48.3	8.9	2.63e-02	0	60	0	1167065088	55	7527
2026-01-21 11:04:47.52	330.47	12.42	-42.5	-48.1	9.1	2.33e-02	0	60	0	1169162240	55	7334
2026-01-21 11:04:48.53	330.56	12.34	-42.4	-47.8	9.4	1.54e-02	0	61	0	1171259392	55	7096
2026-01-21 11:04:49.54	330.64	12.25	-42.3	-47.6	9.6	1.46e-02	0	60	0	1172307968	55	6940
2026-01-21 11:04:50.54	330.72	12.17	-42.3	-47.5	9.8	1.23e-02	0	60	0	1174405120	55	6834
2026-01-21 11:04:51.55	330.80	12.08	-42.2	-47.1	10.2	7.72e-03	0	61	0	1176502272	55	6526
