passes_logs/2026/01/21/R2.0S_Moscow/R2.0S_Moscow__20260121_034051_FENGYUN_3D_rec.log

#Pass ID: 20260121_034051_FENGYUN 3D
#Satellite: FENGYUN 3D
#Configuration: FENGYUN 3D
#almurnet v.1.7.20251203
#Start time: 2026-01-21 03:40:53

#Version: 2.2.20231116
#Station: R2.0S_Moscow
#Location: 37.707566 lon 55.798166 lat
#TLE: 1 43010U 17072A   26020.28933472  .00000051  00000+0  46008-4 0  9990
#TLE: 2 43010  98.9944 352.1871 0002476  99.7001 260.4455 14.19696838424006

#Time	Az	El	Level	Level2	SNR	BER	BlckErr	Temp	State	Recorded	gain1	gain2
2026-01-21 03:40:53.55	9.95	2.11	-39.8	-51.7	3.8	8.46e-01	0	49	0	0	51	13927
2026-01-21 03:40:54.56	9.87	2.16	-39.8	-51.7	3.8	8.46e-01	0	49	104	0	50	14764
2026-01-21 03:40:55.57	9.80	2.22	-39.8	-51.7	3.8	8.46e-01	0	49	104	0	50	14796
2026-01-21 03:40:56.58	9.72	2.27	-39.8	-51.7	3.8	8.47e-01	0	49	104	0	50	14730
2026-01-21 03:40:57.59	9.65	2.33	-39.8	-51.7	3.8	8.45e-01	0	49	104	0	50	14780
2026-01-21 03:40:58.60	9.57	2.38	-39.8	-51.7	3.8	8.46e-01	0	49	104	0	50	14763
2026-01-21 03:40:59.60	9.50	2.44	-39.8	-51.7	3.8	8.46e-01	0	49	104	0	50	14746
2026-01-21 03:41:00.61	9.42	2.49	-39.8	-51.7	3.8	8.46e-01	0	49	104	0	50	14753
2026-01-21 03:41:01.62	9.35	2.55	-39.8	-51.7	3.8	8.45e-01	0	50	104	0	50	14754
2026-01-21 03:41:02.63	9.27	2.60	-39.8	-51.7	3.8	8.45e-01	0	49	104	0	50	14730
2026-01-21 03:41:03.64	9.19	2.66	-39.8	-51.7	3.8	8.47e-01	0	50	104	0	50	14773
2026-01-21 03:41:04.65	9.12	2.71	-39.8	-51.7	3.8	8.47e-01	0	50	104	0	50	14765
2026-01-21 03:41:05.66	9.04	2.77	-39.8	-51.7	3.8	8.47e-01	0	50	104	0	50	14828
2026-01-21 03:41:06.67	8.96	2.82	-39.8	-51.7	3.8	8.47e-01	0	50	104	0	50	14772
2026-01-21 03:41:07.68	8.88	2.88	-39.8	-51.7	3.8	8.46e-01	0	50	104	0	50	14717
2026-01-21 03:41:08.69	8.81	2.94	-39.8	-51.7	3.8	8.47e-01	0	50	104	0	50	14730
2026-01-21 03:41:09.70	8.73	2.99	-39.8	-51.7	3.8	8.46e-01	0	50	104	0	50	14780
2026-01-21 03:41:10.71	8.65	3.05	-39.8	-51.7	3.8	8.46e-01	0	50	104	0	50	14745
2026-01-21 03:41:11.72	8.57	3.10	-39.8	-51.7	3.8	8.47e-01	0	50	104	0	50	14729
2026-01-21 03:41:12.73	8.49	3.16	-39.8	-51.7	3.8	8.47e-01	0	50	104	0	50	14734
2026-01-21 03:41:13.74	8.41	3.21	-39.8	-51.7	3.8	8.46e-01	0	50	104	0	50	14736
2026-01-21 03:41:14.75	8.33	3.27	-39.8	-51.7	3.8	8.46e-01	0	50	104	0	50	14715
2026-01-21 03:41:15.76	8.25	3.33	-39.8	-51.7	3.8	8.46e-01	0	51	104	0	50	14723
2026-01-21 03:41:16.78	8.17	3.38	-39.8	-51.7	3.8	8.46e-01	0	50	104	0	50	14760
2026-01-21 03:41:17.79	8.09	3.44	-39.8	-51.6	3.8	8.45e-01	0	51	104	0	50	14706
2026-01-21 03:41:18.80	8.01	3.49	-39.8	-51.7	3.8	8.46e-01	0	51	104	0	50	14762
2026-01-21 03:41:19.81	7.92	3.55	-39.8	-51.6	3.8	8.46e-01	0	51	104	0	50	14703
2026-01-21 03:41:20.82	7.84	3.61	-39.8	-51.7	3.8	8.45e-01	0	51	104	0	50	14744
2026-01-21 03:41:21.83	7.76	3.66	-39.8	-51.7	3.8	8.46e-01	0	51	104	0	50	14755
2026-01-21 03:41:22.84	7.68	3.72	-39.8	-51.6	3.8	8.46e-01	0	51	104	0	50	14666
2026-01-21 03:41:23.85	7.59	3.78	-39.8	-51.7	3.8	8.46e-01	0	51	104	0	50	14759
2026-01-21 03:41:24.86	7.51	3.83	-39.8	-51.7	3.8	8.46e-01	0	51	104	0	50	14736
2026-01-21 03:41:25.87	7.43	3.89	-39.8	-51.6	3.8	8.45e-01	0	51	104	0	50	14708
2026-01-21 03:41:26.88	7.34	3.95	-39.8	-51.7	3.8	8.47e-01	0	51	104	0	50	14733
2026-01-21 03:41:27.89	7.26	4.00	-39.8	-51.7	3.8	8.45e-01	0	51	104	0	50	14755
2026-01-21 03:41:28.90	7.17	4.06	-39.8	-51.7	3.8	8.47e-01	0	51	104	0	50	14737
2026-01-21 03:41:29.91	7.09	4.12	-39.8	-51.7	3.8	8.46e-01	0	51	104	0	50	14764
2026-01-21 03:41:30.92	7.00	4.17	-39.7	-51.7	3.8	8.45e-01	0	52	104	0	50	14767
2026-01-21 03:41:31.93	6.92	4.23	-39.8	-51.7	3.8	8.46e-01	0	52	104	0	50	14740
2026-01-21 03:41:32.94	6.83	4.29	-39.8	-51.7	3.8	8.46e-01	0	51	104	0	50	14749
2026-01-21 03:41:33.95	6.74	4.34	-39.8	-51.7	3.8	8.45e-01	0	51	104	0	50	14724
2026-01-21 03:41:34.96	6.66	4.40	-39.8	-51.7	3.8	8.45e-01	0	52	104	0	50	14719
2026-01-21 03:41:35.97	6.57	4.46	-39.8	-51.7	3.8	8.46e-01	0	52	104	0	50	14725
2026-01-21 03:41:36.98	6.48	4.52	-39.8	-51.7	3.8	8.46e-01	0	52	104	0	50	14720
2026-01-21 03:41:37.99	6.39	4.57	-39.8	-51.7	3.8	8.46e-01	0	52	104	0	50	14716
2026-01-21 03:41:39.01	6.30	4.63	-39.8	-51.7	3.8	8.45e-01	0	52	104	0	50	14740
2026-01-21 03:41:40.02	6.22	4.69	-39.8	-51.7	3.8	8.46e-01	0	52	104	0	50	14746
2026-01-21 03:41:41.03	6.13	4.75	-39.8	-51.7	3.8	8.46e-01	0	52	104	0	50	14750
2026-01-21 03:41:42.04	6.04	4.80	-39.8	-51.7	3.8	8.46e-01	0	52	104	0	50	14714
2026-01-21 03:41:43.05	5.95	4.86	-39.8	-51.7	3.8	8.46e-01	0	52	104	0	50	14732
2026-01-21 03:41:44.06	5.86	4.92	-39.8	-51.7	3.8	8.46e-01	0	52	104	0	50	14756
2026-01-21 03:41:45.07	5.77	4.98	-39.8	-51.7	3.8	8.46e-01	0	52	104	0	50	14737
2026-01-21 03:41:46.08	5.68	5.03	-39.8	-51.6	3.8	8.46e-01	0	52	104	0	50	14689
2026-01-21 03:41:47.09	5.58	5.09	-39.8	-51.7	3.8	8.46e-01	0	53	104	0	50	14759
2026-01-21 03:41:48.10	5.49	5.15	-39.8	-51.7	3.8	8.47e-01	0	52	104	0	50	14742
2026-01-21 03:41:49.11	5.40	5.21	-39.8	-51.7	3.8	8.46e-01	0	52	104	0	50	14720
2026-01-21 03:41:50.12	5.31	5.26	-39.8	-51.7	3.8	8.46e-01	0	53	104	0	50	14763
2026-01-21 03:41:51.13	5.22	5.32	-39.8	-51.7	3.8	8.46e-01	0	53	104	0	50	14737
2026-01-21 03:41:52.15	5.12	5.38	-39.8	-51.6	3.8	8.46e-01	0	53	104	0	50	14704
2026-01-21 03:41:53.16	5.03	5.44	-39.8	-51.7	3.8	8.45e-01	0	52	104	0	50	14774
2026-01-21 03:41:54.17	4.93	5.50	-39.8	-51.7	3.8	8.46e-01	0	53	104	0	50	14736
2026-01-21 03:41:55.18	4.84	5.56	-39.8	-51.7	3.8	8.46e-01	0	53	104	0	50	14753
2026-01-21 03:41:56.19	4.74	5.61	-39.8	-51.7	3.8	8.45e-01	0	53	104	0	50	14722
2026-01-21 03:41:57.20	4.65	5.67	-39.8	-51.7	3.8	8.45e-01	0	53	104	0	50	14755
2026-01-21 03:41:58.21	4.55	5.73	-39.8	-51.7	3.8	8.46e-01	0	53	104	0	50	14715
2026-01-21 03:41:59.22	4.46	5.79	-39.8	-51.6	3.8	8.47e-01	0	53	104	0	50	14674
2026-01-21 03:42:00.23	4.36	5.85	-39.7	-51.7	3.8	8.47e-01	0	53	104	0	50	14758
2026-01-21 03:42:01.24	4.26	5.91	-39.8	-51.7	3.8	8.46e-01	0	53	104	0	50	14723
2026-01-21 03:42:02.25	4.17	5.96	-39.8	-51.7	3.8	8.46e-01	0	53	104	0	50	14720
2026-01-21 03:42:03.26	4.07	6.02	-39.8	-51.6	3.8	8.48e-01	0	53	104	0	50	14708
2026-01-21 03:42:04.27	3.97	6.08	-39.8	-51.6	3.8	8.47e-01	0	53	104	0	50	14699
2026-01-21 03:42:05.28	3.87	6.14	-39.8	-51.6	3.8	8.46e-01	0	53	104	0	50	14695
2026-01-21 03:42:06.29	3.77	6.20	-39.8	-51.7	3.8	8.47e-01	0	53	104	0	50	14751
2026-01-21 03:42:07.30	3.68	6.26	-39.8	-51.6	3.8	8.45e-01	0	53	104	0	50	14682
2026-01-21 03:42:08.31	3.58	6.32	-39.8	-51.7	3.8	8.46e-01	0	53	104	0	50	14742
2026-01-21 03:42:09.32	3.48	6.38	-39.8	-51.7	3.8	8.47e-01	0	53	104	0	50	14753
2026-01-21 03:42:10.33	3.38	6.44	-39.8	-51.7	3.8	8.46e-01	0	53	104	0	50	14763
2026-01-21 03:42:11.34	3.27	6.49	-39.7	-51.6	3.8	8.45e-01	0	53	104	0	50	14705
2026-01-21 03:42:12.35	3.17	6.55	-39.8	-51.7	3.8	8.47e-01	0	53	104	0	50	14755
2026-01-21 03:42:13.37	3.07	6.61	-39.8	-51.7	3.8	8.47e-01	0	53	104	0	50	14736
2026-01-21 03:42:14.38	2.97	6.67	-39.8	-51.7	3.8	8.46e-01	0	53	104	0	50	14719
2026-01-21 03:42:15.39	2.87	6.73	-39.8	-51.7	3.8	8.46e-01	0	54	104	0	50	14724
2026-01-21 03:42:16.40	2.76	6.79	-39.8	-51.6	3.8	8.46e-01	0	54	104	0	50	14693
2026-01-21 03:42:17.41	2.66	6.85	-39.8	-51.7	3.8	8.46e-01	0	54	104	0	50	14764
2026-01-21 03:42:18.42	2.56	6.91	-39.7	-51.6	3.8	8.46e-01	0	54	104	0	50	14696
2026-01-21 03:42:19.43	2.45	6.97	-39.7	-51.6	3.8	8.46e-01	0	54	104	0	50	14707
2026-01-21 03:42:20.44	2.35	7.03	-39.8	-51.7	3.8	8.46e-01	0	54	104	0	50	14733
2026-01-21 03:42:21.45	2.24	7.09	-39.8	-51.7	3.8	8.48e-01	0	54	104	0	50	14746
2026-01-21 03:42:22.46	2.14	7.15	-39.8	-51.6	3.8	8.47e-01	0	54	104	0	50	14687
2026-01-21 03:42:23.47	2.03	7.21	-39.8	-51.6	3.8	8.47e-01	0	54	104	0	50	14708
2026-01-21 03:42:24.48	1.92	7.27	-39.8	-51.7	3.8	8.46e-01	0	54	104	0	50	14755
2026-01-21 03:42:25.49	1.82	7.33	-39.8	-51.7	3.8	8.46e-01	0	54	104	0	50	14712
2026-01-21 03:42:26.50	1.71	7.39	-39.8	-51.7	3.8	8.46e-01	0	54	104	0	50	14764
2026-01-21 03:42:27.51	1.60	7.45	-39.8	-51.7	3.8	8.46e-01	0	54	104	0	50	14712
2026-01-21 03:42:28.52	1.49	7.51	-39.8	-51.7	3.8	8.46e-01	0	54	104	0	50	14734
2026-01-21 03:42:29.53	1.38	7.57	-39.8	-51.6	3.8	8.47e-01	0	54	104	0	50	14707
2026-01-21 03:42:30.55	1.27	7.63	-39.8	-51.7	3.8	8.47e-01	0	54	104	0	50	14724
2026-01-21 03:42:31.56	1.16	7.69	-39.7	-51.7	3.8	8.46e-01	0	54	104	0	50	14764
2026-01-21 03:42:32.57	1.05	7.75	-39.8	-51.7	3.8	8.47e-01	0	54	104	0	50	14715
2026-01-21 03:42:33.58	0.94	7.81	-39.8	-51.6	3.8	8.45e-01	0	54	104	0	50	14705
2026-01-21 03:42:34.59	0.83	7.87	-39.8	-51.6	3.8	8.46e-01	0	54	104	0	50	14695
2026-01-21 03:42:35.60	0.72	7.93	-39.8	-51.7	3.8	8.45e-01	0	54	104	0	50	14744
2026-01-21 03:42:36.61	0.61	7.99	-39.8	-51.6	3.8	8.46e-01	0	54	104	0	50	14690
2026-01-21 03:42:37.62	0.49	8.05	-39.8	-51.7	3.8	8.45e-01	0	54	104	0	50	14854
2026-01-21 03:42:38.63	0.38	8.11	-39.9	-51.8	3.8	8.47e-01	0	54	104	0	50	15021
2026-01-21 03:42:39.64	0.27	8.17	-39.9	-51.8	3.8	8.47e-01	0	54	104	0	50	14940
2026-01-21 03:42:40.65	0.15	8.23	-39.7	-51.9	3.8	8.45e-01	0	55	104	0	50	15161
2026-01-21 03:42:41.66	0.04	8.29	-39.9	-51.8	3.8	8.46e-01	0	55	104	0	50	14942
2026-01-21 03:42:42.67	359.92	8.35	-39.9	-51.8	3.8	8.46e-01	0	55	104	0	50	15017
2026-01-21 03:42:43.68	359.81	8.41	-39.7	-51.8	3.8	8.49e-01	0	55	104	0	50	14962
2026-01-21 03:42:44.69	359.69	8.47	-39.5	-51.8	3.8	8.46e-01	0	54	104	0	50	15042
2026-01-21 03:42:45.70	359.57	8.53	-39.8	-51.8	3.8	8.47e-01	0	55	104	0	50	14995
2026-01-21 03:42:46.70	359.46	8.59	-39.8	-51.8	3.8	8.46e-01	0	55	104	0	50	15029
2026-01-21 03:42:47.71	359.34	8.65	-39.5	-51.8	3.8	8.46e-01	0	55	104	0	50	14962
2026-01-21 03:42:48.72	359.22	8.71	-39.6	-51.8	3.8	8.46e-01	0	55	104	0	50	14970
2026-01-21 03:42:49.73	359.10	8.77	-39.6	-51.9	3.8	8.47e-01	0	55	104	0	50	15052
2026-01-21 03:42:50.74	358.98	8.83	-39.6	-51.8	3.8	8.47e-01	0	55	104	0	50	14992
2026-01-21 03:42:51.75	358.87	8.89	-39.6	-51.7	3.8	8.46e-01	0	55	104	0	50	14773
2026-01-21 03:42:52.76	358.74	8.95	-39.7	-51.8	3.8	8.45e-01	0	55	104	0	50	14928
2026-01-21 03:42:53.77	358.62	9.02	-39.5	-51.8	3.8	8.46e-01	0	55	104	0	50	14916
2026-01-21 03:42:54.78	358.50	9.08	-39.6	-51.8	3.8	8.46e-01	0	55	104	0	50	14984
2026-01-21 03:42:55.79	358.38	9.14	-39.7	-51.7	3.8	8.46e-01	0	55	104	0	50	14775
2026-01-21 03:42:56.80	358.26	9.20	-39.4	-51.8	3.8	8.47e-01	0	55	104	0	50	14929
2026-01-21 03:42:57.81	358.14	9.26	-39.6	-51.7	3.8	8.44e-01	0	55	104	0	50	14850
2026-01-21 03:42:58.82	358.01	9.32	-39.7	-51.8	3.8	8.45e-01	0	55	104	0	50	15000
2026-01-21 03:42:59.83	357.89	9.38	-39.5	-51.7	3.8	8.46e-01	0	55	104	0	50	14850
2026-01-21 03:43:00.83	357.77	9.44	-39.4	-51.8	3.8	8.46e-01	0	55	104	0	50	14917
2026-01-21 03:43:01.84	357.64	9.50	-39.6	-51.7	3.8	8.46e-01	0	55	104	0	50	14854
2026-01-21 03:43:02.85	357.52	9.56	-39.7	-51.9	3.8	8.46e-01	0	55	104	0	50	15136
2026-01-21 03:43:03.86	357.39	9.62	-39.4	-51.7	3.8	8.46e-01	0	56	104	0	50	14872
2026-01-21 03:43:04.87	357.26	9.68	-39.4	-51.8	3.8	8.47e-01	0	55	104	0	50	14934
2026-01-21 03:43:05.88	357.14	9.74	-39.4	-51.8	3.8	8.46e-01	0	55	104	0	50	14901
2026-01-21 03:43:06.89	357.01	9.81	-40.0	-51.9	3.8	8.45e-01	0	55	104	0	50	15191
2026-01-21 03:43:07.90	356.88	9.87	-39.6	-51.7	3.8	8.47e-01	0	55	104	0	50	14722
2026-01-21 03:43:08.91	356.75	9.93	-39.6	-51.9	3.8	8.46e-01	0	55	104	0	50	15095
2026-01-21 03:43:09.92	356.62	9.99	-39.3	-51.7	3.8	8.47e-01	0	55	104	0	50	14877
2026-01-21 03:43:10.93	356.49	10.05	-40.2	-52.0	3.8	8.45e-01	0	55	104	0	51	14481
2026-01-21 03:43:11.94	356.36	10.11	-39.6	-51.7	3.8	8.45e-01	0	56	104	0	50	14777
2026-01-21 03:43:12.95	356.23	10.17	-40.1	-52.0	3.8	8.45e-01	0	55	104	0	50	15357
2026-01-21 03:43:13.96	356.10	10.23	-39.4	-51.7	3.8	8.45e-01	0	56	104	0	50	14867
2026-01-21 03:43:14.97	355.97	10.29	-40.2	-52.1	3.8	8.46e-01	0	55	104	0	51	14683
2026-01-21 03:43:15.98	355.84	10.35	-39.8	-51.7	3.8	8.46e-01	0	55	104	0	51	14017
2026-01-21 03:43:16.99	355.70	10.42	-40.3	-52.0	3.8	8.46e-01	0	55	104	0	51	14538
2026-01-21 03:43:18.00	355.57	10.48	-39.5	-51.8	3.8	8.46e-01	0	56	104	0	51	14175
2026-01-21 03:43:19.01	355.43	10.54	-40.2	-52.3	3.8	8.47e-01	0	56	104	0	51	14884
2026-01-21 03:43:20.02	355.30	10.60	-40.1	-51.8	3.8	8.45e-01	0	55	104	0	51	14176
2026-01-21 03:43:21.03	355.16	10.66	-40.3	-52.1	3.8	8.45e-01	0	56	104	0	51	14560
2026-01-21 03:43:22.04	355.03	10.72	-40.0	-52.0	3.8	8.46e-01	0	56	104	0	51	14408
2026-01-21 03:43:23.05	354.89	10.78	-40.4	-52.3	3.8	8.46e-01	0	56	104	0	51	14959
2026-01-21 03:43:24.06	354.75	10.84	-40.2	-52.0	3.8	8.47e-01	0	56	104	0	51	14381
2026-01-21 03:43:25.07	354.62	10.90	-40.4	-52.1	3.8	8.46e-01	0	56	104	0	51	14607
2026-01-21 03:43:26.08	354.48	10.96	-40.3	-52.1	3.8	8.47e-01	0	56	104	0	51	14543
2026-01-21 03:43:27.09	354.34	11.03	-40.6	-52.3	3.8	8.46e-01	0	56	104	0	51	14975
2026-01-21 03:43:28.10	354.20	11.09	-40.2	-52.0	3.8	8.45e-01	0	56	104	0	51	14422
2026-01-21 03:43:29.10	354.06	11.15	-40.2	-52.1	3.8	8.45e-01	0	56	104	0	51	14696
2026-01-21 03:43:30.11	353.92	11.21	-40.3	-52.1	3.8	8.46e-01	0	56	104	0	51	14542
2026-01-21 03:43:31.12	353.78	11.27	-40.6	-52.3	3.8	8.46e-01	0	56	104	0	51	14893
2026-01-21 03:43:32.13	353.64	11.33	-40.3	-52.0	3.8	8.46e-01	0	56	104	0	51	14407
2026-01-21 03:43:33.14	353.49	11.39	-40.4	-52.3	3.8	8.46e-01	0	56	104	0	51	14922
2026-01-21 03:43:34.15	353.35	11.45	-40.3	-52.0	3.8	8.45e-01	0	56	104	0	51	14476
2026-01-21 03:43:35.16	353.21	11.51	-40.5	-52.2	3.8	8.46e-01	0	56	104	0	51	14811
2026-01-21 03:43:36.17	353.06	11.57	-40.3	-52.1	3.8	8.46e-01	0	56	104	0	51	14591
2026-01-21 03:43:37.18	352.92	11.63	-40.7	-52.4	3.8	8.46e-01	0	56	104	0	52	14251
2026-01-21 03:43:38.19	352.77	11.69	-40.1	-52.0	3.8	8.46e-01	0	56	104	0	52	13621
2026-01-21 03:43:39.20	352.62	11.75	-40.5	-52.2	3.8	8.46e-01	0	56	104	0	52	13971
2026-01-21 03:43:40.21	352.48	11.82	-40.4	-52.3	3.8	8.47e-01	0	56	104	0	52	14084
2026-01-21 03:43:41.22	352.33	11.88	-40.7	-52.3	3.8	8.47e-01	0	56	104	0	52	14147
2026-01-21 03:43:42.22	352.18	11.94	-40.3	-52.2	3.8	8.45e-01	0	56	104	0	52	13979
2026-01-21 03:43:43.23	352.04	12.00	-40.7	-52.3	3.8	8.47e-01	0	56	104	0	52	14155
2026-01-21 03:43:44.24	351.89	12.06	-40.5	-52.3	3.8	8.45e-01	0	56	104	0	52	14156
2026-01-21 03:43:45.25	351.74	12.12	-40.5	-52.3	3.8	8.46e-01	0	56	104	0	52	14108
2026-01-21 03:43:46.26	351.59	12.18	-40.7	-52.3	3.8	8.45e-01	0	56	104	0	52	14193
2026-01-21 03:43:47.27	351.43	12.24	-40.5	-52.3	3.8	8.45e-01	0	56	104	0	52	14190
2026-01-21 03:43:48.28	351.28	12.30	-40.7	-52.4	3.8	8.46e-01	0	56	104	0	52	14292
2026-01-21 03:43:49.29	351.13	12.36	-40.7	-52.5	3.8	8.45e-01	0	56	104	0	52	14435
2026-01-21 03:43:50.29	350.98	12.42	-40.6	-52.3	3.8	8.45e-01	0	56	104	0	52	14068
2026-01-21 03:43:51.30	350.82	12.48	-40.8	-52.5	3.8	8.46e-01	0	57	104	0	52	14495
2026-01-21 03:43:52.31	350.67	12.54	-40.8	-52.5	3.8	8.46e-01	0	56	104	0	52	14389
2026-01-21 03:43:53.32	350.51	12.60	-40.8	-52.5	3.8	8.47e-01	0	56	104	0	52	14421
2026-01-21 03:43:54.33	350.36	12.66	-40.6	-52.4	3.8	8.47e-01	0	56	104	0	52	14256
2026-01-21 03:43:55.34	350.20	12.72	-41.0	-52.6	3.8	8.47e-01	0	56	104	0	52	14670
2026-01-21 03:43:56.35	350.04	12.78	-40.6	-52.4	3.8	8.45e-01	0	56	104	0	52	14235
2026-01-21 03:43:57.36	349.89	12.84	-40.8	-52.5	3.8	8.47e-01	0	56	104	0	52	14534
2026-01-21 03:43:58.37	349.73	12.90	-40.8	-52.6	3.8	8.46e-01	0	57	104	0	52	14573
2026-01-21 03:43:59.38	349.57	12.96	-40.8	-52.5	3.8	8.45e-01	0	56	104	0	52	14480
2026-01-21 03:44:00.39	349.41	13.02	-40.8	-52.6	3.8	8.46e-01	0	56	104	0	52	14543
2026-01-21 03:44:01.40	349.25	13.08	-41.0	-52.8	3.8	8.46e-01	0	56	104	0	52	14965
2026-01-21 03:44:02.41	349.09	13.14	-40.8	-52.5	3.8	8.47e-01	0	57	104	0	52	14485
2026-01-21 03:44:03.41	348.93	13.19	-41.0	-52.8	3.8	8.46e-01	0	57	104	0	52	14907
2026-01-21 03:44:04.42	348.77	13.25	-41.1	-52.9	3.8	8.47e-01	0	57	104	0	52	15055
2026-01-21 03:44:05.43	348.60	13.31	-41.2	-52.9	3.8	8.47e-01	0	57	104	0	52	15181
2026-01-21 03:44:06.44	348.44	13.37	-41.0	-52.8	3.8	8.46e-01	0	57	104	0	52	14891
2026-01-21 03:44:07.45	348.28	13.43	-41.2	-52.9	3.8	8.47e-01	0	57	104	0	52	15141
2026-01-21 03:44:08.46	348.11	13.49	-41.2	-52.9	3.8	8.46e-01	0	57	104	0	52	15115
2026-01-21 03:44:09.47	347.94	13.55	-41.1	-52.9	3.8	8.45e-01	0	57	104	0	52	15074
2026-01-21 03:44:10.48	347.78	13.61	-41.1	-52.9	3.8	8.46e-01	0	57	104	0	52	15161
2026-01-21 03:44:11.49	347.61	13.67	-41.1	-52.9	3.8	8.46e-01	0	57	104	0	53	14268
2026-01-21 03:44:12.50	347.44	13.72	-41.2	-52.9	3.8	8.46e-01	0	57	104	0	53	14341
2026-01-21 03:44:13.51	347.27	13.78	-41.2	-53.0	3.8	8.46e-01	0	57	104	0	53	14392
2026-01-21 03:44:14.52	347.11	13.84	-41.2	-53.0	3.8	8.45e-01	0	57	104	0	53	14391
2026-01-21 03:44:15.53	346.94	13.90	-41.2	-52.9	3.8	8.46e-01	0	57	104	0	53	14355
2026-01-21 03:44:16.53	346.77	13.96	-41.1	-52.8	3.8	8.46e-01	0	57	104	0	53	14196
2026-01-21 03:44:17.54	346.60	14.02	-41.3	-53.0	3.8	8.45e-01	0	57	104	0	53	14416
2026-01-21 03:44:18.55	346.42	14.07	-41.3	-53.1	3.8	8.45e-01	0	57	104	0	53	14667
2026-01-21 03:44:19.56	346.25	14.13	-41.1	-52.8	3.8	8.47e-01	0	57	104	0	53	14121
2026-01-21 03:44:20.57	346.08	14.19	-40.8	-52.6	3.8	8.46e-01	0	57	104	0	53	13761
2026-01-21 03:44:21.58	345.90	14.25	-41.1	-52.8	3.8	8.47e-01	0	57	104	0	53	14080
2026-01-21 03:44:22.59	345.73	14.30	-41.2	-52.9	3.8	8.46e-01	0	57	104	0	53	14302
2026-01-21 03:44:23.60	345.56	14.36	-40.8	-52.5	3.8	8.46e-01	0	57	104	0	53	13637
2026-01-21 03:44:24.61	345.38	14.42	-40.7	-52.4	3.8	8.47e-01	0	57	104	0	53	13566
2026-01-21 03:44:25.62	345.20	14.47	-40.8	-52.6	3.8	8.45e-01	0	57	104	0	53	13732
2026-01-21 03:44:26.63	345.03	14.53	-40.9	-52.7	3.8	8.46e-01	0	57	104	0	53	13987
2026-01-21 03:44:27.64	344.85	14.59	-40.7	-52.5	3.8	8.47e-01	0	57	104	0	53	13636
2026-01-21 03:44:28.65	344.67	14.64	-40.6	-52.4	3.8	8.46e-01	0	57	104	0	53	13520
2026-01-21 03:44:29.66	344.49	14.70	-40.8	-52.6	3.8	8.47e-01	0	57	104	0	53	13791
2026-01-21 03:44:30.66	344.31	14.76	-41.1	-52.8	3.8	8.47e-01	0	57	104	0	53	14085
2026-01-21 03:44:31.68	344.13	14.81	-40.6	-52.4	3.8	8.47e-01	0	57	104	0	53	13491
2026-01-21 03:44:32.68	343.95	14.87	-40.6	-52.4	3.8	8.45e-01	0	57	104	0	53	13437
2026-01-21 03:44:33.69	343.77	14.92	-40.8	-52.6	3.8	8.45e-01	0	57	104	0	53	13737
2026-01-21 03:44:34.71	343.58	14.98	-40.7	-52.5	3.8	8.46e-01	0	57	104	0	53	13624
2026-01-21 03:44:35.72	343.40	15.04	-40.6	-52.3	3.8	8.46e-01	0	57	104	0	52	14192
2026-01-21 03:44:36.72	343.22	15.09	-40.8	-52.4	3.8	8.46e-01	0	57	104	0	52	14372
2026-01-21 03:44:37.74	343.03	15.15	-40.7	-52.4	3.8	8.47e-01	0	57	104	0	52	14314
2026-01-21 03:44:38.74	342.85	15.20	-40.7	-52.4	3.8	8.46e-01	0	57	104	0	52	14325
2026-01-21 03:44:39.75	342.66	15.25	-40.6	-52.4	3.8	8.46e-01	0	57	104	0	52	14271
2026-01-21 03:44:40.76	342.47	15.31	-40.7	-52.3	3.8	8.45e-01	0	57	104	0	52	14112
2026-01-21 03:44:41.77	342.28	15.36	-40.8	-52.5	3.8	8.46e-01	0	57	104	0	52	14413
2026-01-21 03:44:42.78	342.10	15.42	-40.7	-52.4	3.8	8.45e-01	0	57	104	0	52	14301
2026-01-21 03:44:43.79	341.91	15.47	-40.6	-52.2	3.8	8.46e-01	0	57	104	0	52	14036
2026-01-21 03:44:44.80	341.72	15.53	-40.5	-52.5	3.8	8.47e-01	0	57	104	0	52	14479
2026-01-21 03:44:45.81	341.53	15.58	-40.8	-52.4	3.8	8.46e-01	0	57	104	0	52	14292
2026-01-21 03:44:46.82	341.34	15.63	-40.4	-52.3	3.8	8.45e-01	0	57	104	0	52	14128
2026-01-21 03:44:47.83	341.14	15.69	-40.5	-52.3	3.8	8.46e-01	0	57	104	0	52	14206
2026-01-21 03:44:48.84	340.95	15.74	-40.8	-52.7	3.8	8.46e-01	0	57	104	0	52	14723
2026-01-21 03:44:49.85	340.76	15.79	-40.6	-52.3	3.8	8.47e-01	0	57	104	0	52	14169
2026-01-21 03:44:50.86	340.56	15.84	-40.6	-52.4	3.8	8.46e-01	0	57	104	0	52	14351
2026-01-21 03:44:51.87	340.37	15.90	-40.8	-52.5	3.8	8.46e-01	0	57	104	0	52	14511
2026-01-21 03:44:52.88	340.17	15.95	-41.4	-51.1	3.8	8.45e-01	0	57	104	0	53	11595
2026-01-21 03:44:53.89	339.98	16.00	-40.5	-52.6	3.8	8.46e-01	0	57	104	0	53	13877
2026-01-21 03:44:54.90	339.78	16.05	-41.2	-49.1	4.4	8.43e-01	0	57	104	0	53	9210
2026-01-21 03:44:55.90	339.59	16.10	-41.2	-47.6	5.4	7.72e-01	0	57	0	0	53	7725
2026-01-21 03:44:56.92	339.39	16.15	-41.1	-46.3	6.6	2.89e-01	0	57	0	4194304	53	6649
2026-01-21 03:44:57.93	339.19	16.20	-40.9	-45.4	7.6	1.44e-01	0	57	0	9437184	53	6061
2026-01-21 03:44:58.93	338.99	16.25	-40.7	-44.9	8.2	7.25e-02	0	57	0	15728640	53	5705
2026-01-21 03:44:59.94	338.79	16.30	-40.7	-44.7	8.5	5.56e-02	0	57	0	20971520	53	5583
2026-01-21 03:45:00.95	338.59	16.35	-40.1	-43.5	9.9	1.75e-02	0	57	0	27262976	52	5116
2026-01-21 03:45:01.96	338.39	16.40	-39.2	-41.9	11.7	2.26e-03	0	57	0	32505856	50	4804
2026-01-21 03:45:02.97	338.18	16.45	-38.4	-40.7	13.1	8.58e-05	0	57	0	37748736	48	4664
2026-01-21 03:45:03.98	337.98	16.50	-38.0	-40.0	13.8	1.02e-05	0	57	0	44040192	48	4333
2026-01-21 03:45:04.99	337.78	16.55	-38.0	-40.1	13.8	5.70e-06	0	57	0	49283072	47	4638
2026-01-21 03:45:06.00	337.57	16.60	-38.6	-40.9	13.1	4.23e-05	0	57	0	55574528	47	5095
2026-01-21 03:45:07.01	337.37	16.65	-38.6	-40.8	13.3	6.40e-05	0	57	0	60817408	47	5027
2026-01-21 03:45:08.02	337.16	16.70	-38.6	-40.8	13.4	1.02e-05	0	57	0	67108864	47	5017
2026-01-21 03:45:09.03	336.96	16.75	-38.5	-40.7	13.6	1.48e-05	0	57	0	72351744	47	4957
2026-01-21 03:45:10.04	336.75	16.79	-38.5	-40.6	13.7	6.80e-06	0	57	0	77594624	47	4919
2026-01-21 03:45:11.05	336.54	16.84	-38.1	-40.1	14.2	1.10e-06	0	57	0	83886080	47	4616
2026-01-21 03:45:12.06	336.33	16.89	-37.9	-39.8	14.5	2.20e-06	0	57	0	89128960	47	4482
2026-01-21 03:45:13.07	336.13	16.93	-37.7	-39.6	14.8	1.10e-06	0	57	0	95420416	47	4363
2026-01-21 03:45:14.07	335.92	16.98	-37.5	-39.3	15.1	0.00e+00	0	57	0	100663296	47	4233
2026-01-21 03:45:15.09	335.71	17.03	-37.6	-39.4	15.0	0.00e+00	0	57	0	105906176	47	4285
2026-01-21 03:45:16.10	335.50	17.07	-37.5	-39.3	15.2	0.00e+00	0	57	0	112197632	47	4223
2026-01-21 03:45:17.10	335.29	17.12	-37.6	-39.3	15.2	0.00e+00	0	57	0	117440512	47	4238
2026-01-21 03:45:18.11	335.07	17.16	-37.5	-39.2	15.4	0.00e+00	0	57	0	123731968	46	4433
2026-01-21 03:45:19.12	334.86	17.21	-37.5	-39.3	15.3	0.00e+00	0	57	0	128974848	46	4469
2026-01-21 03:45:20.13	334.65	17.25	-37.6	-39.4	15.2	0.00e+00	0	57	0	134217728	46	4516
2026-01-21 03:45:21.14	334.43	17.30	-37.6	-39.4	15.2	0.00e+00	0	57	0	140509184	46	4534
2026-01-21 03:45:22.15	334.22	17.34	-37.6	-39.4	15.3	0.00e+00	0	57	0	145752064	46	4504
2026-01-21 03:45:23.16	334.00	17.39	-37.5	-39.3	15.4	0.00e+00	0	57	0	152043520	46	4468
2026-01-21 03:45:24.17	333.79	17.43	-37.5	-39.2	15.5	0.00e+00	0	57	0	157286400	46	4419
2026-01-21 03:45:25.18	333.57	17.47	-37.4	-39.2	15.6	0.00e+00	0	57	0	163577856	46	4394
2026-01-21 03:45:26.19	333.35	17.51	-37.4	-39.1	15.6	0.00e+00	0	57	0	168820736	46	4366
2026-01-21 03:45:27.20	333.14	17.56	-37.4	-39.1	15.6	0.00e+00	0	58	0	174063616	46	4380
2026-01-21 03:45:28.21	332.92	17.60	-37.4	-39.1	15.6	0.00e+00	0	57	0	180355072	46	4376
2026-01-21 03:45:29.22	332.70	17.64	-37.5	-39.2	15.5	0.00e+00	0	57	0	185597952	46	4424
2026-01-21 03:45:30.23	332.48	17.68	-37.5	-39.2	15.5	0.00e+00	0	57	0	191889408	46	4437
2026-01-21 03:45:31.23	332.26	17.72	-37.5	-39.2	15.6	0.00e+00	0	57	0	197132288	46	4414
2026-01-21 03:45:32.24	332.04	17.76	-37.4	-39.1	15.7	0.00e+00	0	58	0	202375168	46	4351
2026-01-21 03:45:33.25	331.82	17.80	-37.3	-39.0	15.8	0.00e+00	0	57	0	208666624	46	4309
2026-01-21 03:45:34.26	331.60	17.84	-37.3	-39.0	15.8	0.00e+00	0	57	0	213909504	46	4316
2026-01-21 03:45:35.27	331.37	17.88	-37.3	-38.9	15.9	0.00e+00	0	57	0	220200960	46	4284
2026-01-21 03:45:36.28	331.15	17.92	-37.3	-39.0	15.8	0.00e+00	0	57	0	225443840	46	4322
2026-01-21 03:45:37.29	330.93	17.96	-37.4	-39.1	15.8	0.00e+00	0	57	0	230686720	46	4341
2026-01-21 03:45:38.30	330.70	18.00	-37.4	-39.1	15.7	0.00e+00	0	57	0	236978176	46	4376
2026-01-21 03:45:39.31	330.48	18.03	-37.6	-39.3	15.6	0.00e+00	0	57	0	242221056	46	4454
2026-01-21 03:45:40.32	330.25	18.07	-37.5	-39.2	15.6	0.00e+00	0	57	0	248512512	46	4435
2026-01-21 03:45:41.33	330.02	18.11	-37.5	-39.2	15.7	0.00e+00	0	57	0	253755392	46	4394
2026-01-21 03:45:42.34	329.80	18.14	-37.4	-39.1	15.7	0.00e+00	0	57	0	260046848	46	4382
2026-01-21 03:45:43.36	329.57	18.18	-37.4	-39.1	15.7	0.00e+00	0	57	0	265289728	46	4365
2026-01-21 03:45:44.37	329.34	18.22	-37.4	-39.1	15.7	0.00e+00	0	57	0	270532608	46	4387
2026-01-21 03:45:45.38	329.11	18.25	-37.3	-38.9	15.9	0.00e+00	0	57	0	276824064	46	4281
2026-01-21 03:45:46.39	328.88	18.29	-37.3	-38.9	15.9	0.00e+00	0	57	0	282066944	46	4278
2026-01-21 03:45:47.39	328.66	18.32	-37.2	-38.9	16.0	0.00e+00	0	57	0	288358400	46	4255
2026-01-21 03:45:48.40	328.43	18.35	-37.4	-39.1	15.8	0.00e+00	0	57	0	293601280	46	4343
2026-01-21 03:45:49.41	328.20	18.39	-37.3	-39.0	15.9	0.00e+00	0	57	0	299892736	46	4307
2026-01-21 03:45:50.42	327.96	18.42	-37.4	-39.0	15.8	0.00e+00	0	57	0	305135616	46	4331
2026-01-21 03:45:51.43	327.73	18.45	-37.3	-38.9	15.9	0.00e+00	0	58	0	310378496	46	4287
2026-01-21 03:45:52.44	327.50	18.49	-37.2	-38.9	16.0	0.00e+00	0	57	0	316669952	46	4253
2026-01-21 03:45:53.45	327.27	18.52	-37.2	-38.8	16.1	0.00e+00	0	58	0	321912832	46	4207
2026-01-21 03:45:54.46	327.03	18.55	-37.2	-38.8	16.1	0.00e+00	0	57	0	328204288	46	4225
2026-01-21 03:45:55.47	326.80	18.58	-37.2	-38.8	16.0	0.00e+00	0	57	0	333447168	46	4239
2026-01-21 03:45:56.48	326.57	18.61	-37.1	-38.7	16.1	0.00e+00	0	57	0	338690048	46	4186
2026-01-21 03:45:57.49	326.33	18.64	-37.1	-38.7	16.2	0.00e+00	0	57	0	344981504	46	4161
2026-01-21 03:45:58.50	326.10	18.67	-37.1	-38.7	16.1	0.00e+00	0	57	0	350224384	46	4179
2026-01-21 03:45:59.51	325.86	18.70	-37.0	-38.6	16.3	0.00e+00	0	57	0	356515840	46	4122
2026-01-21 03:46:00.52	325.63	18.73	-37.0	-38.6	16.3	0.00e+00	0	57	0	361758720	46	4118
2026-01-21 03:46:01.53	325.39	18.76	-36.9	-38.5	16.4	0.00e+00	0	57	0	368050176	45	4302
2026-01-21 03:46:02.54	325.15	18.78	-36.9	-38.5	16.4	0.00e+00	0	57	0	373293056	45	4326
2026-01-21 03:46:03.55	324.92	18.81	-36.9	-38.5	16.3	0.00e+00	0	57	0	379584512	45	4331
2026-01-21 03:46:04.56	324.68	18.84	-36.9	-38.5	16.3	0.00e+00	0	57	0	384827392	45	4339
2026-01-21 03:46:05.57	324.44	18.86	-37.0	-38.6	16.3	0.00e+00	0	57	0	390070272	45	4360
2026-01-21 03:46:06.58	324.20	18.89	-37.0	-38.6	16.2	0.00e+00	0	57	0	396361728	45	4373
2026-01-21 03:46:07.59	323.96	18.91	-37.0	-38.6	16.2	0.00e+00	0	57	0	401604608	45	4386
2026-01-21 03:46:08.60	323.72	18.94	-37.0	-38.6	16.3	0.00e+00	0	57	0	407896064	45	4364
2026-01-21 03:46:09.61	323.49	18.96	-37.0	-38.6	16.3	0.00e+00	0	58	0	413138944	45	4342
2026-01-21 03:46:10.62	323.25	18.99	-37.0	-38.6	16.4	0.00e+00	0	58	0	418381824	45	4343
2026-01-21 03:46:11.63	323.00	19.01	-37.0	-38.6	16.3	0.00e+00	0	58	0	424673280	45	4366
2026-01-21 03:46:12.64	322.76	19.03	-37.0	-38.6	16.3	0.00e+00	0	57	0	429916160	45	4358
2026-01-21 03:46:13.65	322.52	19.06	-37.0	-38.5	16.4	0.00e+00	0	57	0	436207616	45	4337
2026-01-21 03:46:14.66	322.28	19.08	-36.8	-38.4	16.5	0.00e+00	0	57	0	441450496	45	4266
2026-01-21 03:46:15.67	322.04	19.10	-36.8	-38.4	16.5	0.00e+00	0	58	0	446693376	45	4259
2026-01-21 03:46:16.68	321.80	19.12	-36.8	-38.4	16.5	0.00e+00	0	58	0	452984832	45	4266
2026-01-21 03:46:17.69	321.55	19.14	-36.9	-38.4	16.5	0.00e+00	0	58	0	458227712	45	4284
2026-01-21 03:46:18.70	321.31	19.16	-36.9	-38.4	16.5	0.00e+00	0	57	0	464519168	45	4273
2026-01-21 03:46:19.71	321.07	19.18	-36.6	-38.2	16.7	0.00e+00	0	58	0	469762048	45	4155
2026-01-21 03:46:20.72	320.83	19.20	-36.7	-38.2	16.7	0.00e+00	0	57	0	475004928	45	4154
2026-01-21 03:46:21.73	320.58	19.21	-36.8	-38.3	16.6	0.00e+00	0	57	0	481296384	45	4235
2026-01-21 03:46:22.74	320.34	19.23	-36.9	-38.4	16.5	0.00e+00	0	57	0	486539264	45	4267
2026-01-21 03:46:23.75	320.09	19.25	-36.8	-38.4	16.5	0.00e+00	0	57	0	492830720	45	4264
2026-01-21 03:46:24.76	319.85	19.27	-36.8	-38.4	16.6	0.00e+00	0	57	0	498073600	45	4244
2026-01-21 03:46:25.77	319.60	19.28	-36.9	-38.4	16.5	0.00e+00	0	57	0	504365056	45	4283
2026-01-21 03:46:26.78	319.36	19.30	-36.9	-38.5	16.4	0.00e+00	0	57	0	509607936	45	4312
2026-01-21 03:46:27.79	319.11	19.31	-36.9	-38.5	16.4	0.00e+00	0	57	0	514850816	45	4312
2026-01-21 03:46:28.80	318.87	19.33	-36.9	-38.4	16.5	0.00e+00	0	57	0	521142272	45	4288
2026-01-21 03:46:29.81	318.62	19.34	-36.8	-38.4	16.6	0.00e+00	0	58	0	526385152	45	4244
2026-01-21 03:46:30.82	318.38	19.35	-36.9	-38.5	16.5	0.00e+00	0	57	0	532676608	45	4316
2026-01-21 03:46:31.83	318.13	19.37	-37.0	-38.5	16.4	0.00e+00	0	58	0	537919488	45	4331
2026-01-21 03:46:32.84	317.88	19.38	-36.8	-38.4	16.6	0.00e+00	0	57	0	543162368	45	4258
2026-01-21 03:46:33.85	317.64	19.39	-36.8	-38.3	16.6	0.00e+00	0	57	0	549453824	45	4235
2026-01-21 03:46:34.86	317.39	19.40	-36.8	-38.4	16.6	0.00e+00	0	58	0	554696704	45	4247
2026-01-21 03:46:35.87	317.14	19.41	-36.8	-38.3	16.6	0.00e+00	0	57	0	560988160	45	4224
2026-01-21 03:46:36.88	316.89	19.42	-36.8	-38.3	16.6	0.00e+00	0	58	0	566231040	45	4228
2026-01-21 03:46:37.89	316.65	19.43	-36.7	-38.3	16.7	0.00e+00	0	57	0	572522496	45	4197
2026-01-21 03:46:38.89	316.40	19.44	-36.7	-38.3	16.7	0.00e+00	0	57	0	577765376	45	4205
2026-01-21 03:46:39.90	316.15	19.45	-36.8	-38.3	16.6	0.00e+00	0	57	0	583008256	45	4233
2026-01-21 03:46:40.91	315.91	19.46	-36.8	-38.3	16.6	0.00e+00	0	58	0	589299712	45	4242
2026-01-21 03:46:41.93	315.66	19.46	-36.8	-38.3	16.6	0.00e+00	0	57	0	594542592	45	4231
2026-01-21 03:46:42.94	315.41	19.47	-36.8	-38.3	16.6	0.00e+00	0	58	0	600834048	45	4241
2026-01-21 03:46:43.95	315.16	19.48	-36.8	-38.3	16.6	0.00e+00	0	58	0	606076928	45	4217
2026-01-21 03:46:44.96	314.91	19.48	-36.8	-38.4	16.6	0.00e+00	0	58	0	612368384	45	4247
2026-01-21 03:46:45.97	314.66	19.49	-36.8	-38.4	16.6	0.00e+00	0	58	0	617611264	45	4259
2026-01-21 03:46:46.97	314.42	19.49	-36.8	-38.3	16.6	0.00e+00	0	58	0	622854144	45	4232
2026-01-21 03:46:47.98	314.17	19.50	-36.8	-38.3	16.6	0.00e+00	0	57	0	629145600	45	4235
2026-01-21 03:46:48.99	313.92	19.50	-36.8	-38.3	16.6	0.00e+00	0	58	0	634388480	45	4222
2026-01-21 03:46:50.00	313.67	19.50	-36.8	-38.3	16.6	0.00e+00	0	58	0	640679936	45	4212
2026-01-21 03:46:51.01	313.42	19.50	-36.8	-38.4	16.5	0.00e+00	0	58	0	645922816	45	4260
2026-01-21 03:46:52.02	313.17	19.51	-36.8	-38.4	16.5	0.00e+00	0	58	0	651165696	45	4258
2026-01-21 03:46:53.03	312.93	19.51	-36.9	-38.5	16.5	0.00e+00	0	58	0	657457152	45	4292
2026-01-21 03:46:54.04	312.68	19.51	-36.8	-38.4	16.6	0.00e+00	0	57	0	662700032	45	4243
2026-01-21 03:46:55.05	312.43	19.51	-36.8	-38.3	16.6	0.00e+00	0	58	0	668991488	45	4223
2026-01-21 03:46:56.06	312.18	19.51	-36.8	-38.3	16.6	0.00e+00	0	58	0	674234368	45	4219
2026-01-21 03:46:57.07	311.93	19.50	-36.8	-38.3	16.6	0.00e+00	0	58	0	679477248	45	4235
2026-01-21 03:46:58.08	311.68	19.50	-36.8	-38.3	16.6	0.00e+00	0	58	0	685768704	45	4216
2026-01-21 03:46:59.09	311.43	19.50	-36.9	-38.4	16.5	0.00e+00	0	58	0	691011584	45	4273
2026-01-21 03:47:00.10	311.18	19.50	-36.8	-38.3	16.6	0.00e+00	0	57	0	697303040	45	4214
2026-01-21 03:47:01.11	310.94	19.49	-36.8	-38.3	16.6	0.00e+00	0	58	0	702545920	45	4229
2026-01-21 03:47:02.12	310.69	19.49	-36.8	-38.3	16.7	0.00e+00	0	58	0	708837376	45	4211
2026-01-21 03:47:03.13	310.44	19.49	-36.8	-38.3	16.6	0.00e+00	0	58	0	714080256	45	4215
2026-01-21 03:47:04.14	310.19	19.48	-36.8	-38.3	16.6	0.00e+00	0	58	0	719323136	45	4241
2026-01-21 03:47:05.16	309.94	19.48	-36.9	-38.4	16.5	0.00e+00	0	58	0	725614592	45	4282
2026-01-21 03:47:06.17	309.69	19.47	-36.9	-38.5	16.4	0.00e+00	0	58	0	730857472	45	4320
2026-01-21 03:47:07.17	309.44	19.46	-36.9	-38.5	16.5	0.00e+00	0	58	0	737148928	45	4303
2026-01-21 03:47:08.18	309.20	19.45	-36.8	-38.3	16.7	0.00e+00	0	58	0	742391808	45	4233
2026-01-21 03:47:09.19	308.95	19.45	-36.8	-38.4	16.6	0.00e+00	0	58	0	747634688	45	4257
2026-01-21 03:47:10.20	308.70	19.44	-36.8	-38.3	16.6	0.00e+00	0	58	0	753926144	45	4237
2026-01-21 03:47:11.21	308.45	19.43	-36.8	-38.3	16.6	0.00e+00	0	58	0	759169024	45	4223
2026-01-21 03:47:12.22	308.21	19.42	-36.8	-38.3	16.6	0.00e+00	0	58	0	765460480	45	4233
2026-01-21 03:47:13.23	307.96	19.41	-36.7	-38.2	16.7	0.00e+00	0	58	0	770703360	45	4192
2026-01-21 03:47:14.24	307.71	19.40	-36.6	-38.2	16.8	0.00e+00	0	58	0	775946240	45	4146
2026-01-21 03:47:15.25	307.46	19.39	-36.6	-38.2	16.8	0.00e+00	0	58	0	782237696	45	4152
2026-01-21 03:47:16.26	307.22	19.38	-36.7	-38.2	16.8	0.00e+00	0	58	0	787480576	45	4162
2026-01-21 03:47:17.27	306.97	19.36	-36.8	-38.3	16.6	0.00e+00	0	58	0	793772032	45	4235
2026-01-21 03:47:18.28	306.72	19.35	-36.8	-38.4	16.6	0.00e+00	0	58	0	799014912	45	4253
2026-01-21 03:47:19.29	306.48	19.34	-36.9	-38.5	16.5	0.00e+00	0	58	0	805306368	45	4304
2026-01-21 03:47:20.30	306.23	19.32	-36.8	-38.4	16.6	0.00e+00	0	58	0	810549248	45	4249
2026-01-21 03:47:21.31	305.99	19.31	-36.7	-38.3	16.7	0.00e+00	0	58	0	816840704	45	4204
2026-01-21 03:47:22.32	305.74	19.29	-36.7	-38.2	16.8	0.00e+00	0	58	0	822083584	45	4173
2026-01-21 03:47:23.33	305.50	19.28	-36.6	-38.1	16.8	0.00e+00	0	58	0	827326464	45	4125
2026-01-21 03:47:24.34	305.25	19.26	-36.7	-38.2	16.8	0.00e+00	0	58	0	833617920	45	4150
2026-01-21 03:47:25.35	305.01	19.25	-36.7	-38.2	16.8	0.00e+00	0	58	0	838860800	45	4153
2026-01-21 03:47:26.36	304.76	19.23	-36.7	-38.3	16.7	0.00e+00	0	58	0	845152256	45	4194
2026-01-21 03:47:27.37	304.52	19.21	-36.7	-38.3	16.7	0.00e+00	0	58	0	850395136	45	4205
2026-01-21 03:47:28.38	304.27	19.19	-36.8	-38.3	16.7	0.00e+00	0	58	0	855638016	45	4226
2026-01-21 03:47:29.39	304.03	19.17	-36.8	-38.4	16.6	0.00e+00	0	58	0	861929472	45	4261
2026-01-21 03:47:30.40	303.79	19.15	-36.9	-38.5	16.5	0.00e+00	0	58	0	867172352	45	4296
2026-01-21 03:47:31.41	303.54	19.13	-36.9	-38.4	16.5	0.00e+00	0	58	0	873463808	45	4278
2026-01-21 03:47:32.42	303.30	19.11	-36.8	-38.4	16.6	0.00e+00	0	58	0	878706688	45	4248
2026-01-21 03:47:33.43	303.06	19.09	-36.8	-38.4	16.6	0.00e+00	0	58	0	883949568	45	4249
2026-01-21 03:47:34.44	302.82	19.07	-36.8	-38.4	16.6	0.00e+00	0	58	0	890241024	45	4258
2026-01-21 03:47:35.45	302.57	19.05	-36.9	-38.4	16.5	0.00e+00	0	58	0	895483904	45	4288
2026-01-21 03:47:36.46	302.33	19.03	-36.9	-38.5	16.5	0.00e+00	0	58	0	901775360	45	4292
2026-01-21 03:47:37.47	302.09	19.00	-37.0	-38.6	16.4	0.00e+00	0	58	0	907018240	45	4351
2026-01-21 03:47:38.48	301.85	18.98	-37.1	-38.7	16.3	0.00e+00	0	58	0	913309696	45	4397
2026-01-21 03:47:39.49	301.61	18.96	-37.1	-38.7	16.2	0.00e+00	0	58	0	918552576	45	4429
2026-01-21 03:47:40.50	301.37	18.93	-37.0	-38.7	16.3	0.00e+00	0	58	0	924844032	45	4393
2026-01-21 03:47:41.51	301.13	18.91	-37.0	-38.5	16.4	0.00e+00	0	58	0	930086912	45	4332
2026-01-21 03:47:42.52	300.89	18.88	-37.0	-38.6	16.3	0.00e+00	0	58	0	935329792	45	4363
2026-01-21 03:47:43.53	300.65	18.86	-37.0	-38.6	16.3	0.00e+00	0	58	0	941621248	45	4384
2026-01-21 03:47:44.54	300.41	18.83	-36.9	-38.5	16.4	0.00e+00	0	58	0	946864128	45	4332
2026-01-21 03:47:45.55	300.18	18.80	-36.9	-38.5	16.5	0.00e+00	0	58	0	953155584	45	4307
2026-01-21 03:47:46.56	299.94	18.78	-37.0	-38.5	16.4	0.00e+00	0	58	0	958398464	45	4338
2026-01-21 03:47:47.57	299.70	18.75	-36.9	-38.5	16.5	0.00e+00	0	58	0	963641344	45	4305
2026-01-21 03:47:48.58	299.47	18.72	-37.0	-38.5	16.4	0.00e+00	0	58	0	969932800	45	4336
2026-01-21 03:47:49.59	299.23	18.69	-37.0	-38.6	16.4	0.00e+00	0	58	0	975175680	45	4343
2026-01-21 03:47:50.61	298.99	18.66	-37.0	-38.6	16.3	0.00e+00	0	58	0	981467136	45	4376
2026-01-21 03:47:51.62	298.76	18.63	-37.1	-38.7	16.3	0.00e+00	0	58	0	986710016	45	4397
2026-01-21 03:47:52.63	298.52	18.60	-37.2	-38.8	16.2	0.00e+00	0	58	0	991952896	45	4462
2026-01-21 03:47:53.63	298.29	18.57	-37.2	-38.9	16.0	0.00e+00	0	58	0	998244352	45	4511
2026-01-21 03:47:54.64	298.05	18.54	-37.3	-38.9	16.0	0.00e+00	0	58	0	1003487232	45	4510
2026-01-21 03:47:55.65	297.82	18.51	-37.1	-38.7	16.2	0.00e+00	0	58	0	1009778688	45	4417
2026-01-21 03:47:56.66	297.59	18.48	-37.0	-38.5	16.4	0.00e+00	0	58	0	1015021568	45	4330
2026-01-21 03:47:57.67	297.36	18.44	-37.0	-38.5	16.4	0.00e+00	0	58	0	1021313024	45	4329
2026-01-21 03:47:58.68	297.12	18.41	-36.9	-38.5	16.5	0.00e+00	0	58	0	1026555904	45	4300
2026-01-21 03:47:59.69	296.89	18.38	-37.0	-38.6	16.4	0.00e+00	0	58	0	1032847360	45	4353
2026-01-21 03:48:00.70	296.66	18.34	-36.9	-38.5	16.4	0.00e+00	0	58	0	1038090240	45	4333
2026-01-21 03:48:01.71	296.43	18.31	-36.9	-38.5	16.4	0.00e+00	0	58	0	1043333120	45	4332
2026-01-21 03:48:02.72	296.20	18.28	-36.9	-38.5	16.4	0.00e+00	0	58	0	1049624576	45	4332
2026-01-21 03:48:03.74	295.97	18.24	-36.9	-38.5	16.4	0.00e+00	0	58	0	1054867456	45	4314
2026-01-21 03:48:04.75	295.74	18.20	-36.9	-38.4	16.5	0.00e+00	0	58	0	1061158912	45	4274
2026-01-21 03:48:05.76	295.51	18.17	-36.9	-38.4	16.5	0.00e+00	0	58	0	1066401792	45	4280
2026-01-21 03:48:06.77	295.29	18.13	-37.0	-38.6	16.4	0.00e+00	0	58	0	1071644672	45	4356
2026-01-21 03:48:07.78	295.06	18.10	-37.1	-38.7	16.3	0.00e+00	0	58	0	1077936128	45	4397
2026-01-21 03:48:08.79	294.83	18.06	-37.1	-38.8	16.2	0.00e+00	0	58	0	1083179008	45	4454
2026-01-21 03:48:09.79	294.61	18.02	-37.2	-38.8	16.1	0.00e+00	0	58	0	1088421888	45	4463
2026-01-21 03:48:10.80	294.38	17.98	-37.2	-38.8	16.1	0.00e+00	0	58	0	1094713344	45	4492
2026-01-21 03:48:11.81	294.16	17.95	-37.1	-38.8	16.1	0.00e+00	0	58	0	1099956224	45	4445
2026-01-21 03:48:12.82	293.93	17.91	-37.2	-38.9	16.1	0.00e+00	0	58	0	1106247680	45	4501
2026-01-21 03:48:13.83	293.71	17.87	-37.2	-38.8	16.0	0.00e+00	0	58	0	1111490560	45	4487
2026-01-21 03:48:14.84	293.49	17.83	-37.2	-38.9	16.0	0.00e+00	0	58	0	1117782016	45	4513
2026-01-21 03:48:15.85	293.26	17.79	-37.3	-39.0	16.0	0.00e+00	0	58	0	1123024896	45	4547
2026-01-21 03:48:16.86	293.04	17.75	-37.2	-38.8	16.1	0.00e+00	0	58	0	1129316352	45	4461
2026-01-21 03:48:17.87	292.82	17.71	-37.2	-38.8	16.1	0.00e+00	0	58	0	1134559232	45	4454
2026-01-21 03:48:18.88	292.60	17.67	-37.2	-38.8	16.1	0.00e+00	0	58	0	1139802112	45	4482
2026-01-21 03:48:19.88	292.38	17.63	-37.2	-38.8	16.1	0.00e+00	0	58	0	1146093568	45	4487
2026-01-21 03:48:20.90	292.16	17.58	-37.1	-38.7	16.2	0.00e+00	0	58	0	1151336448	45	4424
2026-01-21 03:48:21.91	291.94	17.54	-37.1	-38.8	16.1	0.00e+00	0	58	0	1157627904	45	4450
2026-01-21 03:48:22.92	291.72	17.50	-37.2	-38.9	16.0	0.00e+00	0	58	0	1162870784	45	4505
2026-01-21 03:48:23.93	291.50	17.46	-37.2	-38.8	16.0	0.00e+00	0	58	0	1168113664	45	4484
2026-01-21 03:48:24.94	291.29	17.41	-37.2	-38.8	16.1	0.00e+00	0	58	0	1174405120	45	4469
2026-01-21 03:48:25.95	291.07	17.37	-37.2	-38.9	16.0	0.00e+00	0	58	0	1179648000	45	4499
2026-01-21 03:48:26.95	290.86	17.33	-37.2	-38.9	16.0	0.00e+00	0	58	0	1185939456	45	4504
2026-01-21 03:48:27.96	290.64	17.28	-37.3	-39.0	15.9	0.00e+00	0	58	0	1191182336	45	4562
2026-01-21 03:48:28.97	290.43	17.24	-37.3	-39.0	15.9	0.00e+00	0	58	0	1196425216	45	4546
2026-01-21 03:48:29.98	290.21	17.19	-37.2	-38.9	16.0	0.00e+00	0	58	0	1202716672	45	4529
2026-01-21 03:48:30.99	290.00	17.15	-37.3	-38.9	15.9	0.00e+00	0	58	0	1207959552	45	4545
2026-01-21 03:48:32.00	289.79	17.10	-37.2	-38.9	16.0	0.00e+00	0	58	0	1214251008	45	4506
2026-01-21 03:48:33.01	289.57	17.06	-37.3	-39.0	15.9	0.00e+00	0	58	0	1219493888	45	4568
2026-01-21 03:48:34.02	289.36	17.01	-37.4	-39.1	15.8	0.00e+00	0	58	0	1225785344	45	4617
2026-01-21 03:48:35.03	289.15	16.96	-37.5	-39.3	15.6	0.00e+00	0	58	0	1231028224	45	4709
2026-01-21 03:48:36.03	288.94	16.92	-37.6	-39.3	15.5	0.00e+00	0	58	0	1236271104	45	4757
2026-01-21 03:48:37.04	288.73	16.87	-37.6	-39.4	15.4	0.00e+00	0	58	0	1242562560	45	4788
2026-01-21 03:48:38.05	288.53	16.82	-37.6	-39.3	15.5	0.00e+00	0	58	0	1247805440	45	4759
2026-01-21 03:48:39.06	288.32	16.78	-37.5	-39.2	15.6	0.00e+00	0	58	0	1254096896	45	4694
2026-01-21 03:48:40.07	288.11	16.73	-37.5	-39.2	15.6	0.00e+00	0	58	0	1259339776	45	4681
2026-01-21 03:48:41.08	287.90	16.68	-37.6	-39.3	15.5	0.00e+00	0	58	0	1264582656	45	4732
2026-01-21 03:48:42.09	287.70	16.63	-37.5	-39.3	15.5	0.00e+00	0	58	0	1270874112	45	4706
2026-01-21 03:48:43.10	287.49	16.58	-37.5	-39.3	15.5	0.00e+00	0	58	0	1276116992	45	4726
2026-01-21 03:48:44.11	287.29	16.53	-37.5	-39.3	15.5	0.00e+00	0	58	0	1282408448	45	4726
2026-01-21 03:48:45.12	287.08	16.48	-37.6	-39.3	15.5	0.00e+00	0	58	0	1287651328	45	4748
2026-01-21 03:48:46.13	286.88	16.44	-37.6	-39.3	15.5	0.00e+00	0	58	0	1292894208	45	4747
2026-01-21 03:48:47.14	286.68	16.39	-37.5	-39.3	15.5	0.00e+00	0	58	0	1299185664	45	4718
2026-01-21 03:48:48.15	286.47	16.34	-37.5	-39.2	15.6	0.00e+00	0	58	0	1304428544	45	4688
2026-01-21 03:48:49.16	286.27	16.29	-37.5	-39.3	15.5	0.00e+00	0	58	0	1310720000	45	4725
2026-01-21 03:48:50.17	286.07	16.23	-37.6	-39.4	15.4	0.00e+00	0	58	0	1315962880	45	4774
2026-01-21 03:48:51.18	285.87	16.18	-37.6	-39.3	15.5	0.00e+00	0	58	0	1322254336	45	4746
2026-01-21 03:48:52.19	285.67	16.13	-37.6	-39.4	15.4	0.00e+00	0	58	0	1327497216	45	4771
2026-01-21 03:48:53.20	285.47	16.08	-37.7	-39.5	15.3	0.00e+00	0	58	0	1333788672	45	4852
2026-01-21 03:48:54.21	285.28	16.03	-37.8	-39.6	15.2	0.00e+00	0	58	0	1339031552	46	4627
2026-01-21 03:48:55.22	285.08	15.98	-37.8	-39.7	15.1	0.00e+00	0	58	0	1344274432	46	4659
2026-01-21 03:48:56.23	284.88	15.93	-37.8	-39.6	15.1	0.00e+00	0	58	0	1350565888	46	4647
2026-01-21 03:48:57.24	284.69	15.87	-37.8	-39.6	15.1	0.00e+00	0	58	0	1355808768	46	4647
2026-01-21 03:48:58.25	284.49	15.82	-37.8	-39.7	15.1	0.00e+00	0	58	0	1362100224	46	4655
2026-01-21 03:48:59.26	284.30	15.77	-37.8	-39.7	15.1	0.00e+00	0	58	0	1367343104	46	4656
2026-01-21 03:49:00.27	284.10	15.72	-37.8	-39.6	15.2	0.00e+00	0	58	0	1372585984	46	4627
2026-01-21 03:49:01.28	283.91	15.66	-37.9	-39.7	15.1	0.00e+00	0	58	0	1378877440	46	4674
2026-01-21 03:49:02.28	283.72	15.61	-37.9	-39.7	15.0	1.10e-06	0	58	0	1384120320	46	4693
2026-01-21 03:49:03.29	283.53	15.56	-37.9	-39.8	15.0	0.00e+00	0	58	0	1389363200	46	4739
2026-01-21 03:49:04.30	283.33	15.50	-38.0	-39.9	14.9	0.00e+00	0	58	0	1395654656	46	4767
2026-01-21 03:49:05.31	283.14	15.45	-38.0	-39.9	14.9	0.00e+00	0	58	0	1400897536	46	4782
2026-01-21 03:49:06.32	282.95	15.39	-37.9	-39.8	15.0	0.00e+00	0	58	0	1407188992	46	4721
2026-01-21 03:49:07.33	282.77	15.34	-37.8	-39.7	15.0	0.00e+00	0	58	0	1412431872	46	4667
2026-01-21 03:49:08.34	282.58	15.29	-37.8	-39.6	15.1	0.00e+00	0	58	0	1418723328	46	4629
2026-01-21 03:49:09.35	282.39	15.23	-37.9	-39.7	15.1	0.00e+00	0	58	0	1423966208	46	4657
2026-01-21 03:49:10.36	282.20	15.18	-37.8	-39.6	15.1	0.00e+00	0	58	0	1430257664	46	4648
2026-01-21 03:49:11.37	282.02	15.12	-37.8	-39.6	15.1	0.00e+00	0	58	0	1435500544	46	4648
2026-01-21 03:49:12.38	281.83	15.07	-37.8	-39.6	15.1	0.00e+00	0	58	0	1440743424	46	4644
2026-01-21 03:49:13.39	281.65	15.01	-37.8	-39.7	15.0	0.00e+00	0	58	0	1447034880	46	4657
2026-01-21 03:49:14.40	281.46	14.95	-37.9	-39.7	15.0	0.00e+00	0	58	0	1452277760	46	4698
2026-01-21 03:49:15.41	281.28	14.90	-37.9	-39.7	15.0	0.00e+00	0	58	0	1458569216	46	4677
2026-01-21 03:49:16.42	281.10	14.84	-38.0	-39.8	14.9	0.00e+00	0	58	0	1463812096	46	4754
2026-01-21 03:49:17.43	280.91	14.79	-38.0	-39.9	14.8	0.00e+00	0	58	0	1469054976	46	4803
2026-01-21 03:49:18.44	280.73	14.73	-38.1	-40.0	14.7	1.10e-06	0	58	0	1475346432	46	4853
2026-01-21 03:49:19.45	280.55	14.67	-38.1	-40.0	14.7	1.10e-06	0	58	0	1480589312	46	4831
2026-01-21 03:49:20.45	280.37	14.62	-38.0	-39.9	14.8	0.00e+00	0	58	0	1486880768	46	4807
2026-01-21 03:49:21.47	280.19	14.56	-38.0	-39.9	14.8	0.00e+00	0	58	0	1492123648	46	4783
2026-01-21 03:49:22.48	280.01	14.50	-37.9	-39.8	14.9	0.00e+00	0	58	0	1497366528	46	4746
2026-01-21 03:49:23.49	279.83	14.45	-38.0	-39.9	14.8	0.00e+00	0	58	0	1503657984	46	4766
2026-01-21 03:49:24.50	279.66	14.39	-38.1	-40.0	14.7	2.20e-06	0	58	0	1508900864	46	4839
2026-01-21 03:49:25.51	279.48	14.33	-38.1	-40.1	14.6	0.00e+00	0	58	0	1515192320	46	4885
2026-01-21 03:49:26.52	279.30	14.28	-38.3	-40.2	14.4	2.20e-06	0	58	0	1520435200	47	4699
2026-01-21 03:49:27.53	279.13	14.22	-38.1	-40.1	14.6	4.50e-06	0	58	0	1526726656	47	4611
2026-01-21 03:49:28.54	278.96	14.16	-38.0	-39.9	14.7	1.10e-06	0	58	0	1531969536	47	4528
2026-01-21 03:49:29.55	278.78	14.10	-38.0	-39.8	14.8	0.00e+00	0	58	0	1538260992	47	4486
2026-01-21 03:49:30.56	278.61	14.04	-37.9	-39.7	14.9	0.00e+00	0	58	0	1543503872	47	4428
2026-01-21 03:49:31.56	278.44	13.99	-37.9	-39.7	14.9	1.10e-06	0	58	0	1548746752	47	4440
2026-01-21 03:49:32.58	278.26	13.93	-38.0	-39.8	14.8	0.00e+00	0	58	0	1555038208	47	4487
2026-01-21 03:49:33.59	278.09	13.87	-38.1	-40.0	14.7	1.10e-06	0	58	0	1560281088	47	4564
2026-01-21 03:49:34.59	277.92	13.81	-38.2	-40.1	14.5	1.10e-06	0	58	0	1566572544	47	4629
2026-01-21 03:49:35.60	277.75	13.75	-38.2	-40.2	14.5	0.00e+00	0	58	0	1571815424	47	4659
2026-01-21 03:49:36.61	277.58	13.69	-38.2	-40.1	14.5	0.00e+00	0	58	0	1577058304	47	4647
2026-01-21 03:49:37.62	277.42	13.64	-38.2	-40.1	14.5	1.10e-06	0	58	0	1583349760	47	4627
2026-01-21 03:49:38.63	277.25	13.58	-38.1	-40.0	14.6	0.00e+00	0	58	0	1588592640	47	4572
2026-01-21 03:49:39.64	277.08	13.52	-38.1	-40.0	14.6	3.40e-06	0	58	0	1593835520	47	4561
2026-01-21 03:49:40.65	276.91	13.46	-38.1	-40.0	14.6	2.20e-06	0	58	0	1600126976	47	4577
2026-01-21 03:49:41.66	276.75	13.40	-38.2	-40.2	14.4	2.20e-06	0	58	0	1605369856	47	4676
2026-01-21 03:49:42.67	276.58	13.34	-38.3	-40.3	14.3	2.20e-06	0	58	0	1611661312	47	4726
2026-01-21 03:49:43.68	276.42	13.28	-38.2	-40.2	14.4	1.10e-06	0	58	0	1616904192	47	4660
2026-01-21 03:49:44.69	276.26	13.22	-38.2	-40.2	14.4	1.10e-06	0	58	0	1623195648	47	4672
2026-01-21 03:49:45.70	276.09	13.16	-38.2	-40.2	14.3	0.00e+00	0	58	0	1628438528	47	4686
2026-01-21 03:49:46.71	275.93	13.10	-38.2	-40.2	14.3	2.20e-06	0	58	0	1634729984	47	4693
2026-01-21 03:49:47.72	275.77	13.04	-38.2	-40.2	14.3	1.10e-06	0	58	0	1639972864	47	4684
2026-01-21 03:49:48.73	275.61	12.98	-38.2	-40.1	14.4	1.10e-06	0	58	0	1645215744	47	4636
2026-01-21 03:49:49.74	275.45	12.92	-38.2	-40.2	14.2	2.20e-06	0	58	0	1651507200	47	4703
2026-01-21 03:49:50.75	275.29	12.86	-38.4	-40.4	14.1	2.20e-06	0	58	0	1656750080	47	4776
2026-01-21 03:49:51.76	275.13	12.80	-38.5	-40.5	13.9	9.10e-06	0	58	0	1663041536	47	4863
2026-01-21 03:49:52.76	274.97	12.74	-38.5	-40.6	13.8	5.70e-06	0	58	0	1668284416	47	4910
2026-01-21 03:49:53.77	274.81	12.68	-38.5	-40.7	13.8	1.02e-05	0	58	0	1673527296	47	4931
2026-01-21 03:49:54.78	274.66	12.62	-38.5	-40.6	13.8	1.02e-05	0	58	0	1679818752	47	4916
2026-01-21 03:49:55.79	274.50	12.56	-38.5	-40.6	13.8	6.80e-06	0	58	0	1685061632	47	4909
2026-01-21 03:49:56.80	274.34	12.50	-38.5	-40.6	13.8	8.00e-06	0	58	0	1691353088	47	4883
2026-01-21 03:49:57.81	274.19	12.44	-38.5	-40.6	13.8	9.10e-06	0	58	0	1696595968	47	4882
2026-01-21 03:49:58.82	274.03	12.38	-38.5	-40.6	13.7	1.02e-05	0	58	0	1701838848	47	4922
2026-01-21 03:49:59.83	273.88	12.32	-38.5	-40.6	13.7	6.80e-06	0	58	0	1708130304	47	4925
2026-01-21 03:50:00.84	273.73	12.26	-38.5	-40.7	13.7	1.14e-05	0	58	0	1713373184	47	4946
2026-01-21 03:50:01.85	273.57	12.20	-38.6	-40.8	13.6	1.37e-05	0	58	0	1719664640	47	4993
2026-01-21 03:50:02.85	273.42	12.14	-38.6	-40.7	13.6	1.02e-05	0	58	0	1724907520	47	4971
2026-01-21 03:50:03.86	273.27	12.08	-38.6	-40.7	13.6	1.71e-05	0	58	0	1731198976	47	4969
2026-01-21 03:50:04.87	273.12	12.02	-38.5	-40.7	13.6	1.14e-05	0	58	0	1736441856	47	4927
2026-01-21 03:50:05.88	272.97	11.96	-38.5	-40.6	13.7	1.14e-05	0	58	0	1741684736	47	4906
2026-01-21 03:50:06.89	272.82	11.90	-38.5	-40.6	13.7	1.14e-05	0	58	0	1747976192	47	4889
2026-01-21 03:50:07.90	272.67	11.84	-38.4	-40.5	13.7	1.02e-05	0	58	0	1753219072	47	4856
2026-01-21 03:50:08.91	272.52	11.78	-38.4	-40.5	13.7	2.20e-06	0	58	0	1759510528	47	4833
2026-01-21 03:50:09.92	272.38	11.72	-38.4	-40.5	13.7	1.48e-05	0	58	0	1764753408	47	4863
2026-01-21 03:50:10.93	272.23	11.66	-38.5	-40.7	13.5	1.94e-05	0	58	0	1769996288	47	4950
2026-01-21 03:50:11.94	272.08	11.60	-38.5	-40.8	13.4	1.37e-05	0	58	0	1776287744	47	4989
2026-01-21 03:50:12.95	271.94	11.53	-38.5	-40.8	13.3	2.40e-05	0	58	0	1781530624	47	4993
2026-01-21 03:50:13.96	271.79	11.47	-38.6	-40.8	13.4	3.08e-05	0	58	0	1787822080	47	5000
2026-01-21 03:50:14.97	271.65	11.41	-38.6	-40.9	13.3	2.63e-05	0	58	0	1793064960	47	5045
2026-01-21 03:50:15.98	271.50	11.35	-38.6	-40.8	13.2	2.28e-05	0	58	0	1798307840	47	5038
2026-01-21 03:50:16.99	271.36	11.29	-38.7	-40.9	13.1	3.89e-05	0	58	0	1804599296	47	5099
2026-01-21 03:50:18.00	271.22	11.23	-38.7	-41.0	13.0	6.17e-05	0	58	0	1809842176	47	5127
2026-01-21 03:50:19.01	271.08	11.17	-38.8	-41.2	13.0	6.63e-05	0	58	0	1816133632	48	4938
2026-01-21 03:50:20.02	270.93	11.11	-38.8	-41.1	13.0	5.83e-05	0	58	0	1821376512	48	4900
2026-01-21 03:50:21.03	270.79	11.05	-38.8	-41.1	12.9	9.38e-05	0	58	0	1827667968	48	4912
2026-01-21 03:50:22.04	270.65	10.98	-38.8	-41.1	13.0	4.80e-05	0	58	0	1832910848	48	4896
2026-01-21 03:50:23.05	270.51	10.92	-38.8	-41.1	13.0	6.17e-05	0	58	0	1839202304	48	4890
2026-01-21 03:50:24.06	270.37	10.86	-38.7	-40.9	13.1	5.95e-05	0	58	0	1844445184	48	4814
2026-01-21 03:50:25.07	270.23	10.80	-38.5	-40.7	13.3	2.17e-05	0	58	0	1849688064	48	4675
2026-01-21 03:50:26.08	270.10	10.74	-38.5	-40.7	13.3	2.63e-05	0	58	0	1855979520	48	4673
2026-01-21 03:50:27.09	269.96	10.68	-38.5	-40.8	13.2	4.34e-05	0	58	0	1861222400	48	4723
2026-01-21 03:50:28.10	269.82	10.62	-38.6	-40.8	13.1	4.57e-05	0	58	0	1867513856	48	4749
2026-01-21 03:50:29.11	269.69	10.56	-38.7	-41.0	12.9	6.40e-05	0	58	0	1872756736	48	4837
2026-01-21 03:50:30.12	269.55	10.50	-38.7	-41.1	12.9	7.20e-05	0	58	0	1877999616	48	4884
2026-01-21 03:50:31.13	269.41	10.43	-38.7	-41.1	12.8	1.13e-04	0	58	0	1884291072	48	4882
2026-01-21 03:50:32.14	269.28	10.37	-38.7	-41.1	12.7	9.49e-05	0	58	0	1889533952	48	4873
2026-01-21 03:50:33.16	269.15	10.31	-38.7	-41.0	12.8	1.01e-04	0	58	0	1895825408	48	4852
2026-01-21 03:50:34.16	269.01	10.25	-38.7	-41.0	12.7	1.11e-04	0	58	0	1901068288	48	4868
2026-01-21 03:50:35.17	268.88	10.19	-38.6	-41.0	12.8	1.09e-04	0	58	0	1906311168	48	4830
2026-01-21 03:50:36.18	268.75	10.13	-38.6	-41.0	12.7	1.05e-04	0	58	0	1912602624	48	4850
2026-01-21 03:50:37.19	268.62	10.07	-38.7	-41.1	12.5	1.50e-04	0	58	0	1917845504	48	4905
2026-01-21 03:50:38.20	268.48	10.01	-38.8	-41.3	12.4	2.21e-04	0	58	0	1924136960	48	4994
2026-01-21 03:50:39.21	268.35	9.94	-38.9	-41.4	12.1	3.42e-04	0	58	0	1929379840	48	5084
2026-01-21 03:50:40.22	268.22	9.88	-38.9	-41.5	12.1	4.20e-04	0	58	0	1935671296	48	5115
2026-01-21 03:50:41.23	268.09	9.82	-39.2	-41.9	11.7	6.72e-04	0	58	0	1940914176	48	5352
2026-01-21 03:50:42.24	267.97	9.76	-39.2	-41.9	11.7	8.43e-04	0	58	0	1946157056	48	5383
2026-01-21 03:50:43.24	267.84	9.70	-39.2	-42.0	11.5	1.06e-03	0	58	0	1952448512	49	5138
2026-01-21 03:50:44.25	267.71	9.64	-39.3	-42.1	11.3	1.42e-03	0	58	0	1957691392	49	5200
2026-01-21 03:50:45.26	267.58	9.58	-39.3	-42.1	11.3	1.49e-03	0	58	0	1963982848	49	5217
2026-01-21 03:50:46.27	267.46	9.52	-39.3	-42.2	11.2	1.99e-03	0	58	0	1969225728	49	5229
2026-01-21 03:50:47.28	267.33	9.46	-39.4	-42.3	11.0	2.61e-03	0	58	0	1974468608	49	5331
2026-01-21 03:50:48.29	267.20	9.39	-39.4	-42.3	11.0	2.24e-03	0	58	0	1980760064	49	5310
2026-01-21 03:50:49.30	267.08	9.33	-39.3	-42.4	10.9	3.06e-03	0	58	0	1986002944	49	5341
2026-01-21 03:50:50.31	266.95	9.27	-39.5	-42.5	10.7	3.75e-03	0	58	0	1992294400	49	5449
2026-01-21 03:50:51.32	266.83	9.21	-39.4	-42.5	10.6	4.44e-03	0	58	0	1997537280	49	5463
2026-01-21 03:50:52.33	266.71	9.15	-39.5	-42.6	10.5	4.83e-03	0	58	0	2002780160	49	5519
2026-01-21 03:50:53.34	266.58	9.09	-39.5	-42.7	10.3	5.95e-03	0	59	0	2009071616	49	5592
2026-01-21 03:50:54.35	266.46	9.03	-39.5	-42.8	10.3	7.04e-03	0	58	0	2014314496	49	5614
2026-01-21 03:50:55.36	266.34	8.97	-39.6	-42.8	10.2	7.46e-03	0	58	0	2020605952	49	5653
2026-01-21 03:50:56.37	266.22	8.91	-39.6	-42.9	10.1	8.67e-03	0	58	0	2025848832	49	5700
2026-01-21 03:50:57.38	266.10	8.85	-39.7	-43.0	10.0	9.21e-03	0	58	0	2032140288	49	5753
2026-01-21 03:50:58.39	265.98	8.79	-39.8	-43.2	9.8	1.17e-02	0	58	0	2037383168	50	5586
2026-01-21 03:50:59.40	265.86	8.72	-40.0	-43.6	9.4	1.86e-02	0	58	0	2043674624	50	5843
2026-01-21 03:51:00.41	265.74	8.66	-40.0	-43.7	9.3	2.29e-02	0	58	0	2048917504	50	5864
2026-01-21 03:51:01.42	265.62	8.60	-40.1	-44.0	8.9	3.14e-02	0	58	0	2054160384	50	6076
2026-01-21 03:51:02.43	265.50	8.54	-40.2	-44.2	8.7	4.28e-02	0	58	0	2060451840	50	6209
2026-01-21 03:51:03.44	265.38	8.48	-40.3	-44.3	8.6	4.76e-02	0	58	0	2065694720	51	5955
2026-01-21 03:51:04.45	265.26	8.42	-40.4	-44.3	8.7	4.28e-02	0	59	0	2071986176	51	5977
2026-01-21 03:51:05.46	265.15	8.36	-40.3	-44.4	8.6	4.57e-02	0	58	0	2077229056	51	6003
2026-01-21 03:51:06.47	265.03	8.30	-40.4	-44.6	8.2	6.01e-02	0	58	0	2082471936	51	6183
2026-01-21 03:51:07.48	264.92	8.24	-40.4	-44.4	8.5	4.87e-02	0	58	0	2088763392	51	6038
2026-01-21 03:51:08.49	264.80	8.18	-40.4	-44.4	8.5	5.42e-02	0	58	0	2094006272	51	6053
2026-01-21 03:51:09.51	264.68	8.12	-40.5	-44.6	8.4	5.50e-02	0	58	0	2100297728	51	6176
2026-01-21 03:51:10.52	264.57	8.06	-40.5	-44.6	8.4	5.66e-02	0	58	0	2105540608	51	6148
2026-01-21 03:51:11.53	264.45	8.00	-41.4	-46.5	7.1	5.73e-02	0	58	0	2110783488	53	6823
2026-01-21 03:51:12.54	264.34	7.94	-44.5	-56.1	3.8	8.45e-01	0	58	104	2111832064	59	14604
2026-01-21 03:51:13.55	264.23	7.88	-44.8	-56.5	3.8	8.46e-01	0	58	104	2111832064	60	14512
2026-01-21 03:51:14.56	264.12	7.82	-44.9	-56.7	3.8	8.46e-01	0	58	104	2111832064	60	14857
2026-01-21 03:51:15.57	264.00	7.76	-45.0	-56.8	3.8	8.46e-01	0	58	104	2111832064	60	14961
2026-01-21 03:51:16.58	263.89	7.69	-45.1	-56.8	3.8	8.45e-01	0	58	104	2111832064	60	15034
2026-01-21 03:51:17.59	263.78	7.63	-45.1	-56.9	3.8	8.46e-01	0	58	104	2111832064	60	15123
2026-01-21 03:51:18.60	263.67	7.57	-45.2	-56.9	3.8	8.47e-01	0	58	104	2111832064	60	15182
2026-01-21 03:51:19.61	263.56	7.51	-45.2	-56.9	3.8	8.45e-01	0	58	104	2111832064	60	15154
2026-01-21 03:51:20.62	263.45	7.45	-45.2	-56.9	3.8	8.46e-01	0	58	104	2111832064	60	15155
2026-01-21 03:51:21.63	263.34	7.39	-45.1	-56.9	3.8	8.46e-01	0	58	104	2111832064	60	15071
2026-01-21 03:51:22.64	263.23	7.33	-45.1	-56.9	3.8	8.46e-01	0	58	104	2111832064	60	15131
2026-01-21 03:51:23.65	263.12	7.27	-45.1	-56.9	3.8	8.46e-01	0	58	104	2111832064	60	15166
2026-01-21 03:51:24.67	263.01	7.21	-45.1	-56.9	3.8	8.44e-01	0	58	104	2111832064	60	15132
2026-01-21 03:51:25.68	262.91	7.15	-45.1	-56.9	3.8	8.47e-01	0	58	104	2111832064	60	15116
2026-01-21 03:51:26.69	262.80	7.09	-45.2	-57.0	3.8	8.46e-01	0	58	104	2111832064	60	15258
2026-01-21 03:51:27.70	262.69	7.03	-45.2	-57.0	3.8	8.47e-01	0	58	104	2111832064	61	14378
2026-01-21 03:51:28.71	262.59	6.97	-45.2	-57.0	3.8	8.47e-01	0	58	104	2111832064	61	14472
2026-01-21 03:51:29.72	262.48	6.92	-45.2	-57.0	3.8	8.46e-01	0	58	104	2111832064	61	14403
2026-01-21 03:51:30.73	262.38	6.86	-45.2	-56.9	3.8	8.46e-01	0	58	104	2111832064	61	14353
2026-01-21 03:51:31.74	262.27	6.80	-45.2	-56.9	3.8	8.46e-01	0	58	104	2111832064	61	14282
2026-01-21 03:51:32.75	262.17	6.74	-45.2	-56.9	3.8	8.46e-01	0	59	104	2111832064	61	14275
2026-01-21 03:51:33.76	262.06	6.68	-45.2	-57.0	3.8	8.46e-01	0	58	104	2111832064	61	14376
2026-01-21 03:51:34.77	261.96	6.62	-45.2	-56.9	3.8	8.47e-01	0	58	104	2111832064	61	14226
2026-01-21 03:51:35.78	261.86	6.56	-45.1	-56.8	3.8	8.46e-01	0	59	104	2111832064	61	14178
2026-01-21 03:51:36.79	261.75	6.50	-45.1	-56.8	3.8	8.45e-01	0	59	104	2111832064	61	14112
2026-01-21 03:51:37.80	261.65	6.44	-45.2	-56.9	3.8	8.45e-01	0	58	104	2111832064	61	14240
2026-01-21 03:51:38.81	261.55	6.38	-45.2	-56.8	3.8	8.46e-01	0	58	104	2111832064	61	14161
2026-01-21 03:51:39.82	261.45	6.32	-45.1	-56.9	3.8	8.47e-01	0	58	104	2111832064	61	14241
2026-01-21 03:51:40.83	261.35	6.26	-45.1	-56.9	3.8	8.47e-01	0	58	104	2111832064	61	14217
2026-01-21 03:51:41.84	261.25	6.20	-45.2	-56.8	3.8	8.46e-01	0	58	104	2111832064	61	14160
2026-01-21 03:51:42.86	261.15	6.14	-45.1	-56.9	3.8	8.47e-01	0	58	104	2111832064	61	14269
2026-01-21 03:51:43.87	261.05	6.08	-45.2	-56.9	3.8	8.45e-01	0	58	104	2111832064	61	14217
2026-01-21 03:51:44.88	260.95	6.03	-45.2	-56.9	3.8	8.46e-01	0	59	104	2111832064	61	14216
2026-01-21 03:51:45.89	260.85	5.97	-45.1	-56.8	3.8	8.46e-01	0	58	104	2111832064	61	14170
2026-01-21 03:51:46.90	260.75	5.91	-45.1	-56.9	3.8	8.47e-01	0	58	104	2111832064	61	14235
2026-01-21 03:51:47.91	260.65	5.85	-45.1	-56.8	3.8	8.46e-01	0	59	104	2111832064	61	14206
2026-01-21 03:51:48.92	260.55	5.79	-45.1	-56.8	3.8	8.46e-01	0	59	104	2111832064	61	14198
2026-01-21 03:51:49.93	260.46	5.73	-45.1	-56.8	3.8	8.45e-01	0	58	104	2111832064	61	14168
2026-01-21 03:51:50.94	260.36	5.67	-45.1	-56.8	3.8	8.46e-01	0	58	104	2111832064	61	14144
2026-01-21 03:51:51.95	260.26	5.62	-45.1	-56.9	3.8	8.46e-01	0	59	104	2111832064	61	14253
2026-01-21 03:51:52.96	260.17	5.56	-45.1	-56.8	3.8	8.46e-01	0	58	104	2111832064	61	14129
2026-01-21 03:51:53.97	260.07	5.50	-45.1	-56.8	3.8	8.46e-01	0	58	104	2111832064	61	14188
2026-01-21 03:51:54.98	259.98	5.44	-45.1	-56.9	3.8	8.46e-01	0	58	104	2111832064	61	14260
2026-01-21 03:51:55.99	259.88	5.38	-45.1	-56.8	3.8	8.45e-01	0	58	104	2111832064	61	14179
2026-01-21 03:51:57.00	259.79	5.32	-45.1	-56.8	3.8	8.47e-01	0	58	104	2111832064	61	14193
2026-01-21 03:51:58.01	259.69	5.27	-45.1	-56.8	3.8	8.46e-01	0	58	104	2111832064	61	14117
2026-01-21 03:51:59.02	259.60	5.21	-45.1	-56.8	3.8	8.46e-01	0	58	104	2111832064	61	14184
2026-01-21 03:52:00.03	259.51	5.15	-45.1	-56.8	3.8	8.47e-01	0	59	104	2111832064	61	14197
2026-01-21 03:52:01.04	259.41	5.09	-45.1	-56.8	3.8	8.45e-01	0	59	104	2111832064	61	14180
2026-01-21 03:52:02.05	259.32	5.03	-45.1	-56.8	3.8	8.45e-01	0	59	104	2111832064	61	14098
2026-01-21 03:52:03.06	259.23	4.98	-45.1	-56.8	3.8	8.45e-01	0	59	104	2111832064	61	14119
2026-01-21 03:52:04.08	259.14	4.92	-45.1	-56.9	3.8	8.45e-01	0	59	104	2111832064	61	14226
2026-01-21 03:52:05.08	259.04	4.86	-45.1	-56.8	3.8	8.46e-01	0	59	104	2111832064	61	14177
2026-01-21 03:52:06.10	258.95	4.80	-45.1	-56.8	3.8	8.47e-01	0	59	104	2111832064	61	14184
2026-01-21 03:52:07.11	258.86	4.74	-45.1	-56.8	3.8	8.46e-01	0	59	104	2111832064	61	14175
2026-01-21 03:52:08.12	258.77	4.69	-45.1	-56.8	3.8	8.47e-01	0	58	104	2111832064	61	14168
2026-01-21 03:52:09.13	258.68	4.63	-45.1	-56.8	3.8	8.46e-01	0	59	104	2111832064	61	14146
2026-01-21 03:52:10.14	258.59	4.57	-45.1	-56.8	3.8	8.46e-01	0	58	104	2111832064	61	14125
2026-01-21 03:52:11.15	258.50	4.51	-45.1	-56.8	3.8	8.46e-01	0	59	104	2111832064	61	14169
2026-01-21 03:52:12.16	258.41	4.46	-45.1	-56.8	3.8	8.46e-01	0	59	104	2111832064	61	14109
2026-01-21 03:52:13.17	258.33	4.40	-45.1	-56.8	3.8	8.46e-01	0	58	104	2111832064	61	14114
2026-01-21 03:52:14.18	258.24	4.34	-45.1	-56.8	3.8	8.46e-01	0	58	104	2111832064	61	14136
2026-01-21 03:52:15.19	258.15	4.28	-45.1	-56.8	3.8	8.47e-01	0	59	104	2111832064	61	14152
2026-01-21 03:52:16.20	258.06	4.23	-45.1	-56.8	3.8	8.47e-01	0	59	104	2111832064	61	14151
2026-01-21 03:52:17.21	257.97	4.17	-45.1	-56.8	3.8	8.45e-01	0	58	104	2111832064	61	14174
2026-01-21 03:52:18.22	257.89	4.11	-45.1	-56.8	3.8	8.47e-01	0	59	104	2111832064	61	14125
2026-01-21 03:52:19.23	257.80	4.06	-45.1	-56.8	3.8	8.46e-01	0	58	104	2111832064	61	14204
2026-01-21 03:52:20.25	257.71	4.00	-45.1	-56.8	3.8	8.47e-01	0	59	104	2111832064	61	14153
2026-01-21 03:52:21.26	257.63	3.94	-45.1	-56.8	3.8	8.46e-01	0	58	104	2111832064	61	14154
2026-01-21 03:52:22.27	257.54	3.88	-45.1	-56.8	3.8	8.47e-01	0	58	104	2111832064	61	14162
2026-01-21 03:52:23.28	257.46	3.83	-45.1	-56.8	3.8	8.46e-01	0	58	104	2111832064	61	14132
2026-01-21 03:52:24.29	257.37	3.77	-45.1	-56.8	3.8	8.46e-01	0	58	104	2111832064	61	14124
2026-01-21 03:52:25.30	257.29	3.71	-45.1	-56.8	3.8	8.45e-01	0	59	104	2111832064	61	14112
2026-01-21 03:52:26.31	257.20	3.66	-45.1	-56.8	3.8	8.47e-01	0	58	104	2111832064	61	14139
2026-01-21 03:52:27.32	257.12	3.60	-45.1	-56.8	3.8	8.45e-01	0	59	104	2111832064	61	14152
2026-01-21 03:52:28.33	257.04	3.55	-45.1	-56.8	3.8	8.46e-01	0	58	104	2111832064	61	14125
2026-01-21 03:52:29.34	256.95	3.49	-45.1	-56.8	3.8	8.45e-01	0	58	104	2111832064	61	14131
2026-01-21 03:52:30.35	256.87	3.43	-45.1	-56.8	3.8	8.45e-01	0	59	104	2111832064	61	14162
2026-01-21 03:52:31.36	256.79	3.38	-45.1	-56.8	3.8	8.46e-01	0	58	104	2111832064	61	14156
2026-01-21 03:52:32.37	256.71	3.32	-45.1	-56.8	3.8	8.46e-01	0	59	104	2111832064	61	14192
2026-01-21 03:52:33.38	256.63	3.26	-45.1	-56.8	3.8	8.46e-01	0	58	104	2111832064	61	14168
2026-01-21 03:52:34.39	256.54	3.21	-45.1	-56.8	3.8	8.45e-01	0	58	104	2111832064	61	14079
2026-01-21 03:52:35.40	256.46	3.15	-45.1	-56.8	3.8	8.46e-01	0	58	104	2111832064	61	14147
2026-01-21 03:52:36.41	256.38	3.10	-45.1	-56.8	3.8	8.46e-01	0	59	104	2111832064	61	14141
2026-01-21 03:52:37.42	256.30	3.04	-45.1	-56.8	3.8	8.46e-01	0	59	104	2111832064	61	14110
2026-01-21 03:52:38.43	256.22	2.98	-45.1	-56.8	3.8	8.47e-01	0	59	104	2111832064	61	14153
2026-01-21 03:52:39.44	256.14	2.93	-45.1	-56.8	3.8	8.45e-01	0	59	104	2111832064	61	14145
2026-01-21 03:52:40.45	256.06	2.87	-45.1	-56.8	3.8	8.46e-01	0	58	104	2111832064	61	14079
