passes_logs/2026/01/21/R2.0S_Moscow/R2.0S_Moscow__20260121_151520_FENGYUN_3E_rec.log

#Pass ID: 20260121_151520_FENGYUN 3E
#Satellite: FENGYUN 3E
#Configuration: FENGYUN 3E
#almurnet v.1.7.20251203
#Start time: 2026-01-21 15:15:20

#Version: 2.2.20231116
#Station: R2.0S_Moscow
#Location: 37.707566 lon 55.798166 lat
#TLE: 1 49008U 21062A   26020.99547197  .00000101  00000+0  68509-4 0  9996
#TLE: 2 49008  98.7483  26.0531 0002292 127.4634 232.6751 14.19886023235694

#Time	Az	El	Level	Level2	SNR	BER	BlckErr	Temp	State	Recorded	gain1	gain2
2026-01-21 15:15:20.90	191.96	2.01	-44.1	-55.2	3.8	8.47e-01	0	49	0	0	59	12384
2026-01-21 15:15:21.91	192.01	2.07	-44.1	-55.1	3.8	8.46e-01	0	49	104	0	59	12366
2026-01-21 15:15:22.92	192.06	2.13	-44.1	-55.1	3.8	8.45e-01	0	49	104	0	59	12351
2026-01-21 15:15:23.93	192.11	2.20	-44.1	-55.2	3.8	8.46e-01	0	49	104	0	59	12379
2026-01-21 15:15:24.94	192.16	2.26	-44.1	-55.2	3.8	8.47e-01	0	50	104	0	59	12386
2026-01-21 15:15:25.95	192.21	2.32	-44.1	-55.2	3.8	8.45e-01	0	50	104	0	59	12380
2026-01-21 15:15:26.96	192.26	2.38	-44.1	-55.1	3.8	8.46e-01	0	50	104	0	59	12317
2026-01-21 15:15:27.97	192.32	2.44	-44.1	-55.1	3.8	8.47e-01	0	50	104	0	59	12362
2026-01-21 15:15:28.99	192.37	2.50	-44.1	-55.1	3.8	8.46e-01	0	50	104	0	59	12312
2026-01-21 15:15:30.00	192.42	2.56	-44.1	-55.1	3.8	8.47e-01	0	50	104	0	59	12360
2026-01-21 15:15:31.01	192.47	2.63	-44.1	-55.1	3.8	8.46e-01	0	50	104	0	59	12349
2026-01-21 15:15:32.02	192.53	2.69	-44.1	-55.1	3.8	8.46e-01	0	50	104	0	59	12336
2026-01-21 15:15:33.03	192.58	2.75	-44.1	-55.2	3.8	8.46e-01	0	50	104	0	59	12389
2026-01-21 15:15:34.04	192.63	2.81	-44.1	-55.1	3.8	8.47e-01	0	50	104	0	59	12324
2026-01-21 15:15:35.05	192.69	2.87	-44.1	-55.1	3.8	8.47e-01	0	50	104	0	59	12357
2026-01-21 15:15:36.06	192.74	2.94	-44.1	-55.1	3.8	8.47e-01	0	50	104	0	59	12338
2026-01-21 15:15:37.07	192.79	3.00	-44.1	-55.1	3.8	8.46e-01	0	51	104	0	59	12341
2026-01-21 15:15:38.08	192.85	3.06	-44.1	-55.1	3.8	8.46e-01	0	51	104	0	59	12369
2026-01-21 15:15:39.09	192.90	3.12	-44.1	-55.1	3.8	8.47e-01	0	51	104	0	59	12366
2026-01-21 15:15:40.10	192.95	3.19	-44.1	-55.1	3.8	8.47e-01	0	51	104	0	59	12367
2026-01-21 15:15:41.11	193.01	3.25	-44.1	-55.2	3.8	8.46e-01	0	51	104	0	59	12392
2026-01-21 15:15:42.12	193.06	3.31	-44.1	-55.1	3.8	8.47e-01	0	51	104	0	59	12329
2026-01-21 15:15:43.13	193.12	3.38	-44.1	-55.1	3.8	8.46e-01	0	51	104	0	59	12357
2026-01-21 15:15:44.14	193.17	3.44	-44.1	-55.1	3.8	8.47e-01	0	51	104	0	59	12343
2026-01-21 15:15:45.15	193.23	3.50	-44.1	-55.1	3.8	8.46e-01	0	51	104	0	59	12324
2026-01-21 15:15:46.17	193.29	3.57	-44.1	-55.1	3.8	8.46e-01	0	51	104	0	59	12345
2026-01-21 15:15:47.18	193.34	3.63	-44.1	-55.1	3.8	8.46e-01	0	51	104	0	59	12334
2026-01-21 15:15:48.18	193.40	3.69	-44.1	-55.2	3.8	8.47e-01	0	51	104	0	59	12393
2026-01-21 15:15:49.19	193.45	3.76	-44.1	-55.2	3.8	8.46e-01	0	51	104	0	59	12381
2026-01-21 15:15:50.20	193.51	3.82	-44.1	-55.1	3.8	8.47e-01	0	52	104	0	59	12328
2026-01-21 15:15:51.21	193.57	3.89	-44.1	-55.1	3.8	8.45e-01	0	52	104	0	59	12362
2026-01-21 15:15:52.22	193.62	3.95	-44.1	-55.1	3.8	8.48e-01	0	52	104	0	59	12356
2026-01-21 15:15:53.23	193.68	4.01	-44.1	-55.1	3.8	8.47e-01	0	52	104	0	59	12351
2026-01-21 15:15:54.24	193.74	4.08	-44.1	-55.1	3.8	8.46e-01	0	52	104	0	59	12273
2026-01-21 15:15:55.26	193.80	4.14	-44.1	-55.1	3.8	8.46e-01	0	52	104	0	59	12297
2026-01-21 15:15:56.27	193.85	4.21	-44.1	-55.1	3.8	8.46e-01	0	52	104	0	59	12310
2026-01-21 15:15:57.28	193.91	4.27	-44.1	-55.2	3.8	8.46e-01	0	52	104	0	59	12377
2026-01-21 15:15:58.29	193.97	4.34	-44.1	-55.1	3.8	8.48e-01	0	52	104	0	59	12306
2026-01-21 15:15:59.30	194.03	4.40	-44.1	-55.1	3.8	8.46e-01	0	52	104	0	59	12277
2026-01-21 15:16:00.31	194.09	4.47	-44.1	-55.1	3.8	8.45e-01	0	52	104	0	59	12274
2026-01-21 15:16:01.32	194.15	4.53	-44.1	-55.1	3.8	8.48e-01	0	52	104	0	59	12260
2026-01-21 15:16:02.33	194.21	4.60	-44.1	-55.0	3.8	8.47e-01	0	52	104	0	59	12185
2026-01-21 15:16:03.34	194.27	4.67	-44.1	-55.0	3.8	8.47e-01	0	52	104	0	59	12169
2026-01-21 15:16:04.35	194.33	4.73	-44.1	-54.9	3.8	8.46e-01	0	52	104	0	59	12072
2026-01-21 15:16:05.36	194.39	4.80	-44.1	-54.9	3.8	8.45e-01	0	52	104	0	59	12037
2026-01-21 15:16:06.37	194.45	4.86	-44.1	-54.9	3.8	8.47e-01	0	52	104	0	59	12039
2026-01-21 15:16:07.38	194.51	4.93	-44.1	-54.9	3.8	8.45e-01	0	53	104	0	59	11963
2026-01-21 15:16:08.39	194.57	5.00	-44.1	-54.7	3.8	8.47e-01	0	52	104	0	59	11793
2026-01-21 15:16:09.40	194.63	5.06	-44.1	-54.7	3.8	8.47e-01	0	53	104	0	59	11793
2026-01-21 15:16:10.41	194.69	5.13	-44.1	-54.6	3.8	8.46e-01	0	53	104	0	59	11629
2026-01-21 15:16:11.42	194.76	5.20	-44.0	-54.5	3.8	8.46e-01	0	53	104	0	59	11507
2026-01-21 15:16:12.43	194.82	5.26	-44.0	-54.3	3.8	8.46e-01	0	53	104	0	59	11247
2026-01-21 15:16:13.45	194.88	5.33	-44.0	-54.1	3.8	8.45e-01	0	53	104	0	59	11004
2026-01-21 15:16:14.46	194.94	5.40	-43.9	-53.8	3.8	8.45e-01	0	53	104	0	58	11232
2026-01-21 15:16:15.47	195.01	5.47	-43.9	-53.6	3.8	8.46e-01	0	53	104	0	58	10935
2026-01-21 15:16:16.48	195.07	5.54	-43.9	-53.2	3.8	8.45e-01	0	53	104	0	58	10491
2026-01-21 15:16:17.49	195.13	5.60	-43.8	-52.7	4.0	8.44e-01	0	53	104	0	58	9858
2026-01-21 15:16:18.50	195.20	5.67	-43.7	-52.1	3.9	8.40e-01	0	53	104	0	58	9279
2026-01-21 15:16:19.51	195.26	5.74	-43.6	-51.8	4.1	8.40e-01	0	53	0	0	58	8954
2026-01-21 15:16:20.52	195.33	5.81	-43.5	-51.3	4.3	8.35e-01	0	53	0	0	58	8396
2026-01-21 15:16:21.53	195.39	5.88	-43.3	-50.6	4.5	8.24e-01	0	53	0	0	57	8233
2026-01-21 15:16:22.54	195.45	5.94	-43.2	-50.0	4.8	8.04e-01	0	53	0	0	57	7651
2026-01-21 15:16:23.54	195.52	6.01	-43.1	-49.6	5.0	7.77e-01	0	54	0	0	57	7323
2026-01-21 15:16:24.55	195.58	6.08	-42.8	-48.9	5.4	7.32e-01	0	53	0	0	56	7151
2026-01-21 15:16:25.56	195.65	6.15	-42.8	-48.8	5.5	7.19e-01	0	54	0	0	56	7043
2026-01-21 15:16:26.57	195.72	6.22	-42.6	-48.3	5.8	4.11e-01	0	53	0	4194304	56	6652
2026-01-21 15:16:27.58	195.78	6.29	-42.3	-47.6	6.2	3.01e-01	0	54	0	11534336	55	6524
2026-01-21 15:16:28.59	195.85	6.36	-42.2	-47.5	6.3	2.90e-01	0	54	0	18874368	55	6476
2026-01-21 15:16:29.60	195.92	6.43	-42.2	-47.4	6.4	2.72e-01	0	54	0	26214400	55	6381
2026-01-21 15:16:30.61	195.98	6.50	-42.2	-47.6	6.2	3.03e-01	0	54	0	33554432	55	6513
2026-01-21 15:16:31.61	196.05	6.57	-42.1	-47.4	6.4	3.32e-01	0	54	0	40894464	55	6355
2026-01-21 15:16:32.62	196.12	6.64	-42.1	-47.3	6.4	2.47e-01	0	54	0	48234496	55	6329
2026-01-21 15:16:33.64	196.19	6.71	-42.3	-47.8	6.0	3.60e-01	0	54	0	54525952	55	6718
2026-01-21 15:16:34.64	196.26	6.78	-42.4	-48.0	5.9	3.32e-01	0	54	0	61865984	55	6823
2026-01-21 15:16:35.65	196.32	6.85	-42.3	-47.8	6.1	3.47e-01	0	54	0	70254592	55	6654
2026-01-21 15:16:36.66	196.39	6.92	-42.3	-47.6	6.2	2.94e-01	0	54	0	76546048	55	6529
2026-01-21 15:16:37.68	196.46	6.99	-42.2	-47.3	6.4	2.62e-01	0	54	0	83886080	55	6338
2026-01-21 15:16:38.69	196.53	7.06	-42.0	-46.8	6.9	1.89e-01	0	54	0	91226112	54	6281
2026-01-21 15:16:39.69	196.60	7.13	-41.5	-45.7	7.9	8.86e-02	0	54	0	98566144	54	5579
2026-01-21 15:16:40.70	196.67	7.20	-41.0	-44.8	8.8	4.76e-02	0	54	0	105906176	53	5313
2026-01-21 15:16:41.71	196.74	7.27	-40.7	-44.3	9.4	2.09e-02	0	54	0	113246208	52	5287
2026-01-21 15:16:42.72	196.82	7.35	-40.3	-43.6	10.1	1.08e-02	0	54	0	120586240	51	5197
2026-01-21 15:16:43.73	196.89	7.42	-39.9	-43.0	10.8	3.55e-03	0	54	0	127926272	50	5108
2026-01-21 15:16:44.74	196.96	7.49	-39.6	-42.6	11.2	1.48e-03	0	55	0	135266304	50	4887
2026-01-21 15:16:45.75	197.03	7.56	-39.1	-41.8	12.0	5.39e-04	0	55	0	142606336	49	4723
2026-01-21 15:16:46.75	197.10	7.63	-38.8	-41.4	12.4	2.17e-04	0	54	0	149946368	48	4792
2026-01-21 15:16:47.76	197.18	7.71	-38.8	-41.4	12.4	2.63e-04	0	54	0	157286400	48	4794
2026-01-21 15:16:48.77	197.25	7.78	-38.5	-41.0	12.8	9.95e-05	0	55	0	164626432	48	4596
2026-01-21 15:16:49.78	197.32	7.85	-38.6	-41.0	12.8	9.38e-05	0	55	0	171966464	48	4588
2026-01-21 15:16:50.79	197.40	7.92	-38.8	-41.4	12.4	9.95e-05	0	55	0	178257920	48	4761
2026-01-21 15:16:51.80	197.47	8.00	-38.9	-41.5	12.3	1.29e-04	0	55	0	186646528	48	4853
2026-01-21 15:16:52.81	197.55	8.07	-39.1	-41.7	12.2	2.07e-04	0	55	0	193986560	48	4964
2026-01-21 15:16:53.82	197.62	8.14	-43.0	-50.0	4.6	9.51e-02	0	55	0	200278016	55	8649
2026-01-21 15:16:54.83	197.70	8.22	-40.5	-43.8	10.3	8.00e-02	0	55	0	200278016	50	5620
2026-01-21 15:16:55.84	197.77	8.29	-40.1	-43.0	11.0	1.51e-03	0	55	0	207618048	50	5156
2026-01-21 15:16:56.85	197.85	8.37	-42.1	-47.2	6.7	3.59e-04	0	55	0	216006656	53	6964
2026-01-21 15:16:57.86	197.92	8.44	-38.5	-40.9	13.0	1.09e-03	0	55	0	222298112	48	4531
2026-01-21 15:16:58.87	198.00	8.52	-38.5	-41.0	12.8	7.20e-05	0	55	0	229638144	47	4842
2026-01-21 15:16:59.88	198.08	8.59	-38.4	-40.9	12.9	5.60e-05	0	55	0	236978176	47	4781
2026-01-21 15:17:00.89	198.16	8.66	-38.3	-40.8	13.0	3.89e-05	0	55	0	243269632	47	4712
2026-01-21 15:17:01.90	198.23	8.74	-38.3	-40.7	13.1	2.51e-05	0	55	0	251658240	47	4660
2026-01-21 15:17:02.91	198.31	8.81	-38.3	-40.8	13.0	5.49e-05	0	55	0	258998272	47	4708
2026-01-21 15:17:03.92	198.39	8.89	-38.4	-40.8	13.0	3.43e-05	0	55	0	265289728	47	4757
2026-01-21 15:17:04.93	198.47	8.97	-38.3	-40.7	13.1	4.57e-05	0	55	0	272629760	47	4699
2026-01-21 15:17:05.94	198.55	9.04	-38.0	-40.3	13.6	1.48e-05	0	55	0	279969792	47	4473
2026-01-21 15:17:06.95	198.63	9.12	-38.1	-40.4	13.5	1.25e-05	0	55	0	287309824	47	4521
2026-01-21 15:17:07.96	198.71	9.19	-37.8	-40.1	13.8	1.02e-05	0	55	0	294649856	46	4607
2026-01-21 15:17:08.97	198.79	9.27	-38.0	-40.3	13.6	1.37e-05	0	55	0	301989888	46	4745
2026-01-21 15:17:09.98	198.87	9.35	-38.0	-40.3	13.6	8.00e-06	0	55	0	309329920	46	4733
2026-01-21 15:17:10.99	198.95	9.42	-38.0	-40.2	13.7	1.14e-05	0	55	0	316669952	46	4693
2026-01-21 15:17:12.00	199.04	9.50	-37.9	-40.1	13.8	6.80e-06	0	56	0	324009984	46	4631
2026-01-21 15:17:13.01	199.12	9.58	-37.9	-40.1	13.8	4.50e-06	0	55	0	331350016	46	4631
2026-01-21 15:17:14.02	199.20	9.65	-38.0	-40.2	13.7	3.40e-06	0	56	0	338690048	46	4675
2026-01-21 15:17:15.03	199.28	9.73	-37.8	-40.0	14.0	6.80e-06	0	55	0	346030080	46	4565
2026-01-21 15:17:16.04	199.37	9.81	-38.0	-40.2	13.7	4.50e-06	0	55	0	353370112	46	4703
2026-01-21 15:17:17.05	199.45	9.89	-37.9	-40.1	13.8	1.02e-05	0	55	0	360710144	46	4640
2026-01-21 15:17:18.06	199.54	9.96	-37.9	-40.1	13.9	2.20e-06	0	55	0	368050176	46	4619
2026-01-21 15:17:19.07	199.62	10.04	-38.1	-40.4	13.6	8.00e-06	0	56	0	375390208	46	4801
2026-01-21 15:17:20.08	199.71	10.12	-37.9	-40.2	13.8	5.70e-06	0	55	0	382730240	46	4683
2026-01-21 15:17:21.09	199.79	10.20	-37.9	-40.1	13.9	6.80e-06	0	56	0	390070272	46	4642
2026-01-21 15:17:22.10	199.88	10.28	-37.8	-40.0	14.0	3.40e-06	0	56	0	397410304	46	4575
2026-01-21 15:17:23.10	199.97	10.36	-37.9	-40.2	13.9	6.80e-06	0	56	0	404750336	46	4669
2026-01-21 15:17:24.11	200.05	10.44	-38.0	-40.3	13.8	8.00e-06	0	56	0	412090368	46	4726
2026-01-21 15:17:25.12	200.14	10.52	-37.9	-40.2	13.9	8.00e-06	0	56	0	418381824	46	4654
2026-01-21 15:17:26.13	200.23	10.59	-37.9	-40.1	13.9	6.80e-06	0	56	0	425721856	46	4645
2026-01-21 15:17:27.14	200.32	10.67	-37.9	-40.1	14.0	1.10e-06	0	56	0	433061888	46	4636
2026-01-21 15:17:28.15	200.41	10.75	-37.9	-40.1	14.0	3.40e-06	0	56	0	440401920	46	4624
2026-01-21 15:17:29.16	200.50	10.83	-38.0	-40.3	13.8	4.50e-06	0	56	0	447741952	46	4730
2026-01-21 15:17:30.17	200.59	10.91	-37.8	-40.0	14.1	4.50e-06	0	56	0	455081984	46	4558
2026-01-21 15:17:31.18	200.68	11.00	-37.9	-40.1	14.0	3.40e-06	0	56	0	462422016	46	4638
2026-01-21 15:17:32.19	200.77	11.08	-38.0	-40.2	13.9	3.40e-06	0	56	0	469762048	46	4693
2026-01-21 15:17:33.20	200.86	11.16	-37.9	-40.1	14.1	2.20e-06	0	56	0	477102080	46	4605
2026-01-21 15:17:34.21	200.95	11.24	-37.9	-40.1	14.0	2.20e-06	0	56	0	484442112	46	4622
2026-01-21 15:17:35.22	201.04	11.32	-37.9	-40.0	14.1	1.10e-06	0	56	0	491782144	46	4591
2026-01-21 15:17:36.23	201.14	11.40	-38.0	-40.1	14.0	2.20e-06	0	56	0	499122176	46	4650
2026-01-21 15:17:37.23	201.23	11.48	-37.9	-40.0	14.1	1.10e-06	0	56	0	506462208	46	4587
2026-01-21 15:17:38.25	201.32	11.56	-37.9	-40.0	14.2	2.20e-06	0	56	0	513802240	46	4563
2026-01-21 15:17:39.26	201.42	11.65	-38.0	-40.1	14.1	4.50e-06	0	56	0	521142272	46	4643
2026-01-21 15:17:40.27	201.51	11.73	-37.8	-39.9	14.2	0.00e+00	0	56	0	528482304	46	4532
2026-01-21 15:17:41.27	201.61	11.81	-37.9	-40.0	14.2	3.40e-06	0	56	0	535822336	46	4579
2026-01-21 15:17:42.28	201.70	11.89	-37.9	-40.0	14.2	1.10e-06	0	56	0	542113792	46	4597
2026-01-21 15:17:43.29	201.80	11.98	-37.8	-39.9	14.4	0.00e+00	0	56	0	549453824	46	4501
2026-01-21 15:17:44.30	201.90	12.06	-37.9	-40.0	14.2	0.00e+00	0	56	0	557842432	46	4570
2026-01-21 15:17:45.31	201.99	12.14	-37.8	-39.9	14.3	1.10e-06	0	56	0	564133888	46	4531
2026-01-21 15:17:46.32	202.09	12.23	-37.9	-40.0	14.2	0.00e+00	0	56	0	571473920	46	4569
2026-01-21 15:17:47.33	202.19	12.31	-37.8	-39.8	14.4	1.10e-06	0	56	0	578813952	46	4490
2026-01-21 15:17:48.35	202.29	12.40	-37.8	-39.9	14.4	0.00e+00	0	56	0	586153984	46	4517
2026-01-21 15:17:49.35	202.39	12.48	-37.7	-39.7	14.6	0.00e+00	0	56	0	593494016	46	4426
2026-01-21 15:17:50.36	202.49	12.56	-37.8	-39.9	14.4	0.00e+00	0	56	0	600834048	46	4503
2026-01-21 15:17:51.37	202.59	12.65	-37.7	-39.7	14.6	0.00e+00	0	56	0	608174080	46	4424
2026-01-21 15:17:52.38	202.69	12.73	-37.6	-39.7	14.6	0.00e+00	0	56	0	615514112	46	4392
2026-01-21 15:17:53.39	202.79	12.82	-37.7	-39.6	14.6	0.00e+00	0	56	0	622854144	46	4384
2026-01-21 15:17:54.40	202.90	12.90	-37.6	-39.6	14.8	1.10e-06	0	56	0	630194176	46	4367
2026-01-21 15:17:55.41	203.00	12.99	-37.7	-39.7	14.6	1.10e-06	0	56	0	637534208	46	4438
2026-01-21 15:17:56.42	203.10	13.08	-37.7	-39.7	14.7	0.00e+00	0	57	0	644874240	46	4400
2026-01-21 15:17:57.43	203.21	13.16	-37.7	-39.7	14.7	1.10e-06	0	56	0	652214272	46	4403
2026-01-21 15:17:58.44	203.31	13.25	-37.6	-39.5	14.8	0.00e+00	0	56	0	659554304	46	4319
2026-01-21 15:17:59.45	203.42	13.33	-37.5	-39.5	14.9	1.10e-06	0	56	0	666894336	46	4292
2026-01-21 15:18:00.46	203.52	13.42	-37.5	-39.5	14.9	1.10e-06	0	56	0	674234368	45	4546
2026-01-21 15:18:01.47	203.63	13.51	-37.4	-39.4	15.0	0.00e+00	0	56	0	681574400	45	4506
2026-01-21 15:18:02.48	203.74	13.60	-37.4	-39.3	15.1	0.00e+00	0	56	0	688914432	45	4455
2026-01-21 15:18:03.49	203.84	13.68	-37.5	-39.4	14.9	0.00e+00	0	56	0	695205888	45	4536
2026-01-21 15:18:04.50	203.95	13.77	-37.4	-39.3	15.0	0.00e+00	0	56	0	703594496	45	4484
2026-01-21 15:18:05.51	204.06	13.86	-37.4	-39.4	15.0	0.00e+00	0	56	0	710934528	45	4520
2026-01-21 15:18:06.52	204.17	13.95	-37.4	-39.4	15.0	0.00e+00	0	56	0	717225984	45	4520
2026-01-21 15:18:07.53	204.28	14.03	-37.4	-39.3	15.0	0.00e+00	0	57	0	724566016	45	4491
2026-01-21 15:18:08.54	204.39	14.12	-37.4	-39.3	15.0	0.00e+00	0	57	0	731906048	45	4479
2026-01-21 15:18:09.55	204.50	14.21	-37.3	-39.3	15.1	1.10e-06	0	56	0	739246080	45	4480
2026-01-21 15:18:10.56	204.62	14.30	-37.4	-39.4	15.0	0.00e+00	0	57	0	746586112	45	4506
2026-01-21 15:18:11.57	204.73	14.39	-37.3	-39.2	15.2	0.00e+00	0	57	0	753926144	45	4434
2026-01-21 15:18:12.58	204.84	14.48	-37.3	-39.3	15.1	0.00e+00	0	56	0	761266176	45	4475
2026-01-21 15:18:13.59	204.96	14.57	-37.2	-39.2	15.2	0.00e+00	0	57	0	768606208	45	4421
2026-01-21 15:18:14.60	205.07	14.66	-37.2	-39.1	15.3	0.00e+00	0	57	0	775946240	45	4381
2026-01-21 15:18:15.61	205.19	14.75	-37.2	-39.1	15.3	1.10e-06	0	57	0	783286272	45	4369
2026-01-21 15:18:16.62	205.30	14.84	-37.1	-39.0	15.4	0.00e+00	0	57	0	790626304	45	4340
2026-01-21 15:18:17.63	205.42	14.93	-37.1	-39.1	15.3	0.00e+00	0	57	0	797966336	45	4372
2026-01-21 15:18:18.65	205.54	15.02	-37.2	-39.2	15.3	0.00e+00	0	57	0	805306368	45	4408
2026-01-21 15:18:19.66	205.66	15.11	-37.0	-39.0	15.5	0.00e+00	0	57	0	812646400	45	4309
2026-01-21 15:18:20.67	205.78	15.20	-37.1	-39.1	15.4	0.00e+00	0	57	0	819986432	45	4357
2026-01-21 15:18:21.68	205.90	15.30	-37.0	-39.0	15.5	0.00e+00	0	57	0	827326464	44	4565
2026-01-21 15:18:22.69	206.02	15.39	-37.0	-39.0	15.4	0.00e+00	0	57	0	834666496	44	4587
2026-01-21 15:18:23.70	206.14	15.48	-37.1	-39.1	15.4	0.00e+00	0	57	0	842006528	44	4608
2026-01-21 15:18:24.71	206.26	15.57	-37.1	-39.2	15.3	1.10e-06	0	57	0	849346560	44	4655
2026-01-21 15:18:25.72	206.38	15.66	-37.0	-38.9	15.5	0.00e+00	0	57	0	856686592	44	4543
2026-01-21 15:18:26.73	206.51	15.76	-37.1	-39.1	15.3	0.00e+00	0	57	0	862978048	44	4637
2026-01-21 15:18:27.74	206.63	15.85	-37.0	-39.1	15.4	0.00e+00	0	57	0	870318080	44	4604
2026-01-21 15:18:28.75	206.75	15.94	-36.9	-38.9	15.5	0.00e+00	0	57	0	878706688	44	4525
2026-01-21 15:18:29.76	206.88	16.04	-36.9	-38.9	15.5	0.00e+00	0	57	0	884998144	44	4539
2026-01-21 15:18:30.77	207.01	16.13	-36.8	-38.8	15.6	0.00e+00	0	57	0	892338176	44	4470
2026-01-21 15:18:31.78	207.13	16.22	-36.9	-38.8	15.6	0.00e+00	0	57	0	899678208	44	4486
2026-01-21 15:18:32.79	207.26	16.32	-36.8	-38.9	15.6	0.00e+00	0	57	0	907018240	44	4495
2026-01-21 15:18:33.80	207.39	16.41	-36.8	-38.8	15.7	0.00e+00	0	57	0	914358272	44	4454
2026-01-21 15:18:34.82	207.52	16.51	-36.8	-38.7	15.7	0.00e+00	0	57	0	921698304	44	4433
2026-01-21 15:18:35.82	207.65	16.60	-36.7	-38.7	15.8	0.00e+00	0	57	0	929038336	44	4404
2026-01-21 15:18:36.84	207.78	16.70	-36.7	-38.7	15.7	0.00e+00	0	57	0	936378368	44	4415
2026-01-21 15:18:37.84	207.91	16.79	-36.8	-38.7	15.7	0.00e+00	0	57	0	943718400	44	4436
2026-01-21 15:18:38.85	208.04	16.89	-36.6	-38.6	15.9	0.00e+00	0	57	0	951058432	44	4348
2026-01-21 15:18:39.86	208.18	16.98	-36.6	-38.5	15.9	0.00e+00	0	57	0	958398464	44	4333
2026-01-21 15:18:40.87	208.31	17.08	-36.6	-38.5	15.9	0.00e+00	0	57	0	965738496	44	4323
2026-01-21 15:18:41.88	208.45	17.17	-36.5	-38.4	16.1	0.00e+00	0	57	0	973078528	44	4262
2026-01-21 15:18:42.89	208.58	17.27	-36.3	-38.2	16.1	0.00e+00	0	57	0	980418560	43	4393
2026-01-21 15:18:43.90	208.72	17.37	-36.3	-38.1	16.2	0.00e+00	0	57	0	987758592	43	4375
2026-01-21 15:18:44.91	208.86	17.46	-36.3	-38.1	16.1	0.00e+00	0	57	0	995098624	43	4373
2026-01-21 15:18:45.92	209.00	17.56	-36.4	-38.3	16.1	0.00e+00	0	57	0	1002438656	43	4446
2026-01-21 15:18:46.93	209.14	17.66	-36.3	-38.1	16.2	0.00e+00	0	57	0	1009778688	43	4378
2026-01-21 15:18:47.94	209.28	17.75	-36.2	-38.0	16.2	0.00e+00	0	57	0	1016070144	43	4325
2026-01-21 15:18:48.95	209.42	17.85	-36.2	-38.0	16.3	0.00e+00	0	57	0	1024458752	43	4298
2026-01-21 15:18:49.96	209.56	17.95	-36.3	-38.2	16.1	0.00e+00	0	57	0	1031798784	43	4412
2026-01-21 15:18:50.97	209.70	18.05	-36.3	-38.2	16.1	0.00e+00	0	57	0	1038090240	43	4394
2026-01-21 15:18:51.98	209.85	18.15	-36.4	-38.3	16.0	0.00e+00	0	57	0	1045430272	43	4457
2026-01-21 15:18:52.99	209.99	18.25	-36.3	-38.2	16.1	0.00e+00	0	57	0	1052770304	43	4408
2026-01-21 15:18:54.00	210.14	18.34	-36.4	-38.3	16.1	0.00e+00	0	57	0	1060110336	43	4469
2026-01-21 15:18:55.01	210.28	18.44	-36.4	-38.2	16.1	0.00e+00	0	57	0	1067450368	43	4439
2026-01-21 15:18:56.01	210.43	18.54	-36.4	-38.3	16.1	0.00e+00	0	57	0	1074790400	43	4453
2026-01-21 15:18:57.02	210.58	18.64	-36.2	-38.1	16.2	0.00e+00	0	57	0	1082130432	43	4343
2026-01-21 15:18:58.03	210.73	18.74	-36.3	-38.1	16.3	0.00e+00	0	57	0	1089470464	43	4359
2026-01-21 15:18:59.04	210.88	18.84	-36.2	-38.0	16.3	0.00e+00	0	57	0	1096810496	43	4310
2026-01-21 15:19:00.05	211.03	18.94	-36.2	-38.0	16.3	0.00e+00	0	57	0	1104150528	43	4313
2026-01-21 15:19:01.06	211.18	19.04	-36.3	-38.1	16.3	0.00e+00	0	57	0	1111490560	43	4350
2026-01-21 15:19:02.07	211.33	19.14	-36.2	-38.0	16.3	0.00e+00	0	57	0	1118830592	43	4324
2026-01-21 15:19:03.08	211.49	19.24	-36.1	-37.9	16.5	0.00e+00	0	57	0	1126170624	43	4252
2026-01-21 15:19:04.09	211.64	19.34	-36.1	-37.9	16.5	0.00e+00	0	57	0	1133510656	43	4246
2026-01-21 15:19:05.10	211.80	19.44	-36.0	-37.7	16.6	0.00e+00	0	58	0	1140850688	43	4191
2026-01-21 15:19:06.11	211.96	19.54	-36.0	-37.7	16.7	0.00e+00	0	58	0	1148190720	42	4404
2026-01-21 15:19:07.13	212.12	19.65	-36.0	-37.7	16.7	0.00e+00	0	57	0	1155530752	42	4411
2026-01-21 15:19:08.14	212.28	19.75	-35.9	-37.6	16.8	0.00e+00	0	58	0	1161822208	42	4360
2026-01-21 15:19:09.15	212.44	19.85	-35.9	-37.6	16.8	0.00e+00	0	58	0	1170210816	42	4355
2026-01-21 15:19:10.16	212.60	19.95	-35.8	-37.5	16.9	0.00e+00	0	58	0	1177550848	42	4332
2026-01-21 15:19:11.17	212.76	20.06	-35.8	-37.5	16.9	0.00e+00	0	57	0	1183842304	42	4314
2026-01-21 15:19:12.18	212.92	20.16	-35.8	-37.6	16.8	0.00e+00	0	58	0	1191182336	42	4342
2026-01-21 15:19:13.19	213.09	20.26	-35.9	-37.7	16.7	0.00e+00	0	58	0	1198522368	42	4400
2026-01-21 15:19:14.20	213.25	20.36	-35.8	-37.6	16.8	0.00e+00	0	57	0	1205862400	42	4341
2026-01-21 15:19:15.21	213.42	20.47	-35.9	-37.6	16.8	0.00e+00	0	58	0	1213202432	42	4373
2026-01-21 15:19:16.22	213.59	20.57	-35.9	-37.7	16.7	0.00e+00	0	58	0	1220542464	42	4404
2026-01-21 15:19:17.23	213.76	20.67	-36.0	-37.7	16.7	0.00e+00	0	58	0	1227882496	42	4430
2026-01-21 15:19:18.24	213.93	20.78	-36.0	-37.7	16.7	0.00e+00	0	57	0	1235222528	42	4427
2026-01-21 15:19:19.25	214.10	20.88	-35.9	-37.7	16.7	0.00e+00	0	58	0	1242562560	42	4406
2026-01-21 15:19:20.26	214.27	20.98	-36.0	-37.7	16.7	0.00e+00	0	58	0	1249902592	42	4428
2026-01-21 15:19:21.27	214.44	21.09	-36.1	-37.8	16.6	0.00e+00	0	58	0	1257242624	42	4491
2026-01-21 15:19:22.29	214.62	21.19	-35.9	-37.7	16.7	0.00e+00	0	58	0	1264582656	42	4432
2026-01-21 15:19:23.30	214.80	21.30	-35.8	-37.6	16.8	0.00e+00	0	58	0	1271922688	42	4374
2026-01-21 15:19:24.31	214.97	21.40	-35.9	-37.7	16.8	0.00e+00	0	58	0	1279262720	42	4405
2026-01-21 15:19:25.32	215.15	21.51	-35.8	-37.6	16.8	0.00e+00	0	58	0	1286602752	42	4376
2026-01-21 15:19:26.33	215.33	21.61	-35.9	-37.6	16.8	0.00e+00	0	58	0	1293942784	42	4388
2026-01-21 15:19:27.34	215.51	21.72	-35.8	-37.6	16.8	0.00e+00	0	58	0	1301282816	42	4357
2026-01-21 15:19:28.35	215.69	21.82	-35.8	-37.5	16.9	0.00e+00	0	58	0	1308622848	42	4320
2026-01-21 15:19:29.36	215.88	21.93	-35.7	-37.5	17.0	0.00e+00	0	58	0	1315962880	42	4300
2026-01-21 15:19:30.37	216.06	22.03	-35.7	-37.4	17.0	0.00e+00	0	58	0	1323302912	42	4276
2026-01-21 15:19:31.38	216.24	22.14	-35.7	-37.4	17.0	0.00e+00	0	58	0	1330642944	42	4259
2026-01-21 15:19:32.39	216.43	22.25	-35.6	-37.3	17.1	0.00e+00	0	58	0	1336934400	42	4230
2026-01-21 15:19:33.40	216.62	22.35	-35.5	-37.2	17.2	0.00e+00	0	58	0	1344274432	42	4175
2026-01-21 15:19:34.40	216.81	22.46	-35.6	-37.3	17.2	0.00e+00	0	58	0	1352663040	42	4196
2026-01-21 15:19:35.41	217.00	22.56	-35.5	-37.2	17.2	0.00e+00	0	58	0	1358954496	42	4190
2026-01-21 15:19:36.42	217.19	22.67	-35.5	-37.2	17.2	0.00e+00	0	58	0	1366294528	42	4181
2026-01-21 15:19:37.43	217.38	22.78	-35.4	-37.1	17.2	0.00e+00	0	58	0	1373634560	41	4381
2026-01-21 15:19:38.44	217.57	22.88	-35.5	-37.2	17.2	0.00e+00	0	58	0	1380974592	41	4397
2026-01-21 15:19:39.45	217.77	22.99	-35.4	-37.1	17.3	0.00e+00	0	58	0	1388314624	41	4352
2026-01-21 15:19:40.46	217.97	23.10	-35.4	-37.1	17.3	0.00e+00	0	58	0	1395654656	41	4344
2026-01-21 15:19:41.47	218.16	23.20	-35.2	-36.9	17.5	0.00e+00	0	58	0	1402994688	41	4273
2026-01-21 15:19:42.48	218.36	23.31	-35.2	-36.9	17.5	0.00e+00	0	58	0	1410334720	41	4247
2026-01-21 15:19:43.49	218.56	23.42	-35.2	-36.8	17.5	0.00e+00	0	58	0	1417674752	41	4229
2026-01-21 15:19:44.50	218.77	23.52	-35.2	-36.9	17.5	0.00e+00	0	58	0	1425014784	41	4265
2026-01-21 15:19:45.51	218.97	23.63	-35.3	-36.9	17.4	0.00e+00	0	58	0	1432354816	41	4284
2026-01-21 15:19:46.52	219.17	23.74	-35.2	-36.9	17.5	0.00e+00	0	58	0	1439694848	41	4263
2026-01-21 15:19:47.53	219.38	23.85	-35.3	-37.0	17.4	0.00e+00	0	58	0	1447034880	41	4303
2026-01-21 15:19:48.54	219.59	23.95	-35.3	-37.1	17.4	0.00e+00	0	58	0	1454374912	41	4341
2026-01-21 15:19:49.55	219.80	24.06	-35.4	-37.1	17.3	0.00e+00	0	58	0	1461714944	41	4343
2026-01-21 15:19:50.56	220.01	24.17	-35.4	-37.1	17.3	0.00e+00	0	58	0	1469054976	41	4361
2026-01-21 15:19:51.57	220.22	24.28	-35.4	-37.2	17.3	0.00e+00	0	58	0	1476395008	41	4396
2026-01-21 15:19:52.58	220.43	24.38	-35.3	-37.1	17.4	0.00e+00	0	58	0	1482686464	41	4348
2026-01-21 15:19:53.59	220.65	24.49	-35.3	-37.0	17.5	0.00e+00	0	58	0	1490026496	41	4304
2026-01-21 15:19:54.60	220.86	24.60	-35.2	-36.9	17.6	0.00e+00	0	58	0	1497366528	41	4244
2026-01-21 15:19:55.61	221.08	24.71	-35.3	-37.0	17.4	0.00e+00	0	58	0	1504706560	41	4307
2026-01-21 15:19:56.62	221.30	24.81	-35.3	-37.0	17.5	0.00e+00	0	58	0	1512046592	41	4300
2026-01-21 15:19:57.63	221.52	24.92	-35.4	-37.0	17.4	0.00e+00	0	58	0	1519386624	41	4333
2026-01-21 15:19:58.64	221.74	25.03	-35.4	-37.1	17.4	0.00e+00	0	58	0	1526726656	41	4351
2026-01-21 15:19:59.65	221.96	25.14	-35.4	-37.1	17.3	0.00e+00	0	58	0	1534066688	41	4385
2026-01-21 15:20:00.66	222.19	25.24	-35.4	-37.1	17.3	0.00e+00	0	58	0	1541406720	41	4375
2026-01-21 15:20:01.67	222.42	25.35	-35.4	-37.1	17.4	0.00e+00	0	58	0	1548746752	41	4345
2026-01-21 15:20:02.68	222.64	25.46	-35.3	-37.0	17.4	0.00e+00	0	58	0	1556086784	41	4323
2026-01-21 15:20:03.69	222.87	25.57	-35.4	-37.1	17.4	0.00e+00	0	58	0	1563426816	41	4341
2026-01-21 15:20:04.70	223.10	25.68	-35.2	-36.9	17.6	0.00e+00	0	58	0	1570766848	41	4253
2026-01-21 15:20:05.71	223.34	25.78	-35.3	-36.9	17.5	0.00e+00	0	58	0	1578106880	41	4285
2026-01-21 15:20:06.72	223.57	25.89	-35.3	-36.9	17.5	0.00e+00	0	58	0	1585446912	41	4280
2026-01-21 15:20:07.73	223.80	26.00	-35.2	-36.8	17.7	0.00e+00	0	58	0	1592786944	41	4213
2026-01-21 15:20:08.74	224.04	26.11	-35.1	-36.7	17.8	0.00e+00	0	58	0	1600126976	41	4168
2026-01-21 15:20:09.75	224.28	26.21	-35.2	-36.8	17.7	0.00e+00	0	58	0	1607467008	41	4211
2026-01-21 15:20:10.76	224.52	26.32	-35.0	-36.6	17.8	0.00e+00	0	58	0	1614807040	41	4129
2026-01-21 15:20:11.77	224.76	26.43	-35.1	-36.7	17.7	0.00e+00	0	58	0	1622147072	41	4174
2026-01-21 15:20:12.78	225.01	26.53	-35.0	-36.6	17.8	0.00e+00	0	58	0	1629487104	41	4132
2026-01-21 15:20:13.79	225.25	26.64	-35.0	-36.7	17.8	0.00e+00	0	58	0	1635778560	40	4403
2026-01-21 15:20:14.80	225.50	26.75	-35.0	-36.6	17.8	0.00e+00	0	58	0	1644167168	40	4368
2026-01-21 15:20:15.81	225.75	26.85	-35.0	-36.6	17.8	0.00e+00	0	58	0	1651507200	40	4377
2026-01-21 15:20:16.82	226.00	26.96	-35.0	-36.7	17.8	0.00e+00	0	58	0	1657798656	40	4398
2026-01-21 15:20:17.83	226.25	27.07	-35.0	-36.7	17.8	0.00e+00	0	58	0	1665138688	40	4408
2026-01-21 15:20:18.84	226.50	27.17	-35.0	-36.6	17.9	0.00e+00	0	58	0	1672478720	40	4363
2026-01-21 15:20:19.85	226.76	27.28	-35.0	-36.7	17.8	0.00e+00	0	58	0	1679818752	40	4395
2026-01-21 15:20:20.86	227.01	27.38	-35.1	-36.7	17.8	0.00e+00	0	58	0	1687158784	40	4414
2026-01-21 15:20:21.87	227.27	27.49	-35.1	-36.7	17.8	0.00e+00	0	58	0	1694498816	40	4435
2026-01-21 15:20:22.88	227.53	27.59	-35.1	-36.7	17.8	0.00e+00	0	58	0	1701838848	40	4411
2026-01-21 15:20:23.89	227.79	27.70	-35.0	-36.6	17.9	0.00e+00	0	58	0	1709178880	40	4374
2026-01-21 15:20:24.90	228.05	27.80	-34.9	-36.5	18.0	0.00e+00	0	58	0	1716518912	40	4326
2026-01-21 15:20:25.91	228.32	27.91	-35.0	-36.7	17.8	0.00e+00	0	58	0	1723858944	40	4399
2026-01-21 15:20:26.92	228.59	28.01	-35.0	-36.6	17.8	0.00e+00	0	58	0	1731198976	40	4387
2026-01-21 15:20:27.93	228.85	28.12	-35.1	-36.8	17.7	0.00e+00	0	58	0	1738539008	40	4452
2026-01-21 15:20:28.93	229.12	28.22	-34.9	-36.6	17.9	0.00e+00	0	58	0	1745879040	40	4366
2026-01-21 15:20:29.95	229.40	28.32	-34.9	-36.6	17.9	0.00e+00	0	58	0	1753219072	40	4355
2026-01-21 15:20:30.96	229.67	28.43	-34.9	-36.5	18.0	0.00e+00	0	58	0	1760559104	40	4302
2026-01-21 15:20:31.97	229.94	28.53	-34.8	-36.4	18.0	0.00e+00	0	58	0	1767899136	40	4258
2026-01-21 15:20:32.98	230.22	28.63	-34.8	-36.4	18.0	0.00e+00	0	58	0	1775239168	40	4271
2026-01-21 15:20:33.99	230.50	28.73	-34.8	-36.4	18.0	0.00e+00	0	58	0	1782579200	40	4263
2026-01-21 15:20:35.00	230.78	28.84	-34.7	-36.3	18.1	0.00e+00	0	58	0	1789919232	40	4234
2026-01-21 15:20:36.01	231.06	28.94	-34.7	-36.3	18.1	0.00e+00	0	58	0	1797259264	40	4235
2026-01-21 15:20:37.02	231.35	29.04	-34.7	-36.3	18.1	0.00e+00	0	58	0	1804599296	40	4228
2026-01-21 15:20:38.03	231.63	29.14	-34.7	-36.3	18.1	0.00e+00	0	58	0	1810890752	40	4226
2026-01-21 15:20:39.04	231.92	29.24	-34.8	-36.3	18.1	0.00e+00	0	58	0	1818230784	40	4239
2026-01-21 15:20:40.05	232.21	29.34	-34.9	-36.5	18.0	0.00e+00	0	58	0	1825570816	40	4298
2026-01-21 15:20:41.06	232.50	29.44	-34.9	-36.5	17.9	0.00e+00	0	58	0	1832910848	40	4320
2026-01-21 15:20:42.07	232.79	29.54	-34.9	-36.5	17.9	0.00e+00	0	58	0	1840250880	40	4326
2026-01-21 15:20:43.08	233.09	29.64	-35.0	-36.6	17.8	0.00e+00	0	58	0	1847590912	40	4367
2026-01-21 15:20:44.09	233.38	29.73	-35.0	-36.7	17.8	0.00e+00	0	58	0	1854930944	40	4403
2026-01-21 15:20:45.10	233.68	29.83	-35.0	-36.6	17.9	0.00e+00	0	58	0	1862270976	40	4363
2026-01-21 15:20:46.11	233.98	29.93	-34.9	-36.5	17.9	0.00e+00	0	58	0	1869611008	40	4340
2026-01-21 15:20:47.12	234.28	30.03	-35.0	-36.7	17.8	0.00e+00	0	58	0	1876951040	40	4418
2026-01-21 15:20:48.13	234.59	30.12	-34.8	-36.4	18.0	0.00e+00	0	58	0	1884291072	40	4287
2026-01-21 15:20:49.14	234.89	30.22	-34.9	-36.5	17.9	0.00e+00	0	58	0	1891631104	40	4310
2026-01-21 15:20:50.15	235.20	30.31	-34.8	-36.4	18.0	0.00e+00	0	58	0	1898971136	40	4277
2026-01-21 15:20:51.16	235.51	30.41	-34.8	-36.4	18.0	0.00e+00	0	58	0	1906311168	40	4279
2026-01-21 15:20:52.17	235.82	30.50	-34.8	-36.4	18.0	0.00e+00	0	58	0	1913651200	40	4289
2026-01-21 15:20:53.18	236.13	30.59	-34.8	-36.5	18.0	0.00e+00	0	58	0	1920991232	40	4298
2026-01-21 15:20:54.19	236.44	30.69	-34.9	-36.6	17.9	0.00e+00	0	58	0	1928331264	40	4368
2026-01-21 15:20:55.20	236.76	30.78	-34.8	-36.5	18.0	0.00e+00	0	58	0	1935671296	40	4309
2026-01-21 15:20:56.21	237.07	30.87	-34.7	-36.4	18.0	0.00e+00	0	59	0	1943011328	40	4264
2026-01-21 15:20:57.22	237.39	30.96	-34.7	-36.3	18.1	0.00e+00	0	58	0	1950351360	40	4239
2026-01-21 15:20:58.23	237.71	31.05	-34.8	-36.5	18.0	0.00e+00	0	58	0	1956642816	40	4299
2026-01-21 15:20:59.25	238.04	31.14	-34.7	-36.4	18.1	0.00e+00	0	59	0	1963982848	40	4246
2026-01-21 15:21:00.25	238.36	31.23	-34.7	-36.3	18.1	0.00e+00	0	58	0	1972371456	40	4224
2026-01-21 15:21:01.26	238.69	31.31	-34.7	-36.3	18.1	0.00e+00	0	58	0	1978662912	40	4211
2026-01-21 15:21:02.27	239.02	31.40	-34.7	-36.3	18.1	0.00e+00	0	58	0	1986002944	40	4207
2026-01-21 15:21:03.28	239.35	31.49	-34.8	-36.4	18.1	0.00e+00	0	58	0	1993342976	40	4257
2026-01-21 15:21:04.29	239.68	31.57	-34.8	-36.4	18.0	0.00e+00	0	58	0	2000683008	40	4259
2026-01-21 15:21:05.30	240.01	31.66	-34.7	-36.4	18.1	0.00e+00	0	58	0	2008023040	40	4247
2026-01-21 15:21:06.31	240.34	31.74	-34.7	-36.4	18.1	0.00e+00	0	58	0	2015363072	40	4245
2026-01-21 15:21:07.32	240.68	31.82	-34.9	-36.5	18.0	0.00e+00	0	58	0	2022703104	40	4318
2026-01-21 15:21:08.33	241.02	31.91	-34.9	-36.5	17.9	0.00e+00	0	58	0	2030043136	40	4331
2026-01-21 15:21:09.34	241.36	31.99	-34.9	-36.5	18.0	0.00e+00	0	58	0	2037383168	40	4322
2026-01-21 15:21:10.35	241.70	32.07	-34.9	-36.5	18.0	0.00e+00	0	58	0	2044723200	40	4333
2026-01-21 15:21:11.36	242.04	32.15	-34.9	-36.5	18.0	0.00e+00	0	58	0	2052063232	40	4332
2026-01-21 15:21:12.37	242.39	32.22	-34.9	-36.5	18.0	0.00e+00	0	58	0	2059403264	40	4321
2026-01-21 15:21:13.38	242.73	32.30	-34.8	-36.5	18.0	0.00e+00	0	58	0	2066743296	40	4311
2026-01-21 15:21:14.39	243.08	32.38	-34.7	-36.3	18.2	0.00e+00	0	58	0	2074083328	40	4213
2026-01-21 15:21:15.40	243.43	32.45	-34.6	-36.2	18.3	0.00e+00	0	58	0	2081423360	40	4165
2026-01-21 15:21:16.40	243.78	32.53	-34.6	-36.2	18.3	0.00e+00	0	59	0	2088763392	40	4180
2026-01-21 15:21:17.41	244.13	32.60	-34.6	-36.2	18.2	0.00e+00	0	58	0	2096103424	40	4163
2026-01-21 15:21:18.42	244.49	32.67	-34.7	-36.4	18.0	0.00e+00	0	59	0	2103443456	40	4281
2026-01-21 15:21:19.43	244.84	32.75	-34.8	-36.5	17.9	0.00e+00	0	58	0	2109734912	40	4337
2026-01-21 15:21:20.44	245.20	32.82	-34.9	-36.6	17.8	0.00e+00	0	58	0	2117074944	40	4389
2026-01-21 15:21:21.45	245.56	32.89	-34.9	-36.6	17.9	0.00e+00	0	59	0	2125463552	40	4346
2026-01-21 15:21:22.46	245.92	32.96	-34.8	-36.5	18.0	0.00e+00	0	59	0	2131755008	40	4299
2026-01-21 15:21:23.47	246.28	33.02	-34.8	-36.5	18.0	0.00e+00	0	58	0	2139095040	40	4298
2026-01-21 15:21:24.48	246.64	33.09	-34.8	-36.4	18.1	0.00e+00	0	59	0	2146435072	40	4281
2026-01-21 15:21:25.49	247.01	33.15	-34.7	-36.4	18.1	0.00e+00	0	59	0	2153775104	40	4243
2026-01-21 15:21:26.50	247.37	33.22	-34.7	-36.3	18.2	0.00e+00	0	58	0	2161115136	40	4200
2026-01-21 15:21:27.51	247.74	33.28	-34.7	-36.3	18.2	0.00e+00	0	59	0	2168455168	40	4214
2026-01-21 15:21:28.52	248.11	33.34	-34.7	-36.3	18.2	0.00e+00	0	58	0	2175795200	40	4195
2026-01-21 15:21:29.53	248.48	33.40	-34.6	-36.1	18.4	0.00e+00	0	59	0	2183135232	40	4140
2026-01-21 15:21:30.54	248.85	33.46	-34.5	-36.0	18.6	0.00e+00	0	59	0	2190475264	39	4301
2026-01-21 15:21:31.55	249.23	33.52	-34.5	-36.0	18.5	0.00e+00	0	58	0	2197815296	39	4339
2026-01-21 15:21:32.56	249.60	33.58	-34.6	-36.1	18.4	0.00e+00	0	58	0	2205155328	39	4378
2026-01-21 15:21:33.57	249.97	33.63	-34.7	-36.3	18.3	0.00e+00	0	58	0	2212495360	39	4484
2026-01-21 15:21:34.58	250.35	33.69	-34.8	-36.4	18.2	0.00e+00	0	58	0	2219835392	39	4524
2026-01-21 15:21:35.58	250.73	33.74	-34.9	-36.5	18.1	0.00e+00	0	58	0	2227175424	39	4573
2026-01-21 15:21:36.59	251.10	33.79	-34.9	-36.6	18.0	0.00e+00	0	58	0	2233466880	39	4604
2026-01-21 15:21:37.60	251.49	33.84	-34.8	-36.5	18.1	0.00e+00	0	58	0	2241855488	39	4567
2026-01-21 15:21:38.61	251.87	33.89	-34.8	-36.5	18.1	0.00e+00	0	59	0	2249195520	39	4560
2026-01-21 15:21:39.62	252.25	33.94	-34.8	-36.4	18.1	0.00e+00	0	58	0	2255486976	39	4542
2026-01-21 15:21:40.63	252.63	33.99	-35.0	-36.6	17.9	0.00e+00	0	58	0	2262827008	39	4648
2026-01-21 15:21:41.64	253.02	34.03	-35.0	-36.8	17.8	0.00e+00	0	59	0	2270167040	39	4706
2026-01-21 15:21:42.65	253.40	34.08	-35.0	-36.7	17.8	0.00e+00	0	58	0	2277507072	39	4688
2026-01-21 15:21:43.65	253.79	34.12	-35.0	-36.6	17.9	0.00e+00	0	59	0	2284847104	39	4650
2026-01-21 15:21:44.66	254.17	34.16	-34.8	-36.4	18.1	0.00e+00	0	59	0	2292187136	39	4537
2026-01-21 15:21:45.67	254.56	34.20	-34.8	-36.4	18.2	0.00e+00	0	58	0	2299527168	39	4511
2026-01-21 15:21:46.68	254.95	34.24	-34.7	-36.3	18.3	0.00e+00	0	59	0	2306867200	39	4462
2026-01-21 15:21:47.69	255.34	34.28	-34.6	-36.2	18.4	0.00e+00	0	58	0	2314207232	39	4392
2026-01-21 15:21:48.70	255.73	34.31	-34.5	-36.0	18.5	0.00e+00	0	59	0	2321547264	39	4321
2026-01-21 15:21:49.71	256.13	34.35	-34.6	-36.2	18.4	0.00e+00	0	59	0	2328887296	39	4402
2026-01-21 15:21:50.73	256.52	34.38	-34.6	-36.2	18.4	0.00e+00	0	59	0	2336227328	39	4406
2026-01-21 15:21:51.73	256.91	34.41	-34.8	-36.4	18.2	0.00e+00	0	59	0	2343567360	39	4523
2026-01-21 15:21:52.75	257.31	34.44	-34.9	-36.5	18.2	0.00e+00	0	59	0	2350907392	39	4564
2026-01-21 15:21:53.76	257.71	34.47	-34.9	-36.5	18.1	0.00e+00	0	59	0	2358247424	39	4575
2026-01-21 15:21:54.77	258.10	34.49	-35.2	-36.3	18.6	0.00e+00	0	59	0	2365587456	40	4236
2026-01-21 15:21:55.78	258.50	34.52	-35.2	-36.3	18.7	0.00e+00	0	59	0	2372927488	40	4214
2026-01-21 15:21:56.79	258.90	34.54	-35.3	-36.4	18.6	0.00e+00	0	59	0	2380267520	40	4270
2026-01-21 15:21:57.80	259.29	34.57	-35.4	-36.5	18.5	0.00e+00	0	58	0	2387607552	40	4319
2026-01-21 15:21:58.81	259.69	34.59	-35.4	-36.6	18.4	0.00e+00	0	58	0	2394947584	40	4354
2026-01-21 15:21:59.81	260.09	34.61	-35.5	-36.7	18.3	0.00e+00	0	58	0	2402287616	40	4413
2026-01-21 15:22:00.82	260.48	34.62	-35.6	-36.7	18.3	0.00e+00	0	59	0	2408579072	40	4440
2026-01-21 15:22:01.83	260.88	34.64	-35.4	-36.6	18.4	0.00e+00	0	59	0	2415919104	40	4378
2026-01-21 15:22:02.84	261.28	34.66	-35.4	-36.6	18.4	0.00e+00	0	59	0	2423259136	40	4344
2026-01-21 15:22:03.85	261.68	34.67	-35.3	-36.4	18.5	0.00e+00	0	59	0	2430599168	40	4278
2026-01-21 15:22:04.86	262.08	34.68	-35.3	-36.4	18.6	0.00e+00	0	59	0	2437939200	40	4281
2026-01-21 15:22:05.87	262.48	34.69	-35.2	-36.4	18.6	0.00e+00	0	58	0	2445279232	40	4255
2026-01-21 15:22:06.88	262.88	34.70	-35.3	-36.4	18.6	0.00e+00	0	59	0	2452619264	40	4280
2026-01-21 15:22:07.89	263.29	34.71	-35.3	-36.5	18.5	0.00e+00	0	59	0	2459959296	40	4307
2026-01-21 15:22:08.90	263.69	34.71	-35.4	-36.6	18.4	0.00e+00	0	59	0	2467299328	40	4350
2026-01-21 15:22:09.91	264.09	34.72	-35.3	-36.4	18.6	0.00e+00	0	59	0	2474639360	40	4277
2026-01-21 15:22:10.92	264.49	34.72	-35.4	-36.6	18.4	0.00e+00	0	59	0	2481979392	40	4350
2026-01-21 15:22:11.93	264.89	34.72	-35.2	-36.3	18.7	0.00e+00	0	59	0	2489319424	40	4239
2026-01-21 15:22:12.94	265.29	34.72	-35.2	-36.4	18.6	0.00e+00	0	59	0	2496659456	40	4256
2026-01-21 15:22:13.95	265.69	34.72	-35.2	-36.4	18.6	0.00e+00	0	59	0	2503999488	40	4247
2026-01-21 15:22:14.96	266.09	34.71	-35.3	-36.5	18.6	0.00e+00	0	59	0	2511339520	40	4298
2026-01-21 15:22:15.97	266.50	34.71	-35.3	-36.5	18.5	0.00e+00	0	59	0	2518679552	40	4310
2026-01-21 15:22:16.97	266.89	34.70	-35.3	-36.5	18.6	0.00e+00	0	59	0	2526019584	40	4295
2026-01-21 15:22:17.98	267.29	34.70	-35.3	-36.5	18.5	0.00e+00	0	59	0	2532311040	40	4293
2026-01-21 15:22:18.99	267.69	34.69	-35.2	-36.4	18.6	0.00e+00	0	59	0	2539651072	40	4243
2026-01-21 15:22:20.00	268.09	34.67	-35.3	-36.5	18.5	0.00e+00	0	59	0	2548039680	40	4307
2026-01-21 15:22:21.01	268.49	34.66	-35.2	-36.4	18.6	0.00e+00	0	59	0	2554331136	40	4255
2026-01-21 15:22:22.02	268.89	34.65	-35.3	-36.5	18.5	0.00e+00	0	59	0	2561671168	40	4299
2026-01-21 15:22:23.03	269.29	34.63	-35.3	-36.4	18.6	0.00e+00	0	58	0	2569011200	40	4264
2026-01-21 15:22:24.04	269.69	34.61	-35.3	-36.4	18.6	0.00e+00	0	58	0	2576351232	40	4290
2026-01-21 15:22:25.05	270.09	34.60	-35.2	-36.4	18.6	0.00e+00	0	59	0	2583691264	40	4253
2026-01-21 15:22:26.06	270.49	34.58	-35.3	-36.5	18.5	0.00e+00	0	59	0	2591031296	40	4298
2026-01-21 15:22:27.07	270.89	34.55	-35.4	-36.6	18.4	0.00e+00	0	59	0	2598371328	40	4348
2026-01-21 15:22:28.08	271.28	34.53	-35.3	-36.4	18.6	0.00e+00	0	58	0	2605711360	40	4276
2026-01-21 15:22:29.09	271.68	34.51	-35.3	-36.5	18.5	0.00e+00	0	59	0	2613051392	40	4299
2026-01-21 15:22:30.10	272.07	34.48	-35.4	-36.6	18.4	0.00e+00	0	59	0	2620391424	40	4358
2026-01-21 15:22:31.11	272.47	34.45	-35.4	-36.5	18.5	0.00e+00	0	58	0	2627731456	40	4318
2026-01-21 15:22:32.12	272.86	34.42	-35.4	-36.5	18.5	0.00e+00	0	59	0	2635071488	40	4340
2026-01-21 15:22:33.13	273.26	34.39	-35.4	-36.6	18.4	0.00e+00	0	59	0	2642411520	40	4366
2026-01-21 15:22:34.15	273.65	34.36	-35.4	-36.5	18.5	0.00e+00	0	58	0	2649751552	40	4321
2026-01-21 15:22:35.16	274.05	34.33	-35.2	-36.4	18.7	0.00e+00	0	59	0	2657091584	40	4253
2026-01-21 15:22:36.17	274.44	34.29	-35.2	-36.3	18.7	0.00e+00	0	59	0	2664431616	40	4210
2026-01-21 15:22:37.18	274.83	34.25	-35.1	-36.2	18.8	0.00e+00	0	59	0	2671771648	40	4162
2026-01-21 15:22:38.19	275.22	34.22	-35.0	-36.2	18.8	0.00e+00	0	59	0	2679111680	40	4146
2026-01-21 15:22:39.20	275.61	34.18	-35.2	-36.4	18.7	0.00e+00	0	59	0	2686451712	40	4251
2026-01-21 15:22:40.21	275.99	34.14	-35.2	-36.3	18.6	0.00e+00	0	59	0	2693791744	40	4239
2026-01-21 15:22:41.22	276.38	34.09	-35.3	-36.5	18.6	0.00e+00	0	59	0	2701131776	40	4298
2026-01-21 15:22:42.23	276.77	34.05	-35.5	-36.6	18.4	0.00e+00	0	59	0	2707423232	40	4381
2026-01-21 15:22:43.24	277.15	34.01	-35.3	-36.5	18.5	0.00e+00	0	59	0	2714763264	40	4310
2026-01-21 15:22:44.25	277.53	33.96	-35.3	-36.4	18.6	0.00e+00	0	59	0	2723151872	40	4263
2026-01-21 15:22:45.26	277.92	33.91	-35.3	-36.4	18.6	0.00e+00	0	59	0	2729443328	40	4258
2026-01-21 15:22:46.27	278.30	33.86	-35.3	-36.4	18.6	0.00e+00	0	59	0	2736783360	40	4270
2026-01-21 15:22:47.28	278.68	33.81	-35.3	-36.5	18.5	0.00e+00	0	58	0	2744123392	40	4302
2026-01-21 15:22:48.29	279.06	33.76	-35.3	-36.5	18.6	0.00e+00	0	59	0	2751463424	40	4297
2026-01-21 15:22:49.30	279.43	33.71	-35.3	-36.5	18.5	0.00e+00	0	59	0	2758803456	40	4312
2026-01-21 15:22:50.31	279.81	33.66	-35.3	-36.4	18.6	0.00e+00	0	58	0	2766143488	40	4288
2026-01-21 15:22:51.32	280.19	33.60	-35.3	-36.4	18.6	0.00e+00	0	59	0	2773483520	40	4266
2026-01-21 15:22:52.32	280.56	33.55	-35.3	-36.4	18.6	0.00e+00	0	59	0	2780823552	40	4277
2026-01-21 15:22:53.33	280.93	33.49	-35.3	-36.4	18.6	0.00e+00	0	59	0	2788163584	40	4260
2026-01-21 15:22:54.34	281.30	33.43	-35.3	-36.4	18.6	0.00e+00	0	59	0	2795503616	40	4261
2026-01-21 15:22:55.35	281.67	33.37	-35.2	-36.4	18.6	0.00e+00	0	59	0	2802843648	40	4250
2026-01-21 15:22:56.36	282.04	33.31	-35.3	-36.4	18.6	0.00e+00	0	59	0	2810183680	40	4282
2026-01-21 15:22:57.37	282.41	33.25	-35.3	-36.4	18.6	0.00e+00	0	58	0	2817523712	40	4268
2026-01-21 15:22:58.38	282.77	33.18	-35.3	-36.4	18.6	0.00e+00	0	59	0	2824863744	40	4287
2026-01-21 15:22:59.39	283.14	33.12	-35.3	-36.5	18.5	0.00e+00	0	58	0	2831155200	40	4301
2026-01-21 15:23:00.40	283.50	33.05	-35.1	-36.3	18.7	0.00e+00	0	59	0	2839543808	40	4205
2026-01-21 15:23:01.41	283.86	32.99	-35.2	-36.3	18.7	0.00e+00	0	59	0	2846883840	40	4218
2026-01-21 15:23:02.42	284.22	32.92	-35.3	-36.5	18.5	0.00e+00	0	59	0	2853175296	40	4299
2026-01-21 15:23:03.43	284.58	32.85	-35.4	-36.6	18.4	0.00e+00	0	59	0	2860515328	40	4351
2026-01-21 15:23:04.44	284.94	32.78	-35.4	-36.6	18.4	0.00e+00	0	59	0	2867855360	40	4344
2026-01-21 15:23:05.45	285.29	32.71	-35.3	-36.5	18.5	0.00e+00	0	59	0	2875195392	40	4311
2026-01-21 15:23:06.46	285.65	32.64	-35.4	-36.5	18.5	0.00e+00	0	59	0	2882535424	40	4322
2026-01-21 15:23:07.47	286.00	32.56	-35.3	-36.4	18.5	0.00e+00	0	59	0	2889875456	40	4286
2026-01-21 15:23:08.48	286.35	32.49	-35.3	-36.4	18.6	0.00e+00	0	59	0	2897215488	40	4265
2026-01-21 15:23:09.49	286.70	32.42	-35.3	-36.4	18.6	0.00e+00	0	58	0	2904555520	40	4260
2026-01-21 15:23:10.50	287.05	32.34	-35.2	-36.3	18.7	0.00e+00	0	59	0	2911895552	40	4205
2026-01-21 15:23:11.51	287.39	32.26	-35.2	-36.4	18.6	0.00e+00	0	59	0	2919235584	40	4250
2026-01-21 15:23:12.51	287.73	32.19	-35.3	-36.5	18.6	0.00e+00	0	58	0	2926575616	40	4300
2026-01-21 15:23:13.52	288.08	32.11	-35.4	-36.5	18.5	0.00e+00	0	59	0	2933915648	40	4334
2026-01-21 15:23:14.53	288.42	32.03	-35.3	-36.5	18.6	0.00e+00	0	59	0	2941255680	40	4309
2026-01-21 15:23:15.54	288.76	31.95	-35.3	-36.4	18.6	0.00e+00	0	59	0	2948595712	40	4263
2026-01-21 15:23:16.55	289.09	31.87	-35.3	-36.4	18.6	0.00e+00	0	59	0	2955935744	40	4263
2026-01-21 15:23:17.56	289.43	31.78	-35.3	-36.5	18.5	0.00e+00	0	58	0	2963275776	40	4321
2026-01-21 15:23:18.57	289.77	31.70	-35.4	-36.6	18.4	0.00e+00	0	59	0	2970615808	40	4350
2026-01-21 15:23:19.58	290.10	31.62	-35.4	-36.6	18.4	0.00e+00	0	59	0	2977955840	40	4357
2026-01-21 15:23:20.59	290.43	31.53	-35.6	-36.7	18.3	0.00e+00	0	59	0	2984247296	40	4440
2026-01-21 15:23:21.60	290.76	31.45	-35.6	-36.8	18.2	0.00e+00	0	59	0	2992635904	40	4461
2026-01-21 15:23:22.60	291.08	31.36	-35.7	-36.9	18.1	0.00e+00	0	59	0	2999975936	40	4529
2026-01-21 15:23:23.62	291.41	31.27	-35.7	-37.0	18.0	0.00e+00	0	59	0	3006267392	41	4293
2026-01-21 15:23:24.62	291.73	31.19	-35.7	-36.9	18.1	0.00e+00	0	59	0	3013607424	41	4263
2026-01-21 15:23:25.63	292.06	31.10	-35.6	-36.8	18.2	0.00e+00	0	59	0	3020947456	41	4201
2026-01-21 15:23:26.65	292.38	31.01	-35.5	-36.7	18.3	0.00e+00	0	59	0	3028287488	41	4178
2026-01-21 15:23:27.66	292.70	30.92	-35.6	-36.8	18.2	0.00e+00	0	59	0	3035627520	41	4196
2026-01-21 15:23:28.66	293.01	30.83	-35.5	-36.7	18.3	0.00e+00	0	59	0	3042967552	41	4152
2026-01-21 15:23:29.67	293.33	30.74	-35.5	-36.7	18.3	0.00e+00	0	59	0	3050307584	41	4155
2026-01-21 15:23:30.68	293.64	30.65	-35.5	-36.7	18.3	0.00e+00	0	59	0	3057647616	41	4163
2026-01-21 15:23:31.69	293.95	30.55	-35.4	-36.5	18.4	0.00e+00	0	59	0	3064987648	41	4070
2026-01-21 15:23:32.70	294.26	30.46	-35.4	-36.5	18.5	0.00e+00	0	59	0	3072327680	41	4087
2026-01-21 15:23:33.71	294.57	30.37	-35.4	-36.5	18.4	0.00e+00	0	59	0	3079667712	41	4086
2026-01-21 15:23:34.72	294.88	30.27	-35.1	-36.2	18.8	0.00e+00	0	59	0	3087007744	41	3931
2026-01-21 15:23:35.73	295.18	30.18	-35.1	-36.2	18.8	0.00e+00	0	59	0	3094347776	41	3917
2026-01-21 15:23:36.74	295.49	30.08	-35.1	-36.2	18.8	0.00e+00	0	59	0	3101687808	41	3920
2026-01-21 15:23:37.75	295.79	29.99	-35.1	-36.2	18.7	0.00e+00	0	59	0	3109027840	41	3954
2026-01-21 15:23:38.76	296.09	29.89	-35.2	-36.3	18.6	0.00e+00	0	59	0	3116367872	41	3982
2026-01-21 15:23:39.77	296.38	29.80	-35.3	-36.4	18.5	0.00e+00	0	59	0	3123707904	41	4045
2026-01-21 15:23:40.78	296.68	29.70	-35.3	-36.4	18.5	0.00e+00	0	58	0	3129999360	41	4050
2026-01-21 15:23:41.79	296.97	29.60	-35.4	-36.6	18.3	0.00e+00	0	59	0	3137339392	41	4110
2026-01-21 15:23:42.80	297.27	29.50	-35.5	-36.7	18.2	0.00e+00	0	59	0	3145728000	41	4167
2026-01-21 15:23:43.81	297.56	29.40	-35.6	-36.8	18.2	0.00e+00	0	59	0	3152019456	41	4198
2026-01-21 15:23:44.82	297.85	29.30	-35.7	-36.9	18.1	0.00e+00	0	59	0	3159359488	41	4249
2026-01-21 15:23:45.83	298.13	29.21	-35.7	-36.9	18.0	0.00e+00	0	59	0	3166699520	41	4269
2026-01-21 15:23:46.84	298.42	29.11	-35.7	-36.9	18.0	0.00e+00	0	59	0	3174039552	41	4272
2026-01-21 15:23:47.84	298.70	29.01	-35.7	-36.9	18.1	0.00e+00	0	59	0	3181379584	41	4253
2026-01-21 15:23:48.85	298.98	28.91	-35.7	-36.9	18.0	0.00e+00	0	59	0	3188719616	41	4286
2026-01-21 15:23:49.86	299.26	28.80	-35.6	-36.8	18.1	0.00e+00	0	59	0	3196059648	41	4231
2026-01-21 15:23:50.87	299.54	28.70	-35.5	-36.7	18.2	0.00e+00	0	59	0	3203399680	41	4179
2026-01-21 15:23:51.88	299.82	28.60	-35.6	-36.8	18.1	0.00e+00	0	59	0	3210739712	41	4203
2026-01-21 15:23:52.89	300.09	28.50	-35.5	-36.7	18.1	0.00e+00	0	59	0	3218079744	41	4175
2026-01-21 15:23:53.90	300.37	28.40	-35.4	-36.6	18.3	0.00e+00	0	59	0	3225419776	41	4126
2026-01-21 15:23:54.91	300.64	28.29	-35.5	-36.6	18.3	0.00e+00	0	59	0	3232759808	41	4140
2026-01-21 15:23:55.92	300.91	28.19	-35.4	-36.5	18.4	0.00e+00	0	59	0	3240099840	41	4075
2026-01-21 15:23:56.93	301.18	28.09	-35.5	-36.7	18.3	0.00e+00	0	59	0	3247439872	41	4149
2026-01-21 15:23:57.94	301.44	27.98	-35.6	-36.8	18.1	0.00e+00	0	59	0	3254779904	41	4197
2026-01-21 15:23:58.96	301.71	27.88	-35.7	-36.9	18.0	0.00e+00	0	59	0	3262119936	41	4245
2026-01-21 15:23:59.97	301.97	27.78	-35.7	-36.9	18.0	0.00e+00	0	59	0	3269459968	41	4272
2026-01-21 15:24:00.95	302.23	27.67	-35.7	-36.9	18.0	0.00e+00	0	58	0	3276800000	41	4265
2026-01-21 15:24:01.96	302.49	27.57	-35.6	-36.7	18.1	0.00e+00	0	59	0	3283091456	41	4193
2026-01-21 15:24:02.97	302.75	27.47	-35.5	-36.7	18.1	0.00e+00	0	59	0	3290431488	41	4185
2026-01-21 15:24:03.98	303.00	27.36	-35.4	-36.6	18.2	0.00e+00	0	59	0	3297771520	41	4125
2026-01-21 15:24:04.99	303.26	27.26	-35.5	-36.6	18.2	0.00e+00	0	59	0	3305111552	41	4137
2026-01-21 15:24:06.00	303.51	27.15	-35.4	-36.5	18.3	0.00e+00	0	59	0	3312451584	41	4098
2026-01-21 15:24:07.01	303.76	27.04	-35.3	-36.5	18.4	0.00e+00	0	59	0	3319791616	41	4071
2026-01-21 15:24:08.02	304.01	26.94	-35.3	-36.5	18.4	0.00e+00	0	59	0	3327131648	41	4056
2026-01-21 15:24:09.03	304.26	26.83	-35.3	-36.5	18.3	0.00e+00	0	59	0	3334471680	41	4072
2026-01-21 15:24:10.04	304.51	26.73	-35.5	-36.6	18.2	0.00e+00	0	59	0	3341811712	41	4137
2026-01-21 15:24:11.05	304.75	26.62	-35.5	-36.6	18.2	0.00e+00	0	59	0	3349151744	41	4143
2026-01-21 15:24:12.05	304.99	26.52	-35.5	-36.7	18.2	0.00e+00	0	59	0	3356491776	41	4157
2026-01-21 15:24:13.06	305.23	26.41	-35.6	-36.8	18.0	0.00e+00	0	59	0	3363831808	41	4218
2026-01-21 15:24:14.08	305.48	26.30	-35.7	-36.9	17.9	0.00e+00	0	58	0	3371171840	41	4271
2026-01-21 15:24:15.09	305.72	26.20	-35.7	-36.9	17.9	0.00e+00	0	59	0	3378511872	41	4286
2026-01-21 15:24:16.10	305.95	26.09	-35.8	-37.0	17.8	0.00e+00	0	59	0	3385851904	41	4334
2026-01-21 15:24:17.11	306.19	25.98	-35.8	-37.1	17.8	0.00e+00	0	59	0	3393191936	41	4342
2026-01-21 15:24:18.11	306.42	25.88	-35.8	-37.0	17.8	0.00e+00	0	59	0	3400531968	41	4334
2026-01-21 15:24:19.12	306.65	25.77	-35.8	-37.1	17.8	0.00e+00	0	59	0	3406823424	41	4353
2026-01-21 15:24:20.13	306.88	25.66	-35.8	-37.0	17.9	0.00e+00	0	59	0	3414163456	41	4308
2026-01-21 15:24:21.14	307.11	25.56	-35.8	-37.0	17.8	0.00e+00	0	59	0	3421503488	41	4305
2026-01-21 15:24:22.15	307.34	25.45	-35.6	-36.8	18.0	0.00e+00	0	59	0	3428843520	41	4236
2026-01-21 15:24:23.17	307.57	25.34	-35.6	-36.8	18.0	0.00e+00	0	59	0	3436183552	41	4238
2026-01-21 15:24:24.18	307.79	25.24	-35.7	-36.9	17.9	0.00e+00	0	59	0	3443523584	41	4283
2026-01-21 15:24:25.19	308.02	25.13	-35.7	-36.9	17.9	0.00e+00	0	59	0	3450863616	41	4254
2026-01-21 15:24:26.20	308.24	25.02	-35.7	-36.9	17.9	0.00e+00	0	59	0	3458203648	41	4255
2026-01-21 15:24:27.21	308.46	24.91	-35.8	-37.0	17.8	0.00e+00	0	59	0	3465543680	41	4330
2026-01-21 15:24:28.21	308.68	24.81	-35.8	-37.0	17.8	0.00e+00	0	58	0	3472883712	41	4339
2026-01-21 15:24:29.22	308.89	24.70	-35.9	-37.1	17.7	0.00e+00	0	59	0	3480223744	41	4375
2026-01-21 15:24:30.24	309.11	24.59	-36.0	-37.2	17.6	0.00e+00	0	59	0	3487563776	41	4438
2026-01-21 15:24:31.25	309.33	24.49	-36.0	-37.2	17.5	0.00e+00	0	59	0	3494903808	41	4428
2026-01-21 15:24:32.26	309.54	24.38	-35.9	-37.2	17.6	0.00e+00	0	59	0	3502243840	41	4402
2026-01-21 15:24:33.27	309.75	24.27	-36.0	-37.3	17.5	0.00e+00	0	59	0	3509583872	41	4442
2026-01-21 15:24:34.28	309.96	24.17	-35.9	-37.2	17.6	0.00e+00	0	59	0	3516923904	41	4417
2026-01-21 15:24:35.29	310.17	24.06	-36.0	-37.2	17.6	0.00e+00	0	59	0	3524263936	41	4439
2026-01-21 15:24:36.30	310.38	23.95	-35.9	-37.1	17.6	0.00e+00	0	59	0	3531603968	41	4388
2026-01-21 15:24:37.31	310.59	23.85	-35.9	-37.1	17.7	0.00e+00	0	59	0	3538944000	41	4362
2026-01-21 15:24:38.32	310.79	23.74	-35.9	-37.1	17.7	0.00e+00	0	59	0	3546284032	41	4371
2026-01-21 15:24:39.33	310.99	23.63	-35.9	-37.2	17.6	0.00e+00	0	59	0	3553624064	41	4396
2026-01-21 15:24:40.34	311.20	23.53	-35.9	-37.1	17.7	0.00e+00	0	59	0	3559915520	41	4359
2026-01-21 15:24:41.35	311.40	23.42	-35.9	-37.2	17.6	0.00e+00	0	59	0	3568304128	41	4410
2026-01-21 15:24:42.36	311.60	23.31	-36.0	-37.3	17.5	0.00e+00	0	59	0	3575644160	41	4445
2026-01-21 15:24:43.37	311.79	23.21	-36.1	-37.3	17.4	0.00e+00	0	59	0	3581935616	41	4482
2026-01-21 15:24:44.38	311.99	23.10	-36.2	-37.5	17.2	0.00e+00	0	59	0	3589275648	41	4586
2026-01-21 15:24:45.39	312.19	23.00	-36.2	-37.5	17.3	0.00e+00	0	59	0	3596615680	42	4324
2026-01-21 15:24:46.40	312.38	22.89	-36.3	-37.6	17.1	0.00e+00	0	59	0	3603955712	42	4388
2026-01-21 15:24:47.41	312.57	22.78	-36.4	-37.6	17.1	0.00e+00	0	59	0	3611295744	42	4387
2026-01-21 15:24:48.42	312.77	22.68	-36.3	-37.6	17.2	0.00e+00	0	59	0	3618635776	42	4369
2026-01-21 15:24:49.43	312.96	22.57	-36.4	-37.7	17.1	0.00e+00	0	59	0	3625975808	42	4399
2026-01-21 15:24:50.44	313.15	22.47	-36.3	-37.5	17.2	0.00e+00	0	59	0	3633315840	42	4334
2026-01-21 15:24:51.45	313.33	22.36	-36.3	-37.6	17.2	0.00e+00	0	59	0	3640655872	42	4346
2026-01-21 15:24:52.46	313.52	22.26	-36.2	-37.5	17.3	0.00e+00	0	59	0	3647995904	42	4304
2026-01-21 15:24:53.47	313.71	22.15	-36.2	-37.5	17.3	0.00e+00	0	59	0	3655335936	42	4324
2026-01-21 15:24:54.48	313.89	22.05	-36.1	-37.3	17.4	0.00e+00	0	59	0	3662675968	42	4242
2026-01-21 15:24:55.49	314.07	21.94	-36.2	-37.4	17.3	0.00e+00	0	59	0	3670016000	42	4280
2026-01-21 15:24:56.50	314.26	21.84	-36.2	-37.5	17.2	0.00e+00	0	59	0	3677356032	42	4310
2026-01-21 15:24:57.51	314.44	21.73	-36.2	-37.5	17.3	0.00e+00	0	59	0	3684696064	42	4306
2026-01-21 15:24:58.52	314.62	21.63	-36.2	-37.5	17.3	0.00e+00	0	59	0	3692036096	42	4298
2026-01-21 15:24:59.53	314.79	21.53	-36.2	-37.5	17.2	0.00e+00	0	59	0	3699376128	42	4330
2026-01-21 15:25:00.54	314.97	21.42	-36.3	-37.6	17.2	0.00e+00	0	59	0	3705667584	42	4363
2026-01-21 15:25:01.55	315.15	21.32	-36.3	-37.6	17.2	0.00e+00	0	59	0	3714056192	42	4358
2026-01-21 15:25:02.57	315.32	21.21	-36.3	-37.6	17.1	0.00e+00	0	59	0	3721396224	42	4391
2026-01-21 15:25:03.58	315.50	21.11	-36.4	-37.7	17.0	0.00e+00	0	59	0	3727687680	42	4425
2026-01-21 15:25:04.58	315.67	21.01	-36.4	-37.7	17.0	0.00e+00	0	59	0	3735027712	42	4412
2026-01-21 15:25:05.60	315.84	20.90	-36.5	-37.8	16.9	0.00e+00	0	59	0	3743416320	42	4473
2026-01-21 15:25:06.61	316.01	20.80	-36.5	-37.9	16.9	0.00e+00	0	59	0	3749707776	42	4511
2026-01-21 15:25:07.61	316.18	20.70	-36.5	-37.8	16.9	0.00e+00	0	59	0	3757047808	42	4474
2026-01-21 15:25:08.62	316.35	20.60	-36.5	-37.9	16.8	0.00e+00	0	59	0	3764387840	42	4497
2026-01-21 15:25:09.64	316.52	20.49	-36.5	-37.8	16.9	0.00e+00	0	59	0	3771727872	42	4489
2026-01-21 15:25:10.65	316.68	20.39	-36.5	-37.9	16.8	0.00e+00	0	59	0	3779067904	42	4506
2026-01-21 15:25:11.65	316.84	20.29	-36.4	-37.7	17.0	0.00e+00	0	59	0	3786407936	42	4436
2026-01-21 15:25:12.66	317.01	20.19	-36.4	-37.7	17.0	0.00e+00	0	59	0	3793747968	42	4413
2026-01-21 15:25:13.67	317.17	20.09	-36.5	-37.8	16.9	0.00e+00	0	59	0	3801088000	42	4472
2026-01-21 15:25:14.68	317.33	19.98	-36.3	-37.6	17.1	0.00e+00	0	59	0	3808428032	42	4379
2026-01-21 15:25:15.69	317.49	19.88	-36.3	-37.6	17.1	0.00e+00	0	59	0	3815768064	42	4355
2026-01-21 15:25:16.70	317.65	19.78	-36.3	-37.6	17.0	0.00e+00	0	59	0	3823108096	42	4386
2026-01-21 15:25:17.71	317.81	19.68	-36.4	-37.7	16.9	0.00e+00	0	59	0	3830448128	42	4433
2026-01-21 15:25:18.72	317.97	19.58	-36.4	-37.7	17.0	0.00e+00	0	59	0	3837788160	42	4423
2026-01-21 15:25:19.73	318.13	19.48	-36.5	-37.8	16.9	0.00e+00	0	59	0	3845128192	42	4465
2026-01-21 15:25:20.74	318.28	19.38	-36.6	-37.9	16.8	0.00e+00	0	59	0	3852468224	42	4529
2026-01-21 15:25:21.75	318.44	19.28	-36.6	-38.0	16.7	0.00e+00	0	59	0	3859808256	42	4550
2026-01-21 15:25:22.76	318.59	19.18	-36.7	-38.0	16.6	0.00e+00	0	59	0	3867148288	42	4597
2026-01-21 15:25:23.77	318.74	19.08	-36.7	-38.0	16.6	0.00e+00	0	59	0	3874488320	42	4589
2026-01-21 15:25:24.78	318.89	18.98	-36.7	-38.1	16.6	0.00e+00	0	59	0	3880779776	43	4368
2026-01-21 15:25:25.79	319.05	18.88	-36.8	-38.1	16.5	0.00e+00	0	59	0	3888119808	43	4387
2026-01-21 15:25:26.80	319.20	18.78	-36.7	-38.1	16.5	0.00e+00	0	58	0	3896508416	43	4374
2026-01-21 15:25:27.81	319.34	18.68	-36.8	-38.2	16.5	0.00e+00	0	59	0	3902799872	43	4408
2026-01-21 15:25:28.82	319.49	18.59	-36.8	-38.2	16.5	0.00e+00	0	59	0	3910139904	43	4397
2026-01-21 15:25:29.83	319.64	18.49	-36.8	-38.2	16.4	0.00e+00	0	59	0	3917479936	43	4426
2026-01-21 15:25:30.84	319.79	18.39	-36.9	-38.3	16.4	0.00e+00	0	59	0	3924819968	43	4442
2026-01-21 15:25:31.85	319.93	18.29	-36.8	-38.2	16.4	0.00e+00	0	59	0	3932160000	43	4402
2026-01-21 15:25:32.86	320.07	18.19	-36.9	-38.3	16.3	0.00e+00	0	59	0	3939500032	43	4468
2026-01-21 15:25:33.87	320.22	18.10	-36.9	-38.3	16.3	0.00e+00	0	59	0	3946840064	43	4489
2026-01-21 15:25:34.88	320.36	18.00	-37.0	-38.4	16.2	0.00e+00	0	59	0	3954180096	43	4519
2026-01-21 15:25:35.89	320.50	17.90	-37.0	-38.4	16.2	0.00e+00	0	59	0	3961520128	43	4520
2026-01-21 15:25:36.90	320.64	17.80	-37.0	-38.4	16.2	0.00e+00	0	59	0	3968860160	43	4505
2026-01-21 15:25:37.91	320.78	17.71	-36.9	-38.4	16.2	0.00e+00	0	59	0	3976200192	43	4503
2026-01-21 15:25:38.92	320.92	17.61	-36.9	-38.4	16.2	0.00e+00	0	59	0	3983540224	43	4499
2026-01-21 15:25:39.93	321.06	17.52	-36.9	-38.3	16.3	0.00e+00	0	59	0	3990880256	43	4485
2026-01-21 15:25:40.94	321.20	17.42	-36.9	-38.4	16.2	0.00e+00	0	59	0	3998220288	43	4505
2026-01-21 15:25:41.95	321.33	17.32	-36.9	-38.4	16.2	0.00e+00	0	59	0	4005560320	43	4497
2026-01-21 15:25:42.96	321.47	17.23	-36.9	-38.3	16.3	0.00e+00	0	59	0	4012900352	43	4455
2026-01-21 15:25:43.97	321.60	17.13	-37.0	-38.4	16.2	0.00e+00	0	59	0	4020240384	43	4514
2026-01-21 15:25:44.98	321.74	17.04	-37.0	-38.5	16.1	0.00e+00	0	59	0	4026531840	43	4560
2026-01-21 15:25:45.99	321.87	16.94	-36.9	-38.3	16.2	0.00e+00	0	59	0	4033871872	43	4479
2026-01-21 15:25:47.00	322.00	16.85	-36.9	-38.3	16.2	0.00e+00	0	59	0	4042260480	43	4474
2026-01-21 15:25:48.01	322.14	16.75	-37.0	-38.4	16.2	0.00e+00	0	59	0	4048551936	43	4522
2026-01-21 15:25:49.02	322.27	16.66	-37.0	-38.4	16.1	0.00e+00	0	59	0	4055891968	43	4521
2026-01-21 15:25:50.03	322.40	16.57	-37.1	-38.6	16.0	0.00e+00	0	59	0	4063232000	43	4616
2026-01-21 15:25:51.04	322.53	16.47	-37.1	-38.6	15.9	0.00e+00	0	59	0	4070572032	43	4641
2026-01-21 15:25:52.05	322.65	16.38	-37.2	-38.7	15.9	0.00e+00	0	59	0	4077912064	43	4686
2026-01-21 15:25:53.07	322.78	16.29	-37.4	-38.9	15.8	0.00e+00	0	59	0	4085252096	44	4542
2026-01-21 15:25:54.08	322.91	16.19	-37.5	-39.1	15.6	0.00e+00	0	59	0	4092592128	44	4610
2026-01-21 15:25:55.09	323.04	16.10	-37.5	-39.0	15.7	0.00e+00	0	59	0	4099932160	44	4582
2026-01-21 15:25:56.10	323.16	16.01	-37.5	-39.1	15.7	0.00e+00	0	59	0	4107272192	44	4604
2026-01-21 15:25:57.11	323.29	15.91	-37.5	-39.0	15.7	0.00e+00	0	59	0	4114612224	44	4554
2026-01-21 15:25:58.12	323.41	15.82	-37.5	-39.0	15.7	0.00e+00	0	59	0	4121952256	44	4569
2026-01-21 15:25:59.12	323.53	15.73	-37.4	-38.9	15.8	0.00e+00	0	59	0	4129292288	44	4535
2026-01-21 15:26:00.13	323.65	15.64	-37.4	-38.9	15.8	0.00e+00	0	59	0	4136632320	44	4538
2026-01-21 15:26:01.14	323.78	15.55	-37.4	-38.9	15.7	0.00e+00	0	59	0	4143972352	44	4534
2026-01-21 15:26:02.15	323.90	15.46	-37.4	-38.9	15.8	0.00e+00	0	59	0	4151312384	44	4521
2026-01-21 15:26:03.16	324.02	15.37	-37.4	-38.9	15.8	0.00e+00	0	59	0	4158652416	44	4509
2026-01-21 15:26:04.17	324.14	15.28	-37.4	-38.9	15.8	0.00e+00	0	59	0	4165992448	44	4509
2026-01-21 15:26:05.18	324.26	15.19	-37.4	-38.9	15.8	0.00e+00	0	59	0	4173332480	44	4520
2026-01-21 15:26:06.19	324.37	15.10	-37.5	-39.0	15.7	0.00e+00	0	59	0	4179623936	44	4570
2026-01-21 15:26:07.20	324.49	15.01	-37.5	-39.1	15.6	1.10e-06	0	59	0	4188012544	44	4618
2026-01-21 15:26:08.21	324.61	14.92	-37.5	-39.1	15.6	0.00e+00	0	59	0	4195352576	44	4620
2026-01-21 15:26:09.22	324.72	14.83	-37.6	-39.2	15.5	0.00e+00	0	59	0	4201644032	44	4656
2026-01-21 15:26:10.23	324.84	14.74	-37.7	-39.2	15.4	0.00e+00	0	59	0	4208984064	44	4689
2026-01-21 15:26:11.24	324.95	14.65	-37.8	-39.4	15.3	0.00e+00	0	59	0	4216324096	45	4500
2026-01-21 15:26:12.25	325.07	14.56	-37.7	-39.3	15.3	0.00e+00	0	59	0	4223664128	45	4477
2026-01-21 15:26:13.26	325.18	14.47	-37.8	-39.4	15.2	0.00e+00	0	59	0	4231004160	45	4508
2026-01-21 15:26:14.27	325.30	14.38	-37.9	-39.5	15.1	0.00e+00	0	59	0	4238344192	45	4557
2026-01-21 15:26:15.28	325.41	14.29	-37.9	-39.5	15.1	0.00e+00	0	59	0	4245684224	45	4558
2026-01-21 15:26:16.29	325.52	14.20	-37.9	-39.6	15.0	0.00e+00	0	59	0	4253024256	45	4618
2026-01-21 15:26:17.30	325.63	14.12	-38.0	-39.6	14.9	0.00e+00	0	59	0	4260364288	45	4650
2026-01-21 15:26:18.31	325.74	14.03	-38.0	-39.7	14.9	0.00e+00	0	59	0	4267704320	45	4674
2026-01-21 15:26:19.32	325.85	13.94	-38.0	-39.7	14.9	0.00e+00	0	59	0	4275044352	45	4668
2026-01-21 15:26:20.33	325.96	13.86	-38.0	-39.7	14.8	0.00e+00	0	59	0	4282384384	45	4692
2026-01-21 15:26:21.34	326.07	13.77	-38.1	-39.8	14.8	3.40e-06	0	59	0	4289724416	45	4725
2026-01-21 15:26:22.35	326.18	13.68	-38.0	-39.7	14.8	0.00e+00	0	59	0	4297064448	45	4697
2026-01-21 15:26:23.36	326.28	13.60	-38.0	-39.7	14.8	0.00e+00	0	59	0	4304404480	45	4693
2026-01-21 15:26:24.37	326.39	13.51	-38.0	-39.7	14.9	0.00e+00	0	59	0	4311744512	45	4655
2026-01-21 15:26:25.38	326.50	13.42	-37.9	-39.6	14.9	0.00e+00	0	59	0	4319084544	45	4629
2026-01-21 15:26:26.39	326.60	13.34	-38.0	-39.7	14.8	0.00e+00	0	59	0	4325376000	45	4686
2026-01-21 15:26:27.40	326.71	13.25	-38.1	-39.8	14.8	1.10e-06	0	59	0	4333764608	45	4711
2026-01-21 15:26:28.41	326.81	13.17	-37.9	-39.6	14.9	0.00e+00	0	59	0	4341104640	45	4604
2026-01-21 15:26:29.42	326.91	13.08	-37.9	-39.6	14.9	0.00e+00	0	59	0	4347396096	45	4609
2026-01-21 15:26:30.43	327.02	13.00	-38.0	-39.7	14.9	1.10e-06	0	59	0	4354736128	45	4655
2026-01-21 15:26:31.43	327.12	12.91	-37.9	-39.6	14.9	0.00e+00	0	59	0	4362076160	45	4631
2026-01-21 15:26:32.44	327.22	12.83	-38.0	-39.7	14.8	0.00e+00	0	59	0	4369416192	45	4677
2026-01-21 15:26:33.45	327.32	12.74	-38.1	-39.8	14.7	0.00e+00	0	59	0	4376756224	45	4714
2026-01-21 15:26:34.46	327.42	12.66	-38.1	-39.8	14.7	1.10e-06	0	59	0	4384096256	45	4712
2026-01-21 15:26:35.48	327.53	12.57	-38.1	-39.8	14.6	1.10e-06	0	59	0	4391436288	45	4758
2026-01-21 15:26:36.48	327.62	12.49	-38.2	-40.0	14.5	1.10e-06	0	59	0	4398776320	46	4549
2026-01-21 15:26:37.49	327.72	12.41	-38.2	-40.0	14.5	1.10e-06	0	59	0	4406116352	46	4547
2026-01-21 15:26:38.51	327.82	12.32	-38.2	-40.0	14.5	1.10e-06	0	59	0	4413456384	46	4562
2026-01-21 15:26:39.52	327.92	12.24	-38.3	-40.1	14.4	3.40e-06	0	59	0	4420796416	46	4611
2026-01-21 15:26:40.53	328.02	12.16	-38.4	-40.1	14.3	0.00e+00	0	59	0	4428136448	46	4649
2026-01-21 15:26:41.54	328.12	12.08	-38.4	-40.2	14.2	0.00e+00	0	59	0	4435476480	46	4671
2026-01-21 15:26:42.55	328.21	11.99	-38.4	-40.1	14.3	1.10e-06	0	59	0	4442816512	46	4648
2026-01-21 15:26:43.56	328.31	11.91	-38.3	-40.1	14.3	3.40e-06	0	59	0	4450156544	46	4620
2026-01-21 15:26:44.57	328.40	11.83	-38.3	-40.2	14.3	1.10e-06	0	59	0	4457496576	46	4652
2026-01-21 15:26:45.58	328.50	11.75	-38.4	-40.2	14.2	1.10e-06	0	59	0	4464836608	46	4674
2026-01-21 15:26:46.59	328.59	11.67	-38.4	-40.2	14.2	2.20e-06	0	59	0	4472176640	46	4680
2026-01-21 15:26:47.59	328.69	11.59	-38.4	-40.2	14.2	2.20e-06	0	59	0	4478468096	46	4696
2026-01-21 15:26:48.60	328.78	11.50	-38.4	-40.2	14.1	1.10e-06	0	59	0	4486856704	46	4688
2026-01-21 15:26:49.61	328.87	11.42	-38.4	-40.2	14.1	2.20e-06	0	59	0	4494196736	46	4693
2026-01-21 15:26:50.62	328.97	11.34	-38.5	-40.3	14.0	2.20e-06	0	59	0	4500488192	46	4743
2026-01-21 15:26:51.63	329.06	11.26	-38.5	-40.3	14.0	2.20e-06	0	59	0	4507828224	46	4729
