passes_logs/2026/01/21/R2.0S_Moscow/R2.0S_Moscow__20260121_101219_FENGYUN_3D_rec.log

#Pass ID: 20260121_101219_FENGYUN 3D
#Satellite: FENGYUN 3D
#Configuration: FENGYUN 3D
#almurnet v.1.7.20251203
#Start time: 2026-01-21 10:12:22

#Version: 2.2.20231116
#Station: R2.0S_Moscow
#Location: 37.707566 lon 55.798166 lat
#TLE: 1 43010U 17072A   26020.28933472  .00000051  00000+0  46008-4 0  9990
#TLE: 2 43010  98.9944 352.1871 0002476  99.7001 260.4455 14.19696838424006

#Time	Az	El	Level	Level2	SNR	BER	BlckErr	Temp	State	Recorded	gain1	gain2
2026-01-21 10:12:22.20	108.31	2.13	-15.4	-39.0	3.6	8.33e-01	0	51	0	0	4	48413
2026-01-21 10:12:23.21	108.24	2.18	-31.4	-44.8	3.8	8.32e-01	0	51	104	0	28	23781
2026-01-21 10:12:24.23	108.17	2.24	-22.2	-38.8	3.9	8.32e-01	0	51	104	0	18	21171
2026-01-21 10:12:25.24	108.10	2.29	-32.1	-45.9	4.0	8.36e-01	0	51	104	0	31	22750
2026-01-21 10:12:26.25	108.02	2.35	-26.4	-41.8	3.8	8.37e-01	0	51	104	0	21	25171
2026-01-21 10:12:27.25	107.95	2.41	-19.9	-36.4	4.0	8.42e-01	0	51	104	0	13	21323
2026-01-21 10:12:28.27	107.88	2.46	-28.9	-44.6	3.9	8.39e-01	0	52	104	0	29	21786
2026-01-21 10:12:29.27	107.81	2.52	-31.4	-45.5	4.2	8.37e-01	0	51	104	0	32	20319
2026-01-21 10:12:30.29	107.73	2.58	-19.4	-38.5	3.8	8.43e-01	0	52	104	0	14	25587
2026-01-21 10:12:31.30	107.66	2.63	-27.8	-42.3	3.9	8.40e-01	0	52	0	0	14	39943
2026-01-21 10:12:32.31	107.58	2.69	-26.0	-42.0	3.7	8.42e-01	0	52	104	0	16	34288
2026-01-21 10:12:33.32	107.51	2.75	-21.0	-38.9	3.9	8.36e-01	0	52	104	0	27	12669
2026-01-21 10:12:34.33	107.44	2.80	-23.7	-40.2	4.1	8.40e-01	0	52	104	0	16	27882
2026-01-21 10:12:35.34	107.36	2.86	-19.0	-37.4	4.4	8.35e-01	0	52	104	0	24	12705
2026-01-21 10:12:36.35	107.28	2.92	-26.7	-37.9	3.7	8.41e-01	0	52	104	0	1	50424
2026-01-21 10:12:37.36	107.21	2.97	-15.3	-36.0	3.8	8.43e-01	0	52	104	0	6	30678
2026-01-21 10:12:38.37	107.13	3.03	-17.1	-37.2	3.6	8.38e-01	0	52	104	0	18	17521
2026-01-21 10:12:39.38	107.06	3.09	-24.4	-41.0	3.9	8.45e-01	0	52	104	0	24	19212
2026-01-21 10:12:40.39	106.98	3.15	-28.1	-45.3	4.4	8.42e-01	0	52	104	0	22	35641
2026-01-21 10:12:41.40	106.90	3.20	-22.0	-39.0	3.7	8.36e-01	0	53	104	0	5	45776
2026-01-21 10:12:42.41	106.83	3.26	-19.3	-38.1	4.0	8.38e-01	0	52	104	0	12	27460
2026-01-21 10:12:43.42	106.75	3.32	-26.0	-40.5	3.6	8.34e-01	0	53	104	0	24	18106
2026-01-21 10:12:44.43	106.67	3.37	-20.4	-37.3	3.8	8.40e-01	0	53	104	0	12	25231
2026-01-21 10:12:45.44	106.59	3.43	-31.6	-45.8	4.2	8.36e-01	0	53	104	0	32	21132
2026-01-21 10:12:46.45	106.52	3.49	-26.4	-42.1	4.1	8.38e-01	0	53	104	0	24	21869
2026-01-21 10:12:47.46	106.44	3.55	-21.2	-37.8	4.0	8.33e-01	0	53	104	0	21	15821
2026-01-21 10:12:48.47	106.36	3.61	-24.9	-40.6	4.0	8.37e-01	0	53	104	0	21	21906
2026-01-21 10:12:49.48	106.28	3.66	-22.7	-37.9	3.9	8.41e-01	0	53	104	0	14	23857
2026-01-21 10:12:50.49	106.20	3.72	-17.7	-36.0	3.7	8.43e-01	0	53	104	0	4	34197
2026-01-21 10:12:51.50	106.12	3.78	-28.5	-43.1	3.7	8.31e-01	0	53	104	0	25	23177
2026-01-21 10:12:52.51	106.04	3.84	-32.8	-46.1	4.1	8.37e-01	0	53	104	0	33	20626
2026-01-21 10:12:53.52	105.96	3.90	-23.2	-43.4	3.8	8.31e-01	0	53	104	0	17	37822
2026-01-21 10:12:54.53	105.88	3.95	-22.6	-39.4	4.1	8.34e-01	0	53	104	0	20	20099
2026-01-21 10:12:55.54	105.80	4.01	-17.0	-36.6	3.7	8.39e-01	0	54	104	0	9	27552
2026-01-21 10:12:56.56	105.71	4.07	-31.5	-44.9	4.1	8.41e-01	0	53	0	0	24	30344
2026-01-21 10:12:57.57	105.63	4.13	-28.2	-42.5	3.9	8.37e-01	0	54	104	0	21	27234
2026-01-21 10:12:58.58	105.55	4.19	-20.6	-36.8	3.8	8.42e-01	0	54	104	0	11	25131
2026-01-21 10:12:59.59	105.47	4.25	-30.0	-45.4	4.1	8.40e-01	0	54	104	0	29	23942
2026-01-21 10:13:00.60	105.38	4.31	-31.0	-45.6	4.1	8.38e-01	0	54	104	0	29	24563
2026-01-21 10:13:01.61	105.30	4.36	-30.5	-44.5	3.8	8.36e-01	0	54	104	0	23	30385
2026-01-21 10:13:02.62	105.22	4.42	-26.0	-37.9	3.8	8.38e-01	0	54	104	0	11	28436
2026-01-21 10:13:03.63	105.13	4.48	-27.2	-40.6	4.1	8.40e-01	0	54	104	0	26	16470
2026-01-21 10:13:04.64	105.05	4.54	-26.5	-42.6	4.1	8.41e-01	0	54	104	0	19	30731
2026-01-21 10:13:05.65	104.96	4.60	-24.4	-41.4	3.7	8.35e-01	0	54	104	0	21	24081
2026-01-21 10:13:06.66	104.88	4.66	-13.4	-39.4	3.8	8.42e-01	0	54	104	0	9	38035
2026-01-21 10:13:07.67	104.79	4.72	-15.8	-37.0	4.1	8.40e-01	0	54	104	0	8	30577
2026-01-21 10:13:08.68	104.71	4.78	-21.3	-39.1	3.7	8.36e-01	0	54	104	0	13	29228
2026-01-21 10:13:09.69	104.62	4.84	-27.3	-43.2	3.5	8.36e-01	0	54	104	0	19	33238
2026-01-21 10:13:10.70	104.53	4.90	-15.4	-36.3	3.8	8.45e-01	0	54	104	0	10	25186
2026-01-21 10:13:11.71	104.45	4.96	-16.8	-36.6	3.6	8.45e-01	0	54	104	0	3	39015
2026-01-21 10:13:12.73	104.36	5.02	-26.2	-44.4	4.2	8.39e-01	0	54	104	0	24	28443
2026-01-21 10:13:13.74	104.27	5.08	-14.2	-37.0	3.8	8.39e-01	0	54	104	0	1	45820
2026-01-21 10:13:14.75	104.18	5.14	-16.7	-35.4	4.1	8.44e-01	0	55	104	0	2	36076
2026-01-21 10:13:15.76	104.09	5.19	-19.7	-36.5	3.7	8.43e-01	0	55	104	0	7	30567
2026-01-21 10:13:16.77	104.01	5.25	-16.8	-35.6	3.8	8.41e-01	0	54	104	0	2	36649
2026-01-21 10:13:17.78	103.92	5.31	-16.0	-37.1	3.9	8.45e-01	0	55	104	0	9	29262
2026-01-21 10:13:18.79	103.83	5.37	-17.2	-35.6	3.6	8.43e-01	0	55	104	0	3	34672
2026-01-21 10:13:19.80	103.74	5.43	-16.0	-40.2	3.9	8.38e-01	0	55	104	0	11	37091
2026-01-21 10:13:20.81	103.65	5.49	-26.2	-43.1	4.2	8.35e-01	0	55	104	0	14	43448
2026-01-21 10:13:21.82	103.56	5.55	-31.1	-44.8	4.4	8.38e-01	0	55	104	0	29	22407
2026-01-21 10:13:22.83	103.47	5.62	-15.6	-36.0	3.6	8.40e-01	0	55	104	0	10	24297
2026-01-21 10:13:23.84	103.37	5.68	-16.0	-36.7	4.1	8.38e-01	0	55	104	0	16	18605
2026-01-21 10:13:24.85	103.28	5.74	-27.1	-43.7	3.6	8.34e-01	0	55	104	0	14	46621
2026-01-21 10:13:25.86	103.19	5.80	-25.3	-39.8	3.8	8.36e-01	0	55	0	0	13	31610
2026-01-21 10:13:26.87	103.10	5.86	-24.5	-38.8	3.7	8.37e-01	0	55	104	0	7	39931
2026-01-21 10:13:27.88	103.01	5.92	-29.7	-45.1	3.8	8.35e-01	0	55	104	0	11	65490
2026-01-21 10:13:28.89	102.91	5.98	-26.3	-42.4	3.9	8.39e-01	0	55	104	0	26	20147
2026-01-21 10:13:29.90	102.82	6.04	-30.7	-44.9	4.0	8.37e-01	0	55	104	0	28	23881
2026-01-21 10:13:30.92	102.72	6.10	-31.0	-45.3	4.2	8.38e-01	0	55	104	0	18	44686
2026-01-21 10:13:31.92	102.63	6.16	-17.2	-37.4	3.8	8.42e-01	0	55	0	0	14	22766
2026-01-21 10:13:32.94	102.53	6.22	-22.1	-38.5	3.8	8.31e-01	0	55	104	0	18	20410
2026-01-21 10:13:33.95	102.44	6.28	-27.6	-41.0	4.3	8.34e-01	0	55	104	0	16	30488
2026-01-21 10:13:34.96	102.34	6.34	-18.5	-36.2	3.6	8.46e-01	0	55	104	0	1	41653
2026-01-21 10:13:35.97	102.25	6.41	-14.3	-35.9	3.7	8.42e-01	0	56	104	0	5	32170
2026-01-21 10:13:36.98	102.15	6.47	-21.4	-38.0	3.9	8.40e-01	0	56	104	0	14	24351
2026-01-21 10:13:37.99	102.05	6.53	-23.3	-38.3	3.9	8.39e-01	0	55	104	0	11	30031
2026-01-21 10:13:39.00	101.95	6.59	-17.1	-35.5	3.7	8.41e-01	0	56	104	0	4	32219
2026-01-21 10:13:40.00	101.86	6.65	-20.5	-39.4	4.2	8.41e-01	0	56	104	0	11	33857
2026-01-21 10:13:41.01	101.76	6.71	-23.3	-41.3	3.7	8.42e-01	0	56	104	0	11	42267
2026-01-21 10:13:42.02	101.66	6.77	-15.8	-35.4	3.8	8.44e-01	0	56	104	0	3	34056
2026-01-21 10:13:43.03	101.56	6.83	-18.8	-36.8	3.8	8.43e-01	0	56	104	0	5	35536
2026-01-21 10:13:44.04	101.46	6.90	-14.5	-37.3	3.7	8.39e-01	0	56	104	0	2	44620
2026-01-21 10:13:45.06	101.36	6.96	-14.0	-35.9	3.8	8.43e-01	0	56	104	0	13	20225
2026-01-21 10:13:46.07	101.26	7.02	-17.4	-37.6	3.7	8.45e-01	0	56	104	0	9	30739
2026-01-21 10:13:47.08	101.16	7.08	-26.3	-41.4	4.1	8.44e-01	0	56	104	0	21	24043
2026-01-21 10:13:48.09	101.06	7.14	-22.1	-41.4	4.0	8.41e-01	0	56	104	0	16	31834
2026-01-21 10:13:49.10	100.96	7.21	-19.1	-39.7	3.8	8.43e-01	0	56	104	0	9	39159
2026-01-21 10:13:50.11	100.85	7.27	-18.8	-36.3	3.9	8.43e-01	0	56	104	0	7	29910
2026-01-21 10:13:51.12	100.75	7.33	-14.6	-36.7	3.9	8.44e-01	0	56	104	0	11	24763
2026-01-21 10:13:52.13	100.65	7.39	-17.6	-37.0	4.1	8.44e-01	0	56	104	0	9	28781
2026-01-21 10:13:53.14	100.55	7.46	-29.6	-44.5	4.1	8.39e-01	0	56	104	0	27	24287
2026-01-21 10:13:54.15	100.44	7.52	-28.9	-42.9	3.8	8.38e-01	0	56	104	0	15	40176
2026-01-21 10:13:55.16	100.34	7.58	-13.6	-36.4	3.8	8.40e-01	0	56	104	0	1	42740
2026-01-21 10:13:56.17	100.23	7.64	-13.3	-36.6	3.9	8.39e-01	0	56	104	0	6	32826
2026-01-21 10:13:57.18	100.13	7.71	-17.7	-36.2	3.8	8.39e-01	0	56	104	0	25	10474
2026-01-21 10:13:58.19	100.02	7.77	-19.2	-35.1	3.7	8.41e-01	0	56	104	0	12	19474
2026-01-21 10:13:59.20	99.91	7.83	-17.2	-37.7	4.1	8.39e-01	0	56	104	0	23	13982
2026-01-21 10:14:00.21	99.81	7.89	-30.7	-41.5	4.2	8.37e-01	0	56	104	0	29	15260
2026-01-21 10:14:01.22	99.70	7.96	-17.2	-37.2	4.3	8.37e-01	0	56	104	0	22	13944
2026-01-21 10:14:02.24	99.59	8.02	-31.1	-42.1	4.0	8.39e-01	0	56	104	0	18	30952
2026-01-21 10:14:03.24	99.48	8.08	-21.1	-41.1	3.9	8.38e-01	0	56	104	0	25	18362
2026-01-21 10:14:04.25	99.38	8.14	-22.6	-39.1	4.2	8.43e-01	0	56	104	0	17	23108
2026-01-21 10:14:05.26	99.27	8.21	-21.7	-38.2	3.8	8.42e-01	0	56	104	0	13	26167
2026-01-21 10:14:06.27	99.16	8.27	-25.6	-40.9	4.2	8.45e-01	0	56	104	0	14	33812
2026-01-21 10:14:07.28	99.05	8.33	-29.6	-43.6	4.0	8.44e-01	0	56	104	0	23	27613
2026-01-21 10:14:08.29	98.94	8.40	-25.1	-39.6	4.2	8.40e-01	0	56	104	0	23	17337
2026-01-21 10:14:09.30	98.83	8.46	-19.8	-38.7	4.1	8.31e-01	0	57	104	0	26	13128
2026-01-21 10:14:10.31	98.71	8.52	-30.1	-41.3	4.3	8.33e-01	0	56	104	0	24	19967
2026-01-21 10:14:11.32	98.60	8.59	-32.1	-41.8	4.5	7.97e-01	0	57	0	0	27	17745
2026-01-21 10:14:12.33	98.49	8.65	-24.7	-40.3	4.1	8.42e-01	0	57	104	0	20	22509
2026-01-21 10:14:13.33	98.38	8.71	-26.1	-40.9	3.9	8.41e-01	0	57	104	0	17	28413
2026-01-21 10:14:14.35	98.26	8.78	-24.5	-41.0	4.4	8.43e-01	0	57	104	0	21	22973
2026-01-21 10:14:15.35	98.15	8.84	-28.6	-41.7	4.0	8.44e-01	0	57	104	0	22	23373
2026-01-21 10:14:16.37	98.03	8.90	-21.7	-37.5	4.6	8.02e-01	0	57	0	0	22	14477
2026-01-21 10:14:17.37	97.92	8.97	-22.6	-37.8	4.7	8.22e-01	0	57	0	0	19	17852
2026-01-21 10:14:18.38	97.80	9.03	-19.4	-37.3	4.4	7.88e-01	0	57	0	0	17	18872
2026-01-21 10:14:19.39	97.69	9.10	-26.8	-39.6	4.1	8.34e-01	0	57	104	0	22	18361
2026-01-21 10:14:20.40	97.57	9.16	-25.0	-38.6	4.7	7.46e-01	0	57	0	0	24	14596
2026-01-21 10:14:21.41	97.45	9.22	-26.7	-38.7	4.9	7.42e-01	0	57	0	0	21	17507
2026-01-21 10:14:22.42	97.34	9.29	-23.7	-39.4	4.0	7.85e-01	0	57	0	1048576	18	22666
2026-01-21 10:14:23.43	97.22	9.35	-25.1	-40.6	4.3	8.43e-01	0	57	104	1048576	23	19514
2026-01-21 10:14:24.44	97.10	9.42	-34.4	-49.0	4.1	8.43e-01	0	57	104	1048576	35	25846
2026-01-21 10:14:25.45	96.98	9.48	-29.2	-45.0	4.2	8.45e-01	0	57	104	1048576	37	14501
2026-01-21 10:14:26.46	96.86	9.54	-23.4	-40.0	4.0	8.43e-01	0	57	104	1048576	22	19181
2026-01-21 10:14:27.47	96.74	9.61	-30.7	-46.9	4.0	8.42e-01	0	57	104	1048576	39	15948
2026-01-21 10:14:28.48	96.62	9.67	-36.1	-47.8	3.8	8.43e-01	0	57	104	1048576	39	17808
2026-01-21 10:14:29.49	96.50	9.74	-32.6	-47.4	3.8	8.42e-01	0	57	104	1048576	40	16008
2026-01-21 10:14:30.50	96.38	9.80	-27.6	-44.0	4.0	8.42e-01	0	57	104	1048576	31	18258
2026-01-21 10:14:31.51	96.25	9.86	-37.6	-48.2	4.0	8.42e-01	0	57	104	1048576	46	12440
2026-01-21 10:14:32.52	96.13	9.93	-40.4	-48.1	4.8	8.20e-01	0	57	0	1048576	49	10377
2026-01-21 10:14:33.53	96.01	9.99	-32.8	-48.0	3.8	8.43e-01	0	57	104	1048576	33	25581
2026-01-21 10:14:34.54	95.88	10.06	-33.2	-46.7	3.9	8.44e-01	0	57	104	1048576	33	22224
2026-01-21 10:14:35.55	95.76	10.12	-38.2	-51.2	3.9	8.44e-01	0	57	104	1048576	44	19730
2026-01-21 10:14:36.56	95.63	10.19	-37.4	-49.5	4.2	8.44e-01	0	57	104	1048576	44	16309
2026-01-21 10:14:37.57	95.51	10.25	-35.6	-48.6	4.0	8.44e-01	0	57	104	1048576	45	13820
2026-01-21 10:14:38.58	95.38	10.32	-35.4	-46.8	4.0	8.41e-01	0	57	104	1048576	40	15027
2026-01-21 10:14:39.59	95.25	10.38	-38.2	-42.2	9.1	6.60e-01	0	57	104	1048576	46	6254
2026-01-21 10:14:40.60	95.12	10.45	-38.9	-43.3	7.9	7.58e-01	0	57	0	3145728	47	6696
2026-01-21 10:14:41.61	95.00	10.51	-36.4	-42.3	9.3	4.11e-02	0	58	0	9437184	47	5970
2026-01-21 10:14:42.62	94.87	10.58	-34.9	-41.9	8.2	8.41e-01	0	57	104	10485760	43	7161
2026-01-21 10:14:43.63	94.74	10.64	-36.5	-41.3	10.4	1.97e-02	0	58	0	15728640	46	5637
2026-01-21 10:14:44.64	94.61	10.70	-36.7	-41.3	10.2	7.07e-03	0	58	0	20971520	45	5965
2026-01-21 10:14:45.64	94.48	10.77	-37.5	-41.9	9.5	1.06e-02	0	58	0	27262976	45	6366
2026-01-21 10:14:46.65	94.35	10.83	-37.3	-42.2	9.0	1.36e-02	0	58	0	32505856	45	6575
2026-01-21 10:14:47.66	94.22	10.90	-37.6	-42.1	9.5	1.38e-02	0	58	0	38797312	46	6156
2026-01-21 10:14:48.67	94.08	10.96	-38.2	-42.8	8.9	1.30e-02	0	58	0	44040192	47	6309
2026-01-21 10:14:49.68	93.95	11.03	-38.6	-42.8	9.6	9.27e-03	0	58	0	49283072	48	5968
2026-01-21 10:14:50.69	93.82	11.09	-38.1	-42.4	9.7	1.27e-02	0	58	0	55574528	47	6029
2026-01-21 10:14:51.71	93.68	11.16	-38.9	-42.7	9.9	1.00e-02	0	58	0	60817408	48	5880
2026-01-21 10:14:52.72	93.55	11.22	-39.1	-42.5	10.1	7.05e-03	0	58	0	67108864	48	5777
2026-01-21 10:14:53.72	93.41	11.29	-39.0	-42.2	10.5	3.41e-03	0	58	0	72351744	48	5579
2026-01-21 10:14:54.74	93.28	11.35	-39.0	-42.4	10.1	7.26e-03	0	58	0	77594624	48	5688
2026-01-21 10:14:55.75	93.14	11.42	-38.6	-42.5	9.9	6.35e-03	0	58	0	83886080	48	5733
2026-01-21 10:14:56.76	93.00	11.48	-38.7	-42.2	10.5	4.30e-03	0	58	0	89128960	48	5540
2026-01-21 10:14:57.77	92.86	11.55	-38.8	-42.5	10.0	7.64e-03	0	58	0	95420416	48	5743
2026-01-21 10:14:58.78	92.73	11.61	-39.1	-42.5	10.2	3.97e-03	0	58	0	100663296	48	5778
2026-01-21 10:14:59.79	92.59	11.68	-39.0	-42.3	10.4	4.60e-03	0	58	0	105906176	48	5616
2026-01-21 10:15:00.80	92.45	11.74	-39.4	-43.0	9.6	7.59e-03	0	58	0	112197632	49	5762
2026-01-21 10:15:01.80	92.31	11.81	-39.0	-42.3	10.3	6.49e-03	0	58	0	117440512	49	5309
2026-01-21 10:15:02.81	92.17	11.87	-39.2	-42.8	9.8	5.76e-03	0	58	0	123731968	49	5600
2026-01-21 10:15:03.82	92.03	11.94	-39.0	-42.3	10.4	6.66e-03	0	58	0	128974848	49	5310
2026-01-21 10:15:04.83	91.88	12.00	-38.6	-41.6	11.2	1.01e-03	0	58	0	135266304	48	5200
2026-01-21 10:15:05.84	91.74	12.07	-38.9	-42.0	10.8	1.57e-03	0	58	0	140509184	48	5451
2026-01-21 10:15:06.85	91.60	12.13	-39.0	-42.2	10.6	2.60e-03	0	58	0	145752064	48	5566
2026-01-21 10:15:07.86	91.45	12.20	-38.9	-42.1	10.7	3.26e-03	0	58	0	152043520	48	5507
2026-01-21 10:15:08.87	91.31	12.27	-38.4	-41.3	11.4	8.47e-04	0	58	0	157286400	48	5041
2026-01-21 10:15:09.88	91.16	12.33	-38.4	-41.3	11.5	6.01e-04	0	58	0	163577856	48	5028
2026-01-21 10:15:10.89	91.02	12.40	-38.4	-41.3	11.5	4.28e-04	0	58	0	168820736	48	5030
2026-01-21 10:15:11.90	90.87	12.46	-38.9	-42.2	10.6	1.76e-03	0	58	0	175112192	48	5543
2026-01-21 10:15:12.91	90.72	12.53	-39.8	-43.8	8.8	8.88e-03	0	58	0	180355072	50	5987
2026-01-21 10:15:13.92	90.58	12.59	-40.6	-45.7	6.9	1.03e-01	0	58	0	185597952	51	7006
2026-01-21 10:15:14.93	90.43	12.66	-41.1	-47.8	5.3	3.25e-01	0	58	0	190840832	52	8375
2026-01-21 10:15:15.94	90.28	12.72	-41.6	-50.2	4.2	8.31e-01	0	58	0	190840832	53	10487
2026-01-21 10:15:16.95	90.13	12.79	-41.7	-51.7	3.8	8.45e-01	0	58	104	190840832	54	11750
2026-01-21 10:15:17.96	89.98	12.85	-41.7	-52.0	3.8	8.45e-01	0	59	104	190840832	54	12172
2026-01-21 10:15:18.97	89.83	12.92	-41.7	-51.9	3.8	8.45e-01	0	58	104	190840832	54	11980
2026-01-21 10:15:19.98	89.67	12.98	-41.5	-52.9	3.8	8.47e-01	0	58	104	190840832	54	13567
2026-01-21 10:15:20.99	89.52	13.05	-42.7	-53.7	3.8	8.47e-01	0	58	104	190840832	55	14028
2026-01-21 10:15:22.00	89.37	13.11	-41.3	-52.8	3.8	8.45e-01	0	58	104	190840832	54	13403
2026-01-21 10:15:23.01	89.21	13.18	-41.4	-52.9	3.8	8.46e-01	0	58	104	190840832	53	14292
2026-01-21 10:15:24.02	89.06	13.24	-41.3	-53.0	3.8	8.46e-01	0	58	104	190840832	53	14475
2026-01-21 10:15:25.03	88.90	13.30	-41.1	-53.0	3.8	8.45e-01	0	58	104	190840832	53	14387
2026-01-21 10:15:26.04	88.75	13.37	-41.0	-52.9	3.8	8.46e-01	0	58	104	190840832	53	14306
2026-01-21 10:15:27.05	88.59	13.43	-40.9	-52.7	3.8	8.47e-01	0	58	104	190840832	53	13971
2026-01-21 10:15:28.06	88.43	13.50	-41.1	-52.9	3.8	8.46e-01	0	58	104	190840832	53	14295
2026-01-21 10:15:29.07	88.28	13.56	-42.5	-52.5	3.9	8.40e-01	0	58	104	190840832	55	12163
2026-01-21 10:15:30.08	88.12	13.63	-42.1	-52.1	3.8	8.45e-01	0	59	104	190840832	55	11628
2026-01-21 10:15:31.09	87.96	13.69	-42.2	-52.4	3.8	8.37e-01	0	58	104	190840832	55	11974
2026-01-21 10:15:32.09	87.80	13.76	-41.5	-48.3	5.1	7.85e-01	0	58	0	190840832	55	7497
2026-01-21 10:15:33.11	87.64	13.82	-41.2	-47.4	5.6	7.19e-01	0	58	0	190840832	54	7185
2026-01-21 10:15:34.12	87.47	13.89	-40.9	-46.4	6.3	3.68e-01	0	58	0	195035136	53	6766
2026-01-21 10:15:35.12	87.31	13.95	-40.4	-45.2	7.3	1.52e-01	0	59	0	201326592	52	6221
2026-01-21 10:15:36.13	87.15	14.01	-40.0	-44.4	8.0	8.24e-02	0	59	0	206569472	52	5671
2026-01-21 10:15:37.14	86.99	14.08	-40.0	-44.3	8.2	6.81e-02	0	59	0	212860928	51	5924
2026-01-21 10:15:38.16	86.82	14.14	-39.8	-43.9	8.6	5.28e-02	0	58	0	218103808	51	5666
2026-01-21 10:15:39.17	86.65	14.21	-39.5	-43.4	9.0	3.26e-02	0	59	0	224395264	51	5389
2026-01-21 10:15:40.18	86.49	14.27	-39.3	-43.0	9.4	2.45e-02	0	59	0	229638144	50	5462
2026-01-21 10:15:41.19	86.32	14.33	-39.3	-42.9	9.4	2.05e-02	0	59	0	234881024	50	5399
2026-01-21 10:15:42.20	86.15	14.40	-39.2	-43.0	9.3	2.12e-02	0	59	0	241172480	50	5414
2026-01-21 10:15:43.21	85.99	14.46	-39.4	-43.4	8.9	2.92e-02	0	59	0	246415360	50	5663
2026-01-21 10:15:44.22	85.82	14.53	-39.7	-44.1	8.1	5.53e-02	0	59	0	252706816	50	6164
2026-01-21 10:15:45.23	85.65	14.59	-39.8	-44.4	7.8	9.20e-02	0	59	0	257949696	50	6371
2026-01-21 10:15:46.24	85.48	14.65	-39.9	-44.6	7.5	1.25e-01	0	59	0	263192576	50	6568
2026-01-21 10:15:47.24	85.31	14.72	-40.0	-44.9	7.3	1.28e-01	0	59	0	269484032	50	6746
2026-01-21 10:15:48.25	85.14	14.78	-40.0	-45.1	7.0	1.57e-01	0	59	0	274726912	50	6928
2026-01-21 10:15:49.27	84.96	14.84	-40.0	-45.1	7.1	1.71e-01	0	59	0	281018368	50	6880
2026-01-21 10:15:50.27	84.79	14.91	-40.1	-45.2	7.0	1.89e-01	0	59	0	286261248	50	6982
2026-01-21 10:15:51.28	84.61	14.97	-40.2	-45.5	6.8	1.64e-01	0	59	0	291504128	51	6808
2026-01-21 10:15:52.29	84.44	15.03	-41.1	-47.7	4.3	8.41e-01	0	59	104	293601280	54	7411
2026-01-21 10:15:53.30	84.26	15.09	-40.6	-47.4	4.4	8.40e-01	0	59	104	293601280	52	8047
2026-01-21 10:15:54.31	84.09	15.16	-39.6	-43.6	8.8	8.86e-02	0	59	0	296747008	51	5514
2026-01-21 10:15:55.32	83.91	15.22	-41.3	-49.9	4.1	8.45e-01	0	59	104	299892736	53	10094
2026-01-21 10:15:56.33	83.73	15.28	-39.4	-43.2	9.2	3.31e-02	0	59	0	304087040	50	5578
2026-01-21 10:15:57.34	83.55	15.34	-39.3	-42.9	9.5	1.83e-02	0	59	0	309329920	50	5391
2026-01-21 10:15:58.35	83.38	15.41	-39.1	-42.6	9.9	1.26e-02	0	59	0	314572800	50	5185
2026-01-21 10:15:59.36	83.20	15.47	-39.2	-42.7	9.8	1.21e-02	0	59	0	320864256	50	5273
2026-01-21 10:16:00.36	83.02	15.53	-39.1	-42.5	10.0	1.11e-02	0	59	0	326107136	50	5153
2026-01-21 10:16:01.37	82.83	15.59	-39.0	-42.3	10.3	6.87e-03	0	59	0	332398592	50	4987
2026-01-21 10:16:02.38	82.65	15.65	-39.0	-42.3	10.3	6.68e-03	0	59	0	337641472	49	5327
2026-01-21 10:16:03.39	82.47	15.72	-39.0	-42.4	10.2	7.31e-03	0	59	0	343932928	49	5359
2026-01-21 10:16:04.40	82.29	15.78	-39.2	-42.6	10.1	8.66e-03	0	59	0	349175808	49	5518
2026-01-21 10:16:05.41	82.10	15.84	-39.3	-42.7	10.0	1.03e-02	0	59	0	355467264	49	5581
2026-01-21 10:16:06.42	81.91	15.90	-39.3	-42.7	10.0	1.05e-02	0	59	0	360710144	49	5583
2026-01-21 10:16:07.43	81.73	15.96	-39.3	-42.8	10.0	1.03e-02	0	59	0	365953024	49	5615
2026-01-21 10:16:08.44	81.54	16.02	-39.3	-42.7	10.1	9.44e-03	0	59	0	372244480	49	5586
2026-01-21 10:16:09.45	81.35	16.08	-39.2	-42.5	10.3	7.53e-03	0	59	0	377487360	49	5442
2026-01-21 10:16:10.46	81.17	16.14	-39.1	-42.3	10.5	6.23e-03	0	59	0	383778816	49	5324
2026-01-21 10:16:11.46	80.98	16.20	-38.9	-42.1	10.7	4.40e-03	0	59	0	389021696	49	5196
2026-01-21 10:16:12.47	80.79	16.26	-39.0	-42.2	10.4	5.36e-03	0	59	0	394264576	49	5267
2026-01-21 10:16:13.48	80.60	16.32	-39.0	-42.4	10.1	6.83e-03	0	59	0	400556032	49	5394
2026-01-21 10:16:14.49	80.41	16.38	-39.1	-42.7	9.9	1.15e-02	0	59	0	405798912	49	5529
2026-01-21 10:16:15.50	80.21	16.44	-39.2	-42.8	9.7	1.23e-02	0	59	0	412090368	49	5610
2026-01-21 10:16:16.51	80.02	16.50	-39.3	-42.9	9.5	1.61e-02	0	59	0	417333248	49	5713
2026-01-21 10:16:17.52	79.83	16.56	-39.4	-43.2	9.3	2.08e-02	0	59	0	422576128	49	5894
2026-01-21 10:16:18.53	79.63	16.62	-39.4	-43.1	9.4	2.00e-02	0	59	0	428867584	49	5847
2026-01-21 10:16:19.54	79.44	16.68	-39.3	-43.0	9.6	1.88e-02	0	59	0	434110464	49	5730
2026-01-21 10:16:20.55	79.24	16.74	-39.3	-42.8	9.8	1.37e-02	0	59	0	440401920	49	5651
2026-01-21 10:16:21.56	79.04	16.80	-39.3	-42.9	9.7	1.37e-02	0	59	0	445644800	49	5676
2026-01-21 10:16:22.57	78.85	16.85	-39.2	-42.8	9.8	1.29e-02	0	59	0	451936256	49	5597
2026-01-21 10:16:23.58	78.65	16.91	-39.2	-42.8	9.7	1.37e-02	0	59	0	457179136	49	5598
2026-01-21 10:16:24.59	78.45	16.97	-39.2	-42.9	9.5	1.59e-02	0	59	0	462422016	49	5718
2026-01-21 10:16:25.60	78.25	17.03	-39.3	-43.0	9.3	2.20e-02	0	59	0	468713472	49	5786
2026-01-21 10:16:26.60	78.05	17.09	-39.3	-43.1	9.2	2.38e-02	0	59	0	473956352	49	5827
2026-01-21 10:16:27.61	77.85	17.14	-39.3	-43.1	9.2	2.67e-02	0	59	0	480247808	49	5833
2026-01-21 10:16:28.62	77.65	17.20	-39.2	-43.1	9.2	2.50e-02	0	59	0	485490688	49	5805
2026-01-21 10:16:29.63	77.44	17.26	-39.1	-42.9	9.4	2.04e-02	0	59	0	490733568	49	5662
2026-01-21 10:16:30.64	77.24	17.31	-39.2	-43.0	9.3	2.02e-02	0	59	0	497025024	49	5764
2026-01-21 10:16:31.65	77.03	17.37	-39.2	-42.9	9.3	2.38e-02	0	59	0	502267904	49	5706
2026-01-21 10:16:32.67	76.83	17.43	-38.9	-42.4	10.0	1.30e-02	0	59	0	508559360	49	5358
2026-01-21 10:16:33.68	76.62	17.48	-38.8	-42.1	10.3	7.19e-03	0	59	0	513802240	49	5212
2026-01-21 10:16:34.69	76.41	17.54	-38.7	-42.0	10.5	5.40e-03	0	59	0	519045120	49	5103
2026-01-21 10:16:35.70	76.21	17.59	-38.6	-41.9	10.6	4.78e-03	0	59	0	525336576	49	5065
2026-01-21 10:16:36.71	76.00	17.65	-38.7	-42.0	10.5	5.32e-03	0	59	0	530579456	49	5114
2026-01-21 10:16:37.72	75.79	17.70	-38.8	-42.1	10.4	5.62e-03	0	59	0	536870912	49	5168
2026-01-21 10:16:38.73	75.58	17.76	-38.8	-42.1	10.4	5.75e-03	0	60	0	542113792	49	5177
2026-01-21 10:16:39.74	75.37	17.81	-38.9	-42.2	10.3	6.53e-03	0	60	0	548405248	49	5275
2026-01-21 10:16:40.75	75.16	17.86	-39.0	-42.4	10.1	8.63e-03	0	59	0	553648128	49	5354
2026-01-21 10:16:41.76	74.94	17.92	-39.1	-42.5	10.0	1.03e-02	0	59	0	559939584	49	5460
2026-01-21 10:16:42.77	74.73	17.97	-39.2	-42.8	9.7	1.28e-02	0	59	0	565182464	49	5619
2026-01-21 10:16:43.78	74.52	18.02	-39.2	-42.8	9.7	1.42e-02	0	59	0	570425344	49	5621
2026-01-21 10:16:44.79	74.30	18.08	-39.1	-42.7	9.8	1.34e-02	0	59	0	576716800	49	5589
2026-01-21 10:16:45.80	74.09	18.13	-39.1	-42.7	9.8	1.37e-02	0	59	0	581959680	49	5546
2026-01-21 10:16:46.81	73.87	18.18	-39.1	-42.5	10.1	9.77e-03	0	59	0	588251136	49	5449
2026-01-21 10:16:47.82	73.65	18.23	-39.2	-42.5	10.2	7.55e-03	0	59	0	593494016	49	5460
2026-01-21 10:16:48.83	73.44	18.28	-39.0	-42.2	10.6	4.73e-03	0	60	0	598736896	49	5252
2026-01-21 10:16:49.84	73.22	18.34	-38.9	-42.0	10.9	3.41e-03	0	59	0	605028352	49	5131
2026-01-21 10:16:50.85	73.00	18.39	-38.9	-42.1	10.9	3.21e-03	0	59	0	610271232	49	5169
2026-01-21 10:16:51.86	72.78	18.44	-38.9	-42.0	11.0	2.94e-03	0	60	0	616562688	49	5128
2026-01-21 10:16:52.87	72.56	18.49	-38.8	-41.9	11.2	1.99e-03	0	59	0	621805568	49	5043
2026-01-21 10:16:53.88	72.34	18.54	-38.8	-41.7	11.4	1.57e-03	0	59	0	627048448	49	4970
2026-01-21 10:16:54.90	72.11	18.59	-38.7	-41.6	11.6	1.25e-03	0	59	0	633339904	49	4905
2026-01-21 10:16:55.91	71.89	18.64	-38.7	-41.5	11.7	8.55e-04	0	59	0	638582784	49	4865
2026-01-21 10:16:56.92	71.67	18.68	-38.6	-41.4	11.9	6.16e-04	0	60	0	644874240	49	4794
2026-01-21 10:16:57.93	71.44	18.73	-38.6	-41.4	11.9	5.74e-04	0	60	0	650117120	49	4782
2026-01-21 10:16:58.94	71.22	18.78	-38.6	-41.4	11.9	5.65e-04	0	59	0	656408576	49	4772
2026-01-21 10:16:59.95	70.99	18.83	-38.7	-41.5	11.9	5.92e-04	0	59	0	661651456	49	4840
2026-01-21 10:17:00.95	70.77	18.88	-38.6	-41.3	12.3	4.50e-04	0	60	0	667942912	49	4721
2026-01-21 10:17:01.96	70.54	18.92	-38.5	-41.0	12.8	1.05e-04	0	59	0	673185792	49	4558
2026-01-21 10:17:02.97	70.31	18.97	-38.4	-40.9	13.1	5.03e-05	0	60	0	678428672	48	4765
2026-01-21 10:17:03.99	70.08	19.02	-38.4	-40.8	13.3	3.77e-05	0	60	0	684720128	48	4721
2026-01-21 10:17:04.99	69.86	19.06	-38.3	-40.6	13.6	1.02e-05	0	59	0	689963008	48	4600
2026-01-21 10:17:06.00	69.63	19.11	-38.1	-40.3	13.9	6.80e-06	0	60	0	696254464	48	4447
2026-01-21 10:17:07.01	69.40	19.15	-37.8	-40.0	14.1	1.02e-05	0	59	0	701497344	47	4561
2026-01-21 10:17:08.02	69.17	19.20	-37.8	-39.9	14.2	3.40e-06	0	60	0	706740224	47	4510
2026-01-21 10:17:09.03	68.93	19.24	-37.8	-39.9	14.2	4.50e-06	0	60	0	713031680	47	4528
2026-01-21 10:17:10.04	68.70	19.28	-37.8	-39.9	14.3	2.20e-06	0	60	0	718274560	47	4509
2026-01-21 10:17:11.05	68.47	19.33	-37.7	-39.8	14.4	0.00e+00	0	59	0	723517440	47	4475
2026-01-21 10:17:12.06	68.24	19.37	-37.7	-39.8	14.5	1.10e-06	0	59	0	729808896	47	4458
2026-01-21 10:17:13.07	68.00	19.41	-37.7	-39.7	14.6	0.00e+00	0	60	0	735051776	47	4439
2026-01-21 10:17:14.08	67.77	19.46	-37.7	-39.7	14.7	2.20e-06	0	60	0	741343232	47	4406
2026-01-21 10:17:15.09	67.53	19.50	-37.7	-39.8	14.7	0.00e+00	0	60	0	746586112	47	4445
2026-01-21 10:17:16.10	67.29	19.54	-37.5	-39.4	15.0	0.00e+00	0	59	0	752877568	47	4289
2026-01-21 10:17:17.11	67.06	19.58	-37.3	-39.2	15.4	0.00e+00	0	59	0	758120448	46	4411
2026-01-21 10:17:18.12	66.82	19.62	-37.1	-38.9	15.7	0.00e+00	0	60	0	764411904	46	4283
2026-01-21 10:17:19.13	66.58	19.66	-36.9	-38.7	15.9	0.00e+00	0	60	0	769654784	45	4419
2026-01-21 10:17:20.14	66.34	19.70	-36.9	-38.7	16.0	0.00e+00	0	59	0	774897664	45	4408
2026-01-21 10:17:21.15	66.10	19.74	-36.9	-38.7	15.9	0.00e+00	0	60	0	781189120	45	4434
2026-01-21 10:17:22.16	65.86	19.78	-36.9	-38.7	16.0	0.00e+00	0	60	0	786432000	45	4425
2026-01-21 10:17:23.17	65.62	19.81	-36.9	-38.7	16.0	0.00e+00	0	60	0	792723456	45	4422
2026-01-21 10:17:24.18	65.38	19.85	-36.9	-38.7	16.0	0.00e+00	0	59	0	797966336	45	4416
2026-01-21 10:17:25.19	65.14	19.89	-36.9	-38.7	16.0	0.00e+00	0	60	0	803209216	45	4420
2026-01-21 10:17:26.20	64.90	19.93	-36.8	-38.6	16.1	0.00e+00	0	60	0	809500672	45	4375
2026-01-21 10:17:27.21	64.65	19.96	-36.9	-38.7	16.1	0.00e+00	0	60	0	814743552	45	4401
2026-01-21 10:17:28.22	64.41	20.00	-36.9	-38.7	16.1	0.00e+00	0	60	0	821035008	45	4400
2026-01-21 10:17:29.23	64.17	20.03	-36.9	-38.7	16.1	0.00e+00	0	59	0	826277888	45	4432
2026-01-21 10:17:30.23	63.92	20.07	-36.9	-38.7	16.1	0.00e+00	0	60	0	831520768	45	4403
2026-01-21 10:17:31.24	63.68	20.10	-37.0	-38.7	16.1	0.00e+00	0	60	0	837812224	45	4420
2026-01-21 10:17:32.25	63.43	20.13	-36.9	-38.6	16.2	0.00e+00	0	60	0	843055104	45	4379
2026-01-21 10:17:33.26	63.19	20.17	-36.8	-38.6	16.2	0.00e+00	0	60	0	849346560	45	4350
2026-01-21 10:17:34.27	62.94	20.20	-36.9	-38.6	16.2	0.00e+00	0	60	0	854589440	45	4361
2026-01-21 10:17:35.28	62.69	20.23	-37.0	-38.7	16.1	0.00e+00	0	60	0	860880896	45	4429
2026-01-21 10:17:36.29	62.44	20.26	-36.9	-38.7	16.1	0.00e+00	0	60	0	866123776	45	4401
2026-01-21 10:17:37.30	62.20	20.29	-37.0	-38.8	16.0	0.00e+00	0	60	0	871366656	45	4480
2026-01-21 10:17:38.31	61.95	20.33	-37.1	-38.9	16.0	0.00e+00	0	60	0	877658112	45	4504
2026-01-21 10:17:39.32	61.70	20.36	-37.1	-38.9	16.0	0.00e+00	0	60	0	882900992	45	4506
2026-01-21 10:17:40.33	61.45	20.38	-37.0	-38.7	16.1	0.00e+00	0	60	0	889192448	45	4428
2026-01-21 10:17:41.34	61.20	20.41	-37.0	-38.8	16.0	0.00e+00	0	60	0	894435328	45	4473
2026-01-21 10:17:42.35	60.95	20.44	-37.2	-39.0	15.8	0.00e+00	0	60	0	900726784	45	4586
2026-01-21 10:17:43.36	60.70	20.47	-37.3	-39.1	15.7	0.00e+00	0	60	0	905969664	45	4647
2026-01-21 10:17:44.37	60.44	20.50	-37.2	-39.1	15.8	0.00e+00	0	60	0	911212544	45	4604
2026-01-21 10:17:45.38	60.19	20.52	-37.2	-39.0	15.8	0.00e+00	0	60	0	917504000	45	4585
2026-01-21 10:17:46.39	59.94	20.55	-37.2	-39.0	15.9	0.00e+00	0	60	0	922746880	45	4577
2026-01-21 10:17:47.39	59.69	20.58	-37.2	-38.9	15.9	0.00e+00	0	60	0	927989760	45	4543
2026-01-21 10:17:48.40	59.43	20.60	-37.0	-38.8	16.1	0.00e+00	0	60	0	934281216	45	4445
2026-01-21 10:17:49.41	59.18	20.63	-37.0	-38.7	16.1	0.00e+00	0	60	0	939524096	45	4421
2026-01-21 10:17:50.42	58.93	20.65	-37.0	-38.8	16.1	0.00e+00	0	60	0	945815552	45	4453
2026-01-21 10:17:51.43	58.67	20.67	-37.0	-38.8	16.1	0.00e+00	0	60	0	951058432	45	4444
2026-01-21 10:17:52.44	58.42	20.70	-37.0	-38.8	16.1	0.00e+00	0	60	0	957349888	45	4477
2026-01-21 10:17:53.45	58.16	20.72	-37.0	-38.8	16.1	0.00e+00	0	60	0	962592768	45	4458
2026-01-21 10:17:54.46	57.91	20.74	-37.0	-38.7	16.2	0.00e+00	0	60	0	968884224	45	4422
2026-01-21 10:17:55.47	57.65	20.76	-37.1	-38.8	16.4	0.00e+00	0	60	0	974127104	45	4444
2026-01-21 10:17:56.48	57.39	20.78	-37.0	-38.7	16.5	0.00e+00	0	60	0	979369984	45	4396
2026-01-21 10:17:57.49	57.14	20.80	-37.0	-38.6	16.5	0.00e+00	0	60	0	985661440	45	4378
2026-01-21 10:17:58.50	56.88	20.82	-37.0	-38.6	16.5	0.00e+00	0	60	0	990904320	45	4374
2026-01-21 10:17:59.51	56.62	20.84	-37.1	-38.7	16.4	0.00e+00	0	60	0	997195776	45	4434
2026-01-21 10:18:00.52	56.36	20.86	-37.0	-38.6	16.5	0.00e+00	0	60	0	1002438656	45	4390
2026-01-21 10:18:01.53	56.11	20.87	-37.0	-38.6	16.5	0.00e+00	0	60	0	1007681536	45	4366
2026-01-21 10:18:02.54	55.85	20.89	-37.0	-38.6	16.5	0.00e+00	0	60	0	1013972992	45	4389
2026-01-21 10:18:03.55	55.59	20.91	-37.0	-38.6	16.6	0.00e+00	0	60	0	1019215872	45	4364
2026-01-21 10:18:04.56	55.33	20.92	-37.0	-38.6	16.5	0.00e+00	0	60	0	1025507328	45	4378
2026-01-21 10:18:05.57	55.07	20.94	-37.0	-38.6	16.6	0.00e+00	0	60	0	1030750208	45	4359
2026-01-21 10:18:06.58	54.81	20.95	-37.1	-38.7	16.4	0.00e+00	0	60	0	1035993088	45	4415
2026-01-21 10:18:07.59	54.55	20.97	-37.2	-38.8	16.3	0.00e+00	0	60	0	1042284544	45	4458
2026-01-21 10:18:08.60	54.29	20.98	-37.2	-38.9	16.3	0.00e+00	0	60	0	1047527424	45	4501
2026-01-21 10:18:09.61	54.03	20.99	-37.3	-39.0	16.2	0.00e+00	0	60	0	1053818880	45	4549
2026-01-21 10:18:10.62	53.77	21.00	-37.4	-39.1	16.0	0.00e+00	0	60	0	1059061760	45	4637
2026-01-21 10:18:11.63	53.51	21.01	-37.5	-39.2	15.9	0.00e+00	0	59	0	1065353216	45	4669
2026-01-21 10:18:12.64	53.25	21.03	-37.5	-39.2	15.9	0.00e+00	0	60	0	1070596096	45	4685
2026-01-21 10:18:13.65	52.99	21.04	-37.4	-39.1	16.1	0.00e+00	0	60	0	1076887552	45	4600
2026-01-21 10:18:14.66	52.73	21.05	-37.3	-39.0	16.1	0.00e+00	0	60	0	1082130432	45	4566
2026-01-21 10:18:15.67	52.47	21.05	-37.4	-39.0	16.1	0.00e+00	0	60	0	1087373312	45	4579
2026-01-21 10:18:16.68	52.21	21.06	-37.2	-38.9	16.3	0.00e+00	0	60	0	1093664768	45	4505
2026-01-21 10:18:17.69	51.95	21.07	-37.1	-38.7	16.5	0.00e+00	0	60	0	1098907648	45	4413
2026-01-21 10:18:18.70	51.69	21.08	-37.0	-38.6	16.5	0.00e+00	0	60	0	1105199104	45	4361
2026-01-21 10:18:19.71	51.42	21.08	-37.1	-38.7	16.5	0.00e+00	0	60	0	1110441984	45	4398
2026-01-21 10:18:20.72	51.16	21.09	-37.1	-38.7	16.5	0.00e+00	0	60	0	1115684864	45	4403
2026-01-21 10:18:21.73	50.90	21.09	-37.1	-38.7	16.4	0.00e+00	0	60	0	1121976320	45	4431
2026-01-21 10:18:22.74	50.64	21.10	-37.1	-38.8	16.4	0.00e+00	0	60	0	1127219200	45	4445
2026-01-21 10:18:23.75	50.38	21.10	-37.1	-38.7	16.5	0.00e+00	0	60	0	1133510656	45	4402
2026-01-21 10:18:24.76	50.12	21.11	-37.1	-38.7	16.5	0.00e+00	0	60	0	1138753536	45	4402
2026-01-21 10:18:25.78	49.85	21.11	-37.1	-38.7	16.5	0.00e+00	0	60	0	1143996416	45	4419
2026-01-21 10:18:26.79	49.59	21.11	-37.2	-38.8	16.4	0.00e+00	0	60	0	1150287872	45	4478
2026-01-21 10:18:27.79	49.33	21.11	-37.3	-39.0	16.2	0.00e+00	0	60	0	1155530752	45	4548
2026-01-21 10:18:28.80	49.07	21.11	-37.2	-38.9	16.3	0.00e+00	0	60	0	1161822208	45	4513
2026-01-21 10:18:29.81	48.80	21.11	-37.3	-38.9	16.2	0.00e+00	0	60	0	1167065088	45	4536
2026-01-21 10:18:30.82	48.54	21.11	-37.2	-38.9	16.3	0.00e+00	0	60	0	1173356544	45	4501
2026-01-21 10:18:31.83	48.28	21.11	-37.3	-38.9	16.2	0.00e+00	0	60	0	1178599424	45	4541
2026-01-21 10:18:32.84	48.02	21.11	-37.2	-38.8	16.3	0.00e+00	0	60	0	1183842304	45	4477
2026-01-21 10:18:33.85	47.76	21.11	-37.2	-38.8	16.3	0.00e+00	0	60	0	1190133760	45	4482
2026-01-21 10:18:34.86	47.50	21.10	-37.3	-38.9	16.2	0.00e+00	0	60	0	1195376640	45	4533
2026-01-21 10:18:35.87	47.23	21.10	-37.3	-39.0	16.2	0.00e+00	0	60	0	1201668096	45	4564
2026-01-21 10:18:36.88	46.97	21.09	-37.4	-39.0	16.2	0.00e+00	0	60	0	1206910976	45	4592
2026-01-21 10:18:37.89	46.71	21.09	-37.2	-38.9	16.3	0.00e+00	0	60	0	1212153856	45	4501
2026-01-21 10:18:38.90	46.45	21.08	-37.1	-38.7	16.5	0.00e+00	0	60	0	1218445312	45	4412
2026-01-21 10:18:39.91	46.19	21.08	-37.0	-38.6	16.6	0.00e+00	0	60	0	1223688192	45	4379
2026-01-21 10:18:40.92	45.93	21.07	-37.1	-38.7	16.5	0.00e+00	0	60	0	1229979648	45	4399
2026-01-21 10:18:41.93	45.66	21.06	-37.1	-38.7	16.5	0.00e+00	0	60	0	1235222528	45	4419
2026-01-21 10:18:42.94	45.40	21.06	-37.1	-38.7	16.5	0.00e+00	0	60	0	1240465408	45	4435
2026-01-21 10:18:43.95	45.14	21.05	-37.1	-38.7	16.5	0.00e+00	0	60	0	1246756864	45	4427
2026-01-21 10:18:44.96	44.88	21.04	-37.1	-38.7	16.6	0.00e+00	0	60	0	1251999744	45	4393
2026-01-21 10:18:45.97	44.62	21.03	-37.2	-38.9	16.3	0.00e+00	0	60	0	1258291200	45	4500
2026-01-21 10:18:46.98	44.36	21.02	-37.2	-38.9	16.3	0.00e+00	0	60	0	1263534080	45	4502
2026-01-21 10:18:47.99	44.10	21.00	-37.2	-38.8	16.4	0.00e+00	0	60	0	1269825536	45	4485
2026-01-21 10:18:48.99	43.84	20.99	-37.1	-38.8	16.4	0.00e+00	0	60	0	1275068416	45	4448
2026-01-21 10:18:50.00	43.58	20.98	-37.2	-38.8	16.3	0.00e+00	0	60	0	1281359872	45	4492
2026-01-21 10:18:51.01	43.32	20.97	-37.1	-38.7	16.4	0.00e+00	0	60	0	1286602752	45	4434
2026-01-21 10:18:52.02	43.06	20.95	-37.0	-38.6	16.6	0.00e+00	0	60	0	1291845632	45	4356
2026-01-21 10:18:53.03	42.80	20.94	-36.9	-38.5	16.7	0.00e+00	0	60	0	1298137088	45	4322
2026-01-21 10:18:54.04	42.55	20.92	-36.9	-38.5	16.7	0.00e+00	0	60	0	1303379968	45	4320
2026-01-21 10:18:55.05	42.29	20.91	-36.9	-38.5	16.7	0.00e+00	0	60	0	1309671424	45	4304
2026-01-21 10:18:56.06	42.03	20.89	-36.9	-38.5	16.7	0.00e+00	0	60	0	1314914304	45	4332
2026-01-21 10:18:57.07	41.77	20.88	-36.9	-38.5	16.7	0.00e+00	0	60	0	1320157184	45	4310
2026-01-21 10:18:58.08	41.51	20.86	-36.9	-38.5	16.7	0.00e+00	0	60	0	1326448640	45	4312
2026-01-21 10:18:59.09	41.26	20.84	-36.9	-38.5	16.7	0.00e+00	0	60	0	1331691520	45	4305
2026-01-21 10:19:00.10	41.00	20.82	-36.9	-38.5	16.7	0.00e+00	0	60	0	1337982976	45	4317
2026-01-21 10:19:01.11	40.74	20.80	-37.0	-38.5	16.7	0.00e+00	0	60	0	1343225856	45	4338
2026-01-21 10:19:02.12	40.49	20.78	-37.0	-38.6	16.6	0.00e+00	0	60	0	1348468736	45	4363
2026-01-21 10:19:03.13	40.23	20.76	-37.0	-38.6	16.6	0.00e+00	0	60	0	1354760192	45	4357
2026-01-21 10:19:04.14	39.97	20.74	-37.0	-38.6	16.6	0.00e+00	0	60	0	1360003072	45	4366
2026-01-21 10:19:05.15	39.72	20.72	-37.0	-38.6	16.6	0.00e+00	0	60	0	1366294528	45	4360
2026-01-21 10:19:06.16	39.46	20.70	-37.1	-38.6	16.5	0.00e+00	0	60	0	1371537408	45	4386
2026-01-21 10:19:07.17	39.21	20.68	-37.2	-38.8	16.5	0.00e+00	0	60	0	1377828864	45	4445
2026-01-21 10:19:08.18	38.95	20.65	-37.2	-38.9	16.3	0.00e+00	0	60	0	1383071744	45	4502
2026-01-21 10:19:09.19	38.70	20.63	-37.2	-38.8	16.4	0.00e+00	0	60	0	1388314624	45	4472
2026-01-21 10:19:10.20	38.45	20.60	-37.1	-38.7	16.5	0.00e+00	0	60	0	1394606080	45	4414
2026-01-21 10:19:11.21	38.19	20.58	-37.1	-38.7	16.5	0.00e+00	0	60	0	1399848960	45	4407
2026-01-21 10:19:12.22	37.94	20.55	-37.0	-38.6	16.6	0.00e+00	0	60	0	1406140416	45	4361
2026-01-21 10:19:13.23	37.69	20.53	-37.0	-38.5	16.7	0.00e+00	0	60	0	1411383296	45	4332
2026-01-21 10:19:14.24	37.44	20.50	-37.0	-38.5	16.7	0.00e+00	0	60	0	1416626176	45	4325
2026-01-21 10:19:15.25	37.19	20.47	-37.0	-38.6	16.6	0.00e+00	0	60	0	1422917632	45	4357
2026-01-21 10:19:16.26	36.93	20.45	-37.1	-38.7	16.5	0.00e+00	0	60	0	1428160512	45	4422
2026-01-21 10:19:17.27	36.68	20.42	-37.2	-38.8	16.4	0.00e+00	0	60	0	1434451968	45	4472
2026-01-21 10:19:18.28	36.43	20.39	-37.1	-38.7	16.5	0.00e+00	0	60	0	1439694848	45	4441
2026-01-21 10:19:19.29	36.18	20.36	-37.2	-38.8	16.4	0.00e+00	0	60	0	1444937728	45	4449
2026-01-21 10:19:20.30	35.94	20.33	-37.3	-38.9	16.3	0.00e+00	0	60	0	1451229184	45	4504
2026-01-21 10:19:21.30	35.69	20.30	-37.3	-38.9	16.3	0.00e+00	0	60	0	1456472064	45	4528
2026-01-21 10:19:22.31	35.44	20.27	-37.3	-38.9	16.3	0.00e+00	0	60	0	1462763520	45	4531
2026-01-21 10:19:23.32	35.19	20.24	-37.4	-39.1	16.2	0.00e+00	0	60	0	1468006400	45	4602
2026-01-21 10:19:24.33	34.95	20.21	-37.4	-39.1	16.1	0.00e+00	0	60	0	1474297856	45	4609
2026-01-21 10:19:25.34	34.70	20.17	-37.4	-39.1	16.1	0.00e+00	0	60	0	1479540736	45	4617
2026-01-21 10:19:26.35	34.46	20.14	-37.4	-39.1	16.1	0.00e+00	0	60	0	1485832192	45	4620
2026-01-21 10:19:27.36	34.21	20.11	-37.4	-39.0	16.2	0.00e+00	0	60	0	1491075072	45	4575
2026-01-21 10:19:28.37	33.97	20.07	-37.3	-38.9	16.3	0.00e+00	0	60	0	1496317952	45	4510
2026-01-21 10:19:29.38	33.72	20.04	-37.3	-38.9	16.3	0.00e+00	0	60	0	1502609408	45	4513
2026-01-21 10:19:30.39	33.48	20.00	-37.3	-38.9	16.3	0.00e+00	0	60	0	1507852288	45	4525
2026-01-21 10:19:31.40	33.23	19.97	-37.2	-38.8	16.4	0.00e+00	0	60	0	1514143744	45	4470
2026-01-21 10:19:32.42	32.99	19.93	-37.1	-38.7	16.5	0.00e+00	0	60	0	1519386624	45	4426
2026-01-21 10:19:33.43	32.75	19.89	-37.1	-38.7	16.5	0.00e+00	0	60	0	1524629504	45	4433
2026-01-21 10:19:34.44	32.51	19.86	-37.2	-38.9	16.3	0.00e+00	0	60	0	1530920960	45	4503
2026-01-21 10:19:35.45	32.27	19.82	-37.3	-39.0	16.2	0.00e+00	0	60	0	1536163840	45	4566
2026-01-21 10:19:36.46	32.03	19.78	-37.3	-39.0	16.2	0.00e+00	0	60	0	1542455296	45	4554
2026-01-21 10:19:37.47	31.79	19.74	-37.3	-39.0	16.2	0.00e+00	0	60	0	1547698176	45	4578
2026-01-21 10:19:38.48	31.55	19.70	-37.4	-39.0	16.2	0.00e+00	0	60	0	1552941056	45	4578
2026-01-21 10:19:39.49	31.31	19.67	-37.4	-39.0	16.2	0.00e+00	0	60	0	1559232512	45	4587
2026-01-21 10:19:40.50	31.07	19.63	-37.4	-39.1	16.1	0.00e+00	0	60	0	1564475392	45	4631
2026-01-21 10:19:41.51	30.83	19.59	-37.4	-39.1	16.1	0.00e+00	0	60	0	1570766848	45	4633
2026-01-21 10:19:42.52	30.60	19.54	-37.5	-39.2	16.0	0.00e+00	0	60	0	1576009728	45	4657
2026-01-21 10:19:43.53	30.36	19.50	-37.5	-39.2	16.0	0.00e+00	0	60	0	1582301184	45	4659
2026-01-21 10:19:44.54	30.13	19.46	-37.5	-39.2	16.0	0.00e+00	0	60	0	1587544064	45	4669
2026-01-21 10:19:45.55	29.89	19.42	-37.5	-39.2	15.9	0.00e+00	0	60	0	1592786944	45	4698
2026-01-21 10:19:46.56	29.66	19.38	-37.6	-39.3	15.8	0.00e+00	0	60	0	1599078400	45	4751
2026-01-21 10:19:47.57	29.42	19.33	-37.6	-39.3	15.9	0.00e+00	0	60	0	1604321280	45	4715
2026-01-21 10:19:48.58	29.19	19.29	-37.6	-39.3	15.9	0.00e+00	0	60	0	1610612736	45	4725
2026-01-21 10:19:49.59	28.96	19.25	-37.5	-39.2	16.0	0.00e+00	0	60	0	1615855616	45	4661
2026-01-21 10:19:50.60	28.73	19.20	-37.4	-39.1	16.0	0.00e+00	0	60	0	1622147072	45	4631
2026-01-21 10:19:51.61	28.50	19.16	-37.4	-39.1	16.1	0.00e+00	0	60	0	1627389952	45	4629
2026-01-21 10:19:52.62	28.27	19.11	-37.5	-39.2	16.0	0.00e+00	0	60	0	1632632832	45	4668
2026-01-21 10:19:53.63	28.04	19.07	-37.5	-39.2	16.0	0.00e+00	0	60	0	1638924288	45	4664
2026-01-21 10:19:54.64	27.81	19.02	-37.5	-39.2	15.9	0.00e+00	0	60	0	1644167168	45	4699
2026-01-21 10:19:55.65	27.58	18.98	-37.6	-39.2	15.9	0.00e+00	0	60	0	1649410048	45	4700
2026-01-21 10:19:56.66	27.36	18.93	-37.6	-39.3	15.9	0.00e+00	0	60	0	1655701504	45	4715
2026-01-21 10:19:57.66	27.13	18.89	-37.7	-39.4	15.8	0.00e+00	0	60	0	1660944384	45	4777
2026-01-21 10:19:58.68	26.91	18.84	-37.7	-39.5	15.7	0.00e+00	0	60	0	1667235840	45	4818
2026-01-21 10:19:59.68	26.68	18.79	-37.7	-39.5	15.7	0.00e+00	0	60	0	1672478720	46	4567
2026-01-21 10:20:00.69	26.46	18.74	-37.7	-39.4	15.7	0.00e+00	0	60	0	1678770176	46	4542
2026-01-21 10:20:01.70	26.23	18.69	-37.7	-39.4	15.8	0.00e+00	0	60	0	1684013056	46	4516
2026-01-21 10:20:02.71	26.01	18.65	-37.7	-39.5	15.7	0.00e+00	0	60	0	1690304512	46	4557
2026-01-21 10:20:03.72	25.79	18.60	-37.8	-39.5	15.6	0.00e+00	0	60	0	1695547392	46	4593
2026-01-21 10:20:04.73	25.57	18.55	-37.8	-39.6	15.5	0.00e+00	0	60	0	1700790272	46	4639
2026-01-21 10:20:05.74	25.35	18.50	-37.8	-39.6	15.6	0.00e+00	0	60	0	1707081728	46	4627
2026-01-21 10:20:06.75	25.13	18.45	-37.9	-39.6	15.5	0.00e+00	0	60	0	1712324608	46	4651
2026-01-21 10:20:07.76	24.91	18.40	-37.8	-39.6	15.5	0.00e+00	0	60	0	1718616064	46	4635
2026-01-21 10:20:08.77	24.69	18.35	-37.8	-39.6	15.6	0.00e+00	0	60	0	1723858944	46	4614
2026-01-21 10:20:09.78	24.47	18.30	-37.8	-39.5	15.6	0.00e+00	0	60	0	1729101824	46	4586
2026-01-21 10:20:10.79	24.26	18.24	-37.8	-39.6	15.5	0.00e+00	0	60	0	1735393280	46	4624
2026-01-21 10:20:11.80	24.04	18.19	-37.9	-39.7	15.4	0.00e+00	0	60	0	1740636160	46	4693
2026-01-21 10:20:12.81	23.83	18.14	-37.9	-39.7	15.4	1.10e-06	0	60	0	1746927616	46	4697
2026-01-21 10:20:13.82	23.61	18.09	-38.0	-39.8	15.3	0.00e+00	0	60	0	1752170496	46	4735
2026-01-21 10:20:14.82	23.40	18.04	-38.0	-39.8	15.3	0.00e+00	0	60	0	1757413376	46	4740
2026-01-21 10:20:15.83	23.19	17.98	-37.9	-39.8	15.4	1.10e-06	0	60	0	1763704832	46	4706
2026-01-21 10:20:16.84	22.97	17.93	-37.8	-39.6	15.6	0.00e+00	0	60	0	1768947712	46	4604
2026-01-21 10:20:17.85	22.76	17.88	-37.8	-39.5	15.6	0.00e+00	0	60	0	1775239168	46	4568
2026-01-21 10:20:18.86	22.55	17.82	-37.8	-39.6	15.6	0.00e+00	0	60	0	1780482048	46	4605
2026-01-21 10:20:19.87	22.34	17.77	-37.8	-39.6	15.5	0.00e+00	0	60	0	1786773504	46	4604
2026-01-21 10:20:20.88	22.13	17.72	-37.9	-39.6	15.5	0.00e+00	0	60	0	1792016384	46	4649
2026-01-21 10:20:21.89	21.92	17.66	-37.8	-39.6	15.4	0.00e+00	0	60	0	1797259264	46	4643
2026-01-21 10:20:22.90	21.72	17.61	-37.8	-39.6	15.5	0.00e+00	0	60	0	1803550720	46	4639
2026-01-21 10:20:23.91	21.51	17.55	-37.9	-39.7	15.4	0.00e+00	0	60	0	1808793600	46	4653
2026-01-21 10:20:24.92	21.30	17.50	-37.9	-39.7	15.4	0.00e+00	0	60	0	1815085056	46	4674
2026-01-21 10:20:25.93	21.10	17.44	-37.9	-39.7	15.3	0.00e+00	0	60	0	1820327936	46	4702
2026-01-21 10:20:26.94	20.89	17.38	-38.0	-39.8	15.2	0.00e+00	0	60	0	1825570816	46	4755
2026-01-21 10:20:27.96	20.69	17.33	-37.9	-39.7	15.3	0.00e+00	0	60	0	1831862272	46	4696
2026-01-21 10:20:28.97	20.48	17.27	-38.0	-39.8	15.3	0.00e+00	0	60	0	1837105152	46	4706
2026-01-21 10:20:29.97	20.28	17.22	-38.0	-39.8	15.3	0.00e+00	0	60	0	1843396608	46	4713
2026-01-21 10:20:30.98	20.08	17.16	-38.0	-39.9	15.2	0.00e+00	0	60	0	1848639488	46	4767
2026-01-21 10:20:31.99	19.88	17.10	-38.2	-40.0	15.0	0.00e+00	0	60	0	1853882368	46	4862
2026-01-21 10:20:33.00	19.68	17.04	-38.2	-40.2	14.9	0.00e+00	0	60	0	1860173824	47	4655
2026-01-21 10:20:34.01	19.48	16.99	-38.2	-40.1	14.9	0.00e+00	0	60	0	1865416704	47	4647
2026-01-21 10:20:35.02	19.28	16.93	-38.1	-40.0	15.1	0.00e+00	0	60	0	1871708160	47	4551
2026-01-21 10:20:36.03	19.08	16.87	-38.0	-39.9	15.2	0.00e+00	0	60	0	1876951040	47	4504
2026-01-21 10:20:37.04	18.89	16.81	-38.1	-40.0	15.1	0.00e+00	0	60	0	1883242496	47	4546
2026-01-21 10:20:38.05	18.69	16.75	-38.2	-40.0	15.1	0.00e+00	0	60	0	1888485376	47	4568
2026-01-21 10:20:39.06	18.50	16.70	-38.3	-40.2	14.9	0.00e+00	0	60	0	1894776832	47	4677
2026-01-21 10:20:40.07	18.30	16.64	-38.3	-40.2	14.9	0.00e+00	0	60	0	1900019712	47	4690
2026-01-21 10:20:41.08	18.11	16.58	-38.2	-40.1	15.0	0.00e+00	0	60	0	1905262592	47	4615
2026-01-21 10:20:42.09	17.91	16.52	-38.2	-40.0	15.0	0.00e+00	0	60	0	1911554048	47	4594
2026-01-21 10:20:43.10	17.72	16.46	-38.0	-39.8	15.2	0.00e+00	0	60	0	1916796928	47	4492
2026-01-21 10:20:44.11	17.53	16.40	-38.0	-39.9	15.1	0.00e+00	0	60	0	1923088384	47	4505
2026-01-21 10:20:45.12	17.34	16.34	-38.1	-39.9	15.1	0.00e+00	0	60	0	1928331264	47	4513
2026-01-21 10:20:46.13	17.15	16.28	-38.2	-40.0	15.0	0.00e+00	0	60	0	1933574144	47	4580
2026-01-21 10:20:47.14	16.96	16.22	-38.1	-39.9	15.1	0.00e+00	0	60	0	1939865600	47	4523
2026-01-21 10:20:48.14	16.77	16.16	-38.1	-39.9	15.1	0.00e+00	0	60	0	1945108480	47	4543
2026-01-21 10:20:49.15	16.59	16.10	-38.2	-40.1	14.9	0.00e+00	0	60	0	1951399936	47	4607
2026-01-21 10:20:50.16	16.40	16.04	-38.2	-40.0	15.0	0.00e+00	0	60	0	1956642816	47	4594
2026-01-21 10:20:51.17	16.21	15.98	-38.0	-39.9	15.1	1.10e-06	0	60	0	1961885696	47	4498
2026-01-21 10:20:52.18	16.03	15.92	-37.9	-39.8	15.2	0.00e+00	0	60	0	1968177152	47	4446
2026-01-21 10:20:53.19	15.84	15.86	-38.0	-39.8	15.2	0.00e+00	0	60	0	1973420032	47	4481
2026-01-21 10:20:54.20	15.66	15.80	-38.0	-39.9	15.1	0.00e+00	0	60	0	1979711488	47	4499
2026-01-21 10:20:55.21	15.48	15.74	-38.2	-40.0	14.9	0.00e+00	0	60	0	1984954368	47	4593
2026-01-21 10:20:56.22	15.29	15.68	-38.3	-40.2	14.8	0.00e+00	0	61	0	1991245824	47	4658
2026-01-21 10:20:57.23	15.11	15.61	-38.3	-40.2	14.7	0.00e+00	0	60	0	1996488704	47	4698
2026-01-21 10:20:58.24	14.93	15.55	-38.3	-40.2	14.7	0.00e+00	0	60	0	2001731584	47	4689
2026-01-21 10:20:59.25	14.75	15.49	-38.1	-40.0	14.9	0.00e+00	0	60	0	2008023040	47	4580
2026-01-21 10:21:00.26	14.57	15.43	-38.2	-40.1	14.9	3.40e-06	0	60	0	2013265920	47	4610
2026-01-21 10:21:01.27	14.39	15.37	-38.2	-40.1	14.8	0.00e+00	0	60	0	2019557376	47	4643
2026-01-21 10:21:02.28	14.22	15.30	-38.2	-40.2	14.7	1.10e-06	0	60	0	2024800256	47	4663
2026-01-21 10:21:03.29	14.04	15.24	-38.3	-40.2	14.6	0.00e+00	0	60	0	2030043136	47	4699
2026-01-21 10:21:04.30	13.86	15.18	-38.3	-40.3	14.6	0.00e+00	0	61	0	2036334592	47	4707
2026-01-21 10:21:05.31	13.69	15.12	-38.2	-40.1	14.7	1.10e-06	0	60	0	2041577472	47	4648
2026-01-21 10:21:06.32	13.51	15.05	-38.2	-40.1	14.7	0.00e+00	0	60	0	2047868928	47	4609
2026-01-21 10:21:07.33	13.34	14.99	-38.2	-40.2	14.6	2.20e-06	0	60	0	2053111808	47	4656
2026-01-21 10:21:08.34	13.17	14.93	-38.2	-40.1	14.6	0.00e+00	0	60	0	2058354688	47	4646
2026-01-21 10:21:09.35	12.99	14.87	-38.2	-40.1	14.6	1.10e-06	0	60	0	2064646144	47	4650
2026-01-21 10:21:10.36	12.82	14.80	-38.2	-40.2	14.5	2.20e-06	0	60	0	2069889024	47	4671
2026-01-21 10:21:11.37	12.65	14.74	-38.3	-40.2	14.5	2.20e-06	0	60	0	2076180480	47	4704
2026-01-21 10:21:12.38	12.48	14.68	-38.3	-40.2	14.5	1.10e-06	0	60	0	2081423360	47	4697
2026-01-21 10:21:13.38	12.31	14.61	-38.3	-40.3	14.4	1.10e-06	0	60	0	2087714816	47	4710
2026-01-21 10:21:14.39	12.14	14.55	-38.4	-40.4	14.3	0.00e+00	0	60	0	2092957696	47	4767
2026-01-21 10:21:15.40	11.97	14.49	-38.3	-40.3	14.3	1.10e-06	0	60	0	2099249152	47	4747
2026-01-21 10:21:16.41	11.81	14.42	-38.3	-40.4	14.2	0.00e+00	0	60	0	2104492032	47	4773
2026-01-21 10:21:17.42	11.64	14.36	-38.4	-40.5	14.1	3.40e-06	0	60	0	2109734912	47	4834
2026-01-21 10:21:18.43	11.47	14.30	-38.5	-40.6	13.9	4.50e-06	0	61	0	2116026368	47	4921
2026-01-21 10:21:19.44	11.31	14.23	-38.6	-40.7	13.8	9.10e-06	0	60	0	2121269248	47	4969
2026-01-21 10:21:20.45	11.14	14.17	-38.6	-40.7	13.7	1.25e-05	0	60	0	2126512128	47	4968
2026-01-21 10:21:21.46	10.98	14.10	-38.6	-40.8	13.7	1.25e-05	0	60	0	2132803584	47	4995
2026-01-21 10:21:22.47	10.82	14.04	-38.6	-40.8	13.6	2.05e-05	0	60	0	2138046464	47	5007
2026-01-21 10:21:23.48	10.66	13.98	-38.6	-40.8	13.6	1.83e-05	0	60	0	2144337920	47	4986
2026-01-21 10:21:24.49	10.49	13.91	-38.6	-40.7	13.7	1.71e-05	0	60	0	2149580800	47	4965
2026-01-21 10:21:25.50	10.33	13.85	-38.5	-40.6	13.7	1.14e-05	0	60	0	2154823680	47	4899
2026-01-21 10:21:26.51	10.17	13.78	-38.5	-40.6	13.7	1.37e-05	0	61	0	2161115136	47	4919
2026-01-21 10:21:27.52	10.01	13.72	-38.4	-40.6	13.8	4.50e-06	0	60	0	2166358016	47	4890
2026-01-21 10:21:28.53	9.85	13.66	-38.4	-40.6	13.7	9.10e-06	0	60	0	2172649472	47	4898
2026-01-21 10:21:29.54	9.70	13.59	-38.6	-40.8	13.4	2.63e-05	0	60	0	2177892352	47	5020
2026-01-21 10:21:30.55	9.54	13.53	-38.7	-41.0	13.1	4.23e-05	0	60	0	2184183808	47	5134
2026-01-21 10:21:31.55	9.38	13.46	-38.8	-41.0	13.2	4.00e-05	0	60	0	2189426688	48	4855
2026-01-21 10:21:32.56	9.23	13.40	-38.6	-40.7	13.5	2.28e-05	0	60	0	2195718144	48	4690
2026-01-21 10:21:33.57	9.07	13.33	-38.6	-40.7	13.6	8.00e-06	0	60	0	2200961024	48	4670
2026-01-21 10:21:34.58	8.92	13.27	-38.7	-40.8	13.4	2.86e-05	0	60	0	2206203904	48	4752
2026-01-21 10:21:35.59	8.76	13.20	-38.4	-40.6	13.5	1.37e-05	0	60	0	2212495360	48	4619
2026-01-21 10:21:36.60	8.61	13.14	-38.5	-40.8	13.2	2.40e-05	0	60	0	2217738240	48	4734
2026-01-21 10:21:37.61	8.46	13.08	-38.8	-41.2	12.7	9.26e-05	0	60	0	2224029696	48	4971
2026-01-21 10:21:38.62	8.31	13.01	-38.8	-41.3	12.5	1.15e-04	0	60	0	2229272576	48	5018
2026-01-21 10:21:39.63	8.16	12.95	-39.0	-41.6	12.1	3.65e-04	0	61	0	2234515456	48	5187
2026-01-21 10:21:40.64	8.01	12.88	-38.9	-41.5	12.2	3.87e-04	0	60	0	2240806912	48	5137
2026-01-21 10:21:41.64	7.86	12.82	-38.7	-41.2	12.4	1.93e-04	0	60	0	2246049792	48	4948
2026-01-21 10:21:42.66	7.71	12.75	-38.6	-41.1	12.4	2.54e-04	0	60	0	2252341248	48	4885
2026-01-21 10:21:43.67	7.56	12.69	-38.6	-41.1	12.2	3.17e-04	0	60	0	2257584128	48	4910
2026-01-21 10:21:44.68	7.41	12.62	-38.3	-40.7	12.5	1.40e-04	0	61	0	2262827008	48	4694
2026-01-21 10:21:45.69	7.26	12.56	-38.2	-40.7	12.5	1.88e-04	0	60	0	2269118464	48	4665
2026-01-21 10:21:46.70	7.12	12.49	-38.3	-40.7	12.4	1.33e-04	0	60	0	2274361344	48	4699
2026-01-21 10:21:47.71	6.97	12.43	-38.3	-40.7	12.4	2.84e-04	0	61	0	2280652800	48	4704
2026-01-21 10:21:48.72	6.83	12.36	-38.5	-41.2	11.9	3.64e-04	0	60	0	2285895680	48	4933
2026-01-21 10:21:49.73	6.68	12.30	-38.8	-41.7	11.1	2.26e-03	0	60	0	2292187136	48	5255
2026-01-21 10:21:50.74	6.54	12.23	-38.9	-41.9	10.8	1.90e-03	0	60	0	2297430016	48	5373
2026-01-21 10:21:51.75	6.39	12.17	-39.7	-43.5	9.0	2.20e-02	0	60	0	2303721472	49	6108
2026-01-21 10:21:52.76	6.25	12.10	-39.7	-43.6	8.7	4.30e-02	0	60	0	2308964352	50	5846
2026-01-21 10:21:53.77	6.11	12.04	-39.8	-44.0	8.3	5.00e-02	0	60	0	2314207232	50	6067
2026-01-21 10:21:54.78	5.97	11.97	-40.3	-45.5	6.8	1.42e-01	0	60	0	2320498688	51	6811
2026-01-21 10:21:55.79	5.83	11.91	-40.5	-45.9	6.3	2.93e-01	0	60	0	2325741568	51	7196
2026-01-21 10:21:56.80	5.69	11.84	-40.6	-46.4	5.9	3.63e-01	0	61	0	2332033024	51	7568
2026-01-21 10:21:57.81	5.55	11.78	-40.6	-47.1	5.3	7.04e-01	0	60	0	2335178752	52	7793
2026-01-21 10:21:58.82	5.41	11.71	-40.8	-48.2	4.7	7.90e-01	0	61	0	2335178752	52	8823
2026-01-21 10:21:59.83	5.27	11.65	-40.8	-49.2	4.2	8.22e-01	0	61	0	2335178752	52	9887
2026-01-21 10:22:00.84	5.13	11.58	-41.3	-49.1	4.5	8.20e-01	0	61	0	2335178752	53	9189
2026-01-21 10:22:01.86	5.00	11.52	-40.7	-52.1	3.8	8.43e-01	0	60	104	2335178752	53	13057
2026-01-21 10:22:02.86	4.86	11.45	-41.0	-52.1	3.8	8.46e-01	0	61	104	2335178752	53	13090
2026-01-21 10:22:03.87	4.73	11.39	-41.9	-52.7	3.8	8.46e-01	0	60	104	2335178752	54	13244
2026-01-21 10:22:04.88	4.59	11.32	-41.3	-52.4	3.8	8.46e-01	0	60	104	2335178752	54	12724
2026-01-21 10:22:05.89	4.46	11.26	-41.2	-52.6	3.8	8.46e-01	0	60	104	2335178752	54	13084
2026-01-21 10:22:06.90	4.32	11.19	-41.1	-52.6	3.8	8.46e-01	0	60	104	2335178752	54	12970
2026-01-21 10:22:07.91	4.19	11.13	-40.7	-52.3	3.8	8.46e-01	0	60	104	2335178752	53	13307
2026-01-21 10:22:08.92	4.06	11.07	-41.1	-52.7	3.8	8.46e-01	0	60	104	2335178752	53	13971
2026-01-21 10:22:09.93	3.92	11.00	-40.4	-52.0	3.8	8.45e-01	0	60	104	2335178752	52	13650
2026-01-21 10:22:10.94	3.79	10.94	-40.2	-51.8	3.8	8.46e-01	0	61	104	2335178752	52	13406
2026-01-21 10:22:11.94	3.66	10.87	-40.4	-52.0	3.8	8.46e-01	0	60	104	2335178752	52	13629
2026-01-21 10:22:12.95	3.53	10.81	-40.3	-51.9	3.8	8.47e-01	0	60	104	2335178752	52	13483
2026-01-21 10:22:13.96	3.40	10.74	-40.3	-51.9	3.8	8.47e-01	0	60	104	2335178752	52	13458
2026-01-21 10:22:14.97	3.27	10.68	-40.3	-51.9	3.8	8.46e-01	0	61	104	2335178752	52	13459
2026-01-21 10:22:15.98	3.15	10.61	-40.2	-51.8	3.8	8.45e-01	0	61	104	2335178752	52	13293
2026-01-21 10:22:16.99	3.02	10.55	-40.2	-51.8	3.8	8.47e-01	0	60	104	2335178752	52	13361
2026-01-21 10:22:18.00	2.89	10.48	-40.7	-52.3	3.8	8.47e-01	0	61	104	2335178752	52	14209
2026-01-21 10:22:19.00	2.77	10.42	-40.3	-51.9	3.8	8.46e-01	0	61	104	2335178752	52	13467
2026-01-21 10:22:20.01	2.64	10.36	-40.5	-52.1	3.8	8.46e-01	0	61	104	2335178752	52	13804
2026-01-21 10:22:21.02	2.51	10.29	-40.5	-52.2	3.8	8.46e-01	0	60	104	2335178752	52	13905
2026-01-21 10:22:22.03	2.39	10.23	-40.2	-51.8	3.8	8.45e-01	0	61	104	2335178752	52	13350
2026-01-21 10:22:23.04	2.26	10.16	-40.2	-51.9	3.8	8.46e-01	0	60	104	2335178752	52	13418
2026-01-21 10:22:24.05	2.14	10.10	-40.3	-51.9	3.8	8.46e-01	0	60	104	2335178752	52	13560
2026-01-21 10:22:25.06	2.02	10.03	-40.4	-52.0	3.8	8.45e-01	0	60	104	2335178752	52	13678
2026-01-21 10:22:26.07	1.89	9.97	-40.2	-51.8	3.8	8.47e-01	0	61	104	2335178752	52	13333
2026-01-21 10:22:27.08	1.77	9.91	-40.2	-51.8	3.8	8.46e-01	0	60	104	2335178752	52	13304
2026-01-21 10:22:28.08	1.65	9.84	-40.3	-51.9	3.8	8.47e-01	0	60	104	2335178752	52	13464
2026-01-21 10:22:29.09	1.53	9.78	-40.3	-51.9	3.8	8.46e-01	0	61	104	2335178752	52	13492
2026-01-21 10:22:30.10	1.41	9.71	-40.2	-51.8	3.8	8.46e-01	0	61	104	2335178752	52	13311
2026-01-21 10:22:31.11	1.29	9.65	-40.1	-51.7	3.8	8.47e-01	0	60	104	2335178752	52	13246
2026-01-21 10:22:32.12	1.17	9.59	-40.2	-51.8	3.8	8.46e-01	0	60	104	2335178752	52	13390
2026-01-21 10:22:33.13	1.05	9.52	-40.3	-51.9	3.8	8.45e-01	0	61	104	2335178752	52	13458
2026-01-21 10:22:34.14	0.93	9.46	-40.1	-51.7	3.8	8.45e-01	0	61	104	2335178752	52	13257
2026-01-21 10:22:35.15	0.82	9.39	-40.1	-51.8	3.8	8.46e-01	0	61	104	2335178752	52	13264
2026-01-21 10:22:36.16	0.70	9.33	-40.2	-51.8	3.8	8.46e-01	0	60	104	2335178752	52	13289
2026-01-21 10:22:37.17	0.58	9.27	-40.2	-51.8	3.8	8.47e-01	0	61	104	2335178752	52	13373
2026-01-21 10:22:38.18	0.46	9.20	-40.1	-51.7	3.8	8.46e-01	0	61	104	2335178752	52	13160
2026-01-21 10:22:39.19	0.35	9.14	-40.1	-51.7	3.8	8.45e-01	0	61	104	2335178752	52	13245
2026-01-21 10:22:40.20	0.23	9.08	-40.1	-51.7	3.8	8.46e-01	0	61	104	2335178752	52	13201
2026-01-21 10:22:41.20	0.12	9.01	-40.2	-51.8	3.8	8.46e-01	0	61	104	2335178752	52	13353
2026-01-21 10:22:42.21	0.01	8.95	-40.1	-51.7	3.8	8.46e-01	0	61	104	2335178752	52	13189
2026-01-21 10:22:43.22	359.89	8.89	-40.1	-51.7	3.8	8.46e-01	0	61	104	2335178752	52	13259
2026-01-21 10:22:44.23	359.78	8.82	-40.1	-51.7	3.8	8.48e-01	0	61	104	2335178752	52	13169
2026-01-21 10:22:45.24	359.67	8.76	-40.2	-51.8	3.8	8.45e-01	0	60	104	2335178752	52	13285
2026-01-21 10:22:46.25	359.55	8.70	-40.1	-51.7	3.8	8.46e-01	0	61	104	2335178752	52	13179
2026-01-21 10:22:47.26	359.44	8.63	-40.1	-51.7	3.8	8.46e-01	0	61	104	2335178752	52	13142
2026-01-21 10:22:48.27	359.33	8.57	-40.1	-51.7	3.8	8.46e-01	0	61	104	2335178752	52	13236
2026-01-21 10:22:49.28	359.22	8.51	-40.1	-51.8	3.8	8.46e-01	0	60	104	2335178752	52	13274
2026-01-21 10:22:50.29	359.11	8.44	-40.1	-51.7	3.8	8.47e-01	0	60	104	2335178752	52	13169
2026-01-21 10:22:51.30	359.00	8.38	-40.0	-51.6	3.8	8.45e-01	0	60	104	2335178752	52	13080
2026-01-21 10:22:52.31	358.89	8.32	-40.1	-51.7	3.8	8.45e-01	0	61	104	2335178752	52	13226
2026-01-21 10:22:53.32	358.78	8.25	-40.1	-51.7	3.8	8.46e-01	0	61	104	2335178752	52	13199
2026-01-21 10:22:54.33	358.67	8.19	-40.0	-51.6	3.8	8.46e-01	0	61	104	2335178752	52	13053
2026-01-21 10:22:55.34	358.57	8.13	-40.0	-51.6	3.8	8.46e-01	0	61	104	2335178752	52	12996
2026-01-21 10:22:56.35	358.46	8.07	-40.1	-51.7	3.8	8.46e-01	0	61	104	2335178752	52	13138
2026-01-21 10:22:57.36	358.35	8.00	-40.1	-51.7	3.8	8.46e-01	0	60	104	2335178752	52	13224
2026-01-21 10:22:58.37	358.25	7.94	-41.6	-53.2	3.8	8.46e-01	0	61	104	2335178752	53	14801
2026-01-21 10:22:59.38	358.14	7.88	-44.6	-56.2	3.8	8.46e-01	0	61	104	2335178752	59	14747
2026-01-21 10:23:00.39	358.04	7.82	-44.9	-56.7	3.8	8.45e-01	0	61	104	2335178752	60	14861
2026-01-21 10:23:01.40	357.93	7.75	-45.1	-56.9	3.8	8.47e-01	0	61	104	2335178752	60	15170
2026-01-21 10:23:02.41	357.83	7.69	-45.3	-57.1	3.8	8.46e-01	0	60	104	2335178752	61	14549
2026-01-21 10:23:03.42	357.72	7.63	-45.4	-57.2	3.8	8.47e-01	0	61	104	2335178752	61	14784
2026-01-21 10:23:04.43	357.62	7.57	-45.4	-57.2	3.8	8.46e-01	0	61	104	2335178752	61	14805
2026-01-21 10:23:05.44	357.52	7.50	-45.4	-57.2	3.8	8.46e-01	0	61	104	2335178752	61	14742
2026-01-21 10:23:06.45	357.41	7.44	-45.4	-57.2	3.8	8.47e-01	0	60	104	2335178752	61	14779
2026-01-21 10:23:07.46	357.31	7.38	-45.4	-57.1	3.8	8.46e-01	0	60	104	2335178752	61	14682
2026-01-21 10:23:08.47	357.21	7.32	-45.0	-57.0	3.8	8.46e-01	0	61	104	2335178752	61	14397
2026-01-21 10:23:09.48	357.11	7.26	-45.3	-57.1	3.8	8.46e-01	0	61	104	2335178752	61	14589
2026-01-21 10:23:10.49	357.01	7.19	-45.4	-57.1	3.8	8.46e-01	0	60	104	2335178752	61	14591
2026-01-21 10:23:11.50	356.91	7.13	-45.4	-57.1	3.8	8.45e-01	0	61	104	2335178752	61	14613
2026-01-21 10:23:12.51	356.81	7.07	-45.4	-57.0	3.8	8.46e-01	0	61	104	2335178752	61	14463
2026-01-21 10:23:13.52	356.71	7.01	-45.3	-57.0	3.8	8.46e-01	0	61	104	2335178752	61	14490
2026-01-21 10:23:14.53	356.61	6.95	-45.3	-57.0	3.8	8.46e-01	0	60	104	2335178752	61	14464
2026-01-21 10:23:15.54	356.51	6.89	-45.3	-57.0	3.8	8.47e-01	0	61	104	2335178752	61	14492
2026-01-21 10:23:16.55	356.41	6.82	-45.2	-57.0	3.8	8.46e-01	0	61	104	2335178752	61	14443
2026-01-21 10:23:17.56	356.31	6.76	-45.3	-57.0	3.8	8.47e-01	0	61	104	2335178752	61	14460
2026-01-21 10:23:18.57	356.22	6.70	-45.3	-57.0	3.8	8.46e-01	0	61	104	2335178752	61	14440
2026-01-21 10:23:19.58	356.12	6.64	-45.3	-57.0	3.8	8.47e-01	0	61	104	2335178752	61	14436
2026-01-21 10:23:20.59	356.02	6.58	-45.3	-57.0	3.8	8.45e-01	0	61	104	2335178752	61	14443
2026-01-21 10:23:21.60	355.93	6.52	-45.3	-57.0	3.8	8.45e-01	0	61	104	2335178752	61	14436
2026-01-21 10:23:22.61	355.83	6.46	-45.3	-57.0	3.8	8.46e-01	0	60	104	2335178752	61	14438
2026-01-21 10:23:23.62	355.74	6.40	-45.3	-56.9	3.8	8.45e-01	0	61	104	2335178752	61	14372
2026-01-21 10:23:24.63	355.64	6.33	-45.3	-57.0	3.8	8.45e-01	0	60	104	2335178752	61	14374
2026-01-21 10:23:25.65	355.55	6.27	-45.3	-57.0	3.8	8.45e-01	0	61	104	2335178752	61	14384
2026-01-21 10:23:26.66	355.45	6.21	-45.3	-56.9	3.8	8.46e-01	0	61	104	2335178752	61	14369
2026-01-21 10:23:27.67	355.36	6.15	-45.3	-57.0	3.8	8.46e-01	0	61	104	2335178752	61	14429
2026-01-21 10:23:28.68	355.26	6.09	-45.3	-56.9	3.8	8.47e-01	0	61	104	2335178752	61	14349
2026-01-21 10:23:29.69	355.17	6.03	-45.3	-56.9	3.8	8.45e-01	0	61	104	2335178752	61	14337
2026-01-21 10:23:30.70	355.08	5.97	-45.3	-56.9	3.8	8.46e-01	0	61	104	2335178752	61	14366
2026-01-21 10:23:31.71	354.99	5.91	-45.2	-56.9	3.8	8.46e-01	0	61	104	2335178752	61	14343
2026-01-21 10:23:32.72	354.90	5.85	-45.2	-56.9	3.8	8.46e-01	0	61	104	2335178752	61	14315
2026-01-21 10:23:33.73	354.80	5.79	-45.2	-57.0	3.8	8.45e-01	0	61	104	2335178752	61	14388
2026-01-21 10:23:34.74	354.71	5.73	-45.3	-57.0	3.8	8.47e-01	0	61	104	2335178752	61	14379
2026-01-21 10:23:35.75	354.62	5.67	-45.3	-57.0	3.8	8.46e-01	0	61	104	2335178752	61	14441
2026-01-21 10:23:36.76	354.53	5.61	-45.2	-56.9	3.8	8.46e-01	0	61	104	2335178752	61	14355
2026-01-21 10:23:37.77	354.44	5.55	-45.3	-57.0	3.8	8.46e-01	0	61	104	2335178752	61	14455
2026-01-21 10:23:38.78	354.35	5.49	-45.2	-57.0	3.8	8.45e-01	0	61	104	2335178752	61	14407
2026-01-21 10:23:39.79	354.27	5.43	-45.3	-57.0	3.8	8.47e-01	0	61	104	2335178752	61	14375
2026-01-21 10:23:40.80	354.18	5.37	-45.3	-57.0	3.8	8.46e-01	0	61	104	2335178752	61	14401
2026-01-21 10:23:41.81	354.09	5.31	-45.2	-56.9	3.8	8.47e-01	0	61	104	2335178752	61	14349
2026-01-21 10:23:42.82	354.00	5.25	-45.2	-56.9	3.8	8.47e-01	0	61	104	2335178752	61	14362
2026-01-21 10:23:43.83	353.91	5.19	-45.2	-56.9	3.8	8.46e-01	0	61	104	2335178752	61	14345
2026-01-21 10:23:44.85	353.83	5.13	-45.2	-56.9	3.8	8.46e-01	0	61	104	2335178752	61	14332
2026-01-21 10:23:45.86	353.74	5.07	-45.2	-57.0	3.8	8.46e-01	0	61	104	2335178752	61	14389
2026-01-21 10:23:46.87	353.65	5.01	-45.2	-56.9	3.8	8.46e-01	0	61	104	2335178752	61	14358
2026-01-21 10:23:47.87	353.57	4.95	-45.2	-57.0	3.8	8.47e-01	0	61	104	2335178752	61	14387
2026-01-21 10:23:48.88	353.48	4.89	-44.2	-56.9	3.8	8.48e-01	0	60	104	2335178752	60	15162
2026-01-21 10:23:49.89	353.40	4.83	-45.0	-57.0	3.8	8.46e-01	0	61	104	2335178752	61	14375
2026-01-21 10:23:50.90	353.31	4.77	-45.2	-56.9	3.8	8.45e-01	0	60	104	2335178752	61	14317
2026-01-21 10:23:51.91	353.23	4.71	-45.2	-56.9	3.8	8.46e-01	0	61	104	2335178752	61	14333
2026-01-21 10:23:52.93	353.14	4.65	-44.8	-56.9	3.8	8.45e-01	0	61	104	2335178752	61	14283
2026-01-21 10:23:53.94	353.06	4.60	-45.2	-56.9	3.8	8.47e-01	0	61	104	2335178752	61	14323
2026-01-21 10:23:54.95	352.98	4.54	-45.2	-56.9	3.8	8.45e-01	0	61	104	2335178752	61	14291
2026-01-21 10:23:55.96	352.89	4.48	-45.2	-56.9	3.8	8.46e-01	0	61	104	2335178752	61	14368
2026-01-21 10:23:56.97	352.81	4.42	-45.2	-56.9	3.8	8.47e-01	0	61	104	2335178752	61	14245
2026-01-21 10:23:57.98	352.73	4.36	-45.2	-56.9	3.8	8.47e-01	0	61	104	2335178752	61	14349
2026-01-21 10:23:58.99	352.65	4.30	-45.2	-56.9	3.8	8.45e-01	0	61	104	2335178752	61	14290
2026-01-21 10:24:00.00	352.56	4.24	-45.2	-56.9	3.8	8.46e-01	0	61	104	2335178752	61	14337
2026-01-21 10:24:00.97	352.49	4.19	-45.2	-56.9	3.8	8.47e-01	0	61	104	2335178752	61	14354
2026-01-21 10:24:01.98	352.41	4.13	-45.2	-56.9	3.8	8.47e-01	0	61	104	2335178752	61	14318
2026-01-21 10:24:02.99	352.33	4.07	-45.2	-56.9	3.8	8.46e-01	0	61	104	2335178752	61	14272
2026-01-21 10:24:04.00	352.24	4.01	-45.2	-56.9	3.8	8.45e-01	0	61	104	2335178752	61	14334
