passes_logs/2026/01/21/R2.0S_Moscow/R2.0S_Moscow__20260121_230310_SUOMI_NPP_rec.log

#Pass ID: 20260121_230310_SUOMI NPP
#Satellite: SUOMI NPP
#Configuration: NPP
#almurnet v.1.7.20251203
#Start time: 2026-01-21 23:03:12

#Version: 2.2.20231116
#Station: R2.0S_Moscow
#Location: 37.707566 lon 55.798166 lat
#TLE: 1 37849U 11061A   26021.51818991  .00000201  00000+0  11636-3 0  9995
#TLE: 2 37849  98.7819 323.5108 0002300  52.3548 307.7836 14.19527793737637

#Time	Az	El	Level	Level2	SNR	BER	BlckErr	Temp	State	Recorded	gain1	gain2
2026-01-21 23:03:12.44	19.80	2.14	-42.3	-56.9	3.8	1.49e+00	0	49	0	0	56	19098
2026-01-21 23:03:13.44	19.83	2.21	-42.4	-56.9	3.8	1.49e+00	0	49	104	0	56	19122
2026-01-21 23:03:14.45	19.87	2.27	-42.4	-56.9	3.8	1.49e+00	0	49	104	0	56	19076
2026-01-21 23:03:15.46	19.90	2.33	-42.3	-56.9	3.8	1.49e+00	0	49	104	0	56	19127
2026-01-21 23:03:16.47	19.94	2.39	-42.4	-56.9	3.8	1.49e+00	0	49	104	0	56	19127
2026-01-21 23:03:17.48	19.98	2.46	-42.3	-56.9	3.8	1.49e+00	0	49	104	0	56	19137
2026-01-21 23:03:18.49	20.01	2.52	-42.4	-56.9	3.8	1.49e+00	0	49	104	0	56	19100
2026-01-21 23:03:19.50	20.05	2.58	-42.3	-56.9	3.8	1.49e+00	0	49	104	0	56	19069
2026-01-21 23:03:20.52	20.09	2.65	-42.3	-56.9	3.8	1.49e+00	0	50	104	0	56	19092
2026-01-21 23:03:21.53	20.12	2.71	-42.3	-56.9	3.8	1.49e+00	0	49	104	0	56	19124
2026-01-21 23:03:22.54	20.16	2.78	-42.3	-56.9	3.8	1.49e+00	0	49	104	0	56	19054
2026-01-21 23:03:23.55	20.20	2.84	-42.3	-56.9	3.8	1.49e+00	0	50	104	0	56	19107
2026-01-21 23:03:24.56	20.23	2.90	-42.3	-56.9	3.8	1.49e+00	0	50	104	0	56	19127
2026-01-21 23:03:25.57	20.27	2.97	-42.3	-56.9	3.8	1.49e+00	0	50	104	0	56	19084
2026-01-21 23:03:26.58	20.31	3.03	-42.3	-56.9	3.8	1.49e+00	0	50	104	0	56	19129
2026-01-21 23:03:27.59	20.35	3.10	-42.4	-56.9	3.8	1.49e+00	0	50	104	0	56	19079
2026-01-21 23:03:28.60	20.38	3.16	-42.3	-56.9	3.8	1.49e+00	0	50	104	0	56	19083
2026-01-21 23:03:29.61	20.42	3.23	-42.3	-56.9	3.8	1.49e+00	0	50	104	0	56	19145
2026-01-21 23:03:30.62	20.46	3.29	-42.3	-56.9	3.8	1.49e+00	0	50	104	0	56	19117
2026-01-21 23:03:31.63	20.50	3.36	-42.3	-56.9	3.8	1.49e+00	0	50	104	0	56	19100
2026-01-21 23:03:32.64	20.54	3.42	-42.4	-56.9	3.8	1.49e+00	0	50	104	0	56	19128
2026-01-21 23:03:33.65	20.58	3.49	-42.3	-56.9	3.8	1.49e+00	0	50	104	0	56	19133
2026-01-21 23:03:34.67	20.61	3.55	-42.4	-56.9	3.8	1.49e+00	0	51	104	0	56	19065
2026-01-21 23:03:35.68	20.65	3.62	-42.3	-56.9	3.8	1.49e+00	0	51	104	0	56	19049
2026-01-21 23:03:36.69	20.69	3.68	-42.3	-56.9	3.8	1.49e+00	0	50	104	0	56	19107
2026-01-21 23:03:37.70	20.73	3.75	-42.3	-56.9	3.8	1.49e+00	0	51	104	0	56	19135
2026-01-21 23:03:38.70	20.77	3.82	-42.3	-56.9	3.8	1.49e+00	0	50	104	0	56	19164
2026-01-21 23:03:39.71	20.81	3.88	-42.3	-56.9	3.8	1.49e+00	0	51	104	0	56	19068
2026-01-21 23:03:40.72	20.85	3.95	-42.3	-56.9	3.8	1.49e+00	0	51	104	0	56	19139
2026-01-21 23:03:41.73	20.89	4.02	-42.3	-56.9	3.8	1.49e+00	0	51	104	0	56	19095
2026-01-21 23:03:42.74	20.93	4.08	-42.3	-56.9	3.8	1.49e+00	0	51	104	0	56	19100
2026-01-21 23:03:43.75	20.97	4.15	-42.3	-56.9	3.8	1.49e+00	0	51	104	0	56	19122
2026-01-21 23:03:44.76	21.01	4.22	-42.3	-56.9	3.8	1.49e+00	0	51	104	0	56	19119
2026-01-21 23:03:45.77	21.05	4.28	-42.3	-56.9	3.8	1.49e+00	0	51	104	0	56	19149
2026-01-21 23:03:46.79	21.09	4.35	-42.4	-56.9	3.8	1.49e+00	0	51	104	0	56	19106
2026-01-21 23:03:47.80	21.13	4.42	-42.3	-56.9	3.8	1.49e+00	0	51	104	0	56	19107
2026-01-21 23:03:48.81	21.17	4.49	-42.3	-56.9	3.8	1.49e+00	0	51	104	0	56	19069
2026-01-21 23:03:49.82	21.21	4.55	-42.3	-56.9	3.8	1.49e+00	0	51	104	0	56	19083
2026-01-21 23:03:50.83	21.26	4.62	-42.3	-56.9	3.8	1.49e+00	0	51	104	0	56	19146
2026-01-21 23:03:51.84	21.30	4.69	-42.3	-56.9	3.8	1.49e+00	0	52	104	0	56	19073
2026-01-21 23:03:52.85	21.34	4.76	-42.3	-56.9	3.8	1.49e+00	0	52	104	0	56	19076
2026-01-21 23:03:53.86	21.38	4.83	-42.3	-56.9	3.8	1.49e+00	0	51	104	0	56	19087
2026-01-21 23:03:54.87	21.42	4.90	-42.3	-56.9	3.8	1.49e+00	0	51	104	0	56	19099
2026-01-21 23:03:55.88	21.46	4.96	-42.3	-56.9	3.8	1.49e+00	0	52	104	0	56	19069
2026-01-21 23:03:56.89	21.51	5.03	-42.3	-56.9	3.8	1.49e+00	0	52	104	0	56	19068
2026-01-21 23:03:57.90	21.55	5.10	-42.3	-56.9	3.8	1.49e+00	0	52	104	0	56	19096
2026-01-21 23:03:58.91	21.59	5.17	-42.3	-56.9	3.8	1.49e+00	0	52	104	0	56	19167
2026-01-21 23:03:59.92	21.64	5.24	-42.3	-56.9	3.8	1.49e+00	0	52	104	0	56	19053
2026-01-21 23:04:00.93	21.68	5.31	-42.3	-56.9	3.8	1.49e+00	0	52	104	0	56	19083
2026-01-21 23:04:01.94	21.72	5.38	-42.4	-56.9	3.8	1.49e+00	0	52	104	0	56	19078
2026-01-21 23:04:02.95	21.77	5.45	-42.3	-56.9	3.8	1.49e+00	0	52	104	0	56	19107
2026-01-21 23:04:03.96	21.81	5.52	-42.3	-56.9	3.8	1.49e+00	0	52	104	0	56	19150
2026-01-21 23:04:04.97	21.85	5.59	-42.3	-56.9	3.8	1.49e+00	0	52	104	0	56	19088
2026-01-21 23:04:05.98	21.90	5.66	-42.3	-56.9	3.8	1.49e+00	0	52	104	0	56	19072
2026-01-21 23:04:06.99	21.94	5.73	-42.3	-56.9	3.8	1.49e+00	0	52	104	0	56	19084
2026-01-21 23:04:08.00	21.99	5.80	-42.3	-56.9	3.8	1.49e+00	0	52	104	0	56	19108
2026-01-21 23:04:09.01	22.03	5.87	-42.3	-56.9	3.8	1.49e+00	0	52	104	0	56	19096
2026-01-21 23:04:10.02	22.07	5.95	-42.3	-56.9	3.8	1.49e+00	0	52	104	0	56	19064
2026-01-21 23:04:11.03	22.12	6.02	-42.3	-56.9	3.8	1.49e+00	0	52	104	0	56	19092
2026-01-21 23:04:12.04	22.16	6.09	-42.3	-56.9	3.8	1.49e+00	0	53	104	0	56	19078
2026-01-21 23:04:13.05	22.21	6.16	-42.3	-56.9	3.8	1.49e+00	0	53	104	0	56	19134
2026-01-21 23:04:14.06	22.26	6.23	-42.3	-56.9	3.8	1.49e+00	0	53	104	0	56	19112
2026-01-21 23:04:15.07	22.30	6.31	-42.3	-56.9	3.8	1.49e+00	0	53	104	0	56	19079
2026-01-21 23:04:16.09	22.35	6.38	-42.3	-56.9	3.8	1.49e+00	0	53	104	0	56	19060
2026-01-21 23:04:17.10	22.39	6.45	-42.3	-56.9	3.8	1.49e+00	0	52	104	0	56	19040
2026-01-21 23:04:18.11	22.44	6.52	-42.3	-56.9	3.8	1.49e+00	0	53	104	0	56	19085
2026-01-21 23:04:19.12	22.49	6.60	-42.3	-56.9	3.8	1.49e+00	0	53	104	0	56	19136
2026-01-21 23:04:20.13	22.53	6.67	-42.3	-56.9	3.8	1.49e+00	0	53	104	0	56	19101
2026-01-21 23:04:21.14	22.58	6.74	-42.3	-56.9	3.8	1.49e+00	0	53	104	0	56	19075
2026-01-21 23:04:22.15	22.63	6.82	-42.3	-56.9	3.8	1.49e+00	0	53	104	0	56	19070
2026-01-21 23:04:23.16	22.68	6.89	-42.3	-56.9	3.8	1.49e+00	0	53	104	0	56	19128
2026-01-21 23:04:24.17	22.72	6.96	-42.3	-56.9	3.8	1.49e+00	0	53	104	0	56	19014
2026-01-21 23:04:25.18	22.77	7.04	-42.3	-56.9	3.8	1.49e+00	0	53	104	0	56	18979
2026-01-21 23:04:26.19	22.82	7.11	-42.3	-56.8	3.8	1.49e+00	0	53	104	0	56	18931
2026-01-21 23:04:27.20	22.87	7.19	-42.3	-56.8	3.8	1.49e+00	0	53	104	0	56	18749
2026-01-21 23:04:28.21	22.92	7.26	-42.3	-56.6	3.8	1.49e+00	0	53	104	0	56	18446
2026-01-21 23:04:29.22	22.97	7.34	-42.3	-56.4	3.8	1.49e+00	0	53	104	0	56	18094
2026-01-21 23:04:30.23	23.01	7.41	-42.3	-56.4	3.8	1.49e+00	0	53	104	0	56	18061
2026-01-21 23:04:31.24	23.06	7.49	-42.3	-56.2	3.8	1.49e+00	0	53	104	0	56	17668
2026-01-21 23:04:32.26	23.11	7.56	-42.3	-56.1	3.8	1.49e+00	0	53	104	0	56	17481
2026-01-21 23:04:33.26	23.16	7.64	-42.3	-56.0	3.8	1.49e+00	0	53	104	0	56	17225
2026-01-21 23:04:34.27	23.21	7.72	-42.3	-55.7	3.8	1.49e+00	0	53	104	0	56	16554
2026-01-21 23:04:35.29	23.26	7.79	-42.2	-55.1	3.8	1.49e+00	0	53	104	0	56	15534
2026-01-21 23:04:36.30	23.31	7.87	-42.2	-54.3	4.0	1.49e+00	0	54	104	0	56	14205
2026-01-21 23:04:37.31	23.36	7.95	-42.1	-53.6	4.1	1.47e+00	0	54	0	0	56	13088
2026-01-21 23:04:38.32	23.42	8.02	-42.0	-52.7	4.4	1.32e+00	0	53	0	0	56	11775
2026-01-21 23:04:39.33	23.47	8.10	-42.0	-51.3	5.0	9.88e-01	0	53	0	2097152	56	10040
2026-01-21 23:04:40.34	23.52	8.18	-42.9	-51.9	5.3	5.05e-01	0	54	0	3145728	56	10679
2026-01-21 23:04:41.35	23.57	8.25	-42.0	-49.1	7.0	4.48e-01	0	54	0	5242880	56	7740
2026-01-21 23:04:42.36	23.62	8.33	-41.7	-54.4	3.8	1.41e+00	0	54	104	6291456	55	15092
2026-01-21 23:04:43.37	23.67	8.41	-42.0	-53.7	3.9	1.49e+00	0	54	104	6291456	55	13982
2026-01-21 23:04:44.38	23.73	8.49	-42.0	-48.3	8.0	8.85e-02	0	54	0	7340032	55	7518
2026-01-21 23:04:45.39	23.78	8.57	-41.7	-47.7	8.6	2.99e-02	0	54	0	8388608	55	7028
2026-01-21 23:04:46.40	23.83	8.64	-41.9	-48.4	7.9	5.48e-02	0	54	0	10485760	55	7559
2026-01-21 23:04:47.41	23.89	8.72	-41.8	-47.7	8.6	4.79e-02	0	54	0	12582912	55	6987
2026-01-21 23:04:48.42	23.94	8.80	-41.9	-48.2	8.2	5.23e-02	0	54	0	14680064	55	7372
2026-01-21 23:04:49.42	23.99	8.88	-41.8	-47.5	8.9	4.22e-02	0	54	0	16777216	55	6811
2026-01-21 23:04:50.43	24.05	8.96	-41.8	-47.4	9.0	2.47e-02	0	54	0	17825792	55	6748
2026-01-21 23:04:51.44	24.10	9.04	-41.9	-47.7	8.7	3.17e-02	0	54	0	19922944	55	7016
2026-01-21 23:04:52.45	24.16	9.12	-42.0	-47.9	8.6	3.21e-02	0	54	0	22020096	55	7136
2026-01-21 23:04:53.46	24.21	9.20	-42.0	-47.8	8.7	4.29e-02	0	54	0	24117248	55	7102
2026-01-21 23:04:54.47	24.27	9.28	-41.9	-47.5	9.0	2.24e-02	0	54	0	26214400	55	6873
2026-01-21 23:04:55.48	24.32	9.36	-42.0	-47.8	8.9	2.22e-02	0	54	0	27262976	55	7106
2026-01-21 23:04:56.49	24.38	9.44	-42.1	-47.9	8.8	3.03e-02	0	54	0	29360128	55	7165
2026-01-21 23:04:57.50	24.43	9.52	-41.9	-47.4	9.3	2.69e-02	0	54	0	31457280	55	6765
2026-01-21 23:04:58.51	24.49	9.61	-42.0	-47.6	9.2	2.10e-02	0	54	0	33554432	55	6884
2026-01-21 23:04:59.52	24.54	9.69	-42.1	-47.8	9.0	2.58e-02	0	54	0	35651584	55	7069
2026-01-21 23:05:00.53	24.60	9.77	-42.0	-47.6	9.2	2.18e-02	0	54	0	37748736	55	6944
2026-01-21 23:05:01.54	24.66	9.85	-42.1	-47.8	9.0	2.35e-02	0	54	0	38797312	55	7078
2026-01-21 23:05:02.55	24.72	9.93	-42.1	-47.8	9.0	2.71e-02	0	54	0	40894464	55	7102
2026-01-21 23:05:03.56	24.77	10.02	-42.1	-47.7	9.2	2.05e-02	0	54	0	42991616	55	6989
2026-01-21 23:05:04.57	24.83	10.10	-42.2	-47.8	9.2	2.29e-02	0	55	0	45088768	55	7061
2026-01-21 23:05:05.58	24.89	10.18	-42.2	-47.7	9.3	1.57e-02	0	55	0	47185920	55	7017
2026-01-21 23:05:06.59	24.95	10.27	-42.1	-47.5	9.6	1.80e-02	0	54	0	48234496	55	6828
2026-01-21 23:05:07.60	25.01	10.35	-42.2	-47.6	9.5	1.10e-02	0	54	0	50331648	55	6887
2026-01-21 23:05:08.60	25.07	10.43	-42.2	-47.5	9.6	1.24e-02	0	55	0	52428800	55	6865
2026-01-21 23:05:09.61	25.13	10.52	-42.1	-47.2	10.0	1.03e-02	0	55	0	54525952	55	6593
2026-01-21 23:05:10.62	25.19	10.60	-42.1	-47.3	9.9	9.37e-03	0	55	0	56623104	55	6678
2026-01-21 23:05:11.63	25.25	10.69	-42.1	-47.1	10.2	8.49e-03	0	55	0	57671680	55	6510
2026-01-21 23:05:12.64	25.31	10.77	-42.2	-47.3	10.0	7.29e-03	0	55	0	59768832	55	6684
2026-01-21 23:05:13.65	25.37	10.86	-42.2	-47.2	10.0	8.66e-03	0	55	0	61865984	55	6645
2026-01-21 23:05:14.66	25.43	10.94	-42.1	-46.9	10.3	6.10e-03	0	55	0	63963136	55	6416
2026-01-21 23:05:15.67	25.49	11.03	-42.1	-47.0	10.3	4.49e-03	0	55	0	66060288	55	6422
2026-01-21 23:05:16.68	25.55	11.12	-42.0	-46.8	10.5	4.76e-03	0	55	0	67108864	55	6329
2026-01-21 23:05:17.69	25.61	11.20	-41.9	-46.6	10.8	3.19e-03	0	55	0	69206016	55	6158
2026-01-21 23:05:18.70	25.68	11.29	-42.0	-46.7	10.7	2.49e-03	0	55	0	71303168	55	6243
2026-01-21 23:05:19.71	25.74	11.38	-41.9	-46.5	10.9	2.84e-03	0	55	0	73400320	55	6093
2026-01-21 23:05:20.72	25.80	11.46	-42.0	-46.6	10.8	2.60e-03	0	55	0	75497472	55	6198
2026-01-21 23:05:21.73	25.87	11.55	-41.9	-46.5	10.9	1.95e-03	0	55	0	76546048	55	6096
2026-01-21 23:05:22.74	25.93	11.64	-41.9	-46.5	10.9	1.86e-03	0	55	0	78643200	55	6090
2026-01-21 23:05:23.75	26.00	11.73	-41.9	-46.4	11.0	2.19e-03	0	55	0	80740352	55	6059
2026-01-21 23:05:24.76	26.06	11.82	-41.8	-46.3	11.2	1.72e-03	0	55	0	82837504	55	5924
2026-01-21 23:05:25.77	26.12	11.90	-41.9	-46.3	11.2	1.29e-03	0	55	0	84934656	55	5951
2026-01-21 23:05:26.78	26.19	11.99	-41.8	-46.2	11.3	1.44e-03	0	55	0	85983232	55	5904
2026-01-21 23:05:27.79	26.26	12.08	-41.8	-46.1	11.4	1.14e-03	0	55	0	88080384	55	5804
2026-01-21 23:05:28.80	26.32	12.17	-41.9	-46.3	11.2	1.27e-03	0	55	0	90177536	55	5949
2026-01-21 23:05:29.81	26.39	12.26	-41.8	-46.2	11.3	1.40e-03	0	55	0	92274688	55	5875
2026-01-21 23:05:30.82	26.46	12.35	-41.8	-46.2	11.3	1.35e-03	0	55	0	94371840	55	5886
2026-01-21 23:05:31.83	26.52	12.44	-41.8	-46.0	11.5	9.63e-04	0	55	0	95420416	55	5779
2026-01-21 23:05:32.84	26.59	12.53	-41.8	-46.1	11.5	6.80e-04	0	55	0	97517568	55	5821
2026-01-21 23:05:33.84	26.66	12.62	-41.8	-46.0	11.5	9.92e-04	0	55	0	99614720	55	5771
2026-01-21 23:05:34.85	26.73	12.72	-41.8	-46.0	11.5	8.60e-04	0	55	0	101711872	55	5776
2026-01-21 23:05:35.86	26.80	12.81	-41.8	-46.0	11.5	7.25e-04	0	55	0	103809024	55	5781
2026-01-21 23:05:36.87	26.86	12.90	-41.7	-45.8	11.8	6.56e-04	0	55	0	105906176	55	5629
2026-01-21 23:05:37.88	26.93	12.99	-41.7	-45.9	11.8	5.17e-04	0	55	0	106954752	55	5667
2026-01-21 23:05:38.89	27.00	13.08	-41.8	-45.9	11.8	5.30e-04	0	55	0	109051904	55	5682
2026-01-21 23:05:39.90	27.07	13.18	-41.6	-45.6	12.0	3.53e-04	0	55	0	111149056	55	5510
2026-01-21 23:05:40.91	27.15	13.27	-41.7	-45.8	11.9	3.12e-04	0	55	0	113246208	55	5600
2026-01-21 23:05:41.92	27.22	13.36	-41.7	-45.8	11.9	3.94e-04	0	55	0	115343360	55	5608
2026-01-21 23:05:42.93	27.29	13.46	-41.7	-45.8	11.8	4.20e-04	0	55	0	116391936	55	5633
2026-01-21 23:05:43.93	27.36	13.55	-41.7	-45.8	11.9	4.33e-04	0	55	0	118489088	55	5625
2026-01-21 23:05:44.94	27.43	13.65	-41.7	-45.8	11.9	5.25e-04	0	55	0	120586240	55	5649
2026-01-21 23:05:45.95	27.51	13.74	-41.6	-45.6	12.2	2.15e-04	0	55	0	122683392	55	5466
2026-01-21 23:05:46.96	27.58	13.84	-41.6	-45.4	12.4	1.24e-04	0	55	0	124780544	55	5359
2026-01-21 23:05:47.97	27.65	13.93	-41.6	-45.4	12.4	1.85e-04	0	55	0	125829120	55	5370
2026-01-21 23:05:48.98	27.73	14.03	-41.6	-45.5	12.3	1.40e-04	0	55	0	127926272	55	5431
2026-01-21 23:05:49.99	27.80	14.13	-41.5	-45.3	12.4	1.52e-04	0	55	0	130023424	55	5321
2026-01-21 23:05:51.00	27.88	14.22	-41.6	-45.4	12.4	1.65e-04	0	55	0	132120576	55	5380
2026-01-21 23:05:52.01	27.95	14.32	-41.5	-45.3	12.5	1.94e-04	0	56	0	134217728	55	5310
2026-01-21 23:05:53.01	28.03	14.42	-41.6	-45.5	12.3	1.81e-04	0	55	0	135266304	55	5429
2026-01-21 23:05:54.02	28.11	14.51	-41.6	-45.4	12.4	1.46e-04	0	56	0	137363456	55	5389
2026-01-21 23:05:55.03	28.18	14.61	-41.6	-45.5	12.3	1.62e-04	0	56	0	139460608	55	5432
2026-01-21 23:05:56.04	28.26	14.71	-41.6	-45.5	12.3	1.75e-04	0	56	0	141557760	55	5430
2026-01-21 23:05:57.05	28.34	14.81	-41.4	-45.1	12.8	1.01e-04	0	56	0	143654912	54	5465
2026-01-21 23:05:58.06	28.42	14.91	-41.6	-45.4	12.4	9.76e-05	0	56	0	144703488	54	5660
2026-01-21 23:05:59.07	28.50	15.01	-41.6	-45.3	12.5	1.07e-04	0	56	0	146800640	54	5638
2026-01-21 23:06:00.08	28.58	15.11	-41.5	-45.2	12.7	6.79e-05	0	56	0	148897792	54	5541
2026-01-21 23:06:01.09	28.66	15.21	-41.6	-45.3	12.5	9.68e-05	0	56	0	150994944	54	5623
2026-01-21 23:06:02.10	28.74	15.31	-41.6	-45.3	12.6	9.53e-05	0	56	0	153092096	54	5617
2026-01-21 23:06:03.11	28.82	15.41	-41.6	-45.3	12.7	1.38e-04	0	55	0	154140672	54	5597
2026-01-21 23:06:04.12	28.90	15.51	-41.5	-45.2	12.7	7.70e-05	0	56	0	156237824	54	5579
2026-01-21 23:06:05.12	28.98	15.61	-41.5	-45.3	12.7	1.04e-04	0	56	0	158334976	54	5596
2026-01-21 23:06:06.13	29.06	15.71	-41.6	-45.4	12.5	9.61e-05	0	56	0	160432128	54	5671
2026-01-21 23:06:07.14	29.15	15.82	-41.6	-45.4	12.6	1.09e-04	0	56	0	162529280	54	5664
2026-01-21 23:06:08.15	29.23	15.92	-41.7	-45.5	12.4	1.56e-04	0	56	0	163577856	54	5760
2026-01-21 23:06:09.16	29.32	16.02	-41.8	-45.7	12.2	1.69e-04	0	56	0	165675008	54	5872
2026-01-21 23:06:10.17	29.40	16.13	-41.8	-45.8	12.1	2.10e-04	0	56	0	167772160	54	5933
2026-01-21 23:06:11.18	29.49	16.23	-41.9	-45.9	12.0	3.08e-04	0	56	0	169869312	54	6015
2026-01-21 23:06:12.18	29.57	16.33	-41.8	-45.7	12.2	2.65e-04	0	56	0	171966464	54	5911
2026-01-21 23:06:13.19	29.66	16.44	-41.8	-45.7	12.2	2.30e-04	0	56	0	174063616	54	5919
2026-01-21 23:06:14.20	29.74	16.54	-41.9	-45.8	12.1	2.99e-04	0	56	0	175112192	54	5991
2026-01-21 23:06:15.21	29.83	16.65	-41.9	-45.8	12.2	1.92e-04	0	56	0	177209344	54	5934
2026-01-21 23:06:16.22	29.92	16.75	-41.8	-45.7	12.3	3.28e-04	0	56	0	179306496	54	5891
2026-01-21 23:06:17.23	30.01	16.86	-41.9	-45.8	12.2	2.26e-04	0	56	0	181403648	54	5939
2026-01-21 23:06:18.24	30.10	16.97	-41.9	-45.9	12.1	1.85e-04	0	56	0	183500800	54	6044
2026-01-21 23:06:19.25	30.19	17.07	-42.0	-46.0	11.9	2.30e-04	0	56	0	184549376	54	6095
2026-01-21 23:06:20.26	30.28	17.18	-42.0	-46.0	11.9	2.80e-04	0	56	0	186646528	54	6111
2026-01-21 23:06:21.27	30.37	17.29	-41.9	-45.9	12.1	2.43e-04	0	56	0	188743680	54	6017
2026-01-21 23:06:22.28	30.46	17.40	-42.0	-46.0	12.0	3.30e-04	0	56	0	190840832	54	6108
2026-01-21 23:06:23.28	30.56	17.51	-42.0	-46.0	12.0	4.36e-04	0	56	0	191889408	54	6107
2026-01-21 23:06:24.30	30.65	17.62	-41.9	-45.7	12.3	4.07e-04	0	56	0	193986560	54	5912
2026-01-21 23:06:25.30	30.74	17.73	-42.0	-45.9	12.1	3.68e-04	0	56	0	196083712	54	6011
2026-01-21 23:06:26.31	30.84	17.84	-42.2	-46.3	11.7	4.13e-04	0	56	0	198180864	54	6321
2026-01-21 23:06:27.32	30.93	17.95	-42.1	-46.2	11.9	4.23e-04	0	56	0	200278016	54	6215
2026-01-21 23:06:28.33	31.03	18.06	-42.1	-46.2	11.8	4.26e-04	0	56	0	202375168	54	6262
2026-01-21 23:06:29.34	31.12	18.17	-42.2	-46.3	11.8	4.25e-04	0	56	0	203423744	54	6323
2026-01-21 23:06:30.35	31.22	18.28	-42.2	-46.3	11.8	5.90e-04	0	56	0	205520896	55	5951
2026-01-21 23:06:31.35	31.32	18.39	-42.1	-46.2	11.8	4.71e-04	0	56	0	207618048	55	5900
2026-01-21 23:06:32.36	31.42	18.50	-42.2	-46.3	11.8	3.32e-04	0	56	0	209715200	55	5933
2026-01-21 23:06:33.36	31.52	18.62	-42.1	-46.2	11.9	6.41e-04	0	56	0	211812352	55	5857
2026-01-21 23:06:34.37	31.62	18.73	-42.1	-46.1	12.0	3.93e-04	0	56	0	212860928	55	5835
2026-01-21 23:06:35.37	31.72	18.84	-42.2	-46.3	11.8	4.87e-04	0	56	0	214958080	55	5940
2026-01-21 23:06:36.38	31.82	18.96	-42.2	-46.4	11.8	4.42e-04	0	56	0	217055232	55	5996
2026-01-21 23:06:37.38	31.92	19.07	-42.3	-46.5	11.6	4.39e-04	0	56	0	219152384	55	6090
2026-01-21 23:06:38.38	32.02	19.19	-42.3	-46.4	11.7	6.61e-04	0	56	0	220200960	55	6056
2026-01-21 23:06:39.39	32.12	19.30	-42.3	-46.6	11.5	7.91e-04	0	56	0	222298112	55	6159
2026-01-21 23:06:40.39	32.23	19.42	-42.3	-46.6	11.5	1.06e-03	0	56	0	224395264	55	6196
2026-01-21 23:06:41.40	32.33	19.53	-42.4	-46.8	11.3	9.57e-04	0	57	0	226492416	55	6286
2026-01-21 23:06:42.40	32.44	19.65	-42.4	-46.7	11.4	9.79e-04	0	56	0	228589568	55	6260
2026-01-21 23:06:43.41	32.54	19.77	-42.5	-46.8	11.3	1.27e-03	0	56	0	230686720	55	6333
2026-01-21 23:06:44.41	32.65	19.88	-42.5	-47.0	11.1	1.32e-03	0	56	0	231735296	55	6452
2026-01-21 23:06:45.42	32.76	20.00	-42.5	-47.0	11.1	1.89e-03	0	56	0	233832448	55	6464
2026-01-21 23:06:46.42	32.87	20.12	-42.4	-46.8	11.3	8.28e-04	0	56	0	235929600	55	6294
2026-01-21 23:06:47.43	32.98	20.24	-42.3	-46.5	11.6	7.34e-04	0	56	0	238026752	55	6119
2026-01-21 23:06:48.43	33.09	20.36	-42.2	-46.1	12.0	5.88e-04	0	56	0	239075328	55	5846
2026-01-21 23:06:49.44	33.20	20.48	-42.1	-46.1	12.1	3.19e-04	0	56	0	241172480	55	5789
2026-01-21 23:06:50.44	33.31	20.60	-42.1	-46.0	12.2	2.52e-04	0	56	0	243269632	55	5748
2026-01-21 23:06:51.45	33.42	20.72	-42.1	-45.9	12.2	2.94e-04	0	57	0	245366784	55	5701
2026-01-21 23:06:52.46	33.54	20.84	-42.1	-46.0	12.1	1.91e-04	0	56	0	247463936	55	5781
2026-01-21 23:06:53.47	33.65	20.96	-42.1	-46.0	12.2	2.12e-04	0	57	0	248512512	55	5763
2026-01-21 23:06:54.48	33.77	21.09	-42.2	-46.2	12.0	2.72e-04	0	56	0	250609664	55	5898
2026-01-21 23:06:55.48	33.88	21.21	-42.2	-46.2	12.0	4.53e-04	0	56	0	252706816	55	5894
2026-01-21 23:06:56.49	34.00	21.33	-42.1	-46.1	12.1	4.11e-04	0	56	0	254803968	55	5826
2026-01-21 23:06:57.49	34.12	21.46	-42.3	-46.4	11.8	3.48e-04	0	57	0	256901120	55	6027
2026-01-21 23:06:58.50	34.24	21.58	-42.2	-46.2	11.9	3.99e-04	0	57	0	258998272	55	5867
2026-01-21 23:06:59.50	34.36	21.71	-42.2	-46.3	11.9	4.72e-04	0	56	0	260046848	55	5945
2026-01-21 23:07:00.51	34.48	21.83	-42.3	-46.5	11.7	4.14e-04	0	56	0	262144000	55	6079
2026-01-21 23:07:01.52	34.60	21.96	-42.4	-46.6	11.6	5.35e-04	0	57	0	264241152	55	6152
2026-01-21 23:07:02.52	34.72	22.08	-42.3	-46.5	11.7	7.22e-04	0	56	0	266338304	55	6086
2026-01-21 23:07:03.54	34.85	22.21	-42.4	-46.7	11.5	5.52e-04	0	56	0	267386880	55	6222
2026-01-21 23:07:04.55	34.97	22.34	-42.5	-46.9	11.3	6.29e-04	0	56	0	269484032	55	6375
2026-01-21 23:07:05.55	35.10	22.47	-42.4	-46.6	11.6	5.75e-04	0	56	0	271581184	55	6160
2026-01-21 23:07:06.56	35.23	22.60	-42.5	-46.8	11.4	7.41e-04	0	57	0	273678336	55	6298
2026-01-21 23:07:07.57	35.36	22.73	-42.3	-46.4	11.8	6.45e-04	0	57	0	275775488	55	6016
2026-01-21 23:07:08.58	35.48	22.86	-42.3	-46.4	11.8	4.65e-04	0	57	0	277872640	55	6046
2026-01-21 23:07:09.59	35.62	22.99	-42.3	-46.4	11.8	6.24e-04	0	56	0	278921216	55	6056
2026-01-21 23:07:10.60	35.75	23.12	-42.2	-46.3	12.0	4.29e-04	0	57	0	281018368	55	5924
2026-01-21 23:07:11.61	35.88	23.25	-42.2	-46.2	12.0	3.64e-04	0	57	0	283115520	55	5911
2026-01-21 23:07:12.62	36.01	23.38	-42.4	-46.5	11.7	3.42e-04	0	57	0	285212672	55	6091
2026-01-21 23:07:13.63	36.15	23.51	-42.2	-46.1	12.1	4.88e-04	0	57	0	287309824	55	5851
2026-01-21 23:07:14.64	36.28	23.65	-42.2	-46.2	12.1	2.95e-04	0	57	0	288358400	55	5868
2026-01-21 23:07:15.65	36.42	23.78	-42.4	-46.4	11.8	2.56e-04	0	57	0	290455552	55	6053
2026-01-21 23:07:16.66	36.56	23.91	-42.2	-46.2	12.0	3.28e-04	0	57	0	292552704	55	5921
2026-01-21 23:07:17.66	36.70	24.05	-42.3	-46.2	12.0	3.21e-04	0	57	0	294649856	55	5922
2026-01-21 23:07:18.67	36.84	24.18	-42.2	-46.1	12.2	3.44e-04	0	57	0	296747008	55	5807
2026-01-21 23:07:19.68	36.98	24.32	-42.2	-46.0	12.3	2.74e-04	0	57	0	297795584	55	5775
2026-01-21 23:07:20.69	37.12	24.45	-42.2	-46.2	12.1	2.46e-04	0	56	0	299892736	55	5885
2026-01-21 23:07:21.70	37.27	24.59	-42.2	-46.1	12.2	2.37e-04	0	57	0	301989888	55	5821
2026-01-21 23:07:22.71	37.41	24.73	-42.3	-46.3	12.1	2.34e-04	0	57	0	304087040	55	5927
2026-01-21 23:07:23.72	37.56	24.87	-42.3	-46.4	11.9	3.11e-04	0	57	0	306184192	55	6024
2026-01-21 23:07:24.73	37.70	25.00	-42.4	-46.4	11.8	3.39e-04	0	57	0	307232768	55	6052
2026-01-21 23:07:25.74	37.85	25.14	-42.2	-46.0	12.3	4.08e-04	0	57	0	309329920	55	5755
2026-01-21 23:07:26.75	38.00	25.28	-42.3	-46.3	12.0	2.54e-04	0	57	0	311427072	55	5939
2026-01-21 23:07:27.76	38.16	25.42	-42.3	-46.4	11.9	3.41e-04	0	57	0	313524224	55	6020
2026-01-21 23:07:28.77	38.31	25.56	-42.1	-45.8	12.4	2.14e-04	0	57	0	315621376	55	5652
2026-01-21 23:07:29.78	38.46	25.70	-42.1	-45.9	12.3	1.43e-04	0	57	0	316669952	55	5713
2026-01-21 23:07:30.79	38.62	25.85	-42.1	-45.9	12.4	1.66e-04	0	57	0	318767104	55	5678
2026-01-21 23:07:31.80	38.77	25.99	-42.1	-45.9	12.4	1.33e-04	0	57	0	320864256	55	5718
2026-01-21 23:07:32.81	38.93	26.13	-42.2	-46.0	12.2	1.26e-04	0	57	0	322961408	55	5787
2026-01-21 23:07:33.81	39.09	26.27	-42.2	-46.1	12.2	1.79e-04	0	57	0	325058560	55	5843
2026-01-21 23:07:34.82	39.25	26.42	-42.2	-46.1	12.2	2.16e-04	0	57	0	326107136	55	5842
2026-01-21 23:07:35.83	39.41	26.56	-42.2	-46.0	12.3	2.24e-04	0	57	0	328204288	55	5787
2026-01-21 23:07:36.84	39.58	26.71	-42.3	-46.2	12.1	3.52e-04	0	57	0	330301440	55	5904
2026-01-21 23:07:37.85	39.74	26.85	-42.3	-46.2	12.1	4.32e-04	0	57	0	332398592	55	5894
2026-01-21 23:07:38.86	39.91	27.00	-42.4	-46.5	11.9	2.68e-04	0	57	0	334495744	55	6095
2026-01-21 23:07:39.87	40.08	27.14	-42.3	-46.2	12.2	3.20e-04	0	57	0	335544320	55	5873
2026-01-21 23:07:40.88	40.25	27.29	-42.2	-46.1	12.2	2.43e-04	0	57	0	337641472	55	5835
2026-01-21 23:07:41.89	40.42	27.44	-42.2	-46.0	12.4	2.14e-04	0	57	0	339738624	55	5766
2026-01-21 23:07:42.90	40.59	27.59	-42.1	-45.8	12.6	1.46e-04	0	57	0	341835776	55	5594
2026-01-21 23:07:43.91	40.77	27.74	-42.2	-46.0	12.4	1.44e-04	0	57	0	343932928	55	5725
2026-01-21 23:07:44.92	40.94	27.88	-42.2	-46.1	12.3	1.51e-04	0	57	0	346030080	55	5789
2026-01-21 23:07:45.93	41.12	28.03	-42.3	-46.1	12.2	2.14e-04	0	57	0	347078656	55	5855
2026-01-21 23:07:46.94	41.30	28.18	-42.2	-46.1	12.2	3.38e-04	0	57	0	349175808	55	5821
2026-01-21 23:07:47.95	41.48	28.34	-42.4	-46.5	11.8	3.77e-04	0	57	0	351272960	55	6093
2026-01-21 23:07:48.96	41.66	28.49	-42.6	-46.9	11.4	6.89e-04	0	57	0	353370112	55	6381
2026-01-21 23:07:49.97	41.85	28.64	-42.7	-47.1	11.2	8.44e-04	0	57	0	355467264	55	6528
2026-01-21 23:07:50.98	42.04	28.79	-43.0	-47.6	10.9	1.36e-03	0	57	0	356515840	56	6551
2026-01-21 23:07:51.98	42.22	28.94	-43.1	-47.7	10.8	2.22e-03	0	57	0	358612992	56	6641
2026-01-21 23:07:52.99	42.41	29.10	-43.2	-48.0	10.4	3.07e-03	0	57	0	360710144	56	6868
2026-01-21 23:07:54.00	42.60	29.25	-43.2	-48.0	10.4	4.01e-03	0	57	0	362807296	56	6877
2026-01-21 23:07:55.01	42.80	29.40	-43.4	-48.5	9.9	4.61e-03	0	57	0	364904448	57	6834
2026-01-21 23:07:56.02	42.99	29.56	-43.2	-48.0	10.5	4.12e-03	0	57	0	365953024	57	6457
2026-01-21 23:07:57.04	43.19	29.72	-43.1	-47.9	10.6	3.46e-03	0	57	0	368050176	57	6373
2026-01-21 23:07:58.04	43.39	29.87	-43.2	-48.0	10.5	4.00e-03	0	57	0	370147328	57	6458
2026-01-21 23:07:59.05	43.59	30.03	-43.3	-48.3	10.3	4.42e-03	0	57	0	372244480	57	6665
2026-01-21 23:08:00.06	43.79	30.18	-43.3	-48.4	10.0	6.51e-03	0	57	0	374341632	57	6784
2026-01-21 23:08:01.07	43.99	30.34	-43.4	-48.5	9.9	8.27e-03	0	57	0	375390208	57	6875
2026-01-21 23:08:02.08	44.20	30.50	-43.4	-48.5	10.0	1.01e-02	0	57	0	377487360	57	6827
2026-01-21 23:08:03.09	44.41	30.66	-43.3	-48.2	10.3	9.20e-03	0	57	0	379584512	57	6615
2026-01-21 23:08:04.10	44.62	30.82	-43.3	-48.3	10.3	7.09e-03	0	57	0	381681664	57	6648
2026-01-21 23:08:05.11	44.83	30.97	-43.1	-47.9	10.7	4.54e-03	0	57	0	383778816	57	6348
2026-01-21 23:08:06.12	45.05	31.13	-43.1	-47.7	10.8	3.50e-03	0	57	0	384827392	57	6236
2026-01-21 23:08:07.13	45.26	31.29	-43.1	-47.7	10.9	2.61e-03	0	57	0	386924544	57	6211
2026-01-21 23:08:08.14	45.48	31.45	-43.0	-47.5	11.1	1.95e-03	0	57	0	389021696	57	6083
2026-01-21 23:08:09.15	45.70	31.62	-43.0	-47.5	11.1	2.78e-03	0	57	0	391118848	57	6127
2026-01-21 23:08:10.16	45.92	31.78	-42.9	-47.4	11.2	1.82e-03	0	57	0	393216000	57	6011
2026-01-21 23:08:11.17	46.15	31.94	-43.0	-47.6	11.0	1.75e-03	0	57	0	394264576	57	6137
2026-01-21 23:08:12.18	46.38	32.10	-43.0	-47.5	11.0	1.45e-03	0	57	0	396361728	57	6121
2026-01-21 23:08:13.19	46.61	32.26	-43.1	-47.6	11.0	1.74e-03	0	57	0	398458880	57	6184
2026-01-21 23:08:14.20	46.84	32.43	-43.2	-48.0	10.5	2.66e-03	0	57	0	400556032	57	6471
2026-01-21 23:08:15.20	47.07	32.59	-43.3	-48.4	10.2	5.40e-03	0	57	0	402653184	57	6752
2026-01-21 23:08:16.22	47.31	32.75	-43.3	-48.3	10.2	5.96e-03	0	57	0	403701760	57	6679
2026-01-21 23:08:17.22	47.55	32.92	-43.4	-48.7	9.8	8.23e-03	0	57	0	405798912	57	6997
2026-01-21 23:08:18.23	47.79	33.08	-43.5	-48.9	9.6	9.49e-03	0	57	0	407896064	57	7178
2026-01-21 23:08:19.24	48.03	33.25	-43.4	-48.5	10.1	7.76e-03	0	57	0	409993216	57	6847
2026-01-21 23:08:20.25	48.28	33.41	-43.3	-48.1	10.4	4.75e-03	0	57	0	412090368	57	6560
2026-01-21 23:08:21.26	48.53	33.58	-43.3	-48.2	10.3	4.21e-03	0	57	0	413138944	57	6622
2026-01-21 23:08:22.27	48.78	33.74	-43.2	-47.9	10.7	3.76e-03	0	57	0	415236096	57	6399
2026-01-21 23:08:23.28	49.03	33.91	-43.0	-47.5	11.0	1.89e-03	0	57	0	417333248	57	6130
2026-01-21 23:08:24.29	49.29	34.08	-43.0	-47.5	11.0	1.76e-03	0	57	0	419430400	57	6123
2026-01-21 23:08:25.30	49.55	34.24	-43.0	-47.5	11.0	1.82e-03	0	57	0	421527552	57	6089
2026-01-21 23:08:26.30	49.80	34.41	-43.0	-47.4	11.2	9.69e-04	0	57	0	423624704	57	6022
2026-01-21 23:08:27.31	50.07	34.57	-43.0	-47.4	11.2	1.16e-03	0	57	0	424673280	57	6033
2026-01-21 23:08:28.33	50.34	34.74	-43.0	-47.5	11.1	9.62e-04	0	57	0	426770432	57	6075
2026-01-21 23:08:29.33	50.60	34.91	-43.0	-47.5	11.1	1.72e-03	0	57	0	428867584	57	6064
2026-01-21 23:08:30.34	50.88	35.08	-43.0	-47.5	11.1	1.54e-03	0	57	0	430964736	57	6075
2026-01-21 23:08:31.35	51.15	35.25	-43.1	-47.7	10.9	2.51e-03	0	57	0	433061888	57	6254
2026-01-21 23:08:32.36	51.43	35.41	-43.1	-47.8	10.8	3.79e-03	0	57	0	434110464	57	6289
2026-01-21 23:08:33.37	51.71	35.58	-43.0	-47.5	11.2	1.79e-03	0	58	0	436207616	57	6073
2026-01-21 23:08:34.38	51.99	35.75	-42.6	-46.6	12.0	6.57e-04	0	57	0	438304768	57	5500
2026-01-21 23:08:35.39	52.28	35.92	-42.4	-46.1	12.6	1.23e-04	0	57	0	440401920	56	5479
2026-01-21 23:08:36.40	52.57	36.09	-42.2	-45.7	13.0	3.05e-05	0	57	0	442499072	56	5254
2026-01-21 23:08:37.41	52.86	36.26	-42.2	-45.9	12.8	2.74e-05	0	57	0	443547648	56	5341
2026-01-21 23:08:38.42	53.16	36.43	-42.2	-45.9	12.8	6.48e-05	0	58	0	445644800	56	5352
2026-01-21 23:08:39.43	53.45	36.60	-42.5	-46.3	12.4	9.99e-05	0	57	0	447741952	56	5643
2026-01-21 23:08:40.44	53.76	36.76	-42.3	-46.0	12.7	1.43e-04	0	57	0	449839104	56	5449
2026-01-21 23:08:41.45	54.06	36.93	-42.6	-46.5	12.1	1.37e-04	0	57	0	451936256	56	5753
2026-01-21 23:08:42.46	54.37	37.10	-42.5	-46.4	12.3	1.82e-04	0	57	0	452984832	56	5664
2026-01-21 23:08:43.47	54.68	37.27	-42.4	-46.1	12.6	1.29e-04	0	57	0	455081984	56	5500
2026-01-21 23:08:44.48	54.99	37.44	-42.2	-45.7	12.9	5.64e-05	0	57	0	457179136	56	5241
2026-01-21 23:08:45.49	55.31	37.61	-42.3	-45.8	12.9	4.88e-05	0	57	0	459276288	56	5320
2026-01-21 23:08:46.50	55.63	37.78	-42.1	-45.6	13.2	3.28e-05	0	57	0	461373440	56	5174
2026-01-21 23:08:47.51	55.95	37.95	-42.1	-45.5	13.1	2.51e-05	0	57	0	462422016	56	5134
2026-01-21 23:08:48.51	56.28	38.11	-42.2	-45.8	12.9	4.80e-05	0	57	0	464519168	56	5308
2026-01-21 23:08:49.52	56.61	38.28	-42.4	-46.2	12.5	8.54e-05	0	57	0	466616320	56	5533
2026-01-21 23:08:50.53	56.94	38.45	-42.5	-46.3	12.4	1.43e-04	0	57	0	468713472	56	5641
2026-01-21 23:08:51.54	57.28	38.62	-42.3	-45.9	12.8	8.39e-05	0	58	0	470810624	56	5388
2026-01-21 23:08:52.55	57.62	38.78	-42.4	-46.0	12.7	3.58e-05	0	57	0	471859200	56	5455
2026-01-21 23:08:53.56	57.96	38.95	-42.2	-45.7	13.0	2.28e-05	0	57	0	473956352	56	5279
2026-01-21 23:08:54.57	58.31	39.12	-42.4	-46.2	12.5	6.40e-05	0	57	0	476053504	56	5562
2026-01-21 23:08:55.58	58.66	39.29	-42.5	-46.3	12.4	1.70e-04	0	57	0	478150656	56	5631
2026-01-21 23:08:56.59	59.02	39.45	-42.5	-46.3	12.4	3.11e-04	0	57	0	480247808	56	5641
2026-01-21 23:08:57.60	59.38	39.62	-42.2	-45.8	12.9	1.05e-04	0	57	0	481296384	56	5299
2026-01-21 23:08:58.61	59.74	39.78	-42.1	-45.5	13.2	4.11e-05	0	57	0	483393536	56	5116
2026-01-21 23:08:59.62	60.10	39.95	-41.8	-45.2	13.4	1.52e-05	0	58	0	485490688	55	5231
2026-01-21 23:09:00.63	60.47	40.11	-42.0	-45.4	13.1	2.74e-05	0	57	0	487587840	55	5400
2026-01-21 23:09:01.64	60.85	40.27	-42.2	-45.9	12.7	5.18e-05	0	57	0	489684992	55	5668
2026-01-21 23:09:02.65	61.22	40.44	-42.2	-45.9	12.6	9.00e-05	0	57	0	491782144	55	5696
2026-01-21 23:09:03.66	61.60	40.60	-42.1	-45.7	12.8	6.94e-05	0	57	0	492830720	55	5584
2026-01-21 23:09:04.67	61.99	40.76	-42.0	-45.5	13.1	4.27e-05	0	57	0	494927872	55	5449
2026-01-21 23:09:05.68	62.38	40.92	-42.0	-45.4	13.2	2.89e-05	0	57	0	497025024	55	5353
2026-01-21 23:09:06.69	62.77	41.08	-42.3	-46.0	12.6	6.63e-05	0	57	0	499122176	55	5760
2026-01-21 23:09:07.70	63.16	41.24	-42.7	-46.8	11.8	2.84e-04	0	58	0	501219328	55	6324
2026-01-21 23:09:08.70	63.56	41.40	-42.9	-47.0	11.6	6.12e-04	0	57	0	502267904	56	6121
2026-01-21 23:09:09.72	63.97	41.56	-42.6	-46.6	12.3	5.26e-04	0	57	0	504365056	56	5795
2026-01-21 23:09:10.73	64.37	41.72	-42.6	-46.5	12.2	1.38e-04	0	58	0	506462208	56	5727
2026-01-21 23:09:11.74	64.79	41.87	-42.5	-46.2	12.6	1.01e-04	0	57	0	508559360	56	5574
2026-01-21 23:09:12.75	65.20	42.03	-42.5	-46.2	12.6	1.19e-04	0	57	0	510656512	56	5553
2026-01-21 23:09:13.76	65.62	42.18	-42.5	-46.3	12.5	8.23e-05	0	57	0	511705088	56	5629
2026-01-21 23:09:14.77	66.04	42.34	-42.8	-46.9	11.8	1.79e-04	0	58	0	513802240	56	6020
2026-01-21 23:09:15.78	66.47	42.49	-43.0	-47.2	11.5	8.55e-04	0	57	0	515899392	56	6274
2026-01-21 23:09:16.79	66.90	42.64	-43.3	-48.0	10.6	1.84e-03	0	57	0	517996544	57	6487
2026-01-21 23:09:17.80	67.34	42.79	-43.1	-47.5	11.1	2.74e-03	0	57	0	520093696	57	6109
2026-01-21 23:09:18.81	67.78	42.94	-42.9	-47.1	11.6	1.15e-03	0	58	0	521142272	57	5795
2026-01-21 23:09:19.82	68.22	43.08	-42.9	-47.2	11.5	6.81e-04	0	57	0	523239424	57	5891
2026-01-21 23:09:20.83	68.67	43.23	-42.9	-47.1	11.7	5.55e-04	0	58	0	525336576	57	5791
2026-01-21 23:09:21.84	69.12	43.38	-42.9	-47.0	11.6	6.52e-04	0	58	0	527433728	57	5741
2026-01-21 23:09:22.85	69.58	43.52	-43.0	-47.4	11.5	6.68e-04	0	57	0	529530880	57	6011
2026-01-21 23:09:23.86	70.04	43.66	-43.1	-47.5	11.2	9.30e-04	0	57	0	530579456	57	6065
2026-01-21 23:09:24.87	70.50	43.80	-43.2	-47.7	11.0	1.80e-03	0	57	0	532676608	57	6272
2026-01-21 23:09:25.88	70.97	43.94	-43.3	-48.1	10.5	3.02e-03	0	57	0	534773760	57	6549
2026-01-21 23:09:26.89	71.44	44.08	-43.5	-48.6	10.2	4.10e-03	0	58	0	536870912	57	6884
2026-01-21 23:09:27.90	71.92	44.21	-43.4	-48.3	10.4	5.54e-03	0	58	0	538968064	57	6667
2026-01-21 23:09:28.91	72.39	44.34	-43.0	-47.3	11.4	2.15e-03	0	57	0	540016640	57	5991
2026-01-21 23:09:29.92	72.88	44.48	-42.9	-47.0	11.9	5.83e-04	0	57	0	542113792	57	5769
2026-01-21 23:09:30.93	73.37	44.61	-42.9	-47.2	11.5	4.39e-04	0	57	0	544210944	57	5856
2026-01-21 23:09:31.94	73.86	44.74	-43.5	-48.5	10.3	2.97e-03	0	57	0	546308096	57	6825
2026-01-21 23:09:32.95	74.35	44.86	-43.9	-49.6	9.1	1.17e-02	0	57	0	548405248	58	7315
2026-01-21 23:09:33.96	74.85	44.99	-43.9	-49.5	9.1	2.04e-02	0	58	0	549453824	58	7226
2026-01-21 23:09:34.97	75.36	45.11	-43.9	-49.6	9.1	1.68e-02	0	58	0	551550976	58	7307
2026-01-21 23:09:35.98	75.86	45.23	-43.8	-49.3	9.2	1.31e-02	0	58	0	553648128	58	7107
2026-01-21 23:09:36.98	76.37	45.35	-44.2	-50.6	8.0	3.46e-02	0	58	0	555745280	58	8256
2026-01-21 23:09:37.99	76.88	45.46	-44.3	-51.1	7.6	1.11e-01	0	58	0	557842432	59	8235
2026-01-21 23:09:39.00	77.40	45.58	-44.0	-50.0	8.5	6.30e-02	0	58	0	559939584	59	7253
2026-01-21 23:09:40.01	77.93	45.69	-43.8	-49.2	9.5	2.27e-02	0	58	0	560988160	59	6587
2026-01-21 23:09:41.02	78.45	45.80	-43.7	-49.0	9.6	1.16e-02	0	58	0	563085312	59	6484
2026-01-21 23:09:42.03	78.98	45.91	-44.1	-50.1	8.6	1.30e-02	0	58	0	565182464	59	7311
2026-01-21 23:09:43.04	79.51	46.01	-44.2	-50.7	7.8	5.36e-02	0	58	0	567279616	59	7834
2026-01-21 23:09:44.05	80.05	46.11	-44.0	-50.0	8.6	5.26e-02	0	57	0	569376768	59	7212
2026-01-21 23:09:45.06	80.59	46.21	-43.7	-49.0	9.6	1.79e-02	0	57	0	570425344	59	6434
2026-01-21 23:09:46.07	81.13	46.31	-43.9	-49.4	9.2	1.23e-02	0	58	0	572522496	59	6793
2026-01-21 23:09:47.08	81.68	46.41	-44.3	-51.0	7.6	4.50e-02	0	57	0	574619648	59	8137
2026-01-21 23:09:48.09	82.23	46.50	-44.6	-52.0	6.7	2.03e-01	0	58	0	576716800	59	9145
2026-01-21 23:09:49.10	82.78	46.59	-44.4	-51.2	7.3	1.55e-01	0	58	0	578813952	59	8348
2026-01-21 23:09:50.11	83.34	46.67	-44.2	-50.4	8.2	6.34e-02	0	58	0	579862528	59	7605
2026-01-21 23:09:51.12	83.90	46.76	-43.9	-49.6	9.0	2.18e-02	0	58	0	581959680	59	6927
2026-01-21 23:09:52.13	84.46	46.84	-43.7	-48.9	9.7	1.61e-02	0	58	0	584056832	59	6371
2026-01-21 23:09:53.14	85.03	46.92	-43.4	-48.2	10.5	9.49e-03	0	58	0	586153984	58	6263
2026-01-21 23:09:54.15	85.59	46.99	-43.2	-47.8	10.9	2.19e-03	0	58	0	588251136	58	5934
2026-01-21 23:09:55.15	86.16	47.07	-43.3	-48.0	10.7	2.15e-03	0	58	0	589299712	58	6073
2026-01-21 23:09:56.17	86.74	47.14	-43.5	-48.3	10.3	3.11e-03	0	57	0	591396864	58	6327
2026-01-21 23:09:57.18	87.31	47.21	-43.7	-49.0	9.7	7.55e-03	0	57	0	593494016	58	6860
2026-01-21 23:09:58.18	87.89	47.27	-44.0	-50.0	8.7	2.33e-02	0	58	0	595591168	58	7643
2026-01-21 23:09:59.19	88.47	47.33	-44.0	-49.8	8.8	4.14e-02	0	58	0	597688320	58	7490
2026-01-21 23:10:00.20	89.05	47.39	-43.7	-48.8	9.9	1.58e-02	0	58	0	598736896	58	6701
2026-01-21 23:10:01.21	89.63	47.44	-43.1	-47.4	11.4	1.41e-03	0	58	0	600834048	58	5680
2026-01-21 23:10:02.22	90.22	47.49	-43.1	-47.5	11.4	1.09e-03	0	58	0	602931200	57	6064
2026-01-21 23:10:03.23	90.81	47.54	-43.5	-48.3	10.4	2.15e-03	0	58	0	605028352	57	6685
2026-01-21 23:10:04.24	91.40	47.59	-43.7	-48.9	9.9	1.27e-02	0	58	0	607125504	58	6766
2026-01-21 23:10:05.25	91.99	47.63	-44.0	-49.7	9.1	1.95e-02	0	58	0	608174080	58	7381
2026-01-21 23:10:06.26	92.59	47.67	-44.1	-50.3	8.4	2.82e-02	0	58	0	610271232	58	7950
2026-01-21 23:10:07.27	93.18	47.71	-44.2	-50.5	8.2	5.85e-02	0	58	0	612368384	59	7677
2026-01-21 23:10:08.28	93.78	47.74	-43.9	-49.6	9.1	4.28e-02	0	57	0	614465536	59	6918
2026-01-21 23:10:09.29	94.38	47.77	-43.4	-48.3	10.5	1.08e-02	0	58	0	616562688	58	6288
2026-01-21 23:10:10.30	94.97	47.79	-43.5	-48.5	10.2	4.37e-03	0	57	0	617611264	58	6435
2026-01-21 23:10:11.31	95.57	47.82	-43.8	-49.3	9.4	1.14e-02	0	58	0	619708416	58	7099
2026-01-21 23:10:12.32	96.18	47.83	-44.2	-50.5	8.2	3.83e-02	0	58	0	621805568	58	8105
2026-01-21 23:10:13.32	96.77	47.85	-44.0	-50.0	8.6	5.62e-02	0	58	0	623902720	58	7662
2026-01-21 23:10:14.33	97.37	47.86	-43.6	-48.7	10.0	2.26e-02	0	58	0	625999872	58	6642
2026-01-21 23:10:15.34	97.97	47.87	-43.5	-48.6	10.2	5.76e-03	0	58	0	628097024	58	6495
2026-01-21 23:10:16.35	98.58	47.88	-43.7	-49.1	9.6	1.01e-02	0	58	0	629145600	58	6882
2026-01-21 23:10:17.36	99.18	47.88	-43.7	-49.1	9.5	1.04e-02	0	58	0	631242752	58	6958
2026-01-21 23:10:18.37	99.78	47.88	-43.9	-49.4	9.2	1.75e-02	0	58	0	633339904	58	7181
2026-01-21 23:10:19.38	100.38	47.88	-43.7	-48.8	9.9	1.04e-02	0	58	0	635437056	58	6714
2026-01-21 23:10:20.39	100.99	47.87	-43.8	-49.2	9.5	1.18e-02	0	58	0	637534208	58	7025
2026-01-21 23:10:21.40	101.59	47.86	-43.9	-49.4	9.2	1.52e-02	0	58	0	638582784	58	7200
2026-01-21 23:10:22.41	102.19	47.84	-43.3	-47.8	10.9	6.31e-03	0	58	0	640679936	58	5975
2026-01-21 23:10:23.42	102.79	47.83	-42.7	-46.5	12.3	3.29e-04	0	57	0	642777088	57	5463
2026-01-21 23:10:24.43	103.39	47.80	-42.7	-46.6	12.2	1.92e-04	0	58	0	644874240	57	5470
2026-01-21 23:10:25.44	103.99	47.78	-43.1	-47.4	11.4	5.93e-04	0	58	0	645922816	57	6026
2026-01-21 23:10:26.45	104.59	47.75	-43.4	-48.2	10.5	3.02e-03	0	58	0	648019968	57	6633
2026-01-21 23:10:27.46	105.19	47.72	-43.6	-48.6	10.2	7.32e-03	0	58	0	650117120	57	6925
2026-01-21 23:10:28.47	105.78	47.69	-43.8	-49.3	9.4	1.68e-02	0	58	0	652214272	58	7088
2026-01-21 23:10:29.48	106.38	47.65	-43.9	-49.6	9.0	2.08e-02	0	58	0	654311424	58	7355
2026-01-21 23:10:30.49	106.97	47.61	-43.8	-49.5	9.3	3.25e-02	0	58	0	656408576	58	7215
2026-01-21 23:10:31.50	107.56	47.57	-43.7	-49.0	9.7	1.63e-02	0	58	0	657457152	58	6879
2026-01-21 23:10:32.51	108.15	47.52	-43.9	-49.7	9.0	1.77e-02	0	58	0	659554304	58	7395
2026-01-21 23:10:33.52	108.74	47.47	-44.0	-50.0	8.8	3.01e-02	0	58	0	661651456	58	7641
2026-01-21 23:10:34.53	109.33	47.41	-43.9	-49.5	9.2	2.84e-02	0	57	0	663748608	58	7225
2026-01-21 23:10:35.54	109.91	47.36	-44.0	-50.0	8.8	3.38e-02	0	58	0	665845760	58	7654
2026-01-21 23:10:36.55	110.49	47.30	-43.9	-49.4	9.3	2.00e-02	0	58	0	666894336	58	7148
2026-01-21 23:10:37.56	111.07	47.24	-43.5	-48.4	10.4	9.01e-03	0	58	0	668991488	58	6379
2026-01-21 23:10:38.57	111.65	47.17	-43.4	-48.2	10.6	2.96e-03	0	57	0	671088640	58	6220
2026-01-21 23:10:39.58	112.23	47.10	-43.1	-47.5	11.2	1.98e-03	0	58	0	673185792	58	5733
2026-01-21 23:10:40.59	112.80	47.03	-42.7	-46.6	12.2	2.80e-04	0	58	0	675282944	57	5507
2026-01-21 23:10:41.60	113.37	46.96	-42.3	-45.8	13.1	2.36e-05	0	58	0	676331520	56	5338
2026-01-21 23:10:42.61	113.94	46.88	-42.9	-46.9	11.9	1.59e-04	0	58	0	678428672	56	6052
2026-01-21 23:10:43.62	114.50	46.80	-43.8	-49.4	9.4	4.43e-03	0	58	0	680525824	58	7126
2026-01-21 23:10:44.63	115.06	46.71	-44.0	-49.9	8.9	3.66e-02	0	58	0	682622976	58	7554
2026-01-21 23:10:45.64	115.62	46.63	-43.6	-48.7	10.0	2.79e-02	0	58	0	684720128	58	6623
2026-01-21 23:10:46.65	116.18	46.54	-43.2	-47.8	11.0	1.82e-03	0	57	0	685768704	58	5941
2026-01-21 23:10:47.66	116.73	46.45	-43.3	-47.8	10.9	1.94e-03	0	58	0	687865856	58	5967
2026-01-21 23:10:48.67	117.28	46.35	-43.5	-48.6	10.2	3.44e-03	0	58	0	689963008	58	6512
2026-01-21 23:10:49.68	117.82	46.26	-43.3	-48.0	10.6	4.96e-03	0	58	0	692060160	58	6105
2026-01-21 23:10:50.69	118.37	46.16	-43.1	-47.3	11.4	1.50e-03	0	58	0	694157312	58	5654
2026-01-21 23:10:51.70	118.91	46.06	-42.8	-46.8	11.9	8.97e-04	0	58	0	696254464	57	5626
2026-01-21 23:10:52.71	119.44	45.95	-43.3	-47.9	10.8	1.03e-03	0	58	0	697303040	57	6381
2026-01-21 23:10:53.72	119.97	45.85	-44.2	-50.9	7.8	3.13e-02	0	58	0	699400192	59	7995
2026-01-21 23:10:54.73	120.50	45.74	-44.4	-51.7	6.9	1.71e-01	0	58	0	701497344	59	8818
2026-01-21 23:10:55.74	121.03	45.63	-43.7	-49.0	9.8	2.38e-02	0	58	0	703594496	59	6463
2026-01-21 23:10:56.75	121.55	45.51	-43.0	-47.2	11.5	1.81e-03	0	58	0	705691648	58	5583
2026-01-21 23:10:57.76	122.07	45.40	-43.0	-47.3	11.6	5.42e-04	0	58	0	706740224	57	5933
2026-01-21 23:10:58.77	122.58	45.28	-43.3	-48.0	10.7	1.47e-03	0	58	0	708837376	57	6435
2026-01-21 23:10:59.78	123.09	45.16	-43.3	-48.1	10.6	3.41e-03	0	58	0	710934528	57	6553
2026-01-21 23:11:00.79	123.60	45.04	-42.9	-47.0	11.8	1.30e-03	0	58	0	713031680	57	5765
2026-01-21 23:11:01.80	124.10	44.91	-42.5	-46.3	12.5	1.94e-04	0	58	0	715128832	57	5297
2026-01-21 23:11:02.81	124.60	44.79	-42.6	-46.3	12.4	1.41e-04	0	58	0	716177408	57	5338
2026-01-21 23:11:03.82	125.09	44.66	-43.1	-47.4	11.4	3.84e-04	0	58	0	718274560	57	6044
2026-01-21 23:11:04.83	125.58	44.53	-43.3	-47.9	10.9	1.74e-03	0	58	0	720371712	57	6377
2026-01-21 23:11:05.83	126.06	44.40	-42.8	-46.7	12.1	6.35e-04	0	58	0	722468864	57	5575
2026-01-21 23:11:06.84	126.55	44.27	-42.0	-45.3	13.6	3.12e-05	0	58	0	724566016	56	4996
2026-01-21 23:11:07.85	127.03	44.13	-41.9	-45.1	13.6	6.10e-06	0	58	0	725614592	55	5206
2026-01-21 23:11:08.86	127.50	44.00	-42.4	-46.1	12.7	4.04e-05	0	58	0	727711744	55	5836
2026-01-21 23:11:09.87	127.97	43.86	-42.4	-46.2	12.4	1.88e-04	0	58	0	729808896	55	5906
2026-01-21 23:11:10.88	128.44	43.72	-41.9	-45.2	13.4	6.86e-05	0	58	0	731906048	55	5278
2026-01-21 23:11:11.89	128.90	43.58	-41.5	-44.5	14.2	8.30e-06	0	58	0	734003200	55	4841
2026-01-21 23:11:12.90	129.36	43.43	-41.7	-44.8	13.9	0.00e+00	0	58	0	735051776	54	5329
2026-01-21 23:11:13.91	129.81	43.29	-42.2	-45.8	12.9	1.67e-05	0	58	0	737148928	54	5953
2026-01-21 23:11:14.92	130.26	43.14	-42.4	-46.3	12.4	1.08e-04	0	58	0	739246080	55	5933
2026-01-21 23:11:15.93	130.71	42.99	-42.2	-45.8	12.7	1.06e-04	0	58	0	741343232	55	5648
2026-01-21 23:11:16.94	131.15	42.85	-41.8	-45.0	13.6	1.90e-05	0	58	0	743440384	55	5159
2026-01-21 23:11:17.95	131.59	42.70	-41.5	-44.5	14.2	5.30e-06	0	58	0	744488960	54	5131
2026-01-21 23:11:18.96	132.02	42.55	-41.4	-44.4	14.3	7.00e-07	0	58	0	746586112	54	5049
2026-01-21 23:11:19.97	132.46	42.39	-41.6	-44.8	13.8	2.20e-06	0	58	0	748683264	54	5308
2026-01-21 23:11:20.98	132.88	42.24	-41.5	-44.6	14.1	6.80e-06	0	58	0	750780416	54	5188
2026-01-21 23:11:21.99	133.30	42.09	-41.3	-44.2	14.5	1.50e-06	0	58	0	752877568	54	4961
2026-01-21 23:11:23.00	133.72	41.93	-41.2	-44.0	14.6	0.00e+00	0	58	0	753926144	54	4836
2026-01-21 23:11:24.00	134.13	41.78	-41.5	-44.5	14.1	7.00e-07	0	58	0	756023296	54	5147
2026-01-21 23:11:25.01	134.54	41.62	-42.0	-45.3	13.3	1.37e-05	0	58	0	758120448	54	5637
2026-01-21 23:11:26.02	134.95	41.46	-41.4	-44.3	14.3	6.80e-06	0	58	0	760217600	54	5007
2026-01-21 23:11:27.02	135.35	41.30	-40.6	-43.1	15.5	0.00e+00	0	58	0	762314752	53	4618
2026-01-21 23:11:28.03	135.75	41.14	-40.3	-42.7	15.9	0.00e+00	0	58	0	764411904	52	4688
2026-01-21 23:11:29.04	136.14	40.98	-40.8	-43.5	15.1	0.00e+00	0	58	0	765460480	52	5112
2026-01-21 23:11:30.05	136.53	40.82	-41.8	-45.1	13.4	1.50e-06	0	58	0	767557632	54	5525
2026-01-21 23:11:31.06	136.92	40.66	-42.4	-46.2	12.5	4.80e-05	0	58	0	769654784	55	5858
2026-01-21 23:11:32.07	137.30	40.49	-42.3	-46.0	12.6	1.83e-04	0	58	0	771751936	55	5750
2026-01-21 23:11:33.08	137.68	40.33	-41.9	-45.3	13.3	5.34e-05	0	58	0	773849088	55	5320
2026-01-21 23:11:34.09	138.06	40.17	-41.7	-44.8	13.7	1.60e-05	0	58	0	774897664	55	5024
2026-01-21 23:11:35.10	138.43	40.00	-41.9	-45.2	13.4	5.30e-06	0	58	0	776994816	55	5240
2026-01-21 23:11:36.11	138.80	39.84	-43.1	-47.5	11.3	1.82e-04	0	58	0	779091968	56	6440
2026-01-21 23:11:37.12	139.16	39.67	-43.6	-48.8	9.8	6.32e-03	0	58	0	781189120	57	7097
2026-01-21 23:11:38.13	139.52	39.50	-43.5	-48.5	10.0	8.14e-03	0	58	0	783286272	57	6871
2026-01-21 23:11:39.14	139.88	39.34	-43.3	-48.1	10.5	6.15e-03	0	58	0	784334848	57	6569
2026-01-21 23:11:40.15	140.23	39.17	-43.1	-47.4	11.3	1.97e-03	0	58	0	786432000	57	6029
2026-01-21 23:11:41.16	140.58	39.00	-43.4	-48.2	10.5	2.54e-03	0	58	0	788529152	57	6576
2026-01-21 23:11:42.17	140.93	38.84	-43.9	-49.6	9.0	1.03e-02	0	58	0	790626304	58	7297
2026-01-21 23:11:43.18	141.27	38.67	-44.2	-50.7	8.0	4.63e-02	0	58	0	792723456	59	7876
2026-01-21 23:11:44.19	141.61	38.50	-43.8	-49.5	9.0	3.27e-02	0	58	0	793772032	59	6818
2026-01-21 23:11:45.20	141.95	38.33	-43.8	-49.4	9.1	1.98e-02	0	58	0	795869184	59	6773
2026-01-21 23:11:46.21	142.28	38.16	-43.7	-49.2	9.2	2.39e-02	0	58	0	797966336	59	6639
2026-01-21 23:11:47.21	142.61	37.99	-43.8	-49.4	9.2	2.71e-02	0	58	0	800063488	59	6759
2026-01-21 23:11:48.22	142.94	37.82	-43.9	-49.7	8.8	1.89e-02	0	58	0	802160640	59	6987
2026-01-21 23:11:49.23	143.26	37.65	-44.2	-50.8	7.7	3.62e-02	0	58	0	803209216	59	7942
2026-01-21 23:11:50.24	143.58	37.48	-44.4	-51.7	6.8	1.25e-01	0	58	0	805306368	59	8856
2026-01-21 23:11:51.25	143.89	37.32	-44.2	-50.8	7.7	1.12e-01	0	58	0	807403520	59	7914
2026-01-21 23:11:52.26	144.21	37.15	-44.0	-50.2	8.3	6.45e-02	0	58	0	809500672	59	7412
2026-01-21 23:11:53.27	144.52	36.98	-43.6	-48.9	9.6	3.50e-02	0	58	0	811597824	59	6365
2026-01-21 23:11:54.28	144.82	36.81	-43.7	-49.3	9.3	1.37e-02	0	58	0	812646400	59	6687
2026-01-21 23:11:55.29	145.13	36.64	-44.1	-50.3	8.3	2.81e-02	0	58	0	814743552	59	7500
2026-01-21 23:11:56.30	145.43	36.47	-44.3	-51.4	7.2	6.16e-02	0	58	0	816840704	59	8487
2026-01-21 23:11:57.31	145.72	36.30	-44.4	-51.5	7.0	1.33e-01	0	58	0	818937856	59	8639
2026-01-21 23:11:58.32	146.02	36.13	-44.3	-51.2	7.3	1.46e-01	0	58	0	821035008	59	8325
2026-01-21 23:11:59.33	146.31	35.96	-44.2	-50.9	7.7	1.16e-01	0	58	0	822083584	59	8004
2026-01-21 23:12:00.33	146.60	35.79	-44.1	-50.6	7.8	1.03e-01	0	58	0	824180736	59	7763
2026-01-21 23:12:01.34	146.88	35.62	-44.2	-50.8	7.7	7.37e-02	0	58	0	826277888	59	7943
2026-01-21 23:12:02.35	147.16	35.45	-44.3	-51.2	7.2	7.71e-02	0	58	0	828375040	59	8345
2026-01-21 23:12:03.36	147.44	35.28	-44.2	-50.7	7.6	9.72e-02	0	58	0	830472192	59	7889
2026-01-21 23:12:04.37	147.72	35.11	-44.3	-51.2	7.3	1.11e-01	0	58	0	831520768	59	8334
2026-01-21 23:12:05.38	147.99	34.94	-44.5	-52.4	6.3	1.76e-01	0	58	0	833617920	59	9523
2026-01-21 23:12:06.39	148.27	34.77	-44.4	-52.2	6.3	3.25e-01	0	58	0	835715072	59	9349
2026-01-21 23:12:07.40	148.53	34.60	-44.1	-50.6	7.9	1.07e-01	0	58	0	837812224	59	7762
2026-01-21 23:12:08.41	148.80	34.44	-43.5	-48.6	9.8	1.97e-02	0	58	0	839909376	59	6190
2026-01-21 23:12:09.42	149.06	34.27	-42.8	-47.0	11.6	3.33e-03	0	58	0	840957952	57	5782
2026-01-21 23:12:10.43	149.32	34.10	-42.5	-46.3	12.3	3.54e-04	0	58	0	843055104	57	5328
2026-01-21 23:12:11.44	149.58	33.93	-42.7	-46.7	11.9	2.19e-04	0	58	0	845152256	56	5909
2026-01-21 23:12:12.45	149.84	33.77	-43.1	-47.8	10.9	9.54e-04	0	58	0	847249408	56	6652
2026-01-21 23:12:13.46	150.09	33.60	-43.8	-49.5	9.0	5.95e-03	0	58	0	849346560	58	7218
2026-01-21 23:12:14.46	150.34	33.43	-44.2	-51.0	7.3	7.40e-02	0	58	0	850395136	58	8617
2026-01-21 23:12:15.47	150.59	33.27	-44.2	-51.0	7.5	1.26e-01	0	58	0	852492288	59	8106
2026-01-21 23:12:16.48	150.83	33.10	-43.9	-49.9	8.6	8.84e-02	0	58	0	854589440	59	7157
2026-01-21 23:12:17.49	151.07	32.94	-43.8	-49.5	8.9	3.00e-02	0	58	0	856686592	59	6841
2026-01-21 23:12:18.50	151.31	32.77	-43.4	-48.5	9.9	1.26e-02	0	58	0	858783744	58	6449
2026-01-21 23:12:19.51	151.55	32.61	-43.0	-47.5	11.1	4.15e-03	0	58	0	860880896	57	6091
2026-01-21 23:12:20.52	151.79	32.44	-42.9	-47.3	11.2	9.88e-04	0	58	0	861929472	57	5940
2026-01-21 23:12:21.53	152.02	32.28	-43.1	-47.6	11.0	1.37e-03	0	58	0	864026624	57	6186
2026-01-21 23:12:22.54	152.25	32.11	-43.2	-47.9	10.6	3.45e-03	0	58	0	866123776	57	6352
2026-01-21 23:12:23.55	152.48	31.95	-43.2	-48.1	10.5	4.96e-03	0	58	0	868220928	57	6504
2026-01-21 23:12:24.56	152.71	31.79	-43.1	-47.9	10.6	4.24e-03	0	58	0	870318080	57	6368
2026-01-21 23:12:25.57	152.93	31.62	-43.0	-47.5	11.0	2.60e-03	0	58	0	871366656	57	6128
2026-01-21 23:12:26.58	153.15	31.46	-42.8	-47.1	11.5	7.50e-04	0	58	0	873463808	57	5790
2026-01-21 23:12:27.59	153.37	31.30	-42.8	-47.1	11.5	8.40e-04	0	58	0	875560960	57	5793
2026-01-21 23:12:28.60	153.59	31.14	-42.4	-46.2	12.4	3.71e-04	0	58	0	877658112	56	5561
2026-01-21 23:12:29.61	153.81	30.98	-42.4	-46.2	12.4	1.70e-04	0	58	0	879755264	56	5552
2026-01-21 23:12:30.62	154.02	30.82	-42.8	-47.0	11.6	4.42e-04	0	58	0	880803840	56	6075
2026-01-21 23:12:31.63	154.23	30.66	-43.1	-47.7	10.8	1.53e-03	0	58	0	882900992	56	6596
2026-01-21 23:12:32.63	154.44	30.50	-43.3	-48.2	10.3	3.58e-03	0	58	0	884998144	57	6586
2026-01-21 23:12:33.64	154.65	30.34	-43.5	-48.7	9.7	9.75e-03	0	58	0	887095296	57	7035
2026-01-21 23:12:34.65	154.85	30.18	-43.1	-47.9	10.4	7.21e-03	0	58	0	889192448	57	6390
2026-01-21 23:12:35.66	155.06	30.03	-43.0	-47.6	10.9	3.86e-03	0	58	0	890241024	57	6167
2026-01-21 23:12:36.67	155.26	29.87	-42.9	-47.2	11.2	1.47e-03	0	58	0	892338176	57	5890
2026-01-21 23:12:37.68	155.46	29.71	-42.7	-46.9	11.5	9.22e-04	0	58	0	894435328	57	5711
2026-01-21 23:12:38.69	155.66	29.55	-42.9	-47.3	11.2	8.80e-04	0	58	0	896532480	57	5962
2026-01-21 23:12:39.70	155.85	29.40	-42.9	-47.3	11.1	1.76e-03	0	58	0	898629632	57	5979
2026-01-21 23:12:40.71	156.05	29.24	-42.6	-46.7	11.8	7.81e-04	0	58	0	899678208	57	5542
2026-01-21 23:12:41.72	156.24	29.09	-42.8	-47.2	11.3	7.09e-04	0	58	0	901775360	57	5859
2026-01-21 23:12:42.73	156.43	28.93	-42.6	-46.7	11.8	5.69e-04	0	58	0	903872512	57	5591
2026-01-21 23:12:43.74	156.62	28.78	-42.7	-46.9	11.6	6.32e-04	0	58	0	905969664	57	5676
2026-01-21 23:12:44.75	156.80	28.63	-42.8	-47.1	11.3	9.15e-04	0	58	0	908066816	57	5823
2026-01-21 23:12:45.76	156.99	28.47	-42.8	-47.1	11.4	8.63e-04	0	58	0	909115392	57	5791
2026-01-21 23:12:46.77	157.17	28.32	-42.9	-47.3	11.1	1.35e-03	0	58	0	911212544	57	5948
2026-01-21 23:12:47.78	157.36	28.17	-42.9	-47.3	11.1	2.56e-03	0	58	0	913309696	57	5938
2026-01-21 23:12:48.79	157.54	28.02	-42.9	-47.4	10.9	2.02e-03	0	58	0	915406848	57	6055
2026-01-21 23:12:49.80	157.71	27.87	-42.9	-47.2	11.1	1.47e-03	0	58	0	917504000	57	5916
2026-01-21 23:12:50.81	157.89	27.72	-42.6	-46.7	11.7	8.73e-04	0	58	0	918552576	57	5576
2026-01-21 23:12:51.82	158.07	27.57	-42.4	-46.2	12.2	4.25e-04	0	58	0	920649728	56	5564
2026-01-21 23:12:52.83	158.24	27.42	-42.1	-45.6	12.8	9.53e-05	0	58	0	922746880	56	5191
2026-01-21 23:12:53.84	158.41	27.27	-42.1	-45.7	12.7	7.01e-05	0	58	0	924844032	56	5236
2026-01-21 23:12:54.85	158.58	27.12	-41.7	-45.1	13.1	4.80e-05	0	58	0	926941184	55	5214
2026-01-21 23:12:55.86	158.75	26.97	-42.0	-45.7	12.6	5.72e-05	0	58	0	929038336	55	5547
2026-01-21 23:12:56.87	158.92	26.83	-42.0	-45.6	12.7	7.32e-05	0	58	0	930086912	55	5503
2026-01-21 23:12:57.87	159.08	26.68	-42.1	-45.8	12.4	9.68e-05	0	58	0	932184064	55	5620
2026-01-21 23:12:58.88	159.25	26.53	-42.3	-46.3	11.9	2.04e-04	0	58	0	934281216	55	5961
2026-01-21 23:12:59.89	159.41	26.39	-42.3	-46.3	11.9	4.67e-04	0	58	0	936378368	55	5980
2026-01-21 23:13:00.90	159.57	26.24	-42.4	-46.5	11.8	2.88e-04	0	58	0	938475520	55	6065
2026-01-21 23:13:01.91	159.73	26.10	-42.5	-46.7	11.4	5.83e-04	0	58	0	939524096	55	6265
2026-01-21 23:13:02.92	159.89	25.96	-42.3	-46.3	11.8	4.97e-04	0	58	0	941621248	55	5982
2026-01-21 23:13:03.93	160.05	25.81	-42.3	-46.4	11.7	4.35e-04	0	58	0	943718400	55	6043
2026-01-21 23:13:04.94	160.21	25.67	-42.2	-46.0	12.1	4.57e-04	0	58	0	945815552	55	5778
2026-01-21 23:13:05.95	160.36	25.53	-41.9	-45.5	12.7	9.99e-05	0	58	0	947912704	55	5453
2026-01-21 23:13:06.96	160.51	25.39	-42.0	-45.7	12.4	1.25e-04	0	58	0	948961280	55	5585
2026-01-21 23:13:07.97	160.67	25.25	-41.8	-45.3	12.9	7.40e-05	0	58	0	951058432	55	5289
2026-01-21 23:13:08.98	160.82	25.11	-41.8	-45.3	12.9	4.04e-05	0	58	0	953155584	55	5306
2026-01-21 23:13:09.99	160.97	24.97	-42.0	-45.6	12.6	1.15e-04	0	58	0	955252736	55	5523
2026-01-21 23:13:11.00	161.11	24.83	-42.0	-45.7	12.4	9.76e-05	0	58	0	957349888	55	5588
2026-01-21 23:13:12.01	161.26	24.69	-42.3	-46.3	11.9	1.97e-04	0	58	0	958398464	55	5925
2026-01-21 23:13:13.02	161.41	24.55	-42.3	-46.4	11.7	5.32e-04	0	58	0	960495616	55	6036
2026-01-21 23:13:14.03	161.55	24.41	-42.3	-46.4	11.8	6.53e-04	0	58	0	962592768	55	5997
2026-01-21 23:13:15.03	161.69	24.27	-42.3	-46.5	11.7	7.22e-04	0	58	0	964689920	55	6066
2026-01-21 23:13:16.04	161.83	24.14	-42.1	-46.0	12.1	3.03e-04	0	58	0	966787072	55	5775
2026-01-21 23:13:17.05	161.97	24.00	-42.0	-45.8	12.4	2.20e-04	0	58	0	967835648	55	5604
2026-01-21 23:13:18.06	162.11	23.87	-41.9	-45.6	12.6	1.58e-04	0	58	0	969932800	55	5465
2026-01-21 23:13:19.07	162.25	23.73	-41.9	-45.5	12.7	8.54e-05	0	58	0	972029952	55	5427
2026-01-21 23:13:20.08	162.39	23.60	-41.9	-45.6	12.5	7.70e-05	0	58	0	974127104	55	5514
2026-01-21 23:13:21.09	162.53	23.46	-42.0	-45.7	12.4	9.53e-05	0	58	0	976224256	55	5556
2026-01-21 23:13:22.10	162.66	23.33	-42.0	-45.8	12.3	1.96e-04	0	58	0	977272832	55	5623
2026-01-21 23:13:23.11	162.79	23.20	-42.1	-45.9	12.2	2.10e-04	0	58	0	979369984	55	5701
2026-01-21 23:13:24.12	162.93	23.06	-42.3	-46.4	11.7	2.91e-04	0	58	0	981467136	55	6016
2026-01-21 23:13:25.13	163.06	22.93	-42.3	-46.3	11.8	6.00e-04	0	58	0	983564288	55	5946
2026-01-21 23:13:26.14	163.19	22.80	-42.4	-46.5	11.5	6.18e-04	0	58	0	985661440	55	6130
2026-01-21 23:13:27.15	163.32	22.67	-42.6	-47.0	11.1	1.02e-03	0	58	0	986710016	55	6442
2026-01-21 23:13:28.16	163.45	22.54	-42.5	-46.9	11.2	1.28e-03	0	58	0	988807168	55	6359
2026-01-21 23:13:29.17	163.58	22.41	-42.6	-47.0	11.1	1.37e-03	0	58	0	990904320	55	6436
2026-01-21 23:13:30.18	163.70	22.28	-42.6	-47.0	11.0	1.80e-03	0	58	0	993001472	55	6453
2026-01-21 23:13:31.19	163.83	22.15	-42.3	-46.5	11.5	9.63e-04	0	58	0	995098624	55	6122
2026-01-21 23:13:32.19	163.95	22.02	-42.4	-46.7	11.3	1.13e-03	0	58	0	997195776	55	6241
2026-01-21 23:13:33.20	164.07	21.90	-42.1	-46.1	11.9	7.56e-04	0	58	0	998244352	55	5827
2026-01-21 23:13:34.21	164.20	21.77	-42.1	-46.0	12.0	3.81e-04	0	58	0	1000341504	55	5761
2026-01-21 23:13:35.22	164.32	21.64	-42.2	-46.2	11.9	4.29e-04	0	58	0	1002438656	55	5871
2026-01-21 23:13:36.23	164.44	21.52	-42.0	-45.8	12.3	1.91e-04	0	58	0	1004535808	55	5617
2026-01-21 23:13:37.24	164.56	21.39	-41.9	-45.7	12.4	1.55e-04	0	58	0	1006632960	55	5545
2026-01-21 23:13:38.25	164.68	21.26	-41.8	-45.3	12.7	1.27e-04	0	58	0	1007681536	55	5335
2026-01-21 23:13:39.25	164.79	21.14	-41.8	-45.4	12.7	6.94e-05	0	58	0	1009778688	55	5370
2026-01-21 23:13:40.26	164.91	21.02	-42.1	-46.0	12.1	2.04e-04	0	58	0	1011875840	55	5762
2026-01-21 23:13:41.26	165.03	20.89	-42.1	-46.0	12.0	2.85e-04	0	58	0	1013972992	55	5773
2026-01-21 23:13:42.27	165.14	20.77	-42.2	-46.4	11.6	4.23e-04	0	58	0	1015021568	55	5999
2026-01-21 23:13:43.28	165.25	20.65	-42.4	-46.7	11.3	1.11e-03	0	58	0	1017118720	55	6256
2026-01-21 23:13:44.28	165.37	20.53	-42.4	-46.7	11.3	1.03e-03	0	58	0	1019215872	55	6217
2026-01-21 23:13:45.29	165.48	20.41	-42.7	-47.4	10.5	2.93e-03	0	58	0	1021313024	55	6786
2026-01-21 23:13:46.29	165.59	20.28	-43.0	-47.9	10.2	5.20e-03	0	58	0	1023410176	56	6760
2026-01-21 23:13:47.30	165.70	20.16	-43.0	-48.1	10.0	6.12e-03	0	58	0	1025507328	56	6909
2026-01-21 23:13:48.30	165.81	20.04	-43.1	-48.2	9.9	9.95e-03	0	58	0	1026555904	56	6984
2026-01-21 23:13:49.31	165.92	19.92	-42.9	-47.9	10.2	6.13e-03	0	58	0	1028653056	56	6738
2026-01-21 23:13:50.31	166.03	19.81	-42.9	-47.8	10.2	5.11e-03	0	58	0	1030750208	56	6675
2026-01-21 23:13:51.32	166.13	19.69	-42.9	-47.9	10.2	5.74e-03	0	58	0	1032847360	56	6745
2026-01-21 23:13:52.33	166.24	19.57	-42.7	-47.4	10.7	3.13e-03	0	58	0	1033895936	56	6375
2026-01-21 23:13:53.34	166.35	19.45	-42.8	-47.5	10.6	2.89e-03	0	58	0	1035993088	56	6456
2026-01-21 23:13:54.34	166.45	19.33	-42.6	-47.0	11.1	2.15e-03	0	58	0	1038090240	56	6080
2026-01-21 23:13:55.35	166.55	19.22	-42.4	-46.6	11.5	8.84e-04	0	58	0	1040187392	56	5812
2026-01-21 23:13:56.35	166.66	19.10	-42.4	-46.5	11.6	8.70e-04	0	58	0	1042284544	56	5740
2026-01-21 23:13:57.36	166.76	18.99	-42.2	-46.1	12.0	4.89e-04	0	58	0	1043333120	56	5503
2026-01-21 23:13:58.36	166.86	18.87	-42.2	-46.2	11.8	4.53e-04	0	58	0	1045430272	56	5585
2026-01-21 23:13:59.37	166.96	18.76	-42.2	-46.1	11.9	4.68e-04	0	58	0	1047527424	56	5523
2026-01-21 23:14:00.37	167.06	18.64	-42.2	-46.2	11.8	4.84e-04	0	58	0	1049624576	56	5590
2026-01-21 23:14:01.38	167.16	18.53	-42.4	-46.6	11.4	7.74e-04	0	58	0	1051721728	56	5838
2026-01-21 23:14:02.39	167.26	18.41	-42.4	-46.5	11.5	7.86e-04	0	58	0	1053818880	56	5773
2026-01-21 23:14:03.39	167.36	18.30	-42.3	-46.5	11.6	4.36e-04	0	58	0	1054867456	56	5736
2026-01-21 23:14:04.40	167.46	18.19	-42.4	-46.5	11.6	7.67e-04	0	58	0	1056964608	56	5774
2026-01-21 23:14:05.40	167.55	18.08	-42.4	-46.6	11.5	1.11e-03	0	58	0	1059061760	56	5793
2026-01-21 23:14:06.41	167.65	17.97	-42.4	-46.7	11.4	9.73e-04	0	58	0	1061158912	56	5860
2026-01-21 23:14:07.42	167.74	17.85	-42.5	-46.8	11.2	1.39e-03	0	58	0	1062207488	56	5946
2026-01-21 23:14:08.43	167.84	17.74	-42.6	-47.0	11.0	1.46e-03	0	58	0	1064304640	56	6110
2026-01-21 23:14:09.43	167.93	17.63	-42.5	-46.9	11.1	1.70e-03	0	58	0	1066401792	56	6044
2026-01-21 23:14:10.44	168.03	17.52	-42.5	-46.8	11.2	1.37e-03	0	58	0	1068498944	56	5965
2026-01-21 23:14:11.44	168.12	17.41	-42.5	-46.8	11.2	1.27e-03	0	58	0	1070596096	56	5975
2026-01-21 23:14:12.45	168.21	17.30	-42.3	-46.5	11.4	8.93e-04	0	58	0	1071644672	56	5787
2026-01-21 23:14:13.46	168.30	17.19	-42.3	-46.4	11.6	7.48e-04	0	58	0	1073741824	56	5690
2026-01-21 23:14:14.46	168.39	17.09	-42.2	-46.3	11.8	4.82e-04	0	58	0	1075838976	56	5595
2026-01-21 23:14:15.47	168.48	16.98	-42.1	-46.1	12.0	2.98e-04	0	58	0	1077936128	56	5481
2026-01-21 23:14:16.47	168.57	16.87	-42.0	-45.8	12.2	2.53e-04	0	58	0	1080033280	56	5337
2026-01-21 23:14:17.48	168.66	16.76	-41.7	-45.4	12.5	1.81e-04	0	58	0	1082130432	55	5369
2026-01-21 23:14:18.49	168.75	16.66	-41.7	-45.3	12.5	7.93e-05	0	58	0	1083179008	55	5335
2026-01-21 23:14:19.50	168.84	16.55	-41.6	-45.1	12.7	6.79e-05	0	58	0	1085276160	55	5204
2026-01-21 23:14:20.51	168.93	16.44	-41.5	-45.0	12.9	8.16e-05	0	58	0	1087373312	55	5141
2026-01-21 23:14:21.51	169.01	16.34	-41.5	-45.0	12.9	5.79e-05	0	58	0	1089470464	55	5123
2026-01-21 23:14:22.52	169.10	16.23	-41.5	-45.0	12.9	4.65e-05	0	58	0	1090519040	54	5426
2026-01-21 23:14:23.52	169.18	16.13	-41.4	-44.8	13.1	3.73e-05	0	58	0	1092616192	54	5332
2026-01-21 23:14:24.53	169.27	16.02	-41.4	-44.9	12.9	2.82e-05	0	58	0	1094713344	54	5381
2026-01-21 23:14:25.54	169.35	15.92	-41.3	-44.7	13.2	4.04e-05	0	58	0	1096810496	54	5247
2026-01-21 23:14:26.54	169.44	15.82	-41.4	-44.9	13.0	1.98e-05	0	58	0	1098907648	54	5366
2026-01-21 23:14:27.55	169.52	15.71	-41.5	-45.1	12.8	3.96e-05	0	58	0	1099956224	54	5473
2026-01-21 23:14:28.55	169.60	15.61	-41.6	-45.2	12.7	6.02e-05	0	58	0	1102053376	54	5534
2026-01-21 23:14:29.56	169.68	15.51	-41.6	-45.3	12.6	1.18e-04	0	58	0	1104150528	54	5601
2026-01-21 23:14:30.57	169.77	15.41	-41.6	-45.3	12.5	1.01e-04	0	58	0	1106247680	54	5644
2026-01-21 23:14:31.57	169.85	15.31	-41.8	-45.5	12.2	1.60e-04	0	58	0	1108344832	54	5787
2026-01-21 23:14:32.58	169.93	15.20	-41.8	-45.6	12.2	1.62e-04	0	58	0	1109393408	54	5826
2026-01-21 23:14:33.58	170.01	15.10	-41.9	-45.8	12.0	2.81e-04	0	58	0	1111490560	54	5981
2026-01-21 23:14:34.59	170.09	15.00	-42.0	-46.1	11.7	4.82e-04	0	58	0	1113587712	54	6152
2026-01-21 23:14:35.60	170.16	14.90	-42.1	-46.4	11.4	8.03e-04	0	58	0	1115684864	54	6354
2026-01-21 23:14:36.61	170.24	14.80	-42.2	-46.6	11.1	1.18e-03	0	58	0	1117782016	54	6529
2026-01-21 23:14:37.62	170.32	14.70	-42.3	-46.7	11.0	1.83e-03	0	58	0	1118830592	55	6257
2026-01-21 23:14:38.63	170.40	14.60	-42.4	-47.0	10.6	2.89e-03	0	58	0	1120927744	55	6490
2026-01-21 23:14:39.64	170.48	14.50	-42.4	-47.1	10.6	3.68e-03	0	58	0	1123024896	55	6500
2026-01-21 23:14:40.65	170.55	14.40	-42.5	-47.4	10.3	3.77e-03	0	58	0	1125122048	55	6745
2026-01-21 23:14:41.66	170.63	14.31	-42.5	-47.4	10.2	5.48e-03	0	58	0	1127219200	55	6765
2026-01-21 23:14:42.67	170.71	14.21	-42.5	-47.4	10.2	6.52e-03	0	58	0	1128267776	55	6761
2026-01-21 23:14:43.68	170.78	14.11	-42.6	-47.6	10.0	6.55e-03	0	58	0	1130364928	55	6918
2026-01-21 23:14:44.69	170.86	14.01	-42.6	-47.7	9.8	8.30e-03	0	58	0	1132462080	55	7002
2026-01-21 23:14:45.70	170.93	13.92	-42.7	-48.0	9.6	9.99e-03	0	58	0	1134559232	55	7211
2026-01-21 23:14:46.71	171.00	13.82	-42.6	-47.7	9.9	1.09e-02	0	58	0	1136656384	55	7022
2026-01-21 23:14:47.72	171.08	13.72	-42.5	-47.5	10.1	6.91e-03	0	58	0	1138753536	55	6849
2026-01-21 23:14:48.73	171.15	13.63	-42.5	-47.4	10.2	6.53e-03	0	58	0	1139802112	55	6779
2026-01-21 23:14:49.74	171.22	13.53	-42.3	-47.0	10.6	4.72e-03	0	58	0	1141899264	55	6454
2026-01-21 23:14:50.74	171.29	13.44	-42.3	-46.9	10.7	3.05e-03	0	58	0	1143996416	55	6413
2026-01-21 23:14:51.75	171.37	13.34	-42.3	-46.9	10.7	2.79e-03	0	58	0	1146093568	55	6360
2026-01-21 23:14:52.76	171.44	13.25	-42.1	-46.4	11.2	1.60e-03	0	58	0	1148190720	55	6006
2026-01-21 23:14:53.77	171.51	13.15	-42.0	-46.3	11.3	1.05e-03	0	58	0	1149239296	55	5960
2026-01-21 23:14:54.78	171.58	13.06	-41.9	-46.0	11.6	9.04e-04	0	58	0	1151336448	55	5787
