passes_logs/2026/01/21/R2.0S_Moscow/R2.0S_Moscow__20260121_133227_FENGYUN_3D_rec.log

#Pass ID: 20260121_133227_FENGYUN 3D
#Satellite: FENGYUN 3D
#Configuration: FENGYUN 3D
#almurnet v.1.7.20251203
#Start time: 2026-01-21 13:32:27

#Version: 2.2.20231116
#Station: R2.0S_Moscow
#Location: 37.707566 lon 55.798166 lat
#TLE: 1 43010U 17072A   26020.92362722 -.00000077  00000+0 -14488-4 0  9992
#TLE: 2 43010  98.9946 352.8312 0002486  99.3651 260.7806 14.19696535424099

#Time	Az	El	Level	Level2	SNR	BER	BlckErr	Temp	State	Recorded	gain1	gain2
2026-01-21 13:32:27.49	207.94	2.01	-43.9	-55.5	3.8	8.46e-01	0	50	0	0	59	13587
2026-01-21 13:32:28.50	208.01	2.06	-43.9	-55.4	3.8	8.45e-01	0	50	104	0	59	13567
2026-01-21 13:32:29.51	208.08	2.12	-43.9	-55.4	3.8	8.46e-01	0	50	104	0	59	13549
2026-01-21 13:32:30.52	208.16	2.17	-43.9	-55.5	3.8	8.46e-01	0	50	104	0	59	13628
2026-01-21 13:32:31.53	208.23	2.23	-43.9	-55.5	3.8	8.47e-01	0	50	104	0	59	13585
2026-01-21 13:32:32.54	208.31	2.29	-43.9	-55.5	3.8	8.47e-01	0	50	104	0	59	13570
2026-01-21 13:32:33.55	208.38	2.34	-43.9	-55.5	3.8	8.46e-01	0	51	104	0	59	13615
2026-01-21 13:32:34.56	208.46	2.40	-43.9	-55.5	3.8	8.46e-01	0	50	104	0	59	13570
2026-01-21 13:32:35.57	208.53	2.45	-43.9	-55.5	3.8	8.47e-01	0	51	104	0	59	13595
2026-01-21 13:32:36.58	208.61	2.51	-43.9	-55.5	3.8	8.46e-01	0	51	104	0	59	13616
2026-01-21 13:32:37.59	208.69	2.56	-43.9	-55.5	3.8	8.47e-01	0	51	104	0	59	13607
2026-01-21 13:32:38.60	208.76	2.62	-43.9	-55.4	3.8	8.45e-01	0	51	104	0	59	13562
2026-01-21 13:32:39.61	208.84	2.68	-43.9	-55.4	3.8	8.45e-01	0	51	104	0	59	13541
2026-01-21 13:32:40.62	208.92	2.73	-43.9	-55.5	3.8	8.46e-01	0	51	104	0	59	13622
2026-01-21 13:32:41.63	208.99	2.79	-43.9	-55.5	3.8	8.47e-01	0	51	104	0	59	13604
2026-01-21 13:32:42.64	209.07	2.84	-43.9	-55.5	3.8	8.46e-01	0	51	104	0	59	13605
2026-01-21 13:32:43.65	209.15	2.90	-43.9	-55.5	3.8	8.46e-01	0	51	104	0	59	13641
2026-01-21 13:32:44.66	209.23	2.96	-43.9	-55.5	3.8	8.47e-01	0	51	104	0	59	13571
2026-01-21 13:32:45.67	209.31	3.01	-43.9	-55.5	3.8	8.47e-01	0	51	104	0	59	13599
2026-01-21 13:32:46.68	209.39	3.07	-43.9	-55.5	3.8	8.45e-01	0	51	104	0	59	13612
2026-01-21 13:32:47.69	209.46	3.13	-43.9	-55.4	3.8	8.46e-01	0	51	104	0	59	13541
2026-01-21 13:32:48.70	209.54	3.18	-43.9	-55.5	3.8	8.46e-01	0	51	104	0	59	13603
2026-01-21 13:32:49.71	209.62	3.24	-43.9	-55.5	3.8	8.46e-01	0	52	104	0	59	13614
2026-01-21 13:32:50.72	209.70	3.30	-43.9	-55.5	3.8	8.47e-01	0	52	104	0	59	13581
2026-01-21 13:32:51.73	209.78	3.35	-43.9	-55.5	3.8	8.47e-01	0	52	104	0	59	13597
2026-01-21 13:32:52.74	209.86	3.41	-43.9	-55.5	3.8	8.47e-01	0	52	104	0	59	13609
2026-01-21 13:32:53.75	209.94	3.47	-43.9	-55.4	3.8	8.46e-01	0	52	104	0	59	13542
2026-01-21 13:32:54.76	210.03	3.52	-43.9	-55.4	3.8	8.46e-01	0	52	104	0	59	13560
2026-01-21 13:32:55.77	210.11	3.58	-43.9	-55.5	3.8	8.47e-01	0	52	104	0	59	13588
2026-01-21 13:32:56.78	210.19	3.64	-43.9	-55.5	3.8	8.45e-01	0	52	104	0	59	13584
2026-01-21 13:32:57.79	210.27	3.70	-43.9	-55.5	3.8	8.46e-01	0	52	104	0	59	13605
2026-01-21 13:32:58.80	210.35	3.75	-43.9	-55.5	3.8	8.46e-01	0	52	104	0	59	13573
2026-01-21 13:32:59.81	210.44	3.81	-43.9	-55.5	3.8	8.45e-01	0	52	104	0	59	13584
2026-01-21 13:33:00.82	210.52	3.87	-43.9	-55.5	3.8	8.47e-01	0	52	104	0	59	13574
2026-01-21 13:33:01.83	210.60	3.93	-43.9	-55.4	3.8	8.46e-01	0	52	104	0	59	13563
2026-01-21 13:33:02.84	210.69	3.98	-43.9	-55.5	3.8	8.46e-01	0	53	104	0	59	13573
2026-01-21 13:33:03.85	210.77	4.04	-43.9	-55.5	3.8	8.46e-01	0	53	104	0	59	13607
2026-01-21 13:33:04.86	210.85	4.10	-43.9	-55.4	3.8	8.46e-01	0	53	104	0	59	13525
2026-01-21 13:33:05.87	210.94	4.16	-43.9	-55.4	3.8	8.47e-01	0	53	104	0	59	13545
2026-01-21 13:33:06.88	211.02	4.22	-43.9	-55.4	3.8	8.46e-01	0	53	104	0	59	13540
2026-01-21 13:33:07.89	211.11	4.27	-43.9	-55.4	3.8	8.46e-01	0	53	104	0	59	13519
2026-01-21 13:33:08.90	211.19	4.33	-43.9	-55.4	3.8	8.45e-01	0	53	104	0	59	13554
2026-01-21 13:33:09.91	211.28	4.39	-43.9	-55.5	3.8	8.46e-01	0	53	104	0	59	13573
2026-01-21 13:33:10.92	211.37	4.45	-43.9	-55.5	3.8	8.45e-01	0	53	104	0	59	13587
2026-01-21 13:33:11.93	211.45	4.51	-43.9	-55.5	3.8	8.46e-01	0	53	104	0	59	13585
2026-01-21 13:33:12.94	211.54	4.56	-43.9	-55.4	3.8	8.47e-01	0	53	104	0	59	13540
2026-01-21 13:33:13.95	211.63	4.62	-43.9	-55.4	3.8	8.46e-01	0	53	104	0	59	13561
2026-01-21 13:33:14.96	211.71	4.68	-43.9	-55.4	3.8	8.46e-01	0	53	104	0	59	13535
2026-01-21 13:33:15.97	211.80	4.74	-43.9	-55.4	3.8	8.46e-01	0	53	104	0	59	13532
2026-01-21 13:33:16.98	211.89	4.80	-43.9	-55.4	3.8	8.46e-01	0	53	104	0	59	13542
2026-01-21 13:33:17.99	211.98	4.86	-43.9	-55.5	3.8	8.46e-01	0	53	104	0	59	13602
2026-01-21 13:33:19.00	212.07	4.92	-43.9	-55.4	3.8	8.47e-01	0	53	104	0	59	13521
2026-01-21 13:33:20.02	212.16	4.98	-43.9	-55.4	3.8	8.47e-01	0	53	104	0	59	13524
2026-01-21 13:33:21.03	212.25	5.04	-43.9	-55.4	3.8	8.45e-01	0	53	104	0	59	13501
2026-01-21 13:33:22.04	212.34	5.09	-43.8	-55.4	3.8	8.46e-01	0	53	104	0	59	13480
2026-01-21 13:33:23.05	212.43	5.15	-43.9	-55.4	3.8	8.46e-01	0	53	104	0	59	13430
2026-01-21 13:33:24.06	212.52	5.21	-43.9	-55.4	3.8	8.47e-01	0	54	104	0	59	13516
2026-01-21 13:33:25.07	212.61	5.27	-43.9	-55.3	3.8	8.46e-01	0	54	104	0	59	13399
2026-01-21 13:33:26.08	212.70	5.33	-43.9	-55.3	3.8	8.46e-01	0	54	104	0	59	13321
2026-01-21 13:33:27.09	212.79	5.39	-43.9	-55.3	3.8	8.45e-01	0	54	104	0	59	13294
2026-01-21 13:33:28.10	212.89	5.45	-43.8	-55.2	3.8	8.47e-01	0	54	104	0	59	13171
2026-01-21 13:33:29.11	212.98	5.51	-43.9	-55.2	3.8	8.45e-01	0	54	104	0	59	13186
2026-01-21 13:33:30.12	213.07	5.57	-43.9	-55.2	3.8	8.46e-01	0	54	104	0	59	13131
2026-01-21 13:33:31.13	213.16	5.63	-43.9	-55.1	3.8	8.46e-01	0	54	104	0	59	13045
2026-01-21 13:33:32.14	213.26	5.69	-43.8	-55.0	3.8	8.46e-01	0	54	104	0	59	12894
2026-01-21 13:33:33.15	213.35	5.75	-43.9	-54.9	3.8	8.46e-01	0	54	104	0	59	12772
2026-01-21 13:33:34.16	213.45	5.81	-43.8	-54.8	3.8	8.46e-01	0	54	104	0	59	12566
2026-01-21 13:33:35.17	213.54	5.87	-43.8	-54.7	3.8	8.45e-01	0	54	104	0	59	12432
2026-01-21 13:33:36.18	213.64	5.93	-43.8	-54.6	3.8	8.46e-01	0	54	104	0	59	12300
2026-01-21 13:33:37.19	213.73	5.99	-43.8	-54.5	3.8	8.47e-01	0	54	104	0	59	12123
2026-01-21 13:33:38.20	213.83	6.05	-43.8	-54.2	3.8	8.47e-01	0	54	104	0	59	11716
2026-01-21 13:33:39.21	213.92	6.11	-43.6	-54.0	3.8	8.46e-01	0	54	104	0	59	11434
2026-01-21 13:33:40.22	214.02	6.17	-43.7	-53.6	3.8	8.45e-01	0	54	104	0	59	10974
2026-01-21 13:33:41.23	214.12	6.23	-43.6	-53.1	3.9	8.45e-01	0	55	104	0	59	10371
2026-01-21 13:33:42.24	214.21	6.29	-43.5	-52.5	4.0	8.45e-01	0	55	104	0	59	9680
2026-01-21 13:33:43.25	214.31	6.35	-43.5	-52.2	4.1	8.43e-01	0	54	0	0	58	9875
2026-01-21 13:33:44.26	214.41	6.41	-43.4	-51.5	4.3	8.34e-01	0	54	0	0	58	9129
2026-01-21 13:33:45.26	214.51	6.47	-43.3	-51.0	4.5	8.27e-01	0	55	0	0	58	8600
2026-01-21 13:33:46.27	214.61	6.53	-43.1	-50.1	4.9	7.97e-01	0	55	0	0	58	7796
2026-01-21 13:33:47.28	214.71	6.60	-43.0	-49.6	5.2	7.61e-01	0	55	0	0	58	7334
2026-01-21 13:33:48.29	214.80	6.66	-42.8	-49.0	5.5	6.88e-01	0	55	0	0	57	7281
2026-01-21 13:33:49.30	214.90	6.72	-42.7	-48.6	5.8	4.91e-01	0	55	0	2097152	57	6939
2026-01-21 13:33:50.31	215.01	6.78	-42.5	-48.2	6.2	3.56e-01	0	55	0	7340032	57	6579
2026-01-21 13:33:51.32	215.11	6.84	-42.5	-47.9	6.3	3.00e-01	0	55	0	13631488	57	6413
2026-01-21 13:33:52.32	215.21	6.90	-42.4	-47.8	6.5	2.67e-01	0	55	0	18874368	56	6667
2026-01-21 13:33:53.33	215.31	6.96	-42.5	-47.9	6.3	2.70e-01	0	55	0	25165824	56	6800
2026-01-21 13:33:54.34	215.41	7.02	-42.5	-47.9	6.4	2.91e-01	0	55	0	30408704	56	6755
2026-01-21 13:33:55.35	215.51	7.08	-42.6	-48.4	6.0	3.27e-01	0	55	0	36700160	56	7128
2026-01-21 13:33:56.36	215.62	7.15	-42.7	-48.8	5.7	4.38e-01	0	55	0	41943040	56	7482
2026-01-21 13:33:57.37	215.72	7.21	-42.7	-48.8	5.7	4.92e-01	0	55	0	46137344	56	7464
2026-01-21 13:33:58.38	215.82	7.27	-42.7	-48.8	5.7	4.70e-01	0	55	0	51380224	56	7464
2026-01-21 13:33:59.39	215.93	7.33	-42.7	-48.6	5.8	4.97e-01	0	55	0	56623104	56	7371
2026-01-21 13:34:00.40	216.03	7.39	-42.5	-47.9	6.3	3.37e-01	0	55	0	62914560	56	6782
2026-01-21 13:34:01.41	216.14	7.46	-42.1	-46.9	7.2	1.82e-01	0	55	0	68157440	56	6043
2026-01-21 13:34:02.42	216.24	7.52	-41.6	-45.9	8.0	1.02e-01	0	55	0	73400320	55	5674
2026-01-21 13:34:03.42	216.35	7.58	-41.2	-45.0	9.0	3.87e-02	0	55	0	79691776	54	5428
2026-01-21 13:34:04.43	216.45	7.64	-40.8	-44.3	9.7	2.17e-02	0	55	0	84934656	53	5311
2026-01-21 13:34:05.44	216.56	7.70	-40.4	-43.6	10.4	6.02e-03	0	55	0	91226112	52	5204
2026-01-21 13:34:06.45	216.67	7.77	-40.0	-42.9	11.2	3.73e-03	0	55	0	96468992	52	4776
2026-01-21 13:34:07.46	216.78	7.83	-39.9	-42.6	11.5	1.17e-03	0	55	0	101711872	51	4923
2026-01-21 13:34:08.47	216.88	7.89	-39.7	-42.3	11.8	7.92e-04	0	55	0	108003328	51	4754
2026-01-21 13:34:09.48	216.99	7.95	-39.8	-42.6	11.6	9.17e-04	0	55	0	113246208	51	4878
2026-01-21 13:34:10.49	217.10	8.02	-39.7	-42.4	11.8	8.40e-04	0	56	0	119537664	51	4783
2026-01-21 13:34:11.50	217.21	8.08	-39.6	-42.1	12.2	9.99e-04	0	55	0	124780544	51	4647
2026-01-21 13:34:12.51	217.32	8.14	-40.4	-43.5	10.8	1.15e-03	0	55	0	130023424	51	5442
2026-01-21 13:34:13.52	217.43	8.20	-40.2	-43.3	5.5	8.45e-01	0	56	104	131072000	52	5005
2026-01-21 13:34:14.53	217.54	8.27	-41.1	-44.6	9.7	5.15e-02	0	55	0	134217728	54	5175
2026-01-21 13:34:15.54	217.65	8.33	-40.1	-42.9	11.5	6.67e-03	0	56	0	140509184	51	5097
2026-01-21 13:34:16.55	217.77	8.39	-40.9	-44.3	9.8	3.65e-01	0	56	0	144703488	53	5316
2026-01-21 13:34:17.56	217.88	8.45	-40.0	-42.7	11.6	1.30e-03	0	56	0	149946368	51	4978
2026-01-21 13:34:18.57	217.99	8.52	-39.8	-42.5	11.9	6.66e-04	0	56	0	155189248	51	4834
2026-01-21 13:34:19.58	218.11	8.58	-39.6	-42.1	12.3	3.48e-04	0	56	0	161480704	51	4619
2026-01-21 13:34:20.59	218.22	8.64	-39.5	-42.0	12.4	2.24e-04	0	55	0	166723584	51	4556
2026-01-21 13:34:21.60	218.33	8.71	-39.4	-41.9	12.5	1.61e-04	0	56	0	173015040	50	4796
2026-01-21 13:34:22.60	218.45	8.77	-39.5	-42.0	12.4	1.99e-04	0	56	0	178257920	50	4869
2026-01-21 13:34:23.62	218.56	8.83	-39.6	-42.1	12.4	2.97e-04	0	56	0	183500800	50	4878
2026-01-21 13:34:24.62	218.68	8.90	-39.4	-41.8	12.7	1.44e-04	0	56	0	189792256	50	4727
2026-01-21 13:34:25.63	218.79	8.96	-39.3	-41.7	12.8	1.11e-04	0	56	0	195035136	50	4658
2026-01-21 13:34:26.64	218.91	9.02	-39.3	-41.6	12.9	1.06e-04	0	56	0	201326592	50	4640
2026-01-21 13:34:27.65	219.03	9.09	-39.2	-41.5	12.9	9.26e-05	0	56	0	206569472	50	4593
2026-01-21 13:34:28.66	219.15	9.15	-39.2	-41.5	13.0	8.35e-05	0	56	0	211812352	50	4593
2026-01-21 13:34:29.67	219.26	9.22	-39.1	-41.3	13.2	4.34e-05	0	56	0	218103808	50	4492
2026-01-21 13:34:30.68	219.38	9.28	-39.1	-41.4	13.2	4.23e-05	0	56	0	223346688	50	4501
2026-01-21 13:34:31.69	219.50	9.34	-39.1	-41.3	13.2	4.11e-05	0	56	0	229638144	50	4483
2026-01-21 13:34:32.70	219.62	9.41	-39.0	-41.2	13.3	3.66e-05	0	56	0	234881024	50	4431
2026-01-21 13:34:33.71	219.74	9.47	-39.1	-41.4	13.1	4.46e-05	0	56	0	241172480	50	4520
2026-01-21 13:34:34.72	219.86	9.53	-39.1	-41.3	13.2	4.57e-05	0	56	0	246415360	50	4488
2026-01-21 13:34:35.73	219.98	9.60	-39.1	-41.4	13.2	3.54e-05	0	56	0	252706816	50	4523
2026-01-21 13:34:36.74	220.10	9.66	-39.2	-41.5	13.1	5.49e-05	0	56	0	257949696	50	4564
2026-01-21 13:34:37.75	220.23	9.73	-39.1	-41.4	13.2	4.00e-05	0	56	0	263192576	50	4508
2026-01-21 13:34:38.76	220.35	9.79	-39.1	-41.4	13.2	3.77e-05	0	56	0	269484032	50	4516
2026-01-21 13:34:39.77	220.47	9.86	-39.0	-41.3	13.3	4.23e-05	0	56	0	274726912	50	4454
2026-01-21 13:34:40.78	220.60	9.92	-39.0	-41.2	13.4	2.51e-05	0	56	0	279969792	50	4423
2026-01-21 13:34:41.79	220.72	9.98	-38.9	-41.1	13.5	1.37e-05	0	56	0	286261248	49	4633
2026-01-21 13:34:42.80	220.85	10.05	-39.0	-41.2	13.4	1.83e-05	0	56	0	291504128	49	4654
2026-01-21 13:34:43.81	220.97	10.11	-38.8	-40.9	13.7	1.25e-05	0	56	0	297795584	49	4543
2026-01-21 13:34:44.82	221.10	10.18	-38.9	-41.0	13.6	1.25e-05	0	56	0	303038464	49	4568
2026-01-21 13:34:45.83	221.22	10.24	-38.8	-40.9	13.8	8.00e-06	0	56	0	308281344	49	4518
2026-01-21 13:34:46.84	221.35	10.31	-38.7	-40.8	13.8	9.10e-06	0	56	0	314572800	49	4480
2026-01-21 13:34:47.85	221.48	10.37	-38.8	-40.9	13.8	1.60e-05	0	56	0	319815680	49	4500
2026-01-21 13:34:48.86	221.61	10.44	-38.8	-40.9	13.8	1.25e-05	0	56	0	326107136	49	4516
2026-01-21 13:34:49.87	221.73	10.50	-38.9	-41.0	13.7	9.10e-06	0	56	0	331350016	49	4571
2026-01-21 13:34:50.88	221.86	10.57	-38.9	-41.0	13.6	1.37e-05	0	57	0	337641472	49	4587
2026-01-21 13:34:51.89	221.99	10.63	-38.9	-41.0	13.7	1.25e-05	0	56	0	342884352	49	4581
2026-01-21 13:34:52.90	222.12	10.70	-38.9	-41.1	13.6	1.14e-05	0	57	0	349175808	49	4603
2026-01-21 13:34:53.91	222.25	10.76	-38.9	-41.0	13.7	4.50e-06	0	56	0	354418688	49	4564
2026-01-21 13:34:54.92	222.39	10.83	-38.9	-41.0	13.7	1.25e-05	0	57	0	359661568	49	4570
2026-01-21 13:34:55.93	222.52	10.89	-39.0	-41.1	13.6	1.02e-05	0	57	0	365953024	49	4624
2026-01-21 13:34:56.94	222.65	10.96	-38.9	-41.0	13.7	1.37e-05	0	57	0	371195904	49	4579
2026-01-21 13:34:57.95	222.78	11.02	-38.9	-41.1	13.6	1.14e-05	0	57	0	377487360	49	4620
2026-01-21 13:34:58.95	222.92	11.09	-38.9	-41.0	13.7	1.02e-05	0	57	0	382730240	49	4585
2026-01-21 13:34:59.96	223.05	11.15	-38.9	-41.0	13.7	1.02e-05	0	57	0	387973120	49	4592
2026-01-21 13:35:00.97	223.19	11.22	-39.0	-41.1	13.6	9.10e-06	0	57	0	394264576	49	4635
2026-01-21 13:35:01.98	223.32	11.28	-38.9	-41.0	13.7	1.14e-05	0	57	0	399507456	49	4597
2026-01-21 13:35:02.99	223.46	11.35	-38.9	-41.0	13.7	6.80e-06	0	57	0	405798912	49	4588
2026-01-21 13:35:04.00	223.59	11.41	-38.8	-40.9	13.8	4.50e-06	0	57	0	411041792	49	4536
2026-01-21 13:35:05.01	223.73	11.48	-38.8	-40.9	13.9	9.10e-06	0	57	0	416284672	49	4529
2026-01-21 13:35:06.02	223.87	11.54	-38.7	-40.8	14.0	4.50e-06	0	57	0	422576128	49	4461
2026-01-21 13:35:07.03	224.01	11.61	-38.8	-40.8	13.9	4.50e-06	0	57	0	427819008	49	4485
2026-01-21 13:35:08.04	224.15	11.67	-38.7	-40.8	14.0	9.10e-06	0	57	0	434110464	49	4451
2026-01-21 13:35:09.05	224.29	11.74	-38.7	-40.7	14.1	1.10e-06	0	57	0	439353344	49	4437
2026-01-21 13:35:10.05	224.42	11.80	-38.6	-40.7	14.1	3.40e-06	0	57	0	445644800	49	4397
2026-01-21 13:35:11.06	224.56	11.87	-38.7	-40.7	14.0	5.70e-06	0	57	0	450887680	49	4434
2026-01-21 13:35:12.07	224.71	11.93	-38.7	-40.8	14.0	3.40e-06	0	57	0	456130560	49	4442
2026-01-21 13:35:13.08	224.85	12.00	-38.7	-40.8	14.0	3.40e-06	0	57	0	462422016	49	4454
2026-01-21 13:35:14.09	224.99	12.07	-38.7	-40.8	14.0	3.40e-06	0	57	0	467664896	49	4446
2026-01-21 13:35:15.10	225.13	12.13	-38.6	-40.7	14.1	8.00e-06	0	57	0	473956352	49	4400
2026-01-21 13:35:16.11	225.28	12.20	-38.7	-40.7	14.1	1.10e-06	0	57	0	479199232	49	4436
2026-01-21 13:35:17.12	225.42	12.26	-38.8	-40.8	14.0	2.20e-06	0	57	0	484442112	49	4492
2026-01-21 13:35:18.13	225.57	12.33	-38.8	-40.8	14.0	3.40e-06	0	57	0	490733568	49	4474
2026-01-21 13:35:19.14	225.71	12.39	-38.7	-40.8	14.1	5.70e-06	0	57	0	495976448	49	4462
2026-01-21 13:35:20.14	225.86	12.46	-38.7	-40.7	14.1	1.10e-06	0	57	0	502267904	49	4418
2026-01-21 13:35:21.15	226.01	12.52	-38.6	-40.6	14.2	2.20e-06	0	57	0	507510784	49	4375
2026-01-21 13:35:22.16	226.15	12.59	-38.6	-40.6	14.3	1.10e-06	0	57	0	512753664	49	4367
2026-01-21 13:35:23.18	226.30	12.66	-38.6	-40.6	14.2	3.40e-06	0	57	0	519045120	49	4366
2026-01-21 13:35:24.19	226.45	12.72	-38.6	-40.5	14.3	1.10e-06	0	57	0	524288000	49	4334
2026-01-21 13:35:25.19	226.60	12.79	-38.5	-40.4	14.4	0.00e+00	0	57	0	530579456	49	4288
2026-01-21 13:35:26.21	226.75	12.85	-38.4	-40.3	14.6	1.10e-06	0	57	0	535822336	48	4476
2026-01-21 13:35:27.22	226.90	12.92	-38.3	-40.2	14.7	1.10e-06	0	57	0	542113792	48	4428
2026-01-21 13:35:28.23	227.05	12.98	-38.4	-40.3	14.6	1.10e-06	0	57	0	547356672	48	4482
2026-01-21 13:35:29.24	227.21	13.05	-38.4	-40.2	14.7	0.00e+00	0	57	0	553648128	48	4439
2026-01-21 13:35:30.25	227.36	13.12	-38.4	-40.4	14.5	0.00e+00	0	57	0	558891008	48	4497
2026-01-21 13:35:31.26	227.51	13.18	-38.4	-40.4	14.6	0.00e+00	0	57	0	564133888	48	4497
2026-01-21 13:35:32.26	227.67	13.25	-38.5	-40.4	14.5	4.50e-06	0	57	0	570425344	48	4517
2026-01-21 13:35:33.28	227.82	13.31	-38.5	-40.5	14.5	0.00e+00	0	57	0	575668224	48	4552
2026-01-21 13:35:34.29	227.98	13.38	-38.3	-40.2	14.7	1.10e-06	0	57	0	581959680	48	4441
2026-01-21 13:35:35.30	228.13	13.44	-38.4	-40.3	14.7	1.10e-06	0	57	0	587202560	48	4457
2026-01-21 13:35:36.31	228.29	13.51	-38.5	-40.4	14.5	1.10e-06	0	57	0	592445440	48	4530
2026-01-21 13:35:37.31	228.45	13.57	-38.4	-40.4	14.6	1.10e-06	0	57	0	598736896	48	4504
2026-01-21 13:35:38.32	228.60	13.64	-38.4	-40.3	14.6	0.00e+00	0	57	0	603979776	48	4479
2026-01-21 13:35:39.33	228.76	13.71	-38.4	-40.3	14.7	0.00e+00	0	57	0	610271232	48	4472
2026-01-21 13:35:40.34	228.92	13.77	-38.4	-40.3	14.6	2.20e-06	0	58	0	615514112	48	4479
2026-01-21 13:35:41.35	229.08	13.84	-38.4	-40.3	14.6	0.00e+00	0	58	0	620756992	48	4486
2026-01-21 13:35:42.36	229.24	13.90	-38.4	-40.4	14.6	0.00e+00	0	57	0	627048448	48	4508
2026-01-21 13:35:43.37	229.41	13.97	-38.3	-40.2	14.7	0.00e+00	0	57	0	632291328	48	4424
2026-01-21 13:35:44.38	229.57	14.03	-38.3	-40.2	14.8	1.10e-06	0	57	0	638582784	48	4414
2026-01-21 13:35:45.39	229.73	14.10	-38.4	-40.3	14.7	0.00e+00	0	58	0	643825664	48	4451
2026-01-21 13:35:46.40	229.89	14.16	-38.3	-40.2	14.8	1.10e-06	0	58	0	650117120	48	4423
2026-01-21 13:35:47.41	230.06	14.23	-38.3	-40.2	14.7	1.10e-06	0	58	0	655360000	48	4427
2026-01-21 13:35:48.42	230.22	14.29	-38.4	-40.3	14.7	0.00e+00	0	58	0	660602880	48	4468
2026-01-21 13:35:49.42	230.39	14.36	-38.4	-40.3	14.7	0.00e+00	0	57	0	666894336	48	4484
2026-01-21 13:35:50.44	230.56	14.42	-38.4	-40.3	14.7	2.20e-06	0	58	0	672137216	48	4461
2026-01-21 13:35:51.44	230.72	14.49	-38.3	-40.2	14.7	1.10e-06	0	57	0	678428672	48	4441
2026-01-21 13:35:52.45	230.89	14.55	-38.2	-40.0	15.0	0.00e+00	0	57	0	683671552	48	4312
2026-01-21 13:35:53.46	231.06	14.62	-38.2	-40.1	14.9	0.00e+00	0	58	0	688914432	48	4352
2026-01-21 13:35:54.47	231.23	14.68	-38.2	-40.0	15.0	0.00e+00	0	58	0	695205888	48	4313
2026-01-21 13:35:55.48	231.40	14.75	-38.1	-40.0	15.0	0.00e+00	0	57	0	700448768	48	4305
2026-01-21 13:35:56.49	231.57	14.81	-38.1	-39.9	15.1	0.00e+00	0	57	0	706740224	48	4253
2026-01-21 13:35:57.50	231.74	14.88	-38.1	-40.0	15.0	0.00e+00	0	58	0	711983104	48	4306
2026-01-21 13:35:58.52	231.91	14.94	-38.1	-39.9	15.1	1.10e-06	0	57	0	717225984	48	4288
2026-01-21 13:35:59.53	232.09	15.01	-38.2	-40.0	15.0	0.00e+00	0	57	0	723517440	48	4305
2026-01-21 13:36:00.54	232.26	15.07	-38.1	-39.9	15.1	0.00e+00	0	57	0	728760320	48	4277
2026-01-21 13:36:01.55	232.44	15.14	-38.1	-39.9	15.1	0.00e+00	0	58	0	735051776	48	4288
2026-01-21 13:36:02.56	232.61	15.20	-38.1	-39.9	15.1	0.00e+00	0	58	0	740294656	48	4282
2026-01-21 13:36:03.57	232.79	15.26	-38.1	-39.9	15.1	0.00e+00	0	58	0	746586112	48	4258
2026-01-21 13:36:04.58	232.96	15.33	-38.2	-40.1	15.0	0.00e+00	0	58	0	751828992	48	4344
2026-01-21 13:36:05.59	233.14	15.39	-38.1	-39.9	15.1	0.00e+00	0	58	0	758120448	48	4267
2026-01-21 13:36:06.60	233.32	15.46	-38.1	-39.9	15.2	0.00e+00	0	58	0	763363328	48	4262
2026-01-21 13:36:07.61	233.50	15.52	-38.1	-40.0	15.1	0.00e+00	0	58	0	768606208	48	4293
2026-01-21 13:36:08.62	233.68	15.58	-38.1	-39.9	15.1	0.00e+00	0	57	0	774897664	48	4253
2026-01-21 13:36:09.63	233.86	15.65	-37.9	-39.7	15.3	0.00e+00	0	58	0	780140544	47	4402
2026-01-21 13:36:10.64	234.04	15.71	-38.0	-39.7	15.2	0.00e+00	0	58	0	786432000	47	4438
2026-01-21 13:36:11.65	234.22	15.77	-37.9	-39.7	15.3	0.00e+00	0	58	0	791674880	47	4403
2026-01-21 13:36:12.66	234.40	15.84	-38.0	-39.8	15.2	0.00e+00	0	58	0	796917760	47	4452
2026-01-21 13:36:13.67	234.59	15.90	-37.9	-39.7	15.3	0.00e+00	0	58	0	803209216	47	4394
2026-01-21 13:36:14.68	234.77	15.96	-38.0	-39.8	15.2	0.00e+00	0	58	0	808452096	47	4445
2026-01-21 13:36:15.69	234.96	16.03	-38.0	-39.9	15.1	0.00e+00	0	58	0	814743552	47	4495
2026-01-21 13:36:16.70	235.14	16.09	-38.1	-40.0	15.0	0.00e+00	0	58	0	819986432	47	4549
2026-01-21 13:36:17.71	235.33	16.15	-37.9	-39.7	15.2	0.00e+00	0	58	0	825229312	47	4441
2026-01-21 13:36:18.72	235.51	16.22	-37.9	-39.7	15.3	0.00e+00	0	58	0	831520768	47	4403
2026-01-21 13:36:19.73	235.70	16.28	-37.8	-39.6	15.4	0.00e+00	0	58	0	836763648	47	4363
2026-01-21 13:36:20.74	235.89	16.34	-37.8	-39.6	15.4	0.00e+00	0	58	0	843055104	47	4351
2026-01-21 13:36:21.76	236.08	16.40	-37.8	-39.6	15.4	0.00e+00	0	58	0	848297984	47	4366
2026-01-21 13:36:22.77	236.27	16.47	-37.7	-39.5	15.5	0.00e+00	0	58	0	854589440	47	4304
2026-01-21 13:36:23.77	236.46	16.53	-37.7	-39.5	15.5	0.00e+00	0	58	0	859832320	47	4301
2026-01-21 13:36:24.78	236.65	16.59	-37.8	-39.5	15.5	0.00e+00	0	58	0	866123776	47	4315
2026-01-21 13:36:25.79	236.85	16.65	-37.7	-39.4	15.6	0.00e+00	0	58	0	871366656	47	4261
2026-01-21 13:36:26.80	237.04	16.71	-37.7	-39.4	15.6	0.00e+00	0	58	0	876609536	47	4265
2026-01-21 13:36:27.81	237.23	16.77	-37.8	-39.5	15.5	0.00e+00	0	58	0	882900992	47	4316
2026-01-21 13:36:28.82	237.43	16.84	-37.6	-39.3	15.7	0.00e+00	0	58	0	888143872	47	4231
2026-01-21 13:36:29.83	237.62	16.90	-37.6	-39.3	15.7	0.00e+00	0	58	0	894435328	47	4224
2026-01-21 13:36:30.84	237.82	16.96	-37.6	-39.3	15.7	0.00e+00	0	58	0	899678208	47	4218
2026-01-21 13:36:31.85	238.02	17.02	-37.6	-39.4	15.6	0.00e+00	0	58	0	904921088	47	4250
2026-01-21 13:36:32.86	238.22	17.08	-37.7	-39.4	15.6	0.00e+00	0	58	0	911212544	47	4285
2026-01-21 13:36:33.87	238.41	17.14	-37.7	-39.4	15.6	0.00e+00	0	58	0	916455424	47	4276
2026-01-21 13:36:34.88	238.61	17.20	-37.7	-39.5	15.5	0.00e+00	0	58	0	922746880	47	4301
2026-01-21 13:36:35.89	238.81	17.26	-37.7	-39.5	15.6	0.00e+00	0	58	0	927989760	47	4293
2026-01-21 13:36:36.90	239.02	17.32	-37.8	-39.5	15.5	0.00e+00	0	58	0	933232640	47	4331
2026-01-21 13:36:37.91	239.22	17.38	-37.7	-39.4	15.6	0.00e+00	0	58	0	939524096	47	4286
2026-01-21 13:36:38.92	239.42	17.44	-37.6	-39.3	15.7	0.00e+00	0	58	0	944766976	47	4228
2026-01-21 13:36:39.93	239.62	17.50	-37.6	-39.3	15.7	0.00e+00	0	58	0	951058432	47	4220
2026-01-21 13:36:40.94	239.83	17.56	-37.6	-39.3	15.7	0.00e+00	0	58	0	956301312	47	4211
2026-01-21 13:36:41.95	240.03	17.61	-37.6	-39.3	15.7	0.00e+00	0	58	0	962592768	47	4204
2026-01-21 13:36:42.96	240.24	17.67	-37.6	-39.3	15.7	0.00e+00	0	58	0	967835648	47	4211
2026-01-21 13:36:43.97	240.44	17.73	-37.5	-39.1	15.9	0.00e+00	0	58	0	973078528	46	4380
2026-01-21 13:36:44.98	240.65	17.79	-37.4	-39.1	16.0	0.00e+00	0	58	0	979369984	46	4344
2026-01-21 13:36:45.99	240.86	17.85	-37.4	-39.0	16.0	0.00e+00	0	58	0	984612864	46	4324
2026-01-21 13:36:47.00	241.07	17.91	-37.4	-39.0	16.0	0.00e+00	0	58	0	990904320	46	4315
2026-01-21 13:36:48.01	241.28	17.96	-37.4	-39.1	16.0	0.00e+00	0	58	0	996147200	46	4343
2026-01-21 13:36:49.02	241.49	18.02	-37.4	-39.1	16.0	0.00e+00	0	58	0	1001390080	46	4342
2026-01-21 13:36:50.03	241.70	18.08	-37.4	-39.1	16.0	0.00e+00	0	58	0	1007681536	46	4343
2026-01-21 13:36:51.04	241.91	18.13	-37.5	-39.2	15.9	0.00e+00	0	58	0	1012924416	46	4400
2026-01-21 13:36:52.05	242.12	18.19	-37.4	-39.1	16.0	0.00e+00	0	58	0	1019215872	46	4344
2026-01-21 13:36:53.06	242.34	18.25	-37.4	-39.1	15.9	0.00e+00	0	58	0	1024458752	46	4355
2026-01-21 13:36:54.07	242.55	18.30	-37.4	-39.0	16.0	0.00e+00	0	58	0	1029701632	46	4319
2026-01-21 13:36:55.08	242.77	18.36	-37.4	-39.1	16.0	0.00e+00	0	58	0	1035993088	46	4350
2026-01-21 13:36:56.09	242.98	18.41	-37.3	-38.9	16.1	0.00e+00	0	58	0	1041235968	46	4278
2026-01-21 13:36:57.11	243.20	18.47	-37.3	-38.9	16.1	0.00e+00	0	58	0	1047527424	46	4271
2026-01-21 13:36:58.11	243.42	18.52	-37.3	-38.9	16.1	0.00e+00	0	58	0	1052770304	46	4258
2026-01-21 13:36:59.12	243.63	18.58	-37.4	-39.0	16.0	0.00e+00	0	58	0	1059061760	46	4317
2026-01-21 13:37:00.13	243.85	18.63	-37.4	-39.1	15.9	0.00e+00	0	58	0	1064304640	46	4365
2026-01-21 13:37:01.14	244.07	18.69	-37.5	-39.1	15.9	0.00e+00	0	58	0	1070596096	46	4384
2026-01-21 13:37:02.15	244.29	18.74	-37.5	-39.1	15.9	0.00e+00	0	58	0	1075838976	46	4386
2026-01-21 13:37:03.16	244.51	18.79	-37.4	-39.0	16.0	0.00e+00	0	58	0	1081081856	46	4329
2026-01-21 13:37:04.17	244.73	18.85	-37.3	-39.0	16.1	0.00e+00	0	58	0	1087373312	46	4296
2026-01-21 13:37:05.18	244.96	18.90	-37.3	-38.9	16.2	0.00e+00	0	58	0	1092616192	46	4256
2026-01-21 13:37:06.19	245.18	18.95	-37.3	-39.0	16.1	0.00e+00	0	58	0	1098907648	46	4295
2026-01-21 13:37:07.20	245.40	19.01	-37.3	-39.0	16.1	0.00e+00	0	58	0	1104150528	46	4298
2026-01-21 13:37:08.21	245.63	19.06	-37.2	-38.8	16.2	0.00e+00	0	58	0	1109393408	46	4237
2026-01-21 13:37:09.22	245.85	19.11	-37.2	-38.8	16.2	0.00e+00	0	58	0	1115684864	46	4239
2026-01-21 13:37:10.23	246.08	19.16	-37.3	-38.9	16.1	0.00e+00	0	58	0	1120927744	46	4265
2026-01-21 13:37:11.24	246.31	19.21	-37.4	-39.0	16.0	0.00e+00	0	58	0	1127219200	46	4320
2026-01-21 13:37:12.25	246.54	19.26	-37.3	-38.9	16.1	0.00e+00	0	58	0	1132462080	46	4280
2026-01-21 13:37:13.26	246.76	19.31	-37.2	-38.9	16.2	0.00e+00	0	58	0	1137704960	46	4251
2026-01-21 13:37:14.27	246.99	19.36	-37.3	-38.9	16.1	0.00e+00	0	58	0	1143996416	46	4277
2026-01-21 13:37:15.28	247.22	19.41	-37.4	-39.0	16.0	0.00e+00	0	58	0	1149239296	46	4335
2026-01-21 13:37:16.29	247.45	19.46	-37.2	-38.8	16.2	0.00e+00	0	58	0	1155530752	46	4236
2026-01-21 13:37:17.30	247.69	19.51	-37.1	-38.7	16.4	0.00e+00	0	58	0	1160773632	46	4167
2026-01-21 13:37:18.31	247.92	19.56	-37.1	-38.7	16.4	0.00e+00	0	58	0	1167065088	46	4153
2026-01-21 13:37:19.32	248.15	19.61	-36.9	-38.4	16.6	0.00e+00	0	58	0	1172307968	45	4280
2026-01-21 13:37:20.33	248.38	19.65	-36.8	-38.3	16.7	0.00e+00	0	58	0	1177550848	45	4237
2026-01-21 13:37:21.34	248.62	19.70	-36.9	-38.4	16.6	0.00e+00	0	59	0	1183842304	45	4284
2026-01-21 13:37:22.35	248.85	19.75	-36.9	-38.4	16.6	0.00e+00	0	58	0	1189085184	45	4281
2026-01-21 13:37:23.36	249.09	19.79	-36.9	-38.4	16.6	0.00e+00	0	58	0	1195376640	45	4264
2026-01-21 13:37:24.36	249.32	19.84	-37.0	-38.5	16.5	0.00e+00	0	58	0	1200619520	45	4328
2026-01-21 13:37:25.37	249.56	19.89	-37.0	-38.5	16.6	0.00e+00	0	58	0	1205862400	45	4325
2026-01-21 13:37:26.38	249.80	19.93	-37.0	-38.5	16.5	0.00e+00	0	58	0	1212153856	45	4327
2026-01-21 13:37:27.39	250.04	19.98	-37.0	-38.6	16.5	0.00e+00	0	58	0	1217396736	45	4359
2026-01-21 13:37:28.40	250.27	20.02	-36.9	-38.5	16.6	0.00e+00	0	58	0	1223688192	45	4313
2026-01-21 13:37:29.41	250.51	20.06	-37.0	-38.5	16.5	0.00e+00	0	58	0	1228931072	45	4337
2026-01-21 13:37:30.42	250.76	20.11	-36.8	-38.3	16.8	0.00e+00	0	58	0	1234173952	45	4211
2026-01-21 13:37:31.43	251.00	20.15	-36.8	-38.3	16.8	0.00e+00	0	58	0	1240465408	45	4211
2026-01-21 13:37:32.44	251.24	20.19	-36.8	-38.4	16.7	0.00e+00	0	58	0	1245708288	45	4245
2026-01-21 13:37:33.44	251.48	20.24	-36.9	-38.4	16.6	0.00e+00	0	59	0	1251999744	45	4272
2026-01-21 13:37:34.45	251.72	20.28	-37.0	-38.6	16.5	0.00e+00	0	58	0	1257242624	45	4372
2026-01-21 13:37:35.46	251.96	20.32	-37.1	-38.7	16.4	0.00e+00	0	59	0	1263534080	45	4400
2026-01-21 13:37:36.47	252.21	20.36	-37.1	-38.8	16.3	0.00e+00	0	58	0	1268776960	45	4448
2026-01-21 13:37:37.48	252.45	20.40	-37.0	-38.5	16.5	0.00e+00	0	58	0	1275068416	45	4335
2026-01-21 13:37:38.49	252.70	20.44	-36.9	-38.5	16.6	0.00e+00	0	58	0	1280311296	45	4315
2026-01-21 13:37:39.50	252.95	20.48	-37.0	-38.6	16.5	0.00e+00	0	58	0	1285554176	45	4342
2026-01-21 13:37:40.51	253.19	20.52	-36.9	-38.4	16.6	0.00e+00	0	58	0	1291845632	45	4283
2026-01-21 13:37:41.52	253.44	20.56	-36.9	-38.5	16.7	0.00e+00	0	58	0	1297088512	45	4294
2026-01-21 13:37:42.53	253.69	20.60	-36.9	-38.4	16.6	0.00e+00	0	58	0	1302331392	45	4281
2026-01-21 13:37:43.54	253.94	20.64	-36.9	-38.4	16.6	0.00e+00	0	58	0	1308622848	45	4286
2026-01-21 13:37:44.55	254.19	20.67	-36.9	-38.5	16.6	0.00e+00	0	58	0	1313865728	45	4294
2026-01-21 13:37:45.56	254.44	20.71	-37.0	-38.6	16.5	0.00e+00	0	59	0	1320157184	45	4348
2026-01-21 13:37:46.57	254.69	20.75	-37.0	-38.6	16.5	0.00e+00	0	58	0	1325400064	45	4344
2026-01-21 13:37:47.58	254.94	20.78	-36.9	-38.5	16.6	0.00e+00	0	59	0	1330642944	45	4310
2026-01-21 13:37:48.59	255.19	20.82	-37.0	-38.5	16.5	0.00e+00	0	58	0	1336934400	45	4324
2026-01-21 13:37:49.60	255.44	20.85	-36.9	-38.5	16.6	0.00e+00	0	59	0	1342177280	45	4310
2026-01-21 13:37:50.61	255.69	20.89	-36.9	-38.4	16.6	0.00e+00	0	58	0	1348468736	45	4266
2026-01-21 13:37:51.61	255.94	20.92	-36.9	-38.5	16.6	0.00e+00	0	58	0	1353711616	45	4303
2026-01-21 13:37:52.62	256.20	20.95	-36.7	-38.2	16.8	0.00e+00	0	58	0	1360003072	45	4165
2026-01-21 13:37:53.63	256.45	20.99	-36.6	-38.1	17.0	0.00e+00	0	58	0	1365245952	45	4125
2026-01-21 13:37:54.64	256.71	21.02	-36.6	-38.1	16.9	0.00e+00	0	59	0	1371537408	45	4141
2026-01-21 13:37:55.65	256.96	21.05	-36.6	-38.1	17.0	0.00e+00	0	59	0	1376780288	45	4124
2026-01-21 13:37:56.66	257.22	21.08	-36.6	-38.0	17.0	0.00e+00	0	59	0	1382023168	45	4095
2026-01-21 13:37:57.67	257.47	21.11	-36.6	-38.1	16.9	0.00e+00	0	59	0	1388314624	45	4133
2026-01-21 13:37:58.68	257.73	21.14	-36.7	-38.2	16.9	0.00e+00	0	59	0	1393557504	45	4153
2026-01-21 13:37:59.69	257.99	21.17	-36.6	-38.2	16.9	0.00e+00	0	59	0	1399848960	45	4147
2026-01-21 13:38:00.71	258.25	21.20	-36.6	-38.1	17.0	0.00e+00	0	58	0	1405091840	45	4111
2026-01-21 13:38:01.72	258.51	21.23	-36.6	-38.1	16.9	0.00e+00	0	59	0	1410334720	45	4144
2026-01-21 13:38:02.73	258.76	21.26	-36.7	-38.2	16.9	0.00e+00	0	58	0	1416626176	45	4158
2026-01-21 13:38:03.74	259.02	21.29	-36.8	-38.4	16.7	0.00e+00	0	59	0	1421869056	45	4248
2026-01-21 13:38:04.75	259.28	21.31	-36.8	-38.4	16.7	0.00e+00	0	59	0	1428160512	45	4260
2026-01-21 13:38:05.76	259.54	21.34	-36.9	-38.5	16.6	0.00e+00	0	59	0	1433403392	45	4297
2026-01-21 13:38:06.77	259.80	21.37	-36.8	-38.3	16.7	0.00e+00	0	59	0	1438646272	45	4235
2026-01-21 13:38:07.78	260.06	21.39	-36.9	-38.4	16.7	0.00e+00	0	59	0	1444937728	45	4266
2026-01-21 13:38:08.79	260.32	21.42	-36.9	-38.4	16.7	0.00e+00	0	59	0	1450180608	45	4271
2026-01-21 13:38:09.80	260.59	21.44	-36.8	-38.4	16.7	0.00e+00	0	59	0	1456472064	45	4257
2026-01-21 13:38:10.81	260.85	21.46	-36.8	-38.4	16.7	0.00e+00	0	59	0	1461714944	45	4260
2026-01-21 13:38:11.82	261.11	21.49	-36.8	-38.3	16.7	0.00e+00	0	59	0	1468006400	45	4239
2026-01-21 13:38:12.83	261.37	21.51	-36.7	-38.2	16.8	0.00e+00	0	58	0	1473249280	45	4179
2026-01-21 13:38:13.84	261.64	21.53	-36.7	-38.2	16.8	0.00e+00	0	59	0	1479540736	45	4186
2026-01-21 13:38:14.84	261.90	21.55	-36.8	-38.3	16.8	0.00e+00	0	59	0	1484783616	45	4224
2026-01-21 13:38:15.85	262.16	21.57	-36.8	-38.3	16.7	0.00e+00	0	59	0	1490026496	45	4236
2026-01-21 13:38:16.86	262.43	21.59	-36.7	-38.3	16.8	0.00e+00	0	59	0	1496317952	45	4205
2026-01-21 13:38:17.87	262.69	21.61	-36.7	-38.2	16.9	0.00e+00	0	59	0	1501560832	45	4177
2026-01-21 13:38:18.88	262.95	21.63	-36.6	-38.0	17.0	0.00e+00	0	59	0	1507852288	45	4087
2026-01-21 13:38:19.89	263.22	21.65	-36.5	-37.9	17.1	0.00e+00	0	59	0	1513095168	44	4290
2026-01-21 13:38:20.90	263.49	21.67	-36.4	-37.9	17.2	0.00e+00	0	59	0	1518338048	44	4257
2026-01-21 13:38:21.91	263.75	21.68	-36.5	-38.0	17.1	0.00e+00	0	59	0	1524629504	44	4326
2026-01-21 13:38:22.93	264.02	21.70	-36.5	-38.0	17.1	0.00e+00	0	59	0	1529872384	44	4325
2026-01-21 13:38:23.93	264.28	21.71	-36.6	-38.1	17.0	0.00e+00	0	58	0	1536163840	44	4376
2026-01-21 13:38:24.95	264.55	21.73	-36.7	-38.2	17.0	0.00e+00	0	59	0	1541406720	44	4394
2026-01-21 13:38:25.96	264.82	21.74	-36.6	-38.1	17.0	0.00e+00	0	59	0	1546649600	44	4352
2026-01-21 13:38:26.97	265.09	21.76	-36.6	-38.1	17.0	0.00e+00	0	59	0	1552941056	44	4365
2026-01-21 13:38:27.98	265.35	21.77	-36.6	-38.1	16.9	0.00e+00	0	59	0	1558183936	44	4388
2026-01-21 13:38:28.99	265.62	21.78	-36.6	-38.1	17.0	0.00e+00	0	59	0	1564475392	44	4341
2026-01-21 13:38:30.00	265.89	21.80	-36.5	-37.9	17.2	0.00e+00	0	59	0	1569718272	44	4277
2026-01-21 13:38:31.00	266.15	21.81	-36.5	-38.0	17.1	0.00e+00	0	59	0	1576009728	44	4298
2026-01-21 13:38:32.01	266.42	21.82	-36.6	-38.1	17.0	0.00e+00	0	59	0	1581252608	44	4365
2026-01-21 13:38:33.02	266.69	21.83	-36.7	-38.2	16.9	0.00e+00	0	59	0	1586495488	44	4420
2026-01-21 13:38:34.03	266.96	21.84	-36.6	-38.1	16.9	0.00e+00	0	59	0	1592786944	44	4388
2026-01-21 13:38:35.04	267.23	21.85	-36.6	-38.1	17.0	0.00e+00	0	59	0	1598029824	44	4353
2026-01-21 13:38:36.05	267.49	21.86	-36.7	-38.2	16.9	0.00e+00	0	59	0	1604321280	44	4401
2026-01-21 13:38:37.06	267.76	21.86	-36.6	-38.1	17.0	0.00e+00	0	59	0	1609564160	44	4381
2026-01-21 13:38:38.07	268.03	21.87	-36.5	-38.0	17.1	0.00e+00	0	59	0	1614807040	44	4324
2026-01-21 13:38:39.08	268.30	21.88	-36.5	-37.9	17.2	0.00e+00	0	59	0	1621098496	44	4278
2026-01-21 13:38:40.09	268.57	21.88	-36.6	-38.1	17.1	0.00e+00	0	59	0	1626341376	44	4343
2026-01-21 13:38:41.10	268.84	21.89	-36.6	-38.1	16.9	0.00e+00	0	59	0	1632632832	44	4391
2026-01-21 13:38:42.11	269.11	21.89	-36.6	-38.1	17.0	0.00e+00	0	59	0	1637875712	44	4381
2026-01-21 13:38:43.12	269.38	21.90	-36.7	-38.2	17.0	0.00e+00	0	59	0	1643118592	44	4408
2026-01-21 13:38:44.13	269.65	21.90	-36.6	-38.1	17.0	0.00e+00	0	59	0	1649410048	44	4373
2026-01-21 13:38:45.14	269.91	21.90	-36.7	-38.2	16.9	0.00e+00	0	59	0	1654652928	44	4407
2026-01-21 13:38:46.15	270.18	21.90	-36.7	-38.2	16.9	0.00e+00	0	59	0	1660944384	44	4412
2026-01-21 13:38:47.16	270.45	21.90	-36.7	-38.2	16.9	0.00e+00	0	59	0	1666187264	44	4429
2026-01-21 13:38:48.17	270.72	21.91	-36.6	-38.1	17.0	0.00e+00	0	59	0	1672478720	44	4347
2026-01-21 13:38:49.18	270.99	21.91	-36.6	-38.1	17.0	0.00e+00	0	59	0	1677721600	44	4347
2026-01-21 13:38:50.19	271.26	21.90	-36.6	-38.1	17.0	0.00e+00	0	59	0	1684013056	44	4359
2026-01-21 13:38:51.20	271.53	21.90	-36.6	-38.1	17.0	0.00e+00	0	59	0	1689255936	44	4351
2026-01-21 13:38:52.21	271.80	21.90	-36.6	-38.1	17.0	0.00e+00	0	59	0	1694498816	44	4380
2026-01-21 13:38:53.22	272.07	21.90	-36.6	-38.1	17.0	0.00e+00	0	59	0	1700790272	44	4363
2026-01-21 13:38:54.23	272.34	21.90	-36.5	-38.0	17.2	0.00e+00	0	59	0	1706033152	44	4292
2026-01-21 13:38:55.24	272.61	21.89	-36.5	-38.0	17.2	0.00e+00	0	59	0	1712324608	44	4298
2026-01-21 13:38:56.24	272.87	21.89	-36.5	-38.0	17.2	0.00e+00	0	59	0	1717567488	44	4292
2026-01-21 13:38:57.25	273.14	21.88	-36.5	-37.9	17.2	0.00e+00	0	59	0	1722810368	44	4291
2026-01-21 13:38:58.26	273.41	21.88	-36.5	-38.0	17.1	0.00e+00	0	59	0	1729101824	44	4327
2026-01-21 13:38:59.27	273.68	21.87	-36.5	-38.0	17.1	0.00e+00	0	59	0	1734344704	44	4331
2026-01-21 13:39:00.28	273.95	21.86	-36.5	-38.0	17.1	0.00e+00	0	59	0	1740636160	44	4329
2026-01-21 13:39:01.29	274.22	21.86	-36.5	-38.0	17.1	0.00e+00	0	59	0	1745879040	44	4315
2026-01-21 13:39:02.31	274.49	21.85	-36.7	-38.2	16.9	0.00e+00	0	59	0	1751121920	44	4413
2026-01-21 13:39:03.31	274.75	21.84	-36.7	-38.2	17.0	0.00e+00	0	59	0	1757413376	44	4397
2026-01-21 13:39:04.32	275.02	21.83	-36.7	-38.2	16.9	0.00e+00	0	59	0	1762656256	44	4436
2026-01-21 13:39:05.34	275.29	21.82	-36.7	-38.2	16.9	0.00e+00	0	59	0	1768947712	44	4421
2026-01-21 13:39:06.35	275.56	21.81	-36.7	-38.2	16.9	0.00e+00	0	59	0	1774190592	44	4429
2026-01-21 13:39:07.35	275.83	21.80	-36.6	-38.1	17.0	0.00e+00	0	59	0	1780482048	44	4384
2026-01-21 13:39:08.37	276.10	21.78	-36.7	-38.2	16.9	0.00e+00	0	59	0	1785724928	44	4411
2026-01-21 13:39:09.38	276.36	21.77	-36.8	-38.3	16.8	0.00e+00	0	59	0	1790967808	44	4463
2026-01-21 13:39:10.39	276.63	21.76	-36.7	-38.3	16.8	0.00e+00	0	59	0	1797259264	44	4460
2026-01-21 13:39:11.40	276.90	21.74	-36.7	-38.2	16.9	0.00e+00	0	59	0	1802502144	44	4433
2026-01-21 13:39:12.40	277.16	21.73	-36.6	-38.1	17.0	0.00e+00	0	59	0	1808793600	44	4371
2026-01-21 13:39:13.41	277.43	21.72	-36.6	-38.1	17.0	0.00e+00	0	59	0	1814036480	44	4376
2026-01-21 13:39:14.42	277.69	21.70	-36.6	-38.1	17.0	0.00e+00	0	59	0	1819279360	44	4375
2026-01-21 13:39:15.43	277.96	21.68	-36.5	-38.0	17.1	0.00e+00	0	59	0	1825570816	44	4303
2026-01-21 13:39:16.44	278.22	21.67	-36.5	-37.9	17.2	0.00e+00	0	59	0	1830813696	44	4273
2026-01-21 13:39:17.45	278.49	21.65	-36.4	-37.9	17.2	0.00e+00	0	59	0	1837105152	44	4249
2026-01-21 13:39:18.46	278.75	21.63	-36.6	-38.1	17.0	0.00e+00	0	59	0	1842348032	44	4347
2026-01-21 13:39:19.47	279.02	21.61	-36.6	-38.1	17.0	0.00e+00	0	59	0	1847590912	44	4353
2026-01-21 13:39:20.48	279.28	21.59	-36.6	-38.1	17.0	0.00e+00	0	59	0	1853882368	44	4383
2026-01-21 13:39:21.49	279.54	21.57	-36.7	-38.2	16.9	0.00e+00	0	59	0	1859125248	44	4437
2026-01-21 13:39:22.50	279.81	21.55	-36.7	-38.2	16.9	0.00e+00	0	59	0	1865416704	44	4437
2026-01-21 13:39:23.51	280.07	21.53	-36.7	-38.2	16.9	0.00e+00	0	59	0	1870659584	44	4434
2026-01-21 13:39:24.52	280.33	21.51	-36.7	-38.2	16.9	0.00e+00	0	59	0	1876951040	44	4432
2026-01-21 13:39:25.53	280.60	21.49	-36.8	-38.3	16.8	0.00e+00	0	59	0	1882193920	44	4469
2026-01-21 13:39:26.54	280.86	21.46	-36.8	-38.4	16.8	0.00e+00	0	59	0	1888485376	44	4495
2026-01-21 13:39:27.55	281.12	21.44	-36.9	-38.4	16.7	0.00e+00	0	59	0	1893728256	44	4520
2026-01-21 13:39:28.56	281.38	21.42	-37.0	-38.5	16.6	0.00e+00	0	59	0	1898971136	44	4579
2026-01-21 13:39:29.57	281.64	21.39	-36.9	-38.5	16.6	0.00e+00	0	59	0	1905262592	44	4553
2026-01-21 13:39:30.58	281.90	21.37	-36.9	-38.4	16.7	0.00e+00	0	59	0	1910505472	44	4540
2026-01-21 13:39:31.59	282.16	21.34	-36.9	-38.5	16.6	0.00e+00	0	59	0	1916796928	44	4548
2026-01-21 13:39:32.60	282.42	21.32	-36.8	-38.3	16.7	0.00e+00	0	59	0	1922039808	44	4482
2026-01-21 13:39:33.61	282.68	21.29	-36.8	-38.4	16.7	0.00e+00	0	59	0	1927282688	44	4494
2026-01-21 13:39:34.62	282.94	21.26	-36.8	-38.3	16.8	0.00e+00	0	59	0	1933574144	44	4482
2026-01-21 13:39:35.63	283.20	21.23	-36.8	-38.4	16.7	0.00e+00	0	59	0	1938817024	44	4512
2026-01-21 13:39:36.64	283.45	21.21	-37.0	-38.5	16.5	0.00e+00	0	59	0	1945108480	44	4592
2026-01-21 13:39:37.65	283.71	21.18	-37.0	-38.5	16.5	0.00e+00	0	59	0	1950351360	44	4587
2026-01-21 13:39:38.66	283.97	21.15	-37.0	-38.5	16.6	0.00e+00	0	59	0	1955594240	44	4590
2026-01-21 13:39:39.67	284.22	21.12	-37.0	-38.6	16.5	0.00e+00	0	59	0	1961885696	44	4603
2026-01-21 13:39:40.68	284.48	21.09	-37.1	-38.6	16.5	0.00e+00	0	59	0	1967128576	44	4649
2026-01-21 13:39:41.69	284.73	21.05	-37.0	-38.6	16.5	0.00e+00	0	59	0	1973420032	44	4630
2026-01-21 13:39:42.70	284.99	21.02	-37.0	-38.6	16.5	0.00e+00	0	59	0	1978662912	44	4617
2026-01-21 13:39:43.71	285.24	20.99	-36.9	-38.5	16.6	0.00e+00	0	59	0	1984954368	44	4555
2026-01-21 13:39:44.72	285.50	20.96	-37.0	-38.5	16.6	0.00e+00	0	59	0	1990197248	44	4576
2026-01-21 13:39:45.73	285.75	20.92	-36.9	-38.5	16.6	0.00e+00	0	59	0	1995440128	44	4561
2026-01-21 13:39:46.74	286.00	20.89	-36.8	-38.3	16.8	0.00e+00	0	59	0	2001731584	44	4463
2026-01-21 13:39:47.75	286.25	20.86	-36.8	-38.3	16.8	0.00e+00	0	59	0	2006974464	44	4484
2026-01-21 13:39:48.76	286.51	20.82	-36.8	-38.3	16.8	0.00e+00	0	59	0	2013265920	44	4478
2026-01-21 13:39:49.77	286.76	20.79	-36.8	-38.3	16.8	0.00e+00	0	59	0	2018508800	44	4483
2026-01-21 13:39:50.78	287.01	20.75	-36.9	-38.4	16.6	0.00e+00	0	59	0	2023751680	44	4544
2026-01-21 13:39:51.79	287.26	20.72	-36.9	-38.4	16.6	0.00e+00	0	59	0	2030043136	44	4538
2026-01-21 13:39:52.80	287.51	20.68	-36.8	-38.4	16.7	0.00e+00	0	59	0	2035286016	44	4494
2026-01-21 13:39:53.81	287.75	20.64	-36.9	-38.5	16.6	0.00e+00	0	59	0	2041577472	44	4568
2026-01-21 13:39:54.82	288.00	20.60	-37.0	-38.5	16.5	0.00e+00	0	59	0	2046820352	44	4575
2026-01-21 13:39:55.83	288.25	20.57	-36.9	-38.5	16.6	0.00e+00	0	59	0	2052063232	44	4546
2026-01-21 13:39:56.84	288.50	20.53	-36.9	-38.4	16.6	0.00e+00	0	59	0	2058354688	44	4531
2026-01-21 13:39:57.85	288.74	20.49	-37.0	-38.6	16.5	0.00e+00	0	59	0	2063597568	44	4614
2026-01-21 13:39:58.86	288.99	20.45	-37.1	-38.7	16.4	0.00e+00	0	59	0	2069889024	44	4666
2026-01-21 13:39:59.87	289.23	20.41	-37.0	-38.6	16.5	0.00e+00	0	59	0	2075131904	44	4617
2026-01-21 13:40:00.88	289.48	20.37	-37.0	-38.6	16.5	0.00e+00	0	59	0	2080374784	44	4605
2026-01-21 13:40:01.89	289.72	20.33	-37.1	-38.7	16.4	0.00e+00	0	59	0	2086666240	44	4671
2026-01-21 13:40:02.90	289.96	20.29	-37.1	-38.7	16.3	0.00e+00	0	59	0	2092957696	44	4702
2026-01-21 13:40:03.91	290.20	20.24	-37.1	-38.7	16.3	0.00e+00	0	59	0	2098200576	44	4691
2026-01-21 13:40:04.92	290.45	20.20	-37.2	-38.8	16.3	0.00e+00	0	59	0	2103443456	44	4721
2026-01-21 13:40:05.93	290.69	20.16	-37.3	-38.9	16.2	0.00e+00	0	59	0	2109734912	45	4511
2026-01-21 13:40:06.94	290.93	20.12	-37.2	-38.9	16.2	0.00e+00	0	59	0	2114977792	45	4502
2026-01-21 13:40:07.95	291.17	20.07	-37.3	-38.9	16.1	0.00e+00	0	59	0	2121269248	45	4529
2026-01-21 13:40:08.95	291.40	20.03	-37.2	-38.9	16.2	0.00e+00	0	59	0	2126512128	45	4503
2026-01-21 13:40:09.96	291.64	19.98	-37.2	-38.8	16.2	0.00e+00	0	59	0	2131755008	45	4479
2026-01-21 13:40:10.97	291.88	19.94	-37.2	-38.8	16.2	0.00e+00	0	59	0	2138046464	45	4490
2026-01-21 13:40:11.98	292.12	19.90	-37.3	-38.9	16.2	0.00e+00	0	59	0	2143289344	45	4521
2026-01-21 13:40:12.99	292.35	19.85	-37.3	-39.0	16.1	0.00e+00	0	59	0	2149580800	45	4567
2026-01-21 13:40:14.00	292.59	19.80	-37.3	-39.0	16.1	0.00e+00	0	59	0	2154823680	45	4568
2026-01-21 13:40:15.01	292.82	19.76	-37.2	-38.8	16.2	0.00e+00	0	59	0	2160066560	45	4493
2026-01-21 13:40:16.02	293.06	19.71	-37.2	-38.8	16.3	0.00e+00	0	59	0	2166358016	45	4464
2026-01-21 13:40:17.03	293.29	19.66	-37.3	-38.9	16.2	0.00e+00	0	59	0	2171600896	45	4511
2026-01-21 13:40:18.04	293.52	19.62	-37.3	-38.9	16.1	0.00e+00	0	59	0	2177892352	45	4543
2026-01-21 13:40:19.04	293.75	19.57	-37.3	-38.9	16.1	0.00e+00	0	59	0	2183135232	45	4528
2026-01-21 13:40:20.05	293.98	19.52	-37.3	-39.0	16.0	0.00e+00	0	59	0	2188378112	45	4570
2026-01-21 13:40:21.06	294.22	19.47	-37.4	-39.1	16.0	0.00e+00	0	59	0	2194669568	45	4612
2026-01-21 13:40:22.08	294.45	19.42	-37.4	-39.1	15.9	0.00e+00	0	59	0	2199912448	45	4614
2026-01-21 13:40:23.08	294.67	19.37	-37.4	-39.1	16.0	0.00e+00	0	59	0	2206203904	45	4602
2026-01-21 13:40:24.10	294.90	19.32	-37.4	-39.1	16.0	0.00e+00	0	59	0	2211446784	45	4606
2026-01-21 13:40:25.11	295.13	19.27	-37.5	-39.2	15.9	0.00e+00	0	59	0	2217738240	45	4667
2026-01-21 13:40:26.12	295.36	19.22	-37.4	-39.1	16.0	0.00e+00	0	59	0	2222981120	45	4620
2026-01-21 13:40:27.13	295.59	19.17	-37.4	-39.1	15.9	0.00e+00	0	59	0	2228224000	45	4634
2026-01-21 13:40:28.14	295.81	19.12	-37.5	-39.2	15.8	0.00e+00	0	59	0	2234515456	45	4655
2026-01-21 13:40:29.15	296.04	19.07	-37.5	-39.1	15.9	0.00e+00	0	59	0	2239758336	45	4636
2026-01-21 13:40:30.15	296.26	19.02	-37.3	-39.0	16.1	0.00e+00	0	59	0	2246049792	45	4549
2026-01-21 13:40:31.16	296.48	18.97	-37.4	-39.0	16.0	0.00e+00	0	59	0	2251292672	45	4579
2026-01-21 13:40:32.17	296.70	18.92	-37.5	-39.1	15.9	0.00e+00	0	59	0	2256535552	45	4635
2026-01-21 13:40:33.18	296.93	18.86	-37.4	-39.1	15.9	0.00e+00	0	59	0	2262827008	45	4614
2026-01-21 13:40:34.19	297.15	18.81	-37.5	-39.2	15.9	0.00e+00	0	59	0	2268069888	45	4654
2026-01-21 13:40:35.20	297.37	18.76	-37.5	-39.1	15.9	0.00e+00	0	59	0	2274361344	45	4635
2026-01-21 13:40:36.21	297.59	18.70	-37.5	-39.1	15.9	0.00e+00	0	59	0	2279604224	45	4650
2026-01-21 13:40:37.22	297.80	18.65	-37.4	-39.1	15.9	0.00e+00	0	59	0	2284847104	45	4635
2026-01-21 13:40:38.23	298.02	18.60	-37.4	-39.1	15.9	0.00e+00	0	59	0	2291138560	45	4637
2026-01-21 13:40:39.24	298.24	18.54	-37.4	-39.1	15.9	0.00e+00	0	59	0	2296381440	45	4635
2026-01-21 13:40:40.25	298.46	18.49	-37.5	-39.2	15.9	0.00e+00	0	59	0	2302672896	45	4652
2026-01-21 13:40:41.26	298.67	18.43	-37.5	-39.2	15.8	0.00e+00	0	59	0	2307915776	45	4664
2026-01-21 13:40:42.27	298.89	18.38	-37.5	-39.2	15.8	0.00e+00	0	59	0	2314207232	45	4689
2026-01-21 13:40:43.28	299.10	18.32	-37.5	-39.2	15.8	0.00e+00	0	59	0	2319450112	45	4696
2026-01-21 13:40:44.29	299.31	18.27	-37.5	-39.1	15.8	0.00e+00	0	59	0	2325741568	45	4651
2026-01-21 13:40:45.30	299.53	18.21	-37.4	-39.1	15.9	0.00e+00	0	59	0	2330984448	45	4630
2026-01-21 13:40:46.31	299.74	18.16	-37.4	-39.1	15.8	0.00e+00	0	59	0	2336227328	45	4640
2026-01-21 13:40:47.32	299.95	18.10	-37.4	-39.0	15.9	0.00e+00	0	59	0	2342518784	45	4596
2026-01-21 13:40:48.33	300.16	18.04	-37.3	-38.9	16.1	0.00e+00	0	59	0	2347761664	45	4510
2026-01-21 13:40:49.34	300.37	17.99	-37.4	-39.0	16.0	0.00e+00	0	59	0	2354053120	45	4568
2026-01-21 13:40:50.35	300.58	17.93	-37.4	-39.0	15.9	0.00e+00	0	59	0	2359296000	45	4585
2026-01-21 13:40:51.36	300.79	17.87	-37.6	-39.3	15.7	0.00e+00	0	59	0	2364538880	45	4738
2026-01-21 13:40:52.37	300.99	17.81	-37.7	-39.4	15.6	0.00e+00	0	59	0	2370830336	45	4800
2026-01-21 13:40:53.38	301.20	17.76	-37.8	-39.6	15.4	0.00e+00	0	59	0	2376073216	46	4602
2026-01-21 13:40:54.39	301.41	17.70	-37.9	-39.7	15.3	0.00e+00	0	59	0	2382364672	46	4662
2026-01-21 13:40:55.40	301.61	17.64	-37.9	-39.7	15.3	0.00e+00	0	59	0	2387607552	46	4683
2026-01-21 13:40:56.41	301.81	17.58	-37.9	-39.7	15.2	0.00e+00	0	59	0	2392850432	46	4698
2026-01-21 13:40:57.42	302.02	17.52	-37.8	-39.6	15.3	0.00e+00	0	59	0	2399141888	46	4629
2026-01-21 13:40:58.43	302.22	17.47	-37.8	-39.5	15.4	0.00e+00	0	59	0	2404384768	46	4598
2026-01-21 13:40:59.44	302.42	17.41	-37.8	-39.5	15.4	0.00e+00	0	59	0	2410676224	46	4572
2026-01-21 13:41:00.45	302.62	17.35	-37.8	-39.5	15.5	0.00e+00	0	59	0	2415919104	46	4569
2026-01-21 13:41:01.46	302.82	17.29	-37.7	-39.5	15.5	0.00e+00	0	59	0	2422210560	46	4558
2026-01-21 13:41:02.47	303.02	17.23	-37.7	-39.4	15.5	0.00e+00	0	59	0	2427453440	46	4535
2026-01-21 13:41:03.48	303.22	17.17	-37.8	-39.5	15.5	0.00e+00	0	59	0	2432696320	46	4571
2026-01-21 13:41:04.49	303.42	17.11	-37.8	-39.5	15.4	0.00e+00	0	59	0	2438987776	46	4595
2026-01-21 13:41:05.49	303.61	17.05	-37.7	-39.5	15.5	0.00e+00	0	59	0	2444230656	46	4576
2026-01-21 13:41:06.50	303.81	16.99	-37.7	-39.5	15.5	0.00e+00	0	59	0	2450522112	46	4558
2026-01-21 13:41:07.51	304.01	16.93	-37.8	-39.5	15.4	0.00e+00	0	59	0	2455764992	46	4594
2026-01-21 13:41:08.52	304.20	16.87	-37.6	-39.3	15.6	0.00e+00	0	59	0	2461007872	46	4471
2026-01-21 13:41:09.53	304.40	16.81	-37.7	-39.4	15.6	0.00e+00	0	59	0	2467299328	46	4508
2026-01-21 13:41:10.54	304.59	16.75	-37.7	-39.5	15.4	0.00e+00	0	59	0	2472542208	46	4556
2026-01-21 13:41:11.55	304.78	16.69	-37.7	-39.5	15.5	0.00e+00	0	59	0	2478833664	46	4554
2026-01-21 13:41:12.56	304.97	16.62	-37.8	-39.6	15.4	0.00e+00	0	59	0	2484076544	46	4608
2026-01-21 13:41:13.57	305.16	16.56	-37.9	-39.8	15.2	0.00e+00	0	59	0	2489319424	46	4710
2026-01-21 13:41:14.58	305.36	16.50	-38.0	-39.8	15.1	0.00e+00	0	59	0	2495610880	46	4744
2026-01-21 13:41:15.59	305.54	16.44	-38.1	-40.0	14.9	0.00e+00	0	59	0	2500853760	46	4822
2026-01-21 13:41:16.60	305.73	16.38	-38.1	-40.0	15.0	0.00e+00	0	59	0	2507145216	46	4817
2026-01-21 13:41:17.61	305.92	16.32	-38.1	-40.0	14.9	0.00e+00	0	59	0	2512388096	46	4833
2026-01-21 13:41:18.62	306.11	16.25	-38.1	-40.0	14.9	0.00e+00	0	59	0	2518679552	46	4838
2026-01-21 13:41:19.63	306.30	16.19	-38.2	-40.0	14.8	1.10e-06	0	59	0	2523922432	46	4870
2026-01-21 13:41:20.64	306.48	16.13	-38.3	-40.1	14.8	0.00e+00	0	59	0	2530213888	47	4641
2026-01-21 13:41:21.65	306.67	16.07	-38.4	-40.3	14.6	1.10e-06	0	59	0	2535456768	47	4734
2026-01-21 13:41:22.66	306.85	16.01	-38.4	-40.4	14.5	1.10e-06	0	59	0	2540699648	47	4765
2026-01-21 13:41:23.67	307.03	15.94	-38.5	-40.5	14.4	1.10e-06	0	59	0	2546991104	47	4842
2026-01-21 13:41:24.68	307.22	15.88	-38.4	-40.3	14.6	1.10e-06	0	59	0	2552233984	47	4752
2026-01-21 13:41:25.69	307.40	15.82	-38.4	-40.3	14.5	1.10e-06	0	59	0	2558525440	47	4754
2026-01-21 13:41:26.70	307.58	15.75	-38.4	-40.3	14.6	1.10e-06	0	59	0	2563768320	47	4737
2026-01-21 13:41:27.71	307.76	15.69	-38.4	-40.3	14.6	0.00e+00	0	59	0	2569011200	47	4726
2026-01-21 13:41:28.72	307.94	15.63	-38.4	-40.3	14.6	0.00e+00	0	59	0	2575302656	47	4755
2026-01-21 13:41:29.73	308.12	15.57	-38.2	-40.0	14.8	1.10e-06	0	59	0	2580545536	47	4579
2026-01-21 13:41:30.74	308.30	15.50	-38.1	-39.9	15.0	0.00e+00	0	59	0	2586836992	47	4525
2026-01-21 13:41:31.74	308.47	15.44	-38.0	-39.8	15.1	0.00e+00	0	59	0	2592079872	47	4482
2026-01-21 13:41:32.75	308.65	15.38	-38.0	-39.9	15.0	0.00e+00	0	59	0	2597322752	47	4510
2026-01-21 13:41:33.76	308.83	15.31	-38.1	-40.0	14.9	0.00e+00	0	59	0	2603614208	47	4568
2026-01-21 13:41:34.77	309.00	15.25	-38.2	-40.1	14.8	0.00e+00	0	59	0	2608857088	47	4603
2026-01-21 13:41:35.78	309.18	15.18	-38.0	-39.9	15.0	0.00e+00	0	59	0	2615148544	47	4511
2026-01-21 13:41:36.79	309.35	15.12	-38.0	-39.8	15.1	0.00e+00	0	59	0	2620391424	47	4483
2026-01-21 13:41:37.80	309.52	15.06	-38.0	-39.8	15.0	0.00e+00	0	59	0	2626682880	47	4491
2026-01-21 13:41:38.81	309.70	14.99	-38.0	-39.9	15.0	0.00e+00	0	59	0	2631925760	47	4507
2026-01-21 13:41:39.82	309.87	14.93	-38.1	-40.0	14.9	0.00e+00	0	59	0	2637168640	47	4548
2026-01-21 13:41:40.82	310.04	14.87	-38.1	-40.0	14.9	0.00e+00	0	59	0	2643460096	47	4553
2026-01-21 13:41:41.83	310.21	14.80	-38.0	-39.9	15.0	0.00e+00	0	59	0	2648702976	47	4508
2026-01-21 13:41:42.84	310.38	14.74	-38.1	-39.9	14.9	0.00e+00	0	59	0	2654994432	47	4537
2026-01-21 13:41:43.85	310.55	14.67	-38.2	-40.0	14.8	0.00e+00	0	59	0	2660237312	47	4585
2026-01-21 13:41:44.86	310.71	14.61	-38.2	-40.1	14.7	1.10e-06	0	59	0	2665480192	47	4622
2026-01-21 13:41:45.87	310.88	14.54	-38.3	-40.1	14.7	0.00e+00	0	59	0	2671771648	47	4647
2026-01-21 13:41:46.88	311.05	14.48	-38.3	-40.2	14.6	1.10e-06	0	59	0	2677014528	47	4686
2026-01-21 13:41:47.89	311.21	14.42	-38.3	-40.3	14.5	1.10e-06	0	59	0	2683305984	47	4724
2026-01-21 13:41:48.90	311.38	14.35	-38.4	-40.4	14.5	1.10e-06	0	59	0	2688548864	47	4769
2026-01-21 13:41:49.91	311.54	14.29	-38.4	-40.3	14.5	0.00e+00	0	59	0	2693791744	47	4744
2026-01-21 13:41:50.92	311.71	14.22	-38.4	-40.4	14.4	1.10e-06	0	59	0	2700083200	47	4799
2026-01-21 13:41:51.93	311.87	14.16	-38.5	-40.5	14.3	1.10e-06	0	59	0	2705326080	47	4824
2026-01-21 13:41:52.94	312.03	14.09	-38.6	-40.6	14.2	3.40e-06	0	59	0	2711617536	47	4893
2026-01-21 13:41:53.95	312.20	14.03	-38.5	-40.5	14.4	4.50e-06	0	59	0	2716860416	47	4816
2026-01-21 13:41:54.96	312.36	13.96	-38.4	-40.4	14.4	1.10e-06	0	59	0	2723151872	47	4793
2026-01-21 13:41:55.97	312.52	13.90	-38.5	-40.4	14.4	2.20e-06	0	59	0	2728394752	47	4807
2026-01-21 13:41:56.98	312.68	13.83	-38.5	-40.5	14.3	5.70e-06	0	59	0	2734686208	47	4862
2026-01-21 13:41:57.99	312.84	13.77	-38.5	-40.6	14.2	1.10e-06	0	59	0	2739929088	47	4873
2026-01-21 13:41:59.00	312.99	13.70	-38.6	-40.6	14.1	6.80e-06	0	59	0	2745171968	47	4922
2026-01-21 13:42:00.01	313.15	13.64	-38.6	-40.7	14.1	3.40e-06	0	59	0	2751463424	47	4950
2026-01-21 13:42:01.02	313.31	13.57	-38.7	-40.8	14.0	2.20e-06	0	59	0	2756706304	47	4994
2026-01-21 13:42:02.03	313.47	13.51	-38.7	-40.7	14.0	3.40e-06	0	59	0	2762997760	47	4981
2026-01-21 13:42:03.04	313.62	13.44	-38.6	-40.6	14.1	5.70e-06	0	59	0	2768240640	47	4924
2026-01-21 13:42:04.05	313.78	13.38	-38.5	-40.5	14.2	2.20e-06	0	59	0	2773483520	47	4859
2026-01-21 13:42:05.06	313.93	13.31	-38.6	-40.6	14.2	0.00e+00	0	59	0	2779774976	47	4880
2026-01-21 13:42:06.06	314.08	13.25	-38.6	-40.6	14.1	2.20e-06	0	59	0	2785017856	47	4901
2026-01-21 13:42:07.07	314.24	13.19	-38.6	-40.7	14.1	3.40e-06	0	59	0	2791309312	47	4937
2026-01-21 13:42:08.08	314.39	13.12	-38.5	-40.5	14.3	1.10e-06	0	59	0	2796552192	47	4834
2026-01-21 13:42:09.09	314.54	13.06	-38.5	-40.5	14.2	1.10e-06	0	59	0	2801795072	47	4848
2026-01-21 13:42:10.10	314.69	12.99	-38.6	-40.6	14.1	1.10e-06	0	59	0	2808086528	47	4901
2026-01-21 13:42:11.11	314.84	12.93	-38.6	-40.6	14.1	4.50e-06	0	59	0	2813329408	47	4917
2026-01-21 13:42:12.12	314.99	12.86	-38.6	-40.6	14.1	3.40e-06	0	59	0	2819620864	47	4904
2026-01-21 13:42:13.13	315.14	12.80	-38.5	-40.5	14.2	5.70e-06	0	59	0	2824863744	47	4843
2026-01-21 13:42:14.14	315.29	12.73	-38.5	-40.5	14.2	3.40e-06	0	59	0	2831155200	47	4870
2026-01-21 13:42:15.15	315.44	12.67	-38.5	-40.6	14.2	5.70e-06	0	59	0	2836398080	47	4884
2026-01-21 13:42:16.15	315.58	12.60	-38.5	-40.6	14.1	3.40e-06	0	59	0	2841640960	47	4880
2026-01-21 13:42:17.17	315.73	12.54	-38.5	-40.6	14.1	3.40e-06	0	59	0	2847932416	47	4898
2026-01-21 13:42:18.18	315.88	12.47	-38.6	-40.7	14.1	3.40e-06	0	59	0	2853175296	47	4928
2026-01-21 13:42:19.19	316.02	12.41	-38.6	-40.6	14.1	6.80e-06	0	59	0	2859466752	47	4923
2026-01-21 13:42:20.20	316.17	12.34	-38.5	-40.6	14.1	3.40e-06	0	59	0	2864709632	47	4878
2026-01-21 13:42:21.21	316.31	12.28	-38.6	-40.7	14.0	6.80e-06	0	59	0	2869952512	47	4945
2026-01-21 13:42:22.22	316.46	12.21	-38.6	-40.7	14.0	1.10e-06	0	59	0	2876243968	47	4944
2026-01-21 13:42:23.23	316.60	12.15	-38.6	-40.7	14.0	4.50e-06	0	59	0	2881486848	47	4936
2026-01-21 13:42:24.24	316.74	12.08	-38.7	-40.7	13.9	4.50e-06	0	59	0	2887778304	47	4979
2026-01-21 13:42:25.25	316.88	12.02	-38.7	-40.7	13.9	3.40e-06	0	59	0	2893021184	47	4977
2026-01-21 13:42:26.26	317.03	11.95	-38.7	-40.8	13.9	1.37e-05	0	59	0	2898264064	47	5011
2026-01-21 13:42:27.27	317.17	11.89	-38.9	-41.0	13.8	9.10e-06	0	59	0	2904555520	48	4827
2026-01-21 13:42:28.28	317.31	11.82	-38.9	-41.0	13.8	1.14e-05	0	59	0	2909798400	48	4822
2026-01-21 13:42:29.29	317.45	11.76	-38.9	-41.1	13.7	1.25e-05	0	59	0	2916089856	48	4873
2026-01-21 13:42:30.30	317.58	11.69	-39.0	-41.1	13.6	1.14e-05	0	59	0	2921332736	48	4917
2026-01-21 13:42:31.30	317.72	11.63	-39.1	-41.3	13.5	1.94e-05	0	59	0	2927624192	48	5000
2026-01-21 13:42:32.31	317.86	11.56	-39.1	-41.3	13.4	3.54e-05	0	59	0	2932867072	48	5037
2026-01-21 13:42:33.32	318.00	11.50	-39.1	-41.3	13.4	2.63e-05	0	59	0	2939158528	48	5029
2026-01-21 13:42:34.33	318.13	11.43	-39.2	-41.4	13.3	2.51e-05	0	59	0	2944401408	48	5068
2026-01-21 13:42:35.34	318.27	11.37	-39.1	-41.4	13.3	3.54e-05	0	59	0	2949644288	48	5068
2026-01-21 13:42:36.35	318.40	11.30	-39.2	-41.4	13.3	3.43e-05	0	59	0	2955935744	49	4799
2026-01-21 13:42:37.36	318.54	11.24	-39.1	-41.4	13.3	3.43e-05	0	59	0	2961178624	49	4768
2026-01-21 13:42:38.37	318.67	11.17	-39.1	-41.2	13.4	1.14e-05	0	59	0	2967470080	49	4699
2026-01-21 13:42:39.38	318.81	11.11	-39.0	-41.2	13.5	2.05e-05	0	59	0	2972712960	49	4680
2026-01-21 13:42:40.39	318.94	11.05	-39.0	-41.2	13.5	2.17e-05	0	59	0	2977955840	49	4673
2026-01-21 13:42:41.40	319.07	10.98	-39.0	-41.1	13.6	1.83e-05	0	59	0	2984247296	49	4624
2026-01-21 13:42:42.41	319.20	10.92	-39.0	-41.2	13.5	1.02e-05	0	59	0	2989490176	49	4664
2026-01-21 13:42:43.42	319.34	10.85	-39.0	-41.2	13.5	1.60e-05	0	59	0	2995781632	49	4667
2026-01-21 13:42:44.43	319.47	10.79	-39.1	-41.2	13.4	2.17e-05	0	59	0	3001024512	49	4695
2026-01-21 13:42:45.44	319.60	10.72	-39.1	-41.3	13.3	2.40e-05	0	59	0	3006267392	49	4742
2026-01-21 13:42:46.45	319.73	10.66	-39.1	-41.4	13.3	2.86e-05	0	59	0	3012558848	49	4773
2026-01-21 13:42:47.46	319.86	10.60	-39.2	-41.5	13.1	3.89e-05	0	59	0	3017801728	49	4841
2026-01-21 13:42:48.47	319.98	10.53	-39.3	-41.6	13.0	6.06e-05	0	59	0	3024093184	49	4893
2026-01-21 13:42:49.48	320.11	10.47	-39.3	-41.6	13.0	7.09e-05	0	59	0	3029336064	49	4913
2026-01-21 13:42:50.49	320.24	10.40	-39.3	-41.7	13.0	5.37e-05	0	59	0	3035627520	49	4928
2026-01-21 13:42:51.50	320.37	10.34	-39.3	-41.7	13.0	6.75e-05	0	59	0	3040870400	49	4934
2026-01-21 13:42:52.51	320.49	10.28	-39.3	-41.7	12.9	6.06e-05	0	59	0	3046113280	49	4939
2026-01-21 13:42:53.52	320.62	10.21	-39.4	-41.8	12.8	8.58e-05	0	59	0	3052404736	49	5005
2026-01-21 13:42:54.53	320.74	10.15	-39.4	-41.8	12.8	9.95e-05	0	59	0	3057647616	49	4998
2026-01-21 13:42:55.54	320.87	10.08	-39.4	-41.8	12.7	1.26e-04	0	59	0	3063939072	49	5034
2026-01-21 13:42:56.55	320.99	10.02	-39.4	-41.7	12.8	1.06e-04	0	59	0	3069181952	49	4981
2026-01-21 13:42:57.55	321.12	9.96	-39.4	-41.7	12.8	1.04e-04	0	59	0	3074424832	49	4981
2026-01-21 13:42:58.56	321.24	9.89	-39.4	-41.7	12.8	8.23e-05	0	59	0	3080716288	49	4965
2026-01-21 13:42:59.57	321.36	9.83	-39.4	-41.8	12.8	7.66e-05	0	59	0	3085959168	49	4985
2026-01-21 13:43:00.58	321.48	9.77	-39.3	-41.7	12.8	8.23e-05	0	59	0	3092250624	49	4955
2026-01-21 13:43:01.59	321.61	9.70	-39.4	-41.7	12.8	9.49e-05	0	59	0	3097493504	49	4976
2026-01-21 13:43:02.60	321.73	9.64	-39.4	-41.8	12.7	1.30e-04	0	59	0	3102736384	49	4988
2026-01-21 13:43:03.61	321.85	9.58	-39.3	-41.7	12.8	8.35e-05	0	59	0	3109027840	49	4952
2026-01-21 13:43:04.62	321.97	9.51	-39.5	-41.9	12.6	1.41e-04	0	59	0	3114270720	49	5070
2026-01-21 13:43:05.63	322.09	9.45	-39.4	-41.8	12.7	1.40e-04	0	59	0	3120562176	49	4990
2026-01-21 13:43:06.64	322.21	9.39	-39.4	-41.9	12.6	1.46e-04	0	59	0	3125805056	49	5053
2026-01-21 13:43:07.65	322.33	9.32	-39.5	-42.0	12.5	1.57e-04	0	59	0	3132096512	49	5111
2026-01-21 13:43:08.66	322.44	9.26	-39.4	-41.9	12.6	1.37e-04	0	59	0	3137339392	49	5056
2026-01-21 13:43:09.66	322.56	9.20	-39.5	-42.0	12.5	1.82e-04	0	59	0	3142582272	49	5136
2026-01-21 13:43:10.67	322.68	9.13	-39.6	-42.1	12.4	1.79e-04	0	59	0	3148873728	49	5160
2026-01-21 13:43:11.68	322.79	9.07	-39.5	-42.0	12.4	1.93e-04	0	59	0	3154116608	49	5135
2026-01-21 13:43:12.69	322.91	9.01	-39.6	-42.1	12.4	2.06e-04	0	59	0	3160408064	49	5179
2026-01-21 13:43:13.70	323.03	8.95	-39.7	-42.3	12.2	3.41e-04	0	59	0	3165650944	49	5281
2026-01-21 13:43:14.71	323.14	8.88	-39.5	-42.0	12.4	3.03e-04	0	59	0	3170893824	50	4850
2026-01-21 13:43:15.72	323.26	8.82	-39.6	-42.1	12.4	2.46e-04	0	59	0	3177185280	50	4874
2026-01-21 13:43:16.73	323.37	8.76	-39.6	-42.1	12.3	2.82e-04	0	59	0	3182428160	50	4910
2026-01-21 13:43:17.74	323.49	8.69	-39.6	-42.1	12.3	2.88e-04	0	59	0	3188719616	50	4888
2026-01-21 13:43:18.75	323.60	8.63	-39.6	-42.1	12.3	3.36e-04	0	59	0	3193962496	50	4889
2026-01-21 13:43:19.75	323.71	8.57	-39.4	-41.8	12.6	1.66e-04	0	59	0	3199205376	50	4737
2026-01-21 13:43:20.76	323.82	8.51	-39.3	-41.7	12.7	1.42e-04	0	59	0	3205496832	50	4684
2026-01-21 13:43:21.77	323.94	8.45	-39.4	-41.8	12.6	1.73e-04	0	59	0	3210739712	50	4722
2026-01-21 13:43:22.78	324.05	8.38	-39.5	-42.0	12.4	2.00e-04	0	59	0	3217031168	50	4828
2026-01-21 13:43:23.79	324.16	8.32	-39.5	-42.0	12.4	2.09e-04	0	59	0	3222274048	50	4829
2026-01-21 13:43:24.80	324.27	8.26	-39.6	-42.1	12.3	2.56e-04	0	59	0	3228565504	50	4895
2026-01-21 13:43:25.81	324.38	8.20	-39.6	-42.1	12.2	2.71e-04	0	59	0	3233808384	50	4903
2026-01-21 13:43:26.82	324.49	8.13	-39.7	-42.2	12.1	2.95e-04	0	59	0	3240099840	50	4983
2026-01-21 13:43:27.83	324.60	8.07	-39.7	-42.2	12.1	3.92e-04	0	59	0	3245342720	50	4978
2026-01-21 13:43:28.84	324.71	8.01	-39.7	-42.4	12.0	4.26e-04	0	59	0	3250585600	50	5047
2026-01-21 13:43:29.85	324.82	7.95	-43.1	-49.6	4.5	1.58e-01	0	59	104	3254779904	57	7725
2026-01-21 13:43:30.86	324.92	7.89	-44.5	-55.9	3.8	8.45e-01	0	59	104	3254779904	59	14349
2026-01-21 13:43:31.87	325.03	7.83	-44.7	-56.4	3.8	8.45e-01	0	59	104	3254779904	60	14307
2026-01-21 13:43:32.88	325.14	7.76	-44.9	-56.6	3.8	8.47e-01	0	59	104	3254779904	60	14668
2026-01-21 13:43:33.89	325.25	7.70	-45.0	-56.7	3.8	8.47e-01	0	59	104	3254779904	60	14845
2026-01-21 13:43:34.91	325.35	7.64	-45.1	-56.8	3.8	8.45e-01	0	59	104	3254779904	60	14969
2026-01-21 13:43:35.92	325.46	7.58	-45.1	-56.8	3.8	8.45e-01	0	59	104	3254779904	60	15023
2026-01-21 13:43:36.93	325.56	7.52	-45.2	-56.9	3.8	8.46e-01	0	59	104	3254779904	60	15114
2026-01-21 13:43:37.94	325.67	7.46	-45.2	-56.9	3.8	8.46e-01	0	59	104	3254779904	60	15159
2026-01-21 13:43:38.95	325.77	7.40	-45.2	-56.9	3.8	8.47e-01	0	59	104	3254779904	60	15145
2026-01-21 13:43:39.96	325.88	7.33	-45.1	-56.8	3.8	8.47e-01	0	59	104	3254779904	60	15026
2026-01-21 13:43:40.96	325.98	7.27	-45.1	-56.8	3.8	8.47e-01	0	59	104	3254779904	60	15011
2026-01-21 13:43:41.98	326.08	7.21	-45.1	-56.9	3.8	8.46e-01	0	59	104	3254779904	60	15092
2026-01-21 13:43:42.99	326.19	7.15	-45.1	-56.8	3.8	8.47e-01	0	59	104	3254779904	60	15025
2026-01-21 13:43:44.00	326.29	7.09	-44.7	-56.8	3.8	8.46e-01	0	59	104	3254779904	60	14964
2026-01-21 13:43:45.01	326.39	7.03	-45.0	-56.8	3.8	8.47e-01	0	59	104	3254779904	60	14938
2026-01-21 13:43:46.01	326.49	6.97	-45.1	-56.8	3.8	8.46e-01	0	59	104	3254779904	60	14954
2026-01-21 13:43:47.03	326.60	6.91	-45.1	-56.8	3.8	8.46e-01	0	59	104	3254779904	60	14924
2026-01-21 13:43:48.04	326.70	6.85	-45.1	-56.8	3.8	8.48e-01	0	59	104	3254779904	60	14944
2026-01-21 13:43:49.05	326.80	6.79	-45.1	-56.8	3.8	8.46e-01	0	59	104	3254779904	60	14935
2026-01-21 13:43:50.06	326.90	6.73	-45.0	-56.8	3.8	8.47e-01	0	59	104	3254779904	60	14987
2026-01-21 13:43:51.07	327.00	6.67	-45.1	-56.8	3.8	8.46e-01	0	59	104	3254779904	60	14901
2026-01-21 13:43:52.08	327.10	6.61	-45.0	-56.7	3.8	8.47e-01	0	59	104	3254779904	60	14847
2026-01-21 13:43:53.09	327.20	6.55	-45.1	-56.8	3.8	8.46e-01	0	59	104	3254779904	60	14943
2026-01-21 13:43:54.10	327.29	6.49	-45.1	-56.8	3.8	8.45e-01	0	59	104	3254779904	60	14889
2026-01-21 13:43:55.11	327.39	6.43	-44.6	-56.8	3.8	8.46e-01	0	59	104	3254779904	60	14903
2026-01-21 13:43:56.12	327.49	6.37	-45.1	-56.8	3.8	8.46e-01	0	59	104	3254779904	60	14987
2026-01-21 13:43:57.13	327.59	6.31	-45.1	-56.8	3.8	8.45e-01	0	59	104	3254779904	60	14914
2026-01-21 13:43:58.14	327.68	6.25	-45.0	-56.8	3.8	8.46e-01	0	59	104	3254779904	60	14899
2026-01-21 13:43:59.15	327.78	6.19	-45.0	-56.7	3.8	8.46e-01	0	59	104	3254779904	60	14862
2026-01-21 13:44:00.16	327.88	6.13	-45.0	-56.8	3.8	8.46e-01	0	59	104	3254779904	60	14917
