passes_logs/2026/01/21/R2.0S_Moscow/R2.0S_Moscow__20260121_223332_NOAA_21_JPSS-2_rec.log

#Pass ID: 20260121_223332_NOAA 21 (JPSS-2)
#Satellite: NOAA 21 (JPSS-2)
#Configuration: NOAA-21
#almurnet v.1.7.20251203
#Start time: 2026-01-21 22:33:31

#Version: 2.2.20231116
#Station: R2.0S_Moscow
#Location: 37.707566 lon 55.798166 lat
#TLE: 1 54234U 22150A   26020.93347024  .00000206  00000+0  11859-3 0  9994
#TLE: 2 54234  98.7506 321.7615 0000627 245.8100 114.3011 14.19536899165654

#Time	Az	El	Level	Level2	SNR	BER	BlckErr	Temp	State	Recorded	gain1	gain2
2026-01-21 22:33:31.93	22.20	1.98	-43.0	-55.3	3.8	1.49e+00	0	48	0	0	58	14074
2026-01-21 22:33:32.94	22.26	2.03	-43.0	-55.3	3.8	1.49e+00	0	48	104	0	57	14935
2026-01-21 22:33:33.95	22.31	2.09	-43.0	-55.3	3.8	1.49e+00	0	48	104	0	57	14888
2026-01-21 22:33:34.96	22.36	2.15	-43.0	-55.2	3.8	1.49e+00	0	49	104	0	57	14874
2026-01-21 22:33:35.97	22.42	2.21	-43.0	-55.2	3.8	1.49e+00	0	49	104	0	57	14874
2026-01-21 22:33:36.98	22.47	2.27	-43.0	-55.2	3.8	1.49e+00	0	48	104	0	57	14878
2026-01-21 22:33:37.99	22.53	2.33	-43.0	-55.3	3.8	1.49e+00	0	49	104	0	57	14904
2026-01-21 22:33:39.00	22.58	2.39	-43.0	-55.3	3.8	1.49e+00	0	49	104	0	57	14911
2026-01-21 22:33:40.02	22.64	2.45	-43.0	-55.3	3.8	1.49e+00	0	49	104	0	57	14898
2026-01-21 22:33:41.03	22.70	2.51	-43.0	-55.3	3.8	1.49e+00	0	49	104	0	57	14937
2026-01-21 22:33:42.04	22.75	2.57	-43.0	-55.3	3.8	1.49e+00	0	49	104	0	57	14937
2026-01-21 22:33:43.05	22.81	2.63	-43.0	-55.3	3.8	1.49e+00	0	49	104	0	57	14892
2026-01-21 22:33:44.06	22.86	2.69	-43.0	-55.2	3.8	1.49e+00	0	49	104	0	57	14874
2026-01-21 22:33:45.07	22.92	2.75	-43.0	-55.3	3.8	1.49e+00	0	49	104	0	57	14916
2026-01-21 22:33:46.08	22.98	2.81	-43.0	-55.3	3.8	1.49e+00	0	49	104	0	57	14890
2026-01-21 22:33:47.09	23.03	2.87	-43.0	-55.2	3.8	1.49e+00	0	49	104	0	57	14872
2026-01-21 22:33:48.10	23.09	2.94	-43.0	-55.3	3.8	1.49e+00	0	49	104	0	57	14890
2026-01-21 22:33:49.11	23.15	3.00	-43.0	-55.3	3.8	1.49e+00	0	50	104	0	57	14943
2026-01-21 22:33:50.12	23.21	3.06	-43.0	-55.3	3.8	1.49e+00	0	50	104	0	57	14888
2026-01-21 22:33:51.13	23.26	3.12	-43.0	-55.3	3.8	1.49e+00	0	50	104	0	57	14891
2026-01-21 22:33:52.14	23.32	3.18	-43.0	-55.3	3.8	1.49e+00	0	50	104	0	57	14906
2026-01-21 22:33:53.15	23.38	3.24	-43.0	-55.2	3.8	1.49e+00	0	50	104	0	57	14860
2026-01-21 22:33:54.16	23.44	3.30	-43.0	-55.2	3.8	1.49e+00	0	50	104	0	57	14872
2026-01-21 22:33:55.18	23.50	3.36	-43.0	-55.3	3.8	1.49e+00	0	50	104	0	57	14904
2026-01-21 22:33:56.19	23.56	3.43	-43.0	-55.2	3.8	1.49e+00	0	50	104	0	57	14879
2026-01-21 22:33:57.20	23.62	3.49	-43.0	-55.2	3.8	1.49e+00	0	50	104	0	57	14855
2026-01-21 22:33:58.21	23.68	3.55	-43.0	-55.3	3.8	1.49e+00	0	50	104	0	57	14914
2026-01-21 22:33:59.22	23.74	3.61	-43.0	-55.2	3.8	1.49e+00	0	50	104	0	57	14844
2026-01-21 22:34:00.23	23.80	3.67	-43.0	-55.3	3.8	1.49e+00	0	50	104	0	57	14912
2026-01-21 22:34:01.24	23.86	3.74	-43.0	-55.2	3.8	1.49e+00	0	50	104	0	57	14870
2026-01-21 22:34:02.25	23.92	3.80	-43.0	-55.2	3.8	1.49e+00	0	51	104	0	57	14836
2026-01-21 22:34:03.26	23.98	3.86	-43.0	-55.2	3.8	1.49e+00	0	50	104	0	57	14856
2026-01-21 22:34:04.27	24.04	3.92	-43.0	-55.3	3.8	1.49e+00	0	51	104	0	57	14888
2026-01-21 22:34:05.28	24.10	3.99	-43.0	-55.2	3.8	1.49e+00	0	51	104	0	57	14801
2026-01-21 22:34:06.29	24.16	4.05	-43.0	-55.2	3.8	1.49e+00	0	51	104	0	57	14850
2026-01-21 22:34:07.30	24.22	4.11	-43.0	-55.2	3.8	1.49e+00	0	51	104	0	57	14864
2026-01-21 22:34:08.31	24.28	4.18	-43.0	-55.3	3.8	1.49e+00	0	51	104	0	57	14911
2026-01-21 22:34:09.33	24.35	4.24	-43.0	-55.2	3.8	1.49e+00	0	51	104	0	57	14831
2026-01-21 22:34:10.34	24.41	4.30	-43.0	-55.2	3.8	1.49e+00	0	51	104	0	57	14867
2026-01-21 22:34:11.35	24.47	4.37	-43.0	-55.3	3.8	1.49e+00	0	51	104	0	57	14898
2026-01-21 22:34:12.36	24.53	4.43	-43.0	-55.3	3.8	1.49e+00	0	51	104	0	57	14884
2026-01-21 22:34:13.37	24.60	4.49	-43.0	-55.2	3.8	1.49e+00	0	51	104	0	57	14839
2026-01-21 22:34:14.38	24.66	4.56	-43.0	-55.2	3.8	1.49e+00	0	51	104	0	57	14859
2026-01-21 22:34:15.39	24.72	4.62	-43.0	-55.2	3.8	1.49e+00	0	51	104	0	57	14847
2026-01-21 22:34:16.40	24.79	4.69	-43.0	-55.2	3.8	1.49e+00	0	51	104	0	57	14857
2026-01-21 22:34:17.41	24.85	4.75	-43.0	-55.2	3.8	1.49e+00	0	51	104	0	57	14848
2026-01-21 22:34:18.42	24.92	4.81	-43.0	-55.2	3.8	1.49e+00	0	51	104	0	57	14862
2026-01-21 22:34:19.43	24.98	4.88	-43.0	-55.3	3.8	1.49e+00	0	51	104	0	57	14905
2026-01-21 22:34:20.44	25.04	4.94	-43.0	-55.2	3.8	1.49e+00	0	52	104	0	57	14847
2026-01-21 22:34:21.45	25.11	5.01	-43.0	-55.2	3.8	1.49e+00	0	52	104	0	57	14867
2026-01-21 22:34:22.46	25.18	5.07	-43.0	-55.2	3.8	1.49e+00	0	52	104	0	57	14836
2026-01-21 22:34:23.47	25.24	5.14	-43.0	-55.2	3.8	1.49e+00	0	52	104	0	57	14869
2026-01-21 22:34:24.48	25.31	5.20	-43.0	-55.2	3.8	1.49e+00	0	52	104	0	57	14856
2026-01-21 22:34:25.49	25.37	5.27	-43.0	-55.2	3.8	1.49e+00	0	52	104	0	57	14863
2026-01-21 22:34:26.50	25.44	5.33	-42.9	-55.2	3.8	1.49e+00	0	52	104	0	57	14871
2026-01-21 22:34:27.51	25.51	5.40	-42.9	-55.2	3.8	1.49e+00	0	52	104	0	57	14850
2026-01-21 22:34:28.52	25.57	5.47	-43.0	-55.2	3.8	1.49e+00	0	52	104	0	57	14811
2026-01-21 22:34:29.53	25.64	5.53	-43.0	-55.3	3.8	1.49e+00	0	52	104	0	57	14900
2026-01-21 22:34:30.54	25.71	5.60	-43.0	-55.2	3.8	1.49e+00	0	52	104	0	57	14821
2026-01-21 22:34:31.55	25.78	5.66	-43.0	-55.2	3.8	1.49e+00	0	52	104	0	57	14862
2026-01-21 22:34:32.56	25.84	5.73	-42.9	-55.2	3.8	1.49e+00	0	52	104	0	57	14867
2026-01-21 22:34:33.58	25.91	5.80	-42.9	-55.2	3.8	1.49e+00	0	52	104	0	57	14769
2026-01-21 22:34:34.59	25.98	5.86	-42.9	-55.2	3.8	1.49e+00	0	52	104	0	57	14829
2026-01-21 22:34:35.60	26.05	5.93	-42.9	-55.2	3.8	1.49e+00	0	52	104	0	57	14806
2026-01-21 22:34:36.61	26.12	6.00	-43.0	-55.2	3.8	1.49e+00	0	52	104	0	57	14786
2026-01-21 22:34:37.62	26.19	6.06	-42.9	-55.2	3.8	1.49e+00	0	52	104	0	57	14765
2026-01-21 22:34:38.63	26.26	6.13	-42.9	-55.2	3.8	1.49e+00	0	52	104	0	57	14747
2026-01-21 22:34:39.64	26.33	6.20	-42.9	-55.2	3.8	1.49e+00	0	52	104	0	57	14729
2026-01-21 22:34:40.65	26.40	6.27	-42.9	-55.1	3.8	1.49e+00	0	53	104	0	57	14699
2026-01-21 22:34:41.66	26.47	6.33	-42.9	-55.2	3.8	1.49e+00	0	52	104	0	57	14771
2026-01-21 22:34:42.68	26.54	6.40	-42.9	-55.2	3.8	1.49e+00	0	53	104	0	57	14734
2026-01-21 22:34:43.69	26.61	6.47	-42.9	-55.1	3.8	1.49e+00	0	53	104	0	57	14633
2026-01-21 22:34:44.70	26.69	6.54	-42.9	-55.1	3.8	1.49e+00	0	53	104	0	57	14696
2026-01-21 22:34:45.71	26.76	6.61	-42.9	-55.2	3.8	1.49e+00	0	53	104	0	57	14784
2026-01-21 22:34:46.72	26.83	6.67	-42.9	-55.1	3.8	1.49e+00	0	53	104	0	57	14700
2026-01-21 22:34:47.73	26.90	6.74	-43.0	-55.2	3.8	1.49e+00	0	53	104	0	57	14816
2026-01-21 22:34:48.74	26.98	6.81	-42.9	-55.1	3.8	1.49e+00	0	53	104	0	57	14634
2026-01-21 22:34:49.75	27.05	6.88	-43.0	-55.2	3.8	1.49e+00	0	53	104	0	57	14774
2026-01-21 22:34:50.76	27.12	6.95	-42.9	-55.2	3.8	1.49e+00	0	53	104	0	57	14824
2026-01-21 22:34:51.77	27.20	7.02	-42.9	-55.2	3.8	1.49e+00	0	53	104	0	57	14777
2026-01-21 22:34:52.78	27.27	7.09	-42.9	-55.2	3.8	1.49e+00	0	53	104	0	57	14764
2026-01-21 22:34:53.79	27.35	7.16	-42.9	-54.8	3.8	1.49e+00	0	53	104	0	57	14167
2026-01-21 22:34:54.80	27.42	7.22	-42.7	-53.0	3.9	1.49e+00	0	53	104	0	57	11529
2026-01-21 22:34:55.81	27.50	7.29	-42.5	-52.0	3.9	1.47e+00	0	53	104	0	57	10179
2026-01-21 22:34:56.83	27.57	7.36	-42.3	-49.9	4.8	1.20e+00	0	53	104	0	56	8542
2026-01-21 22:34:57.83	27.65	7.43	-42.1	-49.0	5.4	5.42e-01	0	53	0	2097152	56	7670
2026-01-21 22:34:58.84	27.73	7.50	-41.8	-48.4	5.7	4.14e-01	0	53	0	5242880	55	7548
2026-01-21 22:34:59.85	27.80	7.57	-41.5	-47.3	6.5	2.70e-01	0	53	0	8388608	55	6669
2026-01-21 22:35:00.86	27.88	7.64	-41.2	-46.3	7.4	1.27e-01	0	53	0	11534336	54	6343
2026-01-21 22:35:01.88	27.96	7.72	-41.0	-45.8	7.9	8.74e-02	0	53	0	14680064	54	5941
2026-01-21 22:35:02.89	28.03	7.79	-41.0	-45.7	8.0	6.93e-02	0	53	0	17825792	53	6269
2026-01-21 22:35:03.90	28.11	7.86	-40.9	-45.7	8.0	7.12e-02	0	54	0	20971520	53	6236
2026-01-21 22:35:04.91	28.19	7.93	-40.7	-45.0	8.7	4.27e-02	0	53	0	24117248	53	5767
2026-01-21 22:35:05.92	28.27	8.00	-41.0	-45.7	8.0	5.48e-02	0	53	0	27262976	53	6254
2026-01-21 22:35:06.93	28.35	8.07	-41.3	-46.4	7.5	1.05e-01	0	54	0	30408704	53	6750
2026-01-21 22:35:07.94	28.43	8.14	-42.1	-48.3	6.0	2.72e-01	0	53	0	33554432	54	7943
2026-01-21 22:35:08.94	28.51	8.21	-42.2	-51.6	3.9	2.22e-01	0	54	104	36700160	54	11566
2026-01-21 22:35:09.95	28.59	8.28	-42.3	-54.3	3.8	1.49e+00	0	54	104	36700160	55	14999
2026-01-21 22:35:10.96	28.67	8.36	-41.7	-46.4	8.1	1.00e+00	0	53	104	36700160	53	6797
2026-01-21 22:35:11.97	28.75	8.43	-41.1	-45.2	9.4	2.19e-02	0	54	0	38797312	54	5536
2026-01-21 22:35:12.98	28.83	8.50	-41.3	-45.6	9.0	2.53e-02	0	54	0	41943040	54	5805
2026-01-21 22:35:13.99	28.91	8.57	-41.2	-45.3	9.2	2.14e-02	0	54	0	45088768	54	5644
2026-01-21 22:35:15.00	29.00	8.64	-40.9	-44.7	9.9	1.16e-02	0	54	0	48234496	53	5567
2026-01-21 22:35:16.01	29.08	8.72	-41.2	-45.2	9.4	1.29e-02	0	54	0	51380224	53	5890
2026-01-21 22:35:17.02	29.16	8.79	-41.1	-44.9	9.6	1.25e-02	0	54	0	54525952	53	5716
2026-01-21 22:35:18.02	29.24	8.86	-41.0	-44.9	9.7	1.05e-02	0	54	0	57671680	53	5703
2026-01-21 22:35:19.03	29.33	8.94	-40.8	-44.5	10.1	8.28e-03	0	54	0	60817408	53	5407
2026-01-21 22:35:20.04	29.41	9.01	-40.6	-44.1	10.5	4.49e-03	0	54	0	63963136	53	5203
2026-01-21 22:35:21.05	29.50	9.08	-40.8	-44.4	10.2	6.49e-03	0	54	0	67108864	53	5383
2026-01-21 22:35:22.06	29.58	9.16	-40.7	-44.2	10.4	3.78e-03	0	54	0	70254592	53	5232
2026-01-21 22:35:23.07	29.67	9.23	-40.8	-44.4	10.2	6.24e-03	0	54	0	73400320	53	5376
2026-01-21 22:35:24.08	29.75	9.30	-40.8	-44.4	10.2	5.28e-03	0	54	0	77594624	53	5359
2026-01-21 22:35:25.09	29.84	9.38	-40.7	-44.2	10.4	4.40e-03	0	54	0	79691776	53	5272
2026-01-21 22:35:26.10	29.93	9.45	-40.8	-44.4	10.2	5.20e-03	0	54	0	82837504	53	5384
2026-01-21 22:35:27.11	30.01	9.53	-40.7	-44.1	10.7	3.24e-03	0	54	0	85983232	53	5165
2026-01-21 22:35:28.12	30.10	9.60	-40.7	-44.1	10.7	3.03e-03	0	54	0	90177536	53	5183
2026-01-21 22:35:29.13	30.19	9.68	-40.7	-44.0	10.8	2.65e-03	0	54	0	93323264	53	5155
2026-01-21 22:35:30.14	30.28	9.75	-40.6	-43.9	11.0	2.35e-03	0	54	0	96468992	53	5047
2026-01-21 22:35:31.16	30.37	9.83	-40.6	-43.9	11.0	1.75e-03	0	54	0	99614720	53	5060
2026-01-21 22:35:32.17	30.45	9.90	-40.6	-43.8	11.1	1.77e-03	0	54	0	102760448	53	5036
2026-01-21 22:35:33.18	30.54	9.98	-40.7	-43.9	11.0	2.09e-03	0	54	0	105906176	53	5094
2026-01-21 22:35:34.19	30.63	10.05	-40.6	-43.7	11.2	1.53e-03	0	54	0	109051904	53	4983
2026-01-21 22:35:35.20	30.72	10.13	-40.6	-43.8	11.1	1.50e-03	0	54	0	112197632	53	5025
2026-01-21 22:35:36.21	30.82	10.21	-40.6	-43.8	11.2	1.43e-03	0	54	0	115343360	53	5021
2026-01-21 22:35:37.22	30.91	10.28	-40.7	-43.9	11.1	1.40e-03	0	54	0	118489088	53	5066
2026-01-21 22:35:38.23	31.00	10.36	-40.8	-44.1	11.0	1.83e-03	0	55	0	121634816	53	5161
2026-01-21 22:35:39.24	31.09	10.44	-40.8	-44.1	11.1	1.68e-03	0	55	0	124780544	53	5166
2026-01-21 22:35:40.25	31.18	10.51	-40.8	-44.0	11.1	1.72e-03	0	55	0	127926272	53	5135
2026-01-21 22:35:41.26	31.28	10.59	-40.7	-43.9	11.2	1.34e-03	0	55	0	131072000	53	5057
2026-01-21 22:35:42.27	31.37	10.67	-40.7	-43.9	11.2	1.25e-03	0	54	0	134217728	53	5054
2026-01-21 22:35:43.28	31.47	10.74	-40.7	-43.8	11.3	1.14e-03	0	55	0	137363456	53	5037
2026-01-21 22:35:44.29	31.56	10.82	-40.6	-43.7	11.4	9.10e-04	0	55	0	140509184	53	4970
2026-01-21 22:35:45.30	31.65	10.90	-40.6	-43.6	11.5	7.86e-04	0	55	0	143654912	53	4924
2026-01-21 22:35:46.31	31.75	10.98	-40.5	-43.6	11.6	6.41e-04	0	55	0	146800640	53	4876
2026-01-21 22:35:47.32	31.85	11.05	-40.5	-43.5	11.7	5.73e-04	0	55	0	149946368	53	4848
2026-01-21 22:35:48.33	31.94	11.13	-40.6	-43.6	11.6	6.70e-04	0	55	0	153092096	53	4904
2026-01-21 22:35:49.34	32.04	11.21	-40.6	-43.7	11.6	7.23e-04	0	55	0	156237824	53	4935
2026-01-21 22:35:50.35	32.14	11.29	-40.6	-43.6	11.7	6.26e-04	0	55	0	159383552	53	4882
2026-01-21 22:35:51.36	32.24	11.37	-40.6	-43.6	11.7	6.04e-04	0	55	0	162529280	53	4876
2026-01-21 22:35:52.37	32.33	11.45	-40.4	-43.2	12.0	3.42e-04	0	55	0	165675008	52	4968
2026-01-21 22:35:53.38	32.43	11.53	-40.4	-43.3	12.0	3.71e-04	0	55	0	168820736	52	5003
2026-01-21 22:35:54.39	32.53	11.61	-40.4	-43.2	12.1	3.00e-04	0	55	0	171966464	52	4976
2026-01-21 22:35:55.40	32.63	11.69	-40.3	-43.1	12.2	2.14e-04	0	55	0	175112192	52	4921
2026-01-21 22:35:56.41	32.73	11.77	-40.3	-43.0	12.3	2.07e-04	0	55	0	178257920	52	4866
2026-01-21 22:35:57.42	32.83	11.85	-40.2	-43.0	12.3	1.59e-04	0	55	0	181403648	52	4827
2026-01-21 22:35:58.43	32.94	11.93	-40.3	-43.0	12.3	1.91e-04	0	55	0	184549376	52	4859
2026-01-21 22:35:59.44	33.04	12.01	-40.2	-42.9	12.4	1.46e-04	0	55	0	187695104	52	4809
2026-01-21 22:36:00.45	33.14	12.09	-40.2	-42.9	12.4	1.65e-04	0	55	0	190840832	52	4785
2026-01-21 22:36:01.46	33.24	12.17	-40.2	-42.9	12.4	1.56e-04	0	55	0	193986560	52	4807
2026-01-21 22:36:02.47	33.35	12.25	-40.2	-43.0	12.4	1.31e-04	0	55	0	197132288	52	4836
2026-01-21 22:36:03.48	33.45	12.33	-40.2	-43.0	12.4	1.48e-04	0	55	0	200278016	52	4822
2026-01-21 22:36:04.48	33.56	12.41	-40.3	-43.0	12.3	1.78e-04	0	55	0	203423744	52	4866
2026-01-21 22:36:05.49	33.66	12.49	-40.4	-43.2	12.2	1.98e-04	0	55	0	206569472	52	4953
2026-01-21 22:36:06.50	33.77	12.57	-40.3	-43.0	12.4	1.45e-04	0	55	0	209715200	52	4856
2026-01-21 22:36:07.51	33.87	12.65	-40.3	-43.0	12.4	1.48e-04	0	55	0	212860928	52	4845
2026-01-21 22:36:08.52	33.98	12.73	-40.3	-43.1	12.3	1.57e-04	0	55	0	216006656	52	4884
2026-01-21 22:36:09.53	34.09	12.82	-40.3	-43.1	12.4	1.50e-04	0	55	0	219152384	52	4875
2026-01-21 22:36:10.54	34.20	12.90	-40.3	-43.0	12.4	1.59e-04	0	55	0	222298112	52	4831
2026-01-21 22:36:11.55	34.31	12.98	-40.3	-43.1	12.4	1.52e-04	0	55	0	225443840	52	4879
2026-01-21 22:36:12.56	34.42	13.06	-40.3	-43.0	12.4	1.25e-04	0	55	0	228589568	52	4846
2026-01-21 22:36:13.57	34.53	13.15	-40.3	-43.0	12.5	1.28e-04	0	55	0	231735296	52	4816
2026-01-21 22:36:14.58	34.64	13.23	-40.2	-42.9	12.5	1.09e-04	0	55	0	234881024	52	4789
2026-01-21 22:36:15.59	34.75	13.31	-40.2	-42.8	12.7	7.62e-05	0	55	0	238026752	52	4734
2026-01-21 22:36:16.60	34.86	13.40	-40.2	-42.8	12.7	7.47e-05	0	55	0	241172480	52	4732
2026-01-21 22:36:17.61	34.97	13.48	-40.2	-42.9	12.6	9.61e-05	0	55	0	244318208	52	4785
2026-01-21 22:36:18.62	35.09	13.56	-40.2	-42.8	12.7	8.92e-05	0	55	0	247463936	52	4743
2026-01-21 22:36:19.63	35.20	13.65	-40.2	-42.9	12.6	9.68e-05	0	56	0	250609664	52	4787
2026-01-21 22:36:20.64	35.31	13.73	-40.3	-42.9	12.6	1.14e-04	0	55	0	253755392	52	4813
2026-01-21 22:36:21.65	35.43	13.82	-40.3	-42.9	12.6	9.38e-05	0	55	0	256901120	52	4805
2026-01-21 22:36:22.66	35.54	13.90	-40.3	-42.9	12.6	1.01e-04	0	55	0	260046848	52	4801
2026-01-21 22:36:23.67	35.66	13.99	-40.3	-43.0	12.5	1.11e-04	0	56	0	263192576	52	4858
2026-01-21 22:36:24.68	35.78	14.07	-40.3	-43.0	12.5	1.23e-04	0	56	0	266338304	52	4848
2026-01-21 22:36:25.69	35.89	14.16	-40.4	-43.1	12.5	1.27e-04	0	55	0	269484032	52	4881
2026-01-21 22:36:26.70	36.01	14.24	-40.4	-43.1	12.5	1.01e-04	0	55	0	272629760	52	4886
2026-01-21 22:36:27.70	36.13	14.33	-40.3	-43.0	12.6	1.09e-04	0	56	0	275775488	52	4820
2026-01-21 22:36:28.71	36.25	14.41	-40.4	-43.1	12.5	1.17e-04	0	56	0	278921216	52	4875
2026-01-21 22:36:29.72	36.37	14.50	-40.2	-42.8	12.8	7.55e-05	0	55	0	282066944	52	4730
2026-01-21 22:36:30.73	36.49	14.58	-40.2	-42.8	12.8	8.08e-05	0	56	0	285212672	52	4746
2026-01-21 22:36:31.74	36.61	14.67	-40.3	-43.0	12.6	6.86e-05	0	56	0	288358400	52	4826
2026-01-21 22:36:32.75	36.73	14.76	-40.4	-43.1	12.5	1.11e-04	0	55	0	291504128	52	4878
2026-01-21 22:36:33.76	36.86	14.84	-40.3	-43.0	12.6	1.08e-04	0	56	0	294649856	52	4859
2026-01-21 22:36:34.77	36.98	14.93	-40.4	-43.1	12.5	1.20e-04	0	56	0	297795584	52	4903
2026-01-21 22:36:35.78	37.11	15.02	-40.4	-43.0	12.6	9.61e-05	0	56	0	300941312	52	4861
2026-01-21 22:36:36.79	37.23	15.11	-40.3	-43.0	12.7	8.62e-05	0	56	0	304087040	52	4820
2026-01-21 22:36:37.80	37.36	15.19	-40.4	-43.0	12.6	1.04e-04	0	56	0	307232768	52	4868
2026-01-21 22:36:38.81	37.48	15.28	-40.4	-43.1	12.5	1.22e-04	0	56	0	310378496	52	4881
2026-01-21 22:36:39.82	37.61	15.37	-40.4	-43.1	12.5	1.43e-04	0	56	0	313524224	52	4919
2026-01-21 22:36:40.83	37.74	15.46	-40.4	-43.1	12.5	1.22e-04	0	56	0	316669952	52	4902
2026-01-21 22:36:41.84	37.87	15.54	-40.5	-43.2	12.4	1.29e-04	0	56	0	319815680	52	4961
2026-01-21 22:36:42.85	37.99	15.63	-40.5	-43.1	12.5	1.47e-04	0	56	0	322961408	52	4925
2026-01-21 22:36:43.86	38.12	15.72	-40.4	-43.1	12.5	9.91e-05	0	56	0	326107136	52	4911
2026-01-21 22:36:44.87	38.26	15.81	-40.4	-43.1	12.6	1.33e-04	0	56	0	329252864	52	4875
2026-01-21 22:36:45.88	38.39	15.90	-40.4	-43.1	12.6	7.93e-05	0	56	0	332398592	52	4898
2026-01-21 22:36:46.89	38.52	15.99	-40.5	-43.2	12.5	1.43e-04	0	56	0	335544320	52	4953
2026-01-21 22:36:47.90	38.65	16.08	-40.5	-43.2	12.4	1.58e-04	0	56	0	338690048	52	4970
2026-01-21 22:36:48.91	38.79	16.17	-40.5	-43.2	12.5	1.17e-04	0	56	0	341835776	52	4952
2026-01-21 22:36:49.92	38.92	16.26	-40.6	-43.3	12.3	1.61e-04	0	56	0	344981504	52	5017
2026-01-21 22:36:50.93	39.06	16.35	-40.5	-43.2	12.5	1.56e-04	0	56	0	348127232	52	4973
2026-01-21 22:36:51.94	39.19	16.44	-40.6	-43.4	12.3	1.70e-04	0	56	0	351272960	52	5065
2026-01-21 22:36:52.95	39.33	16.53	-40.5	-43.2	12.4	1.15e-04	0	56	0	354418688	52	4982
2026-01-21 22:36:53.96	39.47	16.62	-40.6	-43.3	12.4	1.58e-04	0	56	0	357564416	52	5019
2026-01-21 22:36:54.97	39.61	16.71	-40.6	-43.4	12.3	1.85e-04	0	56	0	360710144	52	5068
2026-01-21 22:36:55.98	39.74	16.80	-40.6	-43.3	12.4	1.49e-04	0	56	0	363855872	52	5006
2026-01-21 22:36:56.99	39.88	16.89	-40.5	-43.2	12.5	1.06e-04	0	56	0	367001600	52	4955
2026-01-21 22:36:58.00	40.03	16.98	-40.5	-43.2	12.5	9.23e-05	0	56	0	370147328	52	4982
2026-01-21 22:36:59.01	40.17	17.07	-40.6	-43.3	12.5	1.33e-04	0	56	0	373293056	52	4996
2026-01-21 22:37:00.02	40.31	17.16	-40.5	-43.1	12.6	1.26e-04	0	56	0	376438784	52	4914
2026-01-21 22:37:01.03	40.45	17.26	-40.4	-43.1	12.7	1.09e-04	0	56	0	379584512	52	4890
2026-01-21 22:37:02.04	40.60	17.35	-40.4	-43.0	12.8	6.56e-05	0	56	0	382730240	52	4828
2026-01-21 22:37:03.05	40.74	17.44	-40.4	-43.0	12.8	5.26e-05	0	56	0	385875968	52	4820
2026-01-21 22:37:04.06	40.89	17.53	-40.3	-42.9	12.9	5.49e-05	0	56	0	389021696	52	4799
2026-01-21 22:37:05.07	41.04	17.62	-40.3	-42.8	12.9	3.73e-05	0	56	0	392167424	52	4755
2026-01-21 22:37:06.08	41.18	17.72	-40.2	-42.7	13.0	3.66e-05	0	56	0	396361728	52	4704
2026-01-21 22:37:07.09	41.33	17.81	-40.3	-42.8	13.0	3.96e-05	0	56	0	398458880	52	4745
2026-01-21 22:37:08.09	41.48	17.90	-40.2	-42.7	13.1	3.50e-05	0	56	0	401604608	52	4671
2026-01-21 22:37:09.10	41.63	18.00	-40.2	-42.7	13.2	2.97e-05	0	56	0	404750336	52	4652
2026-01-21 22:37:10.11	41.78	18.09	-40.2	-42.6	13.2	3.73e-05	0	56	0	407896064	52	4649
2026-01-21 22:37:11.12	41.93	18.18	-40.1	-42.6	13.2	2.05e-05	0	56	0	412090368	52	4616
2026-01-21 22:37:12.13	42.09	18.28	-40.2	-42.7	13.2	2.97e-05	0	56	0	415236096	52	4661
2026-01-21 22:37:13.15	42.24	18.37	-40.1	-42.5	13.3	1.90e-05	0	56	0	418381824	52	4587
2026-01-21 22:37:14.16	42.40	18.46	-40.0	-42.4	13.4	8.30e-06	0	56	0	420478976	52	4498
2026-01-21 22:37:15.16	42.55	18.56	-40.1	-42.4	13.4	1.14e-05	0	56	0	423624704	51	4806
2026-01-21 22:37:16.17	42.71	18.65	-40.0	-42.3	13.6	1.06e-05	0	56	0	427819008	51	4750
2026-01-21 22:37:17.18	42.87	18.75	-40.0	-42.3	13.6	9.10e-06	0	56	0	430964736	51	4719
2026-01-21 22:37:18.19	43.03	18.84	-40.0	-42.4	13.5	1.22e-05	0	56	0	434110464	51	4787
2026-01-21 22:37:19.20	43.19	18.94	-40.1	-42.5	13.4	1.14e-05	0	56	0	437256192	51	4841
2026-01-21 22:37:20.21	43.35	19.03	-40.1	-42.5	13.4	1.22e-05	0	56	0	440401920	51	4836
2026-01-21 22:37:21.22	43.51	19.13	-40.1	-42.4	13.5	1.06e-05	0	56	0	443547648	51	4802
2026-01-21 22:37:22.23	43.67	19.22	-40.1	-42.4	13.5	1.29e-05	0	56	0	446693376	51	4801
2026-01-21 22:37:23.24	43.83	19.32	-40.1	-42.5	13.5	8.30e-06	0	56	0	449839104	51	4827
2026-01-21 22:37:24.25	44.00	19.41	-40.2	-42.6	13.3	2.05e-05	0	56	0	452984832	51	4916
2026-01-21 22:37:25.26	44.16	19.51	-40.2	-42.7	13.3	1.52e-05	0	56	0	456130560	51	4937
2026-01-21 22:37:26.27	44.33	19.60	-40.2	-42.6	13.3	1.67e-05	0	56	0	459276288	51	4887
2026-01-21 22:37:27.28	44.50	19.70	-40.2	-42.6	13.3	1.60e-05	0	57	0	462422016	51	4882
2026-01-21 22:37:28.29	44.67	19.79	-40.1	-42.5	13.4	1.67e-05	0	57	0	465567744	51	4850
2026-01-21 22:37:29.30	44.84	19.89	-40.2	-42.6	13.3	1.44e-05	0	56	0	468713472	51	4882
2026-01-21 22:37:30.31	45.01	19.99	-40.1	-42.5	13.4	1.29e-05	0	57	0	471859200	51	4849
2026-01-21 22:37:31.32	45.18	20.08	-40.1	-42.4	13.5	1.29e-05	0	57	0	475004928	51	4803
2026-01-21 22:37:32.33	45.35	20.18	-40.0	-42.4	13.6	1.06e-05	0	56	0	478150656	51	4761
2026-01-21 22:37:33.34	45.53	20.28	-40.1	-42.4	13.5	5.30e-06	0	56	0	481296384	51	4803
2026-01-21 22:37:34.35	45.70	20.37	-40.0	-42.4	13.5	9.10e-06	0	56	0	484442112	51	4787
2026-01-21 22:37:35.36	45.88	20.47	-40.0	-42.3	13.6	6.10e-06	0	56	0	487587840	51	4757
2026-01-21 22:37:36.37	46.06	20.57	-40.0	-42.4	13.6	6.80e-06	0	57	0	490733568	51	4772
2026-01-21 22:37:37.38	46.23	20.66	-40.0	-42.3	13.6	3.00e-06	0	57	0	493879296	51	4732
2026-01-21 22:37:38.39	46.41	20.76	-39.9	-42.2	13.7	6.80e-06	0	56	0	497025024	51	4687
2026-01-21 22:37:39.40	46.59	20.86	-39.9	-42.2	13.7	6.80e-06	0	56	0	500170752	51	4694
2026-01-21 22:37:40.41	46.78	20.96	-39.9	-42.2	13.8	6.10e-06	0	56	0	503316480	51	4670
2026-01-21 22:37:41.42	46.96	21.05	-39.8	-42.0	13.9	3.80e-06	0	56	0	506462208	51	4568
2026-01-21 22:37:42.43	47.14	21.15	-39.7	-41.8	14.1	7.00e-07	0	56	0	509607936	51	4487
2026-01-21 22:37:43.44	47.33	21.25	-39.6	-41.7	14.2	0.00e+00	0	56	0	512753664	51	4434
2026-01-21 22:37:44.45	47.51	21.35	-39.6	-41.8	14.2	1.50e-06	0	56	0	515899392	51	4459
2026-01-21 22:37:45.46	47.70	21.44	-39.6	-41.7	14.2	7.00e-07	0	57	0	519045120	51	4424
2026-01-21 22:37:46.47	47.89	21.54	-39.6	-41.7	14.2	1.50e-06	0	57	0	522190848	51	4423
2026-01-21 22:37:47.48	48.08	21.64	-39.6	-41.7	14.2	7.00e-07	0	57	0	525336576	51	4436
2026-01-21 22:37:48.49	48.27	21.74	-39.7	-41.8	14.1	7.00e-07	0	56	0	528482304	51	4493
2026-01-21 22:37:49.50	48.46	21.84	-39.8	-42.0	14.0	3.00e-06	0	57	0	531628032	51	4573
2026-01-21 22:37:50.51	48.65	21.93	-39.8	-42.1	13.9	6.80e-06	0	56	0	534773760	51	4607
2026-01-21 22:37:51.52	48.85	22.03	-39.7	-41.9	14.0	3.00e-06	0	57	0	537919488	51	4541
2026-01-21 22:37:52.53	49.04	22.13	-39.8	-42.0	14.0	3.80e-06	0	56	0	541065216	51	4573
2026-01-21 22:37:53.54	49.24	22.23	-39.8	-42.0	14.0	1.50e-06	0	57	0	544210944	51	4578
2026-01-21 22:37:54.55	49.44	22.33	-39.7	-41.9	14.0	3.00e-06	0	57	0	547356672	51	4538
2026-01-21 22:37:55.56	49.64	22.43	-39.7	-42.0	14.0	2.20e-06	0	57	0	550502400	51	4564
2026-01-21 22:37:56.57	49.84	22.52	-39.7	-41.9	14.1	7.00e-07	0	57	0	553648128	51	4510
2026-01-21 22:37:57.58	50.04	22.62	-39.7	-41.9	14.1	7.00e-07	0	57	0	556793856	51	4534
2026-01-21 22:37:58.59	50.24	22.72	-39.7	-41.9	14.1	7.00e-07	0	56	0	559939584	51	4519
2026-01-21 22:37:59.60	50.45	22.82	-39.7	-41.9	14.1	5.30e-06	0	56	0	563085312	51	4528
2026-01-21 22:38:00.61	50.65	22.92	-39.7	-41.9	14.1	4.50e-06	0	57	0	566231040	51	4502
2026-01-21 22:38:01.62	50.86	23.02	-39.6	-41.8	14.2	7.00e-07	0	57	0	569376768	51	4464
2026-01-21 22:38:02.63	51.07	23.12	-39.6	-41.8	14.2	1.50e-06	0	57	0	572522496	51	4462
2026-01-21 22:38:03.64	51.28	23.21	-39.7	-41.9	14.1	1.50e-06	0	57	0	575668224	51	4496
2026-01-21 22:38:04.65	51.49	23.31	-39.7	-41.8	14.2	7.00e-07	0	57	0	578813952	51	4481
2026-01-21 22:38:05.66	51.70	23.41	-39.7	-41.9	14.1	2.20e-06	0	57	0	581959680	51	4545
2026-01-21 22:38:06.67	51.91	23.51	-39.7	-41.9	14.1	2.20e-06	0	56	0	585105408	51	4538
2026-01-21 22:38:07.67	52.13	23.61	-39.7	-41.9	14.1	3.00e-06	0	57	0	588251136	51	4529
2026-01-21 22:38:08.68	52.34	23.71	-39.8	-42.0	14.0	7.00e-07	0	57	0	591396864	51	4551
2026-01-21 22:38:09.70	52.56	23.80	-39.8	-42.0	14.0	3.80e-06	0	57	0	594542592	51	4561
2026-01-21 22:38:10.71	52.78	23.90	-39.8	-42.1	13.9	3.00e-06	0	57	0	597688320	51	4599
2026-01-21 22:38:11.71	53.00	24.00	-39.8	-42.1	13.9	2.20e-06	0	57	0	600834048	51	4615
2026-01-21 22:38:12.73	53.22	24.10	-39.9	-42.2	13.8	3.00e-06	0	57	0	603979776	51	4671
2026-01-21 22:38:13.73	53.44	24.20	-40.0	-42.3	13.7	5.30e-06	0	57	0	607125504	51	4715
2026-01-21 22:38:14.75	53.67	24.30	-40.0	-42.3	13.7	3.00e-06	0	57	0	610271232	51	4745
2026-01-21 22:38:15.76	53.89	24.39	-40.0	-42.3	13.7	1.29e-05	0	57	0	613416960	51	4736
2026-01-21 22:38:16.76	54.12	24.49	-40.0	-42.3	13.8	3.80e-06	0	57	0	616562688	51	4727
2026-01-21 22:38:17.77	54.35	24.59	-39.9	-42.2	13.8	3.00e-06	0	57	0	619708416	51	4666
2026-01-21 22:38:18.78	54.58	24.69	-39.9	-42.2	13.9	3.00e-06	0	57	0	622854144	51	4671
2026-01-21 22:38:19.79	54.81	24.78	-39.9	-42.1	13.9	3.80e-06	0	57	0	625999872	51	4637
2026-01-21 22:38:20.80	55.04	24.88	-39.9	-42.2	13.8	8.30e-06	0	57	0	629145600	51	4683
2026-01-21 22:38:21.81	55.27	24.98	-39.9	-42.1	13.9	3.80e-06	0	57	0	632291328	51	4620
2026-01-21 22:38:22.82	55.51	25.08	-39.8	-42.1	14.0	2.20e-06	0	57	0	635437056	51	4602
2026-01-21 22:38:23.83	55.75	25.17	-39.8	-42.0	14.0	2.20e-06	0	57	0	638582784	51	4587
2026-01-21 22:38:24.84	55.98	25.27	-39.8	-42.1	14.0	2.20e-06	0	57	0	641728512	51	4612
2026-01-21 22:38:25.84	56.22	25.37	-39.9	-42.2	13.9	3.80e-06	0	57	0	644874240	51	4657
2026-01-21 22:38:26.85	56.46	25.46	-39.9	-42.1	13.9	6.10e-06	0	57	0	648019968	51	4630
2026-01-21 22:38:27.86	56.70	25.56	-39.9	-42.1	13.9	7.00e-07	0	57	0	651165696	51	4647
2026-01-21 22:38:28.87	56.95	25.65	-40.0	-42.3	13.7	3.80e-06	0	57	0	654311424	51	4740
2026-01-21 22:38:29.88	57.19	25.75	-40.1	-42.4	13.7	2.20e-06	0	57	0	657457152	51	4795
2026-01-21 22:38:30.89	57.44	25.85	-40.1	-42.4	13.6	9.90e-06	0	57	0	660602880	51	4793
2026-01-21 22:38:31.90	57.69	25.94	-40.1	-42.5	13.6	1.06e-05	0	57	0	663748608	51	4839
2026-01-21 22:38:32.91	57.94	26.04	-40.2	-42.5	13.5	7.60e-06	0	57	0	666894336	51	4847
2026-01-21 22:38:33.92	58.19	26.13	-40.1	-42.5	13.6	6.10e-06	0	57	0	670040064	51	4831
2026-01-21 22:38:34.93	58.44	26.23	-40.1	-42.4	13.6	1.06e-05	0	57	0	673185792	51	4800
2026-01-21 22:38:35.94	58.70	26.32	-40.0	-42.3	13.8	3.00e-06	0	57	0	676331520	51	4715
2026-01-21 22:38:36.95	58.95	26.42	-39.9	-42.1	13.9	7.60e-06	0	57	0	679477248	51	4639
2026-01-21 22:38:37.96	59.21	26.51	-39.9	-42.1	14.0	1.50e-06	0	57	0	682622976	51	4636
2026-01-21 22:38:38.97	59.47	26.61	-40.0	-42.2	13.9	2.20e-06	0	57	0	685768704	51	4682
2026-01-21 22:38:39.98	59.73	26.70	-40.1	-42.4	13.7	6.80e-06	0	57	0	688914432	51	4766
2026-01-21 22:38:40.99	59.99	26.79	-40.1	-42.4	13.7	5.30e-06	0	57	0	692060160	51	4807
2026-01-21 22:38:42.00	60.25	26.89	-40.1	-42.4	13.7	5.30e-06	0	57	0	695205888	51	4804
2026-01-21 22:38:43.01	60.52	26.98	-40.1	-42.4	13.7	5.30e-06	0	57	0	698351616	51	4811
2026-01-21 22:38:44.02	60.78	27.07	-40.0	-42.3	13.8	3.80e-06	0	57	0	701497344	51	4736
2026-01-21 22:38:45.03	61.05	27.16	-40.1	-42.3	13.8	4.50e-06	0	57	0	704643072	51	4752
2026-01-21 22:38:46.04	61.32	27.25	-40.0	-42.2	13.9	6.10e-06	0	57	0	707788800	51	4680
2026-01-21 22:38:47.05	61.59	27.35	-40.0	-42.2	13.9	2.20e-06	0	57	0	710934528	51	4698
2026-01-21 22:38:48.06	61.86	27.44	-40.0	-42.2	13.9	5.30e-06	0	57	0	714080256	51	4697
2026-01-21 22:38:49.07	62.14	27.53	-39.9	-42.2	13.9	1.50e-06	0	57	0	717225984	51	4655
2026-01-21 22:38:50.08	62.41	27.62	-40.0	-42.2	13.9	2.20e-06	0	57	0	720371712	51	4686
2026-01-21 22:38:51.09	62.69	27.71	-39.9	-42.1	14.0	2.20e-06	0	57	0	723517440	51	4641
2026-01-21 22:38:52.10	62.97	27.80	-39.8	-41.9	14.2	7.00e-07	0	57	0	726663168	51	4533
2026-01-21 22:38:53.11	63.25	27.89	-39.7	-41.8	14.3	1.50e-06	0	57	0	729808896	51	4453
2026-01-21 22:38:54.12	63.53	27.97	-39.7	-41.8	14.3	7.00e-07	0	57	0	732954624	51	4489
2026-01-21 22:38:55.13	63.81	28.06	-39.8	-41.9	14.3	7.00e-07	0	57	0	737148928	51	4519
2026-01-21 22:38:56.14	64.10	28.15	-39.8	-42.0	14.2	7.00e-07	0	57	0	739246080	51	4557
2026-01-21 22:38:57.15	64.38	28.24	-39.8	-42.0	14.2	7.00e-07	0	57	0	742391808	51	4554
2026-01-21 22:38:58.16	64.67	28.32	-39.8	-42.0	14.1	0.00e+00	0	57	0	745537536	51	4583
2026-01-21 22:38:59.17	64.96	28.41	-39.9	-42.1	14.0	7.00e-07	0	57	0	748683264	51	4622
2026-01-21 22:39:00.18	65.25	28.50	-39.9	-42.2	13.9	4.50e-06	0	57	0	752877568	51	4660
2026-01-21 22:39:01.19	65.54	28.58	-39.9	-42.1	14.0	4.50e-06	0	57	0	756023296	51	4626
2026-01-21 22:39:02.20	65.84	28.67	-39.9	-42.0	14.1	1.50e-06	0	57	0	759169024	51	4591
2026-01-21 22:39:03.21	66.13	28.75	-39.8	-42.0	14.2	7.00e-07	0	57	0	761266176	51	4558
2026-01-21 22:39:04.22	66.43	28.83	-39.8	-41.9	14.2	0.00e+00	0	57	0	764411904	51	4529
2026-01-21 22:39:05.23	66.73	28.92	-39.8	-42.0	14.2	7.00e-07	0	57	0	768606208	51	4554
2026-01-21 22:39:06.24	67.03	29.00	-39.8	-41.9	14.2	3.00e-06	0	57	0	771751936	51	4521
2026-01-21 22:39:07.24	67.33	29.08	-39.8	-42.0	14.1	3.00e-06	0	57	0	774897664	51	4560
2026-01-21 22:39:08.25	67.63	29.16	-40.0	-42.3	13.9	3.00e-06	0	57	0	778043392	51	4733
2026-01-21 22:39:09.26	67.94	29.24	-40.2	-42.5	13.7	7.60e-06	0	57	0	781189120	51	4844
2026-01-21 22:39:10.27	68.24	29.32	-40.1	-42.4	13.8	4.50e-06	0	57	0	784334848	51	4797
2026-01-21 22:39:11.28	68.55	29.40	-40.1	-42.4	13.8	4.50e-06	0	57	0	787480576	51	4769
2026-01-21 22:39:12.29	68.86	29.48	-40.1	-42.3	13.8	4.50e-06	0	57	0	790626304	51	4755
2026-01-21 22:39:13.30	69.17	29.56	-40.1	-42.4	13.8	3.80e-06	0	57	0	793772032	51	4764
2026-01-21 22:39:14.31	69.48	29.63	-40.0	-42.2	14.0	2.20e-06	0	57	0	796917760	51	4685
2026-01-21 22:39:15.32	69.79	29.71	-40.0	-42.2	14.0	2.20e-06	0	57	0	800063488	51	4693
2026-01-21 22:39:16.33	70.11	29.79	-40.0	-42.2	14.0	3.00e-06	0	57	0	803209216	51	4683
2026-01-21 22:39:17.34	70.42	29.86	-40.0	-42.2	13.9	1.50e-06	0	57	0	806354944	51	4702
2026-01-21 22:39:18.36	70.75	29.94	-40.1	-42.3	13.8	3.80e-06	0	57	0	809500672	51	4745
2026-01-21 22:39:19.37	71.06	30.01	-40.0	-42.2	13.9	5.30e-06	0	57	0	812646400	51	4705
2026-01-21 22:39:20.38	71.39	30.08	-40.0	-42.3	13.9	2.20e-06	0	57	0	815792128	51	4727
2026-01-21 22:39:21.39	71.71	30.15	-40.1	-42.3	13.9	5.30e-06	0	57	0	818937856	51	4734
2026-01-21 22:39:22.39	72.03	30.22	-40.1	-42.4	13.8	3.80e-06	0	57	0	822083584	51	4781
2026-01-21 22:39:23.40	72.35	30.29	-40.1	-42.3	13.9	5.30e-06	0	57	0	825229312	51	4749
2026-01-21 22:39:24.41	72.68	30.36	-40.2	-42.5	13.8	8.30e-06	0	57	0	828375040	51	4823
2026-01-21 22:39:25.41	73.00	30.43	-40.1	-42.3	13.8	3.80e-06	0	57	0	831520768	51	4755
2026-01-21 22:39:26.42	73.33	30.50	-40.1	-42.4	13.8	3.00e-06	0	57	0	834666496	51	4770
2026-01-21 22:39:27.43	73.66	30.57	-40.1	-42.4	13.8	7.60e-06	0	57	0	837812224	51	4788
2026-01-21 22:39:28.43	73.99	30.63	-40.2	-42.4	13.8	6.10e-06	0	57	0	840957952	51	4798
2026-01-21 22:39:29.44	74.33	30.70	-40.3	-42.7	13.5	7.60e-06	0	57	0	844103680	51	4935
2026-01-21 22:39:30.44	74.66	30.76	-40.4	-42.8	13.4	1.22e-05	0	57	0	847249408	51	5003
2026-01-21 22:39:31.45	74.99	30.82	-40.5	-43.0	13.2	2.13e-05	0	57	0	850395136	51	5126
2026-01-21 22:39:32.45	75.33	30.89	-40.5	-42.9	13.3	1.75e-05	0	57	0	853540864	51	5066
2026-01-21 22:39:33.46	75.66	30.95	-40.4	-42.7	13.4	4.50e-06	0	57	0	856686592	51	4970
2026-01-21 22:39:34.46	76.00	31.01	-40.4	-42.7	13.5	8.30e-06	0	58	0	859832320	51	4979
2026-01-21 22:39:35.47	76.34	31.07	-40.3	-42.6	13.6	8.30e-06	0	57	0	862978048	51	4916
2026-01-21 22:39:36.47	76.68	31.13	-40.3	-42.6	13.6	6.10e-06	0	57	0	866123776	51	4889
2026-01-21 22:39:37.48	77.02	31.18	-40.3	-42.6	13.5	9.90e-06	0	57	0	869269504	51	4923
2026-01-21 22:39:38.48	77.36	31.24	-40.4	-42.8	13.4	1.37e-05	0	57	0	872415232	51	4999
2026-01-21 22:39:39.49	77.71	31.30	-40.5	-43.0	13.2	1.67e-05	0	57	0	875560960	51	5101
2026-01-21 22:39:40.49	78.05	31.35	-40.5	-43.0	13.2	2.28e-05	0	57	0	878706688	51	5128
2026-01-21 22:39:41.50	78.40	31.40	-40.4	-42.8	13.4	1.29e-05	0	57	0	881852416	51	5031
2026-01-21 22:39:42.51	78.75	31.46	-40.4	-42.7	13.5	1.60e-05	0	57	0	884998144	51	4975
2026-01-21 22:39:43.51	79.10	31.51	-40.3	-42.6	13.5	9.10e-06	0	57	0	888143872	51	4907
2026-01-21 22:39:44.51	79.45	31.56	-40.4	-42.8	13.4	1.14e-05	0	57	0	891289600	51	4992
2026-01-21 22:39:45.52	79.80	31.61	-40.4	-42.8	13.4	1.60e-05	0	57	0	894435328	51	5028
2026-01-21 22:39:46.53	80.15	31.66	-40.4	-42.8	13.4	1.83e-05	0	57	0	897581056	51	5036
2026-01-21 22:39:47.53	80.50	31.70	-40.4	-42.8	13.4	9.10e-06	0	57	0	900726784	51	5024
2026-01-21 22:39:48.54	80.86	31.75	-40.4	-42.8	13.5	1.52e-05	0	57	0	903872512	51	5013
2026-01-21 22:39:49.55	81.21	31.79	-40.5	-42.9	13.3	1.22e-05	0	57	0	907018240	51	5081
2026-01-21 22:39:50.55	81.57	31.84	-40.5	-42.9	13.3	1.75e-05	0	57	0	910163968	51	5092
2026-01-21 22:39:51.56	81.93	31.88	-40.6	-43.1	13.1	1.90e-05	0	57	0	913309696	51	5214
2026-01-21 22:39:52.56	82.28	31.92	-40.6	-43.1	13.1	3.66e-05	0	57	0	916455424	51	5174
2026-01-21 22:39:53.57	82.64	31.96	-40.5	-42.9	13.3	2.13e-05	0	57	0	919601152	51	5088
2026-01-21 22:39:54.58	83.00	32.00	-40.4	-42.7	13.5	1.67e-05	0	57	0	922746880	51	4964
2026-01-21 22:39:55.58	83.36	32.04	-40.4	-42.7	13.5	6.80e-06	0	57	0	925892608	51	4982
2026-01-21 22:39:56.59	83.72	32.07	-40.4	-42.8	13.4	1.44e-05	0	57	0	929038336	51	5037
2026-01-21 22:39:57.59	84.09	32.11	-40.6	-43.1	13.2	1.98e-05	0	57	0	932184064	51	5176
2026-01-21 22:39:58.60	84.45	32.14	-40.6	-43.1	13.2	2.82e-05	0	57	0	935329792	51	5178
2026-01-21 22:39:59.61	84.81	32.18	-40.6	-43.0	13.3	1.44e-05	0	57	0	938475520	51	5126
2026-01-21 22:40:00.62	85.18	32.21	-40.6	-43.1	13.1	2.28e-05	0	57	0	941621248	51	5192
2026-01-21 22:40:01.62	85.54	32.24	-40.7	-43.2	13.1	3.20e-05	0	57	0	944766976	51	5226
2026-01-21 22:40:02.63	85.91	32.27	-40.6	-43.0	13.2	2.51e-05	0	57	0	947912704	51	5151
2026-01-21 22:40:03.64	86.28	32.30	-40.5	-43.0	13.3	2.13e-05	0	57	0	951058432	51	5109
2026-01-21 22:40:04.65	86.65	32.32	-40.6	-43.0	13.2	2.51e-05	0	57	0	954204160	51	5143
2026-01-21 22:40:05.65	87.01	32.35	-40.7	-43.2	13.1	2.44e-05	0	57	0	957349888	51	5240
2026-01-21 22:40:06.66	87.38	32.37	-40.6	-43.0	13.3	2.13e-05	0	57	0	960495616	51	5124
2026-01-21 22:40:07.67	87.75	32.40	-40.6	-43.0	13.2	2.36e-05	0	57	0	963641344	51	5152
2026-01-21 22:40:08.67	88.12	32.42	-40.6	-43.1	13.2	2.13e-05	0	57	0	966787072	51	5183
2026-01-21 22:40:09.68	88.49	32.44	-40.7	-43.2	13.0	3.20e-05	0	57	0	969932800	52	4967
2026-01-21 22:40:10.68	88.86	32.46	-40.7	-43.2	13.0	4.27e-05	0	57	0	973078528	52	4966
2026-01-21 22:40:11.69	89.23	32.48	-40.6	-43.0	13.1	3.58e-05	0	57	0	976224256	52	4864
2026-01-21 22:40:12.70	89.60	32.49	-40.6	-43.1	13.1	3.12e-05	0	57	0	979369984	52	4907
2026-01-21 22:40:13.70	89.97	32.51	-40.7	-43.2	13.1	2.97e-05	0	57	0	982515712	52	4948
2026-01-21 22:40:14.71	90.35	32.52	-40.5	-43.0	13.2	3.20e-05	0	57	0	985661440	52	4831
2026-01-21 22:40:15.72	90.72	32.54	-40.5	-43.0	13.2	2.36e-05	0	57	0	988807168	52	4849
2026-01-21 22:40:16.72	91.09	32.55	-40.6	-43.1	13.1	2.59e-05	0	57	0	991952896	52	4923
2026-01-21 22:40:17.73	91.47	32.56	-40.7	-43.2	12.9	4.04e-05	0	57	0	995098624	52	4970
2026-01-21 22:40:18.74	91.84	32.57	-40.8	-43.3	12.8	5.18e-05	0	57	0	998244352	52	5037
2026-01-21 22:40:19.74	92.21	32.57	-40.8	-43.5	12.7	6.10e-05	0	57	0	1001390080	52	5101
2026-01-21 22:40:20.75	92.59	32.58	-40.7	-43.3	12.9	4.73e-05	0	57	0	1004535808	52	5011
2026-01-21 22:40:21.76	92.96	32.58	-40.6	-43.2	13.1	4.19e-05	0	57	0	1007681536	52	4932
2026-01-21 22:40:22.76	93.33	32.59	-40.6	-43.1	13.1	1.90e-05	0	57	0	1010827264	52	4875
2026-01-21 22:40:23.77	93.71	32.59	-40.6	-43.1	13.1	1.83e-05	0	57	0	1013972992	52	4888
2026-01-21 22:40:24.78	94.08	32.59	-40.5	-43.0	13.2	2.97e-05	0	57	0	1017118720	52	4866
2026-01-21 22:40:25.79	94.46	32.59	-40.5	-42.9	13.3	1.44e-05	0	57	0	1020264448	52	4781
2026-01-21 22:40:26.80	94.83	32.59	-40.3	-42.7	13.5	9.10e-06	0	57	0	1023410176	52	4687
2026-01-21 22:40:27.80	95.20	32.59	-40.3	-42.7	13.6	8.30e-06	0	57	0	1026555904	52	4653
2026-01-21 22:40:28.81	95.58	32.58	-40.3	-42.6	13.6	1.44e-05	0	57	0	1029701632	52	4650
2026-01-21 22:40:29.82	95.95	32.58	-40.3	-42.7	13.6	9.90e-06	0	57	0	1032847360	52	4664
2026-01-21 22:40:30.82	96.32	32.57	-40.4	-42.8	13.5	1.06e-05	0	57	0	1035993088	52	4713
2026-01-21 22:40:31.83	96.70	32.56	-40.5	-42.9	13.4	6.80e-06	0	57	0	1039138816	52	4787
2026-01-21 22:40:32.84	97.07	32.55	-40.4	-42.8	13.4	1.60e-05	0	57	0	1042284544	52	4735
2026-01-21 22:40:33.85	97.45	32.54	-40.3	-42.7	13.6	1.14e-05	0	57	0	1045430272	52	4683
2026-01-21 22:40:34.85	97.82	32.53	-40.2	-42.4	13.8	6.10e-06	0	57	0	1048576000	52	4533
2026-01-21 22:40:35.86	98.19	32.51	-40.1	-42.4	13.8	1.50e-06	0	57	0	1051721728	52	4512
2026-01-21 22:40:36.87	98.56	32.50	-40.3	-42.7	13.6	4.50e-06	0	57	0	1054867456	52	4654
2026-01-21 22:40:37.88	98.94	32.48	-40.4	-42.8	13.4	9.90e-06	0	57	0	1058013184	52	4756
2026-01-21 22:40:38.88	99.31	32.46	-40.5	-42.9	13.3	1.29e-05	0	57	0	1061158912	52	4810
2026-01-21 22:40:39.89	99.68	32.44	-40.5	-42.9	13.3	2.05e-05	0	57	0	1064304640	52	4784
2026-01-21 22:40:40.90	100.05	32.42	-40.4	-42.8	13.4	1.60e-05	0	57	0	1067450368	52	4737
2026-01-21 22:40:41.91	100.42	32.40	-40.4	-42.8	13.4	1.75e-05	0	58	0	1070596096	52	4750
2026-01-21 22:40:42.92	100.79	32.38	-40.4	-42.8	13.5	7.60e-06	0	57	0	1073741824	52	4725
2026-01-21 22:40:43.92	101.16	32.36	-40.4	-42.7	13.5	9.10e-06	0	57	0	1076887552	52	4692
2026-01-21 22:40:44.93	101.53	32.33	-40.3	-42.7	13.6	1.29e-05	0	57	0	1080033280	52	4672
2026-01-21 22:40:45.93	101.89	32.30	-40.4	-42.7	13.5	9.90e-06	0	57	0	1083179008	52	4682
2026-01-21 22:40:46.94	102.26	32.28	-40.4	-42.8	13.4	8.30e-06	0	57	0	1086324736	52	4731
2026-01-21 22:40:47.94	102.63	32.25	-40.5	-43.0	13.2	2.05e-05	0	57	0	1089470464	52	4852
2026-01-21 22:40:48.94	102.99	32.22	-40.5	-42.9	13.3	1.98e-05	0	57	0	1092616192	52	4791
2026-01-21 22:40:49.95	103.36	32.19	-40.5	-42.9	13.3	1.52e-05	0	58	0	1095761920	52	4799
2026-01-21 22:40:50.96	103.72	32.15	-40.5	-42.9	13.3	1.52e-05	0	57	0	1098907648	52	4812
2026-01-21 22:40:51.96	104.09	32.12	-40.4	-42.8	13.4	1.52e-05	0	57	0	1102053376	52	4740
2026-01-21 22:40:52.97	104.45	32.08	-40.4	-42.7	13.5	5.30e-06	0	57	0	1105199104	52	4690
2026-01-21 22:40:53.98	104.81	32.05	-40.4	-42.9	13.4	1.44e-05	0	57	0	1108344832	52	4769
2026-01-21 22:40:54.99	105.18	32.01	-40.5	-43.0	13.2	2.44e-05	0	57	0	1111490560	52	4858
2026-01-21 22:40:55.99	105.53	31.97	-40.6	-43.1	13.1	2.28e-05	0	57	0	1114636288	52	4896
2026-01-21 22:40:57.00	105.90	31.93	-40.7	-43.2	13.0	3.12e-05	0	57	0	1117782016	52	4942
2026-01-21 22:40:58.00	106.25	31.89	-40.7	-43.2	13.0	4.50e-05	0	57	0	1120927744	52	4974
2026-01-21 22:40:59.01	106.61	31.85	-40.6	-43.1	13.1	3.96e-05	0	57	0	1124073472	52	4892
2026-01-21 22:41:00.01	106.97	31.80	-40.5	-42.9	13.3	1.52e-05	0	57	0	1127219200	52	4782
2026-01-21 22:41:01.02	107.32	31.76	-40.5	-42.9	13.3	2.05e-05	0	57	0	1130364928	52	4800
2026-01-21 22:41:02.02	107.68	31.71	-40.5	-43.0	13.2	2.44e-05	0	58	0	1133510656	52	4847
2026-01-21 22:41:03.03	108.03	31.67	-40.6	-43.1	13.1	2.82e-05	0	57	0	1136656384	52	4924
2026-01-21 22:41:04.04	108.39	31.62	-40.6	-43.1	13.2	2.13e-05	0	58	0	1139802112	52	4881
2026-01-21 22:41:05.04	108.74	31.57	-40.4	-42.8	13.4	1.75e-05	0	57	0	1142947840	52	4714
2026-01-21 22:41:06.05	109.09	31.52	-40.3	-42.7	13.6	9.10e-06	0	58	0	1146093568	52	4654
2026-01-21 22:41:07.06	109.44	31.47	-40.3	-42.7	13.6	9.10e-06	0	57	0	1149239296	52	4663
2026-01-21 22:41:08.06	109.79	31.41	-40.4	-42.8	13.4	1.52e-05	0	57	0	1152385024	52	4714
2026-01-21 22:41:09.07	110.14	31.36	-40.4	-42.9	13.3	1.22e-05	0	57	0	1155530752	52	4771
2026-01-21 22:41:10.08	110.49	31.31	-40.4	-42.7	13.5	1.75e-05	0	57	0	1158676480	52	4696
2026-01-21 22:41:11.08	110.83	31.25	-40.3	-42.7	13.6	1.14e-05	0	57	0	1161822208	52	4652
2026-01-21 22:41:12.09	111.17	31.19	-40.4	-42.8	13.5	1.29e-05	0	57	0	1164967936	52	4736
2026-01-21 22:41:13.09	111.52	31.14	-40.5	-43.0	13.3	1.98e-05	0	58	0	1168113664	52	4841
2026-01-21 22:41:14.10	111.86	31.08	-40.4	-42.8	13.4	1.67e-05	0	58	0	1171259392	52	4747
2026-01-21 22:41:15.11	112.20	31.02	-40.5	-42.9	13.4	1.44e-05	0	58	0	1174405120	52	4771
2026-01-21 22:41:16.12	112.54	30.96	-40.4	-42.9	13.4	1.50e-06	0	58	0	1177550848	52	4769
2026-01-21 22:41:17.12	112.88	30.90	-40.2	-42.4	13.8	3.00e-06	0	58	0	1180696576	52	4540
2026-01-21 22:41:18.13	113.22	30.83	-40.1	-42.3	13.9	3.80e-06	0	58	0	1183842304	52	4473
2026-01-21 22:41:19.13	113.55	30.77	-40.1	-42.4	13.9	2.20e-06	0	58	0	1186988032	52	4515
2026-01-21 22:41:20.14	113.89	30.71	-40.2	-42.5	13.7	2.20e-06	0	58	0	1190133760	52	4578
2026-01-21 22:41:21.15	114.22	30.64	-40.3	-42.6	13.6	3.80e-06	0	58	0	1193279488	52	4649
2026-01-21 22:41:22.15	114.55	30.58	-40.4	-42.8	13.5	7.60e-06	0	58	0	1196425216	52	4718
2026-01-21 22:41:23.16	114.88	30.51	-40.4	-42.9	13.4	1.75e-05	0	58	0	1199570944	52	4781
2026-01-21 22:41:24.16	115.21	30.44	-40.5	-42.9	13.3	1.75e-05	0	58	0	1202716672	52	4805
2026-01-21 22:41:25.17	115.54	30.37	-40.5	-42.9	13.4	1.60e-05	0	58	0	1205862400	52	4782
2026-01-21 22:41:26.17	115.86	30.30	-40.2	-42.6	13.7	9.10e-06	0	58	0	1209008128	52	4599
2026-01-21 22:41:27.18	116.19	30.23	-40.0	-42.3	14.0	3.00e-06	0	57	0	1212153856	52	4457
2026-01-21 22:41:28.19	116.51	30.16	-40.0	-42.2	14.1	2.20e-06	0	58	0	1215299584	51	4685
2026-01-21 22:41:29.20	116.84	30.09	-40.1	-42.3	14.0	3.00e-06	0	57	0	1218445312	51	4715
2026-01-21 22:41:30.21	117.16	30.02	-40.1	-42.3	14.0	3.00e-06	0	57	0	1221591040	51	4754
2026-01-21 22:41:31.22	117.48	29.94	-40.2	-42.5	13.9	2.20e-06	0	57	0	1224736768	51	4817
2026-01-21 22:41:32.24	117.80	29.87	-40.1	-42.3	14.0	3.00e-06	0	58	0	1227882496	51	4732
2026-01-21 22:41:33.24	118.12	29.79	-40.1	-42.3	14.0	1.50e-06	0	58	0	1231028224	51	4736
2026-01-21 22:41:34.25	118.43	29.72	-40.1	-42.4	14.0	2.20e-06	0	57	0	1234173952	51	4771
2026-01-21 22:41:35.26	118.75	29.64	-40.2	-42.4	13.9	0.00e+00	0	57	0	1237319680	51	4805
2026-01-21 22:41:36.27	119.06	29.56	-40.0	-42.2	14.1	7.00e-07	0	57	0	1240465408	51	4697
2026-01-21 22:41:37.28	119.37	29.48	-39.9	-42.1	14.2	2.20e-06	0	58	0	1243611136	51	4616
2026-01-21 22:41:38.29	119.68	29.41	-39.9	-42.1	14.3	7.00e-07	0	58	0	1246756864	51	4611
2026-01-21 22:41:39.30	119.99	29.33	-39.8	-41.9	14.4	2.20e-06	0	58	0	1249902592	51	4541
2026-01-21 22:41:40.31	120.30	29.25	-39.8	-41.9	14.3	0.00e+00	0	58	0	1253048320	51	4540
2026-01-21 22:41:41.32	120.61	29.17	-40.0	-42.2	14.1	7.00e-07	0	58	0	1256194048	51	4668
2026-01-21 22:41:42.33	120.91	29.08	-40.1	-42.4	13.9	1.50e-06	0	58	0	1259339776	51	4781
2026-01-21 22:41:43.34	121.21	29.00	-40.1	-42.3	14.0	1.50e-06	0	58	0	1262485504	51	4724
2026-01-21 22:41:44.35	121.51	28.92	-40.1	-42.3	14.0	7.00e-07	0	58	0	1265631232	51	4724
2026-01-21 22:41:45.36	121.81	28.84	-40.0	-42.2	14.0	5.30e-06	0	58	0	1268776960	51	4705
2026-01-21 22:41:46.37	122.11	28.75	-39.9	-42.1	14.2	0.00e+00	0	58	0	1271922688	51	4608
2026-01-21 22:41:47.38	122.41	28.67	-39.9	-42.0	14.3	1.50e-06	0	57	0	1275068416	51	4569
2026-01-21 22:41:48.39	122.71	28.58	-39.8	-41.9	14.4	0.00e+00	0	58	0	1278214144	51	4514
2026-01-21 22:41:49.40	123.00	28.50	-39.7	-41.8	14.4	0.00e+00	0	58	0	1281359872	51	4473
2026-01-21 22:41:50.41	123.29	28.41	-39.7	-41.7	14.6	0.00e+00	0	58	0	1284505600	51	4431
2026-01-21 22:41:51.42	123.58	28.32	-39.7	-41.8	14.5	0.00e+00	0	58	0	1287651328	51	4482
2026-01-21 22:41:52.42	123.87	28.24	-39.8	-41.8	14.4	7.00e-07	0	58	0	1290797056	51	4490
2026-01-21 22:41:53.43	124.16	28.15	-39.6	-41.7	14.6	0.00e+00	0	58	0	1293942784	51	4399
2026-01-21 22:41:54.44	124.44	28.06	-39.6	-41.7	14.6	0.00e+00	0	58	0	1297088512	51	4414
2026-01-21 22:41:55.45	124.73	27.97	-39.7	-41.8	14.5	0.00e+00	0	58	0	1300234240	51	4493
2026-01-21 22:41:56.46	125.01	27.88	-39.7	-41.7	14.6	0.00e+00	0	58	0	1303379968	51	4434
2026-01-21 22:41:57.47	125.29	27.80	-39.6	-41.7	14.6	0.00e+00	0	58	0	1306525696	51	4402
2026-01-21 22:41:58.48	125.57	27.71	-39.6	-41.7	14.6	0.00e+00	0	58	0	1309671424	51	4420
2026-01-21 22:41:59.49	125.85	27.61	-39.7	-41.8	14.5	7.00e-07	0	58	0	1312817152	51	4473
2026-01-21 22:42:00.50	126.13	27.52	-39.8	-42.0	14.3	0.00e+00	0	58	0	1315962880	51	4578
2026-01-21 22:42:01.51	126.40	27.43	-39.9	-42.0	14.3	7.00e-07	0	58	0	1319108608	51	4582
2026-01-21 22:42:02.52	126.67	27.34	-39.8	-41.9	14.4	1.50e-06	0	58	0	1322254336	51	4499
2026-01-21 22:42:03.53	126.95	27.25	-39.5	-41.6	14.7	7.00e-07	0	57	0	1325400064	51	4348
2026-01-21 22:42:04.54	127.22	27.16	-39.5	-41.5	14.8	0.00e+00	0	58	0	1328545792	51	4331
2026-01-21 22:42:05.55	127.49	27.06	-39.6	-41.7	14.6	7.00e-07	0	58	0	1331691520	51	4429
2026-01-21 22:42:06.56	127.75	26.97	-39.5	-41.5	14.8	0.00e+00	0	58	0	1334837248	51	4332
2026-01-21 22:42:07.57	128.02	26.88	-39.5	-41.5	14.8	0.00e+00	0	57	0	1337982976	51	4331
2026-01-21 22:42:08.58	128.29	26.78	-39.6	-41.6	14.6	7.00e-07	0	58	0	1341128704	51	4386
2026-01-21 22:42:09.58	128.55	26.69	-39.7	-41.8	14.6	0.00e+00	0	58	0	1344274432	51	4452
2026-01-21 22:42:10.59	128.81	26.60	-39.7	-41.8	14.5	7.00e-07	0	58	0	1347420160	51	4471
2026-01-21 22:42:11.60	129.07	26.50	-39.7	-41.9	14.5	7.00e-07	0	58	0	1350565888	51	4496
2026-01-21 22:42:12.61	129.33	26.41	-39.6	-41.7	14.6	0.00e+00	0	58	0	1353711616	51	4421
2026-01-21 22:42:13.62	129.58	26.31	-39.6	-41.7	14.6	0.00e+00	0	58	0	1356857344	51	4422
2026-01-21 22:42:14.63	129.84	26.22	-39.6	-41.7	14.5	0.00e+00	0	58	0	1360003072	51	4421
2026-01-21 22:42:15.64	130.09	26.12	-39.6	-41.7	14.6	0.00e+00	0	58	0	1363148800	51	4400
2026-01-21 22:42:16.65	130.35	26.03	-39.5	-41.5	14.8	7.00e-07	0	58	0	1366294528	50	4563
2026-01-21 22:42:17.66	130.60	25.93	-39.5	-41.5	14.8	0.00e+00	0	58	0	1369440256	50	4564
2026-01-21 22:42:18.67	130.85	25.83	-39.5	-41.6	14.7	0.00e+00	0	58	0	1372585984	50	4608
2026-01-21 22:42:19.67	131.09	25.74	-39.6	-41.6	14.7	0.00e+00	0	58	0	1375731712	50	4625
2026-01-21 22:42:20.68	131.34	25.64	-39.6	-41.6	14.7	7.00e-07	0	58	0	1378877440	50	4638
2026-01-21 22:42:21.70	131.59	25.54	-39.6	-41.7	14.6	0.00e+00	0	58	0	1382023168	50	4678
2026-01-21 22:42:22.70	131.83	25.45	-39.7	-41.8	14.4	0.00e+00	0	57	0	1385168896	50	4745
2026-01-21 22:42:23.72	132.07	25.35	-39.8	-42.0	14.3	1.50e-06	0	58	0	1388314624	50	4821
2026-01-21 22:42:24.73	132.31	25.25	-39.8	-42.0	14.3	3.00e-06	0	58	0	1391460352	50	4839
2026-01-21 22:42:25.74	132.55	25.15	-39.9	-42.1	14.2	1.50e-06	0	58	0	1394606080	50	4923
2026-01-21 22:42:26.74	132.79	25.06	-39.8	-42.0	14.3	7.00e-07	0	58	0	1397751808	50	4858
2026-01-21 22:42:27.75	133.02	24.96	-39.9	-42.0	14.2	0.00e+00	0	58	0	1400897536	50	4865
2026-01-21 22:42:28.76	133.26	24.86	-40.0	-42.2	14.0	1.50e-06	0	58	0	1404043264	50	4959
2026-01-21 22:42:29.77	133.49	24.76	-39.9	-42.2	14.1	1.50e-06	0	57	0	1407188992	50	4937
2026-01-21 22:42:30.78	133.72	24.66	-40.0	-42.2	14.1	7.00e-07	0	58	0	1410334720	50	4941
2026-01-21 22:42:31.79	133.96	24.56	-40.1	-42.4	13.9	5.30e-06	0	58	0	1413480448	50	5069
2026-01-21 22:42:32.80	134.18	24.47	-40.1	-42.4	13.9	3.80e-06	0	58	0	1416626176	50	5050
2026-01-21 22:42:33.81	134.41	24.37	-40.0	-42.2	14.1	1.50e-06	0	58	0	1419771904	50	4951
2026-01-21 22:42:34.82	134.64	24.27	-39.9	-42.0	14.2	7.00e-07	0	58	0	1422917632	50	4855
2026-01-21 22:42:35.83	134.86	24.17	-39.8	-42.0	14.2	0.00e+00	0	58	0	1426063360	50	4858
2026-01-21 22:42:36.84	135.09	24.07	-39.9	-42.1	14.2	1.50e-06	0	57	0	1429209088	50	4871
2026-01-21 22:42:37.85	135.31	23.97	-39.9	-42.1	14.2	2.20e-06	0	58	0	1432354816	50	4881
2026-01-21 22:42:38.86	135.53	23.87	-39.9	-42.1	14.1	3.80e-06	0	58	0	1435500544	50	4883
2026-01-21 22:42:39.87	135.75	23.77	-39.9	-42.2	14.0	3.80e-06	0	58	0	1438646272	50	4930
2026-01-21 22:42:40.88	135.97	23.67	-39.9	-42.1	14.1	2.20e-06	0	58	0	1441792000	50	4907
2026-01-21 22:42:41.89	136.19	23.58	-39.9	-42.1	14.1	1.50e-06	0	58	0	1444937728	50	4919
2026-01-21 22:42:42.90	136.40	23.48	-39.9	-42.1	14.1	7.00e-07	0	58	0	1448083456	50	4871
2026-01-21 22:42:43.91	136.62	23.38	-40.0	-42.2	14.0	1.50e-06	0	58	0	1451229184	50	4949
2026-01-21 22:42:44.92	136.83	23.28	-40.0	-42.2	13.9	2.20e-06	0	58	0	1454374912	50	4963
2026-01-21 22:42:45.93	137.04	23.18	-39.9	-42.2	14.0	5.30e-06	0	58	0	1457520640	50	4945
2026-01-21 22:42:46.94	137.25	23.08	-39.9	-42.2	14.0	4.50e-06	0	58	0	1460666368	50	4951
2026-01-21 22:42:47.95	137.46	22.98	-40.0	-42.2	14.0	2.20e-06	0	58	0	1463812096	50	4954
2026-01-21 22:42:48.97	137.67	22.88	-39.9	-42.1	14.0	4.50e-06	0	57	0	1466957824	50	4912
2026-01-21 22:42:49.98	137.88	22.78	-39.9	-42.2	14.0	7.00e-07	0	58	0	1470103552	50	4938
2026-01-21 22:42:50.98	138.08	22.68	-39.9	-42.2	14.0	4.50e-06	0	58	0	1473249280	50	4934
2026-01-21 22:42:52.00	138.29	22.58	-39.9	-42.1	14.1	7.00e-07	0	58	0	1476395008	50	4877
2026-01-21 22:42:53.00	138.49	22.48	-40.0	-42.2	13.9	1.50e-06	0	58	0	1479540736	50	4977
2026-01-21 22:42:54.01	138.69	22.38	-39.9	-42.2	14.0	3.00e-06	0	58	0	1482686464	50	4928
2026-01-21 22:42:55.02	138.89	22.28	-39.9	-42.2	14.0	4.50e-06	0	58	0	1485832192	50	4934
2026-01-21 22:42:56.04	139.09	22.18	-40.0	-42.3	13.9	3.80e-06	0	58	0	1488977920	50	5009
2026-01-21 22:42:57.05	139.29	22.09	-40.0	-42.3	13.9	6.80e-06	0	58	0	1492123648	50	5023
2026-01-21 22:42:58.06	139.48	21.99	-40.0	-42.3	13.8	7.60e-06	0	58	0	1495269376	50	5028
2026-01-21 22:42:59.07	139.68	21.89	-40.1	-42.4	13.7	7.60e-06	0	58	0	1499463680	50	5074
2026-01-21 22:43:00.08	139.87	21.79	-40.1	-42.4	13.7	3.00e-06	0	58	0	1502609408	50	5100
2026-01-21 22:43:01.09	140.07	21.69	-40.2	-42.5	13.6	6.10e-06	0	58	0	1504706560	50	5159
2026-01-21 22:43:02.10	140.26	21.59	-40.2	-42.5	13.6	5.30e-06	0	58	0	1507852288	50	5156
2026-01-21 22:43:03.11	140.45	21.49	-40.2	-42.5	13.6	9.90e-06	0	58	0	1510998016	50	5143
2026-01-21 22:43:04.12	140.64	21.39	-40.1	-42.4	13.7	3.80e-06	0	58	0	1515192320	50	5094
2026-01-21 22:43:05.13	140.83	21.29	-40.1	-42.4	13.7	9.10e-06	0	58	0	1518338048	50	5061
2026-01-21 22:43:06.14	141.01	21.20	-40.1	-42.4	13.7	1.50e-06	0	58	0	1521483776	50	5079
2026-01-21 22:43:07.15	141.20	21.10	-40.1	-42.5	13.6	6.80e-06	0	57	0	1524629504	50	5117
2026-01-21 22:43:08.16	141.38	21.00	-40.1	-42.5	13.6	1.52e-05	0	58	0	1526726656	50	5114
2026-01-21 22:43:09.17	141.57	20.90	-39.9	-42.2	13.9	3.80e-06	0	58	0	1530920960	50	4946
2026-01-21 22:43:10.18	141.75	20.80	-39.9	-42.1	14.0	7.00e-07	0	58	0	1534066688	50	4919
2026-01-21 22:43:11.19	141.93	20.70	-40.0	-42.3	13.8	3.00e-06	0	58	0	1537212416	50	5004
2026-01-21 22:43:12.20	142.11	20.61	-39.8	-42.1	14.0	7.00e-07	0	58	0	1540358144	50	4888
2026-01-21 22:43:13.21	142.29	20.51	-39.9	-42.1	14.0	4.50e-06	0	58	0	1543503872	50	4904
2026-01-21 22:43:14.21	142.46	20.41	-39.9	-42.2	13.9	3.00e-06	0	58	0	1546649600	50	4934
2026-01-21 22:43:15.22	142.64	20.31	-39.9	-42.2	13.9	6.10e-06	0	58	0	1549795328	50	4947
2026-01-21 22:43:16.23	142.82	20.22	-40.0	-42.3	13.8	3.00e-06	0	58	0	1552941056	50	4995
2026-01-21 22:43:17.24	142.99	20.12	-40.0	-42.2	13.8	2.20e-06	0	58	0	1556086784	50	4979
2026-01-21 22:43:18.25	143.17	20.02	-39.9	-42.2	13.9	3.80e-06	0	58	0	1559232512	50	4948
2026-01-21 22:43:19.26	143.34	19.92	-39.9	-42.2	13.9	3.00e-06	0	58	0	1562378240	50	4971
2026-01-21 22:43:20.27	143.51	19.83	-40.0	-42.3	13.8	5.30e-06	0	58	0	1565523968	50	4985
2026-01-21 22:43:21.28	143.68	19.73	-39.9	-42.1	13.9	6.10e-06	0	58	0	1568669696	50	4911
2026-01-21 22:43:22.29	143.85	19.63	-39.9	-42.2	13.9	1.50e-06	0	58	0	1571815424	50	4927
2026-01-21 22:43:23.30	144.02	19.54	-39.9	-42.1	13.9	7.00e-07	0	58	0	1574961152	50	4915
2026-01-21 22:43:24.31	144.18	19.44	-39.8	-42.1	14.0	3.00e-06	0	58	0	1578106880	50	4890
2026-01-21 22:43:25.32	144.35	19.34	-39.8	-42.1	13.9	7.00e-07	0	58	0	1581252608	50	4882
2026-01-21 22:43:26.33	144.52	19.25	-39.8	-42.1	13.9	3.80e-06	0	58	0	1584398336	50	4910
2026-01-21 22:43:27.34	144.68	19.15	-39.9	-42.2	13.9	1.50e-06	0	58	0	1587544064	50	4931
2026-01-21 22:43:28.35	144.84	19.05	-39.8	-42.1	13.9	3.80e-06	0	58	0	1590689792	50	4886
2026-01-21 22:43:29.36	145.01	18.96	-39.8	-42.1	13.9	2.20e-06	0	58	0	1593835520	50	4900
2026-01-21 22:43:30.37	145.17	18.86	-39.9	-42.2	13.8	5.30e-06	0	58	0	1596981248	50	4954
2026-01-21 22:43:31.38	145.33	18.77	-39.8	-42.0	14.0	1.50e-06	0	58	0	1600126976	50	4860
2026-01-21 22:43:32.39	145.49	18.67	-39.7	-41.9	14.0	3.00e-06	0	58	0	1603272704	50	4809
2026-01-21 22:43:33.41	145.65	18.57	-39.7	-41.8	14.1	2.20e-06	0	58	0	1606418432	50	4748
2026-01-21 22:43:34.42	145.80	18.48	-39.7	-41.9	14.0	1.50e-06	0	58	0	1609564160	50	4806
2026-01-21 22:43:35.43	145.96	18.38	-39.8	-42.1	13.9	3.00e-06	0	58	0	1612709888	50	4871
2026-01-21 22:43:36.44	146.11	18.29	-39.8	-42.1	13.9	3.80e-06	0	58	0	1615855616	50	4892
2026-01-21 22:43:37.45	146.27	18.20	-39.9	-42.2	13.7	6.80e-06	0	58	0	1619001344	50	4967
2026-01-21 22:43:38.46	146.42	18.10	-40.0	-42.4	13.6	5.30e-06	0	58	0	1622147072	50	5048
2026-01-21 22:43:39.47	146.58	18.01	-40.1	-42.5	13.5	9.10e-06	0	58	0	1625292800	50	5132
2026-01-21 22:43:40.48	146.73	17.91	-40.1	-42.4	13.5	1.60e-05	0	58	0	1628438528	50	5100
2026-01-21 22:43:41.49	146.88	17.82	-40.1	-42.6	13.4	1.60e-05	0	58	0	1631584256	50	5162
2026-01-21 22:43:42.50	147.03	17.72	-40.1	-42.5	13.4	8.30e-06	0	58	0	1634729984	50	5148
2026-01-21 22:43:43.51	147.18	17.63	-40.1	-42.5	13.4	1.29e-05	0	58	0	1637875712	50	5147
2026-01-21 22:43:44.53	147.33	17.54	-40.1	-42.5	13.4	1.98e-05	0	58	0	1641021440	50	5147
2026-01-21 22:43:45.54	147.47	17.44	-40.1	-42.5	13.5	1.14e-05	0	58	0	1644167168	50	5127
2026-01-21 22:43:46.55	147.62	17.35	-40.2	-42.7	13.3	1.83e-05	0	58	0	1647312896	50	5219
2026-01-21 22:43:47.56	147.77	17.26	-40.2	-42.6	13.3	1.44e-05	0	58	0	1650458624	51	4914
2026-01-21 22:43:48.57	147.91	17.16	-40.2	-42.6	13.3	2.59e-05	0	58	0	1653604352	51	4925
2026-01-21 22:43:49.58	148.05	17.07	-40.2	-42.7	13.2	2.21e-05	0	58	0	1656750080	51	4955
2026-01-21 22:43:50.59	148.20	16.98	-40.3	-42.7	13.2	1.98e-05	0	58	0	1659895808	51	4976
2026-01-21 22:43:51.60	148.34	16.89	-40.3	-42.7	13.2	2.21e-05	0	58	0	1663041536	51	4976
2026-01-21 22:43:52.61	148.48	16.80	-40.2	-42.7	13.2	2.97e-05	0	58	0	1666187264	51	4955
2026-01-21 22:43:53.62	148.62	16.70	-40.2	-42.7	13.2	2.67e-05	0	58	0	1669332992	51	4979
2026-01-21 22:43:54.63	148.76	16.61	-40.2	-42.7	13.2	2.67e-05	0	58	0	1672478720	51	4975
2026-01-21 22:43:55.63	148.90	16.52	-40.3	-42.8	13.1	4.27e-05	0	58	0	1675624448	51	5035
2026-01-21 22:43:56.65	149.04	16.43	-40.4	-43.0	12.9	4.34e-05	0	58	0	1678770176	51	5102
2026-01-21 22:43:57.65	149.17	16.34	-40.4	-43.0	12.9	4.57e-05	0	58	0	1681915904	51	5108
2026-01-21 22:43:58.66	149.31	16.25	-40.5	-43.1	12.8	5.34e-05	0	58	0	1685061632	51	5161
2026-01-21 22:43:59.67	149.44	16.16	-40.4	-43.0	12.9	5.11e-05	0	58	0	1688207360	51	5117
2026-01-21 22:44:00.68	149.58	16.07	-40.5	-43.1	12.8	6.33e-05	0	58	0	1691353088	51	5189
2026-01-21 22:44:01.69	149.71	15.98	-40.5	-43.1	12.8	6.63e-05	0	58	0	1694498816	51	5192
2026-01-21 22:44:02.70	149.85	15.89	-40.5	-43.2	12.7	7.24e-05	0	58	0	1697644544	51	5236
2026-01-21 22:44:03.71	149.98	15.80	-40.5	-43.2	12.7	8.39e-05	0	58	0	1700790272	51	5231
2026-01-21 22:44:04.72	150.11	15.71	-40.6	-43.3	12.5	8.01e-05	0	58	0	1703936000	51	5315
2026-01-21 22:44:05.73	150.24	15.62	-40.6	-43.3	12.5	1.16e-04	0	58	0	1707081728	51	5318
2026-01-21 22:44:06.74	150.37	15.53	-40.6	-43.3	12.5	1.09e-04	0	58	0	1710227456	51	5318
2026-01-21 22:44:07.75	150.50	15.44	-40.6	-43.3	12.5	1.17e-04	0	58	0	1713373184	51	5305
2026-01-21 22:44:08.76	150.63	15.35	-40.6	-43.3	12.5	1.35e-04	0	58	0	1716518912	51	5332
2026-01-21 22:44:09.77	150.76	15.26	-40.6	-43.4	12.4	1.33e-04	0	58	0	1719664640	51	5352
2026-01-21 22:44:10.77	150.88	15.17	-40.6	-43.3	12.5	1.24e-04	0	58	0	1722810368	51	5309
2026-01-21 22:44:11.79	151.01	15.08	-40.6	-43.4	12.4	1.36e-04	0	58	0	1725956096	51	5355
2026-01-21 22:44:12.79	151.13	15.00	-40.7	-43.5	12.2	1.88e-04	0	58	0	1729101824	52	5125
2026-01-21 22:44:13.81	151.26	14.91	-40.7	-43.5	12.2	1.96e-04	0	58	0	1732247552	52	5124
2026-01-21 22:44:14.82	151.38	14.82	-40.7	-43.6	12.1	2.86e-04	0	58	0	1735393280	52	5171
2026-01-21 22:44:15.83	151.51	14.73	-40.7	-43.5	12.2	2.63e-04	0	58	0	1738539008	52	5149
2026-01-21 22:44:16.84	151.63	14.64	-40.6	-43.4	12.3	2.05e-04	0	58	0	1741684736	52	5051
2026-01-21 22:44:17.85	151.75	14.56	-40.6	-43.4	12.3	2.01e-04	0	58	0	1744830464	52	5078
2026-01-21 22:44:18.85	151.87	14.47	-40.6	-43.4	12.2	1.93e-04	0	58	0	1747976192	52	5084
2026-01-21 22:44:19.86	151.99	14.38	-40.7	-43.5	12.2	2.18e-04	0	58	0	1751121920	52	5129
2026-01-21 22:44:20.87	152.11	14.30	-40.6	-43.4	12.2	1.96e-04	0	58	0	1754267648	52	5100
2026-01-21 22:44:21.88	152.23	14.21	-40.5	-43.3	12.4	1.74e-04	0	58	0	1757413376	52	4994
2026-01-21 22:44:22.89	152.35	14.12	-40.5	-43.2	12.5	1.11e-04	0	58	0	1760559104	52	4942
2026-01-21 22:44:23.90	152.47	14.04	-40.5	-43.2	12.5	1.17e-04	0	58	0	1763704832	52	4966
2026-01-21 22:44:24.91	152.59	13.95	-40.5	-43.3	12.4	1.48e-04	0	58	0	1766850560	52	5001
2026-01-21 22:44:25.93	152.71	13.87	-40.6	-43.3	12.3	1.52e-04	0	58	0	1769996288	52	5034
2026-01-21 22:44:26.94	152.82	13.78	-40.6	-43.4	12.3	2.04e-04	0	58	0	1773142016	52	5070
2026-01-21 22:44:27.94	152.94	13.70	-40.6	-43.5	12.2	2.30e-04	0	58	0	1776287744	52	5112
2026-01-21 22:44:28.95	153.05	13.61	-40.7	-43.5	12.1	2.97e-04	0	58	0	1779433472	52	5153
2026-01-21 22:44:29.96	153.17	13.53	-40.6	-43.4	12.2	2.07e-04	0	58	0	1782579200	52	5078
2026-01-21 22:44:30.97	153.28	13.44	-40.6	-43.5	12.2	2.08e-04	0	58	0	1785724928	52	5107
2026-01-21 22:44:31.98	153.39	13.36	-40.6	-43.5	12.2	2.26e-04	0	58	0	1788870656	52	5108
2026-01-21 22:44:32.99	153.50	13.27	-40.7	-43.5	12.1	2.73e-04	0	58	0	1792016384	52	5157
2026-01-21 22:44:34.00	153.62	13.19	-40.6	-43.5	12.1	2.95e-04	0	58	0	1795162112	52	5116
2026-01-21 22:44:35.01	153.73	13.10	-40.6	-43.4	12.2	2.15e-04	0	58	0	1798307840	52	5079
2026-01-21 22:44:36.02	153.84	13.02	-40.7	-43.6	12.0	2.95e-04	0	58	0	1801453568	52	5194
2026-01-21 22:44:37.03	153.95	12.94	-40.6	-43.5	12.1	2.88e-04	0	58	0	1804599296	52	5105
2026-01-21 22:44:38.04	154.06	12.85	-40.5	-43.3	12.2	2.53e-04	0	58	0	1807745024	52	5038
2026-01-21 22:44:39.05	154.17	12.77	-40.5	-43.3	12.2	2.25e-04	0	58	0	1810890752	52	5008
2026-01-21 22:44:40.06	154.27	12.69	-40.5	-43.4	12.1	2.31e-04	0	58	0	1814036480	52	5066
2026-01-21 22:44:41.07	154.38	12.60	-40.6	-43.4	12.1	2.46e-04	0	58	0	1818230784	52	5074
2026-01-21 22:44:42.08	154.49	12.52	-40.5	-43.2	12.3	2.04e-04	0	58	0	1820327936	52	4983
2026-01-21 22:44:43.09	154.59	12.44	-40.4	-43.2	12.4	1.84e-04	0	58	0	1823473664	52	4935
2026-01-21 22:44:44.10	154.70	12.36	-40.4	-43.2	12.3	1.88e-04	0	58	0	1826619392	52	4963
2026-01-21 22:44:45.11	154.81	12.28	-40.4	-43.2	12.3	1.76e-04	0	58	0	1829765120	52	4960
2026-01-21 22:44:46.12	154.91	12.19	-40.4	-43.2	12.3	1.77e-04	0	58	0	1833959424	52	4940
2026-01-21 22:44:47.13	155.01	12.11	-40.4	-43.2	12.3	1.62e-04	0	58	0	1837105152	52	4971
2026-01-21 22:44:48.14	155.12	12.03	-40.5	-43.4	12.1	2.59e-04	0	58	0	1840250880	52	5081
2026-01-21 22:44:49.15	155.22	11.95	-40.3	-43.0	12.4	1.43e-04	0	58	0	1842348032	52	4865
2026-01-21 22:44:50.16	155.32	11.87	-40.4	-43.2	12.3	1.69e-04	0	58	0	1845493760	52	4942
2026-01-21 22:44:51.17	155.42	11.79	-40.4	-43.2	12.3	1.83e-04	0	58	0	1849688064	52	4962
2026-01-21 22:44:52.18	155.53	11.71	-40.5	-43.3	12.2	1.75e-04	0	58	0	1852833792	52	5007
2026-01-21 22:44:53.19	155.63	11.63	-40.3	-43.1	12.3	1.86e-04	0	58	0	1855979520	52	4905
2026-01-21 22:44:54.20	155.73	11.55	-40.4	-43.1	12.3	1.88e-04	0	58	0	1859125248	52	4921
2026-01-21 22:44:55.21	155.83	11.46	-40.4	-43.2	12.3	1.98e-04	0	58	0	1862270976	52	4936
2026-01-21 22:44:56.22	155.93	11.39	-40.4	-43.1	12.3	1.71e-04	0	58	0	1865416704	52	4920
2026-01-21 22:44:57.23	156.03	11.31	-40.4	-43.3	12.2	2.32e-04	0	58	0	1868562432	52	4984
2026-01-21 22:44:58.24	156.12	11.23	-40.5	-43.3	12.1	2.94e-04	0	58	0	1871708160	52	5025
2026-01-21 22:44:59.25	156.22	11.15	-40.5	-43.4	12.0	3.44e-04	0	58	0	1874853888	52	5063
2026-01-21 22:45:00.26	156.32	11.07	-40.5	-43.4	11.9	4.25e-04	0	58	0	1877999616	52	5063
2026-01-21 22:45:01.27	156.41	10.99	-40.4	-43.3	12.1	2.76e-04	0	58	0	1881145344	52	5012
2026-01-21 22:45:02.27	156.51	10.91	-40.5	-43.4	12.0	3.42e-04	0	58	0	1884291072	52	5057
2026-01-21 22:45:03.28	156.61	10.83	-40.5	-43.5	11.9	4.69e-04	0	58	0	1887436800	52	5114
2026-01-21 22:45:04.29	156.70	10.75	-40.6	-43.6	11.7	3.50e-04	0	58	0	1890582528	52	5172
2026-01-21 22:45:05.30	156.80	10.67	-40.7	-43.8	11.5	6.00e-04	0	58	0	1893728256	52	5282
2026-01-21 22:45:06.31	156.89	10.60	-40.5	-43.5	11.8	5.96e-04	0	58	0	1896873984	52	5119
2026-01-21 22:45:07.32	156.98	10.52	-40.7	-43.8	11.5	7.55e-04	0	58	0	1900019712	52	5300
2026-01-21 22:45:08.33	157.08	10.44	-40.6	-43.7	11.5	7.64e-04	0	58	0	1903165440	52	5252
2026-01-21 22:45:09.34	157.17	10.36	-40.5	-43.5	11.7	6.81e-04	0	58	0	1906311168	52	5159
2026-01-21 22:45:10.35	157.26	10.29	-40.7	-43.8	11.4	9.25e-04	0	58	0	1909456896	52	5311
