passes_logs/2026/01/21/R2.0S_Moscow/R2.0S_Moscow__20260121_091255_SUOMI_NPP_rec.log

#Pass ID: 20260121_091255_SUOMI NPP
#Satellite: SUOMI NPP
#Configuration: NPP
#almurnet v.1.7.20251203
#Start time: 2026-01-21 09:12:57

#Version: 2.2.20231116
#Station: R2.0S_Moscow
#Location: 37.707566 lon 55.798166 lat
#TLE: 1 37849U 11061A   26020.31993517  .00000142  00000+0  88240-4 0  9990
#TLE: 2 37849  98.7818 322.3228 0002330  54.3778 305.7615 14.19527005737466

#Time	Az	El	Level	Level2	SNR	BER	BlckErr	Temp	State	Recorded	gain1	gain2
2026-01-21 09:12:57.44	137.78	2.14	-20.9	-38.7	3.9	1.51e+00	0	51	0	0	7	39151
2026-01-21 09:12:58.45	137.75	2.21	-16.9	-36.9	3.9	1.51e+00	0	51	104	0	4	38105
2026-01-21 09:12:59.46	137.71	2.27	-19.0	-41.4	3.8	1.51e+00	0	51	104	0	7	53723
2026-01-21 09:13:00.46	137.68	2.33	-16.9	-39.1	3.8	1.51e+00	0	52	104	0	4	48857
2026-01-21 09:13:01.47	137.65	2.40	-17.4	-39.3	3.8	1.51e+00	0	52	104	0	7	42162
2026-01-21 09:13:02.48	137.61	2.46	-17.7	-36.0	3.8	1.51e+00	0	52	104	0	6	30490
2026-01-21 09:13:03.50	137.58	2.53	-15.5	-33.8	3.5	1.50e+00	0	52	104	0	7	22357
2026-01-21 09:13:04.51	137.55	2.59	-20.4	-41.6	3.6	1.51e+00	0	52	104	0	11	43431
2026-01-21 09:13:05.52	137.51	2.66	-18.1	-32.3	3.7	1.51e+00	0	52	104	0	8	17757
2026-01-21 09:13:06.53	137.48	2.72	-16.5	-33.2	4.1	1.51e+00	0	52	104	0	6	22061
2026-01-21 09:13:07.54	137.45	2.79	-16.7	-40.7	3.3	1.50e+00	0	52	104	0	6	52628
2026-01-21 09:13:08.55	137.41	2.85	-18.3	-34.7	3.8	1.51e+00	0	52	104	0	4	29432
2026-01-21 09:13:09.56	137.38	2.92	-19.4	-35.6	3.9	1.51e+00	0	52	104	0	4	32704
2026-01-21 09:13:10.57	137.34	2.98	-20.7	-39.3	3.8	1.51e+00	0	52	104	0	7	42268
2026-01-21 09:13:11.58	137.31	3.05	-17.4	-38.5	4.0	1.51e+00	0	52	0	0	7	38533
2026-01-21 09:13:12.59	137.28	3.11	-20.0	-38.9	4.0	1.51e+00	0	52	104	0	3	50850
2026-01-21 09:13:13.60	137.24	3.18	-16.5	-36.9	3.6	1.51e+00	0	53	104	0	6	34073
2026-01-21 09:13:14.61	137.21	3.24	-18.1	-37.5	3.8	1.51e+00	0	53	104	0	7	34152
2026-01-21 09:13:15.62	137.17	3.31	-18.0	-36.9	3.6	1.51e+00	0	53	104	0	7	31905
2026-01-21 09:13:16.63	137.14	3.38	-16.5	-29.9	3.9	1.51e+00	0	53	104	0	4	17077
2026-01-21 09:13:17.64	137.10	3.44	-17.1	-36.8	3.9	1.51e+00	0	53	104	0	4	37497
2026-01-21 09:13:18.65	137.07	3.51	-16.2	-40.2	3.8	1.51e+00	0	53	104	0	5	52311
2026-01-21 09:13:19.66	137.03	3.58	-18.3	-34.5	4.0	1.51e+00	0	53	104	0	9	21537
2026-01-21 09:13:20.67	136.99	3.64	-26.7	-42.1	3.8	1.51e+00	0	53	104	0	15	36648
2026-01-21 09:13:21.68	136.96	3.71	-19.4	-37.3	4.1	1.51e+00	0	53	104	0	9	29699
2026-01-21 09:13:22.69	136.92	3.78	-23.7	-42.7	3.8	1.51e+00	0	53	104	0	16	37024
2026-01-21 09:13:23.70	136.88	3.84	-19.4	-40.0	4.2	1.51e+00	0	53	104	0	11	36502
2026-01-21 09:13:24.71	136.85	3.91	-19.6	-40.0	4.1	1.51e+00	0	53	104	0	9	40844
2026-01-21 09:13:25.72	136.81	3.98	-17.5	-38.5	3.7	1.51e+00	0	53	0	0	8	36158
2026-01-21 09:13:26.73	136.77	4.05	-19.5	-38.2	3.8	1.51e+00	0	53	104	0	9	32972
2026-01-21 09:13:27.74	136.74	4.11	-29.8	-43.9	3.7	1.51e+00	0	53	104	0	22	30377
2026-01-21 09:13:28.75	136.70	4.18	-18.8	-41.0	3.7	1.51e+00	0	54	104	0	12	38388
2026-01-21 09:13:29.76	136.66	4.25	-28.8	-47.2	4.0	1.51e+00	0	53	104	0	20	49415
2026-01-21 09:13:30.77	136.62	4.32	-24.1	-41.5	5.5	1.51e+00	0	54	104	0	15	34187
2026-01-21 09:13:31.78	136.59	4.39	-19.9	-38.2	4.6	1.51e+00	0	53	104	0	12	27910
2026-01-21 09:13:32.79	136.55	4.46	-18.5	-41.4	3.7	1.51e+00	0	54	104	0	7	53933
2026-01-21 09:13:33.80	136.51	4.53	-21.7	-44.8	3.8	1.51e+00	0	54	104	0	11	62953
2026-01-21 09:13:34.81	136.47	4.59	-21.4	-36.3	3.5	1.51e+00	0	54	104	0	12	22513
2026-01-21 09:13:35.83	136.43	4.66	-19.1	-41.2	3.7	1.51e+00	0	54	104	0	8	49791
2026-01-21 09:13:36.84	136.39	4.73	-26.6	-43.8	3.2	1.51e+00	0	54	104	0	17	39954
2026-01-21 09:13:37.85	136.36	4.80	-24.0	-44.2	4.0	1.51e+00	0	54	104	0	23	29520
2026-01-21 09:13:38.86	136.32	4.87	-16.0	-30.7	3.9	1.51e+00	0	54	104	0	7	15744
2026-01-21 09:13:39.87	136.28	4.94	-18.5	-32.7	4.3	1.50e+00	0	54	104	0	11	15592
2026-01-21 09:13:40.88	136.24	5.01	-18.8	-38.5	3.6	1.51e+00	0	54	104	0	5	43212
2026-01-21 09:13:41.89	136.20	5.08	-17.1	-38.1	4.8	1.51e+00	0	54	0	0	6	38869
2026-01-21 09:13:42.90	136.16	5.15	-17.3	-34.4	3.5	1.51e+00	0	54	104	0	5	26859
2026-01-21 09:13:43.91	136.12	5.22	-18.7	-33.5	3.8	1.50e+00	0	54	104	0	7	21689
2026-01-21 09:13:44.92	136.08	5.29	-21.8	-39.6	3.4	1.51e+00	0	54	104	0	7	43529
2026-01-21 09:13:45.93	136.04	5.37	-19.5	-35.1	3.9	1.51e+00	0	54	104	0	7	25870
2026-01-21 09:13:46.94	135.99	5.44	-17.9	-35.0	3.6	1.51e+00	0	55	104	0	8	24358
2026-01-21 09:13:47.95	135.95	5.51	-14.1	-33.5	3.3	1.51e+00	0	54	104	0	7	21527
2026-01-21 09:13:48.96	135.91	5.58	-19.9	-35.8	4.3	1.50e+00	0	55	104	0	6	29885
2026-01-21 09:13:49.97	135.87	5.65	-15.7	-29.8	3.8	1.50e+00	0	54	104	0	3	17780
2026-01-21 09:13:50.98	135.83	5.72	-30.4	-47.2	5.7	1.51e+00	0	55	104	0	16	62156
2026-01-21 09:13:51.99	135.79	5.79	-30.4	-48.0	4.0	1.51e+00	0	55	104	0	26	38669
2026-01-21 09:13:53.00	135.74	5.87	-30.9	-47.4	3.9	1.51e+00	0	55	104	0	22	44949
2026-01-21 09:13:54.01	135.70	5.94	-22.9	-41.2	4.3	1.51e+00	0	55	0	0	22	22010
2026-01-21 09:13:55.02	135.66	6.01	-17.1	-37.8	3.7	1.51e+00	0	55	104	0	5	39865
2026-01-21 09:13:56.03	135.62	6.08	-22.5	-41.9	4.4	1.51e+00	0	55	104	0	21	25385
2026-01-21 09:13:57.05	135.57	6.16	-19.8	-39.3	3.7	1.51e+00	0	55	104	0	7	41962
2026-01-21 09:13:58.06	135.53	6.23	-23.7	-42.2	3.7	1.51e+00	0	55	104	0	9	52453
2026-01-21 09:13:59.07	135.49	6.30	-23.2	-41.1	3.6	1.51e+00	0	55	0	0	10	43681
2026-01-21 09:14:00.08	135.44	6.38	-16.3	-36.5	3.9	1.51e+00	0	55	104	0	5	34140
2026-01-21 09:14:01.09	135.40	6.45	-25.5	-43.6	3.7	1.51e+00	0	55	0	0	13	48722
2026-01-21 09:14:02.10	135.35	6.52	-23.8	-37.6	4.2	1.51e+00	0	55	104	0	15	21887
2026-01-21 09:14:03.11	135.31	6.60	-25.3	-43.0	4.8	1.51e+00	0	55	104	0	21	28825
2026-01-21 09:14:04.12	135.27	6.67	-23.0	-43.0	4.0	1.51e+00	0	55	104	0	26	21689
2026-01-21 09:14:05.13	135.22	6.75	-16.4	-32.6	3.7	1.51e+00	0	55	104	0	6	20713
2026-01-21 09:14:06.14	135.18	6.82	-19.7	-37.4	4.0	1.51e+00	0	55	104	0	9	30115
2026-01-21 09:14:07.15	135.13	6.90	-28.5	-44.8	3.7	1.51e+00	0	55	104	0	21	35548
2026-01-21 09:14:08.16	135.08	6.97	-28.2	-44.3	3.9	1.51e+00	0	55	104	0	23	29949
2026-01-21 09:14:09.17	135.04	7.05	-28.2	-42.3	3.6	1.51e+00	0	55	104	0	19	30000
2026-01-21 09:14:10.18	134.99	7.12	-16.8	-32.9	3.6	1.51e+00	0	56	104	0	4	23874
2026-01-21 09:14:11.19	134.95	7.20	-24.3	-38.6	3.3	1.50e+00	0	55	104	0	8	36805
2026-01-21 09:14:12.20	134.90	7.27	-27.8	-42.3	3.8	1.51e+00	0	56	104	0	20	28055
2026-01-21 09:14:13.22	134.85	7.35	-22.7	-45.9	4.3	1.51e+00	0	56	104	0	25	31828
2026-01-21 09:14:14.23	134.80	7.43	-22.2	-42.0	3.9	1.51e+00	0	56	104	0	23	22838
2026-01-21 09:14:15.24	134.76	7.50	-19.2	-37.1	3.7	1.51e+00	0	56	104	0	9	29201
2026-01-21 09:14:16.25	134.71	7.58	-19.7	-38.5	3.7	1.51e+00	0	56	104	0	7	38521
2026-01-21 09:14:17.26	134.66	7.66	-31.7	-48.5	4.1	1.51e+00	0	56	104	0	28	36505
2026-01-21 09:14:18.26	134.61	7.73	-24.2	-41.6	4.0	1.51e+00	0	56	104	0	23	21911
2026-01-21 09:14:19.27	134.56	7.81	-21.0	-36.3	4.0	1.51e+00	0	56	104	0	18	15888
2026-01-21 09:14:20.28	134.52	7.89	-23.3	-40.3	4.2	1.51e+00	0	56	104	0	19	23593
2026-01-21 09:14:21.29	134.47	7.97	-16.1	-30.0	4.1	1.51e+00	0	56	104	0	8	13571
2026-01-21 09:14:22.30	134.42	8.04	-17.1	-34.4	3.8	1.50e+00	0	56	104	0	14	16016
2026-01-21 09:14:23.31	134.37	8.12	-19.2	-34.4	3.7	1.50e+00	0	56	104	0	7	23946
2026-01-21 09:14:24.33	134.32	8.20	-21.1	-36.8	3.9	1.51e+00	0	56	104	0	13	22508
2026-01-21 09:14:25.33	134.27	8.28	-19.1	-34.4	3.8	1.51e+00	0	56	0	0	10	20272
2026-01-21 09:14:26.34	134.22	8.36	-22.0	-39.7	3.7	1.51e+00	0	56	104	0	17	24908
2026-01-21 09:14:27.35	134.17	8.44	-16.4	-34.0	3.8	1.51e+00	0	56	104	0	4	27378
2026-01-21 09:14:28.36	134.12	8.52	-18.2	-31.8	3.8	1.50e+00	0	56	104	0	12	13262
2026-01-21 09:14:29.37	134.06	8.60	-12.9	-29.0	3.9	1.50e+00	0	56	104	0	1	18205
2026-01-21 09:14:30.39	134.01	8.68	-22.6	-33.2	3.7	1.50e+00	0	56	104	0	6	22161
2026-01-21 09:14:31.40	133.96	8.76	-17.2	-33.8	3.9	1.51e+00	0	56	0	0	14	14947
2026-01-21 09:14:32.41	133.91	8.84	-19.3	-34.8	3.6	1.51e+00	0	56	104	0	13	17739
2026-01-21 09:14:33.42	133.86	8.92	-22.9	-37.4	3.8	1.51e+00	0	56	0	0	14	22531
2026-01-21 09:14:34.43	133.80	9.00	-15.9	-30.4	3.7	1.50e+00	0	56	104	0	3	19126
2026-01-21 09:14:35.44	133.75	9.08	-13.7	-35.5	4.0	1.51e+00	0	57	104	0	2	36388
2026-01-21 09:14:36.44	133.70	9.16	-14.0	-34.5	3.7	1.50e+00	0	56	104	0	1	34314
2026-01-21 09:14:37.45	133.64	9.24	-21.1	-34.4	3.6	1.51e+00	0	57	104	0	9	21488
2026-01-21 09:14:38.46	133.59	9.32	-16.4	-31.4	3.6	1.50e+00	0	56	104	0	14	11305
2026-01-21 09:14:39.47	133.53	9.41	-19.5	-32.9	3.3	1.50e+00	0	56	0	0	8	19137
2026-01-21 09:14:40.48	133.48	9.49	-16.3	-33.2	3.8	1.50e+00	0	57	104	0	10	17679
2026-01-21 09:14:41.49	133.42	9.57	-21.0	-33.9	3.4	1.51e+00	0	57	104	0	8	21466
2026-01-21 09:14:42.50	133.37	9.65	-16.1	-26.3	3.6	1.50e+00	0	57	104	0	3	11910
2026-01-21 09:14:43.51	133.31	9.74	-20.4	-36.1	3.5	1.51e+00	0	57	104	0	9	25977
2026-01-21 09:14:44.52	133.26	9.82	-18.4	-33.1	3.8	1.50e+00	0	57	104	0	9	18429
2026-01-21 09:14:45.53	133.20	9.90	-17.6	-32.3	3.7	1.51e+00	0	57	104	0	7	18900
2026-01-21 09:14:46.54	133.14	9.99	-16.2	-30.5	3.5	1.51e+00	0	57	104	0	7	15247
2026-01-21 09:14:47.55	133.09	10.07	-18.6	-34.1	3.6	1.51e+00	0	57	104	0	8	22007
2026-01-21 09:14:48.56	133.03	10.15	-20.0	-33.5	3.8	1.51e+00	0	57	104	0	7	21592
2026-01-21 09:14:49.57	132.97	10.24	-19.2	-33.0	3.7	1.50e+00	0	57	104	0	6	21551
2026-01-21 09:14:50.58	132.91	10.32	-26.9	-38.4	3.9	1.51e+00	0	57	104	0	11	30306
2026-01-21 09:14:51.59	132.86	10.41	-20.8	-36.1	3.5	1.50e+00	0	57	104	0	12	21990
2026-01-21 09:14:52.60	132.80	10.49	-17.8	-31.6	4.0	1.51e+00	0	57	104	0	11	13770
2026-01-21 09:14:53.61	132.74	10.58	-17.4	-29.7	3.7	1.50e+00	0	57	104	0	5	15640
2026-01-21 09:14:54.62	132.68	10.66	-15.9	-30.3	3.6	1.50e+00	0	57	104	0	3	18795
2026-01-21 09:14:55.63	132.62	10.75	-14.1	-28.2	3.9	1.50e+00	0	57	104	0	0	17597
2026-01-21 09:14:56.64	132.56	10.84	-19.7	-35.8	4.0	1.51e+00	0	57	104	0	14	18736
2026-01-21 09:14:57.65	132.50	10.92	-23.3	-38.7	3.7	1.51e+00	0	57	104	0	17	22027
2026-01-21 09:14:58.66	132.44	11.01	-20.8	-37.4	3.9	1.50e+00	0	57	104	0	12	25330
2026-01-21 09:14:59.67	132.37	11.10	-14.4	-33.5	3.8	1.50e+00	0	57	104	0	1	30579
2026-01-21 09:15:00.68	132.31	11.19	-21.9	-36.9	3.8	1.49e+00	0	57	104	0	12	24121
2026-01-21 09:15:01.69	132.25	11.27	-22.0	-33.1	3.7	1.50e+00	0	57	0	0	11	16463
2026-01-21 09:15:02.70	132.19	11.36	-22.7	-38.2	4.0	1.50e+00	0	57	104	0	13	26181
2026-01-21 09:15:03.71	132.13	11.45	-15.2	-32.3	3.7	1.50e+00	0	57	104	0	3	23704
2026-01-21 09:15:04.72	132.06	11.54	-17.2	-32.3	4.0	1.50e+00	0	57	104	0	5	21108
2026-01-21 09:15:05.73	132.00	11.63	-17.0	-32.4	3.5	1.50e+00	0	57	104	0	7	18972
2026-01-21 09:15:06.74	131.93	11.72	-16.8	-28.4	3.7	1.50e+00	0	57	104	0	1	16982
2026-01-21 09:15:07.74	131.87	11.80	-15.1	-30.8	3.9	1.50e+00	0	57	104	0	4	18876
2026-01-21 09:15:08.76	131.80	11.89	-22.9	-36.3	3.7	1.50e+00	0	57	104	0	11	23608
2026-01-21 09:15:09.76	131.74	11.98	-15.4	-26.3	3.9	1.50e+00	0	57	104	0	10	7902
2026-01-21 09:15:10.77	131.67	12.07	-15.5	-29.4	3.9	1.50e+00	0	57	104	0	0	20302
2026-01-21 09:15:11.78	131.61	12.16	-22.6	-37.0	3.8	1.50e+00	0	57	104	0	10	27255
2026-01-21 09:15:12.79	131.54	12.26	-24.4	-39.9	3.8	1.50e+00	0	58	104	0	11	35951
2026-01-21 09:15:13.80	131.47	12.35	-26.7	-41.0	4.0	1.50e+00	0	57	104	0	19	25581
2026-01-21 09:15:14.81	131.41	12.44	-27.5	-40.2	4.3	1.49e+00	0	57	104	0	20	22008
2026-01-21 09:15:15.82	131.34	12.53	-20.5	-35.1	4.0	1.49e+00	0	58	104	0	14	17400
2026-01-21 09:15:16.83	131.27	12.62	-20.8	-37.2	4.1	1.49e+00	0	57	104	0	19	16536
2026-01-21 09:15:17.84	131.20	12.71	-18.3	-35.2	3.9	1.50e+00	0	58	104	0	11	20796
2026-01-21 09:15:18.85	131.13	12.81	-21.0	-38.7	4.0	1.50e+00	0	57	104	0	17	22020
2026-01-21 09:15:19.86	131.06	12.90	-18.3	-32.5	3.8	1.50e+00	0	58	104	0	5	21563
2026-01-21 09:15:20.87	130.99	12.99	-31.6	-43.4	5.4	1.50e+00	0	57	104	0	21	30090
2026-01-21 09:15:21.88	130.92	13.09	-27.3	-45.5	3.7	1.50e+00	0	58	104	0	29	24353
2026-01-21 09:15:22.89	130.85	13.18	-21.2	-37.8	4.0	1.50e+00	0	58	104	0	15	22275
2026-01-21 09:15:23.90	130.78	13.28	-24.7	-39.1	3.9	1.50e+00	0	58	104	0	17	23308
2026-01-21 09:15:24.91	130.71	13.37	-24.2	-41.0	3.5	1.50e+00	0	58	104	0	18	27298
2026-01-21 09:15:25.92	130.64	13.47	-17.8	-34.6	3.8	1.50e+00	0	58	104	0	7	24633
2026-01-21 09:15:26.93	130.56	13.56	-29.6	-44.2	3.9	1.50e+00	0	58	0	0	20	35231
2026-01-21 09:15:27.94	130.49	13.66	-31.8	-45.3	3.8	1.50e+00	0	58	104	0	22	35442
2026-01-21 09:15:28.95	130.41	13.75	-38.9	-51.6	5.0	1.14e+00	0	58	0	0	50	14683
2026-01-21 09:15:29.95	130.34	13.85	-35.3	-49.4	4.2	1.06e+00	0	58	104	0	45	15187
2026-01-21 09:15:30.96	130.27	13.94	-25.3	-38.9	3.6	1.49e+00	0	58	104	0	18	21451
2026-01-21 09:15:31.98	130.19	14.04	-26.5	-42.7	3.9	1.51e+00	0	58	0	0	22	26200
2026-01-21 09:15:32.98	130.11	14.14	-22.8	-39.0	3.7	1.51e+00	0	58	104	0	24	15378
2026-01-21 09:15:33.99	130.04	14.24	-27.8	-46.0	4.3	1.51e+00	0	58	104	0	29	25666
2026-01-21 09:15:35.00	129.96	14.33	-30.3	-44.9	4.4	1.51e+00	0	58	104	0	27	25467
2026-01-21 09:15:36.01	129.88	14.43	-37.4	-48.3	4.8	1.50e+00	0	58	104	0	41	16759
2026-01-21 09:15:37.02	129.81	14.53	-42.7	-55.4	3.8	1.34e+00	0	58	104	0	55	16922
2026-01-21 09:15:38.03	129.73	14.63	-38.3	-53.4	5.1	7.72e-01	0	58	0	0	51	16947
2026-01-21 09:15:39.04	129.65	14.73	-38.5	-50.8	4.6	5.51e-01	0	58	104	1048576	36	29873
2026-01-21 09:15:40.05	129.57	14.83	-22.7	-39.1	3.7	1.50e+00	0	58	0	1048576	19	20698
2026-01-21 09:15:41.06	129.49	14.93	-29.3	-39.9	3.9	1.51e+00	0	58	104	1048576	19	22564
2026-01-21 09:15:42.07	129.41	15.03	-37.9	-51.1	5.0	1.46e+00	0	58	104	1048576	46	17440
2026-01-21 09:15:43.08	129.33	15.13	-32.8	-48.1	4.1	1.12e+00	0	58	104	1048576	35	23082
2026-01-21 09:15:44.09	129.24	15.23	-39.0	-53.6	4.0	1.49e+00	0	58	104	1048576	47	21802
2026-01-21 09:15:45.10	129.16	15.33	-43.8	-54.9	4.4	2.54e-01	0	58	0	1048576	58	13493
2026-01-21 09:15:46.11	129.08	15.43	-36.7	-56.7	3.8	1.45e+00	0	58	104	2097152	56	18566
2026-01-21 09:15:47.12	128.99	15.54	-38.1	-49.7	7.0	4.30e-01	0	58	0	2097152	54	9294
2026-01-21 09:15:48.12	128.91	15.64	-42.4	-47.7	8.6	9.47e-02	0	58	0	4194304	51	8846
2026-01-21 09:15:49.14	128.83	15.74	-40.1	-47.4	8.4	1.70e-01	0	58	0	6291456	52	8011
2026-01-21 09:15:50.14	128.74	15.84	-37.6	-46.9	10.0	9.23e-02	0	58	0	8388608	53	7144
2026-01-21 09:15:51.15	128.65	15.95	-42.2	-47.3	9.5	5.91e-02	0	58	0	10485760	55	6655
2026-01-21 09:15:52.16	128.57	16.05	-41.3	-47.8	9.5	3.13e-02	0	58	0	11534336	55	7058
2026-01-21 09:15:53.17	128.48	16.16	-39.9	-47.8	9.0	2.23e-02	0	58	0	13631488	55	7084
2026-01-21 09:15:54.18	128.39	16.26	-42.9	-48.7	8.9	2.78e-02	0	58	0	15728640	56	7438
2026-01-21 09:15:55.19	128.30	16.37	-42.9	-49.1	8.5	4.69e-02	0	58	0	17825792	56	7796
2026-01-21 09:15:56.20	128.22	16.47	-42.2	-48.7	8.3	5.73e-02	0	58	0	19922944	55	7854
2026-01-21 09:15:57.21	128.13	16.58	-42.8	-48.7	8.9	6.51e-02	0	58	0	20971520	56	7425
2026-01-21 09:15:58.22	128.04	16.68	-42.1	-47.6	9.6	1.44e-02	0	58	0	23068672	54	7363
2026-01-21 09:15:59.22	127.94	16.79	-42.1	-46.9	10.1	2.33e-02	0	58	0	25165824	54	6727
2026-01-21 09:16:00.23	127.85	16.90	-42.0	-46.5	11.2	5.81e-03	0	58	0	27262976	54	6425
2026-01-21 09:16:01.24	127.76	17.00	-42.0	-46.2	11.5	1.86e-03	0	58	0	29360128	54	6248
2026-01-21 09:16:02.25	127.67	17.11	-42.1	-46.6	11.2	1.64e-03	0	58	0	30408704	54	6533
2026-01-21 09:16:03.26	127.57	17.22	-39.9	-47.0	10.3	6.40e-03	0	58	0	32505856	55	6487
2026-01-21 09:16:04.27	127.48	17.33	-42.0	-47.8	9.4	4.17e-02	0	58	0	34603008	54	7528
2026-01-21 09:16:05.28	127.38	17.44	-41.9	-48.2	8.7	4.11e-02	0	58	0	36700160	55	7454
2026-01-21 09:16:06.29	127.29	17.55	-42.3	-47.9	9.6	2.97e-02	0	58	0	38797312	55	7186
2026-01-21 09:16:07.30	127.19	17.66	-42.5	-47.5	10.2	1.54e-02	0	59	0	39845888	55	6867
2026-01-21 09:16:08.31	127.09	17.77	-42.4	-47.0	10.8	5.01e-03	0	59	0	41943040	55	6448
2026-01-21 09:16:09.32	127.00	17.88	-42.4	-47.1	10.7	2.70e-03	0	59	0	44040192	55	6542
2026-01-21 09:16:10.33	126.90	17.99	-42.2	-46.9	11.0	2.52e-03	0	59	0	46137344	55	6357
2026-01-21 09:16:11.34	126.80	18.10	-40.9	-46.6	11.2	1.49e-03	0	59	0	48234496	54	6528
2026-01-21 09:16:12.35	126.70	18.21	-42.3	-46.9	10.7	3.14e-03	0	59	0	50331648	55	6374
2026-01-21 09:16:13.36	126.60	18.33	-42.6	-47.5	10.3	4.35e-03	0	59	0	51380224	55	6864
2026-01-21 09:16:14.37	126.49	18.44	-42.6	-47.7	10.2	4.51e-03	0	59	0	53477376	55	6963
2026-01-21 09:16:15.38	126.39	18.55	-42.3	-47.3	10.6	4.41e-03	0	58	0	55574528	55	6706
2026-01-21 09:16:16.39	126.29	18.67	-42.5	-47.3	10.5	6.30e-03	0	59	0	57671680	55	6649
2026-01-21 09:16:17.40	126.18	18.78	-42.4	-46.9	11.0	1.83e-03	0	59	0	59768832	55	6405
2026-01-21 09:16:18.41	126.08	18.90	-42.2	-46.7	11.2	1.54e-03	0	59	0	60817408	55	6267
2026-01-21 09:16:19.41	125.97	19.01	-42.3	-46.6	11.4	8.94e-04	0	59	0	62914560	55	6194
2026-01-21 09:16:20.42	125.87	19.12	-42.3	-46.6	11.3	1.36e-03	0	59	0	65011712	55	6149
2026-01-21 09:16:21.43	125.76	19.24	-42.3	-46.7	11.2	1.27e-03	0	59	0	67108864	55	6259
2026-01-21 09:16:22.44	125.65	19.36	-42.4	-46.8	11.2	1.11e-03	0	59	0	68157440	55	6291
2026-01-21 09:16:23.45	125.54	19.47	-42.5	-47.1	10.9	1.69e-03	0	59	0	70254592	55	6552
2026-01-21 09:16:24.46	125.43	19.59	-42.4	-46.8	11.1	1.83e-03	0	59	0	72351744	55	6337
2026-01-21 09:16:25.47	125.32	19.71	-42.4	-47.0	11.0	1.52e-03	0	59	0	74448896	55	6459
2026-01-21 09:16:26.48	125.21	19.83	-42.4	-47.1	10.9	2.19e-03	0	59	0	76546048	55	6514
2026-01-21 09:16:27.49	125.10	19.94	-42.4	-46.9	11.1	2.12e-03	0	59	0	78643200	55	6400
2026-01-21 09:16:28.50	124.98	20.06	-42.6	-47.2	10.8	2.70e-03	0	59	0	79691776	55	6640
2026-01-21 09:16:29.51	124.87	20.18	-42.4	-46.8	11.2	1.58e-03	0	59	0	81788928	55	6297
2026-01-21 09:16:30.52	124.75	20.30	-42.2	-46.5	11.6	8.93e-04	0	59	0	83886080	55	6068
2026-01-21 09:16:31.53	124.64	20.42	-42.2	-46.4	11.7	5.23e-04	0	59	0	85983232	55	6039
2026-01-21 09:16:32.54	124.52	20.54	-41.8	-45.6	12.5	2.55e-04	0	59	0	88080384	55	5488
2026-01-21 09:16:33.55	124.40	20.66	-41.8	-45.5	12.6	1.21e-04	0	59	0	89128960	55	5453
2026-01-21 09:16:34.56	124.28	20.79	-41.9	-45.8	12.3	1.67e-04	0	59	0	91226112	55	5602
2026-01-21 09:16:35.57	124.16	20.91	-42.0	-46.0	12.0	2.52e-04	0	59	0	93323264	55	5740
2026-01-21 09:16:36.58	124.04	21.03	-42.2	-46.4	11.7	5.04e-04	0	59	0	95420416	55	6000
2026-01-21 09:16:37.59	123.92	21.15	-42.5	-47.0	11.1	8.25e-04	0	59	0	97517568	55	6429
2026-01-21 09:16:38.59	123.80	21.28	-42.6	-47.2	10.9	1.92e-03	0	59	0	98566144	55	6597
2026-01-21 09:16:39.60	123.67	21.40	-42.4	-46.8	11.2	1.45e-03	0	59	0	100663296	55	6318
2026-01-21 09:16:40.61	123.55	21.52	-42.2	-46.3	11.8	6.96e-04	0	59	0	102760448	55	5989
2026-01-21 09:16:41.62	123.42	21.65	-42.3	-46.5	11.6	5.48e-04	0	59	0	104857600	55	6117
2026-01-21 09:16:42.63	123.30	21.77	-42.3	-46.4	11.7	5.35e-04	0	59	0	106954752	55	6037
2026-01-21 09:16:43.64	123.17	21.90	-42.5	-47.0	11.1	1.10e-03	0	59	0	108003328	55	6433
2026-01-21 09:16:44.65	123.04	22.03	-42.9	-47.9	10.3	3.11e-03	0	59	0	110100480	56	6736
2026-01-21 09:16:45.66	122.91	22.15	-43.0	-48.0	10.3	6.09e-03	0	59	0	112197632	56	6832
2026-01-21 09:16:46.67	122.78	22.28	-42.9	-47.8	10.4	5.65e-03	0	59	0	114294784	56	6678
2026-01-21 09:16:47.68	122.64	22.41	-42.7	-47.2	11.0	3.70e-03	0	59	0	116391936	56	6263
2026-01-21 09:16:48.69	122.51	22.54	-42.6	-47.0	11.3	1.59e-03	0	59	0	117440512	56	6102
2026-01-21 09:16:49.70	122.38	22.66	-42.5	-46.9	11.4	1.04e-03	0	59	0	119537664	56	6005
2026-01-21 09:16:50.71	122.24	22.79	-42.6	-47.0	11.3	9.83e-04	0	59	0	121634816	56	6115
2026-01-21 09:16:51.71	122.10	22.92	-42.8	-47.6	10.7	2.07e-03	0	59	0	123731968	56	6550
2026-01-21 09:16:52.73	121.96	23.05	-43.0	-48.1	10.2	5.30e-03	0	59	0	125829120	56	6907
2026-01-21 09:16:53.74	121.83	23.18	-43.0	-48.3	10.0	5.67e-03	0	59	0	126877696	56	7069
2026-01-21 09:16:54.74	121.69	23.31	-42.9	-47.7	10.6	4.71e-03	0	59	0	128974848	56	6595
2026-01-21 09:16:55.75	121.54	23.45	-42.7	-47.1	11.2	2.63e-03	0	59	0	131072000	56	6169
2026-01-21 09:16:56.76	121.40	23.58	-42.7	-47.1	11.2	1.66e-03	0	59	0	133169152	56	6180
2026-01-21 09:16:57.77	121.26	23.71	-42.7	-47.1	11.3	1.33e-03	0	59	0	135266304	56	6184
2026-01-21 09:16:58.78	121.11	23.84	-42.9	-47.6	10.8	1.50e-03	0	59	0	136314880	56	6506
2026-01-21 09:16:59.79	120.97	23.98	-43.1	-48.1	10.1	5.08e-03	0	59	0	138412032	56	6934
2026-01-21 09:17:00.80	120.82	24.11	-43.1	-48.1	10.2	7.69e-03	0	59	0	140509184	56	6890
2026-01-21 09:17:01.81	120.67	24.24	-43.0	-48.1	10.2	4.06e-03	0	59	0	142606336	56	6903
2026-01-21 09:17:02.82	120.52	24.38	-42.9	-47.6	10.7	3.43e-03	0	59	0	144703488	56	6501
2026-01-21 09:17:03.83	120.37	24.51	-42.6	-46.9	11.5	1.26e-03	0	59	0	146800640	56	6008
2026-01-21 09:17:04.84	120.21	24.65	-42.6	-46.9	11.5	9.91e-04	0	59	0	147849216	56	6055
2026-01-21 09:17:05.85	120.06	24.79	-42.7	-47.1	11.2	1.32e-03	0	59	0	149946368	56	6178
2026-01-21 09:17:06.86	119.90	24.92	-42.9	-47.5	10.9	1.36e-03	0	59	0	152043520	56	6456
2026-01-21 09:17:07.87	119.75	25.06	-42.8	-47.3	11.1	2.28e-03	0	59	0	154140672	56	6328
2026-01-21 09:17:08.88	119.59	25.20	-42.6	-46.8	11.7	1.00e-03	0	59	0	156237824	56	5946
2026-01-21 09:17:09.89	119.43	25.34	-42.6	-46.9	11.5	7.88e-04	0	59	0	157286400	56	5999
2026-01-21 09:17:10.90	119.26	25.47	-42.6	-46.8	11.6	6.77e-04	0	59	0	159383552	56	5979
2026-01-21 09:17:11.91	119.10	25.61	-42.7	-47.2	11.2	7.66e-04	0	59	0	161480704	56	6206
2026-01-21 09:17:12.91	118.94	25.75	-42.8	-47.2	11.2	1.68e-03	0	59	0	163577856	56	6268
2026-01-21 09:17:13.92	118.77	25.89	-42.9	-47.5	10.9	1.57e-03	0	59	0	165675008	56	6453
2026-01-21 09:17:14.93	118.61	26.03	-42.9	-47.6	10.8	1.98e-03	0	59	0	166723584	56	6537
2026-01-21 09:17:15.94	118.44	26.17	-42.8	-47.3	11.1	1.76e-03	0	59	0	168820736	56	6314
2026-01-21 09:17:16.95	118.27	26.31	-42.8	-47.3	11.1	1.73e-03	0	59	0	170917888	56	6295
2026-01-21 09:17:17.96	118.10	26.46	-42.9	-47.7	10.7	2.51e-03	0	59	0	173015040	56	6573
2026-01-21 09:17:18.97	117.92	26.60	-42.9	-47.4	11.0	1.65e-03	0	59	0	175112192	56	6414
2026-01-21 09:17:19.98	117.75	26.74	-42.8	-47.4	11.0	1.56e-03	0	59	0	176160768	56	6362
2026-01-21 09:17:20.99	117.57	26.88	-42.8	-47.2	11.3	1.57e-03	0	59	0	178257920	56	6208
2026-01-21 09:17:22.00	117.39	27.03	-42.8	-47.4	11.0	1.41e-03	0	59	0	180355072	56	6367
2026-01-21 09:17:23.00	117.21	27.17	-42.9	-47.6	10.9	2.51e-03	0	59	0	182452224	56	6511
2026-01-21 09:17:24.01	117.03	27.32	-43.1	-47.9	10.5	2.68e-03	0	59	0	184549376	56	6772
2026-01-21 09:17:25.02	116.85	27.46	-43.2	-48.3	10.1	5.54e-03	0	59	0	185597952	57	6672
2026-01-21 09:17:26.03	116.66	27.61	-43.2	-48.4	10.0	6.75e-03	0	59	0	187695104	57	6736
2026-01-21 09:17:27.04	116.48	27.75	-43.2	-48.3	10.1	7.31e-03	0	59	0	189792256	57	6686
2026-01-21 09:17:28.05	116.29	27.90	-43.1	-47.8	10.6	4.12e-03	0	59	0	191889408	57	6339
2026-01-21 09:17:29.06	116.10	28.04	-43.2	-48.3	10.1	4.54e-03	0	59	0	193986560	57	6671
2026-01-21 09:17:30.07	115.91	28.19	-43.3	-48.5	9.9	5.70e-03	0	60	0	195035136	57	6843
2026-01-21 09:17:31.08	115.71	28.34	-43.2	-48.3	10.1	7.51e-03	0	60	0	197132288	57	6660
2026-01-21 09:17:32.09	115.52	28.49	-43.2	-48.2	10.2	6.63e-03	0	59	0	199229440	57	6646
2026-01-21 09:17:33.10	115.32	28.64	-43.3	-48.5	10.0	5.12e-03	0	59	0	201326592	57	6803
2026-01-21 09:17:34.11	115.12	28.78	-43.2	-48.1	10.3	4.09e-03	0	59	0	203423744	57	6563
2026-01-21 09:17:35.11	114.92	28.93	-43.0	-47.8	10.7	4.35e-03	0	60	0	204472320	57	6285
2026-01-21 09:17:36.13	114.72	29.08	-43.2	-48.1	10.4	5.46e-03	0	60	0	206569472	57	6526
2026-01-21 09:17:37.14	114.51	29.23	-43.4	-48.7	9.8	7.71e-03	0	60	0	208666624	57	6975
2026-01-21 09:17:38.15	114.31	29.38	-43.5	-49.1	9.3	1.62e-02	0	59	0	210763776	57	7356
2026-01-21 09:17:39.16	114.10	29.53	-43.6	-49.1	9.3	2.06e-02	0	60	0	212860928	58	6957
2026-01-21 09:17:40.17	113.89	29.69	-43.5	-48.9	9.6	1.65e-02	0	59	0	214958080	58	6741
2026-01-21 09:17:41.17	113.68	29.84	-43.6	-49.3	9.0	2.10e-02	0	59	0	216006656	58	7090
2026-01-21 09:17:42.18	113.46	29.99	-43.4	-48.7	9.7	1.14e-02	0	59	0	218103808	58	6589
2026-01-21 09:17:43.19	113.24	30.14	-43.5	-48.9	9.4	1.42e-02	0	59	0	220200960	58	6800
2026-01-21 09:17:44.20	113.03	30.29	-43.8	-50.0	8.5	3.93e-02	0	60	0	222298112	58	7640
2026-01-21 09:17:45.21	112.81	30.45	-43.9	-50.1	8.3	5.01e-02	0	60	0	224395264	58	7800
2026-01-21 09:17:46.22	112.58	30.60	-43.8	-50.0	8.2	7.27e-02	0	59	0	225443840	58	7710
2026-01-21 09:17:47.23	112.36	30.75	-43.9	-50.1	8.3	9.39e-02	0	59	0	227540992	58	7785
2026-01-21 09:17:48.24	112.13	30.91	-43.8	-49.9	8.5	3.98e-02	0	60	0	229638144	58	7614
2026-01-21 09:17:49.25	111.90	31.06	-43.8	-49.8	8.5	3.83e-02	0	60	0	231735296	58	7514
2026-01-21 09:17:50.26	111.67	31.21	-43.9	-50.2	8.3	3.70e-02	0	59	0	233832448	58	7816
2026-01-21 09:17:51.27	111.43	31.37	-43.9	-50.3	8.1	5.72e-02	0	60	0	234881024	58	7934
2026-01-21 09:17:52.28	111.20	31.52	-43.9	-50.0	8.4	6.92e-02	0	59	0	236978176	58	7711
2026-01-21 09:17:53.29	110.96	31.68	-43.8	-49.8	8.7	4.79e-02	0	59	0	239075328	58	7466
2026-01-21 09:17:54.30	110.72	31.83	-43.9	-50.3	8.2	3.33e-02	0	59	0	241172480	58	7963
2026-01-21 09:17:55.31	110.48	31.99	-44.0	-50.3	8.2	3.67e-02	0	59	0	243269632	58	7982
2026-01-21 09:17:56.32	110.23	32.15	-44.0	-50.6	7.8	6.54e-02	0	60	0	244318208	58	8238
2026-01-21 09:17:57.33	109.98	32.30	-43.9	-50.1	8.3	6.71e-02	0	60	0	246415360	58	7787
2026-01-21 09:17:58.34	109.73	32.46	-43.9	-50.2	8.2	5.60e-02	0	60	0	248512512	58	7877
2026-01-21 09:17:59.35	109.48	32.62	-43.8	-49.7	8.8	3.82e-02	0	60	0	250609664	58	7377
2026-01-21 09:18:00.36	109.22	32.77	-43.7	-49.5	8.9	2.42e-02	0	60	0	252706816	58	7231
2026-01-21 09:18:01.36	108.97	32.93	-43.9	-50.2	8.3	5.00e-02	0	60	0	253755392	58	7836
2026-01-21 09:18:02.37	108.71	33.08	-44.1	-51.0	7.4	7.61e-02	0	60	0	255852544	58	8647
2026-01-21 09:18:03.38	108.45	33.24	-44.2	-51.3	7.1	1.32e-01	0	59	0	257949696	59	8400
2026-01-21 09:18:04.39	108.18	33.40	-44.3	-51.7	6.8	1.71e-01	0	60	0	260046848	59	8780
2026-01-21 09:18:05.40	107.91	33.56	-44.2	-51.5	7.0	1.47e-01	0	60	0	262144000	59	8629
2026-01-21 09:18:06.41	107.64	33.71	-44.0	-50.6	7.8	1.05e-01	0	60	0	263192576	59	7808
2026-01-21 09:18:07.42	107.37	33.87	-43.6	-49.3	9.0	3.04e-02	0	60	0	265289728	59	6648
2026-01-21 09:18:08.43	107.09	34.03	-43.4	-48.5	9.9	1.41e-02	0	59	0	267386880	58	6446
2026-01-21 09:18:09.44	106.81	34.19	-43.1	-47.8	10.7	4.63e-03	0	60	0	269484032	58	5970
2026-01-21 09:18:10.45	106.53	34.34	-42.9	-47.3	11.2	2.03e-03	0	60	0	271581184	57	5971
2026-01-21 09:18:11.46	106.25	34.50	-42.8	-47.0	11.6	1.37e-03	0	60	0	272629760	57	5776
2026-01-21 09:18:12.47	105.96	34.66	-42.8	-47.0	11.5	6.25e-04	0	60	0	274726912	57	5767
2026-01-21 09:18:13.48	105.67	34.82	-42.8	-47.0	11.5	6.29e-04	0	60	0	276824064	57	5756
2026-01-21 09:18:14.48	105.38	34.97	-42.8	-47.1	11.5	7.34e-04	0	60	0	278921216	57	5828
2026-01-21 09:18:15.49	105.09	35.13	-43.0	-47.6	11.0	1.59e-03	0	60	0	281018368	57	6183
2026-01-21 09:18:16.50	104.79	35.29	-43.3	-48.4	10.1	3.55e-03	0	60	0	283115520	57	6736
2026-01-21 09:18:17.51	104.49	35.44	-43.4	-48.6	9.9	7.60e-03	0	60	0	284164096	57	6920
2026-01-21 09:18:18.52	104.18	35.60	-43.4	-48.4	10.1	1.02e-02	0	60	0	286261248	57	6760
2026-01-21 09:18:19.53	103.88	35.76	-43.2	-48.1	10.5	5.54e-03	0	60	0	288358400	57	6497
2026-01-21 09:18:20.54	103.57	35.91	-43.4	-48.6	9.9	8.20e-03	0	60	0	290455552	57	6954
2026-01-21 09:18:21.55	103.25	36.07	-43.4	-48.6	9.9	9.06e-03	0	60	0	292552704	57	6902
2026-01-21 09:18:22.56	102.94	36.23	-43.5	-49.0	9.5	1.12e-02	0	60	0	293601280	57	7237
2026-01-21 09:18:23.57	102.62	36.38	-43.5	-48.9	9.7	1.64e-02	0	60	0	295698432	57	7196
2026-01-21 09:18:24.57	102.30	36.54	-43.4	-48.7	9.8	1.61e-02	0	60	0	297795584	57	6983
2026-01-21 09:18:25.58	101.98	36.69	-43.5	-48.7	9.8	1.14e-02	0	60	0	299892736	57	7036
2026-01-21 09:18:26.59	101.65	36.85	-43.3	-48.3	10.2	9.63e-03	0	60	0	300941312	57	6708
2026-01-21 09:18:27.60	101.32	37.00	-43.3	-48.2	10.3	5.80e-03	0	60	0	303038464	57	6603
2026-01-21 09:18:28.61	100.98	37.16	-43.4	-48.5	10.1	7.10e-03	0	60	0	305135616	57	6834
2026-01-21 09:18:29.62	100.64	37.31	-43.6	-49.0	9.5	9.23e-03	0	60	0	307232768	57	7213
2026-01-21 09:18:30.63	100.30	37.47	-43.6	-49.2	9.3	1.54e-02	0	60	0	309329920	57	7436
2026-01-21 09:18:31.64	99.96	37.62	-43.8	-49.7	8.8	2.68e-02	0	60	0	311427072	58	7453
2026-01-21 09:18:32.65	99.61	37.77	-43.9	-50.2	8.4	4.80e-02	0	60	0	312475648	58	7809
2026-01-21 09:18:33.66	99.26	37.92	-44.0	-50.3	8.2	6.62e-02	0	60	0	314572800	58	7989
2026-01-21 09:18:34.66	98.91	38.07	-43.9	-49.9	8.6	4.80e-02	0	60	0	316669952	58	7602
2026-01-21 09:18:35.67	98.55	38.22	-43.9	-49.9	8.7	3.28e-02	0	60	0	318767104	58	7551
2026-01-21 09:18:36.68	98.19	38.37	-43.9	-50.0	8.6	3.82e-02	0	60	0	320864256	58	7649
2026-01-21 09:18:37.69	97.83	38.52	-43.8	-49.7	8.8	3.18e-02	0	60	0	321912832	58	7428
2026-01-21 09:18:38.70	97.46	38.67	-43.6	-49.1	9.5	2.22e-02	0	60	0	324009984	58	6957
2026-01-21 09:18:39.71	97.09	38.82	-43.4	-48.5	10.0	1.24e-02	0	60	0	326107136	58	6455
2026-01-21 09:18:40.72	96.72	38.97	-43.6	-49.1	9.5	1.39e-02	0	60	0	328204288	58	6912
2026-01-21 09:18:41.73	96.34	39.12	-43.6	-49.1	9.5	1.51e-02	0	60	0	330301440	58	6902
2026-01-21 09:18:42.74	95.96	39.26	-43.6	-48.8	9.8	1.16e-02	0	60	0	331350016	58	6713
2026-01-21 09:18:43.75	95.57	39.41	-43.3	-48.0	10.6	3.98e-03	0	60	0	333447168	58	6113
2026-01-21 09:18:44.76	95.18	39.55	-42.9	-47.7	11.0	2.84e-03	0	60	0	335544320	57	6209
2026-01-21 09:18:45.77	94.79	39.69	-42.8	-47.3	11.3	2.21e-03	0	60	0	337641472	57	5934
2026-01-21 09:18:46.78	94.40	39.84	-42.7	-47.2	11.4	1.16e-03	0	60	0	339738624	57	5869
2026-01-21 09:18:47.79	94.00	39.98	-42.9	-47.7	10.8	1.90e-03	0	60	0	340787200	57	6260
2026-01-21 09:18:48.80	93.60	40.12	-43.0	-48.0	10.6	2.95e-03	0	60	0	342884352	57	6424
2026-01-21 09:18:49.81	93.19	40.26	-43.1	-48.2	10.2	4.27e-03	0	60	0	344981504	57	6637
2026-01-21 09:18:50.82	92.78	40.40	-43.2	-48.6	10.0	4.60e-03	0	60	0	347078656	57	6912
2026-01-21 09:18:51.82	92.38	40.53	-43.2	-48.7	9.9	1.16e-02	0	60	0	349175808	57	6961
2026-01-21 09:18:52.83	91.96	40.67	-43.0	-47.9	10.5	5.55e-03	0	60	0	350224384	57	6419
2026-01-21 09:18:53.84	91.54	40.80	-42.8	-47.4	11.1	2.61e-03	0	60	0	352321536	57	6039
2026-01-21 09:18:54.86	91.11	40.94	-42.6	-46.9	11.6	6.03e-04	0	59	0	354418688	57	5701
2026-01-21 09:18:55.86	90.69	41.07	-42.7	-47.3	11.4	7.17e-04	0	60	0	356515840	57	5925
2026-01-21 09:18:56.87	90.26	41.20	-42.6	-47.1	11.4	6.28e-04	0	60	0	358612992	57	5829
2026-01-21 09:18:57.88	89.83	41.33	-42.8	-47.4	11.3	1.13e-03	0	60	0	359661568	57	6033
2026-01-21 09:18:58.89	89.39	41.46	-42.5	-46.7	11.9	1.02e-03	0	60	0	361758720	56	5881
2026-01-21 09:18:59.90	88.95	41.58	-42.1	-46.0	12.5	2.07e-04	0	60	0	363855872	56	5459
2026-01-21 09:19:00.91	88.51	41.71	-42.0	-46.0	12.5	4.95e-05	0	60	0	365953024	55	5750
2026-01-21 09:19:01.92	88.06	41.83	-42.1	-46.2	12.3	7.78e-05	0	60	0	368050176	55	5909
2026-01-21 09:19:02.93	87.61	41.95	-42.3	-46.7	11.7	4.32e-04	0	60	0	369098752	55	6256
2026-01-21 09:19:03.94	87.16	42.07	-42.4	-46.9	11.4	6.86e-04	0	60	0	371195904	55	6419
2026-01-21 09:19:04.95	86.70	42.19	-42.5	-47.1	11.3	1.24e-03	0	60	0	373293056	55	6538
2026-01-21 09:19:05.96	86.24	42.31	-42.5	-47.3	11.1	2.01e-03	0	60	0	375390208	55	6696
2026-01-21 09:19:06.97	85.78	42.43	-42.8	-47.6	10.9	2.55e-03	0	60	0	377487360	56	6553
2026-01-21 09:19:07.98	85.31	42.54	-42.4	-46.7	11.9	8.92e-04	0	60	0	379584512	56	5907
2026-01-21 09:19:08.99	84.84	42.65	-42.4	-46.7	11.9	4.68e-04	0	60	0	380633088	56	5914
2026-01-21 09:19:10.00	84.37	42.76	-42.4	-46.6	12.0	2.90e-04	0	60	0	382730240	56	5846
2026-01-21 09:19:11.01	83.89	42.87	-42.4	-46.7	11.9	4.42e-04	0	60	0	384827392	56	5895
2026-01-21 09:19:12.02	83.41	42.97	-42.4	-46.6	12.0	4.30e-04	0	60	0	386924544	56	5831
2026-01-21 09:19:13.03	82.93	43.08	-42.4	-46.7	12.0	2.73e-04	0	60	0	389021696	56	5892
2026-01-21 09:19:14.03	82.44	43.18	-42.6	-47.0	11.6	4.03e-04	0	60	0	390070272	56	6109
2026-01-21 09:19:15.04	81.96	43.28	-42.7	-47.5	11.2	1.03e-03	0	60	0	392167424	56	6449
2026-01-21 09:19:16.05	81.46	43.38	-42.7	-47.3	11.3	1.48e-03	0	60	0	394264576	56	6320
2026-01-21 09:19:17.06	80.97	43.47	-42.7	-47.3	11.4	1.50e-03	0	60	0	396361728	56	6309
2026-01-21 09:19:18.07	80.47	43.57	-43.0	-48.0	10.7	1.88e-03	0	60	0	398458880	56	6817
2026-01-21 09:19:19.08	79.97	43.66	-42.8	-47.6	11.0	1.63e-03	0	60	0	399507456	56	6517
2026-01-21 09:19:20.09	79.46	43.75	-42.9	-47.6	11.3	1.41e-03	0	60	0	401604608	56	6511
2026-01-21 09:19:21.10	78.96	43.83	-42.7	-47.1	11.6	9.05e-04	0	60	0	403701760	56	6150
2026-01-21 09:19:22.11	78.45	43.92	-42.7	-47.0	11.8	4.37e-04	0	60	0	405798912	56	6107
2026-01-21 09:19:23.12	77.94	44.00	-42.6	-46.8	11.9	3.60e-04	0	60	0	407896064	56	5985
2026-01-21 09:19:24.13	77.42	44.08	-42.9	-47.5	11.2	5.45e-04	0	60	0	408944640	56	6480
2026-01-21 09:19:25.14	76.90	44.15	-42.9	-47.6	11.1	1.03e-03	0	60	0	411041792	56	6569
2026-01-21 09:19:26.15	76.38	44.23	-43.0	-47.8	10.7	2.25e-03	0	60	0	413138944	56	6711
2026-01-21 09:19:27.16	75.86	44.30	-43.0	-47.8	10.9	2.70e-03	0	60	0	415236096	56	6693
2026-01-21 09:19:28.17	75.34	44.37	-43.3	-48.5	10.0	3.98e-03	0	60	0	417333248	57	6879
2026-01-21 09:19:29.18	74.81	44.44	-43.3	-48.7	10.0	9.44e-03	0	60	0	418381824	57	6988
2026-01-21 09:19:30.19	74.28	44.50	-43.3	-48.7	9.9	1.01e-02	0	60	0	420478976	57	6999
2026-01-21 09:19:31.20	73.75	44.56	-43.2	-48.3	10.3	5.95e-03	0	60	0	422576128	57	6702
2026-01-21 09:19:32.21	73.22	44.62	-43.0	-47.9	10.7	3.63e-03	0	60	0	424673280	57	6407
2026-01-21 09:19:33.22	72.68	44.68	-42.9	-47.6	11.1	2.22e-03	0	60	0	426770432	57	6140
2026-01-21 09:19:34.23	72.15	44.73	-42.6	-46.8	11.9	1.32e-03	0	60	0	427819008	57	5646
2026-01-21 09:19:35.23	71.61	44.78	-42.4	-46.5	12.3	1.59e-04	0	60	0	429916160	56	5726
2026-01-21 09:19:36.24	71.07	44.83	-42.7	-47.2	11.6	3.56e-04	0	60	0	432013312	56	6216
2026-01-21 09:19:37.25	70.53	44.88	-43.4	-48.9	9.7	3.28e-03	0	60	0	434110464	57	7195
2026-01-21 09:19:38.26	69.99	44.92	-43.4	-49.1	9.6	1.85e-02	0	60	0	436207616	57	7319
2026-01-21 09:19:39.27	69.44	44.96	-43.3	-48.9	9.8	1.14e-02	0	60	0	437256192	57	7128
2026-01-21 09:19:40.28	68.90	45.00	-43.4	-49.2	9.5	1.47e-02	0	60	0	439353344	57	7412
2026-01-21 09:19:41.28	68.36	45.03	-43.5	-49.6	8.9	2.22e-02	0	60	0	441450496	57	7804
2026-01-21 09:19:42.29	67.81	45.06	-43.6	-49.7	9.0	2.44e-02	0	60	0	443547648	58	7401
2026-01-21 09:19:43.31	67.25	45.09	-43.3	-48.8	9.8	1.27e-02	0	60	0	445644800	58	6704
2026-01-21 09:19:44.32	66.70	45.12	-43.2	-48.6	10.1	1.00e-02	0	60	0	447741952	58	6529
2026-01-21 09:19:45.32	66.16	45.14	-43.2	-48.6	10.1	7.65e-03	0	60	0	448790528	58	6513
2026-01-21 09:19:46.33	65.60	45.16	-43.0	-48.1	10.5	4.93e-03	0	60	0	450887680	58	6176
2026-01-21 09:19:47.34	65.05	45.17	-43.0	-48.2	10.4	2.12e-03	0	60	0	452984832	57	6582
2026-01-21 09:19:48.35	64.50	45.19	-43.1	-48.3	10.3	4.24e-03	0	60	0	455081984	57	6693
2026-01-21 09:19:49.36	63.95	45.20	-43.3	-48.9	9.7	1.08e-02	0	60	0	457179136	57	7197
2026-01-21 09:19:50.37	63.39	45.21	-43.0	-48.0	10.6	8.46e-03	0	60	0	458227712	57	6485
2026-01-21 09:19:51.38	62.84	45.21	-42.5	-46.7	12.0	4.45e-04	0	60	0	460324864	57	5570
2026-01-21 09:19:52.39	62.28	45.21	-42.6	-46.9	11.8	1.65e-04	0	60	0	462422016	56	6024
2026-01-21 09:19:53.40	61.73	45.21	-42.9	-47.9	10.9	4.58e-04	0	60	0	464519168	56	6731
2026-01-21 09:19:54.41	61.18	45.21	-43.2	-48.5	10.1	7.10e-03	0	60	0	466616320	57	6814
2026-01-21 09:19:55.42	60.62	45.20	-43.2	-48.6	10.0	7.67e-03	0	60	0	467664896	57	6919
2026-01-21 09:19:56.43	60.07	45.19	-43.3	-48.9	9.6	9.93e-03	0	60	0	469762048	57	7202
2026-01-21 09:19:57.44	59.52	45.18	-43.3	-49.1	9.5	1.48e-02	0	60	0	471859200	57	7290
2026-01-21 09:19:58.45	58.97	45.16	-43.4	-49.3	9.4	1.91e-02	0	60	0	473956352	57	7462
2026-01-21 09:19:59.46	58.41	45.14	-43.4	-49.2	9.4	2.11e-02	0	60	0	476053504	57	7379
2026-01-21 09:20:00.47	57.86	45.12	-43.2	-48.8	9.7	2.04e-02	0	60	0	477102080	57	7105
2026-01-21 09:20:01.47	57.32	45.10	-43.1	-48.5	10.1	7.14e-03	0	60	0	479199232	57	6825
2026-01-21 09:20:02.48	56.77	45.07	-43.1	-48.3	10.3	3.54e-03	0	60	0	481296384	57	6704
2026-01-21 09:20:03.49	56.22	45.04	-43.0	-48.1	10.5	3.06e-03	0	60	0	483393536	57	6540
2026-01-21 09:20:04.50	55.67	45.00	-43.3	-49.1	9.6	1.05e-02	0	60	0	485490688	57	7314
2026-01-21 09:20:05.51	55.13	44.97	-43.4	-49.2	9.4	2.18e-02	0	60	0	486539264	57	7373
2026-01-21 09:20:06.52	54.58	44.93	-43.5	-49.6	9.0	4.47e-02	0	60	0	488636416	58	7320
2026-01-21 09:20:07.53	54.04	44.89	-43.5	-49.5	9.1	2.46e-02	0	60	0	490733568	58	7251
2026-01-21 09:20:08.54	53.50	44.84	-43.2	-48.5	10.1	1.21e-02	0	60	0	492830720	58	6465
2026-01-21 09:20:09.55	52.96	44.79	-42.7	-47.4	11.3	2.60e-03	0	60	0	494927872	57	6011
2026-01-21 09:20:10.56	52.42	44.74	-42.8	-47.5	11.2	8.32e-04	0	60	0	495976448	57	6067
2026-01-21 09:20:11.57	51.88	44.69	-42.9	-47.9	10.7	2.34e-03	0	60	0	498073600	57	6393
2026-01-21 09:20:12.58	51.35	44.63	-43.1	-48.4	10.2	7.52e-03	0	60	0	500170752	57	6792
2026-01-21 09:20:13.59	50.82	44.58	-43.0	-48.3	10.4	5.67e-03	0	60	0	502267904	57	6649
2026-01-21 09:20:14.60	50.29	44.51	-42.8	-47.7	10.8	3.39e-03	0	60	0	504365056	57	6274
2026-01-21 09:20:15.61	49.76	44.45	-42.7	-47.6	11.0	2.31e-03	0	60	0	505413632	57	6171
2026-01-21 09:20:16.62	49.23	44.38	-42.8	-47.8	10.9	2.58e-03	0	60	0	507510784	57	6331
2026-01-21 09:20:17.63	48.71	44.32	-42.6	-47.4	11.2	1.62e-03	0	60	0	509607936	57	6007
2026-01-21 09:20:18.64	48.18	44.24	-42.6	-47.3	11.2	1.09e-03	0	60	0	511705088	57	5985
2026-01-21 09:20:19.65	47.67	44.17	-42.7	-47.4	11.1	1.40e-03	0	60	0	513802240	57	6044
2026-01-21 09:20:20.65	47.15	44.09	-42.7	-47.5	11.1	1.30e-03	0	60	0	515899392	57	6064
2026-01-21 09:20:21.66	46.64	44.02	-42.7	-47.4	11.1	1.39e-03	0	60	0	516947968	57	6053
2026-01-21 09:20:22.67	46.13	43.93	-42.8	-47.7	11.0	2.80e-03	0	60	0	519045120	57	6205
2026-01-21 09:20:23.68	45.62	43.85	-43.0	-48.1	10.4	1.51e-03	0	60	0	521142272	57	6518
2026-01-21 09:20:24.69	45.11	43.76	-42.6	-47.2	11.4	1.38e-03	0	60	0	523239424	57	5880
2026-01-21 09:20:25.70	44.61	43.68	-42.8	-47.8	10.8	1.28e-03	0	60	0	525336576	57	6295
2026-01-21 09:20:26.71	44.11	43.59	-42.8	-47.7	10.9	2.98e-03	0	60	0	526385152	57	6239
2026-01-21 09:20:27.72	43.61	43.49	-42.6	-47.1	11.5	1.45e-03	0	60	0	528482304	57	5806
2026-01-21 09:20:28.73	43.11	43.40	-42.2	-46.2	12.4	2.90e-04	0	60	0	530579456	56	5565
2026-01-21 09:20:29.74	42.62	43.30	-42.0	-45.7	12.9	8.39e-05	0	60	0	532676608	56	5278
2026-01-21 09:20:30.75	42.13	43.20	-42.0	-46.0	12.4	5.64e-05	0	60	0	534773760	55	5745
2026-01-21 09:20:31.76	41.65	43.10	-42.4	-46.8	11.6	3.05e-04	0	60	0	535822336	55	6310
2026-01-21 09:20:32.77	41.16	43.00	-42.6	-47.4	11.0	1.15e-03	0	60	0	537919488	55	6782
2026-01-21 09:20:33.78	40.68	42.89	-43.0	-48.2	10.4	4.59e-03	0	60	0	540016640	56	7018
2026-01-21 09:20:34.79	40.21	42.78	-42.6	-47.2	11.4	2.25e-03	0	60	0	542113792	56	6236
2026-01-21 09:20:35.80	39.73	42.68	-42.1	-46.0	12.7	3.00e-04	0	60	0	544210944	56	5409
2026-01-21 09:20:36.80	39.27	42.57	-41.8	-45.4	13.0	5.49e-05	0	61	0	545259520	55	5383
2026-01-21 09:20:37.81	38.80	42.45	-42.0	-45.8	12.7	6.79e-05	0	60	0	547356672	55	5639
2026-01-21 09:20:38.82	38.34	42.34	-42.2	-46.3	12.2	1.55e-04	0	60	0	549453824	55	5938
2026-01-21 09:20:39.83	37.88	42.22	-41.7	-45.4	13.0	8.92e-05	0	60	0	551550976	55	5364
2026-01-21 09:20:40.84	37.42	42.10	-41.5	-44.9	13.6	8.30e-06	0	60	0	553648128	54	5361
2026-01-21 09:20:41.85	36.97	41.98	-41.4	-44.7	13.8	5.30e-06	0	60	0	554696704	54	5253
2026-01-21 09:20:42.86	36.52	41.86	-41.3	-44.5	14.0	6.80e-06	0	60	0	556793856	54	5114
2026-01-21 09:20:43.87	36.07	41.74	-41.0	-44.0	14.5	7.00e-07	0	60	0	558891008	54	4827
2026-01-21 09:20:44.88	35.63	41.62	-40.7	-43.5	15.1	0.00e+00	0	60	0	560988160	53	4869
2026-01-21 09:20:45.89	35.19	41.49	-40.7	-43.4	15.0	0.00e+00	0	60	0	563085312	53	4799
2026-01-21 09:20:46.90	34.75	41.36	-40.6	-43.4	15.1	0.00e+00	0	60	0	564133888	53	4760
2026-01-21 09:20:47.91	34.32	41.23	-40.8	-43.7	14.8	0.00e+00	0	60	0	566231040	53	4936
2026-01-21 09:20:48.92	33.89	41.10	-40.8	-43.6	14.9	7.00e-07	0	60	0	568328192	53	4906
2026-01-21 09:20:49.93	33.47	40.97	-41.1	-44.2	14.3	7.00e-07	0	60	0	570425344	53	5272
2026-01-21 09:20:50.94	33.04	40.84	-41.1	-44.3	14.1	3.00e-06	0	60	0	572522496	53	5301
2026-01-21 09:20:51.94	32.63	40.71	-41.1	-44.2	14.3	0.00e+00	0	60	0	573571072	53	5229
2026-01-21 09:20:52.96	32.21	40.57	-40.8	-43.6	14.9	0.00e+00	0	60	0	575668224	53	4903
2026-01-21 09:20:53.97	31.80	40.43	-41.1	-44.1	14.3	7.00e-07	0	60	0	577765376	53	5213
2026-01-21 09:20:54.98	31.39	40.30	-41.3	-44.5	14.0	0.00e+00	0	60	0	579862528	53	5431
2026-01-21 09:20:55.98	30.99	40.16	-41.5	-44.9	13.6	7.00e-07	0	60	0	581959680	53	5684
2026-01-21 09:20:56.99	30.59	40.02	-41.5	-44.8	13.6	3.80e-06	0	60	0	583008256	53	5649
2026-01-21 09:20:58.00	30.19	39.88	-42.1	-46.0	12.5	2.05e-05	0	60	0	585105408	54	6096
2026-01-21 09:20:59.01	29.80	39.74	-42.3	-46.4	12.1	2.05e-04	0	60	0	587202560	55	6031
2026-01-21 09:21:00.02	29.41	39.59	-42.3	-46.4	12.0	3.96e-04	0	60	0	589299712	55	6019
2026-01-21 09:21:01.03	29.02	39.45	-41.9	-45.5	12.9	1.38e-04	0	60	0	591396864	55	5456
2026-01-21 09:21:02.04	28.63	39.31	-41.9	-45.6	12.9	5.11e-05	0	60	0	592445440	55	5476
2026-01-21 09:21:03.05	28.25	39.16	-42.1	-45.9	12.6	6.86e-05	0	60	0	594542592	55	5667
2026-01-21 09:21:04.06	27.88	39.02	-42.3	-46.4	12.0	1.27e-04	0	60	0	596639744	55	6004
2026-01-21 09:21:05.07	27.50	38.87	-42.0	-45.6	12.8	8.77e-05	0	60	0	598736896	55	5494
2026-01-21 09:21:06.08	27.13	38.72	-42.1	-45.9	12.5	8.23e-05	0	60	0	600834048	55	5712
2026-01-21 09:21:07.09	26.77	38.57	-42.4	-46.4	12.0	1.59e-04	0	60	0	601882624	55	6059
2026-01-21 09:21:08.10	26.40	38.42	-42.5	-46.8	11.6	5.46e-04	0	60	0	603979776	55	6319
2026-01-21 09:21:09.11	26.04	38.27	-42.4	-46.4	12.1	4.55e-04	0	60	0	606076928	55	6016
2026-01-21 09:21:10.12	25.69	38.12	-42.2	-46.0	12.4	1.83e-04	0	60	0	608174080	55	5742
2026-01-21 09:21:11.13	25.33	37.97	-42.2	-46.1	12.3	7.85e-05	0	60	0	610271232	55	5851
2026-01-21 09:21:12.14	24.98	37.82	-42.6	-46.9	11.5	3.48e-04	0	60	0	612368384	55	6393
2026-01-21 09:21:13.15	24.63	37.67	-42.5	-46.7	11.8	4.68e-04	0	60	0	613416960	55	6207
2026-01-21 09:21:14.16	24.29	37.52	-42.3	-46.4	12.0	3.26e-04	0	60	0	615514112	55	5993
2026-01-21 09:21:15.17	23.95	37.36	-42.0	-45.7	12.7	8.31e-05	0	60	0	617611264	55	5558
2026-01-21 09:21:16.18	23.61	37.21	-42.0	-45.7	12.7	7.85e-05	0	60	0	619708416	55	5554
2026-01-21 09:21:17.19	23.28	37.06	-42.2	-46.0	12.3	7.85e-05	0	60	0	621805568	55	5744
2026-01-21 09:21:18.19	22.95	36.91	-42.3	-46.2	12.2	1.11e-04	0	60	0	622854144	55	5875
2026-01-21 09:21:19.20	22.62	36.75	-42.4	-46.6	11.8	3.44e-04	0	60	0	624951296	55	6168
2026-01-21 09:21:20.21	22.30	36.60	-43.1	-48.0	10.5	2.01e-03	0	61	0	627048448	56	6824
2026-01-21 09:21:21.22	21.98	36.44	-43.5	-49.0	9.4	8.52e-03	0	60	0	629145600	57	7272
2026-01-21 09:21:22.23	21.66	36.29	-43.3	-48.6	9.7	1.79e-02	0	60	0	631242752	57	6912
2026-01-21 09:21:23.24	21.34	36.13	-43.1	-47.9	10.6	5.35e-03	0	60	0	632291328	57	6379
2026-01-21 09:21:24.25	21.03	35.97	-43.1	-47.9	10.5	2.41e-03	0	60	0	634388480	57	6395
2026-01-21 09:21:25.26	20.72	35.82	-43.3	-48.4	10.0	4.03e-03	0	60	0	636485632	57	6800
2026-01-21 09:21:26.27	20.42	35.66	-43.7	-49.6	8.8	2.18e-02	0	60	0	638582784	57	7764
2026-01-21 09:21:27.28	20.11	35.51	-43.8	-50.0	8.5	4.35e-02	0	60	0	640679936	58	7642
2026-01-21 09:21:28.29	19.81	35.35	-43.7	-49.9	8.5	3.56e-02	0	60	0	641728512	58	7623
2026-01-21 09:21:29.30	19.51	35.19	-43.8	-50.2	8.3	4.98e-02	0	60	0	643825664	58	7826
2026-01-21 09:21:30.30	19.22	35.04	-44.1	-51.2	7.2	7.79e-02	0	60	0	645922816	58	8772
2026-01-21 09:21:31.31	18.93	34.88	-44.0	-50.8	7.6	1.25e-01	0	60	0	648019968	58	8373
2026-01-21 09:21:32.32	18.64	34.72	-43.7	-49.7	8.7	4.98e-02	0	60	0	650117120	58	7409
2026-01-21 09:21:33.33	18.36	34.57	-43.3	-48.4	10.0	1.81e-02	0	60	0	651165696	58	6416
2026-01-21 09:21:34.34	18.07	34.41	-43.3	-48.4	10.0	7.39e-03	0	60	0	653262848	58	6377
2026-01-21 09:21:35.35	17.79	34.25	-43.6	-49.5	8.9	1.94e-02	0	60	0	655360000	58	7274
2026-01-21 09:21:36.36	17.51	34.10	-44.1	-51.4	7.1	7.66e-02	0	60	0	657457152	58	9007
2026-01-21 09:21:37.37	17.24	33.94	-44.4	-52.8	6.0	2.55e-01	0	60	0	659554304	59	9958
2026-01-21 09:21:38.38	16.97	33.78	-44.3	-52.0	6.4	3.40e-01	0	60	0	660602880	59	9106
2026-01-21 09:21:39.39	16.70	33.63	-44.0	-50.8	7.6	1.55e-01	0	60	0	662700032	59	7932
2026-01-21 09:21:40.40	16.43	33.47	-43.9	-50.3	8.2	7.82e-02	0	61	0	664797184	59	7458
2026-01-21 09:21:41.41	16.16	33.31	-43.8	-50.1	8.3	7.08e-02	0	60	0	666894336	59	7349
2026-01-21 09:21:42.42	15.90	33.16	-43.8	-50.2	8.2	6.37e-02	0	60	0	668991488	59	7375
2026-01-21 09:21:43.43	15.64	33.00	-43.9	-50.3	8.1	5.32e-02	0	60	0	670040064	59	7459
2026-01-21 09:21:44.44	15.38	32.84	-43.7	-49.9	8.4	4.07e-02	0	60	0	672137216	59	7188
2026-01-21 09:21:45.45	15.13	32.69	-43.9	-50.3	8.0	7.14e-02	0	60	0	674234368	59	7502
2026-01-21 09:21:46.46	14.88	32.53	-43.7	-49.8	8.4	4.95e-02	0	60	0	676331520	59	7114
2026-01-21 09:21:47.47	14.63	32.38	-43.4	-48.9	9.5	3.95e-02	0	60	0	678428672	58	6769
2026-01-21 09:21:48.47	14.38	32.22	-43.1	-48.2	10.3	8.36e-03	0	61	0	679477248	58	6210
2026-01-21 09:21:49.48	14.14	32.07	-43.0	-47.7	10.7	4.27e-03	0	60	0	681574400	58	5895
2026-01-21 09:21:50.49	13.89	31.91	-42.8	-47.2	11.2	1.58e-03	0	60	0	683671552	57	5914
2026-01-21 09:21:51.51	13.65	31.76	-43.0	-47.9	10.5	3.20e-03	0	60	0	685768704	57	6411
2026-01-21 09:21:52.51	13.42	31.60	-43.3	-48.8	9.6	7.67e-03	0	61	0	687865856	57	7044
2026-01-21 09:21:53.52	13.18	31.45	-43.6	-49.9	8.4	2.94e-02	0	60	0	689963008	57	7993
2026-01-21 09:21:54.53	12.95	31.30	-43.7	-49.8	8.5	6.65e-02	0	60	0	691011584	58	7488
2026-01-21 09:21:55.54	12.72	31.14	-43.7	-50.1	8.2	5.84e-02	0	60	0	693108736	58	7740
2026-01-21 09:21:56.55	12.49	30.99	-43.6	-49.6	8.6	4.83e-02	0	60	0	695205888	58	7357
2026-01-21 09:21:57.56	12.26	30.84	-43.6	-49.7	8.6	4.34e-02	0	60	0	697303040	58	7393
2026-01-21 09:21:58.57	12.04	30.68	-43.5	-49.2	9.1	2.21e-02	0	60	0	699400192	58	7005
2026-01-21 09:21:59.58	11.81	30.53	-43.6	-49.5	9.0	1.78e-02	0	61	0	700448768	58	7241
2026-01-21 09:22:00.59	11.59	30.38	-43.4	-48.9	9.5	2.53e-02	0	60	0	702545920	58	6734
2026-01-21 09:22:01.60	11.37	30.23	-43.5	-49.0	9.3	1.97e-02	0	60	0	704643072	58	6870
2026-01-21 09:22:02.61	11.16	30.07	-43.1	-48.0	10.4	9.26e-03	0	60	0	706740224	58	6096
2026-01-21 09:22:03.62	10.94	29.92	-43.1	-48.0	10.3	4.72e-03	0	61	0	708837376	58	6118
2026-01-21 09:22:04.63	10.73	29.77	-42.9	-47.6	10.8	3.06e-03	0	60	0	709885952	57	6147
2026-01-21 09:22:05.64	10.52	29.62	-43.0	-48.0	10.5	2.49e-03	0	60	0	711983104	57	6425
2026-01-21 09:22:06.64	10.32	29.47	-43.1	-48.2	10.2	4.17e-03	0	61	0	714080256	57	6590
2026-01-21 09:22:07.65	10.11	29.32	-43.3	-48.7	9.6	9.68e-03	0	60	0	716177408	57	6960
2026-01-21 09:22:08.66	9.91	29.17	-43.3	-48.6	9.7	1.19e-02	0	60	0	718274560	57	6904
2026-01-21 09:22:09.67	9.70	29.03	-43.4	-48.9	9.4	1.55e-02	0	60	0	719323136	57	7180
2026-01-21 09:22:10.68	9.50	28.88	-43.2	-48.5	9.8	1.52e-02	0	60	0	721420288	57	6805
2026-01-21 09:22:11.69	9.30	28.73	-43.1	-48.1	10.2	7.00e-03	0	60	0	723517440	57	6502
2026-01-21 09:22:12.70	9.11	28.58	-43.0	-47.8	10.4	4.67e-03	0	60	0	725614592	57	6344
2026-01-21 09:22:13.71	8.91	28.43	-42.7	-47.0	11.3	2.09e-03	0	60	0	727711744	57	5782
2026-01-21 09:22:14.72	8.72	28.29	-42.6	-46.9	11.4	1.19e-03	0	60	0	728760320	57	5722
2026-01-21 09:22:15.73	8.53	28.14	-42.5	-46.8	11.6	7.64e-04	0	61	0	730857472	57	5599
2026-01-21 09:22:16.74	8.34	27.99	-42.7	-47.1	11.2	1.11e-03	0	60	0	732954624	57	5834
2026-01-21 09:22:17.75	8.15	27.85	-43.0	-47.9	10.4	2.83e-03	0	60	0	735051776	57	6357
2026-01-21 09:22:18.76	7.97	27.70	-43.4	-49.1	9.2	1.41e-02	0	60	0	737148928	57	7302
2026-01-21 09:22:19.77	7.78	27.56	-43.5	-49.5	8.7	2.26e-02	0	60	0	738197504	57	7709
2026-01-21 09:22:20.78	7.60	27.41	-43.7	-50.3	7.9	3.94e-02	0	60	0	740294656	58	7906
2026-01-21 09:22:21.79	7.42	27.27	-43.7	-50.0	8.3	6.43e-02	0	60	0	742391808	58	7644
2026-01-21 09:22:22.80	7.24	27.13	-43.5	-49.5	8.8	5.05e-02	0	60	0	744488960	58	7246
2026-01-21 09:22:23.80	7.06	26.98	-43.2	-48.4	9.8	2.87e-02	0	60	0	746586112	58	6400
2026-01-21 09:22:24.81	6.89	26.84	-43.1	-48.2	10.0	7.65e-03	0	60	0	747634688	58	6272
2026-01-21 09:22:25.82	6.71	26.70	-43.1	-48.1	10.1	6.26e-03	0	60	0	749731840	58	6174
2026-01-21 09:22:26.83	6.54	26.56	-42.9	-47.7	10.5	4.71e-03	0	60	0	751828992	57	6270
2026-01-21 09:22:27.84	6.37	26.42	-42.9	-47.7	10.6	3.16e-03	0	60	0	753926144	57	6210
2026-01-21 09:22:28.85	6.20	26.28	-43.1	-48.2	10.3	3.54e-03	0	61	0	756023296	57	6601
2026-01-21 09:22:29.86	6.03	26.13	-43.1	-48.2	10.0	9.10e-03	0	60	0	758120448	57	6588
2026-01-21 09:22:30.87	5.86	26.00	-43.1	-48.3	9.9	8.93e-03	0	60	0	759169024	57	6690
2026-01-21 09:22:31.88	5.70	25.86	-43.2	-48.7	9.5	1.10e-02	0	60	0	761266176	57	6982
2026-01-21 09:22:32.88	5.54	25.72	-43.2	-48.5	9.7	1.04e-02	0	60	0	763363328	57	6807
2026-01-21 09:22:33.89	5.37	25.58	-43.1	-48.4	9.8	1.21e-02	0	60	0	765460480	57	6743
2026-01-21 09:22:34.90	5.21	25.44	-42.9	-47.7	10.5	5.17e-03	0	60	0	767557632	57	6259
2026-01-21 09:22:35.91	5.05	25.30	-43.0	-48.1	10.1	5.58e-03	0	60	0	768606208	57	6554
2026-01-21 09:22:36.92	4.90	25.17	-42.9	-47.9	10.4	6.97e-03	0	60	0	770703360	57	6365
2026-01-21 09:22:37.93	4.74	25.03	-43.1	-48.3	9.8	7.19e-03	0	60	0	772800512	57	6710
2026-01-21 09:22:38.94	4.58	24.89	-43.2	-48.8	9.4	1.29e-02	0	60	0	774897664	57	7074
2026-01-21 09:22:39.95	4.43	24.76	-43.4	-49.3	8.8	2.59e-02	0	60	0	776994816	57	7529
2026-01-21 09:22:40.96	4.28	24.62	-43.6	-49.9	8.2	4.96e-02	0	60	0	778043392	57	8014
2026-01-21 09:22:41.97	4.13	24.49	-43.5	-49.7	8.4	6.17e-02	0	60	0	780140544	57	7897
2026-01-21 09:22:42.98	3.98	24.35	-43.5	-49.7	8.4	5.60e-02	0	60	0	782237696	57	7832
2026-01-21 09:22:43.99	3.83	24.22	-43.3	-49.0	9.0	2.90e-02	0	60	0	784334848	57	7270
2026-01-21 09:22:45.00	3.68	24.09	-43.1	-48.4	9.7	1.71e-02	0	60	0	786432000	57	6753
2026-01-21 09:22:46.01	3.53	23.95	-42.9	-47.9	10.2	9.03e-03	0	60	0	787480576	57	6416
2026-01-21 09:22:47.02	3.39	23.82	-42.8	-47.6	10.5	5.23e-03	0	61	0	789577728	57	6187
2026-01-21 09:22:48.03	3.25	23.69	-42.7	-47.5	10.7	3.36e-03	0	61	0	791674880	57	6064
2026-01-21 09:22:49.04	3.10	23.56	-42.7	-47.5	10.6	3.30e-03	0	60	0	793772032	57	6077
2026-01-21 09:22:50.05	2.96	23.43	-42.7	-47.4	10.6	3.09e-03	0	60	0	795869184	57	6060
2026-01-21 09:22:51.05	2.82	23.30	-42.8	-47.6	10.5	2.87e-03	0	61	0	796917760	57	6175
2026-01-21 09:22:52.06	2.69	23.17	-42.7	-47.5	10.7	3.56e-03	0	61	0	799014912	57	6084
2026-01-21 09:22:53.07	2.55	23.04	-42.7	-47.5	10.6	3.09e-03	0	60	0	801112064	57	6091
2026-01-21 09:22:54.08	2.41	22.91	-42.6	-47.4	10.7	3.60e-03	0	60	0	803209216	57	6018
2026-01-21 09:22:55.09	2.28	22.78	-42.7	-47.5	10.6	2.75e-03	0	60	0	805306368	57	6111
2026-01-21 09:22:56.10	2.14	22.65	-42.8	-47.8	10.4	3.97e-03	0	60	0	806354944	57	6284
2026-01-21 09:22:57.11	2.01	22.53	-42.8	-47.9	10.1	5.66e-03	0	60	0	808452096	57	6391
2026-01-21 09:22:58.12	1.88	22.40	-42.9	-48.1	9.9	6.64e-03	0	60	0	810549248	57	6530
2026-01-21 09:22:59.13	1.75	22.27	-42.8	-48.0	10.1	9.14e-03	0	60	0	812646400	57	6445
2026-01-21 09:23:00.14	1.62	22.14	-42.8	-47.9	10.1	7.71e-03	0	61	0	814743552	57	6401
2026-01-21 09:23:01.15	1.49	22.02	-42.7	-47.6	10.4	4.96e-03	0	60	0	815792128	57	6151
2026-01-21 09:23:02.16	1.36	21.89	-42.6	-47.3	10.7	3.54e-03	0	60	0	817889280	57	5992
2026-01-21 09:23:03.17	1.23	21.77	-42.5	-47.1	10.9	2.38e-03	0	60	0	819986432	57	5849
2026-01-21 09:23:04.18	1.11	21.64	-42.4	-46.9	11.1	2.09e-03	0	60	0	822083584	56	6016
2026-01-21 09:23:05.19	0.98	21.52	-42.5	-47.1	10.9	1.90e-03	0	60	0	824180736	56	6200
2026-01-21 09:23:06.20	0.86	21.40	-42.5	-47.3	10.7	2.94e-03	0	60	0	826277888	56	6277
2026-01-21 09:23:07.21	0.74	21.27	-42.7	-47.8	10.2	5.15e-03	0	60	0	827326464	56	6659
2026-01-21 09:23:08.21	0.62	21.15	-42.9	-48.2	9.7	8.99e-03	0	61	0	829423616	56	7033
2026-01-21 09:23:09.22	0.50	21.03	-43.2	-49.2	8.7	1.72e-02	0	60	0	831520768	56	7822
2026-01-21 09:23:10.23	0.38	20.91	-43.3	-49.6	8.2	4.95e-02	0	61	0	833617920	57	7762
2026-01-21 09:23:11.24	0.26	20.79	-43.4	-50.0	7.8	7.23e-02	0	60	0	834666496	57	8120
2026-01-21 09:23:12.25	0.14	20.67	-43.4	-50.4	7.4	8.99e-02	0	60	0	836763648	57	8480
2026-01-21 09:23:13.26	0.03	20.55	-43.4	-50.3	7.5	1.10e-01	0	60	0	838860800	57	8450
2026-01-21 09:23:14.27	359.91	20.43	-43.4	-50.2	7.5	9.62e-02	0	61	0	840957952	57	8366
2026-01-21 09:23:15.28	359.80	20.31	-43.2	-49.6	8.1	7.28e-02	0	61	0	843055104	57	7788
2026-01-21 09:23:16.29	359.68	20.19	-43.1	-49.2	8.5	4.61e-02	0	60	0	844103680	57	7417
2026-01-21 09:23:17.30	359.57	20.07	-43.1	-49.3	8.5	3.91e-02	0	60	0	846200832	57	7466
2026-01-21 09:23:18.31	359.46	19.95	-43.0	-48.8	8.9	3.42e-02	0	60	0	848297984	57	7085
2026-01-21 09:23:19.32	359.35	19.83	-42.9	-48.7	8.9	3.25e-02	0	60	0	850395136	57	7023
2026-01-21 09:23:20.33	359.24	19.72	-42.9	-48.7	8.9	3.00e-02	0	60	0	852492288	57	7013
2026-01-21 09:23:21.34	359.13	19.60	-42.8	-48.6	9.0	2.68e-02	0	60	0	854589440	57	6934
2026-01-21 09:23:22.35	359.02	19.48	-42.8	-48.4	9.1	2.53e-02	0	61	0	855638016	57	6761
2026-01-21 09:23:23.36	358.91	19.37	-42.8	-48.5	9.1	2.31e-02	0	61	0	857735168	57	6811
2026-01-21 09:23:24.37	358.80	19.25	-42.6	-48.2	9.3	1.99e-02	0	61	0	859832320	57	6604
2026-01-21 09:23:25.38	358.70	19.14	-42.6	-48.1	9.3	1.76e-02	0	61	0	861929472	57	6565
2026-01-21 09:23:26.38	358.59	19.02	-42.7	-48.3	9.2	2.21e-02	0	60	0	864026624	57	6681
2026-01-21 09:23:27.39	358.49	18.91	-42.6	-48.1	9.2	2.03e-02	0	61	0	865075200	57	6566
2026-01-21 09:23:28.40	358.39	18.80	-42.5	-47.9	9.4	1.65e-02	0	61	0	867172352	57	6406
2026-01-21 09:23:29.41	358.28	18.68	-42.4	-48.0	9.3	1.52e-02	0	60	0	869269504	56	6825
2026-01-21 09:23:30.42	358.18	18.57	-42.4	-47.8	9.4	1.70e-02	0	61	0	871366656	56	6714
2026-01-21 09:23:31.43	358.08	18.46	-42.4	-48.0	9.2	1.66e-02	0	61	0	873463808	56	6844
2026-01-21 09:23:32.44	357.98	18.35	-42.4	-48.1	9.0	2.17e-02	0	61	0	874512384	56	6924
2026-01-21 09:23:33.45	357.88	18.23	-42.4	-48.1	9.0	2.58e-02	0	60	0	876609536	56	6904
2026-01-21 09:23:34.46	357.78	18.12	-42.4	-48.0	9.0	2.49e-02	0	60	0	878706688	56	6869
2026-01-21 09:23:35.47	357.68	18.01	-42.2	-47.9	9.1	2.43e-02	0	60	0	880803840	56	6724
2026-01-21 09:23:36.48	357.59	17.90	-42.2	-47.8	9.1	2.13e-02	0	61	0	882900992	56	6684
2026-01-21 09:23:37.49	357.49	17.79	-41.8	-47.3	9.5	1.55e-02	0	61	0	883949568	55	6671
2026-01-21 09:23:38.50	357.39	17.68	-41.9	-47.5	9.1	1.82e-02	0	60	0	886046720	55	6863
2026-01-21 09:23:39.51	357.30	17.57	-41.8	-47.4	9.1	2.51e-02	0	61	0	888143872	55	6775
2026-01-21 09:23:40.52	357.20	17.46	-41.8	-47.6	8.8	2.62e-02	0	61	0	890241024	55	6923
2026-01-21 09:23:41.53	357.11	17.36	-41.9	-47.9	8.5	3.58e-02	0	61	0	892338176	55	7128
2026-01-21 09:23:42.54	357.02	17.25	-41.8	-48.0	8.3	4.95e-02	0	61	0	893386752	55	7253
2026-01-21 09:23:43.55	356.92	17.14	-41.8	-47.9	8.3	4.70e-02	0	61	0	895483904	55	7189
2026-01-21 09:23:44.56	356.83	17.03	-41.8	-48.2	8.0	5.20e-02	0	61	0	897581056	55	7405
2026-01-21 09:23:45.57	356.74	16.93	-41.8	-48.4	7.8	7.62e-02	0	61	0	899678208	55	7550
2026-01-21 09:23:46.58	356.65	16.82	-41.7	-48.1	8.0	6.88e-02	0	61	0	901775360	55	7336
2026-01-21 09:23:47.59	356.56	16.71	-41.7	-48.4	7.6	7.87e-02	0	61	0	902823936	55	7627
2026-01-21 09:23:48.60	356.47	16.61	-41.6	-48.5	7.4	1.04e-01	0	61	0	904921088	55	7675
2026-01-21 09:23:49.61	356.38	16.50	-41.6	-48.6	7.2	1.16e-01	0	61	0	907018240	55	7749
2026-01-21 09:23:50.62	356.30	16.40	-41.6	-49.0	6.8	1.51e-01	0	61	0	909115392	55	8086
2026-01-21 09:23:51.63	356.21	16.29	-41.6	-49.2	6.5	2.18e-01	0	61	0	911212544	55	8366
2026-01-21 09:23:52.64	356.12	16.19	-41.6	-49.7	6.0	2.96e-01	0	60	0	912261120	55	8804
2026-01-21 09:23:53.65	356.04	16.09	-41.5	-51.2	4.9	3.94e-01	0	61	0	914358272	55	10509
2026-01-21 09:23:54.66	355.95	15.98	-42.4	-53.2	4.4	1.12e+00	0	61	0	916455424	55	13237
2026-01-21 09:23:55.67	355.87	15.88	-41.7	-54.9	3.8	1.48e+00	0	61	104	916455424	55	16114
2026-01-21 09:23:56.68	355.78	15.78	-42.0	-52.2	4.1	1.49e+00	0	61	104	916455424	54	12386
2026-01-21 09:23:57.69	355.70	15.67	-42.2	-53.0	4.3	1.42e+00	0	61	0	916455424	55	12833
2026-01-21 09:23:58.70	355.62	15.57	-42.1	-53.1	4.2	1.35e+00	0	61	0	916455424	55	13090
2026-01-21 09:23:59.71	355.53	15.47	-42.0	-53.8	4.0	1.42e+00	0	61	0	916455424	55	14083
2026-01-21 09:24:00.70	355.45	15.37	-41.9	-54.1	4.0	1.48e+00	0	61	104	916455424	55	14641
2026-01-21 09:24:01.71	355.37	15.27	-41.8	-54.5	3.8	1.49e+00	0	61	104	916455424	55	15346
2026-01-21 09:24:02.72	355.29	15.17	-41.5	-55.0	3.8	1.49e+00	0	61	104	916455424	55	16157
2026-01-21 09:24:03.73	355.21	15.07	-41.9	-55.3	3.8	1.49e+00	0	60	104	916455424	54	17864
2026-01-21 09:24:04.74	355.13	14.97	-41.0	-55.6	3.8	1.49e+00	0	60	104	916455424	54	18448
2026-01-21 09:24:05.75	355.05	14.87	-41.0	-55.6	3.8	1.49e+00	0	61	104	916455424	53	19445
2026-01-21 09:24:06.76	354.98	14.77	-41.5	-55.8	3.8	1.49e+00	0	61	104	916455424	53	20055
2026-01-21 09:24:07.77	354.90	14.67	-41.0	-55.6	3.8	1.49e+00	0	61	104	916455424	53	19545
2026-01-21 09:24:08.78	354.82	14.58	-41.2	-55.7	3.8	1.49e+00	0	61	104	916455424	53	19710
2026-01-21 09:24:09.79	354.74	14.48	-40.9	-55.5	3.8	1.49e+00	0	61	104	916455424	53	19375
2026-01-21 09:24:10.78	354.67	14.38	-41.2	-55.7	3.8	1.49e+00	0	61	104	916455424	53	19836
2026-01-21 09:24:11.80	354.59	14.28	-40.9	-55.5	3.8	1.49e+00	0	61	104	916455424	53	19195
2026-01-21 09:24:12.80	354.52	14.19	-41.1	-55.6	3.8	1.49e+00	0	61	104	916455424	53	19588
2026-01-21 09:24:13.81	354.44	14.09	-40.8	-55.4	3.8	1.49e+00	0	61	104	916455424	53	19040
2026-01-21 09:24:14.82	354.37	13.99	-40.9	-55.5	3.8	1.49e+00	0	61	104	916455424	53	19376
2026-01-21 09:24:15.84	354.29	13.90	-40.7	-55.3	3.8	1.49e+00	0	61	104	916455424	53	18884
2026-01-21 09:24:16.85	354.22	13.80	-41.0	-55.6	3.8	1.49e+00	0	61	104	916455424	53	19538
2026-01-21 09:24:17.85	354.15	13.71	-40.8	-55.4	3.8	1.49e+00	0	61	104	916455424	53	19045
2026-01-21 09:24:18.86	354.08	13.61	-40.8	-55.4	3.8	1.49e+00	0	61	104	916455424	53	18987
2026-01-21 09:24:19.87	354.01	13.52	-40.7	-55.3	3.8	1.49e+00	0	61	104	916455424	53	18754
2026-01-21 09:24:20.88	353.93	13.42	-41.0	-55.6	3.8	1.49e+00	0	61	104	916455424	53	19449
2026-01-21 09:24:21.89	353.86	13.33	-40.8	-55.4	3.8	1.49e+00	0	61	104	916455424	53	18950
2026-01-21 09:24:22.90	353.79	13.24	-40.7	-55.3	3.8	1.49e+00	0	61	104	916455424	53	18888
2026-01-21 09:24:23.91	353.72	13.14	-40.7	-55.2	3.8	1.49e+00	0	61	104	916455424	53	18697
2026-01-21 09:24:24.92	353.65	13.05	-40.8	-55.4	3.8	1.49e+00	0	60	104	916455424	53	19088
2026-01-21 09:24:25.93	353.59	12.96	-40.8	-55.4	3.8	1.49e+00	0	61	104	916455424	53	18978
2026-01-21 09:24:26.94	353.52	12.86	-40.7	-55.3	3.8	1.49e+00	0	61	104	916455424	53	18782
2026-01-21 09:24:27.95	353.45	12.77	-40.7	-55.2	3.8	1.49e+00	0	61	104	916455424	53	18690
2026-01-21 09:24:28.96	353.38	12.68	-40.7	-55.3	3.8	1.49e+00	0	61	104	916455424	53	18893
2026-01-21 09:24:29.97	353.32	12.59	-40.9	-55.4	3.8	1.49e+00	0	60	104	916455424	53	19044
2026-01-21 09:24:30.97	353.25	12.50	-40.6	-55.2	3.8	1.49e+00	0	61	104	916455424	53	18579
2026-01-21 09:24:31.98	353.18	12.41	-40.8	-55.4	3.8	1.49e+00	0	61	104	916455424	53	18951
2026-01-21 09:24:32.99	353.12	12.32	-40.7	-55.2	3.8	1.49e+00	0	61	104	916455424	53	18713
2026-01-21 09:24:34.00	353.05	12.23	-40.8	-55.4	3.8	1.49e+00	0	61	104	916455424	53	19029
2026-01-21 09:24:35.01	352.99	12.14	-40.5	-55.1	3.8	1.49e+00	0	61	104	916455424	53	18403
2026-01-21 09:24:36.02	352.92	12.05	-40.8	-55.4	3.8	1.49e+00	0	61	104	916455424	53	19034
2026-01-21 09:24:37.03	352.86	11.96	-40.6	-55.2	3.8	1.49e+00	0	61	104	916455424	53	18639
2026-01-21 09:24:38.04	352.79	11.87	-40.8	-55.4	3.8	1.49e+00	0	61	104	916455424	53	18998
2026-01-21 09:24:39.05	352.73	11.78	-40.5	-55.1	3.8	1.49e+00	0	61	104	916455424	53	18314
2026-01-21 09:24:40.06	352.67	11.69	-40.8	-55.3	3.8	1.49e+00	0	61	104	916455424	53	18891
2026-01-21 09:24:41.07	352.61	11.60	-40.6	-55.2	3.8	1.49e+00	0	61	104	916455424	53	18562
2026-01-21 09:24:42.08	352.54	11.51	-40.8	-55.4	3.8	1.49e+00	0	61	104	916455424	53	19042
2026-01-21 09:24:43.09	352.48	11.42	-40.5	-55.1	3.8	1.49e+00	0	61	104	916455424	53	18385
2026-01-21 09:24:44.10	352.42	11.34	-40.7	-55.2	3.8	1.49e+00	0	61	104	916455424	53	18683
2026-01-21 09:24:45.11	352.36	11.25	-40.7	-55.2	3.8	1.49e+00	0	61	104	916455424	53	18715
2026-01-21 09:24:46.12	352.30	11.16	-40.8	-55.4	3.8	1.49e+00	0	61	104	916455424	53	19075
