passes_logs/2026/01/21/R2.0S_Moscow/R2.0S_Moscow__20260121_002013_FENGYUN_3D_rec.log

#Pass ID: 20260121_002013_FENGYUN 3D
#Satellite: FENGYUN 3D
#Configuration: FENGYUN 3D
#almurnet v.1.7.20251203
#Start time: 2026-01-21 00:20:13

#Version: 2.2.20231116
#Station: R2.0S_Moscow
#Location: 37.707566 lon 55.798166 lat
#TLE: 1 43010U 17072A   26020.28933472  .00000051  00000+0  46008-4 0  9990
#TLE: 2 43010  98.9944 352.1871 0002476  99.7001 260.4455 14.19696838424006

#Time	Az	El	Level	Level2	SNR	BER	BlckErr	Temp	State	Recorded	gain1	gain2
2026-01-21 00:20:13.43	25.10	2.01	-41.7	-54.1	3.8	8.47e-01	0	48	0	0	55	14581
2026-01-21 00:20:14.43	25.17	2.07	-41.7	-54.1	3.8	8.45e-01	0	49	104	0	54	15472
2026-01-21 00:20:15.44	25.23	2.12	-41.7	-54.0	3.8	8.46e-01	0	49	104	0	54	15376
2026-01-21 00:20:16.45	25.30	2.18	-41.7	-54.1	3.8	8.47e-01	0	49	104	0	54	15514
2026-01-21 00:20:17.46	25.37	2.23	-41.7	-54.0	3.8	8.45e-01	0	49	104	0	54	15390
2026-01-21 00:20:18.47	25.44	2.29	-41.7	-54.1	3.8	8.46e-01	0	49	104	0	54	15455
2026-01-21 00:20:19.48	25.51	2.35	-41.7	-54.0	3.8	8.46e-01	0	49	104	0	54	15382
2026-01-21 00:20:20.49	25.58	2.40	-41.7	-54.1	3.8	8.46e-01	0	49	104	0	54	15425
2026-01-21 00:20:21.50	25.65	2.46	-41.8	-54.1	3.8	8.45e-01	0	50	104	0	54	15461
2026-01-21 00:20:22.51	25.72	2.52	-41.8	-54.1	3.8	8.47e-01	0	49	104	0	54	15446
2026-01-21 00:20:23.52	25.80	2.57	-41.7	-54.1	3.8	8.47e-01	0	49	104	0	54	15508
2026-01-21 00:20:24.53	25.87	2.63	-41.8	-54.1	3.8	8.45e-01	0	50	104	0	54	15448
2026-01-21 00:20:25.54	25.94	2.69	-41.7	-54.1	3.8	8.47e-01	0	50	104	0	54	15452
2026-01-21 00:20:26.55	26.01	2.74	-41.7	-54.0	3.8	8.46e-01	0	50	104	0	54	15368
2026-01-21 00:20:27.56	26.08	2.80	-41.8	-54.1	3.8	8.46e-01	0	50	104	0	54	15501
2026-01-21 00:20:28.57	26.15	2.86	-41.7	-54.0	3.8	8.45e-01	0	50	104	0	54	15375
2026-01-21 00:20:29.59	26.23	2.91	-41.8	-54.1	3.8	8.46e-01	0	50	104	0	54	15433
2026-01-21 00:20:30.60	26.30	2.97	-41.7	-54.0	3.8	8.47e-01	0	50	104	0	54	15383
2026-01-21 00:20:31.61	26.37	3.03	-41.7	-54.1	3.8	8.46e-01	0	50	104	0	54	15454
2026-01-21 00:20:32.62	26.45	3.09	-41.7	-54.1	3.8	8.46e-01	0	50	104	0	54	15487
2026-01-21 00:20:33.63	26.52	3.14	-41.8	-54.0	3.8	8.46e-01	0	50	104	0	54	15369
2026-01-21 00:20:34.64	26.59	3.20	-41.7	-54.1	3.8	8.46e-01	0	50	104	0	54	15412
2026-01-21 00:20:35.65	26.67	3.26	-41.8	-54.1	3.8	8.46e-01	0	50	104	0	54	15417
2026-01-21 00:20:36.66	26.74	3.32	-41.7	-54.1	3.8	8.47e-01	0	51	104	0	54	15412
2026-01-21 00:20:37.67	26.82	3.37	-41.7	-54.0	3.8	8.46e-01	0	51	104	0	54	15400
2026-01-21 00:20:38.68	26.89	3.43	-41.8	-54.1	3.8	8.45e-01	0	51	104	0	54	15463
2026-01-21 00:20:39.69	26.97	3.49	-41.7	-54.1	3.8	8.46e-01	0	51	104	0	54	15452
2026-01-21 00:20:40.70	27.04	3.55	-41.8	-54.1	3.8	8.45e-01	0	51	104	0	54	15477
2026-01-21 00:20:41.71	27.12	3.61	-41.7	-54.1	3.8	8.46e-01	0	51	104	0	54	15436
2026-01-21 00:20:42.72	27.20	3.67	-41.7	-54.1	3.8	8.47e-01	0	51	104	0	54	15402
2026-01-21 00:20:43.73	27.27	3.72	-41.7	-54.1	3.8	8.47e-01	0	51	104	0	54	15430
2026-01-21 00:20:44.74	27.35	3.78	-41.8	-54.0	3.8	8.46e-01	0	51	104	0	54	15389
2026-01-21 00:20:45.75	27.43	3.84	-41.7	-54.1	3.8	8.48e-01	0	51	104	0	54	15457
2026-01-21 00:20:46.76	27.50	3.90	-41.7	-54.0	3.8	8.46e-01	0	51	104	0	54	15364
2026-01-21 00:20:47.77	27.58	3.96	-41.7	-54.1	3.8	8.46e-01	0	51	104	0	54	15479
2026-01-21 00:20:48.78	27.66	4.02	-41.7	-54.1	3.8	8.46e-01	0	51	104	0	54	15428
2026-01-21 00:20:49.79	27.74	4.07	-41.7	-54.1	3.8	8.47e-01	0	51	104	0	54	15442
2026-01-21 00:20:50.80	27.82	4.13	-41.7	-54.1	3.8	8.46e-01	0	51	104	0	54	15440
2026-01-21 00:20:51.82	27.89	4.19	-41.7	-54.1	3.8	8.46e-01	0	52	104	0	54	15440
2026-01-21 00:20:52.83	27.97	4.25	-41.8	-54.1	3.8	8.47e-01	0	52	104	0	54	15452
2026-01-21 00:20:53.84	28.05	4.31	-41.7	-54.0	3.8	8.47e-01	0	52	104	0	54	15372
2026-01-21 00:20:54.85	28.13	4.37	-41.8	-54.1	3.8	8.45e-01	0	52	104	0	54	15427
2026-01-21 00:20:55.85	28.21	4.43	-41.7	-54.1	3.8	8.46e-01	0	52	104	0	54	15420
2026-01-21 00:20:56.87	28.29	4.49	-41.8	-54.1	3.8	8.46e-01	0	52	104	0	54	15454
2026-01-21 00:20:57.88	28.37	4.55	-41.7	-54.1	3.8	8.45e-01	0	52	104	0	54	15440
2026-01-21 00:20:58.89	28.45	4.61	-41.7	-54.1	3.8	8.46e-01	0	52	104	0	54	15421
2026-01-21 00:20:59.90	28.54	4.67	-41.7	-54.0	3.8	8.47e-01	0	52	104	0	54	15382
2026-01-21 00:21:00.91	28.62	4.73	-41.7	-54.1	3.8	8.46e-01	0	52	104	0	54	15414
2026-01-21 00:21:01.92	28.70	4.79	-41.7	-54.1	3.8	8.47e-01	0	52	104	0	54	15460
2026-01-21 00:21:02.93	28.78	4.85	-41.7	-54.0	3.8	8.46e-01	0	52	104	0	54	15341
2026-01-21 00:21:03.94	28.86	4.91	-41.7	-54.1	3.8	8.47e-01	0	52	104	0	54	15411
2026-01-21 00:21:04.95	28.95	4.97	-41.7	-54.0	3.8	8.46e-01	0	52	104	0	54	15385
2026-01-21 00:21:05.96	29.03	5.03	-41.7	-54.1	3.8	8.46e-01	0	52	104	0	54	15414
2026-01-21 00:21:06.97	29.11	5.09	-41.7	-54.1	3.8	8.45e-01	0	52	104	0	54	15478
2026-01-21 00:21:07.98	29.20	5.15	-41.8	-54.1	3.8	8.46e-01	0	52	104	0	54	15427
2026-01-21 00:21:08.99	29.28	5.21	-41.7	-54.1	3.8	8.46e-01	0	52	104	0	54	15412
2026-01-21 00:21:10.00	29.36	5.27	-41.7	-54.1	3.8	8.46e-01	0	52	104	0	54	15440
2026-01-21 00:21:11.01	29.45	5.33	-41.7	-54.1	3.8	8.45e-01	0	52	104	0	54	15462
2026-01-21 00:21:12.02	29.53	5.39	-41.7	-54.0	3.8	8.46e-01	0	53	104	0	54	15376
2026-01-21 00:21:13.03	29.62	5.45	-41.7	-54.0	3.8	8.45e-01	0	53	104	0	54	15347
2026-01-21 00:21:14.04	29.71	5.51	-41.7	-54.1	3.8	8.47e-01	0	53	104	0	54	15444
2026-01-21 00:21:15.05	29.79	5.58	-41.7	-54.0	3.8	8.45e-01	0	53	104	0	54	15384
2026-01-21 00:21:16.07	29.88	5.64	-41.7	-54.0	3.8	8.47e-01	0	53	104	0	54	15395
2026-01-21 00:21:17.08	29.97	5.70	-41.7	-54.1	3.8	8.46e-01	0	53	104	0	54	15418
2026-01-21 00:21:18.09	30.05	5.76	-41.7	-54.1	3.8	8.46e-01	0	53	104	0	54	15407
2026-01-21 00:21:19.10	30.14	5.82	-41.7	-54.0	3.8	8.46e-01	0	53	104	0	54	15385
2026-01-21 00:21:20.11	30.23	5.88	-41.7	-54.0	3.8	8.46e-01	0	53	104	0	54	15381
2026-01-21 00:21:21.12	30.32	5.94	-41.7	-54.1	3.8	8.46e-01	0	53	104	0	54	15402
2026-01-21 00:21:22.13	30.40	6.01	-41.7	-54.1	3.8	8.46e-01	0	53	104	0	54	15429
2026-01-21 00:21:23.14	30.49	6.07	-41.7	-54.0	3.8	8.45e-01	0	53	104	0	54	15393
2026-01-21 00:21:24.15	30.58	6.13	-41.7	-54.0	3.8	8.46e-01	0	53	104	0	54	15319
2026-01-21 00:21:25.16	30.67	6.19	-41.7	-54.0	3.8	8.46e-01	0	53	104	0	54	15350
2026-01-21 00:21:26.17	30.76	6.25	-41.7	-54.0	3.8	8.46e-01	0	53	104	0	54	15232
2026-01-21 00:21:27.18	30.85	6.32	-41.7	-54.0	3.8	8.46e-01	0	53	104	0	54	15256
2026-01-21 00:21:28.19	30.94	6.38	-41.7	-53.9	3.8	8.46e-01	0	53	104	0	54	15170
2026-01-21 00:21:29.20	31.03	6.44	-41.7	-53.8	3.8	8.46e-01	0	54	104	0	54	14995
2026-01-21 00:21:30.21	31.13	6.50	-41.7	-53.8	3.8	8.46e-01	0	53	104	0	54	14943
2026-01-21 00:21:31.22	31.22	6.57	-41.7	-53.8	3.8	8.45e-01	0	53	104	0	54	14943
2026-01-21 00:21:32.23	31.31	6.63	-41.7	-53.8	3.8	8.47e-01	0	54	104	0	54	14989
2026-01-21 00:21:33.24	31.40	6.69	-41.7	-53.9	3.8	8.46e-01	0	54	104	0	54	15202
2026-01-21 00:21:34.25	31.50	6.75	-41.7	-54.0	3.8	8.47e-01	0	53	104	0	54	15341
2026-01-21 00:21:35.27	31.59	6.82	-41.7	-54.0	3.8	8.46e-01	0	54	104	0	54	15297
2026-01-21 00:21:36.28	31.68	6.88	-41.6	-53.4	3.8	8.46e-01	0	54	104	0	54	14354
2026-01-21 00:21:37.29	31.78	6.94	-41.6	-53.1	3.8	8.46e-01	0	54	104	0	54	13813
2026-01-21 00:21:38.30	31.87	7.01	-41.6	-53.3	3.8	8.46e-01	0	54	104	0	54	14138
2026-01-21 00:21:39.31	31.97	7.07	-41.7	-53.6	3.8	8.46e-01	0	54	104	0	54	14668
2026-01-21 00:21:40.32	32.06	7.13	-41.7	-53.9	3.8	8.46e-01	0	54	104	0	54	15224
2026-01-21 00:21:41.33	32.16	7.20	-41.7	-53.5	3.8	8.47e-01	0	54	104	0	54	14540
2026-01-21 00:21:42.34	32.25	7.26	-41.7	-53.9	3.8	8.45e-01	0	54	104	0	54	15154
2026-01-21 00:21:43.35	32.35	7.32	-41.7	-54.0	3.8	8.46e-01	0	54	104	0	54	15251
2026-01-21 00:21:44.36	32.45	7.39	-41.7	-53.5	3.8	8.46e-01	0	54	104	0	54	14377
2026-01-21 00:21:45.37	32.54	7.45	-41.6	-52.4	3.8	8.47e-01	0	54	104	0	54	12672
2026-01-21 00:21:46.38	32.64	7.52	-41.3	-50.4	4.2	8.42e-01	0	54	0	0	54	10136
2026-01-21 00:21:47.39	32.74	7.58	-40.9	-47.9	5.3	7.78e-01	0	54	0	0	53	8044
2026-01-21 00:21:48.40	32.84	7.64	-40.4	-46.2	6.7	3.08e-01	0	54	0	4194304	52	6961
2026-01-21 00:21:49.41	32.94	7.71	-39.9	-44.6	8.2	9.41e-02	0	54	0	9437184	51	6160
2026-01-21 00:21:50.42	33.04	7.77	-39.5	-43.7	9.1	3.55e-02	0	54	0	15728640	51	5572
2026-01-21 00:21:51.43	33.14	7.84	-39.8	-44.3	8.5	4.27e-02	0	54	0	20971520	51	5986
2026-01-21 00:21:52.44	33.24	7.90	-40.0	-44.9	7.9	7.71e-02	0	54	0	27262976	51	6350
2026-01-21 00:21:53.45	33.34	7.97	-39.9	-44.6	8.2	7.31e-02	0	54	0	32505856	51	6170
2026-01-21 00:21:54.46	33.44	8.03	-40.3	-45.1	7.8	5.24e-02	0	55	0	37748736	51	6547
2026-01-21 00:21:55.47	33.54	8.10	-41.9	-50.9	4.2	8.43e-01	0	54	104	38797312	54	10710
2026-01-21 00:21:56.48	33.64	8.16	-40.0	-44.3	8.7	5.09e-01	0	54	0	39845888	51	5969
2026-01-21 00:21:57.49	33.74	8.22	-40.9	-51.1	4.0	8.05e-01	0	54	0	44040192	52	12327
2026-01-21 00:21:58.50	33.85	8.29	-40.8	-47.5	4.3	8.45e-01	0	55	104	44040192	52	8117
2026-01-21 00:21:59.51	33.95	8.36	-40.0	-43.5	10.1	1.70e-02	0	54	0	47185920	51	5413
2026-01-21 00:22:00.52	34.05	8.42	-39.5	-42.6	11.0	2.98e-03	0	54	0	52428800	50	5214
2026-01-21 00:22:01.53	34.16	8.49	-39.1	-42.0	11.6	1.13e-03	0	54	0	58720256	50	4828
2026-01-21 00:22:02.54	34.26	8.55	-38.9	-41.8	11.8	7.99e-04	0	54	0	63963136	49	5015
2026-01-21 00:22:03.55	34.37	8.62	-39.0	-41.8	11.8	7.46e-04	0	55	0	69206016	49	5041
2026-01-21 00:22:04.56	34.47	8.68	-39.0	-41.9	11.8	6.25e-04	0	55	0	75497472	49	5079
2026-01-21 00:22:05.57	34.58	8.75	-39.2	-42.1	11.5	1.02e-03	0	55	0	80740352	49	5217
2026-01-21 00:22:06.58	34.68	8.81	-39.0	-41.8	12.0	5.74e-04	0	55	0	87031808	49	4985
2026-01-21 00:22:07.59	34.79	8.88	-39.2	-42.1	11.8	5.37e-04	0	55	0	92274688	49	5171
2026-01-21 00:22:08.60	34.90	8.95	-39.1	-41.8	12.1	4.81e-04	0	55	0	97517568	49	5040
2026-01-21 00:22:09.61	35.01	9.01	-39.3	-42.0	11.9	5.37e-04	0	55	0	103809024	49	5149
2026-01-21 00:22:10.62	35.11	9.08	-39.1	-41.8	12.2	2.55e-04	0	55	0	109051904	49	5010
2026-01-21 00:22:11.63	35.22	9.14	-39.2	-41.8	12.2	4.83e-04	0	55	0	115343360	49	5037
2026-01-21 00:22:12.64	35.33	9.21	-39.1	-41.7	12.3	2.69e-04	0	55	0	120586240	49	4956
2026-01-21 00:22:13.65	35.44	9.28	-39.0	-41.6	12.4	2.23e-04	0	55	0	126877696	49	4885
2026-01-21 00:22:14.66	35.55	9.34	-39.1	-41.7	12.3	2.71e-04	0	55	0	132120576	49	4959
2026-01-21 00:22:15.68	35.66	9.41	-39.2	-41.8	12.3	2.73e-04	0	55	0	137363456	49	4995
2026-01-21 00:22:16.69	35.77	9.48	-39.2	-41.8	12.2	3.23e-04	0	55	0	143654912	49	5035
2026-01-21 00:22:17.70	35.89	9.54	-39.1	-41.6	12.5	2.17e-04	0	55	0	148897792	49	4909
2026-01-21 00:22:18.71	36.00	9.61	-39.1	-41.7	12.5	2.17e-04	0	55	0	155189248	49	4928
2026-01-21 00:22:19.72	36.11	9.68	-39.0	-41.6	12.6	1.14e-04	0	55	0	160432128	49	4887
2026-01-21 00:22:20.73	36.22	9.75	-39.0	-41.4	12.8	1.74e-04	0	55	0	165675008	49	4808
2026-01-21 00:22:21.74	36.34	9.81	-39.0	-41.5	12.9	8.81e-05	0	55	0	171966464	49	4820
2026-01-21 00:22:22.75	36.45	9.88	-38.9	-41.4	12.9	8.46e-05	0	55	0	177209344	49	4762
2026-01-21 00:22:23.76	36.57	9.95	-39.0	-41.4	12.8	9.61e-05	0	55	0	183500800	49	4810
2026-01-21 00:22:24.77	36.68	10.01	-39.0	-41.5	12.8	9.04e-05	0	55	0	188743680	49	4822
2026-01-21 00:22:25.78	36.80	10.08	-38.9	-41.2	13.1	6.40e-05	0	55	0	193986560	49	4705
2026-01-21 00:22:26.79	36.91	10.15	-39.0	-41.4	13.0	8.69e-05	0	55	0	200278016	49	4798
2026-01-21 00:22:27.80	37.03	10.22	-38.8	-41.0	13.4	1.02e-05	0	56	0	205520896	49	4590
2026-01-21 00:22:28.81	37.15	10.29	-38.9	-41.2	13.3	2.86e-05	0	55	0	211812352	49	4676
2026-01-21 00:22:29.82	37.26	10.35	-38.9	-41.2	13.3	2.51e-05	0	55	0	217055232	49	4680
2026-01-21 00:22:30.83	37.38	10.42	-38.9	-41.1	13.4	1.83e-05	0	55	0	223346688	49	4631
2026-01-21 00:22:31.84	37.50	10.49	-38.9	-41.2	13.4	2.17e-05	0	55	0	228589568	49	4673
2026-01-21 00:22:32.85	37.62	10.56	-39.0	-41.3	13.3	3.20e-05	0	55	0	234881024	49	4732
2026-01-21 00:22:33.86	37.74	10.63	-39.0	-41.3	13.3	2.86e-05	0	55	0	240123904	49	4727
2026-01-21 00:22:34.87	37.86	10.69	-38.9	-41.2	13.4	2.97e-05	0	55	0	245366784	49	4688
2026-01-21 00:22:35.88	37.98	10.76	-38.9	-41.1	13.5	2.97e-05	0	55	0	251658240	49	4629
2026-01-21 00:22:36.89	38.10	10.83	-38.9	-41.1	13.5	2.51e-05	0	56	0	256901120	49	4643
2026-01-21 00:22:37.90	38.22	10.90	-38.9	-41.2	13.4	2.28e-05	0	56	0	263192576	49	4673
2026-01-21 00:22:38.91	38.35	10.97	-39.0	-41.2	13.4	3.66e-05	0	56	0	268435456	49	4689
2026-01-21 00:22:39.92	38.47	11.04	-38.9	-41.2	13.5	2.40e-05	0	55	0	273678336	49	4677
2026-01-21 00:22:40.93	38.59	11.10	-39.0	-41.3	13.3	2.51e-05	0	56	0	279969792	49	4731
2026-01-21 00:22:41.94	38.72	11.17	-39.0	-41.3	13.4	3.20e-05	0	56	0	285212672	49	4734
2026-01-21 00:22:42.95	38.84	11.24	-39.1	-41.3	13.3	1.48e-05	0	55	0	291504128	49	4755
2026-01-21 00:22:43.96	38.97	11.31	-39.1	-41.3	13.3	3.08e-05	0	56	0	296747008	49	4750
2026-01-21 00:22:44.97	39.09	11.38	-38.9	-41.2	13.5	2.74e-05	0	56	0	301989888	49	4666
2026-01-21 00:22:45.98	39.22	11.45	-38.8	-41.1	13.7	1.71e-05	0	56	0	308281344	49	4601
2026-01-21 00:22:46.99	39.35	11.52	-38.8	-41.0	13.7	4.50e-06	0	56	0	313524224	49	4559
2026-01-21 00:22:48.00	39.47	11.59	-38.8	-41.0	13.7	1.02e-05	0	56	0	319815680	49	4567
2026-01-21 00:22:49.01	39.60	11.66	-38.9	-41.1	13.7	9.10e-06	0	56	0	325058560	49	4610
2026-01-21 00:22:50.01	39.73	11.73	-38.7	-40.9	13.8	4.50e-06	0	56	0	331350016	49	4507
2026-01-21 00:22:51.03	39.86	11.80	-38.7	-40.8	14.0	8.00e-06	0	56	0	336592896	49	4461
2026-01-21 00:22:52.04	39.99	11.87	-38.7	-40.8	13.9	2.20e-06	0	56	0	342884352	49	4492
2026-01-21 00:22:53.04	40.12	11.93	-38.8	-40.9	13.9	5.70e-06	0	56	0	348127232	49	4519
2026-01-21 00:22:54.05	40.25	12.00	-38.7	-40.8	14.0	4.50e-06	0	56	0	353370112	49	4471
2026-01-21 00:22:55.06	40.38	12.07	-38.8	-40.9	14.0	1.02e-05	0	56	0	359661568	49	4514
2026-01-21 00:22:56.07	40.52	12.14	-38.9	-41.0	13.8	8.00e-06	0	56	0	364904448	49	4578
2026-01-21 00:22:57.08	40.65	12.21	-38.8	-41.0	13.9	5.70e-06	0	56	0	371195904	49	4552
2026-01-21 00:22:58.09	40.78	12.28	-38.9	-41.0	13.8	1.37e-05	0	56	0	376438784	49	4596
2026-01-21 00:22:59.10	40.92	12.35	-38.8	-41.0	13.9	1.10e-06	0	56	0	381681664	49	4546
2026-01-21 00:23:00.11	41.05	12.42	-38.8	-40.9	14.0	5.70e-06	0	56	0	387973120	49	4508
2026-01-21 00:23:01.11	41.18	12.49	-38.8	-40.9	14.0	4.50e-06	0	56	0	393216000	49	4524
2026-01-21 00:23:02.12	41.32	12.56	-38.7	-40.8	14.0	8.00e-06	0	56	0	398458880	49	4484
2026-01-21 00:23:03.13	41.46	12.63	-38.7	-40.7	14.1	3.40e-06	0	56	0	404750336	49	4437
2026-01-21 00:23:04.14	41.59	12.70	-38.7	-40.7	14.2	2.20e-06	0	56	0	409993216	49	4433
2026-01-21 00:23:05.15	41.73	12.78	-38.5	-40.5	14.4	1.10e-06	0	56	0	416284672	49	4332
2026-01-21 00:23:06.16	41.87	12.85	-38.6	-40.6	14.3	0.00e+00	0	56	0	421527552	49	4357
2026-01-21 00:23:07.17	42.01	12.92	-38.5	-40.5	14.4	1.10e-06	0	56	0	427819008	49	4313
2026-01-21 00:23:08.19	42.15	12.99	-38.5	-40.5	14.4	0.00e+00	0	56	0	433061888	49	4318
2026-01-21 00:23:09.20	42.29	13.06	-38.5	-40.5	14.5	1.10e-06	0	56	0	439353344	49	4317
2026-01-21 00:23:10.21	42.43	13.13	-38.5	-40.5	14.4	2.20e-06	0	56	0	444596224	49	4311
2026-01-21 00:23:11.21	42.57	13.20	-38.5	-40.5	14.5	2.20e-06	0	56	0	449839104	49	4310
2026-01-21 00:23:12.22	42.72	13.27	-38.6	-40.6	14.5	1.10e-06	0	56	0	456130560	49	4348
2026-01-21 00:23:13.23	42.86	13.34	-38.5	-40.5	14.5	1.10e-06	0	56	0	461373440	48	4589
2026-01-21 00:23:14.24	43.00	13.41	-38.5	-40.5	14.5	1.10e-06	0	56	0	467664896	48	4575
2026-01-21 00:23:15.25	43.15	13.48	-38.6	-40.6	14.4	1.10e-06	0	56	0	472907776	48	4639
2026-01-21 00:23:16.26	43.29	13.55	-38.6	-40.6	14.4	2.20e-06	0	56	0	478150656	48	4634
2026-01-21 00:23:17.27	43.44	13.62	-38.5	-40.4	14.6	0.00e+00	0	56	0	484442112	48	4544
2026-01-21 00:23:18.28	43.59	13.69	-38.4	-40.4	14.6	1.10e-06	0	56	0	489684992	48	4515
2026-01-21 00:23:19.29	43.73	13.77	-38.5	-40.4	14.6	0.00e+00	0	56	0	495976448	48	4540
2026-01-21 00:23:20.30	43.88	13.84	-38.5	-40.5	14.5	1.10e-06	0	56	0	501219328	48	4562
2026-01-21 00:23:21.31	44.03	13.91	-38.5	-40.4	14.6	0.00e+00	0	56	0	506462208	48	4529
2026-01-21 00:23:22.32	44.18	13.98	-38.5	-40.5	14.5	0.00e+00	0	56	0	512753664	48	4573
2026-01-21 00:23:23.33	44.33	14.05	-38.5	-40.5	14.5	1.10e-06	0	56	0	517996544	48	4597
2026-01-21 00:23:24.33	44.48	14.12	-38.5	-40.5	14.6	5.70e-06	0	56	0	524288000	48	4550
2026-01-21 00:23:25.34	44.63	14.19	-38.4	-40.4	14.6	0.00e+00	0	56	0	529530880	48	4518
2026-01-21 00:23:26.35	44.78	14.26	-38.4	-40.3	14.7	1.10e-06	0	57	0	535822336	48	4492
2026-01-21 00:23:27.36	44.93	14.34	-38.4	-40.3	14.7	0.00e+00	0	56	0	541065216	48	4484
2026-01-21 00:23:28.37	45.09	14.41	-38.4	-40.3	14.7	0.00e+00	0	56	0	546308096	48	4463
2026-01-21 00:23:29.38	45.24	14.48	-38.4	-40.4	14.7	1.10e-06	0	56	0	552599552	48	4503
2026-01-21 00:23:30.39	45.40	14.55	-38.4	-40.3	14.8	0.00e+00	0	56	0	557842432	48	4457
2026-01-21 00:23:31.40	45.55	14.62	-38.4	-40.3	14.8	1.10e-06	0	56	0	564133888	48	4477
2026-01-21 00:23:32.41	45.71	14.69	-38.4	-40.3	14.7	0.00e+00	0	56	0	569376768	48	4488
2026-01-21 00:23:33.42	45.87	14.76	-38.4	-40.3	14.8	1.10e-06	0	57	0	574619648	48	4474
2026-01-21 00:23:34.43	46.02	14.84	-38.3	-40.2	14.9	0.00e+00	0	57	0	580911104	48	4400
2026-01-21 00:23:35.44	46.18	14.91	-38.2	-40.1	15.0	1.10e-06	0	56	0	586153984	48	4376
2026-01-21 00:23:36.45	46.34	14.98	-38.2	-40.1	15.0	0.00e+00	0	56	0	592445440	48	4354
2026-01-21 00:23:37.46	46.50	15.05	-38.2	-40.1	15.0	0.00e+00	0	57	0	597688320	48	4373
2026-01-21 00:23:38.46	46.66	15.12	-38.2	-40.0	15.0	0.00e+00	0	57	0	602931200	48	4336
2026-01-21 00:23:39.48	46.82	15.19	-38.1	-40.0	15.1	0.00e+00	0	57	0	609222656	48	4313
2026-01-21 00:23:40.49	46.99	15.26	-38.1	-39.9	15.2	0.00e+00	0	56	0	614465536	48	4289
2026-01-21 00:23:41.50	47.15	15.34	-38.1	-40.0	15.1	0.00e+00	0	56	0	620756992	48	4296
2026-01-21 00:23:42.51	47.31	15.41	-38.2	-40.0	15.1	0.00e+00	0	56	0	625999872	48	4337
2026-01-21 00:23:43.52	47.48	15.48	-38.1	-40.0	15.2	0.00e+00	0	57	0	632291328	48	4294
2026-01-21 00:23:44.53	47.64	15.55	-38.2	-40.1	15.1	0.00e+00	0	56	0	637534208	48	4341
2026-01-21 00:23:45.54	47.81	15.62	-38.1	-40.0	15.2	0.00e+00	0	57	0	643825664	48	4303
2026-01-21 00:23:46.55	47.98	15.69	-38.1	-39.9	15.2	1.10e-06	0	57	0	649068544	48	4270
2026-01-21 00:23:47.56	48.14	15.76	-38.1	-40.0	15.2	0.00e+00	0	57	0	654311424	48	4292
2026-01-21 00:23:48.57	48.31	15.84	-38.0	-39.8	15.3	0.00e+00	0	57	0	660602880	48	4235
2026-01-21 00:23:49.58	48.48	15.91	-38.1	-40.0	15.2	0.00e+00	0	56	0	665845760	48	4300
2026-01-21 00:23:50.59	48.65	15.98	-38.1	-39.9	15.3	0.00e+00	0	56	0	672137216	48	4261
2026-01-21 00:23:51.60	48.82	16.05	-38.1	-39.9	15.2	0.00e+00	0	56	0	677380096	48	4280
2026-01-21 00:23:52.61	48.99	16.12	-38.1	-39.9	15.2	0.00e+00	0	57	0	682622976	48	4284
2026-01-21 00:23:53.62	49.17	16.19	-38.1	-39.9	15.3	0.00e+00	0	57	0	688914432	48	4249
2026-01-21 00:23:54.62	49.34	16.26	-37.9	-39.7	15.3	0.00e+00	0	57	0	694157312	47	4419
2026-01-21 00:23:55.63	49.51	16.34	-37.9	-39.7	15.3	0.00e+00	0	57	0	700448768	47	4441
2026-01-21 00:23:56.64	49.69	16.41	-37.9	-39.7	15.4	0.00e+00	0	57	0	705691648	47	4401
2026-01-21 00:23:57.65	49.86	16.48	-37.8	-39.6	15.5	0.00e+00	0	57	0	710934528	47	4355
2026-01-21 00:23:58.66	50.04	16.55	-37.8	-39.6	15.4	0.00e+00	0	57	0	717225984	47	4379
2026-01-21 00:23:59.67	50.22	16.62	-37.9	-39.7	15.4	0.00e+00	0	57	0	722468864	47	4422
2026-01-21 00:24:00.68	50.39	16.69	-37.9	-39.7	15.3	0.00e+00	0	57	0	728760320	47	4431
2026-01-21 00:24:01.69	50.57	16.76	-37.9	-39.8	15.3	0.00e+00	0	57	0	734003200	47	4458
2026-01-21 00:24:02.70	50.75	16.83	-38.0	-39.8	15.2	0.00e+00	0	57	0	740294656	47	4482
2026-01-21 00:24:03.71	50.93	16.90	-38.0	-39.9	15.2	0.00e+00	0	57	0	745537536	47	4504
2026-01-21 00:24:04.72	51.12	16.97	-37.9	-39.7	15.4	0.00e+00	0	57	0	750780416	47	4395
2026-01-21 00:24:05.73	51.30	17.04	-37.8	-39.5	15.6	0.00e+00	0	57	0	757071872	47	4330
2026-01-21 00:24:06.73	51.48	17.11	-37.8	-39.6	15.5	0.00e+00	0	57	0	762314752	47	4349
2026-01-21 00:24:07.74	51.66	17.19	-37.7	-39.5	15.6	0.00e+00	0	57	0	768606208	47	4301
2026-01-21 00:24:08.75	51.85	17.26	-37.6	-39.3	15.8	0.00e+00	0	57	0	773849088	47	4228
2026-01-21 00:24:09.76	52.03	17.33	-37.6	-39.3	15.8	0.00e+00	0	57	0	779091968	47	4240
2026-01-21 00:24:10.77	52.22	17.40	-37.7	-39.4	15.7	0.00e+00	0	57	0	785383424	47	4268
2026-01-21 00:24:11.78	52.41	17.47	-37.6	-39.3	15.7	0.00e+00	0	57	0	790626304	47	4242
2026-01-21 00:24:12.79	52.60	17.54	-37.6	-39.3	15.8	0.00e+00	0	57	0	796917760	47	4202
2026-01-21 00:24:13.80	52.78	17.61	-37.5	-39.2	15.9	0.00e+00	0	57	0	802160640	47	4172
2026-01-21 00:24:14.81	52.97	17.68	-37.5	-39.2	15.9	0.00e+00	0	57	0	807403520	47	4178
2026-01-21 00:24:15.82	53.17	17.75	-37.5	-39.2	15.9	0.00e+00	0	57	0	813694976	47	4192
2026-01-21 00:24:16.83	53.36	17.82	-37.6	-39.3	15.8	0.00e+00	0	57	0	818937856	47	4240
2026-01-21 00:24:17.84	53.55	17.89	-37.7	-39.4	15.7	0.00e+00	0	57	0	825229312	47	4284
2026-01-21 00:24:18.85	53.74	17.96	-37.7	-39.4	15.7	0.00e+00	0	57	0	830472192	47	4280
2026-01-21 00:24:19.86	53.94	18.03	-37.7	-39.4	15.7	0.00e+00	0	57	0	836763648	47	4273
2026-01-21 00:24:20.87	54.13	18.10	-37.7	-39.4	15.7	0.00e+00	0	57	0	842006528	47	4291
2026-01-21 00:24:21.87	54.33	18.16	-37.7	-39.4	15.7	0.00e+00	0	57	0	847249408	47	4288
2026-01-21 00:24:22.89	54.53	18.23	-37.8	-39.5	15.6	0.00e+00	0	57	0	853540864	47	4327
2026-01-21 00:24:23.90	54.72	18.30	-37.8	-39.5	15.6	0.00e+00	0	57	0	858783744	47	4321
2026-01-21 00:24:24.90	54.92	18.37	-37.8	-39.5	15.6	0.00e+00	0	57	0	865075200	47	4336
2026-01-21 00:24:25.91	55.12	18.44	-37.8	-39.5	15.6	1.10e-06	0	57	0	870318080	47	4328
2026-01-21 00:24:26.92	55.32	18.51	-37.8	-39.5	15.6	0.00e+00	0	57	0	875560960	47	4328
2026-01-21 00:24:27.93	55.52	18.58	-37.8	-39.5	15.6	0.00e+00	0	57	0	881852416	47	4329
2026-01-21 00:24:28.94	55.72	18.64	-37.6	-39.3	15.8	0.00e+00	0	57	0	887095296	47	4220
2026-01-21 00:24:29.95	55.93	18.71	-37.5	-39.1	16.0	0.00e+00	0	57	0	893386752	47	4145
2026-01-21 00:24:30.96	56.13	18.78	-37.4	-39.0	16.1	0.00e+00	0	57	0	898629632	46	4339
2026-01-21 00:24:31.97	56.33	18.85	-37.4	-39.0	16.1	0.00e+00	0	57	0	903872512	46	4333
2026-01-21 00:24:32.98	56.54	18.92	-37.5	-39.2	16.0	0.00e+00	0	57	0	910163968	46	4393
2026-01-21 00:24:33.99	56.75	18.98	-37.4	-39.1	16.1	0.00e+00	0	57	0	915406848	46	4365
2026-01-21 00:24:35.00	56.95	19.05	-37.5	-39.2	16.0	0.00e+00	0	57	0	921698304	46	4406
2026-01-21 00:24:36.01	57.16	19.12	-37.5	-39.2	16.0	0.00e+00	0	57	0	926941184	46	4406
2026-01-21 00:24:37.02	57.37	19.18	-37.5	-39.2	16.0	0.00e+00	0	57	0	933232640	46	4395
2026-01-21 00:24:38.03	57.58	19.25	-37.6	-39.3	15.9	0.00e+00	0	57	0	938475520	46	4466
2026-01-21 00:24:39.04	57.79	19.32	-37.4	-39.1	16.0	0.00e+00	0	57	0	944766976	46	4364
2026-01-21 00:24:40.05	58.01	19.38	-37.4	-39.1	16.1	0.00e+00	0	57	0	950009856	46	4373
2026-01-21 00:24:41.06	58.22	19.45	-37.4	-39.0	16.1	0.00e+00	0	57	0	955252736	46	4333
2026-01-21 00:24:42.07	58.43	19.52	-37.3	-38.9	16.3	0.00e+00	0	57	0	961544192	46	4258
2026-01-21 00:24:43.07	58.64	19.58	-37.2	-38.8	16.3	0.00e+00	0	57	0	966787072	46	4234
2026-01-21 00:24:44.09	58.86	19.65	-37.4	-39.0	16.2	0.00e+00	0	57	0	973078528	46	4316
2026-01-21 00:24:45.10	59.08	19.71	-37.4	-39.0	16.2	0.00e+00	0	57	0	978321408	46	4319
2026-01-21 00:24:46.10	59.29	19.78	-37.5	-39.1	16.0	0.00e+00	0	57	0	983564288	46	4377
2026-01-21 00:24:47.11	59.51	19.84	-37.5	-39.2	16.0	0.00e+00	0	57	0	989855744	46	4408
2026-01-21 00:24:48.13	59.73	19.91	-37.5	-39.2	15.9	0.00e+00	0	57	0	995098624	46	4413
2026-01-21 00:24:49.13	59.95	19.97	-37.4	-39.1	16.0	0.00e+00	0	57	0	1001390080	46	4371
2026-01-21 00:24:50.14	60.17	20.03	-37.4	-39.1	16.1	0.00e+00	0	57	0	1006632960	46	4373
2026-01-21 00:24:51.15	60.40	20.10	-37.3	-38.9	16.2	0.00e+00	0	57	0	1011875840	46	4283
2026-01-21 00:24:52.16	60.62	20.16	-37.1	-38.9	16.0	0.00e+00	0	57	0	1018167296	46	4269
2026-01-21 00:24:53.17	60.84	20.22	-37.1	-38.9	16.0	0.00e+00	0	57	0	1023410176	46	4274
2026-01-21 00:24:54.18	61.07	20.29	-37.1	-38.9	16.1	0.00e+00	0	57	0	1029701632	46	4252
2026-01-21 00:24:55.20	61.29	20.35	-37.1	-38.8	16.1	0.00e+00	0	57	0	1034944512	46	4231
2026-01-21 00:24:56.21	61.52	20.41	-37.2	-39.0	16.0	0.00e+00	0	58	0	1041235968	46	4297
2026-01-21 00:24:57.22	61.75	20.47	-37.1	-38.9	16.1	0.00e+00	0	57	0	1046478848	46	4247
2026-01-21 00:24:58.22	61.97	20.54	-37.1	-38.9	16.0	0.00e+00	0	57	0	1051721728	46	4283
2026-01-21 00:24:59.23	62.20	20.60	-37.1	-38.9	16.1	0.00e+00	0	57	0	1058013184	46	4246
2026-01-21 00:25:00.24	62.43	20.66	-37.0	-38.8	16.1	0.00e+00	0	57	0	1063256064	46	4212
2026-01-21 00:25:01.25	62.66	20.72	-37.1	-38.8	16.1	0.00e+00	0	57	0	1069547520	46	4235
2026-01-21 00:25:02.26	62.90	20.78	-37.1	-38.9	16.1	0.00e+00	0	57	0	1074790400	46	4271
2026-01-21 00:25:03.26	63.13	20.84	-37.0	-38.7	16.2	0.00e+00	0	57	0	1080033280	45	4422
2026-01-21 00:25:04.27	63.36	20.90	-36.9	-38.6	16.4	0.00e+00	0	57	0	1086324736	45	4349
2026-01-21 00:25:05.28	63.60	20.96	-36.7	-38.3	16.6	0.00e+00	0	57	0	1091567616	45	4234
2026-01-21 00:25:06.29	63.83	21.02	-36.6	-38.2	16.7	0.00e+00	0	57	0	1097859072	45	4180
2026-01-21 00:25:07.30	64.07	21.08	-36.6	-38.3	16.6	0.00e+00	0	58	0	1103101952	45	4194
2026-01-21 00:25:08.31	64.30	21.14	-36.7	-38.4	16.5	0.00e+00	0	58	0	1108344832	45	4247
2026-01-21 00:25:09.32	64.54	21.19	-36.8	-38.5	16.4	0.00e+00	0	58	0	1114636288	45	4334
2026-01-21 00:25:10.33	64.78	21.25	-36.8	-38.6	16.3	0.00e+00	0	57	0	1119879168	45	4344
2026-01-21 00:25:11.34	65.02	21.31	-36.8	-38.5	16.4	0.00e+00	0	58	0	1126170624	45	4328
2026-01-21 00:25:12.35	65.26	21.37	-36.7	-38.4	16.5	0.00e+00	0	57	0	1131413504	45	4280
2026-01-21 00:25:13.36	65.50	21.42	-36.7	-38.4	16.5	0.00e+00	0	57	0	1137704960	45	4263
2026-01-21 00:25:14.37	65.75	21.48	-36.7	-38.4	16.5	0.00e+00	0	57	0	1142947840	45	4254
2026-01-21 00:25:15.38	65.99	21.54	-36.6	-38.3	16.6	0.00e+00	0	57	0	1149239296	45	4215
2026-01-21 00:25:16.39	66.23	21.59	-36.6	-38.3	16.6	0.00e+00	0	57	0	1154482176	45	4201
2026-01-21 00:25:17.40	66.48	21.65	-36.6	-38.2	16.7	0.00e+00	0	57	0	1159725056	45	4184
2026-01-21 00:25:18.41	66.73	21.70	-36.6	-38.2	16.6	0.00e+00	0	57	0	1166016512	45	4180
2026-01-21 00:25:19.42	66.97	21.76	-36.7	-38.4	16.4	0.00e+00	0	57	0	1171259392	45	4262
2026-01-21 00:25:20.43	67.22	21.81	-36.7	-38.5	16.4	0.00e+00	0	57	0	1176502272	45	4300
2026-01-21 00:25:21.44	67.47	21.86	-36.8	-38.5	16.3	0.00e+00	0	57	0	1182793728	45	4327
2026-01-21 00:25:22.44	67.72	21.92	-36.9	-38.6	16.2	0.00e+00	0	57	0	1188036608	45	4389
2026-01-21 00:25:23.45	67.97	21.97	-36.8	-38.5	16.3	0.00e+00	0	57	0	1194328064	45	4323
2026-01-21 00:25:24.46	68.22	22.02	-36.7	-38.4	16.4	0.00e+00	0	58	0	1199570944	45	4254
2026-01-21 00:25:25.47	68.47	22.07	-36.7	-38.4	16.4	0.00e+00	0	58	0	1204813824	45	4287
2026-01-21 00:25:26.48	68.72	22.12	-36.7	-38.4	16.4	0.00e+00	0	57	0	1211105280	45	4266
2026-01-21 00:25:27.49	68.98	22.18	-36.7	-38.4	16.4	0.00e+00	0	57	0	1216348160	45	4243
2026-01-21 00:25:28.50	69.23	22.23	-36.7	-38.4	16.3	0.00e+00	0	58	0	1222639616	45	4288
2026-01-21 00:25:29.51	69.48	22.28	-36.8	-38.6	16.3	0.00e+00	0	58	0	1227882496	45	4341
2026-01-21 00:25:30.52	69.74	22.33	-36.8	-38.6	16.2	0.00e+00	0	57	0	1234173952	45	4354
2026-01-21 00:25:31.53	70.00	22.37	-36.8	-38.6	16.2	0.00e+00	0	57	0	1239416832	45	4363
2026-01-21 00:25:32.54	70.26	22.42	-37.0	-38.7	16.0	0.00e+00	0	58	0	1245708288	45	4437
2026-01-21 00:25:33.55	70.51	22.47	-36.8	-38.6	16.2	0.00e+00	0	57	0	1250951168	45	4357
2026-01-21 00:25:34.56	70.77	22.52	-36.7	-38.4	16.4	0.00e+00	0	57	0	1256194048	45	4243
2026-01-21 00:25:35.57	71.03	22.57	-36.7	-38.4	16.4	0.00e+00	0	57	0	1262485504	45	4245
2026-01-21 00:25:36.58	71.29	22.61	-36.6	-38.3	16.4	0.00e+00	0	57	0	1267728384	45	4227
2026-01-21 00:25:37.59	71.56	22.66	-36.6	-38.3	16.4	0.00e+00	0	58	0	1274019840	45	4227
2026-01-21 00:25:38.59	71.81	22.70	-36.6	-38.3	16.4	0.00e+00	0	58	0	1279262720	45	4222
2026-01-21 00:25:39.61	72.08	22.75	-36.6	-38.3	16.4	0.00e+00	0	58	0	1284505600	45	4219
2026-01-21 00:25:40.61	72.34	22.79	-36.6	-38.3	16.4	0.00e+00	0	58	0	1290797056	45	4235
2026-01-21 00:25:41.62	72.61	22.84	-36.6	-38.3	16.4	0.00e+00	0	58	0	1296039936	45	4205
2026-01-21 00:25:42.63	72.87	22.88	-36.6	-38.3	16.4	0.00e+00	0	58	0	1302331392	45	4232
2026-01-21 00:25:43.64	73.14	22.92	-36.6	-38.4	16.3	0.00e+00	0	58	0	1307574272	45	4256
2026-01-21 00:25:44.65	73.40	22.96	-36.6	-38.4	16.3	0.00e+00	0	58	0	1312817152	45	4251
2026-01-21 00:25:45.66	73.67	23.01	-36.7	-38.4	16.3	0.00e+00	0	58	0	1319108608	45	4262
2026-01-21 00:25:46.67	73.94	23.05	-36.5	-38.2	16.5	0.00e+00	0	58	0	1324351488	45	4174
2026-01-21 00:25:47.68	74.21	23.09	-36.5	-38.2	16.5	0.00e+00	0	58	0	1330642944	45	4179
2026-01-21 00:25:48.69	74.48	23.13	-36.6	-38.3	16.4	0.00e+00	0	57	0	1335885824	45	4226
2026-01-21 00:25:49.70	74.75	23.17	-36.7	-38.4	16.4	0.00e+00	0	58	0	1342177280	45	4261
2026-01-21 00:25:50.71	75.02	23.21	-36.8	-38.5	16.2	0.00e+00	0	58	0	1347420160	45	4312
2026-01-21 00:25:51.72	75.29	23.24	-36.8	-38.5	16.3	0.00e+00	0	58	0	1352663040	45	4328
2026-01-21 00:25:52.73	75.56	23.28	-36.8	-38.6	16.2	0.00e+00	0	58	0	1358954496	45	4366
2026-01-21 00:25:53.74	75.83	23.32	-36.8	-38.6	16.2	0.00e+00	0	58	0	1364197376	45	4357
2026-01-21 00:25:54.75	76.11	23.35	-36.7	-38.4	16.4	0.00e+00	0	57	0	1370488832	45	4255
2026-01-21 00:25:55.76	76.38	23.39	-36.6	-38.3	16.5	0.00e+00	0	58	0	1375731712	45	4226
2026-01-21 00:25:56.77	76.66	23.42	-36.6	-38.3	16.5	0.00e+00	0	58	0	1380974592	45	4200
2026-01-21 00:25:57.78	76.93	23.46	-36.4	-38.0	16.8	0.00e+00	0	57	0	1387266048	44	4340
2026-01-21 00:25:58.79	77.21	23.49	-36.3	-38.0	16.8	0.00e+00	0	58	0	1392508928	44	4297
2026-01-21 00:25:59.80	77.48	23.53	-36.4	-38.0	16.8	0.00e+00	0	58	0	1398800384	44	4317
2026-01-21 00:26:00.81	77.76	23.56	-36.4	-38.0	16.8	0.00e+00	0	58	0	1404043264	44	4315
2026-01-21 00:26:01.82	78.04	23.59	-36.3	-37.9	16.9	0.00e+00	0	58	0	1409286144	44	4282
2026-01-21 00:26:02.83	78.32	23.62	-36.2	-37.8	17.0	0.00e+00	0	57	0	1415577600	44	4202
2026-01-21 00:26:03.84	78.60	23.65	-36.2	-37.8	17.0	0.00e+00	0	58	0	1420820480	44	4242
2026-01-21 00:26:04.85	78.88	23.68	-36.3	-37.9	17.0	0.00e+00	0	58	0	1427111936	44	4244
2026-01-21 00:26:05.86	79.15	23.71	-36.2	-37.8	17.0	0.00e+00	0	58	0	1432354816	44	4235
2026-01-21 00:26:06.87	79.44	23.74	-36.4	-38.0	16.8	0.00e+00	0	58	0	1438646272	44	4319
2026-01-21 00:26:07.88	79.72	23.77	-36.4	-38.1	16.7	0.00e+00	0	58	0	1443889152	44	4344
2026-01-21 00:26:08.89	80.00	23.80	-36.4	-38.0	16.8	0.00e+00	0	58	0	1450180608	44	4336
2026-01-21 00:26:09.90	80.28	23.82	-36.4	-38.0	16.8	0.00e+00	0	58	0	1455423488	44	4333
2026-01-21 00:26:10.91	80.56	23.85	-36.4	-38.0	16.8	0.00e+00	0	57	0	1460666368	44	4327
2026-01-21 00:26:11.93	80.85	23.87	-36.3	-38.0	16.9	0.00e+00	0	57	0	1466957824	44	4295
2026-01-21 00:26:12.94	81.13	23.90	-36.5	-38.2	16.7	0.00e+00	0	57	0	1472200704	44	4406
2026-01-21 00:26:13.94	81.41	23.92	-36.6	-38.3	16.5	0.00e+00	0	58	0	1478492160	44	4487
2026-01-21 00:26:14.96	81.70	23.95	-36.7	-38.5	16.4	0.00e+00	0	58	0	1483735040	44	4547
2026-01-21 00:26:15.97	81.98	23.97	-36.5	-38.3	16.6	0.00e+00	0	58	0	1488977920	44	4450
2026-01-21 00:26:16.98	82.27	23.99	-36.4	-38.0	16.8	0.00e+00	0	58	0	1495269376	44	4327
2026-01-21 00:26:17.99	82.55	24.01	-36.4	-38.0	16.9	0.00e+00	0	58	0	1500512256	44	4302
2026-01-21 00:26:18.99	82.83	24.03	-36.4	-38.1	16.8	0.00e+00	0	58	0	1506803712	44	4341
2026-01-21 00:26:20.00	83.12	24.05	-36.5	-38.2	16.7	0.00e+00	0	58	0	1512046592	44	4405
2026-01-21 00:26:21.01	83.41	24.07	-36.5	-38.1	16.8	0.00e+00	0	58	0	1517289472	44	4380
2026-01-21 00:26:22.02	83.69	24.09	-36.5	-38.1	16.7	0.00e+00	0	58	0	1523580928	44	4384
2026-01-21 00:26:23.03	83.98	24.10	-36.5	-38.2	16.7	0.00e+00	0	58	0	1528823808	44	4399
2026-01-21 00:26:24.04	84.27	24.12	-36.5	-38.2	16.7	0.00e+00	0	58	0	1535115264	44	4406
2026-01-21 00:26:25.05	84.56	24.14	-36.5	-38.2	16.7	0.00e+00	0	57	0	1540358144	44	4402
2026-01-21 00:26:26.06	84.84	24.15	-36.6	-38.3	16.6	0.00e+00	0	58	0	1546649600	44	4449
2026-01-21 00:26:27.07	85.13	24.17	-36.4	-38.1	16.8	0.00e+00	0	58	0	1551892480	44	4345
2026-01-21 00:26:28.08	85.42	24.18	-36.3	-37.9	16.9	0.00e+00	0	58	0	1557135360	44	4288
2026-01-21 00:26:29.09	85.71	24.19	-36.2	-37.8	17.1	0.00e+00	0	58	0	1563426816	44	4224
2026-01-21 00:26:30.09	85.99	24.21	-36.3	-37.9	17.0	0.00e+00	0	58	0	1568669696	44	4268
2026-01-21 00:26:31.10	86.28	24.22	-36.3	-38.0	16.9	0.00e+00	0	58	0	1574961152	44	4310
2026-01-21 00:26:32.11	86.57	24.23	-36.4	-38.1	16.8	0.00e+00	0	58	0	1580204032	44	4341
2026-01-21 00:26:33.12	86.86	24.24	-36.4	-38.1	16.8	0.00e+00	0	58	0	1585446912	44	4347
2026-01-21 00:26:34.13	87.15	24.25	-36.4	-38.1	16.8	0.00e+00	0	58	0	1591738368	44	4367
2026-01-21 00:26:35.14	87.44	24.26	-36.5	-38.1	16.8	0.00e+00	0	58	0	1596981248	44	4377
2026-01-21 00:26:36.15	87.73	24.26	-36.4	-38.1	16.8	0.00e+00	0	58	0	1603272704	44	4360
2026-01-21 00:26:37.16	88.02	24.27	-36.4	-38.0	16.9	0.00e+00	0	58	0	1608515584	44	4336
2026-01-21 00:26:38.17	88.31	24.28	-36.5	-38.2	16.8	0.00e+00	0	58	0	1613758464	44	4402
2026-01-21 00:26:39.18	88.60	24.28	-36.4	-38.1	16.9	0.00e+00	0	58	0	1620049920	44	4344
2026-01-21 00:26:40.19	88.89	24.29	-36.5	-38.1	16.8	0.00e+00	0	57	0	1625292800	44	4388
2026-01-21 00:26:41.20	89.18	24.29	-36.4	-38.0	16.9	0.00e+00	0	58	0	1631584256	44	4330
2026-01-21 00:26:42.21	89.47	24.29	-36.3	-38.0	17.0	0.00e+00	0	58	0	1636827136	44	4292
2026-01-21 00:26:43.22	89.76	24.30	-36.4	-38.0	16.9	0.00e+00	0	58	0	1643118592	44	4319
2026-01-21 00:26:44.23	90.06	24.30	-36.4	-38.0	16.9	0.00e+00	0	57	0	1648361472	44	4337
2026-01-21 00:26:45.23	90.34	24.30	-36.3	-37.9	17.1	0.00e+00	0	58	0	1654652928	44	4262
2026-01-21 00:26:46.24	90.63	24.30	-36.2	-37.8	17.1	0.00e+00	0	58	0	1659895808	44	4232
2026-01-21 00:26:47.25	90.93	24.30	-36.2	-37.8	17.1	0.00e+00	0	58	0	1665138688	44	4211
2026-01-21 00:26:48.26	91.22	24.30	-36.3	-37.9	17.1	0.00e+00	0	58	0	1671430144	44	4272
2026-01-21 00:26:49.27	91.51	24.30	-36.2	-37.8	17.1	0.00e+00	0	58	0	1676673024	44	4238
2026-01-21 00:26:50.28	91.80	24.29	-36.3	-37.9	17.1	0.00e+00	0	58	0	1682964480	44	4259
2026-01-21 00:26:51.29	92.09	24.29	-36.3	-37.9	17.1	0.00e+00	0	58	0	1688207360	44	4259
2026-01-21 00:26:52.30	92.38	24.28	-36.4	-38.0	17.0	0.00e+00	0	58	0	1693450240	44	4322
2026-01-21 00:26:53.31	92.67	24.28	-36.4	-38.0	17.0	0.00e+00	0	58	0	1699741696	44	4311
2026-01-21 00:26:54.32	92.96	24.27	-36.4	-38.0	16.9	0.00e+00	0	57	0	1704984576	44	4339
2026-01-21 00:26:55.34	93.25	24.27	-36.5	-38.1	16.9	0.00e+00	0	58	0	1711276032	44	4370
2026-01-21 00:26:56.35	93.54	24.26	-36.5	-38.1	16.9	0.00e+00	0	58	0	1716518912	44	4373
2026-01-21 00:26:57.36	93.83	24.25	-36.5	-38.2	16.8	0.00e+00	0	58	0	1721761792	44	4396
2026-01-21 00:26:58.37	94.12	24.24	-36.4	-38.1	16.9	0.00e+00	0	58	0	1728053248	44	4344
2026-01-21 00:26:59.38	94.41	24.23	-36.4	-38.0	16.9	0.00e+00	0	58	0	1733296128	44	4340
2026-01-21 00:27:00.38	94.70	24.22	-36.4	-38.0	17.0	0.00e+00	0	58	0	1739587584	44	4306
2026-01-21 00:27:01.40	94.99	24.21	-36.4	-38.0	17.0	0.00e+00	0	58	0	1744830464	44	4318
2026-01-21 00:27:02.40	95.28	24.20	-36.4	-37.9	17.1	0.00e+00	0	58	0	1751121920	44	4290
2026-01-21 00:27:03.41	95.57	24.19	-36.4	-38.0	17.0	0.00e+00	0	58	0	1756364800	44	4325
2026-01-21 00:27:04.42	95.86	24.17	-36.4	-38.0	17.0	0.00e+00	0	58	0	1761607680	44	4316
2026-01-21 00:27:05.43	96.15	24.16	-36.4	-38.1	17.0	0.00e+00	0	58	0	1767899136	44	4341
2026-01-21 00:27:06.44	96.43	24.14	-36.3	-37.9	17.1	0.00e+00	0	58	0	1773142016	44	4285
2026-01-21 00:27:07.45	96.72	24.13	-36.3	-37.9	17.1	0.00e+00	0	58	0	1779433472	44	4254
2026-01-21 00:27:08.46	97.01	24.11	-36.3	-37.9	17.1	0.00e+00	0	58	0	1784676352	44	4290
2026-01-21 00:27:09.47	97.30	24.10	-36.4	-38.1	17.0	0.00e+00	0	58	0	1789919232	44	4348
2026-01-21 00:27:10.48	97.58	24.08	-36.4	-38.1	17.0	0.00e+00	0	58	0	1796210688	44	4346
2026-01-21 00:27:11.49	97.87	24.06	-36.5	-38.2	16.8	0.00e+00	0	58	0	1801453568	44	4415
2026-01-21 00:27:12.50	98.16	24.04	-36.6	-38.2	16.8	0.00e+00	0	58	0	1807745024	44	4430
2026-01-21 00:27:13.51	98.44	24.02	-36.5	-38.1	16.9	0.00e+00	0	58	0	1812987904	44	4373
2026-01-21 00:27:14.52	98.73	24.00	-36.5	-38.1	16.9	0.00e+00	0	58	0	1818230784	44	4385
2026-01-21 00:27:15.53	99.01	23.98	-36.4	-38.1	17.0	0.00e+00	0	58	0	1824522240	44	4350
2026-01-21 00:27:16.54	99.30	23.96	-36.4	-38.0	17.1	0.00e+00	0	58	0	1829765120	44	4301
2026-01-21 00:27:17.55	99.58	23.93	-36.4	-38.0	17.1	0.00e+00	0	58	0	1836056576	44	4307
2026-01-21 00:27:18.56	99.87	23.91	-36.4	-38.0	17.0	0.00e+00	0	58	0	1841299456	44	4324
2026-01-21 00:27:19.57	100.15	23.89	-36.4	-38.0	17.0	0.00e+00	0	58	0	1847590912	44	4328
2026-01-21 00:27:20.58	100.44	23.86	-36.5	-38.1	17.0	0.00e+00	0	58	0	1852833792	44	4363
2026-01-21 00:27:21.59	100.72	23.84	-36.6	-38.2	16.8	0.00e+00	0	58	0	1859125248	44	4433
2026-01-21 00:27:22.60	101.00	23.81	-36.6	-38.3	16.8	0.00e+00	0	58	0	1864368128	44	4470
2026-01-21 00:27:23.61	101.28	23.78	-36.8	-38.4	16.7	0.00e+00	0	58	0	1869611008	44	4540
2026-01-21 00:27:24.62	101.56	23.75	-36.7	-38.4	16.7	0.00e+00	0	58	0	1875902464	44	4509
2026-01-21 00:27:25.63	101.85	23.73	-36.7	-38.4	16.7	0.00e+00	0	58	0	1881145344	44	4507
2026-01-21 00:27:26.64	102.13	23.70	-36.7	-38.4	16.7	0.00e+00	0	58	0	1887436800	44	4496
2026-01-21 00:27:27.65	102.41	23.67	-36.6	-38.3	16.8	0.00e+00	0	58	0	1892679680	44	4453
2026-01-21 00:27:28.66	102.69	23.64	-36.5	-38.1	17.0	0.00e+00	0	58	0	1897922560	44	4381
2026-01-21 00:27:29.67	102.97	23.61	-36.5	-38.2	16.9	0.00e+00	0	58	0	1904214016	44	4401
2026-01-21 00:27:30.68	103.24	23.57	-36.5	-38.1	17.0	0.00e+00	0	58	0	1909456896	44	4355
2026-01-21 00:27:31.69	103.52	23.54	-36.5	-38.2	16.9	0.00e+00	0	58	0	1915748352	44	4393
2026-01-21 00:27:32.70	103.80	23.51	-36.5	-38.1	17.0	0.00e+00	0	58	0	1920991232	44	4377
2026-01-21 00:27:33.71	104.08	23.47	-36.4	-38.1	17.0	0.00e+00	0	58	0	1926234112	44	4356
2026-01-21 00:27:34.73	104.35	23.44	-36.4	-38.0	17.0	0.00e+00	0	58	0	1932525568	44	4330
2026-01-21 00:27:35.74	104.63	23.41	-36.4	-38.1	17.0	0.00e+00	0	58	0	1937768448	44	4347
2026-01-21 00:27:36.74	104.90	23.37	-36.5	-38.2	16.9	0.00e+00	0	58	0	1944059904	44	4415
2026-01-21 00:27:37.75	105.18	23.33	-36.6	-38.3	16.8	0.00e+00	0	58	0	1949302784	44	4450
2026-01-21 00:27:38.76	105.45	23.30	-36.6	-38.3	16.8	0.00e+00	0	58	0	1955594240	44	4442
2026-01-21 00:27:39.77	105.72	23.26	-36.5	-38.1	16.9	0.00e+00	0	58	0	1960837120	44	4383
2026-01-21 00:27:40.78	106.00	23.22	-36.5	-38.1	17.0	0.00e+00	0	58	0	1967128576	44	4372
2026-01-21 00:27:41.79	106.27	23.18	-36.5	-38.2	16.9	0.00e+00	0	58	0	1972371456	44	4408
2026-01-21 00:27:42.80	106.54	23.14	-36.6	-38.2	16.8	0.00e+00	0	58	0	1977614336	44	4425
2026-01-21 00:27:43.81	106.81	23.10	-36.6	-38.2	16.8	0.00e+00	0	58	0	1983905792	44	4439
2026-01-21 00:27:44.82	107.08	23.06	-36.6	-38.2	16.9	0.00e+00	0	58	0	1989148672	44	4423
2026-01-21 00:27:45.83	107.35	23.02	-36.6	-38.2	16.9	0.00e+00	0	58	0	1995440128	44	4416
2026-01-21 00:27:46.84	107.62	22.98	-36.6	-38.2	16.9	0.00e+00	0	58	0	2000683008	44	4429
2026-01-21 00:27:47.85	107.89	22.94	-36.6	-38.2	16.8	0.00e+00	0	58	0	2005925888	44	4439
2026-01-21 00:27:48.85	108.15	22.90	-36.6	-38.3	16.8	0.00e+00	0	58	0	2012217344	44	4459
2026-01-21 00:27:49.87	108.42	22.85	-36.7	-38.4	16.7	0.00e+00	0	58	0	2017460224	44	4499
2026-01-21 00:27:50.88	108.68	22.81	-36.7	-38.4	16.6	0.00e+00	0	58	0	2022703104	44	4545
2026-01-21 00:27:51.89	108.95	22.77	-36.7	-38.4	16.6	0.00e+00	0	58	0	2028994560	44	4520
2026-01-21 00:27:52.90	109.21	22.72	-36.7	-38.4	16.6	0.00e+00	0	58	0	2034237440	44	4534
2026-01-21 00:27:53.91	109.48	22.68	-36.7	-38.4	16.6	0.00e+00	0	58	0	2040528896	44	4534
2026-01-21 00:27:54.92	109.74	22.63	-36.7	-38.4	16.7	0.00e+00	0	58	0	2045771776	44	4508
2026-01-21 00:27:55.93	110.00	22.58	-36.7	-38.4	16.6	0.00e+00	0	58	0	2052063232	44	4541
2026-01-21 00:27:56.94	110.26	22.54	-36.7	-38.4	16.7	0.00e+00	0	58	0	2057306112	44	4501
2026-01-21 00:27:57.95	110.52	22.49	-36.7	-38.4	16.6	0.00e+00	0	58	0	2063597568	44	4522
2026-01-21 00:27:58.96	110.78	22.44	-36.7	-38.4	16.6	0.00e+00	0	58	0	2068840448	44	4531
2026-01-21 00:27:59.97	111.04	22.39	-36.7	-38.4	16.6	0.00e+00	0	58	0	2074083328	44	4539
2026-01-21 00:28:00.98	111.30	22.34	-36.7	-38.4	16.7	0.00e+00	0	58	0	2080374784	44	4527
2026-01-21 00:28:01.99	111.56	22.29	-36.7	-38.5	16.6	0.00e+00	0	58	0	2085617664	44	4549
2026-01-21 00:28:03.00	111.81	22.24	-36.8	-38.6	16.5	0.00e+00	0	58	0	2091909120	44	4608
2026-01-21 00:28:04.01	112.07	22.19	-36.8	-38.5	16.6	0.00e+00	0	58	0	2097152000	44	4595
2026-01-21 00:28:05.02	112.32	22.14	-36.8	-38.5	16.6	0.00e+00	0	58	0	2102394880	44	4559
2026-01-21 00:28:06.02	112.58	22.09	-36.8	-38.5	16.5	0.00e+00	0	58	0	2108686336	44	4597
2026-01-21 00:28:07.03	112.83	22.04	-36.8	-38.5	16.5	0.00e+00	0	58	0	2113929216	44	4590
2026-01-21 00:28:08.04	113.08	21.99	-36.8	-38.5	16.5	0.00e+00	0	58	0	2120220672	44	4571
2026-01-21 00:28:09.05	113.33	21.93	-36.8	-38.5	16.6	0.00e+00	0	58	0	2125463552	44	4574
2026-01-21 00:28:10.06	113.58	21.88	-36.9	-38.6	16.4	0.00e+00	0	58	0	2130706432	44	4631
2026-01-21 00:28:11.07	113.83	21.83	-37.0	-38.7	16.4	0.00e+00	0	58	0	2136997888	44	4684
2026-01-21 00:28:12.08	114.08	21.77	-37.1	-38.9	16.2	0.00e+00	0	58	0	2142240768	44	4766
2026-01-21 00:28:13.09	114.33	21.72	-37.0	-38.8	16.3	0.00e+00	0	58	0	2148532224	44	4731
2026-01-21 00:28:14.10	114.58	21.66	-36.9	-38.7	16.3	0.00e+00	0	58	0	2153775104	44	4689
2026-01-21 00:28:15.11	114.82	21.61	-36.9	-38.7	16.3	0.00e+00	0	58	0	2160066560	44	4678
2026-01-21 00:28:16.12	115.07	21.55	-37.0	-38.7	16.3	0.00e+00	0	58	0	2165309440	44	4697
2026-01-21 00:28:17.13	115.31	21.50	-36.9	-38.7	16.4	0.00e+00	0	58	0	2171600896	44	4683
2026-01-21 00:28:18.14	115.56	21.44	-36.7	-38.5	16.5	0.00e+00	0	58	0	2176843776	44	4548
2026-01-21 00:28:19.15	115.80	21.38	-36.7	-38.4	16.6	0.00e+00	0	58	0	2182086656	44	4513
2026-01-21 00:28:20.16	116.04	21.33	-36.7	-38.3	16.7	0.00e+00	0	58	0	2188378112	44	4484
2026-01-21 00:28:21.17	116.28	21.27	-36.7	-38.4	16.7	0.00e+00	0	58	0	2193620992	44	4506
2026-01-21 00:28:22.18	116.53	21.21	-36.8	-38.5	16.6	0.00e+00	0	58	0	2198863872	44	4547
2026-01-21 00:28:23.18	116.76	21.15	-36.9	-38.7	16.4	0.00e+00	0	58	0	2205155328	44	4671
2026-01-21 00:28:24.19	117.00	21.09	-36.9	-38.7	16.3	0.00e+00	0	58	0	2210398208	44	4679
2026-01-21 00:28:25.20	117.24	21.03	-37.0	-38.8	16.2	0.00e+00	0	58	0	2216689664	44	4744
2026-01-21 00:28:26.21	117.48	20.97	-37.1	-38.9	16.2	0.00e+00	0	58	0	2221932544	44	4769
2026-01-21 00:28:27.22	117.71	20.91	-37.1	-38.9	16.1	0.00e+00	0	58	0	2227175424	44	4794
2026-01-21 00:28:28.23	117.95	20.85	-37.1	-38.9	16.1	0.00e+00	0	58	0	2233466880	44	4799
2026-01-21 00:28:29.24	118.18	20.79	-37.1	-38.8	16.2	0.00e+00	0	58	0	2238709760	44	4748
2026-01-21 00:28:30.25	118.41	20.73	-37.0	-38.8	16.1	0.00e+00	0	58	0	2245001216	44	4719
2026-01-21 00:28:31.26	118.65	20.67	-37.0	-38.8	16.2	0.00e+00	0	58	0	2250244096	44	4754
2026-01-21 00:28:32.27	118.88	20.61	-37.1	-38.8	16.0	0.00e+00	0	58	0	2256535552	44	4756
2026-01-21 00:28:33.28	119.11	20.55	-37.1	-38.9	16.1	0.00e+00	0	58	0	2261778432	44	4800
2026-01-21 00:28:34.29	119.34	20.49	-37.1	-38.9	16.1	0.00e+00	0	58	0	2268069888	44	4779
2026-01-21 00:28:35.30	119.57	20.42	-37.0	-38.8	16.2	0.00e+00	0	58	0	2273312768	44	4719
2026-01-21 00:28:36.31	119.79	20.36	-37.0	-38.8	16.2	0.00e+00	0	58	0	2278555648	44	4713
2026-01-21 00:28:37.32	120.02	20.30	-37.0	-38.7	16.2	0.00e+00	0	58	0	2284847104	44	4701
2026-01-21 00:28:38.33	120.25	20.23	-37.0	-38.8	16.3	0.00e+00	0	58	0	2290089984	44	4709
2026-01-21 00:28:39.34	120.47	20.17	-37.0	-38.8	16.2	0.00e+00	0	58	0	2296381440	44	4743
2026-01-21 00:28:40.35	120.70	20.11	-37.0	-38.8	16.2	0.00e+00	0	58	0	2301624320	44	4750
2026-01-21 00:28:41.36	120.92	20.04	-37.0	-38.8	16.2	0.00e+00	0	58	0	2306867200	44	4738
2026-01-21 00:28:42.37	121.14	19.98	-37.1	-38.8	16.2	0.00e+00	0	58	0	2313158656	44	4756
2026-01-21 00:28:43.37	121.36	19.91	-37.0	-38.8	16.2	0.00e+00	0	58	0	2318401536	44	4724
2026-01-21 00:28:44.39	121.58	19.85	-37.0	-38.8	16.2	0.00e+00	0	58	0	2324692992	44	4716
2026-01-21 00:28:45.40	121.80	19.78	-37.1	-38.8	16.0	0.00e+00	0	58	0	2329935872	44	4749
2026-01-21 00:28:46.41	122.02	19.72	-37.2	-39.0	16.0	0.00e+00	0	58	0	2335178752	44	4848
2026-01-21 00:28:47.42	122.24	19.65	-37.3	-39.2	15.6	0.00e+00	0	58	0	2341470208	45	4661
2026-01-21 00:28:48.43	122.46	19.59	-37.4	-39.2	15.7	0.00e+00	0	58	0	2346713088	45	4704
2026-01-21 00:28:49.43	122.67	19.52	-37.4	-39.2	15.6	0.00e+00	0	58	0	2353004544	45	4693
2026-01-21 00:28:50.44	122.89	19.45	-37.3	-39.2	15.8	0.00e+00	0	58	0	2358247424	45	4687
2026-01-21 00:28:51.45	123.10	19.39	-37.3	-39.2	15.8	0.00e+00	0	58	0	2364538880	45	4668
2026-01-21 00:28:52.46	123.31	19.32	-37.4	-39.2	15.7	1.02e-05	0	58	0	2369781760	45	4675
2026-01-21 00:28:53.47	123.53	19.25	-37.4	-39.3	15.7	0.00e+00	0	58	0	2375024640	45	4736
2026-01-21 00:28:54.48	123.74	19.19	-37.5	-39.4	15.6	0.00e+00	0	58	0	2381316096	45	4784
2026-01-21 00:28:55.49	123.95	19.12	-37.5	-39.4	15.5	0.00e+00	0	58	0	2386558976	45	4807
2026-01-21 00:28:56.50	124.16	19.05	-37.6	-39.6	15.3	0.00e+00	0	58	0	2392850432	45	4886
2026-01-21 00:28:57.51	124.37	18.99	-37.6	-39.5	15.5	0.00e+00	0	58	0	2398093312	45	4848
2026-01-21 00:28:58.52	124.58	18.92	-37.6	-39.6	15.3	0.00e+00	0	58	0	2403336192	45	4871
2026-01-21 00:28:59.53	124.78	18.85	-37.6	-39.6	15.4	0.00e+00	0	58	0	2409627648	45	4871
2026-01-21 00:29:00.54	124.99	18.78	-37.6	-39.5	15.4	0.00e+00	0	58	0	2414870528	45	4865
2026-01-21 00:29:01.55	125.19	18.71	-37.5	-39.4	15.5	0.00e+00	0	58	0	2421161984	45	4805
2026-01-21 00:29:02.56	125.40	18.64	-37.5	-39.5	15.5	0.00e+00	0	58	0	2426404864	45	4818
2026-01-21 00:29:03.58	125.60	18.57	-37.5	-39.4	15.5	0.00e+00	0	58	0	2431647744	45	4810
2026-01-21 00:29:04.59	125.81	18.51	-37.5	-39.5	15.5	0.00e+00	0	58	0	2437939200	45	4817
2026-01-21 00:29:05.59	126.01	18.44	-37.5	-39.4	15.5	1.10e-06	0	58	0	2443182080	45	4785
2026-01-21 00:29:06.60	126.21	18.37	-37.5	-39.4	15.5	0.00e+00	0	58	0	2449473536	45	4787
2026-01-21 00:29:07.61	126.41	18.30	-37.6	-39.5	15.3	0.00e+00	0	58	0	2454716416	45	4855
2026-01-21 00:29:08.62	126.60	18.23	-37.4	-39.3	15.6	0.00e+00	0	58	0	2461007872	45	4756
2026-01-21 00:29:09.63	126.80	18.16	-37.4	-39.3	15.7	0.00e+00	0	58	0	2466250752	45	4711
2026-01-21 00:29:10.64	127.00	18.09	-37.4	-39.2	15.7	0.00e+00	0	58	0	2472542208	45	4677
2026-01-21 00:29:11.65	127.20	18.02	-37.4	-39.3	15.7	0.00e+00	0	58	0	2477785088	45	4709
2026-01-21 00:29:12.66	127.39	17.95	-37.4	-39.3	15.7	0.00e+00	0	58	0	2483027968	45	4719
2026-01-21 00:29:13.67	127.59	17.88	-37.6	-39.5	15.4	0.00e+00	0	58	0	2489319424	45	4842
2026-01-21 00:29:14.67	127.78	17.81	-37.7	-39.6	15.3	0.00e+00	0	58	0	2494562304	45	4893
2026-01-21 00:29:15.68	127.97	17.74	-37.8	-39.8	15.2	0.00e+00	0	58	0	2500853760	46	4729
2026-01-21 00:29:16.69	128.16	17.67	-37.8	-39.9	14.8	0.00e+00	0	58	0	2506096640	46	4767
2026-01-21 00:29:17.71	128.36	17.60	-37.9	-39.9	15.0	0.00e+00	0	58	0	2511339520	46	4810
2026-01-21 00:29:18.72	128.55	17.53	-37.9	-39.9	15.0	0.00e+00	0	58	0	2517630976	46	4812
2026-01-21 00:29:19.73	128.73	17.46	-37.8	-39.9	15.1	0.00e+00	0	58	0	2522873856	46	4764
2026-01-21 00:29:20.74	128.92	17.39	-37.8	-39.8	15.1	1.10e-06	0	58	0	2529165312	46	4718
2026-01-21 00:29:21.75	129.11	17.31	-37.9	-39.8	15.0	0.00e+00	0	58	0	2534408192	46	4757
2026-01-21 00:29:22.76	129.30	17.24	-37.8	-39.7	15.2	0.00e+00	0	58	0	2539651072	46	4690
2026-01-21 00:29:23.77	129.48	17.17	-37.8	-39.8	14.9	1.10e-06	0	58	0	2545942528	46	4717
2026-01-21 00:29:24.78	129.67	17.10	-37.9	-39.9	15.0	0.00e+00	0	58	0	2551185408	46	4779
2026-01-21 00:29:25.79	129.85	17.03	-38.0	-40.0	14.7	0.00e+00	0	58	0	2557476864	46	4844
2026-01-21 00:29:26.80	130.04	16.96	-37.9	-40.0	14.9	4.65e-04	0	58	0	2562719744	46	4827
2026-01-21 00:29:27.81	130.22	16.89	-37.9	-40.0	14.9	2.28e-05	0	58	0	2569011200	46	4829
2026-01-21 00:29:28.82	130.40	16.82	-38.0	-40.0	14.8	9.10e-06	0	58	0	2574254080	46	4851
2026-01-21 00:29:29.82	130.58	16.75	-38.0	-40.0	14.8	1.48e-05	0	58	0	2579496960	46	4850
2026-01-21 00:29:30.83	130.76	16.67	-37.9	-40.0	14.8	2.74e-05	0	58	0	2585788416	46	4830
2026-01-21 00:29:31.84	130.94	16.60	-37.9	-40.0	14.8	5.14e-05	0	58	0	2591031296	46	4826
2026-01-21 00:29:32.85	131.12	16.53	-37.9	-39.9	14.9	7.32e-05	0	58	0	2597322752	46	4807
2026-01-21 00:29:33.86	131.29	16.46	-37.9	-40.0	14.8	2.94e-04	0	58	0	2602565632	46	4815
2026-01-21 00:29:34.87	131.47	16.39	-37.9	-40.0	14.7	1.48e-02	0	58	0	2607808512	46	4846
2026-01-21 00:29:35.88	131.65	16.31	-38.0	-40.0	14.8	9.39e-04	0	58	0	2614099968	46	4866
2026-01-21 00:29:36.90	131.82	16.24	-36.5	-39.7	13.7	2.21e-02	0	58	0	2619342848	46	4657
2026-01-21 00:29:37.90	132.00	16.17	-37.8	-40.0	14.6	1.57e-02	0	58	0	2625634304	46	4815
2026-01-21 00:29:38.91	132.17	16.10	-37.9	-40.0	14.5	1.53e-03	0	58	0	2630877184	46	4842
2026-01-21 00:29:39.92	132.34	16.03	-37.8	-39.8	10.9	3.32e-02	0	58	0	2636120064	40	6706
2026-01-21 00:29:40.93	132.51	15.95	-37.9	-40.1	14.4	4.93e-02	0	58	0	2642411520	46	4892
2026-01-21 00:29:41.94	132.68	15.88	-38.0	-39.9	13.6	5.18e-03	0	58	0	2647654400	46	4786
2026-01-21 00:29:42.96	132.86	15.81	-38.1	-40.2	14.4	2.06e-02	0	58	0	2653945856	46	4946
2026-01-21 00:29:43.97	133.03	15.74	-38.1	-40.2	14.2	4.07e-03	0	58	0	2659188736	46	4979
2026-01-21 00:29:44.98	133.19	15.67	-38.0	-40.1	14.2	4.67e-03	0	58	0	2664431616	46	4911
2026-01-21 00:29:45.98	133.36	15.59	-38.0	-40.1	14.3	3.46e-02	0	58	0	2670723072	46	4907
2026-01-21 00:29:46.99	133.53	15.52	-38.1	-40.2	13.8	3.84e-03	0	58	0	2675965952	46	4957
2026-01-21 00:29:48.00	133.69	15.45	-38.0	-40.1	14.4	1.25e-02	0	58	0	2682257408	46	4878
2026-01-21 00:29:49.01	133.86	15.38	-37.8	-39.9	14.1	4.80e-03	0	58	0	2687500288	46	4779
2026-01-21 00:29:50.02	134.02	15.31	-37.5	-39.9	14.4	7.42e-03	0	58	0	2692743168	46	4767
2026-01-21 00:29:51.03	134.19	15.23	-37.8	-40.0	14.3	1.19e-02	0	58	0	2699034624	46	4824
2026-01-21 00:29:52.04	134.35	15.16	-37.9	-40.1	13.9	1.08e-02	0	58	0	2704277504	46	4901
2026-01-21 00:29:53.05	134.51	15.09	-38.0	-40.2	14.1	1.24e-02	0	58	0	2709520384	46	4951
2026-01-21 00:29:54.06	134.67	15.02	-38.0	-40.3	13.8	3.50e-02	0	58	0	2715811840	46	5035
2026-01-21 00:29:55.07	134.84	14.94	-37.5	-40.3	13.6	9.08e-02	0	58	0	2721054720	46	5037
2026-01-21 00:29:56.08	135.00	14.87	-38.1	-40.4	13.4	1.86e-02	0	58	0	2726297600	46	5087
2026-01-21 00:29:57.09	135.15	14.80	-38.1	-40.4	13.7	1.85e-02	0	58	0	2732589056	46	5082
2026-01-21 00:29:58.10	135.31	14.73	-38.0	-40.3	13.8	2.32e-02	0	58	0	2737831936	46	5016
2026-01-21 00:29:59.11	135.47	14.66	-38.1	-40.3	13.8	1.72e-02	0	58	0	2743074816	46	5012
2026-01-21 00:30:00.12	135.63	14.58	-38.1	-40.3	13.6	7.23e-02	0	58	0	2748317696	46	5038
2026-01-21 00:30:01.13	135.78	14.51	-38.0	-40.2	13.5	2.52e-02	0	58	0	2754609152	45	5277
2026-01-21 00:30:02.14	135.94	14.44	-38.2	-40.5	13.7	1.40e-02	0	58	0	2759852032	46	5111
2026-01-21 00:30:03.15	136.10	14.37	-38.1	-40.4	13.5	1.83e-02	0	58	0	2766143488	46	5056
2026-01-21 00:30:04.16	136.25	14.30	-38.0	-40.4	13.6	1.09e-02	0	58	0	2771386368	46	5084
2026-01-21 00:30:05.17	136.40	14.22	-38.2	-40.5	13.7	1.79e-02	0	58	0	2776629248	46	5129
2026-01-21 00:30:06.18	136.56	14.15	-38.6	-40.7	13.4	2.06e-02	0	58	0	2782920704	47	4930
2026-01-21 00:30:07.19	136.71	14.08	-34.2	-40.3	7.9	1.47e-01	0	58	0	2788163584	44	5608
2026-01-21 00:30:08.20	136.86	14.01	-38.3	-40.7	13.7	5.35e-03	0	58	0	2793406464	47	4928
2026-01-21 00:30:09.21	137.01	13.94	-38.4	-40.7	13.6	4.47e-02	0	58	0	2798649344	47	4963
2026-01-21 00:30:10.22	137.16	13.86	-38.3	-40.6	13.6	1.12e-02	0	58	0	2804940800	47	4915
2026-01-21 00:30:11.23	137.31	13.79	-32.5	-39.7	8.0	1.71e-01	0	58	0	2810183680	41	6247
2026-01-21 00:30:12.24	137.46	13.72	-38.3	-40.6	13.7	5.50e-03	0	58	0	2815426560	47	4917
2026-01-21 00:30:13.25	137.60	13.65	-38.4	-40.7	13.7	4.50e-03	0	59	0	2820669440	47	4939
2026-01-21 00:30:14.26	137.75	13.58	-38.3	-40.7	12.1	8.44e-02	0	58	0	2826960896	45	5530
2026-01-21 00:30:15.27	137.90	13.50	-38.5	-40.8	13.7	4.51e-03	0	58	0	2832203776	47	5012
2026-01-21 00:30:16.28	138.04	13.43	-38.4	-40.7	13.7	1.33e-03	0	58	0	2838495232	47	4953
2026-01-21 00:30:17.29	138.19	13.36	-38.5	-40.8	13.7	1.04e-03	0	58	0	2843738112	47	4994
2026-01-21 00:30:18.30	138.33	13.29	-38.5	-40.7	13.8	6.02e-04	0	58	0	2848980992	47	4957
2026-01-21 00:30:19.31	138.48	13.22	-38.5	-40.8	13.8	2.19e-02	0	58	0	2855272448	47	5002
2026-01-21 00:30:20.32	138.62	13.15	-38.5	-40.7	13.8	5.00e-04	0	58	0	2860515328	47	4974
2026-01-21 00:30:21.33	138.76	13.08	-38.5	-40.8	13.7	4.52e-04	0	58	0	2866806784	47	4996
2026-01-21 00:30:22.34	138.90	13.00	-38.5	-40.8	13.7	4.29e-04	0	58	0	2872049664	47	5030
2026-01-21 00:30:23.35	139.04	12.93	-38.5	-40.9	13.7	2.46e-03	0	58	0	2877292544	47	5042
2026-01-21 00:30:24.36	139.19	12.86	-38.8	-41.2	13.5	2.20e-03	0	58	0	2883584000	48	4930
2026-01-21 00:30:25.37	139.32	12.79	-38.6	-40.9	13.6	8.73e-04	0	58	0	2888826880	47	5065
2026-01-21 00:30:26.38	139.46	12.72	-38.7	-41.0	13.5	6.29e-05	0	58	0	2895118336	47	5115
2026-01-21 00:30:27.39	139.60	12.65	-38.7	-41.0	13.5	4.57e-05	0	58	0	2900361216	47	5151
2026-01-21 00:30:28.40	139.74	12.58	-38.8	-41.1	13.6	2.74e-05	0	58	0	2906652672	48	4909
2026-01-21 00:30:29.41	139.88	12.51	-38.9	-41.2	13.4	4.57e-05	0	58	0	2911895552	48	4941
2026-01-21 00:30:30.42	140.01	12.44	-38.9	-41.2	13.5	3.54e-05	0	58	0	2917138432	48	4961
2026-01-21 00:30:31.43	140.15	12.36	-38.8	-41.2	13.6	2.17e-05	0	58	0	2923429888	48	4929
2026-01-21 00:30:32.44	140.28	12.29	-38.8	-41.1	13.6	2.86e-05	0	58	0	2928672768	48	4907
2026-01-21 00:30:33.45	140.42	12.22	-38.8	-41.1	13.6	1.60e-05	0	58	0	2934964224	48	4892
2026-01-21 00:30:34.46	140.55	12.15	-38.9	-41.2	13.5	2.28e-05	0	59	0	2940207104	48	4948
2026-01-21 00:30:35.46	140.69	12.08	-38.9	-41.2	13.5	2.05e-05	0	58	0	2945449984	48	4976
2026-01-21 00:30:36.47	140.82	12.01	-38.9	-41.2	13.5	1.60e-05	0	58	0	2951741440	48	4938
2026-01-21 00:30:37.49	140.95	11.94	-38.8	-41.1	13.5	1.94e-05	0	58	0	2956984320	48	4921
2026-01-21 00:30:38.49	141.08	11.87	-38.8	-41.1	13.5	1.14e-05	0	58	0	2963275776	48	4910
2026-01-21 00:30:39.51	141.21	11.80	-38.8	-41.1	13.5	1.37e-05	0	58	0	2968518656	48	4914
2026-01-21 00:30:40.52	141.34	11.73	-38.8	-41.0	13.6	1.25e-05	0	58	0	2973761536	48	4867
2026-01-21 00:30:41.53	141.47	11.66	-38.8	-41.0	13.6	6.80e-06	0	58	0	2980052992	48	4869
2026-01-21 00:30:42.54	141.60	11.59	-38.8	-41.0	13.6	1.83e-05	0	58	0	2985295872	48	4853
2026-01-21 00:30:43.55	141.73	11.52	-38.8	-41.1	13.5	1.48e-05	0	58	0	2991587328	48	4895
2026-01-21 00:30:44.56	141.86	11.45	-38.8	-41.1	13.5	1.37e-05	0	58	0	2996830208	48	4872
2026-01-21 00:30:45.57	141.99	11.38	-38.8	-41.1	13.5	1.94e-05	0	58	0	3003121664	48	4878
2026-01-21 00:30:46.58	142.11	11.31	-38.8	-41.1	13.5	1.60e-05	0	58	0	3008364544	48	4884
2026-01-21 00:30:47.59	142.24	11.24	-38.8	-41.2	13.4	2.51e-05	0	58	0	3014656000	48	4940
2026-01-21 00:30:48.60	142.36	11.17	-38.8	-41.2	13.4	1.94e-05	0	58	0	3019898880	48	4930
2026-01-21 00:30:49.61	142.49	11.10	-39.0	-41.4	13.2	3.43e-05	0	58	0	3025141760	48	5069
2026-01-21 00:30:50.62	142.61	11.03	-38.9	-41.3	13.2	4.69e-05	0	58	0	3031433216	48	5001
2026-01-21 00:30:51.62	142.74	10.96	-39.0	-41.4	13.2	2.97e-05	0	58	0	3036676096	48	5054
2026-01-21 00:30:52.63	142.86	10.89	-39.0	-41.5	13.1	4.57e-05	0	58	0	3042967552	48	5116
2026-01-21 00:30:53.64	142.98	10.82	-39.2	-41.6	12.9	5.37e-05	0	58	0	3048210432	48	5216
2026-01-21 00:30:54.65	143.10	10.75	-39.1	-41.6	13.0	6.06e-05	0	59	0	3053453312	48	5185
2026-01-21 00:30:55.66	143.23	10.69	-39.2	-41.7	12.9	9.15e-05	0	58	0	3059744768	48	5239
2026-01-21 00:30:56.67	143.35	10.62	-39.2	-41.7	12.8	8.92e-05	0	58	0	3064987648	48	5264
2026-01-21 00:30:57.68	143.47	10.55	-39.1	-41.6	12.9	8.69e-05	0	58	0	3071279104	49	4902
2026-01-21 00:30:58.69	143.59	10.48	-39.1	-41.6	12.9	6.52e-05	0	59	0	3076521984	49	4875
2026-01-21 00:30:59.70	143.71	10.41	-39.1	-41.5	13.0	6.86e-05	0	58	0	3081764864	49	4845
2026-01-21 00:31:00.71	143.83	10.34	-39.1	-41.6	12.9	6.98e-05	0	58	0	3088056320	49	4908
2026-01-21 00:31:01.72	143.94	10.27	-39.1	-41.7	12.8	7.43e-05	0	58	0	3093299200	49	4929
2026-01-21 00:31:02.73	144.06	10.20	-39.1	-41.6	12.9	9.38e-05	0	59	0	3099590656	49	4876
2026-01-21 00:31:03.73	144.18	10.14	-39.2	-41.7	12.8	8.92e-05	0	58	0	3104833536	49	4945
2026-01-21 00:31:04.74	144.29	10.07	-39.2	-41.8	12.7	9.38e-05	0	58	0	3111124992	49	4990
2026-01-21 00:31:05.75	144.41	10.00	-39.3	-41.8	12.7	1.11e-04	0	58	0	3116367872	49	5026
2026-01-21 00:31:06.76	144.53	9.93	-39.3	-41.9	12.6	1.25e-04	0	58	0	3121610752	49	5050
2026-01-21 00:31:07.78	144.64	9.86	-39.3	-41.9	12.5	1.67e-04	0	58	0	3127902208	49	5081
2026-01-21 00:31:08.78	144.76	9.79	-39.4	-42.0	12.4	1.64e-04	0	58	0	3133145088	49	5153
2026-01-21 00:31:09.79	144.87	9.73	-39.4	-42.0	12.5	2.43e-04	0	58	0	3139436544	49	5123
2026-01-21 00:31:10.80	144.98	9.66	-39.4	-42.1	12.4	2.17e-04	0	58	0	3144679424	49	5169
2026-01-21 00:31:11.81	145.10	9.59	-39.4	-42.1	12.3	2.32e-04	0	58	0	3149922304	49	5172
2026-01-21 00:31:12.82	145.21	9.52	-39.4	-42.1	12.3	2.75e-04	0	58	0	3156213760	49	5196
2026-01-21 00:31:13.83	145.32	9.46	-39.5	-42.2	12.2	3.22e-04	0	58	0	3161456640	49	5226
2026-01-21 00:31:14.84	145.43	9.39	-39.5	-42.2	12.1	3.43e-04	0	58	0	3167748096	49	5266
2026-01-21 00:31:15.85	145.54	9.32	-39.6	-42.3	12.0	4.34e-04	0	59	0	3172990976	49	5334
2026-01-21 00:31:16.86	145.65	9.25	-39.6	-42.4	11.9	4.97e-04	0	58	0	3178233856	49	5358
2026-01-21 00:31:17.87	145.76	9.19	-39.5	-42.2	12.0	4.43e-04	0	58	0	3184525312	49	5266
2026-01-21 00:31:18.88	145.87	9.12	-39.5	-42.2	12.1	3.86e-04	0	58	0	3189768192	49	5257
2026-01-21 00:31:19.89	145.98	9.05	-39.5	-42.2	12.1	4.02e-04	0	58	0	3196059648	49	5236
2026-01-21 00:31:20.91	146.09	8.98	-39.5	-42.2	12.0	4.99e-04	0	59	0	3201302528	49	5277
2026-01-21 00:31:21.92	146.20	8.92	-39.5	-42.2	12.0	4.51e-04	0	58	0	3207593984	49	5248
2026-01-21 00:31:22.93	146.31	8.85	-39.5	-42.3	12.0	5.23e-04	0	59	0	3212836864	49	5303
2026-01-21 00:31:23.93	146.42	8.79	-39.6	-42.4	11.8	4.98e-04	0	58	0	3219128320	49	5372
2026-01-21 00:31:24.94	146.52	8.72	-39.6	-42.5	11.7	7.32e-04	0	58	0	3224371200	49	5430
2026-01-21 00:31:25.95	146.63	8.65	-39.6	-42.5	11.7	7.71e-04	0	59	0	3229614080	49	5433
2026-01-21 00:31:26.97	146.74	8.59	-39.8	-42.7	11.4	1.22e-03	0	59	0	3235905536	50	5259
2026-01-21 00:31:27.98	146.84	8.52	-39.8	-42.7	11.5	1.06e-03	0	58	0	3241148416	50	5263
2026-01-21 00:31:28.99	146.95	8.45	-39.8	-42.8	11.4	1.31e-03	0	58	0	3247439872	50	5296
2026-01-21 00:31:30.00	147.05	8.39	-39.7	-42.6	11.5	1.15e-03	0	58	0	3252682752	50	5211
2026-01-21 00:31:31.01	147.15	8.32	-39.7	-42.6	11.5	1.09e-03	0	58	0	3257925632	50	5189
2026-01-21 00:31:32.02	147.26	8.25	-39.7	-42.6	11.5	1.45e-03	0	59	0	3264217088	50	5208
2026-01-21 00:31:33.03	147.36	8.19	-39.7	-42.7	11.4	1.29e-03	0	58	0	3269459968	50	5231
2026-01-21 00:31:34.04	147.46	8.12	-39.6	-42.5	11.6	1.17e-03	0	59	0	3275751424	50	5121
2026-01-21 00:31:35.04	147.56	8.06	-39.6	-42.6	11.4	1.14e-03	0	58	0	3280994304	50	5205
2026-01-21 00:31:36.06	147.67	7.99	-44.0	-54.2	3.8	8.03e-01	0	58	104	3284140032	58	12418
2026-01-21 00:31:37.07	147.77	7.93	-44.7	-56.2	3.8	8.46e-01	0	58	104	3284140032	59	14752
2026-01-21 00:31:38.08	147.87	7.86	-45.0	-56.8	3.8	8.47e-01	0	58	104	3284140032	60	15033
2026-01-21 00:31:39.09	147.97	7.80	-45.2	-57.1	3.8	8.47e-01	0	59	104	3284140032	60	15478
2026-01-21 00:31:40.10	148.07	7.73	-45.3	-57.2	3.8	8.46e-01	0	59	104	3284140032	61	14725
2026-01-21 00:31:41.11	148.17	7.67	-45.5	-57.3	3.8	8.47e-01	0	59	104	3284140032	61	14993
2026-01-21 00:31:42.12	148.27	7.60	-45.5	-57.4	3.8	8.45e-01	0	58	104	3284140032	61	15073
2026-01-21 00:31:43.13	148.37	7.54	-45.5	-57.4	3.8	8.46e-01	0	59	104	3284140032	61	15067
2026-01-21 00:31:44.14	148.46	7.47	-45.6	-57.4	3.8	8.47e-01	0	59	104	3284140032	61	15108
2026-01-21 00:31:45.15	148.56	7.41	-45.6	-57.3	3.8	8.46e-01	0	58	104	3284140032	61	15039
2026-01-21 00:31:46.17	148.66	7.34	-45.5	-57.3	3.8	8.45e-01	0	59	104	3284140032	61	14953
2026-01-21 00:31:47.18	148.76	7.28	-45.4	-57.2	3.8	8.48e-01	0	59	104	3284140032	61	14723
2026-01-21 00:31:48.19	148.85	7.21	-45.4	-57.1	3.8	8.47e-01	0	59	104	3284140032	61	14643
2026-01-21 00:31:49.20	148.95	7.15	-45.4	-57.1	3.8	8.45e-01	0	58	104	3284140032	61	14577
2026-01-21 00:31:50.21	149.05	7.08	-45.3	-57.0	3.8	8.45e-01	0	59	104	3284140032	61	14430
2026-01-21 00:31:51.22	149.14	7.02	-45.3	-56.9	3.8	8.46e-01	0	58	104	3284140032	61	14357
