passes_logs/2026/01/21/R2.0S_Moscow/R2.0S_Moscow__20260121_093313_NOAA_20_JPSS-1_rec.log

#Pass ID: 20260121_093313_NOAA 20 (JPSS-1)
#Satellite: NOAA 20 (JPSS-1)
#Configuration: NOAA 20
#almurnet v.1.7.20251203
#Start time: 2026-01-21 09:33:14

#Version: 2.2.20231116
#Station: R2.0S_Moscow
#Location: 37.707566 lon 55.798166 lat
#TLE: 1 43013U 17073A   26020.26397077  .00000127  00000+0  80954-4 0  9999
#TLE: 2 43013  98.7643 321.1479 0001288  31.3158 328.8095 14.19537595423482

#Time	Az	El	Level	Level2	SNR	BER	BlckErr	Temp	State	Recorded	gain1	gain2
2026-01-21 09:33:14.45	149.85	2.06	-43.8	-58.4	3.8	1.49e+00	0	52	0	0	58	20163
2026-01-21 09:33:15.45	149.83	2.12	-43.8	-58.4	3.8	1.49e+00	0	52	104	0	59	19011
2026-01-21 09:33:16.45	149.82	2.19	-43.8	-58.4	3.8	1.49e+00	0	52	104	0	59	19022
2026-01-21 09:33:17.46	149.81	2.25	-43.8	-58.4	3.8	1.49e+00	0	52	104	0	58	20195
2026-01-21 09:33:18.46	149.79	2.32	-43.8	-58.4	3.8	1.49e+00	0	53	104	0	58	20189
2026-01-21 09:33:19.47	149.78	2.38	-43.8	-58.4	3.8	1.49e+00	0	52	104	0	58	20160
2026-01-21 09:33:20.47	149.76	2.45	-43.8	-58.4	3.8	1.49e+00	0	53	104	0	58	20097
2026-01-21 09:33:21.48	149.75	2.51	-43.8	-58.4	3.8	1.49e+00	0	53	104	0	58	20151
2026-01-21 09:33:22.48	149.73	2.58	-43.8	-58.4	3.8	1.49e+00	0	53	104	0	58	20188
2026-01-21 09:33:23.48	149.72	2.64	-43.8	-58.4	3.8	1.49e+00	0	53	104	0	58	20101
2026-01-21 09:33:24.49	149.70	2.71	-43.8	-58.4	3.8	1.49e+00	0	53	104	0	58	20157
2026-01-21 09:33:25.49	149.69	2.78	-43.8	-58.4	3.8	1.49e+00	0	53	104	0	58	20172
2026-01-21 09:33:26.50	149.67	2.84	-43.8	-58.4	3.8	1.49e+00	0	53	104	0	58	20218
2026-01-21 09:33:27.51	149.66	2.91	-43.8	-58.4	3.8	1.49e+00	0	53	104	0	58	20168
2026-01-21 09:33:28.52	149.64	2.98	-43.8	-58.4	3.8	1.49e+00	0	53	104	0	58	20154
2026-01-21 09:33:29.52	149.63	3.04	-43.8	-58.4	3.8	1.49e+00	0	53	104	0	58	20141
2026-01-21 09:33:30.53	149.61	3.11	-43.8	-58.4	3.8	1.49e+00	0	53	104	0	58	20121
2026-01-21 09:33:31.53	149.60	3.18	-43.8	-58.4	3.8	1.49e+00	0	53	104	0	58	20161
2026-01-21 09:33:32.54	149.58	3.24	-43.8	-58.4	3.8	1.49e+00	0	54	104	0	58	20193
2026-01-21 09:33:33.54	149.57	3.31	-43.8	-58.4	3.8	1.49e+00	0	54	104	0	58	20116
2026-01-21 09:33:34.55	149.55	3.38	-43.6	-58.4	3.8	1.49e+00	0	54	104	0	58	20081
2026-01-21 09:33:35.56	149.54	3.45	-43.8	-58.4	3.8	1.49e+00	0	54	104	0	58	20141
2026-01-21 09:33:36.56	149.52	3.51	-43.7	-58.4	3.8	1.49e+00	0	54	104	0	58	20127
2026-01-21 09:33:37.56	149.51	3.58	-43.8	-58.4	3.8	1.49e+00	0	54	104	0	58	20142
2026-01-21 09:33:38.56	149.49	3.65	-43.7	-58.4	3.8	1.49e+00	0	54	104	0	58	20154
2026-01-21 09:33:39.57	149.47	3.72	-43.8	-58.4	3.8	1.49e+00	0	54	104	0	58	20130
2026-01-21 09:33:40.58	149.46	3.79	-43.8	-58.4	3.8	1.49e+00	0	54	104	0	58	20189
2026-01-21 09:33:41.59	149.44	3.86	-43.8	-58.4	3.8	1.49e+00	0	54	104	0	58	20111
2026-01-21 09:33:42.59	149.43	3.92	-43.7	-58.4	3.8	1.49e+00	0	54	104	0	58	20130
2026-01-21 09:33:43.60	149.41	3.99	-43.8	-58.4	3.8	1.49e+00	0	54	104	0	58	20178
2026-01-21 09:33:44.60	149.39	4.06	-43.8	-58.4	3.8	1.49e+00	0	54	104	0	58	20182
2026-01-21 09:33:45.61	149.38	4.13	-43.8	-58.4	3.8	1.49e+00	0	55	104	0	58	20207
2026-01-21 09:33:46.62	149.36	4.20	-43.8	-58.4	3.8	1.49e+00	0	54	104	0	58	20096
2026-01-21 09:33:47.62	149.34	4.27	-43.8	-58.4	3.8	1.49e+00	0	54	104	0	58	20153
2026-01-21 09:33:48.63	149.33	4.34	-43.8	-58.4	3.8	1.49e+00	0	55	104	0	58	20092
2026-01-21 09:33:49.63	149.31	4.41	-43.8	-58.4	3.8	1.49e+00	0	55	104	0	58	20110
2026-01-21 09:33:50.64	149.29	4.48	-43.8	-58.4	3.8	1.49e+00	0	55	104	0	58	20113
2026-01-21 09:33:51.64	149.27	4.55	-43.8	-58.4	3.8	1.49e+00	0	54	104	0	58	20149
2026-01-21 09:33:52.65	149.26	4.62	-43.8	-58.4	3.8	1.49e+00	0	55	104	0	58	20185
2026-01-21 09:33:53.66	149.24	4.69	-43.8	-58.4	3.8	1.49e+00	0	55	104	0	58	20120
2026-01-21 09:33:54.66	149.22	4.77	-43.8	-58.4	3.8	1.49e+00	0	55	104	0	58	20119
2026-01-21 09:33:55.67	149.21	4.84	-43.8	-58.4	3.8	1.49e+00	0	55	104	0	58	20121
2026-01-21 09:33:56.68	149.19	4.91	-43.8	-58.4	3.8	1.49e+00	0	55	104	0	58	20083
2026-01-21 09:33:57.68	149.17	4.98	-43.8	-58.4	3.8	1.49e+00	0	55	104	0	58	20092
2026-01-21 09:33:58.69	149.15	5.05	-43.8	-58.3	3.8	1.49e+00	0	55	104	0	58	20071
2026-01-21 09:33:59.69	149.13	5.12	-43.8	-58.4	3.8	1.49e+00	0	55	104	0	58	20072
2026-01-21 09:34:00.70	149.12	5.20	-43.8	-58.3	3.8	1.49e+00	0	55	104	0	58	20018
2026-01-21 09:34:01.71	149.10	5.27	-43.8	-58.3	3.8	1.49e+00	0	55	104	0	58	19968
2026-01-21 09:34:02.71	149.08	5.34	-43.8	-58.3	3.8	1.49e+00	0	55	104	0	58	19844
2026-01-21 09:34:03.72	149.06	5.41	-43.8	-58.2	3.8	1.49e+00	0	55	104	0	58	19632
2026-01-21 09:34:04.72	149.04	5.49	-43.8	-58.1	3.8	1.49e+00	0	55	104	0	58	19430
2026-01-21 09:34:05.73	149.03	5.56	-43.8	-57.9	3.8	1.49e+00	0	55	104	0	58	19029
2026-01-21 09:34:06.73	149.01	5.63	-43.7	-57.7	3.8	1.49e+00	0	56	104	0	58	18602
2026-01-21 09:34:07.74	148.99	5.71	-43.7	-57.3	3.8	1.49e+00	0	56	104	0	58	17820
2026-01-21 09:34:08.74	148.97	5.78	-43.7	-57.0	3.8	1.49e+00	0	55	104	0	58	17211
2026-01-21 09:34:09.75	148.95	5.85	-43.6	-56.5	3.9	1.49e+00	0	55	104	0	58	16177
2026-01-21 09:34:10.75	148.93	5.93	-43.7	-56.3	3.8	1.49e+00	0	55	104	0	58	15775
2026-01-21 09:34:11.76	148.91	6.00	-43.5	-56.1	4.0	1.48e+00	0	56	104	0	58	15407
2026-01-21 09:34:12.76	148.89	6.08	-43.6	-55.8	3.9	1.47e+00	0	56	104	0	58	15005
2026-01-21 09:34:13.77	148.87	6.15	-43.5	-55.4	4.1	1.45e+00	0	56	0	0	58	14230
2026-01-21 09:34:14.78	148.85	6.23	-43.5	-55.1	4.1	1.43e+00	0	56	0	0	58	13859
2026-01-21 09:34:15.79	148.84	6.30	-43.6	-55.1	4.1	1.42e+00	0	56	0	0	58	13869
2026-01-21 09:34:16.79	148.82	6.38	-43.5	-55.2	4.1	1.43e+00	0	56	0	0	58	13956
2026-01-21 09:34:17.79	148.80	6.45	-43.6	-55.0	4.2	1.42e+00	0	56	0	0	58	13582
2026-01-21 09:34:18.79	148.78	6.53	-43.6	-55.1	4.1	1.41e+00	0	56	0	0	57	14575
2026-01-21 09:34:19.80	148.76	6.60	-43.6	-55.6	4.0	1.48e+00	0	56	104	0	57	15572
2026-01-21 09:34:20.81	148.74	6.68	-43.5	-56.1	3.8	1.48e+00	0	56	104	0	57	16487
2026-01-21 09:34:21.81	148.72	6.76	-43.7	-56.5	3.8	1.48e+00	0	56	104	0	57	17204
2026-01-21 09:34:22.82	148.70	6.83	-43.7	-57.4	3.8	1.49e+00	0	56	104	0	58	17992
2026-01-21 09:34:23.82	148.68	6.91	-43.8	-57.7	3.8	1.49e+00	0	56	104	0	58	18656
2026-01-21 09:34:24.83	148.65	6.99	-43.8	-58.0	3.8	1.49e+00	0	56	104	0	58	19380
2026-01-21 09:34:25.83	148.63	7.07	-43.8	-57.9	3.8	1.49e+00	0	56	104	0	58	18951
2026-01-21 09:34:26.84	148.61	7.14	-43.7	-57.2	3.8	1.49e+00	0	56	104	0	58	17491
2026-01-21 09:34:27.84	148.59	7.22	-43.6	-56.0	3.9	1.49e+00	0	56	104	0	58	15367
2026-01-21 09:34:28.85	148.57	7.30	-43.5	-54.4	4.3	1.44e+00	26	56	0	0	58	12761
2026-01-21 09:34:29.86	148.55	7.38	-43.3	-52.9	4.9	8.92e-01	0	57	0	1048576	58	10741
2026-01-21 09:34:30.87	148.53	7.46	-43.1	-51.7	5.7	5.20e-01	0	56	0	3145728	58	9314
2026-01-21 09:34:31.88	148.51	7.54	-43.0	-50.7	6.5	3.38e-01	0	57	0	5242880	57	8780
2026-01-21 09:34:32.88	148.49	7.62	-42.8	-49.8	7.2	1.43e-01	0	57	0	7340032	57	7985
2026-01-21 09:34:33.89	148.46	7.70	-42.5	-48.8	8.2	8.00e-02	0	56	0	8388608	57	7095
2026-01-21 09:34:34.90	148.44	7.78	-42.4	-48.4	8.7	4.53e-02	0	57	0	10485760	56	7136
2026-01-21 09:34:35.91	148.42	7.86	-42.3	-47.8	9.2	2.13e-02	0	56	0	12582912	56	6698
2026-01-21 09:34:36.92	148.40	7.94	-42.1	-47.5	9.6	1.54e-02	0	57	0	14680064	56	6476
2026-01-21 09:34:37.93	148.37	8.02	-42.0	-47.1	10.0	1.02e-02	0	57	0	16777216	56	6181
2026-01-21 09:34:38.93	148.35	8.10	-43.9	-54.4	4.0	1.39e+00	0	57	104	17825792	58	12665
2026-01-21 09:34:39.94	148.33	8.18	-44.0	-57.9	3.8	1.48e+00	0	57	104	17825792	58	18984
2026-01-21 09:34:40.95	148.31	8.26	-43.3	-54.0	4.5	1.60e-01	12	57	0	17825792	57	12842
2026-01-21 09:34:41.96	148.28	8.34	-43.4	-52.8	5.2	9.85e-01	0	57	0	17825792	57	11207
2026-01-21 09:34:42.97	148.26	8.42	-42.6	-49.4	7.8	2.22e-02	0	57	0	19922944	56	8004
2026-01-21 09:34:43.98	148.24	8.51	-41.6	-46.7	10.2	2.84e-02	0	57	0	22020096	55	6235
2026-01-21 09:34:44.98	148.21	8.59	-41.8	-46.9	10.1	6.91e-03	0	57	0	24117248	55	6351
2026-01-21 09:34:45.99	148.19	8.67	-41.8	-46.9	10.1	8.39e-03	0	57	0	25165824	55	6349
2026-01-21 09:34:47.00	148.17	8.75	-41.7	-46.4	10.6	3.49e-03	0	57	0	27262976	55	6034
2026-01-21 09:34:48.01	148.14	8.84	-41.7	-46.4	10.7	3.72e-03	0	57	0	29360128	55	6004
2026-01-21 09:34:49.02	148.12	8.92	-41.6	-46.4	10.7	2.85e-03	0	57	0	31457280	54	6378
2026-01-21 09:34:50.03	148.10	9.00	-41.7	-46.6	10.5	3.41e-03	0	57	0	33554432	54	6511
2026-01-21 09:34:51.04	148.07	9.09	-41.5	-46.1	11.0	3.19e-03	0	57	0	34603008	54	6194
2026-01-21 09:34:52.05	148.05	9.17	-41.7	-46.4	10.8	2.06e-03	0	57	0	36700160	54	6374
2026-01-21 09:34:53.06	148.02	9.26	-41.7	-46.2	11.0	2.17e-03	0	57	0	38797312	54	6254
2026-01-21 09:34:54.06	148.00	9.34	-41.7	-46.3	10.9	2.40e-03	0	57	0	40894464	54	6284
2026-01-21 09:34:55.07	147.97	9.43	-41.4	-46.2	11.0	2.09e-03	0	57	0	42991616	54	6207
2026-01-21 09:34:56.08	147.95	9.51	-41.4	-46.1	11.1	1.65e-03	0	57	0	44040192	54	6139
2026-01-21 09:34:57.09	147.92	9.60	-41.7	-46.2	11.1	1.49e-03	0	57	0	46137344	54	6208
2026-01-21 09:34:58.10	147.90	9.68	-41.6	-46.1	11.2	1.49e-03	0	57	0	48234496	54	6172
2026-01-21 09:34:59.11	147.87	9.77	-41.6	-46.1	11.3	1.42e-03	0	57	0	50331648	54	6132
2026-01-21 09:35:00.12	147.85	9.86	-41.6	-46.0	11.4	1.29e-03	0	58	0	52428800	54	6064
2026-01-21 09:35:01.13	147.82	9.94	-41.6	-46.0	11.3	1.07e-03	0	57	0	53477376	53	6452
2026-01-21 09:35:02.14	147.79	10.03	-41.5	-45.8	11.5	8.42e-04	0	58	0	55574528	53	6305
2026-01-21 09:35:03.14	147.77	10.12	-41.5	-45.8	11.6	9.80e-04	0	57	0	57671680	53	6283
2026-01-21 09:35:04.15	147.74	10.21	-41.5	-45.7	11.7	6.65e-04	0	57	0	59768832	53	6264
2026-01-21 09:35:05.16	147.72	10.29	-41.6	-45.8	11.6	6.60e-04	0	57	0	61865984	53	6287
2026-01-21 09:35:06.17	147.69	10.38	-41.6	-45.7	11.7	7.92e-04	0	57	0	62914560	53	6260
2026-01-21 09:35:07.18	147.66	10.47	-41.5	-45.6	11.8	4.91e-04	0	57	0	65011712	53	6190
2026-01-21 09:35:08.19	147.63	10.56	-41.5	-45.6	11.9	4.24e-04	0	57	0	67108864	53	6172
2026-01-21 09:35:09.20	147.61	10.65	-41.6	-45.7	11.8	4.74e-04	0	57	0	69206016	53	6247
2026-01-21 09:35:10.21	147.58	10.74	-41.5	-45.6	11.9	5.00e-04	0	58	0	71303168	53	6164
2026-01-21 09:35:11.22	147.55	10.83	-41.6	-45.8	11.7	5.30e-04	0	58	0	73400320	53	6305
2026-01-21 09:35:12.23	147.52	10.92	-41.7	-45.9	11.6	6.96e-04	0	57	0	74448896	53	6373
2026-01-21 09:35:13.24	147.50	11.01	-41.5	-45.7	11.8	6.13e-04	0	58	0	76546048	53	6203
2026-01-21 09:35:14.25	147.47	11.10	-40.5	-45.4	11.8	7.10e-04	0	58	0	78643200	53	6018
2026-01-21 09:35:15.26	147.44	11.19	-41.5	-45.6	11.8	2.32e-03	0	58	0	80740352	53	6157
2026-01-21 09:35:16.27	147.41	11.29	-41.0	-45.6	11.9	2.25e-03	0	58	0	82837504	53	6194
2026-01-21 09:35:17.27	147.38	11.38	-41.5	-45.4	12.2	3.86e-04	0	58	0	83886080	53	6058
2026-01-21 09:35:18.28	147.35	11.47	-41.5	-45.5	12.0	6.91e-04	0	58	0	85983232	53	6124
2026-01-21 09:35:19.29	147.32	11.56	-41.6	-45.6	11.9	1.32e-03	0	58	0	88080384	53	6172
2026-01-21 09:35:20.30	147.29	11.66	-41.6	-45.7	11.9	1.58e-03	0	58	0	90177536	53	6210
2026-01-21 09:35:21.31	147.26	11.75	-41.6	-45.7	12.0	4.81e-04	0	58	0	92274688	53	6216
2026-01-21 09:35:22.32	147.24	11.84	-41.6	-45.6	12.0	3.07e-04	0	58	0	93323264	53	6202
2026-01-21 09:35:23.33	147.21	11.94	-41.7	-45.8	11.9	4.11e-04	0	58	0	95420416	53	6286
2026-01-21 09:35:24.34	147.17	12.03	-41.6	-45.6	12.0	4.04e-04	0	58	0	97517568	53	6157
2026-01-21 09:35:25.35	147.14	12.13	-40.9	-45.5	12.1	3.55e-04	0	58	0	99614720	53	6091
2026-01-21 09:35:26.35	147.11	12.22	-41.5	-45.4	12.3	3.34e-04	0	58	0	101711872	53	6026
2026-01-21 09:35:27.36	147.08	12.32	-41.5	-45.4	12.3	7.73e-04	0	58	0	102760448	53	6030
2026-01-21 09:35:28.37	147.05	12.41	-41.5	-45.4	12.3	3.45e-04	0	58	0	104857600	53	5995
2026-01-21 09:35:29.38	147.02	12.51	-41.5	-45.3	12.4	1.89e-04	0	58	0	106954752	53	5981
2026-01-21 09:35:30.39	146.99	12.61	-41.4	-45.4	12.0	2.15e-04	0	58	0	109051904	52	6413
2026-01-21 09:35:31.40	146.96	12.70	-41.6	-45.4	12.4	3.33e-04	0	58	0	111149056	53	6018
2026-01-21 09:35:32.41	146.93	12.80	-41.5	-45.4	12.4	2.25e-04	0	58	0	112197632	53	6023
2026-01-21 09:35:33.41	146.89	12.90	-41.6	-45.4	12.4	1.62e-04	0	58	0	114294784	53	6036
2026-01-21 09:35:34.42	146.86	13.00	-41.6	-45.4	12.4	1.71e-04	0	58	0	116391936	53	6027
2026-01-21 09:35:35.43	146.83	13.10	-41.5	-45.3	12.5	1.50e-04	0	58	0	118489088	53	5960
2026-01-21 09:35:36.44	146.80	13.19	-41.5	-45.3	12.5	1.59e-04	0	58	0	120586240	53	5959
2026-01-21 09:35:37.45	146.76	13.29	-41.5	-45.3	12.6	1.14e-04	0	58	0	121634816	53	5924
2026-01-21 09:35:38.46	146.73	13.39	-41.5	-45.2	12.6	1.17e-03	0	58	0	123731968	53	5906
2026-01-21 09:35:39.47	146.70	13.49	-41.4	-45.1	12.2	3.20e-04	0	58	0	125829120	53	5838
2026-01-21 09:35:40.48	146.66	13.60	-41.4	-45.1	12.7	9.04e-04	0	58	0	127926272	53	5816
2026-01-21 09:35:41.49	146.63	13.70	-41.5	-45.2	12.7	3.71e-03	0	58	0	130023424	53	5858
2026-01-21 09:35:42.50	146.59	13.80	-41.5	-45.2	12.7	2.18e-04	0	58	0	131072000	53	5860
2026-01-21 09:35:43.51	146.56	13.90	-41.6	-45.4	12.5	3.47e-04	0	58	0	133169152	53	6036
2026-01-21 09:35:44.52	146.52	14.00	-41.6	-45.5	12.4	1.04e-03	0	58	0	135266304	53	6068
2026-01-21 09:35:45.52	146.49	14.10	-41.6	-45.5	12.4	3.81e-04	0	58	0	137363456	53	6099
2026-01-21 09:35:46.53	146.45	14.21	-41.1	-45.5	12.1	5.69e-04	0	58	0	139460608	53	6075
2026-01-21 09:35:47.54	146.42	14.31	-41.6	-45.5	12.4	1.72e-04	0	58	0	140509184	54	5785
2026-01-21 09:35:48.55	146.38	14.41	-41.3	-45.4	12.3	1.62e-04	0	58	0	142606336	53	6036
2026-01-21 09:35:49.56	146.35	14.52	-40.2	-45.4	12.3	4.00e-04	0	59	0	144703488	53	6023
2026-01-21 09:35:50.57	146.31	14.62	-41.6	-45.3	12.6	3.45e-03	0	58	0	146800640	53	5986
2026-01-21 09:35:51.58	146.27	14.73	-41.6	-45.3	12.6	1.38e-04	0	58	0	148897792	53	5976
2026-01-21 09:35:52.59	146.24	14.84	-41.7	-45.5	12.5	1.12e-03	0	58	0	149946368	53	6064
2026-01-21 09:35:53.60	146.20	14.94	-41.6	-45.3	12.5	1.67e-04	0	59	0	152043520	53	5965
2026-01-21 09:35:54.61	146.16	15.05	-41.6	-45.4	12.6	1.23e-04	0	59	0	154140672	53	6027
2026-01-21 09:35:55.61	146.12	15.15	-41.6	-45.4	12.5	1.73e-04	0	58	0	156237824	53	6036
2026-01-21 09:35:56.62	146.08	15.26	-41.6	-45.5	12.3	1.32e-02	0	59	0	158334976	53	6079
2026-01-21 09:35:57.63	146.05	15.37	-41.6	-45.3	12.7	3.65e-04	0	59	0	159383552	53	5951
2026-01-21 09:35:58.64	146.01	15.48	-41.6	-45.3	12.7	1.46e-04	0	59	0	161480704	53	5973
2026-01-21 09:35:59.65	145.97	15.59	-41.6	-45.4	12.4	8.31e-04	0	58	0	163577856	53	6013
2026-01-21 09:36:00.66	145.93	15.70	-41.6	-45.3	12.6	2.25e-03	0	59	0	165675008	53	5971
2026-01-21 09:36:01.67	145.89	15.81	-41.4	-45.2	12.7	1.08e-03	0	59	0	167772160	53	5920
2026-01-21 09:36:02.68	145.85	15.92	-41.5	-45.3	12.7	3.55e-04	0	59	0	169869312	53	5946
2026-01-21 09:36:03.69	145.81	16.03	-41.5	-45.2	12.8	1.57e-04	0	58	0	170917888	53	5915
2026-01-21 09:36:04.70	145.77	16.14	-40.7	-45.2	11.9	1.33e-03	0	59	0	173015040	53	5874
2026-01-21 09:36:05.71	145.73	16.25	-41.5	-45.2	12.8	4.65e-04	0	59	0	175112192	53	5879
2026-01-21 09:36:06.72	145.69	16.36	-41.0	-45.1	12.6	1.50e-04	0	59	0	177209344	53	5792
2026-01-21 09:36:07.72	145.64	16.48	-41.5	-45.1	12.8	1.36e-04	0	59	0	179306496	53	5850
2026-01-21 09:36:08.73	145.60	16.59	-41.6	-45.2	12.8	9.08e-04	0	59	0	180355072	53	5907
2026-01-21 09:36:09.74	145.56	16.70	-41.5	-45.1	12.5	1.02e-03	0	59	0	182452224	53	5828
2026-01-21 09:36:10.75	145.52	16.82	-41.4	-45.1	12.6	4.64e-04	0	59	0	184549376	53	5833
2026-01-21 09:36:11.76	145.47	16.93	-41.6	-45.2	12.7	4.11e-04	0	59	0	186646528	53	5923
2026-01-21 09:36:12.77	145.43	17.05	-41.6	-45.2	12.7	5.21e-04	0	59	0	188743680	53	5922
2026-01-21 09:36:13.78	145.39	17.17	-41.6	-45.2	12.8	9.53e-05	0	59	0	189792256	53	5888
2026-01-21 09:36:14.79	145.34	17.28	-41.6	-45.2	12.8	9.46e-05	0	59	0	191889408	53	5913
2026-01-21 09:36:15.80	145.30	17.40	-41.4	-45.1	12.7	1.67e-03	0	59	0	193986560	53	5818
2026-01-21 09:36:16.81	145.25	17.52	-41.5	-45.1	13.0	4.45e-04	0	59	0	196083712	53	5798
2026-01-21 09:36:17.82	145.21	17.63	-41.5	-45.1	12.9	6.79e-05	0	59	0	198180864	53	5849
2026-01-21 09:36:18.83	145.16	17.75	-41.6	-45.2	12.9	4.80e-05	0	59	0	199229440	53	5923
2026-01-21 09:36:19.84	145.12	17.87	-41.3	-45.2	12.9	4.80e-05	0	59	0	201326592	53	5881
2026-01-21 09:36:20.85	145.07	17.99	-41.6	-45.2	13.0	4.03e-04	0	59	0	203423744	53	5869
2026-01-21 09:36:21.86	145.02	18.11	-41.6	-45.3	12.9	7.17e-05	0	59	0	205520896	53	5929
2026-01-21 09:36:22.86	144.98	18.23	-41.6	-45.2	13.0	9.07e-05	0	59	0	207618048	53	5884
2026-01-21 09:36:23.87	144.93	18.35	-41.5	-45.1	13.1	5.56e-05	0	59	0	208666624	53	5795
2026-01-21 09:36:24.89	144.88	18.48	-41.5	-45.0	13.1	2.28e-05	0	59	0	210763776	53	5785
2026-01-21 09:36:25.89	144.83	18.60	-41.5	-45.0	13.1	6.10e-05	0	59	0	212860928	53	5774
2026-01-21 09:36:26.90	144.79	18.72	-41.6	-45.1	13.1	2.28e-05	0	59	0	214958080	53	5819
2026-01-21 09:36:27.91	144.74	18.85	-41.5	-44.9	13.3	2.67e-05	0	59	0	217055232	53	5690
2026-01-21 09:36:28.92	144.69	18.97	-41.5	-44.9	13.3	2.05e-05	0	59	0	218103808	53	5685
2026-01-21 09:36:29.93	144.64	19.10	-41.5	-44.9	13.3	4.80e-05	0	59	0	220200960	53	5701
2026-01-21 09:36:30.94	144.59	19.22	-41.3	-44.9	13.3	1.67e-05	0	59	0	222298112	53	5686
2026-01-21 09:36:31.95	144.54	19.35	-41.5	-45.0	13.2	1.90e-05	0	59	0	224395264	53	5723
2026-01-21 09:36:32.96	144.48	19.48	-41.5	-44.9	13.3	2.05e-05	0	59	0	226492416	53	5695
2026-01-21 09:36:33.97	144.43	19.60	-41.5	-44.9	13.3	2.89e-05	0	59	0	227540992	53	5703
2026-01-21 09:36:34.98	144.38	19.73	-41.5	-45.0	13.3	1.29e-05	0	59	0	229638144	53	5745
2026-01-21 09:36:35.99	144.33	19.86	-41.6	-45.1	13.2	1.98e-05	0	59	0	231735296	53	5802
2026-01-21 09:36:37.00	144.27	19.99	-41.6	-45.1	13.2	1.98e-05	0	59	0	233832448	53	5808
2026-01-21 09:36:38.01	144.22	20.12	-41.6	-45.2	13.1	2.13e-05	0	59	0	235929600	53	5866
2026-01-21 09:36:39.02	144.17	20.25	-41.6	-45.1	13.2	3.50e-05	0	59	0	238026752	53	5827
2026-01-21 09:36:40.03	144.11	20.38	-41.6	-45.2	13.1	2.97e-05	0	59	0	239075328	53	5857
2026-01-21 09:36:41.03	144.06	20.51	-41.6	-45.1	13.2	2.05e-05	0	59	0	241172480	53	5807
2026-01-21 09:36:42.04	144.00	20.65	-41.5	-44.9	13.4	1.90e-05	0	59	0	243269632	53	5666
2026-01-21 09:36:43.05	143.95	20.78	-41.5	-44.8	13.5	9.90e-06	0	59	0	245366784	53	5645
2026-01-21 09:36:44.06	143.89	20.92	-41.4	-44.8	13.6	1.06e-05	0	59	0	247463936	53	5593
2026-01-21 09:36:45.07	143.83	21.05	-41.4	-44.7	13.6	6.10e-06	0	59	0	248512512	53	5578
2026-01-21 09:36:46.08	143.77	21.19	-41.4	-44.7	13.6	6.80e-06	0	59	0	250609664	53	5540
2026-01-21 09:36:47.09	143.72	21.32	-41.4	-44.7	13.6	3.80e-06	0	59	0	252706816	53	5540
2026-01-21 09:36:48.10	143.66	21.46	-41.4	-44.7	13.6	7.60e-06	0	59	0	254803968	53	5557
2026-01-21 09:36:49.11	143.60	21.60	-41.4	-44.7	13.6	7.60e-06	0	59	0	256901120	53	5576
2026-01-21 09:36:50.12	143.54	21.74	-41.4	-44.7	13.6	7.60e-06	0	59	0	257949696	53	5577
2026-01-21 09:36:51.12	143.48	21.87	-41.4	-44.7	13.6	3.00e-06	0	59	0	260046848	53	5571
2026-01-21 09:36:52.13	143.42	22.01	-41.5	-44.8	13.6	1.22e-05	0	59	0	262144000	53	5600
2026-01-21 09:36:53.14	143.36	22.15	-41.5	-44.8	13.6	6.10e-06	0	59	0	264241152	53	5604
2026-01-21 09:36:54.15	143.29	22.30	-41.5	-44.8	13.5	8.30e-06	0	59	0	266338304	53	5642
2026-01-21 09:36:55.16	143.23	22.44	-41.6	-44.9	13.4	1.75e-05	0	59	0	267386880	53	5708
2026-01-21 09:36:56.17	143.17	22.58	-41.5	-44.9	13.4	9.90e-06	0	59	0	269484032	53	5693
2026-01-21 09:36:57.18	143.10	22.72	-41.6	-45.0	13.3	2.28e-05	0	59	0	271581184	53	5776
2026-01-21 09:36:58.19	143.04	22.87	-41.6	-45.1	13.3	1.37e-05	0	59	0	273678336	53	5822
2026-01-21 09:36:59.20	142.98	23.01	-41.7	-45.2	13.2	1.90e-05	0	59	0	275775488	53	5857
2026-01-21 09:37:00.21	142.91	23.16	-41.8	-45.3	13.1	1.83e-05	0	59	0	276824064	54	5636
2026-01-21 09:37:01.22	142.84	23.31	-41.8	-45.3	13.1	4.19e-05	0	59	0	278921216	54	5630
2026-01-21 09:37:02.23	142.78	23.45	-41.8	-45.4	13.0	3.81e-05	0	59	0	281018368	54	5674
2026-01-21 09:37:03.24	142.71	23.60	-41.9	-45.5	12.9	4.11e-05	0	59	0	283115520	54	5744
2026-01-21 09:37:04.25	142.64	23.75	-41.9	-45.4	12.9	6.10e-05	0	59	0	285212672	54	5722
2026-01-21 09:37:05.26	142.57	23.90	-41.8	-45.3	13.1	4.80e-05	0	59	0	286261248	54	5654
2026-01-21 09:37:06.27	142.50	24.05	-41.8	-45.4	13.0	3.89e-05	0	60	0	288358400	54	5687
2026-01-21 09:37:07.28	142.43	24.20	-41.9	-45.4	12.9	4.27e-05	0	59	0	290455552	54	5721
2026-01-21 09:37:08.29	142.36	24.36	-42.0	-45.7	12.7	3.96e-05	0	59	0	292552704	54	5867
2026-01-21 09:37:09.30	142.29	24.51	-42.0	-45.7	12.7	6.48e-05	0	59	0	294649856	54	5884
2026-01-21 09:37:10.31	142.22	24.66	-42.0	-45.8	12.6	6.79e-05	0	59	0	295698432	54	5949
2026-01-21 09:37:11.32	142.14	24.82	-42.1	-45.9	12.5	1.19e-04	0	59	0	297795584	54	6050
2026-01-21 09:37:12.33	142.07	24.97	-42.2	-46.0	12.4	1.76e-04	0	59	0	299892736	54	6122
2026-01-21 09:37:13.34	141.99	25.13	-42.2	-46.1	12.3	1.52e-04	0	59	0	301989888	54	6166
2026-01-21 09:37:14.35	141.92	25.29	-42.2	-46.1	12.3	2.13e-04	0	59	0	304087040	55	5791
2026-01-21 09:37:15.36	141.84	25.45	-42.2	-46.1	12.3	1.62e-04	0	60	0	306184192	55	5822
2026-01-21 09:37:16.36	141.76	25.61	-42.2	-46.0	12.3	1.65e-04	0	60	0	307232768	55	5780
2026-01-21 09:37:17.37	141.69	25.77	-42.2	-46.1	12.3	1.43e-04	0	59	0	309329920	55	5806
2026-01-21 09:37:18.38	141.61	25.93	-42.3	-46.2	12.2	1.54e-04	0	60	0	311427072	55	5869
2026-01-21 09:37:19.39	141.53	26.09	-42.3	-46.3	12.1	2.66e-04	0	59	0	313524224	55	5952
2026-01-21 09:37:20.40	141.45	26.25	-42.4	-46.5	11.9	3.13e-04	0	59	0	315621376	55	6098
2026-01-21 09:37:21.41	141.37	26.42	-42.5	-46.8	11.7	4.81e-04	0	59	0	316669952	55	6278
2026-01-21 09:37:22.41	141.28	26.58	-42.6	-47.0	11.4	7.87e-04	0	59	0	318767104	55	6444
2026-01-21 09:37:23.43	141.20	26.75	-42.7	-47.1	11.3	1.05e-03	0	59	0	320864256	55	6544
2026-01-21 09:37:24.44	141.12	26.91	-42.9	-47.3	11.2	1.20e-03	0	59	0	322961408	56	6345
2026-01-21 09:37:25.44	141.03	27.08	-42.9	-47.4	11.1	1.56e-03	0	60	0	324009984	56	6404
2026-01-21 09:37:26.45	140.95	27.25	-43.0	-47.6	11.0	1.95e-03	0	60	0	326107136	56	6516
2026-01-21 09:37:27.46	140.86	27.42	-43.0	-47.7	10.9	1.98e-03	0	60	0	328204288	56	6572
2026-01-21 09:37:28.47	140.77	27.59	-43.1	-47.9	10.6	2.48e-03	0	59	0	330301440	56	6776
2026-01-21 09:37:29.48	140.68	27.76	-43.2	-47.9	10.6	3.02e-03	0	60	0	332398592	56	6795
2026-01-21 09:37:30.49	140.59	27.93	-43.2	-48.0	10.5	3.87e-03	0	59	0	334495744	56	6868
2026-01-21 09:37:31.50	140.50	28.11	-43.2	-48.1	10.4	4.40e-03	0	60	0	335544320	57	6535
2026-01-21 09:37:32.51	140.41	28.28	-43.3	-48.2	10.3	5.09e-03	0	60	0	337641472	57	6613
2026-01-21 09:37:33.52	140.32	28.46	-43.2	-48.2	10.4	4.68e-03	0	59	0	339738624	57	6588
2026-01-21 09:37:34.53	140.22	28.63	-43.3	-48.2	10.3	5.61e-03	0	60	0	341835776	57	6630
2026-01-21 09:37:35.54	140.13	28.81	-43.3	-48.2	10.3	5.41e-03	0	60	0	343932928	57	6618
2026-01-21 09:37:36.55	140.03	28.99	-43.4	-48.5	10.1	5.62e-03	0	60	0	344981504	57	6808
2026-01-21 09:37:37.56	139.94	29.17	-43.4	-48.4	10.1	5.87e-03	0	60	0	347078656	57	6784
2026-01-21 09:37:38.57	139.84	29.35	-43.4	-48.6	10.0	7.04e-03	0	60	0	349175808	57	6885
2026-01-21 09:37:39.58	139.74	29.53	-43.5	-48.8	9.8	9.91e-03	0	60	0	351272960	57	7071
2026-01-21 09:37:40.59	139.64	29.72	-43.5	-48.8	9.8	1.07e-02	0	60	0	353370112	57	7087
2026-01-21 09:37:41.60	139.54	29.90	-43.6	-49.1	9.5	1.27e-02	0	60	0	354418688	57	7305
2026-01-21 09:37:42.61	139.43	30.09	-43.6	-49.2	9.3	1.58e-02	0	60	0	356515840	57	7430
2026-01-21 09:37:43.61	139.33	30.27	-43.6	-49.1	9.5	1.52e-02	0	60	0	358612992	57	7291
2026-01-21 09:37:44.62	139.23	30.46	-43.6	-49.1	9.4	1.56e-02	0	60	0	360710144	57	7299
2026-01-21 09:37:45.63	139.12	30.65	-43.6	-49.1	9.4	1.45e-02	0	60	0	362807296	57	7329
2026-01-21 09:37:46.64	139.01	30.84	-43.6	-49.0	9.6	1.39e-02	0	60	0	363855872	57	7221
2026-01-21 09:37:47.65	138.90	31.03	-43.6	-49.0	9.6	1.47e-02	0	60	0	365953024	57	7236
2026-01-21 09:37:48.66	138.79	31.22	-43.6	-49.1	9.5	1.22e-02	0	60	0	368050176	57	7290
2026-01-21 09:37:49.67	138.68	31.41	-43.6	-49.1	9.5	1.50e-02	0	60	0	370147328	57	7309
2026-01-21 09:37:50.68	138.57	31.61	-43.6	-49.1	9.5	1.73e-02	0	60	0	372244480	57	7341
2026-01-21 09:37:51.69	138.45	31.80	-43.7	-49.3	9.2	1.82e-02	0	60	0	373293056	57	7532
2026-01-21 09:37:52.70	138.34	32.00	-43.8	-49.7	8.9	2.32e-02	0	60	0	375390208	58	7387
2026-01-21 09:37:53.71	138.22	32.20	-43.8	-49.7	8.9	2.73e-02	0	60	0	377487360	58	7410
2026-01-21 09:37:54.72	138.10	32.39	-43.8	-49.8	8.8	2.96e-02	0	60	0	379584512	58	7462
2026-01-21 09:37:55.73	137.98	32.59	-43.8	-49.5	9.1	2.73e-02	0	60	0	381681664	58	7228
2026-01-21 09:37:56.74	137.86	32.80	-43.8	-49.5	9.1	2.58e-02	0	60	0	382730240	58	7250
2026-01-21 09:37:57.75	137.73	33.00	-43.7	-49.3	9.3	1.89e-02	0	60	0	384827392	58	7105
2026-01-21 09:37:58.76	137.61	33.20	-43.7	-49.3	9.3	1.63e-02	0	60	0	386924544	58	7088
2026-01-21 09:37:59.77	137.48	33.41	-43.7	-49.4	9.2	1.87e-02	0	60	0	389021696	58	7171
2026-01-21 09:38:00.77	137.35	33.61	-43.8	-49.5	9.1	2.08e-02	0	60	0	391118848	58	7251
2026-01-21 09:38:01.79	137.22	33.82	-43.8	-49.6	9.0	2.44e-02	0	60	0	392167424	58	7336
2026-01-21 09:38:02.79	137.09	34.03	-43.8	-49.6	9.0	2.46e-02	0	60	0	394264576	58	7345
2026-01-21 09:38:03.80	136.96	34.24	-43.8	-49.4	9.2	1.75e-02	0	60	0	396361728	58	7168
2026-01-21 09:38:04.81	136.82	34.45	-43.8	-49.5	9.2	1.96e-02	0	60	0	398458880	58	7224
2026-01-21 09:38:05.82	136.69	34.66	-43.7	-49.3	9.3	2.16e-02	0	60	0	400556032	58	7095
2026-01-21 09:38:06.83	136.55	34.87	-43.9	-49.7	8.9	2.30e-02	0	60	0	402653184	58	7414
2026-01-21 09:38:07.84	136.41	35.09	-43.9	-49.8	8.8	3.05e-02	0	59	0	403701760	58	7504
2026-01-21 09:38:08.85	136.26	35.30	-44.0	-50.0	8.7	3.24e-02	0	60	0	405798912	58	7639
2026-01-21 09:38:09.86	136.12	35.52	-44.0	-50.1	8.4	4.22e-02	0	60	0	407896064	58	7805
2026-01-21 09:38:10.86	135.97	35.74	-44.0	-50.1	8.6	4.04e-02	0	60	0	409993216	58	7723
2026-01-21 09:38:11.87	135.83	35.96	-44.0	-50.0	8.6	3.87e-02	0	60	0	412090368	58	7659
2026-01-21 09:38:12.88	135.67	36.18	-43.9	-49.9	8.7	3.66e-02	0	60	0	413138944	58	7600
2026-01-21 09:38:13.89	135.52	36.40	-43.9	-49.9	8.8	3.05e-02	0	60	0	415236096	58	7561
2026-01-21 09:38:14.90	135.37	36.62	-43.9	-49.7	9.0	2.89e-02	0	60	0	417333248	58	7380
2026-01-21 09:38:15.91	135.21	36.85	-43.9	-49.7	9.0	2.60e-02	0	60	0	419430400	58	7378
2026-01-21 09:38:16.92	135.05	37.08	-43.8	-49.5	9.1	2.48e-02	0	60	0	421527552	58	7262
2026-01-21 09:38:17.93	134.89	37.30	-43.7	-49.1	9.5	1.48e-02	0	60	0	422576128	58	6932
2026-01-21 09:38:18.94	134.73	37.53	-43.7	-49.1	9.5	1.34e-02	0	60	0	424673280	58	6918
2026-01-21 09:38:19.95	134.56	37.76	-43.6	-48.9	9.8	9.72e-03	0	60	0	426770432	58	6737
2026-01-21 09:38:20.96	134.39	37.99	-43.5	-48.6	10.0	8.30e-03	0	60	0	428867584	58	6562
2026-01-21 09:38:21.97	134.22	38.23	-43.5	-48.5	10.2	6.75e-03	0	60	0	430964736	58	6467
2026-01-21 09:38:22.98	134.05	38.46	-43.5	-48.7	10.0	6.56e-03	0	60	0	432013312	58	6596
2026-01-21 09:38:23.99	133.87	38.70	-43.6	-48.8	9.8	8.86e-03	0	60	0	434110464	58	6718
2026-01-21 09:38:25.00	133.69	38.93	-43.7	-49.0	9.7	9.96e-03	0	60	0	436207616	58	6855
2026-01-21 09:38:26.01	133.51	39.17	-43.6	-48.8	9.9	9.81e-03	0	60	0	438304768	58	6653
2026-01-21 09:38:27.02	133.33	39.41	-43.4	-48.4	10.3	6.98e-03	0	60	0	440401920	58	6367
2026-01-21 09:38:28.02	133.14	39.65	-43.4	-48.2	10.5	4.17e-03	0	60	0	441450496	58	6242
2026-01-21 09:38:29.03	132.95	39.89	-43.2	-47.8	11.0	2.29e-03	0	60	0	443547648	58	5959
2026-01-21 09:38:30.04	132.76	40.13	-43.2	-47.8	11.0	1.82e-03	0	60	0	445644800	58	5979
2026-01-21 09:38:31.05	132.56	40.38	-43.1	-47.6	11.1	1.58e-03	0	60	0	447741952	58	5842
2026-01-21 09:38:32.06	132.36	40.62	-43.2	-47.7	11.1	1.49e-03	0	60	0	449839104	58	5906
2026-01-21 09:38:33.07	132.16	40.87	-43.2	-47.8	11.0	2.10e-03	0	60	0	450887680	58	5960
2026-01-21 09:38:34.08	131.96	41.12	-43.3	-47.9	10.8	2.55e-03	0	60	0	452984832	58	6052
2026-01-21 09:38:35.09	131.75	41.37	-43.4	-48.4	10.4	3.28e-03	0	60	0	455081984	58	6348
2026-01-21 09:38:36.10	131.54	41.62	-43.5	-48.5	10.3	5.60e-03	0	60	0	457179136	58	6431
2026-01-21 09:38:37.11	131.32	41.87	-43.5	-48.6	10.1	6.52e-03	0	60	0	459276288	58	6539
2026-01-21 09:38:38.12	131.11	42.13	-43.5	-48.5	10.3	5.80e-03	0	60	0	460324864	58	6422
2026-01-21 09:38:39.13	130.88	42.38	-43.4	-48.3	10.5	4.61e-03	0	60	0	462422016	58	6301
2026-01-21 09:38:40.14	130.66	42.64	-43.4	-48.4	10.3	4.66e-03	0	60	0	464519168	58	6406
2026-01-21 09:38:41.15	130.43	42.89	-43.4	-48.2	10.6	4.39e-03	0	60	0	466616320	58	6224
2026-01-21 09:38:42.16	130.20	43.15	-43.4	-48.3	10.5	4.02e-03	0	60	0	468713472	58	6291
2026-01-21 09:38:43.17	129.96	43.41	-43.3	-47.9	10.8	3.37e-03	0	60	0	470810624	58	6033
2026-01-21 09:38:44.18	129.72	43.67	-43.3	-48.0	10.8	2.82e-03	0	60	0	471859200	58	6087
2026-01-21 09:38:45.18	129.48	43.93	-43.3	-47.9	10.8	2.59e-03	0	60	0	473956352	58	6057
2026-01-21 09:38:46.19	129.23	44.20	-43.2	-47.8	10.9	2.34e-03	0	60	0	476053504	58	5991
2026-01-21 09:38:47.20	128.98	44.46	-43.2	-47.8	11.1	2.17e-03	0	60	0	478150656	58	5940
2026-01-21 09:38:48.21	128.72	44.73	-43.1	-47.6	11.3	1.76e-03	0	60	0	480247808	58	5799
2026-01-21 09:38:49.22	128.46	44.99	-43.0	-47.4	11.5	9.92e-04	0	60	0	481296384	58	5665
2026-01-21 09:38:50.23	128.20	45.26	-42.9	-47.0	11.8	5.07e-04	0	60	0	483393536	57	5761
2026-01-21 09:38:51.24	127.93	45.53	-42.8	-47.0	11.9	3.55e-04	0	60	0	485490688	57	5728
2026-01-21 09:38:52.25	127.65	45.80	-42.8	-46.8	12.1	3.90e-04	0	60	0	487587840	57	5614
2026-01-21 09:38:53.26	127.37	46.07	-42.7	-46.7	12.1	3.13e-04	0	60	0	489684992	57	5579
2026-01-21 09:38:54.27	127.09	46.34	-42.8	-46.9	11.9	3.49e-04	0	60	0	490733568	57	5703
2026-01-21 09:38:55.28	126.80	46.62	-43.0	-47.4	11.4	5.42e-04	0	60	0	492830720	57	5993
2026-01-21 09:38:56.29	126.50	46.89	-43.1	-47.6	11.1	1.32e-03	0	60	0	494927872	57	6161
2026-01-21 09:38:57.30	126.20	47.16	-43.1	-47.6	11.2	1.62e-03	0	60	0	497025024	57	6153
2026-01-21 09:38:58.31	125.90	47.44	-43.1	-47.6	11.1	1.58e-03	0	60	0	499122176	57	6184
2026-01-21 09:38:59.32	125.59	47.72	-43.1	-47.6	11.2	1.34e-03	0	60	0	500170752	57	6140
2026-01-21 09:39:00.33	125.27	47.99	-43.1	-47.6	11.2	1.38e-03	0	60	0	502267904	57	6152
2026-01-21 09:39:01.34	124.95	48.27	-43.1	-47.5	11.2	1.48e-03	0	60	0	504365056	57	6126
2026-01-21 09:39:02.35	124.62	48.55	-43.0	-47.4	11.3	1.22e-03	0	60	0	506462208	57	6043
2026-01-21 09:39:03.35	124.29	48.83	-43.0	-47.2	11.6	8.53e-04	0	60	0	508559360	57	5886
2026-01-21 09:39:04.36	123.95	49.11	-42.9	-47.1	11.7	6.41e-04	0	60	0	509607936	57	5854
2026-01-21 09:39:05.37	123.60	49.39	-42.8	-46.9	11.9	4.79e-04	0	60	0	511705088	57	5660
2026-01-21 09:39:06.38	123.25	49.67	-42.7	-46.7	12.1	2.60e-04	0	60	0	513802240	57	5558
2026-01-21 09:39:07.39	122.89	49.96	-42.7	-46.6	12.2	2.54e-04	0	60	0	515899392	57	5501
2026-01-21 09:39:08.40	122.52	50.24	-42.6	-46.4	12.4	1.75e-04	0	60	0	517996544	57	5343
2026-01-21 09:39:09.41	122.15	50.52	-42.6	-46.5	12.3	1.56e-04	0	60	0	519045120	57	5411
2026-01-21 09:39:10.42	121.77	50.81	-42.7	-46.7	12.1	1.99e-04	0	60	0	521142272	57	5546
2026-01-21 09:39:11.43	121.38	51.09	-42.7	-46.7	12.1	2.79e-04	0	60	0	523239424	57	5563
2026-01-21 09:39:12.44	120.98	51.37	-42.8	-46.8	11.9	3.26e-04	0	60	0	525336576	57	5632
2026-01-21 09:39:13.45	120.58	51.66	-42.7	-46.6	12.2	3.59e-04	0	60	0	527433728	57	5517
2026-01-21 09:39:14.46	120.17	51.94	-42.5	-46.2	12.6	1.91e-04	0	60	0	528482304	57	5267
2026-01-21 09:39:15.47	119.75	52.23	-42.2	-45.7	13.1	5.34e-05	0	60	0	530579456	56	5244
2026-01-21 09:39:16.48	119.32	52.51	-42.2	-45.7	13.1	3.50e-05	0	60	0	532676608	56	5263
2026-01-21 09:39:17.49	118.89	52.80	-42.3	-45.8	13.1	3.89e-05	0	60	0	534773760	56	5311
2026-01-21 09:39:18.50	118.44	53.08	-42.1	-45.6	13.3	2.51e-05	0	60	0	536870912	56	5167
2026-01-21 09:39:19.51	117.99	53.37	-42.1	-45.5	13.3	1.44e-05	0	60	0	538968064	56	5144
2026-01-21 09:39:20.52	117.53	53.65	-42.3	-45.8	13.0	1.44e-05	0	60	0	540016640	56	5301
2026-01-21 09:39:21.53	117.06	53.94	-42.3	-46.0	12.9	2.82e-05	0	60	0	542113792	56	5403
2026-01-21 09:39:22.54	116.58	54.22	-42.4	-46.1	12.8	6.25e-05	0	60	0	544210944	56	5481
2026-01-21 09:39:23.55	116.09	54.51	-42.5	-46.3	12.5	9.07e-05	0	60	0	546308096	56	5612
2026-01-21 09:39:24.56	115.59	54.79	-42.6	-46.5	12.3	1.53e-04	0	60	0	548405248	56	5766
2026-01-21 09:39:25.56	115.08	55.07	-42.6	-46.4	12.4	2.00e-04	0	60	0	549453824	56	5706
2026-01-21 09:39:26.58	114.56	55.35	-42.5	-46.3	12.5	1.18e-04	0	60	0	551550976	56	5622
2026-01-21 09:39:27.59	114.03	55.63	-42.6	-46.5	12.3	1.34e-04	0	60	0	553648128	56	5748
2026-01-21 09:39:28.60	113.49	55.91	-42.8	-46.8	11.9	2.55e-04	0	60	0	555745280	56	5983
2026-01-21 09:39:29.60	112.94	56.18	-42.7	-46.7	12.0	2.85e-04	0	60	0	557842432	56	5875
2026-01-21 09:39:30.61	112.38	56.46	-42.7	-46.7	12.1	3.23e-04	0	60	0	558891008	56	5904
2026-01-21 09:39:31.62	111.80	56.74	-42.9	-47.0	11.8	3.75e-04	0	60	0	560988160	56	6071
2026-01-21 09:39:32.63	111.22	57.01	-43.1	-47.5	11.2	1.07e-03	0	60	0	563085312	56	6490
2026-01-21 09:39:33.64	110.62	57.28	-43.1	-47.6	11.2	1.59e-03	0	60	0	565182464	56	6532
2026-01-21 09:39:34.65	110.01	57.55	-43.3	-48.0	10.8	1.64e-03	0	60	0	567279616	57	6459
2026-01-21 09:39:35.66	109.39	57.82	-43.6	-48.7	10.0	5.46e-03	0	60	0	568328192	57	6965
2026-01-21 09:39:36.67	108.75	58.09	-43.6	-48.8	9.8	9.32e-03	0	60	0	570425344	57	7116
2026-01-21 09:39:37.68	108.10	58.35	-43.6	-48.8	9.9	9.44e-03	0	60	0	572522496	57	7068
2026-01-21 09:39:38.69	107.44	58.61	-43.5	-48.5	10.2	6.02e-03	0	60	0	574619648	57	6841
2026-01-21 09:39:39.69	106.77	58.87	-43.4	-48.3	10.4	6.07e-03	0	60	0	576716800	57	6662
2026-01-21 09:39:40.70	106.09	59.13	-43.3	-48.0	10.7	3.92e-03	0	60	0	577765376	57	6465
2026-01-21 09:39:41.71	105.39	59.38	-43.0	-47.3	11.5	1.11e-03	0	60	0	579862528	57	5944
2026-01-21 09:39:42.72	104.67	59.63	-42.8	-46.9	11.9	3.64e-04	0	60	0	581959680	57	5685
2026-01-21 09:39:43.73	103.94	59.88	-42.7	-46.6	12.2	2.04e-04	0	60	0	584056832	57	5506
2026-01-21 09:39:44.74	103.20	60.12	-42.8	-46.9	12.0	3.23e-04	0	60	0	586153984	57	5659
2026-01-21 09:39:45.75	102.45	60.37	-42.8	-46.7	12.1	2.68e-04	0	60	0	587202560	57	5588
2026-01-21 09:39:46.76	101.67	60.60	-42.6	-46.5	12.2	2.32e-04	0	60	0	589299712	57	5446
2026-01-21 09:39:47.77	100.89	60.84	-42.6	-46.4	12.4	1.67e-04	0	60	0	591396864	57	5367
2026-01-21 09:39:48.78	100.09	61.07	-42.4	-46.0	12.9	7.78e-05	0	60	0	593494016	56	5427
2026-01-21 09:39:49.79	99.28	61.29	-42.1	-45.4	13.5	1.75e-05	0	60	0	595591168	56	5097
2026-01-21 09:39:50.80	98.45	61.51	-41.7	-44.9	13.8	9.10e-06	0	60	0	596639744	55	5085
2026-01-21 09:39:51.81	97.60	61.73	-41.6	-44.7	14.1	3.80e-06	0	60	0	598736896	55	4935
2026-01-21 09:39:52.82	96.74	61.94	-41.5	-44.6	14.1	2.20e-06	0	60	0	600834048	55	4886
2026-01-21 09:39:53.83	95.87	62.15	-41.3	-44.2	14.5	7.00e-07	0	60	0	602931200	54	4950
2026-01-21 09:39:54.84	94.98	62.35	-41.2	-44.0	14.8	0.00e+00	0	60	0	605028352	54	4851
2026-01-21 09:39:55.84	94.09	62.54	-41.2	-43.9	14.8	0.00e+00	0	60	0	606076928	54	4810
2026-01-21 09:39:56.85	93.17	62.73	-41.2	-44.0	14.8	0.00e+00	0	60	0	608174080	54	4818
2026-01-21 09:39:57.86	92.24	62.92	-41.2	-44.0	14.8	0.00e+00	0	60	0	610271232	54	4821
2026-01-21 09:39:58.87	91.29	63.10	-41.1	-43.9	14.9	0.00e+00	0	60	0	612368384	54	4776
2026-01-21 09:39:59.88	90.33	63.27	-41.2	-44.0	14.8	7.00e-07	0	60	0	614465536	54	4863
2026-01-21 09:40:00.89	89.36	63.43	-41.4	-44.4	14.4	1.50e-06	0	60	0	615514112	54	5048
2026-01-21 09:40:01.90	88.37	63.59	-41.6	-44.7	14.1	7.00e-07	0	60	0	617611264	54	5226
2026-01-21 09:40:02.91	87.37	63.75	-41.8	-45.0	13.7	6.80e-06	0	60	0	619708416	54	5458
2026-01-21 09:40:03.92	86.35	63.89	-41.8	-45.1	13.6	1.50e-06	0	60	0	621805568	54	5505
2026-01-21 09:40:04.93	85.33	64.03	-41.8	-45.0	13.7	6.80e-06	0	60	0	623902720	54	5453
2026-01-21 09:40:05.94	84.29	64.16	-41.8	-45.1	13.7	5.30e-06	0	60	0	624951296	54	5496
2026-01-21 09:40:06.95	83.24	64.29	-41.6	-44.8	14.0	3.80e-06	0	60	0	627048448	54	5284
2026-01-21 09:40:07.96	82.18	64.40	-41.6	-44.7	14.0	2.20e-06	0	61	0	629145600	54	5237
2026-01-21 09:40:08.97	81.11	64.51	-41.7	-44.8	13.9	3.00e-06	0	60	0	631242752	54	5280
2026-01-21 09:40:09.98	80.03	64.61	-41.7	-44.9	13.9	3.00e-06	0	61	0	633339904	54	5341
2026-01-21 09:40:10.99	78.94	64.70	-41.6	-44.6	14.1	3.00e-06	0	60	0	635437056	54	5216
2026-01-21 09:40:12.00	77.84	64.79	-41.6	-44.7	14.0	1.50e-06	0	60	0	636485632	54	5260
2026-01-21 09:40:13.01	76.73	64.86	-41.4	-44.4	14.3	2.20e-06	0	60	0	638582784	54	5094
2026-01-21 09:40:14.01	75.63	64.93	-41.4	-44.4	14.4	0.00e+00	0	60	0	640679936	54	5046
2026-01-21 09:40:15.03	74.50	64.99	-41.4	-44.3	14.4	1.50e-06	0	60	0	642777088	54	5027
2026-01-21 09:40:16.04	73.37	65.04	-41.5	-44.5	14.2	7.00e-07	0	61	0	644874240	54	5145
2026-01-21 09:40:17.05	72.24	65.08	-41.7	-44.9	13.8	3.00e-06	0	60	0	645922816	54	5353
2026-01-21 09:40:18.05	71.12	65.11	-41.6	-44.7	14.0	3.80e-06	0	60	0	648019968	54	5271
2026-01-21 09:40:19.06	69.98	65.14	-41.3	-44.2	14.5	0.00e+00	0	60	0	650117120	54	4976
2026-01-21 09:40:20.07	68.85	65.15	-41.1	-43.9	14.8	0.00e+00	0	60	0	652214272	54	4764
2026-01-21 09:40:21.08	67.71	65.16	-41.2	-44.1	14.6	0.00e+00	0	60	0	654311424	54	4887
2026-01-21 09:40:22.09	66.57	65.16	-41.4	-44.4	14.3	1.50e-06	0	60	0	655360000	54	5058
2026-01-21 09:40:23.10	65.43	65.14	-41.6	-44.7	14.0	3.00e-06	0	60	0	657457152	54	5232
2026-01-21 09:40:24.11	64.29	65.12	-41.7	-44.9	13.9	3.00e-06	0	60	0	659554304	54	5358
2026-01-21 09:40:25.12	63.16	65.10	-41.9	-45.2	13.4	8.30e-06	0	60	0	661651456	54	5583
2026-01-21 09:40:26.13	62.02	65.06	-42.1	-45.6	13.0	2.89e-05	0	60	0	663748608	54	5834
2026-01-21 09:40:27.14	60.90	65.01	-41.9	-45.3	13.3	2.97e-05	0	60	0	664797184	54	5638
2026-01-21 09:40:28.15	59.78	64.96	-42.1	-45.5	13.1	2.74e-05	0	61	0	666894336	54	5774
2026-01-21 09:40:29.16	58.66	64.89	-42.1	-45.5	13.1	3.81e-05	0	60	0	668991488	54	5778
2026-01-21 09:40:30.17	57.55	64.82	-42.1	-45.6	13.1	3.81e-05	0	60	0	671088640	54	5789
2026-01-21 09:40:31.18	56.45	64.74	-42.2	-45.8	12.8	4.95e-05	0	60	0	673185792	55	5606
2026-01-21 09:40:32.19	55.36	64.65	-42.1	-45.5	13.2	4.27e-05	0	60	0	674234368	55	5427
2026-01-21 09:40:33.20	54.27	64.55	-41.9	-45.2	13.5	1.83e-05	0	60	0	676331520	55	5225
2026-01-21 09:40:34.21	53.20	64.45	-41.8	-45.1	13.6	1.14e-05	0	60	0	678428672	55	5168
2026-01-21 09:40:35.22	52.13	64.33	-41.6	-44.8	13.9	9.90e-06	0	60	0	680525824	55	4999
2026-01-21 09:40:36.23	51.08	64.21	-41.5	-44.6	14.1	2.20e-06	0	60	0	682622976	55	4877
2026-01-21 09:40:37.24	50.04	64.09	-41.5	-44.5	14.2	0.00e+00	0	60	0	683671552	54	5110
2026-01-21 09:40:38.25	49.01	63.95	-41.3	-44.2	14.5	1.50e-06	0	60	0	685768704	54	4973
2026-01-21 09:40:39.25	48.00	63.81	-41.3	-44.2	14.5	0.00e+00	0	60	0	687865856	54	4981
2026-01-21 09:40:40.26	46.99	63.66	-41.2	-44.0	14.7	0.00e+00	0	60	0	689963008	54	4857
2026-01-21 09:40:41.27	46.00	63.50	-40.9	-43.5	15.1	0.00e+00	0	61	0	692060160	53	4855
2026-01-21 09:40:42.28	45.02	63.34	-40.8	-43.3	15.3	0.00e+00	0	60	0	693108736	53	4759
2026-01-21 09:40:43.29	44.06	63.17	-41.0	-43.8	14.9	0.00e+00	0	60	0	695205888	53	4986
2026-01-21 09:40:44.30	43.11	62.99	-41.3	-44.3	14.3	1.50e-06	0	61	0	697303040	53	5312
2026-01-21 09:40:45.31	42.17	62.81	-41.5	-44.5	14.1	0.00e+00	0	60	0	699400192	53	5463
2026-01-21 09:40:46.32	41.25	62.63	-41.5	-44.7	14.0	1.50e-06	0	60	0	701497344	53	5533
2026-01-21 09:40:47.33	40.34	62.43	-41.5	-44.6	14.0	1.50e-06	0	60	0	703594496	53	5487
2026-01-21 09:40:48.34	39.45	62.23	-41.8	-45.0	13.6	5.30e-06	0	60	0	704643072	54	5420
2026-01-21 09:40:49.35	38.57	62.03	-42.2	-45.8	12.8	1.52e-05	0	61	0	706740224	54	5975
2026-01-21 09:40:50.36	37.71	61.82	-42.6	-46.5	12.1	2.49e-04	0	60	0	708837376	55	6107
2026-01-21 09:40:51.37	36.86	61.61	-42.6	-46.5	12.0	3.94e-04	0	60	0	710934528	55	6097
2026-01-21 09:40:52.38	36.02	61.39	-42.5	-46.3	12.3	2.14e-04	0	61	0	713031680	55	5931
2026-01-21 09:40:53.39	35.20	61.17	-42.7	-46.7	11.8	2.68e-04	0	60	0	714080256	55	6244
2026-01-21 09:40:54.40	34.40	60.94	-43.2	-47.7	10.9	1.17e-03	0	60	0	716177408	56	6633
2026-01-21 09:40:55.41	33.61	60.71	-43.5	-48.4	10.2	3.51e-03	0	60	0	718274560	57	6736
2026-01-21 09:40:56.42	32.83	60.47	-43.6	-48.8	9.8	8.31e-03	0	60	0	720371712	57	7098
2026-01-21 09:40:57.42	32.08	60.23	-43.7	-48.9	9.7	1.23e-02	0	60	0	722468864	58	6780
2026-01-21 09:40:58.43	31.33	59.99	-43.7	-48.9	9.7	1.23e-02	0	61	0	723517440	58	6755
2026-01-21 09:40:59.44	30.60	59.75	-43.8	-49.1	9.5	1.19e-02	0	61	0	725614592	58	6938
2026-01-21 09:41:00.45	29.88	59.50	-43.8	-49.3	9.3	1.78e-02	0	60	0	727711744	58	7058
2026-01-21 09:41:01.46	29.18	59.25	-43.8	-49.3	9.3	1.76e-02	0	60	0	729808896	58	7094
2026-01-21 09:41:02.47	28.49	58.99	-44.0	-49.9	8.7	2.48e-02	0	60	0	731906048	58	7570
2026-01-21 09:41:03.48	27.81	58.73	-44.1	-50.1	8.4	4.18e-02	0	60	0	732954624	58	7741
2026-01-21 09:41:04.49	27.14	58.47	-43.9	-49.5	9.0	3.89e-02	0	61	0	735051776	58	7247
2026-01-21 09:41:05.50	26.49	58.21	-43.7	-49.2	9.4	1.88e-02	0	60	0	737148928	58	6982
2026-01-21 09:41:06.51	25.85	57.95	-43.7	-48.9	9.7	1.23e-02	0	60	0	739246080	58	6741
2026-01-21 09:41:07.52	25.22	57.68	-43.8	-49.3	9.4	1.52e-02	0	60	0	741343232	58	7050
2026-01-21 09:41:08.53	24.61	57.41	-43.8	-49.2	9.4	1.70e-02	0	60	0	742391808	58	6961
2026-01-21 09:41:09.54	24.01	57.14	-43.7	-48.9	9.7	1.25e-02	0	60	0	744488960	58	6748
2026-01-21 09:41:10.54	23.42	56.87	-43.5	-48.5	10.1	8.18e-03	0	61	0	746586112	58	6446
2026-01-21 09:41:11.55	22.85	56.60	-43.4	-48.2	10.5	6.56e-03	0	60	0	748683264	58	6209
2026-01-21 09:41:12.56	22.28	56.32	-43.0	-47.3	11.4	1.56e-03	0	60	0	750780416	57	5984
2026-01-21 09:41:13.57	21.72	56.04	-42.7	-46.6	12.1	4.51e-04	0	60	0	751828992	57	5482
2026-01-21 09:41:14.58	21.18	55.77	-42.4	-46.0	12.7	1.19e-04	0	60	0	753926144	56	5449
2026-01-21 09:41:15.59	20.64	55.49	-42.4	-46.0	12.8	6.25e-05	0	60	0	756023296	56	5404
2026-01-21 09:41:16.60	20.12	55.21	-42.5	-46.1	12.6	1.17e-04	0	60	0	758120448	56	5505
2026-01-21 09:41:17.61	19.61	54.93	-42.4	-46.1	12.6	9.23e-05	0	60	0	760217600	56	5518
2026-01-21 09:41:18.62	19.10	54.65	-42.6	-46.4	12.3	1.35e-04	0	61	0	761266176	56	5715
2026-01-21 09:41:19.63	18.61	54.36	-42.6	-46.5	12.2	2.19e-04	0	60	0	763363328	56	5767
2026-01-21 09:41:20.64	18.13	54.08	-42.6	-46.5	12.2	2.46e-04	0	60	0	765460480	56	5783
2026-01-21 09:41:21.65	17.65	53.80	-42.6	-46.4	12.2	2.26e-04	0	60	0	767557632	56	5716
2026-01-21 09:41:22.66	17.19	53.52	-42.7	-46.6	12.2	2.20e-04	0	60	0	769654784	56	5794
2026-01-21 09:41:23.67	16.73	53.23	-42.6	-46.6	12.1	2.50e-04	0	61	0	771751936	56	5832
2026-01-21 09:41:24.68	16.29	52.95	-42.9	-47.1	11.5	5.79e-04	0	60	0	772800512	56	6188
2026-01-21 09:41:25.68	15.85	52.67	-43.0	-47.3	11.3	8.46e-04	0	60	0	774897664	56	6324
2026-01-21 09:41:26.69	15.42	52.38	-43.1	-47.5	11.2	1.34e-03	0	60	0	776994816	56	6421
2026-01-21 09:41:27.69	15.01	52.10	-42.9	-47.2	11.5	1.03e-03	0	60	0	779091968	56	6205
2026-01-21 09:41:28.70	14.59	51.82	-42.8	-47.0	11.6	9.32e-04	0	61	0	781189120	56	6120
2026-01-21 09:41:29.71	14.19	51.53	-43.0	-47.3	11.4	8.25e-04	0	60	0	782237696	56	6275
2026-01-21 09:41:30.72	13.79	51.25	-43.1	-47.5	11.1	1.34e-03	0	60	0	784334848	56	6469
2026-01-21 09:41:31.73	13.40	50.97	-43.1	-47.5	11.1	1.71e-03	0	60	0	786432000	56	6486
2026-01-21 09:41:32.74	13.02	50.68	-43.3	-48.0	10.6	2.94e-03	0	60	0	788529152	57	6462
2026-01-21 09:41:33.75	12.64	50.40	-43.4	-48.3	10.3	4.42e-03	0	60	0	790626304	57	6692
2026-01-21 09:41:34.76	12.27	50.12	-43.5	-48.6	10.0	6.32e-03	0	60	0	791674880	57	6905
2026-01-21 09:41:35.77	11.91	49.84	-43.5	-48.6	10.0	7.99e-03	0	60	0	793772032	57	6891
2026-01-21 09:41:36.78	11.56	49.56	-43.4	-48.3	10.1	7.26e-03	0	60	0	795869184	57	6698
2026-01-21 09:41:37.78	11.21	49.28	-43.3	-48.1	10.4	4.84e-03	0	60	0	797966336	57	6522
2026-01-21 09:41:38.79	10.87	49.00	-43.2	-47.9	10.7	3.49e-03	0	60	0	800063488	57	6407
2026-01-21 09:41:39.80	10.53	48.72	-43.2	-48.0	10.6	3.14e-03	0	60	0	801112064	57	6428
2026-01-21 09:41:40.81	10.20	48.44	-43.3	-48.1	10.5	3.92e-03	0	61	0	803209216	57	6528
2026-01-21 09:41:41.82	9.88	48.16	-43.2	-48.3	10.3	4.75e-03	0	60	0	805306368	57	6658
2026-01-21 09:41:42.83	9.56	47.89	-43.4	-48.3	10.2	5.11e-03	0	61	0	807403520	57	6709
2026-01-21 09:41:43.84	9.25	47.61	-43.3	-48.1	10.3	5.75e-03	0	60	0	809500672	57	6554
2026-01-21 09:41:44.85	8.94	47.34	-43.2	-48.0	10.6	4.37e-03	0	60	0	810549248	57	6433
2026-01-21 09:41:45.86	8.64	47.06	-43.2	-48.0	10.6	3.65e-03	0	60	0	812646400	57	6433
2026-01-21 09:41:46.87	8.34	46.79	-43.3	-48.2	10.4	3.90e-03	0	60	0	814743552	57	6646
2026-01-21 09:41:47.88	8.05	46.52	-43.3	-48.1	10.4	4.94e-03	0	61	0	816840704	57	6527
2026-01-21 09:41:48.89	7.77	46.24	-43.2	-48.1	10.5	3.95e-03	0	60	0	818937856	57	6499
2026-01-21 09:41:49.90	7.48	45.97	-43.2	-47.9	10.7	3.87e-03	0	60	0	819986432	57	6377
2026-01-21 09:41:50.91	7.21	45.70	-43.2	-48.1	10.4	3.44e-03	0	61	0	822083584	57	6552
2026-01-21 09:41:51.91	6.94	45.44	-43.4	-48.4	10.1	6.57e-03	0	60	0	824180736	57	6781
2026-01-21 09:41:52.92	6.67	45.17	-43.6	-49.1	9.5	1.12e-02	0	60	0	826277888	57	7294
2026-01-21 09:41:53.93	6.41	44.91	-43.5	-48.8	9.7	1.25e-02	0	60	0	828375040	57	7049
2026-01-21 09:41:54.94	6.15	44.64	-43.5	-48.9	9.6	1.24e-02	0	60	0	829423616	57	7200
2026-01-21 09:41:55.95	5.90	44.38	-43.5	-48.8	9.7	1.18e-02	0	60	0	831520768	57	7086
2026-01-21 09:41:56.96	5.65	44.11	-43.5	-48.8	9.7	1.30e-02	0	60	0	833617920	57	7062
2026-01-21 09:41:57.97	5.40	43.85	-43.4	-48.7	9.8	1.02e-02	0	60	0	835715072	57	7024
2026-01-21 09:41:58.98	5.16	43.59	-43.5	-48.9	9.5	1.35e-02	0	60	0	837812224	57	7169
2026-01-21 09:41:59.99	4.92	43.33	-43.6	-49.2	9.3	1.82e-02	0	60	0	838860800	57	7456
2026-01-21 09:42:00.99	4.69	43.08	-43.7	-49.6	8.8	2.48e-02	0	60	0	840957952	58	7333
2026-01-21 09:42:02.00	4.46	42.82	-43.7	-49.4	9.0	2.44e-02	0	60	0	843055104	58	7193
2026-01-21 09:42:03.01	4.24	42.57	-43.8	-50.0	8.5	2.97e-02	0	60	0	845152256	58	7652
2026-01-21 09:42:04.02	4.01	42.31	-43.8	-50.0	8.4	4.31e-02	0	60	0	847249408	58	7703
2026-01-21 09:42:05.03	3.80	42.06	-43.9	-50.2	8.3	5.30e-02	0	61	0	848297984	58	7812
2026-01-21 09:42:06.04	3.58	41.81	-43.8	-50.0	8.5	4.19e-02	0	60	0	850395136	58	7635
2026-01-21 09:42:07.05	3.37	41.56	-43.8	-50.0	8.4	4.84e-02	0	60	0	852492288	58	7677
2026-01-21 09:42:08.06	3.16	41.31	-43.8	-50.0	8.4	4.77e-02	0	60	0	854589440	58	7686
2026-01-21 09:42:09.07	2.95	41.06	-43.9	-50.6	7.8	6.82e-02	0	60	0	856686592	58	8178
2026-01-21 09:42:10.08	2.75	40.81	-43.9	-50.5	7.9	6.93e-02	0	60	0	857735168	58	8147
2026-01-21 09:42:11.09	2.55	40.57	-44.0	-50.9	7.5	7.44e-02	0	60	0	859832320	58	8520
2026-01-21 09:42:12.10	2.36	40.32	-44.0	-50.8	7.5	1.01e-01	0	60	0	861929472	58	8430
2026-01-21 09:42:13.11	2.16	40.08	-44.0	-51.2	7.3	1.15e-01	0	61	0	864026624	58	8765
2026-01-21 09:42:14.11	1.97	39.84	-44.0	-51.1	7.3	1.19e-01	0	60	0	866123776	58	8666
2026-01-21 09:42:15.12	1.79	39.60	-44.0	-51.3	7.1	1.39e-01	0	61	0	868220928	58	8890
2026-01-21 09:42:16.13	1.60	39.36	-44.0	-50.8	7.5	1.24e-01	0	60	0	869269504	58	8431
2026-01-21 09:42:17.14	1.42	39.12	-44.4	-52.7	5.9	1.71e-01	0	60	0	871366656	60	9355
2026-01-21 09:42:18.15	1.24	38.89	-44.7	-56.6	3.9	1.17e+00	0	61	104	872415232	59	15450
2026-01-21 09:42:19.16	1.06	38.65	-44.6	-54.5	4.8	7.75e-01	0	60	0	873463808	60	11506
2026-01-21 09:42:20.16	0.89	38.42	-44.8	-56.8	3.9	9.31e-02	0	61	104	874512384	60	15034
2026-01-21 09:42:21.17	0.72	38.19	-43.6	-49.6	8.8	3.55e-02	0	61	0	874512384	59	6910
2026-01-21 09:42:22.17	0.55	37.96	-43.5	-49.5	8.8	3.01e-02	0	61	0	876609536	59	6856
2026-01-21 09:42:23.18	0.39	37.73	-43.5	-49.5	8.8	2.69e-02	0	60	0	878706688	59	6852
2026-01-21 09:42:24.19	0.22	37.50	-43.6	-49.6	8.8	3.06e-02	0	60	0	880803840	58	7369
2026-01-21 09:42:25.19	0.06	37.28	-43.6	-49.5	8.8	2.53e-02	0	60	0	882900992	58	7262
2026-01-21 09:42:26.19	359.90	37.05	-43.5	-49.2	9.2	2.26e-02	0	60	0	883949568	58	7018
2026-01-21 09:42:27.20	359.74	36.83	-43.4	-49.1	9.3	1.81e-02	0	60	0	886046720	58	6884
2026-01-21 09:42:28.21	359.59	36.60	-43.5	-49.2	9.3	1.93e-02	0	60	0	888143872	58	6974
2026-01-21 09:42:29.21	359.44	36.39	-43.5	-49.2	9.2	2.04e-02	0	60	0	890241024	58	6963
2026-01-21 09:42:30.22	359.29	36.16	-43.3	-48.9	9.5	1.98e-02	0	61	0	892338176	58	6769
2026-01-21 09:42:31.22	359.14	35.95	-43.2	-48.5	9.9	9.40e-03	0	61	0	893386752	58	6448
2026-01-21 09:42:32.23	358.99	35.73	-43.2	-48.4	10.0	7.89e-03	0	61	0	895483904	58	6374
2026-01-21 09:42:33.23	358.85	35.51	-43.1	-48.3	10.1	7.66e-03	0	61	0	897581056	58	6339
2026-01-21 09:42:34.24	358.71	35.30	-43.2	-48.6	9.7	8.76e-03	0	60	0	899678208	58	6545
2026-01-21 09:42:35.24	358.57	35.09	-43.2	-48.5	9.9	8.79e-03	0	60	0	901775360	58	6487
2026-01-21 09:42:36.25	358.43	34.87	-43.2	-48.7	9.7	9.82e-03	0	61	0	902823936	58	6590
2026-01-21 09:42:37.26	358.29	34.66	-43.2	-48.6	9.7	1.11e-02	0	61	0	904921088	58	6558
2026-01-21 09:42:38.27	358.15	34.45	-43.2	-48.6	9.7	1.11e-02	0	60	0	907018240	58	6534
2026-01-21 09:42:39.27	358.02	34.24	-43.2	-48.7	9.7	1.09e-02	0	60	0	909115392	58	6611
2026-01-21 09:42:40.27	357.89	34.04	-43.3	-48.9	9.4	1.34e-02	0	60	0	911212544	58	6745
2026-01-21 09:42:41.28	357.76	33.83	-43.4	-49.1	9.2	1.73e-02	0	61	0	912261120	58	6939
2026-01-21 09:42:42.29	357.63	33.62	-43.5	-49.4	9.0	2.29e-02	0	60	0	914358272	58	7126
2026-01-21 09:42:43.29	357.50	33.42	-43.5	-49.4	9.0	2.66e-02	0	60	0	916455424	58	7147
2026-01-21 09:42:44.30	357.38	33.22	-43.6	-49.6	8.8	3.31e-02	0	61	0	918552576	58	7297
2026-01-21 09:42:45.30	357.26	33.02	-43.7	-49.7	8.6	3.73e-02	0	60	0	920649728	58	7445
2026-01-21 09:42:46.31	357.13	32.82	-43.7	-50.0	8.4	4.56e-02	0	60	0	921698304	58	7632
2026-01-21 09:42:47.31	357.01	32.62	-43.8	-50.1	8.2	5.17e-02	0	60	0	923795456	58	7805
2026-01-21 09:42:48.32	356.90	32.42	-43.8	-50.2	8.0	6.31e-02	0	60	0	925892608	58	7897
2026-01-21 09:42:49.32	356.78	32.22	-43.9	-50.5	7.8	7.49e-02	0	61	0	927989760	58	8137
2026-01-21 09:42:50.33	356.66	32.03	-43.9	-50.6	7.7	8.22e-02	0	61	0	930086912	58	8187
2026-01-21 09:42:51.34	356.55	31.83	-43.9	-50.7	7.6	9.54e-02	0	60	0	931135488	58	8279
2026-01-21 09:42:52.34	356.44	31.64	-43.9	-50.7	7.6	9.99e-02	0	60	0	933232640	58	8347
2026-01-21 09:42:53.35	356.32	31.45	-44.0	-51.0	7.3	1.11e-01	0	60	0	935329792	58	8565
2026-01-21 09:42:54.35	356.21	31.26	-44.0	-51.0	7.2	1.28e-01	0	61	0	937426944	58	8650
2026-01-21 09:42:55.36	356.10	31.07	-44.1	-51.4	6.9	1.34e-01	0	61	0	939524096	58	9030
2026-01-21 09:42:56.36	356.00	30.88	-44.4	-53.5	5.3	8.55e-01	0	61	0	940572672	59	10867
2026-01-21 09:42:57.37	355.89	30.69	-44.0	-51.1	7.1	4.48e-01	0	61	0	942669824	59	8246
2026-01-21 09:42:58.37	355.79	30.50	-44.5	-55.9	4.2	1.48e+00	0	60	104	943718400	60	13511
2026-01-21 09:42:59.38	355.68	30.32	-44.3	-53.4	5.3	1.37e+00	0	61	0	943718400	60	10152
2026-01-21 09:43:00.39	355.58	30.13	-44.5	-54.6	4.7	7.73e-01	1	60	104	944766976	60	11609
2026-01-21 09:43:01.40	355.48	29.95	-43.9	-50.8	7.4	1.15e-01	0	60	0	945815552	59	7924
2026-01-21 09:43:02.41	355.38	29.77	-43.8	-50.7	7.5	1.00e-01	0	60	0	947912704	59	7832
2026-01-21 09:43:03.41	355.28	29.59	-43.8	-50.4	7.8	8.94e-02	0	60	0	950009856	59	7629
2026-01-21 09:43:04.42	355.18	29.41	-43.8	-50.6	7.6	9.50e-02	0	61	0	951058432	59	7721
2026-01-21 09:43:05.42	355.08	29.23	-43.8	-50.5	7.7	9.32e-02	0	60	0	953155584	59	7701
2026-01-21 09:43:06.43	354.99	29.05	-43.8	-50.5	7.7	8.95e-02	0	60	0	955252736	59	7641
2026-01-21 09:43:07.43	354.89	28.87	-43.7	-50.2	7.9	8.28e-02	0	60	0	957349888	59	7419
2026-01-21 09:43:08.44	354.80	28.70	-43.7	-50.4	7.8	7.62e-02	0	61	0	959447040	59	7606
2026-01-21 09:43:09.45	354.71	28.52	-43.7	-50.3	7.9	7.72e-02	0	60	0	960495616	59	7500
2026-01-21 09:43:10.45	354.62	28.35	-43.7	-50.2	7.9	7.12e-02	0	60	0	962592768	59	7436
2026-01-21 09:43:11.46	354.52	28.17	-43.7	-50.2	7.9	7.42e-02	0	60	0	964689920	59	7431
2026-01-21 09:43:12.47	354.43	28.00	-43.6	-50.3	7.7	7.93e-02	0	61	0	966787072	59	7530
2026-01-21 09:43:13.47	354.35	27.83	-43.7	-50.4	7.7	8.69e-02	0	60	0	968884224	59	7603
2026-01-21 09:43:14.47	354.26	27.66	-43.6	-50.4	7.7	9.30e-02	0	61	0	969932800	59	7614
2026-01-21 09:43:15.48	354.17	27.49	-43.6	-50.5	7.6	9.75e-02	0	61	0	972029952	59	7668
2026-01-21 09:43:16.49	354.09	27.32	-43.6	-50.6	7.5	1.07e-01	0	61	0	974127104	59	7740
2026-01-21 09:43:17.49	354.00	27.16	-43.6	-50.6	7.5	1.03e-01	0	61	0	976224256	59	7740
2026-01-21 09:43:18.50	353.92	26.99	-43.8	-51.0	7.1	1.05e-01	0	61	0	978321408	59	8171
2026-01-21 09:43:19.50	353.84	26.83	-43.5	-50.7	7.5	3.24e-01	0	61	0	979369984	58	8354
2026-01-21 09:43:20.51	353.75	26.66	-44.0	-54.3	4.6	1.34e+00	0	61	104	980418560	59	11895
2026-01-21 09:43:21.52	353.67	26.50	-43.4	-50.4	7.5	8.18e-01	0	61	0	981467136	58	8046
2026-01-21 09:43:22.53	353.59	26.33	-43.7	-52.6	5.5	1.45e+00	0	61	104	982515712	59	9797
2026-01-21 09:43:23.54	353.51	26.17	-43.2	-49.9	8.0	9.09e-02	0	61	0	983564288	58	7623
2026-01-21 09:43:24.55	353.43	26.01	-43.1	-49.7	8.2	6.24e-02	0	61	0	985661440	58	7378
2026-01-21 09:43:25.56	353.36	25.85	-43.0	-49.4	8.4	5.26e-02	0	60	0	987758592	58	7154
2026-01-21 09:43:26.57	353.28	25.69	-42.9	-49.3	8.4	4.66e-02	0	61	0	989855744	57	7531
2026-01-21 09:43:27.57	353.20	25.53	-42.8	-49.1	8.7	3.88e-02	0	61	0	990904320	57	7292
2026-01-21 09:43:28.58	353.13	25.38	-42.7	-48.7	9.0	2.66e-02	0	61	0	993001472	57	7032
2026-01-21 09:43:29.59	353.05	25.22	-42.7	-48.5	9.2	2.18e-02	0	61	0	995098624	57	6873
2026-01-21 09:43:30.60	352.98	25.06	-42.7	-48.7	9.0	2.12e-02	0	60	0	997195776	57	6995
2026-01-21 09:43:31.61	352.91	24.91	-42.6	-48.4	9.4	2.05e-02	0	61	0	999292928	57	6743
2026-01-21 09:43:32.62	352.83	24.75	-42.6	-48.5	9.2	1.97e-02	0	61	0	1000341504	57	6818
2026-01-21 09:43:33.63	352.76	24.60	-42.6	-48.6	9.1	1.85e-02	0	61	0	1002438656	57	6896
2026-01-21 09:43:34.64	352.69	24.45	-42.5	-48.4	9.2	2.34e-02	0	61	0	1004535808	57	6771
2026-01-21 09:43:35.65	352.62	24.30	-42.5	-48.3	9.3	1.65e-02	0	61	0	1006632960	57	6691
2026-01-21 09:43:36.66	352.55	24.15	-42.5	-48.5	9.1	2.11e-02	0	61	0	1008730112	57	6856
2026-01-21 09:43:37.67	352.48	24.00	-42.5	-48.3	9.3	1.75e-02	0	61	0	1009778688	56	7053
2026-01-21 09:43:38.68	352.41	23.85	-42.5	-48.4	9.1	1.94e-02	0	61	0	1011875840	56	7156
2026-01-21 09:43:39.69	352.35	23.70	-42.4	-48.1	9.3	1.97e-02	0	61	0	1013972992	56	6941
2026-01-21 09:43:40.70	352.28	23.55	-42.3	-48.0	9.4	1.61e-02	0	60	0	1016070144	56	6862
2026-01-21 09:43:41.71	352.21	23.40	-42.3	-48.2	9.2	2.18e-02	0	60	0	1018167296	56	6995
2026-01-21 09:43:42.72	352.15	23.26	-42.2	-47.9	9.4	2.06e-02	0	61	0	1019215872	56	6777
2026-01-21 09:43:43.73	352.08	23.11	-42.1	-47.7	9.6	1.49e-02	0	61	0	1021313024	56	6573
2026-01-21 09:43:44.74	352.02	22.97	-42.1	-47.7	9.4	1.39e-02	0	61	0	1023410176	56	6613
2026-01-21 09:43:45.74	351.96	22.83	-42.1	-48.1	8.9	2.15e-02	0	61	0	1025507328	56	6929
2026-01-21 09:43:46.75	351.89	22.68	-41.7	-47.7	9.0	3.04e-02	0	61	0	1027604480	55	6990
2026-01-21 09:43:47.76	351.83	22.54	-41.5	-47.3	9.4	1.84e-02	0	61	0	1028653056	55	6655
2026-01-21 09:43:48.77	351.77	22.40	-41.4	-47.1	9.6	1.36e-02	0	60	0	1030750208	54	6888
2026-01-21 09:43:49.78	351.71	22.26	-41.5	-47.2	9.4	1.45e-02	0	61	0	1032847360	54	7010
2026-01-21 09:43:50.79	351.65	22.12	-41.4	-47.1	9.3	1.81e-02	0	61	0	1034944512	54	6952
2026-01-21 09:43:51.80	351.59	21.98	-41.5	-47.4	8.9	2.22e-02	0	61	0	1037041664	54	7139
2026-01-21 09:43:52.81	351.53	21.84	-41.5	-47.4	8.7	2.84e-02	0	61	0	1038090240	54	7194
2026-01-21 09:43:53.82	351.47	21.70	-41.4	-47.3	8.8	3.26e-02	0	61	0	1040187392	54	7089
2026-01-21 09:43:54.83	351.41	21.57	-41.5	-47.5	8.5	3.54e-02	0	61	0	1042284544	54	7256
2026-01-21 09:43:55.84	351.35	21.43	-41.7	-48.2	7.7	6.06e-02	0	61	0	1044381696	54	7883
2026-01-21 09:43:56.85	351.30	21.29	-41.8	-48.9	7.0	1.36e-01	0	60	0	1046478848	54	8557
2026-01-21 09:43:57.86	351.24	21.16	-41.9	-50.0	6.0	2.54e-01	0	61	0	1048576000	54	9677
2026-01-21 09:43:58.87	351.18	21.03	-42.0	-51.1	5.2	4.44e-01	0	61	0	1049624576	54	10939
2026-01-21 09:43:59.88	351.13	20.89	-42.0	-52.1	4.6	6.94e-01	0	61	0	1051721728	54	12349
2026-01-21 09:44:00.89	351.07	20.76	-42.0	-53.2	4.2	1.32e+00	0	61	0	1052770304	54	13890
2026-01-21 09:44:01.89	351.02	20.63	-42.1	-54.9	3.8	1.45e+00	0	61	104	1052770304	54	17043
2026-01-21 09:44:02.90	350.96	20.50	-41.5	-56.0	3.8	1.49e+00	0	61	104	1052770304	54	19362
2026-01-21 09:44:03.91	350.91	20.37	-41.4	-56.0	3.8	1.49e+00	0	61	104	1052770304	54	19182
2026-01-21 09:44:04.92	350.86	20.23	-42.3	-55.6	3.8	1.49e+00	0	61	104	1052770304	55	17334
2026-01-21 09:44:05.93	350.80	20.11	-42.0	-55.6	3.8	1.49e+00	0	61	104	1052770304	55	17438
2026-01-21 09:44:06.93	350.75	19.98	-41.9	-55.8	3.8	1.49e+00	0	61	104	1052770304	55	17730
2026-01-21 09:44:07.94	350.70	19.85	-41.8	-55.9	3.8	1.49e+00	0	61	104	1052770304	55	17918
2026-01-21 09:44:08.95	350.65	19.72	-41.6	-55.9	3.8	1.49e+00	0	61	104	1052770304	55	17994
2026-01-21 09:44:09.95	350.60	19.60	-41.6	-56.0	3.8	1.49e+00	0	61	104	1052770304	55	18286
2026-01-21 09:44:10.96	350.55	19.47	-41.1	-55.6	3.8	1.49e+00	0	61	104	1052770304	54	18344
2026-01-21 09:44:11.97	350.50	19.34	-41.4	-56.0	3.8	1.49e+00	0	61	104	1052770304	54	19255
2026-01-21 09:44:12.97	350.45	19.22	-41.1	-55.6	3.8	1.49e+00	0	61	104	1052770304	54	18510
2026-01-21 09:44:13.98	350.40	19.09	-41.1	-55.6	3.8	1.49e+00	0	61	104	1052770304	54	18409
2026-01-21 09:44:14.99	350.35	18.97	-41.4	-56.0	3.8	1.49e+00	0	61	104	1052770304	54	19275
2026-01-21 09:44:16.00	350.30	18.85	-41.3	-55.9	3.8	1.49e+00	0	61	104	1052770304	54	19063
2026-01-21 09:44:17.01	350.26	18.72	-41.0	-55.6	3.8	1.49e+00	0	61	104	1052770304	54	18364
2026-01-21 09:44:18.02	350.21	18.60	-41.2	-55.7	3.8	1.49e+00	0	61	104	1052770304	54	18573
2026-01-21 09:44:19.02	350.16	18.48	-41.3	-55.9	3.8	1.49e+00	0	61	104	1052770304	54	19046
2026-01-21 09:44:20.03	350.12	18.36	-41.2	-55.8	3.8	1.49e+00	0	61	104	1052770304	54	18766
2026-01-21 09:44:21.04	350.07	18.24	-41.1	-55.7	3.8	1.49e+00	0	61	104	1052770304	54	18574
2026-01-21 09:44:22.04	350.02	18.12	-41.1	-55.7	3.8	1.49e+00	0	60	104	1052770304	54	18619
2026-01-21 09:44:23.05	349.98	18.00	-41.1	-55.7	3.8	1.49e+00	0	61	104	1052770304	54	18607
2026-01-21 09:44:24.06	349.93	17.88	-41.1	-55.7	3.8	1.49e+00	0	61	104	1052770304	54	18532
2026-01-21 09:44:25.06	349.89	17.77	-41.2	-55.8	3.8	1.49e+00	0	61	104	1052770304	54	18846
2026-01-21 09:44:26.07	349.84	17.65	-41.1	-55.6	3.8	1.49e+00	0	61	104	1052770304	54	18502
2026-01-21 09:44:27.07	349.80	17.53	-41.1	-55.6	3.8	1.49e+00	0	61	104	1052770304	54	18411
2026-01-21 09:44:28.08	349.76	17.42	-41.2	-55.7	3.8	1.49e+00	0	61	104	1052770304	54	18651
2026-01-21 09:44:29.09	349.71	17.30	-41.2	-55.7	3.8	1.49e+00	0	61	104	1052770304	54	18672
2026-01-21 09:44:30.10	349.67	17.18	-41.1	-55.7	3.8	1.49e+00	0	61	104	1052770304	54	18575
2026-01-21 09:44:31.11	349.63	17.07	-41.1	-55.7	3.8	1.49e+00	0	61	104	1052770304	54	18553
2026-01-21 09:44:32.12	349.59	16.95	-41.4	-55.9	3.8	1.49e+00	0	61	104	1052770304	54	18997
2026-01-21 09:44:33.12	349.55	16.84	-41.0	-55.6	3.8	1.49e+00	0	61	104	1052770304	54	18339
2026-01-21 09:44:34.13	349.50	16.73	-41.2	-55.8	3.8	1.49e+00	0	61	104	1052770304	53	19900
2026-01-21 09:44:35.14	349.46	16.61	-41.1	-55.7	3.8	1.49e+00	0	61	104	1052770304	53	19656
2026-01-21 09:44:36.14	349.42	16.50	-41.5	-56.0	3.8	1.49e+00	0	61	104	1052770304	53	20390
2026-01-21 09:44:37.15	349.38	16.39	-41.0	-55.6	3.8	1.49e+00	0	61	104	1052770304	53	19521
2026-01-21 09:44:38.16	349.34	16.28	-41.3	-55.9	3.8	1.49e+00	0	61	104	1052770304	53	20238
2026-01-21 09:44:39.16	349.30	16.17	-41.1	-55.6	3.8	1.49e+00	0	61	104	1052770304	53	19563
2026-01-21 09:44:40.16	349.26	16.06	-41.5	-56.0	3.8	1.49e+00	0	61	104	1052770304	53	20534
2026-01-21 09:44:41.17	349.22	15.95	-41.1	-55.7	3.8	1.49e+00	0	61	104	1052770304	53	19745
2026-01-21 09:44:42.18	349.19	15.84	-41.4	-56.0	3.8	1.49e+00	0	61	104	1052770304	53	20378
2026-01-21 09:44:43.18	349.15	15.73	-41.1	-55.7	3.8	1.49e+00	0	61	104	1052770304	53	19616
2026-01-21 09:44:44.19	349.11	15.62	-41.5	-56.0	3.8	1.49e+00	0	61	104	1052770304	53	20430
2026-01-21 09:44:45.19	349.07	15.52	-41.1	-55.7	3.8	1.49e+00	0	61	104	1052770304	53	19805
2026-01-21 09:44:46.20	349.03	15.41	-41.4	-56.0	3.8	1.49e+00	0	61	104	1052770304	53	20388
2026-01-21 09:44:47.21	349.00	15.30	-41.2	-55.8	3.8	1.49e+00	0	61	104	1052770304	53	19883
2026-01-21 09:44:48.22	348.96	15.20	-41.5	-56.1	3.8	1.49e+00	0	61	104	1052770304	53	20544
2026-01-21 09:44:49.22	348.92	15.09	-41.1	-55.7	3.8	1.49e+00	0	61	104	1052770304	53	19655
2026-01-21 09:44:50.23	348.89	14.98	-41.4	-55.9	3.8	1.49e+00	0	61	104	1052770304	53	20293
2026-01-21 09:44:51.23	348.85	14.88	-41.3	-55.9	3.8	1.49e+00	0	61	104	1052770304	53	20090
2026-01-21 09:44:52.24	348.82	14.78	-41.5	-56.0	3.8	1.49e+00	0	61	104	1052770304	53	20530
