passes_logs/2026/01/21/R2.0S_Moscow/R2.0S_Moscow__20260121_084340_NOAA_21_JPSS-2_rec.log

#Pass ID: 20260121_084340_NOAA 21 (JPSS-2)
#Satellite: NOAA 21 (JPSS-2)
#Configuration: NOAA-21
#almurnet v.1.7.20251203
#Start time: 2026-01-21 08:43:43

#Version: 2.2.20231116
#Station: R2.0S_Moscow
#Location: 37.707566 lon 55.798166 lat
#TLE: 1 54234U 22150A   26020.29910383  .00000141  00000+0  87571-4 0  9990
#TLE: 2 54234  98.7506 321.1348 0000615 250.8428 109.2682 14.19536295165564

#Time	Az	El	Level	Level2	SNR	BER	BlckErr	Temp	State	Recorded	gain1	gain2
2026-01-21 08:43:43.10	125.71	2.14	-21.5	-39.7	3.0	1.50e+00	0	51	0	0	2	58737
2026-01-21 08:43:44.09	125.67	2.20	-19.9	-42.2	3.6	1.51e+00	0	51	104	0	11	46940
2026-01-21 08:43:45.10	125.62	2.26	-10.4	-28.7	3.0	1.50e+00	0	51	104	0	0	18727
2026-01-21 08:43:46.11	125.57	2.32	-21.4	-42.5	4.0	1.50e+00	0	52	104	0	13	43054
2026-01-21 08:43:47.12	125.52	2.38	-24.4	-43.9	3.8	1.51e+00	0	52	104	0	15	45337
2026-01-21 08:43:48.13	125.47	2.45	-20.0	-41.0	3.7	1.50e+00	0	52	104	0	16	30411
2026-01-21 08:43:49.15	125.41	2.51	-22.4	-39.5	3.6	1.50e+00	0	52	104	0	13	30424
2026-01-21 08:43:50.15	125.36	2.57	-18.4	-43.8	4.0	1.51e+00	0	52	104	0	17	39622
2026-01-21 08:43:51.16	125.31	2.63	-22.4	-43.0	3.3	1.50e+00	0	52	104	0	11	51497
2026-01-21 08:43:52.17	125.26	2.69	-21.3	-41.2	3.3	1.50e+00	0	52	104	0	12	39431
2026-01-21 08:43:53.18	125.21	2.75	-23.9	-43.9	4.6	1.51e+00	0	52	104	0	19	35709
2026-01-21 08:43:54.20	125.16	2.82	-24.3	-44.0	3.7	1.50e+00	0	52	104	0	18	38650
2026-01-21 08:43:55.21	125.11	2.88	-23.2	-44.9	3.9	1.51e+00	0	52	104	0	16	48040
2026-01-21 08:43:56.21	125.05	2.94	-11.4	-36.6	3.3	1.50e+00	0	52	104	0	6	32756
2026-01-21 08:43:57.22	125.00	3.00	-22.2	-41.8	3.4	1.51e+00	0	52	104	0	12	42348
2026-01-21 08:43:58.24	124.95	3.07	-23.3	-39.1	3.4	1.50e+00	0	52	104	0	9	36778
2026-01-21 08:43:59.24	124.90	3.13	-22.0	-40.9	3.4	1.51e+00	0	52	104	0	11	40165
2026-01-21 08:44:00.26	124.84	3.19	-22.3	-41.4	3.6	1.51e+00	0	53	104	0	14	35838
2026-01-21 08:44:01.27	124.79	3.26	-22.6	-42.0	3.7	1.51e+00	0	53	104	0	16	34181
2026-01-21 08:44:02.28	124.74	3.32	-24.6	-43.3	3.8	1.51e+00	0	53	104	0	16	39799
2026-01-21 08:44:03.29	124.68	3.38	-21.7	-41.6	4.0	1.51e+00	0	53	104	0	11	43486
2026-01-21 08:44:04.30	124.63	3.45	-12.3	-32.4	3.8	1.50e+00	0	53	104	0	14	12764
2026-01-21 08:44:05.31	124.57	3.51	-15.3	-39.3	3.9	1.51e+00	0	53	104	0	13	29705
2026-01-21 08:44:06.32	124.52	3.57	-22.4	-42.2	3.6	1.51e+00	0	53	104	0	16	35129
2026-01-21 08:44:07.33	124.46	3.64	-21.8	-43.6	3.7	1.51e+00	0	53	104	0	16	41331
2026-01-21 08:44:08.34	124.41	3.70	-23.0	-42.8	3.7	1.50e+00	0	53	104	0	8	59753
2026-01-21 08:44:09.35	124.35	3.77	-23.5	-45.5	3.9	1.50e+00	0	53	104	0	17	48275
2026-01-21 08:44:10.36	124.30	3.83	-22.9	-45.9	3.8	1.50e+00	0	53	104	0	17	50864
2026-01-21 08:44:11.37	124.24	3.89	-21.3	-42.3	3.2	1.50e+00	0	53	104	0	12	44612
2026-01-21 08:44:12.38	124.19	3.96	-24.6	-45.8	4.1	1.51e+00	0	53	104	0	18	47372
2026-01-21 08:44:13.39	124.13	4.02	-21.9	-44.1	4.1	1.51e+00	0	53	104	0	14	49115
2026-01-21 08:44:14.40	124.07	4.09	-23.2	-43.9	4.0	1.51e+00	0	54	104	0	15	45032
2026-01-21 08:44:15.41	124.02	4.15	-23.4	-45.2	3.9	1.50e+00	0	54	104	0	18	44359
2026-01-21 08:44:16.42	123.96	4.22	-18.3	-37.3	3.9	1.51e+00	0	54	104	0	12	25042
2026-01-21 08:44:17.43	123.90	4.28	-23.7	-40.4	4.0	1.50e+00	0	54	104	0	17	26879
2026-01-21 08:44:18.44	123.84	4.35	-23.8	-38.6	3.6	1.50e+00	0	54	104	0	14	26003
2026-01-21 08:44:19.45	123.79	4.41	-23.4	-45.6	4.0	1.50e+00	0	54	104	0	17	48809
2026-01-21 08:44:20.47	123.73	4.48	-11.4	-35.3	3.6	1.51e+00	0	54	104	0	10	22276
2026-01-21 08:44:21.48	123.67	4.54	-14.6	-33.2	3.6	1.52e+00	0	54	104	0	3	26162
2026-01-21 08:44:22.49	123.61	4.61	-22.2	-43.1	3.7	1.51e+00	0	54	104	0	16	38717
2026-01-21 08:44:23.49	123.55	4.67	-23.3	-43.4	3.7	1.51e+00	0	54	104	0	17	38120
2026-01-21 08:44:24.51	123.49	4.74	-24.1	-44.0	3.9	1.51e+00	0	54	104	0	15	45527
2026-01-21 08:44:25.52	123.43	4.81	-22.5	-42.1	3.6	1.51e+00	0	54	104	0	15	36718
2026-01-21 08:44:26.53	123.37	4.87	-16.5	-36.2	3.3	1.51e+00	0	54	104	0	4	35271
2026-01-21 08:44:27.54	123.31	4.94	-20.6	-42.1	3.3	1.50e+00	0	54	104	0	11	46138
2026-01-21 08:44:28.55	123.25	5.01	-22.2	-43.5	3.7	1.51e+00	0	54	104	0	17	38394
2026-01-21 08:44:29.56	123.19	5.07	-12.3	-35.2	3.4	1.51e+00	0	54	104	0	8	24772
2026-01-21 08:44:30.57	123.13	5.14	-22.9	-41.4	3.4	1.52e+00	0	54	104	0	14	35880
2026-01-21 08:44:31.57	123.07	5.21	-20.6	-42.9	3.7	1.51e+00	0	54	104	0	12	47874
2026-01-21 08:44:32.59	123.01	5.27	-22.6	-45.8	4.1	1.51e+00	0	55	104	0	14	59892
2026-01-21 08:44:33.60	122.95	5.34	-19.4	-43.1	5.5	1.50e+00	0	55	104	0	11	52087
2026-01-21 08:44:34.61	122.88	5.41	-24.3	-45.6	4.0	1.50e+00	0	55	104	0	17	49186
2026-01-21 08:44:35.62	122.82	5.48	-21.3	-44.3	4.0	1.51e+00	0	55	104	0	18	39917
2026-01-21 08:44:36.63	122.76	5.54	-23.3	-41.0	3.6	1.50e+00	0	55	104	0	12	38375
2026-01-21 08:44:37.64	122.70	5.61	-22.0	-39.8	3.4	1.51e+00	0	55	104	0	12	33533
2026-01-21 08:44:38.65	122.63	5.68	-20.6	-39.7	3.2	1.51e+00	0	55	104	0	7	44341
2026-01-21 08:44:39.66	122.57	5.75	-20.2	-40.5	3.6	1.51e+00	0	55	104	0	11	38363
2026-01-21 08:44:40.67	122.50	5.82	-23.6	-44.9	3.8	1.50e+00	0	55	104	0	18	42877
2026-01-21 08:44:41.68	122.44	5.88	-20.8	-40.0	3.8	1.51e+00	0	55	104	0	8	42913
2026-01-21 08:44:42.69	122.38	5.95	-21.8	-42.8	3.6	1.50e+00	0	55	104	0	13	44887
2026-01-21 08:44:43.70	122.31	6.02	-21.2	-42.6	3.7	1.51e+00	0	55	104	0	12	46098
2026-01-21 08:44:44.71	122.25	6.09	-22.8	-44.1	3.8	1.50e+00	0	55	104	0	15	46051
2026-01-21 08:44:45.73	122.18	6.16	-24.1	-43.8	4.0	1.51e+00	0	55	104	0	14	47410
2026-01-21 08:44:46.74	122.11	6.23	-16.9	-39.9	3.5	1.51e+00	0	55	104	0	12	33911
2026-01-21 08:44:47.75	122.05	6.30	-22.6	-41.6	3.9	1.51e+00	0	55	104	0	13	39111
2026-01-21 08:44:48.76	121.98	6.37	-20.9	-42.2	3.6	1.51e+00	0	55	104	0	15	37271
2026-01-21 08:44:49.77	121.91	6.44	-20.4	-40.4	3.7	1.50e+00	0	55	104	0	10	40117
2026-01-21 08:44:50.78	121.85	6.51	-23.0	-41.3	3.7	1.50e+00	0	55	104	0	15	33549
2026-01-21 08:44:51.79	121.78	6.58	-17.3	-40.0	4.5	1.50e+00	0	56	104	0	6	48589
2026-01-21 08:44:52.80	121.71	6.65	-13.5	-35.1	-7.4	1.51e+00	0	55	104	0	2	34531
2026-01-21 08:44:53.81	121.64	6.72	-21.7	-42.1	3.9	1.50e+00	0	55	104	0	14	38717
2026-01-21 08:44:54.82	121.57	6.79	-20.1	-35.6	3.6	1.50e+00	0	56	104	0	1	39070
2026-01-21 08:44:55.83	121.51	6.86	-13.8	-33.7	4.0	1.51e+00	0	55	104	0	13	15587
2026-01-21 08:44:56.84	121.44	6.93	-22.0	-40.5	3.5	1.51e+00	0	56	104	0	11	38552
2026-01-21 08:44:57.85	121.37	7.00	-20.6	-35.6	3.8	1.51e+00	0	56	104	0	4	32771
2026-01-21 08:44:58.86	121.30	7.07	-23.2	-40.4	3.7	1.51e+00	0	56	104	0	15	30327
2026-01-21 08:44:59.87	121.23	7.14	-20.8	-34.1	3.3	1.51e+00	0	56	104	0	1	32639
2026-01-21 08:45:00.88	121.16	7.21	-15.3	-37.1	4.0	1.50e+00	0	56	104	0	13	23238
2026-01-21 08:45:01.89	121.08	7.28	-24.2	-43.4	4.0	1.50e+00	0	56	104	0	16	40484
2026-01-21 08:45:02.90	121.01	7.35	-22.0	-43.7	4.2	1.50e+00	0	56	104	0	14	46676
2026-01-21 08:45:03.91	120.94	7.43	-22.9	-42.7	4.0	1.50e+00	0	56	104	0	12	46722
2026-01-21 08:45:04.92	120.87	7.50	-23.3	-41.3	4.4	1.50e+00	0	56	104	0	15	33649
2026-01-21 08:45:05.93	120.80	7.57	-22.3	-41.9	3.8	1.50e+00	0	56	104	0	13	40244
2026-01-21 08:45:06.94	120.72	7.64	-22.4	-42.0	3.9	1.50e+00	0	56	104	0	14	38498
2026-01-21 08:45:07.95	120.65	7.71	-19.3	-37.8	3.6	1.50e+00	0	56	104	0	10	30023
2026-01-21 08:45:08.97	120.58	7.79	-21.2	-39.5	3.6	1.50e+00	0	56	104	0	12	32277
2026-01-21 08:45:09.98	120.50	7.86	-21.2	-42.6	4.4	1.49e+00	0	56	104	0	14	41192
2026-01-21 08:45:10.99	120.43	7.93	-23.3	-39.5	4.0	1.49e+00	0	56	104	0	16	25733
2026-01-21 08:45:12.00	120.35	8.01	-22.6	-40.2	4.2	1.49e+00	0	56	104	0	13	32990
2026-01-21 08:45:13.01	120.28	8.08	-30.2	-48.6	4.3	1.51e+00	0	56	104	0	31	30975
2026-01-21 08:45:14.02	120.20	8.15	-26.9	-44.8	4.3	1.51e+00	0	56	104	0	22	33559
2026-01-21 08:45:15.03	120.13	8.23	-19.0	-34.9	3.3	1.50e+00	0	56	104	0	8	23869
2026-01-21 08:45:16.04	120.05	8.30	-20.7	-36.6	3.6	1.50e+00	0	56	104	0	9	27636
2026-01-21 08:45:17.05	119.97	8.37	-12.5	-36.1	3.7	1.50e+00	0	56	104	0	7	29039
2026-01-21 08:45:18.06	119.90	8.45	-20.3	-36.7	3.9	1.50e+00	0	57	104	0	4	37217
2026-01-21 08:45:19.06	119.82	8.52	-19.4	-37.1	3.6	1.50e+00	0	57	104	0	4	39070
2026-01-21 08:45:20.07	119.74	8.59	-7.6	-29.5	3.5	1.50e+00	0	57	104	0	0	20519
2026-01-21 08:45:21.08	119.66	8.67	-19.9	-34.4	4.2	1.50e+00	0	57	104	0	1	34069
2026-01-21 08:45:22.09	119.59	8.74	-14.0	-31.8	3.8	1.50e+00	0	57	104	0	0	26551
2026-01-21 08:45:23.10	119.51	8.82	-19.7	-40.9	4.1	1.50e+00	0	57	104	0	17	28612
2026-01-21 08:45:24.11	119.43	8.89	-14.4	-33.0	3.9	1.50e+00	0	57	104	0	5	22812
2026-01-21 08:45:25.12	119.35	8.97	-20.8	-38.9	3.5	1.50e+00	0	57	104	0	9	35941
2026-01-21 08:45:26.13	119.27	9.04	-20.1	-36.8	3.8	1.50e+00	0	57	104	0	10	26473
2026-01-21 08:45:27.14	119.19	9.12	-13.1	-32.9	3.8	1.50e+00	0	57	104	0	3	25287
2026-01-21 08:45:28.15	119.10	9.19	-21.3	-35.8	3.7	1.50e+00	0	57	104	0	8	26521
2026-01-21 08:45:29.16	119.02	9.27	-22.2	-38.4	3.7	1.50e+00	0	57	104	0	14	25391
2026-01-21 08:45:30.17	118.94	9.35	-21.6	-38.1	3.9	1.50e+00	0	57	104	0	14	24589
2026-01-21 08:45:31.18	118.86	9.42	-16.4	-33.8	3.4	1.50e+00	0	57	104	0	7	22388
2026-01-21 08:45:32.19	118.77	9.50	-21.5	-37.7	3.5	1.51e+00	0	57	104	0	18	18711
2026-01-21 08:45:33.20	118.69	9.58	-13.8	-33.1	3.8	1.51e+00	0	57	104	0	8	19431
2026-01-21 08:45:34.21	118.61	9.65	-14.2	-34.0	3.7	1.50e+00	0	57	104	0	7	22817
2026-01-21 08:45:35.22	118.52	9.73	-22.8	-37.7	3.7	1.50e+00	0	57	104	0	12	26268
2026-01-21 08:45:36.22	118.44	9.81	-22.5	-40.2	4.0	1.51e+00	0	57	104	0	17	26221
2026-01-21 08:45:37.23	118.35	9.88	-24.3	-39.0	3.9	1.50e+00	0	57	104	0	14	27225
2026-01-21 08:45:38.24	118.27	9.96	-20.1	-35.2	3.6	1.51e+00	0	57	104	0	16	15702
2026-01-21 08:45:39.25	118.18	10.04	-29.7	-45.5	3.8	1.51e+00	0	57	104	0	26	28721
2026-01-21 08:45:40.26	118.10	10.12	-28.2	-44.4	3.7	1.51e+00	0	57	104	0	27	23862
2026-01-21 08:45:41.26	118.01	10.19	-20.9	-36.5	4.0	1.50e+00	0	57	104	0	17	17196
2026-01-21 08:45:42.27	117.92	10.27	-20.7	-36.8	3.6	1.50e+00	0	57	104	0	12	23852
2026-01-21 08:45:43.28	117.83	10.35	-23.8	-39.5	3.8	1.50e+00	0	57	104	0	17	24134
2026-01-21 08:45:44.29	117.74	10.43	-22.1	-37.1	3.8	1.50e+00	0	57	104	0	15	20718
2026-01-21 08:45:45.29	117.66	10.51	-20.3	-37.4	3.9	1.50e+00	0	57	104	0	15	21379
2026-01-21 08:45:46.30	117.57	10.58	-25.0	-38.4	3.9	1.50e+00	0	57	104	0	12	28678
2026-01-21 08:45:47.30	117.48	10.66	-29.6	-43.8	4.4	1.51e+00	0	57	104	0	31	17719
2026-01-21 08:45:48.31	117.39	10.74	-28.1	-40.0	3.7	1.50e+00	0	57	104	0	19	23028
2026-01-21 08:45:49.32	117.30	10.82	-22.6	-35.8	3.5	1.50e+00	0	57	104	0	12	21253
2026-01-21 08:45:50.33	117.20	10.90	-28.7	-41.2	3.9	1.49e+00	0	57	104	0	22	22220
2026-01-21 08:45:51.34	117.11	10.98	-31.6	-43.3	4.1	1.48e+00	0	57	104	0	27	21035
2026-01-21 08:45:52.34	117.02	11.06	-24.2	-41.2	4.0	1.47e+00	0	57	104	0	25	18685
2026-01-21 08:45:53.35	116.93	11.14	-30.0	-41.4	4.2	1.50e+00	0	57	104	0	27	17013
2026-01-21 08:45:54.36	116.83	11.22	-33.4	-43.5	4.7	1.48e+00	0	57	104	0	33	15395
2026-01-21 08:45:55.37	116.74	11.30	-29.3	-44.0	3.9	1.50e+00	0	57	104	0	27	22955
2026-01-21 08:45:56.38	116.64	11.38	-34.8	-48.2	3.9	1.49e+00	0	57	104	0	39	18730
2026-01-21 08:45:57.39	116.55	11.46	-24.5	-38.6	3.5	1.50e+00	0	58	104	0	17	21959
2026-01-21 08:45:58.40	116.45	11.54	-19.8	-34.0	3.8	1.50e+00	0	58	104	0	12	17250
2026-01-21 08:45:59.41	116.36	11.62	-22.0	-39.9	3.7	1.50e+00	0	58	104	0	20	21304
2026-01-21 08:46:00.42	116.26	11.71	-27.8	-41.6	3.5	1.50e+00	0	58	104	0	16	32552
2026-01-21 08:46:01.42	116.16	11.79	-26.3	-40.2	3.5	1.50e+00	0	58	104	0	19	23400
2026-01-21 08:46:02.43	116.07	11.87	-30.9	-43.0	4.0	1.49e+00	0	58	104	0	23	25618
2026-01-21 08:46:03.44	115.97	11.95	-23.2	-44.9	4.5	1.50e+00	0	58	104	0	24	30051
2026-01-21 08:46:04.45	115.87	12.03	-34.0	-44.7	4.6	1.45e+00	0	58	104	0	39	12475
2026-01-21 08:46:05.46	115.77	12.12	-30.1	-44.3	3.8	1.51e+00	0	58	104	0	27	23699
2026-01-21 08:46:06.47	115.67	12.20	-29.5	-43.5	3.8	1.51e+00	0	58	104	0	27	21579
2026-01-21 08:46:07.48	115.57	12.28	-29.1	-44.5	3.9	1.51e+00	0	58	104	0	32	18248
2026-01-21 08:46:08.49	115.47	12.36	-31.4	-46.9	3.8	1.51e+00	0	58	104	0	31	25330
2026-01-21 08:46:09.50	115.36	12.45	-32.6	-48.4	4.1	1.50e+00	0	58	104	0	39	19113
2026-01-21 08:46:10.51	115.26	12.53	-30.0	-42.9	5.3	1.43e+00	0	58	104	0	36	11980
2026-01-21 08:46:11.52	115.16	12.61	-39.6	-51.0	4.8	4.53e-01	5	58	0	1048576	51	12854
2026-01-21 08:46:12.53	115.06	12.70	-32.8	-43.5	9.9	1.47e+00	5	58	104	1048576	43	8565
2026-01-21 08:46:13.54	114.95	12.78	-34.6	-44.2	8.0	7.18e-01	6	58	0	2097152	45	8329
2026-01-21 08:46:14.55	114.85	12.87	-24.8	-42.6	8.1	4.27e-01	4	58	0	4194304	39	9787
2026-01-21 08:46:15.56	114.74	12.95	-34.2	-42.5	8.8	1.59e-01	7	58	0	4194304	35	12161
2026-01-21 08:46:16.57	114.63	13.03	-32.9	-42.0	7.0	7.34e-01	13	58	0	5242880	20	27171
2026-01-21 08:46:17.58	114.53	13.12	-37.4	-43.1	11.0	4.18e-01	0	58	0	7340032	38	10921
2026-01-21 08:46:18.59	114.42	13.20	-37.6	-43.0	11.1	5.07e-02	0	58	0	10485760	44	7714
2026-01-21 08:46:19.59	114.31	13.29	-38.6	-43.1	11.7	1.80e-02	0	58	0	13631488	47	6510
2026-01-21 08:46:20.60	114.20	13.37	-36.1	-42.5	9.5	1.82e-02	0	58	0	16777216	34	12869
2026-01-21 08:46:21.61	114.10	13.46	-39.6	-43.2	11.9	5.96e-03	0	58	0	19922944	49	5884
2026-01-21 08:46:22.62	113.99	13.55	-40.1	-43.3	11.9	2.97e-03	0	58	0	23068672	50	5637
2026-01-21 08:46:23.63	113.87	13.63	-39.5	-43.2	10.6	2.28e-02	0	58	0	26214400	42	8776
2026-01-21 08:46:24.64	113.76	13.72	-40.1	-43.3	11.9	1.97e-02	0	58	0	29360128	51	5319
2026-01-21 08:46:25.65	113.65	13.80	-40.3	-43.2	12.1	1.51e-03	0	58	0	32505856	51	5251
2026-01-21 08:46:26.66	113.54	13.89	-36.9	-43.0	11.9	4.68e-03	0	58	0	35651584	49	5734
2026-01-21 08:46:27.67	113.43	13.98	-40.0	-43.1	12.1	2.09e-03	0	58	0	38797312	49	5794
2026-01-21 08:46:28.68	113.31	14.06	-40.2	-43.0	12.4	2.09e-04	0	58	0	41943040	51	5139
2026-01-21 08:46:29.68	113.20	14.15	-40.1	-43.0	12.4	8.25e-04	0	58	0	45088768	51	5125
2026-01-21 08:46:30.69	113.08	14.24	-40.1	-43.0	12.4	2.70e-04	0	58	0	48234496	51	5113
2026-01-21 08:46:31.70	112.97	14.32	-39.8	-42.9	12.4	1.79e-04	0	58	0	51380224	50	5352
2026-01-21 08:46:32.71	112.85	14.41	-40.2	-43.0	12.4	3.04e-04	0	58	0	54525952	51	5112
2026-01-21 08:46:33.72	112.73	14.50	-38.9	-42.9	12.3	1.41e-03	0	58	0	57671680	50	5351
2026-01-21 08:46:34.73	112.61	14.59	-40.1	-42.9	12.5	6.86e-04	0	58	0	60817408	51	5063
2026-01-21 08:46:35.74	112.50	14.68	-40.1	-42.8	12.4	1.06e-03	0	58	0	63963136	50	5300
2026-01-21 08:46:36.75	112.38	14.77	-40.0	-42.9	12.2	9.29e-03	0	58	0	67108864	50	5393
2026-01-21 08:46:37.76	112.26	14.85	-40.2	-42.9	12.3	8.05e-03	0	58	0	70254592	50	5389
2026-01-21 08:46:38.77	112.13	14.94	-40.2	-42.9	12.6	4.41e-03	0	58	0	73400320	50	5361
2026-01-21 08:46:39.78	112.01	15.03	-40.2	-42.9	12.6	3.45e-03	0	58	0	76546048	50	5375
2026-01-21 08:46:40.79	111.89	15.12	-39.5	-42.9	12.4	3.08e-04	0	58	0	79691776	50	5375
2026-01-21 08:46:41.80	111.77	15.21	-40.0	-42.8	12.7	4.84e-04	0	58	0	82837504	50	5283
2026-01-21 08:46:42.81	111.64	15.30	-40.2	-42.9	12.7	1.17e-04	0	58	0	85983232	51	5061
2026-01-21 08:46:43.82	111.52	15.39	-40.3	-42.9	12.6	2.03e-04	0	59	0	89128960	51	5099
2026-01-21 08:46:44.83	111.39	15.48	-40.3	-43.0	12.6	2.78e-04	0	58	0	92274688	51	5136
2026-01-21 08:46:45.84	111.27	15.57	-39.1	-43.1	12.4	1.02e-04	0	58	0	95420416	50	5508
2026-01-21 08:46:46.85	111.14	15.66	-40.4	-43.2	12.4	2.37e-04	0	58	0	98566144	51	5237
2026-01-21 08:46:47.86	111.01	15.75	-40.3	-43.0	12.6	1.40e-04	0	58	0	101711872	51	5152
2026-01-21 08:46:48.87	110.88	15.84	-40.3	-43.0	12.6	1.20e-04	0	58	0	104857600	51	5140
2026-01-21 08:46:49.87	110.75	15.93	-40.1	-43.0	12.6	1.65e-04	0	58	0	108003328	51	5155
2026-01-21 08:46:50.88	110.62	16.02	-40.4	-43.0	12.6	8.39e-05	0	59	0	111149056	51	5157
2026-01-21 08:46:51.89	110.49	16.11	-40.4	-43.1	12.5	1.03e-04	0	58	0	114294784	51	5206
2026-01-21 08:46:52.90	110.36	16.21	-40.4	-43.2	12.5	9.91e-05	0	59	0	117440512	51	5228
2026-01-21 08:46:53.91	110.23	16.30	-40.4	-43.2	12.5	1.09e-04	0	58	0	120586240	51	5220
2026-01-21 08:46:54.92	110.10	16.39	-40.5	-43.2	12.4	1.23e-04	0	59	0	123731968	51	5269
2026-01-21 08:46:55.93	109.96	16.48	-40.4	-43.1	12.5	1.36e-04	0	59	0	126877696	51	5210
2026-01-21 08:46:56.94	109.83	16.57	-40.5	-43.2	12.4	1.20e-04	0	59	0	130023424	51	5267
2026-01-21 08:46:57.95	109.69	16.67	-40.4	-43.2	12.5	1.13e-04	0	59	0	133169152	51	5219
2026-01-21 08:46:58.96	109.55	16.76	-40.5	-43.3	12.4	1.50e-04	0	58	0	136314880	51	5299
2026-01-21 08:46:59.97	109.42	16.85	-40.5	-43.3	12.4	1.76e-04	0	59	0	139460608	51	5315
2026-01-21 08:47:00.98	109.28	16.95	-40.4	-43.1	12.6	9.30e-05	0	59	0	142606336	51	5163
2026-01-21 08:47:01.99	109.14	17.04	-40.4	-43.1	12.6	8.16e-05	0	59	0	145752064	51	5181
2026-01-21 08:47:03.00	109.00	17.13	-40.4	-43.1	12.6	1.23e-04	0	59	0	148897792	51	5184
2026-01-21 08:47:04.01	108.86	17.23	-40.4	-43.2	12.6	9.46e-05	0	59	0	152043520	51	5228
2026-01-21 08:47:05.02	108.71	17.32	-40.4	-43.0	12.7	8.85e-05	0	59	0	155189248	51	5135
2026-01-21 08:47:06.03	108.57	17.41	-40.3	-42.9	12.8	6.25e-05	0	59	0	158334976	51	5098
2026-01-21 08:47:07.04	108.43	17.51	-40.3	-42.9	12.8	6.33e-05	0	59	0	161480704	51	5073
2026-01-21 08:47:08.05	108.28	17.60	-40.2	-42.8	12.9	5.56e-05	0	59	0	164626432	51	5034
2026-01-21 08:47:09.06	108.14	17.70	-40.3	-42.8	12.9	3.66e-05	0	59	0	167772160	51	5034
2026-01-21 08:47:10.07	107.99	17.79	-40.3	-42.9	12.8	5.72e-05	0	59	0	170917888	51	5075
2026-01-21 08:47:11.08	107.84	17.89	-40.3	-42.9	12.9	5.18e-05	0	59	0	174063616	51	5047
2026-01-21 08:47:12.09	107.69	17.98	-40.2	-42.8	12.9	4.11e-05	0	59	0	177209344	51	5021
2026-01-21 08:47:13.09	107.55	18.07	-40.3	-42.9	12.9	4.65e-05	0	59	0	180355072	51	5046
2026-01-21 08:47:14.10	107.39	18.17	-40.3	-42.9	12.9	5.87e-05	0	59	0	183500800	51	5052
2026-01-21 08:47:15.12	107.24	18.27	-40.2	-42.8	12.9	3.73e-05	0	59	0	186646528	51	5020
2026-01-21 08:47:16.13	107.09	18.36	-40.2	-42.7	13.1	3.28e-05	0	59	0	189792256	51	4968
2026-01-21 08:47:17.14	106.94	18.46	-40.2	-42.8	13.0	2.89e-05	0	59	0	192937984	51	5013
2026-01-21 08:47:18.15	106.78	18.55	-40.1	-42.6	13.1	2.74e-05	0	59	0	196083712	51	4905
2026-01-21 08:47:19.15	106.63	18.65	-40.2	-42.7	13.1	2.44e-05	0	59	0	199229440	51	4932
2026-01-21 08:47:20.17	106.47	18.75	-40.2	-42.8	13.0	3.20e-05	0	59	0	202375168	51	4990
2026-01-21 08:47:21.18	106.31	18.84	-40.2	-42.7	13.1	3.35e-05	0	59	0	205520896	51	4936
2026-01-21 08:47:22.19	106.15	18.94	-40.2	-42.7	13.1	3.05e-05	0	59	0	208666624	51	4956
2026-01-21 08:47:23.20	106.00	19.03	-40.1	-42.5	13.3	2.51e-05	0	59	0	212860928	51	4847
2026-01-21 08:47:24.21	105.83	19.13	-40.0	-42.5	13.3	2.74e-05	0	59	0	216006656	51	4841
2026-01-21 08:47:25.22	105.67	19.23	-40.0	-42.5	13.3	1.67e-05	0	59	0	219152384	51	4840
2026-01-21 08:47:26.23	105.51	19.33	-40.1	-42.5	13.3	2.05e-05	0	59	0	221249536	51	4840
2026-01-21 08:47:27.23	105.35	19.42	-40.1	-42.6	13.2	1.52e-05	0	59	0	224395264	51	4876
2026-01-21 08:47:28.24	105.18	19.52	-40.0	-42.4	13.4	1.98e-05	0	59	0	227540992	51	4812
2026-01-21 08:47:29.25	105.02	19.62	-40.0	-42.4	13.5	1.29e-05	0	59	0	231735296	51	4767
2026-01-21 08:47:30.26	104.85	19.71	-40.0	-42.4	13.5	1.14e-05	0	59	0	234881024	51	4777
2026-01-21 08:47:31.27	104.68	19.81	-39.9	-42.2	13.6	4.50e-06	0	59	0	238026752	51	4685
2026-01-21 08:47:32.28	104.52	19.91	-39.9	-42.3	13.5	1.14e-05	0	59	0	241172480	51	4722
2026-01-21 08:47:33.29	104.35	20.01	-40.0	-42.4	13.5	1.22e-05	0	59	0	243269632	51	4782
2026-01-21 08:47:34.30	104.17	20.11	-39.9	-42.3	13.6	1.14e-05	0	59	0	247463936	51	4708
2026-01-21 08:47:35.31	104.00	20.20	-39.9	-42.3	13.5	9.90e-06	0	59	0	250609664	51	4729
2026-01-21 08:47:36.32	103.83	20.30	-39.9	-42.3	13.5	1.52e-05	0	59	0	253755392	51	4730
2026-01-21 08:47:37.33	103.66	20.40	-39.9	-42.3	13.6	9.10e-06	0	59	0	256901120	51	4716
2026-01-21 08:47:38.34	103.48	20.50	-39.9	-42.2	13.7	8.30e-06	0	59	0	260046848	51	4683
2026-01-21 08:47:39.35	103.30	20.60	-39.8	-42.1	13.8	4.50e-06	0	59	0	263192576	51	4626
2026-01-21 08:47:40.36	103.13	20.70	-39.8	-42.1	13.8	3.80e-06	0	59	0	266338304	51	4606
2026-01-21 08:47:41.37	102.95	20.80	-39.7	-41.9	13.9	4.50e-06	0	59	0	269484032	51	4545
2026-01-21 08:47:42.38	102.77	20.89	-39.6	-41.9	14.0	0.00e+00	0	59	0	272629760	51	4516
2026-01-21 08:47:43.39	102.59	20.99	-39.7	-41.9	13.9	2.20e-06	0	59	0	275775488	51	4543
2026-01-21 08:47:44.40	102.40	21.09	-39.7	-42.0	13.8	3.80e-06	0	59	0	278921216	51	4592
2026-01-21 08:47:45.40	102.22	21.19	-39.8	-42.2	13.7	3.00e-06	0	59	0	282066944	51	4658
2026-01-21 08:47:46.41	102.04	21.29	-40.0	-42.4	13.5	3.80e-06	0	59	0	285212672	51	4797
2026-01-21 08:47:47.42	101.85	21.39	-39.9	-42.2	13.6	1.22e-05	0	59	0	288358400	51	4701
2026-01-21 08:47:48.43	101.66	21.49	-39.8	-42.1	13.8	5.30e-06	0	59	0	291504128	51	4630
2026-01-21 08:47:49.44	101.47	21.59	-39.7	-42.0	13.9	1.50e-06	0	59	0	294649856	51	4590
2026-01-21 08:47:50.45	101.28	21.69	-39.8	-42.1	13.8	3.00e-06	0	59	0	297795584	51	4604
2026-01-21 08:47:51.46	101.09	21.79	-39.7	-42.0	13.9	4.50e-06	0	59	0	300941312	51	4573
2026-01-21 08:47:52.47	100.90	21.89	-39.8	-42.0	13.9	7.00e-07	0	59	0	304087040	51	4585
2026-01-21 08:47:53.48	100.71	21.99	-39.7	-42.0	14.0	7.00e-07	0	59	0	307232768	51	4548
2026-01-21 08:47:54.49	100.51	22.09	-39.8	-42.0	13.9	3.80e-06	0	59	0	310378496	51	4596
2026-01-21 08:47:55.50	100.32	22.19	-39.8	-42.1	13.8	3.80e-06	0	59	0	313524224	51	4642
2026-01-21 08:47:56.51	100.12	22.29	-39.9	-42.2	13.7	4.50e-06	0	59	0	316669952	51	4689
2026-01-21 08:47:57.52	99.92	22.39	-39.9	-42.2	13.7	6.80e-06	0	59	0	319815680	51	4703
2026-01-21 08:47:58.53	99.72	22.49	-39.9	-42.2	13.7	6.80e-06	0	59	0	322961408	51	4704
2026-01-21 08:47:59.54	99.52	22.58	-39.8	-42.2	13.8	4.50e-06	0	59	0	326107136	51	4656
2026-01-21 08:48:00.55	99.32	22.68	-39.8	-42.1	13.9	2.20e-06	0	59	0	329252864	51	4610
2026-01-21 08:48:01.56	99.12	22.78	-39.7	-41.9	14.1	2.20e-06	0	59	0	332398592	51	4502
2026-01-21 08:48:02.57	98.91	22.88	-39.6	-41.8	14.1	7.00e-07	0	59	0	335544320	51	4472
2026-01-21 08:48:03.58	98.70	22.98	-39.7	-41.9	14.0	7.00e-07	0	60	0	338690048	51	4510
2026-01-21 08:48:04.59	98.50	23.08	-39.6	-41.9	14.0	0.00e+00	0	60	0	341835776	51	4501
2026-01-21 08:48:05.60	98.29	23.18	-39.7	-42.0	13.9	1.50e-06	0	60	0	344981504	51	4568
2026-01-21 08:48:06.61	98.08	23.28	-39.8	-42.0	13.9	3.80e-06	0	60	0	348127232	51	4581
2026-01-21 08:48:07.62	97.87	23.38	-39.8	-42.0	13.9	2.20e-06	0	60	0	351272960	51	4584
2026-01-21 08:48:08.63	97.65	23.48	-39.8	-42.0	13.9	3.80e-06	0	59	0	354418688	51	4576
2026-01-21 08:48:09.64	97.44	23.58	-39.7	-42.0	13.9	2.20e-06	0	59	0	357564416	51	4569
2026-01-21 08:48:10.65	97.22	23.68	-39.8	-42.0	14.0	4.50e-06	0	59	0	360710144	51	4576
2026-01-21 08:48:11.66	97.01	23.78	-39.7	-42.0	14.0	8.30e-06	0	60	0	363855872	51	4549
2026-01-21 08:48:12.67	96.79	23.88	-39.7	-42.0	13.9	7.60e-06	0	59	0	367001600	51	4580
2026-01-21 08:48:13.68	96.57	23.98	-39.6	-41.8	14.1	2.20e-06	0	59	0	370147328	51	4481
2026-01-21 08:48:14.69	96.35	24.08	-39.5	-41.6	14.3	2.20e-06	0	59	0	373293056	51	4388
2026-01-21 08:48:15.70	96.12	24.18	-39.4	-41.5	14.4	7.00e-07	0	60	0	376438784	50	4581
2026-01-21 08:48:16.71	95.90	24.28	-39.4	-41.6	14.4	0.00e+00	0	60	0	379584512	50	4599
2026-01-21 08:48:17.72	95.67	24.38	-39.5	-41.7	14.3	7.00e-07	0	60	0	382730240	50	4670
2026-01-21 08:48:18.73	95.45	24.47	-39.6	-41.8	14.2	0.00e+00	0	60	0	385875968	50	4706
2026-01-21 08:48:19.74	95.22	24.57	-39.6	-41.7	14.2	0.00e+00	0	59	0	389021696	50	4699
2026-01-21 08:48:20.75	94.99	24.67	-39.6	-41.8	14.2	0.00e+00	0	60	0	392167424	50	4711
2026-01-21 08:48:21.76	94.76	24.77	-39.6	-41.9	14.1	3.00e-06	0	60	0	395313152	50	4762
2026-01-21 08:48:22.77	94.52	24.87	-39.7	-42.0	13.9	3.80e-06	0	59	0	398458880	50	4845
2026-01-21 08:48:23.78	94.29	24.97	-39.8	-42.1	13.9	2.20e-06	0	60	0	401604608	50	4917
2026-01-21 08:48:24.79	94.05	25.06	-39.8	-42.1	13.8	3.80e-06	0	59	0	404750336	50	4905
2026-01-21 08:48:25.80	93.82	25.16	-39.9	-42.2	13.8	4.50e-06	0	60	0	407896064	50	4940
2026-01-21 08:48:26.81	93.58	25.26	-40.0	-42.3	13.6	8.30e-06	0	60	0	411041792	50	5027
2026-01-21 08:48:27.82	93.34	25.36	-40.1	-42.5	13.5	9.90e-06	0	60	0	414187520	50	5146
2026-01-21 08:48:28.83	93.10	25.45	-40.2	-42.6	13.4	2.05e-05	0	60	0	417333248	50	5180
2026-01-21 08:48:29.84	92.85	25.55	-40.1	-42.5	13.5	1.90e-05	0	60	0	420478976	50	5152
2026-01-21 08:48:30.85	92.61	25.65	-40.2	-42.6	13.4	1.37e-05	0	60	0	423624704	51	4921
2026-01-21 08:48:31.86	92.36	25.75	-40.2	-42.6	13.4	1.14e-05	0	60	0	426770432	51	4891
2026-01-21 08:48:32.87	92.12	25.84	-40.1	-42.5	13.4	2.21e-05	0	60	0	429916160	51	4858
2026-01-21 08:48:33.88	91.87	25.94	-40.0	-42.3	13.7	8.30e-06	0	59	0	433061888	51	4734
2026-01-21 08:48:34.89	91.62	26.03	-40.0	-42.3	13.8	6.10e-06	0	60	0	436207616	51	4717
2026-01-21 08:48:35.90	91.36	26.13	-39.9	-42.2	13.9	4.50e-06	0	59	0	439353344	51	4672
2026-01-21 08:48:36.91	91.11	26.22	-39.9	-42.2	13.9	6.80e-06	0	60	0	442499072	51	4657
2026-01-21 08:48:37.92	90.85	26.32	-39.9	-42.2	13.8	3.00e-06	0	60	0	445644800	51	4694
2026-01-21 08:48:38.93	90.60	26.41	-40.0	-42.3	13.8	6.10e-06	0	59	0	448790528	51	4748
2026-01-21 08:48:39.94	90.34	26.51	-40.0	-42.4	13.7	9.90e-06	0	60	0	451936256	51	4765
2026-01-21 08:48:40.95	90.08	26.60	-40.0	-42.4	13.7	3.80e-06	0	60	0	455081984	51	4762
2026-01-21 08:48:41.96	89.82	26.70	-40.1	-42.5	13.6	1.06e-05	0	60	0	458227712	51	4830
2026-01-21 08:48:42.97	89.55	26.79	-40.1	-42.5	13.5	9.90e-06	0	60	0	461373440	51	4858
2026-01-21 08:48:43.98	89.29	26.88	-40.2	-42.6	13.4	1.14e-05	0	60	0	464519168	51	4916
2026-01-21 08:48:44.99	89.02	26.98	-40.3	-42.7	13.3	1.14e-05	0	60	0	467664896	51	4955
2026-01-21 08:48:46.00	88.76	27.07	-40.3	-42.7	13.3	2.74e-05	0	60	0	470810624	51	4981
2026-01-21 08:48:47.01	88.49	27.16	-40.2	-42.6	13.5	1.14e-05	0	60	0	473956352	51	4889
2026-01-21 08:48:48.02	88.22	27.25	-40.1	-42.5	13.6	1.37e-05	0	60	0	477102080	51	4848
2026-01-21 08:48:49.03	87.94	27.34	-40.2	-42.6	13.5	7.60e-06	0	60	0	480247808	51	4914
2026-01-21 08:48:50.03	87.67	27.43	-40.2	-42.7	13.4	1.06e-05	0	59	0	483393536	51	4930
2026-01-21 08:48:51.04	87.40	27.52	-40.3	-42.7	13.4	1.22e-05	0	60	0	486539264	51	4981
2026-01-21 08:48:52.05	87.12	27.61	-40.2	-42.6	13.5	1.22e-05	0	60	0	489684992	51	4893
2026-01-21 08:48:53.06	86.84	27.70	-40.1	-42.4	13.7	7.60e-06	0	60	0	492830720	51	4808
2026-01-21 08:48:54.07	86.56	27.79	-40.1	-42.5	13.6	5.30e-06	0	60	0	495976448	51	4849
2026-01-21 08:48:55.08	86.28	27.88	-40.1	-42.5	13.6	3.00e-06	0	60	0	499122176	51	4837
2026-01-21 08:48:56.09	86.00	27.97	-40.2	-42.5	13.6	7.60e-06	0	60	0	502267904	51	4848
2026-01-21 08:48:57.10	85.71	28.05	-40.1	-42.5	13.6	6.80e-06	0	60	0	505413632	51	4834
2026-01-21 08:48:58.11	85.43	28.14	-40.1	-42.5	13.6	1.06e-05	0	60	0	508559360	51	4841
2026-01-21 08:48:59.12	85.14	28.23	-40.2	-42.5	13.6	9.10e-06	0	60	0	511705088	51	4856
2026-01-21 08:49:00.13	84.85	28.31	-40.2	-42.6	13.5	9.90e-06	0	60	0	514850816	51	4901
2026-01-21 08:49:01.14	84.56	28.40	-40.1	-42.5	13.6	4.50e-06	0	60	0	517996544	51	4838
2026-01-21 08:49:02.15	84.27	28.48	-40.2	-42.5	13.6	9.90e-06	0	60	0	521142272	51	4862
2026-01-21 08:49:03.16	83.97	28.57	-40.2	-42.5	13.6	6.10e-06	0	60	0	524288000	51	4859
2026-01-21 08:49:04.17	83.68	28.65	-40.2	-42.6	13.5	1.44e-05	0	59	0	527433728	51	4905
2026-01-21 08:49:05.18	83.38	28.73	-40.3	-42.7	13.4	1.22e-05	0	60	0	530579456	51	4959
2026-01-21 08:49:06.19	83.08	28.82	-40.4	-42.8	13.3	1.60e-05	0	60	0	533725184	51	5024
2026-01-21 08:49:07.20	82.78	28.90	-40.5	-43.0	13.2	1.29e-05	0	60	0	536870912	51	5116
2026-01-21 08:49:08.20	82.48	28.98	-40.4	-42.9	13.3	2.36e-05	0	60	0	540016640	51	5069
2026-01-21 08:49:09.21	82.18	29.06	-40.3	-42.8	13.4	1.37e-05	0	60	0	543162368	51	4997
2026-01-21 08:49:10.22	81.87	29.14	-40.2	-42.6	13.5	1.06e-05	0	59	0	546308096	51	4913
2026-01-21 08:49:11.23	81.57	29.22	-40.1	-42.5	13.7	6.10e-06	0	60	0	549453824	51	4818
2026-01-21 08:49:12.24	81.26	29.30	-40.0	-42.3	13.9	4.50e-06	0	60	0	552599552	51	4722
2026-01-21 08:49:13.25	80.95	29.37	-40.1	-42.4	13.7	6.10e-06	0	59	0	556793856	51	4806
2026-01-21 08:49:14.26	80.64	29.45	-40.1	-42.5	13.7	3.80e-06	0	60	0	559939584	51	4818
2026-01-21 08:49:15.27	80.33	29.53	-40.2	-42.5	13.6	6.80e-06	0	60	0	562036736	51	4859
2026-01-21 08:49:16.28	80.01	29.60	-40.2	-42.6	13.6	6.80e-06	0	60	0	565182464	51	4882
2026-01-21 08:49:17.29	79.70	29.68	-40.2	-42.6	13.6	1.06e-05	0	60	0	568328192	51	4899
2026-01-21 08:49:18.30	79.38	29.75	-40.2	-42.6	13.6	1.44e-05	0	60	0	571473920	51	4879
2026-01-21 08:49:19.31	79.06	29.82	-40.2	-42.5	13.6	5.30e-06	0	60	0	575668224	52	4588
2026-01-21 08:49:20.32	78.74	29.89	-40.3	-42.7	13.4	1.06e-05	0	60	0	578813952	52	4676
2026-01-21 08:49:21.33	78.42	29.97	-40.3	-42.8	13.3	1.60e-05	0	60	0	581959680	52	4715
2026-01-21 08:49:22.34	78.10	30.04	-40.4	-42.8	13.3	2.13e-05	0	60	0	584056832	52	4753
2026-01-21 08:49:23.35	77.78	30.11	-40.3	-42.8	13.3	1.90e-05	0	60	0	587202560	52	4719
2026-01-21 08:49:24.36	77.45	30.18	-40.4	-42.9	13.3	2.05e-05	0	60	0	591396864	52	4768
2026-01-21 08:49:25.37	77.13	30.24	-40.5	-43.0	13.2	2.36e-05	0	60	0	594542592	52	4831
2026-01-21 08:49:26.37	76.80	30.31	-40.5	-43.0	13.2	2.59e-05	0	60	0	597688320	52	4837
2026-01-21 08:49:27.38	76.47	30.38	-40.6	-43.1	13.0	2.44e-05	0	60	0	600834048	52	4899
2026-01-21 08:49:28.39	76.14	30.44	-40.5	-43.0	13.1	2.82e-05	0	60	0	603979776	52	4863
2026-01-21 08:49:29.40	75.81	30.51	-40.4	-42.9	13.3	1.90e-05	0	60	0	607125504	52	4770
2026-01-21 08:49:30.41	75.48	30.57	-40.4	-42.8	13.4	1.60e-05	0	60	0	610271232	52	4715
2026-01-21 08:49:31.42	75.14	30.63	-40.4	-42.8	13.4	1.29e-05	0	60	0	613416960	52	4709
2026-01-21 08:49:32.43	74.81	30.69	-40.3	-42.7	13.5	1.06e-05	0	60	0	616562688	52	4670
2026-01-21 08:49:33.44	74.47	30.75	-40.3	-42.7	13.5	1.06e-05	0	60	0	619708416	52	4661
2026-01-21 08:49:34.45	74.13	30.81	-40.3	-42.7	13.4	1.67e-05	0	60	0	622854144	52	4694
2026-01-21 08:49:35.46	73.79	30.87	-40.4	-42.9	13.3	1.37e-05	0	60	0	625999872	52	4763
2026-01-21 08:49:36.47	73.45	30.93	-40.4	-42.8	13.3	1.44e-05	0	60	0	629145600	52	4759
2026-01-21 08:49:37.48	73.11	30.98	-40.5	-43.1	13.1	2.13e-05	0	60	0	632291328	52	4875
2026-01-21 08:49:38.50	72.76	31.04	-40.6	-43.1	13.1	2.13e-05	0	60	0	635437056	52	4903
2026-01-21 08:49:39.51	72.42	31.09	-40.6	-43.1	13.0	4.11e-05	0	60	0	638582784	52	4921
2026-01-21 08:49:40.52	72.07	31.15	-40.7	-43.2	12.9	3.66e-05	0	60	0	641728512	52	4975
2026-01-21 08:49:41.52	71.73	31.20	-40.7	-43.4	12.8	3.89e-05	0	60	0	644874240	52	5042
2026-01-21 08:49:42.53	71.38	31.25	-40.8	-43.4	12.8	6.48e-05	0	60	0	648019968	52	5071
2026-01-21 08:49:43.55	71.03	31.30	-40.8	-43.5	12.7	8.31e-05	0	60	0	651165696	52	5115
2026-01-21 08:49:44.56	70.68	31.35	-40.8	-43.4	12.8	7.78e-05	0	60	0	654311424	52	5074
2026-01-21 08:49:45.57	70.33	31.40	-40.8	-43.4	12.8	6.17e-05	0	60	0	657457152	52	5068
2026-01-21 08:49:46.58	69.98	31.44	-40.8	-43.4	12.7	8.23e-05	0	60	0	660602880	52	5093
2026-01-21 08:49:47.59	69.62	31.49	-40.9	-43.6	12.6	9.46e-05	0	60	0	663748608	52	5165
2026-01-21 08:49:48.60	69.27	31.53	-40.7	-43.3	12.9	5.72e-05	0	60	0	666894336	52	5007
2026-01-21 08:49:49.61	68.91	31.58	-40.6	-43.2	13.0	3.73e-05	0	60	0	670040064	52	4951
2026-01-21 08:49:50.62	68.56	31.62	-40.6	-43.2	13.0	3.28e-05	0	60	0	673185792	52	4944
2026-01-21 08:49:51.63	68.20	31.66	-40.7	-43.2	13.0	4.42e-05	0	60	0	676331520	52	4977
2026-01-21 08:49:52.64	67.84	31.70	-40.7	-43.3	12.9	4.11e-05	0	60	0	679477248	52	5035
2026-01-21 08:49:53.65	67.49	31.74	-40.6	-43.2	13.0	4.19e-05	0	60	0	682622976	52	4951
2026-01-21 08:49:54.66	67.13	31.77	-40.6	-43.2	13.0	2.74e-05	0	60	0	685768704	52	4939
2026-01-21 08:49:55.67	66.77	31.81	-40.6	-43.0	13.1	4.19e-05	0	60	0	688914432	52	4870
2026-01-21 08:49:56.68	66.41	31.84	-40.5	-43.0	13.1	3.43e-05	0	60	0	692060160	52	4856
2026-01-21 08:49:57.69	66.04	31.88	-40.5	-43.0	13.1	5.11e-05	0	60	0	695205888	52	4861
2026-01-21 08:49:58.70	65.68	31.91	-40.5	-43.0	13.2	2.51e-05	0	60	0	698351616	52	4860
2026-01-21 08:49:59.71	65.32	31.94	-40.6	-43.0	13.2	2.74e-05	0	60	0	701497344	52	4868
2026-01-21 08:50:00.72	64.96	31.97	-40.7	-43.2	13.0	3.43e-05	0	60	0	704643072	52	4967
2026-01-21 08:50:01.73	64.59	32.00	-40.8	-43.4	12.8	5.56e-05	0	60	0	707788800	52	5075
2026-01-21 08:50:02.74	64.23	32.03	-40.9	-43.7	12.6	8.85e-05	0	60	0	710934528	52	5226
2026-01-21 08:50:03.75	63.86	32.05	-40.9	-43.6	12.6	7.93e-05	0	60	0	714080256	52	5218
2026-01-21 08:50:04.76	63.49	32.08	-41.0	-43.7	12.5	9.23e-05	0	60	0	717225984	52	5234
2026-01-21 08:50:05.77	63.13	32.10	-40.8	-43.5	12.7	8.54e-05	0	60	0	720371712	52	5105
2026-01-21 08:50:06.78	62.76	32.12	-40.8	-43.5	12.7	8.69e-05	0	60	0	723517440	52	5136
2026-01-21 08:50:07.79	62.39	32.14	-40.9	-43.6	12.7	9.07e-05	0	60	0	726663168	52	5170
2026-01-21 08:50:08.80	62.03	32.16	-40.8	-43.4	12.8	4.65e-05	0	60	0	729808896	52	5055
2026-01-21 08:50:09.81	61.66	32.18	-40.8	-43.4	12.8	4.57e-05	0	60	0	732954624	52	5074
2026-01-21 08:50:10.82	61.29	32.19	-40.7	-43.3	12.9	4.88e-05	0	60	0	736100352	52	5013
2026-01-21 08:50:11.83	60.92	32.21	-40.7	-43.2	13.0	3.81e-05	0	60	0	739246080	52	4966
2026-01-21 08:50:12.83	60.55	32.22	-40.7	-43.3	12.9	5.34e-05	0	60	0	742391808	52	4989
2026-01-21 08:50:13.84	60.18	32.24	-40.8	-43.4	12.8	3.73e-05	0	60	0	745537536	52	5073
2026-01-21 08:50:14.85	59.81	32.25	-40.9	-43.5	12.7	6.79e-05	0	60	0	748683264	52	5147
2026-01-21 08:50:15.86	59.44	32.26	-40.9	-43.6	12.7	9.15e-05	0	60	0	751828992	52	5182
2026-01-21 08:50:16.87	59.07	32.26	-41.0	-43.7	12.6	9.30e-05	0	60	0	754974720	52	5232
2026-01-21 08:50:17.88	58.70	32.27	-40.8	-43.5	12.7	8.31e-05	0	60	0	758120448	52	5129
2026-01-21 08:50:18.89	58.33	32.28	-40.9	-43.5	12.7	8.31e-05	0	60	0	761266176	52	5148
2026-01-21 08:50:19.90	57.96	32.28	-40.8	-43.4	12.8	6.10e-05	0	60	0	764411904	52	5087
2026-01-21 08:50:20.91	57.59	32.28	-40.8	-43.4	12.8	6.86e-05	0	60	0	767557632	52	5095
2026-01-21 08:50:21.93	57.22	32.29	-40.8	-43.5	12.8	5.87e-05	0	60	0	770703360	52	5108
2026-01-21 08:50:22.94	56.84	32.29	-40.9	-43.5	12.7	7.70e-05	0	60	0	773849088	52	5156
2026-01-21 08:50:23.95	56.47	32.29	-40.9	-43.6	12.7	7.47e-05	0	60	0	776994816	52	5165
2026-01-21 08:50:24.96	56.10	32.28	-40.8	-43.4	12.9	6.71e-05	0	60	0	780140544	52	5054
2026-01-21 08:50:25.97	55.73	32.28	-40.8	-43.4	12.8	5.87e-05	0	60	0	783286272	52	5086
2026-01-21 08:50:26.98	55.36	32.27	-40.7	-43.3	13.0	5.03e-05	0	60	0	786432000	52	5015
2026-01-21 08:50:27.99	54.99	32.27	-40.7	-43.3	13.0	3.12e-05	0	60	0	789577728	52	4990
2026-01-21 08:50:28.99	54.62	32.26	-40.8	-43.3	12.9	5.56e-05	0	60	0	792723456	52	5038
2026-01-21 08:50:30.00	54.25	32.25	-40.7	-43.3	12.9	4.34e-05	0	60	0	795869184	52	5012
2026-01-21 08:50:31.01	53.88	32.24	-40.6	-43.1	13.1	4.19e-05	0	60	0	799014912	52	4925
2026-01-21 08:50:32.02	53.51	32.23	-40.6	-43.0	13.3	1.90e-05	0	61	0	802160640	52	4838
2026-01-21 08:50:33.03	53.15	32.21	-40.5	-43.0	13.3	1.90e-05	0	60	0	805306368	52	4834
2026-01-21 08:50:34.04	52.78	32.20	-40.6	-43.0	13.2	2.51e-05	0	60	0	808452096	52	4855
2026-01-21 08:50:35.05	52.41	32.18	-40.7	-43.2	13.0	2.74e-05	0	61	0	811597824	52	4964
2026-01-21 08:50:36.06	52.04	32.17	-40.7	-43.2	13.1	3.58e-05	0	60	0	814743552	52	4957
2026-01-21 08:50:37.07	51.67	32.15	-40.7	-43.2	13.0	3.58e-05	0	60	0	817889280	52	4962
2026-01-21 08:50:38.08	51.30	32.13	-40.6	-43.1	13.2	3.20e-05	0	60	0	821035008	52	4889
2026-01-21 08:50:39.09	50.94	32.11	-40.6	-43.1	13.2	2.44e-05	0	60	0	824180736	52	4874
2026-01-21 08:50:40.10	50.57	32.08	-40.5	-43.0	13.3	1.83e-05	0	60	0	827326464	52	4845
2026-01-21 08:50:41.11	50.20	32.06	-40.6	-43.1	13.1	2.44e-05	0	60	0	830472192	52	4910
2026-01-21 08:50:42.12	49.84	32.04	-40.7	-43.2	13.1	3.66e-05	0	60	0	833617920	52	4958
2026-01-21 08:50:43.13	49.47	32.01	-40.8	-43.4	12.9	4.11e-05	0	60	0	836763648	52	5055
2026-01-21 08:50:44.14	49.11	31.98	-40.8	-43.5	12.8	6.63e-05	0	60	0	839909376	52	5120
2026-01-21 08:50:45.15	48.75	31.95	-40.9	-43.6	12.7	7.24e-05	0	60	0	843055104	52	5194
2026-01-21 08:50:46.16	48.38	31.92	-40.9	-43.6	12.7	7.01e-05	0	60	0	846200832	52	5175
2026-01-21 08:50:47.17	48.02	31.89	-40.8	-43.3	12.9	5.41e-05	0	60	0	849346560	52	5029
2026-01-21 08:50:48.18	47.66	31.86	-40.7	-43.3	13.0	2.74e-05	0	60	0	852492288	52	4987
2026-01-21 08:50:49.19	47.30	31.82	-40.7	-43.2	13.1	4.11e-05	0	60	0	855638016	52	4978
2026-01-21 08:50:50.19	46.94	31.79	-40.6	-43.2	13.1	2.82e-05	0	60	0	858783744	52	4933
2026-01-21 08:50:51.20	46.58	31.75	-40.7	-43.2	13.1	2.67e-05	0	60	0	861929472	52	4969
2026-01-21 08:50:52.21	46.23	31.72	-40.6	-43.1	13.2	2.74e-05	0	61	0	865075200	52	4896
2026-01-21 08:50:53.22	45.87	31.68	-40.6	-43.1	13.1	1.98e-05	0	60	0	868220928	52	4908
2026-01-21 08:50:54.23	45.51	31.64	-40.7	-43.3	13.0	2.36e-05	0	60	0	871366656	52	4991
2026-01-21 08:50:55.24	45.16	31.59	-40.9	-43.5	12.8	7.01e-05	0	60	0	874512384	52	5131
2026-01-21 08:50:56.25	44.80	31.55	-40.9	-43.6	12.6	8.77e-05	0	60	0	877658112	52	5216
2026-01-21 08:50:57.26	44.45	31.51	-40.9	-43.6	12.7	7.85e-05	0	61	0	880803840	52	5188
2026-01-21 08:50:58.27	44.10	31.46	-40.9	-43.6	12.7	8.08e-05	0	60	0	883949568	52	5184
2026-01-21 08:50:59.28	43.74	31.42	-40.8	-43.4	12.9	6.56e-05	0	60	0	887095296	52	5050
2026-01-21 08:51:00.29	43.39	31.37	-40.7	-43.2	13.1	4.73e-05	0	60	0	890241024	52	4958
2026-01-21 08:51:01.30	43.04	31.32	-40.5	-43.0	13.3	1.90e-05	0	60	0	893386752	52	4827
2026-01-21 08:51:02.31	42.70	31.27	-40.6	-43.1	13.2	2.13e-05	0	60	0	897581056	52	4876
2026-01-21 08:51:03.32	42.35	31.22	-40.7	-43.3	13.0	3.73e-05	0	60	0	899678208	52	4999
2026-01-21 08:51:04.33	42.00	31.17	-41.0	-43.7	12.6	7.47e-05	0	60	0	902823936	52	5260
2026-01-21 08:51:05.34	41.66	31.12	-41.1	-44.0	12.3	1.55e-04	0	60	0	905969664	52	5420
2026-01-21 08:51:06.35	41.31	31.06	-41.2	-44.1	12.2	2.37e-04	0	60	0	909115392	53	5177
2026-01-21 08:51:07.36	40.97	31.01	-41.0	-43.8	12.5	1.56e-04	0	60	0	913309696	53	4995
2026-01-21 08:51:08.37	40.63	30.95	-40.7	-43.3	13.0	4.95e-05	0	60	0	916455424	53	4716
2026-01-21 08:51:09.38	40.29	30.90	-40.6	-43.0	13.2	2.74e-05	0	60	0	919601152	53	4594
2026-01-21 08:51:10.38	39.95	30.84	-40.4	-42.8	13.5	1.83e-05	0	60	0	922746880	52	4710
2026-01-21 08:51:11.39	39.61	30.78	-40.4	-42.8	13.4	1.52e-05	0	60	0	924844032	52	4736
2026-01-21 08:51:12.40	39.28	30.72	-40.5	-42.9	13.4	1.75e-05	0	60	0	929038336	52	4790
2026-01-21 08:51:13.41	38.94	30.66	-40.7	-43.3	13.0	3.66e-05	0	60	0	932184064	52	4988
2026-01-21 08:51:14.42	38.61	30.60	-40.9	-43.5	12.7	6.79e-05	0	60	0	935329792	52	5156
2026-01-21 08:51:15.43	38.27	30.54	-40.8	-43.5	12.7	7.32e-05	0	60	0	938475520	52	5126
2026-01-21 08:51:16.44	37.94	30.47	-40.8	-43.4	12.8	6.86e-05	0	60	0	941621248	52	5072
2026-01-21 08:51:17.45	37.61	30.41	-40.8	-43.4	12.8	6.63e-05	0	60	0	944766976	52	5093
2026-01-21 08:51:18.46	37.28	30.34	-40.8	-43.4	12.8	4.88e-05	0	60	0	947912704	52	5061
2026-01-21 08:51:19.47	36.95	30.28	-40.7	-43.3	12.9	4.34e-05	0	60	0	951058432	52	5006
2026-01-21 08:51:20.47	36.63	30.21	-40.7	-43.2	13.0	3.05e-05	0	60	0	954204160	52	4964
2026-01-21 08:51:21.48	36.31	30.14	-40.6	-43.2	13.1	3.05e-05	0	60	0	957349888	52	4929
2026-01-21 08:51:22.50	35.98	30.07	-40.7	-43.3	12.9	4.80e-05	0	60	0	960495616	52	4996
2026-01-21 08:51:23.51	35.66	30.00	-40.7	-43.3	12.9	5.87e-05	0	60	0	963641344	52	5017
2026-01-21 08:51:24.52	35.34	29.93	-40.6	-43.1	13.2	3.05e-05	0	60	0	966787072	52	4887
2026-01-21 08:51:25.53	35.02	29.86	-40.5	-43.0	13.3	2.67e-05	0	61	0	969932800	52	4816
2026-01-21 08:51:26.54	34.70	29.79	-40.5	-42.9	13.4	2.05e-05	0	60	0	973078528	52	4783
2026-01-21 08:51:27.55	34.38	29.71	-40.4	-42.8	13.4	1.14e-05	0	60	0	976224256	52	4740
2026-01-21 08:51:28.56	34.07	29.64	-40.5	-42.9	13.3	1.75e-05	0	60	0	979369984	52	4812
2026-01-21 08:51:29.57	33.76	29.56	-40.6	-43.2	13.1	2.28e-05	0	60	0	982515712	52	4939
2026-01-21 08:51:30.58	33.44	29.49	-40.9	-43.5	12.7	3.89e-05	0	60	0	985661440	52	5127
2026-01-21 08:51:31.59	33.13	29.41	-40.8	-43.5	12.7	8.16e-05	0	60	0	988807168	52	5136
2026-01-21 08:51:32.60	32.82	29.34	-40.6	-43.2	13.0	4.19e-05	0	60	0	991952896	52	4929
2026-01-21 08:51:33.61	32.52	29.26	-40.4	-42.8	13.4	1.83e-05	0	60	0	995098624	52	4712
2026-01-21 08:51:34.62	32.21	29.18	-40.2	-42.5	13.7	1.06e-05	0	60	0	998244352	52	4572
2026-01-21 08:51:35.63	31.91	29.10	-40.1	-42.3	13.9	5.30e-06	0	60	0	1001390080	52	4474
2026-01-21 08:51:36.64	31.60	29.02	-40.1	-42.3	13.9	7.00e-07	0	61	0	1004535808	52	4490
2026-01-21 08:51:37.64	31.31	28.94	-40.2	-42.5	13.8	6.10e-06	0	61	0	1007681536	52	4551
2026-01-21 08:51:38.65	31.01	28.86	-40.4	-42.9	13.3	9.10e-06	0	60	0	1010827264	52	4773
2026-01-21 08:51:39.66	30.71	28.78	-40.6	-43.2	13.0	3.58e-05	0	60	0	1013972992	52	4949
2026-01-21 08:51:40.67	30.41	28.70	-40.6	-43.2	13.0	4.42e-05	0	61	0	1017118720	52	4937
2026-01-21 08:51:41.68	30.12	28.61	-40.5	-43.0	13.2	2.97e-05	0	61	0	1020264448	52	4833
2026-01-21 08:51:42.69	29.82	28.53	-40.3	-42.8	13.3	2.21e-05	0	60	0	1023410176	52	4733
2026-01-21 08:51:43.71	29.53	28.44	-40.3	-42.7	13.4	1.44e-05	0	61	0	1026555904	52	4669
2026-01-21 08:51:44.72	29.24	28.36	-40.3	-42.7	13.4	1.83e-05	0	60	0	1029701632	52	4694
2026-01-21 08:51:45.73	28.95	28.27	-40.2	-42.6	13.5	1.44e-05	0	61	0	1032847360	52	4628
2026-01-21 08:51:46.74	28.66	28.19	-40.4	-42.8	13.4	1.29e-05	0	61	0	1035993088	52	4723
2026-01-21 08:51:47.75	28.37	28.10	-40.5	-43.0	13.2	2.89e-05	0	60	0	1039138816	52	4851
2026-01-21 08:51:48.76	28.09	28.01	-40.7	-43.3	12.9	4.04e-05	0	61	0	1042284544	52	5003
2026-01-21 08:51:49.77	27.81	27.93	-40.6	-43.1	13.0	3.58e-05	0	61	0	1045430272	52	4906
2026-01-21 08:51:50.78	27.53	27.84	-40.4	-42.9	13.2	1.90e-05	0	60	0	1048576000	52	4790
2026-01-21 08:51:51.79	27.25	27.75	-40.2	-42.6	13.5	1.29e-05	0	60	0	1051721728	52	4625
2026-01-21 08:51:52.79	26.97	27.66	-40.2	-42.5	13.7	6.80e-06	0	60	0	1054867456	52	4562
2026-01-21 08:51:53.80	26.69	27.57	-40.2	-42.6	13.6	7.60e-06	0	60	0	1058013184	52	4605
2026-01-21 08:51:54.81	26.42	27.48	-40.0	-42.2	13.9	2.20e-06	0	60	0	1061158912	52	4432
2026-01-21 08:51:55.82	26.15	27.39	-40.2	-42.5	13.8	3.00e-06	0	60	0	1064304640	51	4838
2026-01-21 08:51:56.83	25.87	27.30	-40.2	-42.5	13.8	4.50e-06	0	60	0	1067450368	51	4831
2026-01-21 08:51:57.84	25.60	27.21	-40.2	-42.5	13.8	1.50e-06	0	60	0	1070596096	51	4841
2026-01-21 08:51:58.85	25.33	27.12	-40.3	-42.6	13.6	9.10e-06	0	60	0	1073741824	51	4926
2026-01-21 08:51:59.86	25.07	27.03	-40.4	-42.7	13.5	4.50e-06	0	60	0	1076887552	51	4979
2026-01-21 08:52:00.87	24.80	26.94	-40.3	-42.6	13.7	7.60e-06	0	60	0	1080033280	51	4888
2026-01-21 08:52:01.88	24.54	26.84	-40.2	-42.5	13.8	3.80e-06	0	61	0	1083179008	51	4818
2026-01-21 08:52:02.89	24.28	26.75	-40.2	-42.4	13.8	4.50e-06	0	61	0	1086324736	51	4800
2026-01-21 08:52:03.90	24.01	26.66	-40.1	-42.4	13.9	3.80e-06	0	60	0	1089470464	51	4760
2026-01-21 08:52:04.91	23.75	26.57	-40.1	-42.4	13.9	4.50e-06	0	60	0	1092616192	51	4786
2026-01-21 08:52:05.92	23.50	26.47	-40.2	-42.5	13.8	4.50e-06	0	60	0	1095761920	51	4841
2026-01-21 08:52:06.93	23.24	26.38	-40.3	-42.6	13.6	4.50e-06	0	60	0	1098907648	51	4899
2026-01-21 08:52:07.94	22.99	26.28	-40.3	-42.6	13.6	6.80e-06	0	61	0	1102053376	51	4907
2026-01-21 08:52:08.95	22.73	26.19	-40.2	-42.5	13.8	6.80e-06	0	61	0	1105199104	51	4849
2026-01-21 08:52:09.96	22.48	26.09	-40.1	-42.3	13.9	3.00e-06	0	61	0	1108344832	51	4743
2026-01-21 08:52:10.97	22.23	26.00	-40.0	-42.3	14.0	3.80e-06	0	61	0	1111490560	51	4710
2026-01-21 08:52:11.98	21.98	25.90	-40.1	-42.4	13.9	3.00e-06	0	60	0	1114636288	51	4786
2026-01-21 08:52:12.99	21.73	25.81	-40.2	-42.6	13.7	6.10e-06	0	60	0	1117782016	51	4878
2026-01-21 08:52:14.00	21.49	25.71	-40.3	-42.8	13.5	1.06e-05	0	61	0	1120927744	51	4986
2026-01-21 08:52:15.01	21.24	25.61	-40.4	-42.9	13.3	1.52e-05	0	60	0	1124073472	51	5067
2026-01-21 08:52:16.02	21.00	25.52	-40.5	-43.0	13.2	2.28e-05	0	60	0	1127219200	51	5108
2026-01-21 08:52:17.03	20.76	25.42	-40.6	-43.0	13.2	2.89e-05	0	61	0	1130364928	51	5146
2026-01-21 08:52:18.04	20.52	25.32	-40.4	-42.8	13.3	2.21e-05	0	61	0	1133510656	51	5018
2026-01-21 08:52:19.05	20.28	25.23	-40.3	-42.7	13.4	2.21e-05	0	60	0	1136656384	51	4941
2026-01-21 08:52:20.06	20.05	25.13	-40.2	-42.5	13.6	1.60e-05	0	61	0	1139802112	51	4863
2026-01-21 08:52:21.07	19.81	25.03	-40.2	-42.4	13.7	2.20e-06	0	60	0	1142947840	51	4802
2026-01-21 08:52:22.07	19.58	24.94	-40.1	-42.4	13.8	3.00e-06	0	61	0	1146093568	51	4763
2026-01-21 08:52:23.08	19.35	24.84	-40.2	-42.4	13.7	6.10e-06	0	60	0	1149239296	51	4811
2026-01-21 08:52:24.09	19.12	24.74	-40.2	-42.5	13.7	2.20e-06	0	60	0	1152385024	51	4823
2026-01-21 08:52:25.10	18.89	24.64	-40.2	-42.6	13.6	7.60e-06	0	61	0	1155530752	51	4880
2026-01-21 08:52:26.11	18.66	24.54	-40.3	-42.6	13.5	5.30e-06	0	60	0	1158676480	51	4907
2026-01-21 08:52:27.12	18.43	24.45	-40.3	-42.6	13.5	1.60e-05	0	61	0	1161822208	51	4911
2026-01-21 08:52:28.13	18.21	24.35	-40.2	-42.5	13.6	7.60e-06	0	61	0	1164967936	51	4830
2026-01-21 08:52:29.14	17.98	24.25	-40.1	-42.4	13.7	5.30e-06	0	61	0	1168113664	51	4788
2026-01-21 08:52:30.15	17.76	24.15	-40.1	-42.4	13.7	9.10e-06	0	60	0	1171259392	51	4778
2026-01-21 08:52:31.16	17.54	24.05	-40.1	-42.5	13.6	1.06e-05	0	61	0	1174405120	51	4822
2026-01-21 08:52:32.17	17.32	23.95	-40.0	-42.2	13.9	3.80e-06	0	61	0	1177550848	51	4683
2026-01-21 08:52:33.18	17.10	23.85	-39.8	-42.0	14.1	3.80e-06	0	60	0	1180696576	51	4590
2026-01-21 08:52:34.19	16.89	23.75	-39.9	-42.1	14.0	4.50e-06	0	60	0	1183842304	51	4615
2026-01-21 08:52:35.19	16.67	23.66	-39.9	-42.2	13.9	6.10e-06	0	60	0	1186988032	51	4652
2026-01-21 08:52:36.20	16.46	23.56	-40.0	-42.3	13.8	6.10e-06	0	61	0	1190133760	51	4721
2026-01-21 08:52:37.21	16.25	23.46	-40.1	-42.4	13.7	6.10e-06	0	61	0	1193279488	51	4763
2026-01-21 08:52:38.22	16.04	23.36	-40.1	-42.5	13.6	8.30e-06	0	61	0	1196425216	51	4822
2026-01-21 08:52:39.23	15.83	23.26	-40.2	-42.5	13.5	1.75e-05	0	60	0	1199570944	51	4862
2026-01-21 08:52:40.24	15.62	23.16	-40.1	-42.5	13.5	9.90e-06	0	60	0	1202716672	51	4836
2026-01-21 08:52:41.25	15.41	23.06	-40.2	-42.6	13.4	1.14e-05	0	60	0	1205862400	51	4888
2026-01-21 08:52:42.26	15.21	22.96	-40.3	-42.7	13.4	1.22e-05	0	60	0	1209008128	51	4927
2026-01-21 08:52:43.27	15.00	22.86	-40.4	-42.9	13.1	2.13e-05	0	60	0	1212153856	51	5072
2026-01-21 08:52:44.28	14.80	22.76	-40.5	-43.1	13.0	2.59e-05	0	61	0	1215299584	51	5169
2026-01-21 08:52:45.29	14.60	22.66	-40.6	-43.2	12.8	5.79e-05	0	61	0	1218445312	51	5246
2026-01-21 08:52:46.30	14.40	22.56	-40.6	-43.2	12.8	5.87e-05	0	61	0	1221591040	51	5243
2026-01-21 08:52:47.31	14.20	22.47	-40.6	-43.2	12.8	6.17e-05	0	61	0	1224736768	51	5238
2026-01-21 08:52:48.32	14.00	22.37	-40.6	-43.2	12.8	6.02e-05	0	60	0	1227882496	51	5259
2026-01-21 08:52:49.33	13.80	22.27	-40.6	-43.1	12.9	4.95e-05	0	60	0	1231028224	51	5198
2026-01-21 08:52:50.34	13.61	22.17	-40.5	-43.0	13.0	3.58e-05	0	61	0	1234173952	51	5149
2026-01-21 08:52:51.35	13.41	22.07	-40.4	-42.8	13.2	2.59e-05	0	60	0	1238368256	51	5028
2026-01-21 08:52:52.36	13.22	21.97	-40.3	-42.7	13.4	1.29e-05	0	61	0	1240465408	51	4944
2026-01-21 08:52:53.37	13.03	21.87	-40.3	-42.7	13.3	1.98e-05	0	61	0	1243611136	51	4970
2026-01-21 08:52:54.38	12.84	21.77	-40.4	-42.8	13.2	2.36e-05	0	61	0	1246756864	51	5029
2026-01-21 08:52:55.39	12.65	21.67	-40.3	-42.8	13.3	2.21e-05	0	61	0	1249902592	51	5003
2026-01-21 08:52:56.40	12.46	21.57	-40.3	-42.8	13.2	1.98e-05	0	61	0	1254096896	51	5018
2026-01-21 08:52:57.41	12.27	21.47	-40.3	-42.8	13.2	2.13e-05	0	60	0	1257242624	51	5011
2026-01-21 08:52:58.42	12.09	21.38	-40.3	-42.8	13.2	2.89e-05	0	60	0	1260388352	51	5012
2026-01-21 08:52:59.43	11.90	21.28	-40.3	-42.8	13.2	2.74e-05	0	61	0	1262485504	51	5028
2026-01-21 08:53:00.43	11.72	21.18	-40.2	-42.6	13.4	1.67e-05	0	61	0	1265631232	51	4890
2026-01-21 08:53:01.44	11.54	21.08	-40.1	-42.4	13.6	8.30e-06	0	61	0	1268776960	51	4786
2026-01-21 08:53:02.45	11.36	20.98	-40.1	-42.5	13.5	7.60e-06	0	61	0	1272971264	51	4823
2026-01-21 08:53:03.46	11.18	20.88	-39.9	-42.2	13.8	3.80e-06	0	61	0	1276116992	51	4664
2026-01-21 08:53:04.47	11.00	20.78	-39.8	-42.0	14.0	7.00e-07	0	60	0	1279262720	51	4593
2026-01-21 08:53:05.48	10.82	20.69	-39.8	-42.0	14.0	3.00e-06	0	61	0	1282408448	51	4566
2026-01-21 08:53:06.50	10.65	20.59	-39.8	-42.0	14.0	1.50e-06	0	60	0	1285554176	51	4592
2026-01-21 08:53:07.51	10.47	20.49	-39.8	-42.1	13.9	2.20e-06	0	61	0	1288699904	51	4615
2026-01-21 08:53:08.52	10.30	20.39	-39.9	-42.2	13.8	4.50e-06	0	61	0	1291845632	51	4670
2026-01-21 08:53:09.53	10.13	20.29	-39.9	-42.2	13.8	3.80e-06	0	61	0	1294991360	51	4659
2026-01-21 08:53:10.54	9.95	20.20	-39.9	-42.2	13.8	5.30e-06	0	60	0	1298137088	51	4664
2026-01-21 08:53:11.55	9.78	20.10	-40.0	-42.3	13.7	6.80e-06	0	61	0	1301282816	51	4710
2026-01-21 08:53:12.56	9.61	20.00	-40.0	-42.3	13.7	6.80e-06	0	61	0	1304428544	51	4712
2026-01-21 08:53:13.57	9.45	19.90	-39.8	-42.0	13.9	6.80e-06	0	61	0	1307574272	51	4570
2026-01-21 08:53:14.58	9.28	19.81	-39.7	-41.9	14.0	1.50e-06	0	61	0	1310720000	51	4522
2026-01-21 08:53:15.59	9.11	19.71	-39.6	-41.7	14.2	3.80e-06	0	61	0	1313865728	51	4418
2026-01-21 08:53:16.59	8.95	19.61	-39.6	-41.8	14.1	1.50e-06	0	61	0	1317011456	51	4451
2026-01-21 08:53:17.60	8.79	19.51	-39.6	-41.8	14.0	2.20e-06	0	61	0	1320157184	51	4488
2026-01-21 08:53:18.61	8.62	19.42	-39.6	-41.8	14.1	3.80e-06	0	61	0	1323302912	51	4477
2026-01-21 08:53:19.62	8.46	19.32	-39.7	-42.0	13.9	7.00e-07	0	61	0	1326448640	51	4563
2026-01-21 08:53:20.63	8.30	19.22	-39.8	-42.1	13.7	4.50e-06	0	60	0	1329594368	51	4634
2026-01-21 08:53:21.64	8.14	19.13	-40.0	-42.3	13.5	7.60e-06	0	61	0	1332740096	51	4740
2026-01-21 08:53:22.65	7.98	19.03	-40.1	-42.4	13.4	1.29e-05	0	61	0	1335885824	51	4807
2026-01-21 08:53:23.66	7.82	18.94	-40.2	-42.6	13.2	1.83e-05	0	61	0	1339031552	51	4904
2026-01-21 08:53:24.67	7.67	18.84	-40.2	-42.6	13.1	2.74e-05	0	61	0	1342177280	51	4915
2026-01-21 08:53:25.68	7.51	18.74	-40.2	-42.6	13.2	2.36e-05	0	61	0	1345323008	51	4907
2026-01-21 08:53:26.69	7.36	18.65	-40.2	-42.7	13.1	3.05e-05	0	61	0	1348468736	51	4928
2026-01-21 08:53:27.70	7.20	18.55	-40.1	-42.6	13.2	2.97e-05	0	61	0	1351614464	51	4885
2026-01-21 08:53:28.71	7.05	18.46	-40.0	-42.4	13.3	1.90e-05	0	60	0	1354760192	51	4791
2026-01-21 08:53:29.72	6.90	18.36	-40.0	-42.4	13.2	1.22e-05	0	61	0	1357905920	51	4808
2026-01-21 08:53:30.73	6.75	18.27	-40.0	-42.3	13.3	1.44e-05	0	61	0	1361051648	51	4759
2026-01-21 08:53:31.74	6.60	18.17	-40.0	-42.4	13.2	2.05e-05	0	61	0	1364197376	51	4804
2026-01-21 08:53:32.75	6.45	18.08	-40.1	-42.6	13.1	2.51e-05	0	61	0	1367343104	51	4894
2026-01-21 08:53:33.76	6.30	17.98	-40.1	-42.7	13.0	3.89e-05	0	61	0	1370488832	51	4937
2026-01-21 08:53:34.77	6.15	17.89	-40.2	-42.7	13.0	3.58e-05	0	60	0	1373634560	51	4940
2026-01-21 08:53:35.78	6.01	17.79	-40.3	-42.9	12.7	5.41e-05	0	61	0	1376780288	51	5062
2026-01-21 08:53:36.79	5.86	17.70	-40.3	-42.9	12.7	7.32e-05	0	61	0	1379926016	51	5053
2026-01-21 08:53:37.80	5.72	17.61	-40.4	-43.0	12.6	1.01e-04	0	61	0	1383071744	51	5135
2026-01-21 08:53:38.81	5.58	17.51	-40.5	-43.2	12.4	1.41e-04	0	61	0	1386217472	51	5232
2026-01-21 08:53:39.82	5.43	17.42	-40.4	-43.2	12.4	1.57e-04	0	61	0	1389363200	51	5228
2026-01-21 08:53:40.83	5.29	17.33	-40.4	-43.1	12.4	1.51e-04	0	61	0	1392508928	51	5191
2026-01-21 08:53:41.84	5.15	17.23	-40.4	-43.1	12.4	1.75e-04	0	61	0	1395654656	51	5203
2026-01-21 08:53:42.85	5.01	17.14	-40.4	-43.2	12.3	1.92e-04	0	61	0	1398800384	51	5227
2026-01-21 08:53:43.86	4.87	17.05	-40.3	-43.0	12.4	1.62e-04	0	61	0	1401946112	51	5157
2026-01-21 08:53:44.87	4.73	16.95	-40.3	-43.0	12.4	1.51e-04	0	61	0	1405091840	51	5139
2026-01-21 08:53:45.88	4.60	16.86	-40.3	-43.0	12.3	1.47e-04	0	61	0	1408237568	51	5123
2026-01-21 08:53:46.89	4.46	16.77	-40.1	-42.7	12.6	1.07e-04	0	61	0	1411383296	51	4958
2026-01-21 08:53:47.90	4.33	16.68	-40.1	-42.7	12.6	8.39e-05	0	61	0	1414529024	51	4979
2026-01-21 08:53:48.91	4.19	16.59	-40.0	-42.6	12.7	8.77e-05	0	61	0	1417674752	51	4896
2026-01-21 08:53:49.92	4.06	16.49	-40.1	-42.8	12.5	7.32e-05	0	61	0	1420820480	51	4992
2026-01-21 08:53:50.93	3.92	16.40	-40.1	-42.8	12.5	1.46e-04	0	61	0	1423966208	51	5007
2026-01-21 08:53:51.94	3.79	16.31	-40.1	-42.8	12.4	1.43e-04	0	61	0	1427111936	51	5020
2026-01-21 08:53:52.95	3.66	16.22	-40.3	-43.1	12.1	2.52e-04	0	60	0	1430257664	51	5184
2026-01-21 08:53:53.96	3.53	16.13	-40.3	-43.1	12.0	3.35e-04	0	61	0	1433403392	51	5207
2026-01-21 08:53:54.97	3.40	16.04	-40.3	-43.2	11.9	3.77e-04	0	60	0	1436549120	51	5261
2026-01-21 08:53:55.98	3.27	15.95	-40.4	-43.3	11.8	4.42e-04	0	61	0	1439694848	51	5326
2026-01-21 08:53:56.99	3.14	15.86	-40.4	-43.4	11.7	5.58e-04	0	61	0	1442840576	51	5376
2026-01-21 08:53:58.00	3.02	15.77	-40.5	-43.5	11.6	6.44e-04	0	60	0	1445986304	51	5430
2026-01-21 08:53:59.01	2.89	15.68	-40.5	-43.6	11.5	8.33e-04	0	61	0	1449132032	51	5470
2026-01-21 08:54:00.02	2.77	15.59	-40.4	-43.3	11.7	5.46e-04	0	61	0	1452277760	51	5321
2026-01-21 08:54:01.03	2.64	15.50	-40.2	-43.1	11.9	4.67e-04	0	61	0	1455423488	51	5203
2026-01-21 08:54:02.04	2.52	15.41	-40.4	-43.3	11.6	5.48e-04	0	61	0	1458569216	51	5336
2026-01-21 08:54:03.05	2.39	15.32	-40.5	-43.5	11.4	1.03e-03	0	61	0	1461714944	51	5451
2026-01-21 08:54:04.06	2.27	15.23	-40.0	-42.9	12.0	3.72e-04	0	61	0	1464860672	51	5050
2026-01-21 08:54:05.06	2.15	15.14	-40.0	-42.9	11.8	3.95e-04	0	61	0	1468006400	51	5067
2026-01-21 08:54:06.07	2.03	15.05	-40.2	-43.2	11.5	8.35e-04	0	61	0	1471152128	51	5247
2026-01-21 08:54:07.08	1.91	14.96	-40.2	-43.3	11.3	1.11e-03	0	61	0	1474297856	51	5315
2026-01-21 08:54:08.09	1.79	14.87	-40.1	-43.1	11.4	1.13e-03	0	61	0	1477443584	51	5200
2026-01-21 08:54:09.10	1.67	14.79	-40.0	-42.9	11.6	6.62e-04	0	61	0	1480589312	51	5094
2026-01-21 08:54:10.11	1.55	14.70	-39.9	-43.0	11.4	8.67e-04	0	61	0	1483735040	51	5118
2026-01-21 08:54:11.13	1.43	14.61	-40.1	-43.3	11.1	1.27e-03	0	61	0	1486880768	51	5293
2026-01-21 08:54:12.14	1.32	14.52	-40.2	-43.6	10.6	2.82e-03	0	61	0	1490026496	51	5501
2026-01-21 08:54:13.15	1.20	14.43	-40.2	-43.7	10.4	4.25e-03	0	61	0	1493172224	51	5562
2026-01-21 08:54:14.16	1.09	14.35	-40.2	-43.7	10.3	5.48e-03	0	60	0	1496317952	51	5590
2026-01-21 08:54:15.17	0.97	14.26	-40.1	-43.5	10.6	3.74e-03	0	61	0	1499463680	51	5431
2026-01-21 08:54:16.18	0.86	14.17	-40.1	-43.5	10.6	3.15e-03	0	61	0	1502609408	51	5407
2026-01-21 08:54:17.19	0.74	14.09	-39.9	-43.2	10.7	2.91e-03	0	61	0	1505755136	51	5258
2026-01-21 08:54:18.20	0.63	14.00	-39.8	-43.1	10.8	2.79e-03	0	61	0	1508900864	51	5185
2026-01-21 08:54:19.21	0.52	13.91	-39.6	-43.0	10.8	2.90e-03	0	61	0	1512046592	51	5117
2026-01-21 08:54:20.22	0.41	13.83	-39.6	-43.0	10.6	3.17e-03	0	61	0	1515192320	51	5149
2026-01-21 08:54:21.22	0.30	13.74	-39.8	-43.4	10.1	5.14e-03	0	61	0	1518338048	51	5399
2026-01-21 08:54:22.23	0.19	13.66	-40.0	-44.0	9.5	1.19e-02	0	61	0	1521483776	51	5754
2026-01-21 08:54:23.24	0.08	13.57	-40.4	-44.8	8.6	2.95e-02	0	61	0	1524629504	51	6293
2026-01-21 08:54:24.25	359.97	13.49	-40.7	-45.7	7.5	8.34e-02	0	61	0	1527775232	51	7034
2026-01-21 08:54:25.26	359.86	13.40	-40.8	-46.3	6.9	1.53e-01	0	61	0	1530920960	52	7064
2026-01-21 08:54:26.27	359.76	13.32	-41.1	-47.5	5.8	3.34e-01	0	61	0	1534066688	52	8160
2026-01-21 08:54:27.28	359.65	13.23	-41.2	-48.7	5.0	6.85e-01	0	61	0	1537212416	53	8853
2026-01-21 08:54:28.29	359.54	13.15	-41.3	-49.3	4.7	1.47e+00	0	61	104	1539309568	53	9448
2026-01-21 08:54:29.30	359.44	13.06	-41.3	-49.7	4.5	1.08e+00	11	61	104	1539309568	53	9884
2026-01-21 08:54:30.31	359.33	12.98	-41.4	-50.9	4.1	1.47e+00	0	61	104	1539309568	53	11293
2026-01-21 08:54:31.32	359.23	12.90	-41.6	-51.1	4.1	1.47e+00	0	61	104	1539309568	54	11016
2026-01-21 08:54:32.33	359.12	12.81	-40.9	-53.3	3.8	1.49e+00	0	61	104	1539309568	53	14881
2026-01-21 08:54:33.34	359.02	12.73	-41.7	-52.9	3.8	1.49e+00	0	61	104	1539309568	53	14316
2026-01-21 08:54:34.35	358.92	12.64	-42.4	-53.7	3.8	1.49e+00	0	61	104	1539309568	55	13978
2026-01-21 08:54:35.36	358.82	12.56	-41.9	-52.3	3.9	1.49e+00	0	61	104	1539309568	55	11879
2026-01-21 08:54:36.37	358.72	12.48	-41.9	-53.1	3.8	1.49e+00	0	61	104	1539309568	55	13032
2026-01-21 08:54:37.37	358.62	12.40	-41.8	-53.4	3.8	1.49e+00	0	61	104	1539309568	55	13444
2026-01-21 08:54:38.38	358.52	12.31	-41.6	-52.8	3.8	1.49e+00	0	61	104	1539309568	55	12591
2026-01-21 08:54:39.39	358.42	12.23	-41.2	-53.3	3.8	1.49e+00	0	61	104	1539309568	54	14133
2026-01-21 08:54:40.40	358.32	12.15	-40.6	-53.0	3.8	1.49e+00	0	61	104	1539309568	53	14394
2026-01-21 08:54:41.41	358.22	12.07	-40.7	-53.1	3.8	1.49e+00	0	61	104	1539309568	53	14615
2026-01-21 08:54:42.42	358.12	11.99	-41.2	-53.5	3.8	1.49e+00	0	61	104	1539309568	53	15348
2026-01-21 08:54:43.43	358.02	11.90	-41.0	-53.3	3.8	1.49e+00	0	61	104	1539309568	53	14913
2026-01-21 08:54:44.44	357.93	11.82	-40.4	-52.8	3.8	1.49e+00	0	61	104	1539309568	52	14929
2026-01-21 08:54:45.45	357.83	11.74	-40.3	-52.7	3.8	1.49e+00	0	61	104	1539309568	52	14836
2026-01-21 08:54:46.46	357.74	11.66	-40.4	-52.8	3.8	1.49e+00	0	61	104	1539309568	52	15019
2026-01-21 08:54:47.47	357.64	11.58	-40.3	-52.7	3.8	1.49e+00	0	61	104	1539309568	52	14778
2026-01-21 08:54:48.48	357.55	11.50	-40.3	-52.7	3.8	1.49e+00	0	61	104	1539309568	52	14756
2026-01-21 08:54:49.49	357.45	11.42	-40.3	-52.7	3.8	1.49e+00	0	61	104	1539309568	52	14751
2026-01-21 08:54:50.50	357.36	11.34	-40.3	-52.6	3.8	1.49e+00	0	61	104	1539309568	52	14682
2026-01-21 08:54:51.51	357.27	11.26	-40.5	-52.9	3.8	1.49e+00	0	61	104	1539309568	52	15212
2026-01-21 08:54:52.52	357.17	11.18	-40.5	-52.9	3.8	1.49e+00	0	61	104	1539309568	52	15100
2026-01-21 08:54:53.53	357.08	11.10	-40.3	-52.7	3.8	1.49e+00	0	61	104	1539309568	52	14861
2026-01-21 08:54:54.54	356.99	11.02	-40.4	-52.8	3.8	1.49e+00	0	61	104	1539309568	52	14885
2026-01-21 08:54:55.55	356.90	10.94	-40.3	-52.7	3.8	1.49e+00	0	61	104	1539309568	52	14716
2026-01-21 08:54:56.56	356.81	10.86	-40.2	-52.6	3.8	1.49e+00	0	61	104	1539309568	52	14665
2026-01-21 08:54:57.57	356.72	10.78	-40.2	-52.6	3.8	1.49e+00	0	61	104	1539309568	52	14556
2026-01-21 08:54:58.58	356.63	10.70	-40.1	-52.5	3.8	1.49e+00	0	61	104	1539309568	52	14529
2026-01-21 08:54:59.59	356.54	10.62	-40.4	-52.8	3.8	1.49e+00	0	61	104	1539309568	52	14990
2026-01-21 08:55:00.60	356.45	10.55	-40.3	-52.6	3.8	1.49e+00	0	61	104	1539309568	52	14682
2026-01-21 08:55:01.61	356.37	10.47	-40.2	-52.6	3.8	1.49e+00	0	61	104	1539309568	52	14610
2026-01-21 08:55:02.62	356.28	10.39	-40.2	-52.5	3.8	1.49e+00	0	61	104	1539309568	52	14523
2026-01-21 08:55:03.63	356.19	10.31	-40.1	-52.5	3.8	1.49e+00	0	61	104	1539309568	52	14513
2026-01-21 08:55:04.64	356.11	10.23	-40.1	-52.5	3.8	1.49e+00	0	61	104	1539309568	52	14473
2026-01-21 08:55:05.65	356.02	10.16	-40.1	-52.5	3.8	1.49e+00	0	61	104	1539309568	52	14509
2026-01-21 08:55:06.66	355.94	10.08	-40.1	-52.5	3.8	1.49e+00	0	61	104	1539309568	52	14415
2026-01-21 08:55:07.67	355.85	10.00	-40.4	-52.8	3.8	1.49e+00	0	61	104	1539309568	52	14946
2026-01-21 08:55:08.67	355.77	9.92	-40.4	-52.7	3.8	1.49e+00	0	61	104	1539309568	52	14787
2026-01-21 08:55:09.69	355.68	9.85	-40.3	-52.7	3.8	1.49e+00	0	61	104	1539309568	52	14734
2026-01-21 08:55:10.70	355.60	9.77	-40.5	-52.9	3.8	1.49e+00	0	61	104	1539309568	52	15107
2026-01-21 08:55:11.71	355.52	9.69	-40.2	-52.6	3.8	1.49e+00	0	61	104	1539309568	52	14556
2026-01-21 08:55:12.71	355.43	9.62	-40.3	-52.7	3.8	1.49e+00	0	61	104	1539309568	52	14724
2026-01-21 08:55:13.72	355.35	9.54	-40.3	-52.6	3.8	1.49e+00	0	61	104	1539309568	52	14707
2026-01-21 08:55:14.73	355.27	9.47	-40.4	-52.8	3.8	1.49e+00	0	61	104	1539309568	52	15033
2026-01-21 08:55:15.74	355.19	9.39	-40.2	-52.6	3.8	1.49e+00	0	61	104	1539309568	52	14641
2026-01-21 08:55:16.75	355.11	9.31	-40.3	-52.7	3.8	1.49e+00	0	61	104	1539309568	52	14732
2026-01-21 08:55:17.76	355.03	9.24	-40.3	-52.6	3.8	1.49e+00	0	61	104	1539309568	52	14620
2026-01-21 08:55:18.77	354.95	9.16	-40.4	-52.8	3.8	1.49e+00	0	61	104	1539309568	52	14961
2026-01-21 08:55:19.78	354.87	9.09	-40.3	-52.6	3.8	1.49e+00	0	61	104	1539309568	52	14680
2026-01-21 08:55:20.79	354.79	9.01	-40.4	-52.7	3.8	1.49e+00	0	61	104	1539309568	52	14842
2026-01-21 08:55:21.79	354.71	8.94	-40.2	-52.6	3.8	1.49e+00	0	61	104	1539309568	52	14615
2026-01-21 08:55:22.80	354.63	8.87	-40.4	-52.8	3.8	1.49e+00	0	61	104	1539309568	52	14904
2026-01-21 08:55:23.81	354.56	8.79	-40.3	-52.7	3.8	1.49e+00	0	61	104	1539309568	52	14750
2026-01-21 08:55:24.82	354.48	8.72	-40.4	-52.7	3.8	1.49e+00	0	61	104	1539309568	52	14878
2026-01-21 08:55:25.83	354.40	8.64	-40.2	-52.6	3.8	1.49e+00	0	61	104	1539309568	52	14594
2026-01-21 08:55:26.84	354.32	8.57	-40.4	-52.7	3.8	1.49e+00	0	61	104	1539309568	52	14810
