passes_logs/2026/01/21/R2.0S_Moscow/R2.0S_Moscow__20260121_123041_AQUA_rec.log

#Pass ID: 20260121_123041_AQUA
#Satellite: AQUA
#Configuration: AQUA
#almurnet v.1.7.20251203
#Start time: 2026-01-21 12:30:44

#Version: 2.2.20231116
#Station: R2.0S_Moscow
#Location: 37.707566 lon 55.798166 lat
#TLE: 1 27424U 02022A   26020.30984080  .00001497  00000+0  30942-3 0  9998
#TLE: 2 27424  98.4092 346.8266 0001984  71.7888  69.0903 14.61835321261661

#Time	Az	El	Level	Level2	SNR	BER	BlckErr	Temp	State	Recorded	gain1	gain2
2026-01-21 12:30:44.00	187.62	2.14	-44.9	-63.4	3.8	7.47e-01	0	51	0	0	61	30299
2026-01-21 12:30:45.00	187.66	2.21	-44.8	-63.4	3.8	7.47e-01	0	52	104	0	60	32036
2026-01-21 12:30:46.01	187.71	2.27	-44.8	-63.4	3.8	7.44e-01	0	52	104	0	60	31991
2026-01-21 12:30:47.02	187.76	2.34	-44.8	-63.4	3.8	7.45e-01	0	52	104	0	60	32065
2026-01-21 12:30:48.03	187.81	2.40	-44.8	-63.4	3.8	7.46e-01	0	52	104	0	60	32158
2026-01-21 12:30:49.04	187.86	2.47	-44.8	-63.4	3.8	7.45e-01	0	52	104	0	60	32054
2026-01-21 12:30:50.05	187.91	2.53	-44.8	-63.4	3.8	7.45e-01	0	52	104	0	60	32054
2026-01-21 12:30:51.07	187.96	2.60	-44.8	-63.4	3.8	7.45e-01	0	52	104	0	60	32036
2026-01-21 12:30:52.08	188.02	2.66	-44.8	-63.4	3.8	7.44e-01	0	52	104	0	60	32076
2026-01-21 12:30:53.09	188.07	2.73	-44.9	-63.4	3.8	7.45e-01	0	52	104	0	60	31901
2026-01-21 12:30:54.10	188.12	2.80	-44.8	-63.4	3.8	7.46e-01	0	52	104	0	60	31997
2026-01-21 12:30:55.11	188.17	2.86	-44.8	-63.4	3.8	7.46e-01	0	52	104	0	60	32033
2026-01-21 12:30:56.12	188.22	2.93	-44.9	-63.4	3.8	7.44e-01	0	52	104	0	60	32069
2026-01-21 12:30:57.13	188.27	2.99	-44.8	-63.4	3.8	7.43e-01	0	52	104	0	60	32059
2026-01-21 12:30:58.14	188.32	3.06	-44.8	-63.4	3.8	7.46e-01	0	53	104	0	60	31980
2026-01-21 12:30:59.15	188.38	3.13	-44.8	-63.4	3.8	7.47e-01	0	53	104	0	60	32064
2026-01-21 12:31:00.16	188.43	3.19	-44.8	-63.4	3.8	7.45e-01	0	53	104	0	60	32046
2026-01-21 12:31:01.17	188.48	3.26	-44.8	-63.4	3.8	7.44e-01	0	53	104	0	60	32020
2026-01-21 12:31:02.18	188.54	3.33	-44.8	-63.4	3.8	7.47e-01	0	53	104	0	60	32037
2026-01-21 12:31:03.19	188.59	3.40	-44.8	-63.4	3.8	7.44e-01	0	53	104	0	60	31906
2026-01-21 12:31:04.20	188.64	3.46	-44.8	-63.4	3.8	7.46e-01	0	53	104	0	60	31898
2026-01-21 12:31:05.21	188.70	3.53	-44.8	-63.4	3.8	7.43e-01	0	53	104	0	60	31920
2026-01-21 12:31:06.22	188.75	3.60	-44.8	-63.4	3.8	7.44e-01	0	53	104	0	60	31853
2026-01-21 12:31:07.23	188.80	3.67	-44.8	-63.4	3.8	7.44e-01	0	53	104	0	60	31880
2026-01-21 12:31:08.24	188.86	3.74	-44.8	-63.4	3.8	7.45e-01	0	53	104	0	60	31909
2026-01-21 12:31:09.25	188.91	3.80	-44.8	-63.4	3.8	7.45e-01	0	53	104	0	60	31935
2026-01-21 12:31:10.26	188.97	3.87	-44.8	-63.4	3.8	7.46e-01	0	53	104	0	60	31993
2026-01-21 12:31:11.27	189.02	3.94	-44.8	-63.4	3.8	7.43e-01	0	53	104	0	60	32005
2026-01-21 12:31:12.28	189.08	4.01	-44.8	-63.4	3.8	7.44e-01	0	54	104	0	60	31960
2026-01-21 12:31:13.29	189.14	4.08	-44.8	-63.4	3.8	7.45e-01	0	53	104	0	60	31964
2026-01-21 12:31:14.30	189.19	4.15	-44.8	-63.3	3.8	7.46e-01	0	54	104	0	60	31782
2026-01-21 12:31:15.31	189.25	4.22	-44.8	-63.3	3.8	7.46e-01	0	54	104	0	60	31792
2026-01-21 12:31:16.32	189.31	4.29	-44.8	-63.3	3.8	7.45e-01	0	54	104	0	60	31774
2026-01-21 12:31:17.33	189.36	4.36	-44.8	-63.3	3.8	7.44e-01	0	54	104	0	60	31475
2026-01-21 12:31:18.34	189.42	4.43	-44.8	-63.3	3.8	7.47e-01	0	54	104	0	60	31531
2026-01-21 12:31:19.36	189.48	4.50	-44.8	-63.2	3.8	7.46e-01	0	54	104	0	60	31193
2026-01-21 12:31:20.37	189.54	4.57	-44.8	-63.1	3.8	7.46e-01	0	54	104	0	60	30938
2026-01-21 12:31:21.38	189.60	4.64	-44.8	-63.0	3.8	7.44e-01	0	54	104	0	60	30495
2026-01-21 12:31:22.39	189.65	4.71	-44.8	-62.8	3.8	7.47e-01	0	54	104	0	60	29909
2026-01-21 12:31:23.40	189.71	4.78	-44.8	-62.9	3.8	7.44e-01	0	54	104	0	60	30175
2026-01-21 12:31:24.41	189.77	4.85	-44.8	-62.7	3.8	7.44e-01	0	54	104	0	60	29487
2026-01-21 12:31:25.42	189.83	4.92	-44.8	-62.8	3.8	7.47e-01	0	54	104	0	60	29711
2026-01-21 12:31:26.43	189.89	4.99	-44.8	-62.5	3.8	7.42e-01	0	54	104	0	60	28840
2026-01-21 12:31:27.44	189.95	5.06	-44.8	-62.2	3.8	7.42e-01	0	54	104	0	60	27893
2026-01-21 12:31:28.45	190.01	5.14	-44.8	-62.0	3.8	7.43e-01	0	54	104	0	60	27195
2026-01-21 12:31:29.46	190.07	5.21	-44.8	-62.0	3.8	7.42e-01	0	54	104	0	60	27123
2026-01-21 12:31:30.47	190.13	5.28	-44.8	-61.9	3.8	7.43e-01	0	54	104	0	60	27056
2026-01-21 12:31:31.48	190.19	5.35	-44.8	-61.3	3.9	7.45e-01	0	55	104	0	60	25196
2026-01-21 12:31:32.49	190.26	5.42	-44.7	-59.8	4.1	7.33e-01	0	55	104	0	60	21246
2026-01-21 12:31:33.50	190.32	5.50	-44.7	-60.0	3.9	7.36e-01	0	55	104	0	60	21541
2026-01-21 12:31:34.51	190.38	5.57	-44.7	-59.0	4.6	7.19e-01	0	55	104	0	60	19214
2026-01-21 12:31:35.52	190.44	5.64	-44.7	-58.0	4.9	7.13e-01	4	55	0	0	60	17206
2026-01-21 12:31:36.53	190.51	5.72	-44.6	-57.1	5.4	6.98e-01	0	55	0	0	60	15507
2026-01-21 12:31:37.54	190.57	5.79	-44.5	-56.1	6.1	6.81e-01	92	55	0	1048576	60	13834
2026-01-21 12:31:38.55	190.63	5.86	-44.4	-55.0	7.1	6.59e-01	92	55	0	3145728	60	12113
2026-01-21 12:31:39.56	190.70	5.94	-44.4	-54.8	7.3	6.57e-01	92	55	0	4718592	60	11823
2026-01-21 12:31:40.57	190.76	6.01	-44.3	-53.7	8.4	6.40e-01	23	55	0	6815744	60	10433
2026-01-21 12:31:41.58	190.83	6.09	-44.2	-53.3	8.7	6.37e-01	5	55	0	8912896	60	10041
2026-01-21 12:31:42.59	190.89	6.16	-44.1	-52.8	9.3	6.31e-01	0	55	0	10485760	60	9433
2026-01-21 12:31:43.60	190.96	6.24	-44.0	-52.0	10.1	6.25e-01	0	55	0	12582912	60	8640
2026-01-21 12:31:44.61	191.02	6.31	-44.2	-52.1	10.4	6.22e-01	0	55	0	14155776	59	9227
2026-01-21 12:31:45.62	191.09	6.39	-44.3	-52.4	10.1	6.23e-01	0	55	0	16252928	59	9582
2026-01-21 12:31:46.63	191.15	6.46	-44.2	-52.1	10.4	6.23e-01	0	55	0	18350080	59	9249
2026-01-21 12:31:47.64	191.22	6.54	-44.3	-52.3	10.2	6.22e-01	0	55	0	19922944	59	9475
2026-01-21 12:31:48.65	191.29	6.61	-44.2	-52.2	10.4	6.21e-01	0	55	0	22020096	59	9306
2026-01-21 12:31:49.66	191.35	6.69	-44.3	-52.5	10.0	6.23e-01	0	56	0	24117248	59	9654
2026-01-21 12:31:50.67	191.42	6.77	-44.3	-52.9	9.6	6.27e-01	0	55	0	25690112	59	10090
2026-01-21 12:31:51.68	191.49	6.84	-44.4	-53.3	9.2	6.33e-01	0	56	0	27787264	59	10604
2026-01-21 12:31:52.69	191.56	6.92	-44.4	-53.1	9.4	6.28e-01	0	56	0	29360128	59	10337
2026-01-21 12:31:53.70	191.63	7.00	-44.3	-52.9	9.6	6.27e-01	0	56	0	31457280	59	10151
2026-01-21 12:31:54.71	191.70	7.07	-44.4	-53.0	9.5	6.30e-01	0	56	0	33554432	59	10240
2026-01-21 12:31:55.72	191.77	7.15	-44.2	-52.1	10.4	6.20e-01	0	56	0	35127296	59	9204
2026-01-21 12:31:56.73	191.84	7.23	-44.0	-51.4	11.2	6.18e-01	0	56	0	37224448	59	8529
2026-01-21 12:31:57.74	191.91	7.31	-43.9	-50.7	11.9	6.15e-01	0	56	0	38797312	59	7877
2026-01-21 12:31:58.75	191.98	7.38	-43.6	-49.6	13.0	6.12e-01	0	56	0	40894464	59	6957
2026-01-21 12:31:59.76	192.05	7.46	-43.3	-48.9	13.8	6.06e-01	0	56	0	42991616	58	6779
2026-01-21 12:32:00.77	192.12	7.54	-43.1	-48.2	14.5	6.10e-01	0	56	0	44564480	58	6250
2026-01-21 12:32:01.78	192.19	7.62	-42.7	-47.4	15.3	6.06e-01	0	56	0	46661632	57	6060
2026-01-21 12:32:02.79	192.27	7.70	-42.6	-47.1	15.6	6.08e-01	0	56	0	48234496	57	5843
2026-01-21 12:32:03.81	192.34	7.78	-42.6	-47.1	15.7	6.05e-01	0	56	0	50331648	56	6142
2026-01-21 12:32:04.82	192.41	7.86	-42.5	-46.9	15.8	6.05e-01	0	56	0	52428800	56	6047
2026-01-21 12:32:05.83	192.49	7.94	-42.6	-47.0	15.7	6.05e-01	0	56	0	54001664	56	6126
2026-01-21 12:32:06.84	192.56	8.02	-42.6	-47.1	15.7	6.05e-01	0	56	0	56098816	56	6176
2026-01-21 12:32:07.85	192.63	8.10	-45.2	-61.2	3.9	7.42e-01	0	56	104	57671680	60	24958
2026-01-21 12:32:08.85	192.71	8.18	-44.7	-56.1	8.4	6.68e-01	64	56	0	57671680	59	14626
2026-01-21 12:32:09.86	192.78	8.26	-44.2	-51.4	12.4	6.14e-01	0	56	0	58195968	58	9001
2026-01-21 12:32:10.87	192.86	8.34	-43.7	-49.6	13.2	6.09e-01	0	56	0	59768832	59	6921
2026-01-21 12:32:11.88	192.94	8.42	-44.4	-53.1	10.3	6.24e-01	0	56	0	61865984	59	10319
2026-01-21 12:32:12.89	193.01	8.50	-42.6	-46.8	15.9	6.06e-01	0	56	0	63438848	57	5650
2026-01-21 12:32:13.90	193.09	8.59	-42.6	-46.9	16.0	6.06e-01	0	56	0	65536000	57	5722
2026-01-21 12:32:14.91	193.17	8.67	-42.5	-46.7	16.2	6.08e-01	0	56	0	67633152	57	5582
2026-01-21 12:32:15.92	193.25	8.75	-42.6	-47.0	15.9	6.07e-01	0	56	0	69206016	57	5774
2026-01-21 12:32:16.93	193.32	8.83	-42.6	-46.9	16.1	6.06e-01	0	56	0	71303168	57	5659
2026-01-21 12:32:17.94	193.40	8.92	-42.5	-46.7	16.3	6.05e-01	0	56	0	72876032	56	5884
2026-01-21 12:32:18.95	193.48	9.00	-42.5	-46.7	16.3	6.09e-01	0	57	0	74973184	56	5859
2026-01-21 12:32:19.96	193.56	9.08	-42.5	-46.7	16.3	6.07e-01	0	57	0	77070336	56	5870
2026-01-21 12:32:20.97	193.64	9.17	-42.4	-46.5	16.5	6.08e-01	0	56	0	78643200	56	5773
2026-01-21 12:32:21.98	193.72	9.25	-42.4	-46.5	16.5	6.06e-01	0	56	0	80740352	56	5735
2026-01-21 12:32:22.99	193.81	9.33	-42.4	-46.5	16.6	6.07e-01	0	57	0	82313216	56	5753
2026-01-21 12:32:24.00	193.89	9.42	-42.5	-46.5	16.5	6.06e-01	0	57	0	84410368	56	5758
2026-01-21 12:32:25.01	193.97	9.50	-42.4	-46.4	16.6	6.07e-01	0	57	0	86507520	56	5689
2026-01-21 12:32:26.01	194.05	9.59	-42.4	-46.4	16.7	6.08e-01	0	57	0	88080384	56	5688
2026-01-21 12:32:27.02	194.13	9.67	-42.4	-46.4	16.6	6.07e-01	0	57	0	90177536	56	5713
2026-01-21 12:32:28.03	194.22	9.76	-42.4	-46.3	16.7	6.05e-01	0	57	0	91750400	56	5645
2026-01-21 12:32:29.04	194.30	9.84	-42.5	-46.5	16.6	6.08e-01	0	57	0	93847552	56	5729
2026-01-21 12:32:30.05	194.39	9.93	-42.3	-46.2	16.9	6.06e-01	0	56	0	95944704	56	5540
2026-01-21 12:32:31.06	194.47	10.02	-42.4	-46.2	16.9	6.04e-01	0	57	0	97517568	56	5573
2026-01-21 12:32:32.07	194.56	10.10	-42.4	-46.3	16.8	6.05e-01	0	57	0	99614720	56	5644
2026-01-21 12:32:33.08	194.65	10.19	-42.4	-46.3	16.8	6.05e-01	0	57	0	101711872	56	5615
2026-01-21 12:32:34.09	194.73	10.28	-42.4	-46.4	16.8	6.06e-01	0	57	0	103284736	56	5663
2026-01-21 12:32:35.09	194.82	10.37	-42.4	-46.4	16.8	6.06e-01	0	57	0	105381888	56	5657
2026-01-21 12:32:36.10	194.91	10.45	-42.4	-46.2	16.9	6.05e-01	0	57	0	106954752	56	5588
2026-01-21 12:32:37.11	195.00	10.54	-42.4	-46.2	17.0	6.06e-01	0	57	0	109051904	56	5575
2026-01-21 12:32:38.12	195.09	10.63	-42.3	-46.0	17.1	6.06e-01	0	57	0	111149056	56	5456
2026-01-21 12:32:39.13	195.18	10.72	-42.3	-46.1	17.1	6.07e-01	0	57	0	112721920	56	5499
2026-01-21 12:32:40.14	195.27	10.81	-42.3	-46.1	17.0	6.05e-01	0	57	0	114819072	56	5518
2026-01-21 12:32:41.15	195.36	10.90	-42.3	-46.0	17.2	6.07e-01	0	57	0	116391936	56	5446
2026-01-21 12:32:42.16	195.45	10.99	-42.3	-46.1	17.1	6.06e-01	0	57	0	118489088	56	5474
2026-01-21 12:32:43.17	195.54	11.08	-42.3	-46.1	17.1	6.05e-01	0	57	0	120586240	56	5504
2026-01-21 12:32:44.17	195.63	11.17	-42.3	-46.1	17.2	6.07e-01	0	57	0	122159104	56	5469
2026-01-21 12:32:45.18	195.73	11.26	-42.3	-46.1	17.2	6.07e-01	0	57	0	124256256	56	5481
2026-01-21 12:32:46.19	195.82	11.35	-42.3	-46.0	17.3	6.07e-01	0	57	0	125829120	56	5412
2026-01-21 12:32:47.20	195.91	11.44	-42.3	-46.1	17.1	6.08e-01	0	57	0	127926272	56	5493
2026-01-21 12:32:48.21	196.01	11.53	-42.2	-45.9	17.3	6.07e-01	0	57	0	130023424	56	5378
2026-01-21 12:32:49.22	196.10	11.62	-42.3	-45.9	17.3	6.06e-01	0	57	0	131596288	56	5389
2026-01-21 12:32:50.23	196.20	11.71	-42.3	-45.9	17.3	6.06e-01	0	58	0	133693440	56	5402
2026-01-21 12:32:51.24	196.30	11.81	-42.3	-46.0	17.3	6.06e-01	0	58	0	135266304	56	5415
2026-01-21 12:32:52.25	196.39	11.90	-42.3	-46.0	17.3	6.06e-01	0	57	0	137363456	56	5420
2026-01-21 12:32:53.26	196.49	11.99	-42.2	-45.8	17.5	6.06e-01	0	57	0	139460608	56	5305
2026-01-21 12:32:54.27	196.59	12.09	-42.2	-45.9	17.4	6.06e-01	0	57	0	141033472	56	5371
2026-01-21 12:32:55.27	196.69	12.18	-42.2	-45.9	17.5	6.07e-01	0	58	0	143130624	56	5345
2026-01-21 12:32:56.28	196.79	12.27	-42.2	-45.7	17.6	6.06e-01	0	58	0	144703488	56	5250
2026-01-21 12:32:57.29	196.89	12.37	-42.2	-45.7	17.6	6.06e-01	0	58	0	146800640	56	5264
2026-01-21 12:32:58.30	196.99	12.46	-42.1	-45.6	17.7	6.05e-01	0	58	0	148897792	56	5208
2026-01-21 12:32:59.31	197.10	12.56	-42.1	-45.7	17.7	6.06e-01	0	58	0	150470656	56	5232
2026-01-21 12:33:00.32	197.20	12.65	-42.2	-45.7	17.6	6.05e-01	0	58	0	152567808	56	5256
2026-01-21 12:33:01.33	197.30	12.75	-42.1	-45.7	17.7	6.06e-01	0	58	0	154664960	56	5220
2026-01-21 12:33:02.34	197.41	12.85	-42.2	-45.8	17.6	6.04e-01	0	58	0	156237824	56	5284
2026-01-21 12:33:03.35	197.51	12.94	-42.2	-45.7	17.7	6.07e-01	0	58	0	158334976	56	5258
2026-01-21 12:33:04.36	197.62	13.04	-42.2	-45.7	17.7	6.07e-01	0	58	0	159907840	56	5275
2026-01-21 12:33:05.37	197.72	13.14	-42.2	-45.8	17.6	6.07e-01	0	58	0	162004992	56	5314
2026-01-21 12:33:06.38	197.83	13.23	-42.2	-45.7	17.7	6.06e-01	0	58	0	164102144	56	5233
2026-01-21 12:33:07.38	197.94	13.33	-42.1	-45.5	17.9	6.05e-01	0	58	0	165675008	56	5143
2026-01-21 12:33:08.40	198.05	13.43	-42.0	-45.4	18.0	6.06e-01	0	58	0	167772160	56	5076
2026-01-21 12:33:09.40	198.16	13.53	-42.0	-45.5	17.8	6.07e-01	0	58	0	169869312	55	5417
2026-01-21 12:33:10.41	198.27	13.63	-42.1	-45.5	17.8	6.05e-01	0	58	0	171442176	55	5441
2026-01-21 12:33:11.42	198.38	13.73	-42.0	-45.5	17.9	6.07e-01	0	58	0	173539328	55	5404
2026-01-21 12:33:12.43	198.49	13.83	-41.9	-45.3	18.0	6.05e-01	0	58	0	175112192	55	5316
2026-01-21 12:33:13.44	198.60	13.93	-41.9	-45.3	18.0	6.06e-01	0	58	0	177209344	55	5320
2026-01-21 12:33:14.45	198.71	14.03	-42.0	-45.4	18.0	6.05e-01	0	58	0	179306496	55	5363
2026-01-21 12:33:15.46	198.83	14.13	-42.0	-45.3	18.0	6.07e-01	0	58	0	180879360	55	5330
2026-01-21 12:33:16.47	198.94	14.23	-42.0	-45.4	18.0	6.05e-01	0	58	0	182976512	55	5355
2026-01-21 12:33:17.48	199.06	14.33	-41.9	-45.3	18.1	6.08e-01	0	58	0	184549376	55	5302
2026-01-21 12:33:18.49	199.17	14.43	-41.9	-45.3	18.1	6.06e-01	0	58	0	186646528	55	5312
2026-01-21 12:33:19.50	199.29	14.53	-41.9	-45.2	18.1	6.08e-01	0	58	0	188219392	55	5275
2026-01-21 12:33:20.51	199.41	14.64	-41.9	-45.3	18.1	6.06e-01	0	58	0	190316544	55	5313
2026-01-21 12:33:21.52	199.53	14.74	-41.9	-45.3	18.1	6.06e-01	0	58	0	192413696	55	5312
2026-01-21 12:33:22.52	199.65	14.84	-41.9	-45.3	18.1	6.07e-01	0	58	0	193986560	55	5303
2026-01-21 12:33:23.53	199.77	14.95	-41.9	-45.3	18.1	6.07e-01	0	58	0	196083712	55	5289
2026-01-21 12:33:24.55	199.89	15.05	-41.8	-45.1	18.2	6.07e-01	0	58	0	198180864	55	5201
2026-01-21 12:33:25.55	200.01	15.15	-41.8	-45.0	18.4	6.09e-01	0	58	0	199753728	55	5149
2026-01-21 12:33:26.56	200.14	15.26	-41.8	-45.1	18.3	6.08e-01	0	58	0	201850880	55	5177
2026-01-21 12:33:27.57	200.26	15.36	-41.9	-45.1	18.3	6.05e-01	0	58	0	203423744	55	5212
2026-01-21 12:33:28.59	200.39	15.47	-41.8	-45.1	18.3	6.08e-01	0	58	0	205520896	55	5197
2026-01-21 12:33:29.59	200.51	15.58	-41.9	-45.2	18.2	6.05e-01	0	58	0	207618048	55	5257
2026-01-21 12:33:30.60	200.64	15.68	-41.9	-45.2	18.2	6.06e-01	0	58	0	209190912	55	5231
2026-01-21 12:33:31.61	200.77	15.79	-41.9	-45.1	18.3	6.05e-01	0	58	0	211288064	55	5208
2026-01-21 12:33:32.62	200.90	15.90	-41.8	-45.1	18.3	6.05e-01	0	58	0	212860928	55	5196
2026-01-21 12:33:33.63	201.03	16.00	-41.8	-45.1	18.3	6.05e-01	0	58	0	214958080	55	5176
2026-01-21 12:33:34.64	201.16	16.11	-41.8	-45.0	18.4	6.05e-01	0	58	0	217055232	55	5131
2026-01-21 12:33:35.65	201.29	16.22	-41.8	-45.0	18.4	6.09e-01	0	58	0	218628096	55	5146
2026-01-21 12:33:36.66	201.42	16.33	-41.8	-45.0	18.4	6.06e-01	0	58	0	220725248	55	5148
2026-01-21 12:33:37.67	201.55	16.44	-41.9	-45.1	18.3	6.05e-01	0	58	0	222822400	55	5211
2026-01-21 12:33:38.68	201.69	16.55	-41.9	-45.1	18.4	6.04e-01	0	58	0	224395264	55	5185
2026-01-21 12:33:39.69	201.83	16.66	-41.9	-45.1	18.3	6.05e-01	0	58	0	226492416	55	5195
2026-01-21 12:33:40.70	201.96	16.77	-41.9	-45.1	18.4	6.06e-01	0	58	0	228065280	55	5184
2026-01-21 12:33:41.71	202.10	16.88	-41.8	-45.0	18.5	6.07e-01	0	58	0	230162432	55	5129
2026-01-21 12:33:42.72	202.24	16.99	-41.8	-45.0	18.4	6.07e-01	0	58	0	232259584	55	5157
2026-01-21 12:33:43.72	202.38	17.10	-41.9	-45.1	18.4	6.05e-01	0	58	0	233832448	55	5168
2026-01-21 12:33:44.73	202.52	17.21	-41.9	-45.1	18.3	6.03e-01	0	58	0	235929600	55	5208
2026-01-21 12:33:45.74	202.66	17.33	-41.9	-45.1	18.4	6.05e-01	0	58	0	237502464	55	5187
2026-01-21 12:33:46.75	202.80	17.44	-41.9	-45.2	18.3	6.05e-01	0	58	0	239599616	55	5265
2026-01-21 12:33:47.76	202.95	17.55	-42.0	-45.3	18.2	6.06e-01	0	58	0	241696768	55	5335
2026-01-21 12:33:48.77	203.09	17.67	-42.0	-45.3	18.2	6.07e-01	0	59	0	243269632	55	5303
2026-01-21 12:33:49.78	203.24	17.78	-42.0	-45.3	18.2	6.06e-01	0	58	0	245366784	55	5285
2026-01-21 12:33:50.79	203.39	17.89	-41.8	-45.0	18.5	6.06e-01	0	59	0	246939648	55	5148
2026-01-21 12:33:51.80	203.54	18.01	-41.9	-45.1	18.5	6.06e-01	0	58	0	249036800	55	5173
2026-01-21 12:33:52.81	203.69	18.13	-41.9	-45.1	18.4	6.06e-01	0	59	0	251133952	55	5187
2026-01-21 12:33:53.82	203.84	18.24	-41.9	-45.1	18.4	6.07e-01	0	59	0	252706816	55	5195
2026-01-21 12:33:54.83	203.99	18.36	-41.9	-45.2	18.4	6.06e-01	0	59	0	254803968	55	5241
2026-01-21 12:33:55.84	204.14	18.47	-41.9	-45.1	18.4	6.04e-01	0	59	0	256376832	55	5213
2026-01-21 12:33:56.85	204.30	18.59	-41.9	-45.1	18.4	6.06e-01	0	59	0	258473984	55	5204
2026-01-21 12:33:57.86	204.46	18.71	-41.9	-45.1	18.4	6.06e-01	0	58	0	260571136	55	5178
2026-01-21 12:33:58.87	204.61	18.83	-41.9	-45.2	18.4	6.04e-01	0	59	0	262144000	55	5243
2026-01-21 12:33:59.88	204.77	18.94	-41.9	-45.1	18.5	6.06e-01	0	59	0	264241152	55	5184
2026-01-21 12:34:00.89	204.93	19.06	-42.0	-45.2	18.3	6.04e-01	0	59	0	266338304	55	5277
2026-01-21 12:34:01.90	205.09	19.18	-42.1	-45.5	18.1	6.07e-01	0	59	0	267911168	55	5407
2026-01-21 12:34:02.91	205.26	19.30	-42.1	-45.4	18.1	6.07e-01	0	59	0	270008320	55	5381
2026-01-21 12:34:03.92	205.42	19.42	-42.1	-45.4	18.2	6.04e-01	0	59	0	271581184	55	5364
2026-01-21 12:34:04.93	205.58	19.54	-42.0	-45.3	18.2	6.05e-01	0	59	0	273678336	55	5332
2026-01-21 12:34:05.94	205.75	19.66	-42.0	-45.2	18.4	6.05e-01	0	59	0	275775488	55	5228
2026-01-21 12:34:06.95	205.92	19.78	-41.9	-45.1	18.5	6.07e-01	0	59	0	277348352	55	5201
2026-01-21 12:34:07.96	206.09	19.91	-42.0	-45.2	18.4	6.06e-01	0	59	0	279445504	55	5246
2026-01-21 12:34:08.97	206.26	20.03	-42.1	-45.4	18.3	6.06e-01	0	59	0	281018368	55	5342
2026-01-21 12:34:09.98	206.43	20.15	-42.0	-45.3	18.3	6.06e-01	0	59	0	283115520	55	5296
2026-01-21 12:34:10.99	206.60	20.27	-42.0	-45.2	18.3	6.07e-01	0	59	0	285212672	55	5271
2026-01-21 12:34:12.00	206.78	20.40	-42.0	-45.2	18.4	6.07e-01	0	59	0	286785536	55	5262
2026-01-21 12:34:13.00	206.95	20.52	-41.9	-45.1	18.5	6.07e-01	0	59	0	288882688	55	5189
2026-01-21 12:34:14.01	207.13	20.64	-42.0	-45.2	18.4	6.07e-01	0	59	0	290979840	55	5245
2026-01-21 12:34:15.02	207.31	20.77	-42.0	-45.3	18.4	6.04e-01	0	59	0	292552704	55	5299
2026-01-21 12:34:16.03	207.49	20.89	-42.1	-45.3	18.3	6.07e-01	0	59	0	294649856	55	5335
2026-01-21 12:34:17.04	207.67	21.02	-42.1	-45.4	18.3	6.07e-01	0	59	0	296222720	55	5350
2026-01-21 12:34:18.05	207.86	21.14	-42.1	-45.4	18.3	6.07e-01	0	59	0	298319872	55	5350
2026-01-21 12:34:19.06	208.04	21.27	-42.1	-45.4	18.3	6.06e-01	0	59	0	300417024	55	5363
2026-01-21 12:34:20.07	208.23	21.40	-42.0	-45.2	18.5	6.08e-01	0	59	0	301989888	55	5267
2026-01-21 12:34:21.08	208.42	21.52	-42.0	-45.2	18.4	6.07e-01	0	59	0	304087040	55	5274
2026-01-21 12:34:22.09	208.61	21.65	-42.0	-45.2	18.5	6.07e-01	0	59	0	305659904	55	5247
2026-01-21 12:34:23.10	208.80	21.78	-42.0	-45.2	18.5	6.07e-01	0	59	0	307757056	55	5253
2026-01-21 12:34:24.11	208.99	21.91	-42.1	-45.3	18.3	6.03e-01	0	59	0	309854208	55	5337
2026-01-21 12:34:25.12	209.19	22.03	-42.0	-45.3	18.4	6.07e-01	0	59	0	311427072	55	5293
2026-01-21 12:34:26.13	209.38	22.16	-42.0	-45.2	18.5	6.05e-01	0	59	0	313524224	55	5267
2026-01-21 12:34:27.14	209.58	22.29	-42.0	-45.2	18.5	6.07e-01	0	59	0	315097088	55	5265
2026-01-21 12:34:28.15	209.78	22.42	-42.0	-45.2	18.5	6.05e-01	0	59	0	317194240	55	5257
2026-01-21 12:34:29.16	209.98	22.55	-42.0	-45.3	18.4	6.06e-01	0	59	0	319291392	55	5291
2026-01-21 12:34:30.17	210.19	22.68	-42.0	-45.2	18.5	6.07e-01	0	59	0	320864256	55	5259
2026-01-21 12:34:31.17	210.39	22.81	-42.0	-45.2	18.5	6.07e-01	0	59	0	322961408	55	5234
2026-01-21 12:34:32.18	210.60	22.94	-42.0	-45.2	18.5	6.06e-01	0	59	0	324534272	55	5260
2026-01-21 12:34:33.19	210.81	23.07	-42.1	-45.3	18.4	6.07e-01	0	59	0	326631424	55	5307
2026-01-21 12:34:34.21	211.02	23.21	-42.1	-45.3	18.4	6.06e-01	0	59	0	328728576	55	5326
2026-01-21 12:34:35.21	211.23	23.34	-42.1	-45.4	18.3	6.07e-01	0	59	0	330301440	55	5352
2026-01-21 12:34:36.22	211.44	23.47	-42.1	-45.4	18.3	6.06e-01	0	59	0	332398592	55	5381
2026-01-21 12:34:37.23	211.66	23.60	-42.2	-45.4	18.3	6.09e-01	0	59	0	334495744	55	5399
2026-01-21 12:34:38.24	211.88	23.74	-42.1	-45.4	18.3	6.05e-01	0	59	0	336068608	55	5375
2026-01-21 12:34:39.25	212.10	23.87	-42.2	-45.4	18.2	6.06e-01	0	59	0	338165760	55	5401
2026-01-21 12:34:40.26	212.32	24.00	-42.2	-45.5	18.3	6.05e-01	0	59	0	339738624	55	5410
2026-01-21 12:34:41.27	212.54	24.14	-42.1	-45.3	18.5	6.04e-01	0	59	0	341835776	55	5282
2026-01-21 12:34:42.28	212.77	24.27	-42.1	-45.4	18.3	6.07e-01	0	59	0	343932928	55	5378
2026-01-21 12:34:43.29	213.00	24.41	-42.1	-45.4	18.4	6.07e-01	0	59	0	345505792	55	5365
2026-01-21 12:34:44.30	213.23	24.54	-42.2	-45.5	18.3	6.04e-01	0	59	0	347602944	55	5407
2026-01-21 12:34:45.31	213.46	24.68	-42.1	-45.4	18.4	6.06e-01	0	59	0	349175808	55	5342
2026-01-21 12:34:46.32	213.69	24.81	-42.2	-45.5	18.3	6.07e-01	0	59	0	351272960	55	5422
2026-01-21 12:34:47.33	213.93	24.95	-42.2	-45.5	18.2	6.08e-01	0	59	0	353370112	55	5447
2026-01-21 12:34:48.34	214.17	25.09	-42.3	-45.7	18.1	6.07e-01	0	59	0	354942976	55	5564
2026-01-21 12:34:49.35	214.41	25.22	-42.3	-45.7	18.1	6.05e-01	0	59	0	357040128	55	5552
2026-01-21 12:34:50.36	214.65	25.36	-42.2	-45.6	18.2	6.07e-01	0	59	0	359137280	55	5471
2026-01-21 12:34:51.37	214.89	25.50	-42.2	-45.4	18.4	6.06e-01	0	59	0	360710144	55	5374
2026-01-21 12:34:52.38	215.14	25.63	-42.1	-45.4	18.5	6.06e-01	0	59	0	362807296	55	5349
2026-01-21 12:34:53.39	215.39	25.77	-42.3	-45.6	18.2	6.06e-01	0	59	0	364380160	55	5478
2026-01-21 12:34:54.40	215.64	25.91	-42.3	-45.6	18.2	6.05e-01	0	59	0	366477312	55	5465
2026-01-21 12:34:55.41	215.89	26.05	-42.2	-45.4	18.3	6.06e-01	0	59	0	368574464	55	5400
2026-01-21 12:34:56.41	216.14	26.18	-42.2	-45.4	18.4	6.08e-01	0	59	0	370147328	55	5377
2026-01-21 12:34:57.43	216.40	26.32	-42.2	-45.4	18.4	6.03e-01	0	59	0	372244480	55	5395
2026-01-21 12:34:58.44	216.66	26.46	-42.2	-45.4	18.4	6.04e-01	0	59	0	373817344	55	5382
2026-01-21 12:34:59.45	216.93	26.60	-42.2	-45.4	18.4	6.06e-01	0	59	0	375914496	55	5387
2026-01-21 12:35:00.45	217.19	26.74	-42.1	-45.3	18.5	6.06e-01	0	59	0	378011648	55	5297
2026-01-21 12:35:01.46	217.45	26.88	-42.1	-45.4	18.5	6.06e-01	0	59	0	379584512	55	5342
2026-01-21 12:35:02.47	217.72	27.01	-42.2	-45.5	18.3	6.07e-01	0	59	0	381681664	55	5426
2026-01-21 12:35:03.48	218.00	27.15	-42.3	-45.6	18.3	6.07e-01	0	59	0	383254528	55	5476
2026-01-21 12:35:04.49	218.27	27.29	-42.3	-45.5	18.3	6.08e-01	0	59	0	385351680	55	5459
2026-01-21 12:35:05.50	218.55	27.43	-42.1	-45.3	18.5	6.04e-01	0	59	0	387448832	55	5296
2026-01-21 12:35:06.51	218.83	27.57	-42.2	-45.4	18.4	6.04e-01	0	59	0	389021696	55	5386
2026-01-21 12:35:07.52	219.11	27.71	-42.2	-45.4	18.4	6.05e-01	0	59	0	391118848	55	5355
2026-01-21 12:35:08.53	219.39	27.85	-42.1	-45.5	18.3	6.07e-01	0	59	0	392691712	55	5411
2026-01-21 12:35:09.53	219.67	27.99	-42.1	-45.4	18.4	6.08e-01	0	59	0	394788864	55	5375
2026-01-21 12:35:10.54	219.96	28.13	-42.3	-45.6	18.3	6.06e-01	0	59	0	396886016	55	5472
2026-01-21 12:35:11.55	220.26	28.27	-42.2	-45.5	18.4	6.06e-01	0	59	0	398458880	55	5423
2026-01-21 12:35:12.56	220.55	28.41	-42.2	-45.4	18.5	6.07e-01	0	59	0	400556032	55	5362
2026-01-21 12:35:13.57	220.85	28.55	-42.2	-45.4	18.4	6.06e-01	0	59	0	402653184	55	5389
2026-01-21 12:35:14.58	221.15	28.69	-42.2	-45.5	18.4	6.05e-01	0	59	0	404226048	55	5415
2026-01-21 12:35:15.59	221.45	28.82	-42.0	-45.2	18.7	6.06e-01	0	59	0	406323200	55	5246
2026-01-21 12:35:16.60	221.75	28.96	-42.1	-45.3	18.5	6.06e-01	0	60	0	407896064	55	5325
2026-01-21 12:35:17.61	222.06	29.10	-42.2	-45.4	18.5	6.07e-01	0	59	0	409993216	55	5352
2026-01-21 12:35:18.62	222.37	29.24	-42.2	-45.4	18.4	6.05e-01	0	59	0	412090368	55	5392
2026-01-21 12:35:19.63	222.68	29.38	-42.3	-45.5	18.3	6.05e-01	0	59	0	413663232	55	5459
2026-01-21 12:35:20.64	223.00	29.52	-42.2	-45.5	18.4	6.05e-01	0	60	0	415760384	55	5413
2026-01-21 12:35:21.65	223.32	29.66	-42.2	-45.4	18.5	6.06e-01	0	60	0	417333248	55	5364
2026-01-21 12:35:22.66	223.64	29.80	-42.0	-45.2	18.7	6.05e-01	0	60	0	419430400	55	5224
2026-01-21 12:35:23.67	223.96	29.93	-42.0	-45.2	18.7	6.06e-01	0	60	0	421527552	55	5219
2026-01-21 12:35:24.68	224.29	30.07	-42.2	-45.4	18.4	6.08e-01	0	60	0	423100416	55	5402
2026-01-21 12:35:25.69	224.62	30.21	-42.3	-45.6	18.3	6.06e-01	0	59	0	425197568	55	5498
2026-01-21 12:35:26.70	224.95	30.35	-42.2	-45.5	18.3	6.07e-01	0	59	0	426770432	55	5432
2026-01-21 12:35:27.71	225.29	30.48	-42.1	-45.3	18.5	6.09e-01	0	59	0	428867584	55	5312
2026-01-21 12:35:28.72	225.63	30.62	-42.1	-45.3	18.5	6.07e-01	0	59	0	430964736	55	5329
2026-01-21 12:35:29.73	225.97	30.76	-42.4	-45.7	18.2	6.05e-01	0	60	0	432537600	55	5552
2026-01-21 12:35:30.74	226.31	30.89	-42.3	-45.6	18.3	6.04e-01	0	59	0	434634752	55	5472
2026-01-21 12:35:31.75	226.66	31.03	-42.2	-45.5	18.4	6.04e-01	0	59	0	436207616	55	5407
2026-01-21 12:35:32.76	227.01	31.16	-42.2	-45.5	18.4	6.06e-01	0	60	0	438304768	55	5418
2026-01-21 12:35:33.77	227.36	31.30	-42.4	-45.7	18.2	6.07e-01	0	60	0	440401920	55	5549
2026-01-21 12:35:34.77	227.71	31.43	-42.3	-45.5	18.3	6.04e-01	0	60	0	441974784	55	5447
2026-01-21 12:35:35.78	228.07	31.56	-42.2	-45.5	18.4	6.06e-01	0	60	0	444071936	55	5423
2026-01-21 12:35:36.79	228.44	31.69	-42.3	-45.6	18.3	6.08e-01	0	60	0	445644800	55	5487
2026-01-21 12:35:37.80	228.80	31.83	-42.3	-45.6	18.2	6.06e-01	0	60	0	447741952	55	5504
2026-01-21 12:35:38.81	229.17	31.96	-42.4	-45.7	18.0	6.04e-01	0	60	0	449839104	55	5558
2026-01-21 12:35:39.82	229.54	32.09	-42.4	-45.8	18.0	6.07e-01	0	60	0	451411968	55	5623
2026-01-21 12:35:40.83	229.91	32.22	-42.3	-45.6	18.3	6.06e-01	0	59	0	453509120	55	5492
2026-01-21 12:35:41.84	230.29	32.35	-42.2	-45.4	18.4	6.07e-01	0	59	0	455606272	55	5392
2026-01-21 12:35:42.85	230.67	32.48	-42.3	-45.5	18.3	6.08e-01	0	60	0	457179136	55	5457
2026-01-21 12:35:43.86	231.05	32.60	-42.4	-45.7	18.2	6.07e-01	0	60	0	459276288	55	5542
2026-01-21 12:35:44.87	231.44	32.73	-42.4	-45.7	18.2	6.05e-01	0	60	0	460849152	55	5564
2026-01-21 12:35:45.88	231.83	32.86	-42.4	-45.7	18.1	6.05e-01	0	60	0	462946304	55	5588
2026-01-21 12:35:46.89	232.22	32.98	-42.4	-45.8	18.1	6.05e-01	0	60	0	465043456	55	5594
2026-01-21 12:35:47.90	232.62	33.11	-42.5	-45.9	18.0	6.05e-01	0	60	0	466616320	55	5663
2026-01-21 12:35:48.91	233.02	33.23	-42.5	-45.9	18.0	6.06e-01	0	60	0	468713472	55	5699
2026-01-21 12:35:49.92	233.42	33.35	-42.6	-46.0	17.8	6.07e-01	0	60	0	470810624	55	5775
2026-01-21 12:35:50.93	233.82	33.48	-42.4	-45.8	18.0	6.07e-01	0	59	0	472383488	55	5607
2026-01-21 12:35:51.93	234.23	33.60	-42.3	-45.6	18.2	6.06e-01	0	60	0	474480640	55	5526
2026-01-21 12:35:52.94	234.64	33.72	-42.5	-45.9	18.0	6.07e-01	0	60	0	476053504	55	5661
2026-01-21 12:35:53.95	235.05	33.83	-42.3	-45.6	18.2	6.05e-01	0	60	0	478150656	55	5526
2026-01-21 12:35:54.96	235.47	33.95	-42.3	-45.5	18.4	6.08e-01	0	60	0	480247808	55	5447
2026-01-21 12:35:55.97	235.89	34.07	-42.3	-45.6	18.3	6.04e-01	0	60	0	481820672	55	5466
2026-01-21 12:35:56.98	236.31	34.18	-42.5	-45.9	18.0	6.03e-01	0	60	0	483917824	55	5680
2026-01-21 12:35:57.99	236.73	34.30	-42.4	-45.8	18.0	6.06e-01	0	60	0	485490688	55	5638
2026-01-21 12:35:59.00	237.16	34.41	-42.5	-45.9	18.0	6.06e-01	0	60	0	487587840	55	5697
2026-01-21 12:36:00.01	237.60	34.52	-42.4	-45.8	18.1	6.06e-01	0	60	0	489684992	55	5602
2026-01-21 12:36:01.02	238.03	34.63	-42.3	-45.5	18.4	6.06e-01	0	60	0	491257856	55	5441
2026-01-21 12:36:02.03	238.47	34.74	-42.4	-45.7	18.2	6.07e-01	0	60	0	493355008	55	5582
2026-01-21 12:36:03.04	238.91	34.84	-42.4	-45.7	18.2	6.06e-01	0	60	0	494927872	55	5552
2026-01-21 12:36:04.05	239.35	34.95	-42.4	-45.8	18.1	6.04e-01	0	60	0	497025024	55	5610
2026-01-21 12:36:05.06	239.80	35.05	-42.4	-45.8	18.1	6.05e-01	0	60	0	499122176	55	5593
2026-01-21 12:36:06.06	240.24	35.16	-42.4	-45.6	18.2	6.07e-01	0	60	0	500695040	55	5528
2026-01-21 12:36:07.07	240.70	35.26	-42.3	-45.6	18.3	6.05e-01	0	60	0	502792192	55	5477
2026-01-21 12:36:08.08	241.15	35.36	-42.4	-45.8	18.1	6.07e-01	0	60	0	504365056	55	5631
2026-01-21 12:36:09.09	241.61	35.45	-42.3	-45.6	18.2	6.06e-01	0	60	0	506462208	55	5510
2026-01-21 12:36:10.10	242.07	35.55	-42.4	-45.8	18.1	6.07e-01	0	60	0	508559360	55	5620
2026-01-21 12:36:11.11	242.53	35.64	-42.4	-45.8	18.1	6.08e-01	0	60	0	510132224	55	5598
2026-01-21 12:36:12.12	243.00	35.74	-42.3	-45.6	18.3	6.05e-01	0	60	0	512229376	55	5502
2026-01-21 12:36:13.13	243.47	35.83	-42.4	-45.7	18.2	6.06e-01	0	60	0	513802240	55	5566
2026-01-21 12:36:14.14	243.94	35.92	-42.2	-45.4	18.5	6.08e-01	0	60	0	515899392	55	5376
2026-01-21 12:36:15.15	244.41	36.00	-42.4	-45.7	18.2	6.09e-01	0	60	0	517996544	55	5588
2026-01-21 12:36:16.16	244.89	36.09	-42.4	-45.7	18.2	6.07e-01	0	60	0	519569408	55	5569
2026-01-21 12:36:17.16	245.36	36.17	-42.3	-45.6	18.3	6.05e-01	0	60	0	521666560	55	5513
2026-01-21 12:36:18.17	245.84	36.25	-42.3	-45.7	18.2	6.08e-01	0	60	0	523763712	55	5531
2026-01-21 12:36:19.18	246.33	36.33	-42.3	-45.6	18.3	6.05e-01	0	60	0	525336576	55	5466
2026-01-21 12:36:20.19	246.81	36.41	-42.3	-45.6	18.4	6.05e-01	0	60	0	527433728	55	5471
2026-01-21 12:36:21.20	247.30	36.48	-42.5	-45.8	18.1	6.06e-01	0	60	0	529006592	55	5646
2026-01-21 12:36:22.21	247.79	36.56	-42.4	-45.7	18.2	6.05e-01	0	60	0	531103744	55	5537
2026-01-21 12:36:23.22	248.28	36.63	-42.4	-45.7	18.2	6.07e-01	0	60	0	533200896	55	5529
2026-01-21 12:36:24.23	248.78	36.70	-42.4	-45.8	18.1	6.05e-01	0	60	0	534773760	55	5609
2026-01-21 12:36:25.24	249.27	36.76	-42.5	-45.8	18.1	6.07e-01	0	60	0	536870912	55	5631
2026-01-21 12:36:26.24	249.77	36.83	-42.5	-45.8	18.1	6.07e-01	0	60	0	538443776	55	5619
2026-01-21 12:36:27.25	250.27	36.89	-42.4	-45.7	18.2	6.07e-01	0	60	0	540540928	55	5538
2026-01-21 12:36:28.26	250.77	36.95	-42.3	-45.5	18.4	6.07e-01	0	60	0	542638080	55	5412
2026-01-21 12:36:29.27	251.28	37.01	-42.3	-45.5	18.4	6.05e-01	0	60	0	544210944	55	5456
2026-01-21 12:36:30.28	251.78	37.06	-42.5	-45.8	18.1	6.04e-01	0	60	0	546308096	55	5649
2026-01-21 12:36:31.29	252.29	37.12	-42.4	-45.7	18.2	6.05e-01	0	60	0	547880960	55	5549
2026-01-21 12:36:32.30	252.80	37.17	-42.4	-45.7	18.2	6.06e-01	0	60	0	549978112	55	5564
2026-01-21 12:36:33.31	253.31	37.22	-42.4	-45.7	18.2	6.04e-01	0	60	0	552075264	55	5541
2026-01-21 12:36:34.32	253.82	37.26	-42.3	-45.5	18.4	6.06e-01	0	60	0	553648128	55	5450
2026-01-21 12:36:35.33	254.34	37.31	-42.4	-45.7	18.2	6.03e-01	0	60	0	555745280	55	5536
2026-01-21 12:36:36.34	254.85	37.35	-42.3	-45.6	18.3	6.04e-01	0	60	0	557318144	55	5473
2026-01-21 12:36:37.35	255.37	37.38	-42.2	-45.4	18.5	6.06e-01	0	60	0	559415296	55	5381
2026-01-21 12:36:38.36	255.89	37.42	-42.3	-45.5	18.4	6.08e-01	0	60	0	561512448	55	5413
2026-01-21 12:36:39.37	256.40	37.45	-42.3	-45.6	18.3	6.05e-01	0	60	0	563085312	55	5493
2026-01-21 12:36:40.38	256.92	37.49	-42.2	-45.4	18.6	6.05e-01	0	60	0	565182464	55	5345
2026-01-21 12:36:41.39	257.44	37.51	-42.3	-45.6	18.4	6.06e-01	0	60	0	567279616	55	5472
2026-01-21 12:36:42.40	257.97	37.54	-42.3	-45.5	18.4	6.07e-01	0	60	0	568852480	55	5433
2026-01-21 12:36:43.40	258.48	37.56	-42.3	-45.5	18.4	6.08e-01	0	60	0	570949632	55	5434
2026-01-21 12:36:44.41	259.01	37.58	-42.3	-45.5	18.4	6.04e-01	0	60	0	572522496	55	5462
2026-01-21 12:36:45.42	259.53	37.60	-42.2	-45.4	18.4	6.04e-01	0	60	0	574619648	55	5399
2026-01-21 12:36:46.43	260.05	37.62	-42.4	-45.7	18.3	6.07e-01	0	60	0	576716800	55	5535
2026-01-21 12:36:47.44	260.58	37.63	-42.3	-45.5	18.4	6.04e-01	0	60	0	578289664	55	5441
2026-01-21 12:36:48.45	261.10	37.64	-42.3	-45.6	18.3	6.05e-01	0	60	0	580386816	55	5521
2026-01-21 12:36:49.46	261.63	37.65	-42.3	-45.6	18.3	6.05e-01	0	60	0	581959680	55	5510
2026-01-21 12:36:50.47	262.15	37.65	-42.2	-45.4	18.5	6.07e-01	0	60	0	584056832	55	5356
2026-01-21 12:36:51.48	262.68	37.66	-42.2	-45.4	18.5	6.06e-01	0	60	0	586153984	55	5391
2026-01-21 12:36:52.49	263.21	37.66	-42.3	-45.5	18.4	6.07e-01	0	60	0	587726848	55	5463
2026-01-21 12:36:53.50	263.73	37.65	-42.2	-45.4	18.4	6.06e-01	0	60	0	589824000	55	5398
2026-01-21 12:36:54.50	264.25	37.65	-42.3	-45.6	18.3	6.06e-01	0	60	0	591921152	55	5504
2026-01-21 12:36:55.51	264.78	37.64	-42.3	-45.5	18.4	6.05e-01	0	60	0	593494016	55	5450
2026-01-21 12:36:56.52	265.30	37.63	-42.3	-45.5	18.4	6.06e-01	0	60	0	595591168	55	5443
2026-01-21 12:36:57.53	265.83	37.62	-42.4	-45.8	18.2	6.07e-01	0	60	0	597164032	55	5596
2026-01-21 12:36:58.54	266.35	37.60	-42.4	-45.7	18.2	6.07e-01	0	60	0	599261184	55	5569
2026-01-21 12:36:59.55	266.87	37.58	-42.3	-45.6	18.3	6.06e-01	0	60	0	601358336	55	5476
2026-01-21 12:37:00.56	267.40	37.56	-42.2	-45.4	18.5	6.06e-01	0	60	0	602931200	55	5396
2026-01-21 12:37:01.57	267.92	37.54	-42.2	-45.4	18.5	6.05e-01	0	60	0	605028352	55	5363
2026-01-21 12:37:02.58	268.44	37.51	-42.3	-45.6	18.3	6.03e-01	0	60	0	606601216	55	5493
2026-01-21 12:37:03.58	268.95	37.49	-42.3	-45.6	18.3	6.07e-01	0	60	0	608698368	55	5492
2026-01-21 12:37:04.59	269.47	37.45	-42.3	-45.6	18.3	6.05e-01	0	60	0	610271232	55	5503
2026-01-21 12:37:05.60	269.99	37.42	-42.5	-45.8	18.1	6.05e-01	0	60	0	612368384	55	5637
2026-01-21 12:37:06.61	270.51	37.38	-42.4	-45.7	18.2	6.06e-01	0	60	0	614465536	55	5571
2026-01-21 12:37:07.62	271.03	37.35	-42.3	-45.5	18.4	6.05e-01	0	60	0	616038400	55	5411
2026-01-21 12:37:08.63	271.54	37.31	-42.2	-45.5	18.4	6.05e-01	0	60	0	618135552	55	5414
2026-01-21 12:37:09.64	272.05	37.26	-42.2	-45.4	18.5	6.07e-01	0	60	0	620232704	55	5360
2026-01-21 12:37:10.65	272.56	37.22	-42.3	-45.5	18.4	6.05e-01	0	60	0	621805568	55	5408
2026-01-21 12:37:11.66	273.08	37.17	-42.3	-45.5	18.4	6.06e-01	0	60	0	623902720	55	5445
2026-01-21 12:37:12.67	273.58	37.12	-42.2	-45.3	18.6	6.05e-01	0	60	0	625475584	55	5309
2026-01-21 12:37:13.68	274.09	37.06	-42.3	-45.5	18.4	6.05e-01	0	60	0	627572736	55	5463
2026-01-21 12:37:14.69	274.60	37.01	-42.5	-45.8	18.1	6.07e-01	0	60	0	629669888	55	5635
2026-01-21 12:37:15.70	275.10	36.95	-42.4	-45.8	18.1	6.08e-01	0	60	0	631242752	55	5593
2026-01-21 12:37:16.71	275.60	36.89	-42.3	-45.5	18.4	6.06e-01	0	60	0	633339904	55	5446
2026-01-21 12:37:17.72	276.10	36.83	-42.3	-45.5	18.4	6.07e-01	0	60	0	635437056	55	5457
2026-01-21 12:37:18.73	276.60	36.77	-42.2	-45.4	18.5	6.04e-01	0	60	0	637009920	55	5391
2026-01-21 12:37:19.74	277.09	36.70	-42.3	-45.5	18.4	6.06e-01	0	60	0	639107072	55	5449
2026-01-21 12:37:20.74	277.58	36.63	-42.3	-45.6	18.3	6.05e-01	0	60	0	640679936	55	5475
2026-01-21 12:37:21.75	278.08	36.56	-42.1	-45.3	18.6	6.06e-01	0	60	0	642777088	55	5296
2026-01-21 12:37:22.76	278.56	36.49	-42.4	-45.7	18.2	6.06e-01	0	60	0	644874240	55	5578
2026-01-21 12:37:23.77	279.05	36.41	-42.4	-45.7	18.2	6.07e-01	0	60	0	646447104	55	5543
2026-01-21 12:37:24.78	279.54	36.33	-42.2	-45.3	18.5	6.08e-01	0	60	0	648544256	55	5339
2026-01-21 12:37:25.79	280.02	36.26	-42.0	-45.1	18.8	6.06e-01	0	60	0	650117120	55	5180
2026-01-21 12:37:26.80	280.50	36.17	-42.1	-45.2	18.7	6.06e-01	0	60	0	652214272	55	5265
2026-01-21 12:37:27.81	280.98	36.09	-42.0	-45.1	18.8	6.05e-01	0	60	0	654311424	55	5178
2026-01-21 12:37:28.81	281.45	36.01	-42.1	-45.3	18.6	6.05e-01	0	60	0	655884288	55	5302
2026-01-21 12:37:29.83	281.92	35.92	-42.3	-45.6	18.3	6.05e-01	0	60	0	657981440	55	5479
2026-01-21 12:37:30.83	282.39	35.83	-42.2	-45.4	18.5	6.08e-01	0	60	0	659554304	55	5355
2026-01-21 12:37:31.84	282.86	35.74	-42.1	-45.2	18.7	6.07e-01	0	60	0	661651456	55	5244
2026-01-21 12:37:32.85	283.32	35.65	-41.9	-45.0	18.9	6.07e-01	0	60	0	663748608	55	5103
2026-01-21 12:37:33.86	283.78	35.56	-41.9	-44.9	18.9	6.05e-01	0	60	0	665321472	55	5098
2026-01-21 12:37:34.87	284.24	35.46	-42.0	-45.0	18.9	6.06e-01	0	60	0	667418624	55	5142
2026-01-21 12:37:35.88	284.70	35.36	-42.0	-45.0	18.9	6.06e-01	0	60	0	668991488	55	5128
2026-01-21 12:37:36.89	285.15	35.26	-41.9	-45.0	18.9	6.06e-01	0	60	0	671088640	55	5108
2026-01-21 12:37:37.90	285.60	35.16	-41.9	-44.8	19.1	6.05e-01	0	60	0	673185792	55	5032
2026-01-21 12:37:38.91	286.05	35.06	-41.9	-44.8	19.1	6.04e-01	0	60	0	674758656	55	5036
2026-01-21 12:37:39.92	286.50	34.96	-41.9	-44.9	19.0	6.06e-01	0	60	0	676855808	55	5085
2026-01-21 12:37:40.93	286.94	34.85	-41.8	-44.8	19.1	6.05e-01	0	60	0	678428672	55	4985
2026-01-21 12:37:41.94	287.38	34.75	-41.8	-44.7	19.2	6.07e-01	0	60	0	680525824	55	4937
2026-01-21 12:37:42.95	287.81	34.64	-41.7	-44.6	19.2	6.06e-01	0	60	0	682622976	55	4923
2026-01-21 12:37:43.95	288.24	34.53	-41.9	-44.9	19.0	6.06e-01	0	60	0	684195840	55	5068
2026-01-21 12:37:44.97	288.68	34.42	-41.7	-44.6	19.2	6.05e-01	0	60	0	686292992	55	4922
2026-01-21 12:37:45.98	289.11	34.31	-41.8	-44.7	19.1	6.06e-01	0	60	0	688390144	55	4970
2026-01-21 12:37:46.99	289.53	34.19	-41.8	-44.8	19.1	6.07e-01	0	60	0	689963008	55	5015
2026-01-21 12:37:48.00	289.95	34.08	-41.8	-44.8	19.1	6.04e-01	0	60	0	692060160	55	5009
2026-01-21 12:37:49.00	290.37	33.97	-41.8	-44.8	19.1	6.06e-01	0	60	0	693633024	55	5009
2026-01-21 12:37:50.01	290.78	33.85	-41.9	-44.9	19.0	6.06e-01	0	60	0	695730176	55	5052
2026-01-21 12:37:51.02	291.19	33.73	-41.8	-44.7	19.1	6.05e-01	0	60	0	697827328	55	4981
2026-01-21 12:37:52.03	291.60	33.61	-41.6	-44.5	19.4	6.06e-01	0	60	0	699400192	55	4818
2026-01-21 12:37:53.04	292.01	33.49	-41.8	-44.7	19.2	6.07e-01	0	60	0	701497344	55	4964
2026-01-21 12:37:54.05	292.41	33.37	-41.9	-44.9	19.0	6.04e-01	0	60	0	703594496	55	5057
2026-01-21 12:37:55.06	292.81	33.25	-41.7	-44.5	19.3	6.06e-01	0	60	0	705167360	55	4856
2026-01-21 12:37:56.07	293.21	33.13	-41.7	-44.5	19.3	6.04e-01	0	60	0	707264512	55	4858
2026-01-21 12:37:57.08	293.60	33.00	-41.6	-44.5	19.4	6.06e-01	0	60	0	708837376	55	4842
2026-01-21 12:37:58.09	294.00	32.88	-41.7	-44.6	19.2	6.03e-01	0	60	0	710934528	55	4917
2026-01-21 12:37:59.10	294.38	32.75	-41.7	-44.7	19.2	6.06e-01	0	60	0	713031680	55	4941
2026-01-21 12:38:00.11	294.77	32.63	-41.7	-44.6	19.3	6.07e-01	0	60	0	714604544	55	4890
2026-01-21 12:38:01.12	295.15	32.50	-41.6	-44.4	19.5	6.06e-01	0	60	0	716701696	55	4780
2026-01-21 12:38:02.13	295.53	32.37	-41.5	-44.3	19.6	6.05e-01	0	60	0	718274560	55	4723
2026-01-21 12:38:03.13	295.90	32.24	-41.5	-44.3	19.6	6.05e-01	0	60	0	720371712	55	4733
2026-01-21 12:38:04.15	296.28	32.11	-41.5	-44.4	19.5	6.05e-01	0	60	0	721944576	55	4778
2026-01-21 12:38:05.16	296.65	31.98	-41.7	-44.6	19.3	6.07e-01	0	60	0	724041728	55	4887
2026-01-21 12:38:06.16	297.01	31.85	-41.6	-44.4	19.4	6.05e-01	0	60	0	726138880	55	4789
2026-01-21 12:38:07.17	297.37	31.72	-41.4	-44.2	19.7	6.07e-01	0	60	0	727711744	54	4949
2026-01-21 12:38:08.18	297.74	31.59	-41.5	-44.3	19.5	6.04e-01	0	60	0	729808896	54	5034
2026-01-21 12:38:09.17	298.09	31.46	-41.6	-44.5	19.4	6.05e-01	0	60	0	731906048	54	5128
2026-01-21 12:38:10.18	298.44	31.33	-41.6	-44.5	19.3	6.07e-01	0	60	0	733478912	54	5147
2026-01-21 12:38:11.19	298.79	31.19	-41.8	-44.7	19.2	6.06e-01	0	60	0	735576064	54	5251
2026-01-21 12:38:12.19	299.14	31.06	-41.7	-44.6	19.3	6.04e-01	0	60	0	737148928	54	5169
2026-01-21 12:38:13.20	299.48	30.93	-41.6	-44.4	19.4	6.06e-01	0	60	0	739246080	54	5091
2026-01-21 12:38:14.20	299.82	30.79	-41.6	-44.5	19.4	6.05e-01	0	60	0	741343232	54	5120
2026-01-21 12:38:15.21	300.16	30.66	-41.6	-44.5	19.4	6.05e-01	0	60	0	742916096	54	5118
2026-01-21 12:38:16.21	300.50	30.52	-41.6	-44.5	19.4	6.06e-01	0	60	0	745013248	54	5103
2026-01-21 12:38:17.21	300.83	30.39	-41.5	-44.3	19.4	6.05e-01	0	60	0	746586112	54	5036
2026-01-21 12:38:18.22	301.16	30.25	-41.6	-44.5	19.4	6.05e-01	0	60	0	748683264	54	5109
2026-01-21 12:38:19.23	301.49	30.12	-41.6	-44.6	19.3	6.06e-01	0	60	0	750256128	54	5161
2026-01-21 12:38:20.23	301.81	29.98	-41.7	-44.6	19.2	6.07e-01	0	60	0	752353280	54	5211
2026-01-21 12:38:21.24	302.14	29.84	-41.7	-44.6	19.2	6.08e-01	0	60	0	754450432	54	5194
2026-01-21 12:38:22.24	302.45	29.71	-41.7	-44.6	19.2	6.06e-01	0	60	0	756023296	54	5200
2026-01-21 12:38:23.25	302.77	29.57	-41.6	-44.6	19.3	6.06e-01	0	60	0	758120448	54	5168
2026-01-21 12:38:24.24	303.08	29.44	-41.7	-44.6	19.2	6.09e-01	0	60	0	759693312	54	5218
2026-01-21 12:38:25.25	303.39	29.30	-41.6	-44.6	19.2	6.07e-01	0	60	0	761790464	54	5163
2026-01-21 12:38:26.25	303.70	29.16	-41.7	-44.6	19.2	6.05e-01	0	60	0	763887616	54	5215
2026-01-21 12:38:27.26	304.00	29.02	-41.8	-44.8	19.1	6.06e-01	0	60	0	765460480	54	5290
2026-01-21 12:38:28.26	304.31	28.89	-41.8	-44.9	18.9	6.07e-01	0	60	0	767557632	54	5368
2026-01-21 12:38:29.27	304.61	28.75	-41.9	-45.0	18.8	6.05e-01	0	60	0	769130496	54	5443
2026-01-21 12:38:30.27	304.90	28.61	-41.8	-44.9	18.9	6.05e-01	0	60	0	771227648	54	5365
2026-01-21 12:38:31.27	305.20	28.47	-41.8	-44.8	19.0	6.06e-01	0	60	0	773324800	54	5300
2026-01-21 12:38:32.28	305.49	28.34	-41.8	-44.8	19.0	6.04e-01	0	60	0	774897664	54	5318
2026-01-21 12:38:33.29	305.78	28.20	-41.8	-44.8	19.0	6.05e-01	0	60	0	776994816	54	5331
2026-01-21 12:38:34.29	306.07	28.06	-41.9	-45.0	18.8	6.08e-01	0	60	0	778567680	54	5437
2026-01-21 12:38:35.30	306.35	27.92	-41.9	-45.1	18.7	6.07e-01	0	60	0	780664832	54	5471
2026-01-21 12:38:36.30	306.63	27.78	-41.9	-45.0	18.8	6.05e-01	0	60	0	782761984	54	5405
2026-01-21 12:38:37.30	306.91	27.65	-41.9	-45.0	18.8	6.06e-01	0	60	0	784334848	54	5431
2026-01-21 12:38:38.31	307.19	27.51	-41.9	-45.1	18.7	6.04e-01	0	60	0	786432000	54	5477
2026-01-21 12:38:39.31	307.46	27.37	-42.0	-45.1	18.6	6.09e-01	0	60	0	788004864	54	5512
2026-01-21 12:38:40.32	307.74	27.23	-42.0	-45.1	18.7	6.07e-01	0	60	0	790102016	54	5511
2026-01-21 12:38:41.33	308.01	27.10	-42.0	-45.2	18.6	6.08e-01	0	60	0	791674880	54	5556
2026-01-21 12:38:42.33	308.27	26.96	-42.1	-45.3	18.5	6.07e-01	0	60	0	793772032	54	5602
2026-01-21 12:38:43.34	308.54	26.82	-42.0	-45.2	18.6	6.07e-01	0	60	0	795869184	54	5554
2026-01-21 12:38:44.34	308.80	26.69	-42.0	-45.1	18.6	6.06e-01	0	60	0	797442048	54	5526
2026-01-21 12:38:45.35	309.06	26.55	-42.0	-45.1	18.6	6.07e-01	0	60	0	799539200	54	5525
2026-01-21 12:38:46.35	309.32	26.41	-42.1	-45.4	18.4	6.05e-01	0	60	0	801636352	54	5658
2026-01-21 12:38:47.36	309.58	26.27	-42.2	-45.5	18.3	6.08e-01	0	60	0	803209216	54	5727
2026-01-21 12:38:48.37	309.83	26.14	-42.2	-45.6	18.2	6.08e-01	0	60	0	805306368	54	5793
2026-01-21 12:38:49.37	310.08	26.00	-42.2	-45.6	18.1	6.05e-01	0	60	0	806879232	55	5491
2026-01-21 12:38:50.38	310.33	25.86	-42.3	-45.6	18.1	6.08e-01	0	60	0	808976384	55	5523
2026-01-21 12:38:51.39	310.58	25.73	-42.1	-45.4	18.3	6.06e-01	0	60	0	810549248	55	5394
2026-01-21 12:38:52.40	310.83	25.59	-42.1	-45.3	18.4	6.06e-01	0	60	0	812646400	55	5299
2026-01-21 12:38:53.41	311.07	25.46	-42.0	-45.2	18.5	6.08e-01	0	60	0	814743552	55	5253
2026-01-21 12:38:54.42	311.31	25.32	-42.0	-45.2	18.5	6.08e-01	0	60	0	816316416	55	5263
2026-01-21 12:38:55.43	311.55	25.18	-42.0	-45.3	18.5	6.07e-01	0	60	0	818413568	55	5290
2026-01-21 12:38:56.44	311.79	25.05	-42.1	-45.3	18.4	6.06e-01	0	60	0	819986432	55	5319
2026-01-21 12:38:57.45	312.03	24.91	-42.1	-45.3	18.4	6.07e-01	0	60	0	822083584	55	5326
2026-01-21 12:38:58.45	312.26	24.78	-42.1	-45.4	18.3	6.05e-01	0	60	0	824180736	55	5399
2026-01-21 12:38:59.46	312.49	24.65	-42.1	-45.4	18.3	6.06e-01	0	60	0	825753600	55	5400
2026-01-21 12:39:00.47	312.72	24.51	-42.1	-45.4	18.3	6.08e-01	0	60	0	827850752	55	5387
2026-01-21 12:39:01.48	312.95	24.38	-42.1	-45.4	18.3	6.08e-01	0	60	0	829947904	55	5375
2026-01-21 12:39:02.49	313.17	24.25	-42.2	-45.5	18.1	6.07e-01	0	60	0	831520768	55	5418
2026-01-21 12:39:03.50	313.40	24.11	-42.1	-45.5	18.2	6.06e-01	0	60	0	833617920	55	5409
2026-01-21 12:39:04.51	313.62	23.98	-42.2	-45.6	18.1	6.06e-01	0	60	0	835190784	55	5493
2026-01-21 12:39:05.52	313.84	23.85	-42.2	-45.6	18.0	6.05e-01	0	60	0	837287936	55	5515
2026-01-21 12:39:06.53	314.06	23.71	-42.2	-45.5	18.1	6.06e-01	0	60	0	839385088	55	5441
2026-01-21 12:39:07.54	314.27	23.58	-42.2	-45.5	18.1	6.06e-01	0	60	0	840957952	55	5456
2026-01-21 12:39:08.55	314.49	23.45	-42.1	-45.5	18.2	6.07e-01	0	60	0	843055104	55	5403
2026-01-21 12:39:09.56	314.70	23.32	-42.1	-45.4	18.2	6.09e-01	0	60	0	845152256	55	5402
2026-01-21 12:39:10.57	314.91	23.19	-42.2	-45.6	18.1	6.06e-01	0	60	0	846725120	55	5469
2026-01-21 12:39:11.58	315.12	23.06	-42.2	-45.6	18.0	6.04e-01	0	60	0	848822272	55	5495
2026-01-21 12:39:12.59	315.32	22.93	-42.2	-45.6	18.0	6.08e-01	0	60	0	850395136	55	5495
2026-01-21 12:39:13.60	315.53	22.80	-42.2	-45.5	18.1	6.07e-01	0	61	0	852492288	55	5449
2026-01-21 12:39:14.61	315.73	22.67	-42.1	-45.4	18.2	6.06e-01	0	60	0	854589440	55	5385
2026-01-21 12:39:15.62	315.93	22.54	-42.1	-45.4	18.2	6.05e-01	0	60	0	856162304	55	5402
2026-01-21 12:39:16.62	316.13	22.41	-42.1	-45.4	18.2	6.06e-01	0	60	0	858259456	55	5402
2026-01-21 12:39:17.63	316.33	22.28	-42.1	-45.4	18.2	6.07e-01	0	60	0	859832320	55	5395
2026-01-21 12:39:18.64	316.53	22.16	-42.1	-45.3	18.2	6.05e-01	0	60	0	861929472	55	5331
2026-01-21 12:39:19.65	316.72	22.03	-42.0	-45.3	18.3	6.06e-01	0	60	0	864026624	55	5320
2026-01-21 12:39:20.66	316.92	21.90	-42.1	-45.4	18.3	6.06e-01	0	60	0	865599488	55	5342
2026-01-21 12:39:21.67	317.11	21.77	-42.1	-45.4	18.2	6.06e-01	0	60	0	867696640	55	5385
2026-01-21 12:39:22.68	317.30	21.65	-42.1	-45.5	18.1	6.08e-01	0	61	0	869269504	55	5412
2026-01-21 12:39:23.69	317.49	21.52	-42.1	-45.4	18.2	6.04e-01	0	60	0	871366656	55	5363
2026-01-21 12:39:24.70	317.67	21.40	-42.1	-45.5	18.1	6.05e-01	0	61	0	873463808	55	5414
2026-01-21 12:39:25.71	317.86	21.27	-42.0	-45.3	18.3	6.04e-01	0	60	0	875036672	55	5322
2026-01-21 12:39:26.72	318.04	21.15	-42.0	-45.3	18.3	6.06e-01	0	60	0	877133824	55	5311
2026-01-21 12:39:27.73	318.22	21.02	-42.0	-45.4	18.2	6.05e-01	0	60	0	878706688	55	5358
2026-01-21 12:39:28.74	318.41	20.90	-42.0	-45.4	18.2	6.06e-01	0	60	0	880803840	55	5357
2026-01-21 12:39:29.75	318.58	20.77	-42.1	-45.5	18.1	6.06e-01	0	60	0	882900992	55	5418
2026-01-21 12:39:30.76	318.76	20.65	-42.1	-45.4	18.2	6.05e-01	0	60	0	884473856	55	5371
2026-01-21 12:39:31.77	318.94	20.53	-42.1	-45.4	18.2	6.06e-01	0	60	0	886571008	55	5386
2026-01-21 12:39:32.78	319.11	20.40	-42.0	-45.4	18.2	6.08e-01	0	60	0	888143872	55	5354
2026-01-21 12:39:33.78	319.29	20.28	-42.0	-45.3	18.3	6.04e-01	0	61	0	890241024	55	5321
2026-01-21 12:39:34.79	319.46	20.16	-41.9	-45.1	18.5	6.06e-01	0	60	0	892338176	55	5189
2026-01-21 12:39:35.80	319.63	20.04	-41.9	-45.1	18.5	6.07e-01	0	60	0	893911040	55	5203
2026-01-21 12:39:36.81	319.80	19.92	-41.9	-45.2	18.4	6.05e-01	0	60	0	896008192	55	5241
2026-01-21 12:39:37.82	319.97	19.80	-41.9	-45.1	18.4	6.02e-01	0	61	0	898105344	55	5170
2026-01-21 12:39:38.83	320.13	19.68	-41.8	-45.0	18.5	6.06e-01	0	60	0	899678208	55	5132
2026-01-21 12:39:39.84	320.30	19.56	-41.9	-45.1	18.4	6.04e-01	0	60	0	901775360	55	5179
2026-01-21 12:39:40.86	320.46	19.44	-41.9	-45.2	18.4	6.05e-01	0	60	0	903348224	55	5244
2026-01-21 12:39:41.86	320.62	19.32	-41.9	-45.2	18.3	6.07e-01	0	60	0	905445376	55	5273
2026-01-21 12:39:42.87	320.79	19.20	-42.0	-45.3	18.2	6.07e-01	0	61	0	907542528	55	5335
2026-01-21 12:39:43.88	320.95	19.09	-42.0	-45.4	18.2	6.05e-01	0	60	0	909115392	55	5353
2026-01-21 12:39:44.89	321.11	18.97	-42.0	-45.3	18.2	6.07e-01	0	60	0	911212544	55	5309
2026-01-21 12:39:45.90	321.26	18.85	-41.9	-45.3	18.3	6.05e-01	0	60	0	913309696	55	5285
2026-01-21 12:39:46.91	321.42	18.73	-41.9	-45.2	18.3	6.06e-01	0	60	0	914882560	55	5240
2026-01-21 12:39:47.92	321.57	18.62	-41.9	-45.3	18.3	6.05e-01	0	60	0	916979712	55	5292
2026-01-21 12:39:48.93	321.73	18.50	-41.8	-45.1	18.4	6.06e-01	0	60	0	918552576	55	5195
2026-01-21 12:39:49.94	321.88	18.39	-41.8	-45.1	18.4	6.03e-01	0	60	0	920649728	55	5175
2026-01-21 12:39:50.95	322.03	18.27	-41.9	-45.2	18.3	6.06e-01	0	61	0	922222592	55	5239
2026-01-21 12:39:51.96	322.18	18.16	-41.9	-45.2	18.3	6.06e-01	0	60	0	924319744	55	5262
2026-01-21 12:39:52.97	322.33	18.04	-41.9	-45.1	18.3	6.06e-01	0	60	0	926416896	55	5212
2026-01-21 12:39:53.98	322.48	17.93	-41.9	-45.2	18.3	6.06e-01	0	61	0	927989760	55	5252
2026-01-21 12:39:54.98	322.63	17.82	-41.9	-45.2	18.3	6.06e-01	0	60	0	930086912	55	5231
2026-01-21 12:39:55.99	322.77	17.70	-41.9	-45.2	18.3	6.06e-01	0	60	0	931659776	55	5240
2026-01-21 12:39:57.00	322.92	17.59	-41.9	-45.2	18.2	6.05e-01	0	60	0	933756928	55	5276
2026-01-21 12:39:58.01	323.06	17.48	-42.0	-45.4	18.1	6.05e-01	0	60	0	935854080	55	5354
2026-01-21 12:39:59.02	323.20	17.37	-41.9	-45.2	18.2	6.07e-01	0	60	0	937426944	55	5224
2026-01-21 12:40:00.03	323.34	17.26	-41.8	-45.0	18.4	6.07e-01	0	60	0	939524096	55	5126
2026-01-21 12:40:01.04	323.48	17.14	-41.8	-45.0	18.4	6.07e-01	0	61	0	941621248	55	5156
2026-01-21 12:40:02.05	323.62	17.03	-41.8	-45.0	18.4	6.03e-01	0	60	0	943194112	55	5132
2026-01-21 12:40:03.06	323.76	16.92	-41.8	-45.0	18.4	6.08e-01	0	60	0	945291264	55	5128
2026-01-21 12:40:04.07	323.90	16.81	-41.8	-45.0	18.4	6.07e-01	0	61	0	946864128	55	5125
2026-01-21 12:40:05.08	324.03	16.70	-41.7	-45.0	18.4	6.06e-01	0	60	0	948961280	55	5114
2026-01-21 12:40:06.09	324.17	16.60	-41.7	-45.0	18.4	6.08e-01	0	61	0	951058432	55	5120
2026-01-21 12:40:07.10	324.30	16.49	-41.8	-45.0	18.4	6.06e-01	0	61	0	952631296	55	5133
2026-01-21 12:40:08.11	324.44	16.38	-41.8	-45.1	18.2	6.05e-01	0	60	0	954728448	55	5200
2026-01-21 12:40:09.12	324.57	16.27	-41.7	-45.0	18.4	6.05e-01	0	60	0	956301312	55	5103
2026-01-21 12:40:10.13	324.70	16.16	-41.7	-45.0	18.4	6.08e-01	0	61	0	958398464	55	5115
2026-01-21 12:40:11.14	324.83	16.06	-41.8	-45.0	18.3	6.07e-01	0	61	0	960495616	55	5155
2026-01-21 12:40:12.15	324.96	15.95	-41.8	-45.2	18.2	6.06e-01	0	60	0	962068480	55	5219
2026-01-21 12:40:13.16	325.09	15.84	-41.9	-45.2	18.1	6.07e-01	0	61	0	964165632	55	5270
2026-01-21 12:40:14.17	325.22	15.74	-41.9	-45.3	18.1	6.07e-01	0	60	0	966262784	55	5288
2026-01-21 12:40:15.18	325.34	15.63	-41.9	-45.4	18.0	6.07e-01	0	60	0	967835648	55	5341
2026-01-21 12:40:16.19	325.47	15.53	-41.8	-45.2	18.1	6.07e-01	0	60	0	969932800	55	5245
2026-01-21 12:40:17.19	325.59	15.42	-41.9	-45.3	18.0	6.06e-01	0	61	0	971505664	55	5329
2026-01-21 12:40:18.20	325.72	15.32	-42.0	-45.4	17.9	6.07e-01	0	60	0	973602816	55	5375
2026-01-21 12:40:19.21	325.84	15.22	-41.9	-45.3	18.0	6.05e-01	0	61	0	975699968	55	5337
2026-01-21 12:40:20.22	325.96	15.11	-41.9	-45.4	17.9	6.08e-01	0	60	0	977272832	55	5364
2026-01-21 12:40:21.23	326.08	15.01	-41.8	-45.2	18.1	6.07e-01	0	61	0	979369984	55	5276
2026-01-21 12:40:22.24	326.20	14.91	-41.9	-45.3	18.0	6.06e-01	0	60	0	980942848	55	5285
2026-01-21 12:40:23.25	326.32	14.80	-41.9	-45.2	18.1	6.06e-01	0	60	0	983040000	55	5278
2026-01-21 12:40:24.26	326.44	14.70	-41.8	-45.2	18.1	6.06e-01	0	60	0	985137152	55	5269
2026-01-21 12:40:25.27	326.56	14.60	-41.8	-45.1	18.2	6.08e-01	0	61	0	986710016	55	5198
2026-01-21 12:40:26.28	326.67	14.50	-41.8	-45.2	18.1	6.03e-01	0	60	0	988807168	55	5237
2026-01-21 12:40:27.29	326.79	14.40	-41.9	-45.3	18.0	6.07e-01	0	61	0	990380032	55	5286
2026-01-21 12:40:28.30	326.91	14.30	-41.8	-45.2	18.1	6.07e-01	0	61	0	992477184	55	5253
2026-01-21 12:40:29.31	327.02	14.20	-41.8	-45.2	18.0	6.07e-01	0	60	0	994574336	55	5264
2026-01-21 12:40:30.31	327.13	14.10	-41.8	-45.2	18.0	6.05e-01	0	61	0	996147200	55	5275
2026-01-21 12:40:31.32	327.25	14.00	-41.8	-45.2	18.0	6.07e-01	0	60	0	998244352	55	5259
2026-01-21 12:40:32.33	327.36	13.90	-41.8	-45.2	18.0	6.05e-01	0	60	0	999817216	55	5273
2026-01-21 12:40:33.34	327.47	13.80	-41.8	-45.2	18.0	6.07e-01	0	60	0	1001914368	55	5246
2026-01-21 12:40:34.35	327.58	13.70	-41.8	-45.3	17.9	6.08e-01	0	61	0	1004011520	55	5290
2026-01-21 12:40:35.36	327.69	13.60	-41.8	-45.3	17.9	6.07e-01	0	60	0	1005584384	55	5301
2026-01-21 12:40:36.37	327.80	13.51	-41.9	-45.4	17.8	6.08e-01	0	61	0	1007681536	55	5345
2026-01-21 12:40:37.38	327.91	13.41	-41.9	-45.4	17.8	6.07e-01	0	60	0	1009778688	55	5374
2026-01-21 12:40:38.39	328.02	13.31	-41.9	-45.5	17.7	6.04e-01	0	61	0	1011351552	55	5416
2026-01-21 12:40:39.40	328.12	13.22	-42.0	-45.5	17.7	6.07e-01	0	61	0	1013448704	55	5448
2026-01-21 12:40:40.41	328.23	13.12	-41.9	-45.5	17.7	6.05e-01	0	61	0	1015021568	55	5426
2026-01-21 12:40:41.42	328.33	13.02	-42.0	-45.6	17.6	6.04e-01	0	61	0	1017118720	55	5482
2026-01-21 12:40:42.43	328.44	12.93	-42.0	-45.6	17.6	6.04e-01	0	60	0	1019215872	55	5481
2026-01-21 12:40:43.44	328.54	12.83	-42.0	-45.6	17.5	6.06e-01	0	61	0	1020788736	55	5500
2026-01-21 12:40:44.44	328.65	12.74	-42.0	-45.6	17.5	6.07e-01	0	60	0	1022885888	55	5522
2026-01-21 12:40:45.45	328.75	12.64	-42.0	-45.7	17.5	6.05e-01	0	61	0	1024458752	55	5553
2026-01-21 12:40:46.46	328.85	12.55	-42.0	-45.7	17.4	6.07e-01	0	61	0	1026555904	55	5572
2026-01-21 12:40:47.48	328.95	12.45	-42.1	-45.8	17.3	6.05e-01	0	61	0	1028653056	55	5606
2026-01-21 12:40:48.48	329.05	12.36	-42.0	-45.7	17.4	6.03e-01	0	60	0	1030225920	55	5581
2026-01-21 12:40:49.49	329.15	12.27	-42.1	-45.9	17.2	6.04e-01	0	60	0	1032323072	55	5675
2026-01-21 12:40:50.50	329.25	12.17	-42.1	-45.9	17.2	6.05e-01	0	60	0	1034420224	55	5667
2026-01-21 12:40:51.51	329.35	12.08	-42.1	-45.8	17.2	6.06e-01	0	60	0	1035993088	55	5623
2026-01-21 12:40:52.52	329.45	11.99	-42.1	-45.9	17.2	6.04e-01	0	60	0	1038090240	55	5690
2026-01-21 12:40:53.53	329.55	11.90	-42.0	-45.8	17.3	6.08e-01	0	61	0	1039663104	55	5605
2026-01-21 12:40:54.54	329.64	11.81	-42.0	-45.7	17.3	6.06e-01	0	61	0	1041760256	55	5587
2026-01-21 12:40:55.55	329.74	11.71	-42.2	-46.0	17.0	6.06e-01	0	61	0	1043857408	55	5773
2026-01-21 12:40:56.56	329.84	11.62	-42.1	-45.9	17.1	6.05e-01	0	61	0	1045430272	55	5685
2026-01-21 12:40:57.57	329.93	11.53	-42.1	-45.9	17.1	6.05e-01	0	60	0	1047527424	55	5704
2026-01-21 12:40:58.58	330.03	11.44	-42.1	-45.9	17.1	6.07e-01	0	60	0	1049100288	55	5681
2026-01-21 12:40:59.59	330.12	11.35	-42.1	-46.0	17.0	6.05e-01	0	60	0	1051197440	55	5749
2026-01-21 12:41:00.60	330.21	11.26	-42.0	-45.7	17.2	6.06e-01	0	60	0	1053294592	55	5592
2026-01-21 12:41:01.61	330.31	11.17	-42.1	-45.9	17.0	6.03e-01	0	61	0	1054867456	55	5706
2026-01-21 12:41:02.62	330.40	11.08	-42.0	-45.8	17.1	6.08e-01	0	60	0	1056964608	55	5649
2026-01-21 12:41:03.63	330.49	10.99	-42.0	-45.8	17.1	6.07e-01	0	60	0	1058537472	55	5635
2026-01-21 12:41:04.64	330.58	10.91	-42.1	-46.0	16.9	6.06e-01	0	61	0	1060634624	55	5777
2026-01-21 12:41:05.65	330.67	10.82	-42.0	-45.8	17.1	6.06e-01	0	60	0	1062731776	55	5624
2026-01-21 12:41:06.66	330.76	10.73	-42.0	-45.9	17.1	6.06e-01	0	61	0	1064304640	55	5668
2026-01-21 12:41:07.67	330.85	10.64	-42.1	-46.0	16.9	6.06e-01	0	61	0	1066401792	55	5779
2026-01-21 12:41:08.68	330.94	10.55	-42.2	-46.1	16.8	6.02e-01	0	60	0	1067974656	55	5839
2026-01-21 12:41:09.69	331.03	10.47	-42.1	-46.1	16.8	6.01e-01	0	60	0	1070071808	55	5797
2026-01-21 12:41:10.70	331.12	10.38	-42.2	-46.2	16.6	6.01e-01	0	60	0	1072168960	55	5916
2026-01-21 12:41:11.71	331.20	10.29	-42.2	-46.3	16.6	6.02e-01	0	60	0	1073741824	55	5960
2026-01-21 12:41:12.72	331.29	10.21	-42.1	-46.0	16.8	6.01e-01	0	61	0	1075838976	55	5766
2026-01-21 12:41:13.72	331.37	10.12	-42.1	-46.0	16.8	6.04e-01	0	60	0	1077411840	55	5767
2026-01-21 12:41:14.73	331.46	10.04	-42.1	-46.1	16.7	6.02e-01	0	60	0	1079508992	55	5850
2026-01-21 12:41:15.74	331.55	9.95	-42.2	-46.3	16.5	6.01e-01	0	61	0	1081606144	55	5983
2026-01-21 12:41:16.75	331.63	9.87	-42.1	-46.1	16.6	6.00e-01	0	61	0	1083179008	55	5854
2026-01-21 12:41:17.76	331.71	9.78	-42.2	-46.3	16.5	6.01e-01	0	60	0	1085276160	55	5930
2026-01-21 12:41:18.77	331.80	9.70	-42.2	-46.2	16.5	6.02e-01	0	61	0	1087373312	55	5912
2026-01-21 12:41:19.78	331.88	9.61	-42.1	-46.3	16.5	6.02e-01	0	60	0	1088946176	55	5924
2026-01-21 12:41:20.79	331.96	9.53	-42.2	-46.3	16.5	6.03e-01	0	60	0	1091043328	55	5946
2026-01-21 12:41:21.80	332.05	9.44	-42.1	-46.3	16.4	6.02e-01	0	61	0	1092616192	55	5957
2026-01-21 12:41:22.81	332.13	9.36	-42.2	-46.4	16.3	6.03e-01	0	60	0	1094713344	55	6056
2026-01-21 12:41:23.82	332.21	9.28	-42.2	-46.4	16.3	6.04e-01	0	60	0	1096810496	55	6005
2026-01-21 12:41:24.83	332.29	9.19	-42.2	-46.4	16.3	6.01e-01	0	61	0	1098383360	55	5993
2026-01-21 12:41:25.82	332.37	9.11	-42.2	-46.5	16.2	6.04e-01	0	61	0	1100480512	55	6093
2026-01-21 12:41:26.83	332.45	9.03	-42.2	-46.4	16.2	6.01e-01	0	60	0	1102053376	55	6046
2026-01-21 12:41:27.84	332.53	8.95	-42.1	-46.4	16.3	6.03e-01	0	60	0	1104150528	55	6008
2026-01-21 12:41:28.85	332.61	8.87	-42.2	-46.5	16.2	6.02e-01	0	61	0	1106247680	55	6086
2026-01-21 12:41:29.86	332.68	8.79	-42.2	-46.6	16.0	6.01e-01	0	60	0	1107820544	55	6135
2026-01-21 12:41:30.87	332.76	8.70	-42.2	-46.5	16.2	6.04e-01	0	61	0	1109917696	55	6071
2026-01-21 12:41:31.88	332.84	8.62	-42.2	-46.5	16.0	6.05e-01	0	61	0	1111490560	55	6125
2026-01-21 12:41:32.89	332.92	8.54	-42.2	-46.7	15.9	6.03e-01	0	60	0	1113587712	55	6210
2026-01-21 12:41:33.90	332.99	8.46	-42.2	-46.5	16.0	6.05e-01	0	60	0	1115684864	55	6113
2026-01-21 12:41:34.91	333.07	8.38	-42.2	-46.7	15.8	6.03e-01	0	61	0	1117257728	55	6245
2026-01-21 12:41:35.92	333.15	8.30	-42.2	-46.8	15.7	6.01e-01	0	61	0	1119354880	55	6296
2026-01-21 12:41:36.93	333.22	8.22	-42.2	-46.8	15.7	6.02e-01	0	61	0	1120927744	55	6281
2026-01-21 12:41:37.94	333.30	8.14	-42.2	-46.7	15.6	6.04e-01	0	61	0	1123024896	55	6267
2026-01-21 12:41:38.95	333.37	8.06	-42.2	-46.8	15.7	6.04e-01	0	60	0	1125122048	55	6281
2026-01-21 12:41:39.96	333.44	7.98	-44.8	-59.7	4.0	7.43e-01	0	60	104	1126170624	60	20898
2026-01-21 12:41:40.97	333.52	7.90	-45.4	-63.9	3.8	7.47e-01	0	60	104	1126170624	61	31972
2026-01-21 12:41:41.98	333.59	7.82	-45.6	-64.1	3.8	7.45e-01	0	61	104	1126170624	61	32672
2026-01-21 12:41:42.99	333.66	7.75	-45.9	-64.3	3.8	7.48e-01	0	61	104	1126170624	62	31758
2026-01-21 12:41:44.00	333.74	7.67	-46.0	-64.6	3.8	7.45e-01	0	61	104	1126170624	62	32602
2026-01-21 12:41:45.01	333.81	7.59	-46.1	-64.7	3.8	7.45e-01	0	61	104	1126170624	62	33215
2026-01-21 12:41:46.02	333.88	7.51	-46.2	-64.8	3.8	7.45e-01	0	61	104	1126170624	62	33338
2026-01-21 12:41:47.03	333.95	7.43	-46.3	-64.8	3.8	7.42e-01	0	61	104	1126170624	63	31803
2026-01-21 12:41:48.04	334.02	7.36	-46.3	-64.9	3.8	7.45e-01	0	61	104	1126170624	63	31921
2026-01-21 12:41:49.05	334.09	7.28	-46.2	-64.8	3.8	7.46e-01	0	61	104	1126170624	63	31487
2026-01-21 12:41:50.06	334.16	7.20	-46.1	-64.7	3.9	7.43e-01	0	61	104	1126170624	63	31091
2026-01-21 12:41:51.07	334.23	7.13	-46.2	-65.0	3.8	7.43e-01	0	61	104	1126170624	63	32219
2026-01-21 12:41:52.08	334.30	7.05	-46.3	-64.8	3.8	7.48e-01	0	61	104	1126170624	63	31703
2026-01-21 12:41:53.09	334.37	6.97	-46.3	-64.8	3.8	7.46e-01	0	61	104	1126170624	63	31614
2026-01-21 12:41:54.10	334.44	6.90	-46.3	-64.8	3.8	7.44e-01	0	61	104	1126170624	63	31537
2026-01-21 12:41:55.11	334.51	6.82	-46.2	-64.8	3.8	7.48e-01	0	61	104	1126170624	63	31470
2026-01-21 12:41:56.12	334.58	6.75	-46.2	-64.7	3.8	7.46e-01	0	61	104	1126170624	63	31446
2026-01-21 12:41:57.13	334.64	6.67	-46.2	-64.7	3.8	7.47e-01	0	61	104	1126170624	63	31393
2026-01-21 12:41:58.14	334.71	6.60	-46.2	-64.7	3.8	7.48e-01	0	61	104	1126170624	63	31380
2026-01-21 12:41:59.15	334.78	6.52	-46.2	-64.7	3.8	7.43e-01	0	61	104	1126170624	63	31387
2026-01-21 12:42:00.16	334.85	6.45	-46.2	-64.7	3.8	7.45e-01	0	61	104	1126170624	63	31399
2026-01-21 12:42:01.17	334.91	6.37	-46.2	-64.7	3.8	7.43e-01	0	61	104	1126170624	63	31350
2026-01-21 12:42:02.18	334.98	6.30	-46.2	-64.7	3.8	7.45e-01	0	61	104	1126170624	62	33199
2026-01-21 12:42:03.19	335.04	6.22	-46.2	-64.7	3.8	7.45e-01	0	61	104	1126170624	62	33228
2026-01-21 12:42:04.20	335.11	6.15	-46.2	-64.7	3.8	7.44e-01	0	61	104	1126170624	62	33253
2026-01-21 12:42:05.20	335.17	6.08	-46.2	-64.7	3.8	7.44e-01	0	61	104	1126170624	62	33152
2026-01-21 12:42:06.21	335.24	6.00	-46.2	-64.7	3.8	7.47e-01	0	61	104	1126170624	62	33262
2026-01-21 12:42:07.22	335.30	5.93	-46.2	-64.7	3.8	7.44e-01	0	61	104	1126170624	62	33173
2026-01-21 12:42:08.23	335.36	5.86	-46.2	-64.7	3.8	7.50e-01	0	61	104	1126170624	62	33180
2026-01-21 12:42:09.24	335.43	5.79	-46.2	-64.7	3.8	7.46e-01	0	61	104	1126170624	62	33105
2026-01-21 12:42:10.25	335.49	5.71	-46.2	-64.7	3.8	7.46e-01	0	61	104	1126170624	62	33184
2026-01-21 12:42:11.26	335.55	5.64	-46.2	-64.7	3.8	7.44e-01	0	61	104	1126170624	62	33190
2026-01-21 12:42:12.27	335.62	5.57	-46.2	-64.7	3.8	7.42e-01	0	61	104	1126170624	62	33189
2026-01-21 12:42:13.28	335.68	5.50	-46.2	-64.7	3.8	7.46e-01	0	61	104	1126170624	62	33132
2026-01-21 12:42:14.29	335.74	5.42	-46.2	-64.7	3.8	7.47e-01	0	61	104	1126170624	62	33179
2026-01-21 12:42:15.30	335.80	5.35	-46.2	-64.7	3.8	7.45e-01	0	61	104	1126170624	62	33018
2026-01-21 12:42:16.31	335.86	5.28	-46.1	-64.7	3.8	7.46e-01	0	61	104	1126170624	62	33091
2026-01-21 12:42:17.32	335.93	5.21	-45.7	-64.7	3.8	7.47e-01	0	61	104	1126170624	62	33005
