passes_logs/2026/01/21/R2.0S_Moscow/R2.0S_Moscow__20260121_102312_NOAA_21_JPSS-2_rec.log

#Pass ID: 20260121_102312_NOAA 21 (JPSS-2)
#Satellite: NOAA 21 (JPSS-2)
#Configuration: NOAA-21
#almurnet v.1.7.20251203
#Start time: 2026-01-21 10:24:49

#Version: 2.2.20231116
#Station: R2.0S_Moscow
#Location: 37.707566 lon 55.798166 lat
#TLE: 1 54234U 22150A   26020.29910383  .00000141  00000+0  87571-4 0  9990
#TLE: 2 54234  98.7506 321.1348 0000615 250.8428 109.2682 14.19536295165564

#Time	Az	El	Level	Level2	SNR	BER	BlckErr	Temp	State	Recorded	gain1	gain2
2026-01-21 10:24:49.52	177.08	8.96	-45.2	-56.9	3.8	8.47e-01	0	60	0	0	60	15113
2026-01-21 10:24:50.52	177.12	9.04	-45.4	-57.8	3.8	1.49e+00	0	60	104	0	62	15002
2026-01-21 10:24:51.53	177.16	9.13	-45.4	-57.8	3.8	1.49e+00	0	60	104	0	62	15034
2026-01-21 10:24:52.54	177.19	9.21	-45.4	-57.8	3.8	1.49e+00	0	61	104	0	62	15026
2026-01-21 10:24:53.55	177.23	9.29	-45.4	-57.8	3.8	1.49e+00	0	61	104	0	62	14945
2026-01-21 10:24:54.56	177.27	9.38	-45.3	-57.8	3.8	1.49e+00	0	60	104	0	62	14919
2026-01-21 10:24:55.57	177.30	9.46	-45.3	-57.7	3.8	1.49e+00	0	61	104	0	62	14755
2026-01-21 10:24:56.57	177.34	9.55	-45.2	-57.6	3.8	1.49e+00	0	60	104	0	62	14691
2026-01-21 10:24:57.58	177.38	9.63	-45.1	-57.5	3.8	1.49e+00	0	60	104	0	62	14464
2026-01-21 10:24:58.60	177.42	9.72	-44.9	-57.3	3.8	1.49e+00	0	61	104	0	61	15007
2026-01-21 10:24:59.61	177.46	9.80	-44.7	-56.7	3.8	1.49e+00	0	60	104	0	61	13913
2026-01-21 10:25:00.62	177.49	9.89	-44.5	-55.8	3.8	1.49e+00	0	60	104	0	60	13350
2026-01-21 10:25:01.62	177.53	9.97	-44.4	-55.4	3.9	1.49e+00	0	60	104	0	60	12691
2026-01-21 10:25:02.64	177.57	10.06	-44.4	-55.5	3.8	1.49e+00	0	60	104	0	60	12819
2026-01-21 10:25:03.65	177.61	10.15	-44.4	-55.3	3.8	1.48e+00	0	60	104	0	60	12529
2026-01-21 10:25:04.66	177.65	10.23	-44.4	-55.0	3.8	1.49e+00	0	60	104	0	60	12186
2026-01-21 10:25:05.67	177.69	10.32	-44.3	-54.3	4.0	1.48e+00	0	61	104	0	60	11244
2026-01-21 10:25:06.68	177.73	10.41	-44.3	-54.6	3.9	1.48e+00	0	60	104	0	60	11560
2026-01-21 10:25:07.69	177.77	10.50	-44.3	-53.8	4.1	1.47e+00	0	60	104	0	60	10616
2026-01-21 10:25:08.70	177.81	10.58	-44.2	-54.0	3.9	1.47e+00	0	60	104	0	60	10823
2026-01-21 10:25:09.71	177.85	10.67	-44.1	-53.0	4.3	1.46e+00	0	61	104	0	60	9700
2026-01-21 10:25:10.72	177.89	10.76	-44.1	-52.9	3.9	1.41e+00	0	61	104	0	60	9539
2026-01-21 10:25:11.73	177.93	10.85	-44.0	-52.2	4.6	1.23e+00	0	61	104	0	60	8840
2026-01-21 10:25:12.74	177.97	10.94	-44.0	-51.8	4.8	1.31e+00	0	61	104	0	59	8903
2026-01-21 10:25:13.75	178.01	11.03	-43.9	-51.4	5.0	7.19e-01	0	60	0	0	59	8478
2026-01-21 10:25:14.76	178.06	11.12	-43.8	-50.9	5.3	6.17e-01	0	60	0	3145728	59	8028
2026-01-21 10:25:15.77	178.10	11.21	-43.8	-50.6	5.5	5.10e-01	0	60	0	6291456	59	7783
2026-01-21 10:25:16.78	178.14	11.30	-43.7	-50.3	5.7	4.40e-01	0	60	0	9437184	59	7462
2026-01-21 10:25:17.79	178.18	11.39	-43.6	-49.9	6.0	3.57e-01	0	61	0	12582912	59	7128
2026-01-21 10:25:18.80	178.22	11.48	-43.5	-49.7	6.1	3.20e-01	0	61	0	15728640	59	6989
2026-01-21 10:25:19.81	178.27	11.57	-43.5	-49.5	6.3	2.80e-01	0	60	0	18874368	58	7218
2026-01-21 10:25:20.82	178.31	11.67	-43.4	-49.3	6.4	2.45e-01	0	60	0	23068672	58	7070
2026-01-21 10:25:21.83	178.35	11.76	-43.4	-49.3	6.4	2.40e-01	0	60	0	26214400	58	7091
2026-01-21 10:25:22.85	178.40	11.85	-43.4	-49.3	6.4	2.38e-01	0	60	0	28311552	58	7108
2026-01-21 10:25:23.86	178.44	11.94	-43.4	-49.4	6.3	2.60e-01	0	61	0	31457280	58	7152
2026-01-21 10:25:24.87	178.49	12.04	-43.5	-49.5	6.2	2.68e-01	0	61	0	34603008	58	7264
2026-01-21 10:25:25.88	178.53	12.13	-43.5	-49.8	6.0	3.15e-01	0	60	0	38797312	58	7469
2026-01-21 10:25:26.89	178.57	12.23	-43.6	-50.0	5.9	3.59e-01	0	61	0	41943040	58	7676
2026-01-21 10:25:27.90	178.62	12.32	-43.6	-50.2	5.7	4.07e-01	0	61	0	45088768	58	7839
2026-01-21 10:25:28.91	178.66	12.41	-43.7	-50.2	5.7	4.12e-01	0	61	0	48234496	58	7837
2026-01-21 10:25:29.92	178.71	12.51	-43.6	-50.0	5.8	3.99e-01	0	61	0	51380224	58	7702
2026-01-21 10:25:30.93	178.76	12.61	-43.5	-49.5	6.2	3.11e-01	0	61	0	54525952	58	7247
2026-01-21 10:25:31.94	178.80	12.70	-43.3	-48.9	6.8	2.18e-01	0	60	0	57671680	58	6788
2026-01-21 10:25:32.95	178.85	12.80	-43.0	-48.1	7.5	1.19e-01	0	61	0	60817408	58	6139
2026-01-21 10:25:33.96	178.89	12.89	-42.6	-47.2	8.3	5.86e-02	0	61	0	63963136	57	5899
2026-01-21 10:25:34.97	178.94	12.99	-42.2	-46.3	9.3	2.22e-02	0	60	0	67108864	56	5618
2026-01-21 10:25:35.98	178.99	13.09	-41.7	-45.3	10.1	7.76e-03	0	61	0	70254592	55	5305
2026-01-21 10:25:36.99	179.03	13.19	-41.3	-44.6	10.9	3.50e-03	0	61	0	73400320	54	5172
2026-01-21 10:25:38.00	179.08	13.28	-40.9	-44.0	11.5	1.11e-03	0	60	0	76546048	53	5115
2026-01-21 10:25:39.01	179.13	13.38	-40.6	-43.5	12.0	4.15e-04	0	60	0	79691776	53	4839
2026-01-21 10:25:40.02	179.18	13.48	-40.4	-43.1	12.3	1.97e-04	0	60	0	82837504	52	4922
2026-01-21 10:25:41.03	179.23	13.58	-40.4	-43.0	12.5	1.17e-04	0	60	0	85983232	52	4866
2026-01-21 10:25:42.04	179.28	13.68	-40.4	-43.0	12.5	1.28e-04	0	60	0	89128960	52	4859
2026-01-21 10:25:43.05	179.33	13.78	-40.4	-43.2	12.4	1.23e-04	0	60	0	92274688	52	4933
2026-01-21 10:25:44.06	179.37	13.88	-42.6	-47.2	8.2	1.32e-02	0	61	0	95420416	55	6621
2026-01-21 10:25:45.07	179.42	13.98	-44.0	-52.6	4.0	1.05e-01	0	60	104	98566144	58	10300
2026-01-21 10:25:46.08	179.47	14.08	-42.3	-46.4	9.0	3.97e-03	0	60	0	99614720	55	6059
2026-01-21 10:25:47.09	179.52	14.18	-42.2	-46.2	9.2	1.39e-02	0	61	0	102760448	55	5892
2026-01-21 10:25:48.10	179.58	14.28	-44.3	-54.5	3.9	9.43e-01	0	61	104	104857600	59	12110
2026-01-21 10:25:49.11	179.63	14.39	-40.2	-42.8	12.7	1.34e-03	0	60	0	105906176	52	4755
2026-01-21 10:25:50.12	179.68	14.49	-40.2	-42.8	12.7	7.24e-05	0	60	0	109051904	52	4745
2026-01-21 10:25:51.13	179.73	14.59	-40.2	-42.7	12.8	5.95e-05	0	61	0	112197632	52	4694
2026-01-21 10:25:52.14	179.78	14.70	-40.1	-42.6	12.9	5.79e-05	0	61	0	115343360	52	4649
2026-01-21 10:25:53.15	179.83	14.80	-40.1	-42.6	12.9	4.95e-05	0	61	0	118489088	52	4646
2026-01-21 10:25:54.16	179.89	14.90	-40.1	-42.7	12.8	4.42e-05	0	61	0	121634816	52	4672
2026-01-21 10:25:55.17	179.94	15.01	-40.2	-42.7	12.8	5.18e-05	0	61	0	124780544	52	4679
2026-01-21 10:25:56.18	179.99	15.11	-40.1	-42.7	12.9	4.95e-05	0	61	0	127926272	52	4665
2026-01-21 10:25:57.19	180.05	15.22	-40.1	-42.6	13.0	3.66e-05	0	60	0	131072000	52	4606
2026-01-21 10:25:58.20	180.10	15.33	-40.1	-42.6	13.0	4.27e-05	0	60	0	134217728	52	4633
2026-01-21 10:25:59.21	180.16	15.43	-40.1	-42.6	12.9	5.41e-05	0	60	0	137363456	52	4641
2026-01-21 10:26:00.22	180.21	15.54	-40.1	-42.6	12.9	4.57e-05	0	61	0	140509184	52	4641
2026-01-21 10:26:01.22	180.27	15.65	-40.1	-42.6	13.0	4.34e-05	0	61	0	143654912	52	4622
2026-01-21 10:26:02.23	180.32	15.75	-40.2	-42.7	12.9	4.34e-05	0	60	0	146800640	52	4679
2026-01-21 10:26:03.24	180.38	15.86	-40.2	-42.8	12.8	4.04e-05	0	61	0	149946368	52	4711
2026-01-21 10:26:04.25	180.43	15.97	-40.3	-42.8	12.8	5.41e-05	0	61	0	153092096	52	4754
2026-01-21 10:26:05.26	180.49	16.08	-40.2	-42.8	12.8	6.48e-05	0	61	0	156237824	52	4712
2026-01-21 10:26:06.28	180.55	16.19	-40.2	-42.7	12.9	4.34e-05	0	61	0	159383552	52	4674
2026-01-21 10:26:07.29	180.61	16.30	-40.3	-42.9	12.8	6.48e-05	0	61	0	162529280	52	4765
2026-01-21 10:26:08.30	180.66	16.41	-40.3	-42.8	12.7	7.32e-05	0	60	0	165675008	52	4751
2026-01-21 10:26:09.31	180.72	16.52	-40.3	-42.8	12.8	5.41e-05	0	61	0	168820736	52	4741
2026-01-21 10:26:10.32	180.78	16.64	-40.3	-43.0	12.7	6.63e-05	0	60	0	171966464	52	4823
2026-01-21 10:26:11.33	180.84	16.75	-40.3	-42.9	12.7	7.32e-05	0	60	0	175112192	52	4802
2026-01-21 10:26:12.34	180.90	16.86	-40.4	-43.0	12.6	1.09e-04	0	60	0	178257920	52	4865
2026-01-21 10:26:13.35	180.96	16.97	-40.4	-43.1	12.5	1.08e-04	0	60	0	181403648	52	4885
2026-01-21 10:26:14.36	181.02	17.09	-40.4	-43.1	12.5	1.08e-04	0	61	0	184549376	52	4886
2026-01-21 10:26:15.37	181.08	17.20	-40.4	-43.1	12.6	1.10e-04	0	61	0	187695104	52	4878
2026-01-21 10:26:16.38	181.14	17.32	-40.5	-43.2	12.5	1.18e-04	0	61	0	190840832	52	4938
2026-01-21 10:26:17.39	181.20	17.43	-40.5	-43.2	12.4	1.33e-04	0	60	0	193986560	52	4936
2026-01-21 10:26:18.40	181.27	17.55	-40.6	-43.3	12.3	1.49e-04	0	61	0	197132288	52	5011
2026-01-21 10:26:19.41	181.33	17.66	-40.6	-43.3	12.3	2.09e-04	0	61	0	200278016	52	5024
2026-01-21 10:26:20.42	181.39	17.78	-40.6	-43.3	12.3	1.79e-04	0	61	0	203423744	52	4999
2026-01-21 10:26:21.42	181.46	17.90	-40.6	-43.3	12.3	1.77e-04	0	60	0	207618048	52	5022
2026-01-21 10:26:22.43	181.52	18.01	-40.5	-43.2	12.4	1.41e-04	0	60	0	210763776	52	4969
2026-01-21 10:26:23.44	181.58	18.13	-40.5	-43.2	12.5	1.23e-04	0	61	0	212860928	52	4935
2026-01-21 10:26:24.45	181.65	18.25	-40.4	-43.0	12.6	8.77e-05	0	61	0	216006656	52	4861
2026-01-21 10:26:25.46	181.71	18.37	-40.4	-43.1	12.6	9.07e-05	0	61	0	219152384	52	4880
2026-01-21 10:26:26.47	181.78	18.49	-40.5	-43.1	12.5	9.84e-05	0	61	0	222298112	52	4915
2026-01-21 10:26:27.48	181.85	18.61	-40.5	-43.2	12.5	1.12e-04	0	60	0	226492416	52	4939
2026-01-21 10:26:28.49	181.91	18.73	-40.3	-42.9	12.8	8.01e-05	0	61	0	229638144	52	4793
2026-01-21 10:26:29.50	181.98	18.85	-40.4	-42.9	12.8	6.63e-05	0	60	0	232783872	52	4808
2026-01-21 10:26:30.51	182.05	18.98	-40.4	-43.0	12.7	6.56e-05	0	61	0	234881024	52	4831
2026-01-21 10:26:31.52	182.12	19.10	-40.3	-42.8	12.9	4.65e-05	0	60	0	239075328	52	4746
2026-01-21 10:26:32.53	182.19	19.22	-40.3	-42.8	12.9	4.73e-05	0	60	0	242221056	52	4730
2026-01-21 10:26:33.54	182.26	19.35	-40.4	-42.9	12.8	4.95e-05	0	60	0	245366784	52	4799
2026-01-21 10:26:34.55	182.33	19.47	-40.3	-42.8	13.0	4.42e-05	0	61	0	248512512	52	4708
2026-01-21 10:26:35.56	182.40	19.60	-40.2	-42.7	13.0	4.42e-05	0	61	0	251658240	52	4702
2026-01-21 10:26:36.57	182.47	19.72	-40.3	-42.8	13.0	3.58e-05	0	60	0	254803968	52	4713
2026-01-21 10:26:37.58	182.54	19.85	-40.2	-42.6	13.1	2.36e-05	0	61	0	257949696	52	4640
2026-01-21 10:26:38.59	182.61	19.97	-40.2	-42.6	13.1	3.20e-05	0	61	0	261095424	52	4633
2026-01-21 10:26:39.60	182.69	20.10	-40.2	-42.7	13.1	3.58e-05	0	61	0	264241152	52	4655
2026-01-21 10:26:40.61	182.76	20.23	-40.0	-42.4	13.3	2.28e-05	0	61	0	267386880	52	4533
2026-01-21 10:26:41.62	182.83	20.36	-40.0	-42.3	13.4	1.75e-05	0	61	0	270532608	52	4493
2026-01-21 10:26:42.63	182.91	20.49	-40.0	-42.3	13.5	1.52e-05	0	60	0	273678336	51	4732
2026-01-21 10:26:43.64	182.98	20.62	-40.0	-42.3	13.5	7.60e-06	0	61	0	276824064	51	4743
2026-01-21 10:26:44.65	183.06	20.75	-40.0	-42.3	13.6	5.30e-06	0	61	0	279969792	51	4725
2026-01-21 10:26:45.66	183.14	20.88	-39.9	-42.2	13.7	1.22e-05	0	61	0	283115520	51	4660
2026-01-21 10:26:46.67	183.21	21.01	-39.8	-42.0	13.8	5.30e-06	0	61	0	286261248	51	4597
2026-01-21 10:26:47.68	183.29	21.14	-39.8	-42.0	13.9	4.50e-06	0	60	0	289406976	51	4557
2026-01-21 10:26:48.69	183.37	21.28	-39.7	-41.9	13.9	4.50e-06	0	60	0	292552704	51	4537
2026-01-21 10:26:49.70	183.45	21.41	-39.7	-41.8	14.0	3.00e-06	0	61	0	295698432	51	4492
2026-01-21 10:26:50.71	183.53	21.55	-39.5	-41.7	14.2	7.00e-07	0	61	0	298844160	51	4405
2026-01-21 10:26:51.71	183.61	21.68	-39.5	-41.6	14.3	7.00e-07	0	61	0	301989888	50	4615
2026-01-21 10:26:52.72	183.69	21.81	-39.5	-41.7	14.2	2.20e-06	0	60	0	305135616	50	4662
2026-01-21 10:26:53.73	183.77	21.95	-39.5	-41.6	14.3	0.00e+00	0	61	0	308281344	50	4631
2026-01-21 10:26:54.74	183.85	22.09	-39.4	-41.5	14.4	1.50e-06	0	61	0	311427072	50	4590
2026-01-21 10:26:55.75	183.94	22.23	-39.4	-41.5	14.4	0.00e+00	0	61	0	314572800	50	4566
2026-01-21 10:26:56.76	184.02	22.36	-39.4	-41.5	14.4	0.00e+00	0	61	0	317718528	50	4558
2026-01-21 10:26:57.77	184.11	22.50	-39.4	-41.6	14.3	7.00e-07	0	61	0	320864256	50	4601
2026-01-21 10:26:58.78	184.19	22.64	-39.4	-41.5	14.4	7.00e-07	0	61	0	324009984	50	4579
2026-01-21 10:26:59.79	184.28	22.78	-39.3	-41.4	14.5	2.20e-06	0	61	0	327155712	50	4521
2026-01-21 10:27:00.80	184.36	22.93	-39.4	-41.5	14.4	7.00e-07	0	61	0	330301440	50	4556
2026-01-21 10:27:01.81	184.45	23.07	-39.4	-41.5	14.4	0.00e+00	0	61	0	333447168	50	4572
2026-01-21 10:27:02.82	184.54	23.21	-39.5	-41.6	14.3	7.00e-07	0	61	0	336592896	50	4606
2026-01-21 10:27:03.83	184.63	23.35	-39.4	-41.5	14.4	0.00e+00	0	61	0	339738624	50	4559
2026-01-21 10:27:04.84	184.72	23.50	-39.4	-41.5	14.3	1.50e-06	0	61	0	342884352	50	4580
2026-01-21 10:27:05.85	184.81	23.64	-39.5	-41.5	14.4	1.60e-05	0	61	0	346030080	50	4597
2026-01-21 10:27:06.86	184.90	23.79	-39.4	-41.5	14.5	0.00e+00	0	61	0	349175808	50	4571
2026-01-21 10:27:07.87	184.99	23.94	-39.4	-41.5	14.5	0.00e+00	0	61	0	352321536	50	4561
2026-01-21 10:27:08.88	185.09	24.08	-39.6	-41.7	14.3	7.00e-07	0	60	0	355467264	50	4664
2026-01-21 10:27:09.89	185.18	24.23	-39.5	-41.6	14.4	3.00e-06	0	61	0	358612992	50	4643
2026-01-21 10:27:10.90	185.28	24.38	-39.5	-41.5	14.4	0.00e+00	0	61	0	361758720	50	4592
2026-01-21 10:27:11.91	185.37	24.53	-39.5	-41.6	14.4	1.50e-06	0	61	0	364904448	50	4625
2026-01-21 10:27:12.92	185.47	24.68	-39.6	-41.8	14.2	7.00e-07	0	61	0	368050176	50	4710
2026-01-21 10:27:13.93	185.57	24.83	-39.5	-41.6	14.3	0.00e+00	0	61	0	371195904	50	4648
2026-01-21 10:27:14.94	185.66	24.98	-39.6	-41.7	14.2	5.30e-06	0	60	0	374341632	50	4683
2026-01-21 10:27:15.95	185.76	25.13	-39.4	-41.5	14.2	8.59e-04	0	60	0	377487360	50	4580
2026-01-21 10:27:16.96	185.86	25.29	-39.5	-41.7	14.0	6.24e-04	0	61	0	380633088	50	4660
2026-01-21 10:27:17.97	185.97	25.44	-39.6	-41.8	14.1	6.10e-06	0	61	0	383778816	50	4727
2026-01-21 10:27:18.98	186.07	25.60	-39.8	-42.0	14.0	4.50e-06	0	61	0	386924544	50	4820
2026-01-21 10:27:19.99	186.17	25.75	-39.8	-42.1	13.9	3.00e-06	0	61	0	390070272	50	4888
2026-01-21 10:27:21.00	186.28	25.91	-39.9	-42.1	13.9	1.50e-06	0	61	0	393216000	50	4907
2026-01-21 10:27:22.01	186.38	26.07	-40.0	-42.3	13.6	2.74e-05	0	60	0	396361728	50	4992
2026-01-21 10:27:23.02	186.49	26.23	-40.0	-42.4	13.3	3.08e-03	0	60	0	399507456	50	5061
2026-01-21 10:27:24.03	186.59	26.39	-40.0	-42.4	13.5	7.84e-04	0	60	0	402653184	50	5054
2026-01-21 10:27:25.05	186.70	26.55	-40.1	-42.5	13.5	1.67e-05	0	61	0	405798912	50	5136
2026-01-21 10:27:26.05	186.81	26.71	-40.2	-42.7	13.3	1.67e-05	0	61	0	408944640	51	4928
2026-01-21 10:27:27.06	186.92	26.87	-40.3	-42.8	13.2	2.51e-05	0	61	0	412090368	51	4991
2026-01-21 10:27:28.08	187.03	27.03	-40.4	-42.8	13.2	4.11e-05	0	61	0	415236096	51	5013
2026-01-21 10:27:29.09	187.15	27.20	-40.4	-42.8	13.2	4.11e-05	0	61	0	418381824	51	5023
2026-01-21 10:27:30.10	187.26	27.36	-40.4	-42.9	13.1	5.49e-05	0	61	0	421527552	51	5070
2026-01-21 10:27:31.11	187.38	27.52	-40.5	-43.0	13.0	4.88e-05	0	60	0	424673280	51	5131
2026-01-21 10:27:32.12	187.49	27.69	-40.5	-43.0	12.9	7.17e-05	0	60	0	427819008	51	5140
2026-01-21 10:27:33.13	187.61	27.86	-40.6	-43.2	12.8	8.54e-05	0	61	0	430964736	51	5221
2026-01-21 10:27:34.13	187.73	28.02	-40.6	-43.2	12.9	5.34e-05	0	60	0	434110464	51	5221
2026-01-21 10:27:35.15	187.85	28.19	-40.6	-43.2	12.8	5.34e-05	0	60	0	437256192	51	5255
2026-01-21 10:27:36.16	187.97	28.36	-40.7	-43.2	12.8	7.78e-05	0	61	0	440401920	51	5268
2026-01-21 10:27:37.17	188.09	28.53	-40.6	-43.1	12.9	4.42e-05	0	61	0	443547648	51	5181
2026-01-21 10:27:38.17	188.21	28.70	-40.5	-43.0	13.0	3.96e-05	0	61	0	446693376	51	5152
2026-01-21 10:27:39.19	188.34	28.88	-40.6	-43.1	13.0	4.34e-05	0	61	0	449839104	51	5173
2026-01-21 10:27:40.20	188.46	29.05	-40.7	-43.2	12.8	6.56e-05	0	60	0	452984832	51	5276
2026-01-21 10:27:41.21	188.59	29.23	-40.7	-43.3	12.7	6.86e-05	0	61	0	456130560	51	5289
2026-01-21 10:27:42.22	188.72	29.40	-40.6	-43.2	12.8	4.95e-05	0	61	0	459276288	51	5243
2026-01-21 10:27:43.23	188.85	29.58	-40.5	-43.0	13.0	3.12e-05	0	61	0	462422016	51	5145
2026-01-21 10:27:44.24	188.98	29.75	-40.5	-42.9	13.2	2.28e-05	0	61	0	465567744	51	5079
2026-01-21 10:27:45.25	189.11	29.93	-40.4	-42.8	13.3	2.13e-05	0	61	0	468713472	51	5013
2026-01-21 10:27:46.26	189.25	30.11	-40.3	-42.7	13.3	1.22e-05	0	61	0	471859200	51	4974
2026-01-21 10:27:47.27	189.38	30.29	-40.3	-42.7	13.4	1.29e-05	0	61	0	475004928	51	4938
2026-01-21 10:27:48.27	189.52	30.47	-40.3	-42.7	13.3	2.13e-05	0	61	0	478150656	51	4977
2026-01-21 10:27:49.29	189.66	30.65	-40.2	-42.5	13.6	5.30e-06	0	61	0	481296384	51	4840
2026-01-21 10:27:50.30	189.80	30.84	-40.2	-42.5	13.6	1.44e-05	0	61	0	484442112	51	4827
2026-01-21 10:27:51.31	189.94	31.02	-40.1	-42.4	13.7	4.50e-06	0	61	0	487587840	51	4764
2026-01-21 10:27:52.32	190.08	31.21	-40.1	-42.3	13.7	6.10e-06	0	61	0	490733568	51	4758
2026-01-21 10:27:53.33	190.23	31.39	-40.1	-42.3	13.7	9.10e-06	0	61	0	493879296	51	4755
2026-01-21 10:27:54.34	190.38	31.58	-40.1	-42.4	13.6	6.10e-06	0	60	0	497025024	51	4804
2026-01-21 10:27:55.35	190.52	31.77	-40.1	-42.4	13.7	6.10e-06	0	61	0	500170752	51	4775
2026-01-21 10:27:56.36	190.67	31.95	-40.2	-42.6	13.5	1.29e-05	0	61	0	503316480	51	4892
2026-01-21 10:27:57.37	190.82	32.14	-40.2	-42.5	13.6	1.14e-05	0	60	0	506462208	51	4830
2026-01-21 10:27:58.38	190.98	32.33	-40.2	-42.5	13.6	8.30e-06	0	60	0	509607936	51	4846
2026-01-21 10:27:59.39	191.13	32.53	-40.2	-42.5	13.6	1.22e-05	0	61	0	512753664	51	4850
2026-01-21 10:28:00.40	191.29	32.72	-40.3	-42.6	13.5	9.90e-06	0	60	0	515899392	51	4900
2026-01-21 10:28:01.41	191.45	32.91	-40.3	-42.7	13.4	1.37e-05	0	61	0	519045120	51	4934
2026-01-21 10:28:02.42	191.61	33.11	-40.3	-42.6	13.5	1.83e-05	0	60	0	522190848	51	4891
2026-01-21 10:28:03.43	191.77	33.30	-40.3	-42.7	13.4	1.44e-05	0	61	0	526385152	51	4944
2026-01-21 10:28:04.44	191.94	33.50	-40.3	-42.7	13.4	1.67e-05	0	61	0	528482304	51	4938
2026-01-21 10:28:05.44	192.10	33.70	-40.4	-42.8	13.2	1.98e-05	0	61	0	531628032	51	5034
2026-01-21 10:28:06.45	192.27	33.89	-40.4	-42.9	13.2	1.75e-05	0	61	0	534773760	51	5050
2026-01-21 10:28:07.46	192.44	34.09	-40.6	-43.0	13.1	2.44e-05	0	60	0	537919488	51	5158
2026-01-21 10:28:08.47	192.61	34.29	-40.7	-43.2	13.0	2.74e-05	0	61	0	542113792	51	5234
2026-01-21 10:28:09.48	192.79	34.50	-40.7	-43.3	12.8	5.03e-05	0	61	0	545259520	52	4991
2026-01-21 10:28:10.49	192.96	34.70	-40.9	-43.5	12.5	1.19e-04	0	61	0	548405248	52	5148
2026-01-21 10:28:11.50	193.14	34.90	-40.9	-43.7	12.4	1.38e-04	0	61	0	551550976	52	5219
2026-01-21 10:28:12.51	193.32	35.11	-41.1	-43.9	12.2	2.20e-04	0	61	0	553648128	52	5362
2026-01-21 10:28:13.52	193.51	35.31	-41.2	-44.1	11.9	3.59e-04	0	61	0	557842432	53	5210
2026-01-21 10:28:14.53	193.69	35.52	-41.4	-44.4	11.6	5.27e-04	0	61	0	560988160	53	5350
2026-01-21 10:28:15.54	193.88	35.73	-41.5	-44.6	11.4	7.74e-04	0	61	0	564133888	53	5511
2026-01-21 10:28:16.55	194.07	35.94	-41.6	-44.8	11.2	1.18e-03	0	61	0	567279616	53	5607
2026-01-21 10:28:17.56	194.26	36.15	-41.6	-44.8	11.3	1.17e-03	0	61	0	570425344	53	5608
2026-01-21 10:28:18.57	194.46	36.36	-41.7	-44.9	11.2	1.45e-03	0	61	0	573571072	53	5667
2026-01-21 10:28:19.58	194.65	36.57	-41.6	-44.8	11.2	1.23e-03	0	60	0	576716800	53	5636
2026-01-21 10:28:20.59	194.85	36.78	-41.6	-44.7	11.3	1.12e-03	0	61	0	579862528	53	5588
2026-01-21 10:28:21.60	195.06	37.00	-41.5	-44.6	11.4	9.80e-04	0	61	0	583008256	53	5493
2026-01-21 10:28:22.61	195.26	37.21	-41.5	-44.6	11.5	8.65e-04	0	61	0	586153984	53	5485
2026-01-21 10:28:23.62	195.47	37.43	-41.5	-44.5	11.5	7.83e-04	0	61	0	589299712	53	5461
2026-01-21 10:28:24.63	195.68	37.65	-41.5	-44.5	11.5	7.06e-04	0	61	0	592445440	53	5432
2026-01-21 10:28:25.64	195.89	37.86	-41.5	-44.6	11.4	8.22e-04	0	60	0	595591168	53	5506
2026-01-21 10:28:26.65	196.11	38.08	-41.5	-44.6	11.4	9.27e-04	0	61	0	598736896	53	5501
2026-01-21 10:28:27.66	196.33	38.30	-41.5	-44.5	11.6	8.96e-04	0	61	0	601882624	53	5432
2026-01-21 10:28:28.67	196.55	38.52	-41.4	-44.4	11.6	5.63e-04	0	61	0	605028352	53	5368
2026-01-21 10:28:29.67	196.77	38.74	-41.3	-44.1	11.9	4.60e-04	0	61	0	608174080	53	5209
2026-01-21 10:28:30.69	197.00	38.97	-41.2	-44.1	12.0	3.20e-04	0	61	0	611319808	53	5188
2026-01-21 10:28:31.70	197.23	39.19	-41.1	-43.9	12.2	2.68e-04	0	61	0	614465536	53	5053
2026-01-21 10:28:32.71	197.47	39.42	-41.2	-43.9	12.1	2.92e-04	0	61	0	617611264	53	5098
2026-01-21 10:28:33.72	197.71	39.64	-41.1	-43.9	12.2	2.46e-04	0	61	0	620756992	53	5073
2026-01-21 10:28:34.73	197.95	39.87	-41.2	-44.0	12.1	2.46e-04	0	61	0	623902720	53	5127
2026-01-21 10:28:35.74	198.19	40.10	-41.3	-44.1	11.9	3.16e-04	0	61	0	627048448	53	5193
2026-01-21 10:28:36.75	198.44	40.33	-41.4	-44.4	11.6	5.93e-04	0	61	0	630194176	53	5392
2026-01-21 10:28:37.76	198.69	40.56	-41.6	-44.7	11.3	1.02e-03	0	61	0	633339904	53	5567
2026-01-21 10:28:38.77	198.94	40.79	-41.7	-44.9	11.2	1.42e-03	0	61	0	636485632	53	5684
2026-01-21 10:28:39.78	199.20	41.02	-41.6	-44.7	11.4	9.47e-04	0	61	0	639631360	54	5273
2026-01-21 10:28:40.79	199.46	41.25	-41.5	-44.6	11.5	8.66e-04	0	61	0	642777088	54	5168
2026-01-21 10:28:41.80	199.73	41.48	-41.6	-44.6	11.5	8.33e-04	0	61	0	645922816	54	5171
2026-01-21 10:28:42.81	200.00	41.71	-41.7	-44.8	11.3	8.64e-04	0	61	0	649068544	54	5289
2026-01-21 10:28:43.82	200.27	41.95	-41.8	-45.0	11.1	1.38e-03	0	61	0	652214272	54	5416
2026-01-21 10:28:44.83	200.55	42.18	-42.0	-45.3	10.7	2.92e-03	0	61	0	655360000	54	5641
2026-01-21 10:28:45.83	200.83	42.42	-42.0	-45.4	10.7	2.98e-03	0	61	0	658505728	54	5668
2026-01-21 10:28:46.84	201.11	42.65	-42.2	-45.7	10.4	4.11e-03	0	61	0	661651456	54	5893
2026-01-21 10:28:47.85	201.40	42.89	-42.2	-45.7	10.3	4.60e-03	0	61	0	664797184	55	5558
2026-01-21 10:28:48.86	201.69	43.13	-42.3	-46.0	10.0	6.85e-03	0	61	0	667942912	55	5771
2026-01-21 10:28:49.87	201.99	43.37	-42.3	-45.9	10.1	7.20e-03	0	61	0	671088640	55	5676
2026-01-21 10:28:50.88	202.29	43.61	-42.3	-46.0	10.0	8.62e-03	0	61	0	674234368	55	5767
2026-01-21 10:28:51.89	202.60	43.85	-42.3	-45.9	10.0	6.80e-03	0	61	0	677380096	55	5713
2026-01-21 10:28:52.90	202.91	44.09	-42.2	-45.9	10.2	5.63e-03	0	61	0	680525824	55	5677
2026-01-21 10:28:53.91	203.23	44.33	-42.0	-45.8	10.2	6.60e-03	0	61	0	683671552	55	5656
2026-01-21 10:28:54.92	203.55	44.57	-42.3	-46.0	9.9	7.36e-03	0	61	0	686817280	55	5784
2026-01-21 10:28:55.93	203.87	44.81	-42.2	-46.0	10.0	8.15e-03	0	61	0	689963008	55	5766
2026-01-21 10:28:56.94	204.20	45.05	-42.3	-46.0	9.9	7.73e-03	0	61	0	693108736	55	5786
2026-01-21 10:28:57.95	204.54	45.30	-42.3	-45.9	10.1	6.17e-03	0	61	0	696254464	55	5694
2026-01-21 10:28:58.96	204.88	45.54	-42.0	-45.4	10.6	3.77e-03	0	61	0	699400192	55	5357
2026-01-21 10:28:59.97	205.23	45.78	-41.8	-45.1	11.0	1.95e-03	0	61	0	702545920	54	5496
2026-01-21 10:29:00.98	205.58	46.03	-41.9	-45.1	11.0	1.88e-03	0	61	0	705691648	54	5481
2026-01-21 10:29:01.99	205.93	46.27	-41.9	-45.2	10.9	1.85e-03	0	61	0	708837376	54	5535
2026-01-21 10:29:03.00	206.29	46.52	-41.9	-45.1	11.0	2.49e-03	0	61	0	711983104	54	5490
2026-01-21 10:29:04.01	206.66	46.76	-41.8	-45.1	11.0	2.08e-03	0	61	0	715128832	54	5478
2026-01-21 10:29:05.02	207.04	47.01	-41.4	-44.5	11.6	9.05e-04	0	61	0	718274560	54	5158
2026-01-21 10:29:06.03	207.41	47.25	-41.5	-44.4	11.7	6.61e-04	0	61	0	721420288	54	5065
2026-01-21 10:29:07.04	207.80	47.50	-41.3	-44.2	11.9	3.76e-04	0	61	0	724566016	54	4954
2026-01-21 10:29:08.05	208.19	47.74	-41.6	-44.6	11.5	5.62e-04	0	61	0	727711744	54	5173
2026-01-21 10:29:09.06	208.59	47.99	-41.9	-45.1	11.0	1.39e-03	0	61	0	730857472	54	5498
2026-01-21 10:29:10.07	208.99	48.23	-42.0	-45.3	10.8	2.12e-03	0	61	0	734003200	54	5623
2026-01-21 10:29:11.08	209.40	48.48	-41.9	-45.2	10.9	2.31e-03	0	61	0	737148928	54	5583
2026-01-21 10:29:12.08	209.81	48.72	-42.0	-45.3	10.8	2.68e-03	0	61	0	740294656	54	5648
2026-01-21 10:29:13.10	210.24	48.97	-41.9	-45.2	10.9	2.39e-03	0	61	0	743440384	54	5555
2026-01-21 10:29:14.10	210.67	49.21	-41.8	-44.9	11.2	1.50e-03	0	61	0	746586112	54	5373
2026-01-21 10:29:15.11	211.10	49.45	-41.8	-44.9	11.2	1.56e-03	0	61	0	749731840	54	5361
2026-01-21 10:29:16.12	211.55	49.70	-41.6	-44.6	11.5	1.05e-03	0	61	0	752877568	54	5173
2026-01-21 10:29:17.13	212.00	49.94	-41.4	-44.3	11.8	5.13e-04	0	61	0	756023296	54	5000
2026-01-21 10:29:18.14	212.45	50.18	-41.2	-44.0	12.2	2.91e-04	0	61	0	759169024	54	4835
2026-01-21 10:29:19.15	212.92	50.42	-41.2	-43.9	12.1	2.02e-04	0	61	0	762314752	54	4806
2026-01-21 10:29:20.16	213.39	50.66	-41.3	-44.1	12.0	2.85e-04	0	61	0	765460480	54	4877
2026-01-21 10:29:21.17	213.87	50.90	-41.4	-44.3	11.8	3.81e-04	0	61	0	768606208	54	4987
2026-01-21 10:29:22.18	214.36	51.14	-41.3	-44.2	11.9	3.07e-04	0	61	0	771751936	54	4948
2026-01-21 10:29:23.19	214.85	51.38	-41.4	-44.3	11.8	4.71e-04	0	61	0	774897664	54	5007
2026-01-21 10:29:24.20	215.35	51.62	-41.5	-44.5	11.6	5.71e-04	0	61	0	778043392	54	5106
2026-01-21 10:29:25.21	215.87	51.85	-41.5	-44.5	11.6	6.24e-04	0	61	0	781189120	53	5412
2026-01-21 10:29:26.22	216.38	52.09	-41.4	-44.3	11.9	4.45e-04	0	61	0	784334848	53	5308
2026-01-21 10:29:27.23	216.91	52.32	-41.3	-44.2	12.0	4.10e-04	0	61	0	787480576	53	5220
2026-01-21 10:29:28.24	217.45	52.55	-41.1	-43.8	12.3	2.06e-04	0	61	0	790626304	53	5022
2026-01-21 10:29:29.24	217.99	52.78	-41.1	-43.8	12.3	1.44e-04	0	61	0	793772032	53	5030
2026-01-21 10:29:30.25	218.54	53.01	-41.3	-44.2	12.0	2.85e-04	0	61	0	796917760	53	5248
2026-01-21 10:29:31.26	219.10	53.24	-41.2	-44.0	12.2	2.87e-04	0	61	0	800063488	53	5123
2026-01-21 10:29:32.27	219.67	53.46	-41.1	-43.8	12.4	1.72e-04	0	61	0	803209216	53	5020
2026-01-21 10:29:33.28	220.25	53.69	-41.1	-43.8	12.5	1.30e-04	0	61	0	806354944	53	4991
2026-01-21 10:29:34.29	220.83	53.91	-40.8	-43.4	12.8	7.62e-05	0	61	0	809500672	53	4773
2026-01-21 10:29:35.30	221.43	54.13	-40.6	-43.1	13.1	2.28e-05	0	61	0	812646400	53	4614
2026-01-21 10:29:36.31	222.03	54.35	-40.7	-43.2	12.9	5.26e-05	0	61	0	815792128	53	4663
2026-01-21 10:29:37.32	222.65	54.56	-40.9	-43.5	12.7	4.27e-05	0	61	0	818937856	52	5101
2026-01-21 10:29:38.33	223.27	54.78	-40.7	-43.1	13.0	5.49e-05	0	61	0	822083584	52	4917
2026-01-21 10:29:39.34	223.90	54.99	-40.4	-43.1	12.9	2.82e-05	0	61	0	825229312	52	4923
2026-01-21 10:29:40.35	224.55	55.19	-40.7	-43.2	12.9	4.65e-05	0	61	0	828375040	52	4972
2026-01-21 10:29:41.36	225.20	55.40	-40.7	-43.2	13.0	3.96e-05	0	61	0	831520768	52	4939
2026-01-21 10:29:42.37	225.86	55.60	-40.6	-43.1	13.1	2.05e-05	0	61	0	834666496	52	4882
2026-01-21 10:29:43.38	226.53	55.80	-40.6	-43.0	13.1	3.28e-05	0	61	0	837812224	52	4864
2026-01-21 10:29:44.39	227.21	56.00	-40.7	-43.2	13.0	2.74e-05	0	61	0	840957952	52	4944
2026-01-21 10:29:45.40	227.90	56.19	-40.4	-42.9	13.2	2.82e-05	0	61	0	844103680	52	4792
2026-01-21 10:29:46.41	228.60	56.38	-40.4	-42.7	13.5	1.22e-05	0	61	0	847249408	52	4675
2026-01-21 10:29:47.41	229.30	56.56	-40.1	-42.3	13.8	6.10e-06	0	61	0	850395136	52	4484
2026-01-21 10:29:48.42	230.01	56.74	-40.1	-42.3	13.9	2.20e-06	0	61	0	853540864	51	4739
2026-01-21 10:29:49.43	230.74	56.92	-40.2	-42.4	13.8	4.50e-06	0	61	0	856686592	51	4806
2026-01-21 10:29:50.44	231.48	57.10	-40.3	-42.6	13.6	6.10e-06	0	61	0	859832320	51	4917
2026-01-21 10:29:51.45	232.22	57.27	-40.2	-42.9	13.2	1.44e-05	0	61	0	862978048	51	5048
2026-01-21 10:29:52.46	232.98	57.43	-40.6	-43.0	13.1	2.89e-05	0	61	0	866123776	51	5141
2026-01-21 10:29:53.47	233.74	57.60	-40.6	-43.0	13.2	2.05e-05	0	61	0	869269504	51	5111
2026-01-21 10:29:54.48	234.51	57.75	-40.4	-42.8	13.4	1.67e-05	0	61	0	872415232	51	5011
2026-01-21 10:29:55.49	235.30	57.91	-40.4	-42.8	13.3	3.05e-05	0	61	0	875560960	51	5004
2026-01-21 10:29:56.50	236.09	58.06	-40.4	-42.7	13.4	3.28e-05	0	61	0	878706688	51	4975
2026-01-21 10:29:57.51	236.88	58.20	-40.3	-42.6	13.6	1.14e-05	0	61	0	881852416	51	4901
2026-01-21 10:29:58.52	237.69	58.34	-40.1	-42.3	13.8	3.80e-06	0	61	0	884998144	51	4754
2026-01-21 10:29:59.53	238.51	58.47	-40.2	-42.5	13.8	5.30e-06	0	61	0	889192448	51	4830
2026-01-21 10:30:00.54	239.33	58.60	-40.3	-42.7	13.5	9.10e-06	0	61	0	892338176	51	4939
2026-01-21 10:30:01.55	240.16	58.73	-40.4	-42.7	13.5	1.67e-05	0	61	0	894435328	51	4939
2026-01-21 10:30:02.56	241.00	58.85	-40.2	-42.5	13.7	1.75e-05	0	61	0	897581056	51	4838
2026-01-21 10:30:03.57	241.85	58.96	-40.0	-42.2	14.0	6.10e-06	0	61	0	900726784	51	4667
2026-01-21 10:30:04.58	242.70	59.07	-40.0	-42.2	14.0	2.20e-06	0	61	0	904921088	50	4951
2026-01-21 10:30:05.59	243.56	59.17	-40.1	-42.3	13.8	3.00e-06	0	61	0	908066816	50	5024
2026-01-21 10:30:06.60	244.43	59.27	-39.9	-42.2	14.0	4.50e-06	0	61	0	911212544	50	4932
2026-01-21 10:30:07.61	245.30	59.36	-39.8	-42.0	14.2	7.00e-07	0	61	0	914358272	50	4816
2026-01-21 10:30:08.62	246.18	59.44	-39.9	-42.0	14.2	1.50e-06	0	61	0	916455424	50	4841
2026-01-21 10:30:09.63	247.06	59.52	-39.8	-42.0	14.2	7.00e-07	0	61	0	920649728	50	4822
2026-01-21 10:30:10.64	247.95	59.59	-39.8	-42.0	14.2	3.80e-06	0	61	0	923795456	50	4840
2026-01-21 10:30:11.65	248.85	59.66	-40.0	-42.2	14.0	0.00e+00	0	61	0	926941184	50	4967
2026-01-21 10:30:12.66	249.75	59.72	-40.2	-42.5	13.7	5.30e-06	0	61	0	930086912	51	4844
2026-01-21 10:30:13.67	250.65	59.77	-40.3	-42.6	13.5	1.29e-05	0	61	0	933232640	51	4920
2026-01-21 10:30:14.68	251.55	59.82	-40.1	-42.4	13.8	3.00e-06	0	61	0	936378368	51	4769
2026-01-21 10:30:15.69	252.46	59.86	-40.0	-42.2	14.0	7.00e-07	0	61	0	939524096	51	4661
2026-01-21 10:30:16.70	253.37	59.90	-40.1	-42.3	13.9	2.20e-06	0	61	0	942669824	51	4712
2026-01-21 10:30:17.71	254.29	59.92	-40.1	-42.3	13.9	6.10e-06	0	61	0	945815552	51	4709
2026-01-21 10:30:18.72	255.20	59.95	-40.0	-42.2	14.0	3.00e-06	0	61	0	948961280	51	4662
2026-01-21 10:30:19.73	256.12	59.96	-39.9	-42.1	14.1	2.20e-06	0	61	0	952107008	51	4603
2026-01-21 10:30:20.74	257.04	59.97	-39.8	-42.0	14.2	1.50e-06	0	61	0	955252736	51	4546
2026-01-21 10:30:21.75	257.96	59.97	-39.7	-41.8	14.4	7.00e-07	0	61	0	958398464	51	4455
2026-01-21 10:30:22.76	258.87	59.97	-39.6	-41.9	14.3	0.00e+00	0	61	0	961544192	51	4497
2026-01-21 10:30:23.77	259.79	59.96	-40.0	-42.2	14.0	5.30e-06	0	61	0	964689920	51	4656
2026-01-21 10:30:24.78	260.71	59.94	-40.1	-42.3	13.9	1.50e-06	0	61	0	967835648	51	4715
2026-01-21 10:30:25.78	261.61	59.92	-39.7	-41.7	14.5	1.50e-06	0	61	0	970981376	51	4411
2026-01-21 10:30:26.79	262.53	59.89	-39.6	-41.6	14.5	0.00e+00	0	61	0	974127104	51	4343
2026-01-21 10:30:27.80	263.44	59.85	-39.6	-41.6	14.5	7.00e-07	0	61	0	977272832	51	4369
2026-01-21 10:30:28.81	264.34	59.81	-39.5	-41.4	14.7	7.00e-07	0	61	0	980418560	50	4533
2026-01-21 10:30:29.82	265.25	59.76	-39.3	-41.2	14.9	0.00e+00	0	61	0	983564288	50	4415
2026-01-21 10:30:30.83	266.15	59.70	-39.5	-41.5	14.6	7.00e-07	0	61	0	986710016	50	4550
2026-01-21 10:30:31.84	267.05	59.64	-39.8	-41.9	14.2	0.00e+00	0	61	0	989855744	50	4764
2026-01-21 10:30:32.85	267.94	59.57	-39.8	-42.0	14.1	7.00e-07	0	61	0	993001472	50	4841
2026-01-21 10:30:33.86	268.83	59.50	-39.6	-41.6	14.5	0.00e+00	0	61	0	996147200	50	4646
2026-01-21 10:30:34.87	269.71	59.42	-39.7	-41.7	14.4	0.00e+00	0	61	0	999292928	50	4683
2026-01-21 10:30:35.88	270.58	59.33	-40.1	-42.3	13.8	7.00e-07	0	61	0	1002438656	50	5026
2026-01-21 10:30:36.89	271.45	59.24	-40.3	-42.5	13.7	6.80e-06	0	61	0	1005584384	51	4852
2026-01-21 10:30:37.90	272.32	59.14	-40.3	-42.6	13.6	6.80e-06	0	61	0	1008730112	51	4888
2026-01-21 10:30:38.91	273.18	59.04	-40.3	-42.6	13.6	7.60e-06	0	61	0	1011875840	51	4881
2026-01-21 10:30:39.92	274.03	58.93	-40.3	-42.5	13.6	8.30e-06	0	61	0	1015021568	51	4866
2026-01-21 10:30:40.93	274.87	58.81	-40.1	-42.4	13.8	4.50e-06	0	61	0	1018167296	51	4789
2026-01-21 10:30:41.94	275.71	58.69	-40.1	-42.2	13.9	4.50e-06	0	61	0	1021313024	51	4700
2026-01-21 10:30:42.95	276.53	58.57	-40.2	-42.4	13.8	3.80e-06	0	61	0	1024458752	51	4813
2026-01-21 10:30:43.96	277.35	58.44	-40.3	-42.5	13.6	9.90e-06	0	61	0	1027604480	51	4854
2026-01-21 10:30:44.96	278.16	58.31	-40.2	-42.4	13.8	2.20e-06	0	61	0	1030750208	51	4803
2026-01-21 10:30:45.97	278.96	58.16	-40.2	-42.4	13.9	6.80e-06	0	61	0	1033895936	51	4768
2026-01-21 10:30:46.98	279.76	58.02	-40.0	-42.2	14.0	6.80e-06	0	61	0	1037041664	51	4664
2026-01-21 10:30:47.99	280.55	57.87	-40.1	-42.3	13.9	3.00e-06	0	61	0	1040187392	51	4752
2026-01-21 10:30:49.00	281.32	57.72	-40.4	-42.7	13.5	3.80e-06	0	61	0	1043333120	51	4930
2026-01-21 10:30:50.01	282.09	57.56	-40.5	-42.8	13.4	9.90e-06	0	61	0	1046478848	51	5019
2026-01-21 10:30:51.02	282.85	57.39	-40.8	-43.3	12.8	3.05e-05	0	61	0	1049624576	52	5023
2026-01-21 10:30:52.03	283.60	57.23	-40.8	-43.4	12.7	5.87e-05	0	61	0	1052770304	52	5052
2026-01-21 10:30:53.04	284.34	57.06	-40.4	-42.8	13.3	2.05e-05	0	61	0	1055916032	52	4735
2026-01-21 10:30:54.05	285.08	56.88	-40.0	-42.2	13.7	4.50e-06	0	61	0	1059061760	52	4420
2026-01-21 10:30:55.06	285.80	56.70	-40.3	-42.6	13.4	1.06e-05	0	61	0	1062207488	52	4616
2026-01-21 10:30:56.07	286.51	56.52	-40.4	-42.7	13.4	1.14e-05	0	61	0	1065353216	52	4679
2026-01-21 10:30:57.08	287.22	56.33	-40.5	-42.8	13.3	1.44e-05	0	61	0	1068498944	52	4746
2026-01-21 10:30:58.09	287.91	56.14	-40.6	-43.0	13.1	1.98e-05	0	61	0	1071644672	52	4843
2026-01-21 10:30:59.10	288.60	55.95	-40.8	-43.4	12.7	4.11e-05	0	61	0	1074790400	52	5048
2026-01-21 10:31:00.11	289.27	55.75	-40.6	-43.0	13.1	4.57e-05	0	61	0	1077936128	52	4848
2026-01-21 10:31:01.12	289.94	55.55	-40.2	-42.5	13.6	5.30e-06	0	61	0	1081081856	52	4548
2026-01-21 10:31:02.13	290.60	55.35	-40.3	-42.6	13.4	1.44e-05	0	61	0	1084227584	52	4650
2026-01-21 10:31:03.14	291.25	55.15	-40.8	-43.3	12.8	3.73e-05	0	61	0	1087373312	52	5039
2026-01-21 10:31:04.16	291.89	54.94	-41.0	-43.7	12.4	1.36e-04	0	61	0	1090519040	52	5249
2026-01-21 10:31:05.17	292.52	54.73	-40.9	-43.5	12.6	1.04e-04	0	61	0	1093664768	52	5155
2026-01-21 10:31:06.18	293.14	54.51	-41.1	-43.7	12.3	1.10e-04	0	61	0	1096810496	52	5272
2026-01-21 10:31:07.19	293.75	54.30	-41.0	-43.7	12.2	2.34e-04	0	61	0	1099956224	52	5270
2026-01-21 10:31:08.20	294.35	54.08	-40.9	-43.5	12.5	1.48e-04	0	61	0	1103101952	52	5132
2026-01-21 10:31:09.21	294.94	53.86	-40.6	-43.0	13.1	3.35e-05	0	61	0	1106247680	52	4830
2026-01-21 10:31:10.22	295.53	53.64	-40.5	-42.9	13.2	2.36e-05	0	61	0	1109393408	52	4768
2026-01-21 10:31:11.23	296.10	53.42	-40.5	-42.8	13.2	1.37e-05	0	61	0	1112539136	52	4756
2026-01-21 10:31:12.24	296.67	53.19	-40.6	-43.0	13.1	3.81e-05	0	61	0	1115684864	52	4836
2026-01-21 10:31:13.25	297.22	52.96	-40.7	-43.1	13.0	4.80e-05	0	61	0	1118830592	52	4923
2026-01-21 10:31:14.26	297.77	52.74	-41.0	-43.6	12.5	9.38e-05	0	61	0	1121976320	52	5206
2026-01-21 10:31:15.27	298.31	52.51	-41.3	-44.1	11.9	3.44e-04	0	61	0	1125122048	53	5212
2026-01-21 10:31:16.28	298.85	52.27	-41.2	-44.0	12.0	2.91e-04	0	61	0	1128267776	53	5104
2026-01-21 10:31:17.29	299.37	52.04	-41.0	-43.6	12.3	1.52e-04	0	61	0	1131413504	53	4924
2026-01-21 10:31:18.30	299.88	51.81	-40.9	-43.5	12.4	1.51e-04	0	61	0	1134559232	53	4866
2026-01-21 10:31:19.31	300.39	51.57	-41.2	-44.0	12.0	2.72e-04	0	61	0	1137704960	53	5128
2026-01-21 10:31:20.32	300.89	51.34	-41.0	-43.6	12.4	1.89e-04	0	61	0	1140850688	53	4890
2026-01-21 10:31:21.33	301.38	51.10	-40.8	-43.2	12.8	7.09e-05	0	61	0	1143996416	53	4694
2026-01-21 10:31:22.34	301.87	50.86	-41.0	-43.7	12.4	1.38e-04	0	61	0	1147142144	53	4944
2026-01-21 10:31:23.35	302.34	50.62	-41.3	-44.1	11.9	3.88e-04	0	61	0	1150287872	53	5195
2026-01-21 10:31:24.36	302.81	50.38	-41.5	-44.5	11.5	5.60e-04	0	61	0	1153433600	53	5443
2026-01-21 10:31:25.36	303.27	50.14	-41.4	-44.3	11.7	5.88e-04	0	61	0	1156579328	53	5286
2026-01-21 10:31:26.37	303.72	49.90	-41.4	-44.2	11.7	5.41e-04	0	61	0	1159725056	53	5271
2026-01-21 10:31:27.38	304.17	49.66	-41.4	-44.3	11.5	6.73e-04	0	61	0	1162870784	53	5309
2026-01-21 10:31:28.39	304.61	49.42	-41.4	-44.3	11.7	6.03e-04	0	61	0	1166016512	53	5281
2026-01-21 10:31:29.40	305.05	49.17	-41.3	-44.1	11.9	4.26e-04	0	61	0	1169162240	53	5204
2026-01-21 10:31:30.41	305.47	48.93	-41.3	-44.2	11.8	4.47e-04	0	61	0	1172307968	53	5260
2026-01-21 10:31:31.42	305.89	48.69	-41.5	-44.5	11.6	6.16e-04	0	61	0	1175453696	53	5433
2026-01-21 10:31:32.43	306.31	48.44	-41.6	-44.6	11.5	7.74e-04	0	61	0	1178599424	53	5478
2026-01-21 10:31:33.44	306.71	48.20	-41.7	-44.8	11.3	1.07e-03	0	61	0	1181745152	53	5602
2026-01-21 10:31:34.45	307.12	47.96	-41.8	-45.1	11.0	1.52e-03	0	61	0	1184890880	54	5466
2026-01-21 10:31:35.46	307.51	47.71	-42.0	-45.4	10.6	3.36e-03	0	61	0	1188036608	54	5690
2026-01-21 10:31:36.47	307.90	47.47	-42.1	-45.6	10.4	4.43e-03	0	61	0	1191182336	54	5791
2026-01-21 10:31:37.48	308.28	47.22	-41.8	-45.1	10.9	2.27e-03	0	61	0	1194328064	54	5477
2026-01-21 10:31:38.49	308.66	46.98	-41.5	-44.4	11.6	1.02e-03	0	61	0	1197473792	54	5092
2026-01-21 10:31:39.50	309.03	46.74	-41.2	-43.9	12.2	3.05e-04	0	61	0	1200619520	54	4778
2026-01-21 10:31:40.51	309.39	46.49	-41.3	-44.1	12.0	2.44e-04	0	61	0	1203765248	54	4899
2026-01-21 10:31:41.52	309.75	46.25	-41.5	-44.3	11.8	4.37e-04	0	61	0	1206910976	54	5040
2026-01-21 10:31:42.53	310.11	46.01	-41.6	-44.6	11.5	7.94e-04	0	61	0	1210056704	54	5214
2026-01-21 10:31:43.54	310.46	45.76	-41.8	-44.9	11.2	1.46e-03	0	61	0	1213202432	54	5392
2026-01-21 10:31:44.55	310.80	45.52	-42.0	-45.2	10.8	1.98e-03	0	61	0	1216348160	54	5592
2026-01-21 10:31:45.56	311.14	45.28	-42.1	-45.5	10.5	4.03e-03	0	61	0	1219493888	54	5778
2026-01-21 10:31:46.57	311.47	45.04	-42.2	-45.6	10.4	5.24e-03	0	61	0	1223688192	55	5515
2026-01-21 10:31:47.58	311.80	44.80	-41.9	-45.2	10.7	3.65e-03	0	61	0	1226833920	55	5254
2026-01-21 10:31:48.59	312.13	44.56	-41.4	-44.3	11.6	8.15e-04	0	61	0	1229979648	54	5019
2026-01-21 10:31:49.60	312.44	44.32	-41.3	-44.0	11.8	4.65e-04	0	61	0	1232076800	54	4868
2026-01-21 10:31:50.61	312.76	44.08	-41.4	-44.2	11.7	5.13e-04	0	61	0	1235222528	54	4979
2026-01-21 10:31:51.62	313.07	43.84	-41.5	-44.4	11.5	7.28e-04	0	61	0	1239416832	54	5085
2026-01-21 10:31:52.63	313.37	43.60	-41.5	-44.5	11.6	6.40e-04	0	61	0	1242562560	54	5104
2026-01-21 10:31:53.64	313.67	43.36	-41.8	-44.9	11.1	1.15e-03	0	61	0	1245708288	54	5383
2026-01-21 10:31:54.65	313.97	43.12	-42.1	-45.5	10.5	3.22e-03	0	61	0	1248854016	54	5757
2026-01-21 10:31:55.66	314.26	42.89	-42.2	-45.7	10.3	4.58e-03	0	61	0	1251999744	54	5881
2026-01-21 10:31:56.67	314.55	42.65	-42.4	-46.1	9.9	8.79e-03	0	61	0	1255145472	55	5799
2026-01-21 10:31:57.67	314.83	42.42	-42.3	-45.9	10.0	7.61e-03	0	61	0	1258291200	55	5679
2026-01-21 10:31:58.68	315.11	42.18	-42.2	-45.8	10.1	7.12e-03	0	61	0	1261436928	55	5594
2026-01-21 10:31:59.70	315.39	41.95	-42.1	-45.5	10.3	6.05e-03	0	61	0	1264582656	55	5442
2026-01-21 10:32:00.71	315.66	41.71	-42.0	-45.5	10.4	4.72e-03	0	61	0	1267728384	55	5410
2026-01-21 10:32:01.71	315.92	41.48	-42.0	-45.4	10.5	4.42e-03	0	61	0	1270874112	55	5392
2026-01-21 10:32:02.73	316.19	41.25	-42.0	-45.3	10.7	3.09e-03	0	61	0	1274019840	55	5287
2026-01-21 10:32:03.74	316.45	41.02	-42.0	-45.2	10.7	3.12e-03	0	61	0	1277165568	55	5277
2026-01-21 10:32:04.75	316.71	40.79	-41.7	-44.8	11.1	1.98e-03	0	61	0	1280311296	55	5028
2026-01-21 10:32:05.76	316.96	40.56	-42.0	-45.3	10.7	2.62e-03	0	61	0	1283457024	55	5312
2026-01-21 10:32:06.77	317.21	40.33	-42.1	-45.6	10.4	3.51e-03	0	61	0	1286602752	55	5480
2026-01-21 10:32:07.78	317.46	40.11	-42.2	-45.7	10.3	4.85e-03	0	61	0	1289748480	55	5557
2026-01-21 10:32:08.79	317.70	39.88	-42.1	-45.5	10.5	4.10e-03	0	61	0	1292894208	55	5442
2026-01-21 10:32:09.80	317.94	39.66	-41.9	-45.2	10.9	2.54e-03	0	61	0	1296039936	55	5237
2026-01-21 10:32:10.81	318.18	39.43	-41.7	-44.8	11.2	1.59e-03	0	61	0	1299185664	55	5022
2026-01-21 10:32:11.82	318.41	39.21	-41.5	-44.5	11.5	8.60e-04	0	61	0	1302331392	55	4835
2026-01-21 10:32:12.83	318.64	38.99	-41.3	-44.2	11.8	4.95e-04	0	61	0	1305477120	54	4962
2026-01-21 10:32:13.83	318.86	38.77	-41.2	-43.9	12.1	2.85e-04	0	61	0	1308622848	54	4784
2026-01-21 10:32:14.84	319.09	38.55	-41.2	-43.9	12.1	2.65e-04	0	61	0	1311768576	54	4805
2026-01-21 10:32:15.85	319.31	38.33	-41.2	-44.0	12.1	3.47e-04	0	61	0	1314914304	54	4839
2026-01-21 10:32:16.86	319.53	38.11	-41.2	-44.1	12.0	3.33e-04	0	61	0	1318060032	54	4871
2026-01-21 10:32:17.87	319.74	37.89	-41.2	-43.9	12.1	2.55e-04	0	61	0	1321205760	54	4806
2026-01-21 10:32:18.88	319.96	37.67	-41.2	-44.0	12.0	2.84e-04	0	61	0	1324351488	54	4845
2026-01-21 10:32:19.89	320.17	37.46	-41.3	-44.1	11.9	3.84e-04	0	61	0	1327497216	54	4871
2026-01-21 10:32:20.90	320.37	37.24	-41.2	-43.9	12.1	4.13e-04	0	61	0	1330642944	54	4809
2026-01-21 10:32:21.91	320.58	37.03	-41.0	-43.7	12.4	1.88e-04	0	61	0	1333788672	54	4668
2026-01-21 10:32:22.92	320.78	36.82	-41.0	-43.6	12.4	1.33e-04	0	61	0	1336934400	53	4919
2026-01-21 10:32:23.93	320.98	36.61	-41.0	-43.7	12.3	1.52e-04	0	61	0	1340080128	53	4962
2026-01-21 10:32:24.94	321.17	36.40	-41.1	-43.8	12.2	2.13e-04	0	61	0	1343225856	53	5014
2026-01-21 10:32:25.95	321.37	36.19	-40.9	-43.6	12.4	1.59e-04	0	61	0	1346371584	53	4896
2026-01-21 10:32:26.96	321.56	35.98	-40.8	-43.4	12.6	1.26e-04	0	61	0	1349517312	53	4803
2026-01-21 10:32:27.97	321.75	35.77	-40.8	-43.4	12.6	1.03e-04	0	61	0	1352663040	53	4781
2026-01-21 10:32:28.98	321.94	35.56	-40.8	-43.4	12.7	7.17e-05	0	61	0	1355808768	53	4770
2026-01-21 10:32:29.99	322.12	35.36	-40.8	-43.4	12.6	8.08e-05	0	61	0	1358954496	53	4761
2026-01-21 10:32:31.00	322.30	35.15	-40.6	-43.1	12.9	3.81e-05	0	61	0	1362100224	53	4630
2026-01-21 10:32:32.01	322.49	34.95	-40.5	-43.0	13.0	4.42e-05	0	61	0	1365245952	53	4565
2026-01-21 10:32:33.02	322.66	34.75	-40.8	-43.4	12.6	6.86e-05	0	61	0	1368391680	53	4768
2026-01-21 10:32:34.03	322.84	34.54	-41.1	-43.8	12.1	2.06e-04	0	61	0	1371537408	53	5008
2026-01-21 10:32:35.04	323.01	34.34	-41.2	-44.1	11.8	4.49e-04	0	61	0	1374683136	53	5169
2026-01-21 10:32:36.05	323.19	34.15	-41.3	-44.2	11.6	6.84e-04	0	61	0	1377828864	53	5244
2026-01-21 10:32:37.06	323.36	33.95	-41.3	-44.2	11.6	6.33e-04	0	61	0	1380974592	53	5235
2026-01-21 10:32:38.07	323.52	33.75	-41.2	-44.0	11.8	5.42e-04	0	61	0	1384120320	53	5122
2026-01-21 10:32:39.08	323.69	33.55	-41.2	-44.0	11.8	4.88e-04	0	61	0	1387266048	53	5128
2026-01-21 10:32:40.09	323.85	33.36	-41.0	-43.8	12.0	3.65e-04	0	61	0	1390411776	53	5011
2026-01-21 10:32:41.10	324.01	33.16	-40.9	-43.6	12.3	2.23e-04	0	61	0	1393557504	53	4894
2026-01-21 10:32:42.11	324.17	32.97	-40.9	-43.5	12.4	2.06e-04	0	61	0	1396703232	53	4855
2026-01-21 10:32:43.12	324.33	32.78	-40.8	-43.3	12.6	1.11e-04	0	61	0	1399848960	53	4759
2026-01-21 10:32:44.13	324.49	32.59	-40.7	-43.3	12.7	8.54e-05	0	61	0	1402994688	53	4736
2026-01-21 10:32:45.13	324.64	32.40	-40.9	-43.5	12.5	1.11e-04	0	61	0	1406140416	53	4858
2026-01-21 10:32:46.15	324.80	32.21	-40.9	-43.6	12.4	1.34e-04	0	61	0	1409286144	53	4885
2026-01-21 10:32:47.16	324.95	32.02	-40.9	-43.6	12.4	1.29e-04	0	61	0	1412431872	53	4909
2026-01-21 10:32:48.17	325.10	31.83	-41.0	-43.8	12.2	2.13e-04	0	61	0	1415577600	53	4996
2026-01-21 10:32:49.18	325.25	31.64	-40.9	-43.6	12.4	1.59e-04	0	61	0	1418723328	53	4914
2026-01-21 10:32:50.19	325.39	31.46	-40.7	-43.3	12.7	7.40e-05	0	61	0	1421869056	53	4742
2026-01-21 10:32:51.20	325.54	31.27	-40.7	-43.2	12.8	5.56e-05	0	61	0	1425014784	53	4704
2026-01-21 10:32:52.21	325.68	31.09	-40.6	-43.1	12.9	5.79e-05	0	61	0	1428160512	53	4639
2026-01-21 10:32:53.22	325.82	30.91	-40.5	-42.9	13.0	3.89e-05	0	61	0	1431306240	53	4543
2026-01-21 10:32:54.23	325.96	30.73	-40.4	-42.9	13.1	3.50e-05	0	61	0	1434451968	52	4767
2026-01-21 10:32:55.24	326.10	30.54	-40.4	-42.8	13.2	2.44e-05	0	61	0	1437597696	52	4749
2026-01-21 10:32:56.25	326.24	30.37	-40.3	-42.6	13.3	2.21e-05	0	61	0	1440743424	52	4638
2026-01-21 10:32:57.26	326.37	30.19	-40.1	-42.4	13.6	1.44e-05	0	61	0	1443889152	52	4504
2026-01-21 10:32:58.27	326.51	30.01	-40.0	-42.3	13.6	7.60e-06	0	61	0	1447034880	52	4481
2026-01-21 10:32:59.28	326.64	29.83	-40.1	-42.4	13.5	9.90e-06	0	61	0	1450180608	52	4523
2026-01-21 10:33:00.29	326.77	29.66	-40.1	-42.4	13.5	1.14e-05	0	61	0	1453326336	52	4500
2026-01-21 10:33:01.29	326.90	29.48	-40.1	-42.4	13.4	1.37e-05	0	61	0	1456472064	52	4534
2026-01-21 10:33:02.30	327.03	29.31	-40.0	-42.3	13.7	9.10e-06	0	61	0	1459617792	51	4715
2026-01-21 10:33:03.31	327.15	29.14	-40.0	-42.2	13.7	4.50e-06	0	61	0	1462763520	51	4689
2026-01-21 10:33:04.32	327.28	28.96	-40.0	-42.3	13.7	2.20e-06	0	61	0	1465909248	51	4712
2026-01-21 10:33:05.33	327.41	28.79	-40.0	-42.3	13.6	5.30e-06	0	61	0	1469054976	51	4721
2026-01-21 10:33:06.34	327.53	28.62	-40.1	-42.3	13.6	1.37e-05	0	61	0	1472200704	51	4751
2026-01-21 10:33:07.35	327.65	28.45	-40.0	-42.2	13.7	1.22e-05	0	61	0	1475346432	51	4686
2026-01-21 10:33:08.36	327.77	28.28	-40.0	-42.2	13.7	6.80e-06	0	61	0	1478492160	51	4657
2026-01-21 10:33:09.37	327.89	28.12	-40.0	-42.2	13.7	6.80e-06	0	61	0	1481637888	51	4654
2026-01-21 10:33:10.38	328.01	27.95	-39.9	-42.2	13.7	3.80e-06	0	61	0	1484783616	51	4662
2026-01-21 10:33:11.39	328.13	27.78	-40.0	-42.3	13.7	8.30e-06	0	61	0	1487929344	51	4711
2026-01-21 10:33:12.40	328.24	27.62	-40.0	-42.2	13.7	5.30e-06	0	61	0	1491075072	51	4696
2026-01-21 10:33:13.41	328.36	27.45	-40.0	-42.2	13.7	6.10e-06	0	61	0	1494220800	51	4685
2026-01-21 10:33:14.42	328.47	27.29	-40.0	-42.2	13.8	3.00e-06	0	61	0	1497366528	51	4660
2026-01-21 10:33:15.43	328.58	27.13	-40.0	-42.2	13.7	4.50e-06	0	61	0	1500512256	51	4698
2026-01-21 10:33:16.44	328.70	26.97	-40.0	-42.2	13.7	1.50e-06	0	61	0	1503657984	51	4694
2026-01-21 10:33:17.45	328.81	26.81	-39.9	-42.1	13.9	3.80e-06	0	61	0	1506803712	51	4640
2026-01-21 10:33:18.46	328.92	26.65	-39.9	-42.1	13.9	4.50e-06	0	61	0	1509949440	51	4642
2026-01-21 10:33:19.47	329.02	26.49	-39.9	-42.1	13.9	4.50e-06	0	61	0	1513095168	51	4615
2026-01-21 10:33:20.48	329.13	26.33	-39.9	-42.1	13.9	5.30e-06	0	61	0	1516240896	51	4624
2026-01-21 10:33:21.49	329.24	26.17	-39.8	-42.0	14.0	1.50e-06	0	61	0	1519386624	51	4581
2026-01-21 10:33:22.50	329.34	26.02	-39.8	-41.9	14.0	1.50e-06	0	61	0	1522532352	51	4540
2026-01-21 10:33:23.51	329.45	25.86	-39.8	-41.9	14.1	0.00e+00	0	61	0	1525678080	51	4525
2026-01-21 10:33:24.51	329.55	25.71	-39.8	-42.0	14.0	5.30e-06	0	61	0	1528823808	51	4546
2026-01-21 10:33:25.52	329.65	25.55	-39.7	-41.9	14.1	7.00e-07	0	61	0	1531969536	51	4506
2026-01-21 10:33:26.53	329.75	25.40	-39.9	-42.1	13.8	4.50e-06	0	61	0	1535115264	51	4624
2026-01-21 10:33:27.54	329.85	25.25	-39.9	-42.1	13.9	6.10e-06	0	61	0	1538260992	51	4607
2026-01-21 10:33:28.55	329.95	25.09	-39.9	-42.1	13.9	3.00e-06	0	61	0	1541406720	51	4614
2026-01-21 10:33:29.56	330.05	24.94	-39.8	-42.0	13.9	1.50e-06	0	61	0	1544552448	51	4587
2026-01-21 10:33:30.57	330.15	24.79	-39.8	-42.0	13.9	3.80e-06	0	61	0	1547698176	51	4576
2026-01-21 10:33:31.58	330.25	24.64	-39.7	-41.9	14.0	5.30e-06	0	61	0	1550843904	51	4520
2026-01-21 10:33:32.59	330.34	24.50	-39.8	-42.0	14.0	3.00e-06	0	61	0	1553989632	51	4551
2026-01-21 10:33:33.60	330.44	24.35	-39.7	-41.9	14.1	7.00e-07	0	61	0	1557135360	51	4499
2026-01-21 10:33:34.61	330.53	24.20	-39.6	-41.8	14.2	7.00e-07	0	61	0	1560281088	51	4455
2026-01-21 10:33:35.62	330.63	24.05	-39.6	-41.8	14.1	7.00e-07	0	61	0	1563426816	51	4456
2026-01-21 10:33:36.63	330.72	23.91	-39.6	-41.8	14.1	1.50e-06	0	61	0	1567621120	51	4446
2026-01-21 10:33:37.64	330.81	23.76	-39.6	-41.8	14.1	7.00e-07	0	61	0	1570766848	51	4453
2026-01-21 10:33:38.65	330.90	23.62	-39.7	-41.9	14.0	3.80e-06	0	61	0	1572864000	51	4516
2026-01-21 10:33:39.66	330.99	23.48	-39.8	-42.0	13.9	7.00e-07	0	61	0	1576009728	51	4566
2026-01-21 10:33:40.67	331.08	23.33	-39.8	-42.0	13.9	3.00e-06	0	61	0	1579155456	51	4569
2026-01-21 10:33:41.68	331.17	23.19	-39.8	-42.0	13.8	2.20e-06	0	61	0	1583349760	51	4564
2026-01-21 10:33:42.69	331.26	23.05	-39.8	-41.9	13.9	4.50e-06	0	61	0	1586495488	51	4544
2026-01-21 10:33:43.70	331.34	22.91	-39.8	-42.0	13.8	3.80e-06	0	61	0	1589641216	51	4593
2026-01-21 10:33:44.71	331.43	22.77	-39.8	-42.0	13.8	6.10e-06	0	61	0	1592786944	51	4584
2026-01-21 10:33:45.72	331.52	22.63	-39.8	-42.0	13.9	8.30e-06	0	61	0	1595932672	51	4552
2026-01-21 10:33:46.73	331.60	22.49	-39.7	-41.9	13.9	3.80e-06	0	61	0	1599078400	51	4542
2026-01-21 10:33:47.74	331.69	22.36	-39.7	-41.9	13.9	3.00e-06	0	61	0	1602224128	51	4531
2026-01-21 10:33:48.75	331.77	22.22	-39.7	-41.9	13.9	1.50e-06	0	61	0	1605369856	51	4527
2026-01-21 10:33:49.76	331.85	22.08	-39.7	-41.9	13.9	3.00e-06	0	61	0	1608515584	51	4511
2026-01-21 10:33:50.77	331.93	21.95	-39.7	-41.9	13.8	3.00e-06	0	61	0	1611661312	51	4544
2026-01-21 10:33:51.78	332.02	21.81	-39.7	-41.9	13.9	5.30e-06	0	61	0	1614807040	51	4536
2026-01-21 10:33:52.79	332.10	21.68	-39.7	-41.9	13.8	2.20e-06	0	61	0	1617952768	51	4533
2026-01-21 10:33:53.80	332.18	21.54	-39.8	-42.0	13.7	3.80e-06	0	61	0	1621098496	51	4597
2026-01-21 10:33:54.80	332.26	21.41	-39.8	-42.0	13.8	2.20e-06	0	61	0	1624244224	51	4555
2026-01-21 10:33:55.81	332.33	21.28	-39.8	-42.0	13.8	5.30e-06	0	61	0	1627389952	51	4553
2026-01-21 10:33:56.82	332.41	21.15	-39.8	-42.0	13.8	2.20e-06	0	61	0	1630535680	51	4562
2026-01-21 10:33:57.83	332.49	21.02	-39.8	-42.1	13.7	5.30e-06	0	61	0	1633681408	51	4602
2026-01-21 10:33:58.84	332.57	20.89	-39.8	-42.1	13.7	6.80e-06	0	61	0	1636827136	51	4626
2026-01-21 10:33:59.86	332.64	20.75	-39.9	-42.2	13.6	6.80e-06	0	61	0	1639972864	51	4673
2026-01-21 10:34:00.86	332.72	20.63	-39.8	-42.1	13.6	7.60e-06	0	61	0	1643118592	51	4634
2026-01-21 10:34:01.87	332.79	20.50	-39.9	-42.1	13.6	1.14e-05	0	61	0	1646264320	51	4651
2026-01-21 10:34:02.88	332.87	20.37	-39.8	-42.1	13.6	7.60e-06	0	61	0	1649410048	51	4643
2026-01-21 10:34:03.90	332.94	20.24	-39.9	-42.2	13.5	1.06e-05	0	61	0	1652555776	51	4683
2026-01-21 10:34:04.90	333.02	20.12	-39.8	-42.1	13.6	6.10e-06	0	61	0	1655701504	51	4641
2026-01-21 10:34:05.91	333.09	19.99	-39.9	-42.2	13.4	1.52e-05	0	61	0	1658847232	51	4696
2026-01-21 10:34:06.93	333.16	19.86	-39.9	-42.2	13.5	1.22e-05	0	61	0	1661992960	51	4673
2026-01-21 10:34:07.94	333.23	19.74	-39.9	-42.2	13.4	1.75e-05	0	61	0	1665138688	51	4696
2026-01-21 10:34:08.94	333.31	19.61	-39.9	-42.3	13.3	1.06e-05	0	61	0	1668284416	51	4717
2026-01-21 10:34:09.96	333.38	19.49	-40.0	-42.4	13.2	1.83e-05	0	61	0	1671430144	51	4785
2026-01-21 10:34:10.97	333.45	19.37	-40.0	-42.4	13.2	3.50e-05	0	61	0	1674575872	51	4789
2026-01-21 10:34:11.98	333.52	19.24	-40.0	-42.4	13.2	1.90e-05	0	61	0	1677721600	51	4775
2026-01-21 10:34:12.99	333.59	19.12	-39.9	-42.2	13.3	9.90e-06	0	61	0	1680867328	51	4684
2026-01-21 10:34:13.99	333.65	19.00	-39.9	-42.3	13.3	1.83e-05	0	61	0	1684013056	51	4715
2026-01-21 10:34:15.00	333.72	18.88	-39.9	-42.3	13.3	1.83e-05	0	61	0	1687158784	51	4725
2026-01-21 10:34:16.01	333.79	18.76	-40.0	-42.4	13.1	2.13e-05	0	61	0	1690304512	51	4790
2026-01-21 10:34:17.02	333.86	18.64	-40.0	-42.5	13.1	2.74e-05	0	61	0	1693450240	51	4817
2026-01-21 10:34:18.03	333.92	18.52	-40.0	-42.5	13.0	3.58e-05	0	61	0	1696595968	51	4815
2026-01-21 10:34:19.04	333.99	18.40	-40.1	-42.6	12.9	4.42e-05	0	61	0	1699741696	51	4890
2026-01-21 10:34:20.05	334.05	18.28	-40.2	-42.7	12.8	5.64e-05	0	61	0	1702887424	51	4932
2026-01-21 10:34:21.06	334.12	18.17	-40.0	-42.5	13.0	5.18e-05	0	61	0	1706033152	51	4830
2026-01-21 10:34:22.07	334.18	18.05	-40.1	-42.6	12.8	3.89e-05	0	61	0	1709178880	51	4915
2026-01-21 10:34:23.08	334.25	17.93	-40.1	-42.6	12.8	4.88e-05	0	61	0	1712324608	51	4889
2026-01-21 10:34:24.09	334.31	17.82	-40.2	-42.7	12.8	7.24e-05	0	61	0	1715470336	51	4948
2026-01-21 10:34:25.10	334.38	17.70	-40.2	-42.8	12.7	8.01e-05	0	61	0	1718616064	51	4987
2026-01-21 10:34:26.11	334.44	17.59	-40.1	-42.6	12.8	6.40e-05	0	61	0	1721761792	51	4900
2026-01-21 10:34:27.12	334.50	17.47	-40.1	-42.7	12.7	6.56e-05	0	61	0	1724907520	51	4936
2026-01-21 10:34:28.13	334.56	17.36	-40.2	-42.7	12.7	6.02e-05	0	61	0	1728053248	51	4965
2026-01-21 10:34:29.14	334.62	17.24	-40.2	-42.8	12.6	1.02e-04	0	61	0	1731198976	51	5013
2026-01-21 10:34:30.15	334.69	17.13	-40.2	-42.8	12.6	9.99e-05	0	61	0	1734344704	51	4998
2026-01-21 10:34:31.16	334.75	17.02	-40.2	-42.8	12.6	9.00e-05	0	61	0	1737490432	51	5009
2026-01-21 10:34:32.17	334.81	16.91	-40.2	-42.7	12.6	1.08e-04	0	61	0	1740636160	51	4975
2026-01-21 10:34:33.18	334.87	16.79	-40.2	-42.8	12.5	9.07e-05	0	61	0	1743781888	51	4994
2026-01-21 10:34:34.19	334.93	16.68	-40.3	-42.9	12.4	1.34e-04	0	61	0	1746927616	51	5076
2026-01-21 10:34:35.20	334.98	16.57	-40.3	-43.0	12.2	1.72e-04	0	61	0	1750073344	51	5158
2026-01-21 10:34:36.21	335.04	16.46	-40.3	-43.0	12.3	2.05e-04	0	61	0	1753219072	51	5132
2026-01-21 10:34:37.22	335.10	16.35	-40.3	-43.0	12.3	1.61e-04	0	61	0	1756364800	51	5115
2026-01-21 10:34:38.23	335.16	16.24	-40.2	-42.9	12.4	1.69e-04	0	61	0	1759510528	51	5074
2026-01-21 10:34:39.24	335.22	16.13	-40.3	-43.0	12.3	1.77e-04	0	61	0	1762656256	51	5130
2026-01-21 10:34:40.25	335.27	16.03	-40.4	-43.1	12.1	2.25e-04	0	61	0	1765801984	51	5195
2026-01-21 10:34:41.26	335.33	15.92	-40.4	-43.1	12.1	2.47e-04	0	61	0	1768947712	51	5213
2026-01-21 10:34:42.27	335.39	15.81	-40.4	-43.2	12.0	2.89e-04	0	61	0	1772093440	51	5231
2026-01-21 10:34:43.28	335.44	15.70	-40.3	-43.1	12.1	2.80e-04	0	61	0	1775239168	51	5177
2026-01-21 10:34:44.29	335.50	15.60	-40.4	-43.2	12.0	2.97e-04	0	61	0	1778384896	51	5233
2026-01-21 10:34:45.30	335.55	15.49	-40.3	-43.1	12.1	2.70e-04	0	61	0	1781530624	51	5166
2026-01-21 10:34:46.31	335.61	15.39	-40.4	-43.2	11.9	3.61e-04	0	61	0	1784676352	51	5231
2026-01-21 10:34:47.32	335.66	15.28	-40.4	-43.3	11.8	4.45e-04	0	61	0	1787822080	51	5312
2026-01-21 10:34:48.32	335.72	15.18	-40.4	-43.3	11.8	4.76e-04	0	61	0	1790967808	51	5324
2026-01-21 10:34:49.34	335.77	15.07	-40.5	-43.4	11.7	6.19e-04	0	61	0	1794113536	51	5358
2026-01-21 10:34:50.34	335.82	14.97	-40.4	-43.3	11.7	5.06e-04	0	61	0	1797259264	51	5330
2026-01-21 10:34:51.35	335.88	14.87	-40.4	-43.3	11.8	4.72e-04	0	61	0	1800404992	51	5281
2026-01-21 10:34:52.36	335.93	14.76	-40.4	-43.3	11.8	4.63e-04	0	61	0	1803550720	51	5280
2026-01-21 10:34:53.37	335.98	14.66	-40.3	-43.1	11.9	4.36e-04	0	61	0	1806696448	51	5207
2026-01-21 10:34:54.38	336.03	14.56	-40.3	-43.2	11.8	4.44e-04	0	61	0	1809842176	51	5249
2026-01-21 10:34:55.39	336.09	14.46	-40.4	-43.3	11.7	4.94e-04	0	61	0	1812987904	51	5288
2026-01-21 10:34:56.40	336.14	14.35	-40.4	-43.3	11.7	5.57e-04	0	61	0	1816133632	51	5290
2026-01-21 10:34:57.41	336.19	14.25	-40.3	-43.2	11.7	5.89e-04	0	61	0	1819279360	51	5250
2026-01-21 10:34:58.42	336.24	14.15	-40.3	-43.3	11.7	5.70e-04	0	61	0	1822425088	51	5280
2026-01-21 10:34:59.43	336.29	14.05	-40.4	-43.3	11.6	6.90e-04	0	61	0	1825570816	51	5327
2026-01-21 10:35:00.44	336.34	13.95	-40.4	-43.3	11.6	6.57e-04	0	61	0	1828716544	51	5312
2026-01-21 10:35:01.45	336.39	13.85	-40.3	-43.3	11.6	7.15e-04	0	61	0	1831862272	51	5301
2026-01-21 10:35:02.46	336.44	13.75	-40.3	-43.3	11.6	6.29e-04	0	61	0	1835008000	51	5296
2026-01-21 10:35:03.47	336.49	13.66	-40.2	-43.1	11.8	4.83e-04	0	61	0	1838153728	51	5191
2026-01-21 10:35:04.48	336.54	13.56	-40.2	-43.0	11.8	4.42e-04	0	61	0	1841299456	51	5154
2026-01-21 10:35:05.49	336.59	13.46	-40.2	-43.0	11.8	4.49e-04	0	61	0	1844445184	51	5144
2026-01-21 10:35:06.50	336.64	13.36	-40.2	-43.0	11.8	3.77e-04	0	61	0	1847590912	51	5139
2026-01-21 10:35:07.51	336.68	13.26	-40.2	-43.2	11.6	6.43e-04	0	61	0	1850736640	51	5237
2026-01-21 10:35:08.52	336.73	13.17	-40.3	-43.2	11.6	7.03e-04	0	61	0	1853882368	51	5276
2026-01-21 10:35:09.53	336.78	13.07	-40.3	-43.3	11.5	8.19e-04	0	61	0	1857028096	51	5307
2026-01-21 10:35:10.54	336.83	12.98	-40.4	-43.4	11.3	9.25e-04	0	61	0	1860173824	51	5402
2026-01-21 10:35:11.55	336.87	12.88	-40.4	-43.5	11.3	1.18e-03	0	61	0	1863319552	51	5415
2026-01-21 10:35:12.56	336.92	12.78	-40.5	-43.6	11.1	1.45e-03	0	61	0	1866465280	51	5487
2026-01-21 10:35:13.57	336.97	12.69	-40.5	-43.6	11.1	1.74e-03	0	61	0	1869611008	51	5520
2026-01-21 10:35:14.58	337.01	12.60	-40.4	-43.4	11.3	1.12e-03	0	61	0	1872756736	51	5382
2026-01-21 10:35:15.58	337.06	12.50	-40.3	-43.3	11.4	9.40e-04	0	61	0	1875902464	51	5311
2026-01-21 10:35:16.59	337.10	12.41	-40.2	-43.2	11.5	8.80e-04	0	61	0	1879048192	51	5241
2026-01-21 10:35:17.60	337.15	12.31	-40.1	-43.0	11.6	8.06e-04	0	61	0	1882193920	51	5150
2026-01-21 10:35:18.61	337.19	12.22	-40.0	-42.9	11.6	6.57e-04	0	61	0	1885339648	51	5082
2026-01-21 10:35:19.62	337.24	12.13	-40.0	-42.9	11.6	6.21e-04	0	61	0	1888485376	51	5079
2026-01-21 10:35:20.63	337.28	12.04	-40.1	-43.0	11.5	7.39e-04	0	61	0	1891631104	51	5145
2026-01-21 10:35:21.64	337.33	11.94	-40.1	-43.2	11.3	1.18e-03	0	61	0	1894776832	51	5247
2026-01-21 10:35:22.65	337.37	11.85	-40.3	-43.5	11.0	1.81e-03	0	61	0	1897922560	51	5409
2026-01-21 10:35:23.66	337.42	11.76	-40.3	-43.5	10.8	2.54e-03	0	61	0	1901068288	51	5462
2026-01-21 10:35:24.66	337.46	11.67	-40.4	-43.8	10.6	2.82e-03	0	61	0	1904214016	51	5625
2026-01-21 10:35:25.67	337.50	11.58	-40.5	-43.9	10.3	5.17e-03	0	61	0	1908408320	51	5714
2026-01-21 10:35:26.68	337.55	11.49	-40.5	-44.1	10.1	5.98e-03	0	61	0	1910505472	51	5799
2026-01-21 10:35:27.70	337.59	11.40	-40.6	-44.2	10.0	7.71e-03	0	61	0	1913651200	51	5893
2026-01-21 10:35:28.70	337.63	11.31	-40.6	-44.2	9.9	8.74e-03	0	61	0	1916796928	51	5890
2026-01-21 10:35:29.71	337.67	11.22	-40.6	-44.2	9.9	9.62e-03	0	61	0	1919942656	51	5885
2026-01-21 10:35:30.72	337.72	11.13	-40.5	-44.1	10.0	7.31e-03	0	61	0	1923088384	51	5828
2026-01-21 10:35:31.73	337.76	11.04	-40.4	-44.0	10.0	6.81e-03	0	61	0	1927282688	51	5769
2026-01-21 10:35:32.74	337.80	10.95	-40.4	-44.0	10.0	8.36e-03	0	61	0	1930428416	51	5786
2026-01-21 10:35:33.74	337.84	10.86	-40.3	-43.8	10.2	5.88e-03	0	61	0	1933574144	51	5611
2026-01-21 10:35:34.75	337.88	10.78	-40.2	-43.6	10.4	4.79e-03	0	61	0	1935671296	51	5498
2026-01-21 10:35:35.76	337.92	10.69	-40.2	-43.7	10.3	4.39e-03	0	61	0	1938817024	51	5550
2026-01-21 10:35:36.77	337.97	10.60	-40.1	-43.4	10.7	4.04e-03	0	61	0	1943011328	51	5358
2026-01-21 10:35:37.78	338.01	10.51	-40.0	-43.3	10.7	2.84e-03	0	61	0	1946157056	51	5315
2026-01-21 10:35:38.79	338.05	10.43	-40.0	-43.3	10.6	3.16e-03	0	61	0	1949302784	51	5338
2026-01-21 10:35:39.80	338.09	10.34	-39.9	-43.2	10.7	2.69e-03	0	61	0	1952448512	51	5239
2026-01-21 10:35:40.81	338.13	10.26	-40.0	-43.4	10.5	3.61e-03	0	61	0	1955594240	51	5358
2026-01-21 10:35:41.81	338.17	10.17	-39.9	-43.2	10.7	3.22e-03	0	61	0	1957691392	51	5242
2026-01-21 10:35:42.83	338.21	10.08	-40.0	-43.4	10.4	4.03e-03	0	61	0	1961885696	51	5347
2026-01-21 10:35:43.84	338.25	10.00	-39.8	-43.2	10.6	3.68e-03	0	61	0	1965031424	51	5235
2026-01-21 10:35:44.84	338.28	9.91	-39.9	-43.3	10.4	4.00e-03	0	61	0	1968177152	51	5334
2026-01-21 10:35:45.85	338.32	9.83	-39.9	-43.4	10.3	5.28e-03	0	61	0	1971322880	51	5385
2026-01-21 10:35:46.86	338.36	9.74	-39.9	-43.4	10.3	5.38e-03	0	61	0	1974468608	51	5382
2026-01-21 10:35:47.87	338.40	9.66	-40.0	-43.5	10.1	6.43e-03	0	61	0	1977614336	51	5429
2026-01-21 10:35:48.88	338.44	9.58	-40.1	-43.7	9.9	8.75e-03	0	61	0	1980760064	51	5584
2026-01-21 10:35:49.89	338.48	9.49	-40.1	-43.9	9.7	9.99e-03	0	61	0	1983905792	51	5660
2026-01-21 10:35:50.90	338.52	9.41	-40.2	-44.1	9.5	1.31e-02	0	61	0	1987051520	51	5810
2026-01-21 10:35:51.91	338.55	9.33	-40.0	-43.8	9.8	1.08e-02	0	61	0	1990197248	51	5599
2026-01-21 10:35:52.92	338.59	9.24	-40.2	-44.1	9.4	1.52e-02	0	61	0	1993342976	51	5816
2026-01-21 10:35:53.93	338.63	9.16	-40.2	-44.2	9.3	1.76e-02	0	61	0	1996488704	51	5869
2026-01-21 10:35:54.94	338.67	9.08	-40.3	-44.5	8.9	2.67e-02	0	61	0	1999634432	51	6075
2026-01-21 10:35:55.95	338.70	9.00	-40.3	-44.5	8.8	2.70e-02	0	61	0	2002780160	51	6090
2026-01-21 10:35:56.96	338.74	8.91	-40.3	-44.6	8.7	3.12e-02	0	61	0	2005925888	51	6146
2026-01-21 10:35:57.97	338.78	8.83	-40.4	-44.7	8.5	4.29e-02	0	61	0	2009071616	51	6270
2026-01-21 10:35:58.98	338.81	8.75	-40.5	-45.1	8.1	5.70e-02	0	61	0	2012217344	51	6549
2026-01-21 10:35:59.99	338.85	8.67	-40.5	-45.3	7.9	7.74e-02	0	61	0	2015363072	51	6683
2026-01-21 10:36:01.00	338.89	8.59	-40.6	-45.4	7.7	8.71e-02	0	61	0	2018508800	51	6784
2026-01-21 10:36:02.01	338.92	8.51	-40.7	-45.8	7.3	1.19e-01	0	61	0	2021654528	51	7115
2026-01-21 10:36:03.02	338.96	8.43	-40.7	-46.2	6.9	1.67e-01	0	61	0	2024800256	52	6977
2026-01-21 10:36:04.03	338.99	8.35	-40.7	-46.2	6.7	1.80e-01	0	61	0	2027945984	52	6997
2026-01-21 10:36:05.04	339.03	8.27	-40.8	-46.6	6.4	2.34e-01	0	61	0	2031091712	52	7357
2026-01-21 10:36:06.05	339.06	8.19	-40.8	-46.7	6.3	2.92e-01	0	61	0	2034237440	52	7438
2026-01-21 10:36:07.06	339.10	8.11	-41.1	-51.1	4.0	1.48e+00	0	61	104	2035286016	52	12250
2026-01-21 10:36:08.07	339.13	8.03	-42.0	-52.1	3.8	1.38e+00	0	61	104	2035286016	54	12290
2026-01-21 10:36:09.08	339.17	7.95	-43.7	-55.5	3.8	1.49e+00	0	61	104	2035286016	57	15352
2026-01-21 10:36:10.09	339.20	7.87	-44.4	-56.5	3.8	1.49e+00	0	61	104	2035286016	59	15399
2026-01-21 10:36:11.10	339.24	7.80	-44.7	-57.1	3.8	1.49e+00	0	61	104	2035286016	60	15525
2026-01-21 10:36:12.11	339.27	7.72	-45.0	-57.4	3.8	1.49e+00	0	61	104	2035286016	60	15969
2026-01-21 10:36:13.12	339.31	7.64	-45.1	-57.5	3.8	1.49e+00	0	61	104	2035286016	60	16192
2026-01-21 10:36:14.13	339.34	7.56	-45.2	-57.6	3.8	1.49e+00	0	61	104	2035286016	61	15440
2026-01-21 10:36:15.14	339.37	7.48	-45.3	-57.7	3.8	1.49e+00	0	61	104	2035286016	61	15631
2026-01-21 10:36:16.15	339.41	7.41	-45.3	-57.7	3.8	1.49e+00	0	61	104	2035286016	61	15695
2026-01-21 10:36:17.15	339.44	7.33	-45.4	-57.8	3.8	1.49e+00	0	61	104	2035286016	61	15826
2026-01-21 10:36:18.16	339.47	7.25	-44.6	-57.7	3.8	1.49e+00	0	61	104	2035286016	60	16615
