passes_logs/2026/01/21/R2.0S_Moscow/R2.0S_Moscow__20260121_210649_FENGYUN_3G_rec.log

#Pass ID: 20260121_210649_FENGYUN 3G
#Satellite: FENGYUN 3G
#Configuration: FENGYUN 3G
#almurnet v.1.7.20251203
#Start time: 2026-01-21 21:06:52

#Version: 2.2.20231116
#Station: R2.0S_Moscow
#Location: 37.707566 lon 55.798166 lat
#TLE: 1 56232U 23055A   26020.45159834  .00088200  00000+0  13354-2 0  9997
#TLE: 2 56232  49.9936  27.7990 0004112  56.3402 303.7958 15.53862613157044

#Time	Az	El	Level	Level2	SNR	BER	BlckErr	Temp	State	Recorded	gain1	gain2
2026-01-21 21:06:52.03	255.93	2.14	-44.2	-62.3	3.8	8.46e-01	0	48	0	0	60	28174
2026-01-21 21:06:53.04	255.87	2.21	-44.2	-62.3	3.8	8.44e-01	0	48	104	0	60	28228
2026-01-21 21:06:54.05	255.80	2.28	-44.2	-62.3	3.8	8.45e-01	0	48	104	0	60	28154
2026-01-21 21:06:55.06	255.74	2.34	-44.2	-62.3	3.8	8.46e-01	0	48	104	0	60	28115
2026-01-21 21:06:56.07	255.67	2.41	-44.2	-62.3	3.8	8.46e-01	0	49	104	0	60	28189
2026-01-21 21:06:57.08	255.60	2.48	-44.2	-62.3	3.8	8.46e-01	0	49	104	0	60	28185
2026-01-21 21:06:58.09	255.54	2.55	-44.1	-62.3	3.8	8.46e-01	0	49	104	0	60	28174
2026-01-21 21:06:59.10	255.47	2.61	-44.1	-62.3	3.8	8.46e-01	0	49	104	0	60	28221
2026-01-21 21:07:00.11	255.40	2.68	-44.2	-62.3	3.8	8.45e-01	0	49	104	0	60	28083
2026-01-21 21:07:01.12	255.34	2.75	-44.1	-62.3	3.8	8.47e-01	0	49	104	0	60	28096
2026-01-21 21:07:02.13	255.27	2.82	-44.1	-62.2	3.8	8.47e-01	0	49	104	0	60	28017
2026-01-21 21:07:03.14	255.20	2.89	-44.1	-62.2	3.8	8.46e-01	0	49	104	0	60	27740
2026-01-21 21:07:04.15	255.13	2.96	-44.1	-62.2	3.8	8.45e-01	0	49	104	0	60	27763
2026-01-21 21:07:05.16	255.06	3.03	-44.1	-62.2	3.8	8.45e-01	0	49	104	0	60	27745
2026-01-21 21:07:06.17	254.99	3.10	-44.1	-62.1	3.8	8.46e-01	0	49	104	0	60	27566
2026-01-21 21:07:07.18	254.92	3.16	-44.1	-62.1	3.8	8.46e-01	0	49	104	0	60	27464
2026-01-21 21:07:08.19	254.85	3.23	-44.2	-62.2	3.8	8.46e-01	0	49	104	0	60	27762
2026-01-21 21:07:09.20	254.78	3.30	-44.1	-62.2	3.8	8.46e-01	0	49	104	0	60	27860
2026-01-21 21:07:10.21	254.70	3.37	-44.1	-62.2	3.8	8.46e-01	0	49	104	0	60	27967
2026-01-21 21:07:11.22	254.63	3.45	-44.1	-62.2	3.8	8.44e-01	0	49	104	0	60	28026
2026-01-21 21:07:12.23	254.56	3.52	-44.1	-62.2	3.8	8.44e-01	0	50	104	0	60	27973
2026-01-21 21:07:13.24	254.48	3.59	-44.1	-62.3	3.8	8.46e-01	0	50	104	0	60	28046
2026-01-21 21:07:14.25	254.41	3.66	-44.1	-62.2	3.8	8.46e-01	0	50	104	0	60	27922
2026-01-21 21:07:15.26	254.33	3.73	-44.1	-62.2	3.8	8.46e-01	0	50	104	0	60	27953
2026-01-21 21:07:16.27	254.26	3.80	-44.1	-62.2	3.8	8.47e-01	0	50	104	0	60	27896
2026-01-21 21:07:17.28	254.18	3.87	-44.2	-62.2	3.8	8.47e-01	0	50	104	0	60	27873
2026-01-21 21:07:18.29	254.11	3.95	-44.1	-62.2	3.8	8.46e-01	0	50	104	0	60	27925
2026-01-21 21:07:19.30	254.03	4.02	-44.1	-62.3	3.8	8.46e-01	0	50	104	0	60	28038
2026-01-21 21:07:20.31	253.95	4.09	-44.2	-62.3	3.8	8.45e-01	0	50	104	0	60	28051
2026-01-21 21:07:21.32	253.87	4.16	-44.1	-62.2	3.8	8.46e-01	0	50	104	0	60	27913
2026-01-21 21:07:22.33	253.79	4.24	-44.1	-62.2	3.8	8.46e-01	0	50	104	0	60	27874
2026-01-21 21:07:23.34	253.72	4.31	-44.1	-62.1	3.8	8.46e-01	0	50	104	0	60	27566
2026-01-21 21:07:24.35	253.64	4.38	-44.1	-62.0	3.8	8.46e-01	0	50	104	0	60	27303
2026-01-21 21:07:25.36	253.55	4.46	-44.1	-61.8	3.8	8.46e-01	0	51	104	0	60	26753
2026-01-21 21:07:26.37	253.47	4.53	-44.1	-61.7	3.8	8.46e-01	0	51	104	0	60	26303
2026-01-21 21:07:27.38	253.39	4.61	-44.1	-61.6	3.8	8.47e-01	0	51	104	0	60	25924
2026-01-21 21:07:28.39	253.31	4.68	-44.1	-61.6	3.8	8.47e-01	0	51	104	0	60	26081
2026-01-21 21:07:29.40	253.23	4.76	-44.1	-61.5	3.8	8.46e-01	0	51	104	0	60	25652
2026-01-21 21:07:30.41	253.14	4.83	-44.1	-61.4	3.8	8.47e-01	0	51	104	0	60	25466
2026-01-21 21:07:31.42	253.06	4.91	-44.1	-61.5	3.8	8.46e-01	0	51	104	0	60	25662
2026-01-21 21:07:32.43	252.97	4.98	-44.1	-61.7	3.8	8.46e-01	0	51	104	0	60	26193
2026-01-21 21:07:33.44	252.89	5.06	-44.1	-61.8	3.8	8.45e-01	0	51	104	0	60	26742
2026-01-21 21:07:34.45	252.80	5.14	-44.1	-61.9	3.8	8.47e-01	0	51	104	0	60	26897
2026-01-21 21:07:35.46	252.72	5.21	-44.1	-61.9	3.8	8.47e-01	0	51	104	0	60	26783
2026-01-21 21:07:36.47	252.63	5.29	-44.1	-61.6	3.8	8.45e-01	0	51	104	0	60	26073
2026-01-21 21:07:37.48	252.54	5.37	-44.1	-61.2	3.8	8.46e-01	0	51	104	0	60	24820
2026-01-21 21:07:38.49	252.45	5.45	-44.1	-60.7	3.8	8.46e-01	0	51	104	0	60	23540
2026-01-21 21:07:39.50	252.36	5.53	-44.1	-60.4	3.8	8.47e-01	0	51	104	0	60	22596
2026-01-21 21:07:40.51	252.27	5.60	-44.1	-59.8	3.8	8.44e-01	0	51	104	0	60	21098
2026-01-21 21:07:41.52	252.18	5.68	-44.1	-59.4	3.9	8.44e-01	0	51	104	0	60	20107
2026-01-21 21:07:42.53	252.09	5.76	-44.1	-59.0	4.1	8.44e-01	0	51	104	0	60	19265
2026-01-21 21:07:43.54	252.00	5.84	-44.0	-58.9	4.2	8.40e-01	0	51	0	0	60	19031
2026-01-21 21:07:44.55	251.90	5.92	-44.0	-58.7	4.2	8.39e-01	0	51	0	0	60	18728
2026-01-21 21:07:45.56	251.81	6.00	-44.0	-58.7	4.2	8.39e-01	0	51	0	0	60	18718
2026-01-21 21:07:46.57	251.71	6.08	-44.0	-58.5	4.3	8.38e-01	0	51	0	0	60	18265
2026-01-21 21:07:47.58	251.62	6.16	-44.0	-58.4	4.3	8.35e-01	0	52	0	0	60	17946
2026-01-21 21:07:48.59	251.52	6.24	-44.0	-58.0	4.4	8.35e-01	0	52	0	0	60	17192
2026-01-21 21:07:49.60	251.43	6.32	-44.0	-57.9	4.5	8.32e-01	0	52	0	0	60	16954
2026-01-21 21:07:50.61	251.33	6.40	-44.0	-57.2	4.7	8.24e-01	0	52	0	0	59	16629
2026-01-21 21:07:51.62	251.23	6.49	-44.0	-56.3	5.2	8.24e-01	0	52	0	0	59	14987
2026-01-21 21:07:52.63	251.13	6.57	-43.9	-55.0	6.1	7.74e-01	0	52	0	0	59	12908
2026-01-21 21:07:53.64	251.03	6.65	-43.7	-53.8	7.1	4.28e-01	0	52	0	1048576	59	11283
2026-01-21 21:07:54.65	250.93	6.73	-43.6	-52.7	8.3	4.28e-01	0	52	0	2621440	59	9859
2026-01-21 21:07:55.66	250.83	6.82	-43.4	-51.5	9.5	9.73e-02	0	52	0	3670016	58	9094
2026-01-21 21:07:56.68	250.72	6.90	-43.2	-50.8	10.3	2.10e-02	0	52	0	4718592	58	8406
2026-01-21 21:07:57.69	250.62	6.99	-43.2	-50.5	10.6	5.19e-03	0	52	0	5767168	58	8117
2026-01-21 21:07:58.70	250.52	7.07	-43.2	-50.4	10.7	5.19e-03	0	52	0	6815744	58	8058
2026-01-21 21:07:59.71	250.41	7.15	-43.3	-50.9	10.2	2.76e-03	0	52	0	7864320	58	8546
2026-01-21 21:08:00.72	250.30	7.24	-43.5	-52.0	9.1	7.27e-03	0	52	0	9437184	58	9623
2026-01-21 21:08:01.73	250.20	7.33	-43.7	-53.5	7.6	7.27e-03	0	52	0	10485760	58	11438
2026-01-21 21:08:02.74	250.09	7.41	-44.0	-56.1	5.4	5.47e-02	0	52	0	11534336	58	15478
2026-01-21 21:08:03.75	249.98	7.50	-44.2	-59.4	4.0	5.54e-01	0	52	0	11534336	58	22777
2026-01-21 21:08:04.76	249.87	7.58	-44.2	-59.4	4.0	5.54e-01	0	52	104	11534336	58	22603
2026-01-21 21:08:05.77	249.76	7.67	-43.9	-55.6	5.6	8.42e-01	0	52	0	11534336	58	14567
2026-01-21 21:08:06.78	249.65	7.76	-43.5	-52.0	8.8	5.44e-01	0	52	0	12582912	58	9692
2026-01-21 21:08:07.79	249.54	7.85	-42.9	-49.4	11.5	5.44e-01	0	52	0	13631488	57	7627
2026-01-21 21:08:08.80	249.42	7.93	-42.4	-48.0	13.1	2.40e-02	0	52	0	14680064	56	6841
2026-01-21 21:08:09.81	249.31	8.02	-42.0	-46.9	14.3	1.90e-04	0	52	0	15728640	56	6008
2026-01-21 21:08:10.82	249.19	8.11	-43.1	-50.0	11.5	2.86e-05	0	52	0	16777216	56	8609
2026-01-21 21:08:11.83	249.08	8.20	-43.4	-51.1	10.0	2.86e-05	0	53	0	18350080	57	9202
2026-01-21 21:08:12.84	248.96	8.29	-43.7	-53.6	8.0	4.93e-03	0	52	0	19398656	57	12354
2026-01-21 21:08:13.84	248.84	8.38	-44.2	-58.4	4.8	1.05e-01	0	53	0	20447232	58	20122
2026-01-21 21:08:14.85	248.72	8.47	-41.9	-46.8	14.5	1.05e-01	0	52	0	20447232	54	6674
2026-01-21 21:08:15.86	248.60	8.56	-41.4	-45.7	15.3	3.19e-01	0	53	0	21495808	54	5915
2026-01-21 21:08:16.87	248.48	8.65	-41.4	-45.7	15.4	5.70e-06	0	53	0	23068672	54	5897
2026-01-21 21:08:17.88	248.36	8.74	-41.1	-45.0	16.1	5.70e-06	0	53	0	24117248	54	5455
2026-01-21 21:08:18.89	248.24	8.83	-40.9	-44.6	16.5	0.00e+00	0	53	0	25165824	53	5516
2026-01-21 21:08:19.90	248.11	8.93	-40.7	-44.4	16.8	0.00e+00	0	53	0	26214400	53	5365
2026-01-21 21:08:20.91	247.99	9.02	-40.7	-44.3	16.9	0.00e+00	0	53	0	27262976	53	5321
2026-01-21 21:08:21.92	247.86	9.11	-40.6	-44.0	17.2	0.00e+00	0	53	0	28311552	53	5136
2026-01-21 21:08:22.93	247.73	9.21	-40.6	-44.1	17.1	0.00e+00	0	53	0	29884416	53	5200
2026-01-21 21:08:23.94	247.60	9.30	-40.6	-44.0	17.3	0.00e+00	0	53	0	30932992	53	5134
2026-01-21 21:08:24.95	247.47	9.39	-40.6	-44.1	17.2	0.00e+00	0	53	0	31981568	53	5163
2026-01-21 21:08:25.96	247.34	9.49	-40.5	-43.9	17.3	0.00e+00	0	53	0	33030144	53	5098
2026-01-21 21:08:26.97	247.21	9.58	-40.6	-44.1	17.2	0.00e+00	0	53	0	34078720	53	5184
2026-01-21 21:08:27.98	247.07	9.68	-40.6	-44.0	17.3	0.00e+00	0	53	0	35127296	53	5130
2026-01-21 21:08:28.99	246.94	9.78	-40.6	-44.0	17.2	0.00e+00	0	53	0	36700160	53	5147
2026-01-21 21:08:29.99	246.80	9.87	-40.7	-44.2	17.1	0.00e+00	0	53	0	37748736	53	5222
2026-01-21 21:08:31.00	246.66	9.97	-40.6	-44.1	17.2	0.00e+00	0	53	0	38797312	53	5184
2026-01-21 21:08:32.01	246.53	10.07	-40.6	-44.1	17.2	0.00e+00	0	53	0	39845888	53	5196
2026-01-21 21:08:33.02	246.39	10.17	-40.7	-44.2	17.2	0.00e+00	0	53	0	40894464	53	5224
2026-01-21 21:08:34.03	246.24	10.26	-40.5	-43.9	17.5	0.00e+00	0	53	0	41943040	53	5054
2026-01-21 21:08:35.04	246.10	10.36	-40.6	-44.0	17.3	0.00e+00	0	53	0	43515904	53	5146
2026-01-21 21:08:36.05	245.96	10.46	-40.5	-43.9	17.5	0.00e+00	0	53	0	44564480	53	5056
2026-01-21 21:08:37.06	245.81	10.56	-40.5	-43.9	17.5	0.00e+00	0	53	0	45613056	53	5049
2026-01-21 21:08:38.07	245.67	10.66	-40.4	-43.6	17.8	0.00e+00	0	53	0	46661632	52	5190
2026-01-21 21:08:39.08	245.52	10.76	-40.3	-43.6	17.8	0.00e+00	0	53	0	47710208	52	5163
2026-01-21 21:08:40.09	245.37	10.86	-40.4	-43.6	17.8	0.00e+00	0	53	0	48758784	52	5197
2026-01-21 21:08:41.10	245.22	10.97	-40.4	-43.6	17.7	0.00e+00	0	53	0	50331648	52	5215
2026-01-21 21:08:42.11	245.06	11.07	-40.5	-43.8	17.6	0.00e+00	0	54	0	51380224	52	5331
2026-01-21 21:08:43.12	244.91	11.17	-40.5	-43.8	17.6	0.00e+00	0	54	0	52428800	52	5292
2026-01-21 21:08:44.13	244.76	11.27	-40.5	-43.8	17.7	0.00e+00	0	54	0	53477376	52	5292
2026-01-21 21:08:45.14	244.60	11.38	-40.5	-43.8	17.6	0.00e+00	0	54	0	54525952	52	5326
2026-01-21 21:08:46.14	244.44	11.48	-40.5	-43.7	17.7	0.00e+00	0	54	0	55574528	52	5251
2026-01-21 21:08:47.15	244.28	11.59	-40.5	-43.7	17.7	0.00e+00	0	54	0	57147392	52	5255
2026-01-21 21:08:48.16	244.12	11.69	-40.3	-43.5	17.9	0.00e+00	0	54	0	58195968	52	5111
2026-01-21 21:08:49.17	243.96	11.80	-40.1	-43.1	18.4	0.00e+00	0	54	0	59244544	52	4889
2026-01-21 21:08:50.18	243.79	11.90	-40.1	-43.0	18.5	0.00e+00	0	54	0	60293120	51	5122
2026-01-21 21:08:51.19	243.63	12.01	-40.0	-43.0	18.5	0.00e+00	0	54	0	61341696	51	5119
2026-01-21 21:08:52.20	243.46	12.12	-40.1	-43.0	18.5	0.00e+00	0	54	0	62390272	51	5154
2026-01-21 21:08:53.21	243.29	12.22	-40.1	-43.0	18.5	0.00e+00	0	54	0	63963136	51	5153
2026-01-21 21:08:54.22	243.12	12.33	-40.1	-43.1	18.5	0.00e+00	0	54	0	65011712	51	5168
2026-01-21 21:08:55.23	242.95	12.44	-40.1	-43.0	18.5	0.00e+00	0	54	0	66060288	51	5145
2026-01-21 21:08:56.24	242.77	12.55	-40.2	-43.1	18.4	0.00e+00	0	54	0	67108864	51	5207
2026-01-21 21:08:57.25	242.60	12.66	-40.1	-43.1	18.5	0.00e+00	0	54	0	68157440	51	5173
2026-01-21 21:08:58.26	242.42	12.77	-40.2	-43.1	18.4	0.00e+00	0	54	0	69206016	51	5213
2026-01-21 21:08:59.27	242.24	12.88	-40.2	-43.2	18.4	0.00e+00	0	54	0	70778880	51	5235
2026-01-21 21:09:00.28	242.06	12.99	-40.1	-43.1	18.4	0.00e+00	0	54	0	71827456	51	5198
2026-01-21 21:09:01.29	241.88	13.11	-40.1	-43.0	18.6	0.00e+00	0	54	0	72876032	51	5112
2026-01-21 21:09:02.30	241.69	13.22	-40.1	-43.1	18.5	0.00e+00	0	54	0	73924608	51	5173
2026-01-21 21:09:03.31	241.50	13.33	-40.0	-42.9	18.7	0.00e+00	0	54	0	74973184	51	5071
2026-01-21 21:09:04.32	241.31	13.44	-40.0	-42.8	18.8	0.00e+00	0	54	0	76021760	51	5032
2026-01-21 21:09:05.33	241.12	13.56	-39.9	-42.6	18.9	0.00e+00	0	54	0	77594624	51	4925
2026-01-21 21:09:06.34	240.93	13.67	-39.8	-42.5	19.1	0.00e+00	0	54	0	78643200	51	4843
2026-01-21 21:09:07.35	240.74	13.79	-39.9	-42.7	18.9	0.00e+00	0	54	0	79691776	51	4932
2026-01-21 21:09:08.36	240.54	13.90	-39.8	-42.6	19.0	0.00e+00	0	54	0	80740352	51	4902
2026-01-21 21:09:09.37	240.34	14.02	-39.9	-42.7	18.9	0.00e+00	0	54	0	81788928	51	4978
2026-01-21 21:09:10.38	240.14	14.14	-39.9	-42.7	19.0	0.00e+00	0	54	0	82837504	51	4942
2026-01-21 21:09:11.39	239.94	14.25	-39.8	-42.6	19.1	0.00e+00	0	54	0	84410368	51	4884
2026-01-21 21:09:12.40	239.73	14.37	-39.9	-42.7	19.0	0.00e+00	0	54	0	85458944	51	4975
2026-01-21 21:09:13.41	239.53	14.49	-39.9	-42.7	19.0	0.00e+00	0	54	0	86507520	51	4945
2026-01-21 21:09:14.41	239.32	14.61	-39.8	-42.5	19.1	0.00e+00	0	54	0	87556096	51	4848
2026-01-21 21:09:15.42	239.11	14.73	-39.7	-42.4	19.3	0.00e+00	0	54	0	88604672	51	4768
2026-01-21 21:09:16.43	238.90	14.85	-39.5	-42.2	19.5	0.00e+00	0	54	0	89653248	51	4664
2026-01-21 21:09:17.44	238.68	14.97	-39.5	-42.1	19.6	0.00e+00	0	54	0	91226112	51	4636
2026-01-21 21:09:18.45	238.46	15.09	-39.5	-42.2	19.6	0.00e+00	0	54	0	92274688	51	4653
2026-01-21 21:09:19.46	238.24	15.21	-39.5	-42.0	19.7	0.00e+00	0	55	0	93323264	50	4862
2026-01-21 21:09:20.47	238.02	15.33	-39.5	-42.0	19.7	0.00e+00	0	54	0	94371840	50	4853
2026-01-21 21:09:21.48	237.79	15.45	-39.5	-42.1	19.7	0.00e+00	0	54	0	95420416	50	4889
2026-01-21 21:09:22.49	237.57	15.58	-39.5	-42.1	19.7	0.00e+00	0	54	0	96468992	50	4886
2026-01-21 21:09:23.50	237.34	15.70	-39.5	-42.0	19.7	0.00e+00	0	54	0	98041856	50	4853
2026-01-21 21:09:24.51	237.11	15.82	-39.6	-42.2	19.6	0.00e+00	0	55	0	99090432	50	4935
2026-01-21 21:09:25.52	236.87	15.95	-39.5	-42.0	19.7	0.00e+00	0	54	0	100139008	50	4862
2026-01-21 21:09:26.53	236.63	16.07	-39.4	-42.0	19.8	0.00e+00	0	55	0	101187584	50	4828
2026-01-21 21:09:27.54	236.39	16.20	-39.4	-41.9	19.9	0.00e+00	0	55	0	102236160	50	4801
2026-01-21 21:09:28.55	236.15	16.33	-39.4	-41.9	19.9	0.00e+00	0	54	0	103284736	50	4776
2026-01-21 21:09:29.56	235.91	16.45	-39.1	-41.4	20.3	0.00e+00	0	55	0	104857600	50	4544
2026-01-21 21:09:30.57	235.66	16.58	-38.8	-41.1	20.6	0.00e+00	0	55	0	105906176	49	4639
2026-01-21 21:09:31.58	235.41	16.71	-38.8	-41.0	20.7	0.00e+00	0	55	0	106954752	49	4598
2026-01-21 21:09:32.59	235.16	16.84	-38.8	-41.1	20.7	0.00e+00	0	55	0	108003328	49	4618
2026-01-21 21:09:33.60	234.90	16.96	-39.0	-41.4	20.4	0.00e+00	0	55	0	109051904	49	4793
2026-01-21 21:09:34.61	234.64	17.09	-39.1	-41.6	20.2	0.00e+00	0	55	0	110100480	49	4886
2026-01-21 21:09:35.62	234.38	17.22	-39.1	-41.6	20.3	0.00e+00	0	55	0	111673344	49	4874
2026-01-21 21:09:36.63	234.12	17.35	-39.2	-41.7	20.1	0.00e+00	0	55	0	112721920	49	4940
2026-01-21 21:09:37.64	233.85	17.48	-39.2	-41.6	20.2	0.00e+00	0	55	0	113770496	49	4900
2026-01-21 21:09:38.65	233.58	17.61	-39.1	-41.5	20.3	0.00e+00	0	55	0	114819072	49	4843
2026-01-21 21:09:39.65	233.31	17.75	-39.0	-41.3	20.5	0.00e+00	0	55	0	115867648	49	4758
2026-01-21 21:09:40.66	233.04	17.88	-38.8	-41.1	20.6	0.00e+00	0	55	0	116916224	49	4648
2026-01-21 21:09:41.67	232.76	18.01	-38.6	-40.8	21.0	0.00e+00	0	55	0	118489088	49	4457
2026-01-21 21:09:42.69	232.48	18.14	-38.7	-40.9	20.8	0.00e+00	0	55	0	119537664	49	4545
2026-01-21 21:09:43.69	232.19	18.28	-38.7	-41.0	20.8	0.00e+00	0	55	0	120586240	49	4558
2026-01-21 21:09:44.70	231.91	18.41	-38.7	-40.9	20.9	0.00e+00	0	54	0	121634816	49	4526
2026-01-21 21:09:45.71	231.62	18.54	-38.8	-41.1	20.8	0.00e+00	0	55	0	122683392	49	4619
2026-01-21 21:09:46.72	231.32	18.68	-39.0	-41.4	20.5	0.00e+00	0	55	0	123731968	49	4766
2026-01-21 21:09:47.73	231.03	18.81	-38.9	-41.3	20.6	0.00e+00	0	55	0	125304832	49	4710
2026-01-21 21:09:48.74	230.73	18.95	-38.7	-41.0	20.9	0.00e+00	0	55	0	126353408	49	4559
2026-01-21 21:09:49.75	230.42	19.08	-38.8	-41.0	20.9	0.00e+00	0	55	0	127401984	49	4585
2026-01-21 21:09:50.76	230.11	19.22	-38.7	-41.0	20.9	0.00e+00	0	55	0	128450560	49	4558
2026-01-21 21:09:51.77	229.80	19.35	-38.5	-40.7	21.1	0.00e+00	0	55	0	129499136	49	4430
2026-01-21 21:09:52.77	229.49	19.49	-38.5	-40.7	21.2	0.00e+00	0	55	0	130547712	49	4394
2026-01-21 21:09:53.78	229.18	19.62	-38.3	-40.4	21.4	0.00e+00	0	55	0	132120576	48	4541
2026-01-21 21:09:54.79	228.86	19.76	-38.3	-40.4	21.5	0.00e+00	0	55	0	133169152	48	4534
2026-01-21 21:09:55.80	228.53	19.90	-38.4	-40.6	21.3	0.00e+00	0	55	0	134217728	48	4605
2026-01-21 21:09:56.81	228.20	20.04	-38.5	-40.7	21.2	0.00e+00	0	55	0	135266304	48	4684
2026-01-21 21:09:57.82	227.87	20.17	-38.5	-40.7	21.2	0.00e+00	0	55	0	136314880	48	4685
2026-01-21 21:09:58.83	227.54	20.31	-38.5	-40.7	21.2	0.00e+00	0	55	0	137363456	48	4658
2026-01-21 21:09:59.84	227.20	20.45	-38.5	-40.7	21.2	0.00e+00	0	55	0	138936320	48	4684
2026-01-21 21:10:00.85	226.86	20.59	-38.6	-40.8	21.1	0.00e+00	0	55	0	139984896	48	4732
2026-01-21 21:10:01.86	226.51	20.72	-38.6	-40.8	21.1	0.00e+00	0	55	0	141033472	48	4737
2026-01-21 21:10:02.87	226.16	20.86	-38.4	-40.5	21.4	0.00e+00	0	55	0	142082048	48	4567
2026-01-21 21:10:03.88	225.81	21.00	-38.1	-40.2	21.7	0.00e+00	0	55	0	143130624	48	4429
2026-01-21 21:10:04.89	225.45	21.14	-38.2	-40.3	21.6	0.00e+00	0	55	0	144179200	48	4456
2026-01-21 21:10:05.90	225.09	21.28	-37.8	-39.8	22.0	0.00e+00	0	55	0	145752064	47	4462
2026-01-21 21:10:06.91	224.72	21.41	-37.7	-39.7	22.2	0.00e+00	0	55	0	146800640	47	4397
2026-01-21 21:10:07.92	224.36	21.55	-37.8	-39.8	22.1	0.00e+00	0	55	0	147849216	47	4478
2026-01-21 21:10:08.93	223.98	21.69	-38.0	-40.0	21.9	0.00e+00	0	55	0	148897792	47	4583
2026-01-21 21:10:09.94	223.61	21.83	-38.1	-40.2	21.7	0.00e+00	0	55	0	149946368	47	4683
2026-01-21 21:10:10.95	223.22	21.97	-38.2	-40.3	21.6	0.00e+00	0	55	0	150994944	47	4738
2026-01-21 21:10:11.96	222.84	22.10	-38.3	-40.4	21.5	0.00e+00	0	55	0	152567808	47	4811
2026-01-21 21:10:12.97	222.45	22.24	-38.3	-40.5	21.5	0.00e+00	0	55	0	153616384	47	4833
2026-01-21 21:10:13.98	222.06	22.38	-38.3	-40.4	21.5	0.00e+00	0	55	0	154664960	47	4813
2026-01-21 21:10:14.98	221.66	22.51	-38.2	-40.3	21.6	0.00e+00	0	55	0	155713536	47	4730
2026-01-21 21:10:15.99	221.26	22.65	-37.9	-40.0	21.9	0.00e+00	0	55	0	156762112	47	4562
2026-01-21 21:10:17.00	220.86	22.79	-37.7	-39.7	22.3	0.00e+00	0	55	0	157810688	47	4396
2026-01-21 21:10:18.01	220.45	22.92	-37.8	-39.8	22.2	0.00e+00	0	55	0	158859264	47	4458
2026-01-21 21:10:19.02	220.03	23.06	-37.6	-39.6	22.3	0.00e+00	0	55	0	160432128	47	4353
2026-01-21 21:10:20.03	219.61	23.19	-37.6	-39.5	22.5	0.00e+00	0	55	0	161480704	47	4330
2026-01-21 21:10:21.04	219.19	23.33	-37.7	-39.7	22.3	0.00e+00	0	55	0	162529280	47	4413
2026-01-21 21:10:22.05	218.77	23.46	-37.8	-39.8	22.2	0.00e+00	0	56	0	163577856	47	4447
2026-01-21 21:10:23.06	218.33	23.60	-37.8	-39.8	22.2	0.00e+00	0	55	0	164626432	47	4459
2026-01-21 21:10:24.06	217.90	23.73	-37.8	-39.8	22.1	0.00e+00	0	55	0	165675008	47	4472
2026-01-21 21:10:25.07	217.46	23.86	-37.9	-39.9	22.1	0.00e+00	0	55	0	167247872	47	4518
2026-01-21 21:10:26.08	217.02	23.99	-37.8	-39.7	22.2	0.00e+00	0	55	0	168296448	47	4437
2026-01-21 21:10:27.09	216.57	24.12	-37.8	-39.8	22.2	0.00e+00	0	55	0	169345024	47	4444
2026-01-21 21:10:28.10	216.12	24.25	-37.8	-39.8	22.2	0.00e+00	0	55	0	170393600	47	4446
2026-01-21 21:10:29.11	215.66	24.38	-37.8	-39.8	22.2	0.00e+00	0	55	0	171442176	47	4468
2026-01-21 21:10:30.12	215.20	24.51	-37.7	-39.6	22.3	0.00e+00	0	55	0	172490752	47	4385
2026-01-21 21:10:31.13	214.73	24.64	-37.5	-39.5	22.5	0.00e+00	0	56	0	174063616	47	4308
2026-01-21 21:10:32.14	214.26	24.76	-37.6	-39.6	22.4	0.00e+00	0	56	0	175112192	47	4345
2026-01-21 21:10:33.15	213.79	24.89	-37.5	-39.4	22.6	0.00e+00	0	56	0	176160768	46	4528
2026-01-21 21:10:34.16	213.31	25.01	-37.6	-39.5	22.5	0.00e+00	0	55	0	177209344	46	4571
2026-01-21 21:10:35.17	212.82	25.14	-37.6	-39.5	22.4	0.00e+00	0	55	0	178257920	46	4574
2026-01-21 21:10:36.18	212.34	25.26	-37.8	-39.8	22.3	0.00e+00	0	56	0	179830784	46	4708
2026-01-21 21:10:37.19	211.84	25.38	-37.6	-39.6	22.4	0.00e+00	0	55	0	180879360	46	4610
2026-01-21 21:10:38.20	211.35	25.50	-37.6	-39.5	22.5	0.00e+00	0	55	0	181927936	46	4584
2026-01-21 21:10:39.21	210.85	25.61	-37.6	-39.5	22.5	0.00e+00	0	56	0	182976512	46	4584
2026-01-21 21:10:40.22	210.34	25.73	-37.5	-39.4	22.6	0.00e+00	0	55	0	184025088	46	4537
2026-01-21 21:10:41.23	209.83	25.84	-37.4	-39.3	22.7	0.00e+00	0	56	0	185073664	46	4468
2026-01-21 21:10:42.24	209.32	25.96	-37.3	-39.1	22.8	0.00e+00	0	56	0	186646528	46	4391
2026-01-21 21:10:43.25	208.80	26.07	-37.3	-39.2	22.8	0.00e+00	0	56	0	187695104	46	4417
2026-01-21 21:10:44.26	208.28	26.18	-37.4	-39.3	22.7	0.00e+00	0	56	0	188743680	46	4471
2026-01-21 21:10:45.27	207.75	26.29	-37.4	-39.3	22.6	0.00e+00	0	56	0	189792256	46	4483
2026-01-21 21:10:46.27	207.23	26.39	-37.2	-39.1	22.9	0.00e+00	0	55	0	190840832	46	4378
2026-01-21 21:10:47.28	206.69	26.50	-37.2	-39.1	22.9	0.00e+00	0	56	0	191889408	46	4355
2026-01-21 21:10:48.30	206.15	26.60	-37.1	-39.0	23.0	0.00e+00	0	55	0	193462272	46	4300
2026-01-21 21:10:49.31	205.61	26.70	-37.0	-38.8	23.2	0.00e+00	0	56	0	194510848	45	4455
2026-01-21 21:10:50.31	205.07	26.80	-37.0	-38.8	23.2	0.00e+00	0	55	0	195559424	45	4460
2026-01-21 21:10:51.32	204.52	26.89	-37.1	-38.9	23.1	0.00e+00	0	56	0	196608000	45	4534
2026-01-21 21:10:52.33	203.96	26.99	-37.0	-38.8	23.2	0.00e+00	0	56	0	197656576	45	4461
2026-01-21 21:10:53.34	203.40	27.08	-37.0	-38.9	23.1	0.00e+00	0	56	0	198705152	45	4497
2026-01-21 21:10:54.35	202.84	27.17	-36.9	-38.8	23.2	0.00e+00	0	55	0	199753728	45	4458
2026-01-21 21:10:55.36	202.28	27.26	-36.7	-38.5	23.5	0.00e+00	0	55	0	201326592	45	4317
2026-01-21 21:10:56.37	201.71	27.34	-36.9	-38.7	23.2	0.00e+00	0	56	0	202375168	45	4418
2026-01-21 21:10:57.37	201.14	27.42	-37.2	-39.1	22.9	0.00e+00	0	56	0	203423744	45	4604
2026-01-21 21:10:58.39	200.56	27.50	-37.3	-39.2	22.8	0.00e+00	0	56	0	204472320	45	4666
2026-01-21 21:10:59.40	199.99	27.58	-37.1	-39.0	22.9	0.00e+00	0	56	0	205520896	45	4566
2026-01-21 21:11:00.40	199.41	27.65	-36.8	-38.6	23.3	0.00e+00	0	55	0	206569472	45	4366
2026-01-21 21:11:01.41	198.83	27.73	-36.6	-38.4	23.6	0.00e+00	0	56	0	208142336	45	4254
2026-01-21 21:11:02.42	198.24	27.80	-36.6	-38.3	23.5	0.00e+00	0	56	0	209190912	45	4230
2026-01-21 21:11:03.43	197.65	27.86	-36.7	-38.5	23.4	0.00e+00	0	56	0	210239488	45	4328
2026-01-21 21:11:04.44	197.06	27.93	-36.7	-38.5	23.5	0.00e+00	0	56	0	211288064	45	4304
2026-01-21 21:11:05.45	196.46	27.99	-36.6	-38.4	23.6	0.00e+00	0	56	0	212336640	45	4256
2026-01-21 21:11:06.46	195.86	28.04	-36.6	-38.3	23.6	0.00e+00	0	56	0	213385216	45	4235
2026-01-21 21:11:07.47	195.26	28.10	-36.5	-38.3	23.7	0.00e+00	0	56	0	214958080	45	4202
2026-01-21 21:11:08.48	194.66	28.15	-36.7	-38.5	23.4	0.00e+00	0	56	0	216006656	45	4313
2026-01-21 21:11:09.49	194.06	28.20	-37.0	-38.8	23.2	0.00e+00	0	56	0	217055232	45	4451
2026-01-21 21:11:10.50	193.45	28.25	-37.2	-39.1	22.9	0.00e+00	0	56	0	218103808	45	4599
2026-01-21 21:11:11.51	192.84	28.29	-37.1	-39.0	22.9	0.00e+00	0	56	0	219152384	45	4558
2026-01-21 21:11:12.52	192.23	28.33	-37.4	-39.3	22.6	0.00e+00	0	56	0	220200960	45	4724
2026-01-21 21:11:13.53	191.62	28.36	-37.4	-39.3	22.6	0.00e+00	0	56	0	221773824	45	4717
2026-01-21 21:11:14.54	191.01	28.40	-37.5	-39.4	22.6	0.00e+00	0	56	0	222822400	45	4789
2026-01-21 21:11:15.55	190.39	28.43	-37.7	-39.7	22.3	0.00e+00	0	56	0	223870976	45	4928
2026-01-21 21:11:16.56	189.77	28.45	-37.6	-39.5	22.4	0.00e+00	0	56	0	224919552	45	4865
2026-01-21 21:11:17.57	189.16	28.48	-37.4	-39.4	22.5	0.00e+00	0	56	0	225968128	45	4763
2026-01-21 21:11:18.58	188.54	28.50	-37.2	-39.1	22.8	0.00e+00	0	56	0	227540992	45	4633
2026-01-21 21:11:19.59	187.92	28.51	-37.1	-38.9	23.0	0.00e+00	0	56	0	228589568	45	4535
2026-01-21 21:11:20.60	187.30	28.53	-37.0	-38.8	23.1	0.00e+00	0	56	0	229638144	45	4493
2026-01-21 21:11:21.61	186.68	28.54	-37.2	-39.0	22.9	0.00e+00	0	56	0	230686720	45	4594
2026-01-21 21:11:22.62	186.06	28.54	-37.3	-39.2	22.7	0.00e+00	0	56	0	231735296	45	4673
2026-01-21 21:11:23.63	185.44	28.55	-37.2	-39.1	22.8	0.00e+00	0	56	0	232783872	45	4605
2026-01-21 21:11:24.64	184.82	28.55	-37.2	-39.1	22.8	0.00e+00	0	56	0	234356736	45	4626
2026-01-21 21:11:25.64	184.20	28.55	-37.2	-39.1	22.8	0.00e+00	0	56	0	235405312	45	4639
2026-01-21 21:11:26.64	183.59	28.54	-37.2	-39.1	22.9	0.00e+00	0	56	0	236453888	45	4613
2026-01-21 21:11:27.65	182.97	28.53	-37.2	-39.1	22.9	0.00e+00	0	56	0	237502464	45	4607
2026-01-21 21:11:28.66	182.35	28.52	-37.1	-38.9	23.0	0.00e+00	0	56	0	238551040	45	4542
2026-01-21 21:11:29.67	181.73	28.50	-37.1	-39.0	23.0	0.00e+00	0	56	0	239599616	45	4568
2026-01-21 21:11:30.68	181.11	28.48	-37.3	-39.1	22.8	0.00e+00	0	56	0	240648192	45	4649
2026-01-21 21:11:31.69	180.50	28.46	-37.1	-39.0	22.9	0.00e+00	0	56	0	242221056	45	4572
2026-01-21 21:11:32.70	179.88	28.43	-37.1	-39.0	22.9	0.00e+00	0	56	0	243269632	45	4555
2026-01-21 21:11:33.71	179.26	28.40	-37.2	-39.0	22.9	0.00e+00	0	56	0	244318208	45	4598
2026-01-21 21:11:34.72	178.65	28.37	-37.2	-39.1	22.8	0.00e+00	0	56	0	245366784	45	4638
2026-01-21 21:11:35.73	178.04	28.33	-37.2	-39.0	22.9	0.00e+00	0	56	0	246415360	45	4597
2026-01-21 21:11:36.74	177.43	28.29	-37.1	-39.0	23.0	0.00e+00	0	56	0	247463936	45	4563
2026-01-21 21:11:37.75	176.82	28.25	-37.2	-39.1	22.9	0.00e+00	0	56	0	249036800	45	4613
2026-01-21 21:11:38.76	176.21	28.20	-37.4	-39.3	22.6	0.00e+00	0	56	0	250085376	45	4741
2026-01-21 21:11:39.76	175.61	28.16	-37.2	-39.1	22.8	0.00e+00	0	56	0	251133952	45	4629
2026-01-21 21:11:40.77	175.01	28.10	-37.0	-38.8	23.1	0.00e+00	0	56	0	252182528	45	4484
2026-01-21 21:11:41.78	174.41	28.05	-36.9	-38.7	23.3	0.00e+00	0	56	0	253231104	45	4411
2026-01-21 21:11:42.79	173.81	27.99	-37.0	-38.8	23.2	0.00e+00	0	56	0	254279680	45	4482
2026-01-21 21:11:43.80	173.22	27.93	-37.3	-39.2	22.8	0.00e+00	0	56	0	255852544	45	4661
2026-01-21 21:11:44.81	172.62	27.87	-37.5	-39.4	22.7	0.00e+00	0	56	0	256901120	45	4791
2026-01-21 21:11:45.82	172.03	27.80	-37.2	-39.0	22.9	0.00e+00	0	56	0	257949696	45	4594
2026-01-21 21:11:46.83	171.45	27.73	-36.9	-38.7	23.2	0.00e+00	0	56	0	258998272	45	4432
2026-01-21 21:11:47.84	170.86	27.66	-36.7	-38.5	23.4	0.00e+00	0	56	0	260046848	44	4565
2026-01-21 21:11:48.85	170.28	27.59	-36.7	-38.5	23.4	0.00e+00	0	56	0	261095424	44	4589
2026-01-21 21:11:49.86	169.70	27.51	-36.8	-38.6	23.4	0.00e+00	0	56	0	262668288	44	4617
2026-01-21 21:11:50.87	169.13	27.43	-37.0	-38.9	23.2	0.00e+00	0	56	0	263716864	44	4767
2026-01-21 21:11:51.87	168.56	27.35	-37.1	-39.0	22.9	0.00e+00	0	56	0	264765440	44	4847
2026-01-21 21:11:52.88	167.99	27.26	-37.2	-39.0	22.9	0.00e+00	0	56	0	265814016	44	4866
2026-01-21 21:11:53.89	167.43	27.18	-37.0	-38.8	23.2	0.00e+00	0	56	0	266862592	45	4476
2026-01-21 21:11:54.90	166.87	27.09	-36.8	-38.6	23.4	0.00e+00	0	56	0	267911168	45	4386
2026-01-21 21:11:55.91	166.31	27.00	-37.0	-38.8	23.3	0.00e+00	0	56	0	269484032	45	4478
2026-01-21 21:11:56.92	165.75	26.90	-37.0	-38.8	23.2	0.00e+00	0	56	0	270532608	45	4470
2026-01-21 21:11:57.93	165.20	26.81	-37.1	-39.0	23.1	0.00e+00	0	56	0	271581184	45	4551
2026-01-21 21:11:58.94	164.66	26.71	-37.2	-39.0	23.0	0.00e+00	0	56	0	272629760	45	4598
2026-01-21 21:11:59.95	164.12	26.61	-37.0	-38.9	23.2	0.00e+00	0	56	0	273678336	45	4494
2026-01-21 21:12:00.96	163.58	26.51	-36.9	-38.7	23.4	0.00e+00	0	56	0	274726912	45	4428
2026-01-21 21:12:01.97	163.04	26.40	-36.8	-38.6	23.4	0.00e+00	0	56	0	276299776	45	4349
2026-01-21 21:12:02.98	162.51	26.30	-36.8	-38.6	23.5	0.00e+00	0	56	0	277348352	45	4383
2026-01-21 21:12:03.99	161.99	26.19	-37.3	-39.2	22.9	0.00e+00	0	56	0	278396928	45	4682
2026-01-21 21:12:05.00	161.46	26.08	-37.8	-39.8	22.3	0.00e+00	0	56	0	279445504	46	4716
2026-01-21 21:12:06.01	160.94	25.97	-38.1	-40.2	22.0	0.00e+00	0	56	0	280494080	46	4940
2026-01-21 21:12:07.02	160.43	25.86	-38.0	-40.1	22.0	0.00e+00	0	56	0	281542656	46	4889
2026-01-21 21:12:08.03	159.92	25.74	-37.9	-39.9	22.1	0.00e+00	0	56	0	283115520	46	4794
2026-01-21 21:12:09.04	159.41	25.63	-37.6	-39.6	22.5	0.00e+00	0	56	0	284164096	46	4602
2026-01-21 21:12:10.04	158.92	25.51	-37.6	-39.6	22.5	0.00e+00	0	56	0	285212672	46	4622
2026-01-21 21:12:11.05	158.42	25.39	-37.6	-39.6	22.5	0.00e+00	0	56	0	286261248	46	4603
2026-01-21 21:12:12.06	157.93	25.27	-37.8	-39.8	22.3	0.00e+00	0	56	0	287309824	46	4755
2026-01-21 21:12:13.07	157.44	25.15	-37.9	-39.9	22.2	0.00e+00	0	56	0	288358400	46	4778
2026-01-21 21:12:14.08	156.96	25.03	-38.0	-40.1	22.1	0.00e+00	0	56	0	289931264	46	4875
2026-01-21 21:12:15.09	156.48	24.90	-37.9	-39.9	22.2	0.00e+00	0	56	0	290979840	46	4809
2026-01-21 21:12:16.10	156.00	24.78	-37.9	-40.0	22.2	0.00e+00	0	56	0	292028416	46	4830
2026-01-21 21:12:17.11	155.53	24.65	-38.0	-40.0	22.1	0.00e+00	0	56	0	293076992	46	4853
2026-01-21 21:12:18.12	155.06	24.52	-38.2	-40.4	21.9	0.00e+00	0	56	0	294125568	46	5043
2026-01-21 21:12:19.13	154.60	24.40	-38.0	-40.0	22.0	0.00e+00	0	56	0	295174144	47	4598
2026-01-21 21:12:20.14	154.14	24.27	-38.1	-40.2	22.0	0.00e+00	0	56	0	296747008	47	4688
2026-01-21 21:12:21.15	153.69	24.14	-38.0	-40.1	22.0	0.00e+00	0	56	0	297795584	47	4648
2026-01-21 21:12:22.16	153.24	24.01	-38.1	-40.2	21.9	0.00e+00	0	56	0	298844160	47	4686
2026-01-21 21:12:23.18	152.79	23.87	-38.1	-40.2	21.9	0.00e+00	0	56	0	299892736	47	4702
2026-01-21 21:12:24.19	152.35	23.74	-38.1	-40.2	21.9	0.00e+00	0	56	0	300941312	47	4662
2026-01-21 21:12:25.19	151.92	23.61	-38.0	-40.1	22.0	0.00e+00	0	56	0	301989888	47	4640
2026-01-21 21:12:26.20	151.49	23.48	-37.9	-40.0	22.0	0.00e+00	0	56	0	303562752	47	4570
2026-01-21 21:12:27.21	151.06	23.34	-37.9	-40.0	22.2	0.00e+00	0	56	0	304611328	47	4556
2026-01-21 21:12:28.22	150.64	23.21	-37.7	-39.7	22.5	0.00e+00	0	56	0	305659904	47	4409
2026-01-21 21:12:29.23	150.22	23.07	-37.5	-39.4	22.7	0.00e+00	0	56	0	306708480	46	4536
2026-01-21 21:12:30.24	149.81	22.94	-37.9	-39.9	22.3	0.00e+00	0	56	0	307757056	46	4786
2026-01-21 21:12:31.25	149.40	22.80	-38.3	-40.4	21.7	0.00e+00	0	56	0	308805632	47	4790
2026-01-21 21:12:32.26	148.99	22.67	-38.2	-40.4	21.7	0.00e+00	0	56	0	310378496	47	4766
2026-01-21 21:12:33.27	148.59	22.53	-38.1	-40.1	22.0	0.00e+00	0	56	0	311427072	47	4639
2026-01-21 21:12:34.28	148.19	22.39	-37.9	-40.0	22.1	0.00e+00	0	56	0	312475648	47	4576
2026-01-21 21:12:35.29	147.80	22.25	-37.8	-39.8	22.3	0.00e+00	0	56	0	313524224	47	4481
2026-01-21 21:12:36.29	147.41	22.12	-37.8	-39.8	22.3	0.00e+00	0	56	0	314572800	47	4484
2026-01-21 21:12:37.31	147.02	21.98	-38.0	-40.0	22.1	0.00e+00	0	57	0	315621376	47	4584
2026-01-21 21:12:38.32	146.64	21.84	-38.1	-40.1	22.0	0.00e+00	0	56	0	317194240	47	4650
2026-01-21 21:12:39.33	146.26	21.70	-38.2	-40.3	21.9	0.00e+00	0	56	0	318242816	47	4721
2026-01-21 21:12:40.34	145.89	21.57	-38.2	-40.3	21.8	0.00e+00	0	56	0	319291392	47	4755
2026-01-21 21:12:41.35	145.52	21.43	-38.2	-40.4	21.8	0.00e+00	0	56	0	320339968	47	4772
2026-01-21 21:12:42.35	145.16	21.29	-38.2	-40.4	21.8	0.00e+00	0	56	0	321388544	47	4780
2026-01-21 21:12:43.36	144.80	21.15	-38.3	-40.5	21.7	0.00e+00	0	56	0	322437120	47	4823
2026-01-21 21:12:44.38	144.44	21.01	-38.4	-40.6	21.6	0.00e+00	0	56	0	324009984	47	4901
2026-01-21 21:12:45.38	144.09	20.88	-38.3	-40.5	21.6	0.00e+00	0	56	0	325058560	47	4842
2026-01-21 21:12:46.39	143.74	20.74	-38.3	-40.5	21.7	0.00e+00	0	56	0	326107136	47	4819
2026-01-21 21:12:47.40	143.39	20.60	-38.2	-40.3	21.8	0.00e+00	0	56	0	327155712	47	4724
2026-01-21 21:12:48.42	143.04	20.46	-38.3	-40.4	21.7	0.00e+00	0	56	0	328204288	47	4812
2026-01-21 21:12:49.43	142.71	20.32	-38.5	-40.7	21.5	0.00e+00	0	56	0	329252864	47	4929
2026-01-21 21:12:50.44	142.37	20.19	-38.6	-40.8	21.3	0.00e+00	0	56	0	330825728	47	5028
2026-01-21 21:12:51.44	142.04	20.05	-38.9	-41.2	21.1	0.00e+00	0	56	0	331874304	48	4941
2026-01-21 21:12:52.45	141.71	19.91	-38.7	-40.9	21.3	0.00e+00	0	56	0	332922880	48	4795
2026-01-21 21:12:53.46	141.39	19.78	-38.6	-40.8	21.3	0.00e+00	0	56	0	333971456	48	4754
2026-01-21 21:12:54.47	141.07	19.64	-38.4	-40.6	21.6	0.00e+00	0	56	0	335020032	48	4603
2026-01-21 21:12:55.48	140.75	19.50	-38.5	-40.6	21.6	0.00e+00	0	56	0	336068608	48	4647
2026-01-21 21:12:56.49	140.44	19.37	-38.6	-40.8	21.3	0.00e+00	0	56	0	337641472	48	4754
2026-01-21 21:12:57.50	140.13	19.23	-38.6	-40.8	21.4	0.00e+00	0	56	0	338690048	48	4729
2026-01-21 21:12:58.51	139.82	19.10	-38.6	-40.8	21.4	0.00e+00	0	56	0	339738624	48	4736
2026-01-21 21:12:59.52	139.52	18.96	-38.6	-40.8	21.4	0.00e+00	0	56	0	340787200	48	4707
2026-01-21 21:13:00.53	139.22	18.82	-38.6	-40.8	21.4	0.00e+00	0	56	0	341835776	48	4721
2026-01-21 21:13:01.54	138.92	18.69	-38.6	-40.8	21.4	0.00e+00	0	56	0	342884352	48	4715
2026-01-21 21:13:02.55	138.62	18.56	-38.7	-41.0	21.2	0.00e+00	0	56	0	344457216	48	4834
2026-01-21 21:13:03.56	138.33	18.42	-39.0	-41.3	20.9	0.00e+00	0	56	0	345505792	48	5028
2026-01-21 21:13:04.56	138.05	18.29	-38.9	-41.3	20.9	0.00e+00	0	56	0	346554368	48	4991
2026-01-21 21:13:05.57	137.76	18.16	-38.9	-41.3	20.8	0.00e+00	0	56	0	347602944	48	4985
2026-01-21 21:13:06.58	137.48	18.02	-38.7	-41.0	21.1	0.00e+00	0	56	0	348651520	48	4843
2026-01-21 21:13:07.59	137.20	17.89	-38.7	-40.9	21.2	0.00e+00	0	56	0	349700096	48	4793
2026-01-21 21:13:08.60	136.93	17.76	-38.7	-41.0	21.1	0.00e+00	0	56	0	351272960	48	4824
2026-01-21 21:13:09.61	136.66	17.63	-38.8	-41.1	21.0	0.00e+00	0	56	0	352321536	48	4907
2026-01-21 21:13:10.62	136.39	17.50	-39.0	-41.4	20.6	0.00e+00	0	56	0	353370112	48	5086
2026-01-21 21:13:11.63	136.12	17.37	-39.0	-41.4	20.7	0.00e+00	0	56	0	354418688	48	5069
2026-01-21 21:13:12.64	135.85	17.24	-39.0	-41.4	20.7	0.00e+00	0	56	0	355467264	48	5081
2026-01-21 21:13:13.65	135.59	17.11	-39.1	-41.5	20.6	0.00e+00	0	57	0	356515840	48	5119
2026-01-21 21:13:14.66	135.34	16.98	-39.3	-41.7	20.3	0.00e+00	0	56	0	358088704	49	4983
2026-01-21 21:13:15.67	135.08	16.85	-39.4	-41.9	20.0	0.00e+00	0	57	0	359137280	49	5094
2026-01-21 21:13:16.68	134.83	16.72	-39.3	-41.8	20.1	0.00e+00	0	56	0	360185856	49	5028
2026-01-21 21:13:17.69	134.58	16.59	-39.3	-41.8	20.2	0.00e+00	0	56	0	361234432	49	4997
2026-01-21 21:13:18.69	134.33	16.47	-39.3	-41.8	20.1	2.86e-05	0	56	0	362283008	49	5021
2026-01-21 21:13:19.70	134.09	16.34	-39.0	-41.7	19.7	1.94e-05	0	56	0	363331584	48	5228
2026-01-21 21:13:20.71	133.84	16.21	-38.9	-41.4	18.6	1.94e-05	0	57	0	364904448	48	5086
2026-01-21 21:13:21.72	133.60	16.09	-38.4	-41.7	20.0	7.32e-05	0	56	0	365953024	48	5232
2026-01-21 21:13:22.73	133.37	15.96	-39.3	-41.9	19.5	7.43e-05	0	57	0	367001600	49	5059
2026-01-21 21:13:23.74	133.13	15.84	-39.3	-42.0	19.2	7.43e-05	0	57	0	368050176	49	5125
2026-01-21 21:13:24.75	132.90	15.72	-39.4	-42.2	19.4	1.74e-04	0	56	0	369098752	49	5250
2026-01-21 21:13:25.76	132.67	15.59	-39.3	-42.1	19.0	2.79e-04	0	57	0	370147328	49	5172
2026-01-21 21:13:26.77	132.44	15.47	-39.4	-42.1	19.2	3.83e-04	0	56	0	371720192	49	5169
2026-01-21 21:13:27.78	132.22	15.35	-37.3	-42.2	15.3	3.83e-04	0	57	0	372768768	47	5880
2026-01-21 21:13:28.79	132.00	15.22	-35.8	-42.3	14.0	4.31e-03	0	56	0	373817344	45	6647
2026-01-21 21:13:29.80	131.78	15.10	-36.2	-42.5	12.8	1.55e-02	0	57	0	374865920	45	6857
2026-01-21 21:13:30.81	131.56	14.98	-38.3	-41.9	17.5	1.55e-02	0	56	0	375914496	47	5696
2026-01-21 21:13:31.82	131.34	14.86	-39.0	-42.1	18.0	6.83e-03	0	56	0	376963072	48	5467
2026-01-21 21:13:32.83	131.13	14.74	-39.2	-42.3	18.4	6.23e-04	0	57	0	378535936	49	5280
2026-01-21 21:13:33.84	130.92	14.62	-39.1	-42.4	18.1	6.23e-04	0	57	0	379584512	49	5373
2026-01-21 21:13:34.85	130.71	14.50	-39.2	-42.6	16.7	6.52e-04	0	56	0	380633088	48	5842
2026-01-21 21:13:35.86	130.50	14.38	-39.5	-42.7	17.3	2.11e-03	0	56	0	381681664	48	5908
2026-01-21 21:13:36.86	130.30	14.27	-39.3	-43.0	17.0	2.11e-03	0	56	0	382730240	49	5756
2026-01-21 21:13:37.87	130.09	14.15	-36.2	-43.0	15.6	5.24e-03	0	56	0	383778816	48	6079
2026-01-21 21:13:38.88	129.89	14.03	-37.8	-42.8	9.0	2.75e-02	0	57	0	384827392	35	12616
2026-01-21 21:13:39.89	129.69	13.92	-35.1	-42.3	13.8	1.53e-01	0	57	0	385875968	43	7473
2026-01-21 21:13:40.90	129.50	13.80	-36.0	-42.3	13.3	1.53e-01	0	57	0	386924544	42	7989
2026-01-21 21:13:41.91	129.30	13.69	-35.4	-42.8	14.1	2.61e-02	0	56	0	388497408	46	6647
2026-01-21 21:13:42.92	129.11	13.57	-36.7	-42.8	13.7	3.23e-02	0	56	0	389545984	44	7525
2026-01-21 21:13:43.93	128.92	13.46	-37.1	-43.1	12.7	3.23e-02	0	57	0	390594560	44	7788
2026-01-21 21:13:44.94	128.73	13.35	-33.2	-42.1	11.1	6.59e-02	0	57	0	391643136	39	9201
2026-01-21 21:13:45.95	128.54	13.23	-32.6	-42.6	10.6	2.52e-01	0	57	0	392691712	37	10975
2026-01-21 21:13:46.96	128.36	13.12	-27.5	-41.0	7.0	2.52e-01	0	56	0	393216000	23	20426
2026-01-21 21:13:47.97	128.18	13.01	-34.4	-42.8	10.4	3.30e-01	0	57	0	393740288	38	10598
2026-01-21 21:13:48.98	127.99	12.90	-31.6	-42.3	8.7	3.38e-01	0	57	0	394788864	30	15809
2026-01-21 21:13:49.99	127.81	12.79	-30.8	-42.6	6.7	3.38e-01	0	57	0	395313152	26	20680
2026-01-21 21:13:51.00	127.64	12.68	-27.9	-42.3	6.5	4.40e-01	0	57	0	395837440	25	21196
2026-01-21 21:13:52.00	127.46	12.57	-21.3	-40.2	6.7	5.70e-01	0	56	0	396361728	25	16552
2026-01-21 21:13:53.01	127.29	12.46	-26.9	-41.6	7.1	5.38e-01	0	57	0	396886016	27	17406
2026-01-21 21:13:54.02	127.11	12.35	-25.8	-41.5	7.6	5.38e-01	0	57	0	397410304	27	17193
2026-01-21 21:13:55.03	126.94	12.24	-31.1	-42.6	7.5	4.48e-01	0	57	0	397934592	31	15502
2026-01-21 21:13:56.04	126.77	12.13	-30.1	-42.4	6.3	3.64e-01	0	57	0	398983168	27	18951
2026-01-21 21:13:57.05	126.61	12.02	-27.9	-41.8	4.4	3.64e-01	0	57	104	398983168	22	23679
2026-01-21 21:13:58.06	126.44	11.92	-28.1	-41.8	7.4	7.28e-01	0	57	0	398983168	27	17706
2026-01-21 21:13:59.07	126.27	11.81	-27.4	-42.4	8.0	5.79e-01	0	57	0	398983168	29	16960
2026-01-21 21:14:00.08	126.11	11.71	-27.4	-42.0	5.5	5.79e-01	0	57	0	399507456	23	22913
2026-01-21 21:14:01.09	125.95	11.60	-22.9	-40.1	5.4	5.74e-01	0	57	0	399507456	19	23244
2026-01-21 21:14:02.10	125.79	11.50	-27.8	-41.5	7.1	6.52e-01	0	57	0	399507456	28	16152
2026-01-21 21:14:03.10	125.63	11.39	-29.1	-41.8	7.1	6.52e-01	0	57	0	399507456	28	16854
2026-01-21 21:14:04.11	125.48	11.29	-29.6	-43.1	7.4	4.83e-01	0	57	0	400556032	31	16343
2026-01-21 21:14:05.12	125.32	11.19	-26.7	-41.5	6.7	4.67e-01	0	57	0	401080320	25	19218
2026-01-21 21:14:06.14	125.17	11.08	-25.9	-41.8	5.8	6.40e-01	0	57	0	401080320	24	21205
2026-01-21 21:14:07.15	125.01	10.98	-28.3	-42.4	4.6	6.40e-01	0	57	104	401080320	26	20091
2026-01-21 21:14:08.16	124.86	10.88	-30.0	-43.0	6.9	7.69e-01	0	57	0	401080320	32	15376
2026-01-21 21:14:09.17	124.71	10.78	-31.9	-41.8	7.8	5.23e-01	0	57	0	401604608	30	14986
2026-01-21 21:14:10.18	124.56	10.68	-31.5	-43.0	7.1	5.23e-01	0	57	0	402128896	33	14467
2026-01-21 21:14:11.19	124.42	10.58	-25.0	-42.8	5.3	5.82e-01	0	57	0	402653184	26	21035
2026-01-21 21:14:12.19	124.27	10.48	-28.5	-42.5	5.4	6.73e-01	0	57	0	402653184	27	19344
2026-01-21 21:14:13.20	124.13	10.38	-27.6	-42.7	6.9	6.73e-01	0	57	0	403177472	34	13260
2026-01-21 21:14:14.21	123.99	10.28	-34.0	-43.6	10.2	5.67e-01	0	56	0	403701760	40	10362
2026-01-21 21:14:15.22	123.84	10.18	-30.9	-42.4	7.8	3.27e-01	0	57	0	404750336	33	13432
2026-01-21 21:14:16.23	123.70	10.08	-31.5	-43.8	6.3	3.27e-01	0	57	0	405274624	31	17768
2026-01-21 21:14:17.24	123.56	9.98	-28.0	-43.4	6.4	4.37e-01	0	57	0	405798912	30	18076
2026-01-21 21:14:18.25	123.43	9.89	-34.1	-46.2	8.2	4.89e-01	0	57	0	406323200	39	14774
2026-01-21 21:14:19.26	123.29	9.79	-35.3	-47.6	8.1	4.00e-01	0	57	0	407371776	42	14601
2026-01-21 21:14:20.27	123.16	9.69	-27.9	-45.0	5.6	4.00e-01	0	57	0	407896064	27	25640
2026-01-21 21:14:21.28	123.02	9.60	-30.1	-45.4	6.4	5.80e-01	0	57	0	407896064	30	22681
2026-01-21 21:14:22.29	122.89	9.50	-28.8	-45.6	7.0	4.64e-01	0	57	0	408944640	35	17402
2026-01-21 21:14:23.30	122.76	9.41	-32.3	-46.2	7.9	4.64e-01	0	57	0	409468928	34	19827
2026-01-21 21:14:24.31	122.63	9.31	-29.9	-45.0	8.4	4.33e-01	0	57	0	410517504	31	20508
2026-01-21 21:14:25.32	122.50	9.22	-25.1	-42.6	4.6	4.99e-01	0	57	0	410517504	21	27678
2026-01-21 21:14:26.33	122.37	9.13	-33.9	-46.2	9.9	4.99e-01	0	57	0	411566080	43	11706
2026-01-21 21:14:27.34	122.24	9.03	-34.8	-45.7	11.7	3.29e-01	0	57	0	412614656	46	9327
2026-01-21 21:14:28.35	122.12	8.94	-38.7	-45.3	12.4	7.32e-02	0	56	0	414187520	46	8910
2026-01-21 21:14:29.35	121.99	8.85	-39.4	-45.1	13.1	7.32e-02	0	57	0	415236096	49	7361
2026-01-21 21:14:30.36	121.87	8.76	-35.7	-44.7	11.0	2.73e-02	0	57	0	416284672	43	9904
2026-01-21 21:14:31.37	121.75	8.66	-34.6	-45.2	8.7	6.14e-02	0	57	0	417333248	39	13117
2026-01-21 21:14:32.38	121.62	8.57	-39.0	-45.4	12.3	7.55e-02	0	57	0	418381824	48	8040
2026-01-21 21:14:33.39	121.50	8.48	-38.3	-45.6	11.6	7.55e-02	0	57	0	419430400	43	10971
2026-01-21 21:14:34.41	121.38	8.39	-36.7	-45.1	10.8	2.09e-02	0	57	0	420478976	39	13097
2026-01-21 21:14:35.42	121.26	8.30	-35.6	-45.5	11.3	1.61e-01	0	57	0	421527552	44	10290
2026-01-21 21:14:36.42	121.15	8.21	-31.9	-45.4	10.0	1.61e-01	0	57	0	422576128	41	12052
2026-01-21 21:14:37.43	121.03	8.12	-35.2	-45.3	11.5	8.44e-02	0	57	0	423624704	38	14103
2026-01-21 21:14:38.44	120.92	8.03	-20.5	-42.7	8.0	6.39e-02	0	57	0	424673280	23	24751
2026-01-21 21:14:39.45	120.80	7.95	-36.5	-61.7	3.3	6.39e-02	0	57	104	424673280	51	44028
2026-01-21 21:14:40.46	120.69	7.86	-44.8	-62.9	3.8	6.91e-01	0	57	104	424673280	60	30335
2026-01-21 21:14:41.47	120.58	7.77	-45.1	-63.4	3.8	8.46e-01	0	57	104	424673280	60	31943
2026-01-21 21:14:42.48	120.46	7.68	-45.3	-63.5	3.8	8.46e-01	0	57	104	424673280	61	30704
2026-01-21 21:14:43.49	120.35	7.60	-45.4	-63.7	3.8	8.46e-01	0	57	104	424673280	61	31270
2026-01-21 21:14:44.50	120.24	7.51	-45.5	-63.8	3.8	8.45e-01	0	57	104	424673280	61	31754
2026-01-21 21:14:45.51	120.13	7.42	-45.7	-63.9	3.8	8.45e-01	0	57	104	424673280	61	32125
2026-01-21 21:14:46.52	120.03	7.34	-45.8	-64.1	3.8	8.45e-01	0	57	104	424673280	62	31013
2026-01-21 21:14:47.53	119.92	7.25	-45.8	-64.1	3.8	8.47e-01	0	57	104	424673280	62	31032
2026-01-21 21:14:48.54	119.81	7.17	-45.8	-64.1	3.8	8.45e-01	0	57	104	424673280	62	30813
2026-01-21 21:14:49.55	119.71	7.08	-45.7	-63.9	3.8	8.45e-01	0	57	104	424673280	62	30376
2026-01-21 21:14:50.56	119.60	7.00	-45.6	-63.8	3.8	8.47e-01	0	57	104	424673280	62	29789
2026-01-21 21:14:51.57	119.50	6.91	-45.5	-63.7	3.8	8.46e-01	0	57	104	424673280	62	29506
2026-01-21 21:14:52.58	119.40	6.83	-45.5	-63.6	3.8	8.46e-01	0	57	104	424673280	62	29290
2026-01-21 21:14:53.59	119.30	6.75	-45.5	-63.6	3.8	8.45e-01	0	57	104	424673280	62	29182
2026-01-21 21:14:54.60	119.19	6.67	-45.4	-63.5	3.8	8.47e-01	0	57	104	424673280	62	28806
2026-01-21 21:14:55.61	119.09	6.58	-45.4	-63.4	3.8	8.46e-01	0	57	104	424673280	62	28638
2026-01-21 21:14:56.62	118.99	6.50	-45.4	-63.4	3.8	8.46e-01	0	57	104	424673280	62	28662
2026-01-21 21:14:57.63	118.90	6.42	-45.4	-63.4	3.8	8.47e-01	0	57	104	424673280	62	28579
2026-01-21 21:14:58.64	118.80	6.34	-45.4	-63.5	3.8	8.45e-01	0	57	104	424673280	62	28743
2026-01-21 21:14:59.65	118.70	6.26	-45.4	-63.4	3.8	8.45e-01	0	57	104	424673280	62	28671
2026-01-21 21:15:00.66	118.61	6.17	-45.4	-63.4	3.8	8.46e-01	0	57	104	424673280	62	28645
2026-01-21 21:15:01.67	118.51	6.09	-45.4	-63.4	3.8	8.46e-01	0	57	104	424673280	62	28662
2026-01-21 21:15:02.68	118.41	6.01	-45.3	-63.4	3.8	8.46e-01	0	57	104	424673280	61	30269
2026-01-21 21:15:03.69	118.32	5.93	-45.3	-63.4	3.8	8.45e-01	0	57	104	424673280	61	30165
2026-01-21 21:15:04.70	118.23	5.85	-45.3	-63.4	3.8	8.46e-01	0	57	104	424673280	61	30209
2026-01-21 21:15:05.71	118.13	5.77	-45.3	-63.4	3.8	8.46e-01	0	57	104	424673280	61	30169
2026-01-21 21:15:06.72	118.04	5.70	-45.3	-63.4	3.8	8.47e-01	0	57	104	424673280	61	30138
2026-01-21 21:15:07.73	117.95	5.62	-45.3	-63.4	3.8	8.46e-01	0	57	104	424673280	61	30158
2026-01-21 21:15:08.74	117.86	5.54	-45.3	-63.4	3.8	8.46e-01	0	57	104	424673280	61	30138
2026-01-21 21:15:09.75	117.77	5.46	-45.3	-63.4	3.8	8.46e-01	0	57	104	424673280	61	30227
2026-01-21 21:15:10.76	117.68	5.38	-45.3	-63.4	3.9	8.47e-01	0	57	104	424673280	61	30164
2026-01-21 21:15:11.77	117.59	5.31	-45.3	-63.4	3.8	8.45e-01	0	57	104	424673280	61	30138
2026-01-21 21:15:12.78	117.51	5.23	-45.3	-63.4	3.8	8.45e-01	0	57	104	424673280	61	30098
2026-01-21 21:15:13.79	117.42	5.15	-45.3	-63.4	3.8	8.45e-01	0	57	104	424673280	61	30085
2026-01-21 21:15:14.80	117.33	5.07	-45.3	-63.4	3.8	8.46e-01	0	57	104	424673280	61	30095
2026-01-21 21:15:15.81	117.25	5.00	-45.3	-63.4	3.8	8.46e-01	0	57	104	424673280	61	30106
2026-01-21 21:15:16.83	117.16	4.92	-45.3	-63.4	3.8	8.46e-01	0	57	104	424673280	61	30089
2026-01-21 21:15:17.84	117.08	4.85	-45.3	-63.4	3.8	8.46e-01	0	57	104	424673280	61	30195
2026-01-21 21:15:18.85	116.99	4.77	-45.3	-63.4	3.8	8.46e-01	0	57	104	424673280	61	30112
2026-01-21 21:15:19.86	116.91	4.70	-45.3	-63.3	3.8	8.45e-01	0	57	104	424673280	61	29975
2026-01-21 21:15:20.87	116.83	4.62	-45.3	-63.4	3.8	8.47e-01	0	57	104	424673280	61	30105
2026-01-21 21:15:21.88	116.75	4.55	-45.3	-63.4	3.8	8.46e-01	0	57	104	424673280	61	30076
2026-01-21 21:15:22.89	116.66	4.47	-45.3	-63.4	3.8	8.46e-01	0	57	104	424673280	61	30043
2026-01-21 21:15:23.90	116.58	4.40	-45.3	-63.4	3.8	8.47e-01	0	57	104	424673280	61	30049
2026-01-21 21:15:24.91	116.50	4.32	-45.3	-63.4	3.8	8.45e-01	0	57	104	424673280	61	30117
2026-01-21 21:15:25.92	116.42	4.25	-45.3	-63.4	3.8	8.45e-01	0	57	104	424673280	61	30039
2026-01-21 21:15:26.93	116.35	4.18	-45.3	-63.3	3.8	8.47e-01	0	57	104	424673280	61	30023
2026-01-21 21:15:27.94	116.27	4.10	-45.3	-63.4	3.8	8.46e-01	0	57	104	424673280	61	30036
2026-01-21 21:15:28.95	116.19	4.03	-45.3	-63.3	3.8	8.46e-01	0	57	104	424673280	61	30024
2026-01-21 21:15:29.96	116.11	3.96	-45.3	-63.3	3.8	8.47e-01	0	57	104	424673280	61	29943
2026-01-21 21:15:30.97	116.04	3.89	-45.3	-63.4	3.8	8.47e-01	0	57	104	424673280	61	30036
2026-01-21 21:15:31.98	115.96	3.81	-45.3	-63.4	3.8	8.47e-01	0	57	104	424673280	61	30040
2026-01-21 21:15:32.99	115.88	3.74	-45.3	-63.4	3.8	8.48e-01	0	57	104	424673280	61	30060
2026-01-21 21:15:34.00	115.81	3.67	-45.3	-63.3	3.8	8.45e-01	0	57	104	424673280	61	30031
2026-01-21 21:15:35.01	115.73	3.60	-45.3	-63.4	3.8	8.46e-01	0	57	104	424673280	61	30085
2026-01-21 21:15:36.02	115.66	3.53	-45.3	-63.4	3.8	8.46e-01	0	57	104	424673280	61	30070
2026-01-21 21:15:37.03	115.59	3.46	-45.2	-63.3	3.8	8.46e-01	0	57	104	424673280	61	29938
2026-01-21 21:15:38.04	115.51	3.39	-45.3	-63.4	3.8	8.45e-01	0	57	104	424673280	61	30050
2026-01-21 21:15:39.05	115.44	3.32	-45.2	-63.3	3.8	8.45e-01	0	57	104	424673280	61	29899
2026-01-21 21:15:40.06	115.37	3.25	-45.3	-63.4	3.8	8.45e-01	0	57	104	424673280	61	30038
2026-01-21 21:15:41.07	115.30	3.18	-45.3	-63.3	3.8	8.46e-01	0	57	104	424673280	61	29929
2026-01-21 21:15:42.08	115.23	3.11	-45.3	-63.3	3.8	8.46e-01	0	57	104	424673280	61	29979
2026-01-21 21:15:43.09	115.16	3.04	-45.2	-63.3	3.8	8.47e-01	0	57	104	424673280	61	29938
2026-01-21 21:15:44.10	115.09	2.97	-45.2	-63.3	3.8	8.46e-01	0	57	104	424673280	61	30028
2026-01-21 21:15:45.11	115.02	2.90	-45.2	-63.3	3.8	8.46e-01	0	57	104	424673280	61	29968
2026-01-21 21:15:46.12	114.95	2.83	-45.2	-63.3	3.8	8.46e-01	0	57	104	424673280	61	29928
2026-01-21 21:15:47.13	114.88	2.76	-45.3	-63.3	3.8	8.46e-01	0	57	104	424673280	61	29969
2026-01-21 21:15:48.14	114.81	2.69	-45.3	-63.3	3.8	8.46e-01	0	57	104	424673280	61	30015
2026-01-21 21:15:49.15	114.75	2.63	-45.2	-63.3	3.8	8.46e-01	0	57	104	424673280	61	29929
2026-01-21 21:15:50.16	114.68	2.56	-45.3	-63.3	3.8	8.45e-01	0	57	104	424673280	61	29923
2026-01-21 21:15:51.16	114.61	2.49	-45.3	-63.3	3.8	8.46e-01	0	57	104	424673280	61	30007
2026-01-21 21:15:52.17	114.55	2.42	-45.3	-63.3	3.8	8.46e-01	0	57	104	424673280	61	29992
2026-01-21 21:15:53.18	114.48	2.36	-45.3	-63.3	3.8	8.47e-01	0	57	104	424673280	61	29961
2026-01-21 21:15:54.18	114.42	2.29	-45.3	-63.3	3.8	8.46e-01	0	57	104	424673280	61	29962
2026-01-21 21:15:55.19	114.35	2.22	-45.3	-63.3	3.8	8.46e-01	0	57	104	424673280	61	29986
2026-01-21 21:15:56.20	114.29	2.16	-45.3	-63.3	3.8	8.47e-01	0	57	104	424673280	61	29957
2026-01-21 21:15:57.21	114.22	2.09	-45.3	-63.3	3.8	8.46e-01	0	57	104	424673280	61	29865
2026-01-21 21:15:58.21	114.16	2.03	-45.3	-63.3	3.8	8.46e-01	0	57	104	424673280	61	29902
2026-01-21 21:15:59.22	114.10	1.96	-45.2	-63.3	3.8	8.45e-01	0	57	104	424673280	61	30015

#Closed at: 2026-01-21 21:16:00
#Recorded file [424 MB]: D:/lorett/data/31039_260122_000651.dat