passes_logs/2025/01/15/SPB_Silybum_02/SPB_Silybum_02__20250115_160118_TERRA_rec.log

#Pass ID: 20250115_160118_TERRA
#Satellite: TERRA
#Configuration: TERRA
#Start time: 2025-01-15 16:01:19

#Version: 2.0.20230423
#Station: SPB_Silybum_02
#Location: 30.233357 lon 59.946436 lat
#TLE: 1 25994U 99068A   25014.85746573  .00000777  00000+0  16972-3 0  9996
#TLE: 2 25994  98.0216  77.8924 0003456  72.8612  46.8876 14.60394566334056

#Time	Az	El	Level	Level2	SNR	BER	Gain	Gain2
2025-01-15 16:01:21.18	83.00	4.16	
2025-01-15 16:01:21.38	82.97	4.17	
2025-01-15 16:01:21.59	82.95	4.18	
2025-01-15 16:01:21.79	82.92	4.19	
2025-01-15 16:01:21.99	82.90	4.20	
2025-01-15 16:01:22.20	82.87	4.21	
2025-01-15 16:01:22.40	82.85	4.22	
2025-01-15 16:01:22.60	82.83	4.23	
2025-01-15 16:01:22.81	82.80	4.24	
2025-01-15 16:01:23.01	82.78	4.25	
2025-01-15 16:01:23.21	82.76	4.26	
2025-01-15 16:01:23.42	82.73	4.27	
2025-01-15 16:01:23.62	82.71	4.28	
2025-01-15 16:01:23.82	82.68	4.29	
2025-01-15 16:01:24.02	82.66	4.30	
2025-01-15 16:01:24.23	82.63	4.31	
2025-01-15 16:01:24.43	82.61	4.32	
2025-01-15 16:01:24.63	82.59	4.33	
2025-01-15 16:01:24.84	82.56	4.34	
2025-01-15 16:01:25.04	82.54	4.35	
2025-01-15 16:01:25.24	82.51	4.36	
2025-01-15 16:01:25.45	82.49	4.37	
2025-01-15 16:01:25.65	82.46	4.38	
2025-01-15 16:01:25.85	82.44	4.39	
2025-01-15 16:01:26.06	82.41	4.40	
2025-01-15 16:01:26.26	82.39	4.41	
2025-01-15 16:01:26.46	82.37	4.42	
2025-01-15 16:01:26.66	82.34	4.43	
2025-01-15 16:01:26.87	82.32	4.45	
2025-01-15 16:01:27.07	82.29	4.46	
2025-01-15 16:01:27.27	82.27	4.47	
2025-01-15 16:01:27.48	82.24	4.48	
2025-01-15 16:01:27.68	82.22	4.49	
2025-01-15 16:01:27.88	82.20	4.50	
2025-01-15 16:01:28.09	82.17	4.51	
2025-01-15 16:01:28.29	82.15	4.52	
2025-01-15 16:01:28.49	82.12	4.53	
2025-01-15 16:01:28.70	82.10	4.54	
2025-01-15 16:01:28.90	82.07	4.55	
2025-01-15 16:01:29.10	82.05	4.56	
2025-01-15 16:01:29.30	82.02	4.57	
2025-01-15 16:01:29.51	82.00	4.58	
2025-01-15 16:01:29.71	81.97	4.59	
2025-01-15 16:01:29.91	81.95	4.60	
2025-01-15 16:01:30.12	81.92	4.61	
2025-01-15 16:01:30.32	81.90	4.62	
2025-01-15 16:01:30.52	81.87	4.63	
2025-01-15 16:01:30.73	81.85	4.64	
2025-01-15 16:01:30.93	81.82	4.65	
2025-01-15 16:01:31.13	81.80	4.66	
2025-01-15 16:01:31.34	81.77	4.67	
2025-01-15 16:01:31.54	81.75	4.68	
2025-01-15 16:01:31.74	81.73	4.69	
2025-01-15 16:01:31.95	81.70	4.70	
2025-01-15 16:01:32.15	81.67	4.71	
2025-01-15 16:01:32.35	81.65	4.72	
2025-01-15 16:01:32.55	81.63	4.73	
2025-01-15 16:01:32.76	81.60	4.74	
2025-01-15 16:01:32.96	81.58	4.75	
2025-01-15 16:01:33.16	81.55	4.76	
2025-01-15 16:01:33.37	81.52	4.78	
2025-01-15 16:01:33.57	81.50	4.79	
2025-01-15 16:01:33.77	81.48	4.80	
2025-01-15 16:01:33.98	81.45	4.81	
2025-01-15 16:01:34.18	81.42	4.82	
2025-01-15 16:01:34.38	81.40	4.83	
2025-01-15 16:01:34.58	81.37	4.84	
2025-01-15 16:01:34.79	81.35	4.85	
2025-01-15 16:01:34.99	81.32	4.86	
2025-01-15 16:01:35.19	81.30	4.87	
2025-01-15 16:01:35.40	81.27	4.88	
2025-01-15 16:01:35.60	81.25	4.89	
2025-01-15 16:01:35.80	81.22	4.90	
2025-01-15 16:01:36.01	81.20	4.91	
2025-01-15 16:01:36.21	81.17	4.92	
2025-01-15 16:01:36.41	81.15	4.93	
2025-01-15 16:01:36.62	81.12	4.94	
2025-01-15 16:01:36.82	81.10	4.95	
2025-01-15 16:01:37.02	81.07	4.96	
2025-01-15 16:01:37.23	81.04	4.97	
2025-01-15 16:01:37.43	81.02	4.98	
2025-01-15 16:01:37.63	80.99	4.99	
2025-01-15 16:01:37.83	80.97	5.00	
2025-01-15 16:01:38.04	80.94	5.01	
2025-01-15 16:01:38.24	80.92	5.02	
2025-01-15 16:01:38.44	80.89	5.03	
2025-01-15 16:01:38.65	80.87	5.04	
2025-01-15 16:01:38.85	80.84	5.05	
2025-01-15 16:01:39.05	80.82	5.06	
2025-01-15 16:01:39.26	80.79	5.07	
2025-01-15 16:01:39.46	80.76	5.08	
2025-01-15 16:01:39.66	80.74	5.09	
2025-01-15 16:01:39.87	80.71	5.10	
2025-01-15 16:01:40.07	80.69	5.11	
2025-01-15 16:01:40.27	80.66	5.12	
2025-01-15 16:01:40.47	80.64	5.13	
2025-01-15 16:01:40.68	80.61	5.15	
2025-01-15 16:01:40.88	80.58	5.16	
2025-01-15 16:01:41.08	80.56	5.17	
2025-01-15 16:01:41.29	80.53	5.18	
2025-01-15 16:01:41.49	80.51	5.19	
2025-01-15 16:01:41.69	80.48	5.20	
2025-01-15 16:01:41.90	80.45	5.21	
2025-01-15 16:01:42.10	80.43	5.22	
2025-01-15 16:01:42.30	80.40	5.23	
2025-01-15 16:01:42.51	80.38	5.24	
2025-01-15 16:01:42.71	80.35	5.25	
2025-01-15 16:01:42.91	80.32	5.26	
2025-01-15 16:01:43.11	80.30	5.27	
2025-01-15 16:01:43.32	80.27	5.28	
2025-01-15 16:01:43.52	80.25	5.29	
2025-01-15 16:01:43.72	80.22	5.30	
2025-01-15 16:01:43.93	80.19	5.31	
2025-01-15 16:01:44.13	80.17	5.32	
2025-01-15 16:01:44.33	80.14	5.33	
2025-01-15 16:01:44.54	80.11	5.34	
2025-01-15 16:01:44.74	80.09	5.35	
2025-01-15 16:01:44.94	80.06	5.36	
2025-01-15 16:01:45.15	80.04	5.37	
2025-01-15 16:01:45.35	80.01	5.38	
2025-01-15 16:01:45.55	79.98	5.39	
2025-01-15 16:01:45.75	79.96	5.40	
2025-01-15 16:01:45.96	79.93	5.41	
2025-01-15 16:01:46.16	79.91	5.42	
2025-01-15 16:01:46.36	79.88	5.43	
2025-01-15 16:01:46.57	79.85	5.44	
2025-01-15 16:01:46.77	79.83	5.45	
2025-01-15 16:01:46.97	79.80	5.46	
2025-01-15 16:01:47.18	79.77	5.47	
2025-01-15 16:01:47.38	79.75	5.48	
2025-01-15 16:01:47.58	79.72	5.49	
2025-01-15 16:01:47.79	79.69	5.51	
2025-01-15 16:01:47.99	79.67	5.52	
2025-01-15 16:01:48.19	79.64	5.53	
2025-01-15 16:01:48.39	79.61	5.54	
2025-01-15 16:01:48.60	79.59	5.55	
2025-01-15 16:01:48.80	79.56	5.56	
2025-01-15 16:01:49.00	79.53	5.57	
2025-01-15 16:01:49.21	79.51	5.58	
2025-01-15 16:01:49.41	79.48	5.59	
2025-01-15 16:01:49.61	79.45	5.60	
2025-01-15 16:01:49.82	79.43	5.61	
2025-01-15 16:01:50.02	79.40	5.62	
2025-01-15 16:01:50.22	79.37	5.63	
2025-01-15 16:01:50.43	79.35	5.64	
2025-01-15 16:01:50.63	79.32	5.65	
2025-01-15 16:01:50.83	79.29	5.66	
2025-01-15 16:01:51.03	79.27	5.67	
2025-01-15 16:01:51.24	79.24	5.68	
2025-01-15 16:01:51.44	79.21	5.69	
2025-01-15 16:01:51.64	79.19	5.70	
2025-01-15 16:01:51.85	79.16	5.71	
2025-01-15 16:01:52.05	79.13	5.72	
2025-01-15 16:01:52.25	79.11	5.73	
2025-01-15 16:01:52.46	79.08	5.74	
2025-01-15 16:01:52.66	79.05	5.75	
2025-01-15 16:01:52.86	79.02	5.76	
2025-01-15 16:01:53.07	79.00	5.77	
2025-01-15 16:01:53.27	78.97	5.78	
2025-01-15 16:01:53.47	78.94	5.79	
2025-01-15 16:01:53.68	78.92	5.80	
2025-01-15 16:01:53.88	78.89	5.81	
2025-01-15 16:01:54.08	78.86	5.82	
2025-01-15 16:01:54.28	78.84	5.83	
2025-01-15 16:01:54.49	78.81	5.84	
2025-01-15 16:01:54.69	78.78	5.85	
2025-01-15 16:01:54.89	78.75	5.86	
2025-01-15 16:01:55.10	78.73	5.87	
2025-01-15 16:01:55.30	78.70	5.88	
2025-01-15 16:01:55.50	78.67	5.89	
2025-01-15 16:01:55.71	78.64	5.90	
2025-01-15 16:01:55.91	78.62	5.91	
2025-01-15 16:01:56.11	78.59	5.92	
2025-01-15 16:01:56.32	78.56	5.93	
2025-01-15 16:01:56.52	78.53	5.94	
2025-01-15 16:01:56.72	78.51	5.95	
2025-01-15 16:01:56.92	78.48	5.96	
2025-01-15 16:01:57.13	78.45	5.98	
2025-01-15 16:01:57.33	78.42	5.99	
2025-01-15 16:01:57.53	78.40	6.00	
2025-01-15 16:01:57.74	78.37	6.01	
2025-01-15 16:01:57.94	78.34	6.02	
2025-01-15 16:01:58.14	78.31	6.03	
2025-01-15 16:01:58.35	78.29	6.04	
2025-01-15 16:01:58.55	78.26	6.05	
2025-01-15 16:01:58.75	78.23	6.06	
2025-01-15 16:01:58.96	78.20	6.07	
2025-01-15 16:01:59.16	78.18	6.08	
2025-01-15 16:01:59.36	78.15	6.09	
2025-01-15 16:01:59.56	78.12	6.10	
2025-01-15 16:01:59.77	78.09	6.11	
2025-01-15 16:01:59.97	78.07	6.12	
2025-01-15 16:02:00.17	78.04	6.13	
2025-01-15 16:02:00.38	78.01	6.14	
2025-01-15 16:02:00.58	77.98	6.15	
2025-01-15 16:02:00.78	77.95	6.16	
2025-01-15 16:02:00.99	77.93	6.17	
2025-01-15 16:02:01.19	77.90	6.18	
2025-01-15 16:02:01.39	77.87	6.19	
2025-01-15 16:02:01.60	77.84	6.20	
2025-01-15 16:02:01.80	77.81	6.21	
2025-01-15 16:02:02.00	77.79	6.22	
2025-01-15 16:02:02.20	77.76	6.23	
2025-01-15 16:02:02.41	77.73	6.24	
2025-01-15 16:02:02.61	77.70	6.25	
2025-01-15 16:02:02.81	77.67	6.26	
2025-01-15 16:02:03.02	77.65	6.27	
2025-01-15 16:02:03.22	77.62	6.28	
2025-01-15 16:02:03.42	77.59	6.29	
2025-01-15 16:02:03.63	77.56	6.30	
2025-01-15 16:02:03.83	77.53	6.31	
2025-01-15 16:02:04.03	77.51	6.32	
2025-01-15 16:02:04.24	77.48	6.33	
2025-01-15 16:02:04.44	77.45	6.34	
2025-01-15 16:02:04.64	77.42	6.35	
2025-01-15 16:02:04.84	77.39	6.36	
2025-01-15 16:02:05.05	77.36	6.37	
2025-01-15 16:02:05.25	77.34	6.38	
2025-01-15 16:02:05.45	77.31	6.39	
2025-01-15 16:02:05.66	77.28	6.40	
2025-01-15 16:02:05.86	77.25	6.41	
2025-01-15 16:02:06.06	77.22	6.42	
2025-01-15 16:02:06.27	77.19	6.43	
2025-01-15 16:02:06.47	77.17	6.44	
2025-01-15 16:02:06.67	77.14	6.45	
2025-01-15 16:02:06.88	77.11	6.46	
2025-01-15 16:02:07.08	77.08	6.47	
2025-01-15 16:02:07.28	77.05	6.48	
2025-01-15 16:02:07.48	77.02	6.49	
2025-01-15 16:02:07.69	76.99	6.50	
2025-01-15 16:02:07.89	76.97	6.51	
2025-01-15 16:02:08.09	76.94	6.52	
2025-01-15 16:02:08.30	76.91	6.53	
2025-01-15 16:02:08.50	76.88	6.54	
2025-01-15 16:02:08.70	76.85	6.55	
2025-01-15 16:02:08.91	76.82	6.56	
2025-01-15 16:02:09.11	76.79	6.57	
2025-01-15 16:02:09.31	76.77	6.58	
2025-01-15 16:02:09.52	76.74	6.59	
2025-01-15 16:02:09.72	76.71	6.60	
2025-01-15 16:02:09.92	76.68	6.61	
2025-01-15 16:02:10.12	76.65	6.62	
2025-01-15 16:02:10.33	76.62	6.64	
2025-01-15 16:02:10.53	76.59	6.65	
2025-01-15 16:02:10.73	76.56	6.66	
2025-01-15 16:02:10.94	76.53	6.67	
2025-01-15 16:02:11.14	76.50	6.68	
2025-01-15 16:02:11.34	76.48	6.69	
2025-01-15 16:02:11.55	76.45	6.70	
2025-01-15 16:02:11.75	76.42	6.71	
2025-01-15 16:02:11.95	76.39	6.72	
2025-01-15 16:02:12.16	76.36	6.73	
2025-01-15 16:02:12.36	76.33	6.74	
2025-01-15 16:02:12.56	76.30	6.75	
2025-01-15 16:02:12.76	76.27	6.76	
2025-01-15 16:02:12.97	76.24	6.77	
2025-01-15 16:02:13.17	76.21	6.78	
2025-01-15 16:02:13.37	76.19	6.79	
2025-01-15 16:02:13.58	76.16	6.80	
2025-01-15 16:02:13.78	76.13	6.81	
2025-01-15 16:02:13.98	76.10	6.82	
2025-01-15 16:02:14.19	76.07	6.83	
2025-01-15 16:02:14.39	76.04	6.84	
2025-01-15 16:02:14.59	76.01	6.85	
2025-01-15 16:02:14.80	75.98	6.86	
2025-01-15 16:02:15.00	75.95	6.87	
2025-01-15 16:02:15.20	75.92	6.88	
2025-01-15 16:02:15.40	75.89	6.89	
2025-01-15 16:02:15.61	75.86	6.90	
2025-01-15 16:02:15.81	75.83	6.91	
2025-01-15 16:02:16.01	75.80	6.92	
2025-01-15 16:02:16.22	75.77	6.93	
2025-01-15 16:02:16.42	75.74	6.94	
2025-01-15 16:02:16.62	75.71	6.95	
2025-01-15 16:02:16.83	75.68	6.96	
2025-01-15 16:02:17.03	75.66	6.97	
2025-01-15 16:02:17.23	75.63	6.98	
2025-01-15 16:02:17.44	75.60	6.99	
2025-01-15 16:02:17.64	75.57	7.00	
2025-01-15 16:02:17.84	75.54	7.01	
2025-01-15 16:02:18.05	75.51	7.02	
2025-01-15 16:02:18.25	75.48	7.03	
2025-01-15 16:02:18.45	75.45	7.04	
2025-01-15 16:02:18.65	75.42	7.05	
2025-01-15 16:02:18.86	75.39	7.06	
2025-01-15 16:02:19.06	75.36	7.07	
2025-01-15 16:02:19.26	75.33	7.08	
2025-01-15 16:02:19.47	75.30	7.09	
2025-01-15 16:02:19.67	75.27	7.10	
2025-01-15 16:02:19.87	75.24	7.11	
2025-01-15 16:02:20.08	75.21	7.12	
2025-01-15 16:02:20.28	75.18	7.13	
2025-01-15 16:02:20.48	75.15	7.14	
2025-01-15 16:02:20.69	75.12	7.15	
2025-01-15 16:02:20.89	75.09	7.16	
2025-01-15 16:02:21.09	75.06	7.17	
2025-01-15 16:02:21.29	75.03	7.18	
2025-01-15 16:02:21.50	75.00	7.19	
2025-01-15 16:02:21.70	74.97	7.20	
2025-01-15 16:02:21.90	74.94	7.21	
2025-01-15 16:02:22.11	74.91	7.22	
2025-01-15 16:02:22.31	74.88	7.23	
2025-01-15 16:02:22.51	74.85	7.24	
2025-01-15 16:02:22.72	74.82	7.25	
2025-01-15 16:02:22.92	74.79	7.26	
2025-01-15 16:02:23.12	74.76	7.27	
2025-01-15 16:02:23.33	74.73	7.28	
2025-01-15 16:02:23.53	74.70	7.29	
2025-01-15 16:02:23.73	74.67	7.30	
2025-01-15 16:02:23.93	74.64	7.31	
2025-01-15 16:02:24.14	74.60	7.32	
2025-01-15 16:02:24.34	74.57	7.33	
2025-01-15 16:02:24.54	74.54	7.34	
2025-01-15 16:02:24.75	74.51	7.35	
2025-01-15 16:02:24.95	74.48	7.36	
2025-01-15 16:02:25.15	74.45	7.37	
2025-01-15 16:02:25.36	74.42	7.38	
2025-01-15 16:02:25.56	74.39	7.39	
2025-01-15 16:02:25.76	74.36	7.40	
2025-01-15 16:02:25.97	74.33	7.41	
2025-01-15 16:02:26.17	74.30	7.42	
2025-01-15 16:02:26.37	74.27	7.42	
2025-01-15 16:02:26.57	74.24	7.43	
2025-01-15 16:02:26.78	74.21	7.44	
2025-01-15 16:02:26.98	74.18	7.45	
2025-01-15 16:02:27.18	74.15	7.46	
2025-01-15 16:02:27.39	74.11	7.47	
2025-01-15 16:02:27.59	74.08	7.48	
2025-01-15 16:02:27.79	74.05	7.49	
2025-01-15 16:02:28.00	74.02	7.50	
2025-01-15 16:02:28.20	73.99	7.51	
2025-01-15 16:02:28.40	73.96	7.52	
2025-01-15 16:02:28.61	73.93	7.53	
2025-01-15 16:02:28.81	73.90	7.54	
2025-01-15 16:02:29.01	73.87	7.55	
2025-01-15 16:02:29.21	73.84	7.56	
2025-01-15 16:02:29.42	73.81	7.57	
2025-01-15 16:02:29.62	73.78	7.58	
2025-01-15 16:02:29.82	73.74	7.59	
2025-01-15 16:02:30.03	73.71	7.60	
2025-01-15 16:02:30.23	73.68	7.61	
2025-01-15 16:02:30.43	73.65	7.62	
2025-01-15 16:02:30.64	73.62	7.63	
2025-01-15 16:02:30.84	73.59	7.64	
2025-01-15 16:02:31.04	73.56	7.65	
2025-01-15 16:02:31.25	73.53	7.66	
2025-01-15 16:02:31.45	73.49	7.67	
2025-01-15 16:02:31.65	73.46	7.68	
2025-01-15 16:02:31.85	73.43	7.69	
2025-01-15 16:02:32.06	73.40	7.70	
2025-01-15 16:02:32.26	73.37	7.71	
2025-01-15 16:02:32.46	73.34	7.72	
2025-01-15 16:02:32.67	73.31	7.73	
2025-01-15 16:02:32.87	73.28	7.74	
2025-01-15 16:02:33.07	73.24	7.75	
2025-01-15 16:02:33.28	73.21	7.76	
2025-01-15 16:02:33.48	73.18	7.77	
2025-01-15 16:02:33.68	73.15	7.78	
2025-01-15 16:02:33.89	73.12	7.79	
2025-01-15 16:02:34.09	73.09	7.80	
2025-01-15 16:02:34.29	73.06	7.81	
2025-01-15 16:02:34.49	73.02	7.82	
2025-01-15 16:02:34.70	72.99	7.83	
2025-01-15 16:02:34.90	72.96	7.84	
2025-01-15 16:02:35.10	72.93	7.85	
2025-01-15 16:02:35.31	72.90	7.86	
2025-01-15 16:02:35.51	72.87	7.87	
2025-01-15 16:02:35.71	72.83	7.88	
2025-01-15 16:02:35.92	72.80	7.89	
2025-01-15 16:02:36.12	72.77	7.90	
2025-01-15 16:02:36.32	72.74	7.91	
2025-01-15 16:02:36.53	72.71	7.92	
2025-01-15 16:02:36.73	72.67	7.93	
2025-01-15 16:02:36.93	72.64	7.94	
2025-01-15 16:02:37.13	72.61	7.94	
2025-01-15 16:02:37.34	72.58	7.95	
2025-01-15 16:02:37.54	72.55	7.96	
2025-01-15 16:02:37.74	72.52	7.97	
2025-01-15 16:02:37.95	72.48	7.98	
2025-01-15 16:02:38.15	72.45	7.99	
2025-01-15 16:02:38.35	72.42	8.00	
2025-01-15 16:02:38.56	72.39	8.01	
2025-01-15 16:02:38.76	72.35	8.02	
2025-01-15 16:02:38.96	72.32	8.03	
2025-01-15 16:02:39.17	72.29	8.04	
2025-01-15 16:02:39.37	72.26	8.05	
2025-01-15 16:02:39.57	72.23	8.06	
2025-01-15 16:02:39.78	72.19	8.07	
2025-01-15 16:02:39.98	72.16	8.08	
2025-01-15 16:02:40.18	72.13	8.09	
2025-01-15 16:02:40.38	72.10	8.10	
2025-01-15 16:02:40.59	72.06	8.11	
2025-01-15 16:02:40.79	72.03	8.12	
2025-01-15 16:02:40.99	72.00	8.13	
2025-01-15 16:02:41.20	71.97	8.14	
2025-01-15 16:02:41.40	71.94	8.15	
2025-01-15 16:02:41.60	71.90	8.16	
2025-01-15 16:02:41.81	71.87	8.17	
2025-01-15 16:02:42.01	71.84	8.18	
2025-01-15 16:02:42.21	71.81	8.19	
2025-01-15 16:02:42.42	71.77	8.20	
2025-01-15 16:02:42.62	71.74	8.21	
2025-01-15 16:02:42.82	71.71	8.22	
2025-01-15 16:02:43.02	71.68	8.23	
2025-01-15 16:02:43.23	71.64	8.23	
2025-01-15 16:02:43.43	71.61	8.24	
2025-01-15 16:02:43.63	71.58	8.25	
2025-01-15 16:02:43.84	71.55	8.26	
2025-01-15 16:02:44.04	71.51	8.27	
2025-01-15 16:02:44.24	71.48	8.28	
2025-01-15 16:02:44.45	71.45	8.29	
2025-01-15 16:02:44.65	71.41	8.30	
2025-01-15 16:02:44.85	71.38	8.31	
2025-01-15 16:02:45.06	71.35	8.32	
2025-01-15 16:02:45.26	71.32	8.33	
2025-01-15 16:02:45.46	71.28	8.34	
2025-01-15 16:02:45.66	71.25	8.35	
2025-01-15 16:02:45.87	71.22	8.36	
2025-01-15 16:02:46.07	71.19	8.37	
2025-01-15 16:02:46.27	71.15	8.38	
2025-01-15 16:02:46.48	71.12	8.39	
2025-01-15 16:02:46.68	71.09	8.40	
2025-01-15 16:02:46.88	71.05	8.41	
2025-01-15 16:02:47.09	71.02	8.42	
2025-01-15 16:02:47.29	70.99	8.43	
2025-01-15 16:02:47.49	70.95	8.44	
2025-01-15 16:02:47.70	70.92	8.45	
2025-01-15 16:02:47.90	70.89	8.45	
2025-01-15 16:02:48.10	70.85	8.46	
2025-01-15 16:02:48.30	70.82	8.47	
2025-01-15 16:02:48.51	70.79	8.48	
2025-01-15 16:02:48.71	70.76	8.49	
2025-01-15 16:02:48.91	70.72	8.50	
2025-01-15 16:02:49.12	70.69	8.51	
2025-01-15 16:02:49.32	70.66	8.52	
2025-01-15 16:02:49.52	70.62	8.53	
2025-01-15 16:02:49.73	70.59	8.54	
2025-01-15 16:02:49.93	70.56	8.55	
2025-01-15 16:02:50.13	70.52	8.56	
2025-01-15 16:02:50.34	70.49	8.57	
2025-01-15 16:02:50.54	70.45	8.58	
2025-01-15 16:02:50.74	70.42	8.59	
2025-01-15 16:02:50.94	70.39	8.60	
2025-01-15 16:02:51.15	70.35	8.61	
2025-01-15 16:02:51.35	70.32	8.62	
2025-01-15 16:02:51.55	70.29	8.62	
2025-01-15 16:02:51.76	70.25	8.63	
2025-01-15 16:02:51.96	70.22	8.64	
2025-01-15 16:02:52.16	70.19	8.65	
2025-01-15 16:02:52.37	70.15	8.66	
2025-01-15 16:02:52.57	70.12	8.67	
2025-01-15 16:02:52.77	70.09	8.68	
2025-01-15 16:02:52.98	70.05	8.69	
2025-01-15 16:02:53.18	70.02	8.70	
2025-01-15 16:02:53.38	69.98	8.71	
2025-01-15 16:02:53.58	69.95	8.72	
2025-01-15 16:02:53.79	69.92	8.73	
2025-01-15 16:02:53.99	69.88	8.74	
2025-01-15 16:02:54.19	69.85	8.75	
2025-01-15 16:02:54.40	69.81	8.76	
2025-01-15 16:02:54.60	69.78	8.77	
2025-01-15 16:02:54.80	69.75	8.77	
2025-01-15 16:02:55.01	69.71	8.78	
2025-01-15 16:02:55.21	69.68	8.79	
2025-01-15 16:02:55.41	69.65	8.80	
2025-01-15 16:02:55.62	69.61	8.81	
2025-01-15 16:02:55.82	69.58	8.82	
2025-01-15 16:02:56.02	69.54	8.83	
2025-01-15 16:02:56.22	69.51	8.84	
2025-01-15 16:02:56.43	69.47	8.85	
2025-01-15 16:02:56.63	69.44	8.86	
2025-01-15 16:02:56.83	69.41	8.87	
2025-01-15 16:02:57.04	69.37	8.88	
2025-01-15 16:02:57.24	69.34	8.89	
2025-01-15 16:02:57.44	69.30	8.90	
2025-01-15 16:02:57.65	69.27	8.90	
2025-01-15 16:02:57.85	69.24	8.91	
2025-01-15 16:02:58.05	69.20	8.92	
2025-01-15 16:02:58.26	69.17	8.93	
2025-01-15 16:02:58.46	69.13	8.94	
2025-01-15 16:02:58.66	69.10	8.95	
2025-01-15 16:02:58.86	69.06	8.96	
2025-01-15 16:02:59.08	69.03	8.97	
2025-01-15 16:02:59.29	68.99	8.98	
2025-01-15 16:02:59.49	68.96	8.99	
2025-01-15 16:02:59.69	68.92	9.00	
2025-01-15 16:02:59.90	68.89	9.01	
2025-01-15 16:03:00.10	68.85	9.02	
2025-01-15 16:03:00.30	68.82	9.03	
2025-01-15 16:03:00.51	68.78	9.03	
2025-01-15 16:03:00.71	68.75	9.04	
2025-01-15 16:03:00.91	68.72	9.05	
2025-01-15 16:03:01.11	68.68	9.06	
2025-01-15 16:03:01.32	68.65	9.07	
2025-01-15 16:03:01.52	68.61	9.08	
2025-01-15 16:03:01.72	68.58	9.09	
2025-01-15 16:03:01.93	68.54	9.10	
2025-01-15 16:03:02.13	68.51	9.11	
2025-01-15 16:03:02.33	68.47	9.12	
2025-01-15 16:03:02.54	68.44	9.13	
2025-01-15 16:03:02.74	68.40	9.14	
2025-01-15 16:03:02.94	68.37	9.14	
2025-01-15 16:03:03.15	68.33	9.15	
2025-01-15 16:03:03.35	68.30	9.16	
2025-01-15 16:03:03.55	68.26	9.17	
2025-01-15 16:03:03.75	68.23	9.18	
2025-01-15 16:03:03.96	68.19	9.19	
2025-01-15 16:03:04.16	68.16	9.20	
2025-01-15 16:03:04.36	68.12	9.21	
2025-01-15 16:03:04.57	68.09	9.22	
2025-01-15 16:03:04.77	68.05	9.23	
2025-01-15 16:03:04.97	68.02	9.24	
2025-01-15 16:03:05.18	67.98	9.24	
2025-01-15 16:03:05.38	67.95	9.25	
2025-01-15 16:03:05.58	67.91	9.26	
2025-01-15 16:03:05.79	67.88	9.27	
2025-01-15 16:03:05.99	67.84	9.28	
2025-01-15 16:03:06.19	67.81	9.29	
2025-01-15 16:03:06.39	67.77	9.30	
2025-01-15 16:03:06.60	67.74	9.31	
2025-01-15 16:03:06.80	67.70	9.32	
2025-01-15 16:03:07.00	67.67	9.33	
2025-01-15 16:03:07.21	67.63	9.33	
2025-01-15 16:03:07.41	67.59	9.34	
2025-01-15 16:03:07.61	67.56	9.35	
2025-01-15 16:03:07.82	67.52	9.36	
2025-01-15 16:03:08.02	67.49	9.37	
2025-01-15 16:03:08.22	67.45	9.38	
2025-01-15 16:03:08.43	67.42	9.39	
2025-01-15 16:03:08.63	67.38	9.40	
2025-01-15 16:03:08.83	67.35	9.41	
2025-01-15 16:03:09.03	67.31	9.41	
2025-01-15 16:03:09.24	67.27	9.42	
2025-01-15 16:03:09.44	67.24	9.43	
2025-01-15 16:03:09.64	67.20	9.44	
2025-01-15 16:03:09.85	67.17	9.45	
2025-01-15 16:03:10.05	67.13	9.46	
2025-01-15 16:03:10.25	67.10	9.47	
2025-01-15 16:03:10.46	67.06	9.48	
2025-01-15 16:03:10.66	67.02	9.49	
2025-01-15 16:03:10.86	66.99	9.50	
2025-01-15 16:03:11.07	66.95	9.50	
2025-01-15 16:03:11.27	66.92	9.51	
2025-01-15 16:03:11.47	66.88	9.52	
2025-01-15 16:03:11.67	66.85	9.53	
2025-01-15 16:03:11.88	66.81	9.54	
2025-01-15 16:03:12.08	66.77	9.55	
2025-01-15 16:03:12.28	66.74	9.56	
2025-01-15 16:03:12.49	66.70	9.57	
2025-01-15 16:03:12.69	66.67	9.57	
2025-01-15 16:03:12.89	66.63	9.58	
2025-01-15 16:03:13.10	66.59	9.59	
2025-01-15 16:03:13.30	66.56	9.60	
2025-01-15 16:03:13.50	66.52	9.61	
2025-01-15 16:03:13.71	66.48	9.62	
2025-01-15 16:03:13.91	66.45	9.63	
2025-01-15 16:03:14.11	66.41	9.64	
2025-01-15 16:03:14.31	66.38	9.64	
2025-01-15 16:03:14.52	66.34	9.65	
2025-01-15 16:03:14.72	66.30	9.66	
2025-01-15 16:03:14.92	66.27	9.67	
2025-01-15 16:03:15.13	66.23	9.68	
2025-01-15 16:03:15.33	66.19	9.69	
2025-01-15 16:03:15.53	66.16	9.70	
2025-01-15 16:03:15.74	66.12	9.71	
2025-01-15 16:03:15.94	66.09	9.71	
2025-01-15 16:03:16.14	66.05	9.72	
2025-01-15 16:03:16.35	66.01	9.73	
2025-01-15 16:03:16.55	65.98	9.74	
2025-01-15 16:03:16.75	65.94	9.75	
2025-01-15 16:03:16.95	65.90	9.76	
2025-01-15 16:03:17.16	65.87	9.77	
2025-01-15 16:03:17.36	65.83	9.78	
2025-01-15 16:03:17.56	65.79	9.78	
2025-01-15 16:03:17.77	65.76	9.79	
2025-01-15 16:03:17.97	65.72	9.80	
2025-01-15 16:03:18.17	65.68	9.81	
2025-01-15 16:03:18.38	65.65	9.82	
2025-01-15 16:03:18.58	65.61	9.83	
2025-01-15 16:03:18.78	65.57	9.84	
2025-01-15 16:03:18.99	65.54	9.84	
2025-01-15 16:03:19.19	65.50	9.85	
2025-01-15 16:03:19.39	65.46	9.86	
2025-01-15 16:03:19.60	65.43	9.87	
2025-01-15 16:03:19.80	65.39	9.88	
2025-01-15 16:03:20.00	65.35	9.89	
2025-01-15 16:03:20.20	65.32	9.90	
2025-01-15 16:03:20.41	65.28	9.90	
2025-01-15 16:03:20.61	65.24	9.91	
2025-01-15 16:03:20.81	65.21	9.92	
2025-01-15 16:03:21.02	65.17	9.93	
2025-01-15 16:03:21.22	65.13	9.94	
2025-01-15 16:03:21.42	65.09	9.95	
2025-01-15 16:03:21.63	65.06	9.96	
2025-01-15 16:03:21.83	65.02	9.96	
2025-01-15 16:03:22.03	64.98	9.97	
2025-01-15 16:03:22.24	64.94	9.98	
2025-01-15 16:03:22.44	64.91	9.99	
2025-01-15 16:03:22.64	64.87	10.00	
2025-01-15 16:03:22.84	64.83	10.01	
2025-01-15 16:03:23.05	64.80	10.02	
2025-01-15 16:03:23.25	64.76	10.02	
2025-01-15 16:03:23.45	64.72	10.03	
2025-01-15 16:03:23.66	64.68	10.04	
2025-01-15 16:03:23.86	64.65	10.05	
2025-01-15 16:03:24.06	64.61	10.06	
2025-01-15 16:03:24.27	64.57	10.07	
2025-01-15 16:03:24.47	64.54	10.07	
2025-01-15 16:03:24.67	64.50	10.08	
2025-01-15 16:03:24.88	64.46	10.09	
2025-01-15 16:03:25.08	64.42	10.10	
2025-01-15 16:03:25.28	64.39	10.11	
2025-01-15 16:03:25.48	64.35	10.12	
2025-01-15 16:03:25.69	64.31	10.12	
2025-01-15 16:03:25.89	64.27	10.13	
2025-01-15 16:03:26.09	64.24	10.14	
2025-01-15 16:03:26.30	64.20	10.15	
2025-01-15 16:03:26.50	64.16	10.16	
2025-01-15 16:03:26.70	64.12	10.17	
2025-01-15 16:03:26.91	64.08	10.17	
2025-01-15 16:03:27.11	64.05	10.18	
2025-01-15 16:03:27.31	64.01	10.19	
2025-01-15 16:03:27.52	63.97	10.20	
2025-01-15 16:03:27.72	63.93	10.21	
2025-01-15 16:03:27.92	63.90	10.22	
2025-01-15 16:03:28.12	63.86	10.22	
2025-01-15 16:03:28.33	63.82	10.23	
2025-01-15 16:03:28.53	63.78	10.24	
2025-01-15 16:03:28.73	63.75	10.25	
2025-01-15 16:03:28.94	63.71	10.26	
2025-01-15 16:03:29.14	63.67	10.26	
2025-01-15 16:03:29.34	63.63	10.27	
2025-01-15 16:03:29.55	63.59	10.28	
2025-01-15 16:03:29.75	63.55	10.29	
2025-01-15 16:03:29.95	63.52	10.30	
2025-01-15 16:03:30.16	63.48	10.31	
2025-01-15 16:03:30.36	63.44	10.31	
2025-01-15 16:03:30.56	63.40	10.32	
2025-01-15 16:03:30.76	63.37	10.33	
2025-01-15 16:03:30.97	63.33	10.34	
2025-01-15 16:03:31.17	63.29	10.35	
2025-01-15 16:03:31.37	63.25	10.35	
2025-01-15 16:03:31.58	63.21	10.36	
2025-01-15 16:03:31.78	63.17	10.37	
2025-01-15 16:03:31.98	63.14	10.38	
2025-01-15 16:03:32.19	63.10	10.39	
2025-01-15 16:03:32.39	63.06	10.39	
2025-01-15 16:03:32.59	63.02	10.40	
2025-01-15 16:03:32.80	62.98	10.41	
2025-01-15 16:03:33.00	62.94	10.42	
2025-01-15 16:03:33.20	62.91	10.43	
2025-01-15 16:03:33.40	62.87	10.43	
2025-01-15 16:03:33.61	62.83	10.44	
2025-01-15 16:03:33.81	62.79	10.45	
2025-01-15 16:03:34.01	62.75	10.46	
2025-01-15 16:03:34.22	62.71	10.47	
2025-01-15 16:03:34.42	62.67	10.48	
2025-01-15 16:03:34.62	62.64	10.48	
2025-01-15 16:03:34.83	62.60	10.49	
2025-01-15 16:03:35.03	62.56	10.50	
2025-01-15 16:03:35.23	62.52	10.51	
2025-01-15 16:03:35.44	62.48	10.52	
2025-01-15 16:03:35.64	62.44	10.52	
2025-01-15 16:03:35.84	62.40	10.53	
2025-01-15 16:03:36.04	62.37	10.54	
2025-01-15 16:03:36.25	62.33	10.55	
2025-01-15 16:03:36.45	62.29	10.55	
2025-01-15 16:03:36.65	62.25	10.56	
2025-01-15 16:03:36.86	62.21	10.57	
2025-01-15 16:03:37.06	62.17	10.58	
2025-01-15 16:03:37.26	62.13	10.59	
2025-01-15 16:03:37.47	62.09	10.59	
2025-01-15 16:03:37.67	62.06	10.60	
2025-01-15 16:03:37.87	62.02	10.61	
2025-01-15 16:03:38.08	61.98	10.62	
2025-01-15 16:03:38.28	61.94	10.63	
2025-01-15 16:03:38.48	61.90	10.63	
2025-01-15 16:03:38.68	61.86	10.64	
2025-01-15 16:03:38.89	61.82	10.65	
2025-01-15 16:03:39.09	61.78	10.66	
2025-01-15 16:03:39.29	61.74	10.66	
2025-01-15 16:03:39.50	61.70	10.67	
2025-01-15 16:03:39.70	61.67	10.68	
2025-01-15 16:03:39.90	61.63	10.69	
2025-01-15 16:03:40.11	61.59	10.70	
2025-01-15 16:03:40.31	61.55	10.70	
2025-01-15 16:03:40.51	61.51	10.71	
2025-01-15 16:03:40.72	61.47	10.72	
2025-01-15 16:03:40.92	61.43	10.73	
2025-01-15 16:03:41.12	61.39	10.73	
2025-01-15 16:03:41.33	61.35	10.74	
2025-01-15 16:03:41.53	61.31	10.75	
2025-01-15 16:03:41.73	61.27	10.76	
2025-01-15 16:03:41.93	61.23	10.76	
2025-01-15 16:03:42.14	61.19	10.77	
2025-01-15 16:03:42.34	61.15	10.78	
2025-01-15 16:03:42.54	61.12	10.79	
2025-01-15 16:03:42.75	61.08	10.79	
2025-01-15 16:03:42.95	61.04	10.80	
2025-01-15 16:03:43.15	61.00	10.81	
2025-01-15 16:03:43.36	60.96	10.82	
2025-01-15 16:03:43.56	60.92	10.82	
2025-01-15 16:03:43.76	60.88	10.83	
2025-01-15 16:03:43.97	60.84	10.84	
2025-01-15 16:03:44.17	60.80	10.85	
2025-01-15 16:03:44.37	60.76	10.85	
2025-01-15 16:03:44.57	60.72	10.86	
2025-01-15 16:03:44.78	60.68	10.87	
2025-01-15 16:03:44.98	60.64	10.88	
2025-01-15 16:03:45.18	60.60	10.88	
2025-01-15 16:03:45.39	60.56	10.89	
2025-01-15 16:03:45.59	60.52	10.90	
2025-01-15 16:03:45.79	60.48	10.91	
2025-01-15 16:03:46.00	60.44	10.91	
2025-01-15 16:03:46.20	60.40	10.92	
2025-01-15 16:03:46.40	60.36	10.93	
2025-01-15 16:03:46.61	60.32	10.94	
2025-01-15 16:03:46.81	60.28	10.94	
2025-01-15 16:03:47.01	60.24	10.95	
2025-01-15 16:03:47.21	60.20	10.96	
2025-01-15 16:03:47.42	60.16	10.97	
2025-01-15 16:03:47.62	60.12	10.97	
2025-01-15 16:03:47.82	60.08	10.98	
2025-01-15 16:03:48.03	60.04	10.99	
2025-01-15 16:03:48.23	60.00	11.00	
2025-01-15 16:03:48.43	59.96	11.00	
2025-01-15 16:03:48.64	59.92	11.01	
2025-01-15 16:03:48.84	59.88	11.02	
2025-01-15 16:03:49.04	59.84	11.03	
2025-01-15 16:03:49.25	59.80	11.03	
2025-01-15 16:03:49.45	59.76	11.04	
2025-01-15 16:03:49.65	59.72	11.05	
2025-01-15 16:03:49.85	59.68	11.05	
2025-01-15 16:03:50.06	59.64	11.06	
2025-01-15 16:03:50.26	59.60	11.07	
2025-01-15 16:03:50.46	59.56	11.08	
2025-01-15 16:03:50.67	59.52	11.08	
2025-01-15 16:03:50.87	59.48	11.09	
2025-01-15 16:03:51.07	59.44	11.10	
2025-01-15 16:03:51.28	59.40	11.10	
2025-01-15 16:03:51.48	59.36	11.11	
2025-01-15 16:03:51.68	59.32	11.12	
2025-01-15 16:03:51.89	59.28	11.13	
2025-01-15 16:03:52.09	59.24	11.13	
2025-01-15 16:03:52.29	59.20	11.14	
2025-01-15 16:03:52.49	59.16	11.15	
2025-01-15 16:03:52.70	59.12	11.15	
2025-01-15 16:03:52.90	59.08	11.16	
2025-01-15 16:03:53.10	59.04	11.17	
2025-01-15 16:03:53.31	58.99	11.18	
2025-01-15 16:03:53.51	58.95	11.18	
2025-01-15 16:03:53.71	58.91	11.19	
2025-01-15 16:03:53.92	58.87	11.20	
2025-01-15 16:03:54.12	58.83	11.20	
2025-01-15 16:03:54.32	58.79	11.21	
2025-01-15 16:03:54.53	58.75	11.22	
2025-01-15 16:03:54.73	58.71	11.22	
2025-01-15 16:03:54.93	58.67	11.23	
2025-01-15 16:03:55.13	58.63	11.24	
2025-01-15 16:03:55.34	58.59	11.25	
2025-01-15 16:03:55.54	58.55	11.25	
2025-01-15 16:03:55.74	58.51	11.26	
2025-01-15 16:03:55.95	58.46	11.27	
2025-01-15 16:03:56.15	58.42	11.27	
2025-01-15 16:03:56.35	58.38	11.28	
2025-01-15 16:03:56.56	58.34	11.29	
2025-01-15 16:03:56.76	58.30	11.29	
2025-01-15 16:03:56.96	58.26	11.30	
2025-01-15 16:03:57.17	58.22	11.31	
2025-01-15 16:03:57.37	58.18	11.31	
2025-01-15 16:03:57.57	58.14	11.32	
2025-01-15 16:03:57.77	58.10	11.33	
2025-01-15 16:03:57.98	58.05	11.34	
2025-01-15 16:03:58.18	58.01	11.34	
2025-01-15 16:03:58.38	57.97	11.35	
2025-01-15 16:03:58.59	57.93	11.36	
2025-01-15 16:03:58.79	57.89	11.36	
2025-01-15 16:03:58.99	57.85	11.37	
2025-01-15 16:03:59.20	57.81	11.38	
2025-01-15 16:03:59.40	57.77	11.38	
2025-01-15 16:03:59.60	57.73	11.39	
2025-01-15 16:03:59.81	57.68	11.40	
2025-01-15 16:04:00.01	57.64	11.40	
2025-01-15 16:04:00.21	57.60	11.41	
2025-01-15 16:04:00.41	57.56	11.42	
2025-01-15 16:04:00.62	57.52	11.42	
2025-01-15 16:04:00.82	57.48	11.43	
2025-01-15 16:04:01.02	57.44	11.44	
2025-01-15 16:04:01.23	57.40	11.44	
2025-01-15 16:04:01.43	57.35	11.45	
2025-01-15 16:04:01.63	57.31	11.46	
2025-01-15 16:04:01.84	57.27	11.46	
2025-01-15 16:04:02.04	57.23	11.47	
2025-01-15 16:04:02.24	57.19	11.48	
2025-01-15 16:04:02.45	57.15	11.48	
2025-01-15 16:04:02.65	57.11	11.49	
2025-01-15 16:04:02.85	57.06	11.49	
2025-01-15 16:04:03.06	57.02	11.50	
2025-01-15 16:04:03.26	56.98	11.51	
2025-01-15 16:04:03.46	56.94	11.51	
2025-01-15 16:04:03.66	56.90	11.52	
2025-01-15 16:04:03.87	56.86	11.53	
2025-01-15 16:04:04.07	56.81	11.53	
2025-01-15 16:04:04.27	56.77	11.54	
2025-01-15 16:04:04.48	56.73	11.55	
2025-01-15 16:04:04.68	56.69	11.55	
2025-01-15 16:04:04.88	56.65	11.56	
2025-01-15 16:04:05.09	56.60	11.57	
2025-01-15 16:04:05.29	56.56	11.57	
2025-01-15 16:04:05.49	56.52	11.58	
2025-01-15 16:04:05.69	56.48	11.58	
2025-01-15 16:04:05.90	56.44	11.59	
2025-01-15 16:04:06.10	56.40	11.60	
2025-01-15 16:04:06.30	56.36	11.60	
2025-01-15 16:04:06.51	56.31	11.61	
2025-01-15 16:04:06.71	56.27	11.62	
2025-01-15 16:04:06.91	56.23	11.62	
2025-01-15 16:04:07.12	56.19	11.63	
2025-01-15 16:04:07.32	56.14	11.64	
2025-01-15 16:04:07.52	56.10	11.64	
2025-01-15 16:04:07.73	56.06	11.65	
2025-01-15 16:04:07.93	56.02	11.65	
2025-01-15 16:04:08.13	55.98	11.66	
2025-01-15 16:04:08.34	55.93	11.67	
2025-01-15 16:04:08.54	55.89	11.67	
2025-01-15 16:04:08.74	55.85	11.68	
2025-01-15 16:04:08.94	55.81	11.68	
2025-01-15 16:04:09.15	55.77	11.69	
2025-01-15 16:04:09.35	55.72	11.70	
2025-01-15 16:04:09.55	55.68	11.70	
2025-01-15 16:04:09.76	55.64	11.71	
2025-01-15 16:04:09.96	55.60	11.72	
2025-01-15 16:04:10.16	55.56	11.72	
2025-01-15 16:04:10.37	55.51	11.73	
2025-01-15 16:04:10.57	55.47	11.73	
2025-01-15 16:04:10.77	55.43	11.74	
2025-01-15 16:04:10.98	55.39	11.75	
2025-01-15 16:04:11.18	55.34	11.75	
2025-01-15 16:04:11.38	55.30	11.76	
2025-01-15 16:04:11.58	55.26	11.76	
2025-01-15 16:04:11.79	55.22	11.77	
2025-01-15 16:04:11.99	55.17	11.78	
2025-01-15 16:04:12.19	55.13	11.78	
2025-01-15 16:04:12.40	55.09	11.79	
2025-01-15 16:04:12.60	55.05	11.79	
2025-01-15 16:04:12.80	55.01	11.80	
2025-01-15 16:04:13.01	54.96	11.81	
2025-01-15 16:04:13.21	54.92	11.81	
2025-01-15 16:04:13.41	54.88	11.82	
2025-01-15 16:04:13.62	54.83	11.82	
2025-01-15 16:04:13.82	54.79	11.83	
2025-01-15 16:04:14.02	54.75	11.83	
2025-01-15 16:04:14.22	54.71	11.84	
2025-01-15 16:04:14.43	54.66	11.85	
2025-01-15 16:04:14.63	54.62	11.85	
2025-01-15 16:04:14.83	54.58	11.86	
2025-01-15 16:04:15.04	54.54	11.86	
2025-01-15 16:04:15.24	54.49	11.87	
2025-01-15 16:04:15.44	54.45	11.88	
2025-01-15 16:04:15.65	54.41	11.88	
2025-01-15 16:04:15.85	54.36	11.89	
2025-01-15 16:04:16.05	54.32	11.89	
2025-01-15 16:04:16.26	54.28	11.90	
2025-01-15 16:04:16.46	54.24	11.90	
2025-01-15 16:04:16.66	54.19	11.91	
2025-01-15 16:04:16.86	54.15	11.92	
2025-01-15 16:04:17.07	54.11	11.92	
2025-01-15 16:04:17.27	54.07	11.93	
2025-01-15 16:04:17.47	54.02	11.93	
2025-01-15 16:04:17.68	53.98	11.94	
2025-01-15 16:04:17.88	53.94	11.94	
2025-01-15 16:04:18.08	53.89	11.95	
2025-01-15 16:04:18.29	53.85	11.95	
2025-01-15 16:04:18.49	53.81	11.96	
2025-01-15 16:04:18.69	53.77	11.97	
2025-01-15 16:04:18.90	53.72	11.97	
2025-01-15 16:04:19.10	53.68	11.98	
2025-01-15 16:04:19.30	53.64	11.98	
2025-01-15 16:04:19.50	53.59	11.99	
2025-01-15 16:04:19.71	53.55	11.99	
2025-01-15 16:04:19.91	53.51	12.00	
2025-01-15 16:04:20.11	53.46	12.00	
2025-01-15 16:04:20.32	53.42	12.01	
2025-01-15 16:04:20.52	53.38	12.01	
2025-01-15 16:04:20.72	53.33	12.02	
2025-01-15 16:04:20.93	53.29	12.03	
2025-01-15 16:04:21.13	53.25	12.03	
2025-01-15 16:04:21.33	53.20	12.04	
2025-01-15 16:04:21.54	53.16	12.04	
2025-01-15 16:04:21.74	53.12	12.05	
2025-01-15 16:04:21.94	53.07	12.05	
2025-01-15 16:04:22.14	53.03	12.06	
2025-01-15 16:04:22.35	52.99	12.06	
2025-01-15 16:04:22.55	52.94	12.07	
2025-01-15 16:04:22.75	52.90	12.07	
2025-01-15 16:04:22.96	52.86	12.08	
2025-01-15 16:04:23.16	52.81	12.08	
2025-01-15 16:04:23.36	52.77	12.09	
2025-01-15 16:04:23.57	52.73	12.09	
2025-01-15 16:04:23.77	52.68	12.10	
2025-01-15 16:04:23.97	52.64	12.10	
2025-01-15 16:04:24.18	52.60	12.11	
2025-01-15 16:04:24.38	52.55	12.12	
2025-01-15 16:04:24.58	52.51	12.12	
2025-01-15 16:04:24.78	52.47	12.13	
2025-01-15 16:04:24.99	52.42	12.13	
2025-01-15 16:04:25.19	52.38	12.14	
2025-01-15 16:04:25.39	52.34	12.14	
2025-01-15 16:04:25.60	52.29	12.15	
2025-01-15 16:04:25.80	52.25	12.15	
2025-01-15 16:04:26.00	52.21	12.16	
2025-01-15 16:04:26.21	52.16	12.16	
2025-01-15 16:04:26.41	52.12	12.17	
2025-01-15 16:04:26.61	52.07	12.17	
2025-01-15 16:04:26.82	52.03	12.18	
2025-01-15 16:04:27.02	51.99	12.18	
2025-01-15 16:04:27.22	51.94	12.19	
2025-01-15 16:04:27.43	51.90	12.19	
2025-01-15 16:04:27.63	51.86	12.20	
2025-01-15 16:04:27.83	51.81	12.20	
2025-01-15 16:04:28.03	51.77	12.21	
2025-01-15 16:04:28.24	51.72	12.21	
2025-01-15 16:04:28.44	51.68	12.22	
2025-01-15 16:04:28.64	51.64	12.22	
2025-01-15 16:04:28.85	51.59	12.22	
2025-01-15 16:04:29.05	51.55	12.23	
2025-01-15 16:04:29.25	51.51	12.23	
2025-01-15 16:04:29.46	51.46	12.24	
2025-01-15 16:04:29.66	51.42	12.24	
2025-01-15 16:04:29.86	51.37	12.25	
2025-01-15 16:04:30.07	51.33	12.25	
2025-01-15 16:04:30.27	51.29	12.26	
2025-01-15 16:04:30.47	51.24	12.26	
2025-01-15 16:04:30.67	51.20	12.27	
2025-01-15 16:04:30.88	51.15	12.27	
2025-01-15 16:04:31.08	51.11	12.28	
2025-01-15 16:04:31.28	51.07	12.28	
2025-01-15 16:04:31.49	51.02	12.29	
2025-01-15 16:04:31.69	50.98	12.29	
2025-01-15 16:04:31.89	50.93	12.30	
2025-01-15 16:04:32.10	50.89	12.30	
2025-01-15 16:04:32.30	50.85	12.30	
2025-01-15 16:04:32.50	50.80	12.31	
2025-01-15 16:04:32.71	50.76	12.31	
2025-01-15 16:04:32.91	50.71	12.32	
2025-01-15 16:04:33.11	50.67	12.32	
2025-01-15 16:04:33.31	50.63	12.33	
2025-01-15 16:04:33.52	50.58	12.33	
2025-01-15 16:04:33.72	50.54	12.34	
2025-01-15 16:04:33.92	50.49	12.34	
2025-01-15 16:04:34.13	50.45	12.35	
2025-01-15 16:04:34.33	50.40	12.35	
2025-01-15 16:04:34.53	50.36	12.35	
2025-01-15 16:04:34.74	50.31	12.36	
2025-01-15 16:04:34.94	50.27	12.36	
2025-01-15 16:04:35.14	50.23	12.37	
2025-01-15 16:04:35.35	50.18	12.37	
2025-01-15 16:04:35.55	50.14	12.38	
2025-01-15 16:04:35.75	50.09	12.38	
2025-01-15 16:04:35.95	50.05	12.38	
2025-01-15 16:04:36.16	50.00	12.39	
2025-01-15 16:04:36.36	49.96	12.39	
2025-01-15 16:04:36.56	49.92	12.40	
2025-01-15 16:04:36.77	49.87	12.40	
2025-01-15 16:04:36.97	49.83	12.41	
2025-01-15 16:04:37.17	49.78	12.41	
2025-01-15 16:04:37.38	49.74	12.41	
2025-01-15 16:04:37.58	49.69	12.42	
2025-01-15 16:04:37.78	49.65	12.42	
2025-01-15 16:04:37.99	49.60	12.43	
2025-01-15 16:04:38.19	49.56	12.43	
2025-01-15 16:04:38.39	49.52	12.44	
2025-01-15 16:04:38.59	49.47	12.44	
2025-01-15 16:04:38.80	49.43	12.44	
2025-01-15 16:04:39.00	49.38	12.45	
2025-01-15 16:04:39.20	49.34	12.45	
2025-01-15 16:04:39.41	49.29	12.46	
2025-01-15 16:04:39.61	49.25	12.46	
2025-01-15 16:04:39.81	49.21	12.46	
2025-01-15 16:04:40.02	49.16	12.47	
2025-01-15 16:04:40.22	49.12	12.47	
2025-01-15 16:04:40.42	49.07	12.48	
2025-01-15 16:04:40.63	49.03	12.48	
2025-01-15 16:04:40.83	48.98	12.48	
2025-01-15 16:04:41.03	48.94	12.49	
2025-01-15 16:04:41.23	48.89	12.49	
2025-01-15 16:04:41.44	48.85	12.50	
2025-01-15 16:04:41.64	48.80	12.50	
2025-01-15 16:04:41.84	48.76	12.50	
2025-01-15 16:04:42.05	48.71	12.51	
2025-01-15 16:04:42.25	48.67	12.51	
2025-01-15 16:04:42.45	48.62	12.52	
2025-01-15 16:04:42.66	48.58	12.52	
2025-01-15 16:04:42.86	48.53	12.52	
2025-01-15 16:04:43.06	48.49	12.53	
2025-01-15 16:04:43.27	48.44	12.53	
2025-01-15 16:04:43.47	48.40	12.53	
2025-01-15 16:04:43.67	48.36	12.54	
2025-01-15 16:04:43.87	48.31	12.54	
2025-01-15 16:04:44.08	48.26	12.55	
2025-01-15 16:04:44.28	48.22	12.55	
2025-01-15 16:04:44.48	48.18	12.55	
2025-01-15 16:04:44.69	48.13	12.56	
2025-01-15 16:04:44.89	48.09	12.56	
2025-01-15 16:04:45.09	48.04	12.56	
2025-01-15 16:04:45.30	47.99	12.57	
2025-01-15 16:04:45.50	47.95	12.57	
2025-01-15 16:04:45.70	47.91	12.57	
2025-01-15 16:04:45.91	47.86	12.58	
2025-01-15 16:04:46.11	47.82	12.58	
2025-01-15 16:04:46.31	47.77	12.58	
2025-01-15 16:04:46.51	47.73	12.59	
2025-01-15 16:04:46.72	47.68	12.59	
2025-01-15 16:04:46.92	47.64	12.60	
2025-01-15 16:04:47.12	47.59	12.60	
2025-01-15 16:04:47.33	47.55	12.60	
2025-01-15 16:04:47.53	47.50	12.61	
2025-01-15 16:04:47.73	47.46	12.61	
2025-01-15 16:04:47.94	47.41	12.61	
2025-01-15 16:04:48.14	47.37	12.62	
2025-01-15 16:04:48.34	47.32	12.62	
2025-01-15 16:04:48.55	47.27	12.62	
2025-01-15 16:04:48.75	47.23	12.63	
2025-01-15 16:04:48.95	47.19	12.63	
2025-01-15 16:04:49.16	47.14	12.63	
2025-01-15 16:04:49.36	47.09	12.64	
2025-01-15 16:04:49.56	47.05	12.64	
2025-01-15 16:04:49.76	47.01	12.64	
2025-01-15 16:04:49.97	46.96	12.65	
2025-01-15 16:04:50.17	46.91	12.65	
2025-01-15 16:04:50.37	46.87	12.65	
2025-01-15 16:04:50.58	46.82	12.66	
2025-01-15 16:04:50.78	46.78	12.66	
2025-01-15 16:04:50.98	46.73	12.66	
2025-01-15 16:04:51.19	46.69	12.67	
2025-01-15 16:04:51.39	46.64	12.67	
2025-01-15 16:04:51.59	46.60	12.67	
2025-01-15 16:04:51.80	46.55	12.67	
2025-01-15 16:04:52.00	46.51	12.68	
2025-01-15 16:04:52.20	46.46	12.68	
2025-01-15 16:04:52.40	46.42	12.68	
2025-01-15 16:04:52.61	46.37	12.69	
2025-01-15 16:04:52.81	46.33	12.69	
2025-01-15 16:04:53.01	46.28	12.69	
2025-01-15 16:04:53.22	46.23	12.70	
2025-01-15 16:04:53.42	46.19	12.70	
2025-01-15 16:04:53.62	46.14	12.70	
2025-01-15 16:04:53.83	46.10	12.70	
2025-01-15 16:04:54.03	46.05	12.71	
2025-01-15 16:04:54.23	46.01	12.71	
2025-01-15 16:04:54.44	45.96	12.71	
2025-01-15 16:04:54.64	45.92	12.72	
2025-01-15 16:04:54.84	45.87	12.72	
2025-01-15 16:04:55.04	45.83	12.72	
2025-01-15 16:04:55.25	45.78	12.72	
2025-01-15 16:04:55.45	45.74	12.73	
2025-01-15 16:04:55.65	45.69	12.73	
2025-01-15 16:04:55.86	45.64	12.73	
2025-01-15 16:04:56.06	45.60	12.74	
2025-01-15 16:04:56.26	45.55	12.74	
2025-01-15 16:04:56.47	45.51	12.74	
2025-01-15 16:04:56.67	45.46	12.74	
2025-01-15 16:04:56.87	45.42	12.75	
2025-01-15 16:04:57.08	45.37	12.75	
2025-01-15 16:04:57.28	45.33	12.75	
2025-01-15 16:04:57.48	45.28	12.75	
2025-01-15 16:04:57.68	45.24	12.76	
2025-01-15 16:04:57.89	45.19	12.76	
2025-01-15 16:04:58.09	45.14	12.76	
2025-01-15 16:04:58.29	45.10	12.77	
2025-01-15 16:04:58.50	45.05	12.77	
2025-01-15 16:04:58.70	45.01	12.77	
2025-01-15 16:04:58.90	44.96	12.77	
2025-01-15 16:04:59.11	44.91	12.78	
2025-01-15 16:04:59.31	44.87	12.78	
2025-01-15 16:04:59.51	44.82	12.78	
2025-01-15 16:04:59.72	44.78	12.78	
2025-01-15 16:04:59.92	44.73	12.79	
2025-01-15 16:05:00.12	44.69	12.79	
2025-01-15 16:05:00.32	44.64	12.79	
2025-01-15 16:05:00.53	44.60	12.79	
2025-01-15 16:05:00.73	44.55	12.79	
2025-01-15 16:05:00.93	44.51	12.80	
2025-01-15 16:05:01.14	44.46	12.80	
2025-01-15 16:05:01.34	44.41	12.80	
2025-01-15 16:05:01.54	44.37	12.80	
2025-01-15 16:05:01.75	44.32	12.81	
2025-01-15 16:05:01.95	44.28	12.81	
2025-01-15 16:05:02.15	44.23	12.81	
2025-01-15 16:05:02.36	44.18	12.81	
2025-01-15 16:05:02.56	44.14	12.82	
2025-01-15 16:05:02.76	44.09	12.82	
2025-01-15 16:05:02.96	44.05	12.82	
2025-01-15 16:05:03.17	44.00	12.82	
2025-01-15 16:05:03.37	43.96	12.82	
2025-01-15 16:05:03.57	43.91	12.83	
2025-01-15 16:05:03.78	43.86	12.83	
2025-01-15 16:05:03.98	43.82	12.83	
2025-01-15 16:05:04.18	43.77	12.83	
2025-01-15 16:05:04.39	43.73	12.83	
2025-01-15 16:05:04.59	43.68	12.84	
2025-01-15 16:05:04.79	43.64	12.84	
2025-01-15 16:05:05.00	43.59	12.84	
2025-01-15 16:05:05.20	43.54	12.84	
2025-01-15 16:05:05.40	43.50	12.84	
2025-01-15 16:05:05.60	43.45	12.85	
2025-01-15 16:05:05.81	43.41	12.85	
2025-01-15 16:05:06.01	43.36	12.85	
2025-01-15 16:05:06.21	43.31	12.85	
2025-01-15 16:05:06.42	43.27	12.85	
2025-01-15 16:05:06.62	43.22	12.86	
2025-01-15 16:05:06.82	43.18	12.86	
2025-01-15 16:05:07.03	43.13	12.86	
2025-01-15 16:05:07.23	43.08	12.86	
2025-01-15 16:05:07.43	43.04	12.86	
2025-01-15 16:05:07.64	42.99	12.87	
2025-01-15 16:05:07.84	42.95	12.87	
2025-01-15 16:05:08.04	42.90	12.87	
2025-01-15 16:05:08.24	42.86	12.87	
2025-01-15 16:05:08.45	42.81	12.87	
2025-01-15 16:05:08.65	42.76	12.87	
2025-01-15 16:05:08.85	42.72	12.88	
2025-01-15 16:05:09.06	42.67	12.88	
2025-01-15 16:05:09.26	42.63	12.88	
2025-01-15 16:05:09.46	42.58	12.88	
2025-01-15 16:05:09.67	42.53	12.88	
2025-01-15 16:05:09.87	42.49	12.88	
2025-01-15 16:05:10.07	42.44	12.89	
2025-01-15 16:05:10.28	42.39	12.89	
2025-01-15 16:05:10.48	42.35	12.89	
2025-01-15 16:05:10.68	42.30	12.89	
2025-01-15 16:05:10.88	42.26	12.89	
2025-01-15 16:05:11.09	42.21	12.89	
2025-01-15 16:05:11.29	42.17	12.90	
2025-01-15 16:05:11.49	42.12	12.90	
2025-01-15 16:05:11.70	42.07	12.90	
2025-01-15 16:05:11.90	42.03	12.90	
2025-01-15 16:05:12.10	41.98	12.90	
2025-01-15 16:05:12.31	41.93	12.90	
2025-01-15 16:05:12.51	41.89	12.90	
2025-01-15 16:05:12.71	41.84	12.91	
2025-01-15 16:05:12.92	41.80	12.91	
2025-01-15 16:05:13.12	41.75	12.91	
2025-01-15 16:05:13.32	41.71	12.91	
2025-01-15 16:05:13.53	41.66	12.91	
2025-01-15 16:05:13.73	41.61	12.91	
2025-01-15 16:05:13.93	41.57	12.91	
2025-01-15 16:05:14.13	41.52	12.91	
2025-01-15 16:05:14.34	41.47	12.92	
2025-01-15 16:05:14.54	41.43	12.92	
2025-01-15 16:05:14.74	41.38	12.92	
2025-01-15 16:05:14.95	41.34	12.92	
2025-01-15 16:05:15.15	41.29	12.92	
2025-01-15 16:05:15.35	41.24	12.92	
2025-01-15 16:05:15.56	41.20	12.92	
2025-01-15 16:05:15.76	41.15	12.92	
2025-01-15 16:05:15.96	41.11	12.93	
2025-01-15 16:05:16.17	41.06	12.93	
2025-01-15 16:05:16.37	41.01	12.93	
2025-01-15 16:05:16.57	40.97	12.93	
2025-01-15 16:05:16.77	40.92	12.93	
2025-01-15 16:05:16.98	40.87	12.93	
2025-01-15 16:05:17.18	40.83	12.93	
2025-01-15 16:05:17.38	40.78	12.93	
2025-01-15 16:05:17.59	40.74	12.93	
2025-01-15 16:05:17.79	40.69	12.93	
2025-01-15 16:05:17.99	40.64	12.94	
2025-01-15 16:05:18.20	40.60	12.94	
2025-01-15 16:05:18.40	40.55	12.94	
2025-01-15 16:05:18.60	40.51	12.94	
2025-01-15 16:05:18.81	40.46	12.94	
2025-01-15 16:05:19.01	40.41	12.94	
2025-01-15 16:05:19.21	40.37	12.94	
2025-01-15 16:05:19.41	40.32	12.94	
2025-01-15 16:05:19.62	40.27	12.94	
2025-01-15 16:05:19.82	40.23	12.94	
2025-01-15 16:05:20.02	40.18	12.94	
2025-01-15 16:05:20.23	40.14	12.94	
2025-01-15 16:05:20.43	40.09	12.95	
2025-01-15 16:05:20.63	40.04	12.95	
2025-01-15 16:05:20.84	40.00	12.95	
2025-01-15 16:05:21.04	39.95	12.95	
2025-01-15 16:05:21.24	39.91	12.95	
2025-01-15 16:05:21.45	39.86	12.95	
2025-01-15 16:05:21.65	39.81	12.95	
2025-01-15 16:05:21.85	39.77	12.95	
2025-01-15 16:05:22.05	39.72	12.95	
2025-01-15 16:05:22.26	39.67	12.95	
2025-01-15 16:05:22.46	39.63	12.95	
2025-01-15 16:05:22.66	39.58	12.95	
2025-01-15 16:05:22.87	39.54	12.95	
2025-01-15 16:05:23.07	39.49	12.95	
2025-01-15 16:05:23.27	39.44	12.95	
2025-01-15 16:05:23.48	39.40	12.95	
2025-01-15 16:05:23.68	39.35	12.95	
2025-01-15 16:05:23.88	39.31	12.95	
2025-01-15 16:05:24.09	39.26	12.96	
2025-01-15 16:05:24.29	39.21	12.96	
2025-01-15 16:05:24.49	39.17	12.96	
2025-01-15 16:05:24.69	39.12	12.96	
2025-01-15 16:05:24.90	39.07	12.96	
2025-01-15 16:05:25.10	39.03	12.96	
2025-01-15 16:05:25.30	38.98	12.96	
2025-01-15 16:05:25.51	38.93	12.96	
2025-01-15 16:05:25.71	38.89	12.96	
2025-01-15 16:05:25.91	38.84	12.96	
2025-01-15 16:05:26.12	38.80	12.96	
2025-01-15 16:05:26.32	38.75	12.96	
2025-01-15 16:05:26.52	38.70	12.96	
2025-01-15 16:05:26.73	38.66	12.96	
2025-01-15 16:05:26.93	38.61	12.96	
2025-01-15 16:05:27.13	38.57	12.96	
2025-01-15 16:05:27.33	38.52	12.96	
2025-01-15 16:05:27.54	38.47	12.96	
2025-01-15 16:05:27.74	38.43	12.96	
2025-01-15 16:05:27.94	38.38	12.96	
2025-01-15 16:05:28.15	38.33	12.96	
2025-01-15 16:05:28.35	38.29	12.96	
2025-01-15 16:05:28.55	38.24	12.96	
2025-01-15 16:05:28.76	38.20	12.96	
2025-01-15 16:05:28.96	38.15	12.96	
2025-01-15 16:05:29.16	38.10	12.96	
2025-01-15 16:05:29.37	38.06	12.96	
2025-01-15 16:05:29.57	38.01	12.96	
2025-01-15 16:05:29.77	37.97	12.96	
2025-01-15 16:05:29.97	37.92	12.96	
2025-01-15 16:05:30.18	37.87	12.96	
2025-01-15 16:05:30.38	37.83	12.96	
2025-01-15 16:05:30.58	37.78	12.96	
2025-01-15 16:05:30.79	37.73	12.96	
2025-01-15 16:05:30.99	37.69	12.96	
2025-01-15 16:05:31.19	37.64	12.96	
2025-01-15 16:05:31.40	37.59	12.96	
2025-01-15 16:05:31.60	37.55	12.96	
2025-01-15 16:05:31.80	37.50	12.96	
2025-01-15 16:05:32.01	37.46	12.96	
2025-01-15 16:05:32.21	37.41	12.96	
2025-01-15 16:05:32.41	37.36	12.96	
2025-01-15 16:05:32.61	37.32	12.96	
2025-01-15 16:05:32.82	37.27	12.96	
2025-01-15 16:05:33.02	37.23	12.96	
2025-01-15 16:05:33.22	37.18	12.96	
2025-01-15 16:05:33.43	37.13	12.96	
2025-01-15 16:05:33.63	37.09	12.96	
2025-01-15 16:05:33.83	37.04	12.95	
2025-01-15 16:05:34.04	36.99	12.95	
2025-01-15 16:05:34.24	36.95	12.95	
2025-01-15 16:05:34.44	36.90	12.95	
2025-01-15 16:05:34.65	36.85	12.95	
2025-01-15 16:05:34.85	36.81	12.95	
2025-01-15 16:05:35.05	36.76	12.95	
2025-01-15 16:05:35.26	36.72	12.95	
2025-01-15 16:05:35.46	36.67	12.95	
2025-01-15 16:05:35.66	36.63	12.95	
2025-01-15 16:05:35.86	36.58	12.95	
2025-01-15 16:05:36.07	36.53	12.95	
2025-01-15 16:05:36.27	36.49	12.95	
2025-01-15 16:05:36.47	36.44	12.95	
2025-01-15 16:05:36.68	36.39	12.95	
2025-01-15 16:05:36.88	36.35	12.95	
2025-01-15 16:05:37.08	36.30	12.95	
2025-01-15 16:05:37.29	36.25	12.94	
2025-01-15 16:05:37.49	36.21	12.94	
2025-01-15 16:05:37.69	36.16	12.94	
2025-01-15 16:05:37.90	36.12	12.94	
2025-01-15 16:05:38.10	36.07	12.94	
2025-01-15 16:05:38.30	36.03	12.94	
2025-01-15 16:05:38.50	35.98	12.94	
2025-01-15 16:05:38.71	35.93	12.94	
2025-01-15 16:05:38.91	35.89	12.94	
2025-01-15 16:05:39.11	35.84	12.94	
2025-01-15 16:05:39.32	35.79	12.94	
2025-01-15 16:05:39.52	35.75	12.94	
2025-01-15 16:05:39.72	35.70	12.94	
2025-01-15 16:05:39.93	35.65	12.93	
2025-01-15 16:05:40.13	35.61	12.93	
2025-01-15 16:05:40.33	35.56	12.93	
2025-01-15 16:05:40.54	35.52	12.93	
2025-01-15 16:05:40.74	35.47	12.93	
2025-01-15 16:05:40.94	35.43	12.93	
2025-01-15 16:05:41.14	35.38	12.93	
2025-01-15 16:05:41.35	35.33	12.93	
2025-01-15 16:05:41.55	35.29	12.93	
2025-01-15 16:05:41.75	35.24	12.92	
2025-01-15 16:05:41.96	35.19	12.92	
2025-01-15 16:05:42.16	35.15	12.92	
2025-01-15 16:05:42.36	35.10	12.92	
2025-01-15 16:05:42.57	35.06	12.92	
2025-01-15 16:05:42.77	35.01	12.92	
2025-01-15 16:05:42.97	34.96	12.92	
2025-01-15 16:05:43.18	34.92	12.92	
2025-01-15 16:05:43.38	34.87	12.92	
2025-01-15 16:05:43.58	34.83	12.91	
2025-01-15 16:05:43.78	34.78	12.91	
2025-01-15 16:05:43.99	34.73	12.91	
2025-01-15 16:05:44.19	34.69	12.91	
2025-01-15 16:05:44.39	34.64	12.91	
2025-01-15 16:05:44.60	34.60	12.91	
2025-01-15 16:05:44.80	34.55	12.91	
2025-01-15 16:05:45.00	34.50	12.91	
2025-01-15 16:05:45.21	34.46	12.90	
2025-01-15 16:05:45.41	34.41	12.90	
2025-01-15 16:05:45.61	34.37	12.90	
2025-01-15 16:05:45.82	34.32	12.90	
2025-01-15 16:05:46.02	34.27	12.90	
2025-01-15 16:05:46.22	34.23	12.90	
2025-01-15 16:05:46.42	34.18	12.90	
2025-01-15 16:05:46.63	34.14	12.89	
2025-01-15 16:05:46.83	34.09	12.89	
2025-01-15 16:05:47.03	34.04	12.89	
2025-01-15 16:05:47.24	34.00	12.89	
2025-01-15 16:05:47.44	33.95	12.89	
2025-01-15 16:05:47.64	33.91	12.89	
2025-01-15 16:05:47.85	33.86	12.88	
2025-01-15 16:05:48.05	33.81	12.88	
2025-01-15 16:05:48.25	33.77	12.88	
2025-01-15 16:05:48.46	33.72	12.88	
2025-01-15 16:05:48.66	33.68	12.88	
2025-01-15 16:05:48.86	33.63	12.88	
2025-01-15 16:05:49.06	33.59	12.87	
2025-01-15 16:05:49.27	33.54	12.87	
2025-01-15 16:05:49.47	33.49	12.87	
2025-01-15 16:05:49.67	33.45	12.87	
2025-01-15 16:05:49.88	33.40	12.87	
2025-01-15 16:05:50.08	33.36	12.87	
2025-01-15 16:05:50.28	33.31	12.86	
2025-01-15 16:05:50.49	33.26	12.86	
2025-01-15 16:05:50.69	33.22	12.86	
2025-01-15 16:05:50.89	33.17	12.86	
2025-01-15 16:05:51.10	33.12	12.86	
2025-01-15 16:05:51.30	33.08	12.85	
2025-01-15 16:05:51.50	33.03	12.85	
2025-01-15 16:05:51.70	32.99	12.85	
2025-01-15 16:05:51.91	32.94	12.85	
2025-01-15 16:05:52.11	32.90	12.85	
2025-01-15 16:05:52.31	32.85	12.84	
2025-01-15 16:05:52.52	32.80	12.84	
2025-01-15 16:05:52.72	32.76	12.84	
2025-01-15 16:05:52.92	32.71	12.84	
2025-01-15 16:05:53.13	32.67	12.84	
2025-01-15 16:05:53.33	32.62	12.83	
2025-01-15 16:05:53.53	32.58	12.83	
2025-01-15 16:05:53.74	32.53	12.83	
2025-01-15 16:05:53.94	32.48	12.83	
2025-01-15 16:05:54.14	32.44	12.83	
2025-01-15 16:05:54.34	32.39	12.82	
2025-01-15 16:05:54.55	32.35	12.82	
2025-01-15 16:05:54.75	32.30	12.82	
2025-01-15 16:05:54.95	32.26	12.82	
2025-01-15 16:05:55.16	32.21	12.82	
2025-01-15 16:05:55.36	32.16	12.81	
2025-01-15 16:05:55.56	32.12	12.81	
2025-01-15 16:05:55.77	32.07	12.81	
2025-01-15 16:05:55.97	32.03	12.81	
2025-01-15 16:05:56.17	31.98	12.80	
2025-01-15 16:05:56.38	31.93	12.80	
2025-01-15 16:05:56.58	31.89	12.80	
2025-01-15 16:05:56.78	31.85	12.80	
2025-01-15 16:05:56.99	31.80	12.79	
2025-01-15 16:05:57.19	31.75	12.79	
2025-01-15 16:05:57.39	31.71	12.79	
2025-01-15 16:05:57.59	31.66	12.79	
2025-01-15 16:05:57.80	31.62	12.78	
2025-01-15 16:05:58.00	31.57	12.78	
2025-01-15 16:05:58.20	31.53	12.78	
2025-01-15 16:05:58.41	31.48	12.78	
2025-01-15 16:05:58.61	31.43	12.77	
2025-01-15 16:05:58.81	31.39	12.77	
2025-01-15 16:05:59.02	31.34	12.77	
2025-01-15 16:05:59.22	31.30	12.77	
2025-01-15 16:05:59.42	31.25	12.76	
2025-01-15 16:05:59.63	31.21	12.76	
2025-01-15 16:05:59.83	31.16	12.76	
2025-01-15 16:06:00.03	31.12	12.76	
2025-01-15 16:06:00.23	31.07	12.75	
2025-01-15 16:06:00.44	31.02	12.75	
2025-01-15 16:06:00.64	30.98	12.75	
2025-01-15 16:06:00.84	30.93	12.75	
2025-01-15 16:06:01.05	30.89	12.74	
2025-01-15 16:06:01.25	30.84	12.74	
2025-01-15 16:06:01.45	30.80	12.74	
2025-01-15 16:06:01.66	30.75	12.74	
2025-01-15 16:06:01.86	30.71	12.73	
2025-01-15 16:06:02.06	30.66	12.73	
2025-01-15 16:06:02.27	30.61	12.73	
2025-01-15 16:06:02.47	30.57	12.72	
2025-01-15 16:06:02.67	30.52	12.72	
2025-01-15 16:06:02.87	30.48	12.72	
2025-01-15 16:06:03.08	30.43	12.72	
2025-01-15 16:06:03.28	30.39	12.71	
2025-01-15 16:06:03.48	30.34	12.71	
2025-01-15 16:06:03.69	30.30	12.71	
2025-01-15 16:06:03.89	30.25	12.70	
2025-01-15 16:06:04.09	30.21	12.70	
2025-01-15 16:06:04.30	30.16	12.70	
2025-01-15 16:06:04.50	30.12	12.70	
2025-01-15 16:06:04.70	30.07	12.69	
2025-01-15 16:06:04.91	30.02	12.69	
2025-01-15 16:06:05.11	29.98	12.69	
2025-01-15 16:06:05.31	29.94	12.68	
2025-01-15 16:06:05.51	29.89	12.68	
2025-01-15 16:06:05.72	29.84	12.68	
2025-01-15 16:06:05.92	29.80	12.67	
2025-01-15 16:06:06.12	29.76	12.67	
2025-01-15 16:06:06.33	29.71	12.67	
2025-01-15 16:06:06.53	29.66	12.66	
2025-01-15 16:06:06.73	29.62	12.66	
2025-01-15 16:06:06.94	29.57	12.66	
2025-01-15 16:06:07.14	29.53	12.66	
2025-01-15 16:06:07.34	29.48	12.65	
2025-01-15 16:06:07.55	29.44	12.65	
2025-01-15 16:06:07.75	29.39	12.65	
2025-01-15 16:06:07.95	29.35	12.64	
2025-01-15 16:06:08.17	29.30	12.64	
2025-01-15 16:06:08.37	29.25	12.64	
2025-01-15 16:06:08.57	29.21	12.63	
2025-01-15 16:06:08.78	29.16	12.63	
2025-01-15 16:06:08.98	29.12	12.63	
2025-01-15 16:06:09.18	29.07	12.62	
2025-01-15 16:06:09.39	29.03	12.62	
2025-01-15 16:06:09.59	28.98	12.62	
2025-01-15 16:06:09.79	28.94	12.61	
2025-01-15 16:06:10.00	28.89	12.61	
2025-01-15 16:06:10.20	28.85	12.61	
2025-01-15 16:06:10.40	28.80	12.60	
2025-01-15 16:06:10.61	28.76	12.60	
2025-01-15 16:06:10.81	28.71	12.59	
2025-01-15 16:06:11.01	28.67	12.59	
2025-01-15 16:06:11.21	28.63	12.59	
2025-01-15 16:06:11.42	28.58	12.58	
2025-01-15 16:06:11.62	28.53	12.58	
2025-01-15 16:06:11.82	28.49	12.58	
2025-01-15 16:06:12.03	28.44	12.57	
2025-01-15 16:06:12.23	28.40	12.57	
2025-01-15 16:06:12.43	28.36	12.57	
2025-01-15 16:06:12.64	28.31	12.56	
2025-01-15 16:06:12.84	28.26	12.56	
2025-01-15 16:06:13.04	28.22	12.56	
2025-01-15 16:06:13.25	28.17	12.55	
2025-01-15 16:06:13.45	28.13	12.55	
2025-01-15 16:06:13.65	28.09	12.54	
2025-01-15 16:06:13.85	28.04	12.54	
2025-01-15 16:06:14.06	28.00	12.54	
2025-01-15 16:06:14.26	27.95	12.53	
2025-01-15 16:06:14.46	27.91	12.53	
2025-01-15 16:06:14.67	27.86	12.53	
2025-01-15 16:06:14.87	27.82	12.52	
2025-01-15 16:06:15.07	27.77	12.52	
2025-01-15 16:06:15.28	27.73	12.51	
2025-01-15 16:06:15.48	27.68	12.51	
2025-01-15 16:06:15.68	27.64	12.51	
2025-01-15 16:06:15.89	27.59	12.50	
2025-01-15 16:06:16.09	27.55	12.50	
2025-01-15 16:06:16.29	27.50	12.50	
2025-01-15 16:06:16.49	27.46	12.49	
2025-01-15 16:06:16.70	27.41	12.49	
2025-01-15 16:06:16.90	27.37	12.48	
2025-01-15 16:06:17.10	27.33	12.48	
2025-01-15 16:06:17.31	27.28	12.48	
2025-01-15 16:06:17.51	27.24	12.47	
2025-01-15 16:06:17.71	27.19	12.47	
2025-01-15 16:06:17.92	27.15	12.46	
2025-01-15 16:06:18.12	27.10	12.46	
2025-01-15 16:06:18.32	27.06	12.46	
2025-01-15 16:06:18.53	27.01	12.45	
2025-01-15 16:06:18.73	26.97	12.45	
2025-01-15 16:06:18.93	26.93	12.44	
2025-01-15 16:06:19.14	26.88	12.44	
2025-01-15 16:06:19.34	26.84	12.43	
2025-01-15 16:06:19.54	26.79	12.43	
2025-01-15 16:06:19.74	26.75	12.43	
2025-01-15 16:06:19.95	26.70	12.42	
2025-01-15 16:06:20.15	26.66	12.42	
2025-01-15 16:06:20.35	26.62	12.41	
2025-01-15 16:06:20.56	26.57	12.41	
2025-01-15 16:06:20.76	26.53	12.41	
2025-01-15 16:06:20.96	26.48	12.40	
2025-01-15 16:06:21.17	26.44	12.40	
2025-01-15 16:06:21.37	26.39	12.39	
2025-01-15 16:06:21.57	26.35	12.39	
2025-01-15 16:06:21.78	26.30	12.38	
2025-01-15 16:06:21.98	26.26	12.38	
2025-01-15 16:06:22.18	26.22	12.38	
2025-01-15 16:06:22.38	26.17	12.37	
2025-01-15 16:06:22.59	26.13	12.37	
2025-01-15 16:06:22.79	26.08	12.36	
2025-01-15 16:06:22.99	26.04	12.36	
2025-01-15 16:06:23.20	25.99	12.35	
2025-01-15 16:06:23.40	25.95	12.35	
2025-01-15 16:06:23.60	25.91	12.34	
2025-01-15 16:06:23.81	25.86	12.34	
2025-01-15 16:06:24.01	25.82	12.34	
2025-01-15 16:06:24.21	25.77	12.33	
2025-01-15 16:06:24.42	25.73	12.33	
2025-01-15 16:06:24.62	25.69	12.32	
2025-01-15 16:06:24.82	25.64	12.32	
2025-01-15 16:06:25.02	25.60	12.31	
2025-01-15 16:06:25.23	25.55	12.31	
2025-01-15 16:06:25.43	25.51	12.30	
2025-01-15 16:06:25.63	25.47	12.30	
2025-01-15 16:06:25.84	25.42	12.30	
2025-01-15 16:06:26.04	25.38	12.29	
2025-01-15 16:06:26.24	25.33	12.29	
2025-01-15 16:06:26.45	25.29	12.28	
2025-01-15 16:06:26.65	25.25	12.28	
2025-01-15 16:06:26.85	25.20	12.27	
2025-01-15 16:06:27.06	25.16	12.27	
2025-01-15 16:06:27.26	25.11	12.26	
2025-01-15 16:06:27.46	25.07	12.26	
2025-01-15 16:06:27.66	25.03	12.25	
2025-01-15 16:06:27.87	24.98	12.25	
2025-01-15 16:06:28.07	24.94	12.24	
2025-01-15 16:06:28.27	24.90	12.24	
2025-01-15 16:06:28.48	24.85	12.23	
2025-01-15 16:06:28.68	24.81	12.23	
2025-01-15 16:06:28.88	24.76	12.22	
2025-01-15 16:06:29.09	24.72	12.22	
2025-01-15 16:06:29.29	24.68	12.21	
2025-01-15 16:06:29.49	24.63	12.21	
2025-01-15 16:06:29.70	24.59	12.20	
2025-01-15 16:06:29.90	24.55	12.20	
2025-01-15 16:06:30.10	24.50	12.20	
2025-01-15 16:06:30.30	24.46	12.19	
2025-01-15 16:06:30.51	24.41	12.19	
2025-01-15 16:06:30.71	24.37	12.18	
2025-01-15 16:06:30.91	24.33	12.18	
2025-01-15 16:06:31.12	24.28	12.17	
2025-01-15 16:06:31.32	24.24	12.17	
2025-01-15 16:06:31.52	24.20	12.16	
2025-01-15 16:06:31.73	24.15	12.16	
2025-01-15 16:06:31.93	24.11	12.15	
2025-01-15 16:06:32.13	24.07	12.15	
2025-01-15 16:06:32.34	24.02	12.14	
2025-01-15 16:06:32.54	23.98	12.14	
2025-01-15 16:06:32.74	23.94	12.13	
2025-01-15 16:06:32.94	23.89	12.13	
2025-01-15 16:06:33.15	23.85	12.12	
2025-01-15 16:06:33.35	23.81	12.11	
2025-01-15 16:06:33.55	23.76	12.11	
2025-01-15 16:06:33.76	23.72	12.10	
2025-01-15 16:06:33.96	23.68	12.10	
2025-01-15 16:06:34.16	23.63	12.09	
2025-01-15 16:06:34.37	23.59	12.09	
2025-01-15 16:06:34.57	23.55	12.08	
2025-01-15 16:06:34.77	23.50	12.08	
2025-01-15 16:06:34.98	23.46	12.07	
2025-01-15 16:06:35.18	23.42	12.07	
2025-01-15 16:06:35.38	23.37	12.06	
2025-01-15 16:06:35.58	23.33	12.06	
2025-01-15 16:06:35.79	23.29	12.05	
2025-01-15 16:06:35.99	23.24	12.05	
2025-01-15 16:06:36.19	23.20	12.04	
2025-01-15 16:06:36.40	23.16	12.04	
2025-01-15 16:06:36.60	23.11	12.03	
2025-01-15 16:06:36.80	23.07	12.03	
2025-01-15 16:06:37.01	23.03	12.02	
2025-01-15 16:06:37.21	22.98	12.01	
2025-01-15 16:06:37.41	22.94	12.01	
2025-01-15 16:06:37.62	22.90	12.00	
2025-01-15 16:06:37.82	22.86	12.00	
2025-01-15 16:06:38.02	22.81	11.99	
2025-01-15 16:06:38.22	22.77	11.99	
2025-01-15 16:06:38.43	22.73	11.98	
2025-01-15 16:06:38.63	22.68	11.98	
2025-01-15 16:06:38.83	22.64	11.97	
2025-01-15 16:06:39.04	22.60	11.97	
2025-01-15 16:06:39.24	22.55	11.96	
2025-01-15 16:06:39.44	22.51	11.95	
2025-01-15 16:06:39.65	22.47	11.95	
2025-01-15 16:06:39.85	22.43	11.94	
2025-01-15 16:06:40.05	22.38	11.94	
2025-01-15 16:06:40.26	22.34	11.93	
2025-01-15 16:06:40.46	22.30	11.93	
2025-01-15 16:06:40.66	22.26	11.92	
2025-01-15 16:06:40.86	22.21	11.92	
2025-01-15 16:06:41.07	22.17	11.91	
2025-01-15 16:06:41.27	22.13	11.90	
2025-01-15 16:06:41.47	22.08	11.90	
2025-01-15 16:06:41.68	22.04	11.89	
2025-01-15 16:06:41.88	22.00	11.89	
2025-01-15 16:06:42.08	21.96	11.88	
2025-01-15 16:06:42.29	21.91	11.88	
2025-01-15 16:06:42.49	21.87	11.87	
2025-01-15 16:06:42.69	21.83	11.86	
2025-01-15 16:06:42.90	21.78	11.86	
2025-01-15 16:06:43.10	21.74	11.85	
2025-01-15 16:06:43.30	21.70	11.85	
2025-01-15 16:06:43.51	21.66	11.84	
2025-01-15 16:06:43.71	21.62	11.83	
2025-01-15 16:06:43.91	21.57	11.83	
2025-01-15 16:06:44.11	21.53	11.82	
2025-01-15 16:06:44.32	21.49	11.82	
2025-01-15 16:06:44.52	21.45	11.81	
2025-01-15 16:06:44.72	21.40	11.81	
2025-01-15 16:06:44.93	21.36	11.80	
2025-01-15 16:06:45.13	21.32	11.79	
2025-01-15 16:06:45.33	21.28	11.79	
2025-01-15 16:06:45.54	21.23	11.78	
2025-01-15 16:06:45.74	21.19	11.78	
2025-01-15 16:06:45.94	21.15	11.77	
2025-01-15 16:06:46.15	21.11	11.76	
2025-01-15 16:06:46.35	21.06	11.76	
2025-01-15 16:06:46.55	21.02	11.75	
2025-01-15 16:06:46.75	20.98	11.75	
2025-01-15 16:06:46.96	20.94	11.74	
2025-01-15 16:06:47.16	20.90	11.73	
2025-01-15 16:06:47.36	20.85	11.73	
2025-01-15 16:06:47.57	20.81	11.72	
2025-01-15 16:06:47.77	20.77	11.72	
2025-01-15 16:06:47.97	20.73	11.71	
2025-01-15 16:06:48.18	20.68	11.70	
2025-01-15 16:06:48.38	20.64	11.70	
2025-01-15 16:06:48.58	20.60	11.69	
2025-01-15 16:06:48.79	20.56	11.69	
2025-01-15 16:06:48.99	20.52	11.68	
2025-01-15 16:06:49.19	20.48	11.67	
2025-01-15 16:06:49.39	20.43	11.67	
2025-01-15 16:06:49.60	20.39	11.66	
2025-01-15 16:06:49.80	20.35	11.65	
2025-01-15 16:06:50.00	20.31	11.65	
2025-01-15 16:06:50.21	20.26	11.64	
2025-01-15 16:06:50.41	20.22	11.64	
2025-01-15 16:06:50.61	20.18	11.63	
2025-01-15 16:06:50.82	20.14	11.62	
2025-01-15 16:06:51.02	20.10	11.62	
2025-01-15 16:06:51.22	20.06	11.61	
2025-01-15 16:06:51.43	20.01	11.60	
2025-01-15 16:06:51.63	19.97	11.60	
2025-01-15 16:06:51.83	19.93	11.59	
2025-01-15 16:06:52.03	19.89	11.59	
2025-01-15 16:06:52.24	19.85	11.58	
2025-01-15 16:06:52.44	19.81	11.57	
2025-01-15 16:06:52.64	19.77	11.57	
2025-01-15 16:06:52.85	19.72	11.56	
2025-01-15 16:06:53.05	19.68	11.55	
2025-01-15 16:06:53.25	19.64	11.55	
2025-01-15 16:06:53.46	19.60	11.54	
2025-01-15 16:06:53.66	19.56	11.53	
2025-01-15 16:06:53.86	19.52	11.53	
2025-01-15 16:06:54.07	19.47	11.52	
2025-01-15 16:06:54.27	19.43	11.51	
2025-01-15 16:06:54.47	19.39	11.51	
2025-01-15 16:06:54.67	19.35	11.50	
2025-01-15 16:06:54.88	19.31	11.50	
2025-01-15 16:06:55.08	19.27	11.49	
2025-01-15 16:06:55.28	19.23	11.48	
2025-01-15 16:06:55.49	19.18	11.48	
2025-01-15 16:06:55.69	19.14	11.47	
2025-01-15 16:06:55.89	19.10	11.46	
2025-01-15 16:06:56.10	19.06	11.46	
2025-01-15 16:06:56.30	19.02	11.45	
2025-01-15 16:06:56.50	18.98	11.44	
2025-01-15 16:06:56.71	18.93	11.44	
2025-01-15 16:06:56.91	18.89	11.43	
2025-01-15 16:06:57.11	18.85	11.42	
2025-01-15 16:06:57.31	18.81	11.42	
2025-01-15 16:06:57.52	18.77	11.41	
2025-01-15 16:06:57.72	18.73	11.40	
2025-01-15 16:06:57.92	18.69	11.40	
2025-01-15 16:06:58.13	18.65	11.39	
2025-01-15 16:06:58.33	18.61	11.38	
2025-01-15 16:06:58.53	18.57	11.38	
2025-01-15 16:06:58.74	18.52	11.37	
2025-01-15 16:06:58.94	18.48	11.36	
2025-01-15 16:06:59.14	18.44	11.36	
2025-01-15 16:06:59.35	18.40	11.35	
2025-01-15 16:06:59.55	18.36	11.34	
2025-01-15 16:06:59.75	18.32	11.34	
2025-01-15 16:06:59.95	18.28	11.33	
2025-01-15 16:07:00.16	18.24	11.32	
2025-01-15 16:07:00.36	18.20	11.32	
2025-01-15 16:07:00.56	18.16	11.31	
