passes_logs/2025/01/15/SPB_Silybum_02/SPB_Silybum_02__20250115_015650_AQUA_rec.log

#Pass ID: 20250115_015650_AQUA
#Satellite: AQUA
#Configuration: AQUA
#Start time: 2025-01-15 02:05:37

#Version: 2.0.20230423
#Station: SPB_Silybum_02
#Location: 30.233357 lon 59.946436 lat
#TLE: 1 27424U 02022A   25014.18320900  .00001655  00000+0  34963-3 0  9994
#TLE: 2 27424  98.3587 330.8398 0001685 112.2764 304.7377 14.60678752207509

#Time	Az	El	Level	Level2	SNR	BER	Gain	Gain2
2025-01-15 02:05:39.35	228.70	20.70	
2025-01-15 02:05:39.56	228.68	20.67	
2025-01-15 02:05:39.76	228.66	20.64	
2025-01-15 02:05:39.96	228.63	20.61	
2025-01-15 02:05:40.17	228.61	20.58	
2025-01-15 02:05:40.37	228.59	20.55	
2025-01-15 02:05:40.57	228.57	20.53	
2025-01-15 02:05:40.78	228.55	20.50	
2025-01-15 02:05:40.98	228.53	20.47	
2025-01-15 02:05:41.18	228.50	20.44	
2025-01-15 02:05:41.39	228.48	20.41	
2025-01-15 02:05:41.59	228.46	20.38	
2025-01-15 02:05:41.79	228.44	20.36	
2025-01-15 02:05:41.99	228.42	20.33	
2025-01-15 02:05:42.20	228.40	20.30	
2025-01-15 02:05:42.40	228.38	20.27	
2025-01-15 02:05:42.60	228.35	20.24	
2025-01-15 02:05:42.81	228.33	20.21	
2025-01-15 02:05:43.01	228.31	20.19	
2025-01-15 02:05:43.21	228.29	20.16	
2025-01-15 02:05:43.42	228.27	20.13	
2025-01-15 02:05:43.62	228.25	20.10	
2025-01-15 02:05:43.82	228.23	20.07	
2025-01-15 02:05:44.03	228.20	20.05	
2025-01-15 02:05:44.23	228.18	20.02	
2025-01-15 02:05:44.43	228.16	19.99	
2025-01-15 02:05:44.63	228.14	19.96	
2025-01-15 02:05:44.84	228.12	19.93	
2025-01-15 02:05:45.04	228.10	19.91	
2025-01-15 02:05:45.24	228.08	19.88	
2025-01-15 02:05:45.45	228.06	19.85	
2025-01-15 02:05:45.65	228.04	19.82	
2025-01-15 02:05:45.85	228.02	19.80	
2025-01-15 02:05:46.06	228.00	19.77	
2025-01-15 02:05:46.26	227.98	19.74	
2025-01-15 02:05:46.46	227.96	19.71	
2025-01-15 02:05:46.67	227.93	19.69	
2025-01-15 02:05:46.87	227.91	19.66	
2025-01-15 02:05:47.07	227.89	19.63	
2025-01-15 02:05:47.27	227.87	19.60	
2025-01-15 02:05:47.48	227.85	19.58	
2025-01-15 02:05:47.68	227.83	19.55	
2025-01-15 02:05:47.88	227.81	19.52	
2025-01-15 02:05:48.09	227.79	19.49	
2025-01-15 02:05:48.29	227.77	19.47	
2025-01-15 02:05:48.49	227.75	19.44	
2025-01-15 02:05:48.70	227.73	19.41	
2025-01-15 02:05:48.90	227.71	19.38	
2025-01-15 02:05:49.10	227.69	19.36	
2025-01-15 02:05:49.31	227.67	19.33	
2025-01-15 02:05:49.51	227.65	19.30	
2025-01-15 02:05:49.71	227.63	19.28	
2025-01-15 02:05:49.91	227.61	19.25	
2025-01-15 02:05:50.12	227.59	19.22	
2025-01-15 02:05:50.32	227.57	19.19	
2025-01-15 02:05:50.52	227.55	19.17	
2025-01-15 02:05:50.73	227.53	19.14	
2025-01-15 02:05:50.93	227.51	19.11	
2025-01-15 02:05:51.13	227.49	19.09	
2025-01-15 02:05:51.34	227.47	19.06	
2025-01-15 02:05:51.54	227.45	19.03	
2025-01-15 02:05:51.74	227.44	19.01	
2025-01-15 02:05:51.95	227.42	18.98	
2025-01-15 02:05:52.15	227.40	18.95	
2025-01-15 02:05:52.35	227.38	18.93	
2025-01-15 02:05:52.55	227.36	18.90	
2025-01-15 02:05:52.76	227.34	18.87	
2025-01-15 02:05:52.96	227.32	18.85	
2025-01-15 02:05:53.16	227.30	18.82	
2025-01-15 02:05:53.37	227.28	18.79	
2025-01-15 02:05:53.57	227.26	18.77	
2025-01-15 02:05:53.77	227.24	18.74	
2025-01-15 02:05:53.98	227.22	18.71	
2025-01-15 02:05:54.18	227.20	18.69	
2025-01-15 02:05:54.38	227.18	18.66	
2025-01-15 02:05:54.59	227.16	18.63	
2025-01-15 02:05:54.79	227.15	18.61	
2025-01-15 02:05:54.99	227.13	18.58	
2025-01-15 02:05:55.19	227.11	18.55	
2025-01-15 02:05:55.40	227.09	18.53	
2025-01-15 02:05:55.60	227.07	18.50	
2025-01-15 02:05:55.80	227.05	18.48	
2025-01-15 02:05:56.01	227.03	18.45	
2025-01-15 02:05:56.21	227.01	18.42	
2025-01-15 02:05:56.41	227.00	18.40	
2025-01-15 02:05:56.62	226.98	18.37	
2025-01-15 02:05:56.82	226.96	18.34	
2025-01-15 02:05:57.02	226.94	18.32	
2025-01-15 02:05:57.23	226.92	18.29	
2025-01-15 02:05:57.43	226.90	18.27	
2025-01-15 02:05:57.63	226.88	18.24	
2025-01-15 02:05:57.83	226.87	18.21	
2025-01-15 02:05:58.04	226.85	18.19	
2025-01-15 02:05:58.24	226.83	18.16	
2025-01-15 02:05:58.44	226.81	18.14	
2025-01-15 02:05:58.65	226.79	18.11	
2025-01-15 02:05:58.85	226.77	18.08	
2025-01-15 02:05:59.05	226.76	18.06	
2025-01-15 02:05:59.26	226.74	18.03	
2025-01-15 02:05:59.46	226.72	18.01	
2025-01-15 02:05:59.66	226.70	17.98	
2025-01-15 02:05:59.87	226.68	17.95	
2025-01-15 02:06:00.07	226.66	17.93	
2025-01-15 02:06:00.27	226.65	17.90	
2025-01-15 02:06:00.47	226.63	17.88	
2025-01-15 02:06:00.68	226.61	17.85	
2025-01-15 02:06:00.88	226.59	17.83	
2025-01-15 02:06:01.08	226.57	17.80	
2025-01-15 02:06:01.29	226.56	17.78	
2025-01-15 02:06:01.49	226.54	17.75	
2025-01-15 02:06:01.69	226.52	17.73	
2025-01-15 02:06:01.90	226.50	17.70	
2025-01-15 02:06:02.10	226.48	17.67	
2025-01-15 02:06:02.30	226.47	17.65	
2025-01-15 02:06:02.51	226.45	17.62	
2025-01-15 02:06:02.71	226.43	17.60	
2025-01-15 02:06:02.91	226.41	17.57	
2025-01-15 02:06:03.11	226.40	17.55	
2025-01-15 02:06:03.32	226.38	17.52	
2025-01-15 02:06:03.52	226.36	17.50	
2025-01-15 02:06:03.72	226.34	17.47	
2025-01-15 02:06:03.93	226.33	17.45	
2025-01-15 02:06:04.13	226.31	17.42	
2025-01-15 02:06:04.33	226.29	17.40	
2025-01-15 02:06:04.54	226.27	17.37	
2025-01-15 02:06:04.74	226.26	17.35	
2025-01-15 02:06:04.94	226.24	17.32	
2025-01-15 02:06:05.15	226.22	17.29	
2025-01-15 02:06:05.35	226.20	17.27	
2025-01-15 02:06:05.55	226.19	17.25	
2025-01-15 02:06:05.75	226.17	17.22	
2025-01-15 02:06:05.96	226.15	17.19	
2025-01-15 02:06:06.16	226.14	17.17	
2025-01-15 02:06:06.36	226.12	17.15	
2025-01-15 02:06:06.57	226.10	17.12	
2025-01-15 02:06:06.77	226.08	17.10	
2025-01-15 02:06:06.97	226.07	17.07	
2025-01-15 02:06:07.18	226.05	17.05	
2025-01-15 02:06:07.38	226.03	17.02	
2025-01-15 02:06:07.58	226.02	17.00	
2025-01-15 02:06:07.79	226.00	16.97	
2025-01-15 02:06:07.99	225.98	16.95	
2025-01-15 02:06:08.19	225.97	16.92	
2025-01-15 02:06:08.39	225.95	16.90	
2025-01-15 02:06:08.60	225.93	16.87	
2025-01-15 02:06:08.80	225.92	16.85	
2025-01-15 02:06:09.00	225.90	16.82	
2025-01-15 02:06:09.21	225.88	16.80	
2025-01-15 02:06:09.41	225.87	16.77	
2025-01-15 02:06:09.61	225.85	16.75	
2025-01-15 02:06:09.82	225.83	16.72	
2025-01-15 02:06:10.02	225.82	16.70	
2025-01-15 02:06:10.22	225.80	16.68	
2025-01-15 02:06:10.43	225.78	16.65	
2025-01-15 02:06:10.63	225.77	16.63	
2025-01-15 02:06:10.83	225.75	16.60	
2025-01-15 02:06:11.03	225.73	16.58	
2025-01-15 02:06:11.24	225.72	16.55	
2025-01-15 02:06:11.44	225.70	16.53	
2025-01-15 02:06:11.64	225.68	16.51	
2025-01-15 02:06:11.85	225.67	16.48	
2025-01-15 02:06:12.05	225.65	16.46	
2025-01-15 02:06:12.25	225.64	16.43	
2025-01-15 02:06:12.46	225.62	16.41	
2025-01-15 02:06:12.66	225.60	16.39	
2025-01-15 02:06:12.86	225.59	16.36	
2025-01-15 02:06:13.07	225.57	16.34	
2025-01-15 02:06:13.27	225.55	16.31	
2025-01-15 02:06:13.47	225.54	16.29	
2025-01-15 02:06:13.67	225.52	16.27	
2025-01-15 02:06:13.88	225.51	16.24	
2025-01-15 02:06:14.08	225.49	16.22	
2025-01-15 02:06:14.28	225.47	16.19	
2025-01-15 02:06:14.49	225.46	16.17	
2025-01-15 02:06:14.69	225.44	16.14	
2025-01-15 02:06:14.89	225.43	16.12	
2025-01-15 02:06:15.10	225.41	16.10	
2025-01-15 02:06:15.30	225.40	16.07	
2025-01-15 02:06:15.50	225.38	16.05	
2025-01-15 02:06:15.71	225.36	16.03	
2025-01-15 02:06:15.91	225.35	16.00	
2025-01-15 02:06:16.11	225.33	15.98	
2025-01-15 02:06:16.31	225.32	15.96	
2025-01-15 02:06:16.52	225.30	15.93	
2025-01-15 02:06:16.72	225.29	15.91	
2025-01-15 02:06:16.92	225.27	15.88	
2025-01-15 02:06:17.13	225.25	15.86	
2025-01-15 02:06:17.33	225.24	15.84	
2025-01-15 02:06:17.53	225.22	15.81	
2025-01-15 02:06:17.74	225.21	15.79	
2025-01-15 02:06:17.94	225.19	15.77	
2025-01-15 02:06:18.14	225.18	15.74	
2025-01-15 02:06:18.35	225.16	15.72	
2025-01-15 02:06:18.55	225.15	15.69	
2025-01-15 02:06:18.75	225.13	15.67	
2025-01-15 02:06:18.95	225.12	15.65	
2025-01-15 02:06:19.16	225.10	15.62	
2025-01-15 02:06:19.36	225.08	15.60	
2025-01-15 02:06:19.56	225.07	15.58	
2025-01-15 02:06:19.77	225.05	15.55	
2025-01-15 02:06:19.97	225.04	15.53	
2025-01-15 02:06:20.17	225.02	15.51	
2025-01-15 02:06:20.38	225.01	15.48	
2025-01-15 02:06:20.58	224.99	15.46	
2025-01-15 02:06:20.78	224.98	15.44	
2025-01-15 02:06:20.99	224.96	15.41	
2025-01-15 02:06:21.19	224.95	15.39	
2025-01-15 02:06:21.39	224.93	15.37	
2025-01-15 02:06:21.59	224.92	15.35	
2025-01-15 02:06:21.80	224.90	15.32	
2025-01-15 02:06:22.00	224.89	15.30	
2025-01-15 02:06:22.20	224.87	15.28	
2025-01-15 02:06:22.41	224.86	15.25	
2025-01-15 02:06:22.61	224.84	15.23	
2025-01-15 02:06:22.81	224.83	15.21	
2025-01-15 02:06:23.02	224.81	15.18	
2025-01-15 02:06:23.22	224.80	15.16	
2025-01-15 02:06:23.42	224.78	15.14	
2025-01-15 02:06:23.63	224.77	15.12	
2025-01-15 02:06:23.83	224.75	15.09	
2025-01-15 02:06:24.03	224.74	15.07	
2025-01-15 02:06:24.23	224.73	15.05	
2025-01-15 02:06:24.44	224.71	15.02	
2025-01-15 02:06:24.64	224.70	15.00	
2025-01-15 02:06:24.84	224.68	14.98	
2025-01-15 02:06:25.05	224.67	14.96	
2025-01-15 02:06:25.25	224.65	14.93	
2025-01-15 02:06:25.45	224.64	14.91	
2025-01-15 02:06:25.66	224.62	14.89	
2025-01-15 02:06:25.86	224.61	14.86	
2025-01-15 02:06:26.06	224.59	14.84	
2025-01-15 02:06:26.27	224.58	14.82	
2025-01-15 02:06:26.47	224.57	14.80	
2025-01-15 02:06:26.67	224.55	14.77	
2025-01-15 02:06:26.87	224.54	14.75	
2025-01-15 02:06:27.08	224.52	14.73	
2025-01-15 02:06:27.28	224.51	14.71	
2025-01-15 02:06:27.48	224.49	14.68	
2025-01-15 02:06:27.69	224.48	14.66	
2025-01-15 02:06:27.89	224.47	14.64	
2025-01-15 02:06:28.09	224.45	14.62	
2025-01-15 02:06:28.30	224.44	14.59	
2025-01-15 02:06:28.50	224.42	14.57	
2025-01-15 02:06:28.70	224.41	14.55	
2025-01-15 02:06:28.91	224.39	14.53	
2025-01-15 02:06:29.11	224.38	14.50	
2025-01-15 02:06:29.31	224.37	14.48	
2025-01-15 02:06:29.51	224.35	14.46	
2025-01-15 02:06:29.72	224.34	14.44	
2025-01-15 02:06:29.92	224.32	14.42	
2025-01-15 02:06:30.12	224.31	14.39	
2025-01-15 02:06:30.33	224.30	14.37	
2025-01-15 02:06:30.53	224.28	14.35	
2025-01-15 02:06:30.73	224.27	14.33	
2025-01-15 02:06:30.94	224.25	14.30	
2025-01-15 02:06:31.14	224.24	14.28	
2025-01-15 02:06:31.34	224.23	14.26	
2025-01-15 02:06:31.55	224.21	14.24	
2025-01-15 02:06:31.75	224.20	14.22	
2025-01-15 02:06:31.95	224.19	14.19	
2025-01-15 02:06:32.15	224.17	14.17	
2025-01-15 02:06:32.36	224.16	14.15	
2025-01-15 02:06:32.56	224.14	14.13	
2025-01-15 02:06:32.76	224.13	14.11	
2025-01-15 02:06:32.97	224.12	14.08	
2025-01-15 02:06:33.17	224.10	14.06	
2025-01-15 02:06:33.37	224.09	14.04	
2025-01-15 02:06:33.58	224.08	14.02	
2025-01-15 02:06:33.78	224.06	14.00	
2025-01-15 02:06:33.98	224.05	13.98	
2025-01-15 02:06:34.19	224.03	13.95	
2025-01-15 02:06:34.39	224.02	13.93	
2025-01-15 02:06:34.59	224.01	13.91	
2025-01-15 02:06:34.79	223.99	13.89	
2025-01-15 02:06:35.00	223.98	13.87	
2025-01-15 02:06:35.20	223.97	13.84	
2025-01-15 02:06:35.40	223.95	13.82	
2025-01-15 02:06:35.61	223.94	13.80	
2025-01-15 02:06:35.81	223.93	13.78	
2025-01-15 02:06:36.01	223.91	13.76	
2025-01-15 02:06:36.22	223.90	13.74	
2025-01-15 02:06:36.42	223.89	13.71	
2025-01-15 02:06:36.62	223.87	13.69	
2025-01-15 02:06:36.83	223.86	13.67	
2025-01-15 02:06:37.03	223.85	13.65	
2025-01-15 02:06:37.23	223.83	13.63	
2025-01-15 02:06:37.43	223.82	13.61	
2025-01-15 02:06:37.64	223.81	13.59	
2025-01-15 02:06:37.84	223.80	13.56	
2025-01-15 02:06:38.04	223.78	13.54	
2025-01-15 02:06:38.25	223.77	13.52	
2025-01-15 02:06:38.45	223.76	13.50	
2025-01-15 02:06:38.65	223.74	13.48	
2025-01-15 02:06:38.86	223.73	13.46	
2025-01-15 02:06:39.06	223.72	13.44	
2025-01-15 02:06:39.26	223.70	13.41	
2025-01-15 02:06:39.47	223.69	13.39	
2025-01-15 02:06:39.67	223.68	13.37	
2025-01-15 02:06:39.87	223.67	13.35	
2025-01-15 02:06:40.07	223.65	13.33	
2025-01-15 02:06:40.28	223.64	13.31	
2025-01-15 02:06:40.48	223.63	13.29	
2025-01-15 02:06:40.68	223.61	13.27	
2025-01-15 02:06:40.89	223.60	13.24	
2025-01-15 02:06:41.09	223.59	13.22	
2025-01-15 02:06:41.29	223.58	13.20	
2025-01-15 02:06:41.50	223.56	13.18	
2025-01-15 02:06:41.70	223.55	13.16	
2025-01-15 02:06:41.90	223.54	13.14	
2025-01-15 02:06:42.11	223.52	13.12	
2025-01-15 02:06:42.31	223.51	13.10	
2025-01-15 02:06:42.51	223.50	13.08	
2025-01-15 02:06:42.71	223.49	13.06	
2025-01-15 02:06:42.92	223.47	13.03	
2025-01-15 02:06:43.12	223.46	13.01	
2025-01-15 02:06:43.32	223.45	12.99	
2025-01-15 02:06:43.53	223.44	12.97	
2025-01-15 02:06:43.73	223.42	12.95	
2025-01-15 02:06:43.93	223.41	12.93	
2025-01-15 02:06:44.14	223.40	12.91	
2025-01-15 02:06:44.34	223.39	12.89	
2025-01-15 02:06:44.54	223.37	12.87	
2025-01-15 02:06:44.75	223.36	12.85	
2025-01-15 02:06:44.95	223.35	12.82	
2025-01-15 02:06:45.15	223.34	12.80	
2025-01-15 02:06:45.35	223.32	12.78	
2025-01-15 02:06:45.56	223.31	12.76	
2025-01-15 02:06:45.76	223.30	12.74	
2025-01-15 02:06:45.96	223.29	12.72	
2025-01-15 02:06:46.17	223.27	12.70	
2025-01-15 02:06:46.37	223.26	12.68	
2025-01-15 02:06:46.57	223.25	12.66	
2025-01-15 02:06:46.78	223.24	12.64	
2025-01-15 02:06:46.98	223.23	12.62	
2025-01-15 02:06:47.18	223.21	12.60	
2025-01-15 02:06:47.39	223.20	12.58	
2025-01-15 02:06:47.59	223.19	12.56	
2025-01-15 02:06:47.79	223.18	12.54	
2025-01-15 02:06:47.99	223.16	12.52	
2025-01-15 02:06:48.20	223.15	12.49	
2025-01-15 02:06:48.40	223.14	12.47	
2025-01-15 02:06:48.60	223.13	12.45	
2025-01-15 02:06:48.81	223.12	12.43	
2025-01-15 02:06:49.01	223.10	12.41	
2025-01-15 02:06:49.21	223.09	12.39	
2025-01-15 02:06:49.42	223.08	12.37	
2025-01-15 02:06:49.62	223.07	12.35	
2025-01-15 02:06:49.82	223.06	12.33	
2025-01-15 02:06:50.03	223.04	12.31	
2025-01-15 02:06:50.23	223.03	12.29	
2025-01-15 02:06:50.43	223.02	12.27	
2025-01-15 02:06:50.63	223.01	12.25	
2025-01-15 02:06:50.84	223.00	12.23	
2025-01-15 02:06:51.04	222.98	12.21	
2025-01-15 02:06:51.24	222.97	12.19	
2025-01-15 02:06:51.45	222.96	12.17	
2025-01-15 02:06:51.65	222.95	12.15	
2025-01-15 02:06:51.85	222.94	12.13	
2025-01-15 02:06:52.06	222.93	12.11	
2025-01-15 02:06:52.26	222.91	12.09	
2025-01-15 02:06:52.46	222.90	12.07	
2025-01-15 02:06:52.67	222.89	12.05	
2025-01-15 02:06:52.87	222.88	12.03	
2025-01-15 02:06:53.07	222.87	12.01	
2025-01-15 02:06:53.27	222.86	11.99	
2025-01-15 02:06:53.48	222.84	11.97	
2025-01-15 02:06:53.68	222.83	11.95	
2025-01-15 02:06:53.88	222.82	11.93	
2025-01-15 02:06:54.09	222.81	11.91	
2025-01-15 02:06:54.29	222.80	11.89	
2025-01-15 02:06:54.49	222.79	11.87	
2025-01-15 02:06:54.70	222.77	11.85	
2025-01-15 02:06:54.90	222.76	11.83	
2025-01-15 02:06:55.10	222.75	11.81	
2025-01-15 02:06:55.31	222.74	11.79	
2025-01-15 02:06:55.51	222.73	11.77	
2025-01-15 02:06:55.71	222.72	11.75	
2025-01-15 02:06:55.91	222.71	11.73	
2025-01-15 02:06:56.12	222.69	11.71	
2025-01-15 02:06:56.32	222.68	11.69	
2025-01-15 02:06:56.52	222.67	11.67	
2025-01-15 02:06:56.73	222.66	11.65	
2025-01-15 02:06:56.93	222.65	11.63	
2025-01-15 02:06:57.13	222.64	11.61	
2025-01-15 02:06:57.34	222.63	11.59	
2025-01-15 02:06:57.54	222.61	11.57	
2025-01-15 02:06:57.74	222.60	11.55	
2025-01-15 02:06:57.95	222.59	11.53	
2025-01-15 02:06:58.15	222.58	11.51	
2025-01-15 02:06:58.35	222.57	11.49	
2025-01-15 02:06:58.55	222.56	11.47	
2025-01-15 02:06:58.76	222.55	11.45	
2025-01-15 02:06:58.96	222.54	11.43	
2025-01-15 02:06:59.16	222.53	11.41	
2025-01-15 02:06:59.37	222.51	11.39	
2025-01-15 02:06:59.57	222.50	11.37	
2025-01-15 02:06:59.77	222.49	11.35	
2025-01-15 02:06:59.98	222.48	11.33	
2025-01-15 02:07:00.18	222.47	11.31	
2025-01-15 02:07:00.38	222.46	11.30	
2025-01-15 02:07:00.59	222.45	11.28	
2025-01-15 02:07:00.79	222.44	11.26	
2025-01-15 02:07:00.99	222.43	11.24	
2025-01-15 02:07:01.19	222.41	11.22	
2025-01-15 02:07:01.40	222.40	11.20	
2025-01-15 02:07:01.60	222.39	11.18	
2025-01-15 02:07:01.80	222.38	11.16	
2025-01-15 02:07:02.01	222.37	11.14	
2025-01-15 02:07:02.21	222.36	11.12	
2025-01-15 02:07:02.41	222.35	11.10	
2025-01-15 02:07:02.62	222.34	11.08	
2025-01-15 02:07:02.82	222.33	11.06	
2025-01-15 02:07:03.02	222.32	11.04	
2025-01-15 02:07:03.23	222.31	11.02	
2025-01-15 02:07:03.43	222.29	11.00	
2025-01-15 02:07:03.63	222.28	10.99	
2025-01-15 02:07:03.83	222.27	10.97	
2025-01-15 02:07:04.04	222.26	10.95	
2025-01-15 02:07:04.24	222.25	10.93	
2025-01-15 02:07:04.44	222.24	10.91	
2025-01-15 02:07:04.65	222.23	10.89	
2025-01-15 02:07:04.85	222.22	10.87	
2025-01-15 02:07:05.05	222.21	10.85	
2025-01-15 02:07:05.26	222.20	10.83	
2025-01-15 02:07:05.46	222.19	10.81	
2025-01-15 02:07:05.66	222.18	10.79	
2025-01-15 02:07:05.87	222.17	10.77	
2025-01-15 02:07:06.07	222.16	10.76	
2025-01-15 02:07:06.27	222.14	10.74	
2025-01-15 02:07:06.47	222.13	10.72	
2025-01-15 02:07:06.68	222.12	10.70	
2025-01-15 02:07:06.88	222.11	10.68	
2025-01-15 02:07:07.08	222.10	10.66	
2025-01-15 02:07:07.29	222.09	10.64	
2025-01-15 02:07:07.49	222.08	10.62	
2025-01-15 02:07:07.69	222.07	10.60	
2025-01-15 02:07:07.90	222.06	10.58	
2025-01-15 02:07:08.10	222.05	10.57	
2025-01-15 02:07:08.30	222.04	10.55	
2025-01-15 02:07:08.51	222.03	10.53	
2025-01-15 02:07:08.71	222.02	10.51	
2025-01-15 02:07:08.91	222.01	10.49	
2025-01-15 02:07:09.11	222.00	10.47	
2025-01-15 02:07:09.32	221.99	10.45	
2025-01-15 02:07:09.52	221.98	10.43	
2025-01-15 02:07:09.72	221.97	10.42	
2025-01-15 02:07:09.93	221.96	10.40	
2025-01-15 02:07:10.13	221.95	10.38	
2025-01-15 02:07:10.33	221.94	10.36	
2025-01-15 02:07:10.54	221.93	10.34	
2025-01-15 02:07:10.74	221.92	10.32	
2025-01-15 02:07:10.94	221.91	10.30	
2025-01-15 02:07:11.15	221.89	10.28	
2025-01-15 02:07:11.35	221.88	10.27	
2025-01-15 02:07:11.55	221.87	10.25	
2025-01-15 02:07:11.75	221.86	10.23	
2025-01-15 02:07:11.96	221.85	10.21	
2025-01-15 02:07:12.16	221.84	10.19	
2025-01-15 02:07:12.36	221.83	10.17	
2025-01-15 02:07:12.57	221.82	10.15	
2025-01-15 02:07:12.77	221.81	10.14	
2025-01-15 02:07:12.97	221.80	10.12	
2025-01-15 02:07:13.18	221.79	10.10	
2025-01-15 02:07:13.38	221.78	10.08	
2025-01-15 02:07:13.58	221.77	10.06	
2025-01-15 02:07:13.79	221.76	10.04	
2025-01-15 02:07:13.99	221.75	10.02	
2025-01-15 02:07:14.19	221.74	10.01	
2025-01-15 02:07:14.39	221.73	9.99	
2025-01-15 02:07:14.60	221.72	9.97	
2025-01-15 02:07:14.80	221.71	9.95	
2025-01-15 02:07:15.00	221.70	9.93	
2025-01-15 02:07:15.21	221.69	9.91	
2025-01-15 02:07:15.41	221.68	9.90	
2025-01-15 02:07:15.61	221.67	9.88	
2025-01-15 02:07:15.82	221.66	9.86	
2025-01-15 02:07:16.02	221.65	9.84	
2025-01-15 02:07:16.22	221.64	9.82	
2025-01-15 02:07:16.43	221.63	9.80	
2025-01-15 02:07:16.63	221.62	9.79	
2025-01-15 02:07:16.83	221.61	9.77	
2025-01-15 02:07:17.03	221.61	9.75	
2025-01-15 02:07:17.24	221.60	9.73	
2025-01-15 02:07:17.44	221.59	9.71	
2025-01-15 02:07:17.64	221.58	9.70	
2025-01-15 02:07:17.85	221.57	9.68	
2025-01-15 02:07:18.05	221.56	9.66	
2025-01-15 02:07:18.25	221.55	9.64	
2025-01-15 02:07:18.46	221.54	9.62	
2025-01-15 02:07:18.66	221.53	9.60	
2025-01-15 02:07:18.86	221.52	9.59	
2025-01-15 02:07:19.07	221.51	9.57	
2025-01-15 02:07:19.27	221.50	9.55	
2025-01-15 02:07:19.47	221.49	9.53	
2025-01-15 02:07:19.67	221.48	9.51	
2025-01-15 02:07:19.88	221.47	9.50	
2025-01-15 02:07:20.08	221.46	9.48	
2025-01-15 02:07:20.28	221.45	9.46	
2025-01-15 02:07:20.49	221.44	9.44	
2025-01-15 02:07:20.69	221.43	9.42	
2025-01-15 02:07:20.89	221.42	9.41	
2025-01-15 02:07:21.10	221.41	9.39	
2025-01-15 02:07:21.30	221.40	9.37	
2025-01-15 02:07:21.50	221.39	9.35	
2025-01-15 02:07:21.71	221.38	9.33	
2025-01-15 02:07:21.91	221.37	9.32	
2025-01-15 02:07:22.11	221.36	9.30	
2025-01-15 02:07:22.31	221.36	9.28	
2025-01-15 02:07:22.52	221.35	9.26	
2025-01-15 02:07:22.72	221.34	9.24	
2025-01-15 02:07:22.92	221.33	9.23	
2025-01-15 02:07:23.13	221.32	9.21	
2025-01-15 02:07:23.33	221.31	9.19	
2025-01-15 02:07:23.53	221.30	9.17	
2025-01-15 02:07:23.74	221.29	9.15	
2025-01-15 02:07:23.94	221.28	9.14	
2025-01-15 02:07:24.14	221.27	9.12	
2025-01-15 02:07:24.35	221.26	9.10	
2025-01-15 02:07:24.55	221.25	9.08	
2025-01-15 02:07:24.75	221.24	9.07	
2025-01-15 02:07:24.95	221.23	9.05	
2025-01-15 02:07:25.16	221.22	9.03	
2025-01-15 02:07:25.36	221.21	9.01	
2025-01-15 02:07:25.56	221.21	9.00	
2025-01-15 02:07:25.77	221.20	8.98	
2025-01-15 02:07:25.97	221.19	8.96	
2025-01-15 02:07:26.17	221.18	8.94	
2025-01-15 02:07:26.38	221.17	8.92	
2025-01-15 02:07:26.58	221.16	8.91	
2025-01-15 02:07:26.78	221.15	8.89	
2025-01-15 02:07:26.99	221.14	8.87	
2025-01-15 02:07:27.19	221.13	8.85	
2025-01-15 02:07:27.39	221.12	8.84	
2025-01-15 02:07:27.59	221.11	8.82	
2025-01-15 02:07:27.80	221.10	8.80	
2025-01-15 02:07:28.00	221.10	8.78	
2025-01-15 02:07:28.20	221.09	8.77	
2025-01-15 02:07:28.41	221.08	8.75	
2025-01-15 02:07:28.61	221.07	8.73	
2025-01-15 02:07:28.81	221.06	8.71	
2025-01-15 02:07:29.02	221.05	8.70	
2025-01-15 02:07:29.22	221.04	8.68	
2025-01-15 02:07:29.42	221.03	8.66	
2025-01-15 02:07:29.63	221.02	8.64	
2025-01-15 02:07:29.83	221.01	8.63	
2025-01-15 02:07:30.03	221.01	8.61	
2025-01-15 02:07:30.23	221.00	8.59	
2025-01-15 02:07:30.44	220.99	8.57	
2025-01-15 02:07:30.64	220.98	8.56	
2025-01-15 02:07:30.84	220.97	8.54	
2025-01-15 02:07:31.05	220.96	8.52	
2025-01-15 02:07:31.25	220.95	8.51	
2025-01-15 02:07:31.45	220.94	8.49	
2025-01-15 02:07:31.66	220.93	8.47	
2025-01-15 02:07:31.86	220.92	8.45	
2025-01-15 02:07:32.06	220.92	8.44	
2025-01-15 02:07:32.27	220.91	8.42	
2025-01-15 02:07:32.47	220.90	8.40	
2025-01-15 02:07:32.67	220.89	8.38	
2025-01-15 02:07:32.87	220.88	8.37	
2025-01-15 02:07:33.08	220.87	8.35	
2025-01-15 02:07:33.28	220.86	8.33	
2025-01-15 02:07:33.48	220.85	8.32	
2025-01-15 02:07:33.69	220.85	8.30	
2025-01-15 02:07:33.89	220.84	8.28	
2025-01-15 02:07:34.09	220.83	8.26	
2025-01-15 02:07:34.30	220.82	8.25	
2025-01-15 02:07:34.50	220.81	8.23	
2025-01-15 02:07:34.70	220.80	8.21	
2025-01-15 02:07:34.91	220.79	8.20	
2025-01-15 02:07:35.11	220.78	8.18	
2025-01-15 02:07:35.31	220.78	8.16	
2025-01-15 02:07:35.51	220.77	8.15	
2025-01-15 02:07:35.72	220.76	8.13	
2025-01-15 02:07:35.92	220.75	8.11	
2025-01-15 02:07:36.12	220.74	8.09	
2025-01-15 02:07:36.33	220.73	8.08	
2025-01-15 02:07:36.53	220.72	8.06	
2025-01-15 02:07:36.73	220.72	8.04	
2025-01-15 02:07:36.94	220.71	8.03	
2025-01-15 02:07:37.14	220.70	8.01	
2025-01-15 02:07:37.34	220.69	7.99	
2025-01-15 02:07:37.55	220.68	7.97	
2025-01-15 02:07:37.75	220.67	7.96	
2025-01-15 02:07:37.95	220.66	7.94	
2025-01-15 02:07:38.15	220.66	7.92	
2025-01-15 02:07:38.36	220.65	7.91	
2025-01-15 02:07:38.56	220.64	7.89	
2025-01-15 02:07:38.76	220.63	7.87	
2025-01-15 02:07:38.97	220.62	7.86	
2025-01-15 02:07:39.17	220.61	7.84	
2025-01-15 02:07:39.37	220.61	7.82	
2025-01-15 02:07:39.58	220.60	7.81	
2025-01-15 02:07:39.78	220.59	7.79	
2025-01-15 02:07:39.98	220.58	7.77	
2025-01-15 02:07:40.19	220.57	7.76	
2025-01-15 02:07:40.39	220.56	7.74	
2025-01-15 02:07:40.59	220.56	7.72	
2025-01-15 02:07:40.79	220.55	7.71	
2025-01-15 02:07:41.00	220.54	7.69	
2025-01-15 02:07:41.20	220.53	7.67	
2025-01-15 02:07:41.40	220.52	7.66	
2025-01-15 02:07:41.61	220.51	7.64	
2025-01-15 02:07:41.81	220.51	7.62	
2025-01-15 02:07:42.01	220.50	7.61	
2025-01-15 02:07:42.22	220.49	7.59	
2025-01-15 02:07:42.42	220.48	7.57	
2025-01-15 02:07:42.62	220.47	7.56	
2025-01-15 02:07:42.83	220.46	7.54	
2025-01-15 02:07:43.03	220.46	7.52	
2025-01-15 02:07:43.23	220.45	7.51	
2025-01-15 02:07:43.43	220.44	7.49	
2025-01-15 02:07:43.64	220.43	7.47	
2025-01-15 02:07:43.84	220.42	7.46	
2025-01-15 02:07:44.04	220.41	7.44	
2025-01-15 02:07:44.25	220.41	7.42	
2025-01-15 02:07:44.45	220.40	7.41	
2025-01-15 02:07:44.65	220.39	7.39	
2025-01-15 02:07:44.86	220.38	7.37	
2025-01-15 02:07:45.06	220.37	7.36	
2025-01-15 02:07:45.26	220.37	7.34	
2025-01-15 02:07:45.47	220.36	7.32	
2025-01-15 02:07:45.67	220.35	7.31	
2025-01-15 02:07:45.87	220.34	7.29	
2025-01-15 02:07:46.07	220.33	7.27	
2025-01-15 02:07:46.28	220.33	7.26	
2025-01-15 02:07:46.48	220.32	7.24	
2025-01-15 02:07:46.68	220.31	7.23	
2025-01-15 02:07:46.89	220.30	7.21	
2025-01-15 02:07:47.09	220.29	7.19	
2025-01-15 02:07:47.29	220.29	7.18	
2025-01-15 02:07:47.50	220.28	7.16	
2025-01-15 02:07:47.70	220.27	7.14	
2025-01-15 02:07:47.90	220.26	7.13	
2025-01-15 02:07:48.11	220.25	7.11	
2025-01-15 02:07:48.31	220.25	7.09	
2025-01-15 02:07:48.51	220.24	7.08	
2025-01-15 02:07:48.71	220.23	7.06	
2025-01-15 02:07:48.92	220.22	7.04	
2025-01-15 02:07:49.12	220.21	7.03	
2025-01-15 02:07:49.32	220.21	7.01	
2025-01-15 02:07:49.53	220.20	7.00	
2025-01-15 02:07:49.73	220.19	6.98	
2025-01-15 02:07:49.93	220.18	6.96	
2025-01-15 02:07:50.14	220.17	6.95	
2025-01-15 02:07:50.34	220.17	6.93	
2025-01-15 02:07:50.54	220.16	6.92	
2025-01-15 02:07:50.75	220.15	6.90	
2025-01-15 02:07:50.95	220.14	6.88	
2025-01-15 02:07:51.15	220.14	6.87	
2025-01-15 02:07:51.35	220.13	6.85	
2025-01-15 02:07:51.56	220.12	6.83	
2025-01-15 02:07:51.76	220.11	6.82	
2025-01-15 02:07:51.96	220.10	6.80	
2025-01-15 02:07:52.17	220.10	6.79	
2025-01-15 02:07:52.37	220.09	6.77	
2025-01-15 02:07:52.57	220.08	6.75	
2025-01-15 02:07:52.78	220.07	6.74	
2025-01-15 02:07:52.98	220.07	6.72	
2025-01-15 02:07:53.18	220.06	6.71	
2025-01-15 02:07:53.39	220.05	6.69	
2025-01-15 02:07:53.59	220.04	6.67	
2025-01-15 02:07:53.79	220.03	6.66	
2025-01-15 02:07:53.99	220.03	6.64	
2025-01-15 02:07:54.20	220.02	6.63	
2025-01-15 02:07:54.40	220.01	6.61	
2025-01-15 02:07:54.60	220.00	6.59	
2025-01-15 02:07:54.81	220.00	6.58	
2025-01-15 02:07:55.01	219.99	6.56	
2025-01-15 02:07:55.21	219.98	6.55	
2025-01-15 02:07:55.42	219.97	6.53	
2025-01-15 02:07:55.62	219.97	6.51	
2025-01-15 02:07:55.82	219.96	6.50	
2025-01-15 02:07:56.03	219.95	6.48	
2025-01-15 02:07:56.23	219.94	6.47	
2025-01-15 02:07:56.43	219.94	6.45	
2025-01-15 02:07:56.63	219.93	6.43	
2025-01-15 02:07:56.84	219.92	6.42	
2025-01-15 02:07:57.04	219.91	6.40	
2025-01-15 02:07:57.24	219.91	6.39	
2025-01-15 02:07:57.45	219.90	6.37	
2025-01-15 02:07:57.65	219.89	6.35	
2025-01-15 02:07:57.85	219.88	6.34	
2025-01-15 02:07:58.06	219.88	6.32	
2025-01-15 02:07:58.26	219.87	6.31	
2025-01-15 02:07:58.46	219.86	6.29	
2025-01-15 02:07:58.67	219.85	6.28	
2025-01-15 02:07:58.87	219.85	6.26	
2025-01-15 02:07:59.07	219.84	6.24	
2025-01-15 02:07:59.27	219.83	6.23	
2025-01-15 02:07:59.48	219.82	6.21	
2025-01-15 02:07:59.68	219.82	6.20	
2025-01-15 02:07:59.88	219.81	6.18	
2025-01-15 02:08:00.09	219.80	6.17	
2025-01-15 02:08:00.29	219.79	6.15	
2025-01-15 02:08:00.49	219.79	6.13	
2025-01-15 02:08:00.70	219.78	6.12	
2025-01-15 02:08:00.90	219.77	6.10	
2025-01-15 02:08:01.10	219.76	6.09	
2025-01-15 02:08:01.31	219.76	6.07	
2025-01-15 02:08:01.51	219.75	6.06	
2025-01-15 02:08:01.71	219.74	6.04	
2025-01-15 02:08:01.91	219.74	6.02	
2025-01-15 02:08:02.12	219.73	6.01	
2025-01-15 02:08:02.32	219.72	5.99	
2025-01-15 02:08:02.52	219.71	5.98	
2025-01-15 02:08:02.73	219.71	5.96	
2025-01-15 02:08:02.93	219.70	5.95	
2025-01-15 02:08:03.13	219.69	5.93	
2025-01-15 02:08:03.34	219.68	5.92	
2025-01-15 02:08:03.54	219.68	5.90	
2025-01-15 02:08:03.74	219.67	5.88	
2025-01-15 02:08:03.95	219.66	5.87	
2025-01-15 02:08:04.15	219.66	5.85	
2025-01-15 02:08:04.35	219.65	5.84	
2025-01-15 02:08:04.55	219.64	5.82	
2025-01-15 02:08:04.76	219.63	5.81	
2025-01-15 02:08:04.96	219.63	5.79	
2025-01-15 02:08:05.16	219.62	5.78	
2025-01-15 02:08:05.37	219.61	5.76	
2025-01-15 02:08:05.57	219.61	5.75	
2025-01-15 02:08:05.77	219.60	5.73	
2025-01-15 02:08:05.98	219.59	5.71	
2025-01-15 02:08:06.18	219.58	5.70	
2025-01-15 02:08:06.38	219.58	5.68	
2025-01-15 02:08:06.59	219.57	5.67	
2025-01-15 02:08:06.79	219.56	5.65	
2025-01-15 02:08:06.99	219.56	5.64	
2025-01-15 02:08:07.19	219.55	5.62	
2025-01-15 02:08:07.40	219.54	5.61	
2025-01-15 02:08:07.60	219.53	5.59	
2025-01-15 02:08:07.80	219.53	5.58	
2025-01-15 02:08:08.01	219.52	5.56	
2025-01-15 02:08:08.21	219.51	5.55	
2025-01-15 02:08:08.41	219.51	5.53	
2025-01-15 02:08:08.62	219.50	5.51	
2025-01-15 02:08:08.82	219.49	5.50	
2025-01-15 02:08:09.02	219.49	5.48	
2025-01-15 02:08:09.23	219.48	5.47	
2025-01-15 02:08:09.43	219.47	5.45	
2025-01-15 02:08:09.63	219.46	5.44	
2025-01-15 02:08:09.83	219.46	5.42	
2025-01-15 02:08:10.04	219.45	5.41	
2025-01-15 02:08:10.24	219.44	5.39	
2025-01-15 02:08:10.44	219.44	5.38	
2025-01-15 02:08:10.65	219.43	5.36	
2025-01-15 02:08:10.85	219.42	5.35	
2025-01-15 02:08:11.05	219.42	5.33	
2025-01-15 02:08:11.26	219.41	5.32	
2025-01-15 02:08:11.46	219.40	5.30	
2025-01-15 02:08:11.66	219.40	5.29	
2025-01-15 02:08:11.87	219.39	5.27	
2025-01-15 02:08:12.07	219.38	5.26	
2025-01-15 02:08:12.27	219.37	5.24	
2025-01-15 02:08:12.47	219.37	5.23	
2025-01-15 02:08:12.68	219.36	5.21	
2025-01-15 02:08:12.88	219.35	5.20	
2025-01-15 02:08:13.08	219.35	5.18	
2025-01-15 02:08:13.29	219.34	5.17	
2025-01-15 02:08:13.49	219.33	5.15	
2025-01-15 02:08:13.69	219.33	5.14	
2025-01-15 02:08:13.90	219.32	5.12	
2025-01-15 02:08:14.10	219.31	5.11	
2025-01-15 02:08:14.30	219.31	5.09	
2025-01-15 02:08:14.51	219.30	5.07	
2025-01-15 02:08:14.71	219.29	5.06	
2025-01-15 02:08:14.91	219.29	5.05	
2025-01-15 02:08:15.12	219.28	5.03	
2025-01-15 02:08:15.32	219.27	5.01	
2025-01-15 02:08:15.52	219.27	5.00	
2025-01-15 02:08:15.72	219.26	4.99	
2025-01-15 02:08:15.93	219.25	4.97	
2025-01-15 02:08:16.13	219.25	4.96	
2025-01-15 02:08:16.33	219.24	4.94	
2025-01-15 02:08:16.54	219.23	4.92	
2025-01-15 02:08:16.74	219.23	4.91	
2025-01-15 02:08:16.94	219.22	4.90	
2025-01-15 02:08:17.15	219.21	4.88	
2025-01-15 02:08:17.35	219.21	4.87	
2025-01-15 02:08:17.55	219.20	4.85	
2025-01-15 02:08:17.75	219.19	4.84	
2025-01-15 02:08:17.96	219.19	4.82	
2025-01-15 02:08:18.16	219.18	4.81	
2025-01-15 02:08:18.36	219.17	4.79	
2025-01-15 02:08:18.57	219.17	4.78	
2025-01-15 02:08:18.77	219.16	4.76	
2025-01-15 02:08:18.97	219.15	4.75	
2025-01-15 02:08:19.18	219.15	4.73	
2025-01-15 02:08:19.38	219.14	4.72	
2025-01-15 02:08:19.58	219.13	4.70	
2025-01-15 02:08:19.79	219.13	4.69	
2025-01-15 02:08:19.99	219.12	4.67	
2025-01-15 02:08:20.19	219.11	4.66	
2025-01-15 02:08:20.39	219.11	4.64	
2025-01-15 02:08:20.60	219.10	4.63	
2025-01-15 02:08:20.80	219.09	4.61	
2025-01-15 02:08:21.00	219.09	4.60	
2025-01-15 02:08:21.21	219.08	4.58	
2025-01-15 02:08:21.41	219.07	4.57	
2025-01-15 02:08:21.61	219.07	4.55	
2025-01-15 02:08:21.82	219.06	4.54	
2025-01-15 02:08:22.02	219.06	4.53	
2025-01-15 02:08:22.22	219.05	4.51	
2025-01-15 02:08:22.43	219.04	4.50	
2025-01-15 02:08:22.63	219.04	4.48	
2025-01-15 02:08:22.83	219.03	4.47	
2025-01-15 02:08:23.03	219.02	4.45	
2025-01-15 02:08:23.24	219.02	4.44	
2025-01-15 02:08:23.44	219.01	4.42	
2025-01-15 02:08:23.64	219.00	4.41	
2025-01-15 02:08:23.85	219.00	4.39	
2025-01-15 02:08:24.05	218.99	4.38	
2025-01-15 02:08:24.25	218.98	4.36	
2025-01-15 02:08:24.46	218.98	4.35	
2025-01-15 02:08:24.66	218.97	4.33	
2025-01-15 02:08:24.86	218.97	4.32	
2025-01-15 02:08:25.07	218.96	4.31	
2025-01-15 02:08:25.27	218.95	4.29	
2025-01-15 02:08:25.47	218.95	4.28	
2025-01-15 02:08:25.67	218.94	4.26	
2025-01-15 02:08:25.88	218.93	4.25	
2025-01-15 02:08:26.08	218.93	4.23	
2025-01-15 02:08:26.28	218.92	4.22	
2025-01-15 02:08:26.49	218.91	4.20	
2025-01-15 02:08:26.69	218.91	4.19	
2025-01-15 02:08:26.89	218.90	4.18	
2025-01-15 02:08:27.10	218.90	4.16	
2025-01-15 02:08:27.30	218.89	4.15	
2025-01-15 02:08:27.50	218.88	4.13	
2025-01-15 02:08:27.71	218.88	4.12	
2025-01-15 02:08:27.91	218.87	4.10	
2025-01-15 02:08:28.11	218.86	4.09	
2025-01-15 02:08:28.31	218.86	4.07	
2025-01-15 02:08:28.52	218.85	4.06	
2025-01-15 02:08:28.72	218.85	4.04	
2025-01-15 02:08:28.92	218.84	4.03	
2025-01-15 02:08:29.13	218.83	4.02	
2025-01-15 02:08:29.33	218.83	4.00	

#Closed at: 2025-01-15 02:08:29