passes_logs/2025/01/15/SPB_Silybum_02/SPB_Silybum_02__20250115_113303_AQUA_rec.log

#Pass ID: 20250115_113303_AQUA
#Satellite: AQUA
#Configuration: AQUA
#Start time: 2025-01-15 11:33:01

#Version: 2.0.20230423
#Station: SPB_Silybum_02
#Location: 30.233357 lon 59.946436 lat
#TLE: 1 27424U 02022A   25014.86211101  .00001670  00000+0  35273-3 0  9993
#TLE: 2 27424  98.3588 331.5248 0001714 111.5422 273.3352 14.60681448207609

#Time	Az	El	Level	Level2	SNR	BER	Gain	Gain2
2025-01-15 11:33:03.79	165.56	4.04	
2025-01-15 11:33:03.99	165.57	4.05	
2025-01-15 11:33:04.20	165.57	4.07	
2025-01-15 11:33:04.40	165.57	4.08	
2025-01-15 11:33:04.60	165.58	4.10	
2025-01-15 11:33:04.81	165.58	4.11	
2025-01-15 11:33:05.01	165.58	4.13	
2025-01-15 11:33:05.21	165.58	4.14	
2025-01-15 11:33:05.41	165.59	4.15	
2025-01-15 11:33:05.62	165.59	4.17	
2025-01-15 11:33:05.82	165.59	4.18	
2025-01-15 11:33:06.02	165.59	4.20	
2025-01-15 11:33:06.23	165.60	4.21	
2025-01-15 11:33:06.43	165.60	4.23	
2025-01-15 11:33:06.63	165.60	4.24	
2025-01-15 11:33:06.83	165.60	4.26	
2025-01-15 11:33:07.04	165.61	4.27	
2025-01-15 11:33:07.24	165.61	4.29	
2025-01-15 11:33:07.44	165.61	4.30	
2025-01-15 11:33:07.65	165.61	4.32	
2025-01-15 11:33:07.85	165.62	4.33	
2025-01-15 11:33:08.05	165.62	4.35	
2025-01-15 11:33:08.26	165.62	4.36	
2025-01-15 11:33:08.46	165.63	4.38	
2025-01-15 11:33:08.66	165.63	4.39	
2025-01-15 11:33:08.86	165.63	4.41	
2025-01-15 11:33:09.07	165.63	4.42	
2025-01-15 11:33:09.27	165.64	4.44	
2025-01-15 11:33:09.47	165.64	4.45	
2025-01-15 11:33:09.68	165.64	4.47	
2025-01-15 11:33:09.88	165.64	4.48	
2025-01-15 11:33:10.08	165.65	4.49	
2025-01-15 11:33:10.28	165.65	4.51	
2025-01-15 11:33:10.49	165.65	4.52	
2025-01-15 11:33:10.69	165.66	4.54	
2025-01-15 11:33:10.89	165.66	4.55	
2025-01-15 11:33:11.10	165.66	4.57	
2025-01-15 11:33:11.30	165.66	4.58	
2025-01-15 11:33:11.50	165.67	4.60	
2025-01-15 11:33:11.71	165.67	4.61	
2025-01-15 11:33:11.91	165.67	4.63	
2025-01-15 11:33:12.11	165.67	4.64	
2025-01-15 11:33:12.31	165.68	4.66	
2025-01-15 11:33:12.52	165.68	4.67	
2025-01-15 11:33:12.72	165.68	4.69	
2025-01-15 11:33:12.92	165.68	4.70	
2025-01-15 11:33:13.13	165.69	4.72	
2025-01-15 11:33:13.33	165.69	4.73	
2025-01-15 11:33:13.53	165.69	4.75	
2025-01-15 11:33:13.74	165.70	4.76	
2025-01-15 11:33:13.94	165.70	4.78	
2025-01-15 11:33:14.14	165.70	4.79	
2025-01-15 11:33:14.34	165.70	4.81	
2025-01-15 11:33:14.55	165.71	4.82	
2025-01-15 11:33:14.75	165.71	4.84	
2025-01-15 11:33:14.95	165.71	4.85	
2025-01-15 11:33:15.16	165.72	4.87	
2025-01-15 11:33:15.36	165.72	4.89	
2025-01-15 11:33:15.56	165.72	4.90	
2025-01-15 11:33:15.76	165.72	4.92	
2025-01-15 11:33:15.97	165.73	4.93	
2025-01-15 11:33:16.17	165.73	4.95	
2025-01-15 11:33:16.37	165.73	4.96	
2025-01-15 11:33:16.58	165.73	4.98	
2025-01-15 11:33:16.78	165.74	4.99	
2025-01-15 11:33:16.98	165.74	5.01	
2025-01-15 11:33:17.19	165.74	5.02	
2025-01-15 11:33:17.39	165.75	5.04	
2025-01-15 11:33:17.59	165.75	5.05	
2025-01-15 11:33:17.79	165.75	5.07	
2025-01-15 11:33:18.00	165.75	5.08	
2025-01-15 11:33:18.20	165.76	5.10	
2025-01-15 11:33:18.40	165.76	5.11	
2025-01-15 11:33:18.61	165.76	5.13	
2025-01-15 11:33:18.81	165.77	5.14	
2025-01-15 11:33:19.01	165.77	5.16	
2025-01-15 11:33:19.21	165.77	5.17	
2025-01-15 11:33:19.42	165.77	5.19	
2025-01-15 11:33:19.62	165.78	5.21	
2025-01-15 11:33:19.82	165.78	5.22	
2025-01-15 11:33:20.03	165.78	5.24	
2025-01-15 11:33:20.23	165.78	5.25	
2025-01-15 11:33:20.43	165.79	5.27	
2025-01-15 11:33:20.64	165.79	5.28	
2025-01-15 11:33:20.84	165.79	5.30	
2025-01-15 11:33:21.04	165.80	5.31	
2025-01-15 11:33:21.24	165.80	5.33	
2025-01-15 11:33:21.45	165.80	5.34	
2025-01-15 11:33:21.65	165.80	5.36	
2025-01-15 11:33:21.85	165.81	5.37	
2025-01-15 11:33:22.06	165.81	5.39	
2025-01-15 11:33:22.26	165.81	5.41	
2025-01-15 11:33:22.46	165.82	5.42	
2025-01-15 11:33:22.66	165.82	5.44	
2025-01-15 11:33:22.87	165.82	5.45	
2025-01-15 11:33:23.07	165.82	5.47	
2025-01-15 11:33:23.27	165.83	5.48	
2025-01-15 11:33:23.48	165.83	5.50	
2025-01-15 11:33:23.68	165.83	5.51	
2025-01-15 11:33:23.88	165.84	5.53	
2025-01-15 11:33:24.09	165.84	5.55	
2025-01-15 11:33:24.29	165.84	5.56	
2025-01-15 11:33:24.49	165.84	5.58	
2025-01-15 11:33:24.69	165.85	5.59	
2025-01-15 11:33:24.90	165.85	5.61	
2025-01-15 11:33:25.10	165.85	5.62	
2025-01-15 11:33:25.30	165.86	5.64	
2025-01-15 11:33:25.51	165.86	5.65	
2025-01-15 11:33:25.71	165.86	5.67	
2025-01-15 11:33:25.91	165.86	5.69	
2025-01-15 11:33:26.12	165.87	5.70	
2025-01-15 11:33:26.32	165.87	5.72	
2025-01-15 11:33:26.52	165.87	5.73	
2025-01-15 11:33:26.72	165.88	5.75	
2025-01-15 11:33:26.93	165.88	5.76	
2025-01-15 11:33:27.13	165.88	5.78	
2025-01-15 11:33:27.33	165.88	5.80	
2025-01-15 11:33:27.54	165.89	5.81	
2025-01-15 11:33:27.74	165.89	5.83	
2025-01-15 11:33:27.94	165.89	5.84	
2025-01-15 11:33:28.14	165.90	5.86	
2025-01-15 11:33:28.35	165.90	5.87	
2025-01-15 11:33:28.55	165.90	5.89	
2025-01-15 11:33:28.75	165.91	5.91	
2025-01-15 11:33:28.96	165.91	5.92	
2025-01-15 11:33:29.16	165.91	5.94	
2025-01-15 11:33:29.36	165.91	5.95	
2025-01-15 11:33:29.57	165.92	5.97	
2025-01-15 11:33:29.77	165.92	5.99	
2025-01-15 11:33:29.97	165.92	6.00	
2025-01-15 11:33:30.17	165.93	6.02	
2025-01-15 11:33:30.38	165.93	6.03	
2025-01-15 11:33:30.58	165.93	6.05	
2025-01-15 11:33:30.78	165.93	6.06	
2025-01-15 11:33:30.99	165.94	6.08	
2025-01-15 11:33:31.19	165.94	6.10	
2025-01-15 11:33:31.39	165.94	6.11	
2025-01-15 11:33:31.59	165.95	6.13	
2025-01-15 11:33:31.80	165.95	6.14	
2025-01-15 11:33:32.00	165.95	6.16	
2025-01-15 11:33:32.20	165.96	6.18	
2025-01-15 11:33:32.41	165.96	6.19	
2025-01-15 11:33:32.61	165.96	6.21	
2025-01-15 11:33:32.81	165.96	6.22	
2025-01-15 11:33:33.02	165.97	6.24	
2025-01-15 11:33:33.22	165.97	6.26	
2025-01-15 11:33:33.42	165.97	6.27	
2025-01-15 11:33:33.62	165.98	6.29	
2025-01-15 11:33:33.83	165.98	6.30	
2025-01-15 11:33:34.03	165.98	6.32	
2025-01-15 11:33:34.23	165.99	6.34	
2025-01-15 11:33:34.44	165.99	6.35	
2025-01-15 11:33:34.64	165.99	6.37	
2025-01-15 11:33:34.84	165.99	6.38	
2025-01-15 11:33:35.05	166.00	6.40	
2025-01-15 11:33:35.25	166.00	6.42	
2025-01-15 11:33:35.45	166.00	6.43	
2025-01-15 11:33:35.65	166.01	6.45	
2025-01-15 11:33:35.86	166.01	6.47	
2025-01-15 11:33:36.06	166.01	6.48	
2025-01-15 11:33:36.26	166.02	6.50	
2025-01-15 11:33:36.47	166.02	6.51	
2025-01-15 11:33:36.67	166.02	6.53	
2025-01-15 11:33:36.87	166.02	6.55	
2025-01-15 11:33:37.07	166.03	6.56	
2025-01-15 11:33:37.29	166.03	6.58	
2025-01-15 11:33:37.50	166.03	6.60	
2025-01-15 11:33:37.70	166.04	6.61	
2025-01-15 11:33:37.90	166.04	6.63	
2025-01-15 11:33:38.10	166.04	6.65	
2025-01-15 11:33:38.31	166.05	6.66	
2025-01-15 11:33:38.51	166.05	6.68	
2025-01-15 11:33:38.71	166.05	6.69	
2025-01-15 11:33:38.92	166.06	6.71	
2025-01-15 11:33:39.12	166.06	6.73	
2025-01-15 11:33:39.32	166.06	6.74	
2025-01-15 11:33:39.53	166.06	6.76	
2025-01-15 11:33:39.73	166.07	6.78	
2025-01-15 11:33:39.93	166.07	6.79	
2025-01-15 11:33:40.13	166.07	6.81	
2025-01-15 11:33:40.34	166.08	6.83	
2025-01-15 11:33:40.54	166.08	6.84	
2025-01-15 11:33:40.74	166.08	6.86	
2025-01-15 11:33:40.95	166.09	6.88	
2025-01-15 11:33:41.15	166.09	6.89	
2025-01-15 11:33:41.35	166.09	6.91	
2025-01-15 11:33:41.55	166.10	6.92	
2025-01-15 11:33:41.76	166.10	6.94	
2025-01-15 11:33:41.96	166.10	6.96	
2025-01-15 11:33:42.16	166.10	6.97	
2025-01-15 11:33:42.37	166.11	6.99	
2025-01-15 11:33:42.57	166.11	7.01	
2025-01-15 11:33:42.77	166.11	7.02	
2025-01-15 11:33:42.98	166.12	7.04	
2025-01-15 11:33:43.18	166.12	7.06	
2025-01-15 11:33:43.38	166.12	7.07	
2025-01-15 11:33:43.58	166.13	7.09	
2025-01-15 11:33:43.79	166.13	7.11	
2025-01-15 11:33:43.99	166.13	7.12	
2025-01-15 11:33:44.19	166.14	7.14	
2025-01-15 11:33:44.40	166.14	7.16	
2025-01-15 11:33:44.60	166.14	7.17	
2025-01-15 11:33:44.80	166.15	7.19	
2025-01-15 11:33:45.01	166.15	7.21	
2025-01-15 11:33:45.21	166.15	7.22	
2025-01-15 11:33:45.41	166.16	7.24	
2025-01-15 11:33:45.61	166.16	7.26	
2025-01-15 11:33:45.82	166.16	7.27	
2025-01-15 11:33:46.02	166.16	7.29	
2025-01-15 11:33:46.22	166.17	7.31	
2025-01-15 11:33:46.43	166.17	7.32	
2025-01-15 11:33:46.63	166.17	7.34	
2025-01-15 11:33:46.83	166.18	7.36	
2025-01-15 11:33:47.03	166.18	7.37	
2025-01-15 11:33:47.24	166.18	7.39	
2025-01-15 11:33:47.44	166.19	7.41	
2025-01-15 11:33:47.64	166.19	7.42	
2025-01-15 11:33:47.85	166.19	7.44	
2025-01-15 11:33:48.05	166.20	7.46	
2025-01-15 11:33:48.25	166.20	7.48	
2025-01-15 11:33:48.46	166.20	7.49	
2025-01-15 11:33:48.66	166.21	7.51	
2025-01-15 11:33:48.86	166.21	7.53	
2025-01-15 11:33:49.06	166.21	7.54	
2025-01-15 11:33:49.27	166.22	7.56	
2025-01-15 11:33:49.47	166.22	7.58	
2025-01-15 11:33:49.67	166.22	7.59	
2025-01-15 11:33:49.88	166.23	7.61	
2025-01-15 11:33:50.08	166.23	7.63	
2025-01-15 11:33:50.28	166.23	7.65	
2025-01-15 11:33:50.48	166.24	7.66	
2025-01-15 11:33:50.69	166.24	7.68	
2025-01-15 11:33:50.89	166.24	7.70	
2025-01-15 11:33:51.09	166.24	7.71	
2025-01-15 11:33:51.30	166.25	7.73	
2025-01-15 11:33:51.50	166.25	7.75	
2025-01-15 11:33:51.70	166.25	7.76	
2025-01-15 11:33:51.91	166.26	7.78	
2025-01-15 11:33:52.11	166.26	7.80	
2025-01-15 11:33:52.31	166.26	7.82	
2025-01-15 11:33:52.51	166.27	7.83	
2025-01-15 11:33:52.72	166.27	7.85	
2025-01-15 11:33:52.92	166.27	7.87	
2025-01-15 11:33:53.12	166.28	7.89	
2025-01-15 11:33:53.33	166.28	7.90	
2025-01-15 11:33:53.53	166.28	7.92	
2025-01-15 11:33:53.73	166.29	7.94	
2025-01-15 11:33:53.94	166.29	7.95	
2025-01-15 11:33:54.14	166.29	7.97	
2025-01-15 11:33:54.34	166.30	7.99	
2025-01-15 11:33:54.54	166.30	8.01	
2025-01-15 11:33:54.75	166.30	8.02	
2025-01-15 11:33:54.95	166.31	8.04	
2025-01-15 11:33:55.15	166.31	8.06	
2025-01-15 11:33:55.36	166.31	8.08	
2025-01-15 11:33:55.56	166.32	8.09	
2025-01-15 11:33:55.76	166.32	8.11	
2025-01-15 11:33:55.96	166.32	8.13	
2025-01-15 11:33:56.17	166.33	8.15	
2025-01-15 11:33:56.37	166.33	8.16	
2025-01-15 11:33:56.57	166.33	8.18	
2025-01-15 11:33:56.78	166.34	8.20	
2025-01-15 11:33:56.98	166.34	8.21	
2025-01-15 11:33:57.18	166.34	8.23	
2025-01-15 11:33:57.39	166.35	8.25	
2025-01-15 11:33:57.59	166.35	8.27	
2025-01-15 11:33:57.79	166.35	8.28	
2025-01-15 11:33:57.99	166.36	8.30	
2025-01-15 11:33:58.20	166.36	8.32	
2025-01-15 11:33:58.40	166.36	8.34	
2025-01-15 11:33:58.60	166.37	8.35	
2025-01-15 11:33:58.81	166.37	8.37	
2025-01-15 11:33:59.01	166.37	8.39	
2025-01-15 11:33:59.21	166.38	8.41	
2025-01-15 11:33:59.41	166.38	8.42	
2025-01-15 11:33:59.62	166.39	8.44	
2025-01-15 11:33:59.82	166.39	8.46	
2025-01-15 11:34:00.02	166.39	8.48	
2025-01-15 11:34:00.23	166.40	8.50	
2025-01-15 11:34:00.43	166.40	8.51	
2025-01-15 11:34:00.63	166.40	8.53	
2025-01-15 11:34:00.84	166.41	8.55	
2025-01-15 11:34:01.04	166.41	8.57	
2025-01-15 11:34:01.24	166.41	8.58	
2025-01-15 11:34:01.44	166.42	8.60	
2025-01-15 11:34:01.65	166.42	8.62	
2025-01-15 11:34:01.85	166.42	8.64	
2025-01-15 11:34:02.05	166.43	8.66	
2025-01-15 11:34:02.26	166.43	8.67	
2025-01-15 11:34:02.46	166.43	8.69	
2025-01-15 11:34:02.66	166.44	8.71	
2025-01-15 11:34:02.86	166.44	8.73	
2025-01-15 11:34:03.07	166.44	8.75	
2025-01-15 11:34:03.27	166.45	8.76	
2025-01-15 11:34:03.47	166.45	8.78	
2025-01-15 11:34:03.68	166.45	8.80	
2025-01-15 11:34:03.88	166.46	8.82	
2025-01-15 11:34:04.08	166.46	8.83	
2025-01-15 11:34:04.29	166.46	8.85	
2025-01-15 11:34:04.49	166.47	8.87	
2025-01-15 11:34:04.69	166.47	8.89	
2025-01-15 11:34:04.89	166.47	8.91	
2025-01-15 11:34:05.10	166.48	8.92	
2025-01-15 11:34:05.30	166.48	8.94	
2025-01-15 11:34:05.50	166.49	8.96	
2025-01-15 11:34:05.71	166.49	8.98	
2025-01-15 11:34:05.91	166.49	9.00	
2025-01-15 11:34:06.11	166.50	9.01	
2025-01-15 11:34:06.32	166.50	9.03	
2025-01-15 11:34:06.52	166.50	9.05	
2025-01-15 11:34:06.72	166.51	9.07	
2025-01-15 11:34:06.92	166.51	9.09	
2025-01-15 11:34:07.13	166.51	9.11	
2025-01-15 11:34:07.33	166.52	9.12	
2025-01-15 11:34:07.53	166.52	9.14	
2025-01-15 11:34:07.74	166.52	9.16	
2025-01-15 11:34:07.94	166.53	9.18	
2025-01-15 11:34:08.14	166.53	9.20	
2025-01-15 11:34:08.34	166.53	9.21	
2025-01-15 11:34:08.55	166.54	9.23	
2025-01-15 11:34:08.75	166.54	9.25	
2025-01-15 11:34:08.95	166.55	9.27	
2025-01-15 11:34:09.16	166.55	9.29	
2025-01-15 11:34:09.36	166.55	9.31	
2025-01-15 11:34:09.56	166.56	9.32	
2025-01-15 11:34:09.77	166.56	9.34	
2025-01-15 11:34:09.97	166.56	9.36	
2025-01-15 11:34:10.17	166.57	9.38	
2025-01-15 11:34:10.37	166.57	9.40	
2025-01-15 11:34:10.58	166.57	9.42	
2025-01-15 11:34:10.78	166.58	9.43	
2025-01-15 11:34:10.98	166.58	9.45	
2025-01-15 11:34:11.19	166.59	9.47	
2025-01-15 11:34:11.39	166.59	9.49	
2025-01-15 11:34:11.59	166.59	9.51	
2025-01-15 11:34:11.79	166.60	9.53	
2025-01-15 11:34:12.00	166.60	9.55	
2025-01-15 11:34:12.20	166.60	9.56	
2025-01-15 11:34:12.40	166.61	9.58	
2025-01-15 11:34:12.61	166.61	9.60	
2025-01-15 11:34:12.81	166.61	9.62	
2025-01-15 11:34:13.01	166.62	9.64	
2025-01-15 11:34:13.22	166.62	9.66	
2025-01-15 11:34:13.42	166.63	9.68	
2025-01-15 11:34:13.62	166.63	9.69	
2025-01-15 11:34:13.82	166.63	9.71	
2025-01-15 11:34:14.03	166.64	9.73	
2025-01-15 11:34:14.23	166.64	9.75	
2025-01-15 11:34:14.43	166.64	9.77	
2025-01-15 11:34:14.64	166.65	9.79	
2025-01-15 11:34:14.84	166.65	9.81	
2025-01-15 11:34:15.04	166.66	9.83	
2025-01-15 11:34:15.24	166.66	9.84	
2025-01-15 11:34:15.45	166.66	9.86	
2025-01-15 11:34:15.65	166.67	9.88	
2025-01-15 11:34:15.85	166.67	9.90	
2025-01-15 11:34:16.06	166.67	9.92	
2025-01-15 11:34:16.26	166.68	9.94	
2025-01-15 11:34:16.46	166.68	9.96	
2025-01-15 11:34:16.67	166.68	9.98	
2025-01-15 11:34:16.87	166.69	9.99	
2025-01-15 11:34:17.07	166.69	10.01	
2025-01-15 11:34:17.27	166.70	10.03	
2025-01-15 11:34:17.48	166.70	10.05	
2025-01-15 11:34:17.68	166.70	10.07	
2025-01-15 11:34:17.88	166.71	10.09	
2025-01-15 11:34:18.09	166.71	10.11	
2025-01-15 11:34:18.29	166.71	10.13	
2025-01-15 11:34:18.49	166.72	10.15	
2025-01-15 11:34:18.70	166.72	10.17	
2025-01-15 11:34:18.90	166.73	10.18	
2025-01-15 11:34:19.10	166.73	10.20	
2025-01-15 11:34:19.30	166.73	10.22	
2025-01-15 11:34:19.51	166.74	10.24	
2025-01-15 11:34:19.71	166.74	10.26	
2025-01-15 11:34:19.91	166.75	10.28	
2025-01-15 11:34:20.12	166.75	10.30	
2025-01-15 11:34:20.32	166.75	10.32	
2025-01-15 11:34:20.52	166.76	10.34	
2025-01-15 11:34:20.72	166.76	10.36	
2025-01-15 11:34:20.93	166.76	10.38	
2025-01-15 11:34:21.13	166.77	10.40	
2025-01-15 11:34:21.33	166.77	10.41	
2025-01-15 11:34:21.54	166.78	10.43	
2025-01-15 11:34:21.74	166.78	10.45	
2025-01-15 11:34:21.94	166.78	10.47	
2025-01-15 11:34:22.15	166.79	10.49	
2025-01-15 11:34:22.35	166.79	10.51	
2025-01-15 11:34:22.55	166.80	10.53	
2025-01-15 11:34:22.75	166.80	10.55	
2025-01-15 11:34:22.96	166.80	10.57	
2025-01-15 11:34:23.16	166.81	10.59	
2025-01-15 11:34:23.36	166.81	10.61	
2025-01-15 11:34:23.57	166.81	10.63	
2025-01-15 11:34:23.77	166.82	10.65	
2025-01-15 11:34:23.97	166.82	10.67	
2025-01-15 11:34:24.17	166.83	10.69	
2025-01-15 11:34:24.38	166.83	10.71	
2025-01-15 11:34:24.58	166.83	10.72	
2025-01-15 11:34:24.78	166.84	10.74	
2025-01-15 11:34:24.99	166.84	10.76	
2025-01-15 11:34:25.19	166.85	10.78	
2025-01-15 11:34:25.39	166.85	10.80	
2025-01-15 11:34:25.60	166.85	10.82	
2025-01-15 11:34:25.80	166.86	10.84	
2025-01-15 11:34:26.00	166.86	10.86	
2025-01-15 11:34:26.20	166.87	10.88	
2025-01-15 11:34:26.41	166.87	10.90	
2025-01-15 11:34:26.61	166.87	10.92	
2025-01-15 11:34:26.81	166.88	10.94	
2025-01-15 11:34:27.02	166.88	10.96	
2025-01-15 11:34:27.22	166.89	10.98	
2025-01-15 11:34:27.42	166.89	11.00	
2025-01-15 11:34:27.63	166.89	11.02	
2025-01-15 11:34:27.83	166.90	11.04	
2025-01-15 11:34:28.03	166.90	11.06	
2025-01-15 11:34:28.23	166.91	11.08	
2025-01-15 11:34:28.44	166.91	11.10	
2025-01-15 11:34:28.64	166.91	11.12	
2025-01-15 11:34:28.84	166.92	11.14	
2025-01-15 11:34:29.05	166.92	11.16	
2025-01-15 11:34:29.25	166.93	11.18	
2025-01-15 11:34:29.45	166.93	11.20	
2025-01-15 11:34:29.65	166.93	11.22	
2025-01-15 11:34:29.86	166.94	11.24	
2025-01-15 11:34:30.06	166.94	11.26	
2025-01-15 11:34:30.26	166.95	11.28	
2025-01-15 11:34:30.47	166.95	11.30	
2025-01-15 11:34:30.67	166.95	11.32	
2025-01-15 11:34:30.87	166.96	11.34	
2025-01-15 11:34:31.08	166.96	11.36	
2025-01-15 11:34:31.28	166.97	11.38	
2025-01-15 11:34:31.48	166.97	11.40	
2025-01-15 11:34:31.68	166.97	11.42	
2025-01-15 11:34:31.89	166.98	11.44	
2025-01-15 11:34:32.09	166.98	11.46	
2025-01-15 11:34:32.29	166.99	11.48	
2025-01-15 11:34:32.50	166.99	11.50	
2025-01-15 11:34:32.70	166.99	11.52	
2025-01-15 11:34:32.90	167.00	11.54	
2025-01-15 11:34:33.10	167.00	11.56	
2025-01-15 11:34:33.31	167.01	11.58	
2025-01-15 11:34:33.51	167.01	11.60	
2025-01-15 11:34:33.71	167.02	11.62	
2025-01-15 11:34:33.92	167.02	11.64	
2025-01-15 11:34:34.12	167.02	11.66	
2025-01-15 11:34:34.32	167.03	11.68	
2025-01-15 11:34:34.53	167.03	11.70	
2025-01-15 11:34:34.73	167.04	11.72	
2025-01-15 11:34:34.93	167.04	11.74	
2025-01-15 11:34:35.13	167.04	11.76	
2025-01-15 11:34:35.34	167.05	11.79	
2025-01-15 11:34:35.54	167.05	11.81	
2025-01-15 11:34:35.74	167.06	11.83	
2025-01-15 11:34:35.95	167.06	11.85	
2025-01-15 11:34:36.15	167.07	11.87	
2025-01-15 11:34:36.35	167.07	11.89	
2025-01-15 11:34:36.55	167.07	11.91	
2025-01-15 11:34:36.76	167.08	11.93	
2025-01-15 11:34:36.96	167.08	11.95	
2025-01-15 11:34:37.16	167.09	11.97	
2025-01-15 11:34:37.37	167.09	11.99	
2025-01-15 11:34:37.57	167.10	12.01	
2025-01-15 11:34:37.77	167.10	12.03	
2025-01-15 11:34:37.98	167.10	12.05	
2025-01-15 11:34:38.18	167.11	12.07	
2025-01-15 11:34:38.38	167.11	12.09	
2025-01-15 11:34:38.58	167.12	12.11	
2025-01-15 11:34:38.79	167.12	12.14	
2025-01-15 11:34:38.99	167.13	12.16	
2025-01-15 11:34:39.19	167.13	12.18	
2025-01-15 11:34:39.40	167.13	12.20	
2025-01-15 11:34:39.60	167.14	12.22	
2025-01-15 11:34:39.80	167.14	12.24	
2025-01-15 11:34:40.01	167.15	12.26	
2025-01-15 11:34:40.21	167.15	12.28	
2025-01-15 11:34:40.41	167.16	12.30	
2025-01-15 11:34:40.61	167.16	12.32	
2025-01-15 11:34:40.82	167.16	12.35	
2025-01-15 11:34:41.02	167.17	12.37	
2025-01-15 11:34:41.22	167.17	12.39	
2025-01-15 11:34:41.43	167.18	12.41	
2025-01-15 11:34:41.63	167.18	12.43	
2025-01-15 11:34:41.83	167.19	12.45	
2025-01-15 11:34:42.03	167.19	12.47	
2025-01-15 11:34:42.24	167.19	12.49	
2025-01-15 11:34:42.44	167.20	12.51	
2025-01-15 11:34:42.64	167.20	12.53	
2025-01-15 11:34:42.85	167.21	12.56	
2025-01-15 11:34:43.05	167.21	12.58	
2025-01-15 11:34:43.25	167.22	12.60	
2025-01-15 11:34:43.46	167.22	12.62	
2025-01-15 11:34:43.66	167.23	12.64	
2025-01-15 11:34:43.86	167.23	12.66	
2025-01-15 11:34:44.06	167.23	12.68	
2025-01-15 11:34:44.27	167.24	12.71	
2025-01-15 11:34:44.47	167.24	12.73	
2025-01-15 11:34:44.67	167.25	12.75	
2025-01-15 11:34:44.88	167.25	12.77	
2025-01-15 11:34:45.08	167.26	12.79	
2025-01-15 11:34:45.28	167.26	12.81	
2025-01-15 11:34:45.48	167.26	12.83	
2025-01-15 11:34:45.69	167.27	12.86	
2025-01-15 11:34:45.89	167.27	12.88	
2025-01-15 11:34:46.09	167.28	12.90	
2025-01-15 11:34:46.30	167.28	12.92	
2025-01-15 11:34:46.50	167.29	12.94	
2025-01-15 11:34:46.70	167.29	12.96	
2025-01-15 11:34:46.91	167.30	12.99	
2025-01-15 11:34:47.11	167.30	13.01	
2025-01-15 11:34:47.31	167.31	13.03	
2025-01-15 11:34:47.51	167.31	13.05	
2025-01-15 11:34:47.72	167.31	13.07	
2025-01-15 11:34:47.92	167.32	13.09	
2025-01-15 11:34:48.12	167.32	13.11	
2025-01-15 11:34:48.33	167.33	13.14	
2025-01-15 11:34:48.53	167.33	13.16	
2025-01-15 11:34:48.73	167.34	13.18	
2025-01-15 11:34:48.93	167.34	13.20	
2025-01-15 11:34:49.14	167.35	13.22	
2025-01-15 11:34:49.34	167.35	13.25	
2025-01-15 11:34:49.54	167.36	13.27	
2025-01-15 11:34:49.75	167.36	13.29	
2025-01-15 11:34:49.95	167.36	13.31	
2025-01-15 11:34:50.15	167.37	13.33	
2025-01-15 11:34:50.36	167.37	13.36	
2025-01-15 11:34:50.56	167.38	13.38	
2025-01-15 11:34:50.76	167.38	13.40	
2025-01-15 11:34:50.96	167.39	13.42	
2025-01-15 11:34:51.17	167.39	13.44	
2025-01-15 11:34:51.37	167.40	13.47	
2025-01-15 11:34:51.57	167.40	13.49	
2025-01-15 11:34:51.78	167.41	13.51	
2025-01-15 11:34:51.98	167.41	13.53	
2025-01-15 11:34:52.18	167.42	13.55	
2025-01-15 11:34:52.39	167.42	13.58	
2025-01-15 11:34:52.59	167.42	13.60	
2025-01-15 11:34:52.79	167.43	13.62	
2025-01-15 11:34:52.99	167.43	13.64	
2025-01-15 11:34:53.20	167.44	13.67	
2025-01-15 11:34:53.40	167.44	13.69	
2025-01-15 11:34:53.60	167.45	13.71	
2025-01-15 11:34:53.81	167.45	13.73	
2025-01-15 11:34:54.01	167.46	13.76	
2025-01-15 11:34:54.21	167.46	13.78	
2025-01-15 11:34:54.41	167.47	13.80	
2025-01-15 11:34:54.62	167.47	13.82	
2025-01-15 11:34:54.82	167.48	13.85	
2025-01-15 11:34:55.02	167.48	13.87	
2025-01-15 11:34:55.23	167.49	13.89	
2025-01-15 11:34:55.43	167.49	13.91	
2025-01-15 11:34:55.63	167.50	13.93	
2025-01-15 11:34:55.84	167.50	13.96	
2025-01-15 11:34:56.04	167.51	13.98	
2025-01-15 11:34:56.24	167.51	14.00	
2025-01-15 11:34:56.44	167.52	14.03	
2025-01-15 11:34:56.65	167.52	14.05	
2025-01-15 11:34:56.85	167.52	14.07	
2025-01-15 11:34:57.05	167.53	14.09	
2025-01-15 11:34:57.26	167.53	14.12	
2025-01-15 11:34:57.46	167.54	14.14	
2025-01-15 11:34:57.66	167.54	14.16	
2025-01-15 11:34:57.86	167.55	14.18	
2025-01-15 11:34:58.07	167.55	14.21	
2025-01-15 11:34:58.27	167.56	14.23	
2025-01-15 11:34:58.47	167.56	14.25	
2025-01-15 11:34:58.68	167.57	14.28	
2025-01-15 11:34:58.88	167.57	14.30	
2025-01-15 11:34:59.08	167.58	14.32	
2025-01-15 11:34:59.29	167.58	14.35	
2025-01-15 11:34:59.49	167.59	14.37	
2025-01-15 11:34:59.69	167.59	14.39	
2025-01-15 11:34:59.89	167.60	14.41	
2025-01-15 11:35:00.10	167.60	14.44	
2025-01-15 11:35:00.30	167.61	14.46	
2025-01-15 11:35:00.50	167.61	14.48	
2025-01-15 11:35:00.71	167.62	14.51	
2025-01-15 11:35:00.91	167.62	14.53	
2025-01-15 11:35:01.11	167.63	14.55	
2025-01-15 11:35:01.31	167.63	14.58	
2025-01-15 11:35:01.52	167.64	14.60	
2025-01-15 11:35:01.72	167.64	14.62	
2025-01-15 11:35:01.92	167.65	14.65	
2025-01-15 11:35:02.13	167.65	14.67	
2025-01-15 11:35:02.33	167.66	14.69	
2025-01-15 11:35:02.53	167.66	14.72	
2025-01-15 11:35:02.74	167.67	14.74	
2025-01-15 11:35:02.94	167.67	14.76	
2025-01-15 11:35:03.14	167.68	14.79	
2025-01-15 11:35:03.34	167.68	14.81	
2025-01-15 11:35:03.55	167.69	14.83	
2025-01-15 11:35:03.75	167.69	14.86	
2025-01-15 11:35:03.95	167.70	14.88	
2025-01-15 11:35:04.16	167.70	14.91	
2025-01-15 11:35:04.36	167.71	14.93	
2025-01-15 11:35:04.56	167.71	14.95	
2025-01-15 11:35:04.77	167.72	14.98	
2025-01-15 11:35:04.97	167.72	15.00	
2025-01-15 11:35:05.17	167.73	15.02	
2025-01-15 11:35:05.37	167.73	15.05	
2025-01-15 11:35:05.58	167.74	15.07	
2025-01-15 11:35:05.78	167.74	15.09	
2025-01-15 11:35:05.98	167.75	15.12	
2025-01-15 11:35:06.19	167.75	15.14	
2025-01-15 11:35:06.39	167.76	15.17	
2025-01-15 11:35:06.59	167.76	15.19	
2025-01-15 11:35:06.79	167.77	15.21	
2025-01-15 11:35:07.00	167.77	15.24	
2025-01-15 11:35:07.20	167.78	15.26	
2025-01-15 11:35:07.40	167.79	15.28	
2025-01-15 11:35:07.61	167.79	15.31	
2025-01-15 11:35:07.81	167.80	15.33	
2025-01-15 11:35:08.01	167.80	15.36	
2025-01-15 11:35:08.22	167.81	15.38	
2025-01-15 11:35:08.42	167.81	15.41	
2025-01-15 11:35:08.62	167.82	15.43	
2025-01-15 11:35:08.82	167.82	15.45	
2025-01-15 11:35:09.03	167.83	15.48	
2025-01-15 11:35:09.23	167.83	15.50	
2025-01-15 11:35:09.43	167.84	15.53	
2025-01-15 11:35:09.64	167.84	15.55	
2025-01-15 11:35:09.84	167.85	15.58	
2025-01-15 11:35:10.04	167.85	15.60	
2025-01-15 11:35:10.24	167.86	15.62	
2025-01-15 11:35:10.45	167.86	15.65	
2025-01-15 11:35:10.65	167.87	15.67	
2025-01-15 11:35:10.85	167.87	15.70	
2025-01-15 11:35:11.06	167.88	15.72	
2025-01-15 11:35:11.26	167.89	15.75	
2025-01-15 11:35:11.46	167.89	15.77	
2025-01-15 11:35:11.67	167.90	15.80	
2025-01-15 11:35:11.87	167.90	15.82	
2025-01-15 11:35:12.07	167.91	15.84	
2025-01-15 11:35:12.27	167.91	15.87	
2025-01-15 11:35:12.48	167.92	15.89	
2025-01-15 11:35:12.68	167.92	15.92	
2025-01-15 11:35:12.88	167.93	15.94	
2025-01-15 11:35:13.09	167.93	15.97	
2025-01-15 11:35:13.29	167.94	15.99	
2025-01-15 11:35:13.49	167.94	16.02	
2025-01-15 11:35:13.69	167.95	16.04	
2025-01-15 11:35:13.90	167.96	16.07	
2025-01-15 11:35:14.10	167.96	16.09	
2025-01-15 11:35:14.30	167.97	16.12	
2025-01-15 11:35:14.51	167.97	16.14	
2025-01-15 11:35:14.71	167.98	16.17	
2025-01-15 11:35:14.91	167.98	16.19	
2025-01-15 11:35:15.12	167.99	16.22	
2025-01-15 11:35:15.32	167.99	16.24	
2025-01-15 11:35:15.52	168.00	16.27	
2025-01-15 11:35:15.72	168.00	16.29	
2025-01-15 11:35:15.93	168.01	16.32	
2025-01-15 11:35:16.13	168.02	16.34	
2025-01-15 11:35:16.33	168.02	16.37	
2025-01-15 11:35:16.54	168.03	16.39	
2025-01-15 11:35:16.74	168.03	16.42	
2025-01-15 11:35:16.94	168.04	16.44	
2025-01-15 11:35:17.15	168.04	16.47	
2025-01-15 11:35:17.35	168.05	16.49	
2025-01-15 11:35:17.55	168.06	16.52	
2025-01-15 11:35:17.75	168.06	16.54	
2025-01-15 11:35:17.96	168.07	16.57	
2025-01-15 11:35:18.16	168.07	16.60	
2025-01-15 11:35:18.36	168.08	16.62	
2025-01-15 11:35:18.57	168.08	16.65	
2025-01-15 11:35:18.77	168.09	16.67	
2025-01-15 11:35:18.97	168.09	16.70	
2025-01-15 11:35:19.17	168.10	16.72	
2025-01-15 11:35:19.38	168.11	16.75	
2025-01-15 11:35:19.58	168.11	16.77	
2025-01-15 11:35:19.78	168.12	16.80	
2025-01-15 11:35:19.99	168.12	16.83	
2025-01-15 11:35:20.19	168.13	16.85	
2025-01-15 11:35:20.39	168.13	16.88	
2025-01-15 11:35:20.60	168.14	16.90	
2025-01-15 11:35:20.80	168.15	16.93	
2025-01-15 11:35:21.00	168.15	16.95	
2025-01-15 11:35:21.20	168.16	16.98	
2025-01-15 11:35:21.41	168.16	17.01	
2025-01-15 11:35:21.61	168.17	17.03	
2025-01-15 11:35:21.81	168.18	17.06	
2025-01-15 11:35:22.02	168.18	17.08	
2025-01-15 11:35:22.22	168.19	17.11	
2025-01-15 11:35:22.42	168.19	17.14	
2025-01-15 11:35:22.62	168.20	17.16	
2025-01-15 11:35:22.83	168.20	17.19	
2025-01-15 11:35:23.03	168.21	17.21	
2025-01-15 11:35:23.23	168.22	17.24	
2025-01-15 11:35:23.44	168.22	17.27	
2025-01-15 11:35:23.64	168.23	17.29	
2025-01-15 11:35:23.84	168.23	17.32	
2025-01-15 11:35:24.05	168.24	17.35	
2025-01-15 11:35:24.25	168.25	17.37	
2025-01-15 11:35:24.45	168.25	17.40	
2025-01-15 11:35:24.65	168.26	17.42	
2025-01-15 11:35:24.86	168.26	17.45	
2025-01-15 11:35:25.06	168.27	17.48	
2025-01-15 11:35:25.26	168.28	17.50	
2025-01-15 11:35:25.47	168.28	17.53	
2025-01-15 11:35:25.67	168.29	17.56	
2025-01-15 11:35:25.87	168.29	17.58	
2025-01-15 11:35:26.07	168.30	17.61	
2025-01-15 11:35:26.28	168.31	17.64	
2025-01-15 11:35:26.48	168.31	17.66	
2025-01-15 11:35:26.68	168.32	17.69	
2025-01-15 11:35:26.89	168.32	17.72	
2025-01-15 11:35:27.09	168.33	17.74	
2025-01-15 11:35:27.29	168.34	17.77	
2025-01-15 11:35:27.50	168.34	17.80	
2025-01-15 11:35:27.70	168.35	17.83	
2025-01-15 11:35:27.90	168.35	17.85	
2025-01-15 11:35:28.10	168.36	17.88	
2025-01-15 11:35:28.31	168.37	17.91	
2025-01-15 11:35:28.51	168.37	17.93	
2025-01-15 11:35:28.71	168.38	17.96	
2025-01-15 11:35:28.92	168.38	17.99	
2025-01-15 11:35:29.12	168.39	18.01	
2025-01-15 11:35:29.32	168.40	18.04	
2025-01-15 11:35:29.53	168.40	18.07	
2025-01-15 11:35:29.73	168.41	18.10	
2025-01-15 11:35:29.93	168.42	18.12	
2025-01-15 11:35:30.13	168.42	18.15	
2025-01-15 11:35:30.34	168.43	18.18	
2025-01-15 11:35:30.54	168.43	18.20	
2025-01-15 11:35:30.74	168.44	18.23	
2025-01-15 11:35:30.95	168.45	18.26	
2025-01-15 11:35:31.15	168.45	18.29	
2025-01-15 11:35:31.35	168.46	18.31	
2025-01-15 11:35:31.55	168.47	18.34	
2025-01-15 11:35:31.76	168.47	18.37	
2025-01-15 11:35:31.96	168.48	18.40	
2025-01-15 11:35:32.16	168.48	18.42	
2025-01-15 11:35:32.37	168.49	18.45	
2025-01-15 11:35:32.57	168.50	18.48	
2025-01-15 11:35:32.77	168.50	18.51	
2025-01-15 11:35:32.98	168.51	18.54	
2025-01-15 11:35:33.18	168.52	18.56	
2025-01-15 11:35:33.38	168.52	18.59	
2025-01-15 11:35:33.58	168.53	18.62	
2025-01-15 11:35:33.79	168.54	18.65	
2025-01-15 11:35:33.99	168.54	18.67	
2025-01-15 11:35:34.19	168.55	18.70	
2025-01-15 11:35:34.40	168.55	18.73	
2025-01-15 11:35:34.60	168.56	18.76	
2025-01-15 11:35:34.80	168.57	18.79	
2025-01-15 11:35:35.00	168.57	18.81	
2025-01-15 11:35:35.21	168.58	18.84	
2025-01-15 11:35:35.41	168.59	18.87	
2025-01-15 11:35:35.61	168.59	18.90	
2025-01-15 11:35:35.82	168.60	18.93	
2025-01-15 11:35:36.02	168.61	18.96	
2025-01-15 11:35:36.22	168.61	18.98	
2025-01-15 11:35:36.43	168.62	19.01	
2025-01-15 11:35:36.63	168.63	19.04	
2025-01-15 11:35:36.83	168.63	19.07	
2025-01-15 11:35:37.03	168.64	19.10	
2025-01-15 11:35:37.24	168.65	19.13	
2025-01-15 11:35:37.44	168.65	19.15	
2025-01-15 11:35:37.64	168.66	19.18	
2025-01-15 11:35:37.85	168.67	19.21	
2025-01-15 11:35:38.05	168.67	19.24	
2025-01-15 11:35:38.25	168.68	19.27	
2025-01-15 11:35:38.45	168.69	19.30	
2025-01-15 11:35:38.66	168.69	19.33	
2025-01-15 11:35:38.86	168.70	19.35	
2025-01-15 11:35:39.06	168.71	19.38	
2025-01-15 11:35:39.27	168.71	19.41	
2025-01-15 11:35:39.47	168.72	19.44	
2025-01-15 11:35:39.67	168.73	19.47	
2025-01-15 11:35:39.88	168.73	19.50	
2025-01-15 11:35:40.08	168.74	19.53	
2025-01-15 11:35:40.28	168.75	19.56	
2025-01-15 11:35:40.48	168.75	19.59	
2025-01-15 11:35:40.69	168.76	19.62	
2025-01-15 11:35:40.89	168.77	19.64	
2025-01-15 11:35:41.09	168.77	19.67	
2025-01-15 11:35:41.30	168.78	19.70	
2025-01-15 11:35:41.50	168.79	19.73	
2025-01-15 11:35:41.70	168.79	19.76	
2025-01-15 11:35:41.91	168.80	19.79	
2025-01-15 11:35:42.11	168.81	19.82	
2025-01-15 11:35:42.31	168.81	19.85	
2025-01-15 11:35:42.51	168.82	19.88	
2025-01-15 11:35:42.72	168.83	19.91	
2025-01-15 11:35:42.92	168.84	19.94	
2025-01-15 11:35:43.12	168.84	19.97	
2025-01-15 11:35:43.33	168.85	20.00	
2025-01-15 11:35:43.53	168.86	20.03	
2025-01-15 11:35:43.73	168.86	20.06	
2025-01-15 11:35:43.93	168.87	20.08	
2025-01-15 11:35:44.14	168.88	20.12	
2025-01-15 11:35:44.34	168.88	20.14	
2025-01-15 11:35:44.54	168.89	20.17	
2025-01-15 11:35:44.75	168.90	20.20	
2025-01-15 11:35:44.95	168.91	20.23	
2025-01-15 11:35:45.15	168.91	20.26	
2025-01-15 11:35:45.36	168.92	20.29	
2025-01-15 11:35:45.56	168.93	20.32	
2025-01-15 11:35:45.76	168.93	20.35	
2025-01-15 11:35:45.96	168.94	20.38	
2025-01-15 11:35:46.17	168.95	20.41	
2025-01-15 11:35:46.37	168.95	20.44	
2025-01-15 11:35:46.57	168.96	20.47	
2025-01-15 11:35:46.78	168.97	20.51	
2025-01-15 11:35:46.98	168.98	20.54	
2025-01-15 11:35:47.18	168.98	20.56	
2025-01-15 11:35:47.38	168.99	20.59	
2025-01-15 11:35:47.59	169.00	20.63	
2025-01-15 11:35:47.79	169.01	20.66	
2025-01-15 11:35:47.99	169.01	20.69	
2025-01-15 11:35:48.20	169.02	20.72	
2025-01-15 11:35:48.40	169.03	20.75	
2025-01-15 11:35:48.60	169.03	20.78	
2025-01-15 11:35:48.81	169.04	20.81	
2025-01-15 11:35:49.01	169.05	20.84	
2025-01-15 11:35:49.21	169.06	20.87	
2025-01-15 11:35:49.41	169.06	20.90	
2025-01-15 11:35:49.62	169.07	20.93	
2025-01-15 11:35:49.82	169.08	20.96	
2025-01-15 11:35:50.02	169.09	20.99	
2025-01-15 11:35:50.23	169.09	21.03	
2025-01-15 11:35:50.43	169.10	21.06	
2025-01-15 11:35:50.63	169.11	21.09	
2025-01-15 11:35:50.84	169.12	21.12	
2025-01-15 11:35:51.04	169.12	21.15	
2025-01-15 11:35:51.24	169.13	21.18	
2025-01-15 11:35:51.44	169.14	21.21	
2025-01-15 11:35:51.65	169.15	21.24	
2025-01-15 11:35:51.85	169.15	21.27	
2025-01-15 11:35:52.05	169.16	21.30	
2025-01-15 11:35:52.26	169.17	21.34	
2025-01-15 11:35:52.46	169.18	21.37	
2025-01-15 11:35:52.66	169.18	21.40	
2025-01-15 11:35:52.86	169.19	21.43	
2025-01-15 11:35:53.07	169.20	21.46	
2025-01-15 11:35:53.27	169.21	21.49	
2025-01-15 11:35:53.47	169.21	21.52	
2025-01-15 11:35:53.68	169.22	21.56	
2025-01-15 11:35:53.88	169.23	21.59	
2025-01-15 11:35:54.08	169.24	21.62	
2025-01-15 11:35:54.29	169.25	21.65	
2025-01-15 11:35:54.49	169.25	21.68	
2025-01-15 11:35:54.69	169.26	21.71	
2025-01-15 11:35:54.89	169.27	21.75	
2025-01-15 11:35:55.10	169.28	21.78	
2025-01-15 11:35:55.30	169.28	21.81	
2025-01-15 11:35:55.50	169.29	21.84	
2025-01-15 11:35:55.71	169.30	21.88	
2025-01-15 11:35:55.91	169.31	21.91	
2025-01-15 11:35:56.11	169.31	21.94	
2025-01-15 11:35:56.31	169.32	21.97	
2025-01-15 11:35:56.52	169.33	22.00	
2025-01-15 11:35:56.72	169.34	22.04	
2025-01-15 11:35:56.92	169.35	22.07	
2025-01-15 11:35:57.13	169.35	22.10	
2025-01-15 11:35:57.33	169.36	22.13	
2025-01-15 11:35:57.53	169.37	22.16	
2025-01-15 11:35:57.74	169.38	22.20	
2025-01-15 11:35:57.94	169.39	22.23	
2025-01-15 11:35:58.14	169.39	22.26	
2025-01-15 11:35:58.34	169.40	22.29	
2025-01-15 11:35:58.55	169.41	22.33	
2025-01-15 11:35:58.75	169.42	22.36	
2025-01-15 11:35:58.95	169.43	22.39	
2025-01-15 11:35:59.16	169.43	22.43	
2025-01-15 11:35:59.36	169.44	22.46	
2025-01-15 11:35:59.56	169.45	22.49	
2025-01-15 11:35:59.76	169.46	22.52	
2025-01-15 11:35:59.97	169.47	22.56	
2025-01-15 11:36:00.19	169.48	22.59	
2025-01-15 11:36:00.39	169.48	22.63	
2025-01-15 11:36:00.59	169.49	22.66	
2025-01-15 11:36:00.80	169.50	22.69	
2025-01-15 11:36:01.00	169.51	22.73	
2025-01-15 11:36:01.20	169.52	22.76	
2025-01-15 11:36:01.40	169.52	22.79	
2025-01-15 11:36:01.61	169.53	22.83	
2025-01-15 11:36:01.81	169.54	22.86	
2025-01-15 11:36:02.01	169.55	22.89	
2025-01-15 11:36:02.22	169.56	22.93	
2025-01-15 11:36:02.42	169.57	22.96	
2025-01-15 11:36:02.62	169.58	22.99	
2025-01-15 11:36:02.82	169.58	23.03	
2025-01-15 11:36:03.03	169.59	23.06	
2025-01-15 11:36:03.23	169.60	23.09	
2025-01-15 11:36:03.43	169.61	23.13	
2025-01-15 11:36:03.64	169.62	23.16	
2025-01-15 11:36:03.84	169.63	23.20	
2025-01-15 11:36:04.04	169.63	23.23	
2025-01-15 11:36:04.25	169.64	23.26	
2025-01-15 11:36:04.45	169.65	23.30	
2025-01-15 11:36:04.65	169.66	23.33	
2025-01-15 11:36:04.85	169.67	23.36	
2025-01-15 11:36:05.06	169.68	23.40	
2025-01-15 11:36:05.26	169.69	23.43	
2025-01-15 11:36:05.46	169.69	23.47	
2025-01-15 11:36:05.67	169.70	23.50	
2025-01-15 11:36:05.87	169.71	23.54	
2025-01-15 11:36:06.07	169.72	23.57	
2025-01-15 11:36:06.27	169.73	23.60	
2025-01-15 11:36:06.48	169.74	23.64	
2025-01-15 11:36:06.68	169.75	23.67	
2025-01-15 11:36:06.88	169.75	23.71	
2025-01-15 11:36:07.09	169.76	23.74	
2025-01-15 11:36:07.29	169.77	23.78	
2025-01-15 11:36:07.49	169.78	23.81	
2025-01-15 11:36:07.70	169.79	23.85	
2025-01-15 11:36:07.90	169.80	23.88	
2025-01-15 11:36:08.10	169.81	23.92	
2025-01-15 11:36:08.30	169.82	23.95	
2025-01-15 11:36:08.51	169.83	23.99	
2025-01-15 11:36:08.71	169.83	24.02	
2025-01-15 11:36:08.91	169.84	24.06	
2025-01-15 11:36:09.12	169.85	24.09	
2025-01-15 11:36:09.32	169.86	24.13	
2025-01-15 11:36:09.52	169.87	24.16	
2025-01-15 11:36:09.73	169.88	24.20	
2025-01-15 11:36:09.93	169.89	24.23	
2025-01-15 11:36:10.13	169.90	24.27	
2025-01-15 11:36:10.33	169.91	24.30	
2025-01-15 11:36:10.54	169.92	24.34	
2025-01-15 11:36:10.74	169.92	24.38	
2025-01-15 11:36:10.94	169.93	24.41	
2025-01-15 11:36:11.15	169.94	24.45	
2025-01-15 11:36:11.35	169.95	24.48	
2025-01-15 11:36:11.55	169.96	24.52	
2025-01-15 11:36:11.75	169.97	24.55	
2025-01-15 11:36:11.96	169.98	24.59	
2025-01-15 11:36:12.16	169.99	24.63	
2025-01-15 11:36:12.36	170.00	24.66	
2025-01-15 11:36:12.57	170.01	24.70	
2025-01-15 11:36:12.77	170.02	24.73	
2025-01-15 11:36:12.97	170.03	24.77	
2025-01-15 11:36:13.18	170.04	24.81	
2025-01-15 11:36:13.38	170.05	24.84	
2025-01-15 11:36:13.58	170.05	24.88	
2025-01-15 11:36:13.78	170.06	24.92	
2025-01-15 11:36:13.99	170.07	24.95	
2025-01-15 11:36:14.19	170.08	24.99	
2025-01-15 11:36:14.39	170.09	25.02	
2025-01-15 11:36:14.60	170.10	25.06	
2025-01-15 11:36:14.80	170.11	25.10	
2025-01-15 11:36:15.00	170.12	25.13	
2025-01-15 11:36:15.20	170.13	25.17	
2025-01-15 11:36:15.41	170.14	25.21	
2025-01-15 11:36:15.61	170.15	25.25	
2025-01-15 11:36:15.81	170.16	25.28	
2025-01-15 11:36:16.02	170.17	25.32	
2025-01-15 11:36:16.22	170.18	25.36	
2025-01-15 11:36:16.42	170.19	25.39	
2025-01-15 11:36:16.63	170.20	25.43	
2025-01-15 11:36:16.83	170.21	25.47	
2025-01-15 11:36:17.03	170.22	25.50	
2025-01-15 11:36:17.23	170.23	25.54	
2025-01-15 11:36:17.44	170.24	25.58	
2025-01-15 11:36:17.64	170.25	25.62	
2025-01-15 11:36:17.84	170.26	25.65	
2025-01-15 11:36:18.05	170.27	25.69	
2025-01-15 11:36:18.25	170.28	25.73	
2025-01-15 11:36:18.45	170.29	25.77	
2025-01-15 11:36:18.65	170.30	25.80	
2025-01-15 11:36:18.86	170.31	25.84	
2025-01-15 11:36:19.06	170.32	25.88	
2025-01-15 11:36:19.26	170.33	25.92	
2025-01-15 11:36:19.47	170.34	25.96	
2025-01-15 11:36:19.67	170.35	25.99	
2025-01-15 11:36:19.87	170.36	26.03	
2025-01-15 11:36:20.08	170.37	26.07	
2025-01-15 11:36:20.28	170.38	26.11	
2025-01-15 11:36:20.48	170.39	26.15	
2025-01-15 11:36:20.68	170.40	26.18	
2025-01-15 11:36:20.89	170.41	26.22	
2025-01-15 11:36:21.09	170.42	26.26	
2025-01-15 11:36:21.29	170.43	26.30	
2025-01-15 11:36:21.50	170.44	26.34	
2025-01-15 11:36:21.70	170.45	26.38	
2025-01-15 11:36:21.90	170.46	26.41	
2025-01-15 11:36:22.11	170.47	26.45	
2025-01-15 11:36:22.31	170.48	26.49	
2025-01-15 11:36:22.51	170.49	26.53	
2025-01-15 11:36:22.71	170.50	26.57	
2025-01-15 11:36:22.92	170.51	26.61	
2025-01-15 11:36:23.12	170.52	26.65	
2025-01-15 11:36:23.32	170.53	26.69	
2025-01-15 11:36:23.53	170.54	26.73	
2025-01-15 11:36:23.73	170.55	26.76	
2025-01-15 11:36:23.93	170.56	26.80	
2025-01-15 11:36:24.13	170.57	26.84	
2025-01-15 11:36:24.34	170.58	26.88	
2025-01-15 11:36:24.54	170.59	26.92	
2025-01-15 11:36:24.74	170.61	26.96	
2025-01-15 11:36:24.95	170.62	27.00	
2025-01-15 11:36:25.15	170.63	27.04	
2025-01-15 11:36:25.35	170.64	27.08	
2025-01-15 11:36:25.56	170.65	27.12	
2025-01-15 11:36:25.76	170.66	27.16	
2025-01-15 11:36:25.96	170.67	27.20	
2025-01-15 11:36:26.16	170.68	27.24	
2025-01-15 11:36:26.37	170.69	27.28	
2025-01-15 11:36:26.57	170.70	27.32	
2025-01-15 11:36:26.77	170.71	27.36	
2025-01-15 11:36:26.98	170.72	27.40	
2025-01-15 11:36:27.18	170.74	27.44	
2025-01-15 11:36:27.38	170.75	27.48	
2025-01-15 11:36:27.58	170.76	27.52	
2025-01-15 11:36:27.79	170.77	27.56	
2025-01-15 11:36:27.99	170.78	27.60	
2025-01-15 11:36:28.19	170.79	27.64	
2025-01-15 11:36:28.40	170.80	27.68	
2025-01-15 11:36:28.60	170.81	27.72	
2025-01-15 11:36:28.80	170.82	27.76	
2025-01-15 11:36:29.01	170.84	27.80	
2025-01-15 11:36:29.21	170.85	27.84	
2025-01-15 11:36:29.41	170.86	27.88	
2025-01-15 11:36:29.61	170.87	27.92	
2025-01-15 11:36:29.82	170.88	27.97	
2025-01-15 11:36:30.02	170.89	28.01	
2025-01-15 11:36:30.22	170.90	28.05	
2025-01-15 11:36:30.43	170.91	28.09	
2025-01-15 11:36:30.63	170.93	28.13	
2025-01-15 11:36:30.83	170.94	28.17	
2025-01-15 11:36:31.03	170.95	28.21	
2025-01-15 11:36:31.24	170.96	28.26	
2025-01-15 11:36:31.44	170.97	28.30	
2025-01-15 11:36:31.64	170.98	28.34	
2025-01-15 11:36:31.85	171.00	28.38	
2025-01-15 11:36:32.05	171.01	28.42	
2025-01-15 11:36:32.25	171.02	28.46	
2025-01-15 11:36:32.46	171.03	28.51	
2025-01-15 11:36:32.66	171.04	28.55	
2025-01-15 11:36:32.86	171.05	28.59	
2025-01-15 11:36:33.06	171.07	28.63	
2025-01-15 11:36:33.27	171.08	28.67	
2025-01-15 11:36:33.47	171.09	28.72	
2025-01-15 11:36:33.67	171.10	28.76	
2025-01-15 11:36:33.88	171.11	28.80	
2025-01-15 11:36:34.08	171.13	28.84	
2025-01-15 11:36:34.28	171.14	28.88	
2025-01-15 11:36:34.48	171.15	28.93	
2025-01-15 11:36:34.69	171.16	28.97	
2025-01-15 11:36:34.89	171.17	29.01	
2025-01-15 11:36:35.09	171.18	29.05	
2025-01-15 11:36:35.30	171.20	29.10	
2025-01-15 11:36:35.50	171.21	29.14	
2025-01-15 11:36:35.70	171.22	29.18	
2025-01-15 11:36:35.91	171.23	29.23	
2025-01-15 11:36:36.11	171.25	29.27	
2025-01-15 11:36:36.31	171.26	29.31	
2025-01-15 11:36:36.51	171.27	29.35	
2025-01-15 11:36:36.72	171.28	29.40	
2025-01-15 11:36:36.92	171.30	29.44	
2025-01-15 11:36:37.12	171.31	29.48	
2025-01-15 11:36:37.33	171.32	29.53	
2025-01-15 11:36:37.53	171.33	29.57	
2025-01-15 11:36:37.73	171.35	29.62	
2025-01-15 11:36:37.94	171.36	29.66	
2025-01-15 11:36:38.14	171.37	29.70	
2025-01-15 11:36:38.34	171.38	29.75	
2025-01-15 11:36:38.54	171.40	29.79	
2025-01-15 11:36:38.75	171.41	29.84	
2025-01-15 11:36:38.95	171.42	29.88	
2025-01-15 11:36:39.15	171.43	29.92	
2025-01-15 11:36:39.36	171.45	29.97	
2025-01-15 11:36:39.56	171.46	30.01	
2025-01-15 11:36:39.76	171.47	30.06	
2025-01-15 11:36:39.96	171.49	30.10	
2025-01-15 11:36:40.17	171.50	30.15	
2025-01-15 11:36:40.37	171.51	30.19	
2025-01-15 11:36:40.57	171.52	30.23	
2025-01-15 11:36:40.78	171.54	30.28	
2025-01-15 11:36:40.98	171.55	30.32	
2025-01-15 11:36:41.18	171.56	30.37	
2025-01-15 11:36:41.39	171.58	30.41	
2025-01-15 11:36:41.59	171.59	30.46	
2025-01-15 11:36:41.79	171.60	30.50	
2025-01-15 11:36:41.99	171.62	30.55	
2025-01-15 11:36:42.20	171.63	30.59	
2025-01-15 11:36:42.40	171.64	30.64	
2025-01-15 11:36:42.60	171.66	30.68	
2025-01-15 11:36:42.81	171.67	30.73	
2025-01-15 11:36:43.01	171.68	30.78	
2025-01-15 11:36:43.21	171.70	30.82	
2025-01-15 11:36:43.42	171.71	30.87	
2025-01-15 11:36:43.62	171.72	30.91	
2025-01-15 11:36:43.82	171.74	30.96	
2025-01-15 11:36:44.02	171.75	31.00	
2025-01-15 11:36:44.23	171.76	31.05	
2025-01-15 11:36:44.43	171.78	31.10	
2025-01-15 11:36:44.63	171.79	31.14	
2025-01-15 11:36:44.84	171.81	31.19	
2025-01-15 11:36:45.04	171.82	31.23	
2025-01-15 11:36:45.24	171.83	31.28	
2025-01-15 11:36:45.44	171.85	31.33	
2025-01-15 11:36:45.65	171.86	31.37	
2025-01-15 11:36:45.85	171.87	31.42	
2025-01-15 11:36:46.05	171.89	31.47	
2025-01-15 11:36:46.26	171.90	31.51	
2025-01-15 11:36:46.46	171.92	31.56	
2025-01-15 11:36:46.66	171.93	31.61	
2025-01-15 11:36:46.87	171.95	31.65	
2025-01-15 11:36:47.07	171.96	31.70	
2025-01-15 11:36:47.27	171.97	31.75	
2025-01-15 11:36:47.47	171.99	31.79	
2025-01-15 11:36:47.68	172.00	31.84	
2025-01-15 11:36:47.88	172.02	31.89	
2025-01-15 11:36:48.08	172.03	31.94	
2025-01-15 11:36:48.29	172.05	31.98	
2025-01-15 11:36:48.49	172.06	32.03	
2025-01-15 11:36:48.69	172.07	32.08	
2025-01-15 11:36:48.89	172.09	32.13	
2025-01-15 11:36:49.10	172.10	32.18	
2025-01-15 11:36:49.30	172.12	32.22	
2025-01-15 11:36:49.50	172.13	32.27	
2025-01-15 11:36:49.71	172.15	32.32	
2025-01-15 11:36:49.91	172.16	32.37	
2025-01-15 11:36:50.11	172.18	32.41	
2025-01-15 11:36:50.32	172.19	32.46	
2025-01-15 11:36:50.52	172.21	32.51	
2025-01-15 11:36:50.72	172.22	32.56	
2025-01-15 11:36:50.92	172.24	32.61	
2025-01-15 11:36:51.13	172.25	32.66	
2025-01-15 11:36:51.33	172.27	32.71	
2025-01-15 11:36:51.53	172.28	32.75	
2025-01-15 11:36:51.74	172.30	32.80	
2025-01-15 11:36:51.94	172.31	32.85	
2025-01-15 11:36:52.14	172.33	32.90	
2025-01-15 11:36:52.34	172.34	32.95	
2025-01-15 11:36:52.55	172.36	33.00	
2025-01-15 11:36:52.75	172.37	33.05	
2025-01-15 11:36:52.95	172.39	33.10	
2025-01-15 11:36:53.16	172.40	33.15	
2025-01-15 11:36:53.36	172.42	33.20	
2025-01-15 11:36:53.56	172.44	33.25	
2025-01-15 11:36:53.77	172.45	33.30	
2025-01-15 11:36:53.97	172.47	33.35	
2025-01-15 11:36:54.17	172.48	33.40	
2025-01-15 11:36:54.37	172.50	33.44	
2025-01-15 11:36:54.58	172.51	33.50	
2025-01-15 11:36:54.78	172.53	33.55	
2025-01-15 11:36:54.98	172.55	33.60	
2025-01-15 11:36:55.19	172.56	33.65	
2025-01-15 11:36:55.39	172.58	33.70	
2025-01-15 11:36:55.59	172.59	33.75	
2025-01-15 11:36:55.80	172.61	33.80	
2025-01-15 11:36:56.00	172.63	33.85	
2025-01-15 11:36:56.20	172.64	33.90	
2025-01-15 11:36:56.40	172.66	33.95	
2025-01-15 11:36:56.61	172.67	34.00	
2025-01-15 11:36:56.81	172.69	34.05	
2025-01-15 11:36:57.01	172.71	34.10	
2025-01-15 11:36:57.22	172.72	34.16	
2025-01-15 11:36:57.42	172.74	34.21	
2025-01-15 11:36:57.62	172.76	34.26	
2025-01-15 11:36:57.82	172.77	34.31	
2025-01-15 11:36:58.03	172.79	34.36	
2025-01-15 11:36:58.23	172.81	34.41	
2025-01-15 11:36:58.43	172.82	34.46	
2025-01-15 11:36:58.64	172.84	34.52	
2025-01-15 11:36:58.84	172.86	34.57	
2025-01-15 11:36:59.04	172.87	34.62	
2025-01-15 11:36:59.25	172.89	34.67	
2025-01-15 11:36:59.45	172.91	34.72	
2025-01-15 11:36:59.65	172.93	34.77	
2025-01-15 11:36:59.85	172.94	34.83	
2025-01-15 11:37:00.06	172.96	34.88	
2025-01-15 11:37:00.26	172.98	34.93	
2025-01-15 11:37:00.46	172.99	34.98	
2025-01-15 11:37:00.67	173.01	35.04	
2025-01-15 11:37:00.87	173.03	35.09	
2025-01-15 11:37:01.07	173.05	35.14	
2025-01-15 11:37:01.27	173.06	35.19	
2025-01-15 11:37:01.48	173.08	35.25	
2025-01-15 11:37:01.68	173.10	35.30	
2025-01-15 11:37:01.88	173.12	35.35	
2025-01-15 11:37:02.09	173.13	35.41	
2025-01-15 11:37:02.29	173.15	35.46	
2025-01-15 11:37:02.49	173.17	35.51	
2025-01-15 11:37:02.70	173.19	35.57	
2025-01-15 11:37:02.90	173.21	35.62	
2025-01-15 11:37:03.10	173.22	35.68	
2025-01-15 11:37:03.30	173.24	35.73	
2025-01-15 11:37:03.51	173.26	35.78	
2025-01-15 11:37:03.71	173.28	35.84	
2025-01-15 11:37:03.91	173.30	35.89	
2025-01-15 11:37:04.12	173.32	35.95	
2025-01-15 11:37:04.32	173.33	36.00	
2025-01-15 11:37:04.52	173.35	36.05	
2025-01-15 11:37:04.72	173.37	36.11	
2025-01-15 11:37:04.93	173.39	36.16	
2025-01-15 11:37:05.13	173.41	36.22	
2025-01-15 11:37:05.33	173.43	36.27	
2025-01-15 11:37:05.54	173.44	36.33	
2025-01-15 11:37:05.74	173.46	36.38	
2025-01-15 11:37:05.94	173.48	36.44	
2025-01-15 11:37:06.15	173.50	36.49	
2025-01-15 11:37:06.35	173.52	36.55	
2025-01-15 11:37:06.55	173.54	36.60	
2025-01-15 11:37:06.75	173.56	36.66	
2025-01-15 11:37:06.96	173.58	36.72	
2025-01-15 11:37:07.16	173.60	36.77	
2025-01-15 11:37:07.36	173.62	36.83	
2025-01-15 11:37:07.57	173.64	36.88	
2025-01-15 11:37:07.77	173.65	36.94	
2025-01-15 11:37:07.97	173.67	36.99	
2025-01-15 11:37:08.18	173.69	37.05	
2025-01-15 11:37:08.38	173.71	37.11	
2025-01-15 11:37:08.58	173.73	37.16	
2025-01-15 11:37:08.78	173.75	37.22	
2025-01-15 11:37:08.99	173.77	37.28	
2025-01-15 11:37:09.19	173.79	37.33	
2025-01-15 11:37:09.39	173.81	37.39	
2025-01-15 11:37:09.60	173.83	37.45	
2025-01-15 11:37:09.80	173.85	37.50	
2025-01-15 11:37:10.00	173.87	37.56	
2025-01-15 11:37:10.20	173.89	37.62	
2025-01-15 11:37:10.41	173.91	37.68	
2025-01-15 11:37:10.61	173.93	37.73	
2025-01-15 11:37:10.81	173.95	37.79	
2025-01-15 11:37:11.02	173.98	37.85	
2025-01-15 11:37:11.22	174.00	37.90	
2025-01-15 11:37:11.42	174.02	37.96	
2025-01-15 11:37:11.63	174.04	38.02	
2025-01-15 11:37:11.83	174.06	38.08	
2025-01-15 11:37:12.03	174.08	38.14	
2025-01-15 11:37:12.23	174.10	38.19	
2025-01-15 11:37:12.44	174.12	38.25	
2025-01-15 11:37:12.64	174.14	38.31	
2025-01-15 11:37:12.84	174.16	38.37	
2025-01-15 11:37:13.05	174.18	38.43	
2025-01-15 11:37:13.25	174.21	38.49	
2025-01-15 11:37:13.45	174.23	38.54	
2025-01-15 11:37:13.65	174.25	38.60	
2025-01-15 11:37:13.86	174.27	38.66	
2025-01-15 11:37:14.06	174.29	38.72	
2025-01-15 11:37:14.26	174.31	38.78	
2025-01-15 11:37:14.47	174.34	38.84	
2025-01-15 11:37:14.67	174.36	38.90	
2025-01-15 11:37:14.87	174.38	38.96	
2025-01-15 11:37:15.08	174.40	39.02	
2025-01-15 11:37:15.28	174.42	39.08	
2025-01-15 11:37:15.48	174.45	39.14	
2025-01-15 11:37:15.68	174.47	39.20	
2025-01-15 11:37:15.89	174.49	39.26	
2025-01-15 11:37:16.09	174.51	39.32	
2025-01-15 11:37:16.29	174.53	39.38	
2025-01-15 11:37:16.50	174.56	39.44	
2025-01-15 11:37:16.70	174.58	39.50	
2025-01-15 11:37:16.90	174.60	39.56	
2025-01-15 11:37:17.10	174.63	39.62	
2025-01-15 11:37:17.31	174.65	39.68	
2025-01-15 11:37:17.51	174.67	39.74	
2025-01-15 11:37:17.71	174.69	39.80	
2025-01-15 11:37:17.92	174.72	39.86	
2025-01-15 11:37:18.12	174.74	39.92	
2025-01-15 11:37:18.32	174.76	39.99	
2025-01-15 11:37:18.53	174.79	40.05	
2025-01-15 11:37:18.73	174.81	40.11	
2025-01-15 11:37:18.93	174.83	40.17	
2025-01-15 11:37:19.13	174.86	40.23	
2025-01-15 11:37:19.34	174.88	40.29	
2025-01-15 11:37:19.54	174.91	40.36	
2025-01-15 11:37:19.74	174.93	40.42	
2025-01-15 11:37:19.95	174.95	40.48	
2025-01-15 11:37:20.15	174.98	40.54	
2025-01-15 11:37:20.35	175.00	40.60	
2025-01-15 11:37:20.56	175.03	40.67	
2025-01-15 11:37:20.76	175.05	40.73	
2025-01-15 11:37:20.96	175.08	40.79	
2025-01-15 11:37:21.16	175.10	40.85	
2025-01-15 11:37:21.37	175.13	40.92	
2025-01-15 11:37:21.57	175.15	40.98	
2025-01-15 11:37:21.77	175.17	41.04	
2025-01-15 11:37:21.98	175.20	41.11	
2025-01-15 11:37:22.18	175.23	41.17	
2025-01-15 11:37:22.38	175.25	41.23	
2025-01-15 11:37:22.58	175.28	41.30	
2025-01-15 11:37:22.79	175.30	41.36	
2025-01-15 11:37:22.99	175.33	41.42	
2025-01-15 11:37:23.19	175.35	41.49	
2025-01-15 11:37:23.40	175.38	41.55	
2025-01-15 11:37:23.60	175.40	41.62	
2025-01-15 11:37:23.80	175.43	41.68	
2025-01-15 11:37:24.01	175.46	41.75	
2025-01-15 11:37:24.21	175.48	41.81	
2025-01-15 11:37:24.41	175.51	41.87	
2025-01-15 11:37:24.61	175.53	41.94	
2025-01-15 11:37:24.82	175.56	42.00	
2025-01-15 11:37:25.02	175.59	42.07	
2025-01-15 11:37:25.22	175.61	42.13	
2025-01-15 11:37:25.43	175.64	42.20	
2025-01-15 11:37:25.63	175.67	42.26	
2025-01-15 11:37:25.83	175.69	42.33	
2025-01-15 11:37:26.03	175.72	42.39	
2025-01-15 11:37:26.24	175.75	42.46	
2025-01-15 11:37:26.44	175.78	42.53	
2025-01-15 11:37:26.64	175.80	42.59	
2025-01-15 11:37:26.85	175.83	42.66	
2025-01-15 11:37:27.05	175.86	42.72	
2025-01-15 11:37:27.25	175.89	42.79	
2025-01-15 11:37:27.46	175.91	42.86	
2025-01-15 11:37:27.66	175.94	42.92	
2025-01-15 11:37:27.86	175.97	42.99	
2025-01-15 11:37:28.06	176.00	43.05	
2025-01-15 11:37:28.27	176.03	43.12	
2025-01-15 11:37:28.47	176.05	43.19	
2025-01-15 11:37:28.67	176.08	43.26	
2025-01-15 11:37:28.88	176.11	43.33	
2025-01-15 11:37:29.08	176.14	43.39	
2025-01-15 11:37:29.28	176.17	43.46	
2025-01-15 11:37:29.48	176.20	43.52	
2025-01-15 11:37:29.69	176.23	43.59	
2025-01-15 11:37:29.89	176.26	43.66	
2025-01-15 11:37:30.09	176.29	43.73	
2025-01-15 11:37:30.30	176.32	43.80	
2025-01-15 11:37:30.50	176.35	43.86	
2025-01-15 11:37:30.70	176.37	43.93	
2025-01-15 11:37:30.91	176.41	44.00	
2025-01-15 11:37:31.11	176.43	44.07	
2025-01-15 11:37:31.31	176.46	44.14	
2025-01-15 11:37:31.51	176.49	44.21	
2025-01-15 11:37:31.72	176.53	44.28	
2025-01-15 11:37:31.92	176.56	44.34	
2025-01-15 11:37:32.12	176.59	44.41	
2025-01-15 11:37:32.33	176.62	44.48	
2025-01-15 11:37:32.53	176.65	44.55	
2025-01-15 11:37:32.73	176.68	44.62	
2025-01-15 11:37:32.94	176.71	44.69	
2025-01-15 11:37:33.14	176.74	44.76	
2025-01-15 11:37:33.34	176.77	44.83	
2025-01-15 11:37:33.54	176.80	44.90	
2025-01-15 11:37:33.75	176.84	44.97	
2025-01-15 11:37:33.95	176.87	45.04	
2025-01-15 11:37:34.15	176.90	45.11	
2025-01-15 11:37:34.36	176.93	45.18	
2025-01-15 11:37:34.56	176.96	45.25	
2025-01-15 11:37:34.76	177.00	45.32	
2025-01-15 11:37:34.96	177.03	45.39	
2025-01-15 11:37:35.17	177.06	45.46	
2025-01-15 11:37:35.37	177.09	45.53	
2025-01-15 11:37:35.57	177.13	45.60	
2025-01-15 11:37:35.78	177.16	45.68	
2025-01-15 11:37:35.98	177.19	45.75	
2025-01-15 11:37:36.18	177.23	45.82	
2025-01-15 11:37:36.39	177.26	45.89	
2025-01-15 11:37:36.59	177.30	45.96	
2025-01-15 11:37:36.79	177.33	46.03	
2025-01-15 11:37:36.99	177.36	46.10	
2025-01-15 11:37:37.20	177.40	46.18	
2025-01-15 11:37:37.40	177.43	46.25	
2025-01-15 11:37:37.60	177.47	46.32	
2025-01-15 11:37:37.81	177.50	46.39	
2025-01-15 11:37:38.01	177.54	46.47	
2025-01-15 11:37:38.21	177.57	46.54	
2025-01-15 11:37:38.41	177.60	46.61	
2025-01-15 11:37:38.62	177.64	46.68	
2025-01-15 11:37:38.82	177.68	46.76	
2025-01-15 11:37:39.02	177.71	46.83	
2025-01-15 11:37:39.23	177.75	46.90	
2025-01-15 11:37:39.43	177.78	46.98	
2025-01-15 11:37:39.63	177.82	47.05	
2025-01-15 11:37:39.84	177.86	47.12	
2025-01-15 11:37:40.04	177.89	47.20	
2025-01-15 11:37:40.24	177.93	47.27	
2025-01-15 11:37:40.44	177.97	47.34	
2025-01-15 11:37:40.65	178.00	47.42	
2025-01-15 11:37:40.85	178.04	47.49	
2025-01-15 11:37:41.05	178.08	47.57	
2025-01-15 11:37:41.26	178.12	47.64	
2025-01-15 11:37:41.46	178.15	47.72	
2025-01-15 11:37:41.66	178.19	47.79	
2025-01-15 11:37:41.86	178.23	47.86	
2025-01-15 11:37:42.07	178.27	47.94	
2025-01-15 11:37:42.27	178.30	48.01	
2025-01-15 11:37:42.47	178.34	48.09	
2025-01-15 11:37:42.68	178.38	48.17	
2025-01-15 11:37:42.88	178.42	48.24	
2025-01-15 11:37:43.08	178.46	48.32	
2025-01-15 11:37:43.29	178.50	48.39	
2025-01-15 11:37:43.49	178.54	48.47	
2025-01-15 11:37:43.69	178.58	48.54	
2025-01-15 11:37:43.89	178.62	48.62	
2025-01-15 11:37:44.10	178.66	48.70	
2025-01-15 11:37:44.30	178.70	48.77	
2025-01-15 11:37:44.50	178.74	48.85	
2025-01-15 11:37:44.71	178.78	48.93	
2025-01-15 11:37:44.91	178.82	49.00	
2025-01-15 11:37:45.11	178.86	49.08	
2025-01-15 11:37:45.31	178.90	49.15	
2025-01-15 11:37:45.52	178.95	49.23	
2025-01-15 11:37:45.72	178.99	49.31	
2025-01-15 11:37:45.92	179.03	49.38	
2025-01-15 11:37:46.13	179.07	49.46	
2025-01-15 11:37:46.33	179.11	49.54	
2025-01-15 11:37:46.53	179.16	49.62	
2025-01-15 11:37:46.74	179.20	49.70	
2025-01-15 11:37:46.94	179.24	49.77	
2025-01-15 11:37:47.14	179.29	49.85	
2025-01-15 11:37:47.34	179.33	49.93	
2025-01-15 11:37:47.55	179.37	50.01	
2025-01-15 11:37:47.75	179.42	50.09	
2025-01-15 11:37:47.95	179.46	50.16	
2025-01-15 11:37:48.16	179.51	50.25	
2025-01-15 11:37:48.36	179.55	50.32	
2025-01-15 11:37:48.56	179.59	50.40	
2025-01-15 11:37:48.77	179.64	50.48	
2025-01-15 11:37:48.97	179.69	50.56	
2025-01-15 11:37:49.17	179.73	50.64	
2025-01-15 11:37:49.37	179.77	50.72	
2025-01-15 11:37:49.58	179.82	50.80	
2025-01-15 11:37:49.78	179.87	50.88	
2025-01-15 11:37:49.98	179.91	50.96	
2025-01-15 11:37:50.19	179.96	51.04	
2025-01-15 11:37:50.39	180.01	51.12	
2025-01-15 11:37:50.59	180.06	51.20	
2025-01-15 11:37:50.79	180.10	51.28	
2025-01-15 11:37:51.00	180.15	51.36	
2025-01-15 11:37:51.20	180.20	51.44	
2025-01-15 11:37:51.40	180.25	51.52	
2025-01-15 11:37:51.61	180.30	51.60	
2025-01-15 11:37:51.81	180.34	51.68	
2025-01-15 11:37:52.01	180.39	51.76	
2025-01-15 11:37:52.22	180.44	51.84	
2025-01-15 11:37:52.42	180.49	51.92	
2025-01-15 11:37:52.62	180.54	52.00	
2025-01-15 11:37:52.82	180.59	52.08	
2025-01-15 11:37:53.03	180.64	52.17	
2025-01-15 11:37:53.23	180.69	52.25	
2025-01-15 11:37:53.43	180.74	52.33	
2025-01-15 11:37:53.64	180.80	52.41	
2025-01-15 11:37:53.84	180.85	52.49	
2025-01-15 11:37:54.04	180.90	52.58	
2025-01-15 11:37:54.25	180.95	52.66	
2025-01-15 11:37:54.45	181.00	52.74	
2025-01-15 11:37:54.65	181.06	52.82	
2025-01-15 11:37:54.85	181.11	52.90	
2025-01-15 11:37:55.06	181.16	52.99	
2025-01-15 11:37:55.26	181.22	53.07	
2025-01-15 11:37:55.46	181.27	53.15	
2025-01-15 11:37:55.67	181.32	53.24	
2025-01-15 11:37:55.87	181.38	53.32	
2025-01-15 11:37:56.07	181.43	53.40	
2025-01-15 11:37:56.27	181.49	53.49	
2025-01-15 11:37:56.48	181.54	53.57	
2025-01-15 11:37:56.68	181.60	53.65	
2025-01-15 11:37:56.88	181.65	53.74	
2025-01-15 11:37:57.09	181.71	53.82	
2025-01-15 11:37:57.29	181.77	53.91	
2025-01-15 11:37:57.49	181.82	53.99	
2025-01-15 11:37:57.70	181.88	54.08	
2025-01-15 11:37:57.90	181.94	54.16	
2025-01-15 11:37:58.10	182.00	54.24	
2025-01-15 11:37:58.30	182.05	54.33	
2025-01-15 11:37:58.51	182.12	54.41	
2025-01-15 11:37:58.71	182.17	54.50	
2025-01-15 11:37:58.91	182.23	54.58	
2025-01-15 11:37:59.12	182.29	54.67	
2025-01-15 11:37:59.32	182.35	54.75	
2025-01-15 11:37:59.52	182.41	54.84	
2025-01-15 11:37:59.72	182.47	54.92	
2025-01-15 11:37:59.93	182.54	55.01	
2025-01-15 11:38:00.13	182.60	55.09	
2025-01-15 11:38:00.33	182.66	55.18	
2025-01-15 11:38:00.54	182.72	55.27	
2025-01-15 11:38:00.74	182.78	55.35	
2025-01-15 11:38:00.94	182.85	55.44	
2025-01-15 11:38:01.15	182.91	55.53	
2025-01-15 11:38:01.35	182.97	55.61	
2025-01-15 11:38:01.55	183.04	55.70	
2025-01-15 11:38:01.75	183.10	55.78	
2025-01-15 11:38:01.96	183.17	55.87	
2025-01-15 11:38:02.16	183.23	55.96	
2025-01-15 11:38:02.36	183.30	56.04	
2025-01-15 11:38:02.57	183.37	56.13	
2025-01-15 11:38:02.77	183.43	56.22	
2025-01-15 11:38:02.97	183.50	56.30	
2025-01-15 11:38:03.17	183.56	56.39	
2025-01-15 11:38:03.38	183.63	56.48	
2025-01-15 11:38:03.58	183.70	56.57	
2025-01-15 11:38:03.78	183.77	56.65	
2025-01-15 11:38:03.99	183.84	56.74	
2025-01-15 11:38:04.19	183.91	56.83	
2025-01-15 11:38:04.39	183.98	56.92	
2025-01-15 11:38:04.60	184.05	57.01	
2025-01-15 11:38:04.80	184.12	57.09	
2025-01-15 11:38:05.00	184.19	57.18	
2025-01-15 11:38:05.20	184.26	57.27	
2025-01-15 11:38:05.41	184.34	57.36	
2025-01-15 11:38:05.61	184.41	57.45	
2025-01-15 11:38:05.81	184.48	57.53	
2025-01-15 11:38:06.02	184.56	57.62	
2025-01-15 11:38:06.22	184.63	57.71	
2025-01-15 11:38:06.42	184.71	57.80	
2025-01-15 11:38:06.63	184.78	57.89	
2025-01-15 11:38:06.83	184.86	57.98	
2025-01-15 11:38:07.03	184.93	58.07	
2025-01-15 11:38:07.23	185.01	58.16	
2025-01-15 11:38:07.44	185.09	58.25	
2025-01-15 11:38:07.64	185.16	58.34	
2025-01-15 11:38:07.84	185.24	58.42	
2025-01-15 11:38:08.05	185.32	58.52	
2025-01-15 11:38:08.25	185.40	58.61	
2025-01-15 11:38:08.45	185.48	58.69	
2025-01-15 11:38:08.65	185.56	58.78	
2025-01-15 11:38:08.86	185.64	58.88	
2025-01-15 11:38:09.06	185.72	58.96	
2025-01-15 11:38:09.26	185.80	59.05	
2025-01-15 11:38:09.47	185.89	59.15	
2025-01-15 11:38:09.67	185.97	59.23	
2025-01-15 11:38:09.87	186.05	59.32	
2025-01-15 11:38:10.08	186.14	59.42	
2025-01-15 11:38:10.28	186.23	59.51	
2025-01-15 11:38:10.48	186.31	59.60	
2025-01-15 11:38:10.68	186.39	59.69	
2025-01-15 11:38:10.89	186.48	59.78	
2025-01-15 11:38:11.09	186.57	59.87	
2025-01-15 11:38:11.29	186.66	59.96	
2025-01-15 11:38:11.50	186.75	60.05	
2025-01-15 11:38:11.70	186.84	60.14	
2025-01-15 11:38:11.90	186.93	60.23	
2025-01-15 11:38:12.10	187.01	60.32	
2025-01-15 11:38:12.31	187.11	60.42	
2025-01-15 11:38:12.51	187.20	60.51	
2025-01-15 11:38:12.71	187.29	60.60	
2025-01-15 11:38:12.92	187.39	60.69	
2025-01-15 11:38:13.12	187.48	60.78	
2025-01-15 11:38:13.32	187.57	60.87	
2025-01-15 11:38:13.53	187.67	60.97	
2025-01-15 11:38:13.73	187.76	61.06	
2025-01-15 11:38:13.93	187.86	61.15	
2025-01-15 11:38:14.13	187.96	61.24	
2025-01-15 11:38:14.34	188.06	61.33	
2025-01-15 11:38:14.54	188.15	61.42	
2025-01-15 11:38:14.74	188.25	61.51	
2025-01-15 11:38:14.95	188.36	61.61	
2025-01-15 11:38:15.15	188.46	61.70	
2025-01-15 11:38:15.35	188.56	61.79	
2025-01-15 11:38:15.55	188.66	61.88	
2025-01-15 11:38:15.76	188.76	61.98	
2025-01-15 11:38:15.96	188.87	62.07	
2025-01-15 11:38:16.16	188.97	62.16	
2025-01-15 11:38:16.37	189.08	62.26	
2025-01-15 11:38:16.57	189.18	62.35	
2025-01-15 11:38:16.77	189.29	62.44	
2025-01-15 11:38:16.98	189.40	62.53	
2025-01-15 11:38:17.18	189.51	62.63	
2025-01-15 11:38:17.38	189.61	62.72	
2025-01-15 11:38:17.58	189.72	62.81	
2025-01-15 11:38:17.79	189.84	62.90	
2025-01-15 11:38:17.99	189.95	63.00	
2025-01-15 11:38:18.19	190.06	63.09	
2025-01-15 11:38:18.40	190.18	63.18	
2025-01-15 11:38:18.60	190.29	63.28	
2025-01-15 11:38:18.80	190.41	63.37	
2025-01-15 11:38:19.01	190.53	63.46	
2025-01-15 11:38:19.21	190.64	63.55	
2025-01-15 11:38:19.41	190.76	63.65	
2025-01-15 11:38:19.61	190.88	63.74	
2025-01-15 11:38:19.82	191.00	63.83	
2025-01-15 11:38:20.02	191.12	63.93	
2025-01-15 11:38:20.22	191.24	64.02	
2025-01-15 11:38:20.43	191.37	64.11	
2025-01-15 11:38:20.63	191.49	64.21	
2025-01-15 11:38:20.83	191.62	64.30	
2025-01-15 11:38:21.03	191.74	64.39	
2025-01-15 11:38:21.24	191.87	64.49	
2025-01-15 11:38:21.44	192.00	64.58	
2025-01-15 11:38:21.64	192.13	64.67	
2025-01-15 11:38:21.85	192.26	64.77	
2025-01-15 11:38:22.05	192.39	64.86	
2025-01-15 11:38:22.25	192.52	64.95	
2025-01-15 11:38:22.46	192.66	65.05	
2025-01-15 11:38:22.66	192.79	65.14	
2025-01-15 11:38:22.86	192.93	65.23	
2025-01-15 11:38:23.06	193.06	65.32	
2025-01-15 11:38:23.27	193.20	65.42	
2025-01-15 11:38:23.47	193.34	65.51	
2025-01-15 11:38:23.67	193.48	65.60	
2025-01-15 11:38:23.88	193.63	65.70	
2025-01-15 11:38:24.08	193.77	65.79	
2025-01-15 11:38:24.28	193.91	65.88	
2025-01-15 11:38:24.48	194.05	65.97	
2025-01-15 11:38:24.69	194.21	66.07	
2025-01-15 11:38:24.89	194.35	66.16	
2025-01-15 11:38:25.09	194.50	66.25	
2025-01-15 11:38:25.30	194.65	66.35	
2025-01-15 11:38:25.50	194.80	66.44	
2025-01-15 11:38:25.70	194.96	66.53	
2025-01-15 11:38:25.91	195.12	66.63	
2025-01-15 11:38:26.11	195.27	66.72	
2025-01-15 11:38:26.31	195.42	66.81	
2025-01-15 11:38:26.51	195.58	66.90	
2025-01-15 11:38:26.72	195.75	67.00	
2025-01-15 11:38:26.92	195.90	67.09	
2025-01-15 11:38:27.12	196.07	67.18	
2025-01-15 11:38:27.33	196.24	67.28	
2025-01-15 11:38:27.53	196.40	67.37	
2025-01-15 11:38:27.73	196.56	67.46	
2025-01-15 11:38:27.93	196.73	67.55	
2025-01-15 11:38:28.14	196.91	67.65	
2025-01-15 11:38:28.34	197.07	67.74	
2025-01-15 11:38:28.54	197.25	67.83	
2025-01-15 11:38:28.75	197.43	67.92	
2025-01-15 11:38:28.95	197.60	68.01	
2025-01-15 11:38:29.15	197.78	68.10	
2025-01-15 11:38:29.36	197.96	68.20	
2025-01-15 11:38:29.56	198.14	68.29	
2025-01-15 11:38:29.76	198.32	68.38	
2025-01-15 11:38:29.96	198.50	68.47	
2025-01-15 11:38:30.17	198.70	68.56	
2025-01-15 11:38:30.37	198.88	68.65	
2025-01-15 11:38:30.57	199.07	68.74	
2025-01-15 11:38:30.78	199.27	68.84	
2025-01-15 11:38:30.98	199.46	68.93	
2025-01-15 11:38:31.18	199.65	69.01	
2025-01-15 11:38:31.39	199.85	69.11	
2025-01-15 11:38:31.59	200.05	69.20	
2025-01-15 11:38:31.79	200.25	69.29	
2025-01-15 11:38:31.99	200.45	69.37	
2025-01-15 11:38:32.20	200.66	69.47	
2025-01-15 11:38:32.40	200.86	69.56	
