passes_logs/2025/01/15/SPB_Silybum_02/SPB_Silybum_02__20250115_111518_TERRA_rec.log

#Pass ID: 20250115_111518_TERRA
#Satellite: TERRA
#Configuration: TERRA
#Start time: 2025-01-15 11:15:18

#Version: 2.0.20230423
#Station: SPB_Silybum_02
#Location: 30.233357 lon 59.946436 lat
#TLE: 1 25994U 99068A   25014.85746573  .00000777  00000+0  16972-3 0  9996
#TLE: 2 25994  98.0216  77.8924 0003456  72.8612  46.8876 14.60394566334056

#Time	Az	El	Level	Level2	SNR	BER	Gain	Gain2
2025-01-15 11:15:20.95	5.60	4.10	
2025-01-15 11:15:21.15	5.57	4.11	
2025-01-15 11:15:21.36	5.54	4.12	
2025-01-15 11:15:21.56	5.52	4.13	
2025-01-15 11:15:21.76	5.49	4.13	
2025-01-15 11:15:21.97	5.47	4.14	
2025-01-15 11:15:22.17	5.44	4.15	
2025-01-15 11:15:22.37	5.41	4.16	
2025-01-15 11:15:22.57	5.39	4.17	
2025-01-15 11:15:22.78	5.36	4.18	
2025-01-15 11:15:22.98	5.34	4.19	
2025-01-15 11:15:23.18	5.31	4.20	
2025-01-15 11:15:23.39	5.28	4.21	
2025-01-15 11:15:23.59	5.26	4.22	
2025-01-15 11:15:23.79	5.23	4.23	
2025-01-15 11:15:23.99	5.21	4.24	
2025-01-15 11:15:24.20	5.18	4.24	
2025-01-15 11:15:24.40	5.15	4.25	
2025-01-15 11:15:24.60	5.13	4.26	
2025-01-15 11:15:24.81	5.10	4.27	
2025-01-15 11:15:25.01	5.07	4.28	
2025-01-15 11:15:25.21	5.05	4.29	
2025-01-15 11:15:25.42	5.02	4.30	
2025-01-15 11:15:25.62	4.99	4.31	
2025-01-15 11:15:25.82	4.97	4.32	
2025-01-15 11:15:26.02	4.94	4.33	
2025-01-15 11:15:26.23	4.92	4.34	
2025-01-15 11:15:26.43	4.89	4.34	
2025-01-15 11:15:26.63	4.86	4.35	
2025-01-15 11:15:26.84	4.84	4.36	
2025-01-15 11:15:27.04	4.81	4.37	
2025-01-15 11:15:27.24	4.78	4.38	
2025-01-15 11:15:27.44	4.76	4.39	
2025-01-15 11:15:27.65	4.73	4.40	
2025-01-15 11:15:27.85	4.70	4.41	
2025-01-15 11:15:28.05	4.68	4.42	
2025-01-15 11:15:28.26	4.65	4.43	
2025-01-15 11:15:28.46	4.62	4.44	
2025-01-15 11:15:28.66	4.60	4.44	
2025-01-15 11:15:28.87	4.57	4.45	
2025-01-15 11:15:29.07	4.54	4.46	
2025-01-15 11:15:29.27	4.52	4.47	
2025-01-15 11:15:29.47	4.49	4.48	
2025-01-15 11:15:29.68	4.46	4.49	
2025-01-15 11:15:29.88	4.44	4.50	
2025-01-15 11:15:30.08	4.41	4.51	
2025-01-15 11:15:30.29	4.38	4.52	
2025-01-15 11:15:30.49	4.36	4.53	
2025-01-15 11:15:30.69	4.33	4.54	
2025-01-15 11:15:30.90	4.30	4.54	
2025-01-15 11:15:31.10	4.28	4.55	
2025-01-15 11:15:31.30	4.25	4.56	
2025-01-15 11:15:31.50	4.22	4.57	
2025-01-15 11:15:31.71	4.20	4.58	
2025-01-15 11:15:31.91	4.17	4.59	
2025-01-15 11:15:32.11	4.14	4.60	
2025-01-15 11:15:32.32	4.12	4.61	
2025-01-15 11:15:32.52	4.09	4.62	
2025-01-15 11:15:32.72	4.06	4.63	
2025-01-15 11:15:32.92	4.04	4.63	
2025-01-15 11:15:33.13	4.01	4.64	
2025-01-15 11:15:33.33	3.98	4.65	
2025-01-15 11:15:33.53	3.95	4.66	
2025-01-15 11:15:33.74	3.93	4.67	
2025-01-15 11:15:33.94	3.90	4.68	
2025-01-15 11:15:34.14	3.87	4.69	
2025-01-15 11:15:34.35	3.84	4.70	
2025-01-15 11:15:34.55	3.82	4.71	
2025-01-15 11:15:34.75	3.79	4.72	
2025-01-15 11:15:34.95	3.76	4.72	
2025-01-15 11:15:35.16	3.74	4.73	
2025-01-15 11:15:35.36	3.71	4.74	
2025-01-15 11:15:35.56	3.68	4.75	
2025-01-15 11:15:35.77	3.65	4.76	
2025-01-15 11:15:35.97	3.63	4.77	
2025-01-15 11:15:36.17	3.60	4.78	
2025-01-15 11:15:36.37	3.57	4.79	
2025-01-15 11:15:36.58	3.55	4.80	
2025-01-15 11:15:36.78	3.52	4.81	
2025-01-15 11:15:36.98	3.49	4.81	
2025-01-15 11:15:37.19	3.46	4.82	
2025-01-15 11:15:37.39	3.44	4.83	
2025-01-15 11:15:37.59	3.41	4.84	
2025-01-15 11:15:37.80	3.38	4.85	
2025-01-15 11:15:38.00	3.35	4.86	
2025-01-15 11:15:38.20	3.33	4.87	
2025-01-15 11:15:38.40	3.30	4.88	
2025-01-15 11:15:38.61	3.27	4.89	
2025-01-15 11:15:38.81	3.24	4.90	
2025-01-15 11:15:39.01	3.22	4.90	
2025-01-15 11:15:39.22	3.19	4.91	
2025-01-15 11:15:39.42	3.16	4.92	
2025-01-15 11:15:39.62	3.13	4.93	
2025-01-15 11:15:39.82	3.11	4.94	
2025-01-15 11:15:40.03	3.08	4.95	
2025-01-15 11:15:40.23	3.05	4.96	
2025-01-15 11:15:40.43	3.02	4.97	
2025-01-15 11:15:40.64	3.00	4.98	
2025-01-15 11:15:40.84	2.97	4.99	
2025-01-15 11:15:41.04	2.94	4.99	
2025-01-15 11:15:41.25	2.91	5.00	
2025-01-15 11:15:41.45	2.88	5.01	
2025-01-15 11:15:41.65	2.86	5.02	
2025-01-15 11:15:41.85	2.83	5.03	
2025-01-15 11:15:42.06	2.80	5.04	
2025-01-15 11:15:42.26	2.77	5.05	
2025-01-15 11:15:42.46	2.75	5.06	
2025-01-15 11:15:42.67	2.72	5.07	
2025-01-15 11:15:42.87	2.69	5.07	
2025-01-15 11:15:43.07	2.66	5.08	
2025-01-15 11:15:43.28	2.63	5.09	
2025-01-15 11:15:43.48	2.61	5.10	
2025-01-15 11:15:43.68	2.58	5.11	
2025-01-15 11:15:43.88	2.55	5.12	
2025-01-15 11:15:44.09	2.52	5.13	
2025-01-15 11:15:44.29	2.49	5.14	
2025-01-15 11:15:44.49	2.47	5.15	
2025-01-15 11:15:44.70	2.44	5.15	
2025-01-15 11:15:44.90	2.41	5.16	
2025-01-15 11:15:45.10	2.38	5.17	
2025-01-15 11:15:45.30	2.35	5.18	
2025-01-15 11:15:45.51	2.32	5.19	
2025-01-15 11:15:45.71	2.30	5.20	
2025-01-15 11:15:45.91	2.27	5.21	
2025-01-15 11:15:46.12	2.24	5.22	
2025-01-15 11:15:46.32	2.21	5.23	
2025-01-15 11:15:46.52	2.18	5.23	
2025-01-15 11:15:46.73	2.15	5.24	
2025-01-15 11:15:46.93	2.13	5.25	
2025-01-15 11:15:47.13	2.10	5.26	
2025-01-15 11:15:47.33	2.07	5.27	
2025-01-15 11:15:47.54	2.04	5.28	
2025-01-15 11:15:47.74	2.01	5.29	
2025-01-15 11:15:47.94	1.99	5.30	
2025-01-15 11:15:48.15	1.96	5.31	
2025-01-15 11:15:48.35	1.93	5.31	
2025-01-15 11:15:48.55	1.90	5.32	
2025-01-15 11:15:48.75	1.87	5.33	
2025-01-15 11:15:48.96	1.84	5.34	
2025-01-15 11:15:49.16	1.81	5.35	
2025-01-15 11:15:49.36	1.79	5.36	
2025-01-15 11:15:49.57	1.76	5.37	
2025-01-15 11:15:49.77	1.73	5.38	
2025-01-15 11:15:49.97	1.70	5.38	
2025-01-15 11:15:50.18	1.67	5.39	
2025-01-15 11:15:50.38	1.64	5.40	
2025-01-15 11:15:50.58	1.61	5.41	
2025-01-15 11:15:50.78	1.59	5.42	
2025-01-15 11:15:50.99	1.56	5.43	
2025-01-15 11:15:51.19	1.53	5.44	
2025-01-15 11:15:51.39	1.50	5.45	
2025-01-15 11:15:51.60	1.47	5.46	
2025-01-15 11:15:51.80	1.44	5.46	
2025-01-15 11:15:52.00	1.41	5.47	
2025-01-15 11:15:52.20	1.39	5.48	
2025-01-15 11:15:52.41	1.36	5.49	
2025-01-15 11:15:52.61	1.33	5.50	
2025-01-15 11:15:52.81	1.30	5.51	
2025-01-15 11:15:53.02	1.27	5.52	
2025-01-15 11:15:53.22	1.24	5.53	
2025-01-15 11:15:53.42	1.21	5.53	
2025-01-15 11:15:53.63	1.18	5.54	
2025-01-15 11:15:53.83	1.15	5.55	
2025-01-15 11:15:54.03	1.13	5.56	
2025-01-15 11:15:54.23	1.10	5.57	
2025-01-15 11:15:54.44	1.07	5.58	
2025-01-15 11:15:54.64	1.04	5.59	
2025-01-15 11:15:54.84	1.01	5.60	
2025-01-15 11:15:55.05	0.98	5.60	
2025-01-15 11:15:55.25	0.95	5.61	
2025-01-15 11:15:55.45	0.92	5.62	
2025-01-15 11:15:55.66	0.89	5.63	
2025-01-15 11:15:55.86	0.86	5.64	
2025-01-15 11:15:56.06	0.83	5.65	
2025-01-15 11:15:56.26	0.81	5.66	
2025-01-15 11:15:56.47	0.78	5.67	
2025-01-15 11:15:56.67	0.75	5.67	
2025-01-15 11:15:56.87	0.72	5.68	
2025-01-15 11:15:57.08	0.69	5.69	
2025-01-15 11:15:57.28	0.66	5.70	
2025-01-15 11:15:57.48	0.63	5.71	
2025-01-15 11:15:57.68	0.60	5.72	
2025-01-15 11:15:57.89	0.57	5.73	
2025-01-15 11:15:58.09	0.54	5.74	
2025-01-15 11:15:58.29	0.51	5.74	
2025-01-15 11:15:58.50	0.48	5.75	
2025-01-15 11:15:58.70	0.45	5.76	
2025-01-15 11:15:58.90	0.42	5.77	
2025-01-15 11:15:59.11	0.39	5.78	
2025-01-15 11:15:59.31	0.36	5.79	
2025-01-15 11:15:59.51	0.34	5.80	
2025-01-15 11:15:59.71	0.31	5.80	
2025-01-15 11:15:59.92	0.28	5.81	
2025-01-15 11:16:00.12	0.25	5.82	
2025-01-15 11:16:00.32	0.22	5.83	
2025-01-15 11:16:00.53	0.19	5.84	
2025-01-15 11:16:00.73	0.16	5.85	
2025-01-15 11:16:00.93	0.13	5.86	
2025-01-15 11:16:01.13	0.10	5.86	
2025-01-15 11:16:01.34	0.07	5.87	
2025-01-15 11:16:01.54	0.04	5.88	
2025-01-15 11:16:01.74	0.01	5.89	
2025-01-15 11:16:01.95	359.98	5.90	
2025-01-15 11:16:02.15	359.95	5.91	
2025-01-15 11:16:02.35	359.92	5.92	
2025-01-15 11:16:02.56	359.89	5.93	
2025-01-15 11:16:02.76	359.86	5.93	
2025-01-15 11:16:02.96	359.83	5.94	
2025-01-15 11:16:03.16	359.80	5.95	
2025-01-15 11:16:03.37	359.77	5.96	
2025-01-15 11:16:03.57	359.74	5.97	
2025-01-15 11:16:03.77	359.71	5.98	
2025-01-15 11:16:03.98	359.68	5.99	
2025-01-15 11:16:04.18	359.65	5.99	
2025-01-15 11:16:04.38	359.62	6.00	
2025-01-15 11:16:04.58	359.59	6.01	
2025-01-15 11:16:04.79	359.56	6.02	
2025-01-15 11:16:04.99	359.53	6.03	
2025-01-15 11:16:05.19	359.50	6.04	
2025-01-15 11:16:05.40	359.47	6.05	
2025-01-15 11:16:05.60	359.44	6.05	
2025-01-15 11:16:05.80	359.41	6.06	
2025-01-15 11:16:06.01	359.38	6.07	
2025-01-15 11:16:06.21	359.35	6.08	
2025-01-15 11:16:06.41	359.32	6.09	
2025-01-15 11:16:06.61	359.29	6.10	
2025-01-15 11:16:06.82	359.26	6.11	
2025-01-15 11:16:07.02	359.23	6.11	
2025-01-15 11:16:07.22	359.20	6.12	
2025-01-15 11:16:07.43	359.17	6.13	
2025-01-15 11:16:07.63	359.14	6.14	
2025-01-15 11:16:07.83	359.11	6.15	
2025-01-15 11:16:08.04	359.08	6.16	
2025-01-15 11:16:08.24	359.05	6.17	
2025-01-15 11:16:08.44	359.02	6.17	
2025-01-15 11:16:08.64	358.99	6.18	
2025-01-15 11:16:08.85	358.96	6.19	
2025-01-15 11:16:09.05	358.93	6.20	
2025-01-15 11:16:09.25	358.90	6.21	
2025-01-15 11:16:09.46	358.87	6.22	
2025-01-15 11:16:09.66	358.84	6.22	
2025-01-15 11:16:09.86	358.81	6.23	
2025-01-15 11:16:10.06	358.78	6.24	
2025-01-15 11:16:10.27	358.74	6.25	
2025-01-15 11:16:10.47	358.71	6.26	
2025-01-15 11:16:10.67	358.68	6.27	
2025-01-15 11:16:10.88	358.65	6.28	
2025-01-15 11:16:11.08	358.62	6.28	
2025-01-15 11:16:11.28	358.59	6.29	
2025-01-15 11:16:11.49	358.56	6.30	
2025-01-15 11:16:11.69	358.53	6.31	
2025-01-15 11:16:11.89	358.50	6.32	
2025-01-15 11:16:12.09	358.47	6.33	
2025-01-15 11:16:12.30	358.44	6.33	
2025-01-15 11:16:12.50	358.41	6.34	
2025-01-15 11:16:12.70	358.38	6.35	
2025-01-15 11:16:12.91	358.34	6.36	
2025-01-15 11:16:13.11	358.31	6.37	
2025-01-15 11:16:13.31	358.28	6.38	
2025-01-15 11:16:13.51	358.25	6.38	
2025-01-15 11:16:13.72	358.22	6.39	
2025-01-15 11:16:13.92	358.19	6.40	
2025-01-15 11:16:14.12	358.16	6.41	
2025-01-15 11:16:14.33	358.13	6.42	
2025-01-15 11:16:14.53	358.10	6.43	
2025-01-15 11:16:14.73	358.07	6.44	
2025-01-15 11:16:14.94	358.04	6.44	
2025-01-15 11:16:15.14	358.01	6.45	
2025-01-15 11:16:15.34	357.97	6.46	
2025-01-15 11:16:15.54	357.94	6.47	
2025-01-15 11:16:15.75	357.91	6.48	
2025-01-15 11:16:15.95	357.88	6.49	
2025-01-15 11:16:16.15	357.85	6.49	
2025-01-15 11:16:16.36	357.82	6.50	
2025-01-15 11:16:16.56	357.79	6.51	
2025-01-15 11:16:16.76	357.76	6.52	
2025-01-15 11:16:16.96	357.73	6.53	
2025-01-15 11:16:17.17	357.69	6.54	
2025-01-15 11:16:17.37	357.66	6.54	
2025-01-15 11:16:17.57	357.63	6.55	
2025-01-15 11:16:17.78	357.60	6.56	
2025-01-15 11:16:17.98	357.57	6.57	
2025-01-15 11:16:18.18	357.54	6.58	
2025-01-15 11:16:18.39	357.51	6.59	
2025-01-15 11:16:18.59	357.47	6.59	
2025-01-15 11:16:18.79	357.44	6.60	
2025-01-15 11:16:18.99	357.41	6.61	
2025-01-15 11:16:19.20	357.38	6.62	
2025-01-15 11:16:19.40	357.35	6.63	
2025-01-15 11:16:19.60	357.32	6.63	
2025-01-15 11:16:19.81	357.29	6.64	
2025-01-15 11:16:20.01	357.26	6.65	
2025-01-15 11:16:20.21	357.22	6.66	
2025-01-15 11:16:20.42	357.19	6.67	
2025-01-15 11:16:20.62	357.16	6.68	
2025-01-15 11:16:20.82	357.13	6.68	
2025-01-15 11:16:21.02	357.10	6.69	
2025-01-15 11:16:21.23	357.07	6.70	
2025-01-15 11:16:21.43	357.03	6.71	
2025-01-15 11:16:21.63	357.00	6.72	
2025-01-15 11:16:21.84	356.97	6.73	
2025-01-15 11:16:22.04	356.94	6.73	
2025-01-15 11:16:22.24	356.91	6.74	
2025-01-15 11:16:22.44	356.88	6.75	
2025-01-15 11:16:22.65	356.84	6.76	
2025-01-15 11:16:22.85	356.81	6.77	
2025-01-15 11:16:23.05	356.78	6.77	
2025-01-15 11:16:23.26	356.75	6.78	
2025-01-15 11:16:23.46	356.72	6.79	
2025-01-15 11:16:23.66	356.69	6.80	
2025-01-15 11:16:23.87	356.65	6.81	
2025-01-15 11:16:24.07	356.62	6.82	
2025-01-15 11:16:24.27	356.59	6.82	
2025-01-15 11:16:24.47	356.56	6.83	
2025-01-15 11:16:24.68	356.53	6.84	
2025-01-15 11:16:24.88	356.49	6.85	
2025-01-15 11:16:25.08	356.46	6.86	
2025-01-15 11:16:25.29	356.43	6.86	
2025-01-15 11:16:25.49	356.40	6.87	
2025-01-15 11:16:25.69	356.37	6.88	
2025-01-15 11:16:25.89	356.33	6.89	
2025-01-15 11:16:26.10	356.30	6.90	
2025-01-15 11:16:26.30	356.27	6.90	
2025-01-15 11:16:26.50	356.24	6.91	
2025-01-15 11:16:26.71	356.20	6.92	
2025-01-15 11:16:26.91	356.17	6.93	
2025-01-15 11:16:27.11	356.14	6.94	
2025-01-15 11:16:27.32	356.11	6.95	
2025-01-15 11:16:27.52	356.08	6.95	
2025-01-15 11:16:27.72	356.04	6.96	
2025-01-15 11:16:27.92	356.01	6.97	
2025-01-15 11:16:28.13	355.98	6.98	
2025-01-15 11:16:28.33	355.95	6.99	
2025-01-15 11:16:28.53	355.92	6.99	
2025-01-15 11:16:28.74	355.88	7.00	
2025-01-15 11:16:28.94	355.85	7.01	
2025-01-15 11:16:29.14	355.82	7.02	
2025-01-15 11:16:29.34	355.79	7.03	
2025-01-15 11:16:29.55	355.75	7.03	
2025-01-15 11:16:29.75	355.72	7.04	
2025-01-15 11:16:29.95	355.69	7.05	
2025-01-15 11:16:30.16	355.66	7.06	
2025-01-15 11:16:30.36	355.62	7.07	
2025-01-15 11:16:30.56	355.59	7.07	
2025-01-15 11:16:30.77	355.56	7.08	
2025-01-15 11:16:30.97	355.53	7.09	
2025-01-15 11:16:31.17	355.49	7.10	
2025-01-15 11:16:31.37	355.46	7.11	
2025-01-15 11:16:31.58	355.43	7.11	
2025-01-15 11:16:31.78	355.40	7.12	
2025-01-15 11:16:31.98	355.36	7.13	
2025-01-15 11:16:32.19	355.33	7.14	
2025-01-15 11:16:32.39	355.30	7.15	
2025-01-15 11:16:32.59	355.26	7.15	
2025-01-15 11:16:32.80	355.23	7.16	
2025-01-15 11:16:33.00	355.20	7.17	
2025-01-15 11:16:33.20	355.17	7.18	
2025-01-15 11:16:33.40	355.13	7.19	
2025-01-15 11:16:33.61	355.10	7.19	
2025-01-15 11:16:33.81	355.07	7.20	
2025-01-15 11:16:34.01	355.04	7.21	
2025-01-15 11:16:34.22	355.00	7.22	
2025-01-15 11:16:34.42	354.97	7.22	
2025-01-15 11:16:34.62	354.94	7.23	
2025-01-15 11:16:34.82	354.90	7.24	
2025-01-15 11:16:35.03	354.87	7.25	
2025-01-15 11:16:35.23	354.84	7.26	
2025-01-15 11:16:35.43	354.80	7.26	
2025-01-15 11:16:35.64	354.77	7.27	
2025-01-15 11:16:35.84	354.74	7.28	
2025-01-15 11:16:36.04	354.71	7.29	
2025-01-15 11:16:36.25	354.67	7.30	
2025-01-15 11:16:36.45	354.64	7.30	
2025-01-15 11:16:36.65	354.61	7.31	
2025-01-15 11:16:36.85	354.57	7.32	
2025-01-15 11:16:37.06	354.54	7.33	
2025-01-15 11:16:37.26	354.51	7.33	
2025-01-15 11:16:37.46	354.47	7.34	
2025-01-15 11:16:37.67	354.44	7.35	
2025-01-15 11:16:37.87	354.41	7.36	
2025-01-15 11:16:38.07	354.37	7.37	
2025-01-15 11:16:38.27	354.34	7.37	
2025-01-15 11:16:38.48	354.31	7.38	
2025-01-15 11:16:38.68	354.27	7.39	
2025-01-15 11:16:38.88	354.24	7.40	
2025-01-15 11:16:39.09	354.21	7.40	
2025-01-15 11:16:39.29	354.17	7.41	
2025-01-15 11:16:39.49	354.14	7.42	
2025-01-15 11:16:39.70	354.11	7.43	
2025-01-15 11:16:39.90	354.07	7.44	
2025-01-15 11:16:40.10	354.04	7.44	
2025-01-15 11:16:40.30	354.01	7.45	
2025-01-15 11:16:40.51	353.97	7.46	
2025-01-15 11:16:40.71	353.94	7.47	
2025-01-15 11:16:40.91	353.91	7.47	
2025-01-15 11:16:41.12	353.87	7.48	
2025-01-15 11:16:41.32	353.84	7.49	
2025-01-15 11:16:41.52	353.81	7.50	
2025-01-15 11:16:41.73	353.77	7.51	
2025-01-15 11:16:41.93	353.74	7.51	
2025-01-15 11:16:42.13	353.70	7.52	
2025-01-15 11:16:42.33	353.67	7.53	
2025-01-15 11:16:42.54	353.64	7.54	
2025-01-15 11:16:42.74	353.60	7.54	
2025-01-15 11:16:42.94	353.57	7.55	
2025-01-15 11:16:43.15	353.54	7.56	
2025-01-15 11:16:43.35	353.50	7.57	
2025-01-15 11:16:43.55	353.47	7.57	
2025-01-15 11:16:43.75	353.44	7.58	
2025-01-15 11:16:43.96	353.40	7.59	
2025-01-15 11:16:44.16	353.37	7.60	
2025-01-15 11:16:44.36	353.33	7.60	
2025-01-15 11:16:44.57	353.30	7.61	
2025-01-15 11:16:44.77	353.27	7.62	
2025-01-15 11:16:44.97	353.23	7.63	
2025-01-15 11:16:45.18	353.20	7.63	
2025-01-15 11:16:45.38	353.16	7.64	
2025-01-15 11:16:45.58	353.13	7.65	
2025-01-15 11:16:45.78	353.10	7.66	
2025-01-15 11:16:45.99	353.06	7.66	
2025-01-15 11:16:46.19	353.03	7.67	
2025-01-15 11:16:46.39	352.99	7.68	
2025-01-15 11:16:46.60	352.96	7.69	
2025-01-15 11:16:46.80	352.93	7.69	
2025-01-15 11:16:47.00	352.89	7.70	
2025-01-15 11:16:47.20	352.86	7.71	
2025-01-15 11:16:47.41	352.82	7.72	
2025-01-15 11:16:47.61	352.79	7.72	
2025-01-15 11:16:47.81	352.76	7.73	
2025-01-15 11:16:48.02	352.72	7.74	
2025-01-15 11:16:48.22	352.69	7.75	
2025-01-15 11:16:48.42	352.65	7.75	
2025-01-15 11:16:48.63	352.62	7.76	
2025-01-15 11:16:48.83	352.58	7.77	
2025-01-15 11:16:49.03	352.55	7.78	
2025-01-15 11:16:49.23	352.52	7.78	
2025-01-15 11:16:49.44	352.48	7.79	
2025-01-15 11:16:49.64	352.45	7.80	
2025-01-15 11:16:49.84	352.41	7.81	
2025-01-15 11:16:50.05	352.38	7.81	
2025-01-15 11:16:50.25	352.34	7.82	
2025-01-15 11:16:50.45	352.31	7.83	
2025-01-15 11:16:50.65	352.27	7.84	
2025-01-15 11:16:50.86	352.24	7.84	
2025-01-15 11:16:51.06	352.21	7.85	
2025-01-15 11:16:51.26	352.17	7.86	
2025-01-15 11:16:51.47	352.14	7.87	
2025-01-15 11:16:51.67	352.10	7.87	
2025-01-15 11:16:51.87	352.07	7.88	
2025-01-15 11:16:52.08	352.03	7.89	
2025-01-15 11:16:52.28	352.00	7.90	
2025-01-15 11:16:52.48	351.96	7.90	
2025-01-15 11:16:52.68	351.93	7.91	
2025-01-15 11:16:52.89	351.89	7.92	
2025-01-15 11:16:53.09	351.86	7.92	
2025-01-15 11:16:53.29	351.82	7.93	
2025-01-15 11:16:53.50	351.79	7.94	
2025-01-15 11:16:53.70	351.75	7.95	
2025-01-15 11:16:53.90	351.72	7.95	
2025-01-15 11:16:54.11	351.68	7.96	
2025-01-15 11:16:54.31	351.65	7.97	
2025-01-15 11:16:54.51	351.62	7.98	
2025-01-15 11:16:54.71	351.58	7.98	
2025-01-15 11:16:54.92	351.55	7.99	
2025-01-15 11:16:55.12	351.51	8.00	
2025-01-15 11:16:55.32	351.48	8.00	
2025-01-15 11:16:55.53	351.44	8.01	
2025-01-15 11:16:55.73	351.41	8.02	
2025-01-15 11:16:55.93	351.37	8.03	
2025-01-15 11:16:56.13	351.34	8.03	
2025-01-15 11:16:56.34	351.30	8.04	
2025-01-15 11:16:56.54	351.27	8.05	
2025-01-15 11:16:56.74	351.23	8.05	
2025-01-15 11:16:56.95	351.20	8.06	
2025-01-15 11:16:57.15	351.16	8.07	
2025-01-15 11:16:57.35	351.13	8.08	
2025-01-15 11:16:57.56	351.09	8.08	
2025-01-15 11:16:57.76	351.06	8.09	
2025-01-15 11:16:57.96	351.02	8.10	
2025-01-15 11:16:58.16	350.99	8.10	
2025-01-15 11:16:58.37	350.95	8.11	
2025-01-15 11:16:58.57	350.92	8.12	
2025-01-15 11:16:58.77	350.88	8.13	
2025-01-15 11:16:58.98	350.84	8.13	
2025-01-15 11:16:59.18	350.81	8.14	
2025-01-15 11:16:59.38	350.77	8.15	
2025-01-15 11:16:59.58	350.74	8.15	
2025-01-15 11:16:59.79	350.70	8.16	
2025-01-15 11:16:59.99	350.67	8.17	
2025-01-15 11:17:00.19	350.63	8.18	
2025-01-15 11:17:00.40	350.60	8.18	
2025-01-15 11:17:00.60	350.56	8.19	
2025-01-15 11:17:00.80	350.53	8.20	
2025-01-15 11:17:01.01	350.49	8.20	
2025-01-15 11:17:01.21	350.46	8.21	
2025-01-15 11:17:01.41	350.42	8.22	
2025-01-15 11:17:01.61	350.39	8.22	
2025-01-15 11:17:01.82	350.35	8.23	
2025-01-15 11:17:02.02	350.31	8.24	
2025-01-15 11:17:02.22	350.28	8.25	
2025-01-15 11:17:02.43	350.24	8.25	
2025-01-15 11:17:02.63	350.21	8.26	
2025-01-15 11:17:02.83	350.17	8.27	
2025-01-15 11:17:03.03	350.14	8.27	
2025-01-15 11:17:03.24	350.10	8.28	
2025-01-15 11:17:03.44	350.06	8.29	
2025-01-15 11:17:03.64	350.03	8.29	
2025-01-15 11:17:03.85	349.99	8.30	
2025-01-15 11:17:04.05	349.96	8.31	
2025-01-15 11:17:04.25	349.92	8.32	
2025-01-15 11:17:04.46	349.89	8.32	
2025-01-15 11:17:04.66	349.85	8.33	
2025-01-15 11:17:04.86	349.81	8.34	
2025-01-15 11:17:05.06	349.78	8.34	
2025-01-15 11:17:05.27	349.74	8.35	
2025-01-15 11:17:05.47	349.71	8.36	
2025-01-15 11:17:05.67	349.67	8.36	
2025-01-15 11:17:05.88	349.63	8.37	
2025-01-15 11:17:06.08	349.60	8.38	
2025-01-15 11:17:06.28	349.56	8.38	
2025-01-15 11:17:06.49	349.53	8.39	
2025-01-15 11:17:06.69	349.49	8.40	
2025-01-15 11:17:06.89	349.46	8.40	
2025-01-15 11:17:07.09	349.42	8.41	
2025-01-15 11:17:07.30	349.38	8.42	
2025-01-15 11:17:07.50	349.35	8.42	
2025-01-15 11:17:07.70	349.31	8.43	
2025-01-15 11:17:07.91	349.27	8.44	
2025-01-15 11:17:08.11	349.24	8.44	
2025-01-15 11:17:08.31	349.20	8.45	
2025-01-15 11:17:08.51	349.17	8.46	
2025-01-15 11:17:08.72	349.13	8.47	
2025-01-15 11:17:08.92	349.09	8.47	
2025-01-15 11:17:09.12	349.06	8.48	
2025-01-15 11:17:09.33	349.02	8.49	
2025-01-15 11:17:09.53	348.99	8.49	
2025-01-15 11:17:09.73	348.95	8.50	
2025-01-15 11:17:09.94	348.91	8.51	
2025-01-15 11:17:10.14	348.88	8.51	
2025-01-15 11:17:10.34	348.84	8.52	
2025-01-15 11:17:10.54	348.81	8.53	
2025-01-15 11:17:10.75	348.77	8.53	
2025-01-15 11:17:10.95	348.73	8.54	
2025-01-15 11:17:11.15	348.70	8.54	
2025-01-15 11:17:11.36	348.66	8.55	
2025-01-15 11:17:11.56	348.62	8.56	
2025-01-15 11:17:11.76	348.59	8.56	
2025-01-15 11:17:11.96	348.55	8.57	
2025-01-15 11:17:12.17	348.51	8.58	
2025-01-15 11:17:12.37	348.48	8.58	
2025-01-15 11:17:12.57	348.44	8.59	
2025-01-15 11:17:12.78	348.40	8.60	
2025-01-15 11:17:12.98	348.37	8.60	
2025-01-15 11:17:13.18	348.33	8.61	
2025-01-15 11:17:13.39	348.29	8.62	
2025-01-15 11:17:13.59	348.26	8.62	
2025-01-15 11:17:13.79	348.22	8.63	
2025-01-15 11:17:13.99	348.19	8.64	
2025-01-15 11:17:14.20	348.15	8.64	
2025-01-15 11:17:14.40	348.11	8.65	
2025-01-15 11:17:14.60	348.08	8.66	
2025-01-15 11:17:14.81	348.04	8.66	
2025-01-15 11:17:15.01	348.00	8.67	
2025-01-15 11:17:15.21	347.97	8.68	
2025-01-15 11:17:15.41	347.93	8.68	
2025-01-15 11:17:15.62	347.89	8.69	
2025-01-15 11:17:15.82	347.85	8.70	
2025-01-15 11:17:16.02	347.82	8.70	
2025-01-15 11:17:16.23	347.78	8.71	
2025-01-15 11:17:16.43	347.74	8.71	
2025-01-15 11:17:16.63	347.71	8.72	
2025-01-15 11:17:16.84	347.67	8.73	
2025-01-15 11:17:17.04	347.63	8.73	
2025-01-15 11:17:17.24	347.60	8.74	
2025-01-15 11:17:17.44	347.56	8.75	
2025-01-15 11:17:17.65	347.52	8.75	
2025-01-15 11:17:17.85	347.49	8.76	
2025-01-15 11:17:18.05	347.45	8.77	
2025-01-15 11:17:18.26	347.41	8.77	
2025-01-15 11:17:18.46	347.37	8.78	
2025-01-15 11:17:18.66	347.34	8.78	
2025-01-15 11:17:18.87	347.30	8.79	
2025-01-15 11:17:19.07	347.26	8.80	
2025-01-15 11:17:19.27	347.23	8.80	
2025-01-15 11:17:19.47	347.19	8.81	
2025-01-15 11:17:19.68	347.15	8.82	
2025-01-15 11:17:19.88	347.12	8.82	
2025-01-15 11:17:20.08	347.08	8.83	
2025-01-15 11:17:20.29	347.04	8.83	
2025-01-15 11:17:20.49	347.00	8.84	
2025-01-15 11:17:20.69	346.97	8.85	
2025-01-15 11:17:20.89	346.93	8.85	
2025-01-15 11:17:21.10	346.89	8.86	
2025-01-15 11:17:21.30	346.85	8.87	
2025-01-15 11:17:21.50	346.82	8.87	
2025-01-15 11:17:21.71	346.78	8.88	
2025-01-15 11:17:21.91	346.74	8.88	
2025-01-15 11:17:22.11	346.71	8.89	
2025-01-15 11:17:22.32	346.67	8.90	
2025-01-15 11:17:22.52	346.63	8.90	
2025-01-15 11:17:22.72	346.59	8.91	
2025-01-15 11:17:22.92	346.56	8.91	
2025-01-15 11:17:23.13	346.52	8.92	
2025-01-15 11:17:23.33	346.48	8.93	
2025-01-15 11:17:23.53	346.44	8.93	
2025-01-15 11:17:23.74	346.41	8.94	
2025-01-15 11:17:23.94	346.37	8.94	
2025-01-15 11:17:24.14	346.33	8.95	
2025-01-15 11:17:24.34	346.29	8.96	
2025-01-15 11:17:24.55	346.26	8.96	
2025-01-15 11:17:24.75	346.22	8.97	
2025-01-15 11:17:24.95	346.18	8.97	
2025-01-15 11:17:25.16	346.14	8.98	
2025-01-15 11:17:25.36	346.11	8.99	
2025-01-15 11:17:25.56	346.07	8.99	
2025-01-15 11:17:25.77	346.03	9.00	
2025-01-15 11:17:25.97	345.99	9.01	
2025-01-15 11:17:26.17	345.96	9.01	
2025-01-15 11:17:26.37	345.92	9.02	
2025-01-15 11:17:26.58	345.88	9.02	
2025-01-15 11:17:26.78	345.84	9.03	
2025-01-15 11:17:26.98	345.81	9.03	
2025-01-15 11:17:27.19	345.77	9.04	
2025-01-15 11:17:27.39	345.73	9.05	
2025-01-15 11:17:27.59	345.69	9.05	
2025-01-15 11:17:27.79	345.65	9.06	
2025-01-15 11:17:28.00	345.62	9.06	
2025-01-15 11:17:28.20	345.58	9.07	
2025-01-15 11:17:28.40	345.54	9.08	
2025-01-15 11:17:28.61	345.50	9.08	
2025-01-15 11:17:28.81	345.46	9.09	
2025-01-15 11:17:29.01	345.43	9.09	
2025-01-15 11:17:29.22	345.39	9.10	
2025-01-15 11:17:29.42	345.35	9.11	
2025-01-15 11:17:29.62	345.31	9.11	
2025-01-15 11:17:29.82	345.28	9.12	
2025-01-15 11:17:30.03	345.24	9.12	
2025-01-15 11:17:30.23	345.20	9.13	
2025-01-15 11:17:30.43	345.16	9.13	
2025-01-15 11:17:30.64	345.12	9.14	
2025-01-15 11:17:30.84	345.08	9.15	
2025-01-15 11:17:31.04	345.05	9.15	
2025-01-15 11:17:31.25	345.01	9.16	
2025-01-15 11:17:31.45	344.97	9.16	
2025-01-15 11:17:31.65	344.93	9.17	
2025-01-15 11:17:31.85	344.89	9.17	
2025-01-15 11:17:32.06	344.86	9.18	
2025-01-15 11:17:32.26	344.82	9.19	
2025-01-15 11:17:32.46	344.78	9.19	
2025-01-15 11:17:32.67	344.74	9.20	
2025-01-15 11:17:32.87	344.70	9.20	
2025-01-15 11:17:33.07	344.67	9.21	
2025-01-15 11:17:33.27	344.63	9.21	
2025-01-15 11:17:33.48	344.59	9.22	
2025-01-15 11:17:33.68	344.55	9.22	
2025-01-15 11:17:33.88	344.51	9.23	
2025-01-15 11:17:34.09	344.47	9.24	
2025-01-15 11:17:34.29	344.44	9.24	
2025-01-15 11:17:34.49	344.40	9.25	
2025-01-15 11:17:34.70	344.36	9.25	
2025-01-15 11:17:34.90	344.32	9.26	
2025-01-15 11:17:35.10	344.28	9.26	
2025-01-15 11:17:35.30	344.24	9.27	
2025-01-15 11:17:35.51	344.20	9.27	
2025-01-15 11:17:35.71	344.17	9.28	
2025-01-15 11:17:35.91	344.13	9.29	
2025-01-15 11:17:36.12	344.09	9.29	
2025-01-15 11:17:36.32	344.05	9.30	
2025-01-15 11:17:36.52	344.01	9.30	
2025-01-15 11:17:36.72	343.97	9.31	
2025-01-15 11:17:36.93	343.94	9.31	
2025-01-15 11:17:37.13	343.90	9.32	
2025-01-15 11:17:37.33	343.86	9.32	
2025-01-15 11:17:37.54	343.82	9.33	
2025-01-15 11:17:37.74	343.78	9.33	
2025-01-15 11:17:37.94	343.74	9.34	
2025-01-15 11:17:38.15	343.70	9.35	
2025-01-15 11:17:38.35	343.67	9.35	
2025-01-15 11:17:38.55	343.63	9.36	
2025-01-15 11:17:38.75	343.59	9.36	
2025-01-15 11:17:38.96	343.55	9.37	
2025-01-15 11:17:39.16	343.51	9.37	
2025-01-15 11:17:39.36	343.47	9.38	
2025-01-15 11:17:39.57	343.43	9.38	
2025-01-15 11:17:39.77	343.39	9.39	
2025-01-15 11:17:39.97	343.36	9.39	
2025-01-15 11:17:40.18	343.32	9.40	
2025-01-15 11:17:40.38	343.28	9.40	
2025-01-15 11:17:40.58	343.24	9.41	
2025-01-15 11:17:40.78	343.20	9.41	
2025-01-15 11:17:40.99	343.16	9.42	
2025-01-15 11:17:41.19	343.12	9.42	
2025-01-15 11:17:41.39	343.08	9.43	
2025-01-15 11:17:41.60	343.04	9.44	
2025-01-15 11:17:41.80	343.01	9.44	
2025-01-15 11:17:42.00	342.97	9.45	
2025-01-15 11:17:42.20	342.93	9.45	
2025-01-15 11:17:42.41	342.89	9.46	
2025-01-15 11:17:42.61	342.85	9.46	
2025-01-15 11:17:42.81	342.81	9.47	
2025-01-15 11:17:43.02	342.77	9.47	
2025-01-15 11:17:43.22	342.73	9.48	
2025-01-15 11:17:43.42	342.69	9.48	
2025-01-15 11:17:43.63	342.65	9.49	
2025-01-15 11:17:43.83	342.62	9.49	
2025-01-15 11:17:44.03	342.58	9.50	
2025-01-15 11:17:44.23	342.54	9.50	
2025-01-15 11:17:44.44	342.50	9.51	
2025-01-15 11:17:44.64	342.46	9.51	
2025-01-15 11:17:44.84	342.42	9.52	
2025-01-15 11:17:45.05	342.38	9.52	
2025-01-15 11:17:45.25	342.34	9.53	
2025-01-15 11:17:45.45	342.30	9.53	
2025-01-15 11:17:45.65	342.26	9.54	
2025-01-15 11:17:45.86	342.22	9.54	
2025-01-15 11:17:46.06	342.19	9.55	
2025-01-15 11:17:46.26	342.15	9.55	
2025-01-15 11:17:46.47	342.11	9.56	
2025-01-15 11:17:46.67	342.07	9.56	
2025-01-15 11:17:46.87	342.03	9.57	
2025-01-15 11:17:47.08	341.99	9.57	
2025-01-15 11:17:47.28	341.95	9.58	
2025-01-15 11:17:47.48	341.91	9.58	
2025-01-15 11:17:47.68	341.87	9.59	
2025-01-15 11:17:47.89	341.83	9.59	
2025-01-15 11:17:48.09	341.79	9.60	
2025-01-15 11:17:48.29	341.75	9.60	
2025-01-15 11:17:48.50	341.71	9.61	
2025-01-15 11:17:48.70	341.67	9.61	
2025-01-15 11:17:48.90	341.64	9.61	
2025-01-15 11:17:49.10	341.60	9.62	
2025-01-15 11:17:49.31	341.56	9.62	
2025-01-15 11:17:49.51	341.52	9.63	
2025-01-15 11:17:49.71	341.48	9.63	
2025-01-15 11:17:49.92	341.44	9.64	
2025-01-15 11:17:50.12	341.40	9.64	
2025-01-15 11:17:50.32	341.36	9.65	
2025-01-15 11:17:50.53	341.32	9.65	
2025-01-15 11:17:50.73	341.28	9.66	
2025-01-15 11:17:50.93	341.24	9.66	
2025-01-15 11:17:51.13	341.20	9.67	
2025-01-15 11:17:51.34	341.16	9.67	
2025-01-15 11:17:51.54	341.12	9.68	
2025-01-15 11:17:51.74	341.08	9.68	
2025-01-15 11:17:51.95	341.04	9.69	
2025-01-15 11:17:52.15	341.00	9.69	
2025-01-15 11:17:52.35	340.96	9.69	
2025-01-15 11:17:52.55	340.92	9.70	
2025-01-15 11:17:52.76	340.88	9.70	
2025-01-15 11:17:52.96	340.84	9.71	
2025-01-15 11:17:53.16	340.80	9.71	
2025-01-15 11:17:53.37	340.76	9.72	
2025-01-15 11:17:53.57	340.72	9.72	
2025-01-15 11:17:53.77	340.68	9.73	
2025-01-15 11:17:53.98	340.64	9.73	
2025-01-15 11:17:54.18	340.60	9.74	
2025-01-15 11:17:54.38	340.57	9.74	
2025-01-15 11:17:54.58	340.53	9.74	
2025-01-15 11:17:54.79	340.48	9.75	
2025-01-15 11:17:54.99	340.45	9.75	
2025-01-15 11:17:55.19	340.41	9.76	
2025-01-15 11:17:55.40	340.37	9.76	
2025-01-15 11:17:55.60	340.33	9.77	
2025-01-15 11:17:55.80	340.29	9.77	
2025-01-15 11:17:56.01	340.25	9.78	
2025-01-15 11:17:56.21	340.21	9.78	
2025-01-15 11:17:56.41	340.17	9.78	
2025-01-15 11:17:56.61	340.13	9.79	
2025-01-15 11:17:56.82	340.09	9.79	
2025-01-15 11:17:57.02	340.05	9.80	
2025-01-15 11:17:57.22	340.01	9.80	
2025-01-15 11:17:57.43	339.97	9.81	
2025-01-15 11:17:57.63	339.93	9.81	
2025-01-15 11:17:57.83	339.89	9.81	
2025-01-15 11:17:58.03	339.85	9.82	
2025-01-15 11:17:58.24	339.81	9.82	
2025-01-15 11:17:58.44	339.77	9.83	
2025-01-15 11:17:58.64	339.73	9.83	
2025-01-15 11:17:58.85	339.69	9.84	
2025-01-15 11:17:59.05	339.65	9.84	
2025-01-15 11:17:59.25	339.61	9.84	
2025-01-15 11:17:59.46	339.56	9.85	
2025-01-15 11:17:59.66	339.53	9.85	
2025-01-15 11:17:59.86	339.49	9.86	
2025-01-15 11:18:00.06	339.45	9.86	
2025-01-15 11:18:00.27	339.40	9.87	
2025-01-15 11:18:00.47	339.36	9.87	
2025-01-15 11:18:00.67	339.33	9.87	
2025-01-15 11:18:00.88	339.28	9.88	
2025-01-15 11:18:01.08	339.24	9.88	
2025-01-15 11:18:01.28	339.20	9.89	
2025-01-15 11:18:01.48	339.16	9.89	
2025-01-15 11:18:01.69	339.12	9.89	
2025-01-15 11:18:01.89	339.08	9.90	
2025-01-15 11:18:02.09	339.04	9.90	
2025-01-15 11:18:02.30	339.00	9.91	
2025-01-15 11:18:02.50	338.96	9.91	
2025-01-15 11:18:02.70	338.92	9.91	
2025-01-15 11:18:02.91	338.88	9.92	
2025-01-15 11:18:03.11	338.84	9.92	
2025-01-15 11:18:03.31	338.80	9.93	
2025-01-15 11:18:03.51	338.76	9.93	
2025-01-15 11:18:03.72	338.72	9.93	
2025-01-15 11:18:03.92	338.68	9.94	
2025-01-15 11:18:04.12	338.64	9.94	
2025-01-15 11:18:04.33	338.60	9.95	
2025-01-15 11:18:04.53	338.56	9.95	
2025-01-15 11:18:04.73	338.52	9.95	
2025-01-15 11:18:04.93	338.48	9.96	
2025-01-15 11:18:05.14	338.44	9.96	
2025-01-15 11:18:05.34	338.40	9.97	
2025-01-15 11:18:05.54	338.36	9.97	
2025-01-15 11:18:05.75	338.32	9.97	
2025-01-15 11:18:05.95	338.28	9.98	
2025-01-15 11:18:06.15	338.24	9.98	
2025-01-15 11:18:06.36	338.19	9.98	
2025-01-15 11:18:06.56	338.15	9.99	
2025-01-15 11:18:06.76	338.11	9.99	
2025-01-15 11:18:06.96	338.07	10.00	
2025-01-15 11:18:07.17	338.03	10.00	
2025-01-15 11:18:07.37	337.99	10.00	
2025-01-15 11:18:07.57	337.95	10.01	
2025-01-15 11:18:07.78	337.91	10.01	
2025-01-15 11:18:07.98	337.87	10.01	
2025-01-15 11:18:08.18	337.83	10.02	
2025-01-15 11:18:08.39	337.79	10.02	
2025-01-15 11:18:08.59	337.75	10.03	
2025-01-15 11:18:08.79	337.71	10.03	
2025-01-15 11:18:08.99	337.67	10.03	
2025-01-15 11:18:09.20	337.62	10.04	
2025-01-15 11:18:09.40	337.58	10.04	
2025-01-15 11:18:09.60	337.54	10.04	
2025-01-15 11:18:09.81	337.50	10.05	
2025-01-15 11:18:10.01	337.46	10.05	
2025-01-15 11:18:10.21	337.42	10.05	
2025-01-15 11:18:10.41	337.38	10.06	
2025-01-15 11:18:10.62	337.34	10.06	
2025-01-15 11:18:10.82	337.30	10.06	
2025-01-15 11:18:11.02	337.26	10.07	
2025-01-15 11:18:11.23	337.22	10.07	
2025-01-15 11:18:11.43	337.18	10.08	
2025-01-15 11:18:11.63	337.14	10.08	
2025-01-15 11:18:11.84	337.09	10.08	
2025-01-15 11:18:12.04	337.05	10.09	
2025-01-15 11:18:12.24	337.01	10.09	
2025-01-15 11:18:12.44	336.97	10.09	
2025-01-15 11:18:12.65	336.93	10.10	
2025-01-15 11:18:12.85	336.89	10.10	
2025-01-15 11:18:13.05	336.85	10.10	
2025-01-15 11:18:13.26	336.81	10.11	
2025-01-15 11:18:13.46	336.77	10.11	
2025-01-15 11:18:13.66	336.73	10.11	
2025-01-15 11:18:13.86	336.69	10.12	
2025-01-15 11:18:14.07	336.64	10.12	
2025-01-15 11:18:14.27	336.60	10.12	
2025-01-15 11:18:14.47	336.56	10.13	
2025-01-15 11:18:14.68	336.52	10.13	
2025-01-15 11:18:14.88	336.48	10.13	
2025-01-15 11:18:15.08	336.44	10.14	
2025-01-15 11:18:15.29	336.40	10.14	
2025-01-15 11:18:15.49	336.36	10.14	
2025-01-15 11:18:15.69	336.32	10.15	
2025-01-15 11:18:15.89	336.28	10.15	
2025-01-15 11:18:16.10	336.23	10.15	
2025-01-15 11:18:16.30	336.19	10.15	
2025-01-15 11:18:16.50	336.15	10.16	
2025-01-15 11:18:16.71	336.11	10.16	
2025-01-15 11:18:16.91	336.07	10.16	
2025-01-15 11:18:17.11	336.03	10.17	
2025-01-15 11:18:17.32	335.99	10.17	
2025-01-15 11:18:17.52	335.95	10.17	
2025-01-15 11:18:17.72	335.91	10.18	
2025-01-15 11:18:17.92	335.87	10.18	
2025-01-15 11:18:18.13	335.82	10.18	
2025-01-15 11:18:18.33	335.78	10.19	
2025-01-15 11:18:18.53	335.74	10.19	
2025-01-15 11:18:18.74	335.70	10.19	
2025-01-15 11:18:18.94	335.66	10.19	
2025-01-15 11:18:19.14	335.62	10.20	
2025-01-15 11:18:19.34	335.58	10.20	
2025-01-15 11:18:19.55	335.54	10.20	
2025-01-15 11:18:19.75	335.49	10.21	
2025-01-15 11:18:19.95	335.45	10.21	
2025-01-15 11:18:20.16	335.41	10.21	
2025-01-15 11:18:20.36	335.37	10.22	
2025-01-15 11:18:20.56	335.33	10.22	
2025-01-15 11:18:20.77	335.29	10.22	
2025-01-15 11:18:20.97	335.25	10.22	
2025-01-15 11:18:21.17	335.21	10.23	
2025-01-15 11:18:21.37	335.17	10.23	
2025-01-15 11:18:21.58	335.12	10.23	
2025-01-15 11:18:21.78	335.08	10.24	
2025-01-15 11:18:21.98	335.04	10.24	
2025-01-15 11:18:22.19	335.00	10.24	
2025-01-15 11:18:22.39	334.96	10.24	
2025-01-15 11:18:22.59	334.92	10.25	
2025-01-15 11:18:22.79	334.88	10.25	
2025-01-15 11:18:23.00	334.83	10.25	
2025-01-15 11:18:23.20	334.79	10.25	
2025-01-15 11:18:23.40	334.75	10.26	
2025-01-15 11:18:23.61	334.71	10.26	
2025-01-15 11:18:23.81	334.67	10.26	
2025-01-15 11:18:24.01	334.63	10.27	
2025-01-15 11:18:24.22	334.58	10.27	
2025-01-15 11:18:24.42	334.54	10.27	
2025-01-15 11:18:24.62	334.50	10.27	
2025-01-15 11:18:24.82	334.46	10.28	
2025-01-15 11:18:25.03	334.42	10.28	
2025-01-15 11:18:25.23	334.38	10.28	
2025-01-15 11:18:25.43	334.34	10.28	
2025-01-15 11:18:25.64	334.29	10.29	
2025-01-15 11:18:25.84	334.25	10.29	
2025-01-15 11:18:26.04	334.21	10.29	
2025-01-15 11:18:26.24	334.17	10.29	
2025-01-15 11:18:26.45	334.13	10.30	
2025-01-15 11:18:26.65	334.09	10.30	
2025-01-15 11:18:26.85	334.05	10.30	
2025-01-15 11:18:27.06	334.00	10.30	
2025-01-15 11:18:27.26	333.96	10.31	
2025-01-15 11:18:27.46	333.92	10.31	
2025-01-15 11:18:27.67	333.88	10.31	
2025-01-15 11:18:27.87	333.84	10.31	
2025-01-15 11:18:28.07	333.80	10.32	
2025-01-15 11:18:28.27	333.76	10.32	
2025-01-15 11:18:28.48	333.71	10.32	
2025-01-15 11:18:28.68	333.67	10.32	
2025-01-15 11:18:28.88	333.63	10.33	
2025-01-15 11:18:29.09	333.59	10.33	
2025-01-15 11:18:29.29	333.55	10.33	
2025-01-15 11:18:29.49	333.51	10.33	
2025-01-15 11:18:29.70	333.46	10.34	
2025-01-15 11:18:29.90	333.42	10.34	
2025-01-15 11:18:30.10	333.38	10.34	
2025-01-15 11:18:30.30	333.34	10.34	
2025-01-15 11:18:30.51	333.30	10.34	
2025-01-15 11:18:30.71	333.26	10.35	
2025-01-15 11:18:30.91	333.21	10.35	
2025-01-15 11:18:31.12	333.17	10.35	
2025-01-15 11:18:31.32	333.13	10.35	
2025-01-15 11:18:31.52	333.09	10.36	
2025-01-15 11:18:31.72	333.05	10.36	
2025-01-15 11:18:31.93	333.01	10.36	
2025-01-15 11:18:32.13	332.96	10.36	
2025-01-15 11:18:32.33	332.92	10.36	
2025-01-15 11:18:32.54	332.88	10.37	
2025-01-15 11:18:32.74	332.84	10.37	
2025-01-15 11:18:32.94	332.80	10.37	
2025-01-15 11:18:33.15	332.75	10.37	
2025-01-15 11:18:33.35	332.71	10.37	
2025-01-15 11:18:33.55	332.67	10.38	
2025-01-15 11:18:33.75	332.63	10.38	
2025-01-15 11:18:33.96	332.59	10.38	
2025-01-15 11:18:34.16	332.55	10.38	
2025-01-15 11:18:34.36	332.51	10.38	
2025-01-15 11:18:34.57	332.46	10.39	
2025-01-15 11:18:34.77	332.42	10.39	
2025-01-15 11:18:34.97	332.38	10.39	
2025-01-15 11:18:35.17	332.34	10.39	
2025-01-15 11:18:35.38	332.30	10.39	
2025-01-15 11:18:35.58	332.25	10.40	
2025-01-15 11:18:35.78	332.21	10.40	
2025-01-15 11:18:35.99	332.17	10.40	
2025-01-15 11:18:36.19	332.13	10.40	
2025-01-15 11:18:36.39	332.09	10.40	
2025-01-15 11:18:36.60	332.04	10.41	
2025-01-15 11:18:36.80	332.00	10.41	
2025-01-15 11:18:37.00	331.96	10.41	
2025-01-15 11:18:37.20	331.92	10.41	
2025-01-15 11:18:37.41	331.88	10.41	
2025-01-15 11:18:37.61	331.84	10.41	
2025-01-15 11:18:37.81	331.79	10.42	
2025-01-15 11:18:38.02	331.75	10.42	
2025-01-15 11:18:38.22	331.71	10.42	
2025-01-15 11:18:38.42	331.67	10.42	
2025-01-15 11:18:38.62	331.63	10.42	
2025-01-15 11:18:38.83	331.58	10.42	
2025-01-15 11:18:39.03	331.54	10.43	
2025-01-15 11:18:39.23	331.50	10.43	
2025-01-15 11:18:39.44	331.46	10.43	
2025-01-15 11:18:39.64	331.42	10.43	
2025-01-15 11:18:39.84	331.38	10.43	
2025-01-15 11:18:40.05	331.33	10.43	
2025-01-15 11:18:40.25	331.29	10.44	
2025-01-15 11:18:40.45	331.25	10.44	
2025-01-15 11:18:40.65	331.21	10.44	
2025-01-15 11:18:40.86	331.16	10.44	
2025-01-15 11:18:41.06	331.12	10.44	
2025-01-15 11:18:41.26	331.08	10.44	
2025-01-15 11:18:41.47	331.04	10.45	
2025-01-15 11:18:41.67	331.00	10.45	
2025-01-15 11:18:41.87	330.96	10.45	
2025-01-15 11:18:42.08	330.91	10.45	
2025-01-15 11:18:42.28	330.87	10.45	
2025-01-15 11:18:42.48	330.83	10.45	
2025-01-15 11:18:42.68	330.79	10.45	
2025-01-15 11:18:42.89	330.74	10.46	
2025-01-15 11:18:43.09	330.70	10.46	
2025-01-15 11:18:43.29	330.66	10.46	
2025-01-15 11:18:43.50	330.62	10.46	
2025-01-15 11:18:43.70	330.58	10.46	
2025-01-15 11:18:43.90	330.54	10.46	
2025-01-15 11:18:44.10	330.49	10.46	
2025-01-15 11:18:44.31	330.45	10.47	
2025-01-15 11:18:44.51	330.41	10.47	
2025-01-15 11:18:44.71	330.37	10.47	
2025-01-15 11:18:44.92	330.32	10.47	
2025-01-15 11:18:45.12	330.28	10.47	
2025-01-15 11:18:45.32	330.24	10.47	
2025-01-15 11:18:45.53	330.20	10.47	
2025-01-15 11:18:45.73	330.16	10.47	
2025-01-15 11:18:45.93	330.11	10.48	
2025-01-15 11:18:46.13	330.07	10.48	
2025-01-15 11:18:46.34	330.03	10.48	
2025-01-15 11:18:46.54	329.99	10.48	
2025-01-15 11:18:46.74	329.95	10.48	
2025-01-15 11:18:46.95	329.90	10.48	
2025-01-15 11:18:47.15	329.86	10.48	
2025-01-15 11:18:47.35	329.82	10.48	
2025-01-15 11:18:47.55	329.78	10.48	
2025-01-15 11:18:47.76	329.73	10.49	
2025-01-15 11:18:47.96	329.69	10.49	
2025-01-15 11:18:48.16	329.65	10.49	
2025-01-15 11:18:48.37	329.61	10.49	
2025-01-15 11:18:48.57	329.57	10.49	
2025-01-15 11:18:48.77	329.53	10.49	
2025-01-15 11:18:48.98	329.48	10.49	
2025-01-15 11:18:49.18	329.44	10.49	
2025-01-15 11:18:49.38	329.40	10.49	
2025-01-15 11:18:49.58	329.36	10.49	
2025-01-15 11:18:49.79	329.31	10.50	
2025-01-15 11:18:49.99	329.27	10.50	
2025-01-15 11:18:50.19	329.23	10.50	
2025-01-15 11:18:50.40	329.19	10.50	
2025-01-15 11:18:50.60	329.15	10.50	
2025-01-15 11:18:50.80	329.10	10.50	
2025-01-15 11:18:51.00	329.06	10.50	
2025-01-15 11:18:51.21	329.02	10.50	
2025-01-15 11:18:51.41	328.98	10.50	
2025-01-15 11:18:51.61	328.94	10.50	
2025-01-15 11:18:51.82	328.89	10.50	
2025-01-15 11:18:52.02	328.85	10.50	
2025-01-15 11:18:52.22	328.81	10.51	
2025-01-15 11:18:52.43	328.77	10.51	
2025-01-15 11:18:52.63	328.72	10.51	
2025-01-15 11:18:52.83	328.68	10.51	
2025-01-15 11:18:53.03	328.64	10.51	
2025-01-15 11:18:53.24	328.60	10.51	
2025-01-15 11:18:53.44	328.56	10.51	
2025-01-15 11:18:53.64	328.51	10.51	
2025-01-15 11:18:53.85	328.47	10.51	
2025-01-15 11:18:54.05	328.43	10.51	
2025-01-15 11:18:54.25	328.39	10.51	
2025-01-15 11:18:54.46	328.34	10.51	
2025-01-15 11:18:54.66	328.30	10.51	
2025-01-15 11:18:54.86	328.26	10.51	
2025-01-15 11:18:55.06	328.22	10.51	
2025-01-15 11:18:55.27	328.17	10.52	
2025-01-15 11:18:55.47	328.13	10.52	
2025-01-15 11:18:55.67	328.09	10.52	
2025-01-15 11:18:55.88	328.05	10.52	
2025-01-15 11:18:56.08	328.01	10.52	
2025-01-15 11:18:56.28	327.96	10.52	
2025-01-15 11:18:56.48	327.92	10.52	
2025-01-15 11:18:56.69	327.88	10.52	
2025-01-15 11:18:56.89	327.84	10.52	
2025-01-15 11:18:57.09	327.80	10.52	
2025-01-15 11:18:57.30	327.75	10.52	
2025-01-15 11:18:57.50	327.71	10.52	
2025-01-15 11:18:57.70	327.67	10.52	
2025-01-15 11:18:57.91	327.63	10.52	
2025-01-15 11:18:58.11	327.58	10.52	
2025-01-15 11:18:58.31	327.54	10.52	
2025-01-15 11:18:58.51	327.50	10.52	
2025-01-15 11:18:58.72	327.46	10.52	
2025-01-15 11:18:58.92	327.42	10.52	
2025-01-15 11:18:59.12	327.37	10.52	
2025-01-15 11:18:59.33	327.33	10.52	
2025-01-15 11:18:59.53	327.29	10.52	
2025-01-15 11:18:59.73	327.25	10.52	
2025-01-15 11:18:59.93	327.21	10.52	
2025-01-15 11:19:00.14	327.16	10.52	
2025-01-15 11:19:00.34	327.12	10.52	
2025-01-15 11:19:00.54	327.08	10.52	
2025-01-15 11:19:00.75	327.03	10.52	
2025-01-15 11:19:00.95	326.99	10.53	
2025-01-15 11:19:01.15	326.95	10.53	
2025-01-15 11:19:01.36	326.91	10.53	
2025-01-15 11:19:01.56	326.87	10.53	
2025-01-15 11:19:01.76	326.82	10.53	
2025-01-15 11:19:01.96	326.78	10.53	
2025-01-15 11:19:02.17	326.74	10.53	
2025-01-15 11:19:02.37	326.70	10.53	
2025-01-15 11:19:02.57	326.66	10.53	
2025-01-15 11:19:02.78	326.61	10.53	
2025-01-15 11:19:02.98	326.57	10.53	
2025-01-15 11:19:03.18	326.53	10.53	
2025-01-15 11:19:03.38	326.49	10.53	
2025-01-15 11:19:03.59	326.44	10.53	
2025-01-15 11:19:03.79	326.40	10.53	
2025-01-15 11:19:03.99	326.36	10.53	
2025-01-15 11:19:04.20	326.32	10.53	
2025-01-15 11:19:04.40	326.27	10.53	
2025-01-15 11:19:04.60	326.23	10.53	
2025-01-15 11:19:04.81	326.19	10.53	
2025-01-15 11:19:05.01	326.15	10.53	
2025-01-15 11:19:05.21	326.11	10.53	
2025-01-15 11:19:05.41	326.06	10.52	
2025-01-15 11:19:05.62	326.02	10.52	
2025-01-15 11:19:05.82	325.98	10.52	
2025-01-15 11:19:06.02	325.94	10.52	
2025-01-15 11:19:06.23	325.89	10.52	
2025-01-15 11:19:06.43	325.85	10.52	
2025-01-15 11:19:06.63	325.81	10.52	
2025-01-15 11:19:06.84	325.77	10.52	
2025-01-15 11:19:07.04	325.73	10.52	
2025-01-15 11:19:07.24	325.68	10.52	
2025-01-15 11:19:07.44	325.64	10.52	
2025-01-15 11:19:07.65	325.60	10.52	
2025-01-15 11:19:07.85	325.56	10.52	
2025-01-15 11:19:08.05	325.52	10.52	
2025-01-15 11:19:08.26	325.47	10.52	
2025-01-15 11:19:08.46	325.43	10.52	
2025-01-15 11:19:08.66	325.39	10.52	
2025-01-15 11:19:08.86	325.35	10.52	
2025-01-15 11:19:09.07	325.30	10.52	
2025-01-15 11:19:09.27	325.26	10.52	
2025-01-15 11:19:09.47	325.22	10.52	
2025-01-15 11:19:09.68	325.18	10.52	
2025-01-15 11:19:09.88	325.13	10.52	
2025-01-15 11:19:10.08	325.09	10.52	
2025-01-15 11:19:10.29	325.05	10.52	
2025-01-15 11:19:10.49	325.01	10.52	
2025-01-15 11:19:10.69	324.97	10.52	
2025-01-15 11:19:10.89	324.92	10.52	
2025-01-15 11:19:11.10	324.88	10.52	
2025-01-15 11:19:11.30	324.84	10.51	
2025-01-15 11:19:11.50	324.80	10.51	
2025-01-15 11:19:11.71	324.75	10.51	
2025-01-15 11:19:11.91	324.71	10.51	
2025-01-15 11:19:12.11	324.67	10.51	
2025-01-15 11:19:12.31	324.63	10.51	
2025-01-15 11:19:12.52	324.59	10.51	
2025-01-15 11:19:12.72	324.54	10.51	
2025-01-15 11:19:12.92	324.50	10.51	
2025-01-15 11:19:13.13	324.46	10.51	
2025-01-15 11:19:13.33	324.42	10.51	
2025-01-15 11:19:13.53	324.38	10.51	
2025-01-15 11:19:13.74	324.33	10.51	
2025-01-15 11:19:13.94	324.29	10.51	
2025-01-15 11:19:14.14	324.25	10.51	
2025-01-15 11:19:14.34	324.21	10.50	
2025-01-15 11:19:14.55	324.16	10.50	
2025-01-15 11:19:14.75	324.12	10.50	
2025-01-15 11:19:14.95	324.08	10.50	
2025-01-15 11:19:15.16	324.04	10.50	
2025-01-15 11:19:15.36	323.99	10.50	
2025-01-15 11:19:15.56	323.95	10.50	
2025-01-15 11:19:15.77	323.91	10.50	
2025-01-15 11:19:15.97	323.87	10.50	
2025-01-15 11:19:16.17	323.83	10.50	
2025-01-15 11:19:16.37	323.79	10.50	
2025-01-15 11:19:16.58	323.74	10.49	
2025-01-15 11:19:16.78	323.70	10.49	
2025-01-15 11:19:16.98	323.66	10.49	
2025-01-15 11:19:17.19	323.61	10.49	
2025-01-15 11:19:17.39	323.57	10.49	
2025-01-15 11:19:17.59	323.53	10.49	
2025-01-15 11:19:17.79	323.49	10.49	
2025-01-15 11:19:18.00	323.45	10.49	
2025-01-15 11:19:18.20	323.41	10.49	
2025-01-15 11:19:18.40	323.36	10.49	
2025-01-15 11:19:18.61	323.32	10.48	
2025-01-15 11:19:18.81	323.28	10.48	
2025-01-15 11:19:19.01	323.24	10.48	
2025-01-15 11:19:19.22	323.19	10.48	
2025-01-15 11:19:19.42	323.15	10.48	
2025-01-15 11:19:19.62	323.11	10.48	
2025-01-15 11:19:19.82	323.07	10.48	
2025-01-15 11:19:20.03	323.03	10.48	
2025-01-15 11:19:20.23	322.98	10.48	
2025-01-15 11:19:20.43	322.94	10.47	
2025-01-15 11:19:20.64	322.90	10.47	
2025-01-15 11:19:20.84	322.86	10.47	
2025-01-15 11:19:21.04	322.82	10.47	
2025-01-15 11:19:21.24	322.77	10.47	
2025-01-15 11:19:21.45	322.73	10.47	
2025-01-15 11:19:21.65	322.69	10.47	
2025-01-15 11:19:21.85	322.65	10.47	
2025-01-15 11:19:22.06	322.60	10.46	
2025-01-15 11:19:22.26	322.56	10.46	
2025-01-15 11:19:22.46	322.52	10.46	
2025-01-15 11:19:22.67	322.48	10.46	
2025-01-15 11:19:22.87	322.44	10.46	
2025-01-15 11:19:23.07	322.40	10.46	
2025-01-15 11:19:23.27	322.35	10.46	
2025-01-15 11:19:23.48	322.31	10.46	
2025-01-15 11:19:23.68	322.27	10.45	
2025-01-15 11:19:23.88	322.23	10.45	
2025-01-15 11:19:24.09	322.18	10.45	
2025-01-15 11:19:24.29	322.14	10.45	
2025-01-15 11:19:24.49	322.10	10.45	
2025-01-15 11:19:24.69	322.06	10.45	
2025-01-15 11:19:24.90	322.02	10.44	
2025-01-15 11:19:25.10	321.97	10.44	
2025-01-15 11:19:25.30	321.93	10.44	
2025-01-15 11:19:25.51	321.89	10.44	
2025-01-15 11:19:25.71	321.85	10.44	
2025-01-15 11:19:25.91	321.81	10.44	
2025-01-15 11:19:26.12	321.76	10.44	
2025-01-15 11:19:26.32	321.72	10.43	
2025-01-15 11:19:26.52	321.68	10.43	
2025-01-15 11:19:26.72	321.64	10.43	
2025-01-15 11:19:26.93	321.60	10.43	
2025-01-15 11:19:27.13	321.55	10.43	
2025-01-15 11:19:27.33	321.51	10.43	
2025-01-15 11:19:27.54	321.47	10.42	
2025-01-15 11:19:27.74	321.43	10.42	
2025-01-15 11:19:27.94	321.39	10.42	
2025-01-15 11:19:28.15	321.34	10.42	
2025-01-15 11:19:28.35	321.30	10.42	
2025-01-15 11:19:28.55	321.26	10.42	
2025-01-15 11:19:28.75	321.22	10.41	
2025-01-15 11:19:28.96	321.18	10.41	
2025-01-15 11:19:29.16	321.14	10.41	
2025-01-15 11:19:29.36	321.09	10.41	
2025-01-15 11:19:29.57	321.05	10.41	
2025-01-15 11:19:29.77	321.01	10.40	
2025-01-15 11:19:29.97	320.97	10.40	
2025-01-15 11:19:30.17	320.93	10.40	
2025-01-15 11:19:30.38	320.88	10.40	
2025-01-15 11:19:30.58	320.84	10.40	
2025-01-15 11:19:30.78	320.80	10.40	
2025-01-15 11:19:30.99	320.76	10.39	
2025-01-15 11:19:31.19	320.72	10.39	
2025-01-15 11:19:31.39	320.68	10.39	
2025-01-15 11:19:31.60	320.63	10.39	
2025-01-15 11:19:31.80	320.59	10.39	
2025-01-15 11:19:32.00	320.55	10.38	
2025-01-15 11:19:32.20	320.51	10.38	
2025-01-15 11:19:32.41	320.47	10.38	
2025-01-15 11:19:32.61	320.42	10.38	
2025-01-15 11:19:32.81	320.38	10.38	
2025-01-15 11:19:33.02	320.34	10.37	
2025-01-15 11:19:33.22	320.30	10.37	
2025-01-15 11:19:33.42	320.26	10.37	
2025-01-15 11:19:33.62	320.22	10.37	
2025-01-15 11:19:33.83	320.17	10.37	
2025-01-15 11:19:34.03	320.13	10.36	
2025-01-15 11:19:34.23	320.09	10.36	
2025-01-15 11:19:34.44	320.05	10.36	
2025-01-15 11:19:34.64	320.01	10.36	
2025-01-15 11:19:34.84	319.97	10.35	
2025-01-15 11:19:35.05	319.92	10.35	
2025-01-15 11:19:35.25	319.88	10.35	
2025-01-15 11:19:35.45	319.84	10.35	
2025-01-15 11:19:35.65	319.80	10.35	
2025-01-15 11:19:35.86	319.76	10.34	
2025-01-15 11:19:36.06	319.71	10.34	
2025-01-15 11:19:36.26	319.67	10.34	
2025-01-15 11:19:36.47	319.63	10.34	
2025-01-15 11:19:36.67	319.59	10.33	
2025-01-15 11:19:36.87	319.55	10.33	
2025-01-15 11:19:37.07	319.51	10.33	
2025-01-15 11:19:37.28	319.46	10.33	
2025-01-15 11:19:37.48	319.42	10.33	
2025-01-15 11:19:37.68	319.38	10.32	
2025-01-15 11:19:37.89	319.34	10.32	
2025-01-15 11:19:38.09	319.30	10.32	
2025-01-15 11:19:38.29	319.26	10.32	
2025-01-15 11:19:38.50	319.21	10.31	
2025-01-15 11:19:38.70	319.17	10.31	
2025-01-15 11:19:38.90	319.13	10.31	
2025-01-15 11:19:39.10	319.09	10.31	
2025-01-15 11:19:39.31	319.05	10.30	
2025-01-15 11:19:39.51	319.01	10.30	
2025-01-15 11:19:39.71	318.97	10.30	
2025-01-15 11:19:39.92	318.92	10.30	
2025-01-15 11:19:40.12	318.88	10.29	
2025-01-15 11:19:40.32	318.84	10.29	
2025-01-15 11:19:40.53	318.80	10.29	
2025-01-15 11:19:40.73	318.76	10.29	
2025-01-15 11:19:40.93	318.72	10.28	
2025-01-15 11:19:41.13	318.68	10.28	
2025-01-15 11:19:41.34	318.63	10.28	
2025-01-15 11:19:41.54	318.59	10.28	
2025-01-15 11:19:41.74	318.55	10.27	
2025-01-15 11:19:41.95	318.51	10.27	
2025-01-15 11:19:42.15	318.47	10.27	
2025-01-15 11:19:42.35	318.43	10.26	
2025-01-15 11:19:42.55	318.39	10.26	
2025-01-15 11:19:42.76	318.34	10.26	
2025-01-15 11:19:42.96	318.30	10.26	
2025-01-15 11:19:43.16	318.26	10.25	
2025-01-15 11:19:43.37	318.22	10.25	
2025-01-15 11:19:43.57	318.18	10.25	
2025-01-15 11:19:43.77	318.14	10.25	
2025-01-15 11:19:43.98	318.09	10.24	
2025-01-15 11:19:44.18	318.05	10.24	
2025-01-15 11:19:44.38	318.01	10.24	
2025-01-15 11:19:44.58	317.97	10.23	
2025-01-15 11:19:44.79	317.93	10.23	
2025-01-15 11:19:44.99	317.89	10.23	
2025-01-15 11:19:45.19	317.85	10.23	
2025-01-15 11:19:45.40	317.80	10.22	
2025-01-15 11:19:45.60	317.76	10.22	
2025-01-15 11:19:45.80	317.72	10.22	
2025-01-15 11:19:46.00	317.68	10.21	
2025-01-15 11:19:46.21	317.64	10.21	
2025-01-15 11:19:46.41	317.60	10.21	
2025-01-15 11:19:46.61	317.56	10.21	
2025-01-15 11:19:46.82	317.52	10.20	
2025-01-15 11:19:47.02	317.47	10.20	
2025-01-15 11:19:47.22	317.43	10.20	
2025-01-15 11:19:47.43	317.39	10.19	
2025-01-15 11:19:47.63	317.35	10.19	
2025-01-15 11:19:47.83	317.31	10.19	
2025-01-15 11:19:48.03	317.27	10.18	
2025-01-15 11:19:48.24	317.23	10.18	
2025-01-15 11:19:48.44	317.19	10.18	
2025-01-15 11:19:48.64	317.15	10.18	
2025-01-15 11:19:48.85	317.10	10.17	
2025-01-15 11:19:49.05	317.06	10.17	
2025-01-15 11:19:49.25	317.02	10.17	
2025-01-15 11:19:49.45	316.98	10.16	
2025-01-15 11:19:49.66	316.94	10.16	
2025-01-15 11:19:49.86	316.90	10.16	
2025-01-15 11:19:50.06	316.86	10.15	
2025-01-15 11:19:50.27	316.82	10.15	
2025-01-15 11:19:50.47	316.77	10.15	
2025-01-15 11:19:50.67	316.73	10.14	
2025-01-15 11:19:50.88	316.69	10.14	
2025-01-15 11:19:51.08	316.65	10.14	
2025-01-15 11:19:51.28	316.61	10.13	
2025-01-15 11:19:51.48	316.57	10.13	
2025-01-15 11:19:51.69	316.53	10.13	
2025-01-15 11:19:51.89	316.49	10.12	
2025-01-15 11:19:52.09	316.45	10.12	
2025-01-15 11:19:52.30	316.40	10.12	
2025-01-15 11:19:52.50	316.36	10.11	
2025-01-15 11:19:52.70	316.32	10.11	
2025-01-15 11:19:52.91	316.28	10.11	
2025-01-15 11:19:53.11	316.24	10.10	
2025-01-15 11:19:53.31	316.20	10.10	
2025-01-15 11:19:53.51	316.16	10.10	
2025-01-15 11:19:53.72	316.12	10.09	
2025-01-15 11:19:53.92	316.08	10.09	
2025-01-15 11:19:54.12	316.04	10.09	
2025-01-15 11:19:54.33	316.00	10.08	
2025-01-15 11:19:54.53	315.95	10.08	
2025-01-15 11:19:54.73	315.91	10.08	
2025-01-15 11:19:54.93	315.87	10.07	
2025-01-15 11:19:55.14	315.83	10.07	
2025-01-15 11:19:55.34	315.79	10.07	
2025-01-15 11:19:55.54	315.75	10.06	
2025-01-15 11:19:55.75	315.71	10.06	
2025-01-15 11:19:55.95	315.67	10.06	
2025-01-15 11:19:56.15	315.63	10.05	
2025-01-15 11:19:56.36	315.59	10.05	
2025-01-15 11:19:56.56	315.55	10.05	
2025-01-15 11:19:56.76	315.51	10.04	
2025-01-15 11:19:56.96	315.47	10.04	
2025-01-15 11:19:57.17	315.42	10.04	
2025-01-15 11:19:57.37	315.38	10.03	
2025-01-15 11:19:57.57	315.34	10.03	
2025-01-15 11:19:57.78	315.30	10.02	
2025-01-15 11:19:57.98	315.26	10.02	
2025-01-15 11:19:58.18	315.22	10.02	
2025-01-15 11:19:58.38	315.18	10.01	
2025-01-15 11:19:58.59	315.14	10.01	
2025-01-15 11:19:58.79	315.10	10.01	
2025-01-15 11:19:58.99	315.06	10.00	
2025-01-15 11:19:59.20	315.02	10.00	
2025-01-15 11:19:59.40	314.98	9.99	
2025-01-15 11:19:59.60	314.94	9.99	
2025-01-15 11:19:59.81	314.89	9.99	
2025-01-15 11:20:00.01	314.85	9.98	
2025-01-15 11:20:00.21	314.81	9.98	
2025-01-15 11:20:00.41	314.77	9.98	
2025-01-15 11:20:00.63	314.73	9.97	
2025-01-15 11:20:00.84	314.69	9.97	
2025-01-15 11:20:01.04	314.65	9.96	
2025-01-15 11:20:01.24	314.61	9.96	
2025-01-15 11:20:01.44	314.57	9.96	
2025-01-15 11:20:01.65	314.53	9.95	
2025-01-15 11:20:01.85	314.49	9.95	
2025-01-15 11:20:02.05	314.45	9.94	
2025-01-15 11:20:02.26	314.41	9.94	
2025-01-15 11:20:02.46	314.37	9.94	
2025-01-15 11:20:02.66	314.33	9.93	
2025-01-15 11:20:02.87	314.28	9.93	
2025-01-15 11:20:03.07	314.24	9.92	
2025-01-15 11:20:03.27	314.20	9.92	
2025-01-15 11:20:03.47	314.16	9.92	
2025-01-15 11:20:03.68	314.12	9.91	
2025-01-15 11:20:03.88	314.08	9.91	
2025-01-15 11:20:04.08	314.04	9.90	
2025-01-15 11:20:04.29	314.00	9.90	
2025-01-15 11:20:04.49	313.96	9.90	
2025-01-15 11:20:04.69	313.92	9.89	
2025-01-15 11:20:04.89	313.88	9.89	
2025-01-15 11:20:05.10	313.84	9.88	
2025-01-15 11:20:05.30	313.80	9.88	
2025-01-15 11:20:05.50	313.76	9.88	
2025-01-15 11:20:05.71	313.72	9.87	
2025-01-15 11:20:05.91	313.68	9.87	
2025-01-15 11:20:06.11	313.64	9.86	
2025-01-15 11:20:06.32	313.60	9.86	
2025-01-15 11:20:06.52	313.56	9.86	
2025-01-15 11:20:06.72	313.52	9.85	
2025-01-15 11:20:06.92	313.48	9.85	
2025-01-15 11:20:07.13	313.44	9.84	
2025-01-15 11:20:07.33	313.40	9.84	
2025-01-15 11:20:07.53	313.36	9.83	
2025-01-15 11:20:07.74	313.32	9.83	
2025-01-15 11:20:07.94	313.28	9.83	
2025-01-15 11:20:08.14	313.24	9.82	
2025-01-15 11:20:08.34	313.20	9.82	
2025-01-15 11:20:08.55	313.16	9.81	
2025-01-15 11:20:08.75	313.12	9.81	
2025-01-15 11:20:08.95	313.08	9.80	
2025-01-15 11:20:09.16	313.04	9.80	
2025-01-15 11:20:09.36	313.00	9.80	
2025-01-15 11:20:09.56	312.96	9.79	
2025-01-15 11:20:09.77	312.92	9.79	
2025-01-15 11:20:09.97	312.88	9.78	
2025-01-15 11:20:10.17	312.84	9.78	
2025-01-15 11:20:10.37	312.80	9.77	
2025-01-15 11:20:10.58	312.76	9.77	
2025-01-15 11:20:10.78	312.72	9.77	
2025-01-15 11:20:10.98	312.68	9.76	
2025-01-15 11:20:11.19	312.64	9.76	
2025-01-15 11:20:11.39	312.60	9.75	
2025-01-15 11:20:11.59	312.56	9.75	
2025-01-15 11:20:11.80	312.52	9.74	
2025-01-15 11:20:12.00	312.48	9.74	
2025-01-15 11:20:12.20	312.44	9.73	
2025-01-15 11:20:12.40	312.40	9.73	
2025-01-15 11:20:12.61	312.36	9.72	
2025-01-15 11:20:12.81	312.32	9.72	
2025-01-15 11:20:13.01	312.28	9.72	
2025-01-15 11:20:13.22	312.24	9.71	
2025-01-15 11:20:13.42	312.20	9.71	
2025-01-15 11:20:13.62	312.16	9.70	
2025-01-15 11:20:13.82	312.12	9.70	
2025-01-15 11:20:14.03	312.08	9.69	
2025-01-15 11:20:14.23	312.04	9.69	
2025-01-15 11:20:14.43	312.00	9.68	
2025-01-15 11:20:14.64	311.96	9.68	
2025-01-15 11:20:14.84	311.92	9.67	
2025-01-15 11:20:15.04	311.88	9.67	
2025-01-15 11:20:15.25	311.84	9.66	
2025-01-15 11:20:15.45	311.80	9.66	
2025-01-15 11:20:15.65	311.76	9.66	
2025-01-15 11:20:15.85	311.72	9.65	
2025-01-15 11:20:16.06	311.68	9.65	
2025-01-15 11:20:16.26	311.64	9.64	
2025-01-15 11:20:16.46	311.60	9.64	
2025-01-15 11:20:16.67	311.56	9.63	
2025-01-15 11:20:16.87	311.52	9.63	
2025-01-15 11:20:17.07	311.49	9.62	
2025-01-15 11:20:17.27	311.45	9.62	
2025-01-15 11:20:17.48	311.41	9.61	
2025-01-15 11:20:17.68	311.37	9.61	
2025-01-15 11:20:17.88	311.33	9.60	
2025-01-15 11:20:18.09	311.29	9.60	
2025-01-15 11:20:18.29	311.25	9.59	
2025-01-15 11:20:18.49	311.21	9.59	
2025-01-15 11:20:18.70	311.17	9.58	
2025-01-15 11:20:18.90	311.13	9.58	
2025-01-15 11:20:19.10	311.09	9.57	
2025-01-15 11:20:19.30	311.05	9.57	
2025-01-15 11:20:19.51	311.01	9.56	
2025-01-15 11:20:19.71	310.97	9.56	
2025-01-15 11:20:19.91	310.93	9.55	
2025-01-15 11:20:20.12	310.89	9.55	
2025-01-15 11:20:20.32	310.85	9.54	
2025-01-15 11:20:20.52	310.82	9.54	
2025-01-15 11:20:20.73	310.78	9.53	
2025-01-15 11:20:20.93	310.74	9.53	
2025-01-15 11:20:21.13	310.70	9.52	
2025-01-15 11:20:21.33	310.66	9.52	
2025-01-15 11:20:21.54	310.62	9.51	
2025-01-15 11:20:21.74	310.58	9.51	
2025-01-15 11:20:21.94	310.54	9.50	
2025-01-15 11:20:22.15	310.50	9.50	
2025-01-15 11:20:22.35	310.46	9.49	
2025-01-15 11:20:22.55	310.42	9.49	
2025-01-15 11:20:22.75	310.39	9.48	
2025-01-15 11:20:22.96	310.34	9.48	
2025-01-15 11:20:23.16	310.31	9.47	
2025-01-15 11:20:23.36	310.27	9.47	
2025-01-15 11:20:23.57	310.23	9.46	
2025-01-15 11:20:23.77	310.19	9.46	
2025-01-15 11:20:23.97	310.15	9.45	
2025-01-15 11:20:24.18	310.11	9.45	
2025-01-15 11:20:24.38	310.07	9.44	
2025-01-15 11:20:24.58	310.03	9.44	
2025-01-15 11:20:24.78	309.99	9.43	
2025-01-15 11:20:24.99	309.95	9.43	
2025-01-15 11:20:25.19	309.92	9.42	
2025-01-15 11:20:25.39	309.88	9.42	
2025-01-15 11:20:25.60	309.84	9.41	
2025-01-15 11:20:25.80	309.80	9.41	
2025-01-15 11:20:26.00	309.76	9.40	
2025-01-15 11:20:26.20	309.72	9.40	
2025-01-15 11:20:26.41	309.68	9.39	
2025-01-15 11:20:26.61	309.64	9.39	
2025-01-15 11:20:26.81	309.61	9.38	
2025-01-15 11:20:27.02	309.57	9.37	
2025-01-15 11:20:27.22	309.53	9.37	
2025-01-15 11:20:27.42	309.49	9.36	
2025-01-15 11:20:27.63	309.45	9.36	
2025-01-15 11:20:27.83	309.41	9.35	
2025-01-15 11:20:28.03	309.37	9.35	
2025-01-15 11:20:28.23	309.33	9.34	
2025-01-15 11:20:28.44	309.29	9.34	
2025-01-15 11:20:28.64	309.26	9.33	
2025-01-15 11:20:28.84	309.22	9.33	
2025-01-15 11:20:29.05	309.18	9.32	
2025-01-15 11:20:29.25	309.14	9.32	
2025-01-15 11:20:29.45	309.10	9.31	
2025-01-15 11:20:29.65	309.06	9.30	
2025-01-15 11:20:29.86	309.02	9.30	
2025-01-15 11:20:30.06	308.99	9.29	
2025-01-15 11:20:30.26	308.95	9.29	
2025-01-15 11:20:30.47	308.91	9.28	
2025-01-15 11:20:30.67	308.87	9.28	
2025-01-15 11:20:30.87	308.83	9.27	
2025-01-15 11:20:31.08	308.79	9.27	
2025-01-15 11:20:31.28	308.75	9.26	
2025-01-15 11:20:31.48	308.72	9.26	
2025-01-15 11:20:31.68	308.68	9.25	
2025-01-15 11:20:31.89	308.64	9.24	
2025-01-15 11:20:32.09	308.60	9.24	
2025-01-15 11:20:32.29	308.56	9.23	
2025-01-15 11:20:32.50	308.52	9.23	
2025-01-15 11:20:32.70	308.49	9.22	
2025-01-15 11:20:32.90	308.45	9.22	
2025-01-15 11:20:33.10	308.41	9.21	
2025-01-15 11:20:33.31	308.37	9.20	
2025-01-15 11:20:33.51	308.33	9.20	
2025-01-15 11:20:33.71	308.30	9.19	
2025-01-15 11:20:33.92	308.26	9.19	
2025-01-15 11:20:34.12	308.22	9.18	
2025-01-15 11:20:34.32	308.18	9.18	
2025-01-15 11:20:34.53	308.14	9.17	
2025-01-15 11:20:34.73	308.10	9.17	
2025-01-15 11:20:34.93	308.07	9.16	
2025-01-15 11:20:35.13	308.03	9.15	
2025-01-15 11:20:35.34	307.99	9.15	
2025-01-15 11:20:35.54	307.95	9.14	
2025-01-15 11:20:35.74	307.91	9.14	
2025-01-15 11:20:35.95	307.87	9.13	
2025-01-15 11:20:36.15	307.84	9.13	
2025-01-15 11:20:36.35	307.80	9.12	
2025-01-15 11:20:36.56	307.76	9.11	
2025-01-15 11:20:36.76	307.72	9.11	
2025-01-15 11:20:36.96	307.68	9.10	
2025-01-15 11:20:37.16	307.65	9.10	
2025-01-15 11:20:37.37	307.61	9.09	
2025-01-15 11:20:37.57	307.57	9.08	
2025-01-15 11:20:37.77	307.53	9.08	
2025-01-15 11:20:37.98	307.49	9.07	
2025-01-15 11:20:38.18	307.46	9.07	
2025-01-15 11:20:38.38	307.42	9.06	
2025-01-15 11:20:38.58	307.38	9.06	
2025-01-15 11:20:38.79	307.34	9.05	
2025-01-15 11:20:38.99	307.30	9.04	
2025-01-15 11:20:39.19	307.27	9.04	
2025-01-15 11:20:39.40	307.23	9.03	
2025-01-15 11:20:39.60	307.19	9.03	
2025-01-15 11:20:39.80	307.15	9.02	
2025-01-15 11:20:40.01	307.11	9.01	
2025-01-15 11:20:40.21	307.08	9.01	
2025-01-15 11:20:40.41	307.04	9.00	
2025-01-15 11:20:40.61	307.00	9.00	
2025-01-15 11:20:40.82	306.96	8.99	
2025-01-15 11:20:41.02	306.93	8.98	
2025-01-15 11:20:41.22	306.89	8.98	
2025-01-15 11:20:41.43	306.85	8.97	
2025-01-15 11:20:41.63	306.81	8.97	
2025-01-15 11:20:41.83	306.78	8.96	
2025-01-15 11:20:42.03	306.74	8.95	
2025-01-15 11:20:42.24	306.70	8.95	
2025-01-15 11:20:42.44	306.66	8.94	
2025-01-15 11:20:42.64	306.63	8.94	
2025-01-15 11:20:42.85	306.59	8.93	
2025-01-15 11:20:43.05	306.55	8.92	
2025-01-15 11:20:43.25	306.51	8.92	
2025-01-15 11:20:43.46	306.47	8.91	
2025-01-15 11:20:43.66	306.44	8.90	
2025-01-15 11:20:43.86	306.40	8.90	
2025-01-15 11:20:44.06	306.36	8.89	
2025-01-15 11:20:44.27	306.33	8.89	
2025-01-15 11:20:44.47	306.29	8.88	
2025-01-15 11:20:44.67	306.25	8.87	
2025-01-15 11:20:44.88	306.21	8.87	
2025-01-15 11:20:45.08	306.18	8.86	
2025-01-15 11:20:45.28	306.14	8.86	
2025-01-15 11:20:45.49	306.10	8.85	
2025-01-15 11:20:45.69	306.06	8.84	
2025-01-15 11:20:45.89	306.03	8.84	
2025-01-15 11:20:46.09	305.99	8.83	
2025-01-15 11:20:46.30	305.95	8.82	
2025-01-15 11:20:46.50	305.92	8.82	
2025-01-15 11:20:46.70	305.88	8.81	
2025-01-15 11:20:46.91	305.84	8.81	
2025-01-15 11:20:47.11	305.80	8.80	
2025-01-15 11:20:47.31	305.77	8.79	
2025-01-15 11:20:47.51	305.73	8.79	
2025-01-15 11:20:47.72	305.69	8.78	
2025-01-15 11:20:47.92	305.66	8.77	
2025-01-15 11:20:48.12	305.62	8.77	
2025-01-15 11:20:48.33	305.58	8.76	
2025-01-15 11:20:48.53	305.54	8.76	
2025-01-15 11:20:48.73	305.51	8.75	
2025-01-15 11:20:48.94	305.47	8.74	
2025-01-15 11:20:49.14	305.43	8.74	
2025-01-15 11:20:49.34	305.40	8.73	
2025-01-15 11:20:49.54	305.36	8.72	
2025-01-15 11:20:49.75	305.32	8.72	
2025-01-15 11:20:49.95	305.29	8.71	
2025-01-15 11:20:50.15	305.25	8.70	
2025-01-15 11:20:50.36	305.21	8.70	
2025-01-15 11:20:50.56	305.17	8.69	
2025-01-15 11:20:50.76	305.14	8.68	
2025-01-15 11:20:50.96	305.10	8.68	
2025-01-15 11:20:51.17	305.06	8.67	
2025-01-15 11:20:51.37	305.03	8.67	
2025-01-15 11:20:51.57	304.99	8.66	
2025-01-15 11:20:51.78	304.95	8.65	
2025-01-15 11:20:51.98	304.92	8.65	
2025-01-15 11:20:52.18	304.88	8.64	
2025-01-15 11:20:52.39	304.84	8.63	
2025-01-15 11:20:52.59	304.81	8.63	
2025-01-15 11:20:52.79	304.77	8.62	
2025-01-15 11:20:52.99	304.73	8.61	
2025-01-15 11:20:53.20	304.70	8.61	
2025-01-15 11:20:53.40	304.66	8.60	
2025-01-15 11:20:53.60	304.62	8.59	
2025-01-15 11:20:53.81	304.59	8.59	
2025-01-15 11:20:54.01	304.55	8.58	
2025-01-15 11:20:54.21	304.51	8.57	
2025-01-15 11:20:54.41	304.48	8.57	
2025-01-15 11:20:54.62	304.44	8.56	
2025-01-15 11:20:54.82	304.40	8.55	
2025-01-15 11:20:55.02	304.37	8.55	
2025-01-15 11:20:55.23	304.33	8.54	
2025-01-15 11:20:55.43	304.29	8.53	
2025-01-15 11:20:55.63	304.26	8.53	
2025-01-15 11:20:55.84	304.22	8.52	
