passes_logs/2025/01/15/SPB_Silybum_02/SPB_Silybum_02__20250115_093716_TERRA_rec.log

#Pass ID: 20250115_093716_TERRA
#Satellite: TERRA
#Configuration: TERRA
#Start time: 2025-01-15 09:37:16

#Version: 2.0.20230423
#Station: SPB_Silybum_02
#Location: 30.233357 lon 59.946436 lat
#TLE: 1 25994U 99068A   25014.85746573  .00000777  00000+0  16972-3 0  9996
#TLE: 2 25994  98.0216  77.8924 0003456  72.8612  46.8876 14.60394566334056

#Time	Az	El	Level	Level2	SNR	BER	Gain	Gain2
2025-01-15 09:37:18.74	11.09	4.18	
2025-01-15 09:37:18.95	11.08	4.19	
2025-01-15 09:37:19.15	11.07	4.21	
2025-01-15 09:37:19.35	11.05	4.22	
2025-01-15 09:37:19.56	11.04	4.23	
2025-01-15 09:37:19.76	11.03	4.25	
2025-01-15 09:37:19.96	11.02	4.26	
2025-01-15 09:37:20.16	11.00	4.27	
2025-01-15 09:37:20.37	10.99	4.29	
2025-01-15 09:37:20.57	10.98	4.30	
2025-01-15 09:37:20.77	10.97	4.32	
2025-01-15 09:37:20.98	10.95	4.33	
2025-01-15 09:37:21.18	10.94	4.34	
2025-01-15 09:37:21.38	10.93	4.36	
2025-01-15 09:37:21.59	10.91	4.37	
2025-01-15 09:37:21.79	10.90	4.38	
2025-01-15 09:37:21.99	10.89	4.40	
2025-01-15 09:37:22.19	10.88	4.41	
2025-01-15 09:37:22.40	10.86	4.43	
2025-01-15 09:37:22.60	10.85	4.44	
2025-01-15 09:37:22.80	10.84	4.45	
2025-01-15 09:37:23.01	10.83	4.47	
2025-01-15 09:37:23.21	10.81	4.48	
2025-01-15 09:37:23.41	10.80	4.49	
2025-01-15 09:37:23.61	10.79	4.51	
2025-01-15 09:37:23.82	10.77	4.52	
2025-01-15 09:37:24.02	10.76	4.53	
2025-01-15 09:37:24.22	10.75	4.55	
2025-01-15 09:37:24.43	10.74	4.56	
2025-01-15 09:37:24.63	10.72	4.58	
2025-01-15 09:37:24.83	10.71	4.59	
2025-01-15 09:37:25.04	10.70	4.60	
2025-01-15 09:37:25.24	10.68	4.62	
2025-01-15 09:37:25.44	10.67	4.63	
2025-01-15 09:37:25.64	10.66	4.64	
2025-01-15 09:37:25.85	10.65	4.66	
2025-01-15 09:37:26.05	10.63	4.67	
2025-01-15 09:37:26.25	10.62	4.69	
2025-01-15 09:37:26.46	10.61	4.70	
2025-01-15 09:37:26.66	10.59	4.71	
2025-01-15 09:37:26.86	10.58	4.73	
2025-01-15 09:37:27.07	10.57	4.74	
2025-01-15 09:37:27.27	10.55	4.76	
2025-01-15 09:37:27.47	10.54	4.77	
2025-01-15 09:37:27.67	10.53	4.78	
2025-01-15 09:37:27.88	10.52	4.80	
2025-01-15 09:37:28.08	10.50	4.81	
2025-01-15 09:37:28.28	10.49	4.82	
2025-01-15 09:37:28.49	10.48	4.84	
2025-01-15 09:37:28.69	10.46	4.85	
2025-01-15 09:37:28.89	10.45	4.87	
2025-01-15 09:37:29.09	10.44	4.88	
2025-01-15 09:37:29.30	10.42	4.89	
2025-01-15 09:37:29.50	10.41	4.91	
2025-01-15 09:37:29.70	10.40	4.92	
2025-01-15 09:37:29.91	10.38	4.94	
2025-01-15 09:37:30.11	10.37	4.95	
2025-01-15 09:37:30.31	10.36	4.96	
2025-01-15 09:37:30.52	10.34	4.98	
2025-01-15 09:37:30.72	10.33	4.99	
2025-01-15 09:37:30.92	10.32	5.00	
2025-01-15 09:37:31.12	10.30	5.02	
2025-01-15 09:37:31.33	10.29	5.03	
2025-01-15 09:37:31.53	10.28	5.05	
2025-01-15 09:37:31.73	10.26	5.06	
2025-01-15 09:37:31.94	10.25	5.07	
2025-01-15 09:37:32.14	10.24	5.09	
2025-01-15 09:37:32.34	10.22	5.10	
2025-01-15 09:37:32.54	10.21	5.12	
2025-01-15 09:37:32.75	10.20	5.13	
2025-01-15 09:37:32.95	10.18	5.14	
2025-01-15 09:37:33.15	10.17	5.16	
2025-01-15 09:37:33.36	10.16	5.17	
2025-01-15 09:37:33.56	10.14	5.19	
2025-01-15 09:37:33.76	10.13	5.20	
2025-01-15 09:37:33.97	10.12	5.21	
2025-01-15 09:37:34.17	10.10	5.23	
2025-01-15 09:37:34.37	10.09	5.24	
2025-01-15 09:37:34.57	10.08	5.26	
2025-01-15 09:37:34.78	10.06	5.27	
2025-01-15 09:37:34.98	10.05	5.28	
2025-01-15 09:37:35.18	10.03	5.30	
2025-01-15 09:37:35.39	10.02	5.31	
2025-01-15 09:37:35.59	10.01	5.33	
2025-01-15 09:37:35.79	9.99	5.34	
2025-01-15 09:37:35.99	9.98	5.35	
2025-01-15 09:37:36.20	9.97	5.37	
2025-01-15 09:37:36.40	9.95	5.38	
2025-01-15 09:37:36.60	9.94	5.40	
2025-01-15 09:37:36.81	9.92	5.41	
2025-01-15 09:37:37.01	9.91	5.43	
2025-01-15 09:37:37.21	9.90	5.44	
2025-01-15 09:37:37.42	9.88	5.45	
2025-01-15 09:37:37.62	9.87	5.47	
2025-01-15 09:37:37.82	9.86	5.48	
2025-01-15 09:37:38.02	9.84	5.50	
2025-01-15 09:37:38.23	9.83	5.51	
2025-01-15 09:37:38.43	9.81	5.53	
2025-01-15 09:37:38.63	9.80	5.54	
2025-01-15 09:37:38.84	9.79	5.55	
2025-01-15 09:37:39.04	9.77	5.57	
2025-01-15 09:37:39.24	9.76	5.58	
2025-01-15 09:37:39.45	9.74	5.60	
2025-01-15 09:37:39.65	9.73	5.61	
2025-01-15 09:37:39.85	9.72	5.62	
2025-01-15 09:37:40.05	9.70	5.64	
2025-01-15 09:37:40.26	9.69	5.65	
2025-01-15 09:37:40.46	9.67	5.67	
2025-01-15 09:37:40.66	9.66	5.68	
2025-01-15 09:37:40.87	9.65	5.70	
2025-01-15 09:37:41.07	9.63	5.71	
2025-01-15 09:37:41.27	9.62	5.72	
2025-01-15 09:37:41.47	9.60	5.74	
2025-01-15 09:37:41.68	9.59	5.75	
2025-01-15 09:37:41.88	9.58	5.77	
2025-01-15 09:37:42.08	9.56	5.78	
2025-01-15 09:37:42.29	9.55	5.80	
2025-01-15 09:37:42.49	9.53	5.81	
2025-01-15 09:37:42.69	9.52	5.82	
2025-01-15 09:37:42.90	9.50	5.84	
2025-01-15 09:37:43.10	9.49	5.85	
2025-01-15 09:37:43.30	9.48	5.87	
2025-01-15 09:37:43.50	9.46	5.88	
2025-01-15 09:37:43.71	9.45	5.90	
2025-01-15 09:37:43.91	9.43	5.91	
2025-01-15 09:37:44.11	9.42	5.92	
2025-01-15 09:37:44.32	9.40	5.94	
2025-01-15 09:37:44.52	9.39	5.95	
2025-01-15 09:37:44.72	9.38	5.97	
2025-01-15 09:37:44.92	9.36	5.98	
2025-01-15 09:37:45.13	9.35	6.00	
2025-01-15 09:37:45.33	9.33	6.01	
2025-01-15 09:37:45.53	9.32	6.03	
2025-01-15 09:37:45.74	9.30	6.04	
2025-01-15 09:37:45.94	9.29	6.06	
2025-01-15 09:37:46.14	9.28	6.07	
2025-01-15 09:37:46.35	9.26	6.08	
2025-01-15 09:37:46.55	9.25	6.10	
2025-01-15 09:37:46.75	9.23	6.11	
2025-01-15 09:37:46.95	9.22	6.13	
2025-01-15 09:37:47.16	9.20	6.14	
2025-01-15 09:37:47.36	9.19	6.16	
2025-01-15 09:37:47.56	9.17	6.17	
2025-01-15 09:37:47.77	9.16	6.19	
2025-01-15 09:37:47.97	9.14	6.20	
2025-01-15 09:37:48.17	9.13	6.21	
2025-01-15 09:37:48.37	9.12	6.23	
2025-01-15 09:37:48.58	9.10	6.24	
2025-01-15 09:37:48.78	9.09	6.26	
2025-01-15 09:37:48.98	9.07	6.27	
2025-01-15 09:37:49.19	9.06	6.29	
2025-01-15 09:37:49.39	9.04	6.30	
2025-01-15 09:37:49.59	9.03	6.32	
2025-01-15 09:37:49.80	9.01	6.33	
2025-01-15 09:37:50.00	9.00	6.35	
2025-01-15 09:37:50.20	8.98	6.36	
2025-01-15 09:37:50.40	8.97	6.37	
2025-01-15 09:37:50.61	8.95	6.39	
2025-01-15 09:37:50.81	8.94	6.40	
2025-01-15 09:37:51.01	8.92	6.42	
2025-01-15 09:37:51.22	8.91	6.43	
2025-01-15 09:37:51.42	8.89	6.45	
2025-01-15 09:37:51.62	8.88	6.46	
2025-01-15 09:37:51.83	8.86	6.48	
2025-01-15 09:37:52.03	8.85	6.49	
2025-01-15 09:37:52.23	8.83	6.51	
2025-01-15 09:37:52.43	8.82	6.52	
2025-01-15 09:37:52.64	8.80	6.54	
2025-01-15 09:37:52.84	8.79	6.55	
2025-01-15 09:37:53.04	8.77	6.57	
2025-01-15 09:37:53.25	8.76	6.58	
2025-01-15 09:37:53.45	8.74	6.59	
2025-01-15 09:37:53.65	8.73	6.61	
2025-01-15 09:37:53.85	8.71	6.62	
2025-01-15 09:37:54.06	8.70	6.64	
2025-01-15 09:37:54.26	8.68	6.65	
2025-01-15 09:37:54.46	8.67	6.67	
2025-01-15 09:37:54.67	8.65	6.68	
2025-01-15 09:37:54.87	8.64	6.70	
2025-01-15 09:37:55.07	8.62	6.71	
2025-01-15 09:37:55.28	8.61	6.73	
2025-01-15 09:37:55.48	8.59	6.74	
2025-01-15 09:37:55.68	8.58	6.76	
2025-01-15 09:37:55.88	8.56	6.77	
2025-01-15 09:37:56.09	8.54	6.79	
2025-01-15 09:37:56.29	8.53	6.80	
2025-01-15 09:37:56.49	8.51	6.82	
2025-01-15 09:37:56.70	8.50	6.83	
2025-01-15 09:37:56.90	8.48	6.85	
2025-01-15 09:37:57.10	8.47	6.86	
2025-01-15 09:37:57.30	8.45	6.88	
2025-01-15 09:37:57.51	8.44	6.89	
2025-01-15 09:37:57.71	8.42	6.91	
2025-01-15 09:37:57.91	8.41	6.92	
2025-01-15 09:37:58.12	8.39	6.94	
2025-01-15 09:37:58.32	8.37	6.95	
2025-01-15 09:37:58.52	8.36	6.97	
2025-01-15 09:37:58.73	8.34	6.98	
2025-01-15 09:37:58.93	8.33	7.00	
2025-01-15 09:37:59.13	8.31	7.01	
2025-01-15 09:37:59.33	8.30	7.02	
2025-01-15 09:37:59.54	8.28	7.04	
2025-01-15 09:37:59.74	8.27	7.05	
2025-01-15 09:37:59.94	8.25	7.07	
2025-01-15 09:38:00.15	8.23	7.09	
2025-01-15 09:38:00.35	8.22	7.10	
2025-01-15 09:38:00.55	8.20	7.11	
2025-01-15 09:38:00.75	8.19	7.13	
2025-01-15 09:38:00.96	8.17	7.14	
2025-01-15 09:38:01.16	8.16	7.16	
2025-01-15 09:38:01.36	8.14	7.17	
2025-01-15 09:38:01.57	8.12	7.19	
2025-01-15 09:38:01.77	8.11	7.20	
2025-01-15 09:38:01.97	8.09	7.22	
2025-01-15 09:38:02.18	8.08	7.24	
2025-01-15 09:38:02.38	8.06	7.25	
2025-01-15 09:38:02.58	8.04	7.26	
2025-01-15 09:38:02.78	8.03	7.28	
2025-01-15 09:38:02.99	8.01	7.30	
2025-01-15 09:38:03.19	8.00	7.31	
2025-01-15 09:38:03.39	7.98	7.33	
2025-01-15 09:38:03.60	7.96	7.34	
2025-01-15 09:38:03.80	7.95	7.36	
2025-01-15 09:38:04.00	7.93	7.37	
2025-01-15 09:38:04.21	7.92	7.39	
2025-01-15 09:38:04.41	7.90	7.40	
2025-01-15 09:38:04.61	7.88	7.42	
2025-01-15 09:38:04.81	7.87	7.43	
2025-01-15 09:38:05.02	7.85	7.45	
2025-01-15 09:38:05.22	7.84	7.46	
2025-01-15 09:38:05.42	7.82	7.48	
2025-01-15 09:38:05.63	7.80	7.49	
2025-01-15 09:38:05.83	7.79	7.51	
2025-01-15 09:38:06.03	7.77	7.52	
2025-01-15 09:38:06.23	7.76	7.54	
2025-01-15 09:38:06.44	7.74	7.55	
2025-01-15 09:38:06.64	7.72	7.57	
2025-01-15 09:38:06.84	7.71	7.58	
2025-01-15 09:38:07.05	7.69	7.60	
2025-01-15 09:38:07.25	7.67	7.61	
2025-01-15 09:38:07.45	7.66	7.63	
2025-01-15 09:38:07.66	7.64	7.64	
2025-01-15 09:38:07.86	7.62	7.66	
2025-01-15 09:38:08.06	7.61	7.67	
2025-01-15 09:38:08.26	7.59	7.69	
2025-01-15 09:38:08.47	7.58	7.71	
2025-01-15 09:38:08.67	7.56	7.72	
2025-01-15 09:38:08.87	7.54	7.74	
2025-01-15 09:38:09.08	7.53	7.75	
2025-01-15 09:38:09.28	7.51	7.77	
2025-01-15 09:38:09.48	7.49	7.78	
2025-01-15 09:38:09.68	7.48	7.80	
2025-01-15 09:38:09.89	7.46	7.81	
2025-01-15 09:38:10.09	7.44	7.83	
2025-01-15 09:38:10.29	7.43	7.84	
2025-01-15 09:38:10.50	7.41	7.86	
2025-01-15 09:38:10.70	7.39	7.87	
2025-01-15 09:38:10.90	7.38	7.89	
2025-01-15 09:38:11.11	7.36	7.91	
2025-01-15 09:38:11.31	7.34	7.92	
2025-01-15 09:38:11.51	7.33	7.94	
2025-01-15 09:38:11.71	7.31	7.95	
2025-01-15 09:38:11.92	7.29	7.97	
2025-01-15 09:38:12.12	7.28	7.98	
2025-01-15 09:38:12.32	7.26	8.00	
2025-01-15 09:38:12.53	7.24	8.01	
2025-01-15 09:38:12.73	7.22	8.03	
2025-01-15 09:38:12.93	7.21	8.04	
2025-01-15 09:38:13.13	7.19	8.06	
2025-01-15 09:38:13.34	7.17	8.08	
2025-01-15 09:38:13.54	7.16	8.09	
2025-01-15 09:38:13.74	7.14	8.11	
2025-01-15 09:38:13.95	7.12	8.12	
2025-01-15 09:38:14.15	7.11	8.14	
2025-01-15 09:38:14.35	7.09	8.15	
2025-01-15 09:38:14.56	7.07	8.17	
2025-01-15 09:38:14.76	7.05	8.18	
2025-01-15 09:38:14.96	7.04	8.20	
2025-01-15 09:38:15.16	7.02	8.21	
2025-01-15 09:38:15.37	7.00	8.23	
2025-01-15 09:38:15.57	6.99	8.25	
2025-01-15 09:38:15.77	6.97	8.26	
2025-01-15 09:38:15.98	6.95	8.28	
2025-01-15 09:38:16.18	6.93	8.29	
2025-01-15 09:38:16.38	6.92	8.31	
2025-01-15 09:38:16.59	6.90	8.32	
2025-01-15 09:38:16.79	6.88	8.34	
2025-01-15 09:38:16.99	6.87	8.36	
2025-01-15 09:38:17.19	6.85	8.37	
2025-01-15 09:38:17.40	6.83	8.39	
2025-01-15 09:38:17.60	6.81	8.40	
2025-01-15 09:38:17.80	6.80	8.42	
2025-01-15 09:38:18.01	6.78	8.43	
2025-01-15 09:38:18.21	6.76	8.45	
2025-01-15 09:38:18.41	6.74	8.46	
2025-01-15 09:38:18.61	6.73	8.48	
2025-01-15 09:38:18.82	6.71	8.50	
2025-01-15 09:38:19.02	6.69	8.51	
2025-01-15 09:38:19.22	6.67	8.53	
2025-01-15 09:38:19.43	6.66	8.54	
2025-01-15 09:38:19.63	6.64	8.56	
2025-01-15 09:38:19.83	6.62	8.57	
2025-01-15 09:38:20.04	6.60	8.59	
2025-01-15 09:38:20.24	6.59	8.61	
2025-01-15 09:38:20.44	6.57	8.62	
2025-01-15 09:38:20.64	6.55	8.64	
2025-01-15 09:38:20.85	6.53	8.65	
2025-01-15 09:38:21.05	6.51	8.67	
2025-01-15 09:38:21.25	6.50	8.69	
2025-01-15 09:38:21.46	6.48	8.70	
2025-01-15 09:38:21.66	6.46	8.72	
2025-01-15 09:38:21.86	6.44	8.73	
2025-01-15 09:38:22.06	6.43	8.75	
2025-01-15 09:38:22.27	6.41	8.76	
2025-01-15 09:38:22.47	6.39	8.78	
2025-01-15 09:38:22.67	6.37	8.80	
2025-01-15 09:38:22.88	6.35	8.81	
2025-01-15 09:38:23.08	6.34	8.83	
2025-01-15 09:38:23.28	6.32	8.84	
2025-01-15 09:38:23.49	6.30	8.86	
2025-01-15 09:38:23.69	6.28	8.88	
2025-01-15 09:38:23.89	6.26	8.89	
2025-01-15 09:38:24.09	6.25	8.91	
2025-01-15 09:38:24.30	6.23	8.92	
2025-01-15 09:38:24.50	6.21	8.94	
2025-01-15 09:38:24.70	6.19	8.96	
2025-01-15 09:38:24.91	6.17	8.97	
2025-01-15 09:38:25.11	6.16	8.99	
2025-01-15 09:38:25.31	6.14	9.00	
2025-01-15 09:38:25.52	6.12	9.02	
2025-01-15 09:38:25.72	6.10	9.04	
2025-01-15 09:38:25.92	6.08	9.05	
2025-01-15 09:38:26.12	6.06	9.07	
2025-01-15 09:38:26.33	6.05	9.08	
2025-01-15 09:38:26.53	6.03	9.10	
2025-01-15 09:38:26.73	6.01	9.12	
2025-01-15 09:38:26.94	5.99	9.13	
2025-01-15 09:38:27.14	5.97	9.15	
2025-01-15 09:38:27.34	5.95	9.16	
2025-01-15 09:38:27.54	5.94	9.18	
2025-01-15 09:38:27.75	5.92	9.20	
2025-01-15 09:38:27.95	5.90	9.21	
2025-01-15 09:38:28.15	5.88	9.23	
2025-01-15 09:38:28.36	5.86	9.24	
2025-01-15 09:38:28.56	5.84	9.26	
2025-01-15 09:38:28.76	5.82	9.28	
2025-01-15 09:38:28.97	5.81	9.29	
2025-01-15 09:38:29.17	5.79	9.31	
2025-01-15 09:38:29.37	5.77	9.33	
2025-01-15 09:38:29.57	5.75	9.34	
2025-01-15 09:38:29.78	5.73	9.36	
2025-01-15 09:38:29.98	5.71	9.37	
2025-01-15 09:38:30.18	5.69	9.39	
2025-01-15 09:38:30.39	5.67	9.41	
2025-01-15 09:38:30.59	5.66	9.42	
2025-01-15 09:38:30.79	5.64	9.44	
2025-01-15 09:38:30.99	5.62	9.45	
2025-01-15 09:38:31.20	5.60	9.47	
2025-01-15 09:38:31.40	5.58	9.49	
2025-01-15 09:38:31.60	5.56	9.50	
2025-01-15 09:38:31.81	5.54	9.52	
2025-01-15 09:38:32.01	5.52	9.54	
2025-01-15 09:38:32.21	5.50	9.55	
2025-01-15 09:38:32.42	5.49	9.57	
2025-01-15 09:38:32.62	5.47	9.59	
2025-01-15 09:38:32.82	5.45	9.60	
2025-01-15 09:38:33.02	5.43	9.62	
2025-01-15 09:38:33.23	5.41	9.63	
2025-01-15 09:38:33.43	5.39	9.65	
2025-01-15 09:38:33.63	5.37	9.67	
2025-01-15 09:38:33.84	5.35	9.68	
2025-01-15 09:38:34.04	5.33	9.70	
2025-01-15 09:38:34.24	5.31	9.72	
2025-01-15 09:38:34.44	5.29	9.73	
2025-01-15 09:38:34.65	5.27	9.75	
2025-01-15 09:38:34.85	5.26	9.77	
2025-01-15 09:38:35.05	5.24	9.78	
2025-01-15 09:38:35.26	5.22	9.80	
2025-01-15 09:38:35.46	5.20	9.81	
2025-01-15 09:38:35.66	5.18	9.83	
2025-01-15 09:38:35.87	5.16	9.85	
2025-01-15 09:38:36.07	5.14	9.86	
2025-01-15 09:38:36.27	5.12	9.88	
2025-01-15 09:38:36.47	5.10	9.90	
2025-01-15 09:38:36.68	5.08	9.91	
2025-01-15 09:38:36.88	5.06	9.93	
2025-01-15 09:38:37.08	5.04	9.95	
2025-01-15 09:38:37.29	5.02	9.96	
2025-01-15 09:38:37.49	5.00	9.98	
2025-01-15 09:38:37.69	4.98	10.00	
2025-01-15 09:38:37.90	4.96	10.01	
2025-01-15 09:38:38.10	4.94	10.03	
2025-01-15 09:38:38.30	4.92	10.05	
2025-01-15 09:38:38.50	4.90	10.06	
2025-01-15 09:38:38.71	4.88	10.08	
2025-01-15 09:38:38.91	4.86	10.10	
2025-01-15 09:38:39.11	4.84	10.11	
2025-01-15 09:38:39.32	4.82	10.13	
2025-01-15 09:38:39.52	4.80	10.15	
2025-01-15 09:38:39.72	4.78	10.16	
2025-01-15 09:38:39.92	4.77	10.18	
2025-01-15 09:38:40.13	4.74	10.20	
2025-01-15 09:38:40.33	4.72	10.21	
2025-01-15 09:38:40.53	4.71	10.23	
2025-01-15 09:38:40.74	4.68	10.25	
2025-01-15 09:38:40.94	4.66	10.26	
2025-01-15 09:38:41.14	4.65	10.28	
2025-01-15 09:38:41.35	4.62	10.30	
2025-01-15 09:38:41.55	4.60	10.31	
2025-01-15 09:38:41.75	4.58	10.33	
2025-01-15 09:38:41.95	4.56	10.34	
2025-01-15 09:38:42.16	4.54	10.36	
2025-01-15 09:38:42.36	4.52	10.38	
2025-01-15 09:38:42.56	4.50	10.40	
2025-01-15 09:38:42.77	4.48	10.41	
2025-01-15 09:38:42.97	4.46	10.43	
2025-01-15 09:38:43.17	4.44	10.45	
2025-01-15 09:38:43.37	4.42	10.46	
2025-01-15 09:38:43.58	4.40	10.48	
2025-01-15 09:38:43.78	4.38	10.50	
2025-01-15 09:38:43.98	4.36	10.51	
2025-01-15 09:38:44.19	4.34	10.53	
2025-01-15 09:38:44.39	4.32	10.55	
2025-01-15 09:38:44.59	4.30	10.56	
2025-01-15 09:38:44.80	4.28	10.58	
2025-01-15 09:38:45.00	4.26	10.60	
2025-01-15 09:38:45.20	4.24	10.61	
2025-01-15 09:38:45.40	4.22	10.63	
2025-01-15 09:38:45.61	4.20	10.65	
2025-01-15 09:38:45.81	4.18	10.66	
2025-01-15 09:38:46.01	4.16	10.68	
2025-01-15 09:38:46.22	4.13	10.70	
2025-01-15 09:38:46.42	4.11	10.72	
2025-01-15 09:38:46.62	4.09	10.73	
2025-01-15 09:38:46.82	4.07	10.75	
2025-01-15 09:38:47.03	4.05	10.77	
2025-01-15 09:38:47.23	4.03	10.78	
2025-01-15 09:38:47.43	4.01	10.80	
2025-01-15 09:38:47.64	3.99	10.82	
2025-01-15 09:38:47.84	3.97	10.83	
2025-01-15 09:38:48.04	3.95	10.85	
2025-01-15 09:38:48.25	3.93	10.87	
2025-01-15 09:38:48.45	3.90	10.89	
2025-01-15 09:38:48.65	3.88	10.90	
2025-01-15 09:38:48.85	3.86	10.92	
2025-01-15 09:38:49.06	3.84	10.94	
2025-01-15 09:38:49.26	3.82	10.95	
2025-01-15 09:38:49.46	3.80	10.97	
2025-01-15 09:38:49.67	3.78	10.99	
2025-01-15 09:38:49.87	3.76	11.00	
2025-01-15 09:38:50.07	3.74	11.02	
2025-01-15 09:38:50.28	3.71	11.04	
2025-01-15 09:38:50.48	3.69	11.06	
2025-01-15 09:38:50.68	3.67	11.07	
2025-01-15 09:38:50.88	3.65	11.09	
2025-01-15 09:38:51.09	3.63	11.11	
2025-01-15 09:38:51.29	3.61	11.12	
2025-01-15 09:38:51.49	3.59	11.14	
2025-01-15 09:38:51.70	3.56	11.16	
2025-01-15 09:38:51.90	3.54	11.18	
2025-01-15 09:38:52.10	3.52	11.19	
2025-01-15 09:38:52.30	3.50	11.21	
2025-01-15 09:38:52.51	3.48	11.23	
2025-01-15 09:38:52.71	3.46	11.24	
2025-01-15 09:38:52.91	3.44	11.26	
2025-01-15 09:38:53.12	3.41	11.28	
2025-01-15 09:38:53.32	3.39	11.30	
2025-01-15 09:38:53.52	3.37	11.31	
2025-01-15 09:38:53.73	3.35	11.33	
2025-01-15 09:38:53.93	3.33	11.35	
2025-01-15 09:38:54.13	3.30	11.37	
2025-01-15 09:38:54.33	3.28	11.38	
2025-01-15 09:38:54.54	3.26	11.40	
2025-01-15 09:38:54.74	3.24	11.42	
2025-01-15 09:38:54.94	3.22	11.43	
2025-01-15 09:38:55.15	3.19	11.45	
2025-01-15 09:38:55.35	3.17	11.47	
2025-01-15 09:38:55.55	3.15	11.49	
2025-01-15 09:38:55.75	3.13	11.50	
2025-01-15 09:38:55.96	3.11	11.52	
2025-01-15 09:38:56.16	3.08	11.54	
2025-01-15 09:38:56.36	3.06	11.56	
2025-01-15 09:38:56.57	3.04	11.57	
2025-01-15 09:38:56.77	3.02	11.59	
2025-01-15 09:38:56.97	3.00	11.61	
2025-01-15 09:38:57.18	2.97	11.63	
2025-01-15 09:38:57.38	2.95	11.64	
2025-01-15 09:38:57.58	2.93	11.66	
2025-01-15 09:38:57.78	2.91	11.68	
2025-01-15 09:38:57.99	2.88	11.70	
2025-01-15 09:38:58.19	2.86	11.71	
2025-01-15 09:38:58.39	2.84	11.73	
2025-01-15 09:38:58.60	2.82	11.75	
2025-01-15 09:38:58.80	2.79	11.77	
2025-01-15 09:38:59.00	2.77	11.78	
2025-01-15 09:38:59.20	2.75	11.80	
2025-01-15 09:38:59.41	2.73	11.82	
2025-01-15 09:38:59.61	2.70	11.84	
2025-01-15 09:38:59.81	2.68	11.85	
2025-01-15 09:39:00.02	2.66	11.87	
2025-01-15 09:39:00.22	2.64	11.89	
2025-01-15 09:39:00.42	2.61	11.91	
2025-01-15 09:39:00.63	2.59	11.92	
2025-01-15 09:39:00.83	2.57	11.94	
2025-01-15 09:39:01.03	2.55	11.96	
2025-01-15 09:39:01.23	2.52	11.98	
2025-01-15 09:39:01.44	2.50	11.99	
2025-01-15 09:39:01.64	2.48	12.01	
2025-01-15 09:39:01.84	2.45	12.03	
2025-01-15 09:39:02.05	2.43	12.05	
2025-01-15 09:39:02.25	2.41	12.07	
2025-01-15 09:39:02.45	2.39	12.08	
2025-01-15 09:39:02.66	2.36	12.10	
2025-01-15 09:39:02.86	2.34	12.12	
2025-01-15 09:39:03.06	2.32	12.14	
2025-01-15 09:39:03.26	2.29	12.15	
2025-01-15 09:39:03.47	2.27	12.17	
2025-01-15 09:39:03.67	2.25	12.19	
2025-01-15 09:39:03.87	2.22	12.21	
2025-01-15 09:39:04.08	2.20	12.23	
2025-01-15 09:39:04.28	2.18	12.24	
2025-01-15 09:39:04.48	2.15	12.26	
2025-01-15 09:39:04.68	2.13	12.28	
2025-01-15 09:39:04.89	2.11	12.30	
2025-01-15 09:39:05.09	2.08	12.31	
2025-01-15 09:39:05.29	2.06	12.33	
2025-01-15 09:39:05.50	2.04	12.35	
2025-01-15 09:39:05.70	2.01	12.37	
2025-01-15 09:39:05.90	1.99	12.38	
2025-01-15 09:39:06.11	1.96	12.40	
2025-01-15 09:39:06.31	1.94	12.42	
2025-01-15 09:39:06.51	1.92	12.44	
2025-01-15 09:39:06.71	1.89	12.46	
2025-01-15 09:39:06.92	1.87	12.47	
2025-01-15 09:39:07.12	1.85	12.49	
2025-01-15 09:39:07.32	1.82	12.51	
2025-01-15 09:39:07.53	1.80	12.53	
2025-01-15 09:39:07.73	1.78	12.55	
2025-01-15 09:39:07.93	1.75	12.56	
2025-01-15 09:39:08.13	1.73	12.58	
2025-01-15 09:39:08.34	1.70	12.60	
2025-01-15 09:39:08.54	1.68	12.62	
2025-01-15 09:39:08.74	1.66	12.64	
2025-01-15 09:39:08.95	1.63	12.65	
2025-01-15 09:39:09.15	1.61	12.67	
2025-01-15 09:39:09.35	1.58	12.69	
2025-01-15 09:39:09.56	1.56	12.71	
2025-01-15 09:39:09.76	1.54	12.73	
2025-01-15 09:39:09.96	1.51	12.74	
2025-01-15 09:39:10.16	1.49	12.76	
2025-01-15 09:39:10.37	1.46	12.78	
2025-01-15 09:39:10.57	1.44	12.80	
2025-01-15 09:39:10.77	1.41	12.82	
2025-01-15 09:39:10.98	1.39	12.83	
2025-01-15 09:39:11.18	1.37	12.85	
2025-01-15 09:39:11.38	1.34	12.87	
2025-01-15 09:39:11.58	1.32	12.89	
2025-01-15 09:39:11.79	1.29	12.91	
2025-01-15 09:39:11.99	1.27	12.93	
2025-01-15 09:39:12.19	1.24	12.94	
2025-01-15 09:39:12.40	1.22	12.96	
2025-01-15 09:39:12.60	1.19	12.98	
2025-01-15 09:39:12.80	1.17	13.00	
2025-01-15 09:39:13.01	1.14	13.02	
2025-01-15 09:39:13.21	1.12	13.03	
2025-01-15 09:39:13.41	1.09	13.05	
2025-01-15 09:39:13.61	1.07	13.07	
2025-01-15 09:39:13.82	1.04	13.09	
2025-01-15 09:39:14.02	1.02	13.11	
2025-01-15 09:39:14.22	1.00	13.13	
2025-01-15 09:39:14.43	0.97	13.14	
2025-01-15 09:39:14.63	0.95	13.16	
2025-01-15 09:39:14.83	0.92	13.18	
2025-01-15 09:39:15.04	0.89	13.20	
2025-01-15 09:39:15.24	0.87	13.22	
2025-01-15 09:39:15.44	0.85	13.24	
2025-01-15 09:39:15.64	0.82	13.25	
2025-01-15 09:39:15.85	0.79	13.27	
2025-01-15 09:39:16.05	0.77	13.29	
2025-01-15 09:39:16.25	0.74	13.31	
2025-01-15 09:39:16.46	0.72	13.33	
2025-01-15 09:39:16.66	0.69	13.35	
2025-01-15 09:39:16.86	0.67	13.36	
2025-01-15 09:39:17.06	0.64	13.38	
2025-01-15 09:39:17.27	0.62	13.40	
2025-01-15 09:39:17.47	0.59	13.42	
2025-01-15 09:39:17.67	0.57	13.44	
2025-01-15 09:39:17.88	0.54	13.46	
2025-01-15 09:39:18.08	0.52	13.47	
2025-01-15 09:39:18.28	0.49	13.49	
2025-01-15 09:39:18.49	0.46	13.51	
2025-01-15 09:39:18.69	0.44	13.53	
2025-01-15 09:39:18.89	0.41	13.55	
2025-01-15 09:39:19.09	0.39	13.57	
2025-01-15 09:39:19.30	0.36	13.59	
2025-01-15 09:39:19.50	0.34	13.60	
2025-01-15 09:39:19.70	0.31	13.62	
2025-01-15 09:39:19.91	0.28	13.64	
2025-01-15 09:39:20.11	0.26	13.66	
2025-01-15 09:39:20.31	0.23	13.68	
2025-01-15 09:39:20.51	0.21	13.70	
2025-01-15 09:39:20.72	0.18	13.72	
2025-01-15 09:39:20.92	0.15	13.73	
2025-01-15 09:39:21.12	0.13	13.75	
2025-01-15 09:39:21.33	0.10	13.77	
2025-01-15 09:39:21.53	0.08	13.79	
2025-01-15 09:39:21.73	0.05	13.81	
2025-01-15 09:39:21.94	0.02	13.83	
2025-01-15 09:39:22.14	360.00	13.85	
2025-01-15 09:39:22.34	359.97	13.86	
2025-01-15 09:39:22.54	359.95	13.88	
2025-01-15 09:39:22.75	359.92	13.90	
2025-01-15 09:39:22.95	359.89	13.92	
2025-01-15 09:39:23.15	359.87	13.94	
2025-01-15 09:39:23.36	359.84	13.96	
2025-01-15 09:39:23.56	359.81	13.98	
2025-01-15 09:39:23.76	359.79	14.00	
2025-01-15 09:39:23.97	359.76	14.01	
2025-01-15 09:39:24.17	359.73	14.03	
2025-01-15 09:39:24.37	359.71	14.05	
2025-01-15 09:39:24.57	359.68	14.07	
2025-01-15 09:39:24.78	359.65	14.09	
2025-01-15 09:39:24.98	359.63	14.11	
2025-01-15 09:39:25.18	359.60	14.13	
2025-01-15 09:39:25.39	359.57	14.15	
2025-01-15 09:39:25.59	359.55	14.16	
2025-01-15 09:39:25.79	359.52	14.18	
2025-01-15 09:39:25.99	359.49	14.20	
2025-01-15 09:39:26.20	359.46	14.22	
2025-01-15 09:39:26.40	359.44	14.24	
2025-01-15 09:39:26.60	359.41	14.26	
2025-01-15 09:39:26.81	359.38	14.28	
2025-01-15 09:39:27.01	359.36	14.30	
2025-01-15 09:39:27.21	359.33	14.31	
2025-01-15 09:39:27.42	359.30	14.33	
2025-01-15 09:39:27.62	359.27	14.35	
2025-01-15 09:39:27.82	359.25	14.37	
2025-01-15 09:39:28.02	359.22	14.39	
2025-01-15 09:39:28.23	359.19	14.41	
2025-01-15 09:39:28.43	359.16	14.43	
2025-01-15 09:39:28.63	359.14	14.45	
2025-01-15 09:39:28.84	359.11	14.47	
2025-01-15 09:39:29.04	359.08	14.49	
2025-01-15 09:39:29.24	359.05	14.50	
2025-01-15 09:39:29.44	359.03	14.52	
2025-01-15 09:39:29.65	359.00	14.54	
2025-01-15 09:39:29.85	358.97	14.56	
2025-01-15 09:39:30.05	358.94	14.58	
2025-01-15 09:39:30.26	358.92	14.60	
2025-01-15 09:39:30.46	358.89	14.62	
2025-01-15 09:39:30.66	358.86	14.64	
2025-01-15 09:39:30.87	358.83	14.66	
2025-01-15 09:39:31.07	358.80	14.68	
2025-01-15 09:39:31.27	358.78	14.70	
2025-01-15 09:39:31.47	358.75	14.71	
2025-01-15 09:39:31.68	358.72	14.73	
2025-01-15 09:39:31.88	358.69	14.75	
2025-01-15 09:39:32.08	358.67	14.77	
2025-01-15 09:39:32.29	358.64	14.79	
2025-01-15 09:39:32.49	358.61	14.81	
2025-01-15 09:39:32.69	358.58	14.83	
2025-01-15 09:39:32.89	358.55	14.85	
2025-01-15 09:39:33.10	358.52	14.87	
2025-01-15 09:39:33.30	358.50	14.89	
2025-01-15 09:39:33.50	358.47	14.91	
2025-01-15 09:39:33.71	358.44	14.93	
2025-01-15 09:39:33.91	358.41	14.94	
2025-01-15 09:39:34.11	358.38	14.96	
2025-01-15 09:39:34.32	358.35	14.98	
2025-01-15 09:39:34.52	358.32	15.00	
2025-01-15 09:39:34.72	358.30	15.02	
2025-01-15 09:39:34.92	358.27	15.04	
2025-01-15 09:39:35.13	358.24	15.06	
2025-01-15 09:39:35.33	358.21	15.08	
2025-01-15 09:39:35.53	358.18	15.10	
2025-01-15 09:39:35.74	358.15	15.12	
2025-01-15 09:39:35.94	358.12	15.14	
2025-01-15 09:39:36.14	358.09	15.16	
2025-01-15 09:39:36.35	358.06	15.18	
2025-01-15 09:39:36.55	358.04	15.20	
2025-01-15 09:39:36.75	358.01	15.21	
2025-01-15 09:39:36.95	357.98	15.23	
2025-01-15 09:39:37.16	357.95	15.25	
2025-01-15 09:39:37.36	357.92	15.27	
2025-01-15 09:39:37.56	357.89	15.29	
2025-01-15 09:39:37.77	357.86	15.31	
2025-01-15 09:39:37.97	357.83	15.33	
2025-01-15 09:39:38.17	357.80	15.35	
2025-01-15 09:39:38.37	357.77	15.37	
2025-01-15 09:39:38.58	357.74	15.39	
2025-01-15 09:39:38.78	357.71	15.41	
2025-01-15 09:39:38.98	357.69	15.43	
2025-01-15 09:39:39.19	357.65	15.45	
2025-01-15 09:39:39.39	357.63	15.47	
2025-01-15 09:39:39.59	357.60	15.49	
2025-01-15 09:39:39.80	357.57	15.51	
2025-01-15 09:39:40.00	357.54	15.53	
2025-01-15 09:39:40.20	357.51	15.55	
2025-01-15 09:39:40.40	357.48	15.56	
2025-01-15 09:39:40.61	357.45	15.59	
2025-01-15 09:39:40.81	357.42	15.60	
2025-01-15 09:39:41.01	357.39	15.62	
2025-01-15 09:39:41.22	357.36	15.64	
2025-01-15 09:39:41.42	357.33	15.66	
2025-01-15 09:39:41.62	357.30	15.68	
2025-01-15 09:39:41.82	357.27	15.70	
2025-01-15 09:39:42.03	357.24	15.72	
2025-01-15 09:39:42.23	357.21	15.74	
2025-01-15 09:39:42.43	357.18	15.76	
2025-01-15 09:39:42.64	357.15	15.78	
2025-01-15 09:39:42.84	357.12	15.80	
2025-01-15 09:39:43.04	357.09	15.82	
2025-01-15 09:39:43.25	357.05	15.84	
2025-01-15 09:39:43.45	357.02	15.86	
2025-01-15 09:39:43.65	356.99	15.88	
2025-01-15 09:39:43.85	356.96	15.90	
2025-01-15 09:39:44.06	356.93	15.92	
2025-01-15 09:39:44.26	356.90	15.94	
2025-01-15 09:39:44.46	356.87	15.96	
2025-01-15 09:39:44.67	356.84	15.98	
2025-01-15 09:39:44.87	356.81	16.00	
2025-01-15 09:39:45.07	356.78	16.02	
2025-01-15 09:39:45.27	356.75	16.04	
2025-01-15 09:39:45.48	356.72	16.06	
2025-01-15 09:39:45.68	356.69	16.08	
2025-01-15 09:39:45.88	356.66	16.10	
2025-01-15 09:39:46.09	356.62	16.12	
2025-01-15 09:39:46.29	356.59	16.14	
2025-01-15 09:39:46.49	356.56	16.16	
2025-01-15 09:39:46.70	356.53	16.18	
2025-01-15 09:39:46.90	356.50	16.20	
2025-01-15 09:39:47.10	356.47	16.22	
2025-01-15 09:39:47.30	356.44	16.24	
2025-01-15 09:39:47.51	356.41	16.26	
2025-01-15 09:39:47.71	356.38	16.28	
2025-01-15 09:39:47.91	356.34	16.29	
2025-01-15 09:39:48.12	356.31	16.32	
2025-01-15 09:39:48.32	356.28	16.34	
2025-01-15 09:39:48.52	356.25	16.35	
2025-01-15 09:39:48.73	356.22	16.38	
2025-01-15 09:39:48.93	356.19	16.40	
2025-01-15 09:39:49.13	356.15	16.41	
2025-01-15 09:39:49.33	356.12	16.43	
2025-01-15 09:39:49.54	356.09	16.46	
2025-01-15 09:39:49.74	356.06	16.47	
2025-01-15 09:39:49.94	356.03	16.49	
2025-01-15 09:39:50.15	355.99	16.52	
2025-01-15 09:39:50.35	355.96	16.53	
2025-01-15 09:39:50.55	355.93	16.55	
2025-01-15 09:39:50.75	355.90	16.57	
2025-01-15 09:39:50.96	355.87	16.60	
2025-01-15 09:39:51.16	355.83	16.61	
2025-01-15 09:39:51.36	355.80	16.63	
2025-01-15 09:39:51.57	355.77	16.66	
2025-01-15 09:39:51.77	355.74	16.68	
2025-01-15 09:39:51.97	355.71	16.70	
2025-01-15 09:39:52.18	355.67	16.72	
2025-01-15 09:39:52.38	355.64	16.74	
2025-01-15 09:39:52.58	355.61	16.76	
2025-01-15 09:39:52.78	355.58	16.78	
2025-01-15 09:39:52.99	355.54	16.80	
2025-01-15 09:39:53.19	355.51	16.82	
2025-01-15 09:39:53.39	355.48	16.84	
2025-01-15 09:39:53.60	355.44	16.86	
2025-01-15 09:39:53.80	355.41	16.88	
2025-01-15 09:39:54.00	355.38	16.90	
2025-01-15 09:39:54.20	355.35	16.92	
2025-01-15 09:39:54.41	355.31	16.94	
2025-01-15 09:39:54.61	355.28	16.96	
2025-01-15 09:39:54.81	355.25	16.98	
2025-01-15 09:39:55.02	355.21	17.00	
2025-01-15 09:39:55.22	355.18	17.02	
2025-01-15 09:39:55.42	355.15	17.04	
2025-01-15 09:39:55.63	355.11	17.06	
2025-01-15 09:39:55.83	355.08	17.08	
2025-01-15 09:39:56.03	355.05	17.10	
2025-01-15 09:39:56.23	355.02	17.12	
2025-01-15 09:39:56.44	354.98	17.14	
2025-01-15 09:39:56.64	354.95	17.16	
2025-01-15 09:39:56.84	354.92	17.18	
2025-01-15 09:39:57.05	354.88	17.20	
2025-01-15 09:39:57.25	354.85	17.22	
2025-01-15 09:39:57.45	354.82	17.24	
2025-01-15 09:39:57.65	354.78	17.26	
2025-01-15 09:39:57.86	354.75	17.28	
2025-01-15 09:39:58.06	354.71	17.30	
2025-01-15 09:39:58.26	354.68	17.32	
2025-01-15 09:39:58.47	354.65	17.34	
2025-01-15 09:39:58.67	354.61	17.36	
2025-01-15 09:39:58.87	354.58	17.38	
2025-01-15 09:39:59.08	354.54	17.40	
2025-01-15 09:39:59.28	354.51	17.42	
2025-01-15 09:39:59.48	354.48	17.44	
2025-01-15 09:39:59.68	354.44	17.46	
2025-01-15 09:39:59.89	354.41	17.49	
2025-01-15 09:40:00.09	354.37	17.51	
2025-01-15 09:40:00.29	354.34	17.53	
2025-01-15 09:40:00.50	354.30	17.55	
2025-01-15 09:40:00.70	354.27	17.57	
2025-01-15 09:40:00.90	354.24	17.59	
2025-01-15 09:40:01.10	354.20	17.61	
2025-01-15 09:40:01.31	354.17	17.63	
2025-01-15 09:40:01.51	354.13	17.65	
2025-01-15 09:40:01.71	354.10	17.67	
2025-01-15 09:40:01.92	354.06	17.69	
2025-01-15 09:40:02.12	354.03	17.71	
2025-01-15 09:40:02.32	353.99	17.73	
2025-01-15 09:40:02.53	353.96	17.75	
2025-01-15 09:40:02.73	353.92	17.77	
2025-01-15 09:40:02.93	353.89	17.79	
2025-01-15 09:40:03.13	353.85	17.81	
2025-01-15 09:40:03.34	353.82	17.83	
2025-01-15 09:40:03.54	353.78	17.85	
2025-01-15 09:40:03.74	353.75	17.88	
2025-01-15 09:40:03.95	353.71	17.90	
2025-01-15 09:40:04.15	353.68	17.92	
2025-01-15 09:40:04.35	353.64	17.94	
2025-01-15 09:40:04.56	353.61	17.96	
2025-01-15 09:40:04.76	353.57	17.98	
2025-01-15 09:40:04.96	353.54	18.00	
2025-01-15 09:40:05.16	353.50	18.02	
2025-01-15 09:40:05.37	353.46	18.04	
2025-01-15 09:40:05.57	353.43	18.06	
2025-01-15 09:40:05.77	353.39	18.08	
2025-01-15 09:40:05.98	353.36	18.10	
2025-01-15 09:40:06.18	353.32	18.12	
2025-01-15 09:40:06.38	353.29	18.14	
2025-01-15 09:40:06.58	353.25	18.16	
2025-01-15 09:40:06.79	353.21	18.19	
2025-01-15 09:40:06.99	353.18	18.21	
2025-01-15 09:40:07.19	353.14	18.23	
2025-01-15 09:40:07.40	353.10	18.25	
2025-01-15 09:40:07.60	353.07	18.27	
2025-01-15 09:40:07.80	353.03	18.29	
2025-01-15 09:40:08.01	353.00	18.31	
2025-01-15 09:40:08.21	352.96	18.33	
2025-01-15 09:40:08.41	352.92	18.35	
2025-01-15 09:40:08.61	352.89	18.37	
2025-01-15 09:40:08.82	352.85	18.39	
2025-01-15 09:40:09.02	352.81	18.41	
2025-01-15 09:40:09.22	352.78	18.43	
2025-01-15 09:40:09.43	352.74	18.46	
2025-01-15 09:40:09.63	352.70	18.48	
2025-01-15 09:40:09.83	352.67	18.50	
2025-01-15 09:40:10.03	352.63	18.52	
2025-01-15 09:40:10.24	352.59	18.54	
2025-01-15 09:40:10.44	352.56	18.56	
2025-01-15 09:40:10.64	352.52	18.58	
2025-01-15 09:40:10.85	352.48	18.60	
2025-01-15 09:40:11.05	352.45	18.62	
2025-01-15 09:40:11.25	352.41	18.64	
2025-01-15 09:40:11.46	352.37	18.66	
2025-01-15 09:40:11.66	352.33	18.68	
2025-01-15 09:40:11.86	352.30	18.71	
2025-01-15 09:40:12.06	352.26	18.73	
2025-01-15 09:40:12.27	352.22	18.75	
2025-01-15 09:40:12.47	352.18	18.77	
2025-01-15 09:40:12.67	352.15	18.79	
2025-01-15 09:40:12.88	352.11	18.81	
2025-01-15 09:40:13.08	352.07	18.83	
2025-01-15 09:40:13.28	352.03	18.85	
2025-01-15 09:40:13.49	351.99	18.87	
2025-01-15 09:40:13.69	351.96	18.89	
2025-01-15 09:40:13.89	351.92	18.92	
2025-01-15 09:40:14.09	351.88	18.94	
2025-01-15 09:40:14.30	351.84	18.96	
2025-01-15 09:40:14.50	351.81	18.98	
2025-01-15 09:40:14.70	351.77	19.00	
2025-01-15 09:40:14.91	351.73	19.02	
2025-01-15 09:40:15.11	351.69	19.04	
2025-01-15 09:40:15.31	351.65	19.06	
2025-01-15 09:40:15.51	351.62	19.08	
2025-01-15 09:40:15.72	351.58	19.10	
2025-01-15 09:40:15.92	351.54	19.13	
2025-01-15 09:40:16.12	351.50	19.15	
2025-01-15 09:40:16.33	351.46	19.17	
2025-01-15 09:40:16.53	351.42	19.19	
2025-01-15 09:40:16.73	351.38	19.21	
2025-01-15 09:40:16.94	351.34	19.23	
2025-01-15 09:40:17.14	351.31	19.25	
2025-01-15 09:40:17.34	351.27	19.27	
2025-01-15 09:40:17.54	351.23	19.29	
2025-01-15 09:40:17.75	351.19	19.32	
2025-01-15 09:40:17.95	351.15	19.34	
2025-01-15 09:40:18.15	351.11	19.36	
2025-01-15 09:40:18.36	351.07	19.38	
2025-01-15 09:40:18.56	351.03	19.40	
2025-01-15 09:40:18.76	350.99	19.42	
2025-01-15 09:40:18.96	350.96	19.44	
2025-01-15 09:40:19.17	350.91	19.46	
2025-01-15 09:40:19.37	350.88	19.48	
2025-01-15 09:40:19.57	350.84	19.50	
2025-01-15 09:40:19.78	350.80	19.53	
2025-01-15 09:40:19.98	350.76	19.55	
2025-01-15 09:40:20.18	350.72	19.57	
2025-01-15 09:40:20.39	350.68	19.59	
2025-01-15 09:40:20.59	350.64	19.61	
2025-01-15 09:40:20.79	350.60	19.63	
2025-01-15 09:40:20.99	350.56	19.65	
2025-01-15 09:40:21.20	350.52	19.67	
2025-01-15 09:40:21.40	350.48	19.70	
2025-01-15 09:40:21.60	350.44	19.72	
2025-01-15 09:40:21.81	350.40	19.74	
2025-01-15 09:40:22.01	350.36	19.76	
2025-01-15 09:40:22.21	350.32	19.78	
2025-01-15 09:40:22.41	350.28	19.80	
2025-01-15 09:40:22.62	350.24	19.82	
2025-01-15 09:40:22.82	350.20	19.84	
2025-01-15 09:40:23.02	350.16	19.87	
2025-01-15 09:40:23.23	350.11	19.89	
2025-01-15 09:40:23.43	350.07	19.91	
2025-01-15 09:40:23.63	350.03	19.93	
2025-01-15 09:40:23.84	349.99	19.95	
2025-01-15 09:40:24.04	349.95	19.97	
2025-01-15 09:40:24.24	349.91	19.99	
2025-01-15 09:40:24.44	349.87	20.01	
2025-01-15 09:40:24.65	349.83	20.04	
2025-01-15 09:40:24.85	349.79	20.06	
2025-01-15 09:40:25.05	349.75	20.08	
2025-01-15 09:40:25.26	349.71	20.10	
2025-01-15 09:40:25.46	349.67	20.12	
2025-01-15 09:40:25.66	349.62	20.14	
2025-01-15 09:40:25.87	349.58	20.16	
2025-01-15 09:40:26.07	349.54	20.19	
2025-01-15 09:40:26.27	349.50	20.21	
2025-01-15 09:40:26.47	349.46	20.23	
2025-01-15 09:40:26.68	349.42	20.25	
2025-01-15 09:40:26.88	349.38	20.27	
2025-01-15 09:40:27.08	349.33	20.29	
2025-01-15 09:40:27.29	349.29	20.31	
2025-01-15 09:40:27.49	349.25	20.33	
2025-01-15 09:40:27.69	349.21	20.36	
2025-01-15 09:40:27.89	349.17	20.38	
2025-01-15 09:40:28.10	349.12	20.40	
2025-01-15 09:40:28.30	349.08	20.42	
2025-01-15 09:40:28.50	349.04	20.44	
2025-01-15 09:40:28.71	349.00	20.46	
2025-01-15 09:40:28.91	348.95	20.48	
2025-01-15 09:40:29.11	348.91	20.51	
2025-01-15 09:40:29.32	348.87	20.53	
2025-01-15 09:40:29.52	348.83	20.55	
2025-01-15 09:40:29.72	348.79	20.57	
2025-01-15 09:40:29.92	348.74	20.59	
2025-01-15 09:40:30.13	348.70	20.61	
2025-01-15 09:40:30.33	348.66	20.63	
2025-01-15 09:40:30.53	348.62	20.65	
2025-01-15 09:40:30.74	348.57	20.68	
2025-01-15 09:40:30.94	348.53	20.70	
2025-01-15 09:40:31.14	348.49	20.72	
2025-01-15 09:40:31.34	348.44	20.74	
2025-01-15 09:40:31.55	348.40	20.76	
2025-01-15 09:40:31.75	348.36	20.78	
2025-01-15 09:40:31.95	348.31	20.80	
2025-01-15 09:40:32.16	348.27	20.83	
2025-01-15 09:40:32.36	348.23	20.85	
2025-01-15 09:40:32.56	348.18	20.87	
2025-01-15 09:40:32.77	348.14	20.89	
2025-01-15 09:40:32.97	348.10	20.91	
2025-01-15 09:40:33.17	348.05	20.93	
2025-01-15 09:40:33.37	348.01	20.95	
2025-01-15 09:40:33.58	347.96	20.98	
2025-01-15 09:40:33.78	347.92	21.00	
2025-01-15 09:40:33.98	347.88	21.02	
2025-01-15 09:40:34.19	347.83	21.04	
2025-01-15 09:40:34.39	347.79	21.06	
2025-01-15 09:40:34.59	347.75	21.08	
2025-01-15 09:40:34.80	347.70	21.11	
2025-01-15 09:40:35.00	347.66	21.13	
2025-01-15 09:40:35.20	347.61	21.15	
2025-01-15 09:40:35.40	347.57	21.17	
2025-01-15 09:40:35.61	347.52	21.19	
2025-01-15 09:40:35.81	347.48	21.21	
2025-01-15 09:40:36.01	347.44	21.23	
2025-01-15 09:40:36.22	347.39	21.26	
2025-01-15 09:40:36.42	347.35	21.28	
2025-01-15 09:40:36.62	347.30	21.30	
2025-01-15 09:40:36.82	347.26	21.32	
2025-01-15 09:40:37.03	347.21	21.34	
2025-01-15 09:40:37.23	347.17	21.36	
2025-01-15 09:40:37.43	347.12	21.38	
2025-01-15 09:40:37.64	347.08	21.41	
2025-01-15 09:40:37.84	347.03	21.43	
2025-01-15 09:40:38.04	346.99	21.45	
2025-01-15 09:40:38.25	346.94	21.47	
2025-01-15 09:40:38.45	346.90	21.49	
2025-01-15 09:40:38.65	346.85	21.51	
2025-01-15 09:40:38.85	346.81	21.54	
2025-01-15 09:40:39.06	346.76	21.56	
2025-01-15 09:40:39.26	346.71	21.58	
2025-01-15 09:40:39.46	346.67	21.60	
2025-01-15 09:40:39.67	346.62	21.62	
2025-01-15 09:40:39.87	346.58	21.64	
2025-01-15 09:40:40.07	346.53	21.66	
2025-01-15 09:40:40.27	346.49	21.69	
2025-01-15 09:40:40.48	346.44	21.71	
2025-01-15 09:40:40.68	346.39	21.73	
2025-01-15 09:40:40.88	346.35	21.75	
2025-01-15 09:40:41.09	346.30	21.77	
2025-01-15 09:40:41.29	346.25	21.79	
2025-01-15 09:40:41.49	346.21	21.82	
2025-01-15 09:40:41.70	346.16	21.84	
2025-01-15 09:40:41.90	346.11	21.86	
2025-01-15 09:40:42.10	346.07	21.88	
2025-01-15 09:40:42.30	346.02	21.90	
2025-01-15 09:40:42.51	345.97	21.92	
2025-01-15 09:40:42.71	345.93	21.94	
2025-01-15 09:40:42.91	345.88	21.97	
2025-01-15 09:40:43.12	345.83	21.99	
2025-01-15 09:40:43.32	345.79	22.01	
2025-01-15 09:40:43.52	345.74	22.03	
2025-01-15 09:40:43.72	345.69	22.05	
2025-01-15 09:40:43.93	345.65	22.07	
2025-01-15 09:40:44.13	345.60	22.10	
2025-01-15 09:40:44.33	345.55	22.12	
2025-01-15 09:40:44.54	345.50	22.14	
2025-01-15 09:40:44.74	345.46	22.16	
2025-01-15 09:40:44.94	345.41	22.18	
2025-01-15 09:40:45.15	345.36	22.20	
2025-01-15 09:40:45.35	345.31	22.22	
2025-01-15 09:40:45.55	345.27	22.25	
2025-01-15 09:40:45.75	345.22	22.27	
2025-01-15 09:40:45.96	345.17	22.29	
2025-01-15 09:40:46.16	345.12	22.31	
2025-01-15 09:40:46.36	345.08	22.33	
2025-01-15 09:40:46.57	345.03	22.35	
2025-01-15 09:40:46.77	344.98	22.38	
2025-01-15 09:40:46.97	344.93	22.40	
2025-01-15 09:40:47.18	344.88	22.42	
2025-01-15 09:40:47.38	344.83	22.44	
2025-01-15 09:40:47.58	344.79	22.46	
2025-01-15 09:40:47.78	344.74	22.48	
2025-01-15 09:40:47.99	344.69	22.50	
2025-01-15 09:40:48.19	344.64	22.53	
2025-01-15 09:40:48.39	344.59	22.55	
2025-01-15 09:40:48.60	344.54	22.57	
2025-01-15 09:40:48.80	344.49	22.59	
2025-01-15 09:40:49.00	344.44	22.61	
2025-01-15 09:40:49.20	344.40	22.63	
2025-01-15 09:40:49.41	344.35	22.66	
2025-01-15 09:40:49.61	344.30	22.68	
2025-01-15 09:40:49.81	344.25	22.70	
2025-01-15 09:40:50.02	344.20	22.72	
2025-01-15 09:40:50.22	344.15	22.74	
2025-01-15 09:40:50.42	344.10	22.76	
2025-01-15 09:40:50.63	344.05	22.78	
2025-01-15 09:40:50.83	344.00	22.81	
2025-01-15 09:40:51.03	343.95	22.83	
2025-01-15 09:40:51.23	343.90	22.85	
2025-01-15 09:40:51.44	343.85	22.87	
2025-01-15 09:40:51.64	343.80	22.89	
2025-01-15 09:40:51.84	343.75	22.91	
2025-01-15 09:40:52.05	343.70	22.93	
2025-01-15 09:40:52.25	343.65	22.96	
2025-01-15 09:40:52.45	343.60	22.98	
2025-01-15 09:40:52.65	343.55	23.00	
2025-01-15 09:40:52.86	343.50	23.02	
2025-01-15 09:40:53.06	343.45	23.04	
2025-01-15 09:40:53.26	343.40	23.06	
2025-01-15 09:40:53.47	343.35	23.09	
2025-01-15 09:40:53.67	343.30	23.11	
2025-01-15 09:40:53.87	343.25	23.13	
2025-01-15 09:40:54.08	343.20	23.15	
2025-01-15 09:40:54.28	343.15	23.17	
2025-01-15 09:40:54.48	343.10	23.19	
2025-01-15 09:40:54.68	343.05	23.21	
2025-01-15 09:40:54.89	342.99	23.23	
2025-01-15 09:40:55.09	342.94	23.26	
2025-01-15 09:40:55.29	342.89	23.28	
2025-01-15 09:40:55.50	342.84	23.30	
2025-01-15 09:40:55.70	342.79	23.32	
2025-01-15 09:40:55.90	342.74	23.34	
2025-01-15 09:40:56.10	342.69	23.36	
2025-01-15 09:40:56.31	342.63	23.38	
2025-01-15 09:40:56.51	342.58	23.41	
2025-01-15 09:40:56.71	342.53	23.43	
2025-01-15 09:40:56.92	342.48	23.45	
2025-01-15 09:40:57.12	342.43	23.47	
2025-01-15 09:40:57.32	342.38	23.49	
2025-01-15 09:40:57.53	342.32	23.51	
2025-01-15 09:40:57.73	342.27	23.53	
2025-01-15 09:40:57.93	342.22	23.56	
2025-01-15 09:40:58.13	342.17	23.58	
2025-01-15 09:40:58.34	342.11	23.60	
2025-01-15 09:40:58.54	342.06	23.62	
2025-01-15 09:40:58.74	342.01	23.64	
2025-01-15 09:40:58.95	341.96	23.66	
2025-01-15 09:40:59.15	341.90	23.68	
2025-01-15 09:40:59.35	341.85	23.70	
2025-01-15 09:40:59.56	341.80	23.73	
2025-01-15 09:40:59.76	341.74	23.75	
2025-01-15 09:40:59.96	341.69	23.77	
2025-01-15 09:41:00.16	341.64	23.79	
2025-01-15 09:41:00.37	341.59	23.81	
2025-01-15 09:41:00.57	341.53	23.83	
2025-01-15 09:41:00.77	341.48	23.85	
2025-01-15 09:41:00.98	341.43	23.88	
2025-01-15 09:41:01.18	341.37	23.90	
2025-01-15 09:41:01.38	341.32	23.92	
2025-01-15 09:41:01.58	341.27	23.94	
2025-01-15 09:41:01.79	341.21	23.96	
2025-01-15 09:41:01.99	341.16	23.98	
2025-01-15 09:41:02.19	341.11	24.00	
2025-01-15 09:41:02.40	341.05	24.02	
2025-01-15 09:41:02.60	341.00	24.04	
2025-01-15 09:41:02.80	340.94	24.07	
2025-01-15 09:41:03.01	340.89	24.09	
2025-01-15 09:41:03.21	340.83	24.11	
2025-01-15 09:41:03.41	340.78	24.13	
2025-01-15 09:41:03.61	340.73	24.15	
2025-01-15 09:41:03.82	340.67	24.17	
2025-01-15 09:41:04.02	340.62	24.19	
2025-01-15 09:41:04.22	340.56	24.21	
2025-01-15 09:41:04.43	340.51	24.24	
2025-01-15 09:41:04.63	340.45	24.26	
2025-01-15 09:41:04.83	340.40	24.28	
2025-01-15 09:41:05.03	340.35	24.30	
2025-01-15 09:41:05.24	340.29	24.32	
2025-01-15 09:41:05.44	340.23	24.34	
2025-01-15 09:41:05.64	340.18	24.36	
2025-01-15 09:41:05.85	340.12	24.38	
2025-01-15 09:41:06.05	340.07	24.40	
2025-01-15 09:41:06.25	340.01	24.42	
2025-01-15 09:41:06.46	339.96	24.45	
2025-01-15 09:41:06.66	339.90	24.47	
2025-01-15 09:41:06.86	339.85	24.49	
2025-01-15 09:41:07.06	339.79	24.51	
2025-01-15 09:41:07.27	339.74	24.53	
2025-01-15 09:41:07.47	339.68	24.55	
2025-01-15 09:41:07.67	339.63	24.57	
2025-01-15 09:41:07.88	339.57	24.59	
2025-01-15 09:41:08.08	339.51	24.61	
2025-01-15 09:41:08.28	339.46	24.63	
2025-01-15 09:41:08.48	339.40	24.65	
2025-01-15 09:41:08.69	339.34	24.68	
2025-01-15 09:41:08.89	339.29	24.70	
2025-01-15 09:41:09.09	339.23	24.72	
2025-01-15 09:41:09.30	339.17	24.74	
2025-01-15 09:41:09.50	339.12	24.76	
2025-01-15 09:41:09.70	339.06	24.78	
2025-01-15 09:41:09.91	339.00	24.80	
2025-01-15 09:41:10.11	338.95	24.82	
2025-01-15 09:41:10.31	338.89	24.84	
2025-01-15 09:41:10.51	338.84	24.86	
2025-01-15 09:41:10.72	338.78	24.88	
2025-01-15 09:41:10.92	338.72	24.90	
2025-01-15 09:41:11.12	338.66	24.93	
2025-01-15 09:41:11.33	338.60	24.95	
2025-01-15 09:41:11.53	338.55	24.97	
2025-01-15 09:41:11.73	338.49	24.99	
2025-01-15 09:41:11.94	338.43	25.01	
2025-01-15 09:41:12.14	338.37	25.03	
2025-01-15 09:41:12.34	338.32	25.05	
2025-01-15 09:41:12.54	338.26	25.07	
2025-01-15 09:41:12.75	338.20	25.09	
2025-01-15 09:41:12.95	338.14	25.11	
2025-01-15 09:41:13.15	338.09	25.13	
2025-01-15 09:41:13.36	338.03	25.15	
2025-01-15 09:41:13.56	337.97	25.17	
2025-01-15 09:41:13.76	337.91	25.19	
2025-01-15 09:41:13.96	337.85	25.21	
2025-01-15 09:41:14.17	337.79	25.24	
2025-01-15 09:41:14.37	337.74	25.26	
2025-01-15 09:41:14.57	337.68	25.28	
2025-01-15 09:41:14.78	337.62	25.30	
2025-01-15 09:41:14.98	337.56	25.32	
2025-01-15 09:41:15.18	337.50	25.34	
2025-01-15 09:41:15.39	337.44	25.36	
2025-01-15 09:41:15.59	337.38	25.38	
2025-01-15 09:41:15.79	337.33	25.40	
2025-01-15 09:41:15.99	337.27	25.42	
2025-01-15 09:41:16.20	337.21	25.44	
2025-01-15 09:41:16.40	337.15	25.46	
2025-01-15 09:41:16.60	337.09	25.48	
2025-01-15 09:41:16.81	337.03	25.50	
2025-01-15 09:41:17.01	336.97	25.52	
2025-01-15 09:41:17.21	336.91	25.54	
2025-01-15 09:41:17.41	336.85	25.56	
2025-01-15 09:41:17.62	336.79	25.58	
2025-01-15 09:41:17.82	336.73	25.60	
2025-01-15 09:41:18.02	336.67	25.62	
2025-01-15 09:41:18.23	336.61	25.64	
2025-01-15 09:41:18.43	336.55	25.66	
2025-01-15 09:41:18.63	336.49	25.68	
2025-01-15 09:41:18.84	336.43	25.70	
2025-01-15 09:41:19.04	336.37	25.72	
2025-01-15 09:41:19.24	336.31	25.74	
2025-01-15 09:41:19.44	336.25	25.76	
2025-01-15 09:41:19.65	336.19	25.78	
2025-01-15 09:41:19.85	336.13	25.80	
2025-01-15 09:41:20.05	336.07	25.82	
2025-01-15 09:41:20.26	336.00	25.85	
2025-01-15 09:41:20.46	335.94	25.86	
2025-01-15 09:41:20.66	335.88	25.88	
2025-01-15 09:41:20.86	335.82	25.90	
2025-01-15 09:41:21.07	335.76	25.92	
2025-01-15 09:41:21.27	335.70	25.94	
2025-01-15 09:41:21.47	335.64	25.96	
2025-01-15 09:41:21.68	335.58	25.98	
2025-01-15 09:41:21.88	335.52	26.00	
2025-01-15 09:41:22.08	335.46	26.02	
2025-01-15 09:41:22.29	335.39	26.04	
2025-01-15 09:41:22.49	335.33	26.06	
2025-01-15 09:41:22.69	335.27	26.08	
2025-01-15 09:41:22.89	335.21	26.10	
2025-01-15 09:41:23.10	335.14	26.12	
2025-01-15 09:41:23.30	335.08	26.14	
2025-01-15 09:41:23.50	335.02	26.16	
2025-01-15 09:41:23.71	334.96	26.18	
2025-01-15 09:41:23.91	334.90	26.20	
2025-01-15 09:41:24.11	334.84	26.22	
2025-01-15 09:41:24.32	334.77	26.24	
2025-01-15 09:41:24.52	334.71	26.26	
2025-01-15 09:41:24.72	334.65	26.28	
2025-01-15 09:41:24.92	334.59	26.30	
2025-01-15 09:41:25.13	334.52	26.32	
2025-01-15 09:41:25.33	334.46	26.34	
2025-01-15 09:41:25.53	334.40	26.36	
2025-01-15 09:41:25.74	334.33	26.38	
2025-01-15 09:41:25.94	334.27	26.40	
2025-01-15 09:41:26.14	334.21	26.42	
2025-01-15 09:41:26.34	334.14	26.44	
2025-01-15 09:41:26.55	334.08	26.46	
2025-01-15 09:41:26.75	334.02	26.48	
2025-01-15 09:41:26.95	333.95	26.50	
2025-01-15 09:41:27.16	333.89	26.52	
2025-01-15 09:41:27.36	333.83	26.53	
2025-01-15 09:41:27.56	333.76	26.55	
2025-01-15 09:41:27.77	333.70	26.57	
2025-01-15 09:41:27.97	333.63	26.59	
2025-01-15 09:41:28.17	333.57	26.61	
2025-01-15 09:41:28.37	333.51	26.63	
2025-01-15 09:41:28.58	333.44	26.65	
2025-01-15 09:41:28.78	333.38	26.67	
2025-01-15 09:41:28.98	333.31	26.69	
2025-01-15 09:41:29.19	333.25	26.71	
2025-01-15 09:41:29.39	333.18	26.73	
2025-01-15 09:41:29.59	333.12	26.75	
2025-01-15 09:41:29.79	333.06	26.76	
2025-01-15 09:41:30.00	332.99	26.78	
2025-01-15 09:41:30.20	332.93	26.80	
2025-01-15 09:41:30.40	332.86	26.82	
2025-01-15 09:41:30.61	332.80	26.84	
2025-01-15 09:41:30.81	332.73	26.86	
2025-01-15 09:41:31.01	332.67	26.88	
2025-01-15 09:41:31.22	332.60	26.90	
2025-01-15 09:41:31.42	332.54	26.92	
2025-01-15 09:41:31.62	332.47	26.94	
2025-01-15 09:41:31.82	332.41	26.95	
2025-01-15 09:41:32.03	332.34	26.97	
2025-01-15 09:41:32.23	332.27	26.99	
2025-01-15 09:41:32.43	332.21	27.01	
2025-01-15 09:41:32.64	332.14	27.03	
2025-01-15 09:41:32.84	332.08	27.05	
2025-01-15 09:41:33.04	332.01	27.07	
2025-01-15 09:41:33.24	331.95	27.09	
2025-01-15 09:41:33.45	331.88	27.10	
2025-01-15 09:41:33.65	331.81	27.12	
2025-01-15 09:41:33.85	331.75	27.14	
2025-01-15 09:41:34.06	331.68	27.16	
2025-01-15 09:41:34.26	331.61	27.18	
2025-01-15 09:41:34.46	331.55	27.20	
2025-01-15 09:41:34.67	331.48	27.22	
2025-01-15 09:41:34.87	331.41	27.23	
2025-01-15 09:41:35.07	331.35	27.25	
2025-01-15 09:41:35.27	331.28	27.27	
2025-01-15 09:41:35.48	331.21	27.29	
2025-01-15 09:41:35.68	331.15	27.31	
2025-01-15 09:41:35.88	331.08	27.33	
2025-01-15 09:41:36.09	331.01	27.34	
2025-01-15 09:41:36.29	330.94	27.36	
2025-01-15 09:41:36.49	330.88	27.38	
2025-01-15 09:41:36.69	330.81	27.40	
2025-01-15 09:41:36.90	330.74	27.42	
2025-01-15 09:41:37.10	330.68	27.43	
2025-01-15 09:41:37.30	330.61	27.45	
2025-01-15 09:41:37.51	330.54	27.47	
2025-01-15 09:41:37.71	330.47	27.49	
2025-01-15 09:41:37.91	330.40	27.51	
2025-01-15 09:41:38.12	330.33	27.52	
2025-01-15 09:41:38.32	330.27	27.54	
2025-01-15 09:41:38.52	330.20	27.56	
2025-01-15 09:41:38.72	330.13	27.58	
2025-01-15 09:41:38.93	330.06	27.60	
2025-01-15 09:41:39.13	330.00	27.61	
2025-01-15 09:41:39.33	329.93	27.63	
2025-01-15 09:41:39.54	329.86	27.65	
2025-01-15 09:41:39.74	329.79	27.67	
2025-01-15 09:41:39.94	329.72	27.68	
2025-01-15 09:41:40.15	329.65	27.70	
2025-01-15 09:41:40.35	329.58	27.72	
2025-01-15 09:41:40.55	329.51	27.74	
2025-01-15 09:41:40.75	329.45	27.75	
2025-01-15 09:41:40.96	329.38	27.77	
2025-01-15 09:41:41.16	329.31	27.79	
2025-01-15 09:41:41.36	329.24	27.81	
2025-01-15 09:41:41.57	329.17	27.82	
2025-01-15 09:41:41.77	329.10	27.84	
2025-01-15 09:41:41.97	329.03	27.86	
2025-01-15 09:41:42.17	328.96	27.88	
2025-01-15 09:41:42.38	328.89	27.89	
2025-01-15 09:41:42.58	328.82	27.91	
2025-01-15 09:41:42.78	328.75	27.93	
2025-01-15 09:41:42.99	328.68	27.95	
2025-01-15 09:41:43.19	328.61	27.96	
2025-01-15 09:41:43.39	328.54	27.98	
2025-01-15 09:41:43.60	328.47	28.00	
2025-01-15 09:41:43.80	328.40	28.01	
2025-01-15 09:41:44.00	328.33	28.03	
2025-01-15 09:41:44.20	328.26	28.05	
2025-01-15 09:41:44.41	328.19	28.06	
2025-01-15 09:41:44.61	328.12	28.08	
2025-01-15 09:41:44.81	328.05	28.10	
2025-01-15 09:41:45.02	327.98	28.12	
2025-01-15 09:41:45.22	327.91	28.13	
2025-01-15 09:41:45.42	327.84	28.15	
2025-01-15 09:41:45.62	327.77	28.16	
2025-01-15 09:41:45.83	327.69	28.18	
2025-01-15 09:41:46.03	327.62	28.20	
2025-01-15 09:41:46.23	327.55	28.21	
2025-01-15 09:41:46.44	327.48	28.23	
2025-01-15 09:41:46.64	327.41	28.25	
2025-01-15 09:41:46.84	327.34	28.26	
2025-01-15 09:41:47.05	327.27	28.28	
2025-01-15 09:41:47.25	327.20	28.30	
2025-01-15 09:41:47.45	327.13	28.31	
2025-01-15 09:41:47.65	327.06	28.33	
2025-01-15 09:41:47.86	326.98	28.35	
2025-01-15 09:41:48.06	326.91	28.36	
2025-01-15 09:41:48.26	326.84	28.38	
2025-01-15 09:41:48.47	326.77	28.40	
2025-01-15 09:41:48.67	326.69	28.41	
2025-01-15 09:41:48.87	326.62	28.43	
2025-01-15 09:41:49.08	326.55	28.44	
2025-01-15 09:41:49.28	326.48	28.46	
2025-01-15 09:41:49.48	326.41	28.48	
2025-01-15 09:41:49.68	326.33	28.49	
2025-01-15 09:41:49.89	326.26	28.51	
2025-01-15 09:41:50.09	326.19	28.52	
2025-01-15 09:41:50.29	326.12	28.54	
2025-01-15 09:41:50.50	326.04	28.56	
2025-01-15 09:41:50.70	325.97	28.57	
2025-01-15 09:41:50.90	325.90	28.59	
2025-01-15 09:41:51.10	325.83	28.60	
2025-01-15 09:41:51.31	325.75	28.62	
2025-01-15 09:41:51.51	325.68	28.63	
2025-01-15 09:41:51.71	325.61	28.65	
2025-01-15 09:41:51.92	325.53	28.66	
2025-01-15 09:41:52.12	325.46	28.68	
2025-01-15 09:41:52.32	325.39	28.69	
2025-01-15 09:41:52.53	325.31	28.71	
2025-01-15 09:41:52.73	325.24	28.73	
2025-01-15 09:41:52.93	325.17	28.74	
2025-01-15 09:41:53.13	325.09	28.76	
2025-01-15 09:41:53.34	325.02	28.77	
2025-01-15 09:41:53.54	324.94	28.79	
2025-01-15 09:41:53.74	324.87	28.80	
2025-01-15 09:41:53.95	324.79	28.82	
2025-01-15 09:41:54.15	324.72	28.83	
2025-01-15 09:41:54.35	324.65	28.85	
2025-01-15 09:41:54.55	324.58	28.86	
2025-01-15 09:41:54.76	324.50	28.88	
2025-01-15 09:41:54.96	324.43	28.89	
2025-01-15 09:41:55.16	324.35	28.91	
2025-01-15 09:41:55.37	324.28	28.92	
2025-01-15 09:41:55.57	324.20	28.94	
2025-01-15 09:41:55.77	324.13	28.95	
2025-01-15 09:41:55.98	324.05	28.97	
2025-01-15 09:41:56.18	323.98	28.98	
2025-01-15 09:41:56.38	323.90	28.99	
2025-01-15 09:41:56.58	323.83	29.01	
2025-01-15 09:41:56.79	323.75	29.02	
2025-01-15 09:41:56.99	323.68	29.04	
2025-01-15 09:41:57.19	323.60	29.05	
2025-01-15 09:41:57.40	323.53	29.07	
2025-01-15 09:41:57.60	323.45	29.08	
2025-01-15 09:41:57.80	323.38	29.09	
2025-01-15 09:41:58.01	323.30	29.11	
2025-01-15 09:41:58.21	323.23	29.12	
2025-01-15 09:41:58.41	323.15	29.14	
2025-01-15 09:41:58.61	323.08	29.15	
2025-01-15 09:41:58.82	323.00	29.17	
2025-01-15 09:41:59.02	322.92	29.18	
2025-01-15 09:41:59.22	322.85	29.19	
2025-01-15 09:41:59.43	322.77	29.21	
2025-01-15 09:41:59.63	322.70	29.22	
2025-01-15 09:41:59.83	322.62	29.23	
2025-01-15 09:42:00.03	322.55	29.25	
2025-01-15 09:42:00.24	322.47	29.26	
2025-01-15 09:42:00.44	322.39	29.28	
2025-01-15 09:42:00.64	322.32	29.29	
2025-01-15 09:42:00.85	322.24	29.30	
2025-01-15 09:42:01.05	322.16	29.32	
2025-01-15 09:42:01.25	322.09	29.33	
2025-01-15 09:42:01.46	322.01	29.34	
2025-01-15 09:42:01.66	321.93	29.36	
2025-01-15 09:42:01.86	321.86	29.37	
2025-01-15 09:42:02.06	321.78	29.38	
2025-01-15 09:42:02.27	321.70	29.40	
2025-01-15 09:42:02.47	321.63	29.41	
2025-01-15 09:42:02.67	321.55	29.42	
2025-01-15 09:42:02.88	321.47	29.44	
2025-01-15 09:42:03.08	321.40	29.45	
2025-01-15 09:42:03.28	321.32	29.46	
2025-01-15 09:42:03.48	321.24	29.47	
2025-01-15 09:42:03.69	321.16	29.49	
2025-01-15 09:42:03.89	321.09	29.50	
2025-01-15 09:42:04.09	321.01	29.51	
2025-01-15 09:42:04.30	320.93	29.52	
2025-01-15 09:42:04.50	320.86	29.54	
2025-01-15 09:42:04.70	320.78	29.55	
2025-01-15 09:42:04.91	320.70	29.56	
2025-01-15 09:42:05.11	320.62	29.57	
2025-01-15 09:42:05.31	320.55	29.59	
2025-01-15 09:42:05.51	320.47	29.60	
2025-01-15 09:42:05.72	320.39	29.61	
2025-01-15 09:42:05.92	320.31	29.62	
2025-01-15 09:42:06.12	320.23	29.64	
2025-01-15 09:42:06.33	320.15	29.65	
2025-01-15 09:42:06.53	320.08	29.66	
2025-01-15 09:42:06.73	320.00	29.67	
2025-01-15 09:42:06.93	319.92	29.68	
2025-01-15 09:42:07.14	319.84	29.70	
2025-01-15 09:42:07.34	319.76	29.71	
2025-01-15 09:42:07.54	319.69	29.72	
2025-01-15 09:42:07.75	319.61	29.73	
2025-01-15 09:42:07.95	319.53	29.74	
2025-01-15 09:42:08.15	319.45	29.76	
2025-01-15 09:42:08.36	319.37	29.77	
2025-01-15 09:42:08.56	319.29	29.78	
2025-01-15 09:42:08.76	319.21	29.79	
2025-01-15 09:42:08.96	319.14	29.80	
2025-01-15 09:42:09.17	319.06	29.81	
2025-01-15 09:42:09.37	318.98	29.82	
2025-01-15 09:42:09.57	318.90	29.84	
2025-01-15 09:42:09.78	318.82	29.85	
2025-01-15 09:42:09.98	318.74	29.86	
2025-01-15 09:42:10.18	318.66	29.87	
2025-01-15 09:42:10.39	318.58	29.88	
2025-01-15 09:42:10.59	318.50	29.89	
2025-01-15 09:42:10.79	318.42	29.90	
2025-01-15 09:42:10.99	318.35	29.91	
2025-01-15 09:42:11.20	318.26	29.92	
2025-01-15 09:42:11.40	318.18	29.94	
2025-01-15 09:42:11.60	318.11	29.95	
2025-01-15 09:42:11.81	318.02	29.96	
2025-01-15 09:42:12.01	317.95	29.97	
2025-01-15 09:42:12.21	317.87	29.98	
2025-01-15 09:42:12.41	317.79	29.99	
2025-01-15 09:42:12.62	317.71	30.00	
2025-01-15 09:42:12.82	317.63	30.01	
2025-01-15 09:42:13.02	317.55	30.02	
2025-01-15 09:42:13.23	317.47	30.03	
2025-01-15 09:42:13.43	317.39	30.04	
2025-01-15 09:42:13.63	317.31	30.05	
2025-01-15 09:42:13.84	317.22	30.06	
2025-01-15 09:42:14.04	317.15	30.07	
2025-01-15 09:42:14.24	317.07	30.08	
2025-01-15 09:42:14.44	316.99	30.09	
2025-01-15 09:42:14.65	316.90	30.10	
2025-01-15 09:42:14.85	316.82	30.11	
2025-01-15 09:42:15.05	316.75	30.12	
2025-01-15 09:42:15.26	316.66	30.13	
2025-01-15 09:42:15.46	316.58	30.14	
2025-01-15 09:42:15.66	316.50	30.15	
2025-01-15 09:42:15.86	316.42	30.16	
2025-01-15 09:42:16.07	316.34	30.17	
2025-01-15 09:42:16.27	316.26	30.18	
2025-01-15 09:42:16.47	316.18	30.19	
2025-01-15 09:42:16.68	316.10	30.20	
2025-01-15 09:42:16.88	316.02	30.21	
2025-01-15 09:42:17.08	315.94	30.21	
2025-01-15 09:42:17.29	315.85	30.22	
2025-01-15 09:42:17.49	315.77	30.23	
2025-01-15 09:42:17.69	315.69	30.24	
2025-01-15 09:42:17.89	315.61	30.25	
2025-01-15 09:42:18.10	315.53	30.26	
2025-01-15 09:42:18.30	315.45	30.27	
2025-01-15 09:42:18.50	315.37	30.28	
2025-01-15 09:42:18.71	315.29	30.29	
2025-01-15 09:42:18.91	315.21	30.29	
2025-01-15 09:42:19.11	315.13	30.30	
2025-01-15 09:42:19.31	315.04	30.31	
2025-01-15 09:42:19.52	314.96	30.32	
2025-01-15 09:42:19.72	314.88	30.33	
2025-01-15 09:42:19.92	314.80	30.34	
2025-01-15 09:42:20.13	314.72	30.35	
2025-01-15 09:42:20.33	314.63	30.35	
2025-01-15 09:42:20.53	314.55	30.36	
2025-01-15 09:42:20.74	314.47	30.37	
2025-01-15 09:42:20.94	314.39	30.38	
2025-01-15 09:42:21.14	314.31	30.39	
2025-01-15 09:42:21.34	314.23	30.39	
2025-01-15 09:42:21.55	314.14	30.40	
2025-01-15 09:42:21.75	314.06	30.41	
2025-01-15 09:42:21.95	313.98	30.42	
2025-01-15 09:42:22.16	313.90	30.42	
2025-01-15 09:42:22.36	313.82	30.43	
2025-01-15 09:42:22.56	313.73	30.44	
2025-01-15 09:42:22.77	313.65	30.45	
2025-01-15 09:42:22.97	313.57	30.45	
2025-01-15 09:42:23.17	313.49	30.46	
2025-01-15 09:42:23.37	313.41	30.47	
2025-01-15 09:42:23.58	313.32	30.48	
2025-01-15 09:42:23.78	313.24	30.48	
2025-01-15 09:42:23.98	313.16	30.49	
2025-01-15 09:42:24.19	313.07	30.50	
2025-01-15 09:42:24.39	312.99	30.50	
2025-01-15 09:42:24.59	312.91	30.51	
2025-01-15 09:42:24.79	312.83	30.52	
2025-01-15 09:42:25.00	312.74	30.53	
2025-01-15 09:42:25.20	312.66	30.53	
2025-01-15 09:42:25.40	312.58	30.54	
2025-01-15 09:42:25.61	312.49	30.55	
2025-01-15 09:42:25.81	312.41	30.55	
2025-01-15 09:42:26.01	312.33	30.56	
2025-01-15 09:42:26.22	312.25	30.57	
2025-01-15 09:42:26.42	312.16	30.57	
2025-01-15 09:42:26.62	312.08	30.58	
2025-01-15 09:42:26.82	312.00	30.58	
2025-01-15 09:42:27.03	311.92	30.59	
2025-01-15 09:42:27.23	311.83	30.60	
2025-01-15 09:42:27.43	311.75	30.60	
2025-01-15 09:42:27.64	311.67	30.61	
2025-01-15 09:42:27.84	311.58	30.61	
2025-01-15 09:42:28.04	311.50	30.62	
2025-01-15 09:42:28.24	311.42	30.63	
2025-01-15 09:42:28.45	311.33	30.63	
2025-01-15 09:42:28.65	311.25	30.64	
2025-01-15 09:42:28.85	311.17	30.64	
2025-01-15 09:42:29.06	311.08	30.65	
2025-01-15 09:42:29.26	311.00	30.65	
2025-01-15 09:42:29.46	310.92	30.66	
2025-01-15 09:42:29.67	310.83	30.66	
2025-01-15 09:42:29.87	310.75	30.67	
2025-01-15 09:42:30.07	310.67	30.67	
2025-01-15 09:42:30.27	310.59	30.68	
2025-01-15 09:42:30.48	310.50	30.68	
2025-01-15 09:42:30.68	310.42	30.69	
2025-01-15 09:42:30.88	310.34	30.69	
2025-01-15 09:42:31.09	310.25	30.70	
2025-01-15 09:42:31.29	310.17	30.70	
2025-01-15 09:42:31.49	310.08	30.71	
2025-01-15 09:42:31.69	310.00	30.71	
2025-01-15 09:42:31.90	309.92	30.72	
2025-01-15 09:42:32.10	309.83	30.72	
2025-01-15 09:42:32.30	309.75	30.73	
2025-01-15 09:42:32.51	309.66	30.73	
2025-01-15 09:42:32.71	309.58	30.74	
2025-01-15 09:42:32.91	309.50	30.74	
2025-01-15 09:42:33.12	309.41	30.74	
2025-01-15 09:42:33.32	309.33	30.75	
2025-01-15 09:42:33.52	309.25	30.75	
2025-01-15 09:42:33.72	309.16	30.76	
2025-01-15 09:42:33.93	309.08	30.76	
2025-01-15 09:42:34.13	308.99	30.76	
2025-01-15 09:42:34.33	308.91	30.77	
2025-01-15 09:42:34.54	308.82	30.77	
2025-01-15 09:42:34.74	308.74	30.78	
2025-01-15 09:42:34.94	308.66	30.78	
2025-01-15 09:42:35.15	308.57	30.78	
2025-01-15 09:42:35.35	308.49	30.79	
2025-01-15 09:42:35.55	308.41	30.79	
2025-01-15 09:42:35.75	308.32	30.79	
2025-01-15 09:42:35.96	308.24	30.80	
2025-01-15 09:42:36.16	308.15	30.80	
2025-01-15 09:42:36.36	308.07	30.80	
2025-01-15 09:42:36.57	307.98	30.81	
2025-01-15 09:42:36.77	307.90	30.81	
2025-01-15 09:42:36.97	307.82	30.81	
2025-01-15 09:42:37.17	307.73	30.81	
2025-01-15 09:42:37.38	307.65	30.82	
2025-01-15 09:42:37.58	307.56	30.82	
2025-01-15 09:42:37.78	307.48	30.82	
2025-01-15 09:42:37.99	307.39	30.82	
2025-01-15 09:42:38.19	307.31	30.83	
2025-01-15 09:42:38.39	307.23	30.83	
2025-01-15 09:42:38.60	307.14	30.83	
2025-01-15 09:42:38.80	307.06	30.83	
2025-01-15 09:42:39.00	306.97	30.84	
2025-01-15 09:42:39.20	306.89	30.84	
2025-01-15 09:42:39.41	306.80	30.84	
2025-01-15 09:42:39.61	306.72	30.84	
2025-01-15 09:42:39.81	306.64	30.84	
2025-01-15 09:42:40.02	306.55	30.85	
2025-01-15 09:42:40.22	306.47	30.85	
2025-01-15 09:42:40.42	306.38	30.85	
2025-01-15 09:42:40.62	306.30	30.85	
2025-01-15 09:42:40.83	306.21	30.85	
2025-01-15 09:42:41.03	306.13	30.86	
2025-01-15 09:42:41.23	306.05	30.86	
2025-01-15 09:42:41.44	305.96	30.86	
2025-01-15 09:42:41.64	305.88	30.86	
2025-01-15 09:42:41.84	305.79	30.86	
2025-01-15 09:42:42.05	305.71	30.86	
2025-01-15 09:42:42.25	305.62	30.86	
2025-01-15 09:42:42.45	305.54	30.86	
2025-01-15 09:42:42.65	305.46	30.87	
2025-01-15 09:42:42.86	305.37	30.87	
2025-01-15 09:42:43.06	305.29	30.87	
2025-01-15 09:42:43.26	305.20	30.87	
2025-01-15 09:42:43.47	305.12	30.87	
2025-01-15 09:42:43.67	305.03	30.87	
2025-01-15 09:42:43.87	304.95	30.87	
2025-01-15 09:42:44.07	304.87	30.87	
2025-01-15 09:42:44.28	304.78	30.87	
2025-01-15 09:42:44.48	304.69	30.87	
2025-01-15 09:42:44.68	304.61	30.87	
2025-01-15 09:42:44.89	304.52	30.87	
2025-01-15 09:42:45.09	304.44	30.87	
2025-01-15 09:42:45.29	304.36	30.87	
2025-01-15 09:42:45.50	304.27	30.87	
2025-01-15 09:42:45.70	304.19	30.87	
2025-01-15 09:42:45.90	304.10	30.87	
2025-01-15 09:42:46.10	304.02	30.87	
2025-01-15 09:42:46.31	303.93	30.87	
2025-01-15 09:42:46.51	303.85	30.87	
2025-01-15 09:42:46.71	303.77	30.87	
2025-01-15 09:42:46.92	303.68	30.87	
2025-01-15 09:42:47.12	303.59	30.87	
2025-01-15 09:42:47.32	303.51	30.87	
2025-01-15 09:42:47.53	303.42	30.87	
2025-01-15 09:42:47.73	303.34	30.87	
2025-01-15 09:42:47.93	303.26	30.87	
2025-01-15 09:42:48.13	303.17	30.87	
2025-01-15 09:42:48.34	303.09	30.87	
2025-01-15 09:42:48.54	303.00	30.86	
2025-01-15 09:42:48.74	302.92	30.86	
2025-01-15 09:42:48.95	302.83	30.86	
2025-01-15 09:42:49.15	302.75	30.86	
2025-01-15 09:42:49.35	302.67	30.86	
2025-01-15 09:42:49.55	302.58	30.86	
2025-01-15 09:42:49.76	302.50	30.86	
2025-01-15 09:42:49.96	302.41	30.86	
2025-01-15 09:42:50.16	302.33	30.85	
2025-01-15 09:42:50.37	302.24	30.85	
2025-01-15 09:42:50.57	302.16	30.85	
2025-01-15 09:42:50.77	302.08	30.85	
2025-01-15 09:42:50.98	301.99	30.85	
2025-01-15 09:42:51.18	301.90	30.85	
2025-01-15 09:42:51.38	301.82	30.84	
2025-01-15 09:42:51.58	301.74	30.84	
2025-01-15 09:42:51.79	301.65	30.84	
2025-01-15 09:42:51.99	301.57	30.84	
2025-01-15 09:42:52.19	301.49	30.84	
2025-01-15 09:42:52.40	301.40	30.83	
2025-01-15 09:42:52.60	301.31	30.83	
2025-01-15 09:42:52.80	301.23	30.83	
2025-01-15 09:42:53.00	301.15	30.83	
2025-01-15 09:42:53.21	301.06	30.82	
2025-01-15 09:42:53.41	300.98	30.82	
2025-01-15 09:42:53.61	300.90	30.82	
2025-01-15 09:42:53.82	300.81	30.82	
