passes_logs/2025/01/15/SPB_Silybum_02/SPB_Silybum_02__20250115_065005_SUOMI_NPP_rec.log

#Pass ID: 20250115_065005_SUOMI NPP
#Satellite: SUOMI NPP
#Configuration: NPP
#Start time: 2025-01-15 06:50:04

#Version: 2.0.20230423
#Station: SPB_Silybum_02
#Location: 30.233357 lon 59.946436 lat
#TLE: 1 37849U 11061A   25014.84938308  .00000162  00000+0  97809-4 0  9990
#TLE: 2 37849  98.7446 315.8398 0001684  41.2466 318.8837 14.19538097684890

#Time	Az	El	Level	Level2	SNR	BER	Gain	Gain2
2025-01-15 06:50:06.36	61.10	4.03	
2025-01-15 06:50:06.57	61.08	4.04	
2025-01-15 06:50:06.77	61.05	4.05	
2025-01-15 06:50:06.97	61.03	4.05	
2025-01-15 06:50:07.18	61.01	4.06	
2025-01-15 06:50:07.38	60.98	4.07	
2025-01-15 06:50:07.58	60.96	4.08	
2025-01-15 06:50:07.79	60.94	4.09	
2025-01-15 06:50:07.99	60.91	4.10	
2025-01-15 06:50:08.19	60.89	4.11	
2025-01-15 06:50:08.40	60.86	4.11	
2025-01-15 06:50:08.60	60.84	4.12	
2025-01-15 06:50:08.80	60.82	4.13	
2025-01-15 06:50:09.00	60.79	4.14	
2025-01-15 06:50:09.21	60.77	4.15	
2025-01-15 06:50:09.41	60.75	4.16	
2025-01-15 06:50:09.61	60.72	4.17	
2025-01-15 06:50:09.82	60.70	4.17	
2025-01-15 06:50:10.02	60.68	4.18	
2025-01-15 06:50:10.22	60.65	4.19	
2025-01-15 06:50:10.43	60.63	4.20	
2025-01-15 06:50:10.63	60.60	4.21	
2025-01-15 06:50:10.83	60.58	4.22	
2025-01-15 06:50:11.04	60.56	4.23	
2025-01-15 06:50:11.24	60.53	4.23	
2025-01-15 06:50:11.44	60.51	4.24	
2025-01-15 06:50:11.64	60.49	4.25	
2025-01-15 06:50:11.85	60.46	4.26	
2025-01-15 06:50:12.05	60.44	4.27	
2025-01-15 06:50:12.25	60.41	4.28	
2025-01-15 06:50:12.46	60.39	4.28	
2025-01-15 06:50:12.66	60.37	4.29	
2025-01-15 06:50:12.86	60.34	4.30	
2025-01-15 06:50:13.07	60.32	4.31	
2025-01-15 06:50:13.27	60.29	4.32	
2025-01-15 06:50:13.47	60.27	4.33	
2025-01-15 06:50:13.68	60.25	4.34	
2025-01-15 06:50:13.88	60.22	4.34	
2025-01-15 06:50:14.08	60.20	4.35	
2025-01-15 06:50:14.28	60.18	4.36	
2025-01-15 06:50:14.49	60.15	4.37	
2025-01-15 06:50:14.69	60.13	4.38	
2025-01-15 06:50:14.89	60.10	4.39	
2025-01-15 06:50:15.10	60.08	4.40	
2025-01-15 06:50:15.30	60.05	4.40	
2025-01-15 06:50:15.50	60.03	4.41	
2025-01-15 06:50:15.71	60.01	4.42	
2025-01-15 06:50:15.91	59.98	4.43	
2025-01-15 06:50:16.11	59.96	4.44	
2025-01-15 06:50:16.32	59.93	4.45	
2025-01-15 06:50:16.52	59.91	4.46	
2025-01-15 06:50:16.72	59.89	4.46	
2025-01-15 06:50:16.92	59.86	4.47	
2025-01-15 06:50:17.13	59.84	4.48	
2025-01-15 06:50:17.33	59.81	4.49	
2025-01-15 06:50:17.53	59.79	4.50	
2025-01-15 06:50:17.74	59.76	4.51	
2025-01-15 06:50:17.94	59.74	4.51	
2025-01-15 06:50:18.14	59.72	4.52	
2025-01-15 06:50:18.35	59.69	4.53	
2025-01-15 06:50:18.55	59.67	4.54	
2025-01-15 06:50:18.75	59.64	4.55	
2025-01-15 06:50:18.96	59.62	4.56	
2025-01-15 06:50:19.16	59.59	4.57	
2025-01-15 06:50:19.36	59.57	4.57	
2025-01-15 06:50:19.56	59.55	4.58	
2025-01-15 06:50:19.77	59.52	4.59	
2025-01-15 06:50:19.97	59.50	4.60	
2025-01-15 06:50:20.17	59.47	4.61	
2025-01-15 06:50:20.38	59.45	4.62	
2025-01-15 06:50:20.58	59.42	4.62	
2025-01-15 06:50:20.78	59.40	4.63	
2025-01-15 06:50:20.99	59.37	4.64	
2025-01-15 06:50:21.19	59.35	4.65	
2025-01-15 06:50:21.39	59.33	4.66	
2025-01-15 06:50:21.60	59.30	4.67	
2025-01-15 06:50:21.80	59.28	4.68	
2025-01-15 06:50:22.00	59.25	4.68	
2025-01-15 06:50:22.20	59.23	4.69	
2025-01-15 06:50:22.41	59.20	4.70	
2025-01-15 06:50:22.61	59.18	4.71	
2025-01-15 06:50:22.81	59.15	4.72	
2025-01-15 06:50:23.02	59.13	4.73	
2025-01-15 06:50:23.22	59.10	4.73	
2025-01-15 06:50:23.42	59.08	4.74	
2025-01-15 06:50:23.63	59.05	4.75	
2025-01-15 06:50:23.83	59.03	4.76	
2025-01-15 06:50:24.03	59.01	4.77	
2025-01-15 06:50:24.24	58.98	4.78	
2025-01-15 06:50:24.44	58.96	4.78	
2025-01-15 06:50:24.64	58.93	4.79	
2025-01-15 06:50:24.84	58.91	4.80	
2025-01-15 06:50:25.05	58.88	4.81	
2025-01-15 06:50:25.25	58.86	4.82	
2025-01-15 06:50:25.45	58.83	4.83	
2025-01-15 06:50:25.66	58.81	4.84	
2025-01-15 06:50:25.86	58.78	4.84	
2025-01-15 06:50:26.06	58.76	4.85	
2025-01-15 06:50:26.27	58.73	4.86	
2025-01-15 06:50:26.47	58.71	4.87	
2025-01-15 06:50:26.67	58.68	4.88	
2025-01-15 06:50:26.88	58.66	4.89	
2025-01-15 06:50:27.08	58.63	4.89	
2025-01-15 06:50:27.28	58.61	4.90	
2025-01-15 06:50:27.48	58.58	4.91	
2025-01-15 06:50:27.69	58.56	4.92	
2025-01-15 06:50:27.89	58.53	4.93	
2025-01-15 06:50:28.09	58.51	4.94	
2025-01-15 06:50:28.30	58.48	4.94	
2025-01-15 06:50:28.50	58.46	4.95	
2025-01-15 06:50:28.70	58.43	4.96	
2025-01-15 06:50:28.91	58.41	4.97	
2025-01-15 06:50:29.11	58.38	4.98	
2025-01-15 06:50:29.31	58.36	4.99	
2025-01-15 06:50:29.52	58.33	4.99	
2025-01-15 06:50:29.72	58.31	5.00	
2025-01-15 06:50:29.92	58.28	5.01	
2025-01-15 06:50:30.12	58.26	5.02	
2025-01-15 06:50:30.33	58.23	5.03	
2025-01-15 06:50:30.53	58.21	5.04	
2025-01-15 06:50:30.73	58.18	5.04	
2025-01-15 06:50:30.94	58.16	5.05	
2025-01-15 06:50:31.14	58.13	5.06	
2025-01-15 06:50:31.34	58.11	5.07	
2025-01-15 06:50:31.55	58.08	5.08	
2025-01-15 06:50:31.75	58.06	5.09	
2025-01-15 06:50:31.95	58.03	5.09	
2025-01-15 06:50:32.16	58.01	5.10	
2025-01-15 06:50:32.36	57.98	5.11	
2025-01-15 06:50:32.56	57.96	5.12	
2025-01-15 06:50:32.77	57.93	5.13	
2025-01-15 06:50:32.97	57.90	5.14	
2025-01-15 06:50:33.17	57.88	5.14	
2025-01-15 06:50:33.37	57.85	5.15	
2025-01-15 06:50:33.58	57.83	5.16	
2025-01-15 06:50:33.78	57.80	5.17	
2025-01-15 06:50:33.98	57.78	5.18	
2025-01-15 06:50:34.19	57.75	5.19	
2025-01-15 06:50:34.39	57.73	5.19	
2025-01-15 06:50:34.59	57.70	5.20	
2025-01-15 06:50:34.80	57.68	5.21	
2025-01-15 06:50:35.00	57.65	5.22	
2025-01-15 06:50:35.20	57.63	5.23	
2025-01-15 06:50:35.41	57.60	5.24	
2025-01-15 06:50:35.61	57.57	5.24	
2025-01-15 06:50:35.81	57.55	5.25	
2025-01-15 06:50:36.01	57.52	5.26	
2025-01-15 06:50:36.22	57.50	5.27	
2025-01-15 06:50:36.42	57.47	5.28	
2025-01-15 06:50:36.62	57.45	5.29	
2025-01-15 06:50:36.83	57.42	5.29	
2025-01-15 06:50:37.03	57.40	5.30	
2025-01-15 06:50:37.23	57.37	5.31	
2025-01-15 06:50:37.44	57.34	5.32	
2025-01-15 06:50:37.64	57.32	5.33	
2025-01-15 06:50:37.84	57.29	5.33	
2025-01-15 06:50:38.05	57.27	5.34	
2025-01-15 06:50:38.25	57.24	5.35	
2025-01-15 06:50:38.45	57.22	5.36	
2025-01-15 06:50:38.65	57.19	5.37	
2025-01-15 06:50:38.86	57.16	5.38	
2025-01-15 06:50:39.06	57.14	5.38	
2025-01-15 06:50:39.26	57.11	5.39	
2025-01-15 06:50:39.47	57.09	5.40	
2025-01-15 06:50:39.67	57.06	5.41	
2025-01-15 06:50:39.87	57.04	5.42	
2025-01-15 06:50:40.08	57.01	5.43	
2025-01-15 06:50:40.28	56.98	5.43	
2025-01-15 06:50:40.48	56.96	5.44	
2025-01-15 06:50:40.69	56.93	5.45	
2025-01-15 06:50:40.89	56.91	5.46	
2025-01-15 06:50:41.09	56.88	5.47	
2025-01-15 06:50:41.29	56.85	5.47	
2025-01-15 06:50:41.50	56.83	5.48	
2025-01-15 06:50:41.70	56.80	5.49	
2025-01-15 06:50:41.90	56.78	5.50	
2025-01-15 06:50:42.11	56.75	5.51	
2025-01-15 06:50:42.31	56.72	5.52	
2025-01-15 06:50:42.51	56.70	5.52	
2025-01-15 06:50:42.72	56.67	5.53	
2025-01-15 06:50:42.92	56.65	5.54	
2025-01-15 06:50:43.12	56.62	5.55	
2025-01-15 06:50:43.33	56.59	5.56	
2025-01-15 06:50:43.53	56.57	5.56	
2025-01-15 06:50:43.73	56.54	5.57	
2025-01-15 06:50:43.93	56.52	5.58	
2025-01-15 06:50:44.14	56.49	5.59	
2025-01-15 06:50:44.34	56.46	5.60	
2025-01-15 06:50:44.54	56.44	5.61	
2025-01-15 06:50:44.75	56.41	5.61	
2025-01-15 06:50:44.95	56.38	5.62	
2025-01-15 06:50:45.15	56.36	5.63	
2025-01-15 06:50:45.36	56.33	5.64	
2025-01-15 06:50:45.56	56.31	5.65	
2025-01-15 06:50:45.76	56.28	5.65	
2025-01-15 06:50:45.97	56.25	5.66	
2025-01-15 06:50:46.17	56.23	5.67	
2025-01-15 06:50:46.37	56.20	5.68	
2025-01-15 06:50:46.57	56.17	5.69	
2025-01-15 06:50:46.78	56.15	5.69	
2025-01-15 06:50:46.98	56.12	5.70	
2025-01-15 06:50:47.18	56.10	5.71	
2025-01-15 06:50:47.39	56.07	5.72	
2025-01-15 06:50:47.59	56.04	5.73	
2025-01-15 06:50:47.79	56.02	5.74	
2025-01-15 06:50:48.00	55.99	5.74	
2025-01-15 06:50:48.20	55.96	5.75	
2025-01-15 06:50:48.40	55.94	5.76	
2025-01-15 06:50:48.61	55.91	5.77	
2025-01-15 06:50:48.81	55.88	5.78	
2025-01-15 06:50:49.01	55.86	5.78	
2025-01-15 06:50:49.21	55.83	5.79	
2025-01-15 06:50:49.42	55.80	5.80	
2025-01-15 06:50:49.62	55.78	5.81	
2025-01-15 06:50:49.82	55.75	5.82	
2025-01-15 06:50:50.03	55.72	5.82	
2025-01-15 06:50:50.23	55.70	5.83	
2025-01-15 06:50:50.43	55.67	5.84	
2025-01-15 06:50:50.64	55.64	5.85	
2025-01-15 06:50:50.84	55.62	5.86	
2025-01-15 06:50:51.04	55.59	5.86	
2025-01-15 06:50:51.25	55.56	5.87	
2025-01-15 06:50:51.45	55.54	5.88	
2025-01-15 06:50:51.65	55.51	5.89	
2025-01-15 06:50:51.85	55.48	5.90	
2025-01-15 06:50:52.06	55.46	5.90	
2025-01-15 06:50:52.26	55.43	5.91	
2025-01-15 06:50:52.46	55.40	5.92	
2025-01-15 06:50:52.67	55.38	5.93	
2025-01-15 06:50:52.87	55.35	5.94	
2025-01-15 06:50:53.07	55.32	5.94	
2025-01-15 06:50:53.28	55.30	5.95	
2025-01-15 06:50:53.48	55.27	5.96	
2025-01-15 06:50:53.68	55.24	5.97	
2025-01-15 06:50:53.89	55.22	5.98	
2025-01-15 06:50:54.09	55.19	5.98	
2025-01-15 06:50:54.29	55.16	5.99	
2025-01-15 06:50:54.50	55.13	6.00	
2025-01-15 06:50:54.70	55.11	6.01	
2025-01-15 06:50:54.90	55.08	6.02	
2025-01-15 06:50:55.10	55.06	6.02	
2025-01-15 06:50:55.31	55.03	6.03	
2025-01-15 06:50:55.51	55.00	6.04	
2025-01-15 06:50:55.71	54.97	6.05	
2025-01-15 06:50:55.92	54.95	6.06	
2025-01-15 06:50:56.12	54.92	6.06	
2025-01-15 06:50:56.32	54.89	6.07	
2025-01-15 06:50:56.53	54.86	6.08	
2025-01-15 06:50:56.73	54.84	6.09	
2025-01-15 06:50:56.93	54.81	6.10	
2025-01-15 06:50:57.14	54.78	6.10	
2025-01-15 06:50:57.34	54.76	6.11	
2025-01-15 06:50:57.54	54.73	6.12	
2025-01-15 06:50:57.74	54.70	6.13	
2025-01-15 06:50:57.95	54.68	6.14	
2025-01-15 06:50:58.15	54.65	6.14	
2025-01-15 06:50:58.35	54.62	6.15	
2025-01-15 06:50:58.56	54.59	6.16	
2025-01-15 06:50:58.76	54.57	6.17	
2025-01-15 06:50:58.96	54.54	6.18	
2025-01-15 06:50:59.17	54.51	6.18	
2025-01-15 06:50:59.37	54.48	6.19	
2025-01-15 06:50:59.57	54.46	6.20	
2025-01-15 06:50:59.78	54.43	6.21	
2025-01-15 06:50:59.98	54.40	6.22	
2025-01-15 06:51:00.18	54.38	6.22	
2025-01-15 06:51:00.38	54.35	6.23	
2025-01-15 06:51:00.59	54.32	6.24	
2025-01-15 06:51:00.79	54.29	6.25	
2025-01-15 06:51:00.99	54.27	6.25	
2025-01-15 06:51:01.20	54.24	6.26	
2025-01-15 06:51:01.40	54.21	6.27	
2025-01-15 06:51:01.60	54.18	6.28	
2025-01-15 06:51:01.81	54.16	6.29	
2025-01-15 06:51:02.01	54.13	6.29	
2025-01-15 06:51:02.21	54.10	6.30	
2025-01-15 06:51:02.42	54.07	6.31	
2025-01-15 06:51:02.62	54.05	6.32	
2025-01-15 06:51:02.82	54.02	6.33	
2025-01-15 06:51:03.02	53.99	6.33	
2025-01-15 06:51:03.23	53.96	6.34	
2025-01-15 06:51:03.43	53.94	6.35	
2025-01-15 06:51:03.63	53.91	6.36	
2025-01-15 06:51:03.84	53.88	6.36	
2025-01-15 06:51:04.04	53.85	6.37	
2025-01-15 06:51:04.24	53.83	6.38	
2025-01-15 06:51:04.45	53.80	6.39	
2025-01-15 06:51:04.65	53.77	6.40	
2025-01-15 06:51:04.85	53.74	6.40	
2025-01-15 06:51:05.06	53.71	6.41	
2025-01-15 06:51:05.26	53.69	6.42	
2025-01-15 06:51:05.46	53.66	6.43	
2025-01-15 06:51:05.66	53.63	6.43	
2025-01-15 06:51:05.87	53.60	6.44	
2025-01-15 06:51:06.07	53.58	6.45	
2025-01-15 06:51:06.27	53.55	6.46	
2025-01-15 06:51:06.48	53.52	6.47	
2025-01-15 06:51:06.68	53.49	6.47	
2025-01-15 06:51:06.88	53.47	6.48	
2025-01-15 06:51:07.09	53.44	6.49	
2025-01-15 06:51:07.29	53.41	6.50	
2025-01-15 06:51:07.49	53.38	6.50	
2025-01-15 06:51:07.70	53.35	6.51	
2025-01-15 06:51:07.90	53.33	6.52	
2025-01-15 06:51:08.10	53.30	6.53	
2025-01-15 06:51:08.30	53.27	6.54	
2025-01-15 06:51:08.51	53.24	6.54	
2025-01-15 06:51:08.71	53.21	6.55	
2025-01-15 06:51:08.91	53.19	6.56	
2025-01-15 06:51:09.12	53.16	6.57	
2025-01-15 06:51:09.32	53.13	6.57	
2025-01-15 06:51:09.52	53.10	6.58	
2025-01-15 06:51:09.73	53.07	6.59	
2025-01-15 06:51:09.93	53.05	6.60	
2025-01-15 06:51:10.13	53.02	6.61	
2025-01-15 06:51:10.34	52.99	6.61	
2025-01-15 06:51:10.54	52.96	6.62	
2025-01-15 06:51:10.74	52.93	6.63	
2025-01-15 06:51:10.94	52.91	6.64	
2025-01-15 06:51:11.15	52.88	6.64	
2025-01-15 06:51:11.35	52.85	6.65	
2025-01-15 06:51:11.55	52.82	6.66	
2025-01-15 06:51:11.76	52.79	6.67	
2025-01-15 06:51:11.96	52.76	6.67	
2025-01-15 06:51:12.16	52.74	6.68	
2025-01-15 06:51:12.37	52.71	6.69	
2025-01-15 06:51:12.57	52.68	6.70	
2025-01-15 06:51:12.77	52.65	6.70	
2025-01-15 06:51:12.98	52.62	6.71	
2025-01-15 06:51:13.18	52.59	6.72	
2025-01-15 06:51:13.38	52.57	6.73	
2025-01-15 06:51:13.58	52.54	6.74	
2025-01-15 06:51:13.79	52.51	6.74	
2025-01-15 06:51:13.99	52.48	6.75	
2025-01-15 06:51:14.19	52.45	6.76	
2025-01-15 06:51:14.40	52.42	6.77	
2025-01-15 06:51:14.60	52.40	6.77	
2025-01-15 06:51:14.80	52.37	6.78	
2025-01-15 06:51:15.01	52.34	6.79	
2025-01-15 06:51:15.21	52.31	6.80	
2025-01-15 06:51:15.41	52.28	6.80	
2025-01-15 06:51:15.62	52.25	6.81	
2025-01-15 06:51:15.82	52.23	6.82	
2025-01-15 06:51:16.02	52.20	6.83	
2025-01-15 06:51:16.23	52.17	6.83	
2025-01-15 06:51:16.43	52.14	6.84	
2025-01-15 06:51:16.63	52.11	6.85	
2025-01-15 06:51:16.83	52.08	6.86	
2025-01-15 06:51:17.04	52.05	6.86	
2025-01-15 06:51:17.24	52.03	6.87	
2025-01-15 06:51:17.44	52.00	6.88	
2025-01-15 06:51:17.65	51.97	6.89	
2025-01-15 06:51:17.85	51.94	6.89	
2025-01-15 06:51:18.05	51.91	6.90	
2025-01-15 06:51:18.26	51.88	6.91	
2025-01-15 06:51:18.46	51.85	6.92	
2025-01-15 06:51:18.66	51.83	6.92	
2025-01-15 06:51:18.87	51.80	6.93	
2025-01-15 06:51:19.07	51.77	6.94	
2025-01-15 06:51:19.27	51.74	6.95	
2025-01-15 06:51:19.47	51.71	6.95	
2025-01-15 06:51:19.68	51.68	6.96	
2025-01-15 06:51:19.88	51.65	6.97	
2025-01-15 06:51:20.08	51.62	6.98	
2025-01-15 06:51:20.29	51.59	6.98	
2025-01-15 06:51:20.49	51.57	6.99	
2025-01-15 06:51:20.69	51.54	7.00	
2025-01-15 06:51:20.90	51.51	7.01	
2025-01-15 06:51:21.10	51.48	7.01	
2025-01-15 06:51:21.30	51.45	7.02	
2025-01-15 06:51:21.51	51.42	7.03	
2025-01-15 06:51:21.71	51.39	7.04	
2025-01-15 06:51:21.91	51.36	7.04	
2025-01-15 06:51:22.11	51.34	7.05	
2025-01-15 06:51:22.32	51.31	7.06	
2025-01-15 06:51:22.52	51.28	7.07	
2025-01-15 06:51:22.72	51.25	7.07	
2025-01-15 06:51:22.93	51.22	7.08	
2025-01-15 06:51:23.13	51.19	7.09	
2025-01-15 06:51:23.33	51.16	7.10	
2025-01-15 06:51:23.54	51.13	7.10	
2025-01-15 06:51:23.74	51.10	7.11	
2025-01-15 06:51:23.94	51.07	7.12	
2025-01-15 06:51:24.15	51.04	7.13	
2025-01-15 06:51:24.35	51.02	7.13	
2025-01-15 06:51:24.55	50.99	7.14	
2025-01-15 06:51:24.75	50.96	7.15	
2025-01-15 06:51:24.96	50.93	7.16	
2025-01-15 06:51:25.16	50.90	7.16	
2025-01-15 06:51:25.36	50.87	7.17	
2025-01-15 06:51:25.57	50.84	7.18	
2025-01-15 06:51:25.77	50.81	7.18	
2025-01-15 06:51:25.97	50.78	7.19	
2025-01-15 06:51:26.18	50.75	7.20	
2025-01-15 06:51:26.38	50.72	7.21	
2025-01-15 06:51:26.58	50.69	7.21	
2025-01-15 06:51:26.79	50.66	7.22	
2025-01-15 06:51:26.99	50.64	7.23	
2025-01-15 06:51:27.19	50.61	7.24	
2025-01-15 06:51:27.39	50.58	7.24	
2025-01-15 06:51:27.60	50.55	7.25	
2025-01-15 06:51:27.80	50.52	7.26	
2025-01-15 06:51:28.00	50.49	7.27	
2025-01-15 06:51:28.21	50.46	7.27	
2025-01-15 06:51:28.41	50.43	7.28	
2025-01-15 06:51:28.61	50.40	7.29	
2025-01-15 06:51:28.82	50.37	7.29	
2025-01-15 06:51:29.02	50.34	7.30	
2025-01-15 06:51:29.22	50.31	7.31	
2025-01-15 06:51:29.43	50.28	7.32	
2025-01-15 06:51:29.63	50.25	7.32	
2025-01-15 06:51:29.83	50.22	7.33	
2025-01-15 06:51:30.03	50.19	7.34	
2025-01-15 06:51:30.24	50.16	7.35	
2025-01-15 06:51:30.44	50.13	7.35	
2025-01-15 06:51:30.64	50.11	7.36	
2025-01-15 06:51:30.85	50.08	7.37	
2025-01-15 06:51:31.05	50.05	7.37	
2025-01-15 06:51:31.25	50.02	7.38	
2025-01-15 06:51:31.46	49.99	7.39	
2025-01-15 06:51:31.66	49.96	7.40	
2025-01-15 06:51:31.86	49.93	7.40	
2025-01-15 06:51:32.07	49.90	7.41	
2025-01-15 06:51:32.27	49.87	7.42	
2025-01-15 06:51:32.47	49.84	7.42	
2025-01-15 06:51:32.67	49.81	7.43	
2025-01-15 06:51:32.88	49.78	7.44	
2025-01-15 06:51:33.08	49.75	7.45	
2025-01-15 06:51:33.28	49.72	7.45	
2025-01-15 06:51:33.49	49.69	7.46	
2025-01-15 06:51:33.69	49.66	7.47	
2025-01-15 06:51:33.89	49.63	7.47	
2025-01-15 06:51:34.10	49.60	7.48	
2025-01-15 06:51:34.30	49.57	7.49	
2025-01-15 06:51:34.50	49.54	7.50	
2025-01-15 06:51:34.71	49.51	7.50	
2025-01-15 06:51:34.91	49.48	7.51	
2025-01-15 06:51:35.11	49.45	7.52	
2025-01-15 06:51:35.31	49.42	7.52	
2025-01-15 06:51:35.52	49.39	7.53	
2025-01-15 06:51:35.72	49.36	7.54	
2025-01-15 06:51:35.92	49.33	7.55	
2025-01-15 06:51:36.13	49.30	7.55	
2025-01-15 06:51:36.33	49.27	7.56	
2025-01-15 06:51:36.53	49.24	7.57	
2025-01-15 06:51:36.74	49.21	7.57	
2025-01-15 06:51:36.94	49.18	7.58	
2025-01-15 06:51:37.14	49.15	7.59	
2025-01-15 06:51:37.35	49.12	7.60	
2025-01-15 06:51:37.55	49.09	7.60	
2025-01-15 06:51:37.75	49.06	7.61	
2025-01-15 06:51:37.95	49.03	7.62	
2025-01-15 06:51:38.16	49.00	7.62	
2025-01-15 06:51:38.36	48.97	7.63	
2025-01-15 06:51:38.56	48.94	7.64	
2025-01-15 06:51:38.77	48.91	7.65	
2025-01-15 06:51:38.97	48.88	7.65	
2025-01-15 06:51:39.17	48.85	7.66	
2025-01-15 06:51:39.38	48.82	7.67	
2025-01-15 06:51:39.58	48.79	7.67	
2025-01-15 06:51:39.78	48.76	7.68	
2025-01-15 06:51:39.99	48.73	7.69	
2025-01-15 06:51:40.19	48.70	7.69	
2025-01-15 06:51:40.39	48.67	7.70	
2025-01-15 06:51:40.60	48.64	7.71	
2025-01-15 06:51:40.80	48.61	7.71	
2025-01-15 06:51:41.00	48.58	7.72	
2025-01-15 06:51:41.20	48.55	7.73	
2025-01-15 06:51:41.41	48.52	7.74	
2025-01-15 06:51:41.61	48.49	7.74	
2025-01-15 06:51:41.81	48.46	7.75	
2025-01-15 06:51:42.02	48.42	7.76	
2025-01-15 06:51:42.22	48.39	7.76	
2025-01-15 06:51:42.42	48.36	7.77	
2025-01-15 06:51:42.63	48.33	7.78	
2025-01-15 06:51:42.83	48.30	7.78	
2025-01-15 06:51:43.03	48.27	7.79	
2025-01-15 06:51:43.24	48.24	7.80	
2025-01-15 06:51:43.44	48.21	7.80	
2025-01-15 06:51:43.64	48.18	7.81	
2025-01-15 06:51:43.84	48.15	7.82	
2025-01-15 06:51:44.05	48.12	7.83	
2025-01-15 06:51:44.25	48.09	7.83	
2025-01-15 06:51:44.45	48.06	7.84	
2025-01-15 06:51:44.66	48.03	7.85	
2025-01-15 06:51:44.86	48.00	7.85	
2025-01-15 06:51:45.06	47.97	7.86	
2025-01-15 06:51:45.27	47.94	7.87	
2025-01-15 06:51:45.47	47.90	7.87	
2025-01-15 06:51:45.67	47.87	7.88	
2025-01-15 06:51:45.88	47.84	7.89	
2025-01-15 06:51:46.08	47.81	7.89	
2025-01-15 06:51:46.28	47.78	7.90	
2025-01-15 06:51:46.48	47.75	7.91	
2025-01-15 06:51:46.69	47.72	7.91	
2025-01-15 06:51:46.89	47.69	7.92	
2025-01-15 06:51:47.09	47.66	7.93	
2025-01-15 06:51:47.30	47.63	7.93	
2025-01-15 06:51:47.50	47.60	7.94	
2025-01-15 06:51:47.70	47.57	7.95	
2025-01-15 06:51:47.91	47.54	7.96	
2025-01-15 06:51:48.11	47.50	7.96	
2025-01-15 06:51:48.31	47.47	7.97	
2025-01-15 06:51:48.52	47.44	7.98	
2025-01-15 06:51:48.72	47.41	7.98	
2025-01-15 06:51:48.92	47.38	7.99	
2025-01-15 06:51:49.12	47.35	8.00	
2025-01-15 06:51:49.33	47.32	8.00	
2025-01-15 06:51:49.53	47.29	8.01	
2025-01-15 06:51:49.73	47.26	8.02	
2025-01-15 06:51:49.94	47.23	8.02	
2025-01-15 06:51:50.14	47.20	8.03	
2025-01-15 06:51:50.34	47.17	8.04	
2025-01-15 06:51:50.55	47.13	8.04	
2025-01-15 06:51:50.75	47.10	8.05	
2025-01-15 06:51:50.95	47.07	8.06	
2025-01-15 06:51:51.16	47.04	8.06	
2025-01-15 06:51:51.36	47.01	8.07	
2025-01-15 06:51:51.56	46.98	8.08	
2025-01-15 06:51:51.76	46.95	8.08	
2025-01-15 06:51:51.97	46.92	8.09	
2025-01-15 06:51:52.17	46.89	8.10	
2025-01-15 06:51:52.37	46.85	8.10	
2025-01-15 06:51:52.58	46.82	8.11	
2025-01-15 06:51:52.78	46.79	8.12	
2025-01-15 06:51:52.98	46.76	8.12	
2025-01-15 06:51:53.19	46.73	8.13	
2025-01-15 06:51:53.39	46.70	8.14	
2025-01-15 06:51:53.59	46.67	8.14	
2025-01-15 06:51:53.80	46.63	8.15	
2025-01-15 06:51:54.00	46.60	8.15	
2025-01-15 06:51:54.20	46.57	8.16	
2025-01-15 06:51:54.40	46.54	8.17	
2025-01-15 06:51:54.61	46.51	8.17	
2025-01-15 06:51:54.81	46.48	8.18	
2025-01-15 06:51:55.01	46.45	8.19	
2025-01-15 06:51:55.22	46.42	8.19	
2025-01-15 06:51:55.42	46.38	8.20	
2025-01-15 06:51:55.62	46.35	8.21	
2025-01-15 06:51:55.83	46.32	8.21	
2025-01-15 06:51:56.03	46.29	8.22	
2025-01-15 06:51:56.23	46.26	8.23	
2025-01-15 06:51:56.44	46.23	8.23	
2025-01-15 06:51:56.64	46.20	8.24	
2025-01-15 06:51:56.84	46.16	8.25	
2025-01-15 06:51:57.04	46.13	8.25	
2025-01-15 06:51:57.25	46.10	8.26	
2025-01-15 06:51:57.45	46.07	8.27	
2025-01-15 06:51:57.65	46.04	8.27	
2025-01-15 06:51:57.86	46.01	8.28	
2025-01-15 06:51:58.06	45.98	8.28	
2025-01-15 06:51:58.26	45.94	8.29	
2025-01-15 06:51:58.47	45.91	8.30	
2025-01-15 06:51:58.67	45.88	8.30	
2025-01-15 06:51:58.87	45.85	8.31	
2025-01-15 06:51:59.08	45.82	8.32	
2025-01-15 06:51:59.28	45.79	8.32	
2025-01-15 06:51:59.48	45.75	8.33	
2025-01-15 06:51:59.68	45.72	8.34	
2025-01-15 06:51:59.89	45.69	8.34	
2025-01-15 06:52:00.09	45.66	8.35	
2025-01-15 06:52:00.29	45.63	8.36	
2025-01-15 06:52:00.50	45.60	8.36	
2025-01-15 06:52:00.70	45.56	8.37	
2025-01-15 06:52:00.90	45.53	8.37	
2025-01-15 06:52:01.11	45.50	8.38	
2025-01-15 06:52:01.31	45.47	8.39	
2025-01-15 06:52:01.51	45.44	8.39	
2025-01-15 06:52:01.72	45.40	8.40	
2025-01-15 06:52:01.92	45.37	8.41	
2025-01-15 06:52:02.12	45.34	8.41	
2025-01-15 06:52:02.33	45.31	8.42	
2025-01-15 06:52:02.53	45.28	8.43	
2025-01-15 06:52:02.73	45.25	8.43	
2025-01-15 06:52:02.93	45.21	8.44	
2025-01-15 06:52:03.14	45.18	8.44	
2025-01-15 06:52:03.34	45.15	8.45	
2025-01-15 06:52:03.54	45.12	8.46	
2025-01-15 06:52:03.75	45.09	8.46	
2025-01-15 06:52:03.95	45.05	8.47	
2025-01-15 06:52:04.15	45.02	8.47	
2025-01-15 06:52:04.36	44.99	8.48	
2025-01-15 06:52:04.56	44.96	8.49	
2025-01-15 06:52:04.76	44.93	8.49	
2025-01-15 06:52:04.97	44.89	8.50	
2025-01-15 06:52:05.17	44.86	8.51	
2025-01-15 06:52:05.37	44.83	8.51	
2025-01-15 06:52:05.57	44.80	8.52	
2025-01-15 06:52:05.78	44.77	8.52	
2025-01-15 06:52:05.98	44.73	8.53	
2025-01-15 06:52:06.18	44.70	8.54	
2025-01-15 06:52:06.39	44.67	8.54	
2025-01-15 06:52:06.59	44.64	8.55	
2025-01-15 06:52:06.79	44.61	8.56	
2025-01-15 06:52:07.00	44.57	8.56	
2025-01-15 06:52:07.20	44.54	8.57	
2025-01-15 06:52:07.40	44.51	8.57	
2025-01-15 06:52:07.61	44.48	8.58	
2025-01-15 06:52:07.81	44.44	8.59	
2025-01-15 06:52:08.01	44.41	8.59	
2025-01-15 06:52:08.21	44.38	8.60	
2025-01-15 06:52:08.42	44.35	8.60	
2025-01-15 06:52:08.62	44.32	8.61	
2025-01-15 06:52:08.82	44.28	8.62	
2025-01-15 06:52:09.03	44.25	8.62	
2025-01-15 06:52:09.23	44.22	8.63	
2025-01-15 06:52:09.43	44.19	8.63	
2025-01-15 06:52:09.64	44.15	8.64	
2025-01-15 06:52:09.84	44.12	8.65	
2025-01-15 06:52:10.04	44.09	8.65	
2025-01-15 06:52:10.25	44.06	8.66	
2025-01-15 06:52:10.45	44.02	8.67	
2025-01-15 06:52:10.65	43.99	8.67	
2025-01-15 06:52:10.85	43.96	8.68	
2025-01-15 06:52:11.06	43.93	8.68	
2025-01-15 06:52:11.26	43.89	8.69	
2025-01-15 06:52:11.46	43.86	8.69	
2025-01-15 06:52:11.67	43.83	8.70	
2025-01-15 06:52:11.87	43.80	8.71	
2025-01-15 06:52:12.07	43.76	8.71	
2025-01-15 06:52:12.28	43.73	8.72	
2025-01-15 06:52:12.48	43.70	8.72	
2025-01-15 06:52:12.68	43.67	8.73	
2025-01-15 06:52:12.89	43.63	8.74	
2025-01-15 06:52:13.09	43.60	8.74	
2025-01-15 06:52:13.29	43.57	8.75	
2025-01-15 06:52:13.49	43.54	8.75	
2025-01-15 06:52:13.70	43.50	8.76	
2025-01-15 06:52:13.90	43.47	8.77	
2025-01-15 06:52:14.10	43.44	8.77	
2025-01-15 06:52:14.31	43.41	8.78	
2025-01-15 06:52:14.51	43.37	8.78	
2025-01-15 06:52:14.71	43.34	8.79	
2025-01-15 06:52:14.92	43.31	8.80	
2025-01-15 06:52:15.12	43.28	8.80	
2025-01-15 06:52:15.32	43.24	8.81	
2025-01-15 06:52:15.53	43.21	8.81	
2025-01-15 06:52:15.73	43.18	8.82	
2025-01-15 06:52:15.93	43.14	8.82	
2025-01-15 06:52:16.13	43.11	8.83	
2025-01-15 06:52:16.34	43.08	8.84	
2025-01-15 06:52:16.54	43.05	8.84	
2025-01-15 06:52:16.74	43.01	8.85	
2025-01-15 06:52:16.95	42.98	8.85	
2025-01-15 06:52:17.15	42.95	8.86	
2025-01-15 06:52:17.35	42.91	8.87	
2025-01-15 06:52:17.56	42.88	8.87	
2025-01-15 06:52:17.76	42.85	8.88	
2025-01-15 06:52:17.96	42.82	8.88	
2025-01-15 06:52:18.17	42.78	8.89	
2025-01-15 06:52:18.37	42.75	8.89	
2025-01-15 06:52:18.57	42.72	8.90	
2025-01-15 06:52:18.77	42.68	8.91	
2025-01-15 06:52:18.98	42.65	8.91	
2025-01-15 06:52:19.18	42.62	8.92	
2025-01-15 06:52:19.38	42.59	8.92	
2025-01-15 06:52:19.59	42.55	8.93	
2025-01-15 06:52:19.79	42.52	8.93	
2025-01-15 06:52:19.99	42.49	8.94	
2025-01-15 06:52:20.20	42.45	8.95	
2025-01-15 06:52:20.40	42.42	8.95	
2025-01-15 06:52:20.60	42.39	8.96	
2025-01-15 06:52:20.81	42.35	8.96	
2025-01-15 06:52:21.01	42.32	8.97	
2025-01-15 06:52:21.21	42.29	8.97	
2025-01-15 06:52:21.41	42.26	8.98	
2025-01-15 06:52:21.62	42.22	8.98	
2025-01-15 06:52:21.82	42.19	8.99	
2025-01-15 06:52:22.02	42.16	9.00	
2025-01-15 06:52:22.23	42.12	9.00	
2025-01-15 06:52:22.43	42.09	9.01	
2025-01-15 06:52:22.63	42.06	9.01	
2025-01-15 06:52:22.84	42.02	9.02	
2025-01-15 06:52:23.04	41.99	9.02	
2025-01-15 06:52:23.24	41.96	9.03	
2025-01-15 06:52:23.45	41.92	9.03	
2025-01-15 06:52:23.65	41.89	9.04	
2025-01-15 06:52:23.85	41.86	9.05	
2025-01-15 06:52:24.05	41.82	9.05	
2025-01-15 06:52:24.26	41.79	9.06	
2025-01-15 06:52:24.46	41.76	9.06	
2025-01-15 06:52:24.66	41.72	9.07	
2025-01-15 06:52:24.87	41.69	9.07	
2025-01-15 06:52:25.07	41.66	9.08	
2025-01-15 06:52:25.27	41.62	9.08	
2025-01-15 06:52:25.48	41.59	9.09	
2025-01-15 06:52:25.68	41.56	9.10	
2025-01-15 06:52:25.88	41.52	9.10	
2025-01-15 06:52:26.09	41.49	9.11	
2025-01-15 06:52:26.29	41.46	9.11	
2025-01-15 06:52:26.49	41.42	9.12	
2025-01-15 06:52:26.70	41.39	9.12	
2025-01-15 06:52:26.90	41.36	9.13	
2025-01-15 06:52:27.10	41.32	9.13	
2025-01-15 06:52:27.30	41.29	9.14	
2025-01-15 06:52:27.51	41.25	9.14	
2025-01-15 06:52:27.71	41.22	9.15	
2025-01-15 06:52:27.91	41.19	9.15	
2025-01-15 06:52:28.12	41.15	9.16	
2025-01-15 06:52:28.32	41.12	9.17	
2025-01-15 06:52:28.52	41.09	9.17	
2025-01-15 06:52:28.73	41.05	9.18	
2025-01-15 06:52:28.93	41.02	9.18	
2025-01-15 06:52:29.13	40.99	9.19	
2025-01-15 06:52:29.34	40.95	9.19	
2025-01-15 06:52:29.54	40.92	9.20	
2025-01-15 06:52:29.74	40.89	9.20	
2025-01-15 06:52:29.94	40.85	9.21	
2025-01-15 06:52:30.15	40.82	9.21	
2025-01-15 06:52:30.35	40.78	9.22	
2025-01-15 06:52:30.55	40.75	9.22	
2025-01-15 06:52:30.76	40.72	9.23	
2025-01-15 06:52:30.96	40.68	9.23	
2025-01-15 06:52:31.16	40.65	9.24	
2025-01-15 06:52:31.37	40.62	9.24	
2025-01-15 06:52:31.57	40.58	9.25	
2025-01-15 06:52:31.77	40.55	9.25	
2025-01-15 06:52:31.98	40.51	9.26	
2025-01-15 06:52:32.18	40.48	9.27	
2025-01-15 06:52:32.38	40.45	9.27	
2025-01-15 06:52:32.58	40.41	9.28	
2025-01-15 06:52:32.79	40.38	9.28	
2025-01-15 06:52:32.99	40.35	9.29	
2025-01-15 06:52:33.19	40.31	9.29	
2025-01-15 06:52:33.40	40.28	9.30	
2025-01-15 06:52:33.60	40.24	9.30	
2025-01-15 06:52:33.80	40.21	9.31	
2025-01-15 06:52:34.01	40.18	9.31	
2025-01-15 06:52:34.21	40.14	9.32	
2025-01-15 06:52:34.41	40.11	9.32	
2025-01-15 06:52:34.62	40.07	9.33	
2025-01-15 06:52:34.82	40.04	9.33	
2025-01-15 06:52:35.02	40.01	9.34	
2025-01-15 06:52:35.22	39.97	9.34	
2025-01-15 06:52:35.43	39.94	9.35	
2025-01-15 06:52:35.63	39.91	9.35	
2025-01-15 06:52:35.83	39.87	9.36	
2025-01-15 06:52:36.04	39.84	9.36	
2025-01-15 06:52:36.24	39.80	9.37	
2025-01-15 06:52:36.44	39.77	9.37	
2025-01-15 06:52:36.65	39.73	9.38	
2025-01-15 06:52:36.85	39.70	9.38	
2025-01-15 06:52:37.05	39.67	9.39	
2025-01-15 06:52:37.26	39.63	9.39	
2025-01-15 06:52:37.46	39.60	9.40	
2025-01-15 06:52:37.66	39.56	9.40	
2025-01-15 06:52:37.86	39.53	9.41	
2025-01-15 06:52:38.07	39.50	9.41	
2025-01-15 06:52:38.27	39.46	9.42	
2025-01-15 06:52:38.47	39.43	9.42	
2025-01-15 06:52:38.68	39.39	9.43	
2025-01-15 06:52:38.88	39.36	9.43	
2025-01-15 06:52:39.08	39.33	9.44	
2025-01-15 06:52:39.29	39.29	9.44	
2025-01-15 06:52:39.49	39.26	9.45	
2025-01-15 06:52:39.69	39.22	9.45	
2025-01-15 06:52:39.90	39.19	9.46	
2025-01-15 06:52:40.10	39.15	9.46	
2025-01-15 06:52:40.30	39.12	9.47	
2025-01-15 06:52:40.50	39.09	9.47	
2025-01-15 06:52:40.71	39.05	9.48	
2025-01-15 06:52:40.91	39.02	9.48	
2025-01-15 06:52:41.11	38.98	9.48	
2025-01-15 06:52:41.32	38.95	9.49	
2025-01-15 06:52:41.52	38.91	9.49	
2025-01-15 06:52:41.72	38.88	9.50	
2025-01-15 06:52:41.93	38.85	9.50	
2025-01-15 06:52:42.13	38.81	9.51	
2025-01-15 06:52:42.33	38.78	9.51	
2025-01-15 06:52:42.54	38.74	9.52	
2025-01-15 06:52:42.74	38.71	9.52	
2025-01-15 06:52:42.94	38.67	9.53	
2025-01-15 06:52:43.14	38.64	9.53	
2025-01-15 06:52:43.35	38.60	9.54	
2025-01-15 06:52:43.55	38.57	9.54	
2025-01-15 06:52:43.75	38.54	9.55	
2025-01-15 06:52:43.96	38.50	9.55	
2025-01-15 06:52:44.16	38.47	9.56	
2025-01-15 06:52:44.36	38.43	9.56	
2025-01-15 06:52:44.57	38.40	9.56	
2025-01-15 06:52:44.77	38.36	9.57	
2025-01-15 06:52:44.97	38.33	9.57	
2025-01-15 06:52:45.18	38.29	9.58	
2025-01-15 06:52:45.38	38.26	9.58	
2025-01-15 06:52:45.58	38.23	9.59	
2025-01-15 06:52:45.78	38.19	9.59	
2025-01-15 06:52:45.99	38.16	9.60	
2025-01-15 06:52:46.19	38.12	9.60	
2025-01-15 06:52:46.39	38.09	9.61	
2025-01-15 06:52:46.60	38.05	9.61	
2025-01-15 06:52:46.80	38.02	9.62	
2025-01-15 06:52:47.00	37.98	9.62	
2025-01-15 06:52:47.21	37.95	9.62	
2025-01-15 06:52:47.41	37.91	9.63	
2025-01-15 06:52:47.61	37.88	9.63	
2025-01-15 06:52:47.82	37.84	9.64	
2025-01-15 06:52:48.02	37.81	9.64	
2025-01-15 06:52:48.22	37.78	9.65	
2025-01-15 06:52:48.42	37.74	9.65	
2025-01-15 06:52:48.63	37.71	9.66	
2025-01-15 06:52:48.83	37.67	9.66	
2025-01-15 06:52:49.03	37.64	9.66	
2025-01-15 06:52:49.24	37.60	9.67	
2025-01-15 06:52:49.44	37.57	9.67	
2025-01-15 06:52:49.64	37.53	9.68	
2025-01-15 06:52:49.85	37.50	9.68	
2025-01-15 06:52:50.05	37.46	9.69	
2025-01-15 06:52:50.25	37.43	9.69	
2025-01-15 06:52:50.46	37.39	9.70	
2025-01-15 06:52:50.66	37.36	9.70	
2025-01-15 06:52:50.86	37.32	9.70	
2025-01-15 06:52:51.07	37.29	9.71	
2025-01-15 06:52:51.27	37.25	9.71	
2025-01-15 06:52:51.47	37.22	9.72	
2025-01-15 06:52:51.67	37.19	9.72	
2025-01-15 06:52:51.88	37.15	9.73	
2025-01-15 06:52:52.08	37.11	9.73	
2025-01-15 06:52:52.28	37.08	9.73	
2025-01-15 06:52:52.49	37.04	9.74	
2025-01-15 06:52:52.69	37.01	9.74	
2025-01-15 06:52:52.89	36.98	9.75	
2025-01-15 06:52:53.10	36.94	9.75	
2025-01-15 06:52:53.30	36.90	9.76	
2025-01-15 06:52:53.50	36.87	9.76	
2025-01-15 06:52:53.71	36.83	9.76	
2025-01-15 06:52:53.91	36.80	9.77	
2025-01-15 06:52:54.11	36.77	9.77	
2025-01-15 06:52:54.31	36.73	9.78	
2025-01-15 06:52:54.52	36.69	9.78	
2025-01-15 06:52:54.72	36.66	9.79	
2025-01-15 06:52:54.92	36.63	9.79	
2025-01-15 06:52:55.13	36.59	9.79	
2025-01-15 06:52:55.33	36.56	9.80	
2025-01-15 06:52:55.53	36.52	9.80	
2025-01-15 06:52:55.74	36.48	9.81	
2025-01-15 06:52:55.94	36.45	9.81	
2025-01-15 06:52:56.14	36.42	9.81	
2025-01-15 06:52:56.35	36.38	9.82	
2025-01-15 06:52:56.55	36.34	9.82	
2025-01-15 06:52:56.75	36.31	9.83	
2025-01-15 06:52:56.95	36.28	9.83	
2025-01-15 06:52:57.16	36.24	9.84	
2025-01-15 06:52:57.36	36.20	9.84	
2025-01-15 06:52:57.56	36.17	9.84	
2025-01-15 06:52:57.77	36.13	9.85	
2025-01-15 06:52:57.97	36.10	9.85	
2025-01-15 06:52:58.17	36.06	9.86	
2025-01-15 06:52:58.38	36.03	9.86	
2025-01-15 06:52:58.58	35.99	9.86	
2025-01-15 06:52:58.78	35.96	9.87	
2025-01-15 06:52:58.99	35.92	9.87	
2025-01-15 06:52:59.19	35.89	9.88	
2025-01-15 06:52:59.39	35.85	9.88	
2025-01-15 06:52:59.59	35.82	9.88	
2025-01-15 06:52:59.80	35.78	9.89	
2025-01-15 06:53:00.00	35.75	9.89	
2025-01-15 06:53:00.20	35.71	9.89	
2025-01-15 06:53:00.41	35.68	9.90	
2025-01-15 06:53:00.61	35.64	9.90	
2025-01-15 06:53:00.81	35.61	9.91	
2025-01-15 06:53:01.02	35.57	9.91	
2025-01-15 06:53:01.22	35.53	9.91	
2025-01-15 06:53:01.42	35.50	9.92	
2025-01-15 06:53:01.63	35.46	9.92	
2025-01-15 06:53:01.83	35.43	9.93	
2025-01-15 06:53:02.03	35.39	9.93	
2025-01-15 06:53:02.23	35.36	9.93	
2025-01-15 06:53:02.44	35.32	9.94	
2025-01-15 06:53:02.64	35.29	9.94	
2025-01-15 06:53:02.84	35.25	9.94	
2025-01-15 06:53:03.05	35.22	9.95	
2025-01-15 06:53:03.25	35.18	9.95	
2025-01-15 06:53:03.45	35.15	9.96	
2025-01-15 06:53:03.66	35.11	9.96	
2025-01-15 06:53:03.86	35.07	9.96	
2025-01-15 06:53:04.06	35.04	9.97	
2025-01-15 06:53:04.27	35.00	9.97	
2025-01-15 06:53:04.47	34.97	9.97	
2025-01-15 06:53:04.67	34.93	9.98	
2025-01-15 06:53:04.87	34.90	9.98	
2025-01-15 06:53:05.08	34.86	9.99	
2025-01-15 06:53:05.28	34.83	9.99	
2025-01-15 06:53:05.48	34.79	9.99	
2025-01-15 06:53:05.69	34.75	10.00	
2025-01-15 06:53:05.89	34.72	10.00	
2025-01-15 06:53:06.09	34.68	10.00	
2025-01-15 06:53:06.30	34.65	10.01	
2025-01-15 06:53:06.50	34.61	10.01	
2025-01-15 06:53:06.70	34.58	10.02	
2025-01-15 06:53:06.91	34.54	10.02	
2025-01-15 06:53:07.11	34.51	10.02	
2025-01-15 06:53:07.31	34.47	10.03	
2025-01-15 06:53:07.51	34.44	10.03	
2025-01-15 06:53:07.72	34.40	10.03	
2025-01-15 06:53:07.92	34.36	10.04	
2025-01-15 06:53:08.12	34.33	10.04	
2025-01-15 06:53:08.33	34.29	10.04	
2025-01-15 06:53:08.53	34.26	10.05	
2025-01-15 06:53:08.73	34.22	10.05	
2025-01-15 06:53:08.94	34.18	10.05	
2025-01-15 06:53:09.14	34.15	10.06	
2025-01-15 06:53:09.34	34.11	10.06	
2025-01-15 06:53:09.55	34.08	10.06	
2025-01-15 06:53:09.75	34.04	10.07	
2025-01-15 06:53:09.95	34.01	10.07	
2025-01-15 06:53:10.16	33.97	10.07	
2025-01-15 06:53:10.36	33.93	10.08	
2025-01-15 06:53:10.56	33.90	10.08	
2025-01-15 06:53:10.76	33.86	10.09	
2025-01-15 06:53:10.97	33.83	10.09	
2025-01-15 06:53:11.17	33.79	10.09	
2025-01-15 06:53:11.37	33.76	10.10	
2025-01-15 06:53:11.58	33.72	10.10	
2025-01-15 06:53:11.78	33.68	10.10	
2025-01-15 06:53:11.98	33.65	10.11	
2025-01-15 06:53:12.19	33.61	10.11	
2025-01-15 06:53:12.39	33.58	10.11	
2025-01-15 06:53:12.59	33.54	10.12	
2025-01-15 06:53:12.80	33.50	10.12	
2025-01-15 06:53:13.00	33.47	10.12	
2025-01-15 06:53:13.20	33.43	10.13	
2025-01-15 06:53:13.40	33.40	10.13	
2025-01-15 06:53:13.61	33.36	10.13	
2025-01-15 06:53:13.81	33.33	10.13	
2025-01-15 06:53:14.01	33.29	10.14	
2025-01-15 06:53:14.22	33.25	10.14	
2025-01-15 06:53:14.42	33.22	10.14	
2025-01-15 06:53:14.62	33.18	10.15	
2025-01-15 06:53:14.83	33.15	10.15	
2025-01-15 06:53:15.03	33.11	10.15	
2025-01-15 06:53:15.23	33.08	10.16	
2025-01-15 06:53:15.44	33.04	10.16	
2025-01-15 06:53:15.64	33.00	10.16	
2025-01-15 06:53:15.84	32.97	10.17	
2025-01-15 06:53:16.04	32.93	10.17	
2025-01-15 06:53:16.25	32.89	10.17	
2025-01-15 06:53:16.45	32.86	10.18	
2025-01-15 06:53:16.65	32.82	10.18	
2025-01-15 06:53:16.86	32.79	10.18	
2025-01-15 06:53:17.06	32.75	10.19	
2025-01-15 06:53:17.26	32.72	10.19	
2025-01-15 06:53:17.47	32.68	10.19	
2025-01-15 06:53:17.67	32.64	10.19	
2025-01-15 06:53:17.87	32.61	10.20	
2025-01-15 06:53:18.08	32.57	10.20	
2025-01-15 06:53:18.28	32.53	10.20	
2025-01-15 06:53:18.48	32.50	10.21	
2025-01-15 06:53:18.68	32.46	10.21	
2025-01-15 06:53:18.89	32.43	10.21	
2025-01-15 06:53:19.09	32.39	10.22	
2025-01-15 06:53:19.29	32.36	10.22	
2025-01-15 06:53:19.50	32.32	10.22	
2025-01-15 06:53:19.70	32.28	10.22	
2025-01-15 06:53:19.90	32.25	10.23	
2025-01-15 06:53:20.11	32.21	10.23	
2025-01-15 06:53:20.31	32.17	10.23	
2025-01-15 06:53:20.51	32.14	10.24	
2025-01-15 06:53:20.72	32.10	10.24	
2025-01-15 06:53:20.92	32.07	10.24	
2025-01-15 06:53:21.12	32.03	10.24	
2025-01-15 06:53:21.32	31.99	10.25	
2025-01-15 06:53:21.53	31.96	10.25	
2025-01-15 06:53:21.73	31.92	10.25	
2025-01-15 06:53:21.93	31.89	10.26	
2025-01-15 06:53:22.14	31.85	10.26	
2025-01-15 06:53:22.34	31.81	10.26	
2025-01-15 06:53:22.54	31.78	10.26	
2025-01-15 06:53:22.75	31.74	10.27	
2025-01-15 06:53:22.95	31.70	10.27	
2025-01-15 06:53:23.15	31.67	10.27	
2025-01-15 06:53:23.36	31.63	10.28	
2025-01-15 06:53:23.56	31.60	10.28	
2025-01-15 06:53:23.76	31.56	10.28	
2025-01-15 06:53:23.96	31.52	10.28	
2025-01-15 06:53:24.17	31.49	10.29	
2025-01-15 06:53:24.37	31.45	10.29	
2025-01-15 06:53:24.57	31.41	10.29	
2025-01-15 06:53:24.78	31.38	10.29	
2025-01-15 06:53:24.98	31.34	10.30	
2025-01-15 06:53:25.18	31.31	10.30	
2025-01-15 06:53:25.39	31.27	10.30	
2025-01-15 06:53:25.59	31.23	10.31	
2025-01-15 06:53:25.79	31.20	10.31	
2025-01-15 06:53:26.00	31.16	10.31	
2025-01-15 06:53:26.20	31.12	10.31	
2025-01-15 06:53:26.40	31.09	10.32	
2025-01-15 06:53:26.60	31.05	10.32	
2025-01-15 06:53:26.81	31.01	10.32	
2025-01-15 06:53:27.01	30.98	10.32	
2025-01-15 06:53:27.21	30.94	10.33	
2025-01-15 06:53:27.42	30.91	10.33	
2025-01-15 06:53:27.62	30.87	10.33	
2025-01-15 06:53:27.82	30.83	10.33	
2025-01-15 06:53:28.03	30.80	10.34	
2025-01-15 06:53:28.23	30.76	10.34	
2025-01-15 06:53:28.43	30.72	10.34	
2025-01-15 06:53:28.64	30.69	10.34	
2025-01-15 06:53:28.84	30.65	10.35	
2025-01-15 06:53:29.04	30.62	10.35	
2025-01-15 06:53:29.24	30.58	10.35	
2025-01-15 06:53:29.45	30.54	10.35	
2025-01-15 06:53:29.65	30.51	10.36	
2025-01-15 06:53:29.85	30.47	10.36	
2025-01-15 06:53:30.06	30.43	10.36	
2025-01-15 06:53:30.26	30.40	10.36	
2025-01-15 06:53:30.46	30.36	10.37	
2025-01-15 06:53:30.67	30.32	10.37	
2025-01-15 06:53:30.87	30.29	10.37	
2025-01-15 06:53:31.07	30.25	10.37	
2025-01-15 06:53:31.28	30.21	10.37	
2025-01-15 06:53:31.48	30.18	10.38	
2025-01-15 06:53:31.68	30.14	10.38	
2025-01-15 06:53:31.88	30.11	10.38	
2025-01-15 06:53:32.09	30.07	10.38	
2025-01-15 06:53:32.29	30.03	10.39	
2025-01-15 06:53:32.49	30.00	10.39	
2025-01-15 06:53:32.70	29.96	10.39	
2025-01-15 06:53:32.90	29.92	10.39	
2025-01-15 06:53:33.10	29.89	10.40	
2025-01-15 06:53:33.31	29.85	10.40	
2025-01-15 06:53:33.51	29.81	10.40	
2025-01-15 06:53:33.71	29.78	10.40	
2025-01-15 06:53:33.92	29.74	10.40	
2025-01-15 06:53:34.12	29.70	10.41	
2025-01-15 06:53:34.32	29.67	10.41	
2025-01-15 06:53:34.52	29.63	10.41	
2025-01-15 06:53:34.73	29.59	10.41	
2025-01-15 06:53:34.93	29.56	10.41	
2025-01-15 06:53:35.13	29.52	10.42	
2025-01-15 06:53:35.34	29.48	10.42	
2025-01-15 06:53:35.54	29.45	10.42	
2025-01-15 06:53:35.74	29.41	10.42	
2025-01-15 06:53:35.95	29.37	10.43	
2025-01-15 06:53:36.15	29.34	10.43	
2025-01-15 06:53:36.35	29.30	10.43	
2025-01-15 06:53:36.56	29.26	10.43	
2025-01-15 06:53:36.76	29.23	10.43	
2025-01-15 06:53:36.96	29.19	10.44	
2025-01-15 06:53:37.17	29.15	10.44	
2025-01-15 06:53:37.37	29.12	10.44	
2025-01-15 06:53:37.57	29.08	10.44	
2025-01-15 06:53:37.77	29.04	10.44	
2025-01-15 06:53:37.98	29.01	10.45	
2025-01-15 06:53:38.18	28.97	10.45	
2025-01-15 06:53:38.38	28.93	10.45	
2025-01-15 06:53:38.59	28.90	10.45	
2025-01-15 06:53:38.79	28.86	10.45	
2025-01-15 06:53:38.99	28.82	10.45	
2025-01-15 06:53:39.20	28.79	10.46	
2025-01-15 06:53:39.40	28.75	10.46	
2025-01-15 06:53:39.60	28.71	10.46	
2025-01-15 06:53:39.81	28.68	10.46	
2025-01-15 06:53:40.01	28.64	10.46	
2025-01-15 06:53:40.21	28.60	10.47	
2025-01-15 06:53:40.41	28.57	10.47	
2025-01-15 06:53:40.62	28.53	10.47	
2025-01-15 06:53:40.82	28.49	10.47	
2025-01-15 06:53:41.02	28.46	10.47	
2025-01-15 06:53:41.23	28.42	10.48	
2025-01-15 06:53:41.43	28.38	10.48	
2025-01-15 06:53:41.63	28.35	10.48	
2025-01-15 06:53:41.84	28.31	10.48	
2025-01-15 06:53:42.04	28.27	10.48	
2025-01-15 06:53:42.24	28.24	10.48	
2025-01-15 06:53:42.45	28.20	10.49	
2025-01-15 06:53:42.65	28.16	10.49	
2025-01-15 06:53:42.85	28.13	10.49	
2025-01-15 06:53:43.05	28.09	10.49	
2025-01-15 06:53:43.26	28.05	10.49	
2025-01-15 06:53:43.46	28.02	10.49	
2025-01-15 06:53:43.66	27.98	10.50	
2025-01-15 06:53:43.87	27.94	10.50	
2025-01-15 06:53:44.07	27.91	10.50	
2025-01-15 06:53:44.27	27.87	10.50	
2025-01-15 06:53:44.48	27.83	10.50	
2025-01-15 06:53:44.68	27.80	10.50	
2025-01-15 06:53:44.88	27.76	10.51	
2025-01-15 06:53:45.09	27.72	10.51	
2025-01-15 06:53:45.29	27.68	10.51	
2025-01-15 06:53:45.49	27.65	10.51	
2025-01-15 06:53:45.69	27.61	10.51	
2025-01-15 06:53:45.90	27.57	10.51	
2025-01-15 06:53:46.10	27.54	10.51	
2025-01-15 06:53:46.30	27.50	10.52	
2025-01-15 06:53:46.51	27.46	10.52	
2025-01-15 06:53:46.71	27.43	10.52	
2025-01-15 06:53:46.91	27.39	10.52	
2025-01-15 06:53:47.12	27.35	10.52	
2025-01-15 06:53:47.32	27.32	10.52	
2025-01-15 06:53:47.52	27.28	10.52	
2025-01-15 06:53:47.73	27.24	10.53	
2025-01-15 06:53:47.93	27.21	10.53	
2025-01-15 06:53:48.13	27.17	10.53	
2025-01-15 06:53:48.33	27.13	10.53	
2025-01-15 06:53:48.54	27.10	10.53	
2025-01-15 06:53:48.74	27.06	10.53	
2025-01-15 06:53:48.94	27.02	10.53	
2025-01-15 06:53:49.15	26.98	10.54	
2025-01-15 06:53:49.35	26.95	10.54	
2025-01-15 06:53:49.55	26.91	10.54	
2025-01-15 06:53:49.76	26.87	10.54	
2025-01-15 06:53:49.96	26.84	10.54	
2025-01-15 06:53:50.16	26.80	10.54	
2025-01-15 06:53:50.37	26.76	10.54	
2025-01-15 06:53:50.57	26.73	10.55	
2025-01-15 06:53:50.77	26.69	10.55	
2025-01-15 06:53:50.97	26.65	10.55	
2025-01-15 06:53:51.18	26.62	10.55	
2025-01-15 06:53:51.38	26.58	10.55	
2025-01-15 06:53:51.58	26.54	10.55	
2025-01-15 06:53:51.79	26.50	10.55	
2025-01-15 06:53:51.99	26.47	10.55	
2025-01-15 06:53:52.19	26.43	10.55	
2025-01-15 06:53:52.40	26.39	10.56	
2025-01-15 06:53:52.60	26.36	10.56	
2025-01-15 06:53:52.80	26.32	10.56	
2025-01-15 06:53:53.01	26.28	10.56	
2025-01-15 06:53:53.21	26.25	10.56	
2025-01-15 06:53:53.41	26.21	10.56	
2025-01-15 06:53:53.61	26.17	10.56	
2025-01-15 06:53:53.82	26.14	10.56	
2025-01-15 06:53:54.02	26.10	10.56	
2025-01-15 06:53:54.22	26.06	10.57	
2025-01-15 06:53:54.43	26.02	10.57	
2025-01-15 06:53:54.63	25.99	10.57	
2025-01-15 06:53:54.83	25.95	10.57	
2025-01-15 06:53:55.04	25.91	10.57	
2025-01-15 06:53:55.24	25.88	10.57	
2025-01-15 06:53:55.44	25.84	10.57	
2025-01-15 06:53:55.65	25.80	10.57	
2025-01-15 06:53:55.85	25.77	10.57	
2025-01-15 06:53:56.05	25.73	10.58	
2025-01-15 06:53:56.26	25.69	10.58	
2025-01-15 06:53:56.46	25.66	10.58	
2025-01-15 06:53:56.66	25.62	10.58	
2025-01-15 06:53:56.86	25.58	10.58	
2025-01-15 06:53:57.07	25.54	10.58	
2025-01-15 06:53:57.27	25.51	10.58	
2025-01-15 06:53:57.47	25.47	10.58	
2025-01-15 06:53:57.68	25.43	10.58	
2025-01-15 06:53:57.88	25.40	10.58	
2025-01-15 06:53:58.08	25.36	10.58	
2025-01-15 06:53:58.29	25.32	10.58	
2025-01-15 06:53:58.49	25.29	10.59	
2025-01-15 06:53:58.69	25.25	10.59	
2025-01-15 06:53:58.90	25.21	10.59	
2025-01-15 06:53:59.10	25.17	10.59	
2025-01-15 06:53:59.30	25.14	10.59	
2025-01-15 06:53:59.50	25.10	10.59	
2025-01-15 06:53:59.71	25.06	10.59	
2025-01-15 06:53:59.91	25.03	10.59	
2025-01-15 06:54:00.11	24.99	10.59	
2025-01-15 06:54:00.32	24.95	10.59	
2025-01-15 06:54:00.52	24.92	10.59	
2025-01-15 06:54:00.72	24.88	10.59	
2025-01-15 06:54:00.93	24.84	10.59	
2025-01-15 06:54:01.13	24.80	10.60	
2025-01-15 06:54:01.33	24.77	10.60	
2025-01-15 06:54:01.54	24.73	10.60	
2025-01-15 06:54:01.74	24.69	10.60	
2025-01-15 06:54:01.94	24.66	10.60	
2025-01-15 06:54:02.14	24.62	10.60	
2025-01-15 06:54:02.35	24.58	10.60	
2025-01-15 06:54:02.55	24.55	10.60	
2025-01-15 06:54:02.75	24.51	10.60	
2025-01-15 06:54:02.96	24.47	10.60	
2025-01-15 06:54:03.16	24.43	10.60	
2025-01-15 06:54:03.36	24.40	10.60	
2025-01-15 06:54:03.57	24.36	10.60	
2025-01-15 06:54:03.77	24.32	10.60	
2025-01-15 06:54:03.97	24.29	10.60	
2025-01-15 06:54:04.18	24.25	10.60	
2025-01-15 06:54:04.38	24.21	10.60	
2025-01-15 06:54:04.58	24.18	10.60	
2025-01-15 06:54:04.78	24.14	10.61	
2025-01-15 06:54:04.99	24.10	10.61	
2025-01-15 06:54:05.19	24.06	10.61	
2025-01-15 06:54:05.39	24.03	10.61	
2025-01-15 06:54:05.60	23.99	10.61	
2025-01-15 06:54:05.80	23.95	10.61	
2025-01-15 06:54:06.00	23.92	10.61	
2025-01-15 06:54:06.21	23.88	10.61	
2025-01-15 06:54:06.41	23.84	10.61	
2025-01-15 06:54:06.61	23.80	10.61	
2025-01-15 06:54:06.82	23.77	10.61	
2025-01-15 06:54:07.02	23.73	10.61	
2025-01-15 06:54:07.22	23.69	10.61	
2025-01-15 06:54:07.42	23.66	10.61	
2025-01-15 06:54:07.63	23.62	10.61	
2025-01-15 06:54:07.83	23.58	10.61	
2025-01-15 06:54:08.03	23.55	10.61	
2025-01-15 06:54:08.24	23.51	10.61	
2025-01-15 06:54:08.44	23.47	10.61	
2025-01-15 06:54:08.64	23.43	10.61	
2025-01-15 06:54:08.85	23.40	10.61	
2025-01-15 06:54:09.05	23.36	10.61	
2025-01-15 06:54:09.25	23.32	10.61	
2025-01-15 06:54:09.46	23.28	10.61	
2025-01-15 06:54:09.66	23.25	10.61	
2025-01-15 06:54:09.86	23.21	10.61	
2025-01-15 06:54:10.06	23.18	10.61	
2025-01-15 06:54:10.27	23.14	10.61	
2025-01-15 06:54:10.47	23.10	10.61	
2025-01-15 06:54:10.67	23.06	10.61	
2025-01-15 06:54:10.88	23.03	10.61	
2025-01-15 06:54:11.08	22.99	10.61	
2025-01-15 06:54:11.28	22.95	10.61	
2025-01-15 06:54:11.49	22.91	10.61	
2025-01-15 06:54:11.69	22.88	10.61	
2025-01-15 06:54:11.89	22.84	10.61	
2025-01-15 06:54:12.10	22.80	10.61	
2025-01-15 06:54:12.30	22.77	10.61	
2025-01-15 06:54:12.50	22.73	10.61	
2025-01-15 06:54:12.70	22.69	10.61	
2025-01-15 06:54:12.91	22.65	10.61	
2025-01-15 06:54:13.11	22.62	10.61	
2025-01-15 06:54:13.31	22.58	10.61	
2025-01-15 06:54:13.52	22.54	10.61	
2025-01-15 06:54:13.72	22.51	10.61	
2025-01-15 06:54:13.92	22.47	10.61	
2025-01-15 06:54:14.13	22.43	10.61	
2025-01-15 06:54:14.33	22.40	10.61	
2025-01-15 06:54:14.53	22.36	10.61	
2025-01-15 06:54:14.74	22.32	10.61	
2025-01-15 06:54:14.94	22.28	10.61	
2025-01-15 06:54:15.14	22.25	10.61	
2025-01-15 06:54:15.34	22.21	10.61	
2025-01-15 06:54:15.55	22.17	10.61	
2025-01-15 06:54:15.75	22.14	10.61	
2025-01-15 06:54:15.95	22.10	10.61	
2025-01-15 06:54:16.16	22.06	10.61	
2025-01-15 06:54:16.36	22.03	10.61	
2025-01-15 06:54:16.56	21.99	10.61	
2025-01-15 06:54:16.77	21.95	10.61	
2025-01-15 06:54:16.97	21.91	10.61	
2025-01-15 06:54:17.17	21.88	10.61	
2025-01-15 06:54:17.38	21.84	10.61	
2025-01-15 06:54:17.58	21.80	10.61	
2025-01-15 06:54:17.78	21.77	10.61	
2025-01-15 06:54:17.99	21.73	10.61	
2025-01-15 06:54:18.19	21.69	10.61	
2025-01-15 06:54:18.39	21.65	10.61	
2025-01-15 06:54:18.59	21.62	10.61	
2025-01-15 06:54:18.80	21.58	10.61	
2025-01-15 06:54:19.00	21.54	10.61	
2025-01-15 06:54:19.20	21.51	10.61	
2025-01-15 06:54:19.41	21.47	10.61	
2025-01-15 06:54:19.61	21.43	10.61	
2025-01-15 06:54:19.81	21.40	10.61	
2025-01-15 06:54:20.02	21.36	10.61	
2025-01-15 06:54:20.22	21.32	10.61	
2025-01-15 06:54:20.42	21.28	10.61	
2025-01-15 06:54:20.63	21.25	10.61	
2025-01-15 06:54:20.83	21.21	10.61	
2025-01-15 06:54:21.03	21.17	10.61	
2025-01-15 06:54:21.23	21.14	10.60	
2025-01-15 06:54:21.44	21.10	10.60	
2025-01-15 06:54:21.64	21.06	10.60	
2025-01-15 06:54:21.84	21.03	10.60	
2025-01-15 06:54:22.05	20.99	10.60	
2025-01-15 06:54:22.25	20.95	10.60	
2025-01-15 06:54:22.45	20.91	10.60	
2025-01-15 06:54:22.66	20.88	10.60	
2025-01-15 06:54:22.86	20.84	10.60	
2025-01-15 06:54:23.06	20.80	10.60	
2025-01-15 06:54:23.27	20.76	10.60	
2025-01-15 06:54:23.47	20.73	10.60	
2025-01-15 06:54:23.67	20.69	10.60	
2025-01-15 06:54:23.87	20.66	10.60	
2025-01-15 06:54:24.08	20.62	10.60	
2025-01-15 06:54:24.28	20.58	10.60	
2025-01-15 06:54:24.48	20.54	10.60	
2025-01-15 06:54:24.69	20.51	10.59	
2025-01-15 06:54:24.89	20.47	10.59	
2025-01-15 06:54:25.09	20.43	10.59	
2025-01-15 06:54:25.30	20.39	10.59	
2025-01-15 06:54:25.50	20.36	10.59	
2025-01-15 06:54:25.70	20.32	10.59	
2025-01-15 06:54:25.91	20.28	10.59	
2025-01-15 06:54:26.11	20.25	10.59	
2025-01-15 06:54:26.31	20.21	10.59	
2025-01-15 06:54:26.51	20.17	10.59	
2025-01-15 06:54:26.72	20.14	10.59	
2025-01-15 06:54:26.92	20.10	10.59	
2025-01-15 06:54:27.12	20.06	10.59	
2025-01-15 06:54:27.33	20.02	10.58	
2025-01-15 06:54:27.53	19.99	10.58	
2025-01-15 06:54:27.73	19.95	10.58	
2025-01-15 06:54:27.94	19.91	10.58	
2025-01-15 06:54:28.14	19.88	10.58	
2025-01-15 06:54:28.34	19.84	10.58	
2025-01-15 06:54:28.55	19.80	10.58	
2025-01-15 06:54:28.75	19.77	10.58	
2025-01-15 06:54:28.95	19.73	10.58	
2025-01-15 06:54:29.15	19.69	10.58	
2025-01-15 06:54:29.36	19.66	10.58	
2025-01-15 06:54:29.56	19.62	10.58	
2025-01-15 06:54:29.76	19.58	10.57	
2025-01-15 06:54:29.97	19.54	10.57	
2025-01-15 06:54:30.17	19.51	10.57	
2025-01-15 06:54:30.37	19.47	10.57	
2025-01-15 06:54:30.58	19.43	10.57	
2025-01-15 06:54:30.78	19.40	10.57	
2025-01-15 06:54:30.98	19.36	10.57	
2025-01-15 06:54:31.19	19.32	10.57	
2025-01-15 06:54:31.39	19.29	10.57	
2025-01-15 06:54:31.59	19.25	10.57	
2025-01-15 06:54:31.79	19.21	10.56	
2025-01-15 06:54:32.00	19.17	10.56	
2025-01-15 06:54:32.20	19.14	10.56	
2025-01-15 06:54:32.40	19.10	10.56	
2025-01-15 06:54:32.61	19.06	10.56	
2025-01-15 06:54:32.81	19.03	10.56	
2025-01-15 06:54:33.01	18.99	10.56	
2025-01-15 06:54:33.22	18.95	10.56	
2025-01-15 06:54:33.42	18.92	10.56	
2025-01-15 06:54:33.62	18.88	10.55	
2025-01-15 06:54:33.83	18.84	10.55	
2025-01-15 06:54:34.03	18.81	10.55	
2025-01-15 06:54:34.23	18.77	10.55	
2025-01-15 06:54:34.43	18.73	10.55	
2025-01-15 06:54:34.64	18.70	10.55	
2025-01-15 06:54:34.84	18.66	10.55	
2025-01-15 06:54:35.04	18.62	10.55	
2025-01-15 06:54:35.25	18.58	10.54	
2025-01-15 06:54:35.45	18.55	10.54	
2025-01-15 06:54:35.65	18.51	10.54	
2025-01-15 06:54:35.86	18.47	10.54	
2025-01-15 06:54:36.06	18.44	10.54	
2025-01-15 06:54:36.26	18.40	10.54	
2025-01-15 06:54:36.47	18.36	10.54	
2025-01-15 06:54:36.67	18.33	10.53	
2025-01-15 06:54:36.87	18.29	10.53	
2025-01-15 06:54:37.07	18.25	10.53	
2025-01-15 06:54:37.28	18.22	10.53	
2025-01-15 06:54:37.48	18.18	10.53	
2025-01-15 06:54:37.68	18.14	10.53	
2025-01-15 06:54:37.89	18.11	10.53	
2025-01-15 06:54:38.09	18.07	10.53	
2025-01-15 06:54:38.29	18.03	10.52	
2025-01-15 06:54:38.50	17.99	10.52	
2025-01-15 06:54:38.70	17.96	10.52	
2025-01-15 06:54:38.90	17.92	10.52	
2025-01-15 06:54:39.11	17.88	10.52	
2025-01-15 06:54:39.31	17.85	10.52	
2025-01-15 06:54:39.51	17.81	10.52	
2025-01-15 06:54:39.71	17.78	10.51	
2025-01-15 06:54:39.92	17.74	10.51	
2025-01-15 06:54:40.12	17.70	10.51	
2025-01-15 06:54:40.32	17.66	10.51	
2025-01-15 06:54:40.53	17.63	10.51	
2025-01-15 06:54:40.73	17.59	10.51	
2025-01-15 06:54:40.93	17.55	10.50	
2025-01-15 06:54:41.14	17.52	10.50	
2025-01-15 06:54:41.34	17.48	10.50	
2025-01-15 06:54:41.54	17.44	10.50	
2025-01-15 06:54:41.75	17.41	10.50	
2025-01-15 06:54:41.95	17.37	10.50	
2025-01-15 06:54:42.15	17.33	10.49	
2025-01-15 06:54:42.36	17.30	10.49	
2025-01-15 06:54:42.56	17.26	10.49	
2025-01-15 06:54:42.76	17.22	10.49	
2025-01-15 06:54:42.96	17.19	10.49	
2025-01-15 06:54:43.17	17.15	10.49	
2025-01-15 06:54:43.37	17.11	10.48	
2025-01-15 06:54:43.57	17.08	10.48	
2025-01-15 06:54:43.78	17.04	10.48	
2025-01-15 06:54:43.98	17.00	10.48	
2025-01-15 06:54:44.18	16.97	10.48	
2025-01-15 06:54:44.39	16.93	10.48	
2025-01-15 06:54:44.59	16.89	10.47	
2025-01-15 06:54:44.79	16.86	10.47	
2025-01-15 06:54:45.00	16.82	10.47	
2025-01-15 06:54:45.20	16.78	10.47	
2025-01-15 06:54:45.40	16.75	10.47	
2025-01-15 06:54:45.60	16.71	10.46	
2025-01-15 06:54:45.81	16.67	10.46	
2025-01-15 06:54:46.01	16.64	10.46	
2025-01-15 06:54:46.21	16.60	10.46	
2025-01-15 06:54:46.42	16.56	10.46	
2025-01-15 06:54:46.62	16.53	10.46	
2025-01-15 06:54:46.82	16.49	10.45	
2025-01-15 06:54:47.03	16.45	10.45	
2025-01-15 06:54:47.23	16.42	10.45	
2025-01-15 06:54:47.43	16.38	10.45	
2025-01-15 06:54:47.64	16.34	10.45	
2025-01-15 06:54:47.84	16.31	10.44	
2025-01-15 06:54:48.04	16.27	10.44	
2025-01-15 06:54:48.24	16.23	10.44	
2025-01-15 06:54:48.45	16.20	10.44	
2025-01-15 06:54:48.65	16.16	10.44	
2025-01-15 06:54:48.85	16.12	10.43	
2025-01-15 06:54:49.06	16.09	10.43	
2025-01-15 06:54:49.26	16.05	10.43	
2025-01-15 06:54:49.46	16.01	10.43	
2025-01-15 06:54:49.67	15.98	10.43	
2025-01-15 06:54:49.87	15.94	10.42	
2025-01-15 06:54:50.07	15.90	10.42	
2025-01-15 06:54:50.28	15.87	10.42	
2025-01-15 06:54:50.48	15.83	10.42	
2025-01-15 06:54:50.68	15.79	10.42	
2025-01-15 06:54:50.88	15.76	10.41	
2025-01-15 06:54:51.09	15.72	10.41	
2025-01-15 06:54:51.29	15.68	10.41	
2025-01-15 06:54:51.49	15.65	10.41	
2025-01-15 06:54:51.70	15.61	10.40	
2025-01-15 06:54:51.90	15.57	10.40	
2025-01-15 06:54:52.10	15.54	10.40	
2025-01-15 06:54:52.31	15.50	10.40	
2025-01-15 06:54:52.51	15.46	10.40	
2025-01-15 06:54:52.71	15.43	10.39	
2025-01-15 06:54:52.92	15.39	10.39	
2025-01-15 06:54:53.12	15.36	10.39	
2025-01-15 06:54:53.32	15.32	10.39	
2025-01-15 06:54:53.52	15.28	10.38	
2025-01-15 06:54:53.73	15.25	10.38	
2025-01-15 06:54:53.93	15.21	10.38	
2025-01-15 06:54:54.13	15.17	10.38	
2025-01-15 06:54:54.34	15.14	10.38	
2025-01-15 06:54:54.54	15.10	10.37	
2025-01-15 06:54:54.74	15.06	10.37	
2025-01-15 06:54:54.95	15.03	10.37	
2025-01-15 06:54:55.15	14.99	10.37	
2025-01-15 06:54:55.35	14.95	10.36	
2025-01-15 06:54:55.56	14.92	10.36	
2025-01-15 06:54:55.76	14.88	10.36	
2025-01-15 06:54:55.96	14.85	10.36	
2025-01-15 06:54:56.16	14.81	10.35	
2025-01-15 06:54:56.37	14.77	10.35	
2025-01-15 06:54:56.57	14.74	10.35	
2025-01-15 06:54:56.77	14.70	10.35	
2025-01-15 06:54:56.98	14.66	10.34	
2025-01-15 06:54:57.18	14.63	10.34	
2025-01-15 06:54:57.38	14.59	10.34	
2025-01-15 06:54:57.59	14.55	10.34	
2025-01-15 06:54:57.79	14.52	10.33	
2025-01-15 06:54:57.99	14.48	10.33	
2025-01-15 06:54:58.20	14.44	10.33	
2025-01-15 06:54:58.40	14.41	10.33	
2025-01-15 06:54:58.60	14.37	10.32	
2025-01-15 06:54:58.80	14.34	10.32	
2025-01-15 06:54:59.01	14.30	10.32	
2025-01-15 06:54:59.21	14.26	10.32	
2025-01-15 06:54:59.41	14.23	10.31	
2025-01-15 06:54:59.62	14.19	10.31	
2025-01-15 06:54:59.82	14.16	10.31	
2025-01-15 06:55:00.02	14.12	10.31	
2025-01-15 06:55:00.23	14.08	10.30	
2025-01-15 06:55:00.43	14.05	10.30	
2025-01-15 06:55:00.63	14.01	10.30	
2025-01-15 06:55:00.84	13.97	10.30	
2025-01-15 06:55:01.04	13.94	10.29	
2025-01-15 06:55:01.24	13.90	10.29	
2025-01-15 06:55:01.44	13.87	10.29	
2025-01-15 06:55:01.65	13.83	10.28	
2025-01-15 06:55:01.85	13.79	10.28	
2025-01-15 06:55:02.05	13.76	10.28	
2025-01-15 06:55:02.26	13.72	10.28	
2025-01-15 06:55:02.46	13.68	10.27	
2025-01-15 06:55:02.66	13.65	10.27	
2025-01-15 06:55:02.87	13.61	10.27	
2025-01-15 06:55:03.07	13.58	10.27	
2025-01-15 06:55:03.27	13.54	10.26	
2025-01-15 06:55:03.48	13.50	10.26	
2025-01-15 06:55:03.68	13.47	10.26	
2025-01-15 06:55:03.88	13.43	10.25	
2025-01-15 06:55:04.09	13.39	10.25	
2025-01-15 06:55:04.29	13.36	10.25	
2025-01-15 06:55:04.49	13.32	10.25	
2025-01-15 06:55:04.69	13.29	10.24	
2025-01-15 06:55:04.90	13.25	10.24	
2025-01-15 06:55:05.10	13.21	10.24	
2025-01-15 06:55:05.30	13.18	10.23	
2025-01-15 06:55:05.51	13.14	10.23	
2025-01-15 06:55:05.71	13.11	10.23	
2025-01-15 06:55:05.91	13.07	10.23	
2025-01-15 06:55:06.12	13.03	10.22	
2025-01-15 06:55:06.32	13.00	10.22	
2025-01-15 06:55:06.52	12.96	10.22	
2025-01-15 06:55:06.73	12.92	10.21	
2025-01-15 06:55:06.93	12.89	10.21	
2025-01-15 06:55:07.13	12.85	10.21	
2025-01-15 06:55:07.33	12.82	10.20	
2025-01-15 06:55:07.54	12.78	10.20	
2025-01-15 06:55:07.74	12.75	10.20	
2025-01-15 06:55:07.94	12.71	10.20	
2025-01-15 06:55:08.15	12.67	10.19	
2025-01-15 06:55:08.35	12.64	10.19	
2025-01-15 06:55:08.55	12.60	10.19	
2025-01-15 06:55:08.76	12.57	10.18	
2025-01-15 06:55:08.96	12.53	10.18	
2025-01-15 06:55:09.16	12.49	10.18	
2025-01-15 06:55:09.37	12.46	10.17	
2025-01-15 06:55:09.57	12.42	10.17	
2025-01-15 06:55:09.77	12.39	10.17	
2025-01-15 06:55:09.97	12.35	10.16	
2025-01-15 06:55:10.18	12.31	10.16	
2025-01-15 06:55:10.38	12.28	10.16	
2025-01-15 06:55:10.58	12.24	10.16	
2025-01-15 06:55:10.79	12.21	10.15	
2025-01-15 06:55:10.99	12.17	10.15	
2025-01-15 06:55:11.19	12.14	10.15	
2025-01-15 06:55:11.40	12.10	10.14	
2025-01-15 06:55:11.60	12.06	10.14	
2025-01-15 06:55:11.80	12.03	10.14	
2025-01-15 06:55:12.01	11.99	10.13	
2025-01-15 06:55:12.21	11.96	10.13	
2025-01-15 06:55:12.41	11.92	10.13	
2025-01-15 06:55:12.61	11.88	10.12	
2025-01-15 06:55:12.82	11.85	10.12	
2025-01-15 06:55:13.02	11.81	10.12	
2025-01-15 06:55:13.22	11.78	10.11	
2025-01-15 06:55:13.43	11.74	10.11	
2025-01-15 06:55:13.63	11.71	10.11	
2025-01-15 06:55:13.83	11.67	10.10	
2025-01-15 06:55:14.04	11.63	10.10	
2025-01-15 06:55:14.24	11.60	10.10	
2025-01-15 06:55:14.44	11.56	10.09	
2025-01-15 06:55:14.65	11.53	10.09	
2025-01-15 06:55:14.85	11.49	10.09	
2025-01-15 06:55:15.05	11.46	10.08	
2025-01-15 06:55:15.25	11.42	10.08	
2025-01-15 06:55:15.46	11.38	10.08	
2025-01-15 06:55:15.66	11.35	10.07	
2025-01-15 06:55:15.86	11.31	10.07	
2025-01-15 06:55:16.07	11.28	10.07	
2025-01-15 06:55:16.27	11.24	10.06	
2025-01-15 06:55:16.47	11.21	10.06	
2025-01-15 06:55:16.68	11.17	10.06	
2025-01-15 06:55:16.88	11.13	10.05	
2025-01-15 06:55:17.08	11.10	10.05	
2025-01-15 06:55:17.29	11.06	10.04	
2025-01-15 06:55:17.49	11.03	10.04	
2025-01-15 06:55:17.69	10.99	10.04	
2025-01-15 06:55:17.89	10.96	10.03	
2025-01-15 06:55:18.10	10.92	10.03	
2025-01-15 06:55:18.30	10.88	10.03	
2025-01-15 06:55:18.50	10.85	10.02	
2025-01-15 06:55:18.71	10.81	10.02	
2025-01-15 06:55:18.91	10.78	10.02	
2025-01-15 06:55:19.11	10.74	10.01	
2025-01-15 06:55:19.32	10.71	10.01	
2025-01-15 06:55:19.52	10.67	10.01	
2025-01-15 06:55:19.72	10.64	10.00	
2025-01-15 06:55:19.93	10.60	10.00	
2025-01-15 06:55:20.13	10.56	9.99	
2025-01-15 06:55:20.33	10.53	9.99	
2025-01-15 06:55:20.53	10.49	9.99	
2025-01-15 06:55:20.74	10.46	9.98	
2025-01-15 06:55:20.94	10.42	9.98	
2025-01-15 06:55:21.14	10.39	9.98	
2025-01-15 06:55:21.35	10.35	9.97	
2025-01-15 06:55:21.55	10.32	9.97	
2025-01-15 06:55:21.75	10.28	9.96	
2025-01-15 06:55:21.96	10.25	9.96	
2025-01-15 06:55:22.16	10.21	9.96	
2025-01-15 06:55:22.36	10.18	9.95	
2025-01-15 06:55:22.57	10.14	9.95	
2025-01-15 06:55:22.77	10.10	9.95	
2025-01-15 06:55:22.97	10.07	9.94	
2025-01-15 06:55:23.17	10.03	9.94	
2025-01-15 06:55:23.38	10.00	9.93	
2025-01-15 06:55:23.58	9.96	9.93	
2025-01-15 06:55:23.78	9.93	9.93	
2025-01-15 06:55:23.99	9.89	9.92	
2025-01-15 06:55:24.19	9.86	9.92	
2025-01-15 06:55:24.39	9.82	9.92	
2025-01-15 06:55:24.60	9.79	9.91	
2025-01-15 06:55:24.80	9.75	9.91	
2025-01-15 06:55:25.00	9.72	9.90	
2025-01-15 06:55:25.21	9.68	9.90	
2025-01-15 06:55:25.41	9.65	9.90	
2025-01-15 06:55:25.61	9.61	9.89	
2025-01-15 06:55:25.82	9.57	9.89	
2025-01-15 06:55:26.02	9.54	9.88	
2025-01-15 06:55:26.22	9.50	9.88	
2025-01-15 06:55:26.42	9.47	9.88	
2025-01-15 06:55:26.63	9.43	9.87	
2025-01-15 06:55:26.83	9.40	9.87	
2025-01-15 06:55:27.03	9.36	9.86	
2025-01-15 06:55:27.24	9.33	9.86	
2025-01-15 06:55:27.44	9.29	9.86	
2025-01-15 06:55:27.64	9.26	9.85	
2025-01-15 06:55:27.85	9.22	9.85	
2025-01-15 06:55:28.05	9.19	9.84	
2025-01-15 06:55:28.25	9.15	9.84	
2025-01-15 06:55:28.45	9.12	9.84	
2025-01-15 06:55:28.66	9.08	9.83	
2025-01-15 06:55:28.86	9.05	9.83	
2025-01-15 06:55:29.06	9.01	9.82	
2025-01-15 06:55:29.27	8.98	9.82	
2025-01-15 06:55:29.47	8.94	9.82	
2025-01-15 06:55:29.67	8.91	9.81	
2025-01-15 06:55:29.88	8.87	9.81	
2025-01-15 06:55:30.08	8.84	9.80	
2025-01-15 06:55:30.28	8.80	9.80	
2025-01-15 06:55:30.49	8.77	9.80	
2025-01-15 06:55:30.69	8.73	9.79	
2025-01-15 06:55:30.89	8.70	9.79	
2025-01-15 06:55:31.10	8.66	9.78	
2025-01-15 06:55:31.30	8.63	9.78	
2025-01-15 06:55:31.50	8.59	9.77	
2025-01-15 06:55:31.70	8.56	9.77	
2025-01-15 06:55:31.91	8.52	9.77	
2025-01-15 06:55:32.11	8.49	9.76	
2025-01-15 06:55:32.31	8.45	9.76	
2025-01-15 06:55:32.52	8.42	9.75	
2025-01-15 06:55:32.72	8.38	9.75	
2025-01-15 06:55:32.92	8.35	9.74	
2025-01-15 06:55:33.13	8.31	9.74	
2025-01-15 06:55:33.33	8.28	9.74	
2025-01-15 06:55:33.53	8.24	9.73	
2025-01-15 06:55:33.74	8.21	9.73	
2025-01-15 06:55:33.94	8.17	9.72	
2025-01-15 06:55:34.14	8.14	9.72	
2025-01-15 06:55:34.34	8.11	9.71	
2025-01-15 06:55:34.55	8.07	9.71	
2025-01-15 06:55:34.75	8.04	9.71	
2025-01-15 06:55:34.95	8.00	9.70	
2025-01-15 06:55:35.16	7.96	9.70	
2025-01-15 06:55:35.36	7.93	9.69	
2025-01-15 06:55:35.56	7.90	9.69	
2025-01-15 06:55:35.77	7.86	9.68	
2025-01-15 06:55:35.97	7.83	9.68	
2025-01-15 06:55:36.17	7.79	9.68	
2025-01-15 06:55:36.38	7.76	9.67	
2025-01-15 06:55:36.58	7.72	9.67	
2025-01-15 06:55:36.78	7.69	9.66	
2025-01-15 06:55:36.98	7.65	9.66	
2025-01-15 06:55:37.19	7.62	9.65	
2025-01-15 06:55:37.39	7.58	9.65	
2025-01-15 06:55:37.59	7.55	9.64	
2025-01-15 06:55:37.80	7.51	9.64	
2025-01-15 06:55:38.00	7.48	9.64	
2025-01-15 06:55:38.20	7.45	9.63	
2025-01-15 06:55:38.41	7.41	9.63	
2025-01-15 06:55:38.61	7.38	9.62	
2025-01-15 06:55:38.81	7.34	9.62	
2025-01-15 06:55:39.02	7.31	9.61	
2025-01-15 06:55:39.22	7.27	9.61	
2025-01-15 06:55:39.42	7.24	9.60	
2025-01-15 06:55:39.62	7.20	9.60	
2025-01-15 06:55:39.83	7.17	9.59	
2025-01-15 06:55:40.03	7.13	9.59	
2025-01-15 06:55:40.23	7.10	9.59	
2025-01-15 06:55:40.44	7.07	9.58	
2025-01-15 06:55:40.64	7.03	9.58	
2025-01-15 06:55:40.84	7.00	9.57	
2025-01-15 06:55:41.05	6.96	9.57	
2025-01-15 06:55:41.25	6.93	9.56	
2025-01-15 06:55:41.45	6.89	9.56	
2025-01-15 06:55:41.66	6.86	9.55	
2025-01-15 06:55:41.86	6.82	9.55	
2025-01-15 06:55:42.06	6.79	9.54	
2025-01-15 06:55:42.26	6.76	9.54	
2025-01-15 06:55:42.47	6.72	9.53	
2025-01-15 06:55:42.67	6.69	9.53	
2025-01-15 06:55:42.87	6.65	9.52	
2025-01-15 06:55:43.08	6.62	9.52	
2025-01-15 06:55:43.28	6.58	9.51	
2025-01-15 06:55:43.48	6.55	9.51	
2025-01-15 06:55:43.69	6.51	9.51	
2025-01-15 06:55:43.89	6.48	9.50	
2025-01-15 06:55:44.09	6.45	9.50	
2025-01-15 06:55:44.30	6.41	9.49	
2025-01-15 06:55:44.50	6.38	9.49	
2025-01-15 06:55:44.70	6.34	9.48	
2025-01-15 06:55:44.90	6.31	9.48	
2025-01-15 06:55:45.11	6.28	9.47	
2025-01-15 06:55:45.31	6.24	9.47	
2025-01-15 06:55:45.51	6.21	9.46	
2025-01-15 06:55:45.72	6.17	9.46	
2025-01-15 06:55:45.92	6.14	9.45	
2025-01-15 06:55:46.12	6.11	9.45	
2025-01-15 06:55:46.33	6.07	9.44	
2025-01-15 06:55:46.53	6.04	9.44	
2025-01-15 06:55:46.73	6.00	9.43	
2025-01-15 06:55:46.94	5.97	9.43	
2025-01-15 06:55:47.14	5.93	9.42	
2025-01-15 06:55:47.34	5.90	9.42	
2025-01-15 06:55:47.54	5.87	9.41	
2025-01-15 06:55:47.75	5.83	9.41	
2025-01-15 06:55:47.95	5.80	9.40	
2025-01-15 06:55:48.15	5.76	9.40	
2025-01-15 06:55:48.36	5.73	9.39	
2025-01-15 06:55:48.56	5.70	9.39	
2025-01-15 06:55:48.76	5.66	9.38	
