passes_logs/2025/01/15/SPB_Silybum_02/SPB_Silybum_02__20250115_232124_AQUA_rec.log

#Pass ID: 20250115_232124_AQUA
#Satellite: AQUA
#Configuration: AQUA
#Start time: 2025-01-15 23:21:24

#Version: 2.0.20230423
#Station: SPB_Silybum_02
#Location: 30.233357 lon 59.946436 lat
#TLE: 1 27424U 02022A   25015.14217918  .00001674  00000+0  35361-3 0  9999
#TLE: 2 27424  98.3589 331.8074 0001731 111.2907 305.4435 14.60682485207649

#Time	Az	El	Level	Level2	SNR	BER	Gain	Gain2
2025-01-15 23:21:26.15	33.04	4.11	
2025-01-15 23:21:26.36	33.07	4.12	
2025-01-15 23:21:26.56	33.09	4.13	
2025-01-15 23:21:26.76	33.11	4.14	
2025-01-15 23:21:26.96	33.14	4.15	
2025-01-15 23:21:27.17	33.16	4.16	
2025-01-15 23:21:27.37	33.18	4.17	
2025-01-15 23:21:27.57	33.21	4.18	
2025-01-15 23:21:27.78	33.23	4.19	
2025-01-15 23:21:27.98	33.25	4.20	
2025-01-15 23:21:28.18	33.28	4.21	
2025-01-15 23:21:28.38	33.30	4.22	
2025-01-15 23:21:28.59	33.32	4.23	
2025-01-15 23:21:28.79	33.35	4.24	
2025-01-15 23:21:28.99	33.37	4.25	
2025-01-15 23:21:29.20	33.40	4.26	
2025-01-15 23:21:29.40	33.42	4.27	
2025-01-15 23:21:29.60	33.44	4.28	
2025-01-15 23:21:29.81	33.47	4.30	
2025-01-15 23:21:30.01	33.49	4.31	
2025-01-15 23:21:30.21	33.51	4.32	
2025-01-15 23:21:30.41	33.54	4.33	
2025-01-15 23:21:30.62	33.56	4.34	
2025-01-15 23:21:30.82	33.58	4.35	
2025-01-15 23:21:31.02	33.61	4.36	
2025-01-15 23:21:31.23	33.63	4.37	
2025-01-15 23:21:31.43	33.66	4.38	
2025-01-15 23:21:31.63	33.68	4.39	
2025-01-15 23:21:31.84	33.70	4.40	
2025-01-15 23:21:32.04	33.73	4.41	
2025-01-15 23:21:32.24	33.75	4.42	
2025-01-15 23:21:32.44	33.77	4.43	
2025-01-15 23:21:32.65	33.80	4.44	
2025-01-15 23:21:32.85	33.82	4.45	
2025-01-15 23:21:33.05	33.85	4.46	
2025-01-15 23:21:33.26	33.87	4.47	
2025-01-15 23:21:33.46	33.89	4.48	
2025-01-15 23:21:33.66	33.92	4.49	
2025-01-15 23:21:33.87	33.94	4.50	
2025-01-15 23:21:34.07	33.97	4.51	
2025-01-15 23:21:34.27	33.99	4.52	
2025-01-15 23:21:34.47	34.01	4.53	
2025-01-15 23:21:34.68	34.04	4.55	
2025-01-15 23:21:34.88	34.06	4.56	
2025-01-15 23:21:35.08	34.09	4.57	
2025-01-15 23:21:35.29	34.11	4.58	
2025-01-15 23:21:35.49	34.13	4.59	
2025-01-15 23:21:35.69	34.16	4.60	
2025-01-15 23:21:35.90	34.18	4.61	
2025-01-15 23:21:36.10	34.21	4.62	
2025-01-15 23:21:36.30	34.23	4.63	
2025-01-15 23:21:36.50	34.25	4.64	
2025-01-15 23:21:36.71	34.28	4.65	
2025-01-15 23:21:36.91	34.30	4.66	
2025-01-15 23:21:37.11	34.33	4.67	
2025-01-15 23:21:37.32	34.35	4.68	
2025-01-15 23:21:37.52	34.38	4.69	
2025-01-15 23:21:37.72	34.40	4.70	
2025-01-15 23:21:37.93	34.43	4.71	
2025-01-15 23:21:38.13	34.45	4.72	
2025-01-15 23:21:38.33	34.47	4.73	
2025-01-15 23:21:38.53	34.50	4.74	
2025-01-15 23:21:38.74	34.52	4.75	
2025-01-15 23:21:38.94	34.55	4.76	
2025-01-15 23:21:39.14	34.57	4.78	
2025-01-15 23:21:39.35	34.60	4.79	
2025-01-15 23:21:39.55	34.62	4.80	
2025-01-15 23:21:39.75	34.64	4.81	
2025-01-15 23:21:39.96	34.67	4.82	
2025-01-15 23:21:40.16	34.69	4.83	
2025-01-15 23:21:40.36	34.72	4.84	
2025-01-15 23:21:40.56	34.74	4.85	
2025-01-15 23:21:40.77	34.77	4.86	
2025-01-15 23:21:40.97	34.79	4.87	
2025-01-15 23:21:41.17	34.82	4.88	
2025-01-15 23:21:41.38	34.84	4.89	
2025-01-15 23:21:41.58	34.87	4.90	
2025-01-15 23:21:41.78	34.89	4.91	
2025-01-15 23:21:41.98	34.92	4.92	
2025-01-15 23:21:42.19	34.94	4.93	
2025-01-15 23:21:42.39	34.96	4.94	
2025-01-15 23:21:42.59	34.99	4.95	
2025-01-15 23:21:42.80	35.02	4.96	
2025-01-15 23:21:43.00	35.04	4.97	
2025-01-15 23:21:43.20	35.06	4.98	
2025-01-15 23:21:43.41	35.09	5.00	
2025-01-15 23:21:43.61	35.11	5.01	
2025-01-15 23:21:43.81	35.14	5.02	
2025-01-15 23:21:44.01	35.16	5.03	
2025-01-15 23:21:44.22	35.19	5.04	
2025-01-15 23:21:44.42	35.21	5.05	
2025-01-15 23:21:44.62	35.24	5.06	
2025-01-15 23:21:44.83	35.26	5.07	
2025-01-15 23:21:45.03	35.29	5.08	
2025-01-15 23:21:45.23	35.31	5.09	
2025-01-15 23:21:45.44	35.34	5.10	
2025-01-15 23:21:45.64	35.36	5.11	
2025-01-15 23:21:45.84	35.39	5.12	
2025-01-15 23:21:46.04	35.41	5.13	
2025-01-15 23:21:46.25	35.44	5.14	
2025-01-15 23:21:46.45	35.46	5.15	
2025-01-15 23:21:46.65	35.49	5.16	
2025-01-15 23:21:46.86	35.51	5.17	
2025-01-15 23:21:47.06	35.54	5.18	
2025-01-15 23:21:47.26	35.56	5.19	
2025-01-15 23:21:47.47	35.59	5.20	
2025-01-15 23:21:47.67	35.61	5.21	
2025-01-15 23:21:47.87	35.64	5.23	
2025-01-15 23:21:48.07	35.66	5.24	
2025-01-15 23:21:48.28	35.69	5.25	
2025-01-15 23:21:48.48	35.72	5.26	
2025-01-15 23:21:48.68	35.74	5.27	
2025-01-15 23:21:48.89	35.77	5.28	
2025-01-15 23:21:49.09	35.79	5.29	
2025-01-15 23:21:49.29	35.82	5.30	
2025-01-15 23:21:49.50	35.84	5.31	
2025-01-15 23:21:49.70	35.87	5.32	
2025-01-15 23:21:49.90	35.89	5.33	
2025-01-15 23:21:50.10	35.92	5.34	
2025-01-15 23:21:50.31	35.94	5.35	
2025-01-15 23:21:50.51	35.97	5.36	
2025-01-15 23:21:50.71	35.99	5.37	
2025-01-15 23:21:50.92	36.02	5.38	
2025-01-15 23:21:51.12	36.05	5.39	
2025-01-15 23:21:51.32	36.07	5.40	
2025-01-15 23:21:51.53	36.10	5.41	
2025-01-15 23:21:51.73	36.12	5.42	
2025-01-15 23:21:51.93	36.15	5.43	
2025-01-15 23:21:52.13	36.17	5.44	
2025-01-15 23:21:52.34	36.20	5.46	
2025-01-15 23:21:52.54	36.23	5.47	
2025-01-15 23:21:52.74	36.25	5.48	
2025-01-15 23:21:52.95	36.28	5.49	
2025-01-15 23:21:53.15	36.30	5.50	
2025-01-15 23:21:53.35	36.33	5.51	
2025-01-15 23:21:53.56	36.36	5.52	
2025-01-15 23:21:53.76	36.38	5.53	
2025-01-15 23:21:53.96	36.41	5.54	
2025-01-15 23:21:54.16	36.43	5.55	
2025-01-15 23:21:54.37	36.46	5.56	
2025-01-15 23:21:54.57	36.48	5.57	
2025-01-15 23:21:54.77	36.51	5.58	
2025-01-15 23:21:54.98	36.54	5.59	
2025-01-15 23:21:55.18	36.56	5.60	
2025-01-15 23:21:55.38	36.59	5.61	
2025-01-15 23:21:55.59	36.61	5.62	
2025-01-15 23:21:55.79	36.64	5.63	
2025-01-15 23:21:55.99	36.67	5.64	
2025-01-15 23:21:56.19	36.69	5.65	
2025-01-15 23:21:56.40	36.72	5.67	
2025-01-15 23:21:56.60	36.74	5.68	
2025-01-15 23:21:56.80	36.77	5.69	
2025-01-15 23:21:57.01	36.80	5.70	
2025-01-15 23:21:57.21	36.82	5.71	
2025-01-15 23:21:57.41	36.85	5.72	
2025-01-15 23:21:57.61	36.87	5.73	
2025-01-15 23:21:57.82	36.90	5.74	
2025-01-15 23:21:58.02	36.93	5.75	
2025-01-15 23:21:58.22	36.95	5.76	
2025-01-15 23:21:58.43	36.98	5.77	
2025-01-15 23:21:58.63	37.01	5.78	
2025-01-15 23:21:58.83	37.03	5.79	
2025-01-15 23:21:59.04	37.06	5.80	
2025-01-15 23:21:59.24	37.08	5.81	
2025-01-15 23:21:59.44	37.11	5.82	
2025-01-15 23:21:59.64	37.14	5.83	
2025-01-15 23:21:59.85	37.16	5.84	
2025-01-15 23:22:00.05	37.19	5.85	
2025-01-15 23:22:00.25	37.22	5.86	
2025-01-15 23:22:00.46	37.24	5.87	
2025-01-15 23:22:00.66	37.27	5.89	
2025-01-15 23:22:00.86	37.30	5.90	
2025-01-15 23:22:01.07	37.32	5.91	
2025-01-15 23:22:01.27	37.35	5.92	
2025-01-15 23:22:01.47	37.37	5.93	
2025-01-15 23:22:01.67	37.40	5.94	
2025-01-15 23:22:01.88	37.43	5.95	
2025-01-15 23:22:02.08	37.45	5.96	
2025-01-15 23:22:02.28	37.48	5.97	
2025-01-15 23:22:02.49	37.51	5.98	
2025-01-15 23:22:02.69	37.53	5.99	
2025-01-15 23:22:02.89	37.56	6.00	
2025-01-15 23:22:03.10	37.59	6.01	
2025-01-15 23:22:03.30	37.62	6.02	
2025-01-15 23:22:03.50	37.64	6.03	
2025-01-15 23:22:03.70	37.67	6.04	
2025-01-15 23:22:03.91	37.70	6.05	
2025-01-15 23:22:04.11	37.72	6.06	
2025-01-15 23:22:04.31	37.75	6.07	
2025-01-15 23:22:04.52	37.78	6.08	
2025-01-15 23:22:04.72	37.80	6.09	
2025-01-15 23:22:04.92	37.83	6.11	
2025-01-15 23:22:05.13	37.86	6.12	
2025-01-15 23:22:05.33	37.88	6.13	
2025-01-15 23:22:05.53	37.91	6.14	
2025-01-15 23:22:05.73	37.94	6.15	
2025-01-15 23:22:05.94	37.96	6.16	
2025-01-15 23:22:06.14	37.99	6.17	
2025-01-15 23:22:06.34	38.02	6.18	
2025-01-15 23:22:06.55	38.05	6.19	
2025-01-15 23:22:06.75	38.07	6.20	
2025-01-15 23:22:06.95	38.10	6.21	
2025-01-15 23:22:07.16	38.13	6.22	
2025-01-15 23:22:07.36	38.15	6.23	
2025-01-15 23:22:07.56	38.18	6.24	
2025-01-15 23:22:07.76	38.21	6.25	
2025-01-15 23:22:07.97	38.24	6.26	
2025-01-15 23:22:08.17	38.26	6.27	
2025-01-15 23:22:08.37	38.29	6.28	
2025-01-15 23:22:08.58	38.32	6.29	
2025-01-15 23:22:08.78	38.34	6.30	
2025-01-15 23:22:08.98	38.37	6.31	
2025-01-15 23:22:09.19	38.40	6.33	
2025-01-15 23:22:09.39	38.43	6.34	
2025-01-15 23:22:09.59	38.45	6.35	
2025-01-15 23:22:09.79	38.48	6.36	
2025-01-15 23:22:10.00	38.51	6.37	
2025-01-15 23:22:10.20	38.54	6.38	
2025-01-15 23:22:10.40	38.56	6.39	
2025-01-15 23:22:10.61	38.59	6.40	
2025-01-15 23:22:10.81	38.62	6.41	
2025-01-15 23:22:11.01	38.65	6.42	
2025-01-15 23:22:11.22	38.67	6.43	
2025-01-15 23:22:11.42	38.70	6.44	
2025-01-15 23:22:11.62	38.73	6.45	
2025-01-15 23:22:11.82	38.76	6.46	
2025-01-15 23:22:12.03	38.78	6.47	
2025-01-15 23:22:12.23	38.81	6.48	
2025-01-15 23:22:12.43	38.84	6.49	
2025-01-15 23:22:12.64	38.87	6.50	
2025-01-15 23:22:12.84	38.89	6.51	
2025-01-15 23:22:13.04	38.92	6.52	
2025-01-15 23:22:13.24	38.95	6.53	
2025-01-15 23:22:13.45	38.98	6.55	
2025-01-15 23:22:13.65	39.01	6.56	
2025-01-15 23:22:13.85	39.03	6.57	
2025-01-15 23:22:14.06	39.06	6.58	
2025-01-15 23:22:14.26	39.09	6.59	
2025-01-15 23:22:14.46	39.12	6.60	
2025-01-15 23:22:14.67	39.15	6.61	
2025-01-15 23:22:14.87	39.17	6.62	
2025-01-15 23:22:15.07	39.20	6.63	
2025-01-15 23:22:15.27	39.23	6.64	
2025-01-15 23:22:15.48	39.26	6.65	
2025-01-15 23:22:15.68	39.28	6.66	
2025-01-15 23:22:15.88	39.31	6.67	
2025-01-15 23:22:16.09	39.34	6.68	
2025-01-15 23:22:16.29	39.37	6.69	
2025-01-15 23:22:16.49	39.40	6.70	
2025-01-15 23:22:16.70	39.43	6.71	
2025-01-15 23:22:16.90	39.45	6.72	
2025-01-15 23:22:17.10	39.48	6.73	
2025-01-15 23:22:17.30	39.51	6.74	
2025-01-15 23:22:17.51	39.54	6.75	
2025-01-15 23:22:17.71	39.57	6.76	
2025-01-15 23:22:17.91	39.59	6.77	
2025-01-15 23:22:18.12	39.62	6.79	
2025-01-15 23:22:18.32	39.65	6.80	
2025-01-15 23:22:18.52	39.68	6.81	
2025-01-15 23:22:18.73	39.71	6.82	
2025-01-15 23:22:18.93	39.74	6.83	
2025-01-15 23:22:19.13	39.76	6.84	
2025-01-15 23:22:19.33	39.79	6.85	
2025-01-15 23:22:19.54	39.82	6.86	
2025-01-15 23:22:19.74	39.85	6.87	
2025-01-15 23:22:19.94	39.88	6.88	
2025-01-15 23:22:20.15	39.91	6.89	
2025-01-15 23:22:20.35	39.93	6.90	
2025-01-15 23:22:20.55	39.96	6.91	
2025-01-15 23:22:20.76	39.99	6.92	
2025-01-15 23:22:20.96	40.02	6.93	
2025-01-15 23:22:21.16	40.05	6.94	
2025-01-15 23:22:21.36	40.08	6.95	
2025-01-15 23:22:21.57	40.11	6.96	
2025-01-15 23:22:21.77	40.13	6.97	
2025-01-15 23:22:21.97	40.16	6.98	
2025-01-15 23:22:22.18	40.19	6.99	
2025-01-15 23:22:22.38	40.22	7.00	
2025-01-15 23:22:22.58	40.25	7.01	
2025-01-15 23:22:22.79	40.28	7.03	
2025-01-15 23:22:22.99	40.31	7.04	
2025-01-15 23:22:23.19	40.33	7.05	
2025-01-15 23:22:23.39	40.36	7.06	
2025-01-15 23:22:23.60	40.39	7.07	
2025-01-15 23:22:23.80	40.42	7.08	
2025-01-15 23:22:24.00	40.45	7.09	
2025-01-15 23:22:24.21	40.48	7.10	
2025-01-15 23:22:24.41	40.51	7.11	
2025-01-15 23:22:24.61	40.54	7.12	
2025-01-15 23:22:24.82	40.57	7.13	
2025-01-15 23:22:25.02	40.60	7.14	
2025-01-15 23:22:25.22	40.62	7.15	
2025-01-15 23:22:25.42	40.65	7.16	
2025-01-15 23:22:25.63	40.68	7.17	
2025-01-15 23:22:25.83	40.71	7.18	
2025-01-15 23:22:26.03	40.74	7.19	
2025-01-15 23:22:26.24	40.77	7.20	
2025-01-15 23:22:26.44	40.80	7.21	
2025-01-15 23:22:26.64	40.83	7.22	
2025-01-15 23:22:26.85	40.86	7.23	
2025-01-15 23:22:27.05	40.89	7.24	
2025-01-15 23:22:27.25	40.91	7.25	
2025-01-15 23:22:27.45	40.94	7.26	
2025-01-15 23:22:27.66	40.97	7.28	
2025-01-15 23:22:27.86	41.00	7.29	
2025-01-15 23:22:28.06	41.03	7.30	
2025-01-15 23:22:28.27	41.06	7.31	
2025-01-15 23:22:28.47	41.09	7.32	
2025-01-15 23:22:28.67	41.12	7.33	
2025-01-15 23:22:28.87	41.15	7.34	
2025-01-15 23:22:29.08	41.18	7.35	
2025-01-15 23:22:29.28	41.21	7.36	
2025-01-15 23:22:29.48	41.24	7.37	
2025-01-15 23:22:29.69	41.27	7.38	
2025-01-15 23:22:29.89	41.30	7.39	
2025-01-15 23:22:30.09	41.33	7.40	
2025-01-15 23:22:30.30	41.36	7.41	
2025-01-15 23:22:30.50	41.39	7.42	
2025-01-15 23:22:30.70	41.41	7.43	
2025-01-15 23:22:30.90	41.44	7.44	
2025-01-15 23:22:31.11	41.47	7.45	
2025-01-15 23:22:31.31	41.50	7.46	
2025-01-15 23:22:31.51	41.53	7.47	
2025-01-15 23:22:31.72	41.56	7.48	
2025-01-15 23:22:31.92	41.59	7.49	
2025-01-15 23:22:32.12	41.62	7.50	
2025-01-15 23:22:32.33	41.65	7.51	
2025-01-15 23:22:32.53	41.68	7.52	
2025-01-15 23:22:32.73	41.71	7.54	
2025-01-15 23:22:32.93	41.74	7.55	
2025-01-15 23:22:33.14	41.77	7.56	
2025-01-15 23:22:33.34	41.80	7.57	
2025-01-15 23:22:33.54	41.83	7.58	
2025-01-15 23:22:33.75	41.86	7.59	
2025-01-15 23:22:33.95	41.89	7.60	
2025-01-15 23:22:34.15	41.92	7.61	
2025-01-15 23:22:34.36	41.95	7.62	
2025-01-15 23:22:34.56	41.98	7.63	
2025-01-15 23:22:34.76	42.01	7.64	
2025-01-15 23:22:34.96	42.04	7.65	
2025-01-15 23:22:35.17	42.07	7.66	
2025-01-15 23:22:35.37	42.10	7.67	
2025-01-15 23:22:35.57	42.13	7.68	
2025-01-15 23:22:35.78	42.16	7.69	
2025-01-15 23:22:35.98	42.19	7.70	
2025-01-15 23:22:36.18	42.22	7.71	
2025-01-15 23:22:36.39	42.25	7.72	
2025-01-15 23:22:36.59	42.28	7.73	
2025-01-15 23:22:36.79	42.31	7.74	
2025-01-15 23:22:36.99	42.34	7.75	
2025-01-15 23:22:37.20	42.37	7.76	
2025-01-15 23:22:37.40	42.40	7.77	
2025-01-15 23:22:37.60	42.43	7.78	
2025-01-15 23:22:37.81	42.47	7.79	
2025-01-15 23:22:38.01	42.50	7.80	
2025-01-15 23:22:38.21	42.53	7.81	
2025-01-15 23:22:38.42	42.56	7.83	
2025-01-15 23:22:38.62	42.59	7.84	
2025-01-15 23:22:38.82	42.62	7.85	
2025-01-15 23:22:39.02	42.65	7.86	
2025-01-15 23:22:39.23	42.68	7.87	
2025-01-15 23:22:39.43	42.71	7.88	
2025-01-15 23:22:39.63	42.74	7.89	
2025-01-15 23:22:39.84	42.77	7.90	
2025-01-15 23:22:40.04	42.80	7.91	
2025-01-15 23:22:40.24	42.83	7.92	
2025-01-15 23:22:40.45	42.86	7.93	
2025-01-15 23:22:40.65	42.89	7.94	
2025-01-15 23:22:40.85	42.92	7.95	
2025-01-15 23:22:41.05	42.95	7.96	
2025-01-15 23:22:41.26	42.99	7.97	
2025-01-15 23:22:41.46	43.02	7.98	
2025-01-15 23:22:41.66	43.05	7.99	
2025-01-15 23:22:41.87	43.08	8.00	
2025-01-15 23:22:42.07	43.11	8.01	
2025-01-15 23:22:42.27	43.14	8.02	
2025-01-15 23:22:42.47	43.17	8.03	
2025-01-15 23:22:42.68	43.20	8.04	
2025-01-15 23:22:42.88	43.23	8.05	
2025-01-15 23:22:43.08	43.26	8.06	
2025-01-15 23:22:43.29	43.29	8.07	
2025-01-15 23:22:43.49	43.32	8.08	
2025-01-15 23:22:43.69	43.36	8.09	
2025-01-15 23:22:43.90	43.39	8.10	
2025-01-15 23:22:44.10	43.42	8.11	
2025-01-15 23:22:44.30	43.45	8.12	
2025-01-15 23:22:44.50	43.48	8.13	
2025-01-15 23:22:44.71	43.51	8.14	
2025-01-15 23:22:44.91	43.54	8.15	
2025-01-15 23:22:45.11	43.57	8.16	
2025-01-15 23:22:45.32	43.61	8.17	
2025-01-15 23:22:45.52	43.64	8.18	
2025-01-15 23:22:45.72	43.67	8.20	
2025-01-15 23:22:45.93	43.70	8.21	
2025-01-15 23:22:46.13	43.73	8.22	
2025-01-15 23:22:46.33	43.76	8.23	
2025-01-15 23:22:46.53	43.79	8.24	
2025-01-15 23:22:46.74	43.82	8.25	
2025-01-15 23:22:46.94	43.86	8.26	
2025-01-15 23:22:47.14	43.89	8.27	
2025-01-15 23:22:47.35	43.92	8.28	
2025-01-15 23:22:47.55	43.95	8.29	
2025-01-15 23:22:47.75	43.98	8.30	
2025-01-15 23:22:47.96	44.01	8.31	
2025-01-15 23:22:48.16	44.04	8.32	
2025-01-15 23:22:48.36	44.08	8.33	
2025-01-15 23:22:48.56	44.11	8.34	
2025-01-15 23:22:48.77	44.14	8.35	
2025-01-15 23:22:48.97	44.17	8.36	
2025-01-15 23:22:49.17	44.20	8.37	
2025-01-15 23:22:49.38	44.23	8.38	
2025-01-15 23:22:49.58	44.27	8.39	
2025-01-15 23:22:49.78	44.30	8.40	
2025-01-15 23:22:49.99	44.33	8.41	
2025-01-15 23:22:50.19	44.36	8.42	
2025-01-15 23:22:50.39	44.39	8.43	
2025-01-15 23:22:50.59	44.42	8.44	
2025-01-15 23:22:50.80	44.46	8.45	
2025-01-15 23:22:51.00	44.49	8.46	
2025-01-15 23:22:51.20	44.52	8.47	
2025-01-15 23:22:51.41	44.55	8.48	
2025-01-15 23:22:51.61	44.58	8.49	
2025-01-15 23:22:51.81	44.62	8.50	
2025-01-15 23:22:52.02	44.65	8.51	
2025-01-15 23:22:52.22	44.68	8.52	
2025-01-15 23:22:52.42	44.71	8.53	
2025-01-15 23:22:52.62	44.74	8.54	
2025-01-15 23:22:52.83	44.78	8.55	
2025-01-15 23:22:53.03	44.81	8.56	
2025-01-15 23:22:53.23	44.84	8.57	
2025-01-15 23:22:53.44	44.87	8.58	
2025-01-15 23:22:53.64	44.91	8.59	
2025-01-15 23:22:53.84	44.94	8.60	
2025-01-15 23:22:54.05	44.97	8.61	
2025-01-15 23:22:54.25	45.00	8.62	
2025-01-15 23:22:54.45	45.03	8.63	
2025-01-15 23:22:54.65	45.07	8.64	
2025-01-15 23:22:54.86	45.10	8.65	
2025-01-15 23:22:55.06	45.13	8.66	
2025-01-15 23:22:55.26	45.16	8.67	
2025-01-15 23:22:55.47	45.20	8.68	
2025-01-15 23:22:55.67	45.23	8.69	
2025-01-15 23:22:55.87	45.26	8.70	
2025-01-15 23:22:56.08	45.29	8.72	
2025-01-15 23:22:56.28	45.33	8.73	
2025-01-15 23:22:56.48	45.36	8.73	
2025-01-15 23:22:56.68	45.39	8.74	
2025-01-15 23:22:56.89	45.42	8.76	
2025-01-15 23:22:57.09	45.46	8.77	
2025-01-15 23:22:57.29	45.49	8.78	
2025-01-15 23:22:57.50	45.52	8.79	
2025-01-15 23:22:57.70	45.55	8.80	
2025-01-15 23:22:57.90	45.59	8.81	
2025-01-15 23:22:58.10	45.62	8.82	
2025-01-15 23:22:58.31	45.65	8.83	
2025-01-15 23:22:58.51	45.68	8.84	
2025-01-15 23:22:58.71	45.72	8.85	
2025-01-15 23:22:58.92	45.75	8.86	
2025-01-15 23:22:59.12	45.78	8.87	
2025-01-15 23:22:59.32	45.82	8.88	
2025-01-15 23:22:59.53	45.85	8.89	
2025-01-15 23:22:59.73	45.88	8.90	
2025-01-15 23:22:59.93	45.91	8.91	
2025-01-15 23:23:00.13	45.95	8.92	
2025-01-15 23:23:00.34	45.98	8.93	
2025-01-15 23:23:00.54	46.01	8.94	
2025-01-15 23:23:00.74	46.05	8.95	
2025-01-15 23:23:00.95	46.08	8.96	
2025-01-15 23:23:01.15	46.11	8.97	
2025-01-15 23:23:01.35	46.14	8.98	
2025-01-15 23:23:01.56	46.18	8.99	
2025-01-15 23:23:01.76	46.21	9.00	
2025-01-15 23:23:01.96	46.24	9.01	
2025-01-15 23:23:02.16	46.28	9.02	
2025-01-15 23:23:02.37	46.31	9.03	
2025-01-15 23:23:02.57	46.34	9.04	
2025-01-15 23:23:02.77	46.38	9.05	
2025-01-15 23:23:02.98	46.41	9.06	
2025-01-15 23:23:03.18	46.44	9.07	
2025-01-15 23:23:03.38	46.48	9.08	
2025-01-15 23:23:03.59	46.51	9.09	
2025-01-15 23:23:03.79	46.54	9.10	
2025-01-15 23:23:03.99	46.58	9.11	
2025-01-15 23:23:04.19	46.61	9.12	
2025-01-15 23:23:04.40	46.64	9.13	
2025-01-15 23:23:04.60	46.68	9.14	
2025-01-15 23:23:04.80	46.71	9.15	
2025-01-15 23:23:05.01	46.75	9.16	
2025-01-15 23:23:05.21	46.78	9.17	
2025-01-15 23:23:05.41	46.81	9.18	
2025-01-15 23:23:05.62	46.85	9.19	
2025-01-15 23:23:05.82	46.88	9.20	
2025-01-15 23:23:06.02	46.91	9.21	
2025-01-15 23:23:06.22	46.95	9.22	
2025-01-15 23:23:06.43	46.98	9.23	
2025-01-15 23:23:06.63	47.01	9.24	
2025-01-15 23:23:06.83	47.05	9.25	
2025-01-15 23:23:07.04	47.08	9.26	
2025-01-15 23:23:07.24	47.12	9.27	
2025-01-15 23:23:07.44	47.15	9.28	
2025-01-15 23:23:07.65	47.18	9.29	
2025-01-15 23:23:07.85	47.22	9.30	
2025-01-15 23:23:08.05	47.25	9.31	
2025-01-15 23:23:08.25	47.28	9.32	
2025-01-15 23:23:08.46	47.32	9.33	
2025-01-15 23:23:08.66	47.35	9.34	
2025-01-15 23:23:08.86	47.39	9.35	
2025-01-15 23:23:09.07	47.42	9.36	
2025-01-15 23:23:09.27	47.45	9.37	
2025-01-15 23:23:09.47	47.49	9.38	
2025-01-15 23:23:09.68	47.52	9.39	
2025-01-15 23:23:09.88	47.56	9.40	
2025-01-15 23:23:10.08	47.59	9.41	
2025-01-15 23:23:10.28	47.62	9.42	
2025-01-15 23:23:10.49	47.66	9.43	
2025-01-15 23:23:10.69	47.69	9.44	
2025-01-15 23:23:10.89	47.73	9.44	
2025-01-15 23:23:11.10	47.76	9.46	
2025-01-15 23:23:11.30	47.80	9.46	
2025-01-15 23:23:11.50	47.83	9.47	
2025-01-15 23:23:11.70	47.86	9.48	
2025-01-15 23:23:11.91	47.90	9.49	
2025-01-15 23:23:12.11	47.93	9.50	
2025-01-15 23:23:12.31	47.97	9.51	
2025-01-15 23:23:12.52	48.00	9.52	
2025-01-15 23:23:12.72	48.04	9.53	
2025-01-15 23:23:12.92	48.07	9.54	
2025-01-15 23:23:13.13	48.11	9.55	
2025-01-15 23:23:13.33	48.14	9.56	
2025-01-15 23:23:13.53	48.17	9.57	
2025-01-15 23:23:13.73	48.21	9.58	
2025-01-15 23:23:13.94	48.24	9.59	
2025-01-15 23:23:14.14	48.28	9.60	
2025-01-15 23:23:14.34	48.31	9.61	
2025-01-15 23:23:14.55	48.35	9.62	
2025-01-15 23:23:14.75	48.38	9.63	
2025-01-15 23:23:14.95	48.42	9.64	
2025-01-15 23:23:15.16	48.45	9.65	
2025-01-15 23:23:15.36	48.49	9.66	
2025-01-15 23:23:15.56	48.52	9.67	
2025-01-15 23:23:15.76	48.56	9.68	
2025-01-15 23:23:15.97	48.59	9.69	
2025-01-15 23:23:16.17	48.63	9.70	
2025-01-15 23:23:16.37	48.66	9.71	
2025-01-15 23:23:16.58	48.70	9.72	
2025-01-15 23:23:16.78	48.73	9.73	
2025-01-15 23:23:16.98	48.77	9.74	
2025-01-15 23:23:17.19	48.80	9.75	
2025-01-15 23:23:17.39	48.84	9.76	
2025-01-15 23:23:17.59	48.87	9.77	
2025-01-15 23:23:17.79	48.90	9.78	
2025-01-15 23:23:18.00	48.94	9.79	
2025-01-15 23:23:18.20	48.98	9.80	
2025-01-15 23:23:18.40	49.01	9.81	
2025-01-15 23:23:18.61	49.05	9.82	
2025-01-15 23:23:18.81	49.08	9.83	
2025-01-15 23:23:19.01	49.12	9.84	
2025-01-15 23:23:19.22	49.15	9.85	
2025-01-15 23:23:19.42	49.19	9.86	
2025-01-15 23:23:19.62	49.22	9.87	
2025-01-15 23:23:19.82	49.26	9.87	
2025-01-15 23:23:20.03	49.29	9.88	
2025-01-15 23:23:20.23	49.33	9.89	
2025-01-15 23:23:20.43	49.36	9.90	
2025-01-15 23:23:20.64	49.40	9.91	
2025-01-15 23:23:20.84	49.43	9.92	
2025-01-15 23:23:21.04	49.47	9.93	
2025-01-15 23:23:21.25	49.51	9.94	
2025-01-15 23:23:21.45	49.54	9.95	
2025-01-15 23:23:21.65	49.58	9.96	
2025-01-15 23:23:21.85	49.61	9.97	
2025-01-15 23:23:22.06	49.65	9.98	
2025-01-15 23:23:22.26	49.68	9.99	
2025-01-15 23:23:22.46	49.72	10.00	
2025-01-15 23:23:22.67	49.76	10.01	
2025-01-15 23:23:22.87	49.79	10.02	
2025-01-15 23:23:23.07	49.83	10.03	
2025-01-15 23:23:23.28	49.86	10.04	
2025-01-15 23:23:23.48	49.90	10.05	
2025-01-15 23:23:23.68	49.93	10.06	
2025-01-15 23:23:23.88	49.97	10.07	
2025-01-15 23:23:24.09	50.01	10.08	
2025-01-15 23:23:24.29	50.04	10.09	
2025-01-15 23:23:24.49	50.08	10.10	
2025-01-15 23:23:24.70	50.11	10.11	
2025-01-15 23:23:24.90	50.15	10.12	
2025-01-15 23:23:25.10	50.18	10.12	
2025-01-15 23:23:25.31	50.22	10.13	
2025-01-15 23:23:25.51	50.26	10.14	
2025-01-15 23:23:25.71	50.29	10.15	
2025-01-15 23:23:25.91	50.33	10.16	
2025-01-15 23:23:26.12	50.36	10.17	
2025-01-15 23:23:26.32	50.40	10.18	
2025-01-15 23:23:26.52	50.44	10.19	
2025-01-15 23:23:26.73	50.47	10.20	
2025-01-15 23:23:26.93	50.51	10.21	
2025-01-15 23:23:27.13	50.54	10.22	
2025-01-15 23:23:27.33	50.58	10.23	
2025-01-15 23:23:27.54	50.62	10.24	
2025-01-15 23:23:27.74	50.65	10.25	
2025-01-15 23:23:27.94	50.69	10.26	
2025-01-15 23:23:28.15	50.73	10.27	
2025-01-15 23:23:28.35	50.76	10.28	
2025-01-15 23:23:28.55	50.80	10.29	
2025-01-15 23:23:28.76	50.84	10.30	
2025-01-15 23:23:28.96	50.87	10.31	
2025-01-15 23:23:29.16	50.91	10.31	
2025-01-15 23:23:29.36	50.94	10.32	
2025-01-15 23:23:29.57	50.98	10.33	
2025-01-15 23:23:29.77	51.02	10.34	
2025-01-15 23:23:29.97	51.05	10.35	
2025-01-15 23:23:30.18	51.09	10.36	
2025-01-15 23:23:30.38	51.13	10.37	
2025-01-15 23:23:30.58	51.16	10.38	
2025-01-15 23:23:30.79	51.20	10.39	
2025-01-15 23:23:30.99	51.24	10.40	
2025-01-15 23:23:31.19	51.27	10.41	
2025-01-15 23:23:31.39	51.31	10.42	
2025-01-15 23:23:31.60	51.35	10.43	
2025-01-15 23:23:31.80	51.38	10.44	
2025-01-15 23:23:32.00	51.42	10.45	
2025-01-15 23:23:32.21	51.46	10.46	
2025-01-15 23:23:32.41	51.49	10.47	
2025-01-15 23:23:32.61	51.53	10.47	
2025-01-15 23:23:32.82	51.57	10.48	
2025-01-15 23:23:33.02	51.61	10.49	
2025-01-15 23:23:33.22	51.64	10.50	
2025-01-15 23:23:33.42	51.68	10.51	
2025-01-15 23:23:33.63	51.72	10.52	
2025-01-15 23:23:33.83	51.75	10.53	
2025-01-15 23:23:34.03	51.79	10.54	
2025-01-15 23:23:34.24	51.83	10.55	
2025-01-15 23:23:34.44	51.86	10.56	
2025-01-15 23:23:34.64	51.90	10.57	
2025-01-15 23:23:34.85	51.94	10.58	
2025-01-15 23:23:35.05	51.98	10.59	
2025-01-15 23:23:35.25	52.01	10.60	
2025-01-15 23:23:35.45	52.05	10.60	
2025-01-15 23:23:35.66	52.09	10.61	
2025-01-15 23:23:35.86	52.12	10.62	
2025-01-15 23:23:36.06	52.16	10.63	
2025-01-15 23:23:36.27	52.20	10.64	
2025-01-15 23:23:36.47	52.24	10.65	
2025-01-15 23:23:36.67	52.27	10.66	
2025-01-15 23:23:36.88	52.31	10.67	
2025-01-15 23:23:37.08	52.35	10.68	
2025-01-15 23:23:37.28	52.39	10.69	
2025-01-15 23:23:37.48	52.42	10.70	
2025-01-15 23:23:37.69	52.46	10.71	
2025-01-15 23:23:37.89	52.50	10.72	
2025-01-15 23:23:38.09	52.54	10.72	
2025-01-15 23:23:38.30	52.57	10.73	
2025-01-15 23:23:38.50	52.61	10.74	
2025-01-15 23:23:38.70	52.65	10.75	
2025-01-15 23:23:38.91	52.69	10.76	
2025-01-15 23:23:39.11	52.72	10.77	
2025-01-15 23:23:39.31	52.76	10.78	
2025-01-15 23:23:39.51	52.80	10.79	
2025-01-15 23:23:39.72	52.84	10.80	
2025-01-15 23:23:39.92	52.87	10.81	
2025-01-15 23:23:40.12	52.91	10.82	
2025-01-15 23:23:40.33	52.95	10.83	
2025-01-15 23:23:40.53	52.99	10.83	
2025-01-15 23:23:40.73	53.03	10.84	
2025-01-15 23:23:40.94	53.06	10.85	
2025-01-15 23:23:41.14	53.10	10.86	
2025-01-15 23:23:41.34	53.14	10.87	
2025-01-15 23:23:41.54	53.18	10.88	
2025-01-15 23:23:41.75	53.22	10.89	
2025-01-15 23:23:41.95	53.25	10.90	
2025-01-15 23:23:42.15	53.29	10.91	
2025-01-15 23:23:42.36	53.33	10.92	
2025-01-15 23:23:42.56	53.37	10.92	
2025-01-15 23:23:42.76	53.41	10.93	
2025-01-15 23:23:42.96	53.44	10.94	
2025-01-15 23:23:43.17	53.48	10.95	
2025-01-15 23:23:43.37	53.52	10.96	
2025-01-15 23:23:43.57	53.56	10.97	
2025-01-15 23:23:43.78	53.60	10.98	
2025-01-15 23:23:43.98	53.63	10.99	
2025-01-15 23:23:44.18	53.67	11.00	
2025-01-15 23:23:44.39	53.71	11.01	
2025-01-15 23:23:44.59	53.75	11.01	
2025-01-15 23:23:44.79	53.79	11.02	
2025-01-15 23:23:44.99	53.83	11.03	
2025-01-15 23:23:45.20	53.87	11.04	
2025-01-15 23:23:45.40	53.90	11.05	
2025-01-15 23:23:45.60	53.94	11.06	
2025-01-15 23:23:45.81	53.98	11.07	
2025-01-15 23:23:46.01	54.02	11.08	
2025-01-15 23:23:46.21	54.06	11.09	
2025-01-15 23:23:46.42	54.10	11.09	
2025-01-15 23:23:46.62	54.13	11.10	
2025-01-15 23:23:46.82	54.17	11.11	
2025-01-15 23:23:47.02	54.21	11.12	
2025-01-15 23:23:47.23	54.25	11.13	
2025-01-15 23:23:47.43	54.29	11.14	
2025-01-15 23:23:47.63	54.33	11.15	
2025-01-15 23:23:47.84	54.37	11.16	
2025-01-15 23:23:48.04	54.41	11.17	
2025-01-15 23:23:48.24	54.44	11.17	
2025-01-15 23:23:48.45	54.48	11.18	
2025-01-15 23:23:48.65	54.52	11.19	
2025-01-15 23:23:48.85	54.56	11.20	
2025-01-15 23:23:49.05	54.60	11.21	
2025-01-15 23:23:49.26	54.64	11.22	
2025-01-15 23:23:49.46	54.68	11.23	
2025-01-15 23:23:49.66	54.72	11.24	
2025-01-15 23:23:49.87	54.76	11.24	
2025-01-15 23:23:50.07	54.79	11.25	
2025-01-15 23:23:50.27	54.83	11.26	
2025-01-15 23:23:50.48	54.87	11.27	
2025-01-15 23:23:50.68	54.91	11.28	
2025-01-15 23:23:50.88	54.95	11.29	
2025-01-15 23:23:51.08	54.99	11.30	
2025-01-15 23:23:51.29	55.03	11.31	
2025-01-15 23:23:51.49	55.07	11.31	
2025-01-15 23:23:51.69	55.11	11.32	
2025-01-15 23:23:51.90	55.15	11.33	
2025-01-15 23:23:52.10	55.19	11.34	
2025-01-15 23:23:52.30	55.22	11.35	
2025-01-15 23:23:52.51	55.26	11.36	
2025-01-15 23:23:52.71	55.30	11.37	
2025-01-15 23:23:52.91	55.34	11.38	
2025-01-15 23:23:53.11	55.38	11.38	
2025-01-15 23:23:53.32	55.42	11.39	
2025-01-15 23:23:53.52	55.46	11.40	
2025-01-15 23:23:53.72	55.50	11.41	
2025-01-15 23:23:53.93	55.54	11.42	
2025-01-15 23:23:54.13	55.58	11.43	
2025-01-15 23:23:54.33	55.62	11.44	
2025-01-15 23:23:54.54	55.66	11.44	
2025-01-15 23:23:54.74	55.70	11.45	
2025-01-15 23:23:54.94	55.74	11.46	
2025-01-15 23:23:55.14	55.78	11.47	
2025-01-15 23:23:55.35	55.82	11.48	
2025-01-15 23:23:55.55	55.86	11.49	
2025-01-15 23:23:55.75	55.89	11.50	
2025-01-15 23:23:55.96	55.94	11.50	
2025-01-15 23:23:56.16	55.97	11.51	
2025-01-15 23:23:56.36	56.01	11.52	
2025-01-15 23:23:56.56	56.05	11.53	
2025-01-15 23:23:56.77	56.09	11.54	
2025-01-15 23:23:56.97	56.13	11.55	
2025-01-15 23:23:57.17	56.17	11.55	
2025-01-15 23:23:57.38	56.21	11.56	
2025-01-15 23:23:57.58	56.25	11.57	
2025-01-15 23:23:57.78	56.29	11.58	
2025-01-15 23:23:57.99	56.33	11.59	
2025-01-15 23:23:58.19	56.37	11.60	
2025-01-15 23:23:58.39	56.41	11.61	
2025-01-15 23:23:58.59	56.45	11.61	
2025-01-15 23:23:58.80	56.49	11.62	
2025-01-15 23:23:59.00	56.53	11.63	
2025-01-15 23:23:59.20	56.57	11.64	
2025-01-15 23:23:59.41	56.61	11.65	
2025-01-15 23:23:59.61	56.65	11.66	
2025-01-15 23:23:59.81	56.69	11.66	
2025-01-15 23:24:00.02	56.73	11.67	
2025-01-15 23:24:00.22	56.77	11.68	
2025-01-15 23:24:00.42	56.81	11.69	
2025-01-15 23:24:00.62	56.85	11.70	
2025-01-15 23:24:00.83	56.90	11.71	
2025-01-15 23:24:01.03	56.94	11.71	
2025-01-15 23:24:01.23	56.97	11.72	
2025-01-15 23:24:01.44	57.02	11.73	
2025-01-15 23:24:01.64	57.06	11.74	
2025-01-15 23:24:01.84	57.10	11.75	
2025-01-15 23:24:02.05	57.14	11.76	
2025-01-15 23:24:02.25	57.18	11.76	
2025-01-15 23:24:02.45	57.22	11.77	
2025-01-15 23:24:02.65	57.26	11.78	
2025-01-15 23:24:02.86	57.30	11.79	
2025-01-15 23:24:03.06	57.34	11.80	
2025-01-15 23:24:03.26	57.38	11.81	
2025-01-15 23:24:03.47	57.42	11.81	
2025-01-15 23:24:03.67	57.46	11.82	
2025-01-15 23:24:03.87	57.50	11.83	
2025-01-15 23:24:04.08	57.54	11.84	
2025-01-15 23:24:04.28	57.58	11.85	
2025-01-15 23:24:04.48	57.62	11.85	
2025-01-15 23:24:04.68	57.66	11.86	
2025-01-15 23:24:04.89	57.71	11.87	
2025-01-15 23:24:05.09	57.75	11.88	
2025-01-15 23:24:05.29	57.79	11.89	
2025-01-15 23:24:05.50	57.83	11.90	
2025-01-15 23:24:05.70	57.87	11.90	
2025-01-15 23:24:05.90	57.91	11.91	
2025-01-15 23:24:06.11	57.95	11.92	
2025-01-15 23:24:06.31	57.99	11.93	
2025-01-15 23:24:06.51	58.03	11.94	
2025-01-15 23:24:06.71	58.07	11.94	
2025-01-15 23:24:06.92	58.11	11.95	
2025-01-15 23:24:07.12	58.16	11.96	
2025-01-15 23:24:07.32	58.20	11.97	
2025-01-15 23:24:07.53	58.24	11.98	
2025-01-15 23:24:07.73	58.28	11.98	
2025-01-15 23:24:07.93	58.32	11.99	
2025-01-15 23:24:08.14	58.36	12.00	
2025-01-15 23:24:08.34	58.40	12.01	
2025-01-15 23:24:08.54	58.44	12.02	
2025-01-15 23:24:08.74	58.48	12.02	
2025-01-15 23:24:08.95	58.53	12.03	
2025-01-15 23:24:09.15	58.57	12.04	
2025-01-15 23:24:09.35	58.61	12.05	
2025-01-15 23:24:09.56	58.65	12.06	
2025-01-15 23:24:09.76	58.69	12.06	
2025-01-15 23:24:09.96	58.73	12.07	
2025-01-15 23:24:10.17	58.77	12.08	
2025-01-15 23:24:10.37	58.81	12.09	
2025-01-15 23:24:10.57	58.86	12.09	
2025-01-15 23:24:10.77	58.90	12.10	
2025-01-15 23:24:10.98	58.94	12.11	
2025-01-15 23:24:11.18	58.98	12.12	
2025-01-15 23:24:11.38	59.02	12.13	
2025-01-15 23:24:11.59	59.06	12.13	
2025-01-15 23:24:11.79	59.11	12.14	
2025-01-15 23:24:11.99	59.15	12.15	
2025-01-15 23:24:12.19	59.19	12.16	
2025-01-15 23:24:12.40	59.23	12.17	
2025-01-15 23:24:12.60	59.27	12.17	
2025-01-15 23:24:12.80	59.31	12.18	
2025-01-15 23:24:13.01	59.36	12.19	
2025-01-15 23:24:13.21	59.40	12.20	
2025-01-15 23:24:13.41	59.44	12.20	
2025-01-15 23:24:13.62	59.48	12.21	
2025-01-15 23:24:13.82	59.52	12.22	
2025-01-15 23:24:14.02	59.56	12.23	
2025-01-15 23:24:14.22	59.60	12.23	
2025-01-15 23:24:14.43	59.65	12.24	
2025-01-15 23:24:14.63	59.69	12.25	
2025-01-15 23:24:14.83	59.73	12.26	
2025-01-15 23:24:15.04	59.77	12.27	
2025-01-15 23:24:15.24	59.81	12.27	
2025-01-15 23:24:15.44	59.86	12.28	
2025-01-15 23:24:15.65	59.90	12.29	
2025-01-15 23:24:15.85	59.94	12.30	
2025-01-15 23:24:16.05	59.98	12.30	
2025-01-15 23:24:16.25	60.02	12.31	
2025-01-15 23:24:16.46	60.07	12.32	
2025-01-15 23:24:16.66	60.11	12.33	
2025-01-15 23:24:16.86	60.15	12.33	
2025-01-15 23:24:17.07	60.19	12.34	
2025-01-15 23:24:17.27	60.24	12.35	
2025-01-15 23:24:17.47	60.28	12.36	
2025-01-15 23:24:17.68	60.32	12.36	
2025-01-15 23:24:17.88	60.36	12.37	
2025-01-15 23:24:18.08	60.40	12.38	
2025-01-15 23:24:18.28	60.45	12.39	
2025-01-15 23:24:18.49	60.49	12.39	
2025-01-15 23:24:18.69	60.53	12.40	
2025-01-15 23:24:18.89	60.57	12.41	
2025-01-15 23:24:19.10	60.62	12.42	
2025-01-15 23:24:19.30	60.66	12.42	
2025-01-15 23:24:19.50	60.70	12.43	
2025-01-15 23:24:19.71	60.74	12.44	
2025-01-15 23:24:19.91	60.79	12.45	
2025-01-15 23:24:20.11	60.83	12.45	
2025-01-15 23:24:20.31	60.87	12.46	
2025-01-15 23:24:20.52	60.91	12.47	
2025-01-15 23:24:20.72	60.96	12.47	
2025-01-15 23:24:20.92	61.00	12.48	
2025-01-15 23:24:21.13	61.04	12.49	
2025-01-15 23:24:21.33	61.08	12.50	
2025-01-15 23:24:21.53	61.13	12.50	
2025-01-15 23:24:21.74	61.17	12.51	
2025-01-15 23:24:21.94	61.21	12.52	
2025-01-15 23:24:22.14	61.25	12.53	
2025-01-15 23:24:22.34	61.30	12.53	
2025-01-15 23:24:22.55	61.34	12.54	
2025-01-15 23:24:22.75	61.38	12.55	
2025-01-15 23:24:22.95	61.42	12.55	
2025-01-15 23:24:23.16	61.47	12.56	
2025-01-15 23:24:23.36	61.51	12.57	
2025-01-15 23:24:23.56	61.55	12.58	
2025-01-15 23:24:23.77	61.60	12.58	
2025-01-15 23:24:23.97	61.64	12.59	
2025-01-15 23:24:24.17	61.68	12.60	
2025-01-15 23:24:24.37	61.72	12.60	
2025-01-15 23:24:24.58	61.77	12.61	
2025-01-15 23:24:24.78	61.81	12.62	
2025-01-15 23:24:24.98	61.85	12.63	
2025-01-15 23:24:25.19	61.90	12.63	
2025-01-15 23:24:25.39	61.94	12.64	
2025-01-15 23:24:25.59	61.98	12.65	
2025-01-15 23:24:25.79	62.03	12.65	
2025-01-15 23:24:26.00	62.07	12.66	
2025-01-15 23:24:26.20	62.11	12.67	
2025-01-15 23:24:26.40	62.16	12.68	
2025-01-15 23:24:26.61	62.20	12.68	
2025-01-15 23:24:26.81	62.24	12.69	
2025-01-15 23:24:27.01	62.29	12.70	
2025-01-15 23:24:27.22	62.33	12.70	
2025-01-15 23:24:27.42	62.37	12.71	
2025-01-15 23:24:27.62	62.42	12.72	
2025-01-15 23:24:27.82	62.46	12.72	
2025-01-15 23:24:28.03	62.50	12.73	
2025-01-15 23:24:28.23	62.55	12.74	
2025-01-15 23:24:28.43	62.59	12.75	
2025-01-15 23:24:28.64	62.63	12.75	
2025-01-15 23:24:28.84	62.68	12.76	
2025-01-15 23:24:29.04	62.72	12.77	
2025-01-15 23:24:29.25	62.76	12.77	
2025-01-15 23:24:29.45	62.81	12.78	
2025-01-15 23:24:29.65	62.85	12.79	
2025-01-15 23:24:29.85	62.89	12.79	
2025-01-15 23:24:30.06	62.94	12.80	
2025-01-15 23:24:30.26	62.98	12.81	
2025-01-15 23:24:30.46	63.02	12.81	
2025-01-15 23:24:30.67	63.07	12.82	
2025-01-15 23:24:30.87	63.11	12.83	
2025-01-15 23:24:31.07	63.15	12.83	
2025-01-15 23:24:31.28	63.20	12.84	
2025-01-15 23:24:31.48	63.24	12.85	
2025-01-15 23:24:31.68	63.29	12.85	
2025-01-15 23:24:31.88	63.33	12.86	
2025-01-15 23:24:32.09	63.37	12.87	
2025-01-15 23:24:32.29	63.42	12.87	
2025-01-15 23:24:32.49	63.46	12.88	
2025-01-15 23:24:32.70	63.51	12.89	
2025-01-15 23:24:32.90	63.55	12.89	
2025-01-15 23:24:33.10	63.59	12.90	
2025-01-15 23:24:33.31	63.64	12.91	
2025-01-15 23:24:33.51	63.68	12.91	
2025-01-15 23:24:33.71	63.72	12.92	
2025-01-15 23:24:33.91	63.77	12.93	
2025-01-15 23:24:34.12	63.81	12.93	
2025-01-15 23:24:34.32	63.86	12.94	
2025-01-15 23:24:34.52	63.90	12.95	
2025-01-15 23:24:34.73	63.95	12.95	
2025-01-15 23:24:34.93	63.99	12.96	
2025-01-15 23:24:35.13	64.03	12.97	
2025-01-15 23:24:35.34	64.08	12.97	
2025-01-15 23:24:35.54	64.12	12.98	
2025-01-15 23:24:35.74	64.17	12.99	
2025-01-15 23:24:35.94	64.21	12.99	
2025-01-15 23:24:36.15	64.25	13.00	
2025-01-15 23:24:36.35	64.30	13.00	
2025-01-15 23:24:36.55	64.34	13.01	
2025-01-15 23:24:36.76	64.39	13.02	
2025-01-15 23:24:36.96	64.43	13.02	
2025-01-15 23:24:37.16	64.47	13.03	
2025-01-15 23:24:37.37	64.52	13.04	
2025-01-15 23:24:37.57	64.56	13.04	
2025-01-15 23:24:37.77	64.61	13.05	
2025-01-15 23:24:37.97	64.65	13.06	
2025-01-15 23:24:38.18	64.70	13.06	
2025-01-15 23:24:38.38	64.74	13.07	
2025-01-15 23:24:38.58	64.78	13.07	
2025-01-15 23:24:38.79	64.83	13.08	
2025-01-15 23:24:38.99	64.87	13.09	
2025-01-15 23:24:39.19	64.92	13.09	
2025-01-15 23:24:39.40	64.96	13.10	
2025-01-15 23:24:39.60	65.01	13.11	
2025-01-15 23:24:39.80	65.05	13.11	
2025-01-15 23:24:40.00	65.10	13.12	
2025-01-15 23:24:40.21	65.14	13.12	
2025-01-15 23:24:40.41	65.19	13.13	
2025-01-15 23:24:40.61	65.23	13.14	
2025-01-15 23:24:40.82	65.28	13.14	
2025-01-15 23:24:41.02	65.32	13.15	
2025-01-15 23:24:41.22	65.36	13.15	
2025-01-15 23:24:41.42	65.41	13.16	
2025-01-15 23:24:41.63	65.45	13.17	
2025-01-15 23:24:41.83	65.50	13.17	
2025-01-15 23:24:42.03	65.54	13.18	
2025-01-15 23:24:42.24	65.59	13.19	
2025-01-15 23:24:42.44	65.63	13.19	
2025-01-15 23:24:42.64	65.68	13.20	
2025-01-15 23:24:42.85	65.72	13.20	
2025-01-15 23:24:43.05	65.77	13.21	
2025-01-15 23:24:43.25	65.81	13.21	
2025-01-15 23:24:43.45	65.86	13.22	
2025-01-15 23:24:43.66	65.90	13.23	
2025-01-15 23:24:43.86	65.95	13.23	
2025-01-15 23:24:44.06	65.99	13.24	
2025-01-15 23:24:44.27	66.04	13.24	
2025-01-15 23:24:44.47	66.08	13.25	
2025-01-15 23:24:44.67	66.13	13.26	
2025-01-15 23:24:44.88	66.17	13.26	
2025-01-15 23:24:45.08	66.22	13.27	
2025-01-15 23:24:45.28	66.26	13.27	
2025-01-15 23:24:45.48	66.31	13.28	
2025-01-15 23:24:45.69	66.35	13.29	
2025-01-15 23:24:45.89	66.40	13.29	
2025-01-15 23:24:46.09	66.44	13.30	
2025-01-15 23:24:46.30	66.49	13.30	
2025-01-15 23:24:46.50	66.53	13.31	
2025-01-15 23:24:46.70	66.58	13.31	
2025-01-15 23:24:46.91	66.62	13.32	
2025-01-15 23:24:47.11	66.67	13.33	
2025-01-15 23:24:47.31	66.71	13.33	
2025-01-15 23:24:47.51	66.76	13.34	
2025-01-15 23:24:47.72	66.81	13.34	
2025-01-15 23:24:47.92	66.85	13.35	
2025-01-15 23:24:48.12	66.89	13.35	
2025-01-15 23:24:48.33	66.94	13.36	
2025-01-15 23:24:48.53	66.99	13.37	
2025-01-15 23:24:48.73	67.03	13.37	
2025-01-15 23:24:48.94	67.08	13.38	
2025-01-15 23:24:49.14	67.12	13.38	
2025-01-15 23:24:49.34	67.17	13.39	
2025-01-15 23:24:49.54	67.21	13.39	
2025-01-15 23:24:49.75	67.26	13.40	
2025-01-15 23:24:49.95	67.30	13.40	
2025-01-15 23:24:50.15	67.35	13.41	
2025-01-15 23:24:50.36	67.40	13.41	
2025-01-15 23:24:50.56	67.44	13.42	
2025-01-15 23:24:50.76	67.49	13.43	
2025-01-15 23:24:50.97	67.53	13.43	
2025-01-15 23:24:51.17	67.58	13.44	
2025-01-15 23:24:51.37	67.62	13.44	
2025-01-15 23:24:51.57	67.67	13.45	
2025-01-15 23:24:51.78	67.72	13.45	
2025-01-15 23:24:51.98	67.76	13.46	
2025-01-15 23:24:52.18	67.81	13.46	
2025-01-15 23:24:52.39	67.85	13.47	
2025-01-15 23:24:52.59	67.90	13.47	
2025-01-15 23:24:52.79	67.94	13.48	
2025-01-15 23:24:53.00	67.99	13.48	
2025-01-15 23:24:53.20	68.03	13.49	
2025-01-15 23:24:53.40	68.08	13.50	
2025-01-15 23:24:53.60	68.13	13.50	
2025-01-15 23:24:53.81	68.17	13.51	
2025-01-15 23:24:54.01	68.22	13.51	
2025-01-15 23:24:54.21	68.26	13.52	
2025-01-15 23:24:54.42	68.31	13.52	
2025-01-15 23:24:54.62	68.36	13.53	
2025-01-15 23:24:54.82	68.40	13.53	
2025-01-15 23:24:55.03	68.45	13.54	
2025-01-15 23:24:55.23	68.49	13.54	
2025-01-15 23:24:55.43	68.54	13.55	
2025-01-15 23:24:55.63	68.58	13.55	
2025-01-15 23:24:55.84	68.63	13.56	
2025-01-15 23:24:56.04	68.68	13.56	
2025-01-15 23:24:56.24	68.72	13.57	
2025-01-15 23:24:56.45	68.77	13.57	
2025-01-15 23:24:56.65	68.82	13.58	
2025-01-15 23:24:56.85	68.86	13.58	
2025-01-15 23:24:57.05	68.91	13.59	
2025-01-15 23:24:57.26	68.95	13.59	
2025-01-15 23:24:57.46	69.00	13.60	
2025-01-15 23:24:57.66	69.04	13.60	
2025-01-15 23:24:57.87	69.09	13.61	
2025-01-15 23:24:58.07	69.14	13.61	
2025-01-15 23:24:58.27	69.18	13.62	
2025-01-15 23:24:58.48	69.23	13.62	
2025-01-15 23:24:58.68	69.28	13.63	
2025-01-15 23:24:58.88	69.32	13.63	
2025-01-15 23:24:59.08	69.37	13.64	
2025-01-15 23:24:59.29	69.42	13.64	
2025-01-15 23:24:59.49	69.46	13.65	
2025-01-15 23:24:59.69	69.51	13.65	
2025-01-15 23:24:59.90	69.55	13.66	
2025-01-15 23:25:00.10	69.60	13.66	
2025-01-15 23:25:00.30	69.65	13.66	
2025-01-15 23:25:00.51	69.69	13.67	
2025-01-15 23:25:00.71	69.74	13.67	
2025-01-15 23:25:00.91	69.79	13.68	
2025-01-15 23:25:01.11	69.83	13.68	
2025-01-15 23:25:01.32	69.88	13.69	
2025-01-15 23:25:01.52	69.93	13.69	
2025-01-15 23:25:01.72	69.97	13.70	
2025-01-15 23:25:01.93	70.02	13.70	
2025-01-15 23:25:02.13	70.06	13.71	
2025-01-15 23:25:02.33	70.11	13.71	
2025-01-15 23:25:02.54	70.16	13.72	
2025-01-15 23:25:02.74	70.20	13.72	
2025-01-15 23:25:02.94	70.25	13.72	
2025-01-15 23:25:03.14	70.30	13.73	
2025-01-15 23:25:03.35	70.34	13.73	
2025-01-15 23:25:03.55	70.39	13.74	
2025-01-15 23:25:03.75	70.44	13.74	
2025-01-15 23:25:03.96	70.48	13.75	
2025-01-15 23:25:04.16	70.53	13.75	
2025-01-15 23:25:04.36	70.58	13.76	
2025-01-15 23:25:04.57	70.62	13.76	
2025-01-15 23:25:04.77	70.67	13.77	
2025-01-15 23:25:04.97	70.72	13.77	
2025-01-15 23:25:05.17	70.76	13.77	
2025-01-15 23:25:05.38	70.81	13.78	
2025-01-15 23:25:05.58	70.86	13.78	
2025-01-15 23:25:05.78	70.90	13.79	
2025-01-15 23:25:05.99	70.95	13.79	
2025-01-15 23:25:06.19	71.00	13.80	
2025-01-15 23:25:06.39	71.04	13.80	
2025-01-15 23:25:06.60	71.09	13.80	
2025-01-15 23:25:06.80	71.14	13.81	
2025-01-15 23:25:07.00	71.18	13.81	
2025-01-15 23:25:07.20	71.23	13.82	
2025-01-15 23:25:07.41	71.28	13.82	
2025-01-15 23:25:07.61	71.33	13.83	
2025-01-15 23:25:07.81	71.37	13.83	
2025-01-15 23:25:08.02	71.42	13.83	
2025-01-15 23:25:08.22	71.47	13.84	
2025-01-15 23:25:08.42	71.51	13.84	
2025-01-15 23:25:08.63	71.56	13.85	
2025-01-15 23:25:08.83	71.61	13.85	
2025-01-15 23:25:09.03	71.65	13.85	
2025-01-15 23:25:09.23	71.70	13.86	
2025-01-15 23:25:09.44	71.75	13.86	
2025-01-15 23:25:09.64	71.80	13.87	
2025-01-15 23:25:09.84	71.84	13.87	
2025-01-15 23:25:10.05	71.89	13.87	
2025-01-15 23:25:10.25	71.94	13.88	
2025-01-15 23:25:10.45	71.98	13.88	
2025-01-15 23:25:10.65	72.03	13.89	
2025-01-15 23:25:10.86	72.08	13.89	
2025-01-15 23:25:11.06	72.12	13.89	
2025-01-15 23:25:11.26	72.17	13.90	
2025-01-15 23:25:11.47	72.22	13.90	
2025-01-15 23:25:11.67	72.27	13.91	
2025-01-15 23:25:11.87	72.31	13.91	
2025-01-15 23:25:12.08	72.36	13.91	
2025-01-15 23:25:12.28	72.41	13.92	
2025-01-15 23:25:12.48	72.45	13.92	
2025-01-15 23:25:12.68	72.50	13.92	
2025-01-15 23:25:12.89	72.55	13.93	
2025-01-15 23:25:13.09	72.60	13.93	
2025-01-15 23:25:13.29	72.64	13.94	
2025-01-15 23:25:13.50	72.69	13.94	
2025-01-15 23:25:13.70	72.74	13.94	
2025-01-15 23:25:13.90	72.78	13.95	
2025-01-15 23:25:14.11	72.83	13.95	
2025-01-15 23:25:14.31	72.88	13.95	
2025-01-15 23:25:14.51	72.93	13.96	
2025-01-15 23:25:14.71	72.97	13.96	
2025-01-15 23:25:14.92	73.02	13.96	
2025-01-15 23:25:15.12	73.07	13.97	
2025-01-15 23:25:15.32	73.12	13.97	
2025-01-15 23:25:15.53	73.17	13.98	
2025-01-15 23:25:15.73	73.21	13.98	
2025-01-15 23:25:15.93	73.26	13.98	
2025-01-15 23:25:16.14	73.31	13.99	
2025-01-15 23:25:16.34	73.35	13.99	
2025-01-15 23:25:16.54	73.40	13.99	
2025-01-15 23:25:16.74	73.45	14.00	
2025-01-15 23:25:16.95	73.50	14.00	
2025-01-15 23:25:17.15	73.54	14.00	
2025-01-15 23:25:17.35	73.59	14.01	
2025-01-15 23:25:17.56	73.64	14.01	
2025-01-15 23:25:17.76	73.69	14.01	
2025-01-15 23:25:17.96	73.73	14.02	
2025-01-15 23:25:18.17	73.78	14.02	
2025-01-15 23:25:18.37	73.83	14.02	
2025-01-15 23:25:18.57	73.88	14.03	
2025-01-15 23:25:18.77	73.92	14.03	
2025-01-15 23:25:18.98	73.97	14.03	
2025-01-15 23:25:19.18	74.02	14.04	
2025-01-15 23:25:19.38	74.07	14.04	
2025-01-15 23:25:19.59	74.12	14.04	
2025-01-15 23:25:19.79	74.16	14.05	
2025-01-15 23:25:19.99	74.21	14.05	
2025-01-15 23:25:20.20	74.26	14.05	
2025-01-15 23:25:20.40	74.31	14.06	
2025-01-15 23:25:20.60	74.35	14.06	
2025-01-15 23:25:20.80	74.40	14.06	
2025-01-15 23:25:21.01	74.45	14.06	
2025-01-15 23:25:21.21	74.50	14.07	
2025-01-15 23:25:21.41	74.54	14.07	
2025-01-15 23:25:21.62	74.59	14.07	
2025-01-15 23:25:21.82	74.64	14.08	
2025-01-15 23:25:22.02	74.69	14.08	
2025-01-15 23:25:22.22	74.73	14.08	
2025-01-15 23:25:22.43	74.78	14.09	
2025-01-15 23:25:22.63	74.83	14.09	
2025-01-15 23:25:22.83	74.88	14.09	
2025-01-15 23:25:23.04	74.93	14.09	
2025-01-15 23:25:23.24	74.97	14.10	
2025-01-15 23:25:23.44	75.02	14.10	
2025-01-15 23:25:23.65	75.07	14.10	
2025-01-15 23:25:23.85	75.12	14.11	
2025-01-15 23:25:24.05	75.16	14.11	
2025-01-15 23:25:24.26	75.21	14.11	
2025-01-15 23:25:24.46	75.26	14.11	
2025-01-15 23:25:24.66	75.31	14.12	
2025-01-15 23:25:24.86	75.36	14.12	
2025-01-15 23:25:25.07	75.41	14.12	
2025-01-15 23:25:25.27	75.45	14.13	
2025-01-15 23:25:25.47	75.50	14.13	
2025-01-15 23:25:25.68	75.55	14.13	
2025-01-15 23:25:25.88	75.60	14.13	
2025-01-15 23:25:26.08	75.64	14.14	
2025-01-15 23:25:26.28	75.69	14.14	
2025-01-15 23:25:26.49	75.74	14.14	
2025-01-15 23:25:26.69	75.79	14.14	
2025-01-15 23:25:26.89	75.84	14.15	
2025-01-15 23:25:27.10	75.88	14.15	
2025-01-15 23:25:27.30	75.93	14.15	
2025-01-15 23:25:27.50	75.98	14.15	
2025-01-15 23:25:27.71	76.03	14.16	
2025-01-15 23:25:27.91	76.08	14.16	
2025-01-15 23:25:28.11	76.12	14.16	
2025-01-15 23:25:28.31	76.17	14.16	
2025-01-15 23:25:28.52	76.22	14.17	
2025-01-15 23:25:28.72	76.27	14.17	
2025-01-15 23:25:28.92	76.32	14.17	
2025-01-15 23:25:29.13	76.37	14.17	
2025-01-15 23:25:29.33	76.41	14.18	
2025-01-15 23:25:29.53	76.46	14.18	
2025-01-15 23:25:29.74	76.51	14.18	
2025-01-15 23:25:29.94	76.56	14.18	
2025-01-15 23:25:30.14	76.60	14.19	
2025-01-15 23:25:30.34	76.65	14.19	
2025-01-15 23:25:30.55	76.70	14.19	
2025-01-15 23:25:30.75	76.75	14.19	
2025-01-15 23:25:30.95	76.80	14.19	
2025-01-15 23:25:31.16	76.85	14.20	
2025-01-15 23:25:31.36	76.89	14.20	
2025-01-15 23:25:31.56	76.94	14.20	
2025-01-15 23:25:31.77	76.99	14.20	
2025-01-15 23:25:31.97	77.04	14.20	
2025-01-15 23:25:32.17	77.09	14.21	
2025-01-15 23:25:32.37	77.13	14.21	
2025-01-15 23:25:32.58	77.18	14.21	
2025-01-15 23:25:32.78	77.23	14.21	
2025-01-15 23:25:32.98	77.28	14.22	
2025-01-15 23:25:33.19	77.33	14.22	
2025-01-15 23:25:33.39	77.38	14.22	
2025-01-15 23:25:33.59	77.42	14.22	
2025-01-15 23:25:33.80	77.47	14.22	
2025-01-15 23:25:34.00	77.52	14.23	
2025-01-15 23:25:34.20	77.57	14.23	
2025-01-15 23:25:34.40	77.62	14.23	
2025-01-15 23:25:34.61	77.67	14.23	
2025-01-15 23:25:34.81	77.71	14.23	
2025-01-15 23:25:35.01	77.76	14.23	
2025-01-15 23:25:35.22	77.81	14.24	
2025-01-15 23:25:35.42	77.86	14.24	
2025-01-15 23:25:35.62	77.91	14.24	
2025-01-15 23:25:35.83	77.96	14.24	
2025-01-15 23:25:36.03	78.00	14.24	
2025-01-15 23:25:36.23	78.05	14.25	
2025-01-15 23:25:36.43	78.10	14.25	
2025-01-15 23:25:36.64	78.15	14.25	
2025-01-15 23:25:36.84	78.20	14.25	
2025-01-15 23:25:37.04	78.24	14.25	
2025-01-15 23:25:37.25	78.29	14.25	
2025-01-15 23:25:37.45	78.34	14.26	
2025-01-15 23:25:37.65	78.39	14.26	
2025-01-15 23:25:37.86	78.44	14.26	
2025-01-15 23:25:38.06	78.49	14.26	
2025-01-15 23:25:38.26	78.54	14.26	
2025-01-15 23:25:38.46	78.58	14.26	
2025-01-15 23:25:38.67	78.63	14.27	
2025-01-15 23:25:38.87	78.68	14.27	
2025-01-15 23:25:39.07	78.73	14.27	
2025-01-15 23:25:39.28	78.78	14.27	
2025-01-15 23:25:39.48	78.83	14.27	
2025-01-15 23:25:39.68	78.87	14.27	
2025-01-15 23:25:39.89	78.92	14.27	
2025-01-15 23:25:40.09	78.97	14.28	
2025-01-15 23:25:40.29	79.02	14.28	
2025-01-15 23:25:40.51	79.07	14.28	
2025-01-15 23:25:40.71	79.12	14.28	
2025-01-15 23:25:40.92	79.17	14.28	
2025-01-15 23:25:41.12	79.22	14.28	
2025-01-15 23:25:41.32	79.27	14.28	
2025-01-15 23:25:41.52	79.31	14.29	
2025-01-15 23:25:41.73	79.36	14.29	
2025-01-15 23:25:41.93	79.41	14.29	
2025-01-15 23:25:42.13	79.46	14.29	
2025-01-15 23:25:42.34	79.51	14.29	
2025-01-15 23:25:42.54	79.56	14.29	
2025-01-15 23:25:42.74	79.60	14.29	
2025-01-15 23:25:42.95	79.66	14.29	
2025-01-15 23:25:43.15	79.70	14.30	
2025-01-15 23:25:43.35	79.75	14.30	
2025-01-15 23:25:43.55	79.80	14.30	
2025-01-15 23:25:43.76	79.85	14.30	
2025-01-15 23:25:43.96	79.90	14.30	
2025-01-15 23:25:44.16	79.94	14.30	
2025-01-15 23:25:44.37	79.99	14.30	
2025-01-15 23:25:44.57	80.04	14.30	
2025-01-15 23:25:44.77	80.09	14.30	
2025-01-15 23:25:44.98	80.14	14.30	
2025-01-15 23:25:45.18	80.19	14.31	
2025-01-15 23:25:45.38	80.24	14.31	
2025-01-15 23:25:45.58	80.28	14.31	
2025-01-15 23:25:45.79	80.33	14.31	
2025-01-15 23:25:45.99	80.38	14.31	
2025-01-15 23:25:46.19	80.43	14.31	
2025-01-15 23:25:46.40	80.48	14.31	
2025-01-15 23:25:46.60	80.53	14.31	
2025-01-15 23:25:46.80	80.58	14.31	
2025-01-15 23:25:47.00	80.62	14.31	
2025-01-15 23:25:47.21	80.67	14.31	
2025-01-15 23:25:47.41	80.72	14.32	
2025-01-15 23:25:47.61	80.77	14.32	
2025-01-15 23:25:47.82	80.82	14.32	
2025-01-15 23:25:48.02	80.87	14.32	
2025-01-15 23:25:48.22	80.92	14.32	
2025-01-15 23:25:48.43	80.97	14.32	
2025-01-15 23:25:48.63	81.01	14.32	
2025-01-15 23:25:48.83	81.06	14.32	
2025-01-15 23:25:49.04	81.11	14.32	
2025-01-15 23:25:49.24	81.16	14.32	
2025-01-15 23:25:49.44	81.21	14.32	
2025-01-15 23:25:49.64	81.26	14.32	
2025-01-15 23:25:49.85	81.31	14.32	
2025-01-15 23:25:50.05	81.35	14.32	
2025-01-15 23:25:50.25	81.40	14.32	
2025-01-15 23:25:50.46	81.45	14.32	
2025-01-15 23:25:50.66	81.50	14.33	
2025-01-15 23:25:50.86	81.55	14.33	
2025-01-15 23:25:51.06	81.60	14.33	
2025-01-15 23:25:51.27	81.65	14.33	
2025-01-15 23:25:51.47	81.69	14.33	
2025-01-15 23:25:51.67	81.74	14.33	
2025-01-15 23:25:51.88	81.79	14.33	
2025-01-15 23:25:52.08	81.84	14.33	
2025-01-15 23:25:52.28	81.89	14.33	
2025-01-15 23:25:52.49	81.94	14.33	
2025-01-15 23:25:52.69	81.99	14.33	
2025-01-15 23:25:52.89	82.03	14.33	
2025-01-15 23:25:53.09	82.08	14.33	
2025-01-15 23:25:53.30	82.13	14.33	
2025-01-15 23:25:53.50	82.18	14.33	
2025-01-15 23:25:53.70	82.23	14.33	
2025-01-15 23:25:53.91	82.28	14.33	
2025-01-15 23:25:54.11	82.33	14.33	
2025-01-15 23:25:54.31	82.37	14.33	
2025-01-15 23:25:54.52	82.43	14.33	
2025-01-15 23:25:54.72	82.47	14.33	
2025-01-15 23:25:54.92	82.52	14.33	
2025-01-15 23:25:55.12	82.57	14.33	
2025-01-15 23:25:55.33	82.62	14.33	
2025-01-15 23:25:55.53	82.67	14.33	
2025-01-15 23:25:55.73	82.72	14.33	
2025-01-15 23:25:55.94	82.77	14.33	
2025-01-15 23:25:56.14	82.81	14.33	
2025-01-15 23:25:56.34	82.86	14.33	
2025-01-15 23:25:56.55	82.91	14.33	
2025-01-15 23:25:56.75	82.96	14.33	
2025-01-15 23:25:56.95	83.01	14.33	
2025-01-15 23:25:57.15	83.06	14.33	
2025-01-15 23:25:57.36	83.11	14.33	
2025-01-15 23:25:57.56	83.15	14.33	
2025-01-15 23:25:57.76	83.20	14.33	
2025-01-15 23:25:57.97	83.25	14.33	
2025-01-15 23:25:58.17	83.30	14.33	
2025-01-15 23:25:58.37	83.35	14.33	
2025-01-15 23:25:58.58	83.40	14.33	
2025-01-15 23:25:58.78	83.45	14.33	
2025-01-15 23:25:58.98	83.49	14.33	
2025-01-15 23:25:59.18	83.54	14.33	
2025-01-15 23:25:59.39	83.59	14.33	
2025-01-15 23:25:59.59	83.64	14.33	
2025-01-15 23:25:59.79	83.69	14.33	
2025-01-15 23:26:00.00	83.74	14.33	
2025-01-15 23:26:00.20	83.79	14.33	
2025-01-15 23:26:00.40	83.83	14.33	
2025-01-15 23:26:00.61	83.88	14.33	
2025-01-15 23:26:00.81	83.93	14.33	
2025-01-15 23:26:01.01	83.98	14.33	
2025-01-15 23:26:01.21	84.03	14.32	
2025-01-15 23:26:01.42	84.08	14.32	
2025-01-15 23:26:01.62	84.13	14.32	
2025-01-15 23:26:01.82	84.17	14.32	
2025-01-15 23:26:02.03	84.23	14.32	
2025-01-15 23:26:02.23	84.27	14.32	
2025-01-15 23:26:02.43	84.32	14.32	
2025-01-15 23:26:02.64	84.37	14.32	
2025-01-15 23:26:02.84	84.42	14.32	
2025-01-15 23:26:03.04	84.47	14.32	
2025-01-15 23:26:03.24	84.51	14.32	
2025-01-15 23:26:03.45	84.57	14.32	
2025-01-15 23:26:03.65	84.61	14.32	
2025-01-15 23:26:03.85	84.66	14.32	
2025-01-15 23:26:04.06	84.71	14.32	
2025-01-15 23:26:04.26	84.76	14.32	
2025-01-15 23:26:04.46	84.81	14.31	
2025-01-15 23:26:04.66	84.86	14.31	
2025-01-15 23:26:04.87	84.91	14.31	
2025-01-15 23:26:05.07	84.95	14.31	
2025-01-15 23:26:05.27	85.00	14.31	
2025-01-15 23:26:05.48	85.05	14.31	
2025-01-15 23:26:05.68	85.10	14.31	
2025-01-15 23:26:05.88	85.15	14.31	
2025-01-15 23:26:06.09	85.20	14.31	
2025-01-15 23:26:06.29	85.25	14.31	
2025-01-15 23:26:06.49	85.29	14.31	
2025-01-15 23:26:06.69	85.34	14.31	
2025-01-15 23:26:06.90	85.39	14.30	
2025-01-15 23:26:07.10	85.44	14.30	
2025-01-15 23:26:07.30	85.49	14.30	
2025-01-15 23:26:07.51	85.54	14.30	
2025-01-15 23:26:07.71	85.59	14.30	
2025-01-15 23:26:07.91	85.63	14.30	
2025-01-15 23:26:08.12	85.68	14.30	
2025-01-15 23:26:08.32	85.73	14.30	
2025-01-15 23:26:08.52	85.78	14.30	
2025-01-15 23:26:08.72	85.83	14.29	
2025-01-15 23:26:08.93	85.88	14.29	
2025-01-15 23:26:09.13	85.92	14.29	
2025-01-15 23:26:09.33	85.97	14.29	
2025-01-15 23:26:09.54	86.02	14.29	
2025-01-15 23:26:09.74	86.07	14.29	
2025-01-15 23:26:09.94	86.12	14.29	
2025-01-15 23:26:10.15	86.17	14.29	
2025-01-15 23:26:10.35	86.22	14.28	
2025-01-15 23:26:10.55	86.26	14.28	
2025-01-15 23:26:10.75	86.31	14.28	
2025-01-15 23:26:10.96	86.36	14.28	
2025-01-15 23:26:11.16	86.41	14.28	
2025-01-15 23:26:11.36	86.46	14.28	
2025-01-15 23:26:11.57	86.51	14.28	
2025-01-15 23:26:11.77	86.56	14.28	
2025-01-15 23:26:11.97	86.60	14.27	
2025-01-15 23:26:12.18	86.65	14.27	
2025-01-15 23:26:12.38	86.70	14.27	
2025-01-15 23:26:12.58	86.75	14.27	
2025-01-15 23:26:12.78	86.80	14.27	
2025-01-15 23:26:12.99	86.85	14.27	
2025-01-15 23:26:13.19	86.89	14.26	
2025-01-15 23:26:13.39	86.94	14.26	
2025-01-15 23:26:13.60	86.99	14.26	
2025-01-15 23:26:13.80	87.04	14.26	
2025-01-15 23:26:14.00	87.09	14.26	
2025-01-15 23:26:14.21	87.14	14.26	
2025-01-15 23:26:14.41	87.19	14.26	
2025-01-15 23:26:14.61	87.23	14.25	
2025-01-15 23:26:14.81	87.28	14.25	
2025-01-15 23:26:15.02	87.33	14.25	
2025-01-15 23:26:15.22	87.38	14.25	
2025-01-15 23:26:15.42	87.43	14.25	
2025-01-15 23:26:15.63	87.48	14.24	
2025-01-15 23:26:15.83	87.52	14.24	
2025-01-15 23:26:16.03	87.57	14.24	
2025-01-15 23:26:16.24	87.62	14.24	
2025-01-15 23:26:16.44	87.67	14.24	
2025-01-15 23:26:16.64	87.72	14.24	
2025-01-15 23:26:16.84	87.77	14.23	
2025-01-15 23:26:17.05	87.82	14.23	
2025-01-15 23:26:17.25	87.86	14.23	
2025-01-15 23:26:17.45	87.91	14.23	
2025-01-15 23:26:17.66	87.96	14.23	
2025-01-15 23:26:17.86	88.01	14.22	
2025-01-15 23:26:18.06	88.06	14.22	
2025-01-15 23:26:18.27	88.11	14.22	
2025-01-15 23:26:18.47	88.15	14.22	
2025-01-15 23:26:18.67	88.20	14.22	
2025-01-15 23:26:18.87	88.25	14.21	
2025-01-15 23:26:19.08	88.30	14.21	
2025-01-15 23:26:19.28	88.35	14.21	
2025-01-15 23:26:19.48	88.39	14.21	
2025-01-15 23:26:19.69	88.44	14.21	
2025-01-15 23:26:19.89	88.49	14.20	
2025-01-15 23:26:20.09	88.54	14.20	
2025-01-15 23:26:20.29	88.59	14.20	
2025-01-15 23:26:20.50	88.64	14.20	
2025-01-15 23:26:20.70	88.68	14.20	
2025-01-15 23:26:20.90	88.73	14.19	
2025-01-15 23:26:21.11	88.78	14.19	
2025-01-15 23:26:21.31	88.83	14.19	
2025-01-15 23:26:21.51	88.88	14.19	
2025-01-15 23:26:21.72	88.93	14.18	
2025-01-15 23:26:21.92	88.97	14.18	
2025-01-15 23:26:22.12	89.02	14.18	
2025-01-15 23:26:22.32	89.07	14.18	
2025-01-15 23:26:22.53	89.12	14.17	
2025-01-15 23:26:22.73	89.17	14.17	
2025-01-15 23:26:22.93	89.21	14.17	
2025-01-15 23:26:23.14	89.26	14.17	
2025-01-15 23:26:23.34	89.31	14.16	
2025-01-15 23:26:23.54	89.36	14.16	
2025-01-15 23:26:23.75	89.41	14.16	
2025-01-15 23:26:23.95	89.45	14.16	
2025-01-15 23:26:24.15	89.50	14.16	
2025-01-15 23:26:24.35	89.55	14.15	
2025-01-15 23:26:24.56	89.60	14.15	
2025-01-15 23:26:24.76	89.65	14.15	
2025-01-15 23:26:24.96	89.69	14.14	
2025-01-15 23:26:25.17	89.74	14.14	
2025-01-15 23:26:25.37	89.79	14.14	
2025-01-15 23:26:25.57	89.84	14.14	
2025-01-15 23:26:25.78	89.89	14.13	
2025-01-15 23:26:25.98	89.94	14.13	
2025-01-15 23:26:26.18	89.98	14.13	
2025-01-15 23:26:26.38	90.03	14.13	
2025-01-15 23:26:26.59	90.08	14.12	
2025-01-15 23:26:26.79	90.13	14.12	
2025-01-15 23:26:26.99	90.17	14.12	
2025-01-15 23:26:27.20	90.22	14.12	
2025-01-15 23:26:27.40	90.27	14.11	
2025-01-15 23:26:27.60	90.32	14.11	
2025-01-15 23:26:27.81	90.37	14.11	
2025-01-15 23:26:28.01	90.42	14.10	
2025-01-15 23:26:28.21	90.46	14.10	
2025-01-15 23:26:28.41	90.51	14.10	
2025-01-15 23:26:28.62	90.56	14.10	
2025-01-15 23:26:28.82	90.61	14.09	
2025-01-15 23:26:29.02	90.65	14.09	
2025-01-15 23:26:29.23	90.70	14.09	
2025-01-15 23:26:29.43	90.75	14.08	
2025-01-15 23:26:29.63	90.80	14.08	
2025-01-15 23:26:29.84	90.85	14.08	
2025-01-15 23:26:30.04	90.89	14.07	
2025-01-15 23:26:30.24	90.94	14.07	
2025-01-15 23:26:30.44	90.99	14.07	
2025-01-15 23:26:30.65	91.04	14.07	
2025-01-15 23:26:30.85	91.08	14.06	
2025-01-15 23:26:31.05	91.13	14.06	
2025-01-15 23:26:31.26	91.18	14.06	
2025-01-15 23:26:31.46	91.23	14.05	
2025-01-15 23:26:31.66	91.28	14.05	
2025-01-15 23:26:31.87	91.32	14.05	
2025-01-15 23:26:32.07	91.37	14.04	
2025-01-15 23:26:32.27	91.42	14.04	
2025-01-15 23:26:32.47	91.47	14.04	
2025-01-15 23:26:32.68	91.52	14.03	
2025-01-15 23:26:32.88	91.56	14.03	
2025-01-15 23:26:33.08	91.61	14.03	
2025-01-15 23:26:33.29	91.66	14.02	
2025-01-15 23:26:33.49	91.71	14.02	
2025-01-15 23:26:33.69	91.75	14.02	
2025-01-15 23:26:33.89	91.80	14.01	
2025-01-15 23:26:34.10	91.85	14.01	
2025-01-15 23:26:34.30	91.90	14.01	
2025-01-15 23:26:34.50	91.94	14.00	
2025-01-15 23:26:34.71	91.99	14.00	
2025-01-15 23:26:34.91	92.04	14.00	
2025-01-15 23:26:35.11	92.09	13.99	
2025-01-15 23:26:35.32	92.13	13.99	
2025-01-15 23:26:35.52	92.18	13.99	
2025-01-15 23:26:35.72	92.23	13.98	
2025-01-15 23:26:35.92	92.28	13.98	
2025-01-15 23:26:36.13	92.32	13.98	
2025-01-15 23:26:36.33	92.37	13.97	
2025-01-15 23:26:36.53	92.42	13.97	
2025-01-15 23:26:36.74	92.47	13.97	
2025-01-15 23:26:36.94	92.51	13.96	
2025-01-15 23:26:37.14	92.56	13.96	
2025-01-15 23:26:37.35	92.61	13.95	
2025-01-15 23:26:37.55	92.66	13.95	
2025-01-15 23:26:37.75	92.70	13.95	
2025-01-15 23:26:37.95	92.75	13.94	
2025-01-15 23:26:38.16	92.80	13.94	
2025-01-15 23:26:38.36	92.85	13.94	
2025-01-15 23:26:38.56	92.89	13.93	
2025-01-15 23:26:38.77	92.94	13.93	
2025-01-15 23:26:38.97	92.99	13.93	
2025-01-15 23:26:39.17	93.03	13.92	
2025-01-15 23:26:39.38	93.08	13.92	
2025-01-15 23:26:39.58	93.13	13.91	
2025-01-15 23:26:39.78	93.18	13.91	
2025-01-15 23:26:39.98	93.22	13.91	
2025-01-15 23:26:40.19	93.27	13.90	
2025-01-15 23:26:40.39	93.32	13.90	
2025-01-15 23:26:40.59	93.37	13.89	
2025-01-15 23:26:40.80	93.41	13.89	
2025-01-15 23:26:41.00	93.46	13.89	
2025-01-15 23:26:41.20	93.51	13.88	
2025-01-15 23:26:41.41	93.56	13.88	
2025-01-15 23:26:41.61	93.60	13.88	
2025-01-15 23:26:41.81	93.65	13.87	
2025-01-15 23:26:42.01	93.70	13.87	
2025-01-15 23:26:42.22	93.74	13.86	
2025-01-15 23:26:42.42	93.79	13.86	
2025-01-15 23:26:42.62	93.84	13.86	
2025-01-15 23:26:42.83	93.89	13.85	
2025-01-15 23:26:43.03	93.93	13.85	
2025-01-15 23:26:43.23	93.98	13.84	
2025-01-15 23:26:43.44	94.03	13.84	
2025-01-15 23:26:43.64	94.07	13.83	
2025-01-15 23:26:43.84	94.12	13.83	
2025-01-15 23:26:44.04	94.17	13.83	
2025-01-15 23:26:44.25	94.21	13.82	
2025-01-15 23:26:44.45	94.26	13.82	
2025-01-15 23:26:44.65	94.31	13.81	
2025-01-15 23:26:44.86	94.36	13.81	
2025-01-15 23:26:45.06	94.40	13.81	
2025-01-15 23:26:45.26	94.45	13.80	
2025-01-15 23:26:45.47	94.50	13.80	
2025-01-15 23:26:45.67	94.54	13.79	
2025-01-15 23:26:45.87	94.59	13.79	
2025-01-15 23:26:46.07	94.64	13.78	
2025-01-15 23:26:46.28	94.68	13.78	
2025-01-15 23:26:46.48	94.73	13.77	
2025-01-15 23:26:46.68	94.78	13.77	
2025-01-15 23:26:46.89	94.83	13.77	
2025-01-15 23:26:47.09	94.87	13.76	
2025-01-15 23:26:47.29	94.92	13.76	
2025-01-15 23:26:47.50	94.97	13.75	
2025-01-15 23:26:47.70	95.01	13.75	
2025-01-15 23:26:47.90	95.06	13.74	
2025-01-15 23:26:48.10	95.10	13.74	
2025-01-15 23:26:48.31	95.15	13.73	
2025-01-15 23:26:48.51	95.20	13.73	
2025-01-15 23:26:48.71	95.24	13.73	
2025-01-15 23:26:48.92	95.29	13.72	
2025-01-15 23:26:49.12	95.34	13.72	
2025-01-15 23:26:49.32	95.38	13.71	
2025-01-15 23:26:49.52	95.43	13.71	
2025-01-15 23:26:49.73	95.48	13.70	
2025-01-15 23:26:49.93	95.52	13.70	
2025-01-15 23:26:50.13	95.57	13.69	
2025-01-15 23:26:50.34	95.62	13.69	
2025-01-15 23:26:50.54	95.66	13.68	
2025-01-15 23:26:50.74	95.71	13.68	
2025-01-15 23:26:50.95	95.76	13.67	
2025-01-15 23:26:51.15	95.80	13.67	
2025-01-15 23:26:51.35	95.85	13.67	
2025-01-15 23:26:51.55	95.90	13.66	
2025-01-15 23:26:51.76	95.94	13.66	
2025-01-15 23:26:51.96	95.99	13.65	
2025-01-15 23:26:52.16	96.04	13.65	
2025-01-15 23:26:52.37	96.08	13.64	
2025-01-15 23:26:52.57	96.13	13.64	
2025-01-15 23:26:52.77	96.18	13.63	
2025-01-15 23:26:52.98	96.22	13.63	
2025-01-15 23:26:53.18	96.27	13.62	
2025-01-15 23:26:53.38	96.31	13.62	
2025-01-15 23:26:53.58	96.36	13.61	
2025-01-15 23:26:53.79	96.41	13.61	
2025-01-15 23:26:53.99	96.45	13.60	
2025-01-15 23:26:54.19	96.50	13.60	
2025-01-15 23:26:54.40	96.55	13.59	
2025-01-15 23:26:54.60	96.59	13.59	
2025-01-15 23:26:54.80	96.64	13.58	
2025-01-15 23:26:55.01	96.69	13.58	
2025-01-15 23:26:55.21	96.73	13.57	
2025-01-15 23:26:55.41	96.78	13.57	
2025-01-15 23:26:55.61	96.82	13.56	
2025-01-15 23:26:55.82	96.87	13.56	
2025-01-15 23:26:56.02	96.92	13.55	
2025-01-15 23:26:56.22	96.96	13.55	
2025-01-15 23:26:56.43	97.01	13.54	
2025-01-15 23:26:56.63	97.05	13.54	
2025-01-15 23:26:56.83	97.10	13.53	
2025-01-15 23:26:57.04	97.15	13.53	
2025-01-15 23:26:57.24	97.19	13.52	
2025-01-15 23:26:57.44	97.24	13.52	
2025-01-15 23:26:57.64	97.28	13.51	
2025-01-15 23:26:57.85	97.33	13.51	
2025-01-15 23:26:58.05	97.38	13.50	
2025-01-15 23:26:58.25	97.42	13.50	
2025-01-15 23:26:58.46	97.47	13.49	
2025-01-15 23:26:58.66	97.51	13.48	
2025-01-15 23:26:58.86	97.56	13.48	
2025-01-15 23:26:59.07	97.61	13.47	
2025-01-15 23:26:59.27	97.65	13.47	
2025-01-15 23:26:59.47	97.70	13.46	
2025-01-15 23:26:59.67	97.74	13.46	
2025-01-15 23:26:59.88	97.79	13.45	
2025-01-15 23:27:00.08	97.84	13.45	
2025-01-15 23:27:00.28	97.88	13.44	
2025-01-15 23:27:00.49	97.93	13.44	
2025-01-15 23:27:00.69	97.97	13.43	
2025-01-15 23:27:00.89	98.02	13.43	
2025-01-15 23:27:01.10	98.07	13.42	
2025-01-15 23:27:01.30	98.11	13.41	
2025-01-15 23:27:01.50	98.16	13.41	
2025-01-15 23:27:01.70	98.20	13.40	
2025-01-15 23:27:01.91	98.25	13.40	
2025-01-15 23:27:02.11	98.29	13.39	
2025-01-15 23:27:02.31	98.34	13.39	
2025-01-15 23:27:02.52	98.38	13.38	
2025-01-15 23:27:02.72	98.43	13.38	
2025-01-15 23:27:02.92	98.47	13.37	
2025-01-15 23:27:03.13	98.52	13.36	
2025-01-15 23:27:03.33	98.57	13.36	
2025-01-15 23:27:03.53	98.61	13.35	
2025-01-15 23:27:03.73	98.66	13.35	
2025-01-15 23:27:03.94	98.70	13.34	
2025-01-15 23:27:04.14	98.75	13.34	
2025-01-15 23:27:04.34	98.79	13.33	
2025-01-15 23:27:04.55	98.84	13.32	
2025-01-15 23:27:04.75	98.88	13.32	
2025-01-15 23:27:04.95	98.93	13.31	
2025-01-15 23:27:05.15	98.97	13.31	
