passes_logs/2025/01/15/SPB_Silybum_02/SPB_Silybum_02__20250115_221414_SUOMI_NPP_rec.log

#Pass ID: 20250115_221414_SUOMI NPP
#Satellite: SUOMI NPP
#Configuration: NPP
#Start time: 2025-01-15 22:14:13

#Version: 2.0.20230423
#Station: SPB_Silybum_02
#Location: 30.233357 lon 59.946436 lat
#TLE: 1 37849U 11061A   25015.13132341  .00000162  00000+0  97654-4 0  9994
#TLE: 2 37849  98.7446 316.1182 0001675  40.9055 319.2247 14.19538225684933

#Time	Az	El	Level	Level2	SNR	BER	Gain	Gain2
2025-01-15 22:14:15.74	29.79	4.05	
2025-01-15 22:14:15.95	29.81	4.06	
2025-01-15 22:14:16.15	29.83	4.07	
2025-01-15 22:14:16.35	29.85	4.08	
2025-01-15 22:14:16.56	29.87	4.09	
2025-01-15 22:14:16.76	29.89	4.10	
2025-01-15 22:14:16.96	29.91	4.11	
2025-01-15 22:14:17.17	29.93	4.12	
2025-01-15 22:14:17.37	29.95	4.13	
2025-01-15 22:14:17.57	29.97	4.14	
2025-01-15 22:14:17.77	29.99	4.16	
2025-01-15 22:14:17.98	30.02	4.17	
2025-01-15 22:14:18.18	30.03	4.18	
2025-01-15 22:14:18.38	30.05	4.19	
2025-01-15 22:14:18.59	30.08	4.20	
2025-01-15 22:14:18.79	30.10	4.21	
2025-01-15 22:14:18.99	30.12	4.22	
2025-01-15 22:14:19.20	30.14	4.23	
2025-01-15 22:14:19.40	30.16	4.24	
2025-01-15 22:14:19.60	30.18	4.25	
2025-01-15 22:14:19.80	30.20	4.26	
2025-01-15 22:14:20.01	30.22	4.27	
2025-01-15 22:14:20.21	30.24	4.28	
2025-01-15 22:14:20.41	30.26	4.29	
2025-01-15 22:14:20.62	30.28	4.30	
2025-01-15 22:14:20.82	30.30	4.31	
2025-01-15 22:14:21.02	30.32	4.32	
2025-01-15 22:14:21.23	30.34	4.33	
2025-01-15 22:14:21.43	30.36	4.34	
2025-01-15 22:14:21.63	30.38	4.35	
2025-01-15 22:14:21.83	30.40	4.36	
2025-01-15 22:14:22.04	30.42	4.37	
2025-01-15 22:14:22.24	30.44	4.38	
2025-01-15 22:14:22.44	30.46	4.39	
2025-01-15 22:14:22.65	30.48	4.40	
2025-01-15 22:14:22.85	30.50	4.41	
2025-01-15 22:14:23.05	30.52	4.42	
2025-01-15 22:14:23.26	30.54	4.43	
2025-01-15 22:14:23.46	30.56	4.44	
2025-01-15 22:14:23.66	30.58	4.45	
2025-01-15 22:14:23.86	30.60	4.46	
2025-01-15 22:14:24.07	30.63	4.47	
2025-01-15 22:14:24.27	30.65	4.48	
2025-01-15 22:14:24.47	30.67	4.50	
2025-01-15 22:14:24.68	30.69	4.51	
2025-01-15 22:14:24.88	30.71	4.52	
2025-01-15 22:14:25.08	30.73	4.53	
2025-01-15 22:14:25.29	30.75	4.54	
2025-01-15 22:14:25.49	30.77	4.55	
2025-01-15 22:14:25.69	30.79	4.56	
2025-01-15 22:14:25.89	30.81	4.57	
2025-01-15 22:14:26.10	30.83	4.58	
2025-01-15 22:14:26.30	30.85	4.59	
2025-01-15 22:14:26.50	30.87	4.60	
2025-01-15 22:14:26.71	30.89	4.61	
2025-01-15 22:14:26.91	30.91	4.62	
2025-01-15 22:14:27.11	30.94	4.63	
2025-01-15 22:14:27.32	30.96	4.64	
2025-01-15 22:14:27.52	30.98	4.65	
2025-01-15 22:14:27.72	31.00	4.66	
2025-01-15 22:14:27.92	31.02	4.67	
2025-01-15 22:14:28.13	31.04	4.68	
2025-01-15 22:14:28.33	31.06	4.69	
2025-01-15 22:14:28.53	31.08	4.70	
2025-01-15 22:14:28.74	31.10	4.71	
2025-01-15 22:14:28.94	31.12	4.72	
2025-01-15 22:14:29.14	31.14	4.73	
2025-01-15 22:14:29.35	31.17	4.74	
2025-01-15 22:14:29.55	31.19	4.75	
2025-01-15 22:14:29.75	31.21	4.76	
2025-01-15 22:14:29.95	31.23	4.77	
2025-01-15 22:14:30.16	31.25	4.78	
2025-01-15 22:14:30.36	31.27	4.79	
2025-01-15 22:14:30.56	31.29	4.81	
2025-01-15 22:14:30.77	31.31	4.82	
2025-01-15 22:14:30.97	31.33	4.83	
2025-01-15 22:14:31.17	31.35	4.84	
2025-01-15 22:14:31.37	31.37	4.85	
2025-01-15 22:14:31.58	31.40	4.86	
2025-01-15 22:14:31.78	31.42	4.87	
2025-01-15 22:14:31.98	31.44	4.88	
2025-01-15 22:14:32.19	31.46	4.89	
2025-01-15 22:14:32.39	31.48	4.90	
2025-01-15 22:14:32.59	31.50	4.91	
2025-01-15 22:14:32.80	31.52	4.92	
2025-01-15 22:14:33.00	31.54	4.93	
2025-01-15 22:14:33.20	31.56	4.94	
2025-01-15 22:14:33.40	31.59	4.95	
2025-01-15 22:14:33.61	31.61	4.96	
2025-01-15 22:14:33.81	31.63	4.97	
2025-01-15 22:14:34.01	31.65	4.98	
2025-01-15 22:14:34.22	31.67	4.99	
2025-01-15 22:14:34.42	31.69	5.00	
2025-01-15 22:14:34.62	31.71	5.01	
2025-01-15 22:14:34.83	31.74	5.02	
2025-01-15 22:14:35.03	31.76	5.03	
2025-01-15 22:14:35.23	31.78	5.04	
2025-01-15 22:14:35.43	31.80	5.05	
2025-01-15 22:14:35.64	31.82	5.06	
2025-01-15 22:14:35.84	31.84	5.07	
2025-01-15 22:14:36.04	31.86	5.08	
2025-01-15 22:14:36.25	31.88	5.10	
2025-01-15 22:14:36.45	31.91	5.11	
2025-01-15 22:14:36.65	31.93	5.12	
2025-01-15 22:14:36.86	31.95	5.13	
2025-01-15 22:14:37.06	31.97	5.14	
2025-01-15 22:14:37.26	31.99	5.15	
2025-01-15 22:14:37.46	32.01	5.16	
2025-01-15 22:14:37.67	32.03	5.17	
2025-01-15 22:14:37.87	32.06	5.18	
2025-01-15 22:14:38.07	32.08	5.19	
2025-01-15 22:14:38.28	32.10	5.20	
2025-01-15 22:14:38.48	32.12	5.21	
2025-01-15 22:14:38.68	32.14	5.22	
2025-01-15 22:14:38.89	32.16	5.23	
2025-01-15 22:14:39.09	32.19	5.24	
2025-01-15 22:14:39.29	32.21	5.25	
2025-01-15 22:14:39.49	32.23	5.26	
2025-01-15 22:14:39.70	32.25	5.27	
2025-01-15 22:14:39.90	32.27	5.28	
2025-01-15 22:14:40.10	32.29	5.29	
2025-01-15 22:14:40.31	32.32	5.30	
2025-01-15 22:14:40.51	32.34	5.31	
2025-01-15 22:14:40.71	32.36	5.32	
2025-01-15 22:14:40.92	32.38	5.33	
2025-01-15 22:14:41.12	32.40	5.34	
2025-01-15 22:14:41.32	32.42	5.35	
2025-01-15 22:14:41.52	32.45	5.37	
2025-01-15 22:14:41.73	32.47	5.38	
2025-01-15 22:14:41.93	32.49	5.39	
2025-01-15 22:14:42.13	32.51	5.40	
2025-01-15 22:14:42.34	32.53	5.41	
2025-01-15 22:14:42.54	32.55	5.42	
2025-01-15 22:14:42.74	32.58	5.43	
2025-01-15 22:14:42.94	32.60	5.44	
2025-01-15 22:14:43.15	32.62	5.45	
2025-01-15 22:14:43.35	32.64	5.46	
2025-01-15 22:14:43.55	32.66	5.47	
2025-01-15 22:14:43.76	32.69	5.48	
2025-01-15 22:14:43.96	32.71	5.49	
2025-01-15 22:14:44.16	32.73	5.50	
2025-01-15 22:14:44.37	32.75	5.51	
2025-01-15 22:14:44.57	32.77	5.52	
2025-01-15 22:14:44.77	32.80	5.53	
2025-01-15 22:14:44.97	32.82	5.54	
2025-01-15 22:14:45.18	32.84	5.55	
2025-01-15 22:14:45.38	32.86	5.56	
2025-01-15 22:14:45.58	32.88	5.57	
2025-01-15 22:14:45.79	32.91	5.58	
2025-01-15 22:14:45.99	32.93	5.59	
2025-01-15 22:14:46.19	32.95	5.60	
2025-01-15 22:14:46.40	32.97	5.62	
2025-01-15 22:14:46.60	33.00	5.63	
2025-01-15 22:14:46.80	33.02	5.64	
2025-01-15 22:14:47.00	33.04	5.65	
2025-01-15 22:14:47.21	33.06	5.66	
2025-01-15 22:14:47.41	33.08	5.67	
2025-01-15 22:14:47.61	33.11	5.68	
2025-01-15 22:14:47.82	33.13	5.69	
2025-01-15 22:14:48.02	33.15	5.70	
2025-01-15 22:14:48.22	33.17	5.71	
2025-01-15 22:14:48.43	33.20	5.72	
2025-01-15 22:14:48.63	33.22	5.73	
2025-01-15 22:14:48.83	33.24	5.74	
2025-01-15 22:14:49.03	33.26	5.75	
2025-01-15 22:14:49.24	33.28	5.76	
2025-01-15 22:14:49.44	33.31	5.77	
2025-01-15 22:14:49.64	33.33	5.78	
2025-01-15 22:14:49.85	33.35	5.79	
2025-01-15 22:14:50.05	33.37	5.80	
2025-01-15 22:14:50.25	33.40	5.81	
2025-01-15 22:14:50.46	33.42	5.82	
2025-01-15 22:14:50.66	33.44	5.83	
2025-01-15 22:14:50.86	33.46	5.84	
2025-01-15 22:14:51.06	33.49	5.85	
2025-01-15 22:14:51.27	33.51	5.87	
2025-01-15 22:14:51.47	33.53	5.88	
2025-01-15 22:14:51.67	33.55	5.89	
2025-01-15 22:14:51.88	33.58	5.90	
2025-01-15 22:14:52.08	33.60	5.91	
2025-01-15 22:14:52.28	33.62	5.92	
2025-01-15 22:14:52.49	33.64	5.93	
2025-01-15 22:14:52.69	33.67	5.94	
2025-01-15 22:14:52.89	33.69	5.95	
2025-01-15 22:14:53.09	33.71	5.96	
2025-01-15 22:14:53.30	33.73	5.97	
2025-01-15 22:14:53.50	33.76	5.98	
2025-01-15 22:14:53.70	33.78	5.99	
2025-01-15 22:14:53.91	33.80	6.00	
2025-01-15 22:14:54.11	33.83	6.01	
2025-01-15 22:14:54.31	33.85	6.02	
2025-01-15 22:14:54.52	33.87	6.03	
2025-01-15 22:14:54.72	33.89	6.04	
2025-01-15 22:14:54.92	33.92	6.05	
2025-01-15 22:14:55.12	33.94	6.06	
2025-01-15 22:14:55.33	33.96	6.07	
2025-01-15 22:14:55.53	33.98	6.08	
2025-01-15 22:14:55.73	34.01	6.09	
2025-01-15 22:14:55.94	34.03	6.11	
2025-01-15 22:14:56.14	34.05	6.12	
2025-01-15 22:14:56.34	34.08	6.13	
2025-01-15 22:14:56.55	34.10	6.14	
2025-01-15 22:14:56.75	34.12	6.15	
2025-01-15 22:14:56.95	34.14	6.16	
2025-01-15 22:14:57.15	34.17	6.17	
2025-01-15 22:14:57.36	34.19	6.18	
2025-01-15 22:14:57.56	34.21	6.19	
2025-01-15 22:14:57.76	34.24	6.20	
2025-01-15 22:14:57.97	34.26	6.21	
2025-01-15 22:14:58.17	34.28	6.22	
2025-01-15 22:14:58.37	34.31	6.23	
2025-01-15 22:14:58.58	34.33	6.24	
2025-01-15 22:14:58.78	34.35	6.25	
2025-01-15 22:14:58.98	34.38	6.26	
2025-01-15 22:14:59.18	34.40	6.27	
2025-01-15 22:14:59.39	34.42	6.28	
2025-01-15 22:14:59.59	34.44	6.29	
2025-01-15 22:14:59.79	34.47	6.30	
2025-01-15 22:15:00.00	34.49	6.31	
2025-01-15 22:15:00.20	34.51	6.32	
2025-01-15 22:15:00.40	34.54	6.33	
2025-01-15 22:15:00.60	34.56	6.35	
2025-01-15 22:15:00.81	34.58	6.36	
2025-01-15 22:15:01.01	34.61	6.37	
2025-01-15 22:15:01.21	34.63	6.38	
2025-01-15 22:15:01.42	34.65	6.39	
2025-01-15 22:15:01.62	34.68	6.40	
2025-01-15 22:15:01.82	34.70	6.41	
2025-01-15 22:15:02.03	34.72	6.42	
2025-01-15 22:15:02.23	34.75	6.43	
2025-01-15 22:15:02.43	34.77	6.44	
2025-01-15 22:15:02.63	34.79	6.45	
2025-01-15 22:15:02.84	34.82	6.46	
2025-01-15 22:15:03.04	34.84	6.47	
2025-01-15 22:15:03.24	34.86	6.48	
2025-01-15 22:15:03.45	34.89	6.49	
2025-01-15 22:15:03.65	34.91	6.50	
2025-01-15 22:15:03.85	34.93	6.51	
2025-01-15 22:15:04.06	34.96	6.52	
2025-01-15 22:15:04.26	34.98	6.53	
2025-01-15 22:15:04.46	35.00	6.54	
2025-01-15 22:15:04.66	35.03	6.55	
2025-01-15 22:15:04.87	35.05	6.57	
2025-01-15 22:15:05.07	35.08	6.58	
2025-01-15 22:15:05.27	35.10	6.59	
2025-01-15 22:15:05.48	35.12	6.60	
2025-01-15 22:15:05.68	35.15	6.61	
2025-01-15 22:15:05.88	35.17	6.62	
2025-01-15 22:15:06.09	35.19	6.63	
2025-01-15 22:15:06.29	35.22	6.64	
2025-01-15 22:15:06.49	35.24	6.65	
2025-01-15 22:15:06.69	35.26	6.66	
2025-01-15 22:15:06.90	35.29	6.67	
2025-01-15 22:15:07.10	35.31	6.68	
2025-01-15 22:15:07.30	35.34	6.69	
2025-01-15 22:15:07.51	35.36	6.70	
2025-01-15 22:15:07.71	35.38	6.71	
2025-01-15 22:15:07.91	35.41	6.72	
2025-01-15 22:15:08.12	35.43	6.73	
2025-01-15 22:15:08.32	35.46	6.74	
2025-01-15 22:15:08.52	35.48	6.75	
2025-01-15 22:15:08.72	35.50	6.76	
2025-01-15 22:15:08.93	35.53	6.77	
2025-01-15 22:15:09.13	35.55	6.78	
2025-01-15 22:15:09.33	35.57	6.79	
2025-01-15 22:15:09.54	35.60	6.81	
2025-01-15 22:15:09.74	35.62	6.82	
2025-01-15 22:15:09.94	35.65	6.83	
2025-01-15 22:15:10.15	35.67	6.84	
2025-01-15 22:15:10.35	35.69	6.85	
2025-01-15 22:15:10.55	35.72	6.86	
2025-01-15 22:15:10.75	35.74	6.87	
2025-01-15 22:15:10.96	35.77	6.88	
2025-01-15 22:15:11.16	35.79	6.89	
2025-01-15 22:15:11.36	35.81	6.90	
2025-01-15 22:15:11.57	35.84	6.91	
2025-01-15 22:15:11.77	35.86	6.92	
2025-01-15 22:15:11.97	35.89	6.93	
2025-01-15 22:15:12.18	35.91	6.94	
2025-01-15 22:15:12.38	35.94	6.95	
2025-01-15 22:15:12.58	35.96	6.96	
2025-01-15 22:15:12.78	35.98	6.97	
2025-01-15 22:15:12.99	36.01	6.98	
2025-01-15 22:15:13.19	36.03	6.99	
2025-01-15 22:15:13.39	36.06	7.00	
2025-01-15 22:15:13.60	36.08	7.02	
2025-01-15 22:15:13.80	36.11	7.03	
2025-01-15 22:15:14.00	36.13	7.04	
2025-01-15 22:15:14.20	36.15	7.05	
2025-01-15 22:15:14.41	36.18	7.06	
2025-01-15 22:15:14.61	36.20	7.07	
2025-01-15 22:15:14.81	36.23	7.08	
2025-01-15 22:15:15.02	36.25	7.09	
2025-01-15 22:15:15.22	36.28	7.10	
2025-01-15 22:15:15.42	36.30	7.11	
2025-01-15 22:15:15.63	36.32	7.12	
2025-01-15 22:15:15.83	36.35	7.13	
2025-01-15 22:15:16.03	36.37	7.14	
2025-01-15 22:15:16.23	36.40	7.15	
2025-01-15 22:15:16.44	36.42	7.16	
2025-01-15 22:15:16.64	36.45	7.17	
2025-01-15 22:15:16.84	36.47	7.18	
2025-01-15 22:15:17.05	36.50	7.19	
2025-01-15 22:15:17.25	36.52	7.20	
2025-01-15 22:15:17.45	36.54	7.21	
2025-01-15 22:15:17.66	36.57	7.22	
2025-01-15 22:15:17.86	36.59	7.23	
2025-01-15 22:15:18.06	36.62	7.25	
2025-01-15 22:15:18.26	36.64	7.26	
2025-01-15 22:15:18.47	36.67	7.27	
2025-01-15 22:15:18.67	36.69	7.28	
2025-01-15 22:15:18.87	36.72	7.29	
2025-01-15 22:15:19.08	36.74	7.30	
2025-01-15 22:15:19.29	36.77	7.31	
2025-01-15 22:15:19.49	36.79	7.32	
2025-01-15 22:15:19.69	36.82	7.33	
2025-01-15 22:15:19.89	36.84	7.34	
2025-01-15 22:15:20.10	36.87	7.35	
2025-01-15 22:15:20.30	36.89	7.36	
2025-01-15 22:15:20.50	36.92	7.37	
2025-01-15 22:15:20.71	36.94	7.38	
2025-01-15 22:15:20.91	36.97	7.39	
2025-01-15 22:15:21.11	36.99	7.40	
2025-01-15 22:15:21.32	37.02	7.41	
2025-01-15 22:15:21.52	37.04	7.42	
2025-01-15 22:15:21.72	37.07	7.43	
2025-01-15 22:15:21.92	37.09	7.44	
2025-01-15 22:15:22.13	37.12	7.45	
2025-01-15 22:15:22.33	37.14	7.47	
2025-01-15 22:15:22.53	37.17	7.48	
2025-01-15 22:15:22.74	37.19	7.49	
2025-01-15 22:15:22.94	37.22	7.50	
2025-01-15 22:15:23.14	37.24	7.51	
2025-01-15 22:15:23.35	37.27	7.52	
2025-01-15 22:15:23.55	37.29	7.53	
2025-01-15 22:15:23.75	37.32	7.54	
2025-01-15 22:15:23.95	37.34	7.55	
2025-01-15 22:15:24.16	37.37	7.56	
2025-01-15 22:15:24.36	37.39	7.57	
2025-01-15 22:15:24.56	37.42	7.58	
2025-01-15 22:15:24.77	37.44	7.59	
2025-01-15 22:15:24.97	37.47	7.60	
2025-01-15 22:15:25.17	37.49	7.61	
2025-01-15 22:15:25.38	37.52	7.62	
2025-01-15 22:15:25.58	37.54	7.63	
2025-01-15 22:15:25.78	37.57	7.64	
2025-01-15 22:15:25.98	37.59	7.65	
2025-01-15 22:15:26.19	37.62	7.66	
2025-01-15 22:15:26.39	37.64	7.67	
2025-01-15 22:15:26.59	37.67	7.68	
2025-01-15 22:15:26.80	37.70	7.70	
2025-01-15 22:15:27.00	37.72	7.71	
2025-01-15 22:15:27.20	37.75	7.72	
2025-01-15 22:15:27.41	37.77	7.73	
2025-01-15 22:15:27.61	37.80	7.74	
2025-01-15 22:15:27.81	37.82	7.75	
2025-01-15 22:15:28.01	37.85	7.76	
2025-01-15 22:15:28.22	37.87	7.77	
2025-01-15 22:15:28.42	37.90	7.78	
2025-01-15 22:15:28.62	37.92	7.79	
2025-01-15 22:15:28.83	37.95	7.80	
2025-01-15 22:15:29.03	37.98	7.81	
2025-01-15 22:15:29.23	38.00	7.82	
2025-01-15 22:15:29.43	38.03	7.83	
2025-01-15 22:15:29.64	38.05	7.84	
2025-01-15 22:15:29.84	38.08	7.85	
2025-01-15 22:15:30.04	38.10	7.86	
2025-01-15 22:15:30.25	38.13	7.87	
2025-01-15 22:15:30.45	38.16	7.88	
2025-01-15 22:15:30.65	38.18	7.89	
2025-01-15 22:15:30.86	38.21	7.90	
2025-01-15 22:15:31.06	38.23	7.91	
2025-01-15 22:15:31.26	38.26	7.93	
2025-01-15 22:15:31.46	38.28	7.94	
2025-01-15 22:15:31.67	38.31	7.95	
2025-01-15 22:15:31.87	38.34	7.96	
2025-01-15 22:15:32.07	38.36	7.97	
2025-01-15 22:15:32.28	38.39	7.98	
2025-01-15 22:15:32.48	38.41	7.99	
2025-01-15 22:15:32.68	38.44	8.00	
2025-01-15 22:15:32.89	38.47	8.01	
2025-01-15 22:15:33.09	38.49	8.02	
2025-01-15 22:15:33.29	38.52	8.03	
2025-01-15 22:15:33.49	38.54	8.04	
2025-01-15 22:15:33.70	38.57	8.05	
2025-01-15 22:15:33.90	38.59	8.06	
2025-01-15 22:15:34.10	38.62	8.07	
2025-01-15 22:15:34.31	38.65	8.08	
2025-01-15 22:15:34.51	38.67	8.09	
2025-01-15 22:15:34.71	38.70	8.10	
2025-01-15 22:15:34.92	38.73	8.11	
2025-01-15 22:15:35.12	38.75	8.12	
2025-01-15 22:15:35.32	38.78	8.13	
2025-01-15 22:15:35.52	38.80	8.14	
2025-01-15 22:15:35.73	38.83	8.15	
2025-01-15 22:15:35.93	38.86	8.17	
2025-01-15 22:15:36.13	38.88	8.18	
2025-01-15 22:15:36.34	38.91	8.19	
2025-01-15 22:15:36.54	38.93	8.20	
2025-01-15 22:15:36.74	38.96	8.21	
2025-01-15 22:15:36.95	38.99	8.22	
2025-01-15 22:15:37.15	39.01	8.23	
2025-01-15 22:15:37.35	39.04	8.24	
2025-01-15 22:15:37.55	39.07	8.25	
2025-01-15 22:15:37.76	39.09	8.26	
2025-01-15 22:15:37.96	39.12	8.27	
2025-01-15 22:15:38.16	39.14	8.28	
2025-01-15 22:15:38.37	39.17	8.29	
2025-01-15 22:15:38.57	39.20	8.30	
2025-01-15 22:15:38.77	39.22	8.31	
2025-01-15 22:15:38.98	39.25	8.32	
2025-01-15 22:15:39.18	39.28	8.33	
2025-01-15 22:15:39.38	39.30	8.34	
2025-01-15 22:15:39.58	39.33	8.35	
2025-01-15 22:15:39.79	39.36	8.36	
2025-01-15 22:15:39.99	39.38	8.37	
2025-01-15 22:15:40.19	39.41	8.38	
2025-01-15 22:15:40.40	39.44	8.39	
2025-01-15 22:15:40.60	39.46	8.40	
2025-01-15 22:15:40.80	39.49	8.42	
2025-01-15 22:15:41.01	39.52	8.43	
2025-01-15 22:15:41.21	39.54	8.44	
2025-01-15 22:15:41.41	39.57	8.45	
2025-01-15 22:15:41.61	39.60	8.46	
2025-01-15 22:15:41.82	39.62	8.47	
2025-01-15 22:15:42.02	39.65	8.48	
2025-01-15 22:15:42.22	39.68	8.49	
2025-01-15 22:15:42.43	39.70	8.50	
2025-01-15 22:15:42.63	39.73	8.51	
2025-01-15 22:15:42.83	39.76	8.52	
2025-01-15 22:15:43.03	39.78	8.53	
2025-01-15 22:15:43.24	39.81	8.54	
2025-01-15 22:15:43.44	39.84	8.55	
2025-01-15 22:15:43.64	39.86	8.56	
2025-01-15 22:15:43.85	39.89	8.57	
2025-01-15 22:15:44.05	39.92	8.58	
2025-01-15 22:15:44.25	39.94	8.59	
2025-01-15 22:15:44.46	39.97	8.60	
2025-01-15 22:15:44.66	40.00	8.61	
2025-01-15 22:15:44.86	40.03	8.62	
2025-01-15 22:15:45.06	40.05	8.63	
2025-01-15 22:15:45.27	40.08	8.64	
2025-01-15 22:15:45.47	40.11	8.65	
2025-01-15 22:15:45.67	40.13	8.66	
2025-01-15 22:15:45.88	40.16	8.68	
2025-01-15 22:15:46.08	40.19	8.69	
2025-01-15 22:15:46.28	40.22	8.70	
2025-01-15 22:15:46.49	40.24	8.71	
2025-01-15 22:15:46.69	40.27	8.72	
2025-01-15 22:15:46.89	40.30	8.73	
2025-01-15 22:15:47.09	40.32	8.74	
2025-01-15 22:15:47.30	40.35	8.75	
2025-01-15 22:15:47.50	40.38	8.76	
2025-01-15 22:15:47.70	40.41	8.77	
2025-01-15 22:15:47.91	40.43	8.78	
2025-01-15 22:15:48.11	40.46	8.79	
2025-01-15 22:15:48.31	40.49	8.80	
2025-01-15 22:15:48.52	40.52	8.81	
2025-01-15 22:15:48.72	40.54	8.82	
2025-01-15 22:15:48.92	40.57	8.83	
2025-01-15 22:15:49.12	40.60	8.84	
2025-01-15 22:15:49.33	40.62	8.85	
2025-01-15 22:15:49.53	40.65	8.86	
2025-01-15 22:15:49.73	40.68	8.87	
2025-01-15 22:15:49.94	40.71	8.88	
2025-01-15 22:15:50.14	40.73	8.89	
2025-01-15 22:15:50.34	40.76	8.90	
2025-01-15 22:15:50.55	40.79	8.91	
2025-01-15 22:15:50.75	40.82	8.92	
2025-01-15 22:15:50.95	40.84	8.93	
2025-01-15 22:15:51.15	40.87	8.94	
2025-01-15 22:15:51.36	40.90	8.96	
2025-01-15 22:15:51.56	40.93	8.97	
2025-01-15 22:15:51.76	40.95	8.98	
2025-01-15 22:15:51.97	40.98	8.99	
2025-01-15 22:15:52.17	41.01	9.00	
2025-01-15 22:15:52.37	41.04	9.01	
2025-01-15 22:15:52.58	41.07	9.02	
2025-01-15 22:15:52.78	41.09	9.03	
2025-01-15 22:15:52.98	41.12	9.04	
2025-01-15 22:15:53.18	41.15	9.05	
2025-01-15 22:15:53.39	41.18	9.06	
2025-01-15 22:15:53.59	41.20	9.07	
2025-01-15 22:15:53.79	41.23	9.08	
2025-01-15 22:15:54.00	41.26	9.09	
2025-01-15 22:15:54.20	41.29	9.10	
2025-01-15 22:15:54.40	41.32	9.11	
2025-01-15 22:15:54.61	41.34	9.12	
2025-01-15 22:15:54.81	41.37	9.13	
2025-01-15 22:15:55.01	41.40	9.14	
2025-01-15 22:15:55.21	41.43	9.15	
2025-01-15 22:15:55.42	41.46	9.16	
2025-01-15 22:15:55.62	41.48	9.17	
2025-01-15 22:15:55.82	41.51	9.18	
2025-01-15 22:15:56.03	41.54	9.19	
2025-01-15 22:15:56.23	41.57	9.20	
2025-01-15 22:15:56.43	41.60	9.21	
2025-01-15 22:15:56.64	41.62	9.22	
2025-01-15 22:15:56.84	41.65	9.23	
2025-01-15 22:15:57.04	41.68	9.24	
2025-01-15 22:15:57.24	41.71	9.25	
2025-01-15 22:15:57.45	41.74	9.27	
2025-01-15 22:15:57.65	41.76	9.28	
2025-01-15 22:15:57.85	41.79	9.29	
2025-01-15 22:15:58.06	41.82	9.30	
2025-01-15 22:15:58.26	41.85	9.31	
2025-01-15 22:15:58.46	41.88	9.32	
2025-01-15 22:15:58.66	41.90	9.33	
2025-01-15 22:15:58.87	41.93	9.34	
2025-01-15 22:15:59.07	41.96	9.35	
2025-01-15 22:15:59.27	41.99	9.36	
2025-01-15 22:15:59.48	42.02	9.37	
2025-01-15 22:15:59.68	42.05	9.38	
2025-01-15 22:15:59.88	42.08	9.39	
2025-01-15 22:16:00.09	42.10	9.40	
2025-01-15 22:16:00.29	42.13	9.41	
2025-01-15 22:16:00.49	42.16	9.42	
2025-01-15 22:16:00.69	42.19	9.43	
2025-01-15 22:16:00.90	42.22	9.44	
2025-01-15 22:16:01.10	42.25	9.45	
2025-01-15 22:16:01.30	42.27	9.46	
2025-01-15 22:16:01.51	42.30	9.47	
2025-01-15 22:16:01.71	42.33	9.48	
2025-01-15 22:16:01.91	42.36	9.49	
2025-01-15 22:16:02.12	42.39	9.50	
2025-01-15 22:16:02.32	42.42	9.51	
2025-01-15 22:16:02.52	42.45	9.52	
2025-01-15 22:16:02.72	42.47	9.53	
2025-01-15 22:16:02.93	42.50	9.54	
2025-01-15 22:16:03.13	42.53	9.55	
2025-01-15 22:16:03.33	42.56	9.56	
2025-01-15 22:16:03.54	42.59	9.57	
2025-01-15 22:16:03.74	42.62	9.58	
2025-01-15 22:16:03.94	42.65	9.59	
2025-01-15 22:16:04.15	42.68	9.60	
2025-01-15 22:16:04.35	42.71	9.62	
2025-01-15 22:16:04.55	42.73	9.63	
2025-01-15 22:16:04.75	42.76	9.64	
2025-01-15 22:16:04.96	42.79	9.65	
2025-01-15 22:16:05.16	42.82	9.66	
2025-01-15 22:16:05.36	42.85	9.67	
2025-01-15 22:16:05.57	42.88	9.68	
2025-01-15 22:16:05.77	42.91	9.69	
2025-01-15 22:16:05.97	42.94	9.70	
2025-01-15 22:16:06.18	42.97	9.71	
2025-01-15 22:16:06.38	42.99	9.72	
2025-01-15 22:16:06.58	43.02	9.73	
2025-01-15 22:16:06.78	43.05	9.74	
2025-01-15 22:16:06.99	43.08	9.75	
2025-01-15 22:16:07.19	43.11	9.76	
2025-01-15 22:16:07.39	43.14	9.77	
2025-01-15 22:16:07.60	43.17	9.78	
2025-01-15 22:16:07.80	43.20	9.79	
2025-01-15 22:16:08.00	43.23	9.80	
2025-01-15 22:16:08.21	43.26	9.81	
2025-01-15 22:16:08.41	43.29	9.82	
2025-01-15 22:16:08.61	43.31	9.83	
2025-01-15 22:16:08.81	43.34	9.84	
2025-01-15 22:16:09.02	43.37	9.85	
2025-01-15 22:16:09.22	43.40	9.86	
2025-01-15 22:16:09.42	43.43	9.87	
2025-01-15 22:16:09.63	43.46	9.88	
2025-01-15 22:16:09.83	43.49	9.89	
2025-01-15 22:16:10.03	43.52	9.90	
2025-01-15 22:16:10.24	43.55	9.91	
2025-01-15 22:16:10.44	43.58	9.92	
2025-01-15 22:16:10.64	43.61	9.93	
2025-01-15 22:16:10.84	43.64	9.94	
2025-01-15 22:16:11.05	43.67	9.95	
2025-01-15 22:16:11.25	43.70	9.96	
2025-01-15 22:16:11.45	43.73	9.97	
2025-01-15 22:16:11.66	43.76	9.98	
2025-01-15 22:16:11.86	43.79	9.99	
2025-01-15 22:16:12.06	43.81	10.00	
2025-01-15 22:16:12.27	43.85	10.01	
2025-01-15 22:16:12.47	43.87	10.02	
2025-01-15 22:16:12.67	43.90	10.03	
2025-01-15 22:16:12.87	43.93	10.04	
2025-01-15 22:16:13.08	43.96	10.05	
2025-01-15 22:16:13.28	43.99	10.06	
2025-01-15 22:16:13.48	44.02	10.07	
2025-01-15 22:16:13.69	44.05	10.08	
2025-01-15 22:16:13.89	44.08	10.09	
2025-01-15 22:16:14.09	44.11	10.10	
2025-01-15 22:16:14.29	44.14	10.11	
2025-01-15 22:16:14.50	44.17	10.12	
2025-01-15 22:16:14.70	44.20	10.13	
2025-01-15 22:16:14.90	44.23	10.14	
2025-01-15 22:16:15.11	44.26	10.16	
2025-01-15 22:16:15.31	44.29	10.17	
2025-01-15 22:16:15.51	44.32	10.18	
2025-01-15 22:16:15.72	44.35	10.19	
2025-01-15 22:16:15.92	44.38	10.20	
2025-01-15 22:16:16.12	44.41	10.21	
2025-01-15 22:16:16.32	44.44	10.22	
2025-01-15 22:16:16.53	44.47	10.23	
2025-01-15 22:16:16.73	44.50	10.24	
2025-01-15 22:16:16.93	44.53	10.25	
2025-01-15 22:16:17.14	44.56	10.26	
2025-01-15 22:16:17.34	44.59	10.27	
2025-01-15 22:16:17.54	44.62	10.28	
2025-01-15 22:16:17.75	44.65	10.29	
2025-01-15 22:16:17.95	44.68	10.30	
2025-01-15 22:16:18.15	44.71	10.31	
2025-01-15 22:16:18.35	44.74	10.32	
2025-01-15 22:16:18.56	44.77	10.33	
2025-01-15 22:16:18.76	44.80	10.34	
2025-01-15 22:16:18.96	44.83	10.35	
2025-01-15 22:16:19.17	44.86	10.36	
2025-01-15 22:16:19.37	44.89	10.37	
2025-01-15 22:16:19.57	44.92	10.38	
2025-01-15 22:16:19.78	44.95	10.39	
2025-01-15 22:16:19.98	44.98	10.40	
2025-01-15 22:16:20.18	45.01	10.41	
2025-01-15 22:16:20.38	45.04	10.42	
2025-01-15 22:16:20.59	45.08	10.43	
2025-01-15 22:16:20.79	45.11	10.44	
2025-01-15 22:16:20.99	45.14	10.45	
2025-01-15 22:16:21.20	45.17	10.46	
2025-01-15 22:16:21.40	45.20	10.47	
2025-01-15 22:16:21.60	45.23	10.48	
2025-01-15 22:16:21.81	45.26	10.49	
2025-01-15 22:16:22.01	45.29	10.50	
2025-01-15 22:16:22.21	45.32	10.51	
2025-01-15 22:16:22.41	45.35	10.52	
2025-01-15 22:16:22.62	45.38	10.53	
2025-01-15 22:16:22.82	45.41	10.54	
2025-01-15 22:16:23.02	45.44	10.55	
2025-01-15 22:16:23.23	45.47	10.56	
2025-01-15 22:16:23.43	45.50	10.57	
2025-01-15 22:16:23.63	45.53	10.58	
2025-01-15 22:16:23.84	45.56	10.59	
2025-01-15 22:16:24.04	45.60	10.60	
2025-01-15 22:16:24.24	45.63	10.61	
2025-01-15 22:16:24.44	45.66	10.62	
2025-01-15 22:16:24.65	45.69	10.63	
2025-01-15 22:16:24.85	45.72	10.64	
2025-01-15 22:16:25.05	45.75	10.65	
2025-01-15 22:16:25.26	45.78	10.66	
2025-01-15 22:16:25.46	45.81	10.67	
2025-01-15 22:16:25.66	45.84	10.68	
2025-01-15 22:16:25.87	45.87	10.69	
2025-01-15 22:16:26.07	45.90	10.70	
2025-01-15 22:16:26.27	45.93	10.71	
2025-01-15 22:16:26.47	45.96	10.72	
2025-01-15 22:16:26.68	46.00	10.73	
2025-01-15 22:16:26.88	46.03	10.74	
2025-01-15 22:16:27.08	46.06	10.75	
2025-01-15 22:16:27.29	46.09	10.76	
2025-01-15 22:16:27.49	46.12	10.77	
2025-01-15 22:16:27.69	46.15	10.78	
2025-01-15 22:16:27.90	46.18	10.79	
2025-01-15 22:16:28.10	46.21	10.80	
2025-01-15 22:16:28.30	46.25	10.81	
2025-01-15 22:16:28.50	46.28	10.82	
2025-01-15 22:16:28.71	46.31	10.83	
2025-01-15 22:16:28.91	46.34	10.84	
2025-01-15 22:16:29.11	46.37	10.85	
2025-01-15 22:16:29.32	46.40	10.86	
2025-01-15 22:16:29.52	46.43	10.87	
2025-01-15 22:16:29.72	46.46	10.88	
2025-01-15 22:16:29.92	46.49	10.89	
2025-01-15 22:16:30.13	46.53	10.90	
2025-01-15 22:16:30.33	46.56	10.91	
2025-01-15 22:16:30.53	46.59	10.92	
2025-01-15 22:16:30.74	46.62	10.93	
2025-01-15 22:16:30.94	46.65	10.94	
2025-01-15 22:16:31.14	46.68	10.95	
2025-01-15 22:16:31.35	46.72	10.96	
2025-01-15 22:16:31.55	46.75	10.97	
2025-01-15 22:16:31.75	46.78	10.98	
2025-01-15 22:16:31.95	46.81	10.99	
2025-01-15 22:16:32.16	46.84	11.00	
2025-01-15 22:16:32.36	46.87	11.01	
2025-01-15 22:16:32.56	46.90	11.02	
2025-01-15 22:16:32.77	46.94	11.03	
2025-01-15 22:16:32.97	46.97	11.04	
2025-01-15 22:16:33.17	47.00	11.04	
2025-01-15 22:16:33.38	47.03	11.06	
2025-01-15 22:16:33.58	47.06	11.06	
2025-01-15 22:16:33.78	47.10	11.07	
2025-01-15 22:16:33.98	47.13	11.08	
2025-01-15 22:16:34.19	47.16	11.09	
2025-01-15 22:16:34.39	47.19	11.10	
2025-01-15 22:16:34.59	47.22	11.11	
2025-01-15 22:16:34.80	47.25	11.12	
2025-01-15 22:16:35.00	47.29	11.13	
2025-01-15 22:16:35.20	47.32	11.14	
2025-01-15 22:16:35.41	47.35	11.15	
2025-01-15 22:16:35.61	47.38	11.16	
2025-01-15 22:16:35.81	47.41	11.17	
2025-01-15 22:16:36.01	47.45	11.18	
2025-01-15 22:16:36.22	47.48	11.19	
2025-01-15 22:16:36.42	47.51	11.20	
2025-01-15 22:16:36.62	47.54	11.21	
2025-01-15 22:16:36.83	47.57	11.22	
2025-01-15 22:16:37.03	47.61	11.23	
2025-01-15 22:16:37.23	47.64	11.24	
2025-01-15 22:16:37.44	47.67	11.25	
2025-01-15 22:16:37.64	47.70	11.26	
2025-01-15 22:16:37.84	47.73	11.27	
2025-01-15 22:16:38.04	47.77	11.28	
2025-01-15 22:16:38.25	47.80	11.29	
2025-01-15 22:16:38.45	47.83	11.30	
2025-01-15 22:16:38.65	47.86	11.31	
2025-01-15 22:16:38.86	47.90	11.32	
2025-01-15 22:16:39.06	47.93	11.33	
2025-01-15 22:16:39.26	47.96	11.34	
2025-01-15 22:16:39.47	47.99	11.35	
2025-01-15 22:16:39.67	48.03	11.36	
2025-01-15 22:16:39.87	48.06	11.37	
2025-01-15 22:16:40.07	48.09	11.38	
2025-01-15 22:16:40.28	48.12	11.39	
2025-01-15 22:16:40.48	48.15	11.40	
2025-01-15 22:16:40.68	48.19	11.41	
2025-01-15 22:16:40.89	48.22	11.42	
2025-01-15 22:16:41.09	48.25	11.43	
2025-01-15 22:16:41.29	48.28	11.44	
2025-01-15 22:16:41.49	48.32	11.45	
2025-01-15 22:16:41.70	48.35	11.46	
2025-01-15 22:16:41.90	48.38	11.46	
2025-01-15 22:16:42.10	48.41	11.47	
2025-01-15 22:16:42.31	48.45	11.48	
2025-01-15 22:16:42.51	48.48	11.49	
2025-01-15 22:16:42.71	48.51	11.50	
2025-01-15 22:16:42.92	48.55	11.51	
2025-01-15 22:16:43.12	48.58	11.52	
2025-01-15 22:16:43.32	48.61	11.53	
2025-01-15 22:16:43.52	48.64	11.54	
2025-01-15 22:16:43.73	48.68	11.55	
2025-01-15 22:16:43.93	48.71	11.56	
2025-01-15 22:16:44.13	48.74	11.57	
2025-01-15 22:16:44.34	48.78	11.58	
2025-01-15 22:16:44.54	48.81	11.59	
2025-01-15 22:16:44.74	48.84	11.60	
2025-01-15 22:16:44.95	48.87	11.61	
2025-01-15 22:16:45.15	48.91	11.62	
2025-01-15 22:16:45.35	48.94	11.63	
2025-01-15 22:16:45.55	48.97	11.64	
2025-01-15 22:16:45.76	49.01	11.65	
2025-01-15 22:16:45.96	49.04	11.66	
2025-01-15 22:16:46.16	49.07	11.67	
2025-01-15 22:16:46.37	49.10	11.68	
2025-01-15 22:16:46.57	49.14	11.69	
2025-01-15 22:16:46.77	49.17	11.70	
2025-01-15 22:16:46.98	49.20	11.71	
2025-01-15 22:16:47.18	49.24	11.72	
2025-01-15 22:16:47.38	49.27	11.72	
2025-01-15 22:16:47.58	49.30	11.73	
2025-01-15 22:16:47.79	49.34	11.74	
2025-01-15 22:16:47.99	49.37	11.75	
2025-01-15 22:16:48.19	49.40	11.76	
2025-01-15 22:16:48.40	49.44	11.77	
2025-01-15 22:16:48.60	49.47	11.78	
2025-01-15 22:16:48.80	49.50	11.79	
2025-01-15 22:16:49.01	49.54	11.80	
2025-01-15 22:16:49.21	49.57	11.81	
2025-01-15 22:16:49.41	49.60	11.82	
2025-01-15 22:16:49.61	49.63	11.83	
2025-01-15 22:16:49.82	49.67	11.84	
2025-01-15 22:16:50.02	49.70	11.85	
2025-01-15 22:16:50.22	49.74	11.86	
2025-01-15 22:16:50.43	49.77	11.87	
2025-01-15 22:16:50.63	49.80	11.88	
2025-01-15 22:16:50.83	49.84	11.89	
2025-01-15 22:16:51.04	49.87	11.90	
2025-01-15 22:16:51.24	49.90	11.91	
2025-01-15 22:16:51.44	49.94	11.91	
2025-01-15 22:16:51.64	49.97	11.92	
2025-01-15 22:16:51.85	50.00	11.93	
2025-01-15 22:16:52.05	50.04	11.94	
2025-01-15 22:16:52.25	50.07	11.95	
2025-01-15 22:16:52.46	50.11	11.96	
2025-01-15 22:16:52.66	50.14	11.97	
2025-01-15 22:16:52.86	50.17	11.98	
2025-01-15 22:16:53.07	50.21	11.99	
2025-01-15 22:16:53.27	50.24	12.00	
2025-01-15 22:16:53.47	50.27	12.01	
2025-01-15 22:16:53.67	50.31	12.02	
2025-01-15 22:16:53.88	50.34	12.03	
2025-01-15 22:16:54.08	50.38	12.04	
2025-01-15 22:16:54.28	50.41	12.05	
2025-01-15 22:16:54.49	50.44	12.06	
2025-01-15 22:16:54.69	50.48	12.07	
2025-01-15 22:16:54.89	50.51	12.07	
2025-01-15 22:16:55.10	50.55	12.08	
2025-01-15 22:16:55.30	50.58	12.09	
2025-01-15 22:16:55.50	50.61	12.10	
2025-01-15 22:16:55.70	50.65	12.11	
2025-01-15 22:16:55.91	50.68	12.12	
2025-01-15 22:16:56.11	50.71	12.13	
2025-01-15 22:16:56.31	50.75	12.14	
2025-01-15 22:16:56.52	50.78	12.15	
2025-01-15 22:16:56.72	50.82	12.16	
2025-01-15 22:16:56.92	50.85	12.17	
2025-01-15 22:16:57.12	50.88	12.18	
2025-01-15 22:16:57.33	50.92	12.19	
2025-01-15 22:16:57.53	50.95	12.20	
2025-01-15 22:16:57.73	50.99	12.21	
2025-01-15 22:16:57.94	51.02	12.21	
2025-01-15 22:16:58.14	51.06	12.22	
2025-01-15 22:16:58.34	51.09	12.23	
2025-01-15 22:16:58.55	51.13	12.24	
2025-01-15 22:16:58.75	51.16	12.25	
2025-01-15 22:16:58.95	51.19	12.26	
2025-01-15 22:16:59.15	51.23	12.27	
2025-01-15 22:16:59.36	51.26	12.28	
2025-01-15 22:16:59.56	51.30	12.29	
2025-01-15 22:16:59.76	51.33	12.30	
2025-01-15 22:16:59.97	51.37	12.31	
2025-01-15 22:17:00.17	51.40	12.32	
2025-01-15 22:17:00.37	51.43	12.33	
2025-01-15 22:17:00.58	51.47	12.34	
2025-01-15 22:17:00.78	51.50	12.34	
2025-01-15 22:17:00.98	51.54	12.35	
2025-01-15 22:17:01.18	51.57	12.36	
2025-01-15 22:17:01.39	51.61	12.37	
2025-01-15 22:17:01.59	51.64	12.38	
2025-01-15 22:17:01.79	51.68	12.39	
2025-01-15 22:17:02.00	51.71	12.40	
2025-01-15 22:17:02.20	51.75	12.41	
2025-01-15 22:17:02.40	51.78	12.42	
2025-01-15 22:17:02.61	51.82	12.43	
2025-01-15 22:17:02.81	51.85	12.44	
2025-01-15 22:17:03.01	51.88	12.44	
2025-01-15 22:17:03.21	51.92	12.45	
2025-01-15 22:17:03.42	51.95	12.46	
2025-01-15 22:17:03.62	51.99	12.47	
2025-01-15 22:17:03.82	52.02	12.48	
2025-01-15 22:17:04.03	52.06	12.49	
2025-01-15 22:17:04.23	52.09	12.50	
2025-01-15 22:17:04.43	52.13	12.51	
2025-01-15 22:17:04.64	52.16	12.52	
2025-01-15 22:17:04.84	52.20	12.53	
2025-01-15 22:17:05.04	52.23	12.54	
2025-01-15 22:17:05.24	52.27	12.54	
2025-01-15 22:17:05.45	52.30	12.55	
2025-01-15 22:17:05.65	52.34	12.56	
2025-01-15 22:17:05.85	52.37	12.57	
2025-01-15 22:17:06.06	52.41	12.58	
2025-01-15 22:17:06.26	52.44	12.59	
2025-01-15 22:17:06.46	52.48	12.60	
2025-01-15 22:17:06.67	52.51	12.61	
2025-01-15 22:17:06.87	52.55	12.62	
2025-01-15 22:17:07.07	52.58	12.63	
2025-01-15 22:17:07.27	52.62	12.64	
2025-01-15 22:17:07.48	52.66	12.64	
2025-01-15 22:17:07.68	52.69	12.65	
2025-01-15 22:17:07.88	52.72	12.66	
2025-01-15 22:17:08.09	52.76	12.67	
2025-01-15 22:17:08.29	52.80	12.68	
2025-01-15 22:17:08.49	52.83	12.69	
2025-01-15 22:17:08.70	52.87	12.70	
2025-01-15 22:17:08.90	52.90	12.71	
2025-01-15 22:17:09.10	52.94	12.72	
2025-01-15 22:17:09.30	52.97	12.73	
2025-01-15 22:17:09.51	53.01	12.73	
2025-01-15 22:17:09.71	53.04	12.74	
2025-01-15 22:17:09.91	53.08	12.75	
2025-01-15 22:17:10.12	53.12	12.76	
2025-01-15 22:17:10.32	53.15	12.77	
2025-01-15 22:17:10.52	53.19	12.78	
2025-01-15 22:17:10.73	53.22	12.79	
2025-01-15 22:17:10.93	53.26	12.80	
2025-01-15 22:17:11.13	53.29	12.81	
2025-01-15 22:17:11.33	53.33	12.81	
2025-01-15 22:17:11.54	53.36	12.82	
2025-01-15 22:17:11.74	53.40	12.83	
2025-01-15 22:17:11.94	53.43	12.84	
2025-01-15 22:17:12.15	53.47	12.85	
2025-01-15 22:17:12.35	53.51	12.86	
2025-01-15 22:17:12.55	53.54	12.87	
2025-01-15 22:17:12.76	53.58	12.88	
2025-01-15 22:17:12.96	53.61	12.89	
2025-01-15 22:17:13.16	53.65	12.89	
2025-01-15 22:17:13.36	53.68	12.90	
2025-01-15 22:17:13.57	53.72	12.91	
2025-01-15 22:17:13.77	53.76	12.92	
2025-01-15 22:17:13.97	53.79	12.93	
2025-01-15 22:17:14.18	53.83	12.94	
2025-01-15 22:17:14.38	53.87	12.95	
2025-01-15 22:17:14.58	53.90	12.96	
2025-01-15 22:17:14.78	53.94	12.96	
2025-01-15 22:17:14.99	53.97	12.97	
2025-01-15 22:17:15.19	54.01	12.98	
2025-01-15 22:17:15.39	54.04	12.99	
2025-01-15 22:17:15.60	54.08	13.00	
2025-01-15 22:17:15.80	54.12	13.01	
2025-01-15 22:17:16.00	54.15	13.02	
2025-01-15 22:17:16.21	54.19	13.03	
2025-01-15 22:17:16.41	54.23	13.03	
2025-01-15 22:17:16.61	54.26	13.04	
2025-01-15 22:17:16.81	54.30	13.05	
2025-01-15 22:17:17.02	54.33	13.06	
2025-01-15 22:17:17.22	54.37	13.07	
2025-01-15 22:17:17.42	54.41	13.08	
2025-01-15 22:17:17.63	54.44	13.09	
2025-01-15 22:17:17.83	54.48	13.10	
2025-01-15 22:17:18.03	54.51	13.10	
2025-01-15 22:17:18.24	54.55	13.11	
2025-01-15 22:17:18.44	54.59	13.12	
2025-01-15 22:17:18.64	54.62	13.13	
2025-01-15 22:17:18.84	54.66	13.14	
2025-01-15 22:17:19.05	54.70	13.15	
2025-01-15 22:17:19.25	54.73	13.16	
2025-01-15 22:17:19.45	54.77	13.16	
2025-01-15 22:17:19.66	54.81	13.17	
2025-01-15 22:17:19.86	54.84	13.18	
2025-01-15 22:17:20.06	54.88	13.19	
2025-01-15 22:17:20.27	54.92	13.20	
2025-01-15 22:17:20.47	54.95	13.21	
2025-01-15 22:17:20.67	54.99	13.22	
2025-01-15 22:17:20.87	55.02	13.22	
2025-01-15 22:17:21.08	55.06	13.23	
2025-01-15 22:17:21.28	55.10	13.24	
2025-01-15 22:17:21.48	55.14	13.25	
2025-01-15 22:17:21.69	55.17	13.26	
2025-01-15 22:17:21.89	55.21	13.27	
2025-01-15 22:17:22.09	55.25	13.28	
2025-01-15 22:17:22.30	55.28	13.28	
2025-01-15 22:17:22.50	55.32	13.29	
2025-01-15 22:17:22.70	55.36	13.30	
2025-01-15 22:17:22.90	55.39	13.31	
2025-01-15 22:17:23.11	55.43	13.32	
2025-01-15 22:17:23.31	55.47	13.33	
2025-01-15 22:17:23.51	55.50	13.33	
2025-01-15 22:17:23.72	55.54	13.34	
2025-01-15 22:17:23.92	55.58	13.35	
2025-01-15 22:17:24.12	55.61	13.36	
2025-01-15 22:17:24.33	55.65	13.37	
2025-01-15 22:17:24.53	55.69	13.38	
2025-01-15 22:17:24.73	55.72	13.39	
2025-01-15 22:17:24.93	55.76	13.39	
2025-01-15 22:17:25.14	55.80	13.40	
2025-01-15 22:17:25.34	55.84	13.41	
2025-01-15 22:17:25.54	55.87	13.42	
2025-01-15 22:17:25.75	55.91	13.43	
2025-01-15 22:17:25.95	55.95	13.44	
2025-01-15 22:17:26.15	55.98	13.44	
2025-01-15 22:17:26.36	56.02	13.45	
2025-01-15 22:17:26.56	56.06	13.46	
2025-01-15 22:17:26.76	56.10	13.47	
2025-01-15 22:17:26.96	56.13	13.48	
2025-01-15 22:17:27.17	56.17	13.49	
2025-01-15 22:17:27.37	56.21	13.49	
2025-01-15 22:17:27.57	56.24	13.50	
2025-01-15 22:17:27.78	56.28	13.51	
2025-01-15 22:17:27.98	56.32	13.52	
2025-01-15 22:17:28.18	56.36	13.53	
2025-01-15 22:17:28.38	56.39	13.53	
2025-01-15 22:17:28.59	56.43	13.54	
2025-01-15 22:17:28.79	56.47	13.55	
2025-01-15 22:17:28.99	56.51	13.56	
2025-01-15 22:17:29.20	56.54	13.57	
2025-01-15 22:17:29.40	56.58	13.58	
2025-01-15 22:17:29.60	56.62	13.58	
2025-01-15 22:17:29.81	56.66	13.59	
2025-01-15 22:17:30.01	56.69	13.60	
2025-01-15 22:17:30.21	56.73	13.61	
2025-01-15 22:17:30.41	56.77	13.62	
2025-01-15 22:17:30.62	56.81	13.63	
2025-01-15 22:17:30.82	56.84	13.63	
2025-01-15 22:17:31.02	56.88	13.64	
2025-01-15 22:17:31.23	56.92	13.65	
2025-01-15 22:17:31.43	56.96	13.66	
2025-01-15 22:17:31.63	56.99	13.67	
2025-01-15 22:17:31.84	57.03	13.67	
2025-01-15 22:17:32.04	57.07	13.68	
2025-01-15 22:17:32.24	57.11	13.69	
2025-01-15 22:17:32.44	57.14	13.70	
2025-01-15 22:17:32.65	57.18	13.71	
2025-01-15 22:17:32.85	57.22	13.71	
2025-01-15 22:17:33.05	57.26	13.72	
2025-01-15 22:17:33.26	57.30	13.73	
2025-01-15 22:17:33.46	57.34	13.74	
2025-01-15 22:17:33.66	57.37	13.75	
2025-01-15 22:17:33.87	57.41	13.75	
2025-01-15 22:17:34.07	57.45	13.76	
2025-01-15 22:17:34.27	57.49	13.77	
2025-01-15 22:17:34.47	57.52	13.78	
2025-01-15 22:17:34.68	57.56	13.79	
2025-01-15 22:17:34.88	57.60	13.79	
2025-01-15 22:17:35.08	57.64	13.80	
2025-01-15 22:17:35.29	57.68	13.81	
2025-01-15 22:17:35.49	57.71	13.82	
2025-01-15 22:17:35.69	57.75	13.83	
2025-01-15 22:17:35.90	57.79	13.83	
2025-01-15 22:17:36.10	57.83	13.84	
2025-01-15 22:17:36.30	57.87	13.85	
2025-01-15 22:17:36.50	57.90	13.86	
2025-01-15 22:17:36.71	57.94	13.87	
2025-01-15 22:17:36.91	57.98	13.87	
2025-01-15 22:17:37.11	58.02	13.88	
2025-01-15 22:17:37.32	58.06	13.89	
2025-01-15 22:17:37.52	58.10	13.90	
2025-01-15 22:17:37.72	58.13	13.91	
2025-01-15 22:17:37.93	58.17	13.91	
2025-01-15 22:17:38.13	58.21	13.92	
2025-01-15 22:17:38.33	58.25	13.93	
2025-01-15 22:17:38.53	58.29	13.94	
2025-01-15 22:17:38.74	58.33	13.94	
2025-01-15 22:17:38.94	58.36	13.95	
2025-01-15 22:17:39.14	58.40	13.96	
2025-01-15 22:17:39.35	58.44	13.97	
2025-01-15 22:17:39.55	58.48	13.98	
2025-01-15 22:17:39.75	58.52	13.98	
2025-01-15 22:17:39.96	58.56	13.99	
2025-01-15 22:17:40.16	58.60	14.00	
2025-01-15 22:17:40.36	58.63	14.01	
2025-01-15 22:17:40.56	58.67	14.01	
2025-01-15 22:17:40.77	58.71	14.02	
2025-01-15 22:17:40.97	58.75	14.03	
2025-01-15 22:17:41.17	58.79	14.04	
2025-01-15 22:17:41.38	58.83	14.05	
2025-01-15 22:17:41.58	58.87	14.05	
2025-01-15 22:17:41.78	58.90	14.06	
2025-01-15 22:17:41.99	58.94	14.07	
2025-01-15 22:17:42.19	58.98	14.08	
2025-01-15 22:17:42.39	59.02	14.08	
2025-01-15 22:17:42.59	59.06	14.09	
2025-01-15 22:17:42.80	59.10	14.10	
2025-01-15 22:17:43.00	59.14	14.11	
2025-01-15 22:17:43.20	59.18	14.11	
2025-01-15 22:17:43.41	59.22	14.12	
2025-01-15 22:17:43.61	59.25	14.13	
2025-01-15 22:17:43.81	59.29	14.14	
2025-01-15 22:17:44.01	59.33	14.14	
2025-01-15 22:17:44.22	59.37	14.15	
2025-01-15 22:17:44.42	59.41	14.16	
2025-01-15 22:17:44.62	59.45	14.17	
2025-01-15 22:17:44.83	59.49	14.17	
2025-01-15 22:17:45.03	59.53	14.18	
2025-01-15 22:17:45.23	59.56	14.19	
2025-01-15 22:17:45.44	59.60	14.20	
2025-01-15 22:17:45.64	59.64	14.20	
2025-01-15 22:17:45.84	59.68	14.21	
2025-01-15 22:17:46.04	59.72	14.22	
2025-01-15 22:17:46.25	59.76	14.23	
2025-01-15 22:17:46.45	59.80	14.23	
2025-01-15 22:17:46.65	59.84	14.24	
2025-01-15 22:17:46.86	59.88	14.25	
2025-01-15 22:17:47.06	59.92	14.26	
2025-01-15 22:17:47.26	59.96	14.26	
2025-01-15 22:17:47.47	60.00	14.27	
2025-01-15 22:17:47.67	60.04	14.28	
2025-01-15 22:17:47.87	60.07	14.29	
2025-01-15 22:17:48.07	60.11	14.29	
2025-01-15 22:17:48.28	60.15	14.30	
2025-01-15 22:17:48.48	60.19	14.31	
2025-01-15 22:17:48.68	60.23	14.32	
2025-01-15 22:17:48.89	60.27	14.32	
2025-01-15 22:17:49.09	60.31	14.33	
2025-01-15 22:17:49.29	60.35	14.34	
2025-01-15 22:17:49.50	60.39	14.35	
2025-01-15 22:17:49.70	60.43	14.35	
2025-01-15 22:17:49.90	60.47	14.36	
2025-01-15 22:17:50.10	60.51	14.37	
2025-01-15 22:17:50.31	60.55	14.37	
2025-01-15 22:17:50.51	60.59	14.38	
2025-01-15 22:17:50.71	60.63	14.39	
2025-01-15 22:17:50.92	60.67	14.40	
2025-01-15 22:17:51.12	60.70	14.40	
2025-01-15 22:17:51.32	60.74	14.41	
2025-01-15 22:17:51.53	60.78	14.42	
2025-01-15 22:17:51.73	60.82	14.42	
2025-01-15 22:17:51.93	60.86	14.43	
2025-01-15 22:17:52.13	60.90	14.44	
2025-01-15 22:17:52.34	60.94	14.45	
2025-01-15 22:17:52.54	60.98	14.45	
2025-01-15 22:17:52.74	61.02	14.46	
2025-01-15 22:17:52.95	61.06	14.47	
2025-01-15 22:17:53.15	61.10	14.47	
2025-01-15 22:17:53.35	61.14	14.48	
2025-01-15 22:17:53.56	61.18	14.49	
2025-01-15 22:17:53.76	61.22	14.50	
2025-01-15 22:17:53.96	61.26	14.50	
2025-01-15 22:17:54.16	61.30	14.51	
2025-01-15 22:17:54.37	61.34	14.52	
2025-01-15 22:17:54.57	61.38	14.52	
2025-01-15 22:17:54.77	61.42	14.53	
2025-01-15 22:17:54.98	61.46	14.54	
2025-01-15 22:17:55.18	61.50	14.55	
2025-01-15 22:17:55.38	61.54	14.55	
2025-01-15 22:17:55.59	61.58	14.56	
2025-01-15 22:17:55.79	61.62	14.57	
2025-01-15 22:17:55.99	61.66	14.57	
2025-01-15 22:17:56.19	61.70	14.58	
2025-01-15 22:17:56.40	61.74	14.59	
2025-01-15 22:17:56.60	61.78	14.59	
2025-01-15 22:17:56.80	61.82	14.60	
2025-01-15 22:17:57.01	61.86	14.61	
2025-01-15 22:17:57.21	61.90	14.61	
2025-01-15 22:17:57.41	61.94	14.62	
2025-01-15 22:17:57.61	61.98	14.63	
2025-01-15 22:17:57.82	62.02	14.64	
2025-01-15 22:17:58.02	62.06	14.64	
2025-01-15 22:17:58.22	62.10	14.65	
2025-01-15 22:17:58.43	62.14	14.66	
2025-01-15 22:17:58.63	62.18	14.66	
2025-01-15 22:17:58.83	62.22	14.67	
2025-01-15 22:17:59.04	62.26	14.68	
2025-01-15 22:17:59.24	62.30	14.68	
2025-01-15 22:17:59.44	62.34	14.69	
2025-01-15 22:17:59.64	62.38	14.70	
2025-01-15 22:17:59.85	62.42	14.70	
2025-01-15 22:18:00.05	62.46	14.71	
2025-01-15 22:18:00.25	62.50	14.72	
2025-01-15 22:18:00.46	62.55	14.72	
2025-01-15 22:18:00.66	62.59	14.73	
2025-01-15 22:18:00.86	62.63	14.74	
2025-01-15 22:18:01.07	62.67	14.74	
2025-01-15 22:18:01.27	62.71	14.75	
2025-01-15 22:18:01.47	62.75	14.76	
2025-01-15 22:18:01.67	62.79	14.76	
2025-01-15 22:18:01.88	62.83	14.77	
2025-01-15 22:18:02.08	62.87	14.78	
2025-01-15 22:18:02.28	62.91	14.78	
2025-01-15 22:18:02.49	62.95	14.79	
2025-01-15 22:18:02.69	62.99	14.80	
2025-01-15 22:18:02.89	63.03	14.80	
2025-01-15 22:18:03.10	63.07	14.81	
2025-01-15 22:18:03.30	63.11	14.82	
2025-01-15 22:18:03.50	63.15	14.82	
2025-01-15 22:18:03.70	63.19	14.83	
2025-01-15 22:18:03.91	63.23	14.84	
2025-01-15 22:18:04.11	63.28	14.84	
2025-01-15 22:18:04.31	63.32	14.85	
2025-01-15 22:18:04.52	63.36	14.86	
2025-01-15 22:18:04.72	63.40	14.86	
2025-01-15 22:18:04.92	63.44	14.87	
2025-01-15 22:18:05.13	63.48	14.87	
2025-01-15 22:18:05.33	63.52	14.88	
2025-01-15 22:18:05.53	63.56	14.89	
2025-01-15 22:18:05.73	63.60	14.89	
2025-01-15 22:18:05.94	63.64	14.90	
2025-01-15 22:18:06.14	63.68	14.91	
2025-01-15 22:18:06.34	63.72	14.91	
2025-01-15 22:18:06.55	63.77	14.92	
2025-01-15 22:18:06.75	63.81	14.93	
2025-01-15 22:18:06.95	63.85	14.93	
2025-01-15 22:18:07.16	63.89	14.94	
2025-01-15 22:18:07.36	63.93	14.94	
2025-01-15 22:18:07.56	63.97	14.95	
2025-01-15 22:18:07.76	64.01	14.96	
2025-01-15 22:18:07.97	64.05	14.96	
2025-01-15 22:18:08.17	64.09	14.97	
2025-01-15 22:18:08.37	64.13	14.98	
2025-01-15 22:18:08.58	64.18	14.98	
2025-01-15 22:18:08.78	64.22	14.99	
2025-01-15 22:18:08.98	64.26	14.99	
2025-01-15 22:18:09.19	64.30	15.00	
2025-01-15 22:18:09.39	64.34	15.01	
2025-01-15 22:18:09.59	64.38	15.01	
2025-01-15 22:18:09.79	64.42	15.02	
2025-01-15 22:18:10.00	64.46	15.03	
2025-01-15 22:18:10.20	64.50	15.03	
2025-01-15 22:18:10.40	64.55	15.04	
2025-01-15 22:18:10.61	64.59	15.04	
2025-01-15 22:18:10.81	64.63	15.05	
2025-01-15 22:18:11.01	64.67	15.06	
2025-01-15 22:18:11.22	64.71	15.06	
2025-01-15 22:18:11.42	64.75	15.07	
2025-01-15 22:18:11.62	64.79	15.07	
2025-01-15 22:18:11.82	64.83	15.08	
2025-01-15 22:18:12.03	64.88	15.09	
2025-01-15 22:18:12.23	64.92	15.09	
2025-01-15 22:18:12.43	64.96	15.10	
2025-01-15 22:18:12.64	65.00	15.10	
2025-01-15 22:18:12.84	65.04	15.11	
2025-01-15 22:18:13.04	65.08	15.12	
2025-01-15 22:18:13.24	65.12	15.12	
2025-01-15 22:18:13.45	65.17	15.13	
2025-01-15 22:18:13.65	65.21	15.13	
2025-01-15 22:18:13.85	65.25	15.14	
2025-01-15 22:18:14.06	65.29	15.15	
2025-01-15 22:18:14.26	65.33	15.15	
2025-01-15 22:18:14.46	65.37	15.16	
2025-01-15 22:18:14.67	65.42	15.16	
2025-01-15 22:18:14.87	65.46	15.17	
2025-01-15 22:18:15.07	65.50	15.18	
2025-01-15 22:18:15.27	65.54	15.18	
2025-01-15 22:18:15.48	65.58	15.19	
2025-01-15 22:18:15.68	65.62	15.19	
2025-01-15 22:18:15.88	65.67	15.20	
2025-01-15 22:18:16.09	65.71	15.20	
2025-01-15 22:18:16.29	65.75	15.21	
2025-01-15 22:18:16.49	65.79	15.22	
2025-01-15 22:18:16.70	65.83	15.22	
2025-01-15 22:18:16.90	65.88	15.23	
2025-01-15 22:18:17.10	65.92	15.23	
2025-01-15 22:18:17.30	65.96	15.24	
2025-01-15 22:18:17.51	66.00	15.24	
2025-01-15 22:18:17.71	66.04	15.25	
2025-01-15 22:18:17.91	66.08	15.26	
2025-01-15 22:18:18.12	66.13	15.26	
2025-01-15 22:18:18.32	66.17	15.27	
2025-01-15 22:18:18.52	66.21	15.27	
2025-01-15 22:18:18.73	66.25	15.28	
2025-01-15 22:18:18.93	66.29	15.28	
2025-01-15 22:18:19.13	66.34	15.29	
2025-01-15 22:18:19.33	66.38	15.30	
2025-01-15 22:18:19.54	66.42	15.30	
2025-01-15 22:18:19.74	66.46	15.31	
2025-01-15 22:18:19.94	66.50	15.31	
2025-01-15 22:18:20.15	66.55	15.32	
2025-01-15 22:18:20.35	66.59	15.32	
2025-01-15 22:18:20.55	66.63	15.33	
2025-01-15 22:18:20.76	66.67	15.33	
2025-01-15 22:18:20.96	66.71	15.34	
2025-01-15 22:18:21.16	66.76	15.34	
2025-01-15 22:18:21.36	66.80	15.35	
2025-01-15 22:18:21.57	66.84	15.36	
2025-01-15 22:18:21.77	66.88	15.36	
2025-01-15 22:18:21.97	66.92	15.37	
2025-01-15 22:18:22.18	66.97	15.37	
2025-01-15 22:18:22.38	67.01	15.38	
2025-01-15 22:18:22.58	67.05	15.38	
2025-01-15 22:18:22.79	67.09	15.39	
2025-01-15 22:18:22.99	67.14	15.39	
2025-01-15 22:18:23.19	67.18	15.40	
2025-01-15 22:18:23.39	67.22	15.40	
2025-01-15 22:18:23.60	67.26	15.41	
2025-01-15 22:18:23.80	67.30	15.41	
2025-01-15 22:18:24.00	67.35	15.42	
2025-01-15 22:18:24.21	67.39	15.43	
2025-01-15 22:18:24.41	67.43	15.43	
2025-01-15 22:18:24.61	67.47	15.44	
2025-01-15 22:18:24.82	67.52	15.44	
2025-01-15 22:18:25.02	67.56	15.45	
2025-01-15 22:18:25.22	67.60	15.45	
2025-01-15 22:18:25.42	67.64	15.46	
2025-01-15 22:18:25.63	67.69	15.46	
2025-01-15 22:18:25.83	67.73	15.47	
2025-01-15 22:18:26.03	67.77	15.47	
2025-01-15 22:18:26.24	67.81	15.48	
2025-01-15 22:18:26.44	67.86	15.48	
2025-01-15 22:18:26.64	67.90	15.49	
2025-01-15 22:18:26.84	67.94	15.49	
2025-01-15 22:18:27.05	67.98	15.50	
2025-01-15 22:18:27.25	68.03	15.50	
2025-01-15 22:18:27.45	68.07	15.51	
2025-01-15 22:18:27.66	68.11	15.51	
2025-01-15 22:18:27.86	68.15	15.52	
2025-01-15 22:18:28.06	68.20	15.52	
2025-01-15 22:18:28.27	68.24	15.53	
2025-01-15 22:18:28.47	68.28	15.53	
2025-01-15 22:18:28.67	68.32	15.54	
2025-01-15 22:18:28.87	68.37	15.54	
2025-01-15 22:18:29.08	68.41	15.55	
2025-01-15 22:18:29.28	68.45	15.55	
2025-01-15 22:18:29.48	68.49	15.56	
2025-01-15 22:18:29.69	68.54	15.56	
2025-01-15 22:18:29.89	68.58	15.57	
2025-01-15 22:18:30.09	68.62	15.57	
2025-01-15 22:18:30.30	68.67	15.58	
2025-01-15 22:18:30.50	68.71	15.58	
2025-01-15 22:18:30.70	68.75	15.59	
2025-01-15 22:18:30.90	68.79	15.59	
2025-01-15 22:18:31.11	68.84	15.60	
2025-01-15 22:18:31.31	68.88	15.60	
2025-01-15 22:18:31.51	68.92	15.61	
2025-01-15 22:18:31.72	68.97	15.61	
2025-01-15 22:18:31.92	69.01	15.61	
2025-01-15 22:18:32.12	69.05	15.62	
2025-01-15 22:18:32.33	69.10	15.62	
2025-01-15 22:18:32.53	69.14	15.63	
2025-01-15 22:18:32.73	69.18	15.63	
2025-01-15 22:18:32.93	69.22	15.64	
2025-01-15 22:18:33.14	69.27	15.64	
2025-01-15 22:18:33.34	69.31	15.65	
2025-01-15 22:18:33.54	69.35	15.65	
2025-01-15 22:18:33.75	69.40	15.66	
2025-01-15 22:18:33.95	69.44	15.66	
2025-01-15 22:18:34.15	69.48	15.67	
2025-01-15 22:18:34.36	69.52	15.67	
2025-01-15 22:18:34.56	69.57	15.68	
2025-01-15 22:18:34.76	69.61	15.68	
2025-01-15 22:18:34.96	69.65	15.68	
2025-01-15 22:18:35.17	69.70	15.69	
2025-01-15 22:18:35.37	69.74	15.69	
2025-01-15 22:18:35.57	69.78	15.70	
2025-01-15 22:18:35.78	69.83	15.70	
2025-01-15 22:18:35.98	69.87	15.71	
2025-01-15 22:18:36.18	69.91	15.71	
2025-01-15 22:18:36.39	69.96	15.72	
2025-01-15 22:18:36.59	70.00	15.72	
2025-01-15 22:18:36.79	70.04	15.72	
2025-01-15 22:18:36.99	70.08	15.73	
2025-01-15 22:18:37.20	70.13	15.73	
2025-01-15 22:18:37.40	70.17	15.74	
2025-01-15 22:18:37.60	70.21	15.74	
2025-01-15 22:18:37.81	70.26	15.75	
2025-01-15 22:18:38.01	70.30	15.75	
2025-01-15 22:18:38.21	70.34	15.75	
2025-01-15 22:18:38.42	70.39	15.76	
2025-01-15 22:18:38.62	70.43	15.76	
2025-01-15 22:18:38.82	70.47	15.77	
2025-01-15 22:18:39.02	70.52	15.77	
2025-01-15 22:18:39.23	70.56	15.78	
2025-01-15 22:18:39.43	70.60	15.78	
2025-01-15 22:18:39.63	70.65	15.78	
2025-01-15 22:18:39.84	70.69	15.79	
2025-01-15 22:18:40.04	70.73	15.79	
2025-01-15 22:18:40.24	70.78	15.80	
2025-01-15 22:18:40.45	70.82	15.80	
2025-01-15 22:18:40.65	70.86	15.81	
2025-01-15 22:18:40.85	70.91	15.81	
2025-01-15 22:18:41.05	70.95	15.81	
2025-01-15 22:18:41.26	70.99	15.82	
2025-01-15 22:18:41.46	71.04	15.82	
2025-01-15 22:18:41.66	71.08	15.83	
2025-01-15 22:18:41.87	71.13	15.83	
2025-01-15 22:18:42.07	71.17	15.83	
2025-01-15 22:18:42.27	71.21	15.84	
2025-01-15 22:18:42.48	71.26	15.84	
2025-01-15 22:18:42.68	71.30	15.85	
2025-01-15 22:18:42.88	71.34	15.85	
2025-01-15 22:18:43.08	71.38	15.85	
2025-01-15 22:18:43.29	71.43	15.86	
2025-01-15 22:18:43.49	71.47	15.86	
2025-01-15 22:18:43.69	71.52	15.86	
2025-01-15 22:18:43.90	71.56	15.87	
2025-01-15 22:18:44.10	71.60	15.87	
2025-01-15 22:18:44.30	71.65	15.88	
2025-01-15 22:18:44.50	71.69	15.88	
2025-01-15 22:18:44.71	71.73	15.88	
2025-01-15 22:18:44.91	71.78	15.89	
2025-01-15 22:18:45.11	71.82	15.89	
2025-01-15 22:18:45.32	71.87	15.90	
2025-01-15 22:18:45.52	71.91	15.90	
2025-01-15 22:18:45.72	71.95	15.90	
2025-01-15 22:18:45.93	72.00	15.91	
2025-01-15 22:18:46.13	72.04	15.91	
2025-01-15 22:18:46.33	72.08	15.91	
2025-01-15 22:18:46.53	72.13	15.92	
2025-01-15 22:18:46.74	72.17	15.92	
2025-01-15 22:18:46.94	72.21	15.93	
2025-01-15 22:18:47.14	72.26	15.93	
2025-01-15 22:18:47.35	72.30	15.93	
2025-01-15 22:18:47.55	72.35	15.94	
2025-01-15 22:18:47.75	72.39	15.94	
2025-01-15 22:18:47.96	72.43	15.94	
2025-01-15 22:18:48.16	72.48	15.95	
2025-01-15 22:18:48.36	72.52	15.95	
2025-01-15 22:18:48.56	72.56	15.95	
2025-01-15 22:18:48.77	72.61	15.96	
2025-01-15 22:18:48.97	72.65	15.96	
2025-01-15 22:18:49.17	72.70	15.96	
2025-01-15 22:18:49.38	72.74	15.97	
2025-01-15 22:18:49.58	72.78	15.97	
2025-01-15 22:18:49.78	72.83	15.97	
2025-01-15 22:18:49.99	72.87	15.98	
2025-01-15 22:18:50.19	72.92	15.98	
2025-01-15 22:18:50.39	72.96	15.99	
2025-01-15 22:18:50.59	73.00	15.99	
2025-01-15 22:18:50.80	73.05	15.99	
2025-01-15 22:18:51.00	73.09	16.00	
2025-01-15 22:18:51.20	73.14	16.00	
2025-01-15 22:18:51.41	73.18	16.00	
2025-01-15 22:18:51.61	73.22	16.01	
2025-01-15 22:18:51.81	73.27	16.01	
2025-01-15 22:18:52.02	73.31	16.01	
2025-01-15 22:18:52.22	73.36	16.01	
2025-01-15 22:18:52.42	73.40	16.02	
2025-01-15 22:18:52.62	73.44	16.02	
2025-01-15 22:18:52.83	73.49	16.02	
2025-01-15 22:18:53.03	73.53	16.03	
2025-01-15 22:18:53.23	73.58	16.03	
2025-01-15 22:18:53.44	73.62	16.03	
2025-01-15 22:18:53.64	73.66	16.04	
2025-01-15 22:18:53.84	73.71	16.04	
2025-01-15 22:18:54.05	73.75	16.04	
2025-01-15 22:18:54.25	73.80	16.05	
2025-01-15 22:18:54.45	73.84	16.05	
2025-01-15 22:18:54.65	73.88	16.05	
2025-01-15 22:18:54.86	73.93	16.06	
2025-01-15 22:18:55.06	73.97	16.06	
2025-01-15 22:18:55.26	74.02	16.06	
2025-01-15 22:18:55.47	74.06	16.06	
2025-01-15 22:18:55.67	74.11	16.07	
2025-01-15 22:18:55.87	74.15	16.07	
2025-01-15 22:18:56.08	74.20	16.07	
2025-01-15 22:18:56.28	74.24	16.08	
2025-01-15 22:18:56.48	74.28	16.08	
2025-01-15 22:18:56.68	74.33	16.08	
2025-01-15 22:18:56.89	74.37	16.09	
2025-01-15 22:18:57.09	74.42	16.09	
2025-01-15 22:18:57.29	74.46	16.09	
2025-01-15 22:18:57.50	74.50	16.09	
2025-01-15 22:18:57.70	74.55	16.10	
2025-01-15 22:18:57.90	74.59	16.10	
2025-01-15 22:18:58.10	74.64	16.10	
2025-01-15 22:18:58.31	74.68	16.11	
2025-01-15 22:18:58.51	74.72	16.11	
2025-01-15 22:18:58.71	74.77	16.11	
2025-01-15 22:18:58.92	74.81	16.11	
2025-01-15 22:18:59.12	74.86	16.12	
2025-01-15 22:18:59.32	74.90	16.12	
2025-01-15 22:18:59.53	74.95	16.12	
2025-01-15 22:18:59.73	74.99	16.12	
2025-01-15 22:18:59.93	75.03	16.13	
2025-01-15 22:19:00.13	75.08	16.13	
2025-01-15 22:19:00.34	75.12	16.13	
2025-01-15 22:19:00.54	75.17	16.13	
2025-01-15 22:19:00.74	75.21	16.14	
2025-01-15 22:19:00.95	75.26	16.14	
2025-01-15 22:19:01.15	75.30	16.14	
2025-01-15 22:19:01.35	75.35	16.15	
2025-01-15 22:19:01.56	75.39	16.15	
2025-01-15 22:19:01.76	75.43	16.15	
2025-01-15 22:19:01.96	75.48	16.15	
2025-01-15 22:19:02.16	75.52	16.16	
2025-01-15 22:19:02.37	75.57	16.16	
2025-01-15 22:19:02.57	75.61	16.16	
2025-01-15 22:19:02.77	75.66	16.16	
2025-01-15 22:19:02.98	75.70	16.17	
2025-01-15 22:19:03.18	75.75	16.17	
2025-01-15 22:19:03.38	75.79	16.17	
2025-01-15 22:19:03.59	75.84	16.17	
2025-01-15 22:19:03.79	75.88	16.17	
2025-01-15 22:19:03.99	75.92	16.18	
2025-01-15 22:19:04.19	75.97	16.18	
2025-01-15 22:19:04.40	76.01	16.18	
2025-01-15 22:19:04.60	76.06	16.18	
2025-01-15 22:19:04.80	76.10	16.19	
2025-01-15 22:19:05.01	76.15	16.19	
2025-01-15 22:19:05.21	76.19	16.19	
2025-01-15 22:19:05.41	76.23	16.19	
2025-01-15 22:19:05.62	76.28	16.20	
2025-01-15 22:19:05.82	76.32	16.20	
2025-01-15 22:19:06.02	76.37	16.20	
2025-01-15 22:19:06.22	76.41	16.20	
2025-01-15 22:19:06.43	76.46	16.20	
2025-01-15 22:19:06.63	76.50	16.21	
2025-01-15 22:19:06.83	76.55	16.21	
2025-01-15 22:19:07.04	76.59	16.21	
2025-01-15 22:19:07.24	76.64	16.21	
2025-01-15 22:19:07.44	76.68	16.21	
2025-01-15 22:19:07.65	76.73	16.22	
2025-01-15 22:19:07.85	76.77	16.22	
2025-01-15 22:19:08.05	76.81	16.22	
2025-01-15 22:19:08.25	76.86	16.22	
2025-01-15 22:19:08.46	76.90	16.22	
2025-01-15 22:19:08.66	76.95	16.23	
2025-01-15 22:19:08.86	76.99	16.23	
2025-01-15 22:19:09.07	77.04	16.23	
2025-01-15 22:19:09.27	77.08	16.23	
2025-01-15 22:19:09.47	77.13	16.23	
2025-01-15 22:19:09.68	77.17	16.24	
2025-01-15 22:19:09.88	77.22	16.24	
2025-01-15 22:19:10.08	77.26	16.24	
2025-01-15 22:19:10.28	77.31	16.24	
2025-01-15 22:19:10.49	77.35	16.24	
2025-01-15 22:19:10.69	77.40	16.24	
2025-01-15 22:19:10.89	77.44	16.25	
2025-01-15 22:19:11.10	77.49	16.25	
2025-01-15 22:19:11.30	77.53	16.25	
2025-01-15 22:19:11.50	77.57	16.25	
2025-01-15 22:19:11.70	77.62	16.25	
2025-01-15 22:19:11.91	77.66	16.26	
2025-01-15 22:19:12.11	77.71	16.26	
2025-01-15 22:19:12.31	77.75	16.26	
2025-01-15 22:19:12.52	77.80	16.26	
2025-01-15 22:19:12.72	77.84	16.26	
2025-01-15 22:19:12.92	77.89	16.26	
2025-01-15 22:19:13.13	77.93	16.27	
2025-01-15 22:19:13.33	77.98	16.27	
2025-01-15 22:19:13.53	78.02	16.27	
2025-01-15 22:19:13.73	78.07	16.27	
2025-01-15 22:19:13.94	78.11	16.27	
2025-01-15 22:19:14.14	78.16	16.27	
2025-01-15 22:19:14.34	78.20	16.27	
2025-01-15 22:19:14.55	78.25	16.28	
2025-01-15 22:19:14.75	78.29	16.28	
2025-01-15 22:19:14.95	78.33	16.28	
2025-01-15 22:19:15.16	78.38	16.28	
2025-01-15 22:19:15.36	78.43	16.28	
2025-01-15 22:19:15.56	78.47	16.28	
2025-01-15 22:19:15.76	78.51	16.28	
2025-01-15 22:19:15.97	78.56	16.29	
2025-01-15 22:19:16.17	78.60	16.29	
2025-01-15 22:19:16.37	78.65	16.29	
2025-01-15 22:19:16.58	78.69	16.29	
2025-01-15 22:19:16.78	78.74	16.29	
2025-01-15 22:19:16.98	78.78	16.29	
2025-01-15 22:19:17.19	78.83	16.29	
2025-01-15 22:19:17.39	78.87	16.30	
2025-01-15 22:19:17.59	78.92	16.30	
2025-01-15 22:19:17.79	78.96	16.30	
2025-01-15 22:19:18.00	79.01	16.30	
2025-01-15 22:19:18.20	79.05	16.30	
2025-01-15 22:19:18.40	79.10	16.30	
2025-01-15 22:19:18.61	79.14	16.30	
2025-01-15 22:19:18.81	79.19	16.30	
2025-01-15 22:19:19.01	79.23	16.30	
2025-01-15 22:19:19.22	79.28	16.31	
2025-01-15 22:19:19.42	79.32	16.31	
2025-01-15 22:19:19.62	79.37	16.31	
2025-01-15 22:19:19.82	79.41	16.31	
2025-01-15 22:19:20.03	79.46	16.31	
2025-01-15 22:19:20.23	79.50	16.31	
2025-01-15 22:19:20.43	79.55	16.31	
2025-01-15 22:19:20.64	79.59	16.31	
2025-01-15 22:19:20.84	79.64	16.31	
2025-01-15 22:19:21.04	79.68	16.32	
2025-01-15 22:19:21.25	79.73	16.32	
2025-01-15 22:19:21.45	79.77	16.32	
2025-01-15 22:19:21.65	79.82	16.32	
2025-01-15 22:19:21.85	79.86	16.32	
2025-01-15 22:19:22.06	79.91	16.32	
2025-01-15 22:19:22.26	79.95	16.32	
2025-01-15 22:19:22.46	79.99	16.32	
2025-01-15 22:19:22.67	80.04	16.32	
2025-01-15 22:19:22.87	80.09	16.32	
2025-01-15 22:19:23.07	80.13	16.32	
2025-01-15 22:19:23.28	80.18	16.32	
2025-01-15 22:19:23.48	80.22	16.33	
2025-01-15 22:19:23.68	80.26	16.33	
2025-01-15 22:19:23.88	80.31	16.33	
2025-01-15 22:19:24.09	80.36	16.33	
2025-01-15 22:19:24.29	80.40	16.33	
2025-01-15 22:19:24.49	80.44	16.33	
2025-01-15 22:19:24.70	80.49	16.33	
2025-01-15 22:19:24.90	80.54	16.33	
2025-01-15 22:19:25.10	80.58	16.33	
2025-01-15 22:19:25.31	80.63	16.33	
2025-01-15 22:19:25.51	80.67	16.33	
2025-01-15 22:19:25.71	80.71	16.33	
2025-01-15 22:19:25.91	80.76	16.33	
2025-01-15 22:19:26.12	80.81	16.33	
2025-01-15 22:19:26.32	80.85	16.33	
2025-01-15 22:19:26.52	80.89	16.33	
2025-01-15 22:19:26.73	80.94	16.34	
2025-01-15 22:19:26.93	80.98	16.34	
2025-01-15 22:19:27.13	81.03	16.34	
2025-01-15 22:19:27.33	81.07	16.34	
2025-01-15 22:19:27.54	81.12	16.34	
2025-01-15 22:19:27.74	81.16	16.34	
2025-01-15 22:19:27.94	81.21	16.34	
2025-01-15 22:19:28.15	81.26	16.34	
2025-01-15 22:19:28.35	81.30	16.34	
2025-01-15 22:19:28.55	81.34	16.34	
2025-01-15 22:19:28.76	81.39	16.34	
2025-01-15 22:19:28.96	81.43	16.34	
2025-01-15 22:19:29.16	81.48	16.34	
2025-01-15 22:19:29.36	81.52	16.34	
2025-01-15 22:19:29.57	81.57	16.34	
2025-01-15 22:19:29.77	81.61	16.34	
2025-01-15 22:19:29.97	81.66	16.34	
2025-01-15 22:19:30.18	81.71	16.34	
2025-01-15 22:19:30.38	81.75	16.34	
2025-01-15 22:19:30.58	81.79	16.34	
2025-01-15 22:19:30.79	81.84	16.34	
2025-01-15 22:19:30.99	81.88	16.34	
2025-01-15 22:19:31.19	81.93	16.34	
2025-01-15 22:19:31.39	81.97	16.34	
2025-01-15 22:19:31.60	82.02	16.34	
2025-01-15 22:19:31.80	82.06	16.34	
2025-01-15 22:19:32.00	82.11	16.34	
2025-01-15 22:19:32.21	82.16	16.34	
2025-01-15 22:19:32.41	82.20	16.34	
2025-01-15 22:19:32.61	82.24	16.34	
2025-01-15 22:19:32.82	82.29	16.34	
2025-01-15 22:19:33.02	82.33	16.34	
2025-01-15 22:19:33.22	82.38	16.34	
2025-01-15 22:19:33.42	82.42	16.34	
2025-01-15 22:19:33.63	82.47	16.34	
2025-01-15 22:19:33.83	82.51	16.34	
2025-01-15 22:19:34.03	82.56	16.34	
2025-01-15 22:19:34.24	82.61	16.34	
2025-01-15 22:19:34.44	82.65	16.34	
2025-01-15 22:19:34.64	82.69	16.34	
2025-01-15 22:19:34.85	82.74	16.34	
2025-01-15 22:19:35.05	82.78	16.34	
2025-01-15 22:19:35.25	82.83	16.34	
2025-01-15 22:19:35.45	82.87	16.34	
2025-01-15 22:19:35.66	82.92	16.34	
2025-01-15 22:19:35.86	82.96	16.34	
2025-01-15 22:19:36.06	83.01	16.34	
2025-01-15 22:19:36.27	83.06	16.34	
2025-01-15 22:19:36.47	83.10	16.34	
2025-01-15 22:19:36.67	83.14	16.34	
2025-01-15 22:19:36.88	83.19	16.34	
2025-01-15 22:19:37.08	83.23	16.34	
2025-01-15 22:19:37.28	83.28	16.34	
2025-01-15 22:19:37.48	83.32	16.34	
2025-01-15 22:19:37.69	83.37	16.34	
2025-01-15 22:19:37.89	83.41	16.34	
2025-01-15 22:19:38.09	83.46	16.34	
2025-01-15 22:19:38.30	83.51	16.34	
2025-01-15 22:19:38.50	83.55	16.34	
2025-01-15 22:19:38.70	83.59	16.33	
2025-01-15 22:19:38.91	83.64	16.33	
2025-01-15 22:19:39.11	83.68	16.33	
2025-01-15 22:19:39.31	83.73	16.33	
2025-01-15 22:19:39.51	83.77	16.33	
2025-01-15 22:19:39.72	83.82	16.33	
2025-01-15 22:19:39.92	83.86	16.33	
2025-01-15 22:19:40.12	83.91	16.33	
2025-01-15 22:19:40.33	83.96	16.33	
2025-01-15 22:19:40.53	84.00	16.33	
2025-01-15 22:19:40.73	84.04	16.33	
2025-01-15 22:19:40.94	84.09	16.33	
2025-01-15 22:19:41.14	84.13	16.33	
2025-01-15 22:19:41.34	84.18	16.33	
2025-01-15 22:19:41.54	84.22	16.33	
2025-01-15 22:19:41.75	84.27	16.33	
2025-01-15 22:19:41.95	84.31	16.32	
2025-01-15 22:19:42.15	84.36	16.32	
2025-01-15 22:19:42.36	84.40	16.32	
2025-01-15 22:19:42.56	84.45	16.32	
2025-01-15 22:19:42.76	84.49	16.32	
2025-01-15 22:19:42.96	84.54	16.32	
2025-01-15 22:19:43.17	84.58	16.32	
2025-01-15 22:19:43.37	84.63	16.32	
2025-01-15 22:19:43.57	84.67	16.32	
2025-01-15 22:19:43.78	84.72	16.32	
2025-01-15 22:19:43.98	84.76	16.32	
2025-01-15 22:19:44.18	84.81	16.32	
2025-01-15 22:19:44.39	84.85	16.31	
2025-01-15 22:19:44.59	84.90	16.31	
2025-01-15 22:19:44.79	84.94	16.31	
2025-01-15 22:19:44.99	84.99	16.31	
2025-01-15 22:19:45.20	85.03	16.31	
2025-01-15 22:19:45.40	85.08	16.31	
2025-01-15 22:19:45.60	85.12	16.31	
2025-01-15 22:19:45.81	85.17	16.31	
2025-01-15 22:19:46.01	85.21	16.31	
2025-01-15 22:19:46.21	85.26	16.31	
2025-01-15 22:19:46.42	85.30	16.30	
2025-01-15 22:19:46.62	85.35	16.30	
2025-01-15 22:19:46.82	85.39	16.30	
2025-01-15 22:19:47.02	85.44	16.30	
2025-01-15 22:19:47.23	85.48	16.30	
2025-01-15 22:19:47.43	85.53	16.30	
2025-01-15 22:19:47.63	85.57	16.30	
2025-01-15 22:19:47.84	85.62	16.30	
2025-01-15 22:19:48.04	85.66	16.29	
2025-01-15 22:19:48.24	85.71	16.29	
2025-01-15 22:19:48.45	85.75	16.29	
2025-01-15 22:19:48.65	85.80	16.29	
2025-01-15 22:19:48.85	85.84	16.29	
2025-01-15 22:19:49.05	85.89	16.29	
2025-01-15 22:19:49.26	85.93	16.29	
2025-01-15 22:19:49.46	85.98	16.29	
2025-01-15 22:19:49.66	86.02	16.28	
2025-01-15 22:19:49.87	86.07	16.28	
2025-01-15 22:19:50.07	86.11	16.28	
2025-01-15 22:19:50.27	86.15	16.28	
2025-01-15 22:19:50.48	86.20	16.28	
2025-01-15 22:19:50.68	86.25	16.28	
2025-01-15 22:19:50.88	86.29	16.27	
2025-01-15 22:19:51.08	86.33	16.27	
2025-01-15 22:19:51.29	86.38	16.27	
2025-01-15 22:19:51.49	86.42	16.27	
2025-01-15 22:19:51.69	86.47	16.27	
2025-01-15 22:19:51.90	86.51	16.27	
2025-01-15 22:19:52.10	86.56	16.27	
2025-01-15 22:19:52.30	86.60	16.26	
2025-01-15 22:19:52.51	86.65	16.26	
2025-01-15 22:19:52.71	86.69	16.26	
2025-01-15 22:19:52.91	86.74	16.26	
2025-01-15 22:19:53.11	86.78	16.26	
2025-01-15 22:19:53.32	86.83	16.26	
2025-01-15 22:19:53.52	86.87	16.25	
2025-01-15 22:19:53.72	86.92	16.25	
2025-01-15 22:19:53.93	86.96	16.25	
2025-01-15 22:19:54.13	87.01	16.25	
2025-01-15 22:19:54.33	87.05	16.25	
2025-01-15 22:19:54.54	87.10	16.25	
2025-01-15 22:19:54.74	87.14	16.24	
