passes_logs/2025/01/15/SPB_Silybum_02/SPB_Silybum_02__20250115_191344_TERRA_rec.log

#Pass ID: 20250115_191344_TERRA
#Satellite: TERRA
#Configuration: TERRA
#Start time: 2025-01-15 19:13:44

#Version: 2.0.20230423
#Station: SPB_Silybum_02
#Location: 30.233357 lon 59.946436 lat
#TLE: 1 25994U 99068A   25014.85746573  .00000777  00000+0  16972-3 0  9996
#TLE: 2 25994  98.0216  77.8924 0003456  72.8612  46.8876 14.60394566334056

#Time	Az	El	Level	Level2	SNR	BER	Gain	Gain2
2025-01-15 19:13:46.35	183.58	4.15	
2025-01-15 19:13:46.55	183.59	4.16	
2025-01-15 19:13:46.76	183.60	4.18	
2025-01-15 19:13:46.96	183.61	4.19	
2025-01-15 19:13:47.16	183.62	4.20	
2025-01-15 19:13:47.37	183.63	4.22	
2025-01-15 19:13:47.57	183.63	4.23	
2025-01-15 19:13:47.77	183.64	4.25	
2025-01-15 19:13:47.97	183.65	4.26	
2025-01-15 19:13:48.18	183.66	4.28	
2025-01-15 19:13:48.38	183.67	4.29	
2025-01-15 19:13:48.58	183.68	4.30	
2025-01-15 19:13:48.79	183.69	4.32	
2025-01-15 19:13:48.99	183.70	4.33	
2025-01-15 19:13:49.19	183.71	4.35	
2025-01-15 19:13:49.40	183.72	4.36	
2025-01-15 19:13:49.60	183.73	4.38	
2025-01-15 19:13:49.80	183.73	4.39	
2025-01-15 19:13:50.01	183.74	4.41	
2025-01-15 19:13:50.21	183.75	4.42	
2025-01-15 19:13:50.41	183.76	4.43	
2025-01-15 19:13:50.61	183.77	4.45	
2025-01-15 19:13:50.82	183.78	4.46	
2025-01-15 19:13:51.02	183.79	4.48	
2025-01-15 19:13:51.22	183.80	4.49	
2025-01-15 19:13:51.43	183.81	4.51	
2025-01-15 19:13:51.63	183.82	4.52	
2025-01-15 19:13:51.83	183.83	4.53	
2025-01-15 19:13:52.04	183.84	4.55	
2025-01-15 19:13:52.24	183.84	4.56	
2025-01-15 19:13:52.44	183.85	4.58	
2025-01-15 19:13:52.65	183.86	4.59	
2025-01-15 19:13:52.85	183.87	4.61	
2025-01-15 19:13:53.05	183.88	4.62	
2025-01-15 19:13:53.25	183.89	4.64	
2025-01-15 19:13:53.46	183.90	4.65	
2025-01-15 19:13:53.66	183.91	4.66	
2025-01-15 19:13:53.86	183.92	4.68	
2025-01-15 19:13:54.07	183.93	4.69	
2025-01-15 19:13:54.27	183.94	4.71	
2025-01-15 19:13:54.47	183.95	4.72	
2025-01-15 19:13:54.68	183.96	4.74	
2025-01-15 19:13:54.88	183.97	4.75	
2025-01-15 19:13:55.08	183.98	4.77	
2025-01-15 19:13:55.29	183.98	4.78	
2025-01-15 19:13:55.49	183.99	4.80	
2025-01-15 19:13:55.69	184.00	4.81	
2025-01-15 19:13:55.89	184.01	4.82	
2025-01-15 19:13:56.10	184.02	4.84	
2025-01-15 19:13:56.30	184.03	4.85	
2025-01-15 19:13:56.50	184.04	4.87	
2025-01-15 19:13:56.71	184.05	4.88	
2025-01-15 19:13:56.91	184.06	4.90	
2025-01-15 19:13:57.11	184.07	4.91	
2025-01-15 19:13:57.32	184.08	4.93	
2025-01-15 19:13:57.52	184.09	4.94	
2025-01-15 19:13:57.72	184.10	4.96	
2025-01-15 19:13:57.93	184.11	4.97	
2025-01-15 19:13:58.13	184.12	4.99	
2025-01-15 19:13:58.33	184.13	5.00	
2025-01-15 19:13:58.53	184.14	5.01	
2025-01-15 19:13:58.74	184.15	5.03	
2025-01-15 19:13:58.94	184.16	5.04	
2025-01-15 19:13:59.14	184.16	5.06	
2025-01-15 19:13:59.35	184.17	5.07	
2025-01-15 19:13:59.55	184.18	5.09	
2025-01-15 19:13:59.75	184.19	5.10	
2025-01-15 19:13:59.96	184.20	5.12	
2025-01-15 19:14:00.16	184.21	5.13	
2025-01-15 19:14:00.36	184.22	5.15	
2025-01-15 19:14:00.57	184.23	5.16	
2025-01-15 19:14:00.77	184.24	5.18	
2025-01-15 19:14:00.97	184.25	5.19	
2025-01-15 19:14:01.18	184.26	5.21	
2025-01-15 19:14:01.38	184.27	5.22	
2025-01-15 19:14:01.58	184.28	5.24	
2025-01-15 19:14:01.78	184.29	5.25	
2025-01-15 19:14:01.99	184.30	5.27	
2025-01-15 19:14:02.19	184.31	5.28	
2025-01-15 19:14:02.39	184.32	5.30	
2025-01-15 19:14:02.60	184.33	5.31	
2025-01-15 19:14:02.80	184.34	5.33	
2025-01-15 19:14:03.00	184.35	5.34	
2025-01-15 19:14:03.21	184.36	5.36	
2025-01-15 19:14:03.41	184.37	5.37	
2025-01-15 19:14:03.61	184.38	5.38	
2025-01-15 19:14:03.82	184.39	5.40	
2025-01-15 19:14:04.02	184.40	5.41	
2025-01-15 19:14:04.22	184.41	5.43	
2025-01-15 19:14:04.43	184.42	5.45	
2025-01-15 19:14:04.63	184.43	5.46	
2025-01-15 19:14:04.83	184.44	5.47	
2025-01-15 19:14:05.03	184.45	5.49	
2025-01-15 19:14:05.24	184.46	5.50	
2025-01-15 19:14:05.44	184.47	5.52	
2025-01-15 19:14:05.64	184.48	5.53	
2025-01-15 19:14:05.85	184.49	5.55	
2025-01-15 19:14:06.05	184.50	5.56	
2025-01-15 19:14:06.25	184.51	5.58	
2025-01-15 19:14:06.46	184.52	5.59	
2025-01-15 19:14:06.66	184.53	5.61	
2025-01-15 19:14:06.86	184.54	5.62	
2025-01-15 19:14:07.07	184.55	5.64	
2025-01-15 19:14:07.27	184.56	5.65	
2025-01-15 19:14:07.47	184.57	5.67	
2025-01-15 19:14:07.67	184.58	5.68	
2025-01-15 19:14:07.88	184.59	5.70	
2025-01-15 19:14:08.08	184.60	5.72	
2025-01-15 19:14:08.28	184.61	5.73	
2025-01-15 19:14:08.49	184.62	5.75	
2025-01-15 19:14:08.69	184.63	5.76	
2025-01-15 19:14:08.89	184.64	5.78	
2025-01-15 19:14:09.10	184.65	5.79	
2025-01-15 19:14:09.30	184.66	5.81	
2025-01-15 19:14:09.50	184.67	5.82	
2025-01-15 19:14:09.71	184.68	5.84	
2025-01-15 19:14:09.91	184.69	5.85	
2025-01-15 19:14:10.11	184.70	5.87	
2025-01-15 19:14:10.32	184.71	5.88	
2025-01-15 19:14:10.52	184.72	5.90	
2025-01-15 19:14:10.72	184.73	5.91	
2025-01-15 19:14:10.92	184.74	5.93	
2025-01-15 19:14:11.13	184.75	5.94	
2025-01-15 19:14:11.33	184.76	5.96	
2025-01-15 19:14:11.53	184.77	5.97	
2025-01-15 19:14:11.74	184.78	5.99	
2025-01-15 19:14:11.94	184.79	6.00	
2025-01-15 19:14:12.14	184.80	6.02	
2025-01-15 19:14:12.35	184.81	6.03	
2025-01-15 19:14:12.55	184.82	6.05	
2025-01-15 19:14:12.75	184.83	6.07	
2025-01-15 19:14:12.96	184.84	6.08	
2025-01-15 19:14:13.16	184.85	6.10	
2025-01-15 19:14:13.36	184.86	6.11	
2025-01-15 19:14:13.56	184.87	6.13	
2025-01-15 19:14:13.77	184.88	6.14	
2025-01-15 19:14:13.97	184.89	6.16	
2025-01-15 19:14:14.17	184.90	6.17	
2025-01-15 19:14:14.38	184.91	6.19	
2025-01-15 19:14:14.58	184.92	6.20	
2025-01-15 19:14:14.78	184.93	6.22	
2025-01-15 19:14:14.99	184.94	6.23	
2025-01-15 19:14:15.19	184.95	6.25	
2025-01-15 19:14:15.39	184.97	6.26	
2025-01-15 19:14:15.60	184.98	6.28	
2025-01-15 19:14:15.80	184.99	6.30	
2025-01-15 19:14:16.00	185.00	6.31	
2025-01-15 19:14:16.21	185.01	6.33	
2025-01-15 19:14:16.41	185.02	6.34	
2025-01-15 19:14:16.61	185.03	6.36	
2025-01-15 19:14:16.81	185.04	6.37	
2025-01-15 19:14:17.02	185.05	6.39	
2025-01-15 19:14:17.22	185.06	6.40	
2025-01-15 19:14:17.42	185.07	6.42	
2025-01-15 19:14:17.63	185.08	6.44	
2025-01-15 19:14:17.83	185.09	6.45	
2025-01-15 19:14:18.03	185.10	6.47	
2025-01-15 19:14:18.24	185.11	6.48	
2025-01-15 19:14:18.44	185.12	6.50	
2025-01-15 19:14:18.64	185.13	6.51	
2025-01-15 19:14:18.85	185.14	6.53	
2025-01-15 19:14:19.05	185.15	6.54	
2025-01-15 19:14:19.25	185.17	6.56	
2025-01-15 19:14:19.46	185.18	6.58	
2025-01-15 19:14:19.66	185.19	6.59	
2025-01-15 19:14:19.86	185.20	6.61	
2025-01-15 19:14:20.06	185.21	6.62	
2025-01-15 19:14:20.27	185.22	6.64	
2025-01-15 19:14:20.47	185.23	6.65	
2025-01-15 19:14:20.67	185.24	6.67	
2025-01-15 19:14:20.88	185.25	6.69	
2025-01-15 19:14:21.08	185.26	6.70	
2025-01-15 19:14:21.28	185.27	6.72	
2025-01-15 19:14:21.49	185.28	6.73	
2025-01-15 19:14:21.69	185.29	6.75	
2025-01-15 19:14:21.89	185.30	6.76	
2025-01-15 19:14:22.10	185.32	6.78	
2025-01-15 19:14:22.30	185.33	6.80	
2025-01-15 19:14:22.50	185.34	6.81	
2025-01-15 19:14:22.70	185.35	6.83	
2025-01-15 19:14:22.91	185.36	6.84	
2025-01-15 19:14:23.11	185.37	6.86	
2025-01-15 19:14:23.31	185.38	6.87	
2025-01-15 19:14:23.52	185.39	6.89	
2025-01-15 19:14:23.72	185.40	6.91	
2025-01-15 19:14:23.92	185.41	6.92	
2025-01-15 19:14:24.13	185.42	6.94	
2025-01-15 19:14:24.33	185.44	6.95	
2025-01-15 19:14:24.53	185.45	6.97	
2025-01-15 19:14:24.74	185.46	6.99	
2025-01-15 19:14:24.94	185.47	7.00	
2025-01-15 19:14:25.14	185.48	7.02	
2025-01-15 19:14:25.35	185.49	7.03	
2025-01-15 19:14:25.55	185.50	7.05	
2025-01-15 19:14:25.75	185.51	7.07	
2025-01-15 19:14:25.95	185.52	7.08	
2025-01-15 19:14:26.16	185.53	7.10	
2025-01-15 19:14:26.36	185.55	7.11	
2025-01-15 19:14:26.56	185.56	7.13	
2025-01-15 19:14:26.77	185.57	7.15	
2025-01-15 19:14:26.97	185.58	7.16	
2025-01-15 19:14:27.17	185.59	7.18	
2025-01-15 19:14:27.38	185.60	7.19	
2025-01-15 19:14:27.58	185.61	7.21	
2025-01-15 19:14:27.78	185.62	7.23	
2025-01-15 19:14:27.99	185.63	7.24	
2025-01-15 19:14:28.19	185.65	7.26	
2025-01-15 19:14:28.39	185.66	7.27	
2025-01-15 19:14:28.59	185.67	7.29	
2025-01-15 19:14:28.80	185.68	7.31	
2025-01-15 19:14:29.00	185.69	7.32	
2025-01-15 19:14:29.20	185.70	7.34	
2025-01-15 19:14:29.41	185.71	7.35	
2025-01-15 19:14:29.61	185.72	7.37	
2025-01-15 19:14:29.81	185.74	7.39	
2025-01-15 19:14:30.02	185.75	7.40	
2025-01-15 19:14:30.22	185.76	7.42	
2025-01-15 19:14:30.42	185.77	7.43	
2025-01-15 19:14:30.63	185.78	7.45	
2025-01-15 19:14:30.83	185.79	7.47	
2025-01-15 19:14:31.03	185.80	7.48	
2025-01-15 19:14:31.24	185.82	7.50	
2025-01-15 19:14:31.44	185.83	7.52	
2025-01-15 19:14:31.64	185.84	7.53	
2025-01-15 19:14:31.84	185.85	7.55	
2025-01-15 19:14:32.05	185.86	7.57	
2025-01-15 19:14:32.25	185.87	7.58	
2025-01-15 19:14:32.45	185.88	7.60	
2025-01-15 19:14:32.66	185.89	7.61	
2025-01-15 19:14:32.86	185.91	7.63	
2025-01-15 19:14:33.06	185.92	7.65	
2025-01-15 19:14:33.27	185.93	7.66	
2025-01-15 19:14:33.47	185.94	7.68	
2025-01-15 19:14:33.67	185.95	7.70	
2025-01-15 19:14:33.88	185.96	7.71	
2025-01-15 19:14:34.08	185.98	7.73	
2025-01-15 19:14:34.28	185.99	7.74	
2025-01-15 19:14:34.49	186.00	7.76	
2025-01-15 19:14:34.69	186.01	7.78	
2025-01-15 19:14:34.89	186.02	7.79	
2025-01-15 19:14:35.09	186.03	7.81	
2025-01-15 19:14:35.30	186.05	7.83	
2025-01-15 19:14:35.50	186.06	7.84	
2025-01-15 19:14:35.70	186.07	7.86	
2025-01-15 19:14:35.91	186.08	7.88	
2025-01-15 19:14:36.11	186.09	7.89	
2025-01-15 19:14:36.31	186.10	7.91	
2025-01-15 19:14:36.52	186.12	7.93	
2025-01-15 19:14:36.72	186.13	7.94	
2025-01-15 19:14:36.92	186.14	7.96	
2025-01-15 19:14:37.13	186.15	7.98	
2025-01-15 19:14:37.33	186.16	7.99	
2025-01-15 19:14:37.53	186.17	8.01	
2025-01-15 19:14:37.73	186.19	8.02	
2025-01-15 19:14:37.94	186.20	8.04	
2025-01-15 19:14:38.14	186.21	8.06	
2025-01-15 19:14:38.34	186.22	8.07	
2025-01-15 19:14:38.55	186.23	8.09	
2025-01-15 19:14:38.75	186.24	8.11	
2025-01-15 19:14:38.95	186.26	8.12	
2025-01-15 19:14:39.16	186.27	8.14	
2025-01-15 19:14:39.36	186.28	8.16	
2025-01-15 19:14:39.56	186.29	8.17	
2025-01-15 19:14:39.77	186.30	8.19	
2025-01-15 19:14:39.97	186.32	8.21	
2025-01-15 19:14:40.17	186.33	8.22	
2025-01-15 19:14:40.38	186.34	8.24	
2025-01-15 19:14:40.58	186.35	8.26	
2025-01-15 19:14:40.78	186.36	8.27	
2025-01-15 19:14:40.98	186.38	8.29	
2025-01-15 19:14:41.19	186.39	8.31	
2025-01-15 19:14:41.39	186.40	8.33	
2025-01-15 19:14:41.59	186.41	8.34	
2025-01-15 19:14:41.80	186.42	8.36	
2025-01-15 19:14:42.00	186.44	8.38	
2025-01-15 19:14:42.20	186.45	8.39	
2025-01-15 19:14:42.41	186.46	8.41	
2025-01-15 19:14:42.61	186.47	8.43	
2025-01-15 19:14:42.81	186.48	8.44	
2025-01-15 19:14:43.02	186.50	8.46	
2025-01-15 19:14:43.22	186.51	8.48	
2025-01-15 19:14:43.42	186.52	8.49	
2025-01-15 19:14:43.62	186.53	8.51	
2025-01-15 19:14:43.83	186.55	8.53	
2025-01-15 19:14:44.03	186.56	8.54	
2025-01-15 19:14:44.23	186.57	8.56	
2025-01-15 19:14:44.44	186.58	8.58	
2025-01-15 19:14:44.64	186.59	8.60	
2025-01-15 19:14:44.84	186.61	8.61	
2025-01-15 19:14:45.05	186.62	8.63	
2025-01-15 19:14:45.25	186.63	8.65	
2025-01-15 19:14:45.45	186.64	8.66	
2025-01-15 19:14:45.66	186.66	8.68	
2025-01-15 19:14:45.86	186.67	8.70	
2025-01-15 19:14:46.06	186.68	8.71	
2025-01-15 19:14:46.27	186.69	8.73	
2025-01-15 19:14:46.47	186.71	8.75	
2025-01-15 19:14:46.67	186.72	8.77	
2025-01-15 19:14:46.87	186.73	8.78	
2025-01-15 19:14:47.08	186.74	8.80	
2025-01-15 19:14:47.28	186.76	8.82	
2025-01-15 19:14:47.48	186.77	8.83	
2025-01-15 19:14:47.69	186.78	8.85	
2025-01-15 19:14:47.89	186.79	8.87	
2025-01-15 19:14:48.09	186.81	8.89	
2025-01-15 19:14:48.30	186.82	8.90	
2025-01-15 19:14:48.50	186.83	8.92	
2025-01-15 19:14:48.70	186.84	8.94	
2025-01-15 19:14:48.91	186.86	8.95	
2025-01-15 19:14:49.11	186.87	8.97	
2025-01-15 19:14:49.31	186.88	8.99	
2025-01-15 19:14:49.52	186.89	9.01	
2025-01-15 19:14:49.72	186.91	9.02	
2025-01-15 19:14:49.92	186.92	9.04	
2025-01-15 19:14:50.12	186.93	9.06	
2025-01-15 19:14:50.33	186.94	9.08	
2025-01-15 19:14:50.53	186.96	9.09	
2025-01-15 19:14:50.73	186.97	9.11	
2025-01-15 19:14:50.94	186.98	9.13	
2025-01-15 19:14:51.14	187.00	9.14	
2025-01-15 19:14:51.34	187.01	9.16	
2025-01-15 19:14:51.55	187.02	9.18	
2025-01-15 19:14:51.75	187.03	9.20	
2025-01-15 19:14:51.95	187.05	9.21	
2025-01-15 19:14:52.16	187.06	9.23	
2025-01-15 19:14:52.36	187.07	9.25	
2025-01-15 19:14:52.56	187.09	9.27	
2025-01-15 19:14:52.76	187.10	9.28	
2025-01-15 19:14:52.97	187.11	9.30	
2025-01-15 19:14:53.17	187.12	9.32	
2025-01-15 19:14:53.37	187.14	9.34	
2025-01-15 19:14:53.58	187.15	9.35	
2025-01-15 19:14:53.78	187.16	9.37	
2025-01-15 19:14:53.98	187.18	9.39	
2025-01-15 19:14:54.19	187.19	9.41	
2025-01-15 19:14:54.39	187.20	9.42	
2025-01-15 19:14:54.59	187.21	9.44	
2025-01-15 19:14:54.80	187.23	9.46	
2025-01-15 19:14:55.00	187.24	9.48	
2025-01-15 19:14:55.20	187.25	9.49	
2025-01-15 19:14:55.41	187.27	9.51	
2025-01-15 19:14:55.61	187.28	9.53	
2025-01-15 19:14:55.81	187.29	9.55	
2025-01-15 19:14:56.01	187.31	9.56	
2025-01-15 19:14:56.22	187.32	9.58	
2025-01-15 19:14:56.42	187.33	9.60	
2025-01-15 19:14:56.62	187.35	9.62	
2025-01-15 19:14:56.83	187.36	9.64	
2025-01-15 19:14:57.03	187.37	9.65	
2025-01-15 19:14:57.23	187.39	9.67	
2025-01-15 19:14:57.44	187.40	9.69	
2025-01-15 19:14:57.64	187.41	9.71	
2025-01-15 19:14:57.84	187.43	9.72	
2025-01-15 19:14:58.05	187.44	9.74	
2025-01-15 19:14:58.25	187.45	9.76	
2025-01-15 19:14:58.45	187.47	9.78	
2025-01-15 19:14:58.65	187.48	9.80	
2025-01-15 19:14:58.86	187.49	9.81	
2025-01-15 19:14:59.06	187.51	9.83	
2025-01-15 19:14:59.26	187.52	9.85	
2025-01-15 19:14:59.47	187.53	9.87	
2025-01-15 19:14:59.67	187.55	9.89	
2025-01-15 19:14:59.87	187.56	9.90	
2025-01-15 19:15:00.08	187.57	9.92	
2025-01-15 19:15:00.28	187.59	9.94	
2025-01-15 19:15:00.48	187.60	9.96	
2025-01-15 19:15:00.69	187.61	9.98	
2025-01-15 19:15:00.89	187.63	9.99	
2025-01-15 19:15:01.09	187.64	10.01	
2025-01-15 19:15:01.30	187.65	10.03	
2025-01-15 19:15:01.50	187.67	10.05	
2025-01-15 19:15:01.70	187.68	10.06	
2025-01-15 19:15:01.90	187.69	10.08	
2025-01-15 19:15:02.11	187.71	10.10	
2025-01-15 19:15:02.31	187.72	10.12	
2025-01-15 19:15:02.51	187.74	10.14	
2025-01-15 19:15:02.72	187.75	10.16	
2025-01-15 19:15:02.92	187.76	10.17	
2025-01-15 19:15:03.12	187.78	10.19	
2025-01-15 19:15:03.33	187.79	10.21	
2025-01-15 19:15:03.53	187.80	10.23	
2025-01-15 19:15:03.73	187.82	10.25	
2025-01-15 19:15:03.94	187.83	10.26	
2025-01-15 19:15:04.14	187.85	10.28	
2025-01-15 19:15:04.34	187.86	10.30	
2025-01-15 19:15:04.55	187.87	10.32	
2025-01-15 19:15:04.75	187.89	10.34	
2025-01-15 19:15:04.95	187.90	10.35	
2025-01-15 19:15:05.15	187.91	10.37	
2025-01-15 19:15:05.36	187.93	10.39	
2025-01-15 19:15:05.56	187.94	10.41	
2025-01-15 19:15:05.76	187.96	10.43	
2025-01-15 19:15:05.97	187.97	10.45	
2025-01-15 19:15:06.17	187.98	10.46	
2025-01-15 19:15:06.37	188.00	10.48	
2025-01-15 19:15:06.58	188.01	10.50	
2025-01-15 19:15:06.78	188.03	10.52	
2025-01-15 19:15:06.98	188.04	10.54	
2025-01-15 19:15:07.19	188.06	10.56	
2025-01-15 19:15:07.39	188.07	10.57	
2025-01-15 19:15:07.59	188.08	10.59	
2025-01-15 19:15:07.79	188.10	10.61	
2025-01-15 19:15:08.00	188.11	10.63	
2025-01-15 19:15:08.20	188.13	10.65	
2025-01-15 19:15:08.40	188.14	10.67	
2025-01-15 19:15:08.61	188.15	10.69	
2025-01-15 19:15:08.81	188.17	10.70	
2025-01-15 19:15:09.01	188.18	10.72	
2025-01-15 19:15:09.22	188.20	10.74	
2025-01-15 19:15:09.42	188.21	10.76	
2025-01-15 19:15:09.62	188.23	10.78	
2025-01-15 19:15:09.83	188.24	10.80	
2025-01-15 19:15:10.03	188.25	10.82	
2025-01-15 19:15:10.23	188.27	10.83	
2025-01-15 19:15:10.44	188.28	10.85	
2025-01-15 19:15:10.64	188.30	10.87	
2025-01-15 19:15:10.84	188.31	10.89	
2025-01-15 19:15:11.04	188.33	10.91	
2025-01-15 19:15:11.25	188.34	10.93	
2025-01-15 19:15:11.45	188.35	10.95	
2025-01-15 19:15:11.65	188.37	10.96	
2025-01-15 19:15:11.86	188.38	10.98	
2025-01-15 19:15:12.06	188.40	11.00	
2025-01-15 19:15:12.26	188.41	11.02	
2025-01-15 19:15:12.47	188.43	11.04	
2025-01-15 19:15:12.67	188.44	11.06	
2025-01-15 19:15:12.87	188.46	11.08	
2025-01-15 19:15:13.08	188.47	11.10	
2025-01-15 19:15:13.28	188.49	11.11	
2025-01-15 19:15:13.48	188.50	11.13	
2025-01-15 19:15:13.69	188.52	11.15	
2025-01-15 19:15:13.89	188.53	11.17	
2025-01-15 19:15:14.09	188.54	11.19	
2025-01-15 19:15:14.29	188.56	11.21	
2025-01-15 19:15:14.50	188.57	11.23	
2025-01-15 19:15:14.70	188.59	11.25	
2025-01-15 19:15:14.90	188.60	11.27	
2025-01-15 19:15:15.11	188.62	11.29	
2025-01-15 19:15:15.31	188.63	11.30	
2025-01-15 19:15:15.51	188.65	11.32	
2025-01-15 19:15:15.72	188.66	11.34	
2025-01-15 19:15:15.92	188.68	11.36	
2025-01-15 19:15:16.13	188.69	11.38	
2025-01-15 19:15:16.33	188.71	11.40	
2025-01-15 19:15:16.53	188.72	11.42	
2025-01-15 19:15:16.74	188.74	11.44	
2025-01-15 19:15:16.94	188.75	11.46	
2025-01-15 19:15:17.14	188.77	11.48	
2025-01-15 19:15:17.35	188.78	11.49	
2025-01-15 19:15:17.55	188.80	11.51	
2025-01-15 19:15:17.75	188.81	11.53	
2025-01-15 19:15:17.95	188.83	11.55	
2025-01-15 19:15:18.16	188.84	11.57	
2025-01-15 19:15:18.36	188.86	11.59	
2025-01-15 19:15:18.56	188.87	11.61	
2025-01-15 19:15:18.77	188.89	11.63	
2025-01-15 19:15:18.97	188.90	11.65	
2025-01-15 19:15:19.17	188.92	11.67	
2025-01-15 19:15:19.38	188.93	11.69	
2025-01-15 19:15:19.58	188.95	11.71	
2025-01-15 19:15:19.78	188.96	11.72	
2025-01-15 19:15:19.99	188.98	11.74	
2025-01-15 19:15:20.19	189.00	11.76	
2025-01-15 19:15:20.39	189.01	11.78	
2025-01-15 19:15:20.60	189.03	11.80	
2025-01-15 19:15:20.80	189.04	11.82	
2025-01-15 19:15:21.00	189.06	11.84	
2025-01-15 19:15:21.20	189.07	11.86	
2025-01-15 19:15:21.41	189.09	11.88	
2025-01-15 19:15:21.61	189.10	11.90	
2025-01-15 19:15:21.81	189.12	11.92	
2025-01-15 19:15:22.02	189.13	11.94	
2025-01-15 19:15:22.22	189.15	11.96	
2025-01-15 19:15:22.42	189.17	11.98	
2025-01-15 19:15:22.63	189.18	12.00	
2025-01-15 19:15:22.83	189.20	12.02	
2025-01-15 19:15:23.03	189.21	12.04	
2025-01-15 19:15:23.24	189.23	12.06	
2025-01-15 19:15:23.44	189.24	12.08	
2025-01-15 19:15:23.64	189.26	12.09	
2025-01-15 19:15:23.85	189.28	12.11	
2025-01-15 19:15:24.05	189.29	12.13	
2025-01-15 19:15:24.25	189.31	12.15	
2025-01-15 19:15:24.45	189.32	12.17	
2025-01-15 19:15:24.66	189.34	12.19	
2025-01-15 19:15:24.86	189.35	12.21	
2025-01-15 19:15:25.06	189.37	12.23	
2025-01-15 19:15:25.27	189.39	12.25	
2025-01-15 19:15:25.47	189.40	12.27	
2025-01-15 19:15:25.67	189.42	12.29	
2025-01-15 19:15:25.88	189.43	12.31	
2025-01-15 19:15:26.08	189.45	12.33	
2025-01-15 19:15:26.28	189.46	12.35	
2025-01-15 19:15:26.49	189.48	12.37	
2025-01-15 19:15:26.69	189.50	12.39	
2025-01-15 19:15:26.89	189.51	12.41	
2025-01-15 19:15:27.09	189.53	12.43	
2025-01-15 19:15:27.30	189.55	12.45	
2025-01-15 19:15:27.50	189.56	12.47	
2025-01-15 19:15:27.70	189.58	12.49	
2025-01-15 19:15:27.91	189.59	12.51	
2025-01-15 19:15:28.11	189.61	12.53	
2025-01-15 19:15:28.31	189.63	12.55	
2025-01-15 19:15:28.52	189.64	12.57	
2025-01-15 19:15:28.72	189.66	12.59	
2025-01-15 19:15:28.92	189.67	12.61	
2025-01-15 19:15:29.13	189.69	12.63	
2025-01-15 19:15:29.33	189.71	12.65	
2025-01-15 19:15:29.53	189.72	12.67	
2025-01-15 19:15:29.74	189.74	12.69	
2025-01-15 19:15:29.94	189.76	12.71	
2025-01-15 19:15:30.14	189.77	12.73	
2025-01-15 19:15:30.34	189.79	12.75	
2025-01-15 19:15:30.55	189.81	12.77	
2025-01-15 19:15:30.75	189.82	12.79	
2025-01-15 19:15:30.95	189.84	12.81	
2025-01-15 19:15:31.16	189.86	12.83	
2025-01-15 19:15:31.36	189.87	12.85	
2025-01-15 19:15:31.56	189.89	12.87	
2025-01-15 19:15:31.77	189.90	12.89	
2025-01-15 19:15:31.97	189.92	12.91	
2025-01-15 19:15:32.17	189.94	12.93	
2025-01-15 19:15:32.38	189.95	12.95	
2025-01-15 19:15:32.58	189.97	12.97	
2025-01-15 19:15:32.78	189.99	12.99	
2025-01-15 19:15:32.98	190.00	13.01	
2025-01-15 19:15:33.19	190.02	13.03	
2025-01-15 19:15:33.39	190.04	13.05	
2025-01-15 19:15:33.59	190.05	13.07	
2025-01-15 19:15:33.80	190.07	13.09	
2025-01-15 19:15:34.00	190.09	13.11	
2025-01-15 19:15:34.20	190.10	13.13	
2025-01-15 19:15:34.41	190.12	13.16	
2025-01-15 19:15:34.61	190.14	13.18	
2025-01-15 19:15:34.81	190.16	13.20	
2025-01-15 19:15:35.02	190.17	13.22	
2025-01-15 19:15:35.22	190.19	13.24	
2025-01-15 19:15:35.42	190.21	13.26	
2025-01-15 19:15:35.63	190.22	13.28	
2025-01-15 19:15:35.83	190.24	13.30	
2025-01-15 19:15:36.03	190.26	13.32	
2025-01-15 19:15:36.23	190.27	13.34	
2025-01-15 19:15:36.44	190.29	13.36	
2025-01-15 19:15:36.64	190.31	13.38	
2025-01-15 19:15:36.84	190.33	13.40	
2025-01-15 19:15:37.05	190.34	13.42	
2025-01-15 19:15:37.25	190.36	13.44	
2025-01-15 19:15:37.45	190.38	13.46	
2025-01-15 19:15:37.66	190.40	13.49	
2025-01-15 19:15:37.86	190.41	13.51	
2025-01-15 19:15:38.06	190.43	13.53	
2025-01-15 19:15:38.27	190.45	13.55	
2025-01-15 19:15:38.47	190.46	13.57	
2025-01-15 19:15:38.67	190.48	13.59	
2025-01-15 19:15:38.88	190.50	13.61	
2025-01-15 19:15:39.08	190.52	13.63	
2025-01-15 19:15:39.28	190.53	13.65	
2025-01-15 19:15:39.48	190.55	13.67	
2025-01-15 19:15:39.69	190.57	13.69	
2025-01-15 19:15:39.89	190.59	13.71	
2025-01-15 19:15:40.09	190.60	13.74	
2025-01-15 19:15:40.30	190.62	13.76	
2025-01-15 19:15:40.50	190.64	13.78	
2025-01-15 19:15:40.70	190.66	13.80	
2025-01-15 19:15:40.91	190.68	13.82	
2025-01-15 19:15:41.11	190.69	13.84	
2025-01-15 19:15:41.31	190.71	13.86	
2025-01-15 19:15:41.52	190.73	13.88	
2025-01-15 19:15:41.72	190.75	13.90	
2025-01-15 19:15:41.92	190.76	13.92	
2025-01-15 19:15:42.12	190.78	13.95	
2025-01-15 19:15:42.33	190.80	13.97	
2025-01-15 19:15:42.53	190.82	13.99	
2025-01-15 19:15:42.73	190.83	14.01	
2025-01-15 19:15:42.94	190.85	14.03	
2025-01-15 19:15:43.14	190.87	14.05	
2025-01-15 19:15:43.34	190.89	14.07	
2025-01-15 19:15:43.55	190.91	14.09	
2025-01-15 19:15:43.75	190.92	14.12	
2025-01-15 19:15:43.95	190.94	14.14	
2025-01-15 19:15:44.16	190.96	14.16	
2025-01-15 19:15:44.36	190.98	14.18	
2025-01-15 19:15:44.56	191.00	14.20	
2025-01-15 19:15:44.77	191.02	14.22	
2025-01-15 19:15:44.97	191.03	14.24	
2025-01-15 19:15:45.17	191.05	14.26	
2025-01-15 19:15:45.37	191.07	14.29	
2025-01-15 19:15:45.58	191.09	14.31	
2025-01-15 19:15:45.78	191.11	14.33	
2025-01-15 19:15:45.98	191.12	14.35	
2025-01-15 19:15:46.19	191.14	14.37	
2025-01-15 19:15:46.39	191.16	14.39	
2025-01-15 19:15:46.59	191.18	14.41	
2025-01-15 19:15:46.80	191.20	14.44	
2025-01-15 19:15:47.00	191.22	14.46	
2025-01-15 19:15:47.20	191.24	14.48	
2025-01-15 19:15:47.41	191.25	14.50	
2025-01-15 19:15:47.61	191.27	14.52	
2025-01-15 19:15:47.81	191.29	14.54	
2025-01-15 19:15:48.01	191.31	14.57	
2025-01-15 19:15:48.22	191.33	14.59	
2025-01-15 19:15:48.42	191.35	14.61	
2025-01-15 19:15:48.62	191.37	14.63	
2025-01-15 19:15:48.83	191.38	14.65	
2025-01-15 19:15:49.03	191.40	14.67	
2025-01-15 19:15:49.23	191.42	14.70	
2025-01-15 19:15:49.44	191.44	14.72	
2025-01-15 19:15:49.64	191.46	14.74	
2025-01-15 19:15:49.84	191.48	14.76	
2025-01-15 19:15:50.05	191.50	14.78	
2025-01-15 19:15:50.25	191.52	14.81	
2025-01-15 19:15:50.45	191.53	14.83	
2025-01-15 19:15:50.66	191.55	14.85	
2025-01-15 19:15:50.86	191.57	14.87	
2025-01-15 19:15:51.06	191.59	14.89	
2025-01-15 19:15:51.26	191.61	14.91	
2025-01-15 19:15:51.47	191.63	14.94	
2025-01-15 19:15:51.67	191.65	14.96	
2025-01-15 19:15:51.87	191.67	14.98	
2025-01-15 19:15:52.08	191.69	15.00	
2025-01-15 19:15:52.28	191.71	15.03	
2025-01-15 19:15:52.48	191.73	15.05	
2025-01-15 19:15:52.69	191.75	15.07	
2025-01-15 19:15:52.89	191.76	15.09	
2025-01-15 19:15:53.09	191.78	15.11	
2025-01-15 19:15:53.30	191.80	15.14	
2025-01-15 19:15:53.50	191.82	15.16	
2025-01-15 19:15:53.70	191.84	15.18	
2025-01-15 19:15:53.91	191.86	15.20	
2025-01-15 19:15:54.11	191.88	15.22	
2025-01-15 19:15:54.31	191.90	15.25	
2025-01-15 19:15:54.51	191.92	15.27	
2025-01-15 19:15:54.72	191.94	15.29	
2025-01-15 19:15:54.92	191.96	15.31	
2025-01-15 19:15:55.12	191.98	15.34	
2025-01-15 19:15:55.33	192.00	15.36	
2025-01-15 19:15:55.53	192.02	15.38	
2025-01-15 19:15:55.73	192.04	15.40	
2025-01-15 19:15:55.94	192.06	15.43	
2025-01-15 19:15:56.14	192.08	15.45	
2025-01-15 19:15:56.34	192.10	15.47	
2025-01-15 19:15:56.55	192.12	15.49	
2025-01-15 19:15:56.75	192.14	15.52	
2025-01-15 19:15:56.95	192.16	15.54	
2025-01-15 19:15:57.15	192.18	15.56	
2025-01-15 19:15:57.36	192.20	15.58	
2025-01-15 19:15:57.56	192.22	15.61	
2025-01-15 19:15:57.76	192.24	15.63	
2025-01-15 19:15:57.97	192.26	15.65	
2025-01-15 19:15:58.17	192.28	15.67	
2025-01-15 19:15:58.37	192.30	15.70	
2025-01-15 19:15:58.58	192.32	15.72	
2025-01-15 19:15:58.78	192.34	15.74	
2025-01-15 19:15:58.98	192.36	15.76	
2025-01-15 19:15:59.19	192.38	15.79	
2025-01-15 19:15:59.39	192.40	15.81	
2025-01-15 19:15:59.59	192.42	15.83	
2025-01-15 19:15:59.80	192.44	15.86	
2025-01-15 19:16:00.00	192.46	15.88	
2025-01-15 19:16:00.20	192.48	15.90	
2025-01-15 19:16:00.40	192.50	15.92	
2025-01-15 19:16:00.61	192.52	15.95	
2025-01-15 19:16:00.81	192.54	15.97	
2025-01-15 19:16:01.01	192.56	15.99	
2025-01-15 19:16:01.22	192.58	16.02	
2025-01-15 19:16:01.42	192.60	16.04	
2025-01-15 19:16:01.62	192.62	16.06	
2025-01-15 19:16:01.83	192.64	16.08	
2025-01-15 19:16:02.03	192.66	16.11	
2025-01-15 19:16:02.23	192.68	16.13	
2025-01-15 19:16:02.44	192.70	16.15	
2025-01-15 19:16:02.64	192.73	16.18	
2025-01-15 19:16:02.84	192.75	16.20	
2025-01-15 19:16:03.05	192.77	16.22	
2025-01-15 19:16:03.25	192.79	16.25	
2025-01-15 19:16:03.45	192.81	16.27	
2025-01-15 19:16:03.65	192.83	16.29	
2025-01-15 19:16:03.86	192.85	16.31	
2025-01-15 19:16:04.06	192.87	16.34	
2025-01-15 19:16:04.26	192.89	16.36	
2025-01-15 19:16:04.47	192.91	16.38	
2025-01-15 19:16:04.67	192.93	16.41	
2025-01-15 19:16:04.87	192.96	16.43	
2025-01-15 19:16:05.08	192.98	16.45	
2025-01-15 19:16:05.28	193.00	16.48	
2025-01-15 19:16:05.48	193.02	16.50	
2025-01-15 19:16:05.69	193.04	16.52	
2025-01-15 19:16:05.89	193.06	16.55	
2025-01-15 19:16:06.09	193.08	16.57	
2025-01-15 19:16:06.29	193.10	16.59	
2025-01-15 19:16:06.50	193.13	16.62	
2025-01-15 19:16:06.70	193.15	16.64	
2025-01-15 19:16:06.90	193.17	16.66	
2025-01-15 19:16:07.11	193.19	16.69	
2025-01-15 19:16:07.31	193.21	16.71	
2025-01-15 19:16:07.51	193.23	16.74	
2025-01-15 19:16:07.72	193.26	16.76	
2025-01-15 19:16:07.92	193.28	16.78	
2025-01-15 19:16:08.12	193.30	16.81	
2025-01-15 19:16:08.33	193.32	16.83	
2025-01-15 19:16:08.53	193.34	16.85	
2025-01-15 19:16:08.73	193.36	16.88	
2025-01-15 19:16:08.94	193.39	16.90	
2025-01-15 19:16:09.14	193.41	16.93	
2025-01-15 19:16:09.34	193.43	16.95	
2025-01-15 19:16:09.54	193.45	16.97	
2025-01-15 19:16:09.75	193.47	17.00	
2025-01-15 19:16:09.95	193.49	17.02	
2025-01-15 19:16:10.15	193.52	17.04	
2025-01-15 19:16:10.36	193.54	17.07	
2025-01-15 19:16:10.56	193.56	17.09	
2025-01-15 19:16:10.76	193.58	17.12	
2025-01-15 19:16:10.97	193.61	17.14	
2025-01-15 19:16:11.17	193.63	17.16	
2025-01-15 19:16:11.37	193.65	17.19	
2025-01-15 19:16:11.58	193.67	17.21	
2025-01-15 19:16:11.78	193.69	17.24	
2025-01-15 19:16:11.98	193.72	17.26	
2025-01-15 19:16:12.18	193.74	17.28	
2025-01-15 19:16:12.39	193.76	17.31	
2025-01-15 19:16:12.59	193.78	17.33	
2025-01-15 19:16:12.79	193.81	17.36	
2025-01-15 19:16:13.00	193.83	17.38	
2025-01-15 19:16:13.20	193.85	17.40	
2025-01-15 19:16:13.40	193.87	17.43	
2025-01-15 19:16:13.61	193.90	17.45	
2025-01-15 19:16:13.81	193.92	17.48	
2025-01-15 19:16:14.01	193.94	17.50	
2025-01-15 19:16:14.22	193.97	17.53	
2025-01-15 19:16:14.42	193.99	17.55	
2025-01-15 19:16:14.62	194.01	17.57	
2025-01-15 19:16:14.83	194.03	17.60	
2025-01-15 19:16:15.03	194.06	17.62	
2025-01-15 19:16:15.23	194.08	17.65	
2025-01-15 19:16:15.43	194.10	17.67	
2025-01-15 19:16:15.64	194.13	17.70	
2025-01-15 19:16:15.84	194.15	17.72	
2025-01-15 19:16:16.04	194.17	17.75	
2025-01-15 19:16:16.25	194.20	17.77	
2025-01-15 19:16:16.45	194.22	17.79	
2025-01-15 19:16:16.65	194.24	17.82	
2025-01-15 19:16:16.86	194.26	17.84	
2025-01-15 19:16:17.06	194.29	17.87	
2025-01-15 19:16:17.26	194.31	17.89	
2025-01-15 19:16:17.47	194.33	17.92	
2025-01-15 19:16:17.67	194.36	17.94	
2025-01-15 19:16:17.87	194.38	17.97	
2025-01-15 19:16:18.07	194.40	17.99	
2025-01-15 19:16:18.28	194.43	18.02	
2025-01-15 19:16:18.48	194.45	18.04	
2025-01-15 19:16:18.68	194.47	18.07	
2025-01-15 19:16:18.89	194.50	18.09	
2025-01-15 19:16:19.09	194.52	18.12	
2025-01-15 19:16:19.29	194.55	18.14	
2025-01-15 19:16:19.50	194.57	18.17	
2025-01-15 19:16:19.70	194.59	18.19	
2025-01-15 19:16:19.90	194.62	18.22	
2025-01-15 19:16:20.11	194.64	18.24	
2025-01-15 19:16:20.31	194.67	18.27	
2025-01-15 19:16:20.51	194.69	18.29	
2025-01-15 19:16:20.72	194.71	18.32	
2025-01-15 19:16:20.92	194.74	18.34	
2025-01-15 19:16:21.12	194.76	18.37	
2025-01-15 19:16:21.32	194.79	18.39	
2025-01-15 19:16:21.53	194.81	18.42	
2025-01-15 19:16:21.73	194.83	18.44	
2025-01-15 19:16:21.93	194.86	18.47	
2025-01-15 19:16:22.14	194.88	18.49	
2025-01-15 19:16:22.34	194.91	18.52	
2025-01-15 19:16:22.54	194.93	18.54	
2025-01-15 19:16:22.75	194.96	18.57	
2025-01-15 19:16:22.95	194.98	18.59	
2025-01-15 19:16:23.15	195.00	18.62	
2025-01-15 19:16:23.36	195.03	18.64	
2025-01-15 19:16:23.56	195.05	18.67	
2025-01-15 19:16:23.76	195.08	18.69	
2025-01-15 19:16:23.97	195.10	18.72	
2025-01-15 19:16:24.17	195.13	18.74	
2025-01-15 19:16:24.37	195.15	18.77	
2025-01-15 19:16:24.57	195.18	18.79	
2025-01-15 19:16:24.78	195.20	18.82	
2025-01-15 19:16:24.98	195.23	18.85	
2025-01-15 19:16:25.18	195.25	18.87	
2025-01-15 19:16:25.39	195.28	18.90	
2025-01-15 19:16:25.59	195.30	18.92	
2025-01-15 19:16:25.79	195.33	18.95	
2025-01-15 19:16:26.00	195.35	18.97	
2025-01-15 19:16:26.20	195.38	19.00	
2025-01-15 19:16:26.40	195.40	19.03	
2025-01-15 19:16:26.61	195.43	19.05	
2025-01-15 19:16:26.81	195.45	19.08	
2025-01-15 19:16:27.01	195.48	19.10	
2025-01-15 19:16:27.21	195.50	19.13	
2025-01-15 19:16:27.42	195.53	19.15	
2025-01-15 19:16:27.62	195.55	19.18	
2025-01-15 19:16:27.82	195.58	19.21	
2025-01-15 19:16:28.03	195.61	19.23	
2025-01-15 19:16:28.23	195.63	19.26	
2025-01-15 19:16:28.43	195.66	19.28	
2025-01-15 19:16:28.64	195.68	19.31	
2025-01-15 19:16:28.84	195.71	19.34	
2025-01-15 19:16:29.04	195.73	19.36	
2025-01-15 19:16:29.25	195.76	19.39	
2025-01-15 19:16:29.45	195.78	19.41	
2025-01-15 19:16:29.65	195.81	19.44	
2025-01-15 19:16:29.86	195.84	19.47	
2025-01-15 19:16:30.06	195.86	19.49	
2025-01-15 19:16:30.26	195.89	19.52	
2025-01-15 19:16:30.46	195.91	19.54	
2025-01-15 19:16:30.67	195.94	19.57	
2025-01-15 19:16:30.87	195.97	19.60	
2025-01-15 19:16:31.07	195.99	19.62	
2025-01-15 19:16:31.28	196.02	19.65	
2025-01-15 19:16:31.48	196.05	19.68	
2025-01-15 19:16:31.68	196.07	19.70	
2025-01-15 19:16:31.89	196.10	19.73	
2025-01-15 19:16:32.09	196.12	19.76	
2025-01-15 19:16:32.29	196.15	19.78	
2025-01-15 19:16:32.50	196.18	19.81	
2025-01-15 19:16:32.70	196.20	19.83	
2025-01-15 19:16:32.90	196.23	19.86	
2025-01-15 19:16:33.10	196.26	19.89	
2025-01-15 19:16:33.31	196.28	19.91	
2025-01-15 19:16:33.51	196.31	19.94	
2025-01-15 19:16:33.71	196.34	19.97	
2025-01-15 19:16:33.92	196.36	19.99	
2025-01-15 19:16:34.12	196.39	20.02	
2025-01-15 19:16:34.32	196.42	20.05	
2025-01-15 19:16:34.53	196.45	20.07	
2025-01-15 19:16:34.73	196.47	20.10	
2025-01-15 19:16:34.93	196.50	20.13	
2025-01-15 19:16:35.14	196.53	20.15	
2025-01-15 19:16:35.34	196.55	20.18	
2025-01-15 19:16:35.54	196.58	20.21	
2025-01-15 19:16:35.75	196.61	20.23	
2025-01-15 19:16:35.95	196.64	20.26	
2025-01-15 19:16:36.15	196.66	20.29	
2025-01-15 19:16:36.35	196.69	20.31	
2025-01-15 19:16:36.56	196.72	20.34	
2025-01-15 19:16:36.76	196.75	20.37	
2025-01-15 19:16:36.96	196.77	20.40	
2025-01-15 19:16:37.17	196.80	20.42	
2025-01-15 19:16:37.37	196.83	20.45	
2025-01-15 19:16:37.57	196.86	20.48	
2025-01-15 19:16:37.78	196.88	20.50	
2025-01-15 19:16:37.98	196.91	20.53	
2025-01-15 19:16:38.18	196.94	20.56	
2025-01-15 19:16:38.39	196.97	20.59	
2025-01-15 19:16:38.59	197.00	20.61	
2025-01-15 19:16:38.79	197.02	20.64	
2025-01-15 19:16:39.00	197.05	20.67	
2025-01-15 19:16:39.20	197.08	20.69	
2025-01-15 19:16:39.40	197.11	20.72	
2025-01-15 19:16:39.60	197.14	20.75	
2025-01-15 19:16:39.81	197.16	20.78	
2025-01-15 19:16:40.01	197.19	20.80	
2025-01-15 19:16:40.21	197.22	20.83	
2025-01-15 19:16:40.42	197.25	20.86	
2025-01-15 19:16:40.62	197.28	20.89	
2025-01-15 19:16:40.82	197.31	20.91	
2025-01-15 19:16:41.03	197.34	20.94	
2025-01-15 19:16:41.23	197.36	20.97	
2025-01-15 19:16:41.43	197.39	21.00	
2025-01-15 19:16:41.64	197.42	21.02	
2025-01-15 19:16:41.84	197.45	21.05	
2025-01-15 19:16:42.04	197.48	21.08	
2025-01-15 19:16:42.24	197.51	21.11	
2025-01-15 19:16:42.45	197.54	21.13	
2025-01-15 19:16:42.65	197.57	21.16	
2025-01-15 19:16:42.85	197.59	21.19	
2025-01-15 19:16:43.06	197.62	21.22	
2025-01-15 19:16:43.26	197.65	21.25	
2025-01-15 19:16:43.46	197.68	21.27	
2025-01-15 19:16:43.67	197.71	21.30	
2025-01-15 19:16:43.87	197.74	21.33	
2025-01-15 19:16:44.07	197.77	21.36	
2025-01-15 19:16:44.28	197.80	21.39	
2025-01-15 19:16:44.48	197.83	21.41	
2025-01-15 19:16:44.68	197.86	21.44	
2025-01-15 19:16:44.89	197.89	21.47	
2025-01-15 19:16:45.09	197.92	21.50	
2025-01-15 19:16:45.29	197.95	21.52	
2025-01-15 19:16:45.49	197.98	21.55	
2025-01-15 19:16:45.70	198.01	21.58	
2025-01-15 19:16:45.90	198.04	21.61	
2025-01-15 19:16:46.10	198.07	21.64	
2025-01-15 19:16:46.31	198.10	21.67	
2025-01-15 19:16:46.51	198.13	21.69	
2025-01-15 19:16:46.71	198.16	21.72	
2025-01-15 19:16:46.92	198.19	21.75	
2025-01-15 19:16:47.12	198.22	21.78	
2025-01-15 19:16:47.32	198.25	21.81	
2025-01-15 19:16:47.53	198.28	21.84	
2025-01-15 19:16:47.73	198.31	21.86	
2025-01-15 19:16:47.93	198.34	21.89	
2025-01-15 19:16:48.13	198.37	21.92	
2025-01-15 19:16:48.34	198.40	21.95	
2025-01-15 19:16:48.54	198.43	21.98	
2025-01-15 19:16:48.74	198.46	22.01	
2025-01-15 19:16:48.95	198.49	22.03	
2025-01-15 19:16:49.15	198.52	22.06	
2025-01-15 19:16:49.35	198.55	22.09	
2025-01-15 19:16:49.56	198.58	22.12	
2025-01-15 19:16:49.76	198.61	22.15	
2025-01-15 19:16:49.96	198.65	22.18	
2025-01-15 19:16:50.17	198.68	22.21	
2025-01-15 19:16:50.37	198.71	22.23	
2025-01-15 19:16:50.57	198.74	22.26	
2025-01-15 19:16:50.78	198.77	22.29	
2025-01-15 19:16:50.98	198.80	22.32	
2025-01-15 19:16:51.18	198.83	22.35	
2025-01-15 19:16:51.38	198.86	22.38	
2025-01-15 19:16:51.59	198.90	22.41	
2025-01-15 19:16:51.79	198.93	22.44	
2025-01-15 19:16:51.99	198.96	22.46	
2025-01-15 19:16:52.20	198.99	22.49	
2025-01-15 19:16:52.40	199.02	22.52	
2025-01-15 19:16:52.60	199.05	22.55	
2025-01-15 19:16:52.81	199.09	22.58	
2025-01-15 19:16:53.01	199.12	22.61	
2025-01-15 19:16:53.21	199.15	22.64	
2025-01-15 19:16:53.42	199.18	22.67	
2025-01-15 19:16:53.62	199.21	22.70	
2025-01-15 19:16:53.82	199.25	22.73	
2025-01-15 19:16:54.03	199.28	22.76	
2025-01-15 19:16:54.23	199.31	22.79	
2025-01-15 19:16:54.43	199.34	22.81	
2025-01-15 19:16:54.63	199.37	22.84	
2025-01-15 19:16:54.84	199.41	22.87	
2025-01-15 19:16:55.04	199.44	22.90	
2025-01-15 19:16:55.24	199.47	22.93	
2025-01-15 19:16:55.45	199.51	22.96	
2025-01-15 19:16:55.65	199.54	22.99	
2025-01-15 19:16:55.85	199.57	23.02	
2025-01-15 19:16:56.06	199.60	23.05	
2025-01-15 19:16:56.26	199.64	23.08	
2025-01-15 19:16:56.46	199.67	23.11	
2025-01-15 19:16:56.67	199.70	23.14	
2025-01-15 19:16:56.87	199.74	23.17	
2025-01-15 19:16:57.07	199.77	23.20	
2025-01-15 19:16:57.27	199.80	23.23	
2025-01-15 19:16:57.48	199.84	23.26	
2025-01-15 19:16:57.68	199.87	23.29	
2025-01-15 19:16:57.88	199.90	23.32	
2025-01-15 19:16:58.09	199.94	23.35	
2025-01-15 19:16:58.29	199.97	23.38	
2025-01-15 19:16:58.49	200.00	23.41	
2025-01-15 19:16:58.70	200.04	23.44	
2025-01-15 19:16:58.90	200.07	23.47	
2025-01-15 19:16:59.10	200.10	23.50	
2025-01-15 19:16:59.31	200.14	23.53	
2025-01-15 19:16:59.51	200.17	23.56	
2025-01-15 19:16:59.71	200.21	23.59	
2025-01-15 19:16:59.92	200.24	23.62	
2025-01-15 19:17:00.12	200.27	23.65	
2025-01-15 19:17:00.32	200.31	23.68	
2025-01-15 19:17:00.52	200.34	23.71	
2025-01-15 19:17:00.73	200.38	23.74	
2025-01-15 19:17:00.93	200.41	23.77	
2025-01-15 19:17:01.13	200.44	23.80	
2025-01-15 19:17:01.34	200.48	23.83	
2025-01-15 19:17:01.54	200.51	23.86	
2025-01-15 19:17:01.74	200.55	23.89	
2025-01-15 19:17:01.95	200.58	23.92	
2025-01-15 19:17:02.15	200.62	23.95	
2025-01-15 19:17:02.35	200.65	23.98	
2025-01-15 19:17:02.56	200.69	24.01	
2025-01-15 19:17:02.76	200.72	24.04	
2025-01-15 19:17:02.96	200.76	24.07	
2025-01-15 19:17:03.16	200.79	24.10	
2025-01-15 19:17:03.37	200.83	24.13	
2025-01-15 19:17:03.57	200.86	24.16	
2025-01-15 19:17:03.77	200.90	24.19	
2025-01-15 19:17:03.98	200.94	24.22	
2025-01-15 19:17:04.18	200.97	24.25	
2025-01-15 19:17:04.38	201.00	24.28	
2025-01-15 19:17:04.59	201.04	24.31	
2025-01-15 19:17:04.79	201.08	24.34	
2025-01-15 19:17:04.99	201.11	24.37	
2025-01-15 19:17:05.20	201.15	24.41	
2025-01-15 19:17:05.40	201.18	24.44	
2025-01-15 19:17:05.60	201.22	24.47	
2025-01-15 19:17:05.81	201.26	24.50	
2025-01-15 19:17:06.01	201.29	24.53	
2025-01-15 19:17:06.21	201.33	24.56	
2025-01-15 19:17:06.41	201.36	24.59	
2025-01-15 19:17:06.62	201.40	24.62	
2025-01-15 19:17:06.82	201.44	24.65	
2025-01-15 19:17:07.02	201.47	24.68	
2025-01-15 19:17:07.23	201.51	24.72	
2025-01-15 19:17:07.43	201.55	24.75	
2025-01-15 19:17:07.63	201.58	24.78	
2025-01-15 19:17:07.84	201.62	24.81	
2025-01-15 19:17:08.04	201.66	24.84	
2025-01-15 19:17:08.24	201.69	24.87	
2025-01-15 19:17:08.45	201.73	24.90	
2025-01-15 19:17:08.65	201.77	24.93	
2025-01-15 19:17:08.85	201.81	24.96	
2025-01-15 19:17:09.06	201.84	25.00	
2025-01-15 19:17:09.26	201.88	25.03	
2025-01-15 19:17:09.46	201.92	25.06	
2025-01-15 19:17:09.66	201.95	25.09	
2025-01-15 19:17:09.87	201.99	25.12	
2025-01-15 19:17:10.07	202.03	25.15	
2025-01-15 19:17:10.27	202.07	25.18	
2025-01-15 19:17:10.48	202.11	25.22	
2025-01-15 19:17:10.68	202.14	25.25	
2025-01-15 19:17:10.88	202.18	25.28	
2025-01-15 19:17:11.09	202.22	25.31	
2025-01-15 19:17:11.29	202.26	25.34	
2025-01-15 19:17:11.49	202.30	25.37	
2025-01-15 19:17:11.70	202.33	25.41	
2025-01-15 19:17:11.90	202.37	25.44	
2025-01-15 19:17:12.10	202.41	25.47	
2025-01-15 19:17:12.31	202.45	25.50	
2025-01-15 19:17:12.51	202.49	25.53	
2025-01-15 19:17:12.71	202.53	25.56	
2025-01-15 19:17:12.91	202.56	25.59	
2025-01-15 19:17:13.12	202.60	25.63	
2025-01-15 19:17:13.32	202.64	25.66	
2025-01-15 19:17:13.52	202.68	25.69	
2025-01-15 19:17:13.73	202.72	25.72	
2025-01-15 19:17:13.93	202.76	25.75	
2025-01-15 19:17:14.13	202.80	25.79	
2025-01-15 19:17:14.34	202.84	25.82	
2025-01-15 19:17:14.54	202.88	25.85	
2025-01-15 19:17:14.74	202.92	25.88	
2025-01-15 19:17:14.95	202.96	25.92	
2025-01-15 19:17:15.15	203.00	25.95	
2025-01-15 19:17:15.35	203.03	25.98	
2025-01-15 19:17:15.55	203.07	26.01	
2025-01-15 19:17:15.76	203.12	26.04	
2025-01-15 19:17:15.96	203.15	26.08	
2025-01-15 19:17:16.16	203.19	26.11	
2025-01-15 19:17:16.37	203.24	26.14	
2025-01-15 19:17:16.57	203.27	26.17	
2025-01-15 19:17:16.77	203.31	26.20	
2025-01-15 19:17:16.98	203.36	26.24	
2025-01-15 19:17:17.18	203.40	26.27	
2025-01-15 19:17:17.38	203.44	26.30	
2025-01-15 19:17:17.59	203.48	26.33	
2025-01-15 19:17:17.79	203.52	26.37	
2025-01-15 19:17:17.99	203.56	26.40	
2025-01-15 19:17:18.19	203.60	26.43	
2025-01-15 19:17:18.40	203.64	26.46	
2025-01-15 19:17:18.60	203.68	26.50	
2025-01-15 19:17:18.80	203.72	26.53	
2025-01-15 19:17:19.01	203.76	26.56	
2025-01-15 19:17:19.21	203.80	26.59	
2025-01-15 19:17:19.41	203.84	26.63	
2025-01-15 19:17:19.62	203.89	26.66	
2025-01-15 19:17:19.82	203.93	26.69	
2025-01-15 19:17:20.02	203.97	26.73	
2025-01-15 19:17:20.23	204.01	26.76	
2025-01-15 19:17:20.43	204.05	26.79	
2025-01-15 19:17:20.63	204.09	26.82	
2025-01-15 19:17:20.84	204.14	26.86	
2025-01-15 19:17:21.04	204.18	26.89	
2025-01-15 19:17:21.24	204.22	26.92	
2025-01-15 19:17:21.44	204.26	26.95	
2025-01-15 19:17:21.65	204.31	26.99	
2025-01-15 19:17:21.85	204.35	27.02	
2025-01-15 19:17:22.05	204.39	27.05	
2025-01-15 19:17:22.26	204.43	27.09	
2025-01-15 19:17:22.46	204.48	27.12	
2025-01-15 19:17:22.66	204.52	27.15	
2025-01-15 19:17:22.87	204.56	27.19	
2025-01-15 19:17:23.07	204.60	27.22	
2025-01-15 19:17:23.27	204.65	27.25	
2025-01-15 19:17:23.48	204.69	27.29	
2025-01-15 19:17:23.68	204.73	27.32	
2025-01-15 19:17:23.88	204.78	27.35	
2025-01-15 19:17:24.09	204.82	27.39	
2025-01-15 19:17:24.29	204.86	27.42	
2025-01-15 19:17:24.49	204.91	27.45	
2025-01-15 19:17:24.69	204.95	27.49	
2025-01-15 19:17:24.90	205.00	27.52	
2025-01-15 19:17:25.10	205.04	27.55	
2025-01-15 19:17:25.30	205.08	27.59	
2025-01-15 19:17:25.51	205.13	27.62	
2025-01-15 19:17:25.71	205.17	27.65	
2025-01-15 19:17:25.91	205.21	27.69	
2025-01-15 19:17:26.12	205.26	27.72	
2025-01-15 19:17:26.32	205.30	27.76	
2025-01-15 19:17:26.52	205.35	27.79	
2025-01-15 19:17:26.73	205.39	27.82	
2025-01-15 19:17:26.93	205.44	27.86	
2025-01-15 19:17:27.13	205.48	27.89	
2025-01-15 19:17:27.34	205.53	27.92	
2025-01-15 19:17:27.54	205.57	27.96	
2025-01-15 19:17:27.74	205.62	27.99	
2025-01-15 19:17:27.94	205.66	28.02	
2025-01-15 19:17:28.15	205.71	28.06	
2025-01-15 19:17:28.35	205.75	28.09	
2025-01-15 19:17:28.55	205.80	28.13	
2025-01-15 19:17:28.76	205.84	28.16	
2025-01-15 19:17:28.96	205.89	28.19	
2025-01-15 19:17:29.16	205.93	28.23	
2025-01-15 19:17:29.37	205.98	28.26	
2025-01-15 19:17:29.57	206.03	28.30	
2025-01-15 19:17:29.77	206.07	28.33	
2025-01-15 19:17:29.98	206.12	28.37	
2025-01-15 19:17:30.18	206.17	28.40	
2025-01-15 19:17:30.38	206.21	28.43	
2025-01-15 19:17:30.58	206.26	28.47	
2025-01-15 19:17:30.79	206.30	28.50	
2025-01-15 19:17:30.99	206.35	28.54	
2025-01-15 19:17:31.19	206.40	28.57	
2025-01-15 19:17:31.40	206.45	28.60	
2025-01-15 19:17:31.60	206.49	28.64	
2025-01-15 19:17:31.80	206.54	28.67	
2025-01-15 19:17:32.01	206.59	28.71	
2025-01-15 19:17:32.21	206.63	28.74	
2025-01-15 19:17:32.41	206.68	28.77	
2025-01-15 19:17:32.62	206.73	28.81	
2025-01-15 19:17:32.82	206.78	28.84	
2025-01-15 19:17:33.02	206.82	28.88	
2025-01-15 19:17:33.23	206.87	28.91	
2025-01-15 19:17:33.43	206.92	28.95	
2025-01-15 19:17:33.63	206.97	28.98	
2025-01-15 19:17:33.83	207.01	29.02	
2025-01-15 19:17:34.04	207.06	29.05	
2025-01-15 19:17:34.24	207.11	29.09	
2025-01-15 19:17:34.44	207.16	29.12	
2025-01-15 19:17:34.65	207.21	29.16	
2025-01-15 19:17:34.85	207.26	29.19	
2025-01-15 19:17:35.05	207.30	29.22	
2025-01-15 19:17:35.26	207.35	29.26	
2025-01-15 19:17:35.46	207.40	29.29	
2025-01-15 19:17:35.66	207.45	29.33	
2025-01-15 19:17:35.87	207.50	29.36	
2025-01-15 19:17:36.07	207.55	29.40	
2025-01-15 19:17:36.27	207.60	29.43	
2025-01-15 19:17:36.47	207.65	29.47	
2025-01-15 19:17:36.68	207.70	29.50	
2025-01-15 19:17:36.88	207.75	29.54	
2025-01-15 19:17:37.08	207.80	29.57	
2025-01-15 19:17:37.29	207.85	29.61	
2025-01-15 19:17:37.49	207.90	29.64	
2025-01-15 19:17:37.69	207.95	29.68	
2025-01-15 19:17:37.90	208.00	29.71	
2025-01-15 19:17:38.10	208.05	29.75	
2025-01-15 19:17:38.30	208.10	29.78	
2025-01-15 19:17:38.51	208.15	29.82	
2025-01-15 19:17:38.71	208.20	29.85	
2025-01-15 19:17:38.91	208.25	29.89	
2025-01-15 19:17:39.12	208.30	29.92	
2025-01-15 19:17:39.32	208.35	29.96	
2025-01-15 19:17:39.52	208.40	29.99	
2025-01-15 19:17:39.72	208.45	30.03	
2025-01-15 19:17:39.93	208.51	30.07	
2025-01-15 19:17:40.13	208.56	30.10	
2025-01-15 19:17:40.33	208.61	30.13	
2025-01-15 19:17:40.54	208.66	30.17	
2025-01-15 19:17:40.74	208.71	30.21	
2025-01-15 19:17:40.94	208.76	30.24	
2025-01-15 19:17:41.15	208.82	30.28	
2025-01-15 19:17:41.35	208.87	30.31	
2025-01-15 19:17:41.55	208.92	30.35	
2025-01-15 19:17:41.76	208.98	30.38	
2025-01-15 19:17:41.96	209.03	30.42	
2025-01-15 19:17:42.16	209.08	30.45	
2025-01-15 19:17:42.37	209.13	30.49	
2025-01-15 19:17:42.57	209.19	30.53	
2025-01-15 19:17:42.77	209.24	30.56	
2025-01-15 19:17:42.97	209.29	30.60	
2025-01-15 19:17:43.18	209.34	30.63	
2025-01-15 19:17:43.38	209.40	30.67	
2025-01-15 19:17:43.58	209.45	30.70	
2025-01-15 19:17:43.79	209.51	30.74	
2025-01-15 19:17:43.99	209.56	30.77	
2025-01-15 19:17:44.19	209.61	30.81	
2025-01-15 19:17:44.40	209.67	30.85	
2025-01-15 19:17:44.60	209.72	30.88	
2025-01-15 19:17:44.80	209.77	30.92	
2025-01-15 19:17:45.01	209.83	30.95	
2025-01-15 19:17:45.21	209.88	30.99	
2025-01-15 19:17:45.41	209.94	31.02	
2025-01-15 19:17:45.61	209.99	31.06	
2025-01-15 19:17:45.82	210.05	31.10	
2025-01-15 19:17:46.02	210.10	31.13	
2025-01-15 19:17:46.22	210.16	31.17	
2025-01-15 19:17:46.43	210.21	31.21	
2025-01-15 19:17:46.63	210.27	31.24	
2025-01-15 19:17:46.83	210.32	31.28	
2025-01-15 19:17:47.04	210.38	31.31	
2025-01-15 19:17:47.24	210.43	31.35	
2025-01-15 19:17:47.44	210.49	31.38	
2025-01-15 19:17:47.65	210.55	31.42	
2025-01-15 19:17:47.85	210.60	31.46	
2025-01-15 19:17:48.05	210.66	31.49	
2025-01-15 19:17:48.26	210.71	31.53	
2025-01-15 19:17:48.46	210.77	31.57	
2025-01-15 19:17:48.66	210.83	31.60	
2025-01-15 19:17:48.86	210.88	31.64	
2025-01-15 19:17:49.07	210.94	31.67	
2025-01-15 19:17:49.27	211.00	31.71	
2025-01-15 19:17:49.47	211.05	31.75	
2025-01-15 19:17:49.68	211.11	31.78	
2025-01-15 19:17:49.88	211.17	31.82	
2025-01-15 19:17:50.08	211.22	31.85	
2025-01-15 19:17:50.29	211.28	31.89	
2025-01-15 19:17:50.49	211.34	31.93	
2025-01-15 19:17:50.69	211.40	31.96	
2025-01-15 19:17:50.90	211.46	32.00	
2025-01-15 19:17:51.10	211.51	32.04	
2025-01-15 19:17:51.30	211.57	32.07	
2025-01-15 19:17:51.50	211.63	32.11	
2025-01-15 19:17:51.71	211.69	32.15	
2025-01-15 19:17:51.91	211.75	32.18	
2025-01-15 19:17:52.11	211.81	32.22	
2025-01-15 19:17:52.32	211.87	32.26	
2025-01-15 19:17:52.52	211.92	32.29	
2025-01-15 19:17:52.72	211.98	32.33	
2025-01-15 19:17:52.93	212.04	32.36	
2025-01-15 19:17:53.13	212.10	32.40	
2025-01-15 19:17:53.33	212.16	32.44	
2025-01-15 19:17:53.54	212.22	32.47	
2025-01-15 19:17:53.74	212.28	32.51	
2025-01-15 19:17:53.94	212.34	32.55	
2025-01-15 19:17:54.15	212.40	32.58	
2025-01-15 19:17:54.35	212.46	32.62	
2025-01-15 19:17:54.55	212.52	32.66	
2025-01-15 19:17:54.75	212.58	32.69	
2025-01-15 19:17:54.96	212.64	32.73	
2025-01-15 19:17:55.16	212.70	32.77	
2025-01-15 19:17:55.36	212.76	32.80	
2025-01-15 19:17:55.57	212.83	32.84	
2025-01-15 19:17:55.77	212.89	32.88	
2025-01-15 19:17:55.97	212.95	32.91	
2025-01-15 19:17:56.18	213.01	32.95	
2025-01-15 19:17:56.38	213.07	32.99	
2025-01-15 19:17:56.58	213.13	33.02	
2025-01-15 19:17:56.79	213.20	33.06	
2025-01-15 19:17:56.99	213.26	33.10	
2025-01-15 19:17:57.19	213.32	33.13	
2025-01-15 19:17:57.40	213.38	33.17	
2025-01-15 19:17:57.60	213.44	33.21	
2025-01-15 19:17:57.80	213.51	33.24	
2025-01-15 19:17:58.00	213.57	33.28	
2025-01-15 19:17:58.21	213.63	33.32	
2025-01-15 19:17:58.41	213.70	33.35	
2025-01-15 19:17:58.61	213.76	33.39	
2025-01-15 19:17:58.82	213.82	33.43	
2025-01-15 19:17:59.02	213.89	33.46	
2025-01-15 19:17:59.22	213.95	33.50	
2025-01-15 19:17:59.43	214.01	33.54	
2025-01-15 19:17:59.63	214.08	33.58	
2025-01-15 19:17:59.83	214.14	33.61	
2025-01-15 19:18:00.04	214.21	33.65	
2025-01-15 19:18:00.24	214.27	33.69	
2025-01-15 19:18:00.44	214.33	33.72	
2025-01-15 19:18:00.64	214.40	33.76	
2025-01-15 19:18:00.85	214.46	33.80	
2025-01-15 19:18:01.05	214.53	33.83	
2025-01-15 19:18:01.25	214.59	33.87	
2025-01-15 19:18:01.46	214.66	33.91	
2025-01-15 19:18:01.66	214.72	33.94	
2025-01-15 19:18:01.86	214.79	33.98	
2025-01-15 19:18:02.07	214.86	34.02	
2025-01-15 19:18:02.27	214.92	34.06	
2025-01-15 19:18:02.47	214.99	34.09	
2025-01-15 19:18:02.68	215.05	34.13	
2025-01-15 19:18:02.88	215.12	34.17	
2025-01-15 19:18:03.08	215.18	34.20	
2025-01-15 19:18:03.29	215.25	34.24	
2025-01-15 19:18:03.49	215.32	34.28	
2025-01-15 19:18:03.69	215.39	34.31	
2025-01-15 19:18:03.89	215.45	34.35	
2025-01-15 19:18:04.10	215.52	34.39	
2025-01-15 19:18:04.30	215.59	34.43	
2025-01-15 19:18:04.50	215.65	34.46	
2025-01-15 19:18:04.71	215.72	34.50	
2025-01-15 19:18:04.91	215.79	34.54	
2025-01-15 19:18:05.11	215.86	34.57	
2025-01-15 19:18:05.32	215.93	34.61	
2025-01-15 19:18:05.52	215.99	34.65	
2025-01-15 19:18:05.72	216.06	34.68	
2025-01-15 19:18:05.93	216.13	34.72	
2025-01-15 19:18:06.13	216.20	34.76	
2025-01-15 19:18:06.33	216.27	34.80	
2025-01-15 19:18:06.53	216.34	34.83	
2025-01-15 19:18:06.74	216.41	34.87	
2025-01-15 19:18:06.94	216.48	34.91	
2025-01-15 19:18:07.14	216.55	34.94	
2025-01-15 19:18:07.35	216.62	34.98	
2025-01-15 19:18:07.55	216.69	35.02	
2025-01-15 19:18:07.75	216.75	35.06	
2025-01-15 19:18:07.96	216.83	35.09	
2025-01-15 19:18:08.16	216.90	35.13	
2025-01-15 19:18:08.36	216.97	35.17	
2025-01-15 19:18:08.57	217.04	35.20	
2025-01-15 19:18:08.77	217.11	35.24	
2025-01-15 19:18:08.97	217.18	35.28	
2025-01-15 19:18:09.18	217.25	35.32	
2025-01-15 19:18:09.38	217.32	35.35	
2025-01-15 19:18:09.58	217.39	35.39	
2025-01-15 19:18:09.78	217.46	35.43	
2025-01-15 19:18:09.99	217.54	35.46	
2025-01-15 19:18:10.19	217.61	35.50	
2025-01-15 19:18:10.39	217.68	35.54	
2025-01-15 19:18:10.60	217.75	35.58	
2025-01-15 19:18:10.80	217.83	35.61	
2025-01-15 19:18:11.00	217.90	35.65	
2025-01-15 19:18:11.21	217.97	35.69	
2025-01-15 19:18:11.41	218.04	35.72	
2025-01-15 19:18:11.61	218.12	35.76	
2025-01-15 19:18:11.82	218.19	35.80	
2025-01-15 19:18:12.02	218.26	35.83	
2025-01-15 19:18:12.22	218.34	35.87	
2025-01-15 19:18:12.43	218.41	35.91	
2025-01-15 19:18:12.63	218.49	35.95	
2025-01-15 19:18:12.83	218.56	35.98	
2025-01-15 19:18:13.03	218.63	36.02	
2025-01-15 19:18:13.24	218.71	36.06	
2025-01-15 19:18:13.44	218.78	36.09	
2025-01-15 19:18:13.64	218.86	36.13	
2025-01-15 19:18:13.85	218.93	36.17	
2025-01-15 19:18:14.05	219.01	36.20	
2025-01-15 19:18:14.25	219.08	36.24	
2025-01-15 19:18:14.46	219.16	36.28	
2025-01-15 19:18:14.66	219.24	36.32	
2025-01-15 19:18:14.86	219.31	36.35	
2025-01-15 19:18:15.07	219.39	36.39	
2025-01-15 19:18:15.27	219.46	36.43	
2025-01-15 19:18:15.47	219.54	36.46	
2025-01-15 19:18:15.67	219.61	36.50	
2025-01-15 19:18:15.88	219.69	36.54	
2025-01-15 19:18:16.08	219.77	36.57	
2025-01-15 19:18:16.28	219.85	36.61	
2025-01-15 19:18:16.49	219.93	36.65	
2025-01-15 19:18:16.69	220.00	36.68	
2025-01-15 19:18:16.89	220.08	36.72	
2025-01-15 19:18:17.10	220.16	36.76	
2025-01-15 19:18:17.30	220.24	36.79	
2025-01-15 19:18:17.50	220.31	36.83	
2025-01-15 19:18:17.71	220.39	36.87	
2025-01-15 19:18:17.91	220.47	36.90	
2025-01-15 19:18:18.11	220.55	36.94	
2025-01-15 19:18:18.32	220.63	36.98	
2025-01-15 19:18:18.52	220.71	37.01	
2025-01-15 19:18:18.72	220.79	37.05	
2025-01-15 19:18:18.92	220.86	37.09	
2025-01-15 19:18:19.13	220.95	37.12	
2025-01-15 19:18:19.33	221.02	37.16	
2025-01-15 19:18:19.53	221.10	37.20	
2025-01-15 19:18:19.74	221.19	37.23	
2025-01-15 19:18:19.94	221.26	37.27	
2025-01-15 19:18:20.14	221.34	37.31	
2025-01-15 19:18:20.35	221.43	37.34	
2025-01-15 19:18:20.55	221.51	37.38	
2025-01-15 19:18:20.75	221.59	37.42	
2025-01-15 19:18:20.96	221.67	37.45	
2025-01-15 19:18:21.16	221.75	37.49	
2025-01-15 19:18:21.36	221.83	37.53	
2025-01-15 19:18:21.57	221.92	37.56	
2025-01-15 19:18:21.77	222.00	37.60	
2025-01-15 19:18:21.97	222.08	37.64	
2025-01-15 19:18:22.17	222.16	37.67	
2025-01-15 19:18:22.38	222.24	37.71	
2025-01-15 19:18:22.58	222.33	37.74	
2025-01-15 19:18:22.78	222.41	37.78	
2025-01-15 19:18:22.99	222.49	37.82	
2025-01-15 19:18:23.19	222.57	37.85	
2025-01-15 19:18:23.39	222.66	37.89	
2025-01-15 19:18:23.60	222.74	37.93	
2025-01-15 19:18:23.80	222.83	37.96	
2025-01-15 19:18:24.00	222.91	38.00	
2025-01-15 19:18:24.21	223.00	38.03	
2025-01-15 19:18:24.41	223.08	38.07	
2025-01-15 19:18:24.61	223.16	38.11	
2025-01-15 19:18:24.81	223.25	38.14	
2025-01-15 19:18:25.02	223.33	38.18	
2025-01-15 19:18:25.22	223.42	38.21	
2025-01-15 19:18:25.42	223.50	38.25	
2025-01-15 19:18:25.63	223.59	38.29	
2025-01-15 19:18:25.83	223.67	38.32	
2025-01-15 19:18:26.03	223.76	38.36	
2025-01-15 19:18:26.24	223.85	38.39	
2025-01-15 19:18:26.44	223.93	38.43	
2025-01-15 19:18:26.64	224.02	38.46	
2025-01-15 19:18:26.85	224.11	38.50	
2025-01-15 19:18:27.05	224.19	38.54	
2025-01-15 19:18:27.25	224.28	38.57	
2025-01-15 19:18:27.46	224.37	38.61	
2025-01-15 19:18:27.66	224.45	38.64	
2025-01-15 19:18:27.86	224.54	38.68	
2025-01-15 19:18:28.06	224.63	38.71	
2025-01-15 19:18:28.27	224.72	38.75	
2025-01-15 19:18:28.47	224.81	38.79	
2025-01-15 19:18:28.67	224.89	38.82	
2025-01-15 19:18:28.88	224.98	38.86	
2025-01-15 19:18:29.08	225.07	38.89	
2025-01-15 19:18:29.28	225.16	38.93	
2025-01-15 19:18:29.49	225.25	38.96	
2025-01-15 19:18:29.69	225.34	39.00	
2025-01-15 19:18:29.89	225.43	39.03	
2025-01-15 19:18:30.10	225.52	39.07	
2025-01-15 19:18:30.30	225.61	39.10	
2025-01-15 19:18:30.50	225.70	39.14	
2025-01-15 19:18:30.70	225.79	39.17	
2025-01-15 19:18:30.91	225.88	39.21	
2025-01-15 19:18:31.11	225.97	39.24	
2025-01-15 19:18:31.31	226.06	39.28	
2025-01-15 19:18:31.52	226.15	39.31	
2025-01-15 19:18:31.72	226.24	39.35	
2025-01-15 19:18:31.92	226.33	39.38	
2025-01-15 19:18:32.13	226.43	39.42	
2025-01-15 19:18:32.33	226.52	39.45	
2025-01-15 19:18:32.53	226.61	39.49	
2025-01-15 19:18:32.74	226.70	39.52	
2025-01-15 19:18:32.94	226.80	39.56	
2025-01-15 19:18:33.14	226.89	39.59	
2025-01-15 19:18:33.35	226.98	39.63	
2025-01-15 19:18:33.55	227.07	39.66	
2025-01-15 19:18:33.75	227.17	39.69	
2025-01-15 19:18:33.95	227.26	39.73	
2025-01-15 19:18:34.16	227.35	39.76	
2025-01-15 19:18:34.36	227.45	39.80	
2025-01-15 19:18:34.56	227.54	39.83	
2025-01-15 19:18:34.77	227.64	39.87	
2025-01-15 19:18:34.97	227.73	39.90	
2025-01-15 19:18:35.17	227.82	39.93	
2025-01-15 19:18:35.38	227.92	39.97	
2025-01-15 19:18:35.58	228.02	40.00	
2025-01-15 19:18:35.78	228.11	40.03	
2025-01-15 19:18:35.99	228.21	40.07	
2025-01-15 19:18:36.19	228.30	40.10	
2025-01-15 19:18:36.39	228.40	40.14	
2025-01-15 19:18:36.59	228.49	40.17	
2025-01-15 19:18:36.80	228.59	40.20	
2025-01-15 19:18:37.00	228.69	40.24	
2025-01-15 19:18:37.20	228.78	40.27	
2025-01-15 19:18:37.41	228.88	40.30	
2025-01-15 19:18:37.61	228.98	40.34	
2025-01-15 19:18:37.81	229.07	40.37	
2025-01-15 19:18:38.02	229.17	40.40	
2025-01-15 19:18:38.22	229.27	40.44	
2025-01-15 19:18:38.42	229.37	40.47	
2025-01-15 19:18:38.63	229.47	40.50	
2025-01-15 19:18:38.83	229.56	40.54	
2025-01-15 19:18:39.03	229.66	40.57	
2025-01-15 19:18:39.24	229.76	40.60	
2025-01-15 19:18:39.44	229.86	40.64	
2025-01-15 19:18:39.64	229.96	40.67	
2025-01-15 19:18:39.84	230.06	40.70	
2025-01-15 19:18:40.05	230.16	40.73	
2025-01-15 19:18:40.25	230.26	40.77	
2025-01-15 19:18:40.45	230.36	40.80	
2025-01-15 19:18:40.66	230.46	40.83	
2025-01-15 19:18:40.86	230.56	40.86	
2025-01-15 19:18:41.06	230.66	40.90	
2025-01-15 19:18:41.27	230.76	40.93	
2025-01-15 19:18:41.47	230.86	40.96	
2025-01-15 19:18:41.67	230.96	40.99	
2025-01-15 19:18:41.88	231.06	41.03	
2025-01-15 19:18:42.08	231.16	41.06	
2025-01-15 19:18:42.28	231.26	41.09	
2025-01-15 19:18:42.49	231.37	41.12	
2025-01-15 19:18:42.69	231.47	41.15	
2025-01-15 19:18:42.89	231.57	41.18	
2025-01-15 19:18:43.09	231.67	41.22	
2025-01-15 19:18:43.30	231.78	41.25	
2025-01-15 19:18:43.50	231.88	41.28	
2025-01-15 19:18:43.70	231.98	41.31	
2025-01-15 19:18:43.91	232.09	41.34	
2025-01-15 19:18:44.11	232.19	41.37	
2025-01-15 19:18:44.31	232.29	41.41	
2025-01-15 19:18:44.52	232.40	41.44	
2025-01-15 19:18:44.72	232.50	41.47	
2025-01-15 19:18:44.92	232.60	41.50	
2025-01-15 19:18:45.13	232.71	41.53	
2025-01-15 19:18:45.33	232.82	41.56	
2025-01-15 19:18:45.53	232.92	41.59	
2025-01-15 19:18:45.73	233.02	41.62	
2025-01-15 19:18:45.94	233.13	41.65	
2025-01-15 19:18:46.14	233.24	41.68	
2025-01-15 19:18:46.34	233.34	41.71	
2025-01-15 19:18:46.55	233.45	41.75	
2025-01-15 19:18:46.75	233.55	41.78	
2025-01-15 19:18:46.95	233.66	41.80	
2025-01-15 19:18:47.16	233.77	41.84	
2025-01-15 19:18:47.36	233.87	41.87	
2025-01-15 19:18:47.56	233.98	41.90	
2025-01-15 19:18:47.77	234.09	41.93	
2025-01-15 19:18:47.97	234.20	41.96	
2025-01-15 19:18:48.17	234.30	41.98	
2025-01-15 19:18:48.38	234.41	42.02	
2025-01-15 19:18:48.58	234.52	42.04	
2025-01-15 19:18:48.78	234.63	42.07	
2025-01-15 19:18:48.98	234.73	42.10	
2025-01-15 19:18:49.19	234.84	42.13	
2025-01-15 19:18:49.39	234.95	42.16	
2025-01-15 19:18:49.59	235.06	42.19	
2025-01-15 19:18:49.80	235.17	42.22	
2025-01-15 19:18:50.00	235.28	42.25	
2025-01-15 19:18:50.20	235.39	42.28	
2025-01-15 19:18:50.41	235.50	42.31	
2025-01-15 19:18:50.61	235.61	42.34	
2025-01-15 19:18:50.81	235.72	42.36	
2025-01-15 19:18:51.02	235.83	42.39	
2025-01-15 19:18:51.22	235.94	42.42	
2025-01-15 19:18:51.42	236.05	42.45	
2025-01-15 19:18:51.63	236.16	42.48	
2025-01-15 19:18:51.83	236.27	42.51	
2025-01-15 19:18:52.03	236.38	42.53	
2025-01-15 19:18:52.23	236.49	42.56	
2025-01-15 19:18:52.44	236.61	42.59	
2025-01-15 19:18:52.64	236.72	42.62	
2025-01-15 19:18:52.84	236.83	42.65	
2025-01-15 19:18:53.05	236.95	42.67	
2025-01-15 19:18:53.25	237.06	42.70	
2025-01-15 19:18:53.45	237.17	42.73	
2025-01-15 19:18:53.66	237.28	42.76	
2025-01-15 19:18:53.86	237.39	42.78	
2025-01-15 19:18:54.06	237.51	42.81	
2025-01-15 19:18:54.27	237.62	42.84	
2025-01-15 19:18:54.47	237.74	42.86	
2025-01-15 19:18:54.67	237.85	42.89	
2025-01-15 19:18:54.87	237.96	42.92	
2025-01-15 19:18:55.08	238.08	42.94	
2025-01-15 19:18:55.28	238.19	42.97	
2025-01-15 19:18:55.48	238.30	43.00	
2025-01-15 19:18:55.69	238.42	43.02	
2025-01-15 19:18:55.89	238.54	43.05	
2025-01-15 19:18:56.09	238.65	43.07	
2025-01-15 19:18:56.30	238.77	43.10	
2025-01-15 19:18:56.50	238.88	43.13	
2025-01-15 19:18:56.70	239.00	43.15	
2025-01-15 19:18:56.91	239.12	43.18	
2025-01-15 19:18:57.11	239.23	43.20	
2025-01-15 19:18:57.31	239.34	43.23	
2025-01-15 19:18:57.52	239.46	43.26	
2025-01-15 19:18:57.72	239.58	43.28	
2025-01-15 19:18:57.92	239.69	43.30	
2025-01-15 19:18:58.12	239.81	43.33	
2025-01-15 19:18:58.33	239.93	43.36	
2025-01-15 19:18:58.53	240.05	43.38	
2025-01-15 19:18:58.73	240.16	43.40	
2025-01-15 19:18:58.94	240.28	43.43	
2025-01-15 19:18:59.14	240.40	43.45	
2025-01-15 19:18:59.34	240.52	43.48	
2025-01-15 19:18:59.55	240.64	43.50	
2025-01-15 19:18:59.75	240.75	43.53	
2025-01-15 19:18:59.95	240.87	43.55	
2025-01-15 19:19:00.16	240.99	43.57	
2025-01-15 19:19:00.36	241.11	43.60	
2025-01-15 19:19:00.56	241.23	43.62	
2025-01-15 19:19:00.76	241.35	43.64	
2025-01-15 19:19:00.97	241.47	43.67	
2025-01-15 19:19:01.17	241.59	43.69	
2025-01-15 19:19:01.37	241.71	43.71	
2025-01-15 19:19:01.58	241.83	43.74	
2025-01-15 19:19:01.78	241.95	43.76	
2025-01-15 19:19:01.98	242.07	43.78	
2025-01-15 19:19:02.19	242.19	43.81	
2025-01-15 19:19:02.39	242.31	43.83	
2025-01-15 19:19:02.59	242.43	43.85	
2025-01-15 19:19:02.80	242.55	43.87	
2025-01-15 19:19:03.00	242.67	43.89	
2025-01-15 19:19:03.20	242.79	43.92	
2025-01-15 19:19:03.41	242.92	43.94	
2025-01-15 19:19:03.61	243.04	43.96	
2025-01-15 19:19:03.81	243.16	43.98	
2025-01-15 19:19:04.01	243.28	44.00	
2025-01-15 19:19:04.22	243.41	44.02	
2025-01-15 19:19:04.42	243.53	44.05	
2025-01-15 19:19:04.62	243.65	44.07	
2025-01-15 19:19:04.83	243.77	44.09	
2025-01-15 19:19:05.03	243.89	44.11	
2025-01-15 19:19:05.23	244.02	44.13	
2025-01-15 19:19:05.44	244.14	44.15	
2025-01-15 19:19:05.64	244.26	44.17	
2025-01-15 19:19:05.84	244.39	44.19	
2025-01-15 19:19:06.05	244.51	44.21	
2025-01-15 19:19:06.25	244.64	44.23	
2025-01-15 19:19:06.45	244.76	44.25	
2025-01-15 19:19:06.66	244.89	44.27	
2025-01-15 19:19:06.86	245.01	44.29	
2025-01-15 19:19:07.06	245.13	44.31	
2025-01-15 19:19:07.26	245.25	44.33	
2025-01-15 19:19:07.47	245.38	44.35	
2025-01-15 19:19:07.67	245.51	44.37	
2025-01-15 19:19:07.87	245.63	44.39	
2025-01-15 19:19:08.08	245.76	44.41	
2025-01-15 19:19:08.28	245.88	44.42	
2025-01-15 19:19:08.48	246.00	44.44	
2025-01-15 19:19:08.69	246.13	44.46	
2025-01-15 19:19:08.89	246.26	44.48	
2025-01-15 19:19:09.09	246.38	44.50	
2025-01-15 19:19:09.30	246.51	44.52	
2025-01-15 19:19:09.50	246.64	44.53	
2025-01-15 19:19:09.70	246.76	44.55	
2025-01-15 19:19:09.90	246.89	44.57	
2025-01-15 19:19:10.11	247.02	44.59	
2025-01-15 19:19:10.31	247.14	44.60	
2025-01-15 19:19:10.51	247.27	44.62	
2025-01-15 19:19:10.72	247.40	44.64	
2025-01-15 19:19:10.92	247.52	44.65	
2025-01-15 19:19:11.12	247.65	44.67	
2025-01-15 19:19:11.33	247.78	44.69	
2025-01-15 19:19:11.53	247.91	44.70	
2025-01-15 19:19:11.73	248.03	44.72	
2025-01-15 19:19:11.94	248.16	44.74	
2025-01-15 19:19:12.14	248.29	44.75	
2025-01-15 19:19:12.34	248.42	44.77	
2025-01-15 19:19:12.55	248.55	44.78	
2025-01-15 19:19:12.75	248.67	44.80	
2025-01-15 19:19:12.95	248.80	44.82	
2025-01-15 19:19:13.15	248.93	44.83	
2025-01-15 19:19:13.36	249.06	44.85	
2025-01-15 19:19:13.56	249.19	44.86	
2025-01-15 19:19:13.76	249.31	44.88	
2025-01-15 19:19:13.97	249.45	44.89	
2025-01-15 19:19:14.17	249.58	44.90	
2025-01-15 19:19:14.37	249.70	44.92	
2025-01-15 19:19:14.58	249.84	44.93	
2025-01-15 19:19:14.78	249.96	44.95	
2025-01-15 19:19:14.98	250.09	44.96	
2025-01-15 19:19:15.19	250.23	44.98	
2025-01-15 19:19:15.39	250.35	44.99	
