passes_logs/2025/01/15/SPB_Silybum_02/SPB_Silybum_02__20250115_082659_SUOMI_NPP_rec.log

#Pass ID: 20250115_082659_SUOMI NPP
#Satellite: SUOMI NPP
#Configuration: NPP
#Start time: 2025-01-15 08:29:22

#Version: 2.0.20230423
#Station: SPB_Silybum_02
#Location: 30.233357 lon 59.946436 lat
#TLE: 1 37849U 11061A   25014.84938308  .00000162  00000+0  97809-4 0  9990
#TLE: 2 37849  98.7446 315.8398 0001684  41.2466 318.8837 14.19538097684890

#Time	Az	El	Level	Level2	SNR	BER	Gain	Gain2
2025-01-15 08:29:24.41	92.07	13.77	
2025-01-15 08:29:24.61	92.04	13.78	
2025-01-15 08:29:24.82	92.01	13.80	
2025-01-15 08:29:25.02	91.99	13.81	
2025-01-15 08:29:25.22	91.96	13.83	
2025-01-15 08:29:25.43	91.93	13.84	
2025-01-15 08:29:25.63	91.90	13.86	
2025-01-15 08:29:25.83	91.87	13.87	
2025-01-15 08:29:26.04	91.84	13.89	
2025-01-15 08:29:26.24	91.81	13.90	
2025-01-15 08:29:26.44	91.78	13.91	
2025-01-15 08:29:26.65	91.75	13.93	
2025-01-15 08:29:26.85	91.73	13.94	
2025-01-15 08:29:27.05	91.70	13.96	
2025-01-15 08:29:27.26	91.67	13.98	
2025-01-15 08:29:27.46	91.64	13.99	
2025-01-15 08:29:27.66	91.61	14.00	
2025-01-15 08:29:27.86	91.58	14.02	
2025-01-15 08:29:28.07	91.55	14.03	
2025-01-15 08:29:28.27	91.52	14.05	
2025-01-15 08:29:28.47	91.49	14.06	
2025-01-15 08:29:28.68	91.46	14.08	
2025-01-15 08:29:28.88	91.43	14.09	
2025-01-15 08:29:29.08	91.40	14.11	
2025-01-15 08:29:29.29	91.37	14.12	
2025-01-15 08:29:29.49	91.34	14.14	
2025-01-15 08:29:29.69	91.32	14.15	
2025-01-15 08:29:29.90	91.29	14.17	
2025-01-15 08:29:30.10	91.26	14.18	
2025-01-15 08:29:30.30	91.23	14.20	
2025-01-15 08:29:30.51	91.20	14.21	
2025-01-15 08:29:30.71	91.17	14.23	
2025-01-15 08:29:30.91	91.14	14.24	
2025-01-15 08:29:31.11	91.11	14.26	
2025-01-15 08:29:31.32	91.08	14.27	
2025-01-15 08:29:31.52	91.05	14.29	
2025-01-15 08:29:31.72	91.02	14.30	
2025-01-15 08:29:31.93	90.99	14.32	
2025-01-15 08:29:32.13	90.96	14.33	
2025-01-15 08:29:32.33	90.93	14.35	
2025-01-15 08:29:32.54	90.90	14.36	
2025-01-15 08:29:32.74	90.87	14.38	
2025-01-15 08:29:32.94	90.84	14.39	
2025-01-15 08:29:33.15	90.81	14.41	
2025-01-15 08:29:33.35	90.78	14.42	
2025-01-15 08:29:33.55	90.75	14.44	
2025-01-15 08:29:33.76	90.72	14.45	
2025-01-15 08:29:33.96	90.69	14.47	
2025-01-15 08:29:34.16	90.66	14.48	
2025-01-15 08:29:34.36	90.63	14.50	
2025-01-15 08:29:34.57	90.60	14.51	
2025-01-15 08:29:34.77	90.57	14.53	
2025-01-15 08:29:34.97	90.54	14.54	
2025-01-15 08:29:35.18	90.51	14.56	
2025-01-15 08:29:35.38	90.48	14.57	
2025-01-15 08:29:35.58	90.45	14.59	
2025-01-15 08:29:35.79	90.42	14.60	
2025-01-15 08:29:35.99	90.39	14.62	
2025-01-15 08:29:36.19	90.36	14.63	
2025-01-15 08:29:36.40	90.32	14.65	
2025-01-15 08:29:36.60	90.29	14.66	
2025-01-15 08:29:36.80	90.26	14.68	
2025-01-15 08:29:37.01	90.23	14.69	
2025-01-15 08:29:37.21	90.20	14.71	
2025-01-15 08:29:37.41	90.17	14.72	
2025-01-15 08:29:37.62	90.14	14.74	
2025-01-15 08:29:37.82	90.11	14.75	
2025-01-15 08:29:38.02	90.08	14.77	
2025-01-15 08:29:38.22	90.05	14.78	
2025-01-15 08:29:38.43	90.02	14.80	
2025-01-15 08:29:38.63	89.99	14.81	
2025-01-15 08:29:38.83	89.96	14.83	
2025-01-15 08:29:39.04	89.92	14.84	
2025-01-15 08:29:39.24	89.89	14.86	
2025-01-15 08:29:39.44	89.86	14.87	
2025-01-15 08:29:39.65	89.83	14.89	
2025-01-15 08:29:39.85	89.80	14.90	
2025-01-15 08:29:40.05	89.77	14.92	
2025-01-15 08:29:40.26	89.74	14.93	
2025-01-15 08:29:40.46	89.71	14.95	
2025-01-15 08:29:40.66	89.68	14.96	
2025-01-15 08:29:40.87	89.64	14.98	
2025-01-15 08:29:41.07	89.61	14.99	
2025-01-15 08:29:41.27	89.58	15.01	
2025-01-15 08:29:41.47	89.55	15.02	
2025-01-15 08:29:41.68	89.52	15.04	
2025-01-15 08:29:41.88	89.49	15.05	
2025-01-15 08:29:42.08	89.46	15.07	
2025-01-15 08:29:42.29	89.43	15.08	
2025-01-15 08:29:42.49	89.40	15.10	
2025-01-15 08:29:42.69	89.36	15.11	
2025-01-15 08:29:42.90	89.33	15.13	
2025-01-15 08:29:43.10	89.30	15.14	
2025-01-15 08:29:43.30	89.27	15.16	
2025-01-15 08:29:43.51	89.24	15.17	
2025-01-15 08:29:43.71	89.21	15.19	
2025-01-15 08:29:43.91	89.17	15.20	
2025-01-15 08:29:44.12	89.14	15.22	
2025-01-15 08:29:44.32	89.11	15.23	
2025-01-15 08:29:44.52	89.08	15.25	
2025-01-15 08:29:44.72	89.05	15.26	
2025-01-15 08:29:44.93	89.01	15.28	
2025-01-15 08:29:45.13	88.98	15.29	
2025-01-15 08:29:45.33	88.95	15.31	
2025-01-15 08:29:45.54	88.92	15.32	
2025-01-15 08:29:45.74	88.89	15.34	
2025-01-15 08:29:45.94	88.86	15.35	
2025-01-15 08:29:46.15	88.82	15.37	
2025-01-15 08:29:46.35	88.79	15.38	
2025-01-15 08:29:46.55	88.76	15.40	
2025-01-15 08:29:46.76	88.73	15.41	
2025-01-15 08:29:46.96	88.69	15.43	
2025-01-15 08:29:47.16	88.66	15.44	
2025-01-15 08:29:47.37	88.63	15.46	
2025-01-15 08:29:47.57	88.60	15.47	
2025-01-15 08:29:47.77	88.57	15.49	
2025-01-15 08:29:47.98	88.53	15.50	
2025-01-15 08:29:48.18	88.50	15.52	
2025-01-15 08:29:48.38	88.47	15.53	
2025-01-15 08:29:48.58	88.44	15.55	
2025-01-15 08:29:48.79	88.40	15.56	
2025-01-15 08:29:48.99	88.37	15.58	
2025-01-15 08:29:49.19	88.34	15.59	
2025-01-15 08:29:49.40	88.31	15.61	
2025-01-15 08:29:49.60	88.27	15.62	
2025-01-15 08:29:49.80	88.24	15.64	
2025-01-15 08:29:50.01	88.21	15.65	
2025-01-15 08:29:50.21	88.18	15.67	
2025-01-15 08:29:50.41	88.14	15.68	
2025-01-15 08:29:50.62	88.11	15.70	
2025-01-15 08:29:50.82	88.08	15.71	
2025-01-15 08:29:51.02	88.04	15.73	
2025-01-15 08:29:51.23	88.01	15.74	
2025-01-15 08:29:51.43	87.98	15.76	
2025-01-15 08:29:51.63	87.95	15.77	
2025-01-15 08:29:51.83	87.91	15.79	
2025-01-15 08:29:52.04	87.88	15.80	
2025-01-15 08:29:52.24	87.85	15.82	
2025-01-15 08:29:52.44	87.81	15.83	
2025-01-15 08:29:52.65	87.78	15.85	
2025-01-15 08:29:52.85	87.75	15.86	
2025-01-15 08:29:53.05	87.71	15.88	
2025-01-15 08:29:53.26	87.68	15.89	
2025-01-15 08:29:53.46	87.65	15.91	
2025-01-15 08:29:53.66	87.62	15.92	
2025-01-15 08:29:53.87	87.58	15.94	
2025-01-15 08:29:54.07	87.55	15.95	
2025-01-15 08:29:54.27	87.52	15.97	
2025-01-15 08:29:54.48	87.48	15.98	
2025-01-15 08:29:54.68	87.45	16.00	
2025-01-15 08:29:54.88	87.41	16.01	
2025-01-15 08:29:55.08	87.38	16.03	
2025-01-15 08:29:55.29	87.35	16.04	
2025-01-15 08:29:55.49	87.31	16.06	
2025-01-15 08:29:55.69	87.28	16.07	
2025-01-15 08:29:55.90	87.25	16.09	
2025-01-15 08:29:56.10	87.21	16.10	
2025-01-15 08:29:56.30	87.18	16.12	
2025-01-15 08:29:56.51	87.14	16.13	
2025-01-15 08:29:56.71	87.11	16.15	
2025-01-15 08:29:56.91	87.08	16.16	
2025-01-15 08:29:57.12	87.04	16.18	
2025-01-15 08:29:57.32	87.01	16.19	
2025-01-15 08:29:57.52	86.98	16.21	
2025-01-15 08:29:57.73	86.94	16.22	
2025-01-15 08:29:57.93	86.91	16.24	
2025-01-15 08:29:58.13	86.87	16.25	
2025-01-15 08:29:58.34	86.84	16.27	
2025-01-15 08:29:58.54	86.81	16.28	
2025-01-15 08:29:58.74	86.77	16.30	
2025-01-15 08:29:58.94	86.74	16.31	
2025-01-15 08:29:59.15	86.70	16.33	
2025-01-15 08:29:59.35	86.67	16.34	
2025-01-15 08:29:59.55	86.64	16.36	
2025-01-15 08:29:59.76	86.60	16.37	
2025-01-15 08:29:59.96	86.57	16.39	
2025-01-15 08:30:00.16	86.53	16.40	
2025-01-15 08:30:00.37	86.50	16.42	
2025-01-15 08:30:00.57	86.46	16.43	
2025-01-15 08:30:00.77	86.43	16.44	
2025-01-15 08:30:00.98	86.39	16.46	
2025-01-15 08:30:01.18	86.36	16.48	
2025-01-15 08:30:01.38	86.33	16.49	
2025-01-15 08:30:01.59	86.29	16.51	
2025-01-15 08:30:01.79	86.26	16.52	
2025-01-15 08:30:01.99	86.22	16.53	
2025-01-15 08:30:02.19	86.19	16.55	
2025-01-15 08:30:02.40	86.15	16.56	
2025-01-15 08:30:02.60	86.12	16.58	
2025-01-15 08:30:02.80	86.08	16.59	
2025-01-15 08:30:03.01	86.05	16.61	
2025-01-15 08:30:03.21	86.01	16.62	
2025-01-15 08:30:03.41	85.98	16.64	
2025-01-15 08:30:03.62	85.94	16.65	
2025-01-15 08:30:03.82	85.91	16.67	
2025-01-15 08:30:04.02	85.87	16.68	
2025-01-15 08:30:04.23	85.84	16.70	
2025-01-15 08:30:04.43	85.80	16.71	
2025-01-15 08:30:04.63	85.77	16.73	
2025-01-15 08:30:04.84	85.73	16.74	
2025-01-15 08:30:05.04	85.70	16.76	
2025-01-15 08:30:05.24	85.66	16.77	
2025-01-15 08:30:05.44	85.63	16.79	
2025-01-15 08:30:05.65	85.59	16.80	
2025-01-15 08:30:05.85	85.56	16.82	
2025-01-15 08:30:06.05	85.52	16.83	
2025-01-15 08:30:06.26	85.48	16.85	
2025-01-15 08:30:06.46	85.45	16.86	
2025-01-15 08:30:06.66	85.42	16.88	
2025-01-15 08:30:06.87	85.38	16.89	
2025-01-15 08:30:07.07	85.34	16.91	
2025-01-15 08:30:07.27	85.31	16.92	
2025-01-15 08:30:07.48	85.27	16.94	
2025-01-15 08:30:07.68	85.24	16.95	
2025-01-15 08:30:07.88	85.20	16.97	
2025-01-15 08:30:08.09	85.16	16.98	
2025-01-15 08:30:08.29	85.13	17.00	
2025-01-15 08:30:08.49	85.09	17.01	
2025-01-15 08:30:08.70	85.06	17.03	
2025-01-15 08:30:08.90	85.02	17.04	
2025-01-15 08:30:09.10	84.99	17.06	
2025-01-15 08:30:09.30	84.95	17.07	
2025-01-15 08:30:09.51	84.91	17.09	
2025-01-15 08:30:09.71	84.88	17.10	
2025-01-15 08:30:09.91	84.84	17.12	
2025-01-15 08:30:10.12	84.81	17.13	
2025-01-15 08:30:10.32	84.77	17.15	
2025-01-15 08:30:10.52	84.73	17.16	
2025-01-15 08:30:10.73	84.70	17.18	
2025-01-15 08:30:10.93	84.66	17.19	
2025-01-15 08:30:11.13	84.63	17.20	
2025-01-15 08:30:11.34	84.59	17.22	
2025-01-15 08:30:11.54	84.55	17.23	
2025-01-15 08:30:11.74	84.52	17.25	
2025-01-15 08:30:11.95	84.48	17.26	
2025-01-15 08:30:12.15	84.44	17.28	
2025-01-15 08:30:12.35	84.41	17.29	
2025-01-15 08:30:12.55	84.37	17.31	
2025-01-15 08:30:12.76	84.33	17.32	
2025-01-15 08:30:12.96	84.30	17.34	
2025-01-15 08:30:13.16	84.26	17.35	
2025-01-15 08:30:13.37	84.22	17.37	
2025-01-15 08:30:13.57	84.19	17.38	
2025-01-15 08:30:13.77	84.15	17.40	
2025-01-15 08:30:13.98	84.11	17.41	
2025-01-15 08:30:14.18	84.08	17.43	
2025-01-15 08:30:14.38	84.04	17.44	
2025-01-15 08:30:14.59	84.00	17.46	
2025-01-15 08:30:14.79	83.97	17.47	
2025-01-15 08:30:14.99	83.93	17.49	
2025-01-15 08:30:15.20	83.89	17.50	
2025-01-15 08:30:15.40	83.85	17.52	
2025-01-15 08:30:15.60	83.82	17.53	
2025-01-15 08:30:15.80	83.78	17.55	
2025-01-15 08:30:16.01	83.74	17.56	
2025-01-15 08:30:16.21	83.71	17.58	
2025-01-15 08:30:16.41	83.67	17.59	
2025-01-15 08:30:16.62	83.63	17.60	
2025-01-15 08:30:16.82	83.60	17.62	
2025-01-15 08:30:17.02	83.56	17.63	
2025-01-15 08:30:17.23	83.52	17.65	
2025-01-15 08:30:17.43	83.48	17.66	
2025-01-15 08:30:17.63	83.45	17.68	
2025-01-15 08:30:17.84	83.41	17.69	
2025-01-15 08:30:18.04	83.37	17.71	
2025-01-15 08:30:18.24	83.33	17.72	
2025-01-15 08:30:18.45	83.29	17.74	
2025-01-15 08:30:18.65	83.26	17.75	
2025-01-15 08:30:18.85	83.22	17.77	
2025-01-15 08:30:19.06	83.18	17.78	
2025-01-15 08:30:19.26	83.14	17.80	
2025-01-15 08:30:19.46	83.11	17.81	
2025-01-15 08:30:19.66	83.07	17.83	
2025-01-15 08:30:19.87	83.03	17.84	
2025-01-15 08:30:20.07	82.99	17.86	
2025-01-15 08:30:20.27	82.96	17.87	
2025-01-15 08:30:20.48	82.92	17.88	
2025-01-15 08:30:20.68	82.88	17.90	
2025-01-15 08:30:20.88	82.84	17.91	
2025-01-15 08:30:21.09	82.80	17.93	
2025-01-15 08:30:21.29	82.77	17.94	
2025-01-15 08:30:21.49	82.73	17.96	
2025-01-15 08:30:21.70	82.69	17.97	
2025-01-15 08:30:21.90	82.65	17.99	
2025-01-15 08:30:22.10	82.61	18.00	
2025-01-15 08:30:22.31	82.57	18.02	
2025-01-15 08:30:22.51	82.54	18.03	
2025-01-15 08:30:22.71	82.50	18.05	
2025-01-15 08:30:22.91	82.46	18.06	
2025-01-15 08:30:23.12	82.42	18.08	
2025-01-15 08:30:23.32	82.38	18.09	
2025-01-15 08:30:23.52	82.34	18.10	
2025-01-15 08:30:23.73	82.30	18.12	
2025-01-15 08:30:23.93	82.27	18.13	
2025-01-15 08:30:24.13	82.23	18.15	
2025-01-15 08:30:24.34	82.19	18.16	
2025-01-15 08:30:24.54	82.15	18.18	
2025-01-15 08:30:24.74	82.11	18.19	
2025-01-15 08:30:24.95	82.07	18.21	
2025-01-15 08:30:25.15	82.03	18.22	
2025-01-15 08:30:25.35	82.00	18.24	
2025-01-15 08:30:25.56	81.96	18.25	
2025-01-15 08:30:25.76	81.92	18.26	
2025-01-15 08:30:25.96	81.88	18.28	
2025-01-15 08:30:26.16	81.84	18.29	
2025-01-15 08:30:26.37	81.80	18.31	
2025-01-15 08:30:26.57	81.76	18.32	
2025-01-15 08:30:26.77	81.72	18.34	
2025-01-15 08:30:26.98	81.68	18.35	
2025-01-15 08:30:27.18	81.64	18.37	
2025-01-15 08:30:27.38	81.61	18.38	
2025-01-15 08:30:27.59	81.57	18.40	
2025-01-15 08:30:27.79	81.53	18.41	
2025-01-15 08:30:27.99	81.49	18.42	
2025-01-15 08:30:28.20	81.45	18.44	
2025-01-15 08:30:28.40	81.41	18.45	
2025-01-15 08:30:28.60	81.37	18.47	
2025-01-15 08:30:28.81	81.33	18.48	
2025-01-15 08:30:29.01	81.29	18.50	
2025-01-15 08:30:29.21	81.25	18.51	
2025-01-15 08:30:29.42	81.21	18.53	
2025-01-15 08:30:29.62	81.17	18.54	
2025-01-15 08:30:29.82	81.13	18.55	
2025-01-15 08:30:30.02	81.09	18.57	
2025-01-15 08:30:30.23	81.05	18.58	
2025-01-15 08:30:30.43	81.01	18.60	
2025-01-15 08:30:30.63	80.97	18.61	
2025-01-15 08:30:30.84	80.93	18.63	
2025-01-15 08:30:31.04	80.89	18.64	
2025-01-15 08:30:31.24	80.85	18.66	
2025-01-15 08:30:31.45	80.81	18.67	
2025-01-15 08:30:31.65	80.77	18.68	
2025-01-15 08:30:31.85	80.73	18.70	
2025-01-15 08:30:32.06	80.69	18.71	
2025-01-15 08:30:32.26	80.65	18.73	
2025-01-15 08:30:32.46	80.61	18.74	
2025-01-15 08:30:32.67	80.57	18.76	
2025-01-15 08:30:32.87	80.53	18.77	
2025-01-15 08:30:33.07	80.49	18.79	
2025-01-15 08:30:33.27	80.45	18.80	
2025-01-15 08:30:33.48	80.41	18.81	
2025-01-15 08:30:33.68	80.37	18.83	
2025-01-15 08:30:33.88	80.33	18.84	
2025-01-15 08:30:34.09	80.29	18.86	
2025-01-15 08:30:34.29	80.25	18.87	
2025-01-15 08:30:34.49	80.21	18.89	
2025-01-15 08:30:34.70	80.17	18.90	
2025-01-15 08:30:34.90	80.13	18.91	
2025-01-15 08:30:35.10	80.09	18.93	
2025-01-15 08:30:35.31	80.05	18.94	
2025-01-15 08:30:35.51	80.01	18.96	
2025-01-15 08:30:35.71	79.96	18.97	
2025-01-15 08:30:35.92	79.92	18.99	
2025-01-15 08:30:36.12	79.88	19.00	
2025-01-15 08:30:36.32	79.84	19.01	
2025-01-15 08:30:36.52	79.80	19.03	
2025-01-15 08:30:36.73	79.76	19.04	
2025-01-15 08:30:36.93	79.72	19.06	
2025-01-15 08:30:37.13	79.68	19.07	
2025-01-15 08:30:37.34	79.64	19.09	
2025-01-15 08:30:37.54	79.60	19.10	
2025-01-15 08:30:37.74	79.56	19.11	
2025-01-15 08:30:37.95	79.51	19.13	
2025-01-15 08:30:38.15	79.47	19.14	
2025-01-15 08:30:38.35	79.43	19.16	
2025-01-15 08:30:38.56	79.39	19.17	
2025-01-15 08:30:38.76	79.35	19.18	
2025-01-15 08:30:38.96	79.31	19.20	
2025-01-15 08:30:39.17	79.26	19.21	
2025-01-15 08:30:39.37	79.22	19.23	
2025-01-15 08:30:39.57	79.18	19.24	
2025-01-15 08:30:39.78	79.14	19.26	
2025-01-15 08:30:39.98	79.10	19.27	
2025-01-15 08:30:40.18	79.06	19.28	
2025-01-15 08:30:40.38	79.02	19.30	
2025-01-15 08:30:40.59	78.97	19.31	
2025-01-15 08:30:40.79	78.93	19.33	
2025-01-15 08:30:40.99	78.89	19.34	
2025-01-15 08:30:41.20	78.85	19.35	
2025-01-15 08:30:41.40	78.81	19.37	
2025-01-15 08:30:41.60	78.77	19.38	
2025-01-15 08:30:41.81	78.72	19.40	
2025-01-15 08:30:42.01	78.68	19.41	
2025-01-15 08:30:42.21	78.64	19.42	
2025-01-15 08:30:42.42	78.60	19.44	
2025-01-15 08:30:42.62	78.55	19.45	
2025-01-15 08:30:42.82	78.51	19.47	
2025-01-15 08:30:43.03	78.47	19.48	
2025-01-15 08:30:43.23	78.43	19.49	
2025-01-15 08:30:43.43	78.39	19.51	
2025-01-15 08:30:43.63	78.34	19.52	
2025-01-15 08:30:43.84	78.30	19.54	
2025-01-15 08:30:44.04	78.26	19.55	
2025-01-15 08:30:44.24	78.22	19.56	
2025-01-15 08:30:44.45	78.17	19.58	
2025-01-15 08:30:44.65	78.13	19.59	
2025-01-15 08:30:44.85	78.09	19.61	
2025-01-15 08:30:45.06	78.05	19.62	
2025-01-15 08:30:45.26	78.00	19.63	
2025-01-15 08:30:45.46	77.96	19.65	
2025-01-15 08:30:45.67	77.92	19.66	
2025-01-15 08:30:45.87	77.88	19.67	
2025-01-15 08:30:46.07	77.83	19.69	
2025-01-15 08:30:46.28	77.79	19.70	
2025-01-15 08:30:46.48	77.75	19.72	
2025-01-15 08:30:46.68	77.71	19.73	
2025-01-15 08:30:46.88	77.66	19.74	
2025-01-15 08:30:47.09	77.62	19.76	
2025-01-15 08:30:47.29	77.58	19.77	
2025-01-15 08:30:47.49	77.53	19.79	
2025-01-15 08:30:47.70	77.49	19.80	
2025-01-15 08:30:47.90	77.45	19.81	
2025-01-15 08:30:48.10	77.40	19.83	
2025-01-15 08:30:48.31	77.36	19.84	
2025-01-15 08:30:48.51	77.32	19.85	
2025-01-15 08:30:48.71	77.27	19.87	
2025-01-15 08:30:48.92	77.23	19.88	
2025-01-15 08:30:49.12	77.19	19.90	
2025-01-15 08:30:49.32	77.14	19.91	
2025-01-15 08:30:49.53	77.10	19.92	
2025-01-15 08:30:49.73	77.06	19.94	
2025-01-15 08:30:49.93	77.01	19.95	
2025-01-15 08:30:50.14	76.97	19.96	
2025-01-15 08:30:50.34	76.93	19.98	
2025-01-15 08:30:50.54	76.88	19.99	
2025-01-15 08:30:50.74	76.84	20.00	
2025-01-15 08:30:50.95	76.79	20.02	
2025-01-15 08:30:51.15	76.75	20.03	
2025-01-15 08:30:51.35	76.71	20.05	
2025-01-15 08:30:51.56	76.66	20.06	
2025-01-15 08:30:51.76	76.62	20.07	
2025-01-15 08:30:51.96	76.58	20.09	
2025-01-15 08:30:52.17	76.53	20.10	
2025-01-15 08:30:52.37	76.49	20.11	
2025-01-15 08:30:52.57	76.44	20.13	
2025-01-15 08:30:52.78	76.40	20.14	
2025-01-15 08:30:52.98	76.36	20.15	
2025-01-15 08:30:53.18	76.31	20.17	
2025-01-15 08:30:53.39	76.27	20.18	
2025-01-15 08:30:53.59	76.22	20.19	
2025-01-15 08:30:53.79	76.18	20.21	
2025-01-15 08:30:53.99	76.14	20.22	
2025-01-15 08:30:54.20	76.09	20.24	
2025-01-15 08:30:54.40	76.05	20.25	
2025-01-15 08:30:54.60	76.00	20.26	
2025-01-15 08:30:54.81	75.96	20.28	
2025-01-15 08:30:55.01	75.91	20.29	
2025-01-15 08:30:55.21	75.87	20.30	
2025-01-15 08:30:55.42	75.82	20.32	
2025-01-15 08:30:55.62	75.78	20.33	
2025-01-15 08:30:55.82	75.74	20.34	
2025-01-15 08:30:56.03	75.69	20.36	
2025-01-15 08:30:56.23	75.65	20.37	
2025-01-15 08:30:56.43	75.60	20.38	
2025-01-15 08:30:56.64	75.55	20.40	
2025-01-15 08:30:56.84	75.51	20.41	
2025-01-15 08:30:57.04	75.47	20.42	
2025-01-15 08:30:57.24	75.42	20.44	
2025-01-15 08:30:57.45	75.38	20.45	
2025-01-15 08:30:57.65	75.33	20.46	
2025-01-15 08:30:57.85	75.29	20.48	
2025-01-15 08:30:58.06	75.24	20.49	
2025-01-15 08:30:58.26	75.20	20.50	
2025-01-15 08:30:58.46	75.15	20.52	
2025-01-15 08:30:58.67	75.11	20.53	
2025-01-15 08:30:58.87	75.06	20.54	
2025-01-15 08:30:59.07	75.02	20.55	
2025-01-15 08:30:59.28	74.97	20.57	
2025-01-15 08:30:59.48	74.92	20.58	
2025-01-15 08:30:59.68	74.88	20.59	
2025-01-15 08:30:59.89	74.83	20.61	
2025-01-15 08:31:00.09	74.79	20.62	
2025-01-15 08:31:00.29	74.74	20.63	
2025-01-15 08:31:00.50	74.70	20.65	
2025-01-15 08:31:00.70	74.65	20.66	
2025-01-15 08:31:00.90	74.61	20.67	
2025-01-15 08:31:01.10	74.56	20.69	
2025-01-15 08:31:01.31	74.51	20.70	
2025-01-15 08:31:01.51	74.47	20.71	
2025-01-15 08:31:01.71	74.42	20.73	
2025-01-15 08:31:01.92	74.38	20.74	
2025-01-15 08:31:02.12	74.33	20.75	
2025-01-15 08:31:02.32	74.29	20.76	
2025-01-15 08:31:02.53	74.24	20.78	
2025-01-15 08:31:02.73	74.19	20.79	
2025-01-15 08:31:02.93	74.15	20.80	
2025-01-15 08:31:03.14	74.10	20.82	
2025-01-15 08:31:03.34	74.06	20.83	
2025-01-15 08:31:03.54	74.01	20.84	
2025-01-15 08:31:03.75	73.96	20.86	
2025-01-15 08:31:03.95	73.92	20.87	
2025-01-15 08:31:04.15	73.87	20.88	
2025-01-15 08:31:04.35	73.83	20.89	
2025-01-15 08:31:04.56	73.78	20.91	
2025-01-15 08:31:04.76	73.73	20.92	
2025-01-15 08:31:04.96	73.69	20.93	
2025-01-15 08:31:05.17	73.64	20.95	
2025-01-15 08:31:05.37	73.59	20.96	
2025-01-15 08:31:05.57	73.55	20.97	
2025-01-15 08:31:05.78	73.50	20.98	
2025-01-15 08:31:05.98	73.45	21.00	
2025-01-15 08:31:06.18	73.41	21.01	
2025-01-15 08:31:06.39	73.36	21.02	
2025-01-15 08:31:06.59	73.31	21.03	
2025-01-15 08:31:06.79	73.27	21.05	
2025-01-15 08:31:07.00	73.22	21.06	
2025-01-15 08:31:07.20	73.17	21.07	
2025-01-15 08:31:07.40	73.13	21.08	
2025-01-15 08:31:07.60	73.08	21.10	
2025-01-15 08:31:07.81	73.03	21.11	
2025-01-15 08:31:08.01	72.99	21.12	
2025-01-15 08:31:08.21	72.94	21.14	
2025-01-15 08:31:08.42	72.89	21.15	
2025-01-15 08:31:08.62	72.84	21.16	
2025-01-15 08:31:08.82	72.80	21.17	
2025-01-15 08:31:09.03	72.75	21.19	
2025-01-15 08:31:09.23	72.70	21.20	
2025-01-15 08:31:09.43	72.66	21.21	
2025-01-15 08:31:09.64	72.61	21.22	
2025-01-15 08:31:09.84	72.56	21.24	
2025-01-15 08:31:10.04	72.51	21.25	
2025-01-15 08:31:10.25	72.47	21.26	
2025-01-15 08:31:10.45	72.42	21.27	
2025-01-15 08:31:10.65	72.37	21.29	
2025-01-15 08:31:10.86	72.32	21.30	
2025-01-15 08:31:11.06	72.28	21.31	
2025-01-15 08:31:11.26	72.23	21.32	
2025-01-15 08:31:11.46	72.18	21.33	
2025-01-15 08:31:11.67	72.13	21.35	
2025-01-15 08:31:11.87	72.09	21.36	
2025-01-15 08:31:12.07	72.04	21.37	
2025-01-15 08:31:12.28	71.99	21.38	
2025-01-15 08:31:12.48	71.94	21.40	
2025-01-15 08:31:12.68	71.90	21.41	
2025-01-15 08:31:12.89	71.85	21.42	
2025-01-15 08:31:13.09	71.80	21.43	
2025-01-15 08:31:13.29	71.75	21.45	
2025-01-15 08:31:13.50	71.70	21.46	
2025-01-15 08:31:13.70	71.65	21.47	
2025-01-15 08:31:13.90	71.61	21.48	
2025-01-15 08:31:14.11	71.56	21.49	
2025-01-15 08:31:14.31	71.51	21.51	
2025-01-15 08:31:14.51	71.46	21.52	
2025-01-15 08:31:14.71	71.42	21.53	
2025-01-15 08:31:14.92	71.37	21.54	
2025-01-15 08:31:15.12	71.32	21.56	
2025-01-15 08:31:15.32	71.27	21.57	
2025-01-15 08:31:15.53	71.22	21.58	
2025-01-15 08:31:15.73	71.17	21.59	
2025-01-15 08:31:15.93	71.12	21.60	
2025-01-15 08:31:16.14	71.07	21.62	
2025-01-15 08:31:16.34	71.03	21.63	
2025-01-15 08:31:16.54	70.98	21.64	
2025-01-15 08:31:16.75	70.93	21.65	
2025-01-15 08:31:16.95	70.88	21.66	
2025-01-15 08:31:17.15	70.83	21.68	
2025-01-15 08:31:17.36	70.78	21.69	
2025-01-15 08:31:17.56	70.73	21.70	
2025-01-15 08:31:17.76	70.69	21.71	
2025-01-15 08:31:17.96	70.64	21.72	
2025-01-15 08:31:18.17	70.59	21.73	
2025-01-15 08:31:18.37	70.54	21.75	
2025-01-15 08:31:18.57	70.49	21.76	
2025-01-15 08:31:18.78	70.44	21.77	
2025-01-15 08:31:18.98	70.39	21.78	
2025-01-15 08:31:19.18	70.34	21.79	
2025-01-15 08:31:19.39	70.29	21.81	
2025-01-15 08:31:19.59	70.25	21.82	
2025-01-15 08:31:19.79	70.20	21.83	
2025-01-15 08:31:20.00	70.15	21.84	
2025-01-15 08:31:20.20	70.10	21.85	
2025-01-15 08:31:20.40	70.05	21.86	
2025-01-15 08:31:20.61	70.00	21.88	
2025-01-15 08:31:20.81	69.95	21.89	
2025-01-15 08:31:21.01	69.90	21.90	
2025-01-15 08:31:21.22	69.85	21.91	
2025-01-15 08:31:21.42	69.80	21.92	
2025-01-15 08:31:21.62	69.75	21.93	
2025-01-15 08:31:21.82	69.70	21.94	
2025-01-15 08:31:22.03	69.65	21.96	
2025-01-15 08:31:22.23	69.60	21.97	
2025-01-15 08:31:22.43	69.55	21.98	
2025-01-15 08:31:22.64	69.50	21.99	
2025-01-15 08:31:22.84	69.45	22.00	
2025-01-15 08:31:23.04	69.40	22.01	
2025-01-15 08:31:23.25	69.35	22.03	
2025-01-15 08:31:23.45	69.30	22.04	
2025-01-15 08:31:23.65	69.26	22.05	
2025-01-15 08:31:23.86	69.20	22.06	
2025-01-15 08:31:24.06	69.15	22.07	
2025-01-15 08:31:24.26	69.11	22.08	
2025-01-15 08:31:24.47	69.05	22.09	
2025-01-15 08:31:24.67	69.00	22.10	
2025-01-15 08:31:24.87	68.95	22.12	
2025-01-15 08:31:25.07	68.91	22.13	
2025-01-15 08:31:25.28	68.85	22.14	
2025-01-15 08:31:25.48	68.80	22.15	
2025-01-15 08:31:25.68	68.75	22.16	
2025-01-15 08:31:25.89	68.70	22.17	
2025-01-15 08:31:26.09	68.65	22.18	
2025-01-15 08:31:26.29	68.60	22.19	
2025-01-15 08:31:26.50	68.55	22.21	
2025-01-15 08:31:26.70	68.50	22.22	
2025-01-15 08:31:26.90	68.45	22.23	
2025-01-15 08:31:27.11	68.40	22.24	
2025-01-15 08:31:27.31	68.35	22.25	
2025-01-15 08:31:27.51	68.30	22.26	
2025-01-15 08:31:27.72	68.25	22.27	
2025-01-15 08:31:27.92	68.20	22.28	
2025-01-15 08:31:28.12	68.15	22.29	
2025-01-15 08:31:28.32	68.10	22.30	
2025-01-15 08:31:28.53	68.05	22.32	
2025-01-15 08:31:28.73	68.00	22.33	
2025-01-15 08:31:28.93	67.95	22.34	
2025-01-15 08:31:29.14	67.89	22.35	
2025-01-15 08:31:29.34	67.84	22.36	
2025-01-15 08:31:29.54	67.79	22.37	
2025-01-15 08:31:29.75	67.74	22.38	
2025-01-15 08:31:29.95	67.69	22.39	
2025-01-15 08:31:30.15	67.64	22.40	
2025-01-15 08:31:30.36	67.59	22.41	
2025-01-15 08:31:30.56	67.54	22.42	
2025-01-15 08:31:30.76	67.49	22.43	
2025-01-15 08:31:30.97	67.43	22.45	
2025-01-15 08:31:31.17	67.38	22.46	
2025-01-15 08:31:31.37	67.33	22.47	
2025-01-15 08:31:31.58	67.28	22.48	
2025-01-15 08:31:31.78	67.23	22.49	
2025-01-15 08:31:31.98	67.18	22.50	
2025-01-15 08:31:32.18	67.13	22.51	
2025-01-15 08:31:32.39	67.08	22.52	
2025-01-15 08:31:32.59	67.02	22.53	
2025-01-15 08:31:32.79	66.97	22.54	
2025-01-15 08:31:33.00	66.92	22.55	
2025-01-15 08:31:33.20	66.87	22.56	
2025-01-15 08:31:33.40	66.82	22.57	
2025-01-15 08:31:33.61	66.77	22.58	
2025-01-15 08:31:33.81	66.71	22.59	
2025-01-15 08:31:34.01	66.66	22.60	
2025-01-15 08:31:34.22	66.61	22.61	
2025-01-15 08:31:34.42	66.56	22.62	
2025-01-15 08:31:34.62	66.51	22.63	
2025-01-15 08:31:34.83	66.45	22.64	
2025-01-15 08:31:35.03	66.40	22.65	
2025-01-15 08:31:35.23	66.35	22.66	
2025-01-15 08:31:35.43	66.30	22.68	
2025-01-15 08:31:35.64	66.25	22.69	
2025-01-15 08:31:35.84	66.20	22.70	
2025-01-15 08:31:36.04	66.15	22.71	
2025-01-15 08:31:36.25	66.09	22.72	
2025-01-15 08:31:36.45	66.04	22.73	
2025-01-15 08:31:36.65	65.99	22.74	
2025-01-15 08:31:36.86	65.93	22.75	
2025-01-15 08:31:37.06	65.88	22.76	
2025-01-15 08:31:37.26	65.83	22.77	
2025-01-15 08:31:37.47	65.78	22.78	
2025-01-15 08:31:37.67	65.73	22.79	
2025-01-15 08:31:37.87	65.68	22.80	
2025-01-15 08:31:38.08	65.62	22.81	
2025-01-15 08:31:38.28	65.57	22.82	
2025-01-15 08:31:38.48	65.52	22.83	
2025-01-15 08:31:38.68	65.47	22.84	
2025-01-15 08:31:38.89	65.41	22.85	
2025-01-15 08:31:39.09	65.36	22.86	
2025-01-15 08:31:39.29	65.31	22.87	
2025-01-15 08:31:39.50	65.25	22.88	
2025-01-15 08:31:39.70	65.20	22.89	
2025-01-15 08:31:39.90	65.15	22.89	
2025-01-15 08:31:40.11	65.10	22.90	
2025-01-15 08:31:40.31	65.04	22.91	
2025-01-15 08:31:40.51	64.99	22.92	
2025-01-15 08:31:40.72	64.94	22.93	
2025-01-15 08:31:40.92	64.89	22.94	
2025-01-15 08:31:41.12	64.83	22.95	
2025-01-15 08:31:41.33	64.78	22.96	
2025-01-15 08:31:41.53	64.73	22.97	
2025-01-15 08:31:41.73	64.67	22.98	
2025-01-15 08:31:41.94	64.62	22.99	
2025-01-15 08:31:42.14	64.57	23.00	
2025-01-15 08:31:42.34	64.51	23.01	
2025-01-15 08:31:42.54	64.46	23.02	
2025-01-15 08:31:42.75	64.41	23.03	
2025-01-15 08:31:42.95	64.36	23.04	
2025-01-15 08:31:43.15	64.30	23.05	
2025-01-15 08:31:43.36	64.25	23.06	
2025-01-15 08:31:43.56	64.20	23.07	
2025-01-15 08:31:43.76	64.14	23.08	
2025-01-15 08:31:43.97	64.09	23.09	
2025-01-15 08:31:44.17	64.04	23.09	
2025-01-15 08:31:44.37	63.98	23.10	
2025-01-15 08:31:44.58	63.93	23.11	
2025-01-15 08:31:44.78	63.88	23.12	
2025-01-15 08:31:44.98	63.82	23.13	
2025-01-15 08:31:45.19	63.77	23.14	
2025-01-15 08:31:45.39	63.71	23.15	
2025-01-15 08:31:45.59	63.66	23.16	
2025-01-15 08:31:45.79	63.61	23.17	
2025-01-15 08:31:46.00	63.55	23.18	
2025-01-15 08:31:46.20	63.50	23.19	
2025-01-15 08:31:46.40	63.45	23.20	
2025-01-15 08:31:46.61	63.39	23.20	
2025-01-15 08:31:46.81	63.34	23.21	
2025-01-15 08:31:47.01	63.29	23.22	
2025-01-15 08:31:47.22	63.23	23.23	
2025-01-15 08:31:47.42	63.18	23.24	
2025-01-15 08:31:47.62	63.12	23.25	
2025-01-15 08:31:47.83	63.07	23.26	
2025-01-15 08:31:48.03	63.02	23.27	
2025-01-15 08:31:48.23	62.96	23.28	
2025-01-15 08:31:48.44	62.91	23.28	
2025-01-15 08:31:48.64	62.85	23.29	
2025-01-15 08:31:48.84	62.80	23.30	
2025-01-15 08:31:49.04	62.75	23.31	
2025-01-15 08:31:49.25	62.69	23.32	
2025-01-15 08:31:49.45	62.64	23.33	
2025-01-15 08:31:49.65	62.58	23.34	
2025-01-15 08:31:49.86	62.53	23.34	
2025-01-15 08:31:50.06	62.47	23.35	
2025-01-15 08:31:50.26	62.42	23.36	
2025-01-15 08:31:50.47	62.37	23.37	
2025-01-15 08:31:50.67	62.31	23.38	
2025-01-15 08:31:50.87	62.26	23.39	
2025-01-15 08:31:51.08	62.20	23.40	
2025-01-15 08:31:51.28	62.15	23.40	
2025-01-15 08:31:51.48	62.09	23.41	
2025-01-15 08:31:51.69	62.04	23.42	
2025-01-15 08:31:51.89	61.98	23.43	
2025-01-15 08:31:52.09	61.93	23.44	
2025-01-15 08:31:52.30	61.87	23.45	
2025-01-15 08:31:52.50	61.82	23.45	
2025-01-15 08:31:52.70	61.77	23.46	
2025-01-15 08:31:52.90	61.71	23.47	
2025-01-15 08:31:53.11	61.66	23.48	
2025-01-15 08:31:53.31	61.60	23.49	
2025-01-15 08:31:53.51	61.55	23.50	
2025-01-15 08:31:53.72	61.49	23.50	
2025-01-15 08:31:53.92	61.44	23.51	
2025-01-15 08:31:54.12	61.38	23.52	
2025-01-15 08:31:54.33	61.33	23.53	
2025-01-15 08:31:54.53	61.27	23.54	
2025-01-15 08:31:54.73	61.22	23.54	
2025-01-15 08:31:54.94	61.16	23.55	
2025-01-15 08:31:55.14	61.11	23.56	
2025-01-15 08:31:55.34	61.05	23.57	
2025-01-15 08:31:55.55	61.00	23.58	
2025-01-15 08:31:55.75	60.94	23.58	
2025-01-15 08:31:55.95	60.89	23.59	
2025-01-15 08:31:56.15	60.84	23.60	
2025-01-15 08:31:56.36	60.78	23.61	
2025-01-15 08:31:56.56	60.72	23.61	
2025-01-15 08:31:56.76	60.67	23.62	
2025-01-15 08:31:56.97	60.61	23.63	
2025-01-15 08:31:57.17	60.56	23.64	
2025-01-15 08:31:57.37	60.50	23.65	
2025-01-15 08:31:57.58	60.45	23.65	
2025-01-15 08:31:57.78	60.39	23.66	
2025-01-15 08:31:57.98	60.34	23.67	
2025-01-15 08:31:58.19	60.28	23.68	
2025-01-15 08:31:58.39	60.23	23.68	
2025-01-15 08:31:58.59	60.17	23.69	
2025-01-15 08:31:58.80	60.11	23.70	
2025-01-15 08:31:59.00	60.06	23.71	
2025-01-15 08:31:59.20	60.00	23.71	
2025-01-15 08:31:59.40	59.95	23.72	
2025-01-15 08:31:59.61	59.89	23.73	
2025-01-15 08:31:59.81	59.84	23.74	
2025-01-15 08:32:00.01	59.78	23.74	
2025-01-15 08:32:00.23	59.72	23.75	
2025-01-15 08:32:00.44	59.67	23.76	
2025-01-15 08:32:00.64	59.61	23.76	
2025-01-15 08:32:00.84	59.56	23.77	
2025-01-15 08:32:01.05	59.50	23.78	
2025-01-15 08:32:01.25	59.44	23.79	
2025-01-15 08:32:01.45	59.39	23.79	
2025-01-15 08:32:01.66	59.33	23.80	
2025-01-15 08:32:01.86	59.28	23.81	
2025-01-15 08:32:02.06	59.22	23.81	
2025-01-15 08:32:02.26	59.17	23.82	
2025-01-15 08:32:02.47	59.11	23.83	
2025-01-15 08:32:02.67	59.05	23.84	
2025-01-15 08:32:02.87	59.00	23.84	
2025-01-15 08:32:03.08	58.94	23.85	
2025-01-15 08:32:03.28	58.88	23.86	
2025-01-15 08:32:03.48	58.83	23.86	
2025-01-15 08:32:03.69	58.77	23.87	
2025-01-15 08:32:03.89	58.72	23.88	
2025-01-15 08:32:04.09	58.66	23.88	
2025-01-15 08:32:04.30	58.60	23.89	
2025-01-15 08:32:04.50	58.55	23.90	
2025-01-15 08:32:04.70	58.49	23.90	
2025-01-15 08:32:04.91	58.43	23.91	
2025-01-15 08:32:05.11	58.38	23.92	
2025-01-15 08:32:05.31	58.32	23.92	
2025-01-15 08:32:05.51	58.27	23.93	
2025-01-15 08:32:05.72	58.21	23.94	
2025-01-15 08:32:05.92	58.15	23.94	
2025-01-15 08:32:06.12	58.10	23.95	
2025-01-15 08:32:06.33	58.04	23.96	
2025-01-15 08:32:06.53	57.98	23.96	
2025-01-15 08:32:06.73	57.93	23.97	
2025-01-15 08:32:06.94	57.87	23.97	
2025-01-15 08:32:07.14	57.82	23.98	
2025-01-15 08:32:07.34	57.76	23.99	
2025-01-15 08:32:07.55	57.70	23.99	
2025-01-15 08:32:07.75	57.65	24.00	
2025-01-15 08:32:07.95	57.59	24.01	
2025-01-15 08:32:08.16	57.53	24.01	
2025-01-15 08:32:08.36	57.48	24.02	
2025-01-15 08:32:08.56	57.42	24.02	
2025-01-15 08:32:08.76	57.36	24.03	
2025-01-15 08:32:08.97	57.31	24.04	
2025-01-15 08:32:09.17	57.25	24.04	
2025-01-15 08:32:09.37	57.19	24.05	
2025-01-15 08:32:09.58	57.14	24.05	
2025-01-15 08:32:09.78	57.08	24.06	
2025-01-15 08:32:09.98	57.02	24.07	
2025-01-15 08:32:10.19	56.96	24.07	
2025-01-15 08:32:10.39	56.91	24.08	
2025-01-15 08:32:10.59	56.85	24.08	
2025-01-15 08:32:10.80	56.79	24.09	
2025-01-15 08:32:11.00	56.74	24.10	
2025-01-15 08:32:11.20	56.68	24.10	
2025-01-15 08:32:11.41	56.62	24.11	
2025-01-15 08:32:11.61	56.57	24.11	
2025-01-15 08:32:11.81	56.51	24.12	
2025-01-15 08:32:12.02	56.45	24.12	
2025-01-15 08:32:12.22	56.40	24.13	
2025-01-15 08:32:12.42	56.34	24.14	
2025-01-15 08:32:12.62	56.28	24.14	
2025-01-15 08:32:12.83	56.22	24.15	
2025-01-15 08:32:13.03	56.17	24.15	
2025-01-15 08:32:13.23	56.11	24.16	
2025-01-15 08:32:13.44	56.05	24.16	
2025-01-15 08:32:13.64	56.00	24.17	
2025-01-15 08:32:13.84	55.94	24.17	
2025-01-15 08:32:14.05	55.88	24.18	
2025-01-15 08:32:14.25	55.83	24.18	
2025-01-15 08:32:14.45	55.77	24.19	
2025-01-15 08:32:14.66	55.71	24.19	
2025-01-15 08:32:14.86	55.65	24.20	
2025-01-15 08:32:15.06	55.60	24.21	
2025-01-15 08:32:15.27	55.54	24.21	
2025-01-15 08:32:15.47	55.48	24.22	
2025-01-15 08:32:15.67	55.42	24.22	
2025-01-15 08:32:15.87	55.37	24.23	
2025-01-15 08:32:16.08	55.31	24.23	
2025-01-15 08:32:16.28	55.25	24.24	
2025-01-15 08:32:16.48	55.20	24.24	
2025-01-15 08:32:16.69	55.14	24.25	
2025-01-15 08:32:16.89	55.08	24.25	
2025-01-15 08:32:17.09	55.02	24.26	
2025-01-15 08:32:17.30	54.96	24.26	
2025-01-15 08:32:17.50	54.91	24.26	
2025-01-15 08:32:17.70	54.85	24.27	
2025-01-15 08:32:17.91	54.79	24.27	
2025-01-15 08:32:18.11	54.73	24.28	
2025-01-15 08:32:18.31	54.68	24.28	
2025-01-15 08:32:18.52	54.62	24.29	
2025-01-15 08:32:18.72	54.56	24.29	
2025-01-15 08:32:18.92	54.51	24.30	
2025-01-15 08:32:19.12	54.45	24.30	
2025-01-15 08:32:19.33	54.39	24.31	
2025-01-15 08:32:19.53	54.33	24.31	
2025-01-15 08:32:19.73	54.28	24.32	
2025-01-15 08:32:19.94	54.22	24.32	
2025-01-15 08:32:20.14	54.16	24.32	
2025-01-15 08:32:20.34	54.10	24.33	
2025-01-15 08:32:20.55	54.04	24.33	
2025-01-15 08:32:20.75	53.99	24.34	
2025-01-15 08:32:20.95	53.93	24.34	
2025-01-15 08:32:21.16	53.87	24.35	
2025-01-15 08:32:21.36	53.81	24.35	
2025-01-15 08:32:21.56	53.75	24.35	
2025-01-15 08:32:21.77	53.70	24.36	
2025-01-15 08:32:21.97	53.64	24.36	
2025-01-15 08:32:22.17	53.58	24.37	
2025-01-15 08:32:22.38	53.52	24.37	
2025-01-15 08:32:22.58	53.46	24.38	
2025-01-15 08:32:22.78	53.41	24.38	
2025-01-15 08:32:22.98	53.35	24.38	
2025-01-15 08:32:23.19	53.29	24.39	
2025-01-15 08:32:23.39	53.23	24.39	
2025-01-15 08:32:23.59	53.18	24.40	
2025-01-15 08:32:23.80	53.12	24.40	
2025-01-15 08:32:24.00	53.06	24.40	
2025-01-15 08:32:24.20	53.00	24.41	
2025-01-15 08:32:24.41	52.94	24.41	
2025-01-15 08:32:24.61	52.88	24.41	
2025-01-15 08:32:24.81	52.83	24.42	
2025-01-15 08:32:25.02	52.77	24.42	
2025-01-15 08:32:25.22	52.71	24.43	
2025-01-15 08:32:25.42	52.65	24.43	
2025-01-15 08:32:25.63	52.59	24.43	
2025-01-15 08:32:25.83	52.54	24.44	
2025-01-15 08:32:26.03	52.48	24.44	
2025-01-15 08:32:26.23	52.42	24.44	
2025-01-15 08:32:26.44	52.36	24.45	
2025-01-15 08:32:26.64	52.30	24.45	
2025-01-15 08:32:26.84	52.25	24.45	
2025-01-15 08:32:27.05	52.19	24.46	
2025-01-15 08:32:27.25	52.13	24.46	
2025-01-15 08:32:27.45	52.07	24.46	
2025-01-15 08:32:27.66	52.01	24.47	
2025-01-15 08:32:27.86	51.95	24.47	
2025-01-15 08:32:28.06	51.90	24.47	
2025-01-15 08:32:28.27	51.84	24.48	
2025-01-15 08:32:28.47	51.78	24.48	
2025-01-15 08:32:28.67	51.72	24.48	
2025-01-15 08:32:28.88	51.66	24.49	
2025-01-15 08:32:29.08	51.60	24.49	
2025-01-15 08:32:29.28	51.55	24.49	
2025-01-15 08:32:29.48	51.49	24.49	
2025-01-15 08:32:29.69	51.43	24.50	
2025-01-15 08:32:29.89	51.37	24.50	
2025-01-15 08:32:30.09	51.31	24.50	
2025-01-15 08:32:30.30	51.25	24.51	
2025-01-15 08:32:30.50	51.20	24.51	
2025-01-15 08:32:30.70	51.14	24.51	
2025-01-15 08:32:30.91	51.08	24.51	
2025-01-15 08:32:31.11	51.02	24.52	
2025-01-15 08:32:31.31	50.96	24.52	
2025-01-15 08:32:31.52	50.90	24.52	
2025-01-15 08:32:31.72	50.85	24.53	
2025-01-15 08:32:31.92	50.79	24.53	
2025-01-15 08:32:32.13	50.73	24.53	
2025-01-15 08:32:32.33	50.67	24.53	
2025-01-15 08:32:32.53	50.61	24.54	
2025-01-15 08:32:32.74	50.55	24.54	
2025-01-15 08:32:32.94	50.49	24.54	
2025-01-15 08:32:33.14	50.44	24.54	
2025-01-15 08:32:33.34	50.38	24.54	
2025-01-15 08:32:33.55	50.32	24.55	
2025-01-15 08:32:33.75	50.26	24.55	
2025-01-15 08:32:33.95	50.20	24.55	
2025-01-15 08:32:34.16	50.14	24.55	
2025-01-15 08:32:34.36	50.09	24.56	
2025-01-15 08:32:34.56	50.03	24.56	
2025-01-15 08:32:34.77	49.97	24.56	
2025-01-15 08:32:34.97	49.91	24.56	
2025-01-15 08:32:35.17	49.85	24.56	
2025-01-15 08:32:35.38	49.79	24.57	
2025-01-15 08:32:35.58	49.73	24.57	
2025-01-15 08:32:35.78	49.68	24.57	
2025-01-15 08:32:35.99	49.62	24.57	
2025-01-15 08:32:36.19	49.56	24.57	
2025-01-15 08:32:36.39	49.50	24.58	
2025-01-15 08:32:36.59	49.44	24.58	
2025-01-15 08:32:36.80	49.38	24.58	
2025-01-15 08:32:37.00	49.32	24.58	
2025-01-15 08:32:37.20	49.27	24.58	
2025-01-15 08:32:37.41	49.21	24.59	
2025-01-15 08:32:37.61	49.15	24.59	
2025-01-15 08:32:37.81	49.09	24.59	
2025-01-15 08:32:38.02	49.03	24.59	
2025-01-15 08:32:38.22	48.97	24.59	
2025-01-15 08:32:38.42	48.91	24.59	
2025-01-15 08:32:38.63	48.85	24.59	
2025-01-15 08:32:38.83	48.79	24.60	
2025-01-15 08:32:39.03	48.74	24.60	
2025-01-15 08:32:39.24	48.68	24.60	
2025-01-15 08:32:39.44	48.62	24.60	
2025-01-15 08:32:39.64	48.56	24.60	
2025-01-15 08:32:39.84	48.50	24.60	
2025-01-15 08:32:40.05	48.44	24.60	
2025-01-15 08:32:40.25	48.38	24.61	
2025-01-15 08:32:40.45	48.33	24.61	
2025-01-15 08:32:40.66	48.27	24.61	
2025-01-15 08:32:40.86	48.21	24.61	
2025-01-15 08:32:41.06	48.15	24.61	
2025-01-15 08:32:41.27	48.09	24.61	
2025-01-15 08:32:41.47	48.03	24.61	
2025-01-15 08:32:41.67	47.97	24.61	
2025-01-15 08:32:41.88	47.91	24.61	
2025-01-15 08:32:42.08	47.85	24.62	
2025-01-15 08:32:42.28	47.80	24.62	
2025-01-15 08:32:42.49	47.74	24.62	
2025-01-15 08:32:42.69	47.68	24.62	
2025-01-15 08:32:42.89	47.62	24.62	
2025-01-15 08:32:43.10	47.56	24.62	
2025-01-15 08:32:43.30	47.50	24.62	
2025-01-15 08:32:43.50	47.44	24.62	
2025-01-15 08:32:43.70	47.39	24.62	
2025-01-15 08:32:43.91	47.33	24.62	
2025-01-15 08:32:44.11	47.27	24.62	
2025-01-15 08:32:44.31	47.21	24.62	
2025-01-15 08:32:44.52	47.15	24.62	
2025-01-15 08:32:44.72	47.09	24.63	
2025-01-15 08:32:44.92	47.03	24.63	
2025-01-15 08:32:45.13	46.97	24.63	
2025-01-15 08:32:45.33	46.91	24.63	
2025-01-15 08:32:45.53	46.86	24.63	
2025-01-15 08:32:45.74	46.80	24.63	
2025-01-15 08:32:45.94	46.74	24.63	
2025-01-15 08:32:46.14	46.68	24.63	
2025-01-15 08:32:46.35	46.62	24.63	
2025-01-15 08:32:46.55	46.56	24.63	
2025-01-15 08:32:46.75	46.50	24.63	
2025-01-15 08:32:46.95	46.44	24.63	
2025-01-15 08:32:47.16	46.38	24.63	
2025-01-15 08:32:47.36	46.33	24.63	
2025-01-15 08:32:47.56	46.27	24.63	
2025-01-15 08:32:47.77	46.21	24.63	
2025-01-15 08:32:47.97	46.15	24.63	
2025-01-15 08:32:48.17	46.09	24.63	
2025-01-15 08:32:48.38	46.03	24.63	
2025-01-15 08:32:48.58	45.97	24.63	
2025-01-15 08:32:48.78	45.92	24.63	
2025-01-15 08:32:48.99	45.85	24.63	
2025-01-15 08:32:49.19	45.80	24.63	
2025-01-15 08:32:49.39	45.74	24.63	
2025-01-15 08:32:49.60	45.68	24.63	
2025-01-15 08:32:49.80	45.62	24.63	
2025-01-15 08:32:50.00	45.56	24.63	
2025-01-15 08:32:50.20	45.50	24.63	
2025-01-15 08:32:50.41	45.44	24.63	
2025-01-15 08:32:50.61	45.39	24.63	
2025-01-15 08:32:50.81	45.33	24.63	
2025-01-15 08:32:51.02	45.27	24.63	
2025-01-15 08:32:51.22	45.21	24.63	
2025-01-15 08:32:51.42	45.15	24.62	
2025-01-15 08:32:51.63	45.09	24.62	
2025-01-15 08:32:51.83	45.03	24.62	
2025-01-15 08:32:52.03	44.97	24.62	
2025-01-15 08:32:52.24	44.91	24.62	
2025-01-15 08:32:52.44	44.86	24.62	
2025-01-15 08:32:52.64	44.80	24.62	
2025-01-15 08:32:52.85	44.74	24.62	
2025-01-15 08:32:53.05	44.68	24.62	
2025-01-15 08:32:53.25	44.62	24.62	
2025-01-15 08:32:53.45	44.56	24.62	
2025-01-15 08:32:53.66	44.50	24.62	
2025-01-15 08:32:53.86	44.44	24.62	
2025-01-15 08:32:54.06	44.39	24.61	
2025-01-15 08:32:54.27	44.33	24.61	
2025-01-15 08:32:54.47	44.27	24.61	
2025-01-15 08:32:54.67	44.21	24.61	
2025-01-15 08:32:54.88	44.15	24.61	
2025-01-15 08:32:55.08	44.09	24.61	
2025-01-15 08:32:55.28	44.03	24.61	
2025-01-15 08:32:55.49	43.97	24.61	
2025-01-15 08:32:55.69	43.92	24.61	
2025-01-15 08:32:55.89	43.86	24.60	
2025-01-15 08:32:56.10	43.80	24.60	
2025-01-15 08:32:56.30	43.74	24.60	
2025-01-15 08:32:56.50	43.68	24.60	
2025-01-15 08:32:56.71	43.62	24.60	
2025-01-15 08:32:56.91	43.56	24.60	
2025-01-15 08:32:57.11	43.50	24.60	
2025-01-15 08:32:57.31	43.45	24.59	
2025-01-15 08:32:57.52	43.39	24.59	
2025-01-15 08:32:57.72	43.33	24.59	
2025-01-15 08:32:57.92	43.27	24.59	
2025-01-15 08:32:58.13	43.21	24.59	
2025-01-15 08:32:58.33	43.15	24.59	
2025-01-15 08:32:58.53	43.09	24.59	
2025-01-15 08:32:58.74	43.03	24.58	
2025-01-15 08:32:58.94	42.98	24.58	
2025-01-15 08:32:59.14	42.92	24.58	
2025-01-15 08:32:59.35	42.86	24.58	
2025-01-15 08:32:59.55	42.80	24.58	
2025-01-15 08:32:59.75	42.74	24.57	
2025-01-15 08:32:59.96	42.68	24.57	
2025-01-15 08:33:00.16	42.62	24.57	
2025-01-15 08:33:00.36	42.57	24.57	
2025-01-15 08:33:00.56	42.51	24.57	
2025-01-15 08:33:00.77	42.45	24.56	
2025-01-15 08:33:00.97	42.39	24.56	
2025-01-15 08:33:01.17	42.33	24.56	
2025-01-15 08:33:01.38	42.27	24.56	
2025-01-15 08:33:01.58	42.22	24.56	
2025-01-15 08:33:01.78	42.16	24.55	
2025-01-15 08:33:01.99	42.10	24.55	
2025-01-15 08:33:02.19	42.04	24.55	
2025-01-15 08:33:02.39	41.98	24.55	
2025-01-15 08:33:02.60	41.92	24.54	
2025-01-15 08:33:02.80	41.86	24.54	
2025-01-15 08:33:03.00	41.81	24.54	
2025-01-15 08:33:03.21	41.75	24.54	
2025-01-15 08:33:03.41	41.69	24.53	
2025-01-15 08:33:03.61	41.63	24.53	
2025-01-15 08:33:03.81	41.57	24.53	
2025-01-15 08:33:04.02	41.51	24.53	
2025-01-15 08:33:04.22	41.46	24.52	
2025-01-15 08:33:04.42	41.40	24.52	
2025-01-15 08:33:04.63	41.34	24.52	
2025-01-15 08:33:04.83	41.28	24.52	
2025-01-15 08:33:05.03	41.22	24.51	
2025-01-15 08:33:05.24	41.16	24.51	
2025-01-15 08:33:05.44	41.10	24.51	
2025-01-15 08:33:05.64	41.05	24.51	
2025-01-15 08:33:05.85	40.99	24.50	
2025-01-15 08:33:06.05	40.93	24.50	
2025-01-15 08:33:06.25	40.87	24.50	
2025-01-15 08:33:06.46	40.81	24.49	
2025-01-15 08:33:06.66	40.75	24.49	
2025-01-15 08:33:06.86	40.70	24.49	
2025-01-15 08:33:07.07	40.64	24.48	
2025-01-15 08:33:07.27	40.58	24.48	
2025-01-15 08:33:07.47	40.52	24.48	
2025-01-15 08:33:07.67	40.46	24.48	
2025-01-15 08:33:07.88	40.40	24.47	
2025-01-15 08:33:08.08	40.35	24.47	
2025-01-15 08:33:08.28	40.29	24.47	
2025-01-15 08:33:08.49	40.23	24.46	
2025-01-15 08:33:08.69	40.17	24.46	
2025-01-15 08:33:08.89	40.12	24.46	
2025-01-15 08:33:09.10	40.06	24.45	
2025-01-15 08:33:09.30	40.00	24.45	
2025-01-15 08:33:09.50	39.94	24.45	
2025-01-15 08:33:09.71	39.88	24.44	
2025-01-15 08:33:09.91	39.82	24.44	
2025-01-15 08:33:10.11	39.77	24.44	
2025-01-15 08:33:10.32	39.71	24.43	
2025-01-15 08:33:10.52	39.65	24.43	
2025-01-15 08:33:10.72	39.59	24.42	
2025-01-15 08:33:10.92	39.53	24.42	
2025-01-15 08:33:11.13	39.47	24.42	
2025-01-15 08:33:11.33	39.42	24.41	
2025-01-15 08:33:11.53	39.36	24.41	
2025-01-15 08:33:11.74	39.30	24.41	
2025-01-15 08:33:11.94	39.24	24.40	
2025-01-15 08:33:12.14	39.19	24.40	
2025-01-15 08:33:12.35	39.13	24.39	
2025-01-15 08:33:12.55	39.07	24.39	
2025-01-15 08:33:12.75	39.01	24.39	
2025-01-15 08:33:12.96	38.95	24.38	
2025-01-15 08:33:13.16	38.90	24.38	
2025-01-15 08:33:13.36	38.84	24.37	
2025-01-15 08:33:13.57	38.78	24.37	
2025-01-15 08:33:13.77	38.72	24.37	
2025-01-15 08:33:13.97	38.67	24.36	
2025-01-15 08:33:14.17	38.61	24.36	
2025-01-15 08:33:14.38	38.55	24.35	
2025-01-15 08:33:14.58	38.49	24.35	
2025-01-15 08:33:14.78	38.44	24.35	
2025-01-15 08:33:14.99	38.38	24.34	
2025-01-15 08:33:15.19	38.32	24.34	
2025-01-15 08:33:15.39	38.26	24.33	
2025-01-15 08:33:15.60	38.20	24.33	
2025-01-15 08:33:15.80	38.15	24.32	
2025-01-15 08:33:16.00	38.09	24.32	
2025-01-15 08:33:16.21	38.03	24.32	
2025-01-15 08:33:16.41	37.97	24.31	
2025-01-15 08:33:16.61	37.92	24.31	
2025-01-15 08:33:16.82	37.86	24.30	
2025-01-15 08:33:17.02	37.80	24.30	
2025-01-15 08:33:17.22	37.74	24.29	
2025-01-15 08:33:17.43	37.68	24.29	
2025-01-15 08:33:17.63	37.63	24.28	
2025-01-15 08:33:17.83	37.57	24.28	
2025-01-15 08:33:18.03	37.51	24.27	
2025-01-15 08:33:18.24	37.45	24.27	
2025-01-15 08:33:18.44	37.40	24.26	
2025-01-15 08:33:18.64	37.34	24.26	
2025-01-15 08:33:18.85	37.28	24.25	
2025-01-15 08:33:19.05	37.23	24.25	
2025-01-15 08:33:19.25	37.17	24.24	
2025-01-15 08:33:19.46	37.11	24.24	
2025-01-15 08:33:19.66	37.05	24.23	
2025-01-15 08:33:19.86	37.00	24.23	
2025-01-15 08:33:20.07	36.94	24.22	
2025-01-15 08:33:20.27	36.88	24.22	
2025-01-15 08:33:20.47	36.82	24.21	
2025-01-15 08:33:20.68	36.77	24.21	
2025-01-15 08:33:20.88	36.71	24.20	
2025-01-15 08:33:21.08	36.65	24.20	
2025-01-15 08:33:21.28	36.60	24.19	
2025-01-15 08:33:21.49	36.54	24.19	
2025-01-15 08:33:21.69	36.48	24.18	
2025-01-15 08:33:21.89	36.42	24.18	
2025-01-15 08:33:22.10	36.37	24.17	
2025-01-15 08:33:22.30	36.31	24.17	
2025-01-15 08:33:22.50	36.25	24.16	
2025-01-15 08:33:22.71	36.19	24.16	
2025-01-15 08:33:22.91	36.14	24.15	
2025-01-15 08:33:23.11	36.08	24.15	
2025-01-15 08:33:23.32	36.02	24.14	
2025-01-15 08:33:23.52	35.97	24.13	
2025-01-15 08:33:23.72	35.91	24.13	
2025-01-15 08:33:23.93	35.85	24.12	
2025-01-15 08:33:24.13	35.80	24.12	
2025-01-15 08:33:24.33	35.74	24.11	
2025-01-15 08:33:24.53	35.68	24.11	
2025-01-15 08:33:24.74	35.63	24.10	
2025-01-15 08:33:24.94	35.57	24.10	
2025-01-15 08:33:25.14	35.51	24.09	
2025-01-15 08:33:25.35	35.46	24.08	
2025-01-15 08:33:25.55	35.40	24.08	
2025-01-15 08:33:25.75	35.34	24.07	
2025-01-15 08:33:25.96	35.28	24.07	
2025-01-15 08:33:26.16	35.23	24.06	
2025-01-15 08:33:26.36	35.17	24.05	
2025-01-15 08:33:26.57	35.11	24.05	
2025-01-15 08:33:26.77	35.06	24.04	
2025-01-15 08:33:26.97	35.00	24.04	
2025-01-15 08:33:27.18	34.94	24.03	
2025-01-15 08:33:27.38	34.89	24.02	
2025-01-15 08:33:27.58	34.83	24.02	
2025-01-15 08:33:27.79	34.77	24.01	
2025-01-15 08:33:27.99	34.72	24.01	
2025-01-15 08:33:28.19	34.66	24.00	
2025-01-15 08:33:28.39	34.61	23.99	
2025-01-15 08:33:28.60	34.55	23.99	
2025-01-15 08:33:28.80	34.49	23.98	
2025-01-15 08:33:29.00	34.44	23.97	
2025-01-15 08:33:29.21	34.38	23.97	
2025-01-15 08:33:29.41	34.33	23.96	
2025-01-15 08:33:29.61	34.27	23.96	
2025-01-15 08:33:29.82	34.21	23.95	
2025-01-15 08:33:30.02	34.16	23.94	
2025-01-15 08:33:30.22	34.10	23.94	
2025-01-15 08:33:30.43	34.04	23.93	
2025-01-15 08:33:30.63	33.99	23.92	
2025-01-15 08:33:30.83	33.93	23.92	
2025-01-15 08:33:31.04	33.87	23.91	
2025-01-15 08:33:31.24	33.82	23.90	
2025-01-15 08:33:31.44	33.76	23.90	
2025-01-15 08:33:31.64	33.71	23.89	
2025-01-15 08:33:31.85	33.65	23.88	
2025-01-15 08:33:32.05	33.60	23.88	
2025-01-15 08:33:32.25	33.54	23.87	
2025-01-15 08:33:32.46	33.48	23.86	
2025-01-15 08:33:32.66	33.43	23.86	
2025-01-15 08:33:32.86	33.37	23.85	
2025-01-15 08:33:33.07	33.31	23.84	
2025-01-15 08:33:33.27	33.26	23.84	
2025-01-15 08:33:33.47	33.20	23.83	
2025-01-15 08:33:33.68	33.15	23.82	
2025-01-15 08:33:33.88	33.09	23.81	
2025-01-15 08:33:34.08	33.04	23.81	
2025-01-15 08:33:34.29	32.98	23.80	
2025-01-15 08:33:34.49	32.92	23.79	
2025-01-15 08:33:34.69	32.87	23.79	
2025-01-15 08:33:34.89	32.81	23.78	
2025-01-15 08:33:35.10	32.76	23.77	
2025-01-15 08:33:35.30	32.70	23.76	
2025-01-15 08:33:35.50	32.65	23.76	
2025-01-15 08:33:35.71	32.59	23.75	
2025-01-15 08:33:35.91	32.54	23.74	
2025-01-15 08:33:36.11	32.48	23.74	
2025-01-15 08:33:36.32	32.42	23.73	
2025-01-15 08:33:36.52	32.37	23.72	
2025-01-15 08:33:36.72	32.31	23.71	
2025-01-15 08:33:36.93	32.26	23.71	
2025-01-15 08:33:37.13	32.20	23.70	
2025-01-15 08:33:37.33	32.15	23.69	
2025-01-15 08:33:37.54	32.09	23.68	
2025-01-15 08:33:37.74	32.04	23.68	
2025-01-15 08:33:37.94	31.98	23.67	
2025-01-15 08:33:38.15	31.93	23.66	
2025-01-15 08:33:38.35	31.87	23.65	
2025-01-15 08:33:38.55	31.82	23.65	
2025-01-15 08:33:38.75	31.76	23.64	
2025-01-15 08:33:38.96	31.71	23.63	
2025-01-15 08:33:39.16	31.65	23.62	
2025-01-15 08:33:39.36	31.60	23.62	
2025-01-15 08:33:39.57	31.54	23.61	
2025-01-15 08:33:39.77	31.49	23.60	
2025-01-15 08:33:39.97	31.43	23.59	
2025-01-15 08:33:40.18	31.37	23.58	
2025-01-15 08:33:40.38	31.32	23.58	
2025-01-15 08:33:40.58	31.27	23.57	
2025-01-15 08:33:40.79	31.21	23.56	
2025-01-15 08:33:40.99	31.16	23.55	
2025-01-15 08:33:41.19	31.10	23.54	
2025-01-15 08:33:41.40	31.05	23.54	
2025-01-15 08:33:41.60	30.99	23.53	
2025-01-15 08:33:41.80	30.94	23.52	
2025-01-15 08:33:42.00	30.88	23.51	
2025-01-15 08:33:42.21	30.83	23.50	
2025-01-15 08:33:42.41	30.77	23.50	
2025-01-15 08:33:42.61	30.72	23.49	
2025-01-15 08:33:42.82	30.66	23.48	
2025-01-15 08:33:43.02	30.61	23.47	
2025-01-15 08:33:43.22	30.56	23.46	
2025-01-15 08:33:43.43	30.50	23.46	
2025-01-15 08:33:43.63	30.45	23.45	
2025-01-15 08:33:43.83	30.39	23.44	
2025-01-15 08:33:44.04	30.34	23.43	
2025-01-15 08:33:44.24	30.28	23.42	
2025-01-15 08:33:44.44	30.23	23.41	
2025-01-15 08:33:44.65	30.17	23.41	
2025-01-15 08:33:44.85	30.12	23.40	
2025-01-15 08:33:45.05	30.07	23.39	
2025-01-15 08:33:45.25	30.01	23.38	
2025-01-15 08:33:45.46	29.96	23.37	
2025-01-15 08:33:45.66	29.90	23.36	
2025-01-15 08:33:45.86	29.85	23.35	
2025-01-15 08:33:46.07	29.79	23.35	
2025-01-15 08:33:46.27	29.74	23.34	
2025-01-15 08:33:46.47	29.69	23.33	
2025-01-15 08:33:46.68	29.63	23.32	
2025-01-15 08:33:46.88	29.58	23.31	
2025-01-15 08:33:47.08	29.52	23.30	
2025-01-15 08:33:47.29	29.47	23.29	
2025-01-15 08:33:47.49	29.42	23.29	
2025-01-15 08:33:47.69	29.36	23.28	
2025-01-15 08:33:47.90	29.31	23.27	
2025-01-15 08:33:48.10	29.25	23.26	
2025-01-15 08:33:48.30	29.20	23.25	
2025-01-15 08:33:48.51	29.15	23.24	
2025-01-15 08:33:48.71	29.09	23.23	
2025-01-15 08:33:48.91	29.04	23.22	
2025-01-15 08:33:49.11	28.99	23.21	
2025-01-15 08:33:49.32	28.93	23.21	
2025-01-15 08:33:49.52	28.88	23.20	
2025-01-15 08:33:49.72	28.83	23.19	
2025-01-15 08:33:49.93	28.77	23.18	
2025-01-15 08:33:50.13	28.72	23.17	
2025-01-15 08:33:50.33	28.67	23.16	
2025-01-15 08:33:50.54	28.61	23.15	
2025-01-15 08:33:50.74	28.56	23.14	
2025-01-15 08:33:50.94	28.51	23.13	
2025-01-15 08:33:51.15	28.45	23.12	
2025-01-15 08:33:51.35	28.40	23.11	
2025-01-15 08:33:51.55	28.34	23.11	
2025-01-15 08:33:51.76	28.29	23.10	
2025-01-15 08:33:51.96	28.24	23.09	
2025-01-15 08:33:52.16	28.19	23.08	
2025-01-15 08:33:52.36	28.13	23.07	
2025-01-15 08:33:52.57	28.08	23.06	
2025-01-15 08:33:52.77	28.03	23.05	
2025-01-15 08:33:52.97	27.97	23.04	
2025-01-15 08:33:53.18	27.92	23.03	
2025-01-15 08:33:53.38	27.87	23.02	
2025-01-15 08:33:53.58	27.81	23.01	
2025-01-15 08:33:53.79	27.76	23.00	
2025-01-15 08:33:53.99	27.71	22.99	
2025-01-15 08:33:54.19	27.66	22.98	
2025-01-15 08:33:54.40	27.60	22.97	
2025-01-15 08:33:54.60	27.55	22.96	
2025-01-15 08:33:54.80	27.50	22.96	
2025-01-15 08:33:55.01	27.44	22.95	
2025-01-15 08:33:55.21	27.39	22.94	
2025-01-15 08:33:55.41	27.34	22.93	
2025-01-15 08:33:55.61	27.29	22.92	
2025-01-15 08:33:55.82	27.23	22.91	
2025-01-15 08:33:56.02	27.18	22.90	
2025-01-15 08:33:56.22	27.13	22.89	
2025-01-15 08:33:56.43	27.07	22.88	
2025-01-15 08:33:56.63	27.02	22.87	
2025-01-15 08:33:56.83	26.97	22.86	
2025-01-15 08:33:57.04	26.92	22.85	
2025-01-15 08:33:57.24	26.87	22.84	
2025-01-15 08:33:57.44	26.81	22.83	
2025-01-15 08:33:57.65	26.76	22.82	
2025-01-15 08:33:57.85	26.71	22.81	
2025-01-15 08:33:58.05	26.66	22.80	
2025-01-15 08:33:58.26	26.60	22.79	
2025-01-15 08:33:58.46	26.55	22.78	
2025-01-15 08:33:58.66	26.50	22.77	
2025-01-15 08:33:58.87	26.45	22.76	
2025-01-15 08:33:59.07	26.40	22.75	
2025-01-15 08:33:59.27	26.34	22.74	
2025-01-15 08:33:59.47	26.29	22.73	
2025-01-15 08:33:59.68	26.24	22.72	
2025-01-15 08:33:59.88	26.19	22.71	
2025-01-15 08:34:00.08	26.14	22.70	
2025-01-15 08:34:00.29	26.08	22.69	
2025-01-15 08:34:00.49	26.03	22.68	
2025-01-15 08:34:00.69	25.98	22.67	
2025-01-15 08:34:00.90	25.93	22.66	
2025-01-15 08:34:01.10	25.88	22.65	
2025-01-15 08:34:01.30	25.83	22.64	
2025-01-15 08:34:01.51	25.77	22.63	
2025-01-15 08:34:01.71	25.72	22.62	
2025-01-15 08:34:01.91	25.67	22.61	
2025-01-15 08:34:02.12	25.62	22.60	
2025-01-15 08:34:02.32	25.57	22.59	
2025-01-15 08:34:02.52	25.52	22.57	
2025-01-15 08:34:02.72	25.47	22.56	
2025-01-15 08:34:02.93	25.41	22.55	
2025-01-15 08:34:03.13	25.36	22.54	
2025-01-15 08:34:03.33	25.31	22.53	
2025-01-15 08:34:03.54	25.26	22.52	
2025-01-15 08:34:03.74	25.21	22.51	
2025-01-15 08:34:03.94	25.16	22.50	
2025-01-15 08:34:04.15	25.10	22.49	
2025-01-15 08:34:04.35	25.05	22.48	
2025-01-15 08:34:04.55	25.00	22.47	
2025-01-15 08:34:04.76	24.95	22.46	
2025-01-15 08:34:04.96	24.90	22.45	
2025-01-15 08:34:05.16	24.85	22.44	
2025-01-15 08:34:05.37	24.80	22.43	
2025-01-15 08:34:05.57	24.75	22.42	
2025-01-15 08:34:05.77	24.70	22.41	
2025-01-15 08:34:05.97	24.65	22.40	
2025-01-15 08:34:06.18	24.60	22.38	
2025-01-15 08:34:06.38	24.55	22.37	
2025-01-15 08:34:06.58	24.50	22.36	
2025-01-15 08:34:06.79	24.44	22.35	
2025-01-15 08:34:06.99	24.39	22.34	
2025-01-15 08:34:07.19	24.34	22.33	
2025-01-15 08:34:07.40	24.29	22.32	
2025-01-15 08:34:07.60	24.24	22.31	
2025-01-15 08:34:07.80	24.19	22.30	
2025-01-15 08:34:08.01	24.14	22.29	
2025-01-15 08:34:08.21	24.09	22.28	
2025-01-15 08:34:08.41	24.04	22.26	
2025-01-15 08:34:08.62	23.99	22.25	
2025-01-15 08:34:08.82	23.94	22.24	
2025-01-15 08:34:09.02	23.89	22.23	
2025-01-15 08:34:09.23	23.84	22.22	
2025-01-15 08:34:09.43	23.79	22.21	
2025-01-15 08:34:09.63	23.74	22.20	
2025-01-15 08:34:09.83	23.69	22.19	
2025-01-15 08:34:10.04	23.64	22.18	
2025-01-15 08:34:10.24	23.59	22.16	
2025-01-15 08:34:10.44	23.54	22.15	
2025-01-15 08:34:10.65	23.49	22.14	
2025-01-15 08:34:10.85	23.44	22.13	
2025-01-15 08:34:11.05	23.39	22.12	
2025-01-15 08:34:11.26	23.34	22.11	
2025-01-15 08:34:11.46	23.29	22.10	
2025-01-15 08:34:11.66	23.24	22.09	
2025-01-15 08:34:11.87	23.19	22.07	
2025-01-15 08:34:12.07	23.14	22.06	
2025-01-15 08:34:12.27	23.09	22.05	
2025-01-15 08:34:12.48	23.04	22.04	
2025-01-15 08:34:12.68	22.99	22.03	
2025-01-15 08:34:12.88	22.94	22.02	
2025-01-15 08:34:13.08	22.89	22.01	
2025-01-15 08:34:13.29	22.84	22.00	
2025-01-15 08:34:13.49	22.79	21.98	
2025-01-15 08:34:13.69	22.74	21.97	
2025-01-15 08:34:13.90	22.69	21.96	
2025-01-15 08:34:14.10	22.64	21.95	
2025-01-15 08:34:14.30	22.59	21.94	
2025-01-15 08:34:14.51	22.54	21.93	
2025-01-15 08:34:14.71	22.49	21.92	
2025-01-15 08:34:14.91	22.44	21.90	
2025-01-15 08:34:15.12	22.39	21.89	
2025-01-15 08:34:15.32	22.35	21.88	
2025-01-15 08:34:15.52	22.30	21.87	
2025-01-15 08:34:15.73	22.25	21.86	
2025-01-15 08:34:15.93	22.20	21.85	
2025-01-15 08:34:16.13	22.15	21.83	
2025-01-15 08:34:16.33	22.10	21.82	
2025-01-15 08:34:16.54	22.05	21.81	
2025-01-15 08:34:16.74	22.00	21.80	
2025-01-15 08:34:16.94	21.95	21.79	
2025-01-15 08:34:17.15	21.90	21.78	
2025-01-15 08:34:17.35	21.86	21.76	
2025-01-15 08:34:17.55	21.81	21.75	
2025-01-15 08:34:17.76	21.76	21.74	
2025-01-15 08:34:17.96	21.71	21.73	
2025-01-15 08:34:18.16	21.66	21.72	
2025-01-15 08:34:18.37	21.61	21.70	
2025-01-15 08:34:18.57	21.56	21.69	
2025-01-15 08:34:18.77	21.52	21.68	
2025-01-15 08:34:18.98	21.47	21.67	
2025-01-15 08:34:19.18	21.42	21.66	
2025-01-15 08:34:19.38	21.37	21.65	
2025-01-15 08:34:19.59	21.32	21.63	
2025-01-15 08:34:19.79	21.27	21.62	
2025-01-15 08:34:19.99	21.22	21.61	
2025-01-15 08:34:20.19	21.18	21.60	
2025-01-15 08:34:20.40	21.13	21.59	
2025-01-15 08:34:20.60	21.08	21.57	
2025-01-15 08:34:20.80	21.03	21.56	
2025-01-15 08:34:21.01	20.98	21.55	
2025-01-15 08:34:21.21	20.94	21.54	
2025-01-15 08:34:21.41	20.89	21.53	
2025-01-15 08:34:21.62	20.84	21.51	
2025-01-15 08:34:21.82	20.79	21.50	
2025-01-15 08:34:22.02	20.74	21.49	
2025-01-15 08:34:22.23	20.69	21.48	
2025-01-15 08:34:22.43	20.65	21.46	
2025-01-15 08:34:22.63	20.60	21.45	
2025-01-15 08:34:22.84	20.55	21.44	
2025-01-15 08:34:23.04	20.50	21.43	
2025-01-15 08:34:23.24	20.46	21.42	
2025-01-15 08:34:23.44	20.41	21.40	
2025-01-15 08:34:23.65	20.36	21.39	
2025-01-15 08:34:23.85	20.31	21.38	
2025-01-15 08:34:24.05	20.27	21.37	
2025-01-15 08:34:24.26	20.22	21.35	
2025-01-15 08:34:24.46	20.17	21.34	
2025-01-15 08:34:24.66	20.12	21.33	
2025-01-15 08:34:24.87	20.07	21.32	
2025-01-15 08:34:25.07	20.03	21.30	
2025-01-15 08:34:25.27	19.98	21.29	
2025-01-15 08:34:25.48	19.93	21.28	
2025-01-15 08:34:25.68	19.89	21.27	
2025-01-15 08:34:25.88	19.84	21.26	
2025-01-15 08:34:26.09	19.79	21.24	
2025-01-15 08:34:26.29	19.74	21.23	
2025-01-15 08:34:26.49	19.70	21.22	
2025-01-15 08:34:26.69	19.65	21.21	
2025-01-15 08:34:26.90	19.60	21.19	
2025-01-15 08:34:27.10	19.56	21.18	
2025-01-15 08:34:27.30	19.51	21.17	
2025-01-15 08:34:27.51	19.46	21.16	
2025-01-15 08:34:27.71	19.42	21.14	
2025-01-15 08:34:27.91	19.37	21.13	
2025-01-15 08:34:28.12	19.32	21.12	
2025-01-15 08:34:28.32	19.28	21.10	
2025-01-15 08:34:28.52	19.23	21.09	
2025-01-15 08:34:28.73	19.18	21.08	
2025-01-15 08:34:28.93	19.14	21.07	
2025-01-15 08:34:29.13	19.09	21.05	
2025-01-15 08:34:29.34	19.04	21.04	
2025-01-15 08:34:29.54	19.00	21.03	
2025-01-15 08:34:29.74	18.95	21.02	
2025-01-15 08:34:29.95	18.90	21.00	
2025-01-15 08:34:30.15	18.86	20.99	
2025-01-15 08:34:30.35	18.81	20.98	
2025-01-15 08:34:30.55	18.76	20.97	
2025-01-15 08:34:30.76	18.72	20.95	
2025-01-15 08:34:30.96	18.67	20.94	
2025-01-15 08:34:31.16	18.63	20.93	
2025-01-15 08:34:31.37	18.58	20.91	
2025-01-15 08:34:31.57	18.53	20.90	
2025-01-15 08:34:31.77	18.49	20.89	
2025-01-15 08:34:31.98	18.44	20.88	
2025-01-15 08:34:32.18	18.39	20.86	
2025-01-15 08:34:32.38	18.35	20.85	
2025-01-15 08:34:32.59	18.30	20.84	
2025-01-15 08:34:32.79	18.26	20.82	
2025-01-15 08:34:32.99	18.21	20.81	
2025-01-15 08:34:33.20	18.16	20.80	
2025-01-15 08:34:33.40	18.12	20.79	
2025-01-15 08:34:33.60	18.07	20.77	
2025-01-15 08:34:33.80	18.03	20.76	
2025-01-15 08:34:34.01	17.98	20.75	
2025-01-15 08:34:34.21	17.94	20.73	
2025-01-15 08:34:34.41	17.89	20.72	
2025-01-15 08:34:34.62	17.84	20.71	
2025-01-15 08:34:34.82	17.80	20.70	
2025-01-15 08:34:35.02	17.76	20.68	
2025-01-15 08:34:35.23	17.71	20.67	
2025-01-15 08:34:35.43	17.66	20.66	
2025-01-15 08:34:35.63	17.62	20.64	
2025-01-15 08:34:35.84	17.57	20.63	
2025-01-15 08:34:36.04	17.53	20.62	
2025-01-15 08:34:36.24	17.48	20.60	
2025-01-15 08:34:36.45	17.44	20.59	
2025-01-15 08:34:36.65	17.39	20.58	
2025-01-15 08:34:36.85	17.35	20.56	
2025-01-15 08:34:37.05	17.30	20.55	
2025-01-15 08:34:37.26	17.26	20.54	
2025-01-15 08:34:37.46	17.21	20.52	
2025-01-15 08:34:37.66	17.17	20.51	
2025-01-15 08:34:37.87	17.12	20.50	
2025-01-15 08:34:38.07	17.08	20.49	
2025-01-15 08:34:38.27	17.03	20.47	
2025-01-15 08:34:38.48	16.99	20.46	
2025-01-15 08:34:38.68	16.94	20.45	
2025-01-15 08:34:38.88	16.90	20.43	
2025-01-15 08:34:39.09	16.85	20.42	
2025-01-15 08:34:39.29	16.81	20.41	
2025-01-15 08:34:39.49	16.76	20.39	
2025-01-15 08:34:39.70	16.72	20.38	
2025-01-15 08:34:39.90	16.67	20.37	
2025-01-15 08:34:40.10	16.63	20.35	
2025-01-15 08:34:40.31	16.58	20.34	
2025-01-15 08:34:40.51	16.54	20.33	
2025-01-15 08:34:40.71	16.50	20.31	
2025-01-15 08:34:40.91	16.45	20.30	
2025-01-15 08:34:41.12	16.41	20.29	
2025-01-15 08:34:41.32	16.36	20.27	
2025-01-15 08:34:41.52	16.32	20.26	
2025-01-15 08:34:41.73	16.28	20.25	
2025-01-15 08:34:41.93	16.23	20.23	
2025-01-15 08:34:42.13	16.19	20.22	
2025-01-15 08:34:42.34	16.14	20.21	
2025-01-15 08:34:42.54	16.10	20.19	
2025-01-15 08:34:42.74	16.06	20.18	
2025-01-15 08:34:42.95	16.01	20.16	
2025-01-15 08:34:43.15	15.97	20.15	
2025-01-15 08:34:43.35	15.92	20.14	
2025-01-15 08:34:43.56	15.88	20.12	
2025-01-15 08:34:43.76	15.84	20.11	
2025-01-15 08:34:43.96	15.79	20.10	
2025-01-15 08:34:44.16	15.75	20.08	
2025-01-15 08:34:44.37	15.70	20.07	
2025-01-15 08:34:44.57	15.66	20.06	
2025-01-15 08:34:44.77	15.62	20.04	
2025-01-15 08:34:44.98	15.57	20.03	
2025-01-15 08:34:45.18	15.53	20.02	
2025-01-15 08:34:45.38	15.49	20.00	
2025-01-15 08:34:45.59	15.44	19.99	
2025-01-15 08:34:45.79	15.40	19.98	
2025-01-15 08:34:45.99	15.36	19.96	
2025-01-15 08:34:46.20	15.31	19.95	
2025-01-15 08:34:46.40	15.27	19.93	
2025-01-15 08:34:46.60	15.23	19.92	
2025-01-15 08:34:46.81	15.18	19.91	
2025-01-15 08:34:47.01	15.14	19.89	
2025-01-15 08:34:47.21	15.10	19.88	
2025-01-15 08:34:47.41	15.06	19.87	
2025-01-15 08:34:47.62	15.01	19.85	
2025-01-15 08:34:47.82	14.97	19.84	
2025-01-15 08:34:48.02	14.93	19.83	
2025-01-15 08:34:48.23	14.88	19.81	
2025-01-15 08:34:48.43	14.84	19.80	
2025-01-15 08:34:48.63	14.80	19.78	
2025-01-15 08:34:48.84	14.75	19.77	
2025-01-15 08:34:49.04	14.71	19.76	
2025-01-15 08:34:49.24	14.67	19.74	
2025-01-15 08:34:49.45	14.63	19.73	
2025-01-15 08:34:49.65	14.58	19.71	
2025-01-15 08:34:49.85	14.54	19.70	
2025-01-15 08:34:50.06	14.50	19.69	
2025-01-15 08:34:50.26	14.46	19.67	
2025-01-15 08:34:50.46	14.41	19.66	
2025-01-15 08:34:50.66	14.37	19.65	
2025-01-15 08:34:50.87	14.33	19.63	
2025-01-15 08:34:51.07	14.29	19.62	
2025-01-15 08:34:51.27	14.24	19.60	
2025-01-15 08:34:51.48	14.20	19.59	
2025-01-15 08:34:51.68	14.16	19.58	
2025-01-15 08:34:51.88	14.12	19.56	
2025-01-15 08:34:52.09	14.07	19.55	
2025-01-15 08:34:52.29	14.03	19.53	
2025-01-15 08:34:52.49	13.99	19.52	
2025-01-15 08:34:52.70	13.95	19.51	
2025-01-15 08:34:52.90	13.91	19.49	
2025-01-15 08:34:53.10	13.86	19.48	
2025-01-15 08:34:53.31	13.82	19.46	
2025-01-15 08:34:53.51	13.78	19.45	
2025-01-15 08:34:53.71	13.74	19.44	
2025-01-15 08:34:53.92	13.70	19.42	
2025-01-15 08:34:54.12	13.65	19.41	
2025-01-15 08:34:54.32	13.61	19.40	
2025-01-15 08:34:54.52	13.57	19.38	
2025-01-15 08:34:54.73	13.53	19.37	
2025-01-15 08:34:54.93	13.49	19.35	
2025-01-15 08:34:55.13	13.45	19.34	
2025-01-15 08:34:55.34	13.40	19.32	
2025-01-15 08:34:55.54	13.36	19.31	
2025-01-15 08:34:55.74	13.32	19.30	
2025-01-15 08:34:55.95	13.28	19.28	
2025-01-15 08:34:56.15	13.24	19.27	
2025-01-15 08:34:56.35	13.20	19.26	
2025-01-15 08:34:56.56	13.16	19.24	
2025-01-15 08:34:56.76	13.11	19.23	
2025-01-15 08:34:56.96	13.07	19.21	
2025-01-15 08:34:57.17	13.03	19.20	
2025-01-15 08:34:57.37	12.99	19.18	
2025-01-15 08:34:57.57	12.95	19.17	
2025-01-15 08:34:57.77	12.91	19.16	
2025-01-15 08:34:57.98	12.87	19.14	
2025-01-15 08:34:58.18	12.83	19.13	
2025-01-15 08:34:58.38	12.79	19.11	
2025-01-15 08:34:58.59	12.74	19.10	
2025-01-15 08:34:58.79	12.70	19.09	
2025-01-15 08:34:58.99	12.66	19.07	
2025-01-15 08:34:59.20	12.62	19.06	
2025-01-15 08:34:59.40	12.58	19.04	
2025-01-15 08:34:59.60	12.54	19.03	
2025-01-15 08:34:59.81	12.50	19.01	
2025-01-15 08:35:00.01	12.46	19.00	
2025-01-15 08:35:00.21	12.42	18.99	
2025-01-15 08:35:00.42	12.38	18.97	
