passes_logs/2025/01/15/SPB_Silybum_02/SPB_Silybum_02__20250115_075928_TERRA_rec.log

#Pass ID: 20250115_075928_TERRA
#Satellite: TERRA
#Configuration: TERRA
#Start time: 2025-01-15 07:59:28

#Version: 2.0.20230423
#Station: SPB_Silybum_02
#Location: 30.233357 lon 59.946436 lat
#TLE: 1 25994U 99068A   25014.85746573  .00000777  00000+0  16972-3 0  9996
#TLE: 2 25994  98.0216  77.8924 0003456  72.8612  46.8876 14.60394566334056

#Time	Az	El	Level	Level2	SNR	BER	Gain	Gain2
2025-01-15 07:59:30.58	18.71	4.16	
2025-01-15 07:59:30.79	18.71	4.18	
2025-01-15 07:59:30.99	18.72	4.19	
2025-01-15 07:59:31.19	18.72	4.20	
2025-01-15 07:59:31.39	18.73	4.22	
2025-01-15 07:59:31.60	18.74	4.23	
2025-01-15 07:59:31.80	18.74	4.25	
2025-01-15 07:59:32.00	18.75	4.26	
2025-01-15 07:59:32.21	18.75	4.28	
2025-01-15 07:59:32.41	18.76	4.29	
2025-01-15 07:59:32.61	18.76	4.30	
2025-01-15 07:59:32.82	18.77	4.32	
2025-01-15 07:59:33.02	18.77	4.33	
2025-01-15 07:59:33.22	18.78	4.35	
2025-01-15 07:59:33.43	18.78	4.36	
2025-01-15 07:59:33.63	18.79	4.38	
2025-01-15 07:59:33.83	18.79	4.39	
2025-01-15 07:59:34.04	18.80	4.41	
2025-01-15 07:59:34.24	18.80	4.42	
2025-01-15 07:59:34.44	18.81	4.44	
2025-01-15 07:59:34.64	18.81	4.45	
2025-01-15 07:59:34.85	18.82	4.47	
2025-01-15 07:59:35.05	18.82	4.48	
2025-01-15 07:59:35.25	18.83	4.49	
2025-01-15 07:59:35.46	18.84	4.51	
2025-01-15 07:59:35.66	18.84	4.52	
2025-01-15 07:59:35.86	18.85	4.54	
2025-01-15 07:59:36.07	18.85	4.55	
2025-01-15 07:59:36.27	18.86	4.57	
2025-01-15 07:59:36.47	18.86	4.58	
2025-01-15 07:59:36.68	18.87	4.60	
2025-01-15 07:59:36.88	18.87	4.61	
2025-01-15 07:59:37.08	18.88	4.63	
2025-01-15 07:59:37.29	18.88	4.64	
2025-01-15 07:59:37.49	18.89	4.66	
2025-01-15 07:59:37.69	18.89	4.67	
2025-01-15 07:59:37.89	18.90	4.68	
2025-01-15 07:59:38.10	18.90	4.70	
2025-01-15 07:59:38.30	18.91	4.71	
2025-01-15 07:59:38.50	18.92	4.73	
2025-01-15 07:59:38.71	18.92	4.74	
2025-01-15 07:59:38.91	18.93	4.76	
2025-01-15 07:59:39.11	18.93	4.77	
2025-01-15 07:59:39.32	18.94	4.79	
2025-01-15 07:59:39.52	18.94	4.80	
2025-01-15 07:59:39.72	18.95	4.82	
2025-01-15 07:59:39.93	18.95	4.83	
2025-01-15 07:59:40.13	18.96	4.85	
2025-01-15 07:59:40.33	18.96	4.86	
2025-01-15 07:59:40.54	18.97	4.88	
2025-01-15 07:59:40.74	18.98	4.89	
2025-01-15 07:59:40.94	18.98	4.91	
2025-01-15 07:59:41.15	18.99	4.92	
2025-01-15 07:59:41.35	18.99	4.94	
2025-01-15 07:59:41.55	19.00	4.95	
2025-01-15 07:59:41.75	19.00	4.97	
2025-01-15 07:59:41.96	19.01	4.98	
2025-01-15 07:59:42.16	19.01	5.00	
2025-01-15 07:59:42.36	19.02	5.01	
2025-01-15 07:59:42.57	19.02	5.03	
2025-01-15 07:59:42.77	19.03	5.04	
2025-01-15 07:59:42.97	19.04	5.06	
2025-01-15 07:59:43.18	19.04	5.07	
2025-01-15 07:59:43.38	19.05	5.09	
2025-01-15 07:59:43.58	19.05	5.10	
2025-01-15 07:59:43.79	19.06	5.12	
2025-01-15 07:59:43.99	19.06	5.13	
2025-01-15 07:59:44.19	19.07	5.15	
2025-01-15 07:59:44.40	19.07	5.16	
2025-01-15 07:59:44.60	19.08	5.18	
2025-01-15 07:59:44.80	19.09	5.19	
2025-01-15 07:59:45.00	19.09	5.21	
2025-01-15 07:59:45.21	19.10	5.22	
2025-01-15 07:59:45.41	19.10	5.24	
2025-01-15 07:59:45.61	19.11	5.25	
2025-01-15 07:59:45.82	19.11	5.27	
2025-01-15 07:59:46.02	19.12	5.28	
2025-01-15 07:59:46.22	19.12	5.30	
2025-01-15 07:59:46.43	19.13	5.31	
2025-01-15 07:59:46.63	19.14	5.33	
2025-01-15 07:59:46.83	19.14	5.34	
2025-01-15 07:59:47.04	19.15	5.36	
2025-01-15 07:59:47.24	19.15	5.37	
2025-01-15 07:59:47.44	19.16	5.39	
2025-01-15 07:59:47.65	19.16	5.40	
2025-01-15 07:59:47.85	19.17	5.42	
2025-01-15 07:59:48.05	19.17	5.43	
2025-01-15 07:59:48.25	19.18	5.45	
2025-01-15 07:59:48.46	19.19	5.46	
2025-01-15 07:59:48.66	19.19	5.48	
2025-01-15 07:59:48.86	19.20	5.49	
2025-01-15 07:59:49.07	19.20	5.51	
2025-01-15 07:59:49.27	19.21	5.53	
2025-01-15 07:59:49.47	19.21	5.54	
2025-01-15 07:59:49.68	19.22	5.56	
2025-01-15 07:59:49.88	19.23	5.57	
2025-01-15 07:59:50.08	19.23	5.59	
2025-01-15 07:59:50.29	19.24	5.60	
2025-01-15 07:59:50.49	19.24	5.62	
2025-01-15 07:59:50.69	19.25	5.63	
2025-01-15 07:59:50.90	19.25	5.65	
2025-01-15 07:59:51.10	19.26	5.66	
2025-01-15 07:59:51.30	19.27	5.68	
2025-01-15 07:59:51.51	19.27	5.69	
2025-01-15 07:59:51.71	19.28	5.71	
2025-01-15 07:59:51.91	19.28	5.72	
2025-01-15 07:59:52.11	19.29	5.74	
2025-01-15 07:59:52.32	19.29	5.76	
2025-01-15 07:59:52.52	19.30	5.77	
2025-01-15 07:59:52.72	19.31	5.79	
2025-01-15 07:59:52.93	19.31	5.80	
2025-01-15 07:59:53.13	19.32	5.82	
2025-01-15 07:59:53.33	19.32	5.83	
2025-01-15 07:59:53.54	19.33	5.85	
2025-01-15 07:59:53.74	19.33	5.86	
2025-01-15 07:59:53.94	19.34	5.88	
2025-01-15 07:59:54.15	19.35	5.89	
2025-01-15 07:59:54.35	19.35	5.91	
2025-01-15 07:59:54.55	19.36	5.92	
2025-01-15 07:59:54.76	19.36	5.94	
2025-01-15 07:59:54.96	19.37	5.96	
2025-01-15 07:59:55.16	19.38	5.97	
2025-01-15 07:59:55.36	19.38	5.99	
2025-01-15 07:59:55.57	19.39	6.00	
2025-01-15 07:59:55.77	19.39	6.02	
2025-01-15 07:59:55.97	19.40	6.03	
2025-01-15 07:59:56.18	19.40	6.05	
2025-01-15 07:59:56.38	19.41	6.07	
2025-01-15 07:59:56.58	19.42	6.08	
2025-01-15 07:59:56.79	19.42	6.10	
2025-01-15 07:59:56.99	19.43	6.11	
2025-01-15 07:59:57.19	19.43	6.13	
2025-01-15 07:59:57.40	19.44	6.14	
2025-01-15 07:59:57.60	19.45	6.16	
2025-01-15 07:59:57.80	19.45	6.17	
2025-01-15 07:59:58.01	19.46	6.19	
2025-01-15 07:59:58.21	19.46	6.21	
2025-01-15 07:59:58.41	19.47	6.22	
2025-01-15 07:59:58.61	19.47	6.24	
2025-01-15 07:59:58.82	19.48	6.25	
2025-01-15 07:59:59.02	19.49	6.27	
2025-01-15 07:59:59.22	19.49	6.28	
2025-01-15 07:59:59.43	19.50	6.30	
2025-01-15 07:59:59.63	19.50	6.32	
2025-01-15 07:59:59.83	19.51	6.33	
2025-01-15 08:00:00.04	19.52	6.35	
2025-01-15 08:00:00.24	19.52	6.36	
2025-01-15 08:00:00.44	19.53	6.38	
2025-01-15 08:00:00.65	19.53	6.40	
2025-01-15 08:00:00.85	19.54	6.41	
2025-01-15 08:00:01.05	19.55	6.43	
2025-01-15 08:00:01.26	19.55	6.44	
2025-01-15 08:00:01.46	19.56	6.46	
2025-01-15 08:00:01.66	19.56	6.47	
2025-01-15 08:00:01.87	19.57	6.49	
2025-01-15 08:00:02.07	19.58	6.51	
2025-01-15 08:00:02.27	19.58	6.52	
2025-01-15 08:00:02.47	19.59	6.54	
2025-01-15 08:00:02.68	19.59	6.55	
2025-01-15 08:00:02.88	19.60	6.57	
2025-01-15 08:00:03.08	19.61	6.59	
2025-01-15 08:00:03.29	19.61	6.60	
2025-01-15 08:00:03.49	19.62	6.62	
2025-01-15 08:00:03.69	19.62	6.63	
2025-01-15 08:00:03.90	19.63	6.65	
2025-01-15 08:00:04.10	19.64	6.67	
2025-01-15 08:00:04.30	19.64	6.68	
2025-01-15 08:00:04.51	19.65	6.70	
2025-01-15 08:00:04.71	19.66	6.71	
2025-01-15 08:00:04.91	19.66	6.73	
2025-01-15 08:00:05.12	19.67	6.75	
2025-01-15 08:00:05.32	19.67	6.76	
2025-01-15 08:00:05.52	19.68	6.78	
2025-01-15 08:00:05.72	19.69	6.79	
2025-01-15 08:00:05.93	19.69	6.81	
2025-01-15 08:00:06.13	19.70	6.83	
2025-01-15 08:00:06.33	19.70	6.84	
2025-01-15 08:00:06.54	19.71	6.86	
2025-01-15 08:00:06.74	19.72	6.87	
2025-01-15 08:00:06.94	19.72	6.89	
2025-01-15 08:00:07.15	19.73	6.91	
2025-01-15 08:00:07.35	19.74	6.92	
2025-01-15 08:00:07.55	19.74	6.94	
2025-01-15 08:00:07.76	19.75	6.96	
2025-01-15 08:00:07.96	19.75	6.97	
2025-01-15 08:00:08.16	19.76	6.99	
2025-01-15 08:00:08.37	19.77	7.00	
2025-01-15 08:00:08.57	19.77	7.02	
2025-01-15 08:00:08.77	19.78	7.04	
2025-01-15 08:00:08.97	19.78	7.05	
2025-01-15 08:00:09.18	19.79	7.07	
2025-01-15 08:00:09.38	19.80	7.09	
2025-01-15 08:00:09.58	19.80	7.10	
2025-01-15 08:00:09.79	19.81	7.12	
2025-01-15 08:00:09.99	19.82	7.13	
2025-01-15 08:00:10.19	19.82	7.15	
2025-01-15 08:00:10.40	19.83	7.17	
2025-01-15 08:00:10.60	19.84	7.18	
2025-01-15 08:00:10.80	19.84	7.20	
2025-01-15 08:00:11.01	19.85	7.22	
2025-01-15 08:00:11.21	19.85	7.23	
2025-01-15 08:00:11.41	19.86	7.25	
2025-01-15 08:00:11.62	19.87	7.27	
2025-01-15 08:00:11.82	19.87	7.28	
2025-01-15 08:00:12.02	19.88	7.30	
2025-01-15 08:00:12.22	19.89	7.31	
2025-01-15 08:00:12.43	19.89	7.33	
2025-01-15 08:00:12.63	19.90	7.35	
2025-01-15 08:00:12.83	19.90	7.36	
2025-01-15 08:00:13.04	19.91	7.38	
2025-01-15 08:00:13.24	19.92	7.40	
2025-01-15 08:00:13.44	19.92	7.41	
2025-01-15 08:00:13.65	19.93	7.43	
2025-01-15 08:00:13.85	19.94	7.45	
2025-01-15 08:00:14.05	19.94	7.46	
2025-01-15 08:00:14.26	19.95	7.48	
2025-01-15 08:00:14.46	19.96	7.50	
2025-01-15 08:00:14.66	19.96	7.51	
2025-01-15 08:00:14.87	19.97	7.53	
2025-01-15 08:00:15.07	19.98	7.55	
2025-01-15 08:00:15.27	19.98	7.56	
2025-01-15 08:00:15.48	19.99	7.58	
2025-01-15 08:00:15.68	19.99	7.60	
2025-01-15 08:00:15.88	20.00	7.61	
2025-01-15 08:00:16.08	20.01	7.63	
2025-01-15 08:00:16.29	20.01	7.65	
2025-01-15 08:00:16.49	20.02	7.66	
2025-01-15 08:00:16.69	20.03	7.68	
2025-01-15 08:00:16.90	20.03	7.70	
2025-01-15 08:00:17.10	20.04	7.71	
2025-01-15 08:00:17.30	20.05	7.73	
2025-01-15 08:00:17.51	20.05	7.75	
2025-01-15 08:00:17.71	20.06	7.76	
2025-01-15 08:00:17.91	20.07	7.78	
2025-01-15 08:00:18.12	20.07	7.80	
2025-01-15 08:00:18.32	20.08	7.81	
2025-01-15 08:00:18.52	20.09	7.83	
2025-01-15 08:00:18.73	20.09	7.85	
2025-01-15 08:00:18.93	20.10	7.86	
2025-01-15 08:00:19.13	20.11	7.88	
2025-01-15 08:00:19.33	20.11	7.90	
2025-01-15 08:00:19.54	20.12	7.92	
2025-01-15 08:00:19.74	20.13	7.93	
2025-01-15 08:00:19.94	20.13	7.95	
2025-01-15 08:00:20.15	20.14	7.97	
2025-01-15 08:00:20.35	20.14	7.98	
2025-01-15 08:00:20.55	20.15	8.00	
2025-01-15 08:00:20.76	20.16	8.02	
2025-01-15 08:00:20.96	20.16	8.03	
2025-01-15 08:00:21.16	20.17	8.05	
2025-01-15 08:00:21.37	20.18	8.07	
2025-01-15 08:00:21.57	20.18	8.08	
2025-01-15 08:00:21.77	20.19	8.10	
2025-01-15 08:00:21.98	20.20	8.12	
2025-01-15 08:00:22.18	20.20	8.14	
2025-01-15 08:00:22.38	20.21	8.15	
2025-01-15 08:00:22.58	20.22	8.17	
2025-01-15 08:00:22.79	20.22	8.19	
2025-01-15 08:00:22.99	20.23	8.20	
2025-01-15 08:00:23.19	20.24	8.22	
2025-01-15 08:00:23.40	20.25	8.24	
2025-01-15 08:00:23.60	20.25	8.26	
2025-01-15 08:00:23.80	20.26	8.27	
2025-01-15 08:00:24.01	20.27	8.29	
2025-01-15 08:00:24.21	20.27	8.31	
2025-01-15 08:00:24.41	20.28	8.32	
2025-01-15 08:00:24.62	20.29	8.34	
2025-01-15 08:00:24.82	20.29	8.36	
2025-01-15 08:00:25.02	20.30	8.38	
2025-01-15 08:00:25.23	20.31	8.39	
2025-01-15 08:00:25.43	20.31	8.41	
2025-01-15 08:00:25.63	20.32	8.43	
2025-01-15 08:00:25.84	20.33	8.45	
2025-01-15 08:00:26.04	20.33	8.46	
2025-01-15 08:00:26.24	20.34	8.48	
2025-01-15 08:00:26.44	20.35	8.50	
2025-01-15 08:00:26.65	20.35	8.51	
2025-01-15 08:00:26.85	20.36	8.53	
2025-01-15 08:00:27.05	20.37	8.55	
2025-01-15 08:00:27.26	20.37	8.57	
2025-01-15 08:00:27.46	20.38	8.58	
2025-01-15 08:00:27.66	20.39	8.60	
2025-01-15 08:00:27.87	20.40	8.62	
2025-01-15 08:00:28.07	20.40	8.64	
2025-01-15 08:00:28.27	20.41	8.65	
2025-01-15 08:00:28.48	20.42	8.67	
2025-01-15 08:00:28.68	20.42	8.69	
2025-01-15 08:00:28.88	20.43	8.71	
2025-01-15 08:00:29.09	20.44	8.72	
2025-01-15 08:00:29.29	20.44	8.74	
2025-01-15 08:00:29.49	20.45	8.76	
2025-01-15 08:00:29.69	20.46	8.77	
2025-01-15 08:00:29.90	20.46	8.79	
2025-01-15 08:00:30.10	20.47	8.81	
2025-01-15 08:00:30.30	20.48	8.83	
2025-01-15 08:00:30.51	20.49	8.85	
2025-01-15 08:00:30.71	20.49	8.86	
2025-01-15 08:00:30.91	20.50	8.88	
2025-01-15 08:00:31.12	20.51	8.90	
2025-01-15 08:00:31.32	20.51	8.92	
2025-01-15 08:00:31.52	20.52	8.93	
2025-01-15 08:00:31.73	20.53	8.95	
2025-01-15 08:00:31.93	20.53	8.97	
2025-01-15 08:00:32.13	20.54	8.99	
2025-01-15 08:00:32.34	20.55	9.00	
2025-01-15 08:00:32.54	20.56	9.02	
2025-01-15 08:00:32.74	20.56	9.04	
2025-01-15 08:00:32.94	20.57	9.06	
2025-01-15 08:00:33.15	20.58	9.08	
2025-01-15 08:00:33.35	20.58	9.09	
2025-01-15 08:00:33.55	20.59	9.11	
2025-01-15 08:00:33.76	20.60	9.13	
2025-01-15 08:00:33.96	20.61	9.15	
2025-01-15 08:00:34.16	20.61	9.16	
2025-01-15 08:00:34.37	20.62	9.18	
2025-01-15 08:00:34.57	20.63	9.20	
2025-01-15 08:00:34.77	20.63	9.22	
2025-01-15 08:00:34.98	20.64	9.24	
2025-01-15 08:00:35.18	20.65	9.25	
2025-01-15 08:00:35.38	20.66	9.27	
2025-01-15 08:00:35.59	20.66	9.29	
2025-01-15 08:00:35.79	20.67	9.31	
2025-01-15 08:00:35.99	20.68	9.33	
2025-01-15 08:00:36.20	20.68	9.34	
2025-01-15 08:00:36.40	20.69	9.36	
2025-01-15 08:00:36.60	20.70	9.38	
2025-01-15 08:00:36.80	20.71	9.40	
2025-01-15 08:00:37.01	20.71	9.42	
2025-01-15 08:00:37.21	20.72	9.43	
2025-01-15 08:00:37.41	20.73	9.45	
2025-01-15 08:00:37.62	20.74	9.47	
2025-01-15 08:00:37.82	20.74	9.49	
2025-01-15 08:00:38.02	20.75	9.51	
2025-01-15 08:00:38.23	20.76	9.52	
2025-01-15 08:00:38.43	20.76	9.54	
2025-01-15 08:00:38.63	20.77	9.56	
2025-01-15 08:00:38.84	20.78	9.58	
2025-01-15 08:00:39.04	20.79	9.60	
2025-01-15 08:00:39.24	20.79	9.61	
2025-01-15 08:00:39.45	20.80	9.63	
2025-01-15 08:00:39.65	20.81	9.65	
2025-01-15 08:00:39.85	20.82	9.67	
2025-01-15 08:00:40.05	20.82	9.69	
2025-01-15 08:00:40.26	20.83	9.71	
2025-01-15 08:00:40.46	20.84	9.72	
2025-01-15 08:00:40.66	20.85	9.74	
2025-01-15 08:00:40.87	20.85	9.76	
2025-01-15 08:00:41.07	20.86	9.78	
2025-01-15 08:00:41.27	20.87	9.80	
2025-01-15 08:00:41.48	20.88	9.82	
2025-01-15 08:00:41.68	20.88	9.83	
2025-01-15 08:00:41.88	20.89	9.85	
2025-01-15 08:00:42.09	20.90	9.87	
2025-01-15 08:00:42.29	20.91	9.89	
2025-01-15 08:00:42.49	20.91	9.91	
2025-01-15 08:00:42.70	20.92	9.93	
2025-01-15 08:00:42.90	20.93	9.94	
2025-01-15 08:00:43.10	20.94	9.96	
2025-01-15 08:00:43.30	20.94	9.98	
2025-01-15 08:00:43.51	20.95	10.00	
2025-01-15 08:00:43.71	20.96	10.02	
2025-01-15 08:00:43.91	20.97	10.04	
2025-01-15 08:00:44.12	20.97	10.06	
2025-01-15 08:00:44.32	20.98	10.07	
2025-01-15 08:00:44.52	20.99	10.09	
2025-01-15 08:00:44.73	21.00	10.11	
2025-01-15 08:00:44.93	21.00	10.13	
2025-01-15 08:00:45.13	21.01	10.15	
2025-01-15 08:00:45.34	21.02	10.17	
2025-01-15 08:00:45.54	21.03	10.19	
2025-01-15 08:00:45.74	21.03	10.20	
2025-01-15 08:00:45.95	21.04	10.22	
2025-01-15 08:00:46.15	21.05	10.24	
2025-01-15 08:00:46.35	21.06	10.26	
2025-01-15 08:00:46.56	21.06	10.28	
2025-01-15 08:00:46.76	21.07	10.30	
2025-01-15 08:00:46.96	21.08	10.32	
2025-01-15 08:00:47.16	21.09	10.33	
2025-01-15 08:00:47.37	21.10	10.35	
2025-01-15 08:00:47.57	21.10	10.37	
2025-01-15 08:00:47.77	21.11	10.39	
2025-01-15 08:00:47.98	21.12	10.41	
2025-01-15 08:00:48.18	21.13	10.43	
2025-01-15 08:00:48.38	21.13	10.45	
2025-01-15 08:00:48.59	21.14	10.47	
2025-01-15 08:00:48.79	21.15	10.49	
2025-01-15 08:00:48.99	21.16	10.50	
2025-01-15 08:00:49.20	21.17	10.52	
2025-01-15 08:00:49.40	21.17	10.54	
2025-01-15 08:00:49.60	21.18	10.56	
2025-01-15 08:00:49.81	21.19	10.58	
2025-01-15 08:00:50.01	21.20	10.60	
2025-01-15 08:00:50.21	21.20	10.62	
2025-01-15 08:00:50.41	21.21	10.64	
2025-01-15 08:00:50.62	21.22	10.66	
2025-01-15 08:00:50.82	21.23	10.68	
2025-01-15 08:00:51.02	21.24	10.69	
2025-01-15 08:00:51.23	21.24	10.71	
2025-01-15 08:00:51.43	21.25	10.73	
2025-01-15 08:00:51.63	21.26	10.75	
2025-01-15 08:00:51.84	21.27	10.77	
2025-01-15 08:00:52.04	21.28	10.79	
2025-01-15 08:00:52.24	21.28	10.81	
2025-01-15 08:00:52.45	21.29	10.83	
2025-01-15 08:00:52.65	21.30	10.85	
2025-01-15 08:00:52.85	21.31	10.87	
2025-01-15 08:00:53.06	21.32	10.89	
2025-01-15 08:00:53.26	21.32	10.91	
2025-01-15 08:00:53.46	21.33	10.92	
2025-01-15 08:00:53.66	21.34	10.94	
2025-01-15 08:00:53.87	21.35	10.96	
2025-01-15 08:00:54.07	21.36	10.98	
2025-01-15 08:00:54.27	21.36	11.00	
2025-01-15 08:00:54.48	21.37	11.02	
2025-01-15 08:00:54.68	21.38	11.04	
2025-01-15 08:00:54.88	21.39	11.06	
2025-01-15 08:00:55.09	21.40	11.08	
2025-01-15 08:00:55.29	21.40	11.10	
2025-01-15 08:00:55.49	21.41	11.12	
2025-01-15 08:00:55.70	21.42	11.14	
2025-01-15 08:00:55.90	21.43	11.16	
2025-01-15 08:00:56.10	21.44	11.18	
2025-01-15 08:00:56.31	21.44	11.20	
2025-01-15 08:00:56.51	21.45	11.22	
2025-01-15 08:00:56.71	21.46	11.23	
2025-01-15 08:00:56.92	21.47	11.25	
2025-01-15 08:00:57.12	21.48	11.27	
2025-01-15 08:00:57.32	21.49	11.29	
2025-01-15 08:00:57.52	21.49	11.31	
2025-01-15 08:00:57.73	21.50	11.33	
2025-01-15 08:00:57.93	21.51	11.35	
2025-01-15 08:00:58.13	21.52	11.37	
2025-01-15 08:00:58.34	21.53	11.39	
2025-01-15 08:00:58.54	21.53	11.41	
2025-01-15 08:00:58.74	21.54	11.43	
2025-01-15 08:00:58.95	21.55	11.45	
2025-01-15 08:00:59.15	21.56	11.47	
2025-01-15 08:00:59.35	21.57	11.49	
2025-01-15 08:00:59.56	21.58	11.51	
2025-01-15 08:00:59.76	21.58	11.53	
2025-01-15 08:00:59.96	21.59	11.55	
2025-01-15 08:01:00.17	21.60	11.57	
2025-01-15 08:01:00.37	21.61	11.59	
2025-01-15 08:01:00.57	21.62	11.61	
2025-01-15 08:01:00.77	21.63	11.63	
2025-01-15 08:01:00.98	21.64	11.65	
2025-01-15 08:01:01.18	21.64	11.67	
2025-01-15 08:01:01.38	21.65	11.69	
2025-01-15 08:01:01.59	21.66	11.71	
2025-01-15 08:01:01.79	21.67	11.73	
2025-01-15 08:01:01.99	21.68	11.75	
2025-01-15 08:01:02.20	21.69	11.77	
2025-01-15 08:01:02.40	21.69	11.79	
2025-01-15 08:01:02.60	21.70	11.81	
2025-01-15 08:01:02.81	21.71	11.83	
2025-01-15 08:01:03.01	21.72	11.85	
2025-01-15 08:01:03.21	21.73	11.87	
2025-01-15 08:01:03.42	21.74	11.89	
2025-01-15 08:01:03.62	21.75	11.91	
2025-01-15 08:01:03.82	21.75	11.93	
2025-01-15 08:01:04.02	21.76	11.95	
2025-01-15 08:01:04.23	21.77	11.97	
2025-01-15 08:01:04.43	21.78	11.99	
2025-01-15 08:01:04.63	21.79	12.01	
2025-01-15 08:01:04.84	21.80	12.03	
2025-01-15 08:01:05.04	21.81	12.05	
2025-01-15 08:01:05.24	21.81	12.07	
2025-01-15 08:01:05.45	21.82	12.09	
2025-01-15 08:01:05.65	21.83	12.11	
2025-01-15 08:01:05.85	21.84	12.13	
2025-01-15 08:01:06.06	21.85	12.15	
2025-01-15 08:01:06.26	21.86	12.17	
2025-01-15 08:01:06.46	21.87	12.19	
2025-01-15 08:01:06.67	21.87	12.21	
2025-01-15 08:01:06.87	21.88	12.23	
2025-01-15 08:01:07.07	21.89	12.25	
2025-01-15 08:01:07.28	21.90	12.27	
2025-01-15 08:01:07.48	21.91	12.29	
2025-01-15 08:01:07.68	21.92	12.31	
2025-01-15 08:01:07.88	21.93	12.33	
2025-01-15 08:01:08.09	21.94	12.36	
2025-01-15 08:01:08.29	21.94	12.38	
2025-01-15 08:01:08.49	21.95	12.40	
2025-01-15 08:01:08.70	21.96	12.42	
2025-01-15 08:01:08.90	21.97	12.44	
2025-01-15 08:01:09.10	21.98	12.46	
2025-01-15 08:01:09.31	21.99	12.48	
2025-01-15 08:01:09.51	22.00	12.50	
2025-01-15 08:01:09.71	22.01	12.52	
2025-01-15 08:01:09.92	22.02	12.54	
2025-01-15 08:01:10.12	22.02	12.56	
2025-01-15 08:01:10.32	22.03	12.58	
2025-01-15 08:01:10.53	22.04	12.60	
2025-01-15 08:01:10.73	22.05	12.62	
2025-01-15 08:01:10.93	22.06	12.64	
2025-01-15 08:01:11.13	22.07	12.67	
2025-01-15 08:01:11.34	22.08	12.69	
2025-01-15 08:01:11.54	22.09	12.71	
2025-01-15 08:01:11.74	22.10	12.73	
2025-01-15 08:01:11.95	22.11	12.75	
2025-01-15 08:01:12.15	22.11	12.77	
2025-01-15 08:01:12.35	22.12	12.79	
2025-01-15 08:01:12.56	22.13	12.81	
2025-01-15 08:01:12.76	22.14	12.83	
2025-01-15 08:01:12.96	22.15	12.85	
2025-01-15 08:01:13.17	22.16	12.88	
2025-01-15 08:01:13.37	22.17	12.90	
2025-01-15 08:01:13.57	22.18	12.92	
2025-01-15 08:01:13.78	22.19	12.94	
2025-01-15 08:01:13.98	22.20	12.96	
2025-01-15 08:01:14.18	22.21	12.98	
2025-01-15 08:01:14.38	22.21	13.00	
2025-01-15 08:01:14.59	22.22	13.02	
2025-01-15 08:01:14.79	22.23	13.04	
2025-01-15 08:01:14.99	22.24	13.06	
2025-01-15 08:01:15.20	22.25	13.09	
2025-01-15 08:01:15.40	22.26	13.11	
2025-01-15 08:01:15.60	22.27	13.13	
2025-01-15 08:01:15.81	22.28	13.15	
2025-01-15 08:01:16.01	22.29	13.17	
2025-01-15 08:01:16.21	22.30	13.19	
2025-01-15 08:01:16.42	22.31	13.21	
2025-01-15 08:01:16.62	22.32	13.23	
2025-01-15 08:01:16.82	22.33	13.26	
2025-01-15 08:01:17.03	22.34	13.28	
2025-01-15 08:01:17.23	22.34	13.30	
2025-01-15 08:01:17.43	22.35	13.32	
2025-01-15 08:01:17.64	22.36	13.34	
2025-01-15 08:01:17.84	22.37	13.36	
2025-01-15 08:01:18.04	22.38	13.38	
2025-01-15 08:01:18.24	22.39	13.41	
2025-01-15 08:01:18.45	22.40	13.43	
2025-01-15 08:01:18.65	22.41	13.45	
2025-01-15 08:01:18.85	22.42	13.47	
2025-01-15 08:01:19.06	22.43	13.49	
2025-01-15 08:01:19.26	22.44	13.51	
2025-01-15 08:01:19.46	22.45	13.54	
2025-01-15 08:01:19.67	22.46	13.56	
2025-01-15 08:01:19.87	22.47	13.58	
2025-01-15 08:01:20.07	22.48	13.60	
2025-01-15 08:01:20.28	22.49	13.62	
2025-01-15 08:01:20.48	22.50	13.64	
2025-01-15 08:01:20.68	22.51	13.67	
2025-01-15 08:01:20.89	22.52	13.69	
2025-01-15 08:01:21.09	22.52	13.71	
2025-01-15 08:01:21.29	22.53	13.73	
2025-01-15 08:01:21.49	22.54	13.75	
2025-01-15 08:01:21.70	22.55	13.77	
2025-01-15 08:01:21.90	22.56	13.80	
2025-01-15 08:01:22.10	22.57	13.82	
2025-01-15 08:01:22.31	22.58	13.84	
2025-01-15 08:01:22.51	22.59	13.86	
2025-01-15 08:01:22.71	22.60	13.88	
2025-01-15 08:01:22.92	22.61	13.91	
2025-01-15 08:01:23.12	22.62	13.93	
2025-01-15 08:01:23.32	22.63	13.95	
2025-01-15 08:01:23.53	22.64	13.97	
2025-01-15 08:01:23.73	22.65	13.99	
2025-01-15 08:01:23.93	22.66	14.02	
2025-01-15 08:01:24.14	22.67	14.04	
2025-01-15 08:01:24.34	22.68	14.06	
2025-01-15 08:01:24.54	22.69	14.08	
2025-01-15 08:01:24.74	22.70	14.10	
2025-01-15 08:01:24.95	22.71	14.13	
2025-01-15 08:01:25.15	22.72	14.15	
2025-01-15 08:01:25.35	22.73	14.17	
2025-01-15 08:01:25.56	22.74	14.19	
2025-01-15 08:01:25.76	22.75	14.22	
2025-01-15 08:01:25.96	22.76	14.24	
2025-01-15 08:01:26.17	22.77	14.26	
2025-01-15 08:01:26.37	22.78	14.28	
2025-01-15 08:01:26.57	22.79	14.31	
2025-01-15 08:01:26.78	22.80	14.33	
2025-01-15 08:01:26.98	22.81	14.35	
2025-01-15 08:01:27.18	22.82	14.37	
2025-01-15 08:01:27.39	22.83	14.40	
2025-01-15 08:01:27.59	22.84	14.42	
2025-01-15 08:01:27.79	22.85	14.44	
2025-01-15 08:01:28.00	22.86	14.46	
2025-01-15 08:01:28.20	22.87	14.49	
2025-01-15 08:01:28.40	22.88	14.51	
2025-01-15 08:01:28.60	22.89	14.53	
2025-01-15 08:01:28.81	22.90	14.55	
2025-01-15 08:01:29.01	22.91	14.58	
2025-01-15 08:01:29.21	22.92	14.60	
2025-01-15 08:01:29.42	22.93	14.62	
2025-01-15 08:01:29.62	22.94	14.64	
2025-01-15 08:01:29.82	22.95	14.67	
2025-01-15 08:01:30.03	22.96	14.69	
2025-01-15 08:01:30.23	22.97	14.71	
2025-01-15 08:01:30.43	22.98	14.73	
2025-01-15 08:01:30.64	22.99	14.76	
2025-01-15 08:01:30.84	23.00	14.78	
2025-01-15 08:01:31.04	23.01	14.80	
2025-01-15 08:01:31.25	23.02	14.83	
2025-01-15 08:01:31.45	23.03	14.85	
2025-01-15 08:01:31.65	23.04	14.87	
2025-01-15 08:01:31.85	23.05	14.89	
2025-01-15 08:01:32.06	23.07	14.92	
2025-01-15 08:01:32.26	23.08	14.94	
2025-01-15 08:01:32.46	23.09	14.96	
2025-01-15 08:01:32.67	23.10	14.99	
2025-01-15 08:01:32.87	23.11	15.01	
2025-01-15 08:01:33.07	23.12	15.03	
2025-01-15 08:01:33.28	23.13	15.06	
2025-01-15 08:01:33.48	23.14	15.08	
2025-01-15 08:01:33.68	23.15	15.10	
2025-01-15 08:01:33.89	23.16	15.13	
2025-01-15 08:01:34.09	23.17	15.15	
2025-01-15 08:01:34.29	23.18	15.17	
2025-01-15 08:01:34.50	23.19	15.20	
2025-01-15 08:01:34.70	23.20	15.22	
2025-01-15 08:01:34.90	23.21	15.24	
2025-01-15 08:01:35.10	23.22	15.26	
2025-01-15 08:01:35.31	23.23	15.29	
2025-01-15 08:01:35.51	23.24	15.31	
2025-01-15 08:01:35.71	23.25	15.34	
2025-01-15 08:01:35.92	23.27	15.36	
2025-01-15 08:01:36.12	23.28	15.38	
2025-01-15 08:01:36.32	23.29	15.41	
2025-01-15 08:01:36.53	23.30	15.43	
2025-01-15 08:01:36.73	23.31	15.45	
2025-01-15 08:01:36.93	23.32	15.48	
2025-01-15 08:01:37.14	23.33	15.50	
2025-01-15 08:01:37.34	23.34	15.52	
2025-01-15 08:01:37.54	23.35	15.55	
2025-01-15 08:01:37.75	23.36	15.57	
2025-01-15 08:01:37.95	23.37	15.59	
2025-01-15 08:01:38.15	23.38	15.62	
2025-01-15 08:01:38.36	23.40	15.64	
2025-01-15 08:01:38.56	23.41	15.67	
2025-01-15 08:01:38.76	23.42	15.69	
2025-01-15 08:01:38.96	23.43	15.71	
2025-01-15 08:01:39.17	23.44	15.74	
2025-01-15 08:01:39.37	23.45	15.76	
2025-01-15 08:01:39.57	23.46	15.78	
2025-01-15 08:01:39.78	23.47	15.81	
2025-01-15 08:01:39.98	23.48	15.83	
2025-01-15 08:01:40.18	23.49	15.86	
2025-01-15 08:01:40.39	23.51	15.88	
2025-01-15 08:01:40.59	23.52	15.90	
2025-01-15 08:01:40.79	23.53	15.93	
2025-01-15 08:01:41.00	23.54	15.95	
2025-01-15 08:01:41.20	23.55	15.98	
2025-01-15 08:01:41.40	23.56	16.00	
2025-01-15 08:01:41.61	23.57	16.03	
2025-01-15 08:01:41.81	23.58	16.05	
2025-01-15 08:01:42.01	23.59	16.07	
2025-01-15 08:01:42.21	23.61	16.10	
2025-01-15 08:01:42.42	23.62	16.12	
2025-01-15 08:01:42.62	23.63	16.15	
2025-01-15 08:01:42.82	23.64	16.17	
2025-01-15 08:01:43.03	23.65	16.19	
2025-01-15 08:01:43.23	23.66	16.22	
2025-01-15 08:01:43.43	23.67	16.24	
2025-01-15 08:01:43.64	23.69	16.27	
2025-01-15 08:01:43.84	23.70	16.29	
2025-01-15 08:01:44.04	23.71	16.32	
2025-01-15 08:01:44.25	23.72	16.34	
2025-01-15 08:01:44.45	23.73	16.37	
2025-01-15 08:01:44.65	23.74	16.39	
2025-01-15 08:01:44.86	23.75	16.42	
2025-01-15 08:01:45.06	23.77	16.44	
2025-01-15 08:01:45.26	23.78	16.46	
2025-01-15 08:01:45.46	23.79	16.49	
2025-01-15 08:01:45.67	23.80	16.51	
2025-01-15 08:01:45.87	23.81	16.54	
2025-01-15 08:01:46.07	23.82	16.56	
2025-01-15 08:01:46.28	23.83	16.59	
2025-01-15 08:01:46.48	23.85	16.61	
2025-01-15 08:01:46.68	23.86	16.64	
2025-01-15 08:01:46.89	23.87	16.66	
2025-01-15 08:01:47.09	23.88	16.69	
2025-01-15 08:01:47.29	23.89	16.71	
2025-01-15 08:01:47.50	23.90	16.74	
2025-01-15 08:01:47.70	23.92	16.76	
2025-01-15 08:01:47.90	23.93	16.79	
2025-01-15 08:01:48.11	23.94	16.81	
2025-01-15 08:01:48.31	23.95	16.84	
2025-01-15 08:01:48.51	23.96	16.86	
2025-01-15 08:01:48.72	23.98	16.89	
2025-01-15 08:01:48.92	23.99	16.91	
2025-01-15 08:01:49.12	24.00	16.94	
2025-01-15 08:01:49.32	24.01	16.96	
2025-01-15 08:01:49.53	24.02	16.99	
2025-01-15 08:01:49.73	24.03	17.01	
2025-01-15 08:01:49.93	24.05	17.04	
2025-01-15 08:01:50.14	24.06	17.06	
2025-01-15 08:01:50.34	24.07	17.09	
2025-01-15 08:01:50.54	24.08	17.11	
2025-01-15 08:01:50.75	24.09	17.14	
2025-01-15 08:01:50.95	24.11	17.16	
2025-01-15 08:01:51.15	24.12	17.19	
2025-01-15 08:01:51.36	24.13	17.21	
2025-01-15 08:01:51.56	24.14	17.24	
2025-01-15 08:01:51.76	24.15	17.26	
2025-01-15 08:01:51.97	24.17	17.29	
2025-01-15 08:01:52.17	24.18	17.32	
2025-01-15 08:01:52.37	24.19	17.34	
2025-01-15 08:01:52.57	24.20	17.37	
2025-01-15 08:01:52.78	24.22	17.39	
2025-01-15 08:01:52.98	24.23	17.42	
2025-01-15 08:01:53.18	24.24	17.44	
2025-01-15 08:01:53.39	24.25	17.47	
2025-01-15 08:01:53.59	24.26	17.50	
2025-01-15 08:01:53.79	24.28	17.52	
2025-01-15 08:01:54.00	24.29	17.55	
2025-01-15 08:01:54.20	24.30	17.57	
2025-01-15 08:01:54.40	24.31	17.60	
2025-01-15 08:01:54.61	24.33	17.62	
2025-01-15 08:01:54.81	24.34	17.65	
2025-01-15 08:01:55.01	24.35	17.68	
2025-01-15 08:01:55.22	24.36	17.70	
2025-01-15 08:01:55.42	24.38	17.73	
2025-01-15 08:01:55.62	24.39	17.75	
2025-01-15 08:01:55.82	24.40	17.78	
2025-01-15 08:01:56.03	24.41	17.81	
2025-01-15 08:01:56.23	24.43	17.83	
2025-01-15 08:01:56.43	24.44	17.86	
2025-01-15 08:01:56.64	24.45	17.88	
2025-01-15 08:01:56.84	24.46	17.91	
2025-01-15 08:01:57.04	24.48	17.94	
2025-01-15 08:01:57.25	24.49	17.96	
2025-01-15 08:01:57.45	24.50	17.99	
2025-01-15 08:01:57.65	24.52	18.02	
2025-01-15 08:01:57.86	24.53	18.04	
2025-01-15 08:01:58.06	24.54	18.07	
2025-01-15 08:01:58.26	24.55	18.09	
2025-01-15 08:01:58.47	24.57	18.12	
2025-01-15 08:01:58.67	24.58	18.15	
2025-01-15 08:01:58.87	24.59	18.17	
2025-01-15 08:01:59.08	24.61	18.20	
2025-01-15 08:01:59.28	24.62	18.23	
2025-01-15 08:01:59.48	24.63	18.25	
2025-01-15 08:01:59.68	24.64	18.28	
2025-01-15 08:01:59.89	24.66	18.31	
2025-01-15 08:02:00.09	24.67	18.33	
2025-01-15 08:02:00.29	24.68	18.36	
2025-01-15 08:02:00.50	24.70	18.39	
2025-01-15 08:02:00.70	24.71	18.41	
2025-01-15 08:02:00.90	24.72	18.44	
2025-01-15 08:02:01.11	24.74	18.47	
2025-01-15 08:02:01.31	24.75	18.49	
2025-01-15 08:02:01.51	24.76	18.52	
2025-01-15 08:02:01.72	24.78	18.55	
2025-01-15 08:02:01.92	24.79	18.58	
2025-01-15 08:02:02.12	24.80	18.60	
2025-01-15 08:02:02.33	24.81	18.63	
2025-01-15 08:02:02.53	24.83	18.66	
2025-01-15 08:02:02.73	24.84	18.68	
2025-01-15 08:02:02.93	24.85	18.71	
2025-01-15 08:02:03.14	24.87	18.74	
2025-01-15 08:02:03.34	24.88	18.76	
2025-01-15 08:02:03.54	24.89	18.79	
2025-01-15 08:02:03.75	24.91	18.82	
2025-01-15 08:02:03.95	24.92	18.85	
2025-01-15 08:02:04.15	24.93	18.87	
2025-01-15 08:02:04.36	24.95	18.90	
2025-01-15 08:02:04.56	24.96	18.93	
2025-01-15 08:02:04.76	24.98	18.96	
2025-01-15 08:02:04.97	24.99	18.98	
2025-01-15 08:02:05.17	25.00	19.01	
2025-01-15 08:02:05.37	25.02	19.04	
2025-01-15 08:02:05.58	25.03	19.07	
2025-01-15 08:02:05.78	25.04	19.09	
2025-01-15 08:02:05.98	25.06	19.12	
2025-01-15 08:02:06.18	25.07	19.15	
2025-01-15 08:02:06.39	25.08	19.18	
2025-01-15 08:02:06.59	25.10	19.20	
2025-01-15 08:02:06.79	25.11	19.23	
2025-01-15 08:02:07.00	25.13	19.26	
2025-01-15 08:02:07.20	25.14	19.29	
2025-01-15 08:02:07.40	25.15	19.31	
2025-01-15 08:02:07.61	25.17	19.34	
2025-01-15 08:02:07.81	25.18	19.37	
2025-01-15 08:02:08.01	25.19	19.40	
2025-01-15 08:02:08.22	25.21	19.43	
2025-01-15 08:02:08.42	25.22	19.45	
2025-01-15 08:02:08.62	25.24	19.48	
2025-01-15 08:02:08.83	25.25	19.51	
2025-01-15 08:02:09.03	25.27	19.54	
2025-01-15 08:02:09.23	25.28	19.57	
2025-01-15 08:02:09.43	25.29	19.59	
2025-01-15 08:02:09.64	25.31	19.62	
2025-01-15 08:02:09.84	25.32	19.65	
2025-01-15 08:02:10.04	25.34	19.68	
2025-01-15 08:02:10.25	25.35	19.71	
2025-01-15 08:02:10.45	25.36	19.74	
2025-01-15 08:02:10.65	25.38	19.76	
2025-01-15 08:02:10.86	25.39	19.79	
2025-01-15 08:02:11.06	25.41	19.82	
2025-01-15 08:02:11.26	25.42	19.85	
2025-01-15 08:02:11.47	25.44	19.88	
2025-01-15 08:02:11.67	25.45	19.91	
2025-01-15 08:02:11.87	25.46	19.93	
2025-01-15 08:02:12.08	25.48	19.96	
2025-01-15 08:02:12.28	25.49	19.99	
2025-01-15 08:02:12.48	25.51	20.02	
2025-01-15 08:02:12.69	25.52	20.05	
2025-01-15 08:02:12.89	25.54	20.08	
2025-01-15 08:02:13.09	25.55	20.11	
2025-01-15 08:02:13.29	25.57	20.13	
2025-01-15 08:02:13.50	25.58	20.16	
2025-01-15 08:02:13.70	25.60	20.19	
2025-01-15 08:02:13.90	25.61	20.22	
2025-01-15 08:02:14.11	25.63	20.25	
2025-01-15 08:02:14.31	25.64	20.28	
2025-01-15 08:02:14.51	25.65	20.31	
2025-01-15 08:02:14.72	25.67	20.34	
2025-01-15 08:02:14.92	25.68	20.37	
2025-01-15 08:02:15.12	25.70	20.40	
2025-01-15 08:02:15.33	25.71	20.43	
2025-01-15 08:02:15.53	25.73	20.45	
2025-01-15 08:02:15.73	25.74	20.48	
2025-01-15 08:02:15.94	25.76	20.51	
2025-01-15 08:02:16.14	25.77	20.54	
2025-01-15 08:02:16.34	25.79	20.57	
2025-01-15 08:02:16.54	25.80	20.60	
2025-01-15 08:02:16.75	25.82	20.63	
2025-01-15 08:02:16.95	25.83	20.66	
2025-01-15 08:02:17.15	25.85	20.69	
2025-01-15 08:02:17.36	25.86	20.72	
2025-01-15 08:02:17.56	25.88	20.75	
2025-01-15 08:02:17.76	25.89	20.78	
2025-01-15 08:02:17.97	25.91	20.81	
2025-01-15 08:02:18.17	25.93	20.84	
2025-01-15 08:02:18.37	25.94	20.87	
2025-01-15 08:02:18.58	25.96	20.90	
2025-01-15 08:02:18.78	25.97	20.93	
2025-01-15 08:02:18.98	25.99	20.96	
2025-01-15 08:02:19.19	26.00	20.99	
2025-01-15 08:02:19.39	26.02	21.02	
2025-01-15 08:02:19.59	26.03	21.04	
2025-01-15 08:02:19.80	26.05	21.08	
2025-01-15 08:02:20.00	26.06	21.11	
2025-01-15 08:02:20.20	26.08	21.13	
2025-01-15 08:02:20.40	26.09	21.16	
2025-01-15 08:02:20.61	26.11	21.20	
2025-01-15 08:02:20.81	26.13	21.23	
2025-01-15 08:02:21.01	26.14	21.25	
2025-01-15 08:02:21.22	26.16	21.29	
2025-01-15 08:02:21.42	26.17	21.32	
2025-01-15 08:02:21.62	26.19	21.35	
2025-01-15 08:02:21.83	26.21	21.38	
2025-01-15 08:02:22.03	26.22	21.41	
2025-01-15 08:02:22.23	26.24	21.44	
2025-01-15 08:02:22.44	26.25	21.47	
2025-01-15 08:02:22.64	26.27	21.50	
2025-01-15 08:02:22.84	26.28	21.53	
2025-01-15 08:02:23.05	26.30	21.56	
2025-01-15 08:02:23.25	26.32	21.59	
2025-01-15 08:02:23.45	26.33	21.62	
2025-01-15 08:02:23.65	26.35	21.65	
2025-01-15 08:02:23.86	26.37	21.68	
2025-01-15 08:02:24.06	26.38	21.71	
2025-01-15 08:02:24.26	26.40	21.74	
2025-01-15 08:02:24.47	26.41	21.77	
2025-01-15 08:02:24.67	26.43	21.80	
2025-01-15 08:02:24.87	26.45	21.84	
2025-01-15 08:02:25.08	26.46	21.87	
2025-01-15 08:02:25.28	26.48	21.90	
2025-01-15 08:02:25.48	26.49	21.93	
2025-01-15 08:02:25.69	26.51	21.96	
2025-01-15 08:02:25.89	26.53	21.99	
2025-01-15 08:02:26.09	26.54	22.02	
2025-01-15 08:02:26.30	26.56	22.05	
2025-01-15 08:02:26.50	26.58	22.08	
2025-01-15 08:02:26.70	26.59	22.11	
2025-01-15 08:02:26.90	26.61	22.15	
2025-01-15 08:02:27.11	26.63	22.18	
2025-01-15 08:02:27.31	26.64	22.21	
2025-01-15 08:02:27.51	26.66	22.24	
2025-01-15 08:02:27.72	26.68	22.27	
2025-01-15 08:02:27.92	26.69	22.30	
2025-01-15 08:02:28.12	26.71	22.33	
2025-01-15 08:02:28.33	26.73	22.37	
2025-01-15 08:02:28.53	26.74	22.40	
2025-01-15 08:02:28.73	26.76	22.43	
2025-01-15 08:02:28.94	26.78	22.46	
2025-01-15 08:02:29.14	26.80	22.49	
2025-01-15 08:02:29.34	26.81	22.52	
2025-01-15 08:02:29.55	26.83	22.56	
2025-01-15 08:02:29.75	26.85	22.59	
2025-01-15 08:02:29.95	26.86	22.62	
2025-01-15 08:02:30.16	26.88	22.65	
2025-01-15 08:02:30.36	26.90	22.68	
2025-01-15 08:02:30.56	26.92	22.72	
2025-01-15 08:02:30.76	26.93	22.75	
2025-01-15 08:02:30.97	26.95	22.78	
2025-01-15 08:02:31.17	26.97	22.81	
2025-01-15 08:02:31.37	26.98	22.84	
2025-01-15 08:02:31.58	27.00	22.88	
2025-01-15 08:02:31.78	27.02	22.91	
2025-01-15 08:02:31.98	27.04	22.94	
2025-01-15 08:02:32.19	27.06	22.97	
2025-01-15 08:02:32.39	27.07	23.01	
2025-01-15 08:02:32.59	27.09	23.04	
2025-01-15 08:02:32.80	27.11	23.07	
2025-01-15 08:02:33.00	27.13	23.10	
2025-01-15 08:02:33.20	27.14	23.14	
2025-01-15 08:02:33.41	27.16	23.17	
2025-01-15 08:02:33.61	27.18	23.20	
2025-01-15 08:02:33.81	27.20	23.23	
2025-01-15 08:02:34.01	27.21	23.27	
2025-01-15 08:02:34.22	27.23	23.30	
2025-01-15 08:02:34.42	27.25	23.33	
2025-01-15 08:02:34.62	27.27	23.36	
2025-01-15 08:02:34.83	27.29	23.40	
2025-01-15 08:02:35.03	27.30	23.43	
2025-01-15 08:02:35.23	27.32	23.46	
2025-01-15 08:02:35.44	27.34	23.50	
2025-01-15 08:02:35.64	27.36	23.53	
2025-01-15 08:02:35.84	27.38	23.56	
2025-01-15 08:02:36.05	27.39	23.60	
2025-01-15 08:02:36.25	27.41	23.63	
2025-01-15 08:02:36.45	27.43	23.66	
2025-01-15 08:02:36.66	27.45	23.70	
2025-01-15 08:02:36.86	27.47	23.73	
2025-01-15 08:02:37.06	27.49	23.76	
2025-01-15 08:02:37.26	27.50	23.79	
2025-01-15 08:02:37.47	27.52	23.83	
2025-01-15 08:02:37.67	27.54	23.86	
2025-01-15 08:02:37.87	27.56	23.90	
2025-01-15 08:02:38.08	27.58	23.93	
2025-01-15 08:02:38.28	27.60	23.96	
2025-01-15 08:02:38.48	27.62	24.00	
2025-01-15 08:02:38.69	27.64	24.03	
2025-01-15 08:02:38.89	27.65	24.06	
2025-01-15 08:02:39.09	27.67	24.10	
2025-01-15 08:02:39.30	27.69	24.13	
2025-01-15 08:02:39.50	27.71	24.17	
2025-01-15 08:02:39.70	27.73	24.20	
2025-01-15 08:02:39.91	27.75	24.23	
2025-01-15 08:02:40.11	27.77	24.27	
2025-01-15 08:02:40.31	27.79	24.30	
2025-01-15 08:02:40.52	27.81	24.34	
2025-01-15 08:02:40.72	27.82	24.37	
2025-01-15 08:02:40.92	27.84	24.40	
2025-01-15 08:02:41.12	27.86	24.44	
2025-01-15 08:02:41.33	27.88	24.47	
2025-01-15 08:02:41.53	27.90	24.51	
2025-01-15 08:02:41.73	27.92	24.54	
2025-01-15 08:02:41.94	27.94	24.58	
2025-01-15 08:02:42.14	27.96	24.61	
2025-01-15 08:02:42.34	27.98	24.64	
2025-01-15 08:02:42.55	28.00	24.68	
2025-01-15 08:02:42.75	28.02	24.71	
2025-01-15 08:02:42.95	28.04	24.75	
2025-01-15 08:02:43.16	28.06	24.78	
2025-01-15 08:02:43.36	28.08	24.82	
2025-01-15 08:02:43.56	28.10	24.85	
2025-01-15 08:02:43.77	28.12	24.89	
2025-01-15 08:02:43.97	28.14	24.92	
2025-01-15 08:02:44.17	28.16	24.96	
2025-01-15 08:02:44.37	28.18	24.99	
2025-01-15 08:02:44.58	28.20	25.03	
2025-01-15 08:02:44.78	28.22	25.06	
2025-01-15 08:02:44.98	28.24	25.10	
2025-01-15 08:02:45.19	28.26	25.13	
2025-01-15 08:02:45.39	28.28	25.17	
2025-01-15 08:02:45.59	28.30	25.20	
2025-01-15 08:02:45.80	28.32	25.24	
2025-01-15 08:02:46.00	28.34	25.27	
2025-01-15 08:02:46.20	28.36	25.31	
2025-01-15 08:02:46.41	28.38	25.35	
2025-01-15 08:02:46.61	28.40	25.38	
2025-01-15 08:02:46.81	28.42	25.42	
2025-01-15 08:02:47.02	28.44	25.45	
2025-01-15 08:02:47.22	28.46	25.49	
2025-01-15 08:02:47.42	28.48	25.52	
2025-01-15 08:02:47.62	28.50	25.56	
2025-01-15 08:02:47.83	28.52	25.60	
2025-01-15 08:02:48.03	28.54	25.63	
2025-01-15 08:02:48.23	28.56	25.67	
2025-01-15 08:02:48.44	28.58	25.70	
2025-01-15 08:02:48.64	28.60	25.74	
2025-01-15 08:02:48.84	28.63	25.77	
2025-01-15 08:02:49.05	28.65	25.81	
2025-01-15 08:02:49.25	28.67	25.85	
2025-01-15 08:02:49.45	28.69	25.88	
2025-01-15 08:02:49.66	28.71	25.92	
2025-01-15 08:02:49.86	28.73	25.96	
2025-01-15 08:02:50.06	28.75	25.99	
2025-01-15 08:02:50.27	28.77	26.03	
2025-01-15 08:02:50.47	28.79	26.07	
2025-01-15 08:02:50.67	28.82	26.10	
2025-01-15 08:02:50.88	28.84	26.14	
2025-01-15 08:02:51.08	28.86	26.17	
2025-01-15 08:02:51.28	28.88	26.21	
2025-01-15 08:02:51.48	28.90	26.25	
2025-01-15 08:02:51.69	28.92	26.29	
2025-01-15 08:02:51.89	28.95	26.32	
2025-01-15 08:02:52.09	28.97	26.36	
2025-01-15 08:02:52.30	28.99	26.40	
2025-01-15 08:02:52.50	29.01	26.43	
2025-01-15 08:02:52.70	29.03	26.47	
2025-01-15 08:02:52.91	29.05	26.51	
2025-01-15 08:02:53.11	29.08	26.54	
2025-01-15 08:02:53.31	29.10	26.58	
2025-01-15 08:02:53.52	29.12	26.62	
2025-01-15 08:02:53.72	29.14	26.66	
2025-01-15 08:02:53.92	29.16	26.69	
2025-01-15 08:02:54.13	29.19	26.73	
2025-01-15 08:02:54.33	29.21	26.77	
2025-01-15 08:02:54.53	29.23	26.80	
2025-01-15 08:02:54.73	29.25	26.84	
2025-01-15 08:02:54.94	29.28	26.88	
2025-01-15 08:02:55.14	29.30	26.92	
2025-01-15 08:02:55.34	29.32	26.95	
2025-01-15 08:02:55.55	29.34	26.99	
2025-01-15 08:02:55.75	29.37	27.03	
2025-01-15 08:02:55.95	29.39	27.07	
2025-01-15 08:02:56.16	29.41	27.11	
2025-01-15 08:02:56.36	29.43	27.14	
2025-01-15 08:02:56.56	29.46	27.18	
2025-01-15 08:02:56.77	29.48	27.22	
2025-01-15 08:02:56.97	29.50	27.26	
2025-01-15 08:02:57.17	29.53	27.30	
2025-01-15 08:02:57.38	29.55	27.34	
2025-01-15 08:02:57.58	29.57	27.37	
2025-01-15 08:02:57.78	29.60	27.41	
2025-01-15 08:02:57.98	29.62	27.45	
2025-01-15 08:02:58.19	29.64	27.49	
2025-01-15 08:02:58.39	29.67	27.53	
2025-01-15 08:02:58.59	29.69	27.56	
2025-01-15 08:02:58.80	29.71	27.60	
2025-01-15 08:02:59.00	29.74	27.64	
2025-01-15 08:02:59.20	29.76	27.68	
2025-01-15 08:02:59.41	29.78	27.72	
2025-01-15 08:02:59.61	29.81	27.76	
2025-01-15 08:02:59.81	29.83	27.80	
2025-01-15 08:03:00.02	29.85	27.84	
2025-01-15 08:03:00.22	29.88	27.87	
2025-01-15 08:03:00.42	29.90	27.91	
2025-01-15 08:03:00.63	29.93	27.95	
2025-01-15 08:03:00.83	29.95	27.99	
2025-01-15 08:03:01.03	29.97	28.03	
2025-01-15 08:03:01.24	30.00	28.07	
2025-01-15 08:03:01.44	30.02	28.11	
2025-01-15 08:03:01.64	30.05	28.15	
2025-01-15 08:03:01.84	30.07	28.19	
2025-01-15 08:03:02.05	30.10	28.23	
2025-01-15 08:03:02.25	30.12	28.27	
2025-01-15 08:03:02.45	30.14	28.31	
2025-01-15 08:03:02.66	30.17	28.35	
2025-01-15 08:03:02.86	30.19	28.39	
2025-01-15 08:03:03.06	30.22	28.42	
2025-01-15 08:03:03.27	30.24	28.47	
2025-01-15 08:03:03.47	30.27	28.51	
2025-01-15 08:03:03.67	30.29	28.54	
2025-01-15 08:03:03.88	30.32	28.59	
2025-01-15 08:03:04.08	30.34	28.62	
2025-01-15 08:03:04.28	30.37	28.66	
2025-01-15 08:03:04.49	30.39	28.71	
2025-01-15 08:03:04.69	30.42	28.75	
2025-01-15 08:03:04.89	30.44	28.79	
2025-01-15 08:03:05.09	30.47	28.82	
2025-01-15 08:03:05.30	30.49	28.87	
2025-01-15 08:03:05.50	30.52	28.91	
2025-01-15 08:03:05.70	30.54	28.95	
2025-01-15 08:03:05.91	30.57	28.99	
2025-01-15 08:03:06.11	30.60	29.03	
2025-01-15 08:03:06.31	30.62	29.07	
2025-01-15 08:03:06.52	30.65	29.11	
2025-01-15 08:03:06.72	30.67	29.15	
2025-01-15 08:03:06.92	30.70	29.19	
2025-01-15 08:03:07.13	30.73	29.23	
2025-01-15 08:03:07.33	30.75	29.27	
2025-01-15 08:03:07.53	30.78	29.31	
2025-01-15 08:03:07.74	30.80	29.36	
2025-01-15 08:03:07.94	30.83	29.40	
2025-01-15 08:03:08.14	30.86	29.44	
2025-01-15 08:03:08.34	30.88	29.48	
2025-01-15 08:03:08.55	30.91	29.52	
2025-01-15 08:03:08.75	30.93	29.56	
2025-01-15 08:03:08.95	30.96	29.60	
2025-01-15 08:03:09.16	30.99	29.64	
2025-01-15 08:03:09.36	31.01	29.68	
2025-01-15 08:03:09.56	31.04	29.73	
2025-01-15 08:03:09.77	31.07	29.77	
2025-01-15 08:03:09.97	31.10	29.81	
2025-01-15 08:03:10.17	31.12	29.85	
2025-01-15 08:03:10.38	31.15	29.89	
2025-01-15 08:03:10.58	31.18	29.93	
2025-01-15 08:03:10.78	31.20	29.98	
2025-01-15 08:03:10.99	31.23	30.02	
2025-01-15 08:03:11.19	31.26	30.06	
2025-01-15 08:03:11.39	31.29	30.10	
2025-01-15 08:03:11.60	31.31	30.15	
2025-01-15 08:03:11.80	31.34	30.19	
2025-01-15 08:03:12.00	31.37	30.23	
2025-01-15 08:03:12.20	31.40	30.27	
2025-01-15 08:03:12.41	31.42	30.31	
2025-01-15 08:03:12.61	31.45	30.36	
2025-01-15 08:03:12.81	31.48	30.40	
2025-01-15 08:03:13.02	31.51	30.44	
2025-01-15 08:03:13.22	31.54	30.48	
2025-01-15 08:03:13.42	31.56	30.53	
2025-01-15 08:03:13.63	31.59	30.57	
2025-01-15 08:03:13.83	31.62	30.61	
2025-01-15 08:03:14.03	31.65	30.65	
2025-01-15 08:03:14.24	31.68	30.70	
2025-01-15 08:03:14.44	31.71	30.74	
2025-01-15 08:03:14.64	31.73	30.78	
2025-01-15 08:03:14.85	31.76	30.83	
2025-01-15 08:03:15.05	31.79	30.87	
2025-01-15 08:03:15.25	31.82	30.91	
2025-01-15 08:03:15.45	31.85	30.96	
2025-01-15 08:03:15.66	31.88	31.00	
2025-01-15 08:03:15.86	31.91	31.04	
2025-01-15 08:03:16.06	31.94	31.09	
2025-01-15 08:03:16.27	31.97	31.13	
2025-01-15 08:03:16.47	31.99	31.17	
2025-01-15 08:03:16.67	32.02	31.22	
2025-01-15 08:03:16.88	32.05	31.26	
2025-01-15 08:03:17.08	32.08	31.31	
2025-01-15 08:03:17.28	32.11	31.35	
2025-01-15 08:03:17.49	32.14	31.39	
2025-01-15 08:03:17.69	32.17	31.44	
2025-01-15 08:03:17.89	32.20	31.48	
2025-01-15 08:03:18.10	32.23	31.53	
2025-01-15 08:03:18.30	32.26	31.57	
2025-01-15 08:03:18.50	32.29	31.61	
2025-01-15 08:03:18.70	32.32	31.66	
2025-01-15 08:03:18.91	32.35	31.70	
2025-01-15 08:03:19.11	32.38	31.75	
2025-01-15 08:03:19.31	32.41	31.79	
2025-01-15 08:03:19.52	32.44	31.84	
2025-01-15 08:03:19.72	32.47	31.88	
2025-01-15 08:03:19.92	32.50	31.92	
2025-01-15 08:03:20.13	32.54	31.97	
2025-01-15 08:03:20.33	32.57	32.01	
2025-01-15 08:03:20.53	32.60	32.06	
2025-01-15 08:03:20.74	32.63	32.11	
2025-01-15 08:03:20.94	32.66	32.15	
2025-01-15 08:03:21.14	32.69	32.19	
2025-01-15 08:03:21.35	32.72	32.24	
2025-01-15 08:03:21.55	32.75	32.29	
2025-01-15 08:03:21.75	32.78	32.33	
2025-01-15 08:03:21.96	32.82	32.38	
2025-01-15 08:03:22.16	32.85	32.42	
2025-01-15 08:03:22.36	32.88	32.47	
2025-01-15 08:03:22.56	32.91	32.51	
2025-01-15 08:03:22.77	32.94	32.56	
2025-01-15 08:03:22.97	32.97	32.60	
2025-01-15 08:03:23.17	33.01	32.65	
2025-01-15 08:03:23.38	33.04	32.70	
2025-01-15 08:03:23.58	33.07	32.74	
2025-01-15 08:03:23.78	33.10	32.79	
2025-01-15 08:03:23.99	33.14	32.83	
2025-01-15 08:03:24.19	33.17	32.88	
2025-01-15 08:03:24.39	33.20	32.92	
2025-01-15 08:03:24.60	33.23	32.97	
2025-01-15 08:03:24.80	33.27	33.02	
2025-01-15 08:03:25.00	33.30	33.06	
2025-01-15 08:03:25.21	33.33	33.11	
2025-01-15 08:03:25.41	33.37	33.16	
2025-01-15 08:03:25.61	33.40	33.20	
2025-01-15 08:03:25.81	33.43	33.25	
2025-01-15 08:03:26.02	33.47	33.30	
2025-01-15 08:03:26.22	33.50	33.34	
2025-01-15 08:03:26.42	33.53	33.39	
2025-01-15 08:03:26.63	33.57	33.44	
2025-01-15 08:03:26.83	33.60	33.48	
2025-01-15 08:03:27.03	33.63	33.53	
2025-01-15 08:03:27.24	33.67	33.58	
2025-01-15 08:03:27.44	33.70	33.62	
2025-01-15 08:03:27.64	33.73	33.67	
2025-01-15 08:03:27.85	33.77	33.72	
2025-01-15 08:03:28.05	33.80	33.77	
2025-01-15 08:03:28.25	33.84	33.81	
2025-01-15 08:03:28.46	33.87	33.86	
2025-01-15 08:03:28.66	33.91	33.91	
2025-01-15 08:03:28.86	33.94	33.95	
2025-01-15 08:03:29.06	33.98	34.00	
2025-01-15 08:03:29.27	34.01	34.05	
2025-01-15 08:03:29.47	34.05	34.10	
2025-01-15 08:03:29.67	34.08	34.15	
2025-01-15 08:03:29.88	34.12	34.19	
2025-01-15 08:03:30.08	34.15	34.24	
2025-01-15 08:03:30.28	34.19	34.29	
2025-01-15 08:03:30.49	34.22	34.34	
2025-01-15 08:03:30.69	34.26	34.39	
2025-01-15 08:03:30.89	34.29	34.43	
2025-01-15 08:03:31.10	34.33	34.48	
2025-01-15 08:03:31.30	34.37	34.53	
2025-01-15 08:03:31.50	34.40	34.58	
2025-01-15 08:03:31.71	34.44	34.63	
2025-01-15 08:03:31.91	34.48	34.68	
2025-01-15 08:03:32.11	34.51	34.72	
2025-01-15 08:03:32.32	34.55	34.78	
2025-01-15 08:03:32.52	34.59	34.82	
2025-01-15 08:03:32.72	34.62	34.87	
2025-01-15 08:03:32.92	34.66	34.92	
2025-01-15 08:03:33.13	34.70	34.97	
2025-01-15 08:03:33.33	34.73	35.02	
2025-01-15 08:03:33.53	34.77	35.07	
2025-01-15 08:03:33.74	34.81	35.12	
2025-01-15 08:03:33.94	34.84	35.17	
2025-01-15 08:03:34.14	34.88	35.21	
2025-01-15 08:03:34.35	34.92	35.27	
2025-01-15 08:03:34.55	34.96	35.31	
2025-01-15 08:03:34.75	35.00	35.36	
2025-01-15 08:03:34.96	35.03	35.41	
2025-01-15 08:03:35.16	35.07	35.46	
2025-01-15 08:03:35.36	35.11	35.51	
2025-01-15 08:03:35.57	35.15	35.56	
2025-01-15 08:03:35.77	35.19	35.61	
2025-01-15 08:03:35.97	35.22	35.66	
2025-01-15 08:03:36.17	35.26	35.71	
2025-01-15 08:03:36.38	35.30	35.76	
2025-01-15 08:03:36.58	35.34	35.81	
2025-01-15 08:03:36.78	35.38	35.86	
2025-01-15 08:03:36.99	35.42	35.91	
2025-01-15 08:03:37.19	35.46	35.96	
2025-01-15 08:03:37.39	35.50	36.01	
2025-01-15 08:03:37.60	35.54	36.07	
2025-01-15 08:03:37.80	35.58	36.12	
2025-01-15 08:03:38.00	35.62	36.17	
2025-01-15 08:03:38.21	35.66	36.22	
2025-01-15 08:03:38.41	35.70	36.27	
2025-01-15 08:03:38.61	35.74	36.32	
2025-01-15 08:03:38.82	35.78	36.37	
2025-01-15 08:03:39.02	35.82	36.42	
2025-01-15 08:03:39.22	35.86	36.47	
2025-01-15 08:03:39.42	35.90	36.52	
2025-01-15 08:03:39.63	35.94	36.57	
2025-01-15 08:03:39.83	35.98	36.62	
2025-01-15 08:03:40.03	36.02	36.68	
2025-01-15 08:03:40.24	36.06	36.73	
2025-01-15 08:03:40.44	36.10	36.78	
2025-01-15 08:03:40.64	36.15	36.83	
2025-01-15 08:03:40.85	36.19	36.88	
2025-01-15 08:03:41.05	36.23	36.93	
2025-01-15 08:03:41.25	36.27	36.99	
2025-01-15 08:03:41.46	36.31	37.04	
2025-01-15 08:03:41.66	36.36	37.09	
2025-01-15 08:03:41.86	36.40	37.14	
2025-01-15 08:03:42.07	36.44	37.19	
2025-01-15 08:03:42.27	36.48	37.25	
2025-01-15 08:03:42.47	36.52	37.30	
2025-01-15 08:03:42.68	36.57	37.35	
2025-01-15 08:03:42.88	36.61	37.40	
2025-01-15 08:03:43.08	36.65	37.45	
2025-01-15 08:03:43.28	36.70	37.51	
2025-01-15 08:03:43.49	36.74	37.56	
2025-01-15 08:03:43.69	36.78	37.61	
2025-01-15 08:03:43.89	36.83	37.66	
2025-01-15 08:03:44.10	36.87	37.72	
2025-01-15 08:03:44.30	36.92	37.77	
2025-01-15 08:03:44.50	36.96	37.82	
2025-01-15 08:03:44.71	37.00	37.88	
2025-01-15 08:03:44.91	37.05	37.93	
2025-01-15 08:03:45.11	37.09	37.98	
2025-01-15 08:03:45.32	37.14	38.04	
2025-01-15 08:03:45.52	37.18	38.09	
2025-01-15 08:03:45.72	37.23	38.14	
2025-01-15 08:03:45.93	37.27	38.20	
2025-01-15 08:03:46.13	37.32	38.25	
2025-01-15 08:03:46.33	37.36	38.30	
2025-01-15 08:03:46.53	37.41	38.36	
2025-01-15 08:03:46.74	37.45	38.41	
2025-01-15 08:03:46.94	37.50	38.46	
2025-01-15 08:03:47.14	37.54	38.52	
2025-01-15 08:03:47.35	37.59	38.57	
2025-01-15 08:03:47.55	37.64	38.63	
2025-01-15 08:03:47.75	37.68	38.68	
2025-01-15 08:03:47.96	37.73	38.73	
2025-01-15 08:03:48.16	37.78	38.79	
2025-01-15 08:03:48.36	37.82	38.84	
2025-01-15 08:03:48.57	37.87	38.90	
2025-01-15 08:03:48.77	37.92	38.95	
2025-01-15 08:03:48.97	37.97	39.00	
2025-01-15 08:03:49.18	38.01	39.06	
2025-01-15 08:03:49.38	38.06	39.12	
2025-01-15 08:03:49.58	38.11	39.17	
2025-01-15 08:03:49.78	38.16	39.22	
2025-01-15 08:03:49.99	38.21	39.28	
2025-01-15 08:03:50.19	38.25	39.33	
2025-01-15 08:03:50.39	38.30	39.39	
2025-01-15 08:03:50.60	38.35	39.44	
2025-01-15 08:03:50.80	38.40	39.50	
2025-01-15 08:03:51.00	38.45	39.55	
2025-01-15 08:03:51.21	38.50	39.61	
2025-01-15 08:03:51.41	38.55	39.66	
2025-01-15 08:03:51.61	38.60	39.72	
2025-01-15 08:03:51.82	38.65	39.78	
2025-01-15 08:03:52.02	38.70	39.83	
2025-01-15 08:03:52.22	38.75	39.89	
2025-01-15 08:03:52.43	38.80	39.94	
2025-01-15 08:03:52.63	38.85	40.00	
2025-01-15 08:03:52.83	38.90	40.05	
2025-01-15 08:03:53.04	38.95	40.11	
2025-01-15 08:03:53.24	39.00	40.17	
2025-01-15 08:03:53.44	39.05	40.22	
2025-01-15 08:03:53.64	39.10	40.28	
2025-01-15 08:03:53.85	39.15	40.33	
2025-01-15 08:03:54.05	39.20	40.39	
2025-01-15 08:03:54.25	39.25	40.45	
2025-01-15 08:03:54.46	39.31	40.50	
2025-01-15 08:03:54.66	39.36	40.56	
2025-01-15 08:03:54.86	39.41	40.61	
2025-01-15 08:03:55.07	39.47	40.67	
2025-01-15 08:03:55.27	39.52	40.73	
2025-01-15 08:03:55.47	39.57	40.78	
2025-01-15 08:03:55.68	39.62	40.84	
2025-01-15 08:03:55.88	39.68	40.90	
2025-01-15 08:03:56.08	39.73	40.96	
2025-01-15 08:03:56.29	39.78	41.01	
2025-01-15 08:03:56.49	39.84	41.07	
2025-01-15 08:03:56.69	39.89	41.13	
2025-01-15 08:03:56.89	39.94	41.18	
2025-01-15 08:03:57.10	40.00	41.24	
2025-01-15 08:03:57.30	40.05	41.30	
2025-01-15 08:03:57.50	40.11	41.35	
2025-01-15 08:03:57.71	40.16	41.41	
2025-01-15 08:03:57.91	40.22	41.47	
2025-01-15 08:03:58.11	40.27	41.53	
2025-01-15 08:03:58.32	40.33	41.59	
2025-01-15 08:03:58.52	40.39	41.64	
2025-01-15 08:03:58.72	40.44	41.70	
2025-01-15 08:03:58.93	40.50	41.76	
2025-01-15 08:03:59.13	40.55	41.82	
2025-01-15 08:03:59.33	40.61	41.87	
2025-01-15 08:03:59.54	40.67	41.93	
2025-01-15 08:03:59.74	40.72	41.99	
2025-01-15 08:03:59.94	40.78	42.05	
2025-01-15 08:04:00.14	40.84	42.11	
2025-01-15 08:04:00.35	40.90	42.17	
2025-01-15 08:04:00.55	40.95	42.22	
2025-01-15 08:04:00.75	41.01	42.28	
2025-01-15 08:04:00.96	41.07	42.34	
2025-01-15 08:04:01.16	41.13	42.40	
2025-01-15 08:04:01.36	41.19	42.46	
2025-01-15 08:04:01.57	41.25	42.52	
2025-01-15 08:04:01.77	41.31	42.58	
2025-01-15 08:04:01.97	41.36	42.63	
2025-01-15 08:04:02.18	41.43	42.69	
2025-01-15 08:04:02.38	41.48	42.75	
2025-01-15 08:04:02.58	41.54	42.81	
2025-01-15 08:04:02.79	41.61	42.87	
2025-01-15 08:04:02.99	41.66	42.93	
2025-01-15 08:04:03.19	41.72	42.99	
2025-01-15 08:04:03.39	41.78	43.05	
2025-01-15 08:04:03.60	41.85	43.11	
2025-01-15 08:04:03.80	41.91	43.17	
2025-01-15 08:04:04.00	41.97	43.23	
2025-01-15 08:04:04.21	42.03	43.29	
2025-01-15 08:04:04.41	42.09	43.35	
2025-01-15 08:04:04.61	42.15	43.40	
2025-01-15 08:04:04.82	42.22	43.47	
2025-01-15 08:04:05.02	42.28	43.52	
2025-01-15 08:04:05.22	42.34	43.58	
2025-01-15 08:04:05.43	42.41	43.65	
2025-01-15 08:04:05.63	42.47	43.70	
2025-01-15 08:04:05.83	42.53	43.76	
2025-01-15 08:04:06.04	42.60	43.83	
2025-01-15 08:04:06.24	42.66	43.89	
2025-01-15 08:04:06.44	42.73	43.94	
2025-01-15 08:04:06.65	42.79	44.01	
2025-01-15 08:04:06.85	42.86	44.07	
2025-01-15 08:04:07.05	42.92	44.13	
2025-01-15 08:04:07.25	42.98	44.19	
2025-01-15 08:04:07.46	43.05	44.25	
2025-01-15 08:04:07.66	43.12	44.31	
2025-01-15 08:04:07.86	43.18	44.37	
2025-01-15 08:04:08.07	43.25	44.43	
2025-01-15 08:04:08.27	43.32	44.49	
2025-01-15 08:04:08.47	43.38	44.55	
2025-01-15 08:04:08.68	43.45	44.61	
2025-01-15 08:04:08.88	43.52	44.67	
2025-01-15 08:04:09.08	43.58	44.73	
2025-01-15 08:04:09.29	43.65	44.80	
2025-01-15 08:04:09.49	43.72	44.86	
2025-01-15 08:04:09.69	43.79	44.92	
2025-01-15 08:04:09.90	43.86	44.98	
2025-01-15 08:04:10.10	43.93	45.04	
2025-01-15 08:04:10.30	44.00	45.10	
2025-01-15 08:04:10.50	44.06	45.16	
2025-01-15 08:04:10.71	44.14	45.22	
2025-01-15 08:04:10.91	44.21	45.28	
2025-01-15 08:04:11.11	44.27	45.34	
2025-01-15 08:04:11.32	44.35	45.41	
2025-01-15 08:04:11.52	44.42	45.47	
2025-01-15 08:04:11.72	44.49	45.53	
2025-01-15 08:04:11.93	44.56	45.59	
2025-01-15 08:04:12.13	44.63	45.65	
2025-01-15 08:04:12.33	44.70	45.72	
2025-01-15 08:04:12.54	44.78	45.78	
2025-01-15 08:04:12.74	44.85	45.84	
2025-01-15 08:04:12.94	44.92	45.90	
2025-01-15 08:04:13.15	45.00	45.97	
2025-01-15 08:04:13.35	45.07	46.03	
2025-01-15 08:04:13.55	45.14	46.09	
2025-01-15 08:04:13.76	45.22	46.15	
2025-01-15 08:04:13.96	45.29	46.21	
2025-01-15 08:04:14.16	45.36	46.27	
2025-01-15 08:04:14.36	45.44	46.34	
2025-01-15 08:04:14.57	45.51	46.40	
2025-01-15 08:04:14.77	45.59	46.46	
2025-01-15 08:04:14.97	45.66	46.52	
2025-01-15 08:04:15.18	45.74	46.59	
2025-01-15 08:04:15.38	45.82	46.65	
2025-01-15 08:04:15.58	45.89	46.71	
2025-01-15 08:04:15.79	45.97	46.78	
2025-01-15 08:04:15.99	46.05	46.84	
2025-01-15 08:04:16.19	46.12	46.90	
2025-01-15 08:04:16.40	46.21	46.96	
2025-01-15 08:04:16.60	46.28	47.03	
2025-01-15 08:04:16.80	46.36	47.09	
2025-01-15 08:04:17.01	46.44	47.15	
2025-01-15 08:04:17.21	46.52	47.22	
2025-01-15 08:04:17.41	46.60	47.28	
2025-01-15 08:04:17.61	46.68	47.34	
2025-01-15 08:04:17.82	46.76	47.40	
2025-01-15 08:04:18.02	46.84	47.47	
2025-01-15 08:04:18.22	46.92	47.53	
2025-01-15 08:04:18.43	47.00	47.59	
2025-01-15 08:04:18.63	47.08	47.66	
2025-01-15 08:04:18.83	47.16	47.72	
2025-01-15 08:04:19.04	47.25	47.78	
2025-01-15 08:04:19.24	47.33	47.85	
2025-01-15 08:04:19.44	47.41	47.91	
2025-01-15 08:04:19.65	47.50	47.97	
2025-01-15 08:04:19.85	47.58	48.04	
2025-01-15 08:04:20.05	47.66	48.10	
2025-01-15 08:04:20.26	47.75	48.16	
2025-01-15 08:04:20.46	47.83	48.23	
2025-01-15 08:04:20.66	47.91	48.29	
2025-01-15 08:04:20.86	48.00	48.35	
2025-01-15 08:04:21.07	48.09	48.42	
2025-01-15 08:04:21.27	48.17	48.48	
2025-01-15 08:04:21.47	48.26	48.54	
2025-01-15 08:04:21.68	48.35	48.61	
2025-01-15 08:04:21.88	48.43	48.67	
2025-01-15 08:04:22.08	48.52	48.74	
2025-01-15 08:04:22.29	48.61	48.80	
2025-01-15 08:04:22.49	48.69	48.86	
2025-01-15 08:04:22.69	48.78	48.93	
2025-01-15 08:04:22.90	48.87	48.99	
2025-01-15 08:04:23.10	48.96	49.06	
2025-01-15 08:04:23.30	49.05	49.12	
2025-01-15 08:04:23.51	49.14	49.19	
2025-01-15 08:04:23.71	49.23	49.25	
2025-01-15 08:04:23.91	49.32	49.31	
2025-01-15 08:04:24.12	49.41	49.38	
2025-01-15 08:04:24.32	49.50	49.44	
2025-01-15 08:04:24.52	49.59	49.50	
2025-01-15 08:04:24.72	49.69	49.57	
2025-01-15 08:04:24.93	49.78	49.63	
2025-01-15 08:04:25.13	49.87	49.70	
2025-01-15 08:04:25.33	49.96	49.76	
2025-01-15 08:04:25.54	50.06	49.83	
2025-01-15 08:04:25.74	50.15	49.89	
2025-01-15 08:04:25.94	50.25	49.95	
2025-01-15 08:04:26.15	50.35	50.02	
2025-01-15 08:04:26.35	50.44	50.08	
2025-01-15 08:04:26.55	50.53	50.14	
2025-01-15 08:04:26.76	50.63	50.21	
2025-01-15 08:04:26.96	50.73	50.27	
2025-01-15 08:04:27.16	50.82	50.34	
2025-01-15 08:04:27.37	50.92	50.40	
2025-01-15 08:04:27.57	51.02	50.47	
2025-01-15 08:04:27.77	51.12	50.53	
2025-01-15 08:04:27.97	51.21	50.59	
2025-01-15 08:04:28.18	51.32	50.66	
2025-01-15 08:04:28.38	51.42	50.72	
2025-01-15 08:04:28.58	51.51	50.79	
2025-01-15 08:04:28.79	51.62	50.85	
2025-01-15 08:04:28.99	51.72	50.92	
2025-01-15 08:04:29.19	51.82	50.98	
2025-01-15 08:04:29.40	51.92	51.05	
2025-01-15 08:04:29.60	52.02	51.11	
2025-01-15 08:04:29.80	52.12	51.17	
2025-01-15 08:04:30.01	52.23	51.24	
2025-01-15 08:04:30.21	52.33	51.30	
2025-01-15 08:04:30.41	52.43	51.37	
2025-01-15 08:04:30.62	52.54	51.43	
2025-01-15 08:04:30.82	52.64	51.50	
2025-01-15 08:04:31.02	52.75	51.56	
2025-01-15 08:04:31.22	52.85	51.62	
2025-01-15 08:04:31.43	52.96	51.69	
2025-01-15 08:04:31.63	53.07	51.75	
2025-01-15 08:04:31.83	53.17	51.82	
2025-01-15 08:04:32.04	53.28	51.88	
2025-01-15 08:04:32.24	53.39	51.95	
2025-01-15 08:04:32.44	53.50	52.01	
2025-01-15 08:04:32.65	53.61	52.08	
2025-01-15 08:04:32.85	53.72	52.14	
2025-01-15 08:04:33.05	53.83	52.20	
2025-01-15 08:04:33.26	53.94	52.27	
2025-01-15 08:04:33.46	54.05	52.33	
2025-01-15 08:04:33.66	54.16	52.39	
2025-01-15 08:04:33.87	54.27	52.46	
2025-01-15 08:04:34.07	54.38	52.52	
2025-01-15 08:04:34.27	54.50	52.59	
2025-01-15 08:04:34.48	54.61	52.65	
2025-01-15 08:04:34.68	54.72	52.72	
2025-01-15 08:04:34.88	54.84	52.78	
2025-01-15 08:04:35.08	54.95	52.84	
2025-01-15 08:04:35.29	55.07	52.91	
2025-01-15 08:04:35.49	55.18	52.97	
2025-01-15 08:04:35.69	55.30	53.03	
2025-01-15 08:04:35.90	55.42	53.10	
2025-01-15 08:04:36.10	55.53	53.16	
2025-01-15 08:04:36.30	55.65	53.23	
2025-01-15 08:04:36.51	55.77	53.29	
2025-01-15 08:04:36.71	55.89	53.35	
2025-01-15 08:04:36.91	56.01	53.42	
2025-01-15 08:04:37.12	56.13	53.48	
2025-01-15 08:04:37.32	56.25	53.55	
2025-01-15 08:04:37.52	56.37	53.61	
2025-01-15 08:04:37.73	56.49	53.67	
2025-01-15 08:04:37.93	56.62	53.74	
2025-01-15 08:04:38.13	56.74	53.80	
2025-01-15 08:04:38.33	56.86	53.86	
2025-01-15 08:04:38.54	56.98	53.93	
2025-01-15 08:04:38.74	57.11	53.99	
2025-01-15 08:04:38.94	57.23	54.05	
2025-01-15 08:04:39.15	57.36	54.12	
2025-01-15 08:04:39.35	57.48	54.18	
2025-01-15 08:04:39.55	57.61	54.24	
2025-01-15 08:04:39.76	57.74	54.31	
2025-01-15 08:04:39.96	57.86	54.37	
2025-01-15 08:04:40.16	57.99	54.43	
2025-01-15 08:04:40.37	58.12	54.49	
2025-01-15 08:04:40.57	58.25	54.56	
2025-01-15 08:04:40.77	58.38	54.62	
2025-01-15 08:04:40.98	58.51	54.68	
2025-01-15 08:04:41.18	58.64	54.74	
2025-01-15 08:04:41.38	58.77	54.81	
2025-01-15 08:04:41.58	58.90	54.87	
2025-01-15 08:04:41.79	59.04	54.93	
2025-01-15 08:04:41.99	59.17	54.99	
2025-01-15 08:04:42.19	59.30	55.05	
2025-01-15 08:04:42.40	59.44	55.12	
2025-01-15 08:04:42.60	59.57	55.18	
2025-01-15 08:04:42.80	59.71	55.24	
2025-01-15 08:04:43.01	59.85	55.30	
2025-01-15 08:04:43.21	59.98	55.36	
2025-01-15 08:04:43.41	60.12	55.43	
2025-01-15 08:04:43.62	60.26	55.49	
2025-01-15 08:04:43.82	60.40	55.55	
2025-01-15 08:04:44.02	60.54	55.61	
2025-01-15 08:04:44.23	60.68	55.67	
2025-01-15 08:04:44.43	60.82	55.73	
2025-01-15 08:04:44.63	60.96	55.79	
2025-01-15 08:04:44.84	61.10	55.86	
2025-01-15 08:04:45.04	61.24	55.92	
2025-01-15 08:04:45.24	61.38	55.98	
2025-01-15 08:04:45.44	61.53	56.04	
2025-01-15 08:04:45.65	61.68	56.10	
2025-01-15 08:04:45.85	61.82	56.16	
2025-01-15 08:04:46.05	61.96	56.22	
2025-01-15 08:04:46.26	62.11	56.28	
2025-01-15 08:04:46.46	62.26	56.34	
2025-01-15 08:04:46.66	62.40	56.40	
2025-01-15 08:04:46.87	62.55	56.46	
2025-01-15 08:04:47.07	62.70	56.52	
2025-01-15 08:04:47.27	62.85	56.58	
2025-01-15 08:04:47.48	63.00	56.64	
2025-01-15 08:04:47.68	63.15	56.70	
2025-01-15 08:04:47.88	63.30	56.76	
2025-01-15 08:04:48.09	63.46	56.82	
2025-01-15 08:04:48.29	63.61	56.88	
2025-01-15 08:04:48.49	63.76	56.94	
2025-01-15 08:04:48.69	63.91	56.99	
2025-01-15 08:04:48.90	64.07	57.05	
2025-01-15 08:04:49.10	64.22	57.11	
2025-01-15 08:04:49.30	64.38	57.17	
2025-01-15 08:04:49.51	64.54	57.23	
2025-01-15 08:04:49.71	64.69	57.29	
2025-01-15 08:04:49.91	64.85	57.34	
2025-01-15 08:04:50.12	65.01	57.40	
2025-01-15 08:04:50.32	65.17	57.46	
2025-01-15 08:04:50.52	65.33	57.52	
2025-01-15 08:04:50.73	65.49	57.58	
2025-01-15 08:04:50.93	65.65	57.63	
2025-01-15 08:04:51.13	65.81	57.69	
2025-01-15 08:04:51.34	65.98	57.75	
2025-01-15 08:04:51.54	66.14	57.81	
2025-01-15 08:04:51.74	66.30	57.86	
2025-01-15 08:04:51.94	66.46	57.92	
2025-01-15 08:04:52.15	66.64	57.98	
2025-01-15 08:04:52.35	66.80	58.03	
2025-01-15 08:04:52.55	66.96	58.09	
2025-01-15 08:04:52.76	67.14	58.14	
2025-01-15 08:04:52.96	67.30	58.20	
2025-01-15 08:04:53.16	67.47	58.25	
2025-01-15 08:04:53.37	67.64	58.31	
2025-01-15 08:04:53.57	67.81	58.37	
2025-01-15 08:04:53.77	67.98	58.42	
2025-01-15 08:04:53.98	68.16	58.48	
2025-01-15 08:04:54.18	68.33	58.53	
2025-01-15 08:04:54.38	68.50	58.58	
2025-01-15 08:04:54.59	68.68	58.64	
2025-01-15 08:04:54.79	68.85	58.69	
2025-01-15 08:04:54.99	69.02	58.75	
2025-01-15 08:04:55.20	69.20	58.80	
2025-01-15 08:04:55.40	69.38	58.85	
2025-01-15 08:04:55.60	69.55	58.91	
2025-01-15 08:04:55.80	69.73	58.96	
2025-01-15 08:04:56.01	69.91	59.01	
2025-01-15 08:04:56.21	70.09	59.07	
2025-01-15 08:04:56.41	70.27	59.12	
2025-01-15 08:04:56.62	70.46	59.17	
2025-01-15 08:04:56.82	70.63	59.22	
2025-01-15 08:04:57.02	70.81	59.27	
2025-01-15 08:04:57.23	71.00	59.33	
2025-01-15 08:04:57.43	71.19	59.38	
2025-01-15 08:04:57.63	71.37	59.43	
2025-01-15 08:04:57.84	71.56	59.48	
2025-01-15 08:04:58.04	71.74	59.53	
2025-01-15 08:04:58.24	71.93	59.58	
2025-01-15 08:04:58.45	72.12	59.63	
2025-01-15 08:04:58.65	72.31	59.68	
2025-01-15 08:04:58.85	72.49	59.73	
2025-01-15 08:04:59.05	72.68	59.78	
2025-01-15 08:04:59.26	72.88	59.83	
2025-01-15 08:04:59.46	73.06	59.88	
2025-01-15 08:04:59.66	73.25	59.93	
2025-01-15 08:04:59.87	73.45	59.98	
2025-01-15 08:05:00.07	73.64	60.03	
2025-01-15 08:05:00.27	73.83	60.07	
2025-01-15 08:05:00.48	74.04	60.12	
2025-01-15 08:05:00.68	74.23	60.17	
2025-01-15 08:05:00.88	74.42	60.22	
2025-01-15 08:05:01.09	74.63	60.27	
2025-01-15 08:05:01.29	74.82	60.31	
2025-01-15 08:05:01.49	75.02	60.36	
2025-01-15 08:05:01.70	75.22	60.41	
2025-01-15 08:05:01.90	75.42	60.45	
2025-01-15 08:05:02.10	75.62	60.50	
2025-01-15 08:05:02.30	75.82	60.54	
2025-01-15 08:05:02.51	76.02	60.59	
2025-01-15 08:05:02.71	76.22	60.63	
2025-01-15 08:05:02.91	76.42	60.68	
2025-01-15 08:05:03.12	76.64	60.72	
2025-01-15 08:05:03.32	76.84	60.77	
2025-01-15 08:05:03.52	77.04	60.81	
2025-01-15 08:05:03.73	77.25	60.85	
2025-01-15 08:05:03.93	77.46	60.90	
2025-01-15 08:05:04.13	77.66	60.94	
2025-01-15 08:05:04.34	77.88	60.98	
2025-01-15 08:05:04.54	78.09	61.02	
2025-01-15 08:05:04.74	78.29	61.07	
2025-01-15 08:05:04.95	78.51	61.11	
2025-01-15 08:05:05.15	78.72	61.15	
2025-01-15 08:05:05.35	78.93	61.19	
2025-01-15 08:05:05.55	79.14	61.23	
2025-01-15 08:05:05.76	79.36	61.27	
2025-01-15 08:05:05.96	79.57	61.31	
2025-01-15 08:05:06.16	79.78	61.35	
2025-01-15 08:05:06.37	80.00	61.39	
2025-01-15 08:05:06.57	80.22	61.43	
2025-01-15 08:05:06.77	80.43	61.47	
2025-01-15 08:05:06.98	80.65	61.51	
2025-01-15 08:05:07.18	80.87	61.55	
2025-01-15 08:05:07.38	81.09	61.58	
2025-01-15 08:05:07.59	81.31	61.62	
2025-01-15 08:05:07.79	81.53	61.66	
2025-01-15 08:05:07.99	81.75	61.69	
2025-01-15 08:05:08.20	81.98	61.73	
2025-01-15 08:05:08.40	82.20	61.77	
2025-01-15 08:05:08.60	82.42	61.80	
