passes_logs/2025/01/15/SPB_Silybum_02/SPB_Silybum_02__20250115_033346_SUOMI_NPP_rec.log

#Pass ID: 20250115_033346_SUOMI NPP
#Satellite: SUOMI NPP
#Configuration: NPP
#Start time: 2025-01-15 03:33:46

#Version: 2.0.20230423
#Station: SPB_Silybum_02
#Location: 30.233357 lon 59.946436 lat
#TLE: 1 37849U 11061A   25014.14453206  .00000163  00000+0  98177-4 0  9992
#TLE: 2 37849  98.7445 315.1439 0001716  42.3577 317.7731 14.19537774684790

#Time	Az	El	Level	Level2	SNR	BER	Gain	Gain2
2025-01-15 03:33:48.47	14.86	4.07	
2025-01-15 03:33:48.67	14.84	4.08	
2025-01-15 03:33:48.88	14.82	4.09	
2025-01-15 03:33:49.08	14.79	4.10	
2025-01-15 03:33:49.28	14.77	4.11	
2025-01-15 03:33:49.48	14.75	4.12	
2025-01-15 03:33:49.69	14.73	4.12	
2025-01-15 03:33:49.89	14.70	4.13	
2025-01-15 03:33:50.09	14.68	4.14	
2025-01-15 03:33:50.30	14.66	4.15	
2025-01-15 03:33:50.50	14.64	4.16	
2025-01-15 03:33:50.70	14.61	4.17	
2025-01-15 03:33:50.91	14.59	4.18	
2025-01-15 03:33:51.11	14.57	4.19	
2025-01-15 03:33:51.31	14.55	4.20	
2025-01-15 03:33:51.52	14.52	4.21	
2025-01-15 03:33:51.72	14.50	4.22	
2025-01-15 03:33:51.92	14.48	4.23	
2025-01-15 03:33:52.12	14.46	4.23	
2025-01-15 03:33:52.33	14.43	4.24	
2025-01-15 03:33:52.53	14.41	4.25	
2025-01-15 03:33:52.73	14.39	4.26	
2025-01-15 03:33:52.94	14.37	4.27	
2025-01-15 03:33:53.14	14.34	4.28	
2025-01-15 03:33:53.34	14.32	4.29	
2025-01-15 03:33:53.55	14.30	4.30	
2025-01-15 03:33:53.75	14.28	4.31	
2025-01-15 03:33:53.95	14.25	4.32	
2025-01-15 03:33:54.16	14.23	4.33	
2025-01-15 03:33:54.36	14.21	4.34	
2025-01-15 03:33:54.56	14.18	4.35	
2025-01-15 03:33:54.76	14.16	4.35	
2025-01-15 03:33:54.97	14.14	4.36	
2025-01-15 03:33:55.17	14.12	4.37	
2025-01-15 03:33:55.37	14.09	4.38	
2025-01-15 03:33:55.58	14.07	4.39	
2025-01-15 03:33:55.78	14.05	4.40	
2025-01-15 03:33:55.98	14.03	4.41	
2025-01-15 03:33:56.19	14.00	4.42	
2025-01-15 03:33:56.39	13.98	4.43	
2025-01-15 03:33:56.59	13.96	4.44	
2025-01-15 03:33:56.80	13.93	4.45	
2025-01-15 03:33:57.00	13.91	4.46	
2025-01-15 03:33:57.20	13.89	4.46	
2025-01-15 03:33:57.40	13.86	4.47	
2025-01-15 03:33:57.61	13.84	4.48	
2025-01-15 03:33:57.81	13.82	4.49	
2025-01-15 03:33:58.01	13.80	4.50	
2025-01-15 03:33:58.22	13.77	4.51	
2025-01-15 03:33:58.42	13.75	4.52	
2025-01-15 03:33:58.62	13.73	4.53	
2025-01-15 03:33:58.83	13.70	4.54	
2025-01-15 03:33:59.03	13.68	4.55	
2025-01-15 03:33:59.23	13.66	4.56	
2025-01-15 03:33:59.44	13.63	4.57	
2025-01-15 03:33:59.64	13.61	4.57	
2025-01-15 03:33:59.84	13.59	4.58	
2025-01-15 03:34:00.04	13.57	4.59	
2025-01-15 03:34:00.25	13.54	4.60	
2025-01-15 03:34:00.45	13.52	4.61	
2025-01-15 03:34:00.65	13.50	4.62	
2025-01-15 03:34:00.86	13.47	4.63	
2025-01-15 03:34:01.06	13.45	4.64	
2025-01-15 03:34:01.26	13.43	4.65	
2025-01-15 03:34:01.47	13.40	4.66	
2025-01-15 03:34:01.67	13.38	4.67	
2025-01-15 03:34:01.87	13.36	4.67	
2025-01-15 03:34:02.08	13.33	4.68	
2025-01-15 03:34:02.28	13.31	4.69	
2025-01-15 03:34:02.48	13.29	4.70	
2025-01-15 03:34:02.68	13.26	4.71	
2025-01-15 03:34:02.89	13.24	4.72	
2025-01-15 03:34:03.09	13.22	4.73	
2025-01-15 03:34:03.29	13.19	4.74	
2025-01-15 03:34:03.50	13.17	4.75	
2025-01-15 03:34:03.70	13.15	4.76	
2025-01-15 03:34:03.90	13.12	4.77	
2025-01-15 03:34:04.11	13.10	4.77	
2025-01-15 03:34:04.31	13.08	4.78	
2025-01-15 03:34:04.51	13.05	4.79	
2025-01-15 03:34:04.72	13.03	4.80	
2025-01-15 03:34:04.92	13.00	4.81	
2025-01-15 03:34:05.12	12.98	4.82	
2025-01-15 03:34:05.32	12.96	4.83	
2025-01-15 03:34:05.53	12.93	4.84	
2025-01-15 03:34:05.73	12.91	4.85	
2025-01-15 03:34:05.93	12.89	4.86	
2025-01-15 03:34:06.14	12.86	4.87	
2025-01-15 03:34:06.34	12.84	4.87	
2025-01-15 03:34:06.54	12.82	4.88	
2025-01-15 03:34:06.75	12.79	4.89	
2025-01-15 03:34:06.95	12.77	4.90	
2025-01-15 03:34:07.15	12.75	4.91	
2025-01-15 03:34:07.36	12.72	4.92	
2025-01-15 03:34:07.56	12.70	4.93	
2025-01-15 03:34:07.76	12.67	4.94	
2025-01-15 03:34:07.96	12.65	4.95	
2025-01-15 03:34:08.17	12.63	4.96	
2025-01-15 03:34:08.37	12.60	4.97	
2025-01-15 03:34:08.57	12.58	4.97	
2025-01-15 03:34:08.78	12.55	4.98	
2025-01-15 03:34:08.98	12.53	4.99	
2025-01-15 03:34:09.18	12.51	5.00	
2025-01-15 03:34:09.39	12.48	5.01	
2025-01-15 03:34:09.59	12.46	5.02	
2025-01-15 03:34:09.79	12.44	5.03	
2025-01-15 03:34:10.00	12.41	5.04	
2025-01-15 03:34:10.20	12.39	5.05	
2025-01-15 03:34:10.40	12.36	5.06	
2025-01-15 03:34:10.60	12.34	5.07	
2025-01-15 03:34:10.81	12.32	5.07	
2025-01-15 03:34:11.01	12.29	5.08	
2025-01-15 03:34:11.21	12.27	5.09	
2025-01-15 03:34:11.42	12.24	5.10	
2025-01-15 03:34:11.62	12.22	5.11	
2025-01-15 03:34:11.82	12.20	5.12	
2025-01-15 03:34:12.03	12.17	5.13	
2025-01-15 03:34:12.23	12.15	5.14	
2025-01-15 03:34:12.43	12.12	5.15	
2025-01-15 03:34:12.64	12.10	5.16	
2025-01-15 03:34:12.84	12.08	5.16	
2025-01-15 03:34:13.04	12.05	5.17	
2025-01-15 03:34:13.24	12.03	5.18	
2025-01-15 03:34:13.45	12.00	5.19	
2025-01-15 03:34:13.65	11.98	5.20	
2025-01-15 03:34:13.85	11.96	5.21	
2025-01-15 03:34:14.06	11.93	5.22	
2025-01-15 03:34:14.26	11.91	5.23	
2025-01-15 03:34:14.46	11.88	5.24	
2025-01-15 03:34:14.67	11.86	5.25	
2025-01-15 03:34:14.87	11.83	5.26	
2025-01-15 03:34:15.07	11.81	5.26	
2025-01-15 03:34:15.28	11.79	5.27	
2025-01-15 03:34:15.48	11.76	5.28	
2025-01-15 03:34:15.68	11.74	5.29	
2025-01-15 03:34:15.88	11.71	5.30	
2025-01-15 03:34:16.09	11.69	5.31	
2025-01-15 03:34:16.29	11.66	5.32	
2025-01-15 03:34:16.49	11.64	5.33	
2025-01-15 03:34:16.70	11.62	5.34	
2025-01-15 03:34:16.90	11.59	5.35	
2025-01-15 03:34:17.10	11.57	5.35	
2025-01-15 03:34:17.31	11.54	5.36	
2025-01-15 03:34:17.51	11.52	5.37	
2025-01-15 03:34:17.71	11.49	5.38	
2025-01-15 03:34:17.92	11.47	5.39	
2025-01-15 03:34:18.12	11.44	5.40	
2025-01-15 03:34:18.32	11.42	5.41	
2025-01-15 03:34:18.52	11.40	5.42	
2025-01-15 03:34:18.73	11.37	5.43	
2025-01-15 03:34:18.93	11.35	5.44	
2025-01-15 03:34:19.13	11.32	5.44	
2025-01-15 03:34:19.34	11.30	5.45	
2025-01-15 03:34:19.54	11.27	5.46	
2025-01-15 03:34:19.74	11.25	5.47	
2025-01-15 03:34:19.95	11.22	5.48	
2025-01-15 03:34:20.15	11.20	5.49	
2025-01-15 03:34:20.35	11.17	5.50	
2025-01-15 03:34:20.56	11.15	5.51	
2025-01-15 03:34:20.76	11.12	5.52	
2025-01-15 03:34:20.96	11.10	5.53	
2025-01-15 03:34:21.16	11.08	5.53	
2025-01-15 03:34:21.37	11.05	5.54	
2025-01-15 03:34:21.57	11.03	5.55	
2025-01-15 03:34:21.77	11.00	5.56	
2025-01-15 03:34:21.98	10.98	5.57	
2025-01-15 03:34:22.18	10.95	5.58	
2025-01-15 03:34:22.38	10.93	5.59	
2025-01-15 03:34:22.59	10.90	5.60	
2025-01-15 03:34:22.79	10.88	5.61	
2025-01-15 03:34:22.99	10.85	5.61	
2025-01-15 03:34:23.20	10.83	5.62	
2025-01-15 03:34:23.40	10.80	5.63	
2025-01-15 03:34:23.60	10.78	5.64	
2025-01-15 03:34:23.80	10.75	5.65	
2025-01-15 03:34:24.01	10.73	5.66	
2025-01-15 03:34:24.21	10.70	5.67	
2025-01-15 03:34:24.41	10.68	5.68	
2025-01-15 03:34:24.62	10.65	5.69	
2025-01-15 03:34:24.82	10.63	5.70	
2025-01-15 03:34:25.02	10.60	5.70	
2025-01-15 03:34:25.23	10.58	5.71	
2025-01-15 03:34:25.43	10.55	5.72	
2025-01-15 03:34:25.63	10.53	5.73	
2025-01-15 03:34:25.84	10.50	5.74	
2025-01-15 03:34:26.04	10.48	5.75	
2025-01-15 03:34:26.24	10.45	5.76	
2025-01-15 03:34:26.44	10.43	5.77	
2025-01-15 03:34:26.65	10.40	5.78	
2025-01-15 03:34:26.85	10.38	5.78	
2025-01-15 03:34:27.05	10.35	5.79	
2025-01-15 03:34:27.26	10.33	5.80	
2025-01-15 03:34:27.46	10.30	5.81	
2025-01-15 03:34:27.66	10.28	5.82	
2025-01-15 03:34:27.87	10.25	5.83	
2025-01-15 03:34:28.07	10.22	5.84	
2025-01-15 03:34:28.27	10.20	5.85	
2025-01-15 03:34:28.48	10.17	5.86	
2025-01-15 03:34:28.68	10.15	5.86	
2025-01-15 03:34:28.88	10.12	5.87	
2025-01-15 03:34:29.08	10.10	5.88	
2025-01-15 03:34:29.29	10.07	5.89	
2025-01-15 03:34:29.49	10.05	5.90	
2025-01-15 03:34:29.69	10.02	5.91	
2025-01-15 03:34:29.90	10.00	5.92	
2025-01-15 03:34:30.10	9.97	5.93	
2025-01-15 03:34:30.30	9.95	5.94	
2025-01-15 03:34:30.51	9.92	5.94	
2025-01-15 03:34:30.71	9.89	5.95	
2025-01-15 03:34:30.91	9.87	5.96	
2025-01-15 03:34:31.12	9.84	5.97	
2025-01-15 03:34:31.32	9.82	5.98	
2025-01-15 03:34:31.52	9.79	5.99	
2025-01-15 03:34:31.72	9.77	6.00	
2025-01-15 03:34:31.93	9.74	6.01	
2025-01-15 03:34:32.13	9.72	6.02	
2025-01-15 03:34:32.33	9.69	6.02	
2025-01-15 03:34:32.54	9.66	6.03	
2025-01-15 03:34:32.74	9.64	6.04	
2025-01-15 03:34:32.94	9.61	6.05	
2025-01-15 03:34:33.15	9.59	6.06	
2025-01-15 03:34:33.35	9.56	6.07	
2025-01-15 03:34:33.55	9.54	6.08	
2025-01-15 03:34:33.76	9.51	6.09	
2025-01-15 03:34:33.96	9.49	6.10	
2025-01-15 03:34:34.16	9.46	6.10	
2025-01-15 03:34:34.36	9.43	6.11	
2025-01-15 03:34:34.57	9.41	6.12	
2025-01-15 03:34:34.77	9.38	6.13	
2025-01-15 03:34:34.97	9.36	6.14	
2025-01-15 03:34:35.18	9.33	6.15	
2025-01-15 03:34:35.38	9.30	6.16	
2025-01-15 03:34:35.58	9.28	6.17	
2025-01-15 03:34:35.79	9.25	6.17	
2025-01-15 03:34:35.99	9.23	6.18	
2025-01-15 03:34:36.19	9.20	6.19	
2025-01-15 03:34:36.40	9.17	6.20	
2025-01-15 03:34:36.60	9.15	6.21	
2025-01-15 03:34:36.80	9.12	6.22	
2025-01-15 03:34:37.00	9.10	6.23	
2025-01-15 03:34:37.21	9.07	6.24	
2025-01-15 03:34:37.41	9.05	6.24	
2025-01-15 03:34:37.61	9.02	6.25	
2025-01-15 03:34:37.82	8.99	6.26	
2025-01-15 03:34:38.02	8.97	6.27	
2025-01-15 03:34:38.22	8.94	6.28	
2025-01-15 03:34:38.43	8.91	6.29	
2025-01-15 03:34:38.63	8.89	6.30	
2025-01-15 03:34:38.83	8.86	6.31	
2025-01-15 03:34:39.04	8.84	6.32	
2025-01-15 03:34:39.24	8.81	6.32	
2025-01-15 03:34:39.44	8.78	6.33	
2025-01-15 03:34:39.64	8.76	6.34	
2025-01-15 03:34:39.85	8.73	6.35	
2025-01-15 03:34:40.05	8.71	6.36	
2025-01-15 03:34:40.25	8.68	6.37	
2025-01-15 03:34:40.46	8.65	6.38	
2025-01-15 03:34:40.66	8.63	6.39	
2025-01-15 03:34:40.86	8.60	6.39	
2025-01-15 03:34:41.07	8.57	6.40	
2025-01-15 03:34:41.27	8.55	6.41	
2025-01-15 03:34:41.47	8.52	6.42	
2025-01-15 03:34:41.68	8.50	6.43	
2025-01-15 03:34:41.88	8.47	6.44	
2025-01-15 03:34:42.08	8.44	6.45	
2025-01-15 03:34:42.28	8.42	6.45	
2025-01-15 03:34:42.49	8.39	6.46	
2025-01-15 03:34:42.69	8.36	6.47	
2025-01-15 03:34:42.89	8.34	6.48	
2025-01-15 03:34:43.10	8.31	6.49	
2025-01-15 03:34:43.30	8.28	6.50	
2025-01-15 03:34:43.50	8.26	6.51	
2025-01-15 03:34:43.71	8.23	6.52	
2025-01-15 03:34:43.91	8.20	6.52	
2025-01-15 03:34:44.11	8.18	6.53	
2025-01-15 03:34:44.32	8.15	6.54	
2025-01-15 03:34:44.52	8.13	6.55	
2025-01-15 03:34:44.72	8.10	6.56	
2025-01-15 03:34:44.92	8.07	6.57	
2025-01-15 03:34:45.13	8.05	6.58	
2025-01-15 03:34:45.33	8.02	6.59	
2025-01-15 03:34:45.53	7.99	6.59	
2025-01-15 03:34:45.74	7.97	6.60	
2025-01-15 03:34:45.94	7.94	6.61	
2025-01-15 03:34:46.14	7.91	6.62	
2025-01-15 03:34:46.35	7.88	6.63	
2025-01-15 03:34:46.55	7.86	6.64	
2025-01-15 03:34:46.75	7.83	6.65	
2025-01-15 03:34:46.96	7.80	6.66	
2025-01-15 03:34:47.16	7.78	6.66	
2025-01-15 03:34:47.36	7.75	6.67	
2025-01-15 03:34:47.56	7.73	6.68	
2025-01-15 03:34:47.77	7.70	6.69	
2025-01-15 03:34:47.97	7.67	6.70	
2025-01-15 03:34:48.17	7.64	6.71	
2025-01-15 03:34:48.38	7.62	6.72	
2025-01-15 03:34:48.58	7.59	6.72	
2025-01-15 03:34:48.78	7.56	6.73	
2025-01-15 03:34:48.99	7.54	6.74	
2025-01-15 03:34:49.19	7.51	6.75	
2025-01-15 03:34:49.39	7.48	6.76	
2025-01-15 03:34:49.60	7.46	6.77	
2025-01-15 03:34:49.80	7.43	6.78	
2025-01-15 03:34:50.00	7.40	6.78	
2025-01-15 03:34:50.20	7.38	6.79	
2025-01-15 03:34:50.41	7.35	6.80	
2025-01-15 03:34:50.61	7.32	6.81	
2025-01-15 03:34:50.81	7.29	6.82	
2025-01-15 03:34:51.02	7.27	6.83	
2025-01-15 03:34:51.22	7.24	6.84	
2025-01-15 03:34:51.42	7.21	6.84	
2025-01-15 03:34:51.63	7.18	6.85	
2025-01-15 03:34:51.83	7.16	6.86	
2025-01-15 03:34:52.03	7.13	6.87	
2025-01-15 03:34:52.24	7.10	6.88	
2025-01-15 03:34:52.44	7.08	6.89	
2025-01-15 03:34:52.64	7.05	6.90	
2025-01-15 03:34:52.84	7.02	6.90	
2025-01-15 03:34:53.05	6.99	6.91	
2025-01-15 03:34:53.25	6.97	6.92	
2025-01-15 03:34:53.45	6.94	6.93	
2025-01-15 03:34:53.66	6.91	6.94	
2025-01-15 03:34:53.86	6.89	6.95	
2025-01-15 03:34:54.06	6.86	6.96	
2025-01-15 03:34:54.27	6.83	6.96	
2025-01-15 03:34:54.47	6.80	6.97	
2025-01-15 03:34:54.67	6.78	6.98	
2025-01-15 03:34:54.88	6.75	6.99	
2025-01-15 03:34:55.08	6.72	7.00	
2025-01-15 03:34:55.28	6.69	7.01	
2025-01-15 03:34:55.48	6.67	7.02	
2025-01-15 03:34:55.69	6.64	7.02	
2025-01-15 03:34:55.89	6.61	7.03	
2025-01-15 03:34:56.09	6.58	7.04	
2025-01-15 03:34:56.30	6.56	7.05	
2025-01-15 03:34:56.50	6.53	7.06	
2025-01-15 03:34:56.70	6.50	7.07	
2025-01-15 03:34:56.91	6.47	7.08	
2025-01-15 03:34:57.11	6.45	7.08	
2025-01-15 03:34:57.31	6.42	7.09	
2025-01-15 03:34:57.52	6.39	7.10	
2025-01-15 03:34:57.72	6.36	7.11	
2025-01-15 03:34:57.92	6.34	7.12	
2025-01-15 03:34:58.12	6.31	7.13	
2025-01-15 03:34:58.33	6.28	7.13	
2025-01-15 03:34:58.53	6.25	7.14	
2025-01-15 03:34:58.73	6.23	7.15	
2025-01-15 03:34:58.94	6.20	7.16	
2025-01-15 03:34:59.14	6.17	7.17	
2025-01-15 03:34:59.34	6.14	7.18	
2025-01-15 03:34:59.55	6.11	7.19	
2025-01-15 03:34:59.75	6.09	7.19	
2025-01-15 03:34:59.95	6.06	7.20	
2025-01-15 03:35:00.16	6.03	7.21	
2025-01-15 03:35:00.36	6.00	7.22	
2025-01-15 03:35:00.56	5.98	7.23	
2025-01-15 03:35:00.76	5.95	7.24	
2025-01-15 03:35:00.97	5.92	7.24	
2025-01-15 03:35:01.17	5.89	7.25	
2025-01-15 03:35:01.37	5.86	7.26	
2025-01-15 03:35:01.58	5.83	7.27	
2025-01-15 03:35:01.78	5.81	7.28	
2025-01-15 03:35:01.98	5.78	7.29	
2025-01-15 03:35:02.19	5.75	7.30	
2025-01-15 03:35:02.39	5.72	7.30	
2025-01-15 03:35:02.59	5.70	7.31	
2025-01-15 03:35:02.80	5.67	7.32	
2025-01-15 03:35:03.00	5.64	7.33	
2025-01-15 03:35:03.20	5.61	7.34	
2025-01-15 03:35:03.40	5.58	7.35	
2025-01-15 03:35:03.61	5.55	7.35	
2025-01-15 03:35:03.81	5.53	7.36	
2025-01-15 03:35:04.01	5.50	7.37	
2025-01-15 03:35:04.22	5.47	7.38	
2025-01-15 03:35:04.42	5.44	7.39	
2025-01-15 03:35:04.62	5.41	7.40	
2025-01-15 03:35:04.83	5.39	7.40	
2025-01-15 03:35:05.03	5.36	7.41	
2025-01-15 03:35:05.23	5.33	7.42	
2025-01-15 03:35:05.44	5.30	7.43	
2025-01-15 03:35:05.64	5.27	7.44	
2025-01-15 03:35:05.84	5.24	7.45	
2025-01-15 03:35:06.04	5.22	7.45	
2025-01-15 03:35:06.25	5.19	7.46	
2025-01-15 03:35:06.45	5.16	7.47	
2025-01-15 03:35:06.65	5.13	7.48	
2025-01-15 03:35:06.86	5.10	7.49	
2025-01-15 03:35:07.06	5.07	7.50	
2025-01-15 03:35:07.26	5.05	7.50	
2025-01-15 03:35:07.47	5.02	7.51	
2025-01-15 03:35:07.67	4.99	7.52	
2025-01-15 03:35:07.87	4.96	7.53	
2025-01-15 03:35:08.08	4.93	7.54	
2025-01-15 03:35:08.28	4.90	7.55	
2025-01-15 03:35:08.48	4.88	7.55	
2025-01-15 03:35:08.68	4.85	7.56	
2025-01-15 03:35:08.89	4.82	7.57	
2025-01-15 03:35:09.09	4.79	7.58	
2025-01-15 03:35:09.29	4.76	7.59	
2025-01-15 03:35:09.50	4.73	7.60	
2025-01-15 03:35:09.70	4.70	7.60	
2025-01-15 03:35:09.90	4.68	7.61	
2025-01-15 03:35:10.11	4.65	7.62	
2025-01-15 03:35:10.31	4.62	7.63	
2025-01-15 03:35:10.51	4.59	7.64	
2025-01-15 03:35:10.72	4.56	7.64	
2025-01-15 03:35:10.92	4.53	7.65	
2025-01-15 03:35:11.12	4.50	7.66	
2025-01-15 03:35:11.32	4.48	7.67	
2025-01-15 03:35:11.53	4.45	7.68	
2025-01-15 03:35:11.73	4.42	7.69	
2025-01-15 03:35:11.93	4.39	7.69	
2025-01-15 03:35:12.14	4.36	7.70	
2025-01-15 03:35:12.34	4.33	7.71	
2025-01-15 03:35:12.54	4.30	7.72	
2025-01-15 03:35:12.75	4.27	7.73	
2025-01-15 03:35:12.95	4.24	7.74	
2025-01-15 03:35:13.15	4.22	7.74	
2025-01-15 03:35:13.36	4.19	7.75	
2025-01-15 03:35:13.56	4.16	7.76	
2025-01-15 03:35:13.76	4.13	7.77	
2025-01-15 03:35:13.96	4.10	7.78	
2025-01-15 03:35:14.17	4.07	7.78	
2025-01-15 03:35:14.37	4.04	7.79	
2025-01-15 03:35:14.57	4.01	7.80	
2025-01-15 03:35:14.78	3.98	7.81	
2025-01-15 03:35:14.98	3.95	7.82	
2025-01-15 03:35:15.18	3.93	7.82	
2025-01-15 03:35:15.39	3.90	7.83	
2025-01-15 03:35:15.59	3.87	7.84	
2025-01-15 03:35:15.79	3.84	7.85	
2025-01-15 03:35:16.00	3.81	7.86	
2025-01-15 03:35:16.20	3.78	7.87	
2025-01-15 03:35:16.40	3.75	7.87	
2025-01-15 03:35:16.60	3.72	7.88	
2025-01-15 03:35:16.81	3.69	7.89	
2025-01-15 03:35:17.01	3.66	7.90	
2025-01-15 03:35:17.21	3.63	7.91	
2025-01-15 03:35:17.42	3.60	7.91	
2025-01-15 03:35:17.62	3.58	7.92	
2025-01-15 03:35:17.82	3.55	7.93	
2025-01-15 03:35:18.03	3.52	7.94	
2025-01-15 03:35:18.23	3.49	7.95	
2025-01-15 03:35:18.43	3.46	7.95	
2025-01-15 03:35:18.64	3.43	7.96	
2025-01-15 03:35:18.84	3.40	7.97	
2025-01-15 03:35:19.04	3.37	7.98	
2025-01-15 03:35:19.24	3.34	7.99	
2025-01-15 03:35:19.45	3.31	8.00	
2025-01-15 03:35:19.65	3.28	8.00	
2025-01-15 03:35:19.85	3.25	8.01	
2025-01-15 03:35:20.06	3.22	8.02	
2025-01-15 03:35:20.26	3.19	8.03	
2025-01-15 03:35:20.46	3.16	8.04	
2025-01-15 03:35:20.67	3.13	8.04	
2025-01-15 03:35:20.87	3.10	8.05	
2025-01-15 03:35:21.07	3.08	8.06	
2025-01-15 03:35:21.28	3.04	8.07	
2025-01-15 03:35:21.48	3.02	8.08	
2025-01-15 03:35:21.68	2.99	8.08	
2025-01-15 03:35:21.88	2.96	8.09	
2025-01-15 03:35:22.09	2.93	8.10	
2025-01-15 03:35:22.29	2.90	8.11	
2025-01-15 03:35:22.49	2.87	8.12	
2025-01-15 03:35:22.70	2.84	8.12	
2025-01-15 03:35:22.90	2.81	8.13	
2025-01-15 03:35:23.10	2.78	8.14	
2025-01-15 03:35:23.31	2.75	8.15	
2025-01-15 03:35:23.51	2.72	8.16	
2025-01-15 03:35:23.71	2.69	8.16	
2025-01-15 03:35:23.92	2.66	8.17	
2025-01-15 03:35:24.12	2.63	8.18	
2025-01-15 03:35:24.32	2.60	8.19	
2025-01-15 03:35:24.52	2.57	8.19	
2025-01-15 03:35:24.73	2.54	8.20	
2025-01-15 03:35:24.93	2.51	8.21	
2025-01-15 03:35:25.13	2.48	8.22	
2025-01-15 03:35:25.34	2.45	8.23	
2025-01-15 03:35:25.54	2.42	8.23	
2025-01-15 03:35:25.74	2.39	8.24	
2025-01-15 03:35:25.95	2.36	8.25	
2025-01-15 03:35:26.15	2.33	8.26	
2025-01-15 03:35:26.35	2.30	8.27	
2025-01-15 03:35:26.56	2.27	8.27	
2025-01-15 03:35:26.76	2.24	8.28	
2025-01-15 03:35:26.96	2.21	8.29	
2025-01-15 03:35:27.17	2.18	8.30	
2025-01-15 03:35:27.37	2.15	8.31	
2025-01-15 03:35:27.57	2.12	8.31	
2025-01-15 03:35:27.77	2.09	8.32	
2025-01-15 03:35:27.98	2.06	8.33	
2025-01-15 03:35:28.18	2.03	8.34	
2025-01-15 03:35:28.38	2.00	8.34	
2025-01-15 03:35:28.59	1.97	8.35	
2025-01-15 03:35:28.79	1.94	8.36	
2025-01-15 03:35:28.99	1.91	8.37	
2025-01-15 03:35:29.20	1.88	8.38	
2025-01-15 03:35:29.40	1.85	8.38	
2025-01-15 03:35:29.60	1.82	8.39	
2025-01-15 03:35:29.81	1.79	8.40	
2025-01-15 03:35:30.01	1.76	8.41	
2025-01-15 03:35:30.21	1.73	8.42	
2025-01-15 03:35:30.41	1.70	8.42	
2025-01-15 03:35:30.62	1.67	8.43	
2025-01-15 03:35:30.82	1.64	8.44	
2025-01-15 03:35:31.02	1.61	8.45	
2025-01-15 03:35:31.23	1.58	8.45	
2025-01-15 03:35:31.43	1.55	8.46	
2025-01-15 03:35:31.63	1.52	8.47	
2025-01-15 03:35:31.84	1.49	8.48	
2025-01-15 03:35:32.04	1.46	8.49	
2025-01-15 03:35:32.24	1.43	8.49	
2025-01-15 03:35:32.44	1.40	8.50	
2025-01-15 03:35:32.65	1.36	8.51	
2025-01-15 03:35:32.85	1.33	8.52	
2025-01-15 03:35:33.05	1.30	8.52	
2025-01-15 03:35:33.26	1.27	8.53	
2025-01-15 03:35:33.46	1.24	8.54	
2025-01-15 03:35:33.66	1.21	8.55	
2025-01-15 03:35:33.87	1.18	8.55	
2025-01-15 03:35:34.07	1.15	8.56	
2025-01-15 03:35:34.27	1.12	8.57	
2025-01-15 03:35:34.48	1.09	8.58	
2025-01-15 03:35:34.68	1.06	8.59	
2025-01-15 03:35:34.88	1.03	8.59	
2025-01-15 03:35:35.08	1.00	8.60	
2025-01-15 03:35:35.29	0.97	8.61	
2025-01-15 03:35:35.49	0.94	8.62	
2025-01-15 03:35:35.69	0.91	8.62	
2025-01-15 03:35:35.90	0.87	8.63	
2025-01-15 03:35:36.10	0.84	8.64	
2025-01-15 03:35:36.30	0.81	8.65	
2025-01-15 03:35:36.51	0.78	8.65	
2025-01-15 03:35:36.71	0.75	8.66	
2025-01-15 03:35:36.91	0.72	8.67	
2025-01-15 03:35:37.12	0.69	8.68	
2025-01-15 03:35:37.32	0.66	8.68	
2025-01-15 03:35:37.52	0.63	8.69	
2025-01-15 03:35:37.73	0.60	8.70	
2025-01-15 03:35:37.93	0.57	8.71	
2025-01-15 03:35:38.13	0.53	8.71	
2025-01-15 03:35:38.33	0.50	8.72	
2025-01-15 03:35:38.54	0.47	8.73	
2025-01-15 03:35:38.74	0.44	8.74	
2025-01-15 03:35:38.94	0.41	8.75	
2025-01-15 03:35:39.15	0.38	8.75	
2025-01-15 03:35:39.35	0.35	8.76	
2025-01-15 03:35:39.55	0.32	8.77	
2025-01-15 03:35:39.76	0.29	8.78	
2025-01-15 03:35:39.96	0.26	8.78	
2025-01-15 03:35:40.16	0.22	8.79	
2025-01-15 03:35:40.37	0.19	8.80	
2025-01-15 03:35:40.57	0.16	8.81	
2025-01-15 03:35:40.77	0.13	8.81	
2025-01-15 03:35:40.97	0.10	8.82	
2025-01-15 03:35:41.18	0.07	8.83	
2025-01-15 03:35:41.38	0.04	8.84	
2025-01-15 03:35:41.58	0.01	8.84	
2025-01-15 03:35:41.79	359.97	8.85	
2025-01-15 03:35:41.99	359.94	8.86	
2025-01-15 03:35:42.19	359.91	8.87	
2025-01-15 03:35:42.40	359.88	8.87	
2025-01-15 03:35:42.60	359.85	8.88	
2025-01-15 03:35:42.80	359.82	8.89	
2025-01-15 03:35:43.01	359.79	8.90	
2025-01-15 03:35:43.21	359.76	8.90	
2025-01-15 03:35:43.41	359.72	8.91	
2025-01-15 03:35:43.61	359.69	8.92	
2025-01-15 03:35:43.82	359.66	8.93	
2025-01-15 03:35:44.02	359.63	8.93	
2025-01-15 03:35:44.22	359.60	8.94	
2025-01-15 03:35:44.43	359.57	8.95	
2025-01-15 03:35:44.63	359.54	8.95	
2025-01-15 03:35:44.83	359.51	8.96	
2025-01-15 03:35:45.04	359.47	8.97	
2025-01-15 03:35:45.24	359.44	8.98	
2025-01-15 03:35:45.44	359.41	8.98	
2025-01-15 03:35:45.65	359.38	8.99	
2025-01-15 03:35:45.85	359.35	9.00	
2025-01-15 03:35:46.05	359.32	9.01	
2025-01-15 03:35:46.25	359.28	9.01	
2025-01-15 03:35:46.46	359.25	9.02	
2025-01-15 03:35:46.66	359.22	9.03	
2025-01-15 03:35:46.86	359.19	9.04	
2025-01-15 03:35:47.07	359.16	9.04	
2025-01-15 03:35:47.27	359.13	9.05	
2025-01-15 03:35:47.47	359.09	9.06	
2025-01-15 03:35:47.68	359.06	9.06	
2025-01-15 03:35:47.88	359.03	9.07	
2025-01-15 03:35:48.08	359.00	9.08	
2025-01-15 03:35:48.29	358.97	9.09	
2025-01-15 03:35:48.49	358.94	9.09	
2025-01-15 03:35:48.69	358.90	9.10	
2025-01-15 03:35:48.89	358.87	9.11	
2025-01-15 03:35:49.10	358.84	9.12	
2025-01-15 03:35:49.30	358.81	9.12	
2025-01-15 03:35:49.50	358.78	9.13	
2025-01-15 03:35:49.71	358.74	9.14	
2025-01-15 03:35:49.91	358.71	9.14	
2025-01-15 03:35:50.11	358.68	9.15	
2025-01-15 03:35:50.32	358.65	9.16	
2025-01-15 03:35:50.52	358.62	9.17	
2025-01-15 03:35:50.72	358.59	9.17	
2025-01-15 03:35:50.93	358.55	9.18	
2025-01-15 03:35:51.13	358.52	9.19	
2025-01-15 03:35:51.33	358.49	9.20	
2025-01-15 03:35:51.53	358.46	9.20	
2025-01-15 03:35:51.74	358.42	9.21	
2025-01-15 03:35:51.94	358.39	9.22	
2025-01-15 03:35:52.14	358.36	9.22	
2025-01-15 03:35:52.35	358.33	9.23	
2025-01-15 03:35:52.55	358.30	9.24	
2025-01-15 03:35:52.75	358.27	9.25	
2025-01-15 03:35:52.96	358.23	9.25	
2025-01-15 03:35:53.16	358.20	9.26	
2025-01-15 03:35:53.36	358.17	9.27	
2025-01-15 03:35:53.57	358.14	9.27	
2025-01-15 03:35:53.77	358.10	9.28	
2025-01-15 03:35:53.97	358.07	9.29	
2025-01-15 03:35:54.17	358.04	9.29	
2025-01-15 03:35:54.38	358.01	9.30	
2025-01-15 03:35:54.58	357.98	9.31	
2025-01-15 03:35:54.78	357.94	9.32	
2025-01-15 03:35:54.99	357.91	9.32	
2025-01-15 03:35:55.19	357.88	9.33	
2025-01-15 03:35:55.39	357.85	9.34	
2025-01-15 03:35:55.60	357.81	9.34	
2025-01-15 03:35:55.80	357.78	9.35	
2025-01-15 03:35:56.00	357.75	9.36	
2025-01-15 03:35:56.21	357.72	9.37	
2025-01-15 03:35:56.41	357.68	9.37	
2025-01-15 03:35:56.61	357.65	9.38	
2025-01-15 03:35:56.81	357.62	9.39	
2025-01-15 03:35:57.02	357.59	9.39	
2025-01-15 03:35:57.22	357.55	9.40	
2025-01-15 03:35:57.42	357.52	9.41	
2025-01-15 03:35:57.63	357.49	9.41	
2025-01-15 03:35:57.83	357.46	9.42	
2025-01-15 03:35:58.03	357.42	9.43	
2025-01-15 03:35:58.24	357.39	9.44	
2025-01-15 03:35:58.44	357.36	9.44	
2025-01-15 03:35:58.64	357.33	9.45	
2025-01-15 03:35:58.85	357.29	9.46	
2025-01-15 03:35:59.05	357.26	9.46	
2025-01-15 03:35:59.25	357.23	9.47	
2025-01-15 03:35:59.45	357.20	9.48	
2025-01-15 03:35:59.66	357.16	9.48	
2025-01-15 03:35:59.86	357.13	9.49	
2025-01-15 03:36:00.06	357.10	9.50	
2025-01-15 03:36:00.27	357.07	9.50	
2025-01-15 03:36:00.47	357.03	9.51	
2025-01-15 03:36:00.67	357.00	9.52	
2025-01-15 03:36:00.88	356.97	9.53	
2025-01-15 03:36:01.08	356.93	9.53	
2025-01-15 03:36:01.28	356.90	9.54	
2025-01-15 03:36:01.48	356.87	9.55	
2025-01-15 03:36:01.69	356.84	9.55	
2025-01-15 03:36:01.89	356.80	9.56	
2025-01-15 03:36:02.09	356.77	9.57	
2025-01-15 03:36:02.30	356.74	9.57	
2025-01-15 03:36:02.50	356.71	9.58	
2025-01-15 03:36:02.70	356.67	9.59	
2025-01-15 03:36:02.91	356.64	9.59	
2025-01-15 03:36:03.11	356.61	9.60	
2025-01-15 03:36:03.31	356.57	9.61	
2025-01-15 03:36:03.52	356.54	9.61	
2025-01-15 03:36:03.72	356.51	9.62	
2025-01-15 03:36:03.92	356.48	9.63	
2025-01-15 03:36:04.13	356.44	9.63	
2025-01-15 03:36:04.33	356.41	9.64	
2025-01-15 03:36:04.53	356.38	9.65	
2025-01-15 03:36:04.73	356.34	9.65	
2025-01-15 03:36:04.94	356.31	9.66	
2025-01-15 03:36:05.14	356.28	9.67	
2025-01-15 03:36:05.34	356.24	9.67	
2025-01-15 03:36:05.55	356.21	9.68	
2025-01-15 03:36:05.75	356.18	9.69	
2025-01-15 03:36:05.95	356.14	9.69	
2025-01-15 03:36:06.16	356.11	9.70	
2025-01-15 03:36:06.36	356.08	9.71	
2025-01-15 03:36:06.56	356.04	9.71	
2025-01-15 03:36:06.77	356.01	9.72	
2025-01-15 03:36:06.97	355.98	9.73	
2025-01-15 03:36:07.17	355.95	9.73	
2025-01-15 03:36:07.37	355.91	9.74	
2025-01-15 03:36:07.58	355.88	9.75	
2025-01-15 03:36:07.78	355.85	9.75	
2025-01-15 03:36:07.98	355.81	9.76	
2025-01-15 03:36:08.19	355.78	9.77	
2025-01-15 03:36:08.39	355.75	9.77	
2025-01-15 03:36:08.59	355.71	9.78	
2025-01-15 03:36:08.80	355.68	9.79	
2025-01-15 03:36:09.00	355.65	9.79	
2025-01-15 03:36:09.20	355.61	9.80	
2025-01-15 03:36:09.41	355.58	9.81	
2025-01-15 03:36:09.61	355.54	9.81	
2025-01-15 03:36:09.81	355.51	9.82	
2025-01-15 03:36:10.01	355.48	9.83	
2025-01-15 03:36:10.22	355.44	9.83	
2025-01-15 03:36:10.42	355.41	9.84	
2025-01-15 03:36:10.62	355.38	9.85	
2025-01-15 03:36:10.83	355.34	9.85	
2025-01-15 03:36:11.03	355.31	9.86	
2025-01-15 03:36:11.23	355.28	9.87	
2025-01-15 03:36:11.44	355.24	9.87	
2025-01-15 03:36:11.64	355.21	9.88	
2025-01-15 03:36:11.84	355.18	9.89	
2025-01-15 03:36:12.05	355.14	9.89	
2025-01-15 03:36:12.25	355.11	9.90	
2025-01-15 03:36:12.45	355.08	9.90	
2025-01-15 03:36:12.65	355.04	9.91	
2025-01-15 03:36:12.86	355.01	9.92	
2025-01-15 03:36:13.06	354.98	9.92	
2025-01-15 03:36:13.26	354.94	9.93	
2025-01-15 03:36:13.47	354.91	9.94	
2025-01-15 03:36:13.67	354.87	9.94	
2025-01-15 03:36:13.87	354.84	9.95	
2025-01-15 03:36:14.08	354.81	9.96	
2025-01-15 03:36:14.28	354.77	9.96	
2025-01-15 03:36:14.48	354.74	9.97	
2025-01-15 03:36:14.69	354.70	9.98	
2025-01-15 03:36:14.89	354.67	9.98	
2025-01-15 03:36:15.09	354.64	9.99	
2025-01-15 03:36:15.29	354.60	9.99	
2025-01-15 03:36:15.50	354.57	10.00	
2025-01-15 03:36:15.70	354.54	10.01	
2025-01-15 03:36:15.90	354.50	10.01	
2025-01-15 03:36:16.11	354.47	10.02	
2025-01-15 03:36:16.31	354.43	10.03	
2025-01-15 03:36:16.51	354.40	10.03	
2025-01-15 03:36:16.72	354.37	10.04	
2025-01-15 03:36:16.92	354.33	10.04	
2025-01-15 03:36:17.12	354.30	10.05	
2025-01-15 03:36:17.33	354.26	10.06	
2025-01-15 03:36:17.53	354.23	10.06	
2025-01-15 03:36:17.73	354.20	10.07	
2025-01-15 03:36:17.93	354.16	10.08	
2025-01-15 03:36:18.14	354.13	10.08	
2025-01-15 03:36:18.34	354.09	10.09	
2025-01-15 03:36:18.54	354.06	10.09	
2025-01-15 03:36:18.75	354.03	10.10	
2025-01-15 03:36:18.95	353.99	10.11	
2025-01-15 03:36:19.15	353.96	10.11	
2025-01-15 03:36:19.36	353.92	10.12	
2025-01-15 03:36:19.56	353.89	10.13	
2025-01-15 03:36:19.76	353.86	10.13	
2025-01-15 03:36:19.97	353.82	10.14	
2025-01-15 03:36:20.17	353.79	10.14	
2025-01-15 03:36:20.37	353.75	10.15	
2025-01-15 03:36:20.57	353.72	10.16	
2025-01-15 03:36:20.78	353.68	10.16	
2025-01-15 03:36:20.98	353.65	10.17	
2025-01-15 03:36:21.18	353.62	10.17	
2025-01-15 03:36:21.39	353.58	10.18	
2025-01-15 03:36:21.59	353.55	10.19	
2025-01-15 03:36:21.79	353.51	10.19	
2025-01-15 03:36:22.00	353.48	10.20	
2025-01-15 03:36:22.20	353.44	10.20	
2025-01-15 03:36:22.40	353.41	10.21	
2025-01-15 03:36:22.61	353.38	10.22	
2025-01-15 03:36:22.81	353.34	10.22	
2025-01-15 03:36:23.01	353.31	10.23	
2025-01-15 03:36:23.21	353.27	10.23	
2025-01-15 03:36:23.42	353.24	10.24	
2025-01-15 03:36:23.62	353.20	10.25	
2025-01-15 03:36:23.82	353.17	10.25	
2025-01-15 03:36:24.03	353.13	10.26	
2025-01-15 03:36:24.23	353.10	10.27	
2025-01-15 03:36:24.43	353.07	10.27	
2025-01-15 03:36:24.64	353.03	10.28	
2025-01-15 03:36:24.84	353.00	10.28	
2025-01-15 03:36:25.04	352.96	10.29	
2025-01-15 03:36:25.25	352.93	10.29	
2025-01-15 03:36:25.45	352.89	10.30	
2025-01-15 03:36:25.65	352.86	10.31	
2025-01-15 03:36:25.85	352.83	10.31	
2025-01-15 03:36:26.06	352.79	10.32	
2025-01-15 03:36:26.26	352.76	10.32	
2025-01-15 03:36:26.46	352.72	10.33	
2025-01-15 03:36:26.67	352.69	10.34	
2025-01-15 03:36:26.87	352.65	10.34	
2025-01-15 03:36:27.07	352.62	10.35	
2025-01-15 03:36:27.28	352.58	10.35	
2025-01-15 03:36:27.48	352.55	10.36	
2025-01-15 03:36:27.68	352.51	10.37	
2025-01-15 03:36:27.89	352.48	10.37	
2025-01-15 03:36:28.09	352.44	10.38	
2025-01-15 03:36:28.29	352.41	10.38	
2025-01-15 03:36:28.49	352.37	10.39	
2025-01-15 03:36:28.70	352.34	10.39	
2025-01-15 03:36:28.90	352.30	10.40	
2025-01-15 03:36:29.10	352.27	10.41	
2025-01-15 03:36:29.31	352.23	10.41	
2025-01-15 03:36:29.51	352.20	10.42	
2025-01-15 03:36:29.71	352.17	10.42	
2025-01-15 03:36:29.92	352.13	10.43	
2025-01-15 03:36:30.12	352.09	10.43	
2025-01-15 03:36:30.32	352.06	10.44	
2025-01-15 03:36:30.52	352.03	10.45	
2025-01-15 03:36:30.73	351.99	10.45	
2025-01-15 03:36:30.93	351.96	10.46	
2025-01-15 03:36:31.13	351.92	10.46	
2025-01-15 03:36:31.34	351.88	10.47	
2025-01-15 03:36:31.54	351.85	10.47	
2025-01-15 03:36:31.74	351.82	10.48	
2025-01-15 03:36:31.95	351.78	10.49	
2025-01-15 03:36:32.15	351.75	10.49	
2025-01-15 03:36:32.35	351.71	10.50	
2025-01-15 03:36:32.56	351.67	10.50	
2025-01-15 03:36:32.76	351.64	10.51	
2025-01-15 03:36:32.96	351.61	10.51	
2025-01-15 03:36:33.17	351.57	10.52	
2025-01-15 03:36:33.37	351.53	10.52	
2025-01-15 03:36:33.57	351.50	10.53	
2025-01-15 03:36:33.77	351.47	10.54	
2025-01-15 03:36:33.98	351.43	10.54	
2025-01-15 03:36:34.18	351.39	10.55	
2025-01-15 03:36:34.38	351.36	10.55	
2025-01-15 03:36:34.59	351.32	10.56	
2025-01-15 03:36:34.79	351.29	10.56	
2025-01-15 03:36:34.99	351.25	10.57	
2025-01-15 03:36:35.20	351.22	10.57	
2025-01-15 03:36:35.40	351.18	10.58	
2025-01-15 03:36:35.60	351.15	10.59	
2025-01-15 03:36:35.81	351.11	10.59	
2025-01-15 03:36:36.01	351.08	10.60	
2025-01-15 03:36:36.21	351.04	10.60	
2025-01-15 03:36:36.41	351.01	10.61	
2025-01-15 03:36:36.62	350.97	10.61	
2025-01-15 03:36:36.82	350.94	10.62	
2025-01-15 03:36:37.02	350.90	10.62	
2025-01-15 03:36:37.23	350.86	10.63	
2025-01-15 03:36:37.43	350.83	10.63	
2025-01-15 03:36:37.63	350.80	10.64	
2025-01-15 03:36:37.84	350.76	10.65	
2025-01-15 03:36:38.04	350.72	10.65	
2025-01-15 03:36:38.24	350.69	10.66	
2025-01-15 03:36:38.45	350.65	10.66	
2025-01-15 03:36:38.65	350.62	10.67	
2025-01-15 03:36:38.85	350.58	10.67	
2025-01-15 03:36:39.05	350.55	10.68	
2025-01-15 03:36:39.26	350.51	10.68	
2025-01-15 03:36:39.46	350.48	10.69	
2025-01-15 03:36:39.66	350.44	10.69	
2025-01-15 03:36:39.87	350.40	10.70	
2025-01-15 03:36:40.07	350.37	10.70	
2025-01-15 03:36:40.27	350.33	10.71	
2025-01-15 03:36:40.48	350.30	10.71	
2025-01-15 03:36:40.68	350.26	10.72	
2025-01-15 03:36:40.88	350.23	10.72	
2025-01-15 03:36:41.09	350.19	10.73	
2025-01-15 03:36:41.29	350.16	10.73	
2025-01-15 03:36:41.49	350.12	10.74	
2025-01-15 03:36:41.69	350.09	10.75	
2025-01-15 03:36:41.90	350.05	10.75	
2025-01-15 03:36:42.10	350.01	10.76	
2025-01-15 03:36:42.30	349.98	10.76	
2025-01-15 03:36:42.51	349.94	10.77	
2025-01-15 03:36:42.71	349.91	10.77	
2025-01-15 03:36:42.91	349.87	10.78	
2025-01-15 03:36:43.12	349.83	10.78	
2025-01-15 03:36:43.32	349.80	10.79	
2025-01-15 03:36:43.52	349.76	10.79	
2025-01-15 03:36:43.73	349.73	10.80	
2025-01-15 03:36:43.93	349.69	10.80	
2025-01-15 03:36:44.13	349.66	10.81	
2025-01-15 03:36:44.33	349.62	10.81	
2025-01-15 03:36:44.54	349.58	10.82	
2025-01-15 03:36:44.74	349.55	10.82	
2025-01-15 03:36:44.94	349.51	10.83	
2025-01-15 03:36:45.15	349.48	10.83	
2025-01-15 03:36:45.35	349.44	10.84	
2025-01-15 03:36:45.55	349.41	10.84	
2025-01-15 03:36:45.76	349.37	10.85	
2025-01-15 03:36:45.96	349.33	10.85	
2025-01-15 03:36:46.16	349.30	10.86	
2025-01-15 03:36:46.37	349.26	10.86	
2025-01-15 03:36:46.57	349.22	10.87	
2025-01-15 03:36:46.77	349.19	10.87	
2025-01-15 03:36:46.97	349.15	10.88	
2025-01-15 03:36:47.18	349.12	10.88	
2025-01-15 03:36:47.38	349.08	10.89	
2025-01-15 03:36:47.58	349.05	10.89	
2025-01-15 03:36:47.79	349.01	10.90	
2025-01-15 03:36:47.99	348.97	10.90	
2025-01-15 03:36:48.19	348.94	10.91	
2025-01-15 03:36:48.40	348.90	10.91	
2025-01-15 03:36:48.60	348.86	10.92	
2025-01-15 03:36:48.80	348.83	10.92	
2025-01-15 03:36:49.01	348.79	10.93	
2025-01-15 03:36:49.21	348.76	10.93	
2025-01-15 03:36:49.41	348.72	10.93	
2025-01-15 03:36:49.61	348.69	10.94	
2025-01-15 03:36:49.82	348.65	10.94	
2025-01-15 03:36:50.02	348.61	10.95	
2025-01-15 03:36:50.22	348.58	10.95	
2025-01-15 03:36:50.43	348.54	10.96	
2025-01-15 03:36:50.63	348.50	10.96	
2025-01-15 03:36:50.83	348.47	10.97	
2025-01-15 03:36:51.04	348.43	10.97	
2025-01-15 03:36:51.24	348.39	10.98	
2025-01-15 03:36:51.44	348.36	10.98	
2025-01-15 03:36:51.64	348.32	10.99	
2025-01-15 03:36:51.86	348.28	10.99	
2025-01-15 03:36:52.07	348.25	11.00	
2025-01-15 03:36:52.27	348.21	11.00	
2025-01-15 03:36:52.47	348.18	11.01	
2025-01-15 03:36:52.68	348.14	11.01	
2025-01-15 03:36:52.88	348.10	11.02	
2025-01-15 03:36:53.08	348.07	11.02	
2025-01-15 03:36:53.29	348.03	11.02	
2025-01-15 03:36:53.49	347.99	11.03	
2025-01-15 03:36:53.69	347.96	11.03	
2025-01-15 03:36:53.89	347.92	11.04	
2025-01-15 03:36:54.10	347.88	11.04	
2025-01-15 03:36:54.30	347.85	11.05	
2025-01-15 03:36:54.50	347.81	11.05	
2025-01-15 03:36:54.71	347.77	11.06	
2025-01-15 03:36:54.91	347.74	11.06	
2025-01-15 03:36:55.11	347.70	11.07	
2025-01-15 03:36:55.32	347.66	11.07	
2025-01-15 03:36:55.52	347.63	11.08	
2025-01-15 03:36:55.72	347.59	11.08	
2025-01-15 03:36:55.93	347.55	11.08	
2025-01-15 03:36:56.13	347.52	11.09	
2025-01-15 03:36:56.33	347.48	11.09	
2025-01-15 03:36:56.53	347.45	11.10	
2025-01-15 03:36:56.74	347.41	11.10	
2025-01-15 03:36:56.94	347.37	11.11	
2025-01-15 03:36:57.14	347.34	11.11	
2025-01-15 03:36:57.35	347.30	11.12	
2025-01-15 03:36:57.55	347.26	11.12	
2025-01-15 03:36:57.75	347.23	11.12	
2025-01-15 03:36:57.96	347.19	11.13	
2025-01-15 03:36:58.16	347.15	11.13	
2025-01-15 03:36:58.36	347.12	11.14	
2025-01-15 03:36:58.57	347.08	11.14	
2025-01-15 03:36:58.77	347.04	11.15	
2025-01-15 03:36:58.97	347.01	11.15	
2025-01-15 03:36:59.17	346.97	11.15	
2025-01-15 03:36:59.38	346.93	11.16	
2025-01-15 03:36:59.58	346.90	11.16	
2025-01-15 03:36:59.78	346.86	11.17	
2025-01-15 03:36:59.99	346.82	11.17	
2025-01-15 03:37:00.19	346.79	11.18	
2025-01-15 03:37:00.39	346.75	11.18	
2025-01-15 03:37:00.60	346.71	11.18	
2025-01-15 03:37:00.80	346.68	11.19	
2025-01-15 03:37:01.00	346.64	11.19	
2025-01-15 03:37:01.21	346.60	11.20	
2025-01-15 03:37:01.41	346.57	11.20	
2025-01-15 03:37:01.61	346.53	11.21	
2025-01-15 03:37:01.81	346.49	11.21	
2025-01-15 03:37:02.02	346.46	11.21	
2025-01-15 03:37:02.22	346.42	11.22	
2025-01-15 03:37:02.42	346.38	11.22	
2025-01-15 03:37:02.63	346.34	11.23	
2025-01-15 03:37:02.83	346.31	11.23	
2025-01-15 03:37:03.03	346.27	11.23	
2025-01-15 03:37:03.24	346.23	11.24	
2025-01-15 03:37:03.44	346.20	11.24	
2025-01-15 03:37:03.64	346.16	11.25	
2025-01-15 03:37:03.85	346.12	11.25	
2025-01-15 03:37:04.05	346.09	11.25	
2025-01-15 03:37:04.25	346.05	11.26	
2025-01-15 03:37:04.45	346.01	11.26	
2025-01-15 03:37:04.66	345.98	11.27	
2025-01-15 03:37:04.86	345.94	11.27	
2025-01-15 03:37:05.06	345.90	11.27	
2025-01-15 03:37:05.27	345.86	11.28	
2025-01-15 03:37:05.47	345.83	11.28	
2025-01-15 03:37:05.67	345.79	11.29	
2025-01-15 03:37:05.88	345.75	11.29	
2025-01-15 03:37:06.08	345.72	11.29	
2025-01-15 03:37:06.28	345.68	11.30	
2025-01-15 03:37:06.49	345.64	11.30	
2025-01-15 03:37:06.69	345.61	11.31	
2025-01-15 03:37:06.89	345.57	11.31	
2025-01-15 03:37:07.09	345.53	11.31	
2025-01-15 03:37:07.30	345.49	11.32	
2025-01-15 03:37:07.50	345.46	11.32	
2025-01-15 03:37:07.70	345.42	11.33	
2025-01-15 03:37:07.91	345.38	11.33	
2025-01-15 03:37:08.11	345.35	11.33	
2025-01-15 03:37:08.31	345.31	11.34	
2025-01-15 03:37:08.52	345.27	11.34	
2025-01-15 03:37:08.72	345.23	11.34	
2025-01-15 03:37:08.92	345.20	11.35	
2025-01-15 03:37:09.13	345.16	11.35	
2025-01-15 03:37:09.33	345.12	11.36	
2025-01-15 03:37:09.53	345.09	11.36	
2025-01-15 03:37:09.73	345.05	11.36	
2025-01-15 03:37:09.94	345.01	11.37	
2025-01-15 03:37:10.14	344.97	11.37	
2025-01-15 03:37:10.34	344.94	11.37	
2025-01-15 03:37:10.55	344.90	11.38	
2025-01-15 03:37:10.75	344.86	11.38	
2025-01-15 03:37:10.95	344.83	11.39	
2025-01-15 03:37:11.16	344.79	11.39	
2025-01-15 03:37:11.36	344.75	11.39	
2025-01-15 03:37:11.56	344.71	11.40	
2025-01-15 03:37:11.77	344.67	11.40	
2025-01-15 03:37:11.97	344.64	11.40	
2025-01-15 03:37:12.17	344.60	11.41	
2025-01-15 03:37:12.37	344.56	11.41	
2025-01-15 03:37:12.58	344.53	11.42	
2025-01-15 03:37:12.78	344.49	11.42	
2025-01-15 03:37:12.98	344.45	11.42	
2025-01-15 03:37:13.19	344.41	11.43	
2025-01-15 03:37:13.39	344.38	11.43	
2025-01-15 03:37:13.59	344.34	11.43	
2025-01-15 03:37:13.80	344.30	11.44	
2025-01-15 03:37:14.00	344.26	11.44	
2025-01-15 03:37:14.20	344.23	11.44	
2025-01-15 03:37:14.41	344.19	11.45	
2025-01-15 03:37:14.61	344.15	11.45	
2025-01-15 03:37:14.81	344.12	11.45	
2025-01-15 03:37:15.01	344.08	11.46	
2025-01-15 03:37:15.22	344.04	11.46	
2025-01-15 03:37:15.42	344.00	11.46	
2025-01-15 03:37:15.62	343.97	11.47	
2025-01-15 03:37:15.83	343.93	11.47	
2025-01-15 03:37:16.03	343.89	11.47	
2025-01-15 03:37:16.23	343.85	11.48	
2025-01-15 03:37:16.44	343.81	11.48	
2025-01-15 03:37:16.64	343.78	11.48	
2025-01-15 03:37:16.84	343.74	11.49	
2025-01-15 03:37:17.05	343.70	11.49	
2025-01-15 03:37:17.25	343.66	11.49	
2025-01-15 03:37:17.45	343.63	11.50	
2025-01-15 03:37:17.65	343.59	11.50	
2025-01-15 03:37:17.86	343.55	11.50	
2025-01-15 03:37:18.06	343.51	11.51	
2025-01-15 03:37:18.26	343.48	11.51	
2025-01-15 03:37:18.47	343.44	11.51	
2025-01-15 03:37:18.67	343.40	11.52	
2025-01-15 03:37:18.87	343.36	11.52	
2025-01-15 03:37:19.08	343.33	11.52	
2025-01-15 03:37:19.28	343.29	11.53	
2025-01-15 03:37:19.48	343.25	11.53	
2025-01-15 03:37:19.69	343.21	11.53	
2025-01-15 03:37:19.89	343.18	11.54	
2025-01-15 03:37:20.09	343.14	11.54	
2025-01-15 03:37:20.29	343.10	11.54	
2025-01-15 03:37:20.50	343.06	11.55	
2025-01-15 03:37:20.70	343.03	11.55	
2025-01-15 03:37:20.90	342.99	11.55	
2025-01-15 03:37:21.11	342.95	11.56	
2025-01-15 03:37:21.31	342.91	11.56	
2025-01-15 03:37:21.51	342.87	11.56	
2025-01-15 03:37:21.72	342.84	11.56	
2025-01-15 03:37:21.92	342.80	11.57	
2025-01-15 03:37:22.12	342.76	11.57	
2025-01-15 03:37:22.33	342.72	11.57	
2025-01-15 03:37:22.53	342.69	11.58	
2025-01-15 03:37:22.73	342.65	11.58	
2025-01-15 03:37:22.93	342.61	11.58	
2025-01-15 03:37:23.14	342.57	11.59	
2025-01-15 03:37:23.34	342.53	11.59	
2025-01-15 03:37:23.54	342.50	11.59	
2025-01-15 03:37:23.75	342.46	11.59	
2025-01-15 03:37:23.95	342.42	11.60	
2025-01-15 03:37:24.15	342.38	11.60	
2025-01-15 03:37:24.36	342.34	11.60	
2025-01-15 03:37:24.56	342.31	11.61	
2025-01-15 03:37:24.76	342.27	11.61	
2025-01-15 03:37:24.97	342.23	11.61	
2025-01-15 03:37:25.17	342.19	11.62	
2025-01-15 03:37:25.37	342.16	11.62	
2025-01-15 03:37:25.57	342.12	11.62	
2025-01-15 03:37:25.78	342.08	11.62	
2025-01-15 03:37:25.98	342.04	11.63	
2025-01-15 03:37:26.18	342.01	11.63	
2025-01-15 03:37:26.39	341.97	11.63	
2025-01-15 03:37:26.59	341.93	11.63	
2025-01-15 03:37:26.79	341.89	11.64	
2025-01-15 03:37:27.00	341.85	11.64	
2025-01-15 03:37:27.20	341.81	11.64	
2025-01-15 03:37:27.40	341.78	11.65	
2025-01-15 03:37:27.61	341.74	11.65	
2025-01-15 03:37:27.81	341.70	11.65	
2025-01-15 03:37:28.01	341.66	11.65	
2025-01-15 03:37:28.21	341.63	11.66	
2025-01-15 03:37:28.42	341.59	11.66	
2025-01-15 03:37:28.62	341.55	11.66	
2025-01-15 03:37:28.82	341.51	11.66	
2025-01-15 03:37:29.03	341.47	11.67	
2025-01-15 03:37:29.23	341.43	11.67	
2025-01-15 03:37:29.43	341.40	11.67	
2025-01-15 03:37:29.64	341.36	11.68	
2025-01-15 03:37:29.84	341.32	11.68	
2025-01-15 03:37:30.04	341.28	11.68	
2025-01-15 03:37:30.25	341.24	11.68	
2025-01-15 03:37:30.45	341.21	11.69	
2025-01-15 03:37:30.65	341.17	11.69	
2025-01-15 03:37:30.85	341.13	11.69	
2025-01-15 03:37:31.06	341.09	11.69	
2025-01-15 03:37:31.26	341.05	11.70	
2025-01-15 03:37:31.46	341.02	11.70	
2025-01-15 03:37:31.67	340.98	11.70	
2025-01-15 03:37:31.87	340.94	11.70	
2025-01-15 03:37:32.07	340.90	11.71	
2025-01-15 03:37:32.28	340.86	11.71	
2025-01-15 03:37:32.48	340.83	11.71	
2025-01-15 03:37:32.68	340.79	11.71	
2025-01-15 03:37:32.89	340.75	11.72	
2025-01-15 03:37:33.09	340.71	11.72	
2025-01-15 03:37:33.29	340.67	11.72	
2025-01-15 03:37:33.49	340.64	11.72	
2025-01-15 03:37:33.70	340.60	11.73	
2025-01-15 03:37:33.90	340.56	11.73	
2025-01-15 03:37:34.10	340.52	11.73	
2025-01-15 03:37:34.31	340.48	11.73	
2025-01-15 03:37:34.51	340.44	11.73	
2025-01-15 03:37:34.71	340.41	11.74	
2025-01-15 03:37:34.92	340.37	11.74	
2025-01-15 03:37:35.12	340.33	11.74	
2025-01-15 03:37:35.32	340.29	11.74	
2025-01-15 03:37:35.53	340.25	11.75	
2025-01-15 03:37:35.73	340.21	11.75	
2025-01-15 03:37:35.93	340.18	11.75	
2025-01-15 03:37:36.13	340.14	11.75	
2025-01-15 03:37:36.34	340.10	11.75	
2025-01-15 03:37:36.54	340.06	11.76	
2025-01-15 03:37:36.74	340.02	11.76	
2025-01-15 03:37:36.95	339.98	11.76	
2025-01-15 03:37:37.15	339.95	11.76	
2025-01-15 03:37:37.35	339.91	11.77	
2025-01-15 03:37:37.56	339.87	11.77	
2025-01-15 03:37:37.76	339.83	11.77	
2025-01-15 03:37:37.96	339.79	11.77	
2025-01-15 03:37:38.17	339.75	11.77	
2025-01-15 03:37:38.37	339.72	11.78	
2025-01-15 03:37:38.57	339.68	11.78	
2025-01-15 03:37:38.77	339.64	11.78	
2025-01-15 03:37:38.98	339.60	11.78	
2025-01-15 03:37:39.18	339.56	11.78	
2025-01-15 03:37:39.38	339.53	11.79	
2025-01-15 03:37:39.59	339.49	11.79	
2025-01-15 03:37:39.79	339.45	11.79	
2025-01-15 03:37:39.99	339.41	11.79	
2025-01-15 03:37:40.20	339.37	11.79	
2025-01-15 03:37:40.40	339.33	11.80	
2025-01-15 03:37:40.60	339.30	11.80	
2025-01-15 03:37:40.81	339.26	11.80	
2025-01-15 03:37:41.01	339.22	11.80	
2025-01-15 03:37:41.21	339.18	11.80	
2025-01-15 03:37:41.41	339.14	11.81	
2025-01-15 03:37:41.62	339.10	11.81	
2025-01-15 03:37:41.82	339.07	11.81	
2025-01-15 03:37:42.02	339.03	11.81	
2025-01-15 03:37:42.23	338.99	11.81	
2025-01-15 03:37:42.43	338.95	11.82	
2025-01-15 03:37:42.63	338.91	11.82	
2025-01-15 03:37:42.84	338.87	11.82	
2025-01-15 03:37:43.04	338.83	11.82	
2025-01-15 03:37:43.24	338.80	11.82	
2025-01-15 03:37:43.45	338.76	11.82	
2025-01-15 03:37:43.65	338.72	11.83	
2025-01-15 03:37:43.85	338.68	11.83	
2025-01-15 03:37:44.05	338.64	11.83	
2025-01-15 03:37:44.26	338.60	11.83	
2025-01-15 03:37:44.46	338.57	11.83	
2025-01-15 03:37:44.66	338.53	11.83	
2025-01-15 03:37:44.87	338.49	11.84	
2025-01-15 03:37:45.07	338.45	11.84	
2025-01-15 03:37:45.27	338.41	11.84	
2025-01-15 03:37:45.48	338.37	11.84	
2025-01-15 03:37:45.68	338.34	11.84	
2025-01-15 03:37:45.88	338.30	11.84	
2025-01-15 03:37:46.09	338.26	11.85	
2025-01-15 03:37:46.29	338.22	11.85	
2025-01-15 03:37:46.49	338.18	11.85	
2025-01-15 03:37:46.69	338.14	11.85	
2025-01-15 03:37:46.90	338.10	11.85	
2025-01-15 03:37:47.10	338.07	11.85	
2025-01-15 03:37:47.30	338.03	11.86	
2025-01-15 03:37:47.51	337.99	11.86	
2025-01-15 03:37:47.71	337.95	11.86	
2025-01-15 03:37:47.91	337.91	11.86	
2025-01-15 03:37:48.12	337.87	11.86	
2025-01-15 03:37:48.32	337.83	11.86	
2025-01-15 03:37:48.52	337.80	11.86	
2025-01-15 03:37:48.73	337.76	11.87	
2025-01-15 03:37:48.93	337.72	11.87	
2025-01-15 03:37:49.13	337.68	11.87	
2025-01-15 03:37:49.33	337.64	11.87	
2025-01-15 03:37:49.54	337.60	11.87	
2025-01-15 03:37:49.74	337.56	11.87	
2025-01-15 03:37:49.94	337.53	11.87	
2025-01-15 03:37:50.15	337.49	11.88	
2025-01-15 03:37:50.35	337.45	11.88	
2025-01-15 03:37:50.55	337.41	11.88	
2025-01-15 03:37:50.76	337.37	11.88	
2025-01-15 03:37:50.96	337.33	11.88	
2025-01-15 03:37:51.16	337.30	11.88	
2025-01-15 03:37:51.37	337.26	11.88	
2025-01-15 03:37:51.57	337.22	11.89	
2025-01-15 03:37:51.77	337.18	11.89	
2025-01-15 03:37:51.97	337.14	11.89	
2025-01-15 03:37:52.18	337.10	11.89	
2025-01-15 03:37:52.38	337.06	11.89	
2025-01-15 03:37:52.58	337.03	11.89	
2025-01-15 03:37:52.79	336.99	11.89	
2025-01-15 03:37:52.99	336.95	11.89	
2025-01-15 03:37:53.19	336.91	11.89	
2025-01-15 03:37:53.40	336.87	11.90	
2025-01-15 03:37:53.60	336.83	11.90	
2025-01-15 03:37:53.80	336.79	11.90	
2025-01-15 03:37:54.01	336.75	11.90	
2025-01-15 03:37:54.21	336.72	11.90	
2025-01-15 03:37:54.41	336.68	11.90	
2025-01-15 03:37:54.61	336.64	11.90	
2025-01-15 03:37:54.82	336.60	11.90	
2025-01-15 03:37:55.02	336.56	11.90	
2025-01-15 03:37:55.22	336.52	11.91	
2025-01-15 03:37:55.43	336.48	11.91	
2025-01-15 03:37:55.63	336.44	11.91	
2025-01-15 03:37:55.83	336.41	11.91	
2025-01-15 03:37:56.04	336.37	11.91	
2025-01-15 03:37:56.24	336.33	11.91	
2025-01-15 03:37:56.44	336.29	11.91	
2025-01-15 03:37:56.65	336.25	11.91	
2025-01-15 03:37:56.85	336.21	11.91	
2025-01-15 03:37:57.05	336.17	11.91	
2025-01-15 03:37:57.25	336.14	11.92	
2025-01-15 03:37:57.46	336.10	11.92	
2025-01-15 03:37:57.66	336.06	11.92	
2025-01-15 03:37:57.86	336.02	11.92	
2025-01-15 03:37:58.07	335.98	11.92	
2025-01-15 03:37:58.27	335.94	11.92	
2025-01-15 03:37:58.47	335.90	11.92	
2025-01-15 03:37:58.68	335.86	11.92	
2025-01-15 03:37:58.88	335.83	11.92	
2025-01-15 03:37:59.08	335.79	11.92	
2025-01-15 03:37:59.29	335.75	11.92	
2025-01-15 03:37:59.49	335.71	11.92	
2025-01-15 03:37:59.69	335.67	11.93	
2025-01-15 03:37:59.89	335.63	11.93	
2025-01-15 03:38:00.10	335.59	11.93	
2025-01-15 03:38:00.30	335.56	11.93	
2025-01-15 03:38:00.50	335.52	11.93	
2025-01-15 03:38:00.71	335.48	11.93	
2025-01-15 03:38:00.91	335.44	11.93	
2025-01-15 03:38:01.11	335.40	11.93	
2025-01-15 03:38:01.32	335.36	11.93	
2025-01-15 03:38:01.52	335.32	11.93	
2025-01-15 03:38:01.72	335.28	11.93	
2025-01-15 03:38:01.93	335.24	11.93	
2025-01-15 03:38:02.13	335.21	11.93	
2025-01-15 03:38:02.33	335.17	11.93	
2025-01-15 03:38:02.53	335.13	11.94	
2025-01-15 03:38:02.74	335.09	11.94	
2025-01-15 03:38:02.94	335.05	11.94	
2025-01-15 03:38:03.14	335.01	11.94	
2025-01-15 03:38:03.35	334.97	11.94	
2025-01-15 03:38:03.55	334.94	11.94	
2025-01-15 03:38:03.75	334.90	11.94	
2025-01-15 03:38:03.96	334.86	11.94	
2025-01-15 03:38:04.16	334.82	11.94	
2025-01-15 03:38:04.36	334.78	11.94	
2025-01-15 03:38:04.57	334.74	11.94	
2025-01-15 03:38:04.77	334.70	11.94	
2025-01-15 03:38:04.97	334.66	11.94	
2025-01-15 03:38:05.17	334.63	11.94	
2025-01-15 03:38:05.38	334.59	11.94	
2025-01-15 03:38:05.58	334.55	11.94	
2025-01-15 03:38:05.78	334.51	11.94	
2025-01-15 03:38:05.99	334.47	11.94	
2025-01-15 03:38:06.19	334.43	11.94	
2025-01-15 03:38:06.39	334.39	11.94	
2025-01-15 03:38:06.60	334.35	11.94	
2025-01-15 03:38:06.80	334.32	11.94	
2025-01-15 03:38:07.00	334.28	11.94	
2025-01-15 03:38:07.21	334.24	11.95	
2025-01-15 03:38:07.41	334.20	11.95	
2025-01-15 03:38:07.61	334.16	11.95	
2025-01-15 03:38:07.81	334.12	11.95	
2025-01-15 03:38:08.02	334.08	11.95	
2025-01-15 03:38:08.22	334.04	11.95	
2025-01-15 03:38:08.42	334.01	11.95	
2025-01-15 03:38:08.63	333.97	11.95	
2025-01-15 03:38:08.83	333.93	11.95	
2025-01-15 03:38:09.03	333.89	11.95	
2025-01-15 03:38:09.24	333.85	11.95	
2025-01-15 03:38:09.44	333.81	11.95	
2025-01-15 03:38:09.64	333.77	11.95	
2025-01-15 03:38:09.85	333.73	11.95	
2025-01-15 03:38:10.05	333.70	11.95	
2025-01-15 03:38:10.25	333.66	11.95	
2025-01-15 03:38:10.45	333.62	11.95	
2025-01-15 03:38:10.66	333.58	11.95	
2025-01-15 03:38:10.86	333.54	11.95	
2025-01-15 03:38:11.06	333.50	11.95	
2025-01-15 03:38:11.27	333.46	11.95	
2025-01-15 03:38:11.47	333.42	11.95	
2025-01-15 03:38:11.67	333.39	11.95	
2025-01-15 03:38:11.88	333.35	11.95	
2025-01-15 03:38:12.08	333.31	11.95	
2025-01-15 03:38:12.28	333.27	11.95	
2025-01-15 03:38:12.49	333.23	11.95	
2025-01-15 03:38:12.69	333.19	11.95	
2025-01-15 03:38:12.89	333.15	11.95	
2025-01-15 03:38:13.09	333.11	11.95	
2025-01-15 03:38:13.30	333.07	11.95	
2025-01-15 03:38:13.50	333.04	11.95	
2025-01-15 03:38:13.70	333.00	11.95	
2025-01-15 03:38:13.91	332.96	11.95	
2025-01-15 03:38:14.11	332.92	11.95	
2025-01-15 03:38:14.31	332.88	11.95	
2025-01-15 03:38:14.52	332.84	11.95	
2025-01-15 03:38:14.72	332.80	11.95	
2025-01-15 03:38:14.92	332.77	11.95	
2025-01-15 03:38:15.13	332.73	11.95	
2025-01-15 03:38:15.33	332.69	11.95	
2025-01-15 03:38:15.53	332.65	11.95	
2025-01-15 03:38:15.73	332.61	11.95	
2025-01-15 03:38:15.94	332.57	11.95	
2025-01-15 03:38:16.14	332.53	11.95	
2025-01-15 03:38:16.34	332.49	11.95	
2025-01-15 03:38:16.55	332.45	11.94	
2025-01-15 03:38:16.75	332.42	11.94	
2025-01-15 03:38:16.95	332.38	11.94	
2025-01-15 03:38:17.16	332.34	11.94	
2025-01-15 03:38:17.36	332.30	11.94	
2025-01-15 03:38:17.56	332.26	11.94	
2025-01-15 03:38:17.77	332.22	11.94	
2025-01-15 03:38:17.97	332.18	11.94	
2025-01-15 03:38:18.17	332.14	11.94	
2025-01-15 03:38:18.37	332.11	11.94	
2025-01-15 03:38:18.58	332.07	11.94	
2025-01-15 03:38:18.78	332.03	11.94	
2025-01-15 03:38:18.98	331.99	11.94	
2025-01-15 03:38:19.19	331.95	11.94	
2025-01-15 03:38:19.39	331.91	11.94	
2025-01-15 03:38:19.59	331.87	11.94	
2025-01-15 03:38:19.80	331.83	11.94	
2025-01-15 03:38:20.00	331.80	11.94	
2025-01-15 03:38:20.20	331.76	11.94	
2025-01-15 03:38:20.41	331.72	11.94	
2025-01-15 03:38:20.61	331.68	11.94	
2025-01-15 03:38:20.81	331.64	11.94	
2025-01-15 03:38:21.01	331.60	11.94	
2025-01-15 03:38:21.22	331.56	11.93	
2025-01-15 03:38:21.42	331.52	11.93	
2025-01-15 03:38:21.62	331.49	11.93	
2025-01-15 03:38:21.83	331.45	11.93	
2025-01-15 03:38:22.03	331.41	11.93	
2025-01-15 03:38:22.23	331.37	11.93	
2025-01-15 03:38:22.44	331.33	11.93	
2025-01-15 03:38:22.64	331.29	11.93	
2025-01-15 03:38:22.84	331.25	11.93	
2025-01-15 03:38:23.05	331.21	11.93	
2025-01-15 03:38:23.25	331.18	11.93	
2025-01-15 03:38:23.45	331.14	11.93	
2025-01-15 03:38:23.65	331.10	11.93	
2025-01-15 03:38:23.86	331.06	11.93	
2025-01-15 03:38:24.06	331.02	11.93	
2025-01-15 03:38:24.26	330.98	11.92	
2025-01-15 03:38:24.47	330.94	11.92	
2025-01-15 03:38:24.67	330.91	11.92	
2025-01-15 03:38:24.87	330.87	11.92	
2025-01-15 03:38:25.08	330.83	11.92	
2025-01-15 03:38:25.28	330.79	11.92	
2025-01-15 03:38:25.48	330.75	11.92	
2025-01-15 03:38:25.69	330.71	11.92	
2025-01-15 03:38:25.89	330.67	11.92	
2025-01-15 03:38:26.09	330.63	11.92	
2025-01-15 03:38:26.29	330.60	11.92	
2025-01-15 03:38:26.50	330.56	11.91	
2025-01-15 03:38:26.70	330.52	11.91	
2025-01-15 03:38:26.90	330.48	11.91	
2025-01-15 03:38:27.11	330.44	11.91	
2025-01-15 03:38:27.31	330.40	11.91	
2025-01-15 03:38:27.51	330.36	11.91	
2025-01-15 03:38:27.72	330.32	11.91	
2025-01-15 03:38:27.92	330.29	11.91	
2025-01-15 03:38:28.12	330.25	11.91	
2025-01-15 03:38:28.33	330.21	11.91	
2025-01-15 03:38:28.53	330.17	11.91	
2025-01-15 03:38:28.73	330.13	11.90	
2025-01-15 03:38:28.93	330.09	11.90	
2025-01-15 03:38:29.14	330.05	11.90	
2025-01-15 03:38:29.34	330.02	11.90	
2025-01-15 03:38:29.54	329.98	11.90	
2025-01-15 03:38:29.75	329.94	11.90	
2025-01-15 03:38:29.95	329.90	11.90	
2025-01-15 03:38:30.15	329.86	11.90	
2025-01-15 03:38:30.36	329.82	11.90	
2025-01-15 03:38:30.56	329.78	11.89	
2025-01-15 03:38:30.76	329.75	11.89	
2025-01-15 03:38:30.97	329.71	11.89	
2025-01-15 03:38:31.17	329.67	11.89	
2025-01-15 03:38:31.37	329.63	11.89	
2025-01-15 03:38:31.57	329.59	11.89	
2025-01-15 03:38:31.78	329.55	11.89	
2025-01-15 03:38:31.98	329.51	11.89	
2025-01-15 03:38:32.18	329.48	11.88	
2025-01-15 03:38:32.39	329.44	11.88	
2025-01-15 03:38:32.59	329.40	11.88	
2025-01-15 03:38:32.79	329.36	11.88	
2025-01-15 03:38:33.00	329.32	11.88	
2025-01-15 03:38:33.20	329.28	11.88	
2025-01-15 03:38:33.40	329.24	11.88	
2025-01-15 03:38:33.61	329.20	11.87	
2025-01-15 03:38:33.81	329.17	11.87	
2025-01-15 03:38:34.01	329.13	11.87	
2025-01-15 03:38:34.21	329.09	11.87	
2025-01-15 03:38:34.42	329.05	11.87	
2025-01-15 03:38:34.62	329.01	11.87	
2025-01-15 03:38:34.82	328.97	11.87	
2025-01-15 03:38:35.03	328.93	11.86	
2025-01-15 03:38:35.23	328.90	11.86	
2025-01-15 03:38:35.43	328.86	11.86	
2025-01-15 03:38:35.64	328.82	11.86	
2025-01-15 03:38:35.84	328.78	11.86	
2025-01-15 03:38:36.04	328.74	11.86	
2025-01-15 03:38:36.25	328.70	11.86	
2025-01-15 03:38:36.45	328.66	11.85	
2025-01-15 03:38:36.65	328.63	11.85	
2025-01-15 03:38:36.85	328.59	11.85	
2025-01-15 03:38:37.06	328.55	11.85	
2025-01-15 03:38:37.26	328.51	11.85	
2025-01-15 03:38:37.46	328.47	11.85	
2025-01-15 03:38:37.67	328.43	11.84	
2025-01-15 03:38:37.87	328.40	11.84	
2025-01-15 03:38:38.07	328.36	11.84	
2025-01-15 03:38:38.28	328.32	11.84	
2025-01-15 03:38:38.48	328.28	11.84	
2025-01-15 03:38:38.68	328.24	11.84	
2025-01-15 03:38:38.89	328.20	11.83	
2025-01-15 03:38:39.09	328.16	11.83	
2025-01-15 03:38:39.29	328.13	11.83	
2025-01-15 03:38:39.49	328.09	11.83	
2025-01-15 03:38:39.70	328.05	11.83	
2025-01-15 03:38:39.90	328.01	11.83	
2025-01-15 03:38:40.10	327.97	11.82	
2025-01-15 03:38:40.31	327.93	11.82	
2025-01-15 03:38:40.51	327.90	11.82	
2025-01-15 03:38:40.71	327.86	11.82	
2025-01-15 03:38:40.92	327.82	11.82	
2025-01-15 03:38:41.12	327.78	11.82	
2025-01-15 03:38:41.32	327.74	11.81	
2025-01-15 03:38:41.53	327.70	11.81	
2025-01-15 03:38:41.73	327.66	11.81	
2025-01-15 03:38:41.93	327.63	11.81	
2025-01-15 03:38:42.13	327.59	11.81	
2025-01-15 03:38:42.34	327.55	11.80	
2025-01-15 03:38:42.54	327.51	11.80	
2025-01-15 03:38:42.74	327.47	11.80	
2025-01-15 03:38:42.95	327.43	11.80	
2025-01-15 03:38:43.15	327.40	11.80	
2025-01-15 03:38:43.35	327.36	11.79	
2025-01-15 03:38:43.56	327.32	11.79	
2025-01-15 03:38:43.76	327.28	11.79	
2025-01-15 03:38:43.96	327.24	11.79	
2025-01-15 03:38:44.17	327.20	11.79	
2025-01-15 03:38:44.37	327.17	11.78	
2025-01-15 03:38:44.57	327.13	11.78	
2025-01-15 03:38:44.77	327.09	11.78	
2025-01-15 03:38:44.98	327.05	11.78	
2025-01-15 03:38:45.18	327.01	11.78	
2025-01-15 03:38:45.38	326.97	11.77	
2025-01-15 03:38:45.59	326.94	11.77	
2025-01-15 03:38:45.79	326.90	11.77	
2025-01-15 03:38:45.99	326.86	11.77	
2025-01-15 03:38:46.20	326.82	11.77	
2025-01-15 03:38:46.40	326.78	11.76	
2025-01-15 03:38:46.60	326.74	11.76	
2025-01-15 03:38:46.81	326.71	11.76	
2025-01-15 03:38:47.01	326.67	11.76	
2025-01-15 03:38:47.21	326.63	11.76	
2025-01-15 03:38:47.41	326.59	11.75	
2025-01-15 03:38:47.62	326.55	11.75	
2025-01-15 03:38:47.82	326.51	11.75	
2025-01-15 03:38:48.02	326.48	11.75	
2025-01-15 03:38:48.23	326.44	11.74	
2025-01-15 03:38:48.43	326.40	11.74	
2025-01-15 03:38:48.63	326.36	11.74	
2025-01-15 03:38:48.84	326.32	11.74	
2025-01-15 03:38:49.04	326.29	11.73	
2025-01-15 03:38:49.24	326.25	11.73	
2025-01-15 03:38:49.45	326.21	11.73	
2025-01-15 03:38:49.65	326.17	11.73	
2025-01-15 03:38:49.85	326.13	11.73	
2025-01-15 03:38:50.05	326.10	11.72	
2025-01-15 03:38:50.26	326.06	11.72	
2025-01-15 03:38:50.46	326.02	11.72	
2025-01-15 03:38:50.66	325.98	11.72	
2025-01-15 03:38:50.87	325.94	11.71	
2025-01-15 03:38:51.07	325.90	11.71	
2025-01-15 03:38:51.27	325.87	11.71	
2025-01-15 03:38:51.48	325.83	11.71	
2025-01-15 03:38:51.68	325.79	11.70	
2025-01-15 03:38:51.88	325.75	11.70	
2025-01-15 03:38:52.09	325.71	11.70	
2025-01-15 03:38:52.29	325.67	11.70	
2025-01-15 03:38:52.49	325.64	11.69	
2025-01-15 03:38:52.69	325.60	11.69	
2025-01-15 03:38:52.90	325.56	11.69	
2025-01-15 03:38:53.10	325.52	11.69	
2025-01-15 03:38:53.30	325.48	11.68	
2025-01-15 03:38:53.51	325.45	11.68	
2025-01-15 03:38:53.71	325.41	11.68	
2025-01-15 03:38:53.91	325.37	11.68	
2025-01-15 03:38:54.12	325.33	11.67	
2025-01-15 03:38:54.32	325.29	11.67	
2025-01-15 03:38:54.52	325.26	11.67	
2025-01-15 03:38:54.73	325.22	11.67	
2025-01-15 03:38:54.93	325.18	11.66	
2025-01-15 03:38:55.13	325.14	11.66	
2025-01-15 03:38:55.33	325.10	11.66	
2025-01-15 03:38:55.54	325.07	11.65	
2025-01-15 03:38:55.74	325.03	11.65	
2025-01-15 03:38:55.94	324.99	11.65	
2025-01-15 03:38:56.15	324.95	11.65	
2025-01-15 03:38:56.35	324.91	11.64	
2025-01-15 03:38:56.55	324.88	11.64	
2025-01-15 03:38:56.76	324.84	11.64	
2025-01-15 03:38:56.96	324.80	11.64	
2025-01-15 03:38:57.16	324.76	11.63	
2025-01-15 03:38:57.37	324.72	11.63	
2025-01-15 03:38:57.57	324.69	11.63	
2025-01-15 03:38:57.77	324.65	11.62	
2025-01-15 03:38:57.97	324.61	11.62	
2025-01-15 03:38:58.18	324.57	11.62	
2025-01-15 03:38:58.38	324.53	11.62	
2025-01-15 03:38:58.58	324.50	11.61	
2025-01-15 03:38:58.79	324.46	11.61	
2025-01-15 03:38:58.99	324.42	11.61	
2025-01-15 03:38:59.19	324.38	11.60	
2025-01-15 03:38:59.40	324.34	11.60	
2025-01-15 03:38:59.60	324.31	11.60	
2025-01-15 03:38:59.80	324.27	11.60	
2025-01-15 03:39:00.01	324.23	11.59	
2025-01-15 03:39:00.21	324.19	11.59	
2025-01-15 03:39:00.41	324.16	11.59	
2025-01-15 03:39:00.61	324.12	11.58	
2025-01-15 03:39:00.82	324.08	11.58	
2025-01-15 03:39:01.02	324.04	11.58	
2025-01-15 03:39:01.22	324.00	11.57	
2025-01-15 03:39:01.43	323.97	11.57	
2025-01-15 03:39:01.63	323.93	11.57	
2025-01-15 03:39:01.83	323.89	11.57	
2025-01-15 03:39:02.04	323.85	11.56	
2025-01-15 03:39:02.24	323.82	11.56	
2025-01-15 03:39:02.44	323.78	11.56	
2025-01-15 03:39:02.65	323.74	11.55	
2025-01-15 03:39:02.85	323.70	11.55	
2025-01-15 03:39:03.05	323.66	11.55	
2025-01-15 03:39:03.25	323.63	11.54	
2025-01-15 03:39:03.46	323.59	11.54	
2025-01-15 03:39:03.66	323.55	11.54	
2025-01-15 03:39:03.86	323.51	11.53	
2025-01-15 03:39:04.07	323.48	11.53	
2025-01-15 03:39:04.27	323.44	11.53	
2025-01-15 03:39:04.47	323.40	11.52	
2025-01-15 03:39:04.68	323.36	11.52	
2025-01-15 03:39:04.88	323.32	11.52	
2025-01-15 03:39:05.08	323.29	11.51	
2025-01-15 03:39:05.29	323.25	11.51	
2025-01-15 03:39:05.49	323.21	11.51	
2025-01-15 03:39:05.69	323.17	11.51	
2025-01-15 03:39:05.89	323.14	11.50	
2025-01-15 03:39:06.10	323.10	11.50	
2025-01-15 03:39:06.30	323.06	11.50	
2025-01-15 03:39:06.50	323.02	11.49	
2025-01-15 03:39:06.71	322.99	11.49	
2025-01-15 03:39:06.91	322.95	11.49	
2025-01-15 03:39:07.11	322.91	11.48	
2025-01-15 03:39:07.32	322.87	11.48	
2025-01-15 03:39:07.52	322.84	11.47	
2025-01-15 03:39:07.72	322.80	11.47	
2025-01-15 03:39:07.93	322.76	11.47	
2025-01-15 03:39:08.13	322.72	11.46	
2025-01-15 03:39:08.33	322.69	11.46	
2025-01-15 03:39:08.53	322.65	11.46	
2025-01-15 03:39:08.74	322.61	11.45	
2025-01-15 03:39:08.94	322.57	11.45	
2025-01-15 03:39:09.14	322.54	11.45	
2025-01-15 03:39:09.35	322.50	11.44	
2025-01-15 03:39:09.55	322.46	11.44	
2025-01-15 03:39:09.75	322.42	11.44	
2025-01-15 03:39:09.96	322.39	11.43	
2025-01-15 03:39:10.16	322.35	11.43	
2025-01-15 03:39:10.36	322.31	11.43	
2025-01-15 03:39:10.57	322.27	11.42	
2025-01-15 03:39:10.77	322.24	11.42	
2025-01-15 03:39:10.97	322.20	11.42	
2025-01-15 03:39:11.17	322.16	11.41	
2025-01-15 03:39:11.38	322.12	11.41	
2025-01-15 03:39:11.58	322.09	11.40	
2025-01-15 03:39:11.78	322.05	11.40	
2025-01-15 03:39:11.99	322.01	11.40	
2025-01-15 03:39:12.19	321.98	11.39	
2025-01-15 03:39:12.39	321.94	11.39	
2025-01-15 03:39:12.60	321.90	11.39	
2025-01-15 03:39:12.80	321.86	11.38	
2025-01-15 03:39:13.00	321.83	11.38	
2025-01-15 03:39:13.21	321.79	11.38	
2025-01-15 03:39:13.41	321.75	11.37	
2025-01-15 03:39:13.61	321.71	11.37	
2025-01-15 03:39:13.81	321.68	11.36	
2025-01-15 03:39:14.02	321.64	11.36	
2025-01-15 03:39:14.22	321.60	11.36	
2025-01-15 03:39:14.42	321.57	11.35	
2025-01-15 03:39:14.63	321.53	11.35	
2025-01-15 03:39:14.83	321.49	11.35	
2025-01-15 03:39:15.03	321.45	11.34	
2025-01-15 03:39:15.24	321.42	11.34	
2025-01-15 03:39:15.44	321.38	11.33	
2025-01-15 03:39:15.64	321.34	11.33	
2025-01-15 03:39:15.85	321.30	11.33	
2025-01-15 03:39:16.05	321.27	11.32	
2025-01-15 03:39:16.25	321.23	11.32	
2025-01-15 03:39:16.45	321.19	11.31	
2025-01-15 03:39:16.66	321.16	11.31	
2025-01-15 03:39:16.86	321.12	11.31	
2025-01-15 03:39:17.06	321.08	11.30	
2025-01-15 03:39:17.27	321.04	11.30	
2025-01-15 03:39:17.47	321.01	11.30	
2025-01-15 03:39:17.67	320.97	11.29	
2025-01-15 03:39:17.88	320.93	11.29	
2025-01-15 03:39:18.08	320.90	11.28	
2025-01-15 03:39:18.28	320.86	11.28	
2025-01-15 03:39:18.49	320.82	11.28	
2025-01-15 03:39:18.69	320.79	11.27	
2025-01-15 03:39:18.89	320.75	11.27	
2025-01-15 03:39:19.09	320.71	11.26	
2025-01-15 03:39:19.30	320.67	11.26	
2025-01-15 03:39:19.50	320.64	11.26	
2025-01-15 03:39:19.70	320.60	11.25	
2025-01-15 03:39:19.91	320.56	11.25	
2025-01-15 03:39:20.11	320.53	11.24	
2025-01-15 03:39:20.31	320.49	11.24	
2025-01-15 03:39:20.52	320.45	11.23	
2025-01-15 03:39:20.72	320.42	11.23	
2025-01-15 03:39:20.92	320.38	11.23	
2025-01-15 03:39:21.13	320.34	11.22	
2025-01-15 03:39:21.33	320.30	11.22	
2025-01-15 03:39:21.53	320.27	11.21	
2025-01-15 03:39:21.73	320.23	11.21	
2025-01-15 03:39:21.94	320.19	11.21	
2025-01-15 03:39:22.14	320.16	11.20	
2025-01-15 03:39:22.34	320.12	11.20	
2025-01-15 03:39:22.55	320.08	11.19	
2025-01-15 03:39:22.75	320.05	11.19	
2025-01-15 03:39:22.95	320.01	11.18	
2025-01-15 03:39:23.16	319.97	11.18	
2025-01-15 03:39:23.36	319.94	11.18	
2025-01-15 03:39:23.56	319.90	11.17	
2025-01-15 03:39:23.77	319.86	11.17	
2025-01-15 03:39:23.97	319.83	11.16	
2025-01-15 03:39:24.17	319.79	11.16	
2025-01-15 03:39:24.37	319.75	11.16	
