passes_logs/2025/01/15/SPB_Silybum_02/SPB_Silybum_02__20250115_114710_SUOMI_NPP_rec.log

#Pass ID: 20250115_114710_SUOMI NPP
#Satellite: SUOMI NPP
#Configuration: NPP
#Start time: 2025-01-15 11:47:11

#Version: 2.0.20230423
#Station: SPB_Silybum_02
#Location: 30.233357 lon 59.946436 lat
#TLE: 1 37849U 11061A   25014.84938308  .00000162  00000+0  97809-4 0  9990
#TLE: 2 37849  98.7446 315.8398 0001684  41.2466 318.8837 14.19538097684890

#Time	Az	El	Level	Level2	SNR	BER	Gain	Gain2
2025-01-15 11:47:13.19	205.04	4.13	
2025-01-15 11:47:13.39	205.05	4.15	
2025-01-15 11:47:13.59	205.07	4.16	
2025-01-15 11:47:13.80	205.08	4.17	
2025-01-15 11:47:14.00	205.10	4.18	
2025-01-15 11:47:14.20	205.11	4.20	
2025-01-15 11:47:14.41	205.13	4.21	
2025-01-15 11:47:14.61	205.14	4.22	
2025-01-15 11:47:14.81	205.16	4.23	
2025-01-15 11:47:15.01	205.17	4.24	
2025-01-15 11:47:15.22	205.19	4.26	
2025-01-15 11:47:15.42	205.20	4.27	
2025-01-15 11:47:15.62	205.22	4.28	
2025-01-15 11:47:15.83	205.23	4.29	
2025-01-15 11:47:16.03	205.25	4.31	
2025-01-15 11:47:16.23	205.26	4.32	
2025-01-15 11:47:16.44	205.28	4.33	
2025-01-15 11:47:16.64	205.29	4.34	
2025-01-15 11:47:16.84	205.31	4.36	
2025-01-15 11:47:17.04	205.32	4.37	
2025-01-15 11:47:17.25	205.34	4.38	
2025-01-15 11:47:17.45	205.35	4.39	
2025-01-15 11:47:17.65	205.37	4.41	
2025-01-15 11:47:17.86	205.38	4.42	
2025-01-15 11:47:18.06	205.40	4.43	
2025-01-15 11:47:18.26	205.41	4.44	
2025-01-15 11:47:18.47	205.43	4.46	
2025-01-15 11:47:18.67	205.44	4.47	
2025-01-15 11:47:18.87	205.46	4.48	
2025-01-15 11:47:19.07	205.47	4.49	
2025-01-15 11:47:19.28	205.49	4.50	
2025-01-15 11:47:19.48	205.50	4.52	
2025-01-15 11:47:19.68	205.52	4.53	
2025-01-15 11:47:19.89	205.53	4.54	
2025-01-15 11:47:20.09	205.55	4.55	
2025-01-15 11:47:20.29	205.56	4.57	
2025-01-15 11:47:20.49	205.58	4.58	
2025-01-15 11:47:20.70	205.59	4.59	
2025-01-15 11:47:20.90	205.61	4.60	
2025-01-15 11:47:21.10	205.62	4.62	
2025-01-15 11:47:21.31	205.64	4.63	
2025-01-15 11:47:21.51	205.65	4.64	
2025-01-15 11:47:21.71	205.67	4.65	
2025-01-15 11:47:21.92	205.69	4.67	
2025-01-15 11:47:22.12	205.70	4.68	
2025-01-15 11:47:22.32	205.72	4.69	
2025-01-15 11:47:22.52	205.73	4.70	
2025-01-15 11:47:22.73	205.75	4.72	
2025-01-15 11:47:22.93	205.76	4.73	
2025-01-15 11:47:23.13	205.78	4.74	
2025-01-15 11:47:23.34	205.79	4.75	
2025-01-15 11:47:23.54	205.81	4.77	
2025-01-15 11:47:23.76	205.82	4.78	
2025-01-15 11:47:23.96	205.84	4.79	
2025-01-15 11:47:24.16	205.85	4.80	
2025-01-15 11:47:24.37	205.87	4.82	
2025-01-15 11:47:24.57	205.89	4.83	
2025-01-15 11:47:24.77	205.90	4.84	
2025-01-15 11:47:24.98	205.92	4.85	
2025-01-15 11:47:25.18	205.93	4.87	
2025-01-15 11:47:25.38	205.95	4.88	
2025-01-15 11:47:25.58	205.96	4.89	
2025-01-15 11:47:25.79	205.98	4.90	
2025-01-15 11:47:25.99	205.99	4.92	
2025-01-15 11:47:26.19	206.01	4.93	
2025-01-15 11:47:26.40	206.03	4.94	
2025-01-15 11:47:26.60	206.04	4.95	
2025-01-15 11:47:26.80	206.06	4.97	
2025-01-15 11:47:27.00	206.07	4.98	
2025-01-15 11:47:27.21	206.09	4.99	
2025-01-15 11:47:27.41	206.10	5.00	
2025-01-15 11:47:27.61	206.12	5.02	
2025-01-15 11:47:27.82	206.14	5.03	
2025-01-15 11:47:28.02	206.15	5.04	
2025-01-15 11:47:28.22	206.17	5.05	
2025-01-15 11:47:28.43	206.18	5.07	
2025-01-15 11:47:28.63	206.20	5.08	
2025-01-15 11:47:28.83	206.21	5.09	
2025-01-15 11:47:29.03	206.23	5.11	
2025-01-15 11:47:29.24	206.25	5.12	
2025-01-15 11:47:29.44	206.26	5.13	
2025-01-15 11:47:29.64	206.28	5.14	
2025-01-15 11:47:29.85	206.29	5.16	
2025-01-15 11:47:30.05	206.31	5.17	
2025-01-15 11:47:30.25	206.32	5.18	
2025-01-15 11:47:30.45	206.34	5.19	
2025-01-15 11:47:30.66	206.36	5.21	
2025-01-15 11:47:30.86	206.37	5.22	
2025-01-15 11:47:31.06	206.39	5.23	
2025-01-15 11:47:31.27	206.40	5.24	
2025-01-15 11:47:31.47	206.42	5.26	
2025-01-15 11:47:31.67	206.44	5.27	
2025-01-15 11:47:31.88	206.45	5.28	
2025-01-15 11:47:32.08	206.47	5.29	
2025-01-15 11:47:32.28	206.48	5.31	
2025-01-15 11:47:32.48	206.50	5.32	
2025-01-15 11:47:32.69	206.52	5.33	
2025-01-15 11:47:32.89	206.53	5.35	
2025-01-15 11:47:33.09	206.55	5.36	
2025-01-15 11:47:33.30	206.56	5.37	
2025-01-15 11:47:33.50	206.58	5.38	
2025-01-15 11:47:33.70	206.60	5.40	
2025-01-15 11:47:33.91	206.61	5.41	
2025-01-15 11:47:34.11	206.63	5.42	
2025-01-15 11:47:34.31	206.64	5.43	
2025-01-15 11:47:34.51	206.66	5.45	
2025-01-15 11:47:34.72	206.68	5.46	
2025-01-15 11:47:34.92	206.69	5.47	
2025-01-15 11:47:35.12	206.71	5.48	
2025-01-15 11:47:35.33	206.73	5.50	
2025-01-15 11:47:35.53	206.74	5.51	
2025-01-15 11:47:35.73	206.76	5.52	
2025-01-15 11:47:35.93	206.77	5.54	
2025-01-15 11:47:36.14	206.79	5.55	
2025-01-15 11:47:36.34	206.81	5.56	
2025-01-15 11:47:36.54	206.82	5.57	
2025-01-15 11:47:36.75	206.84	5.59	
2025-01-15 11:47:36.95	206.86	5.60	
2025-01-15 11:47:37.15	206.87	5.61	
2025-01-15 11:47:37.36	206.89	5.63	
2025-01-15 11:47:37.56	206.90	5.64	
2025-01-15 11:47:37.76	206.92	5.65	
2025-01-15 11:47:37.96	206.94	5.66	
2025-01-15 11:47:38.17	206.95	5.68	
2025-01-15 11:47:38.37	206.97	5.69	
2025-01-15 11:47:38.57	206.99	5.70	
2025-01-15 11:47:38.78	207.00	5.72	
2025-01-15 11:47:38.98	207.02	5.73	
2025-01-15 11:47:39.18	207.03	5.74	
2025-01-15 11:47:39.38	207.05	5.75	
2025-01-15 11:47:39.59	207.07	5.77	
2025-01-15 11:47:39.79	207.08	5.78	
2025-01-15 11:47:39.99	207.10	5.79	
2025-01-15 11:47:40.20	207.12	5.80	
2025-01-15 11:47:40.40	207.13	5.82	
2025-01-15 11:47:40.60	207.15	5.83	
2025-01-15 11:47:40.81	207.17	5.84	
2025-01-15 11:47:41.01	207.18	5.86	
2025-01-15 11:47:41.21	207.20	5.87	
2025-01-15 11:47:41.41	207.22	5.88	
2025-01-15 11:47:41.62	207.23	5.89	
2025-01-15 11:47:41.82	207.25	5.91	
2025-01-15 11:47:42.02	207.27	5.92	
2025-01-15 11:47:42.23	207.28	5.93	
2025-01-15 11:47:42.43	207.30	5.95	
2025-01-15 11:47:42.63	207.32	5.96	
2025-01-15 11:47:42.83	207.33	5.97	
2025-01-15 11:47:43.04	207.35	5.98	
2025-01-15 11:47:43.24	207.37	6.00	
2025-01-15 11:47:43.44	207.38	6.01	
2025-01-15 11:47:43.65	207.40	6.02	
2025-01-15 11:47:43.85	207.42	6.04	
2025-01-15 11:47:44.05	207.43	6.05	
2025-01-15 11:47:44.26	207.45	6.06	
2025-01-15 11:47:44.46	207.47	6.08	
2025-01-15 11:47:44.66	207.48	6.09	
2025-01-15 11:47:44.86	207.50	6.10	
2025-01-15 11:47:45.07	207.52	6.11	
2025-01-15 11:47:45.27	207.53	6.13	
2025-01-15 11:47:45.47	207.55	6.14	
2025-01-15 11:47:45.68	207.57	6.15	
2025-01-15 11:47:45.88	207.59	6.17	
2025-01-15 11:47:46.08	207.60	6.18	
2025-01-15 11:47:46.29	207.62	6.19	
2025-01-15 11:47:46.49	207.64	6.20	
2025-01-15 11:47:46.69	207.65	6.22	
2025-01-15 11:47:46.89	207.67	6.23	
2025-01-15 11:47:47.10	207.69	6.24	
2025-01-15 11:47:47.30	207.70	6.26	
2025-01-15 11:47:47.50	207.72	6.27	
2025-01-15 11:47:47.71	207.74	6.28	
2025-01-15 11:47:47.91	207.76	6.30	
2025-01-15 11:47:48.11	207.77	6.31	
2025-01-15 11:47:48.31	207.79	6.32	
2025-01-15 11:47:48.52	207.81	6.33	
2025-01-15 11:47:48.72	207.82	6.35	
2025-01-15 11:47:48.92	207.84	6.36	
2025-01-15 11:47:49.13	207.86	6.37	
2025-01-15 11:47:49.33	207.87	6.39	
2025-01-15 11:47:49.53	207.89	6.40	
2025-01-15 11:47:49.74	207.91	6.41	
2025-01-15 11:47:49.94	207.93	6.43	
2025-01-15 11:47:50.14	207.94	6.44	
2025-01-15 11:47:50.34	207.96	6.45	
2025-01-15 11:47:50.55	207.98	6.47	
2025-01-15 11:47:50.75	208.00	6.48	
2025-01-15 11:47:50.95	208.01	6.49	
2025-01-15 11:47:51.16	208.03	6.50	
2025-01-15 11:47:51.36	208.05	6.52	
2025-01-15 11:47:51.56	208.06	6.53	
2025-01-15 11:47:51.76	208.08	6.54	
2025-01-15 11:47:51.97	208.10	6.56	
2025-01-15 11:47:52.17	208.12	6.57	
2025-01-15 11:47:52.37	208.13	6.58	
2025-01-15 11:47:52.58	208.15	6.60	
2025-01-15 11:47:52.78	208.17	6.61	
2025-01-15 11:47:52.98	208.19	6.62	
2025-01-15 11:47:53.19	208.20	6.64	
2025-01-15 11:47:53.39	208.22	6.65	
2025-01-15 11:47:53.59	208.24	6.66	
2025-01-15 11:47:53.79	208.26	6.67	
2025-01-15 11:47:54.00	208.27	6.69	
2025-01-15 11:47:54.20	208.29	6.70	
2025-01-15 11:47:54.40	208.31	6.71	
2025-01-15 11:47:54.61	208.33	6.73	
2025-01-15 11:47:54.81	208.34	6.74	
2025-01-15 11:47:55.01	208.36	6.75	
2025-01-15 11:47:55.21	208.38	6.77	
2025-01-15 11:47:55.42	208.40	6.78	
2025-01-15 11:47:55.62	208.41	6.79	
2025-01-15 11:47:55.82	208.43	6.81	
2025-01-15 11:47:56.03	208.45	6.82	
2025-01-15 11:47:56.23	208.47	6.83	
2025-01-15 11:47:56.43	208.48	6.85	
2025-01-15 11:47:56.64	208.50	6.86	
2025-01-15 11:47:56.84	208.52	6.87	
2025-01-15 11:47:57.04	208.54	6.89	
2025-01-15 11:47:57.24	208.55	6.90	
2025-01-15 11:47:57.45	208.57	6.91	
2025-01-15 11:47:57.65	208.59	6.92	
2025-01-15 11:47:57.85	208.61	6.94	
2025-01-15 11:47:58.06	208.63	6.95	
2025-01-15 11:47:58.26	208.64	6.96	
2025-01-15 11:47:58.46	208.66	6.98	
2025-01-15 11:47:58.67	208.68	6.99	
2025-01-15 11:47:58.87	208.70	7.00	
2025-01-15 11:47:59.07	208.72	7.02	
2025-01-15 11:47:59.27	208.73	7.03	
2025-01-15 11:47:59.48	208.75	7.04	
2025-01-15 11:47:59.68	208.77	7.06	
2025-01-15 11:47:59.88	208.79	7.07	
2025-01-15 11:48:00.09	208.81	7.08	
2025-01-15 11:48:00.29	208.82	7.10	
2025-01-15 11:48:00.49	208.84	7.11	
2025-01-15 11:48:00.69	208.86	7.12	
2025-01-15 11:48:00.90	208.88	7.14	
2025-01-15 11:48:01.10	208.89	7.15	
2025-01-15 11:48:01.30	208.91	7.16	
2025-01-15 11:48:01.51	208.93	7.18	
2025-01-15 11:48:01.71	208.95	7.19	
2025-01-15 11:48:01.91	208.97	7.20	
2025-01-15 11:48:02.12	208.99	7.22	
2025-01-15 11:48:02.32	209.00	7.23	
2025-01-15 11:48:02.52	209.02	7.24	
2025-01-15 11:48:02.72	209.04	7.26	
2025-01-15 11:48:02.93	209.06	7.27	
2025-01-15 11:48:03.13	209.08	7.28	
2025-01-15 11:48:03.33	209.09	7.30	
2025-01-15 11:48:03.54	209.11	7.31	
2025-01-15 11:48:03.74	209.13	7.32	
2025-01-15 11:48:03.94	209.15	7.34	
2025-01-15 11:48:04.14	209.17	7.35	
2025-01-15 11:48:04.35	209.19	7.36	
2025-01-15 11:48:04.55	209.20	7.38	
2025-01-15 11:48:04.75	209.22	7.39	
2025-01-15 11:48:04.96	209.24	7.40	
2025-01-15 11:48:05.16	209.26	7.42	
2025-01-15 11:48:05.36	209.28	7.43	
2025-01-15 11:48:05.57	209.30	7.44	
2025-01-15 11:48:05.77	209.31	7.46	
2025-01-15 11:48:05.97	209.33	7.47	
2025-01-15 11:48:06.17	209.35	7.48	
2025-01-15 11:48:06.38	209.37	7.50	
2025-01-15 11:48:06.58	209.39	7.51	
2025-01-15 11:48:06.78	209.41	7.52	
2025-01-15 11:48:06.99	209.42	7.54	
2025-01-15 11:48:07.19	209.44	7.55	
2025-01-15 11:48:07.39	209.46	7.56	
2025-01-15 11:48:07.59	209.48	7.58	
2025-01-15 11:48:07.80	209.50	7.59	
2025-01-15 11:48:08.00	209.52	7.61	
2025-01-15 11:48:08.20	209.54	7.62	
2025-01-15 11:48:08.41	209.55	7.63	
2025-01-15 11:48:08.61	209.57	7.65	
2025-01-15 11:48:08.81	209.59	7.66	
2025-01-15 11:48:09.02	209.61	7.67	
2025-01-15 11:48:09.22	209.63	7.69	
2025-01-15 11:48:09.42	209.65	7.70	
2025-01-15 11:48:09.62	209.67	7.71	
2025-01-15 11:48:09.83	209.69	7.73	
2025-01-15 11:48:10.03	209.70	7.74	
2025-01-15 11:48:10.23	209.72	7.75	
2025-01-15 11:48:10.44	209.74	7.77	
2025-01-15 11:48:10.64	209.76	7.78	
2025-01-15 11:48:10.84	209.78	7.79	
2025-01-15 11:48:11.05	209.80	7.81	
2025-01-15 11:48:11.25	209.82	7.82	
2025-01-15 11:48:11.45	209.84	7.83	
2025-01-15 11:48:11.65	209.85	7.85	
2025-01-15 11:48:11.86	209.87	7.86	
2025-01-15 11:48:12.06	209.89	7.88	
2025-01-15 11:48:12.26	209.91	7.89	
2025-01-15 11:48:12.47	209.93	7.90	
2025-01-15 11:48:12.67	209.95	7.92	
2025-01-15 11:48:12.87	209.97	7.93	
2025-01-15 11:48:13.07	209.99	7.94	
2025-01-15 11:48:13.28	210.01	7.96	
2025-01-15 11:48:13.48	210.02	7.97	
2025-01-15 11:48:13.68	210.04	7.98	
2025-01-15 11:48:13.89	210.06	8.00	
2025-01-15 11:48:14.09	210.08	8.01	
2025-01-15 11:48:14.29	210.10	8.02	
2025-01-15 11:48:14.50	210.12	8.04	
2025-01-15 11:48:14.70	210.14	8.05	
2025-01-15 11:48:14.90	210.16	8.07	
2025-01-15 11:48:15.10	210.18	8.08	
2025-01-15 11:48:15.31	210.20	8.09	
2025-01-15 11:48:15.51	210.22	8.11	
2025-01-15 11:48:15.71	210.24	8.12	
2025-01-15 11:48:15.92	210.25	8.13	
2025-01-15 11:48:16.12	210.27	8.15	
2025-01-15 11:48:16.32	210.29	8.16	
2025-01-15 11:48:16.52	210.31	8.17	
2025-01-15 11:48:16.73	210.33	8.19	
2025-01-15 11:48:16.93	210.35	8.20	
2025-01-15 11:48:17.13	210.37	8.22	
2025-01-15 11:48:17.34	210.39	8.23	
2025-01-15 11:48:17.54	210.41	8.24	
2025-01-15 11:48:17.74	210.43	8.26	
2025-01-15 11:48:17.95	210.45	8.27	
2025-01-15 11:48:18.15	210.47	8.28	
2025-01-15 11:48:18.35	210.49	8.30	
2025-01-15 11:48:18.55	210.51	8.31	
2025-01-15 11:48:18.76	210.53	8.32	
2025-01-15 11:48:18.96	210.55	8.34	
2025-01-15 11:48:19.16	210.56	8.35	
2025-01-15 11:48:19.37	210.58	8.37	
2025-01-15 11:48:19.57	210.60	8.38	
2025-01-15 11:48:19.77	210.62	8.39	
2025-01-15 11:48:19.97	210.64	8.41	
2025-01-15 11:48:20.18	210.66	8.42	
2025-01-15 11:48:20.38	210.68	8.43	
2025-01-15 11:48:20.58	210.70	8.45	
2025-01-15 11:48:20.79	210.72	8.46	
2025-01-15 11:48:20.99	210.74	8.48	
2025-01-15 11:48:21.19	210.76	8.49	
2025-01-15 11:48:21.40	210.78	8.50	
2025-01-15 11:48:21.60	210.80	8.52	
2025-01-15 11:48:21.80	210.82	8.53	
2025-01-15 11:48:22.00	210.84	8.54	
2025-01-15 11:48:22.21	210.86	8.56	
2025-01-15 11:48:22.41	210.88	8.57	
2025-01-15 11:48:22.61	210.90	8.59	
2025-01-15 11:48:22.82	210.92	8.60	
2025-01-15 11:48:23.02	210.94	8.61	
2025-01-15 11:48:23.22	210.96	8.63	
2025-01-15 11:48:23.43	210.98	8.64	
2025-01-15 11:48:23.63	211.00	8.66	
2025-01-15 11:48:23.83	211.02	8.67	
2025-01-15 11:48:24.03	211.04	8.68	
2025-01-15 11:48:24.24	211.06	8.70	
2025-01-15 11:48:24.44	211.08	8.71	
2025-01-15 11:48:24.64	211.10	8.72	
2025-01-15 11:48:24.85	211.12	8.74	
2025-01-15 11:48:25.05	211.14	8.75	
2025-01-15 11:48:25.25	211.16	8.77	
2025-01-15 11:48:25.45	211.18	8.78	
2025-01-15 11:48:25.66	211.20	8.79	
2025-01-15 11:48:25.86	211.22	8.81	
2025-01-15 11:48:26.06	211.24	8.82	
2025-01-15 11:48:26.27	211.26	8.84	
2025-01-15 11:48:26.47	211.28	8.85	
2025-01-15 11:48:26.67	211.30	8.86	
2025-01-15 11:48:26.88	211.32	8.88	
2025-01-15 11:48:27.08	211.34	8.89	
2025-01-15 11:48:27.28	211.36	8.90	
2025-01-15 11:48:27.48	211.38	8.92	
2025-01-15 11:48:27.69	211.40	8.93	
2025-01-15 11:48:27.89	211.42	8.95	
2025-01-15 11:48:28.09	211.44	8.96	
2025-01-15 11:48:28.30	211.46	8.97	
2025-01-15 11:48:28.50	211.48	8.99	
2025-01-15 11:48:28.70	211.50	9.00	
2025-01-15 11:48:28.90	211.52	9.02	
2025-01-15 11:48:29.11	211.54	9.03	
2025-01-15 11:48:29.31	211.56	9.04	
2025-01-15 11:48:29.51	211.58	9.06	
2025-01-15 11:48:29.72	211.60	9.07	
2025-01-15 11:48:29.92	211.62	9.09	
2025-01-15 11:48:30.12	211.64	9.10	
2025-01-15 11:48:30.33	211.67	9.11	
2025-01-15 11:48:30.53	211.69	9.13	
2025-01-15 11:48:30.73	211.71	9.14	
2025-01-15 11:48:30.93	211.73	9.16	
2025-01-15 11:48:31.14	211.75	9.17	
2025-01-15 11:48:31.34	211.77	9.18	
2025-01-15 11:48:31.54	211.79	9.20	
2025-01-15 11:48:31.75	211.81	9.21	
2025-01-15 11:48:31.95	211.83	9.23	
2025-01-15 11:48:32.15	211.85	9.24	
2025-01-15 11:48:32.35	211.87	9.25	
2025-01-15 11:48:32.56	211.89	9.27	
2025-01-15 11:48:32.76	211.91	9.28	
2025-01-15 11:48:32.96	211.93	9.30	
2025-01-15 11:48:33.17	211.96	9.31	
2025-01-15 11:48:33.37	211.98	9.32	
2025-01-15 11:48:33.57	212.00	9.34	
2025-01-15 11:48:33.78	212.02	9.35	
2025-01-15 11:48:33.98	212.04	9.37	
2025-01-15 11:48:34.18	212.06	9.38	
2025-01-15 11:48:34.38	212.08	9.39	
2025-01-15 11:48:34.59	212.10	9.41	
2025-01-15 11:48:34.79	212.12	9.42	
2025-01-15 11:48:34.99	212.14	9.44	
2025-01-15 11:48:35.20	212.16	9.45	
2025-01-15 11:48:35.40	212.18	9.46	
2025-01-15 11:48:35.60	212.21	9.48	
2025-01-15 11:48:35.81	212.23	9.49	
2025-01-15 11:48:36.01	212.25	9.51	
2025-01-15 11:48:36.21	212.27	9.52	
2025-01-15 11:48:36.41	212.29	9.53	
2025-01-15 11:48:36.62	212.31	9.55	
2025-01-15 11:48:36.82	212.33	9.56	
2025-01-15 11:48:37.02	212.35	9.58	
2025-01-15 11:48:37.23	212.37	9.59	
2025-01-15 11:48:37.43	212.40	9.61	
2025-01-15 11:48:37.63	212.42	9.62	
2025-01-15 11:48:37.83	212.44	9.63	
2025-01-15 11:48:38.04	212.46	9.65	
2025-01-15 11:48:38.24	212.48	9.66	
2025-01-15 11:48:38.44	212.50	9.68	
2025-01-15 11:48:38.65	212.52	9.69	
2025-01-15 11:48:38.85	212.54	9.70	
2025-01-15 11:48:39.05	212.57	9.72	
2025-01-15 11:48:39.26	212.59	9.73	
2025-01-15 11:48:39.46	212.61	9.75	
2025-01-15 11:48:39.66	212.63	9.76	
2025-01-15 11:48:39.86	212.65	9.77	
2025-01-15 11:48:40.07	212.67	9.79	
2025-01-15 11:48:40.27	212.69	9.80	
2025-01-15 11:48:40.47	212.72	9.82	
2025-01-15 11:48:40.68	212.74	9.83	
2025-01-15 11:48:40.88	212.76	9.85	
2025-01-15 11:48:41.08	212.78	9.86	
2025-01-15 11:48:41.28	212.80	9.87	
2025-01-15 11:48:41.49	212.82	9.89	
2025-01-15 11:48:41.69	212.85	9.90	
2025-01-15 11:48:41.89	212.87	9.92	
2025-01-15 11:48:42.10	212.89	9.93	
2025-01-15 11:48:42.30	212.91	9.95	
2025-01-15 11:48:42.50	212.93	9.96	
2025-01-15 11:48:42.71	212.95	9.97	
2025-01-15 11:48:42.91	212.98	9.99	
2025-01-15 11:48:43.11	213.00	10.00	
2025-01-15 11:48:43.31	213.02	10.02	
2025-01-15 11:48:43.52	213.04	10.03	
2025-01-15 11:48:43.72	213.06	10.05	
2025-01-15 11:48:43.92	213.08	10.06	
2025-01-15 11:48:44.13	213.11	10.07	
2025-01-15 11:48:44.33	213.13	10.09	
2025-01-15 11:48:44.53	213.15	10.10	
2025-01-15 11:48:44.73	213.17	10.12	
2025-01-15 11:48:44.94	213.19	10.13	
2025-01-15 11:48:45.14	213.22	10.15	
2025-01-15 11:48:45.34	213.24	10.16	
2025-01-15 11:48:45.55	213.26	10.17	
2025-01-15 11:48:45.75	213.28	10.19	
2025-01-15 11:48:45.95	213.30	10.20	
2025-01-15 11:48:46.16	213.33	10.22	
2025-01-15 11:48:46.36	213.35	10.23	
2025-01-15 11:48:46.56	213.37	10.25	
2025-01-15 11:48:46.76	213.39	10.26	
2025-01-15 11:48:46.97	213.41	10.27	
2025-01-15 11:48:47.17	213.44	10.29	
2025-01-15 11:48:47.37	213.46	10.30	
2025-01-15 11:48:47.58	213.48	10.32	
2025-01-15 11:48:47.78	213.50	10.33	
2025-01-15 11:48:47.98	213.52	10.35	
2025-01-15 11:48:48.19	213.55	10.36	
2025-01-15 11:48:48.39	213.57	10.38	
2025-01-15 11:48:48.59	213.59	10.39	
2025-01-15 11:48:48.79	213.61	10.40	
2025-01-15 11:48:49.00	213.64	10.42	
2025-01-15 11:48:49.20	213.66	10.43	
2025-01-15 11:48:49.40	213.68	10.45	
2025-01-15 11:48:49.61	213.70	10.46	
2025-01-15 11:48:49.81	213.73	10.48	
2025-01-15 11:48:50.01	213.75	10.49	
2025-01-15 11:48:50.21	213.77	10.50	
2025-01-15 11:48:50.42	213.79	10.52	
2025-01-15 11:48:50.62	213.82	10.53	
2025-01-15 11:48:50.82	213.84	10.55	
2025-01-15 11:48:51.03	213.86	10.56	
2025-01-15 11:48:51.23	213.88	10.58	
2025-01-15 11:48:51.43	213.91	10.59	
2025-01-15 11:48:51.64	213.93	10.61	
2025-01-15 11:48:51.84	213.95	10.62	
2025-01-15 11:48:52.04	213.97	10.63	
2025-01-15 11:48:52.24	214.00	10.65	
2025-01-15 11:48:52.45	214.02	10.66	
2025-01-15 11:48:52.65	214.04	10.68	
2025-01-15 11:48:52.85	214.07	10.69	
2025-01-15 11:48:53.06	214.09	10.71	
2025-01-15 11:48:53.26	214.11	10.72	
2025-01-15 11:48:53.46	214.13	10.74	
2025-01-15 11:48:53.66	214.16	10.75	
2025-01-15 11:48:53.87	214.18	10.77	
2025-01-15 11:48:54.07	214.20	10.78	
2025-01-15 11:48:54.27	214.23	10.79	
2025-01-15 11:48:54.48	214.25	10.81	
2025-01-15 11:48:54.68	214.27	10.82	
2025-01-15 11:48:54.88	214.29	10.84	
2025-01-15 11:48:55.09	214.32	10.85	
2025-01-15 11:48:55.29	214.34	10.87	
2025-01-15 11:48:55.49	214.36	10.88	
2025-01-15 11:48:55.69	214.39	10.90	
2025-01-15 11:48:55.90	214.41	10.91	
2025-01-15 11:48:56.10	214.43	10.93	
2025-01-15 11:48:56.30	214.46	10.94	
2025-01-15 11:48:56.51	214.48	10.95	
2025-01-15 11:48:56.71	214.50	10.97	
2025-01-15 11:48:56.91	214.53	10.98	
2025-01-15 11:48:57.12	214.55	11.00	
2025-01-15 11:48:57.32	214.57	11.01	
2025-01-15 11:48:57.52	214.60	11.03	
2025-01-15 11:48:57.72	214.62	11.04	
2025-01-15 11:48:57.93	214.64	11.06	
2025-01-15 11:48:58.13	214.67	11.07	
2025-01-15 11:48:58.33	214.69	11.09	
2025-01-15 11:48:58.54	214.71	11.10	
2025-01-15 11:48:58.74	214.74	11.11	
2025-01-15 11:48:58.94	214.76	11.13	
2025-01-15 11:48:59.14	214.78	11.14	
2025-01-15 11:48:59.35	214.81	11.16	
2025-01-15 11:48:59.55	214.83	11.17	
2025-01-15 11:48:59.75	214.85	11.19	
2025-01-15 11:48:59.96	214.88	11.20	
2025-01-15 11:49:00.16	214.90	11.22	
2025-01-15 11:49:00.36	214.92	11.23	
2025-01-15 11:49:00.57	214.95	11.25	
2025-01-15 11:49:00.77	214.97	11.26	
2025-01-15 11:49:00.97	214.99	11.28	
2025-01-15 11:49:01.17	215.02	11.29	
2025-01-15 11:49:01.38	215.04	11.31	
2025-01-15 11:49:01.58	215.07	11.32	
2025-01-15 11:49:01.78	215.09	11.33	
2025-01-15 11:49:01.99	215.11	11.35	
2025-01-15 11:49:02.19	215.14	11.36	
2025-01-15 11:49:02.39	215.16	11.38	
2025-01-15 11:49:02.59	215.18	11.39	
2025-01-15 11:49:02.80	215.21	11.41	
2025-01-15 11:49:03.00	215.23	11.42	
2025-01-15 11:49:03.20	215.26	11.44	
2025-01-15 11:49:03.41	215.28	11.45	
2025-01-15 11:49:03.61	215.30	11.47	
2025-01-15 11:49:03.81	215.33	11.48	
2025-01-15 11:49:04.02	215.35	11.50	
2025-01-15 11:49:04.22	215.38	11.51	
2025-01-15 11:49:04.42	215.40	11.53	
2025-01-15 11:49:04.62	215.42	11.54	
2025-01-15 11:49:04.83	215.45	11.56	
2025-01-15 11:49:05.03	215.47	11.57	
2025-01-15 11:49:05.23	215.50	11.58	
2025-01-15 11:49:05.44	215.52	11.60	
2025-01-15 11:49:05.64	215.54	11.61	
2025-01-15 11:49:05.84	215.57	11.63	
2025-01-15 11:49:06.04	215.59	11.64	
2025-01-15 11:49:06.25	215.62	11.66	
2025-01-15 11:49:06.45	215.64	11.67	
2025-01-15 11:49:06.65	215.67	11.69	
2025-01-15 11:49:06.86	215.69	11.70	
2025-01-15 11:49:07.06	215.71	11.72	
2025-01-15 11:49:07.26	215.74	11.73	
2025-01-15 11:49:07.47	215.76	11.75	
2025-01-15 11:49:07.67	215.79	11.76	
2025-01-15 11:49:07.87	215.81	11.78	
2025-01-15 11:49:08.07	215.84	11.79	
2025-01-15 11:49:08.28	215.86	11.81	
2025-01-15 11:49:08.48	215.89	11.82	
2025-01-15 11:49:08.68	215.91	11.84	
2025-01-15 11:49:08.89	215.94	11.85	
2025-01-15 11:49:09.09	215.96	11.87	
2025-01-15 11:49:09.29	215.98	11.88	
2025-01-15 11:49:09.50	216.01	11.90	
2025-01-15 11:49:09.70	216.03	11.91	
2025-01-15 11:49:09.90	216.06	11.93	
2025-01-15 11:49:10.10	216.08	11.94	
2025-01-15 11:49:10.31	216.11	11.96	
2025-01-15 11:49:10.51	216.13	11.97	
2025-01-15 11:49:10.71	216.16	11.98	
2025-01-15 11:49:10.92	216.18	12.00	
2025-01-15 11:49:11.12	216.21	12.02	
2025-01-15 11:49:11.32	216.23	12.03	
2025-01-15 11:49:11.52	216.26	12.04	
2025-01-15 11:49:11.73	216.28	12.06	
2025-01-15 11:49:11.93	216.31	12.07	
2025-01-15 11:49:12.13	216.33	12.09	
2025-01-15 11:49:12.34	216.36	12.10	
2025-01-15 11:49:12.54	216.38	12.12	
2025-01-15 11:49:12.74	216.41	12.13	
2025-01-15 11:49:12.95	216.43	12.15	
2025-01-15 11:49:13.15	216.46	12.16	
2025-01-15 11:49:13.35	216.48	12.18	
2025-01-15 11:49:13.55	216.51	12.19	
2025-01-15 11:49:13.76	216.53	12.21	
2025-01-15 11:49:13.96	216.56	12.22	
2025-01-15 11:49:14.16	216.58	12.24	
2025-01-15 11:49:14.37	216.61	12.25	
2025-01-15 11:49:14.57	216.63	12.27	
2025-01-15 11:49:14.77	216.66	12.28	
2025-01-15 11:49:14.97	216.68	12.30	
2025-01-15 11:49:15.18	216.71	12.31	
2025-01-15 11:49:15.38	216.73	12.33	
2025-01-15 11:49:15.58	216.76	12.34	
2025-01-15 11:49:15.79	216.78	12.36	
2025-01-15 11:49:15.99	216.81	12.37	
2025-01-15 11:49:16.19	216.83	12.39	
2025-01-15 11:49:16.40	216.86	12.40	
2025-01-15 11:49:16.60	216.89	12.42	
2025-01-15 11:49:16.80	216.91	12.43	
2025-01-15 11:49:17.00	216.94	12.45	
2025-01-15 11:49:17.21	216.96	12.46	
2025-01-15 11:49:17.41	216.99	12.48	
2025-01-15 11:49:17.61	217.01	12.49	
2025-01-15 11:49:17.82	217.04	12.51	
2025-01-15 11:49:18.02	217.07	12.52	
2025-01-15 11:49:18.22	217.09	12.54	
2025-01-15 11:49:18.42	217.12	12.55	
2025-01-15 11:49:18.63	217.14	12.57	
2025-01-15 11:49:18.83	217.17	12.58	
2025-01-15 11:49:19.03	217.19	12.60	
2025-01-15 11:49:19.24	217.22	12.61	
2025-01-15 11:49:19.44	217.25	12.63	
2025-01-15 11:49:19.64	217.27	12.64	
2025-01-15 11:49:19.85	217.30	12.66	
2025-01-15 11:49:20.05	217.32	12.67	
2025-01-15 11:49:20.25	217.35	12.69	
2025-01-15 11:49:20.45	217.37	12.70	
2025-01-15 11:49:20.66	217.40	12.72	
2025-01-15 11:49:20.86	217.43	12.73	
2025-01-15 11:49:21.06	217.45	12.75	
2025-01-15 11:49:21.27	217.48	12.77	
2025-01-15 11:49:21.47	217.51	12.78	
2025-01-15 11:49:21.67	217.53	12.79	
2025-01-15 11:49:21.88	217.56	12.81	
2025-01-15 11:49:22.08	217.58	12.83	
2025-01-15 11:49:22.28	217.61	12.84	
2025-01-15 11:49:22.48	217.64	12.86	
2025-01-15 11:49:22.69	217.66	12.87	
2025-01-15 11:49:22.89	217.69	12.89	
2025-01-15 11:49:23.09	217.71	12.90	
2025-01-15 11:49:23.30	217.74	12.92	
2025-01-15 11:49:23.50	217.77	12.93	
2025-01-15 11:49:23.70	217.79	12.95	
2025-01-15 11:49:23.90	217.82	12.96	
2025-01-15 11:49:24.11	217.85	12.98	
2025-01-15 11:49:24.31	217.87	12.99	
2025-01-15 11:49:24.51	217.90	13.01	
2025-01-15 11:49:24.72	217.93	13.02	
2025-01-15 11:49:24.92	217.95	13.04	
2025-01-15 11:49:25.12	217.98	13.05	
2025-01-15 11:49:25.33	218.01	13.07	
2025-01-15 11:49:25.53	218.03	13.08	
2025-01-15 11:49:25.73	218.06	13.10	
2025-01-15 11:49:25.93	218.09	13.11	
2025-01-15 11:49:26.14	218.11	13.13	
2025-01-15 11:49:26.34	218.14	13.14	
2025-01-15 11:49:26.54	218.17	13.16	
2025-01-15 11:49:26.75	218.19	13.17	
2025-01-15 11:49:26.95	218.22	13.19	
2025-01-15 11:49:27.15	218.25	13.20	
2025-01-15 11:49:27.35	218.27	13.22	
2025-01-15 11:49:27.56	218.30	13.23	
2025-01-15 11:49:27.76	218.33	13.25	
2025-01-15 11:49:27.96	218.35	13.26	
2025-01-15 11:49:28.17	218.38	13.28	
2025-01-15 11:49:28.37	218.41	13.30	
2025-01-15 11:49:28.57	218.44	13.31	
2025-01-15 11:49:28.78	218.46	13.33	
2025-01-15 11:49:28.98	218.49	13.34	
2025-01-15 11:49:29.18	218.52	13.36	
2025-01-15 11:49:29.38	218.54	13.37	
2025-01-15 11:49:29.59	218.57	13.39	
2025-01-15 11:49:29.79	218.60	13.40	
2025-01-15 11:49:29.99	218.63	13.42	
2025-01-15 11:49:30.20	218.65	13.43	
2025-01-15 11:49:30.40	218.68	13.45	
2025-01-15 11:49:30.60	218.71	13.46	
2025-01-15 11:49:30.80	218.73	13.48	
2025-01-15 11:49:31.01	218.76	13.49	
2025-01-15 11:49:31.21	218.79	13.51	
2025-01-15 11:49:31.41	218.82	13.52	
2025-01-15 11:49:31.62	218.84	13.54	
2025-01-15 11:49:31.82	218.87	13.56	
2025-01-15 11:49:32.02	218.90	13.57	
2025-01-15 11:49:32.23	218.93	13.59	
2025-01-15 11:49:32.43	218.95	13.60	
2025-01-15 11:49:32.63	218.98	13.62	
2025-01-15 11:49:32.83	219.01	13.63	
2025-01-15 11:49:33.04	219.04	13.65	
2025-01-15 11:49:33.24	219.06	13.66	
2025-01-15 11:49:33.44	219.09	13.68	
2025-01-15 11:49:33.65	219.12	13.69	
2025-01-15 11:49:33.85	219.15	13.71	
2025-01-15 11:49:34.05	219.18	13.72	
2025-01-15 11:49:34.26	219.20	13.74	
2025-01-15 11:49:34.46	219.23	13.75	
2025-01-15 11:49:34.66	219.26	13.77	
2025-01-15 11:49:34.86	219.29	13.78	
2025-01-15 11:49:35.07	219.32	13.80	
2025-01-15 11:49:35.27	219.34	13.82	
2025-01-15 11:49:35.47	219.37	13.83	
2025-01-15 11:49:35.68	219.40	13.85	
2025-01-15 11:49:35.88	219.43	13.86	
2025-01-15 11:49:36.08	219.45	13.88	
2025-01-15 11:49:36.28	219.48	13.89	
2025-01-15 11:49:36.49	219.51	13.91	
2025-01-15 11:49:36.69	219.54	13.92	
2025-01-15 11:49:36.89	219.57	13.94	
2025-01-15 11:49:37.10	219.60	13.95	
2025-01-15 11:49:37.30	219.62	13.97	
2025-01-15 11:49:37.50	219.65	13.98	
2025-01-15 11:49:37.71	219.68	14.00	
2025-01-15 11:49:37.91	219.71	14.02	
2025-01-15 11:49:38.11	219.74	14.03	
2025-01-15 11:49:38.31	219.76	14.05	
2025-01-15 11:49:38.52	219.79	14.06	
2025-01-15 11:49:38.72	219.82	14.08	
2025-01-15 11:49:38.92	219.85	14.09	
2025-01-15 11:49:39.13	219.88	14.11	
2025-01-15 11:49:39.33	219.91	14.12	
2025-01-15 11:49:39.53	219.94	14.14	
2025-01-15 11:49:39.73	219.96	14.15	
2025-01-15 11:49:39.94	219.99	14.17	
2025-01-15 11:49:40.14	220.02	14.19	
2025-01-15 11:49:40.34	220.05	14.20	
2025-01-15 11:49:40.55	220.08	14.22	
2025-01-15 11:49:40.75	220.11	14.23	
2025-01-15 11:49:40.95	220.14	14.25	
2025-01-15 11:49:41.16	220.17	14.26	
2025-01-15 11:49:41.36	220.19	14.28	
2025-01-15 11:49:41.56	220.22	14.29	
2025-01-15 11:49:41.76	220.25	14.31	
2025-01-15 11:49:41.97	220.28	14.32	
2025-01-15 11:49:42.17	220.31	14.34	
2025-01-15 11:49:42.37	220.34	14.36	
2025-01-15 11:49:42.58	220.37	14.37	
2025-01-15 11:49:42.78	220.40	14.39	
2025-01-15 11:49:42.98	220.43	14.40	
2025-01-15 11:49:43.18	220.45	14.42	
2025-01-15 11:49:43.39	220.48	14.43	
2025-01-15 11:49:43.59	220.51	14.45	
2025-01-15 11:49:43.79	220.54	14.46	
2025-01-15 11:49:44.00	220.57	14.48	
2025-01-15 11:49:44.20	220.60	14.49	
2025-01-15 11:49:44.40	220.63	14.51	
2025-01-15 11:49:44.61	220.66	14.53	
2025-01-15 11:49:44.81	220.69	14.54	
2025-01-15 11:49:45.01	220.72	14.56	
2025-01-15 11:49:45.21	220.75	14.57	
2025-01-15 11:49:45.42	220.78	14.59	
2025-01-15 11:49:45.62	220.81	14.60	
2025-01-15 11:49:45.82	220.83	14.62	
2025-01-15 11:49:46.03	220.86	14.63	
2025-01-15 11:49:46.23	220.89	14.65	
2025-01-15 11:49:46.43	220.92	14.67	
2025-01-15 11:49:46.64	220.95	14.68	
2025-01-15 11:49:46.84	220.98	14.70	
2025-01-15 11:49:47.04	221.01	14.71	
2025-01-15 11:49:47.24	221.04	14.73	
2025-01-15 11:49:47.45	221.07	14.74	
2025-01-15 11:49:47.65	221.10	14.76	
2025-01-15 11:49:47.85	221.13	14.77	
2025-01-15 11:49:48.06	221.16	14.79	
2025-01-15 11:49:48.26	221.19	14.81	
2025-01-15 11:49:48.46	221.22	14.82	
2025-01-15 11:49:48.66	221.25	14.84	
2025-01-15 11:49:48.87	221.28	14.85	
2025-01-15 11:49:49.07	221.31	14.87	
2025-01-15 11:49:49.27	221.34	14.88	
2025-01-15 11:49:49.48	221.37	14.90	
2025-01-15 11:49:49.68	221.40	14.91	
2025-01-15 11:49:49.88	221.43	14.93	
2025-01-15 11:49:50.09	221.46	14.95	
2025-01-15 11:49:50.29	221.49	14.96	
2025-01-15 11:49:50.49	221.52	14.98	
2025-01-15 11:49:50.69	221.55	14.99	
2025-01-15 11:49:50.90	221.58	15.01	
2025-01-15 11:49:51.10	221.61	15.02	
2025-01-15 11:49:51.30	221.64	15.04	
2025-01-15 11:49:51.51	221.67	15.06	
2025-01-15 11:49:51.71	221.70	15.07	
2025-01-15 11:49:51.91	221.73	15.09	
2025-01-15 11:49:52.11	221.76	15.10	
2025-01-15 11:49:52.32	221.79	15.12	
2025-01-15 11:49:52.52	221.82	15.13	
2025-01-15 11:49:52.72	221.85	15.15	
2025-01-15 11:49:52.93	221.88	15.16	
2025-01-15 11:49:53.13	221.91	15.18	
2025-01-15 11:49:53.33	221.94	15.20	
2025-01-15 11:49:53.54	221.98	15.21	
2025-01-15 11:49:53.74	222.01	15.23	
2025-01-15 11:49:53.94	222.04	15.24	
2025-01-15 11:49:54.14	222.07	15.26	
2025-01-15 11:49:54.35	222.10	15.27	
2025-01-15 11:49:54.55	222.13	15.29	
2025-01-15 11:49:54.75	222.16	15.30	
2025-01-15 11:49:54.96	222.19	15.32	
2025-01-15 11:49:55.16	222.22	15.34	
2025-01-15 11:49:55.36	222.25	15.35	
2025-01-15 11:49:55.56	222.28	15.37	
2025-01-15 11:49:55.77	222.31	15.38	
2025-01-15 11:49:55.97	222.35	15.40	
2025-01-15 11:49:56.17	222.38	15.41	
2025-01-15 11:49:56.38	222.41	15.43	
2025-01-15 11:49:56.58	222.44	15.45	
2025-01-15 11:49:56.78	222.47	15.46	
2025-01-15 11:49:56.99	222.50	15.48	
2025-01-15 11:49:57.19	222.53	15.49	
2025-01-15 11:49:57.39	222.56	15.51	
2025-01-15 11:49:57.59	222.59	15.52	
2025-01-15 11:49:57.80	222.63	15.54	
2025-01-15 11:49:58.00	222.66	15.56	
2025-01-15 11:49:58.20	222.69	15.57	
2025-01-15 11:49:58.41	222.72	15.59	
2025-01-15 11:49:58.61	222.75	15.60	
2025-01-15 11:49:58.81	222.78	15.62	
2025-01-15 11:49:59.02	222.81	15.63	
2025-01-15 11:49:59.22	222.85	15.65	
2025-01-15 11:49:59.42	222.88	15.67	
2025-01-15 11:49:59.62	222.91	15.68	
2025-01-15 11:49:59.83	222.94	15.70	
2025-01-15 11:50:00.03	222.97	15.71	
2025-01-15 11:50:00.23	223.00	15.73	
2025-01-15 11:50:00.44	223.04	15.74	
2025-01-15 11:50:00.64	223.07	15.76	
2025-01-15 11:50:00.84	223.10	15.78	
2025-01-15 11:50:01.04	223.13	15.79	
2025-01-15 11:50:01.25	223.16	15.81	
2025-01-15 11:50:01.45	223.19	15.82	
2025-01-15 11:50:01.65	223.22	15.84	
2025-01-15 11:50:01.86	223.26	15.85	
2025-01-15 11:50:02.06	223.29	15.87	
2025-01-15 11:50:02.26	223.32	15.89	
2025-01-15 11:50:02.47	223.35	15.90	
2025-01-15 11:50:02.67	223.39	15.92	
2025-01-15 11:50:02.87	223.42	15.93	
2025-01-15 11:50:03.07	223.45	15.95	
2025-01-15 11:50:03.28	223.48	15.96	
2025-01-15 11:50:03.48	223.51	15.98	
2025-01-15 11:50:03.68	223.55	16.00	
2025-01-15 11:50:03.89	223.58	16.01	
2025-01-15 11:50:04.09	223.61	16.03	
2025-01-15 11:50:04.29	223.64	16.04	
2025-01-15 11:50:04.49	223.67	16.06	
2025-01-15 11:50:04.70	223.71	16.07	
2025-01-15 11:50:04.90	223.74	16.09	
2025-01-15 11:50:05.10	223.77	16.11	
2025-01-15 11:50:05.31	223.80	16.12	
2025-01-15 11:50:05.51	223.84	16.14	
2025-01-15 11:50:05.71	223.87	16.15	
2025-01-15 11:50:05.92	223.90	16.17	
2025-01-15 11:50:06.12	223.93	16.18	
2025-01-15 11:50:06.32	223.97	16.20	
2025-01-15 11:50:06.52	224.00	16.22	
2025-01-15 11:50:06.73	224.03	16.23	
2025-01-15 11:50:06.93	224.06	16.25	
2025-01-15 11:50:07.13	224.10	16.26	
2025-01-15 11:50:07.34	224.13	16.28	
2025-01-15 11:50:07.54	224.16	16.30	
2025-01-15 11:50:07.74	224.20	16.31	
2025-01-15 11:50:07.95	224.23	16.33	
2025-01-15 11:50:08.15	224.26	16.34	
2025-01-15 11:50:08.35	224.29	16.36	
2025-01-15 11:50:08.55	224.33	16.37	
2025-01-15 11:50:08.76	224.36	16.39	
2025-01-15 11:50:08.96	224.39	16.41	
2025-01-15 11:50:09.16	224.43	16.42	
2025-01-15 11:50:09.37	224.46	16.44	
2025-01-15 11:50:09.57	224.49	16.45	
2025-01-15 11:50:09.77	224.53	16.47	
2025-01-15 11:50:09.97	224.56	16.48	
2025-01-15 11:50:10.18	224.59	16.50	
2025-01-15 11:50:10.38	224.63	16.52	
2025-01-15 11:50:10.58	224.66	16.53	
2025-01-15 11:50:10.79	224.69	16.55	
2025-01-15 11:50:10.99	224.73	16.56	
2025-01-15 11:50:11.19	224.76	16.58	
2025-01-15 11:50:11.40	224.79	16.60	
2025-01-15 11:50:11.60	224.83	16.61	
2025-01-15 11:50:11.80	224.86	16.63	
2025-01-15 11:50:12.00	224.89	16.64	
2025-01-15 11:50:12.21	224.93	16.66	
2025-01-15 11:50:12.41	224.96	16.67	
2025-01-15 11:50:12.61	224.99	16.69	
2025-01-15 11:50:12.82	225.03	16.71	
2025-01-15 11:50:13.02	225.06	16.72	
2025-01-15 11:50:13.22	225.10	16.74	
2025-01-15 11:50:13.42	225.13	16.75	
2025-01-15 11:50:13.63	225.16	16.77	
2025-01-15 11:50:13.83	225.20	16.78	
2025-01-15 11:50:14.03	225.23	16.80	
2025-01-15 11:50:14.24	225.27	16.82	
2025-01-15 11:50:14.44	225.30	16.83	
2025-01-15 11:50:14.64	225.33	16.85	
2025-01-15 11:50:14.85	225.37	16.86	
2025-01-15 11:50:15.05	225.40	16.88	
2025-01-15 11:50:15.25	225.44	16.89	
2025-01-15 11:50:15.45	225.47	16.91	
2025-01-15 11:50:15.66	225.50	16.93	
2025-01-15 11:50:15.86	225.54	16.94	
2025-01-15 11:50:16.06	225.57	16.96	
2025-01-15 11:50:16.27	225.61	16.97	
2025-01-15 11:50:16.47	225.64	16.99	
2025-01-15 11:50:16.67	225.67	17.01	
2025-01-15 11:50:16.87	225.71	17.02	
2025-01-15 11:50:17.08	225.74	17.04	
2025-01-15 11:50:17.28	225.78	17.05	
2025-01-15 11:50:17.48	225.81	17.07	
2025-01-15 11:50:17.69	225.85	17.08	
2025-01-15 11:50:17.89	225.88	17.10	
2025-01-15 11:50:18.09	225.92	17.12	
2025-01-15 11:50:18.30	225.95	17.13	
2025-01-15 11:50:18.50	225.99	17.15	
2025-01-15 11:50:18.70	226.02	17.16	
2025-01-15 11:50:18.90	226.05	17.18	
2025-01-15 11:50:19.11	226.09	17.20	
2025-01-15 11:50:19.31	226.12	17.21	
2025-01-15 11:50:19.51	226.16	17.23	
2025-01-15 11:50:19.72	226.20	17.24	
2025-01-15 11:50:19.92	226.23	17.26	
2025-01-15 11:50:20.12	226.26	17.27	
2025-01-15 11:50:20.33	226.30	17.29	
2025-01-15 11:50:20.53	226.33	17.31	
2025-01-15 11:50:20.73	226.37	17.32	
2025-01-15 11:50:20.93	226.40	17.34	
2025-01-15 11:50:21.14	226.44	17.35	
2025-01-15 11:50:21.34	226.48	17.37	
2025-01-15 11:50:21.54	226.51	17.38	
2025-01-15 11:50:21.75	226.55	17.40	
2025-01-15 11:50:21.95	226.58	17.42	
2025-01-15 11:50:22.15	226.62	17.43	
2025-01-15 11:50:22.35	226.65	17.45	
2025-01-15 11:50:22.56	226.69	17.46	
2025-01-15 11:50:22.76	226.72	17.48	
2025-01-15 11:50:22.96	226.76	17.50	
2025-01-15 11:50:23.17	226.79	17.51	
2025-01-15 11:50:23.37	226.83	17.53	
2025-01-15 11:50:23.57	226.86	17.54	
2025-01-15 11:50:23.78	226.90	17.56	
2025-01-15 11:50:23.98	226.94	17.58	
2025-01-15 11:50:24.18	226.97	17.59	
2025-01-15 11:50:24.38	227.01	17.61	
2025-01-15 11:50:24.59	227.04	17.62	
2025-01-15 11:50:24.79	227.08	17.64	
2025-01-15 11:50:24.99	227.11	17.65	
2025-01-15 11:50:25.20	227.15	17.67	
2025-01-15 11:50:25.40	227.19	17.69	
2025-01-15 11:50:25.60	227.22	17.70	
2025-01-15 11:50:25.80	227.26	17.72	
2025-01-15 11:50:26.01	227.29	17.73	
2025-01-15 11:50:26.21	227.33	17.75	
2025-01-15 11:50:26.41	227.37	17.76	
2025-01-15 11:50:26.62	227.40	17.78	
2025-01-15 11:50:26.82	227.44	17.80	
2025-01-15 11:50:27.02	227.47	17.81	
2025-01-15 11:50:27.23	227.51	17.83	
2025-01-15 11:50:27.43	227.55	17.84	
2025-01-15 11:50:27.63	227.58	17.86	
2025-01-15 11:50:27.83	227.62	17.87	
2025-01-15 11:50:28.04	227.66	17.89	
2025-01-15 11:50:28.24	227.69	17.91	
2025-01-15 11:50:28.44	227.73	17.92	
2025-01-15 11:50:28.65	227.77	17.94	
2025-01-15 11:50:28.85	227.80	17.95	
2025-01-15 11:50:29.05	227.84	17.97	
2025-01-15 11:50:29.25	227.87	17.99	
2025-01-15 11:50:29.46	227.91	18.00	
2025-01-15 11:50:29.66	227.95	18.02	
2025-01-15 11:50:29.86	227.98	18.03	
2025-01-15 11:50:30.07	228.02	18.05	
2025-01-15 11:50:30.27	228.06	18.06	
2025-01-15 11:50:30.47	228.09	18.08	
2025-01-15 11:50:30.68	228.13	18.10	
2025-01-15 11:50:30.88	228.17	18.11	
2025-01-15 11:50:31.08	228.21	18.13	
2025-01-15 11:50:31.28	228.24	18.14	
2025-01-15 11:50:31.49	228.28	18.16	
2025-01-15 11:50:31.69	228.32	18.18	
2025-01-15 11:50:31.89	228.35	18.19	
2025-01-15 11:50:32.10	228.39	18.21	
2025-01-15 11:50:32.30	228.43	18.22	
2025-01-15 11:50:32.50	228.46	18.24	
2025-01-15 11:50:32.71	228.50	18.25	
2025-01-15 11:50:32.91	228.54	18.27	
2025-01-15 11:50:33.11	228.58	18.29	
2025-01-15 11:50:33.31	228.61	18.30	
2025-01-15 11:50:33.52	228.65	18.32	
2025-01-15 11:50:33.72	228.69	18.33	
2025-01-15 11:50:33.92	228.73	18.35	
2025-01-15 11:50:34.13	228.76	18.36	
2025-01-15 11:50:34.33	228.80	18.38	
2025-01-15 11:50:34.53	228.84	18.40	
2025-01-15 11:50:34.73	228.88	18.41	
2025-01-15 11:50:34.94	228.91	18.43	
2025-01-15 11:50:35.14	228.95	18.44	
2025-01-15 11:50:35.34	228.99	18.46	
2025-01-15 11:50:35.55	229.03	18.47	
2025-01-15 11:50:35.75	229.07	18.49	
2025-01-15 11:50:35.95	229.10	18.51	
2025-01-15 11:50:36.16	229.14	18.52	
2025-01-15 11:50:36.36	229.18	18.54	
2025-01-15 11:50:36.56	229.22	18.55	
2025-01-15 11:50:36.76	229.25	18.57	
2025-01-15 11:50:36.97	229.29	18.58	
2025-01-15 11:50:37.17	229.33	18.60	
2025-01-15 11:50:37.37	229.37	18.62	
2025-01-15 11:50:37.58	229.41	18.63	
2025-01-15 11:50:37.78	229.45	18.65	
2025-01-15 11:50:37.98	229.48	18.66	
2025-01-15 11:50:38.18	229.52	18.68	
2025-01-15 11:50:38.39	229.56	18.69	
2025-01-15 11:50:38.59	229.60	18.71	
2025-01-15 11:50:38.79	229.64	18.73	
2025-01-15 11:50:39.00	229.68	18.74	
2025-01-15 11:50:39.20	229.71	18.76	
2025-01-15 11:50:39.40	229.75	18.77	
2025-01-15 11:50:39.61	229.79	18.79	
2025-01-15 11:50:39.81	229.83	18.80	
2025-01-15 11:50:40.01	229.87	18.82	
2025-01-15 11:50:40.21	229.91	18.84	
2025-01-15 11:50:40.42	229.95	18.85	
2025-01-15 11:50:40.62	229.98	18.87	
2025-01-15 11:50:40.82	230.02	18.88	
2025-01-15 11:50:41.03	230.06	18.90	
2025-01-15 11:50:41.23	230.10	18.91	
2025-01-15 11:50:41.43	230.14	18.93	
2025-01-15 11:50:41.63	230.18	18.95	
2025-01-15 11:50:41.84	230.22	18.96	
2025-01-15 11:50:42.04	230.26	18.98	
2025-01-15 11:50:42.24	230.29	18.99	
2025-01-15 11:50:42.45	230.33	19.01	
2025-01-15 11:50:42.65	230.37	19.02	
2025-01-15 11:50:42.85	230.41	19.04	
2025-01-15 11:50:43.06	230.45	19.06	
2025-01-15 11:50:43.26	230.49	19.07	
2025-01-15 11:50:43.46	230.53	19.09	
2025-01-15 11:50:43.66	230.57	19.10	
2025-01-15 11:50:43.87	230.61	19.12	
2025-01-15 11:50:44.07	230.65	19.13	
2025-01-15 11:50:44.27	230.69	19.15	
2025-01-15 11:50:44.48	230.73	19.17	
2025-01-15 11:50:44.68	230.77	19.18	
2025-01-15 11:50:44.88	230.81	19.20	
2025-01-15 11:50:45.09	230.85	19.21	
2025-01-15 11:50:45.29	230.89	19.23	
2025-01-15 11:50:45.49	230.92	19.24	
2025-01-15 11:50:45.69	230.96	19.26	
2025-01-15 11:50:45.90	231.00	19.27	
2025-01-15 11:50:46.10	231.04	19.29	
2025-01-15 11:50:46.30	231.08	19.31	
2025-01-15 11:50:46.51	231.12	19.32	
2025-01-15 11:50:46.71	231.16	19.34	
2025-01-15 11:50:46.91	231.20	19.35	
2025-01-15 11:50:47.11	231.24	19.37	
2025-01-15 11:50:47.32	231.28	19.38	
2025-01-15 11:50:47.52	231.32	19.40	
2025-01-15 11:50:47.72	231.36	19.41	
2025-01-15 11:50:47.93	231.40	19.43	
2025-01-15 11:50:48.13	231.44	19.45	
2025-01-15 11:50:48.33	231.48	19.46	
2025-01-15 11:50:48.54	231.53	19.48	
2025-01-15 11:50:48.74	231.56	19.49	
2025-01-15 11:50:48.94	231.60	19.51	
2025-01-15 11:50:49.14	231.64	19.52	
2025-01-15 11:50:49.35	231.69	19.54	
2025-01-15 11:50:49.55	231.73	19.55	
2025-01-15 11:50:49.75	231.77	19.57	
2025-01-15 11:50:49.96	231.81	19.59	
2025-01-15 11:50:50.16	231.85	19.60	
2025-01-15 11:50:50.36	231.89	19.62	
2025-01-15 11:50:50.56	231.93	19.63	
2025-01-15 11:50:50.77	231.97	19.65	
2025-01-15 11:50:50.97	232.01	19.66	
2025-01-15 11:50:51.17	232.05	19.68	
2025-01-15 11:50:51.38	232.09	19.69	
2025-01-15 11:50:51.58	232.13	19.71	
2025-01-15 11:50:51.78	232.17	19.72	
2025-01-15 11:50:51.99	232.22	19.74	
2025-01-15 11:50:52.19	232.26	19.76	
2025-01-15 11:50:52.39	232.30	19.77	
2025-01-15 11:50:52.59	232.34	19.79	
2025-01-15 11:50:52.80	232.38	19.80	
2025-01-15 11:50:53.00	232.42	19.82	
2025-01-15 11:50:53.20	232.46	19.83	
2025-01-15 11:50:53.41	232.50	19.85	
2025-01-15 11:50:53.61	232.54	19.86	
2025-01-15 11:50:53.81	232.58	19.88	
2025-01-15 11:50:54.02	232.63	19.90	
2025-01-15 11:50:54.22	232.67	19.91	
2025-01-15 11:50:54.42	232.71	19.93	
2025-01-15 11:50:54.62	232.75	19.94	
2025-01-15 11:50:54.83	232.79	19.96	
2025-01-15 11:50:55.03	232.83	19.97	
2025-01-15 11:50:55.23	232.87	19.99	
2025-01-15 11:50:55.44	232.92	20.00	
2025-01-15 11:50:55.64	232.96	20.02	
2025-01-15 11:50:55.84	233.00	20.03	
2025-01-15 11:50:56.04	233.04	20.05	
2025-01-15 11:50:56.25	233.08	20.06	
2025-01-15 11:50:56.45	233.12	20.08	
2025-01-15 11:50:56.65	233.17	20.09	
2025-01-15 11:50:56.86	233.21	20.11	
2025-01-15 11:50:57.06	233.25	20.13	
2025-01-15 11:50:57.26	233.29	20.14	
2025-01-15 11:50:57.47	233.34	20.16	
2025-01-15 11:50:57.67	233.38	20.17	
2025-01-15 11:50:57.87	233.42	20.19	
2025-01-15 11:50:58.07	233.46	20.20	
2025-01-15 11:50:58.28	233.50	20.22	
2025-01-15 11:50:58.48	233.55	20.23	
2025-01-15 11:50:58.68	233.59	20.25	
2025-01-15 11:50:58.89	233.63	20.26	
2025-01-15 11:50:59.09	233.67	20.28	
2025-01-15 11:50:59.29	233.71	20.29	
2025-01-15 11:50:59.49	233.76	20.31	
2025-01-15 11:50:59.70	233.80	20.32	
2025-01-15 11:50:59.90	233.84	20.34	
2025-01-15 11:51:00.10	233.88	20.35	
2025-01-15 11:51:00.31	233.93	20.37	
2025-01-15 11:51:00.51	233.97	20.39	
2025-01-15 11:51:00.71	234.01	20.40	
2025-01-15 11:51:00.92	234.06	20.42	
2025-01-15 11:51:01.12	234.10	20.43	
2025-01-15 11:51:01.32	234.14	20.45	
2025-01-15 11:51:01.52	234.18	20.46	
2025-01-15 11:51:01.73	234.23	20.48	
2025-01-15 11:51:01.93	234.27	20.49	
2025-01-15 11:51:02.13	234.31	20.51	
2025-01-15 11:51:02.34	234.36	20.52	
2025-01-15 11:51:02.54	234.40	20.54	
2025-01-15 11:51:02.74	234.44	20.55	
2025-01-15 11:51:02.94	234.48	20.57	
2025-01-15 11:51:03.15	234.53	20.58	
2025-01-15 11:51:03.35	234.57	20.60	
2025-01-15 11:51:03.55	234.61	20.61	
2025-01-15 11:51:03.76	234.66	20.63	
2025-01-15 11:51:03.96	234.70	20.64	
2025-01-15 11:51:04.16	234.74	20.66	
2025-01-15 11:51:04.37	234.79	20.67	
2025-01-15 11:51:04.57	234.83	20.69	
2025-01-15 11:51:04.77	234.87	20.70	
2025-01-15 11:51:04.97	234.92	20.72	
2025-01-15 11:51:05.18	234.96	20.73	
2025-01-15 11:51:05.38	235.01	20.75	
2025-01-15 11:51:05.58	235.05	20.76	
2025-01-15 11:51:05.79	235.09	20.78	
2025-01-15 11:51:05.99	235.14	20.79	
2025-01-15 11:51:06.19	235.18	20.81	
2025-01-15 11:51:06.39	235.22	20.82	
2025-01-15 11:51:06.60	235.27	20.84	
2025-01-15 11:51:06.80	235.31	20.85	
2025-01-15 11:51:07.00	235.36	20.87	
2025-01-15 11:51:07.21	235.40	20.88	
2025-01-15 11:51:07.41	235.44	20.90	
2025-01-15 11:51:07.61	235.49	20.91	
2025-01-15 11:51:07.82	235.53	20.93	
2025-01-15 11:51:08.02	235.58	20.94	
2025-01-15 11:51:08.22	235.62	20.96	
2025-01-15 11:51:08.42	235.66	20.97	
2025-01-15 11:51:08.63	235.71	20.99	
2025-01-15 11:51:08.83	235.75	21.00	
2025-01-15 11:51:09.03	235.80	21.02	
2025-01-15 11:51:09.24	235.84	21.03	
2025-01-15 11:51:09.44	235.89	21.05	
2025-01-15 11:51:09.64	235.93	21.06	
2025-01-15 11:51:09.85	235.98	21.08	
2025-01-15 11:51:10.05	236.02	21.09	
2025-01-15 11:51:10.25	236.06	21.11	
2025-01-15 11:51:10.45	236.11	21.12	
2025-01-15 11:51:10.66	236.16	21.14	
2025-01-15 11:51:10.86	236.20	21.15	
2025-01-15 11:51:11.06	236.24	21.17	
2025-01-15 11:51:11.27	236.29	21.18	
2025-01-15 11:51:11.47	236.33	21.20	
2025-01-15 11:51:11.67	236.38	21.21	
2025-01-15 11:51:11.87	236.42	21.23	
2025-01-15 11:51:12.08	236.47	21.24	
2025-01-15 11:51:12.28	236.51	21.26	
2025-01-15 11:51:12.48	236.56	21.27	
2025-01-15 11:51:12.69	236.60	21.29	
2025-01-15 11:51:12.89	236.65	21.30	
2025-01-15 11:51:13.09	236.69	21.32	
2025-01-15 11:51:13.30	236.74	21.33	
2025-01-15 11:51:13.50	236.79	21.35	
2025-01-15 11:51:13.70	236.83	21.36	
2025-01-15 11:51:13.90	236.87	21.38	
2025-01-15 11:51:14.11	236.92	21.39	
2025-01-15 11:51:14.31	236.97	21.40	
2025-01-15 11:51:14.51	237.01	21.42	
2025-01-15 11:51:14.72	237.06	21.43	
2025-01-15 11:51:14.92	237.10	21.45	
2025-01-15 11:51:15.12	237.15	21.46	
2025-01-15 11:51:15.32	237.19	21.48	
2025-01-15 11:51:15.53	237.24	21.49	
2025-01-15 11:51:15.73	237.29	21.51	
2025-01-15 11:51:15.93	237.33	21.52	
2025-01-15 11:51:16.14	237.38	21.54	
2025-01-15 11:51:16.34	237.42	21.55	
2025-01-15 11:51:16.54	237.47	21.57	
2025-01-15 11:51:16.75	237.52	21.58	
2025-01-15 11:51:16.95	237.56	21.60	
2025-01-15 11:51:17.15	237.61	21.61	
2025-01-15 11:51:17.35	237.65	21.62	
2025-01-15 11:51:17.56	237.70	21.64	
2025-01-15 11:51:17.76	237.75	21.65	
2025-01-15 11:51:17.96	237.79	21.67	
2025-01-15 11:51:18.17	237.84	21.68	
2025-01-15 11:51:18.37	237.88	21.70	
2025-01-15 11:51:18.57	237.93	21.71	
2025-01-15 11:51:18.77	237.98	21.73	
2025-01-15 11:51:18.98	238.02	21.74	
2025-01-15 11:51:19.18	238.07	21.75	
2025-01-15 11:51:19.38	238.12	21.77	
2025-01-15 11:51:19.59	238.16	21.78	
2025-01-15 11:51:19.79	238.21	21.80	
2025-01-15 11:51:19.99	238.26	21.81	
2025-01-15 11:51:20.20	238.30	21.83	
2025-01-15 11:51:20.40	238.35	21.84	
2025-01-15 11:51:20.60	238.40	21.86	
2025-01-15 11:51:20.80	238.44	21.87	
2025-01-15 11:51:21.01	238.49	21.88	
2025-01-15 11:51:21.21	238.54	21.90	
2025-01-15 11:51:21.41	238.58	21.91	
2025-01-15 11:51:21.62	238.63	21.93	
2025-01-15 11:51:21.82	238.68	21.94	
2025-01-15 11:51:22.02	238.73	21.96	
2025-01-15 11:51:22.23	238.77	21.97	
2025-01-15 11:51:22.43	238.82	21.98	
2025-01-15 11:51:22.63	238.87	22.00	
2025-01-15 11:51:22.83	238.91	22.01	
2025-01-15 11:51:23.04	238.96	22.03	
2025-01-15 11:51:23.24	239.01	22.04	
2025-01-15 11:51:23.44	239.06	22.06	
2025-01-15 11:51:23.65	239.10	22.07	
2025-01-15 11:51:23.85	239.15	22.08	
2025-01-15 11:51:24.05	239.20	22.10	
2025-01-15 11:51:24.25	239.25	22.11	
2025-01-15 11:51:24.46	239.29	22.13	
2025-01-15 11:51:24.66	239.34	22.14	
2025-01-15 11:51:24.86	239.39	22.15	
2025-01-15 11:51:25.07	239.44	22.17	
2025-01-15 11:51:25.27	239.48	22.18	
2025-01-15 11:51:25.47	239.53	22.20	
2025-01-15 11:51:25.68	239.58	22.21	
2025-01-15 11:51:25.88	239.63	22.23	
2025-01-15 11:51:26.08	239.68	22.24	
2025-01-15 11:51:26.28	239.72	22.25	
2025-01-15 11:51:26.49	239.77	22.27	
2025-01-15 11:51:26.69	239.82	22.28	
2025-01-15 11:51:26.89	239.87	22.30	
2025-01-15 11:51:27.10	239.92	22.31	
2025-01-15 11:51:27.30	239.96	22.32	
2025-01-15 11:51:27.50	240.01	22.34	
2025-01-15 11:51:27.70	240.06	22.35	
2025-01-15 11:51:27.91	240.11	22.37	
2025-01-15 11:51:28.11	240.16	22.38	
2025-01-15 11:51:28.31	240.20	22.39	
2025-01-15 11:51:28.52	240.26	22.41	
2025-01-15 11:51:28.72	240.30	22.42	
2025-01-15 11:51:28.92	240.35	22.44	
2025-01-15 11:51:29.13	240.40	22.45	
2025-01-15 11:51:29.33	240.45	22.46	
2025-01-15 11:51:29.53	240.50	22.48	
2025-01-15 11:51:29.73	240.54	22.49	
2025-01-15 11:51:29.94	240.60	22.50	
2025-01-15 11:51:30.14	240.64	22.52	
2025-01-15 11:51:30.34	240.69	22.53	
2025-01-15 11:51:30.55	240.74	22.55	
2025-01-15 11:51:30.75	240.79	22.56	
2025-01-15 11:51:30.95	240.84	22.57	
2025-01-15 11:51:31.16	240.89	22.59	
2025-01-15 11:51:31.36	240.94	22.60	
2025-01-15 11:51:31.56	240.99	22.61	
2025-01-15 11:51:31.76	241.03	22.63	
2025-01-15 11:51:31.97	241.08	22.64	
2025-01-15 11:51:32.17	241.13	22.66	
2025-01-15 11:51:32.37	241.18	22.67	
2025-01-15 11:51:32.58	241.23	22.68	
2025-01-15 11:51:32.78	241.28	22.70	
2025-01-15 11:51:32.98	241.33	22.71	
2025-01-15 11:51:33.18	241.38	22.72	
2025-01-15 11:51:33.39	241.43	22.74	
2025-01-15 11:51:33.59	241.48	22.75	
2025-01-15 11:51:33.79	241.53	22.76	
2025-01-15 11:51:34.00	241.58	22.78	
2025-01-15 11:51:34.20	241.63	22.79	
2025-01-15 11:51:34.40	241.68	22.81	
2025-01-15 11:51:34.61	241.73	22.82	
2025-01-15 11:51:34.81	241.78	22.83	
2025-01-15 11:51:35.01	241.83	22.85	
2025-01-15 11:51:35.21	241.88	22.86	
2025-01-15 11:51:35.42	241.93	22.87	
2025-01-15 11:51:35.62	241.98	22.89	
2025-01-15 11:51:35.82	242.03	22.90	
2025-01-15 11:51:36.03	242.08	22.91	
2025-01-15 11:51:36.23	242.13	22.93	
2025-01-15 11:51:36.43	242.18	22.94	
2025-01-15 11:51:36.63	242.22	22.95	
2025-01-15 11:51:36.84	242.28	22.97	
2025-01-15 11:51:37.04	242.33	22.98	
2025-01-15 11:51:37.24	242.38	22.99	
2025-01-15 11:51:37.45	242.43	23.01	
2025-01-15 11:51:37.65	242.48	23.02	
2025-01-15 11:51:37.85	242.53	23.03	
2025-01-15 11:51:38.06	242.58	23.05	
2025-01-15 11:51:38.26	242.63	23.06	
2025-01-15 11:51:38.46	242.68	23.07	
2025-01-15 11:51:38.66	242.73	23.09	
2025-01-15 11:51:38.87	242.78	23.10	
2025-01-15 11:51:39.07	242.83	23.11	
2025-01-15 11:51:39.27	242.88	23.12	
2025-01-15 11:51:39.48	242.93	23.14	
2025-01-15 11:51:39.68	242.98	23.15	
2025-01-15 11:51:39.88	243.03	23.16	
2025-01-15 11:51:40.08	243.08	23.18	
2025-01-15 11:51:40.29	243.14	23.19	
2025-01-15 11:51:40.49	243.19	23.20	
2025-01-15 11:51:40.69	243.24	23.22	
2025-01-15 11:51:40.90	243.29	23.23	
2025-01-15 11:51:41.10	243.34	23.24	
2025-01-15 11:51:41.30	243.39	23.26	
2025-01-15 11:51:41.51	243.44	23.27	
2025-01-15 11:51:41.71	243.49	23.28	
2025-01-15 11:51:41.91	243.54	23.29	
2025-01-15 11:51:42.11	243.59	23.31	
2025-01-15 11:51:42.32	243.65	23.32	
2025-01-15 11:51:42.52	243.70	23.33	
2025-01-15 11:51:42.72	243.75	23.35	
2025-01-15 11:51:42.93	243.80	23.36	
2025-01-15 11:51:43.13	243.85	23.37	
2025-01-15 11:51:43.33	243.90	23.38	
2025-01-15 11:51:43.54	243.96	23.40	
2025-01-15 11:51:43.74	244.01	23.41	
2025-01-15 11:51:43.94	244.06	23.42	
2025-01-15 11:51:44.14	244.11	23.44	
2025-01-15 11:51:44.35	244.16	23.45	
2025-01-15 11:51:44.55	244.21	23.46	
2025-01-15 11:51:44.75	244.26	23.47	
2025-01-15 11:51:44.96	244.32	23.49	
2025-01-15 11:51:45.16	244.37	23.50	
2025-01-15 11:51:45.36	244.42	23.51	
2025-01-15 11:51:45.56	244.47	23.52	
2025-01-15 11:51:45.77	244.52	23.54	
2025-01-15 11:51:45.97	244.58	23.55	
2025-01-15 11:51:46.17	244.63	23.56	
2025-01-15 11:51:46.38	244.68	23.57	
2025-01-15 11:51:46.58	244.73	23.59	
2025-01-15 11:51:46.78	244.78	23.60	
2025-01-15 11:51:46.99	244.84	23.61	
2025-01-15 11:51:47.19	244.89	23.62	
2025-01-15 11:51:47.39	244.94	23.64	
2025-01-15 11:51:47.59	244.99	23.65	
2025-01-15 11:51:47.80	245.05	23.66	
2025-01-15 11:51:48.00	245.10	23.67	
2025-01-15 11:51:48.20	245.15	23.69	
2025-01-15 11:51:48.41	245.20	23.70	
2025-01-15 11:51:48.61	245.26	23.71	
2025-01-15 11:51:48.81	245.31	23.72	
2025-01-15 11:51:49.01	245.36	23.74	
2025-01-15 11:51:49.22	245.41	23.75	
2025-01-15 11:51:49.42	245.47	23.76	
2025-01-15 11:51:49.62	245.52	23.77	
2025-01-15 11:51:49.83	245.57	23.79	
2025-01-15 11:51:50.03	245.62	23.80	
2025-01-15 11:51:50.23	245.68	23.81	
2025-01-15 11:51:50.44	245.73	23.82	
2025-01-15 11:51:50.64	245.78	23.83	
2025-01-15 11:51:50.84	245.84	23.85	
2025-01-15 11:51:51.04	245.89	23.86	
2025-01-15 11:51:51.25	245.94	23.87	
2025-01-15 11:51:51.45	246.00	23.88	
2025-01-15 11:51:51.65	246.05	23.89	
2025-01-15 11:51:51.86	246.10	23.91	
2025-01-15 11:51:52.06	246.16	23.92	
2025-01-15 11:51:52.26	246.21	23.93	
2025-01-15 11:51:52.46	246.26	23.94	
2025-01-15 11:51:52.67	246.32	23.95	
2025-01-15 11:51:52.87	246.37	23.97	
2025-01-15 11:51:53.07	246.42	23.98	
2025-01-15 11:51:53.28	246.48	23.99	
2025-01-15 11:51:53.48	246.53	24.00	
2025-01-15 11:51:53.68	246.58	24.01	
2025-01-15 11:51:53.89	246.64	24.03	
2025-01-15 11:51:54.09	246.69	24.04	
2025-01-15 11:51:54.29	246.74	24.05	
2025-01-15 11:51:54.49	246.80	24.06	
2025-01-15 11:51:54.70	246.85	24.07	
2025-01-15 11:51:54.90	246.90	24.08	
2025-01-15 11:51:55.10	246.96	24.10	
2025-01-15 11:51:55.31	247.01	24.11	
2025-01-15 11:51:55.51	247.07	24.12	
2025-01-15 11:51:55.71	247.12	24.13	
2025-01-15 11:51:55.92	247.17	24.14	
2025-01-15 11:51:56.12	247.23	24.15	
2025-01-15 11:51:56.32	247.28	24.17	
2025-01-15 11:51:56.52	247.33	24.18	
2025-01-15 11:51:56.73	247.39	24.19	
2025-01-15 11:51:56.93	247.44	24.20	
2025-01-15 11:51:57.13	247.50	24.21	
2025-01-15 11:51:57.34	247.55	24.22	
2025-01-15 11:51:57.54	247.61	24.24	
2025-01-15 11:51:57.74	247.66	24.25	
2025-01-15 11:51:57.94	247.71	24.26	
2025-01-15 11:51:58.15	247.77	24.27	
2025-01-15 11:51:58.35	247.82	24.28	
2025-01-15 11:51:58.55	247.88	24.29	
2025-01-15 11:51:58.76	247.93	24.30	
2025-01-15 11:51:58.96	247.99	24.31	
2025-01-15 11:51:59.16	248.04	24.33	
2025-01-15 11:51:59.37	248.10	24.34	
2025-01-15 11:51:59.57	248.15	24.35	
2025-01-15 11:51:59.77	248.21	24.36	
2025-01-15 11:51:59.97	248.26	24.37	
2025-01-15 11:52:00.18	248.32	24.38	
2025-01-15 11:52:00.38	248.37	24.39	
2025-01-15 11:52:00.58	248.42	24.40	
2025-01-15 11:52:00.79	248.48	24.42	
2025-01-15 11:52:00.99	248.54	24.43	
2025-01-15 11:52:01.19	248.59	24.44	
2025-01-15 11:52:01.39	248.64	24.45	
2025-01-15 11:52:01.60	248.70	24.46	
2025-01-15 11:52:01.80	248.75	24.47	
2025-01-15 11:52:02.00	248.81	24.48	
2025-01-15 11:52:02.21	248.87	24.49	
2025-01-15 11:52:02.41	248.92	24.50	
2025-01-15 11:52:02.61	248.98	24.51	
2025-01-15 11:52:02.82	249.03	24.53	
2025-01-15 11:52:03.02	249.09	24.54	
2025-01-15 11:52:03.22	249.14	24.55	
2025-01-15 11:52:03.42	249.20	24.56	
2025-01-15 11:52:03.63	249.25	24.57	
2025-01-15 11:52:03.83	249.31	24.58	
2025-01-15 11:52:04.03	249.36	24.59	
2025-01-15 11:52:04.24	249.42	24.60	
2025-01-15 11:52:04.44	249.47	24.61	
2025-01-15 11:52:04.64	249.53	24.62	
2025-01-15 11:52:04.84	249.58	24.63	
2025-01-15 11:52:05.05	249.64	24.64	
2025-01-15 11:52:05.25	249.70	24.65	
2025-01-15 11:52:05.45	249.75	24.66	
2025-01-15 11:52:05.66	249.81	24.68	
2025-01-15 11:52:05.86	249.86	24.69	
2025-01-15 11:52:06.06	249.92	24.70	
2025-01-15 11:52:06.27	249.98	24.71	
2025-01-15 11:52:06.47	250.03	24.72	
2025-01-15 11:52:06.67	250.09	24.73	
2025-01-15 11:52:06.87	250.14	24.74	
2025-01-15 11:52:07.08	250.20	24.75	
2025-01-15 11:52:07.28	250.26	24.76	
2025-01-15 11:52:07.48	250.31	24.77	
2025-01-15 11:52:07.69	250.37	24.78	
2025-01-15 11:52:07.89	250.42	24.79	
2025-01-15 11:52:08.09	250.48	24.80	
2025-01-15 11:52:08.30	250.54	24.81	
2025-01-15 11:52:08.50	250.59	24.82	
2025-01-15 11:52:08.70	250.65	24.83	
2025-01-15 11:52:08.90	250.70	24.84	
2025-01-15 11:52:09.11	250.76	24.85	
2025-01-15 11:52:09.31	250.82	24.86	
2025-01-15 11:52:09.51	250.87	24.87	
2025-01-15 11:52:09.72	250.93	24.88	
2025-01-15 11:52:09.92	250.99	24.89	
2025-01-15 11:52:10.12	251.04	24.90	
2025-01-15 11:52:10.32	251.10	24.91	
2025-01-15 11:52:10.53	251.16	24.92	
2025-01-15 11:52:10.73	251.21	24.93	
2025-01-15 11:52:10.93	251.27	24.94	
2025-01-15 11:52:11.14	251.33	24.95	
2025-01-15 11:52:11.34	251.38	24.96	
2025-01-15 11:52:11.54	251.44	24.97	
2025-01-15 11:52:11.75	251.50	24.98	
2025-01-15 11:52:11.95	251.56	24.99	
2025-01-15 11:52:12.15	251.61	25.00	
2025-01-15 11:52:12.35	251.67	25.01	
2025-01-15 11:52:12.56	251.73	25.02	
2025-01-15 11:52:12.76	251.78	25.03	
2025-01-15 11:52:12.96	251.84	25.04	
2025-01-15 11:52:13.17	251.90	25.05	
2025-01-15 11:52:13.37	251.95	25.06	
2025-01-15 11:52:13.57	252.01	25.07	
2025-01-15 11:52:13.77	252.07	25.08	
2025-01-15 11:52:13.98	252.13	25.09	
2025-01-15 11:52:14.18	252.18	25.10	
2025-01-15 11:52:14.38	252.24	25.11	
2025-01-15 11:52:14.59	252.30	25.12	
2025-01-15 11:52:14.79	252.36	25.12	
2025-01-15 11:52:14.99	252.41	25.13	
2025-01-15 11:52:15.20	252.47	25.14	
2025-01-15 11:52:15.40	252.53	25.15	
2025-01-15 11:52:15.60	252.58	25.16	
2025-01-15 11:52:15.80	252.64	25.17	
2025-01-15 11:52:16.01	252.70	25.18	
2025-01-15 11:52:16.21	252.76	25.19	
2025-01-15 11:52:16.41	252.81	25.20	
2025-01-15 11:52:16.62	252.87	25.21	
2025-01-15 11:52:16.82	252.93	25.22	
2025-01-15 11:52:17.02	252.99	25.23	
2025-01-15 11:52:17.22	253.04	25.24	
2025-01-15 11:52:17.43	253.10	25.24	
2025-01-15 11:52:17.63	253.16	25.25	
2025-01-15 11:52:17.83	253.22	25.26	
2025-01-15 11:52:18.04	253.28	25.27	
2025-01-15 11:52:18.24	253.34	25.28	
2025-01-15 11:52:18.44	253.39	25.29	
2025-01-15 11:52:18.65	253.45	25.30	
2025-01-15 11:52:18.85	253.51	25.31	
2025-01-15 11:52:19.05	253.57	25.32	
2025-01-15 11:52:19.25	253.62	25.32	
2025-01-15 11:52:19.46	253.68	25.33	
2025-01-15 11:52:19.66	253.74	25.34	
2025-01-15 11:52:19.86	253.80	25.35	
2025-01-15 11:52:20.07	253.86	25.36	
2025-01-15 11:52:20.27	253.92	25.37	
2025-01-15 11:52:20.47	253.97	25.38	
2025-01-15 11:52:20.68	254.03	25.39	
2025-01-15 11:52:20.88	254.09	25.39	
2025-01-15 11:52:21.08	254.15	25.40	
2025-01-15 11:52:21.28	254.21	25.41	
2025-01-15 11:52:21.49	254.27	25.42	
2025-01-15 11:52:21.69	254.32	25.43	
2025-01-15 11:52:21.89	254.38	25.44	
2025-01-15 11:52:22.10	254.44	25.45	
2025-01-15 11:52:22.30	254.50	25.45	
2025-01-15 11:52:22.50	254.56	25.46	
2025-01-15 11:52:22.70	254.62	25.47	
2025-01-15 11:52:22.91	254.68	25.48	
2025-01-15 11:52:23.11	254.73	25.49	
2025-01-15 11:52:23.31	254.79	25.50	
2025-01-15 11:52:23.52	254.85	25.50	
2025-01-15 11:52:23.72	254.91	25.51	
2025-01-15 11:52:23.92	254.97	25.52	
2025-01-15 11:52:24.13	255.03	25.53	
2025-01-15 11:52:24.33	255.09	25.54	
2025-01-15 11:52:24.53	255.14	25.54	
2025-01-15 11:52:24.73	255.20	25.55	
2025-01-15 11:52:24.94	255.26	25.56	
2025-01-15 11:52:25.14	255.32	25.57	
2025-01-15 11:52:25.34	255.38	25.58	
2025-01-15 11:52:25.55	255.44	25.58	
2025-01-15 11:52:25.75	255.50	25.59	
2025-01-15 11:52:25.95	255.56	25.60	
2025-01-15 11:52:26.15	255.62	25.61	
2025-01-15 11:52:26.36	255.68	25.62	
2025-01-15 11:52:26.56	255.74	25.62	
2025-01-15 11:52:26.76	255.79	25.63	
2025-01-15 11:52:26.97	255.85	25.64	
2025-01-15 11:52:27.17	255.91	25.65	
2025-01-15 11:52:27.37	255.97	25.65	
2025-01-15 11:52:27.58	256.03	25.66	
2025-01-15 11:52:27.78	256.09	25.67	
2025-01-15 11:52:27.98	256.15	25.68	
2025-01-15 11:52:28.18	256.21	25.68	
2025-01-15 11:52:28.39	256.27	25.69	
2025-01-15 11:52:28.59	256.33	25.70	
2025-01-15 11:52:28.79	256.39	25.71	
2025-01-15 11:52:29.00	256.45	25.72	
2025-01-15 11:52:29.20	256.51	25.72	
2025-01-15 11:52:29.40	256.57	25.73	
2025-01-15 11:52:29.60	256.62	25.74	
2025-01-15 11:52:29.81	256.69	25.74	
2025-01-15 11:52:30.01	256.74	25.75	
2025-01-15 11:52:30.21	256.80	25.76	
2025-01-15 11:52:30.42	256.87	25.77	
2025-01-15 11:52:30.62	256.92	25.77	
2025-01-15 11:52:30.82	256.98	25.78	
2025-01-15 11:52:31.03	257.04	25.79	
2025-01-15 11:52:31.23	257.10	25.79	
2025-01-15 11:52:31.43	257.16	25.80	
2025-01-15 11:52:31.63	257.22	25.81	
2025-01-15 11:52:31.84	257.28	25.82	
2025-01-15 11:52:32.04	257.34	25.82	
2025-01-15 11:52:32.24	257.40	25.83	
2025-01-15 11:52:32.45	257.46	25.84	
2025-01-15 11:52:32.65	257.52	25.84	
2025-01-15 11:52:32.85	257.58	25.85	
2025-01-15 11:52:33.06	257.64	25.86	
2025-01-15 11:52:33.26	257.70	25.86	
2025-01-15 11:52:33.46	257.76	25.87	
2025-01-15 11:52:33.66	257.82	25.88	
2025-01-15 11:52:33.87	257.88	25.88	
2025-01-15 11:52:34.07	257.94	25.89	
2025-01-15 11:52:34.27	258.00	25.90	
2025-01-15 11:52:34.48	258.06	25.90	
2025-01-15 11:52:34.68	258.12	25.91	
2025-01-15 11:52:34.88	258.18	25.92	
2025-01-15 11:52:35.08	258.24	25.92	
2025-01-15 11:52:35.29	258.30	25.93	
2025-01-15 11:52:35.49	258.36	25.94	
2025-01-15 11:52:35.69	258.42	25.94	
2025-01-15 11:52:35.90	258.49	25.95	
2025-01-15 11:52:36.10	258.54	25.96	
2025-01-15 11:52:36.30	258.60	25.96	
2025-01-15 11:52:36.51	258.67	25.97	
2025-01-15 11:52:36.71	258.73	25.97	
2025-01-15 11:52:36.91	258.79	25.98	
2025-01-15 11:52:37.11	258.85	25.99	
2025-01-15 11:52:37.32	258.91	25.99	
2025-01-15 11:52:37.52	258.97	26.00	
2025-01-15 11:52:37.72	259.03	26.01	
2025-01-15 11:52:37.93	259.09	26.01	
2025-01-15 11:52:38.13	259.15	26.02	
2025-01-15 11:52:38.33	259.21	26.02	
2025-01-15 11:52:38.53	259.27	26.03	
2025-01-15 11:52:38.74	259.33	26.04	
2025-01-15 11:52:38.94	259.39	26.04	
2025-01-15 11:52:39.14	259.45	26.05	
2025-01-15 11:52:39.35	259.51	26.05	
2025-01-15 11:52:39.55	259.57	26.06	
2025-01-15 11:52:39.75	259.63	26.06	
2025-01-15 11:52:39.96	259.70	26.07	
2025-01-15 11:52:40.16	259.76	26.08	
2025-01-15 11:52:40.36	259.82	26.08	
2025-01-15 11:52:40.56	259.88	26.09	
2025-01-15 11:52:40.77	259.94	26.09	
2025-01-15 11:52:40.97	260.00	26.10	
2025-01-15 11:52:41.17	260.06	26.10	
2025-01-15 11:52:41.38	260.12	26.11	
2025-01-15 11:52:41.58	260.18	26.12	
2025-01-15 11:52:41.78	260.24	26.12	
2025-01-15 11:52:41.99	260.31	26.13	
2025-01-15 11:52:42.19	260.37	26.13	
