passes_logs/2025/01/15/SPB_Silybum_02/SPB_Silybum_02__20250115_131229_AQUA_rec.log

#Pass ID: 20250115_131229_AQUA
#Satellite: AQUA
#Configuration: AQUA
#Start time: 2025-01-15 13:12:30

#Version: 2.0.20230423
#Station: SPB_Silybum_02
#Location: 30.233357 lon 59.946436 lat
#TLE: 1 27424U 02022A   25014.86211101  .00001670  00000+0  35273-3 0  9993
#TLE: 2 27424  98.3588 331.5248 0001714 111.5422 273.3352 14.60681448207609

#Time	Az	El	Level	Level2	SNR	BER	Gain	Gain2
2025-01-15 13:12:32.90	220.68	4.17	
2025-01-15 13:12:33.10	220.70	4.18	
2025-01-15 13:12:33.30	220.72	4.19	
2025-01-15 13:12:33.50	220.75	4.20	
2025-01-15 13:12:33.71	220.77	4.22	
2025-01-15 13:12:33.91	220.79	4.23	
2025-01-15 13:12:34.11	220.81	4.24	
2025-01-15 13:12:34.32	220.83	4.25	
2025-01-15 13:12:34.52	220.85	4.26	
2025-01-15 13:12:34.72	220.88	4.27	
2025-01-15 13:12:34.93	220.90	4.28	
2025-01-15 13:12:35.13	220.92	4.29	
2025-01-15 13:12:35.33	220.94	4.31	
2025-01-15 13:12:35.53	220.96	4.32	
2025-01-15 13:12:35.74	220.99	4.33	
2025-01-15 13:12:35.94	221.01	4.34	
2025-01-15 13:12:36.14	221.03	4.35	
2025-01-15 13:12:36.35	221.05	4.36	
2025-01-15 13:12:36.55	221.07	4.37	
2025-01-15 13:12:36.75	221.09	4.39	
2025-01-15 13:12:36.95	221.12	4.40	
2025-01-15 13:12:37.16	221.14	4.41	
2025-01-15 13:12:37.36	221.16	4.42	
2025-01-15 13:12:37.56	221.18	4.43	
2025-01-15 13:12:37.77	221.20	4.44	
2025-01-15 13:12:37.97	221.23	4.45	
2025-01-15 13:12:38.17	221.25	4.46	
2025-01-15 13:12:38.38	221.27	4.48	
2025-01-15 13:12:38.58	221.29	4.49	
2025-01-15 13:12:38.78	221.31	4.50	
2025-01-15 13:12:38.98	221.34	4.51	
2025-01-15 13:12:39.19	221.36	4.52	
2025-01-15 13:12:39.39	221.38	4.53	
2025-01-15 13:12:39.59	221.40	4.54	
2025-01-15 13:12:39.80	221.43	4.56	
2025-01-15 13:12:40.00	221.45	4.57	
2025-01-15 13:12:40.20	221.47	4.58	
2025-01-15 13:12:40.41	221.49	4.59	
2025-01-15 13:12:40.61	221.51	4.60	
2025-01-15 13:12:40.81	221.54	4.61	
2025-01-15 13:12:41.01	221.56	4.62	
2025-01-15 13:12:41.22	221.58	4.64	
2025-01-15 13:12:41.42	221.60	4.65	
2025-01-15 13:12:41.62	221.62	4.66	
2025-01-15 13:12:41.83	221.65	4.67	
2025-01-15 13:12:42.03	221.67	4.68	
2025-01-15 13:12:42.23	221.69	4.69	
2025-01-15 13:12:42.43	221.71	4.70	
2025-01-15 13:12:42.64	221.74	4.72	
2025-01-15 13:12:42.84	221.76	4.73	
2025-01-15 13:12:43.04	221.78	4.74	
2025-01-15 13:12:43.25	221.81	4.75	
2025-01-15 13:12:43.45	221.83	4.76	
2025-01-15 13:12:43.65	221.85	4.77	
2025-01-15 13:12:43.86	221.87	4.78	
2025-01-15 13:12:44.06	221.89	4.80	
2025-01-15 13:12:44.26	221.92	4.81	
2025-01-15 13:12:44.46	221.94	4.82	
2025-01-15 13:12:44.67	221.96	4.83	
2025-01-15 13:12:44.87	221.99	4.84	
2025-01-15 13:12:45.07	222.01	4.85	
2025-01-15 13:12:45.28	222.03	4.86	
2025-01-15 13:12:45.48	222.05	4.88	
2025-01-15 13:12:45.68	222.08	4.89	
2025-01-15 13:12:45.88	222.10	4.90	
2025-01-15 13:12:46.09	222.12	4.91	
2025-01-15 13:12:46.29	222.14	4.92	
2025-01-15 13:12:46.49	222.17	4.93	
2025-01-15 13:12:46.70	222.19	4.94	
2025-01-15 13:12:46.90	222.21	4.96	
2025-01-15 13:12:47.10	222.24	4.97	
2025-01-15 13:12:47.31	222.26	4.98	
2025-01-15 13:12:47.51	222.28	4.99	
2025-01-15 13:12:47.71	222.30	5.00	
2025-01-15 13:12:47.91	222.33	5.01	
2025-01-15 13:12:48.12	222.35	5.03	
2025-01-15 13:12:48.32	222.37	5.04	
2025-01-15 13:12:48.52	222.40	5.05	
2025-01-15 13:12:48.73	222.42	5.06	
2025-01-15 13:12:48.93	222.44	5.07	
2025-01-15 13:12:49.13	222.46	5.08	
2025-01-15 13:12:49.33	222.49	5.09	
2025-01-15 13:12:49.54	222.51	5.11	
2025-01-15 13:12:49.74	222.53	5.12	
2025-01-15 13:12:49.94	222.56	5.13	
2025-01-15 13:12:50.15	222.58	5.14	
2025-01-15 13:12:50.35	222.60	5.15	
2025-01-15 13:12:50.55	222.63	5.16	
2025-01-15 13:12:50.76	222.65	5.17	
2025-01-15 13:12:50.96	222.67	5.19	
2025-01-15 13:12:51.16	222.70	5.20	
2025-01-15 13:12:51.36	222.72	5.21	
2025-01-15 13:12:51.57	222.74	5.22	
2025-01-15 13:12:51.77	222.77	5.23	
2025-01-15 13:12:51.97	222.79	5.24	
2025-01-15 13:12:52.18	222.81	5.26	
2025-01-15 13:12:52.38	222.84	5.27	
2025-01-15 13:12:52.58	222.86	5.28	
2025-01-15 13:12:52.79	222.88	5.29	
2025-01-15 13:12:52.99	222.91	5.30	
2025-01-15 13:12:53.19	222.93	5.31	
2025-01-15 13:12:53.39	222.95	5.32	
2025-01-15 13:12:53.60	222.98	5.34	
2025-01-15 13:12:53.80	223.00	5.35	
2025-01-15 13:12:54.00	223.02	5.36	
2025-01-15 13:12:54.21	223.05	5.37	
2025-01-15 13:12:54.41	223.07	5.38	
2025-01-15 13:12:54.61	223.09	5.39	
2025-01-15 13:12:54.81	223.12	5.40	
2025-01-15 13:12:55.02	223.14	5.42	
2025-01-15 13:12:55.22	223.16	5.43	
2025-01-15 13:12:55.42	223.19	5.44	
2025-01-15 13:12:55.63	223.21	5.45	
2025-01-15 13:12:55.83	223.24	5.46	
2025-01-15 13:12:56.03	223.26	5.47	
2025-01-15 13:12:56.24	223.28	5.49	
2025-01-15 13:12:56.44	223.31	5.50	
2025-01-15 13:12:56.64	223.33	5.51	
2025-01-15 13:12:56.84	223.35	5.52	
2025-01-15 13:12:57.05	223.38	5.53	
2025-01-15 13:12:57.25	223.40	5.54	
2025-01-15 13:12:57.45	223.43	5.55	
2025-01-15 13:12:57.66	223.45	5.57	
2025-01-15 13:12:57.86	223.47	5.58	
2025-01-15 13:12:58.06	223.50	5.59	
2025-01-15 13:12:58.26	223.52	5.60	
2025-01-15 13:12:58.47	223.55	5.61	
2025-01-15 13:12:58.67	223.57	5.62	
2025-01-15 13:12:58.87	223.59	5.64	
2025-01-15 13:12:59.08	223.62	5.65	
2025-01-15 13:12:59.28	223.64	5.66	
2025-01-15 13:12:59.48	223.66	5.67	
2025-01-15 13:12:59.69	223.69	5.68	
2025-01-15 13:12:59.89	223.71	5.69	
2025-01-15 13:13:00.09	223.74	5.71	
2025-01-15 13:13:00.29	223.76	5.72	
2025-01-15 13:13:00.50	223.79	5.73	
2025-01-15 13:13:00.70	223.81	5.74	
2025-01-15 13:13:00.90	223.83	5.75	
2025-01-15 13:13:01.11	223.86	5.76	
2025-01-15 13:13:01.31	223.88	5.77	
2025-01-15 13:13:01.51	223.91	5.79	
2025-01-15 13:13:01.71	223.93	5.80	
2025-01-15 13:13:01.92	223.95	5.81	
2025-01-15 13:13:02.12	223.98	5.82	
2025-01-15 13:13:02.32	224.00	5.83	
2025-01-15 13:13:02.53	224.03	5.84	
2025-01-15 13:13:02.73	224.05	5.86	
2025-01-15 13:13:02.93	224.08	5.87	
2025-01-15 13:13:03.14	224.10	5.88	
2025-01-15 13:13:03.34	224.13	5.89	
2025-01-15 13:13:03.54	224.15	5.90	
2025-01-15 13:13:03.74	224.17	5.91	
2025-01-15 13:13:03.95	224.20	5.93	
2025-01-15 13:13:04.15	224.22	5.94	
2025-01-15 13:13:04.35	224.25	5.95	
2025-01-15 13:13:04.56	224.27	5.96	
2025-01-15 13:13:04.76	224.30	5.97	
2025-01-15 13:13:04.96	224.32	5.98	
2025-01-15 13:13:05.17	224.35	6.00	
2025-01-15 13:13:05.37	224.37	6.01	
2025-01-15 13:13:05.57	224.39	6.02	
2025-01-15 13:13:05.77	224.42	6.03	
2025-01-15 13:13:05.98	224.44	6.04	
2025-01-15 13:13:06.18	224.47	6.05	
2025-01-15 13:13:06.38	224.49	6.07	
2025-01-15 13:13:06.59	224.52	6.08	
2025-01-15 13:13:06.79	224.54	6.09	
2025-01-15 13:13:06.99	224.57	6.10	
2025-01-15 13:13:07.19	224.59	6.11	
2025-01-15 13:13:07.40	224.62	6.12	
2025-01-15 13:13:07.60	224.64	6.14	
2025-01-15 13:13:07.80	224.67	6.15	
2025-01-15 13:13:08.01	224.69	6.16	
2025-01-15 13:13:08.21	224.72	6.17	
2025-01-15 13:13:08.41	224.74	6.18	
2025-01-15 13:13:08.62	224.77	6.19	
2025-01-15 13:13:08.82	224.79	6.21	
2025-01-15 13:13:09.02	224.82	6.22	
2025-01-15 13:13:09.22	224.84	6.23	
2025-01-15 13:13:09.43	224.87	6.24	
2025-01-15 13:13:09.63	224.89	6.25	
2025-01-15 13:13:09.83	224.92	6.26	
2025-01-15 13:13:10.04	224.94	6.28	
2025-01-15 13:13:10.24	224.97	6.29	
2025-01-15 13:13:10.44	224.99	6.30	
2025-01-15 13:13:10.64	225.02	6.31	
2025-01-15 13:13:10.85	225.04	6.32	
2025-01-15 13:13:11.05	225.07	6.33	
2025-01-15 13:13:11.25	225.09	6.34	
2025-01-15 13:13:11.46	225.12	6.36	
2025-01-15 13:13:11.66	225.14	6.37	
2025-01-15 13:13:11.86	225.17	6.38	
2025-01-15 13:13:12.07	225.19	6.39	
2025-01-15 13:13:12.27	225.22	6.40	
2025-01-15 13:13:12.47	225.24	6.42	
2025-01-15 13:13:12.67	225.27	6.43	
2025-01-15 13:13:12.88	225.30	6.44	
2025-01-15 13:13:13.08	225.32	6.45	
2025-01-15 13:13:13.28	225.35	6.46	
2025-01-15 13:13:13.49	225.37	6.47	
2025-01-15 13:13:13.69	225.40	6.49	
2025-01-15 13:13:13.89	225.42	6.50	
2025-01-15 13:13:14.09	225.45	6.51	
2025-01-15 13:13:14.30	225.47	6.52	
2025-01-15 13:13:14.50	225.50	6.53	
2025-01-15 13:13:14.70	225.52	6.54	
2025-01-15 13:13:14.91	225.55	6.56	
2025-01-15 13:13:15.11	225.58	6.57	
2025-01-15 13:13:15.31	225.60	6.58	
2025-01-15 13:13:15.52	225.63	6.59	
2025-01-15 13:13:15.72	225.65	6.60	
2025-01-15 13:13:15.92	225.68	6.61	
2025-01-15 13:13:16.12	225.70	6.63	
2025-01-15 13:13:16.33	225.73	6.64	
2025-01-15 13:13:16.53	225.76	6.65	
2025-01-15 13:13:16.73	225.78	6.66	
2025-01-15 13:13:16.94	225.81	6.67	
2025-01-15 13:13:17.14	225.83	6.68	
2025-01-15 13:13:17.34	225.86	6.70	
2025-01-15 13:13:17.55	225.89	6.71	
2025-01-15 13:13:17.75	225.91	6.72	
2025-01-15 13:13:17.95	225.94	6.73	
2025-01-15 13:13:18.15	225.96	6.74	
2025-01-15 13:13:18.36	225.99	6.75	
2025-01-15 13:13:18.56	226.01	6.77	
2025-01-15 13:13:18.76	226.04	6.78	
2025-01-15 13:13:18.97	226.07	6.79	
2025-01-15 13:13:19.17	226.09	6.80	
2025-01-15 13:13:19.37	226.12	6.81	
2025-01-15 13:13:19.57	226.14	6.82	
2025-01-15 13:13:19.78	226.17	6.84	
2025-01-15 13:13:19.98	226.20	6.85	
2025-01-15 13:13:20.18	226.22	6.86	
2025-01-15 13:13:20.39	226.25	6.87	
2025-01-15 13:13:20.59	226.28	6.88	
2025-01-15 13:13:20.79	226.30	6.90	
2025-01-15 13:13:21.00	226.33	6.91	
2025-01-15 13:13:21.20	226.36	6.92	
2025-01-15 13:13:21.40	226.38	6.93	
2025-01-15 13:13:21.60	226.41	6.94	
2025-01-15 13:13:21.81	226.43	6.95	
2025-01-15 13:13:22.01	226.46	6.97	
2025-01-15 13:13:22.21	226.49	6.98	
2025-01-15 13:13:22.42	226.51	6.99	
2025-01-15 13:13:22.62	226.54	7.00	
2025-01-15 13:13:22.82	226.57	7.01	
2025-01-15 13:13:23.02	226.59	7.02	
2025-01-15 13:13:23.23	226.62	7.04	
2025-01-15 13:13:23.43	226.65	7.05	
2025-01-15 13:13:23.63	226.67	7.06	
2025-01-15 13:13:23.84	226.70	7.07	
2025-01-15 13:13:24.04	226.73	7.08	
2025-01-15 13:13:24.24	226.75	7.09	
2025-01-15 13:13:24.45	226.78	7.11	
2025-01-15 13:13:24.65	226.81	7.12	
2025-01-15 13:13:24.85	226.83	7.13	
2025-01-15 13:13:25.05	226.86	7.14	
2025-01-15 13:13:25.26	226.89	7.15	
2025-01-15 13:13:25.46	226.91	7.17	
2025-01-15 13:13:25.66	226.94	7.18	
2025-01-15 13:13:25.87	226.97	7.19	
2025-01-15 13:13:26.07	226.99	7.20	
2025-01-15 13:13:26.27	227.02	7.21	
2025-01-15 13:13:26.47	227.05	7.22	
2025-01-15 13:13:26.68	227.07	7.24	
2025-01-15 13:13:26.88	227.10	7.25	
2025-01-15 13:13:27.08	227.13	7.26	
2025-01-15 13:13:27.29	227.15	7.27	
2025-01-15 13:13:27.49	227.18	7.28	
2025-01-15 13:13:27.69	227.21	7.29	
2025-01-15 13:13:27.90	227.24	7.31	
2025-01-15 13:13:28.10	227.26	7.32	
2025-01-15 13:13:28.30	227.29	7.33	
2025-01-15 13:13:28.50	227.32	7.34	
2025-01-15 13:13:28.71	227.34	7.35	
2025-01-15 13:13:28.91	227.37	7.37	
2025-01-15 13:13:29.11	227.40	7.38	
2025-01-15 13:13:29.32	227.43	7.39	
2025-01-15 13:13:29.52	227.45	7.40	
2025-01-15 13:13:29.72	227.48	7.41	
2025-01-15 13:13:29.93	227.51	7.42	
2025-01-15 13:13:30.13	227.53	7.44	
2025-01-15 13:13:30.33	227.56	7.45	
2025-01-15 13:13:30.53	227.59	7.46	
2025-01-15 13:13:30.74	227.62	7.47	
2025-01-15 13:13:30.94	227.64	7.48	
2025-01-15 13:13:31.14	227.67	7.49	
2025-01-15 13:13:31.35	227.70	7.51	
2025-01-15 13:13:31.55	227.73	7.52	
2025-01-15 13:13:31.75	227.75	7.53	
2025-01-15 13:13:31.95	227.78	7.54	
2025-01-15 13:13:32.16	227.81	7.55	
2025-01-15 13:13:32.36	227.84	7.57	
2025-01-15 13:13:32.56	227.86	7.58	
2025-01-15 13:13:32.77	227.89	7.59	
2025-01-15 13:13:32.97	227.92	7.60	
2025-01-15 13:13:33.17	227.95	7.61	
2025-01-15 13:13:33.38	227.97	7.63	
2025-01-15 13:13:33.58	228.00	7.64	
2025-01-15 13:13:33.78	228.03	7.65	
2025-01-15 13:13:33.98	228.06	7.66	
2025-01-15 13:13:34.19	228.08	7.67	
2025-01-15 13:13:34.39	228.11	7.68	
2025-01-15 13:13:34.59	228.14	7.70	
2025-01-15 13:13:34.80	228.17	7.71	
2025-01-15 13:13:35.00	228.20	7.72	
2025-01-15 13:13:35.20	228.22	7.73	
2025-01-15 13:13:35.40	228.25	7.74	
2025-01-15 13:13:35.61	228.28	7.75	
2025-01-15 13:13:35.81	228.31	7.77	
2025-01-15 13:13:36.01	228.33	7.78	
2025-01-15 13:13:36.22	228.36	7.79	
2025-01-15 13:13:36.42	228.39	7.80	
2025-01-15 13:13:36.62	228.42	7.81	
2025-01-15 13:13:36.83	228.45	7.83	
2025-01-15 13:13:37.03	228.48	7.84	
2025-01-15 13:13:37.23	228.50	7.85	
2025-01-15 13:13:37.43	228.53	7.86	
2025-01-15 13:13:37.64	228.56	7.87	
2025-01-15 13:13:37.84	228.59	7.88	
2025-01-15 13:13:38.04	228.62	7.90	
2025-01-15 13:13:38.25	228.64	7.91	
2025-01-15 13:13:38.45	228.67	7.92	
2025-01-15 13:13:38.65	228.70	7.93	
2025-01-15 13:13:38.85	228.73	7.94	
2025-01-15 13:13:39.06	228.76	7.96	
2025-01-15 13:13:39.26	228.79	7.97	
2025-01-15 13:13:39.46	228.81	7.98	
2025-01-15 13:13:39.67	228.84	7.99	
2025-01-15 13:13:39.87	228.87	8.00	
2025-01-15 13:13:40.07	228.90	8.01	
2025-01-15 13:13:40.28	228.93	8.03	
2025-01-15 13:13:40.48	228.96	8.04	
2025-01-15 13:13:40.68	228.98	8.05	
2025-01-15 13:13:40.88	229.01	8.06	
2025-01-15 13:13:41.09	229.04	8.07	
2025-01-15 13:13:41.29	229.07	8.09	
2025-01-15 13:13:41.49	229.10	8.10	
2025-01-15 13:13:41.70	229.13	8.11	
2025-01-15 13:13:41.90	229.16	8.12	
2025-01-15 13:13:42.10	229.18	8.13	
2025-01-15 13:13:42.31	229.21	8.14	
2025-01-15 13:13:42.51	229.24	8.16	
2025-01-15 13:13:42.71	229.27	8.17	
2025-01-15 13:13:42.91	229.30	8.18	
2025-01-15 13:13:43.12	229.33	8.19	
2025-01-15 13:13:43.32	229.36	8.20	
2025-01-15 13:13:43.52	229.39	8.22	
2025-01-15 13:13:43.73	229.42	8.23	
2025-01-15 13:13:43.93	229.44	8.24	
2025-01-15 13:13:44.13	229.47	8.25	
2025-01-15 13:13:44.33	229.50	8.26	
2025-01-15 13:13:44.54	229.53	8.27	
2025-01-15 13:13:44.74	229.56	8.29	
2025-01-15 13:13:44.94	229.59	8.30	
2025-01-15 13:13:45.15	229.62	8.31	
2025-01-15 13:13:45.35	229.65	8.32	
2025-01-15 13:13:45.55	229.68	8.33	
2025-01-15 13:13:45.76	229.71	8.35	
2025-01-15 13:13:45.96	229.73	8.36	
2025-01-15 13:13:46.16	229.76	8.37	
2025-01-15 13:13:46.36	229.79	8.38	
2025-01-15 13:13:46.57	229.82	8.39	
2025-01-15 13:13:46.77	229.85	8.40	
2025-01-15 13:13:46.97	229.88	8.42	
2025-01-15 13:13:47.18	229.91	8.43	
2025-01-15 13:13:47.38	229.94	8.44	
2025-01-15 13:13:47.58	229.97	8.45	
2025-01-15 13:13:47.78	230.00	8.46	
2025-01-15 13:13:47.99	230.03	8.48	
2025-01-15 13:13:48.19	230.06	8.49	
2025-01-15 13:13:48.39	230.09	8.50	
2025-01-15 13:13:48.60	230.12	8.51	
2025-01-15 13:13:48.80	230.14	8.52	
2025-01-15 13:13:49.00	230.17	8.53	
2025-01-15 13:13:53.85	230.89	8.82	
2025-01-15 13:13:54.05	230.92	8.83	
2025-01-15 13:13:54.25	230.95	8.84	
2025-01-15 13:13:54.45	230.98	8.85	
2025-01-15 13:13:54.66	231.01	8.86	
2025-01-15 13:13:54.86	231.04	8.88	
2025-01-15 13:13:55.06	231.07	8.89	
2025-01-15 13:13:55.27	231.10	8.90	
2025-01-15 13:13:55.47	231.13	8.91	
2025-01-15 13:13:55.67	231.16	8.92	
2025-01-15 13:13:55.87	231.19	8.93	
2025-01-15 13:13:56.08	231.22	8.95	
2025-01-15 13:13:56.28	231.25	8.96	
2025-01-15 13:13:56.48	231.28	8.97	
2025-01-15 13:13:56.69	231.31	8.98	
2025-01-15 13:13:56.89	231.34	8.99	
2025-01-15 13:13:57.09	231.37	9.01	
2025-01-15 13:13:57.30	231.40	9.02	
2025-01-15 13:13:57.50	231.43	9.03	
2025-01-15 13:13:57.70	231.46	9.04	
2025-01-15 13:13:57.90	231.49	9.05	
2025-01-15 13:13:58.11	231.53	9.06	
2025-01-15 13:13:58.31	231.56	9.08	
2025-01-15 13:13:58.51	231.59	9.09	
2025-01-15 13:13:58.72	231.62	9.10	
2025-01-15 13:13:58.92	231.65	9.11	
2025-01-15 13:13:59.12	231.68	9.12	
2025-01-15 13:13:59.32	231.71	9.14	
2025-01-15 13:13:59.53	231.74	9.15	
2025-01-15 13:13:59.73	231.77	9.16	
2025-01-15 13:13:59.93	231.80	9.17	
2025-01-15 13:14:00.14	231.83	9.18	
2025-01-15 13:14:00.34	231.86	9.19	
2025-01-15 13:14:00.54	231.89	9.21	
2025-01-15 13:14:00.75	231.93	9.22	
2025-01-15 13:14:00.95	231.96	9.23	
2025-01-15 13:14:01.15	231.99	9.24	
2025-01-15 13:14:01.35	232.02	9.25	
2025-01-15 13:14:01.56	232.05	9.27	
2025-01-15 13:14:01.76	232.08	9.28	
2025-01-15 13:14:01.96	232.11	9.29	
2025-01-15 13:14:02.17	232.14	9.30	
2025-01-15 13:14:02.37	232.17	9.31	
2025-01-15 13:14:02.57	232.21	9.32	
2025-01-15 13:14:02.78	232.24	9.34	
2025-01-15 13:14:02.98	232.27	9.35	
2025-01-15 13:14:03.18	232.30	9.36	
2025-01-15 13:14:03.38	232.33	9.37	
2025-01-15 13:14:03.59	232.36	9.38	
2025-01-15 13:14:03.79	232.39	9.40	
2025-01-15 13:14:03.99	232.43	9.41	
2025-01-15 13:14:04.20	232.46	9.42	
2025-01-15 13:14:04.40	232.49	9.43	
2025-01-15 13:14:04.60	232.52	9.44	
2025-01-15 13:14:04.80	232.55	9.45	
2025-01-15 13:14:05.01	232.58	9.47	
2025-01-15 13:14:05.21	232.61	9.48	
2025-01-15 13:14:05.41	232.65	9.49	
2025-01-15 13:14:05.62	232.68	9.50	
2025-01-15 13:14:05.82	232.71	9.51	
2025-01-15 13:14:06.02	232.74	9.52	
2025-01-15 13:14:06.23	232.77	9.54	
2025-01-15 13:14:06.43	232.81	9.55	
2025-01-15 13:14:06.63	232.84	9.56	
2025-01-15 13:14:06.83	232.87	9.57	
2025-01-15 13:14:07.04	232.90	9.58	
2025-01-15 13:14:07.24	232.93	9.60	
2025-01-15 13:14:07.44	232.96	9.61	
2025-01-15 13:14:07.65	233.00	9.62	
2025-01-15 13:14:07.85	233.03	9.63	
2025-01-15 13:14:08.05	233.06	9.64	
2025-01-15 13:14:08.25	233.09	9.65	
2025-01-15 13:14:08.46	233.12	9.67	
2025-01-15 13:14:08.66	233.16	9.68	
2025-01-15 13:14:08.86	233.19	9.69	
2025-01-15 13:14:09.07	233.22	9.70	
2025-01-15 13:14:09.27	233.25	9.71	
2025-01-15 13:14:09.47	233.28	9.72	
2025-01-15 13:14:09.68	233.32	9.74	
2025-01-15 13:14:09.88	233.35	9.75	
2025-01-15 13:14:10.08	233.38	9.76	
2025-01-15 13:14:10.28	233.41	9.77	
2025-01-15 13:14:10.49	233.45	9.78	
2025-01-15 13:14:10.69	233.48	9.80	
2025-01-15 13:14:10.89	233.51	9.81	
2025-01-15 13:14:11.10	233.54	9.82	
2025-01-15 13:14:11.30	233.57	9.83	
2025-01-15 13:14:11.50	233.61	9.84	
2025-01-15 13:14:11.70	233.64	9.85	
2025-01-15 13:14:11.91	233.67	9.87	
2025-01-15 13:14:12.11	233.70	9.88	
2025-01-15 13:14:12.31	233.74	9.89	
2025-01-15 13:14:12.52	233.77	9.90	
2025-01-15 13:14:12.72	233.80	9.91	
2025-01-15 13:14:12.92	233.83	9.92	
2025-01-15 13:14:13.13	233.87	9.94	
2025-01-15 13:14:13.33	233.90	9.95	
2025-01-15 13:14:13.53	233.93	9.96	
2025-01-15 13:14:13.73	233.96	9.97	
2025-01-15 13:14:13.94	234.00	9.98	
2025-01-15 13:14:14.14	234.03	10.00	
2025-01-15 13:14:14.34	234.06	10.01	
2025-01-15 13:14:14.55	234.10	10.02	
2025-01-15 13:14:14.75	234.13	10.03	
2025-01-15 13:14:14.95	234.16	10.04	
2025-01-15 13:14:15.16	234.20	10.05	
2025-01-15 13:14:15.36	234.23	10.07	
2025-01-15 13:14:15.56	234.26	10.08	
2025-01-15 13:14:15.76	234.29	10.09	
2025-01-15 13:14:15.97	234.33	10.10	
2025-01-15 13:14:16.17	234.36	10.11	
2025-01-15 13:14:16.37	234.39	10.12	
2025-01-15 13:14:16.58	234.43	10.14	
2025-01-15 13:14:16.78	234.46	10.15	
2025-01-15 13:14:16.98	234.49	10.16	
2025-01-15 13:14:17.18	234.53	10.17	
2025-01-15 13:14:17.39	234.56	10.18	
2025-01-15 13:14:17.59	234.59	10.19	
2025-01-15 13:14:17.79	234.63	10.21	
2025-01-15 13:14:18.00	234.66	10.22	
2025-01-15 13:14:18.20	234.69	10.23	
2025-01-15 13:14:18.40	234.73	10.24	
2025-01-15 13:14:18.61	234.76	10.25	
2025-01-15 13:14:18.81	234.79	10.26	
2025-01-15 13:14:19.01	234.83	10.28	
2025-01-15 13:14:19.21	234.86	10.29	
2025-01-15 13:14:19.42	234.89	10.30	
2025-01-15 13:14:19.62	234.93	10.31	
2025-01-15 13:14:19.82	234.96	10.32	
2025-01-15 13:14:20.03	234.99	10.33	
2025-01-15 13:14:20.23	235.03	10.35	
2025-01-15 13:14:20.43	235.06	10.36	
2025-01-15 13:14:20.63	235.09	10.37	
2025-01-15 13:14:20.84	235.13	10.38	
2025-01-15 13:14:21.04	235.16	10.39	
2025-01-15 13:14:21.24	235.20	10.40	
2025-01-15 13:14:21.45	235.23	10.42	
2025-01-15 13:14:21.65	235.26	10.43	
2025-01-15 13:14:21.85	235.30	10.44	
2025-01-15 13:14:22.06	235.33	10.45	
2025-01-15 13:14:22.26	235.37	10.46	
2025-01-15 13:14:22.46	235.40	10.47	
2025-01-15 13:14:22.66	235.43	10.49	
2025-01-15 13:14:22.87	235.47	10.50	
2025-01-15 13:14:23.07	235.50	10.51	
2025-01-15 13:14:23.27	235.53	10.52	
2025-01-15 13:14:23.48	235.57	10.53	
2025-01-15 13:14:23.68	235.60	10.54	
2025-01-15 13:14:23.88	235.64	10.56	
2025-01-15 13:14:24.09	235.67	10.57	
2025-01-15 13:14:24.29	235.71	10.58	
2025-01-15 13:14:24.49	235.74	10.59	
2025-01-15 13:14:24.69	235.77	10.60	
2025-01-15 13:14:24.90	235.81	10.61	
2025-01-15 13:14:25.10	235.84	10.63	
2025-01-15 13:14:25.30	235.88	10.64	
2025-01-15 13:14:25.51	235.91	10.65	
2025-01-15 13:14:25.71	235.95	10.66	
2025-01-15 13:14:25.91	235.98	10.67	
2025-01-15 13:14:26.11	236.01	10.68	
2025-01-15 13:14:26.32	236.05	10.70	
2025-01-15 13:14:26.52	236.08	10.71	
2025-01-15 13:14:26.72	236.12	10.72	
2025-01-15 13:14:26.93	236.15	10.73	
2025-01-15 13:14:27.13	236.19	10.74	
2025-01-15 13:14:27.33	236.22	10.75	
2025-01-15 13:14:27.54	236.26	10.77	
2025-01-15 13:14:27.74	236.29	10.78	
2025-01-15 13:14:27.94	236.33	10.79	
2025-01-15 13:14:28.14	236.36	10.80	
2025-01-15 13:14:28.35	236.40	10.81	
2025-01-15 13:14:28.55	236.43	10.82	
2025-01-15 13:14:28.75	236.46	10.83	
2025-01-15 13:14:28.96	236.50	10.85	
2025-01-15 13:14:29.16	236.53	10.86	
2025-01-15 13:14:29.36	236.57	10.87	
2025-01-15 13:14:29.56	236.60	10.88	
2025-01-15 13:14:29.77	236.64	10.89	
2025-01-15 13:14:29.97	236.67	10.90	
2025-01-15 13:14:30.17	236.71	10.91	
2025-01-15 13:14:30.38	236.74	10.93	
2025-01-15 13:14:30.58	236.78	10.94	
2025-01-15 13:14:30.78	236.81	10.95	
2025-01-15 13:14:30.99	236.85	10.96	
2025-01-15 13:14:31.19	236.88	10.97	
2025-01-15 13:14:31.39	236.92	10.98	
2025-01-15 13:14:31.59	236.95	11.00	
2025-01-15 13:14:31.80	236.99	11.01	
2025-01-15 13:14:32.00	237.03	11.02	
2025-01-15 13:14:32.20	237.06	11.03	
2025-01-15 13:14:32.41	237.10	11.04	
2025-01-15 13:14:32.61	237.13	11.05	
2025-01-15 13:14:32.81	237.17	11.06	
2025-01-15 13:14:33.01	237.20	11.08	
2025-01-15 13:14:33.22	237.24	11.09	
2025-01-15 13:14:33.42	237.27	11.10	
2025-01-15 13:14:33.62	237.31	11.11	
2025-01-15 13:14:33.83	237.34	11.12	
2025-01-15 13:14:34.03	237.38	11.13	
2025-01-15 13:14:34.23	237.41	11.15	
2025-01-15 13:14:34.44	237.45	11.16	
2025-01-15 13:14:34.64	237.49	11.17	
2025-01-15 13:14:34.84	237.52	11.18	
2025-01-15 13:14:35.04	237.56	11.19	
2025-01-15 13:14:35.25	237.59	11.20	
2025-01-15 13:14:35.45	237.63	11.21	
2025-01-15 13:14:35.65	237.66	11.23	
2025-01-15 13:14:35.86	237.70	11.24	
2025-01-15 13:14:36.06	237.74	11.25	
2025-01-15 13:14:36.26	237.77	11.26	
2025-01-15 13:14:36.47	237.81	11.27	
2025-01-15 13:14:36.67	237.84	11.28	
2025-01-15 13:14:36.87	237.88	11.29	
2025-01-15 13:14:37.07	237.92	11.31	
2025-01-15 13:14:37.28	237.95	11.32	
2025-01-15 13:14:37.48	237.99	11.33	
2025-01-15 13:14:37.68	238.02	11.34	
2025-01-15 13:14:37.89	238.06	11.35	
2025-01-15 13:14:38.09	238.10	11.36	
2025-01-15 13:14:38.29	238.13	11.37	
2025-01-15 13:14:38.49	238.17	11.39	
2025-01-15 13:14:38.70	238.21	11.40	
2025-01-15 13:14:38.90	238.24	11.41	
2025-01-15 13:14:39.10	238.28	11.42	
2025-01-15 13:14:39.31	238.32	11.43	
2025-01-15 13:14:39.51	238.35	11.44	
2025-01-15 13:14:39.71	238.39	11.45	
2025-01-15 13:14:39.92	238.42	11.47	
2025-01-15 13:14:40.12	238.46	11.48	
2025-01-15 13:14:40.32	238.50	11.49	
2025-01-15 13:14:40.52	238.53	11.50	
2025-01-15 13:14:40.73	238.57	11.51	
2025-01-15 13:14:40.93	238.61	11.52	
2025-01-15 13:14:41.13	238.64	11.53	
2025-01-15 13:14:41.34	238.68	11.55	
2025-01-15 13:14:41.54	238.72	11.56	
2025-01-15 13:14:41.74	238.75	11.57	
2025-01-15 13:14:41.94	238.79	11.58	
2025-01-15 13:14:42.15	238.83	11.59	
2025-01-15 13:14:42.35	238.86	11.60	
2025-01-15 13:14:42.55	238.90	11.61	
2025-01-15 13:14:42.76	238.94	11.62	
2025-01-15 13:14:42.96	238.97	11.64	
2025-01-15 13:14:43.16	239.01	11.65	
2025-01-15 13:14:43.37	239.05	11.66	
2025-01-15 13:14:43.57	239.08	11.67	
2025-01-15 13:14:43.77	239.12	11.68	
2025-01-15 13:14:43.97	239.16	11.69	
2025-01-15 13:14:44.18	239.20	11.70	
2025-01-15 13:14:44.38	239.23	11.71	
2025-01-15 13:14:44.58	239.27	11.73	
2025-01-15 13:14:44.79	239.31	11.74	
2025-01-15 13:14:44.99	239.34	11.75	
2025-01-15 13:14:45.19	239.38	11.76	
2025-01-15 13:14:45.39	239.42	11.77	
2025-01-15 13:14:45.60	239.46	11.78	
2025-01-15 13:14:45.80	239.49	11.79	
2025-01-15 13:14:46.00	239.53	11.80	
2025-01-15 13:14:46.21	239.57	11.82	
2025-01-15 13:14:46.41	239.60	11.83	
2025-01-15 13:14:46.61	239.64	11.84	
2025-01-15 13:14:46.82	239.68	11.85	
2025-01-15 13:14:47.02	239.72	11.86	
2025-01-15 13:14:47.22	239.75	11.87	
2025-01-15 13:14:47.42	239.79	11.88	
2025-01-15 13:14:47.63	239.83	11.89	
2025-01-15 13:14:47.83	239.87	11.91	
2025-01-15 13:14:48.03	239.90	11.92	
2025-01-15 13:14:48.24	239.94	11.93	
2025-01-15 13:14:48.44	239.98	11.94	
2025-01-15 13:14:48.64	240.02	11.95	
2025-01-15 13:14:48.85	240.06	11.96	
2025-01-15 13:14:49.05	240.09	11.97	
2025-01-15 13:14:49.25	240.13	11.98	
2025-01-15 13:14:49.45	240.17	12.00	
2025-01-15 13:14:49.66	240.21	12.01	
2025-01-15 13:14:49.86	240.24	12.02	
2025-01-15 13:14:50.06	240.28	12.03	
2025-01-15 13:14:50.27	240.32	12.04	
2025-01-15 13:14:50.47	240.36	12.05	
2025-01-15 13:14:50.67	240.39	12.06	
2025-01-15 13:14:50.87	240.43	12.07	
2025-01-15 13:14:51.08	240.47	12.08	
2025-01-15 13:14:51.28	240.51	12.10	
2025-01-15 13:14:51.48	240.55	12.11	
2025-01-15 13:14:51.69	240.59	12.12	
2025-01-15 13:14:51.89	240.62	12.13	
2025-01-15 13:14:52.09	240.66	12.14	
2025-01-15 13:14:52.30	240.70	12.15	
2025-01-15 13:14:52.50	240.74	12.16	
2025-01-15 13:14:52.70	240.78	12.17	
2025-01-15 13:14:52.90	240.81	12.18	
2025-01-15 13:14:53.11	240.85	12.20	
2025-01-15 13:14:53.31	240.89	12.21	
2025-01-15 13:14:53.51	240.93	12.22	
2025-01-15 13:14:53.72	240.97	12.23	
2025-01-15 13:14:53.92	241.01	12.24	
2025-01-15 13:14:54.12	241.05	12.25	
2025-01-15 13:14:54.32	241.08	12.26	
2025-01-15 13:14:54.53	241.12	12.27	
2025-01-15 13:14:54.73	241.16	12.28	
2025-01-15 13:14:54.93	241.20	12.29	
2025-01-15 13:14:55.14	241.24	12.31	
2025-01-15 13:14:55.34	241.28	12.32	
2025-01-15 13:14:55.54	241.32	12.33	
2025-01-15 13:14:55.75	241.36	12.34	
2025-01-15 13:14:55.95	241.39	12.35	
2025-01-15 13:14:56.15	241.43	12.36	
2025-01-15 13:14:56.35	241.47	12.37	
2025-01-15 13:14:56.56	241.51	12.38	
2025-01-15 13:14:56.76	241.55	12.39	
2025-01-15 13:14:56.96	241.59	12.40	
2025-01-15 13:14:57.17	241.63	12.42	
2025-01-15 13:14:57.37	241.67	12.43	
2025-01-15 13:14:57.57	241.70	12.44	
2025-01-15 13:14:57.77	241.74	12.45	
2025-01-15 13:14:57.98	241.78	12.46	
2025-01-15 13:14:58.18	241.82	12.47	
2025-01-15 13:14:58.38	241.86	12.48	
2025-01-15 13:14:58.59	241.90	12.49	
2025-01-15 13:14:58.79	241.94	12.50	
2025-01-15 13:14:58.99	241.98	12.51	
2025-01-15 13:14:59.20	242.02	12.53	
2025-01-15 13:14:59.40	242.06	12.54	
2025-01-15 13:14:59.60	242.10	12.55	
2025-01-15 13:14:59.80	242.13	12.56	
2025-01-15 13:15:00.01	242.18	12.57	
2025-01-15 13:15:00.21	242.21	12.58	
2025-01-15 13:15:00.41	242.25	12.59	
2025-01-15 13:15:00.62	242.29	12.60	
2025-01-15 13:15:00.82	242.33	12.61	
2025-01-15 13:15:01.02	242.37	12.62	
2025-01-15 13:15:01.23	242.41	12.63	
2025-01-15 13:15:01.43	242.45	12.64	
2025-01-15 13:15:01.63	242.49	12.66	
2025-01-15 13:15:01.83	242.53	12.67	
2025-01-15 13:15:02.04	242.57	12.68	
2025-01-15 13:15:02.24	242.61	12.69	
2025-01-15 13:15:02.44	242.65	12.70	
2025-01-15 13:15:02.65	242.69	12.71	
2025-01-15 13:15:02.85	242.73	12.72	
2025-01-15 13:15:03.05	242.77	12.73	
2025-01-15 13:15:03.25	242.81	12.74	
2025-01-15 13:15:03.46	242.85	12.75	
2025-01-15 13:15:03.66	242.89	12.76	
2025-01-15 13:15:03.86	242.93	12.77	
2025-01-15 13:15:04.07	242.97	12.79	
2025-01-15 13:15:04.27	243.01	12.80	
2025-01-15 13:15:04.47	243.05	12.81	
2025-01-15 13:15:04.68	243.09	12.82	
2025-01-15 13:15:04.88	243.13	12.83	
2025-01-15 13:15:05.08	243.17	12.84	
2025-01-15 13:15:05.28	243.21	12.85	
2025-01-15 13:15:05.50	243.25	12.86	
2025-01-15 13:15:05.70	243.29	12.87	
2025-01-15 13:15:05.90	243.33	12.88	
2025-01-15 13:15:06.11	243.37	12.89	
2025-01-15 13:15:06.31	243.41	12.90	
2025-01-15 13:15:06.51	243.45	12.91	
2025-01-15 13:15:06.72	243.49	12.92	
2025-01-15 13:15:06.92	243.53	12.94	
2025-01-15 13:15:07.12	243.57	12.95	
2025-01-15 13:15:07.33	243.62	12.96	
2025-01-15 13:15:07.53	243.66	12.97	
2025-01-15 13:15:07.73	243.70	12.98	
2025-01-15 13:15:07.93	243.74	12.99	
2025-01-15 13:15:08.14	243.78	13.00	
2025-01-15 13:15:08.34	243.82	13.01	
2025-01-15 13:15:08.54	243.86	13.02	
2025-01-15 13:15:08.75	243.90	13.03	
2025-01-15 13:15:08.95	243.94	13.04	
2025-01-15 13:15:09.15	243.98	13.05	
2025-01-15 13:15:09.35	244.02	13.06	
2025-01-15 13:15:09.56	244.06	13.07	
2025-01-15 13:15:09.76	244.10	13.08	
2025-01-15 13:15:09.96	244.14	13.09	
2025-01-15 13:15:10.17	244.18	13.10	
2025-01-15 13:15:10.37	244.22	13.12	
2025-01-15 13:15:10.57	244.27	13.13	
2025-01-15 13:15:10.78	244.31	13.14	
2025-01-15 13:15:10.98	244.35	13.15	
2025-01-15 13:15:11.18	244.39	13.16	
2025-01-15 13:15:11.38	244.43	13.17	
2025-01-15 13:15:11.59	244.47	13.18	
2025-01-15 13:15:11.79	244.51	13.19	
2025-01-15 13:15:11.99	244.55	13.20	
2025-01-15 13:15:12.20	244.60	13.21	
2025-01-15 13:15:12.40	244.64	13.22	
2025-01-15 13:15:12.60	244.68	13.23	
2025-01-15 13:15:12.80	244.72	13.24	
2025-01-15 13:15:13.01	244.76	13.25	
2025-01-15 13:15:13.21	244.80	13.26	
2025-01-15 13:15:13.41	244.84	13.27	
2025-01-15 13:15:13.62	244.88	13.28	
2025-01-15 13:15:13.82	244.92	13.29	
2025-01-15 13:15:14.02	244.97	13.30	
2025-01-15 13:15:14.23	245.01	13.31	
2025-01-15 13:15:14.43	245.05	13.32	
2025-01-15 13:15:14.63	245.09	13.33	
2025-01-15 13:15:14.83	245.13	13.34	
2025-01-15 13:15:15.04	245.17	13.36	
2025-01-15 13:15:15.24	245.22	13.37	
2025-01-15 13:15:15.44	245.26	13.38	
2025-01-15 13:15:15.65	245.30	13.39	
2025-01-15 13:15:15.85	245.34	13.40	
2025-01-15 13:15:16.05	245.38	13.41	
2025-01-15 13:15:16.25	245.42	13.42	
2025-01-15 13:15:16.46	245.47	13.43	
2025-01-15 13:15:16.66	245.51	13.44	
2025-01-15 13:15:16.86	245.55	13.45	
2025-01-15 13:15:17.07	245.59	13.46	
2025-01-15 13:15:17.27	245.63	13.47	
2025-01-15 13:15:17.47	245.67	13.48	
2025-01-15 13:15:17.68	245.72	13.49	
2025-01-15 13:15:17.88	245.76	13.50	
2025-01-15 13:15:18.08	245.80	13.51	
2025-01-15 13:15:18.28	245.84	13.52	
2025-01-15 13:15:18.49	245.89	13.53	
2025-01-15 13:15:18.69	245.93	13.54	
2025-01-15 13:15:18.89	245.97	13.55	
2025-01-15 13:15:19.10	246.01	13.56	
2025-01-15 13:15:19.30	246.05	13.57	
2025-01-15 13:15:19.50	246.10	13.58	
2025-01-15 13:15:19.71	246.14	13.59	
2025-01-15 13:15:19.91	246.18	13.60	
2025-01-15 13:15:20.11	246.22	13.61	
2025-01-15 13:15:20.31	246.27	13.62	
2025-01-15 13:15:20.52	246.31	13.63	
2025-01-15 13:15:20.72	246.35	13.64	
2025-01-15 13:15:20.92	246.39	13.65	
2025-01-15 13:15:21.13	246.44	13.66	
2025-01-15 13:15:21.33	246.48	13.67	
2025-01-15 13:15:21.53	246.52	13.68	
2025-01-15 13:15:21.73	246.56	13.69	
2025-01-15 13:15:21.94	246.61	13.70	
2025-01-15 13:15:22.14	246.65	13.71	
2025-01-15 13:15:22.34	246.69	13.72	
2025-01-15 13:15:22.55	246.74	13.73	
2025-01-15 13:15:22.75	246.78	13.74	
2025-01-15 13:15:22.95	246.82	13.75	
2025-01-15 13:15:23.16	246.86	13.76	
2025-01-15 13:15:23.36	246.91	13.77	
2025-01-15 13:15:23.56	246.95	13.78	
2025-01-15 13:15:23.76	246.99	13.79	
2025-01-15 13:15:23.97	247.03	13.80	
2025-01-15 13:15:24.17	247.08	13.81	
2025-01-15 13:15:24.37	247.12	13.82	
2025-01-15 13:15:24.58	247.16	13.83	
2025-01-15 13:15:24.78	247.21	13.84	
2025-01-15 13:15:24.98	247.25	13.85	
2025-01-15 13:15:25.18	247.29	13.86	
2025-01-15 13:15:25.39	247.34	13.87	
2025-01-15 13:15:25.59	247.38	13.88	
2025-01-15 13:15:25.79	247.42	13.89	
2025-01-15 13:15:26.00	247.47	13.90	
2025-01-15 13:15:26.20	247.51	13.91	
2025-01-15 13:15:26.40	247.55	13.92	
2025-01-15 13:15:26.61	247.60	13.93	
2025-01-15 13:15:26.81	247.64	13.94	
2025-01-15 13:15:27.01	247.68	13.95	
2025-01-15 13:15:27.21	247.72	13.96	
2025-01-15 13:15:27.42	247.77	13.97	
2025-01-15 13:15:27.62	247.81	13.98	
2025-01-15 13:15:27.82	247.85	13.99	
2025-01-15 13:15:28.03	247.90	14.00	
2025-01-15 13:15:28.23	247.94	14.01	
2025-01-15 13:15:28.43	247.99	14.02	
2025-01-15 13:15:28.63	248.03	14.03	
2025-01-15 13:15:28.84	248.07	14.04	
2025-01-15 13:15:29.04	248.12	14.05	
2025-01-15 13:15:29.24	248.16	14.06	
2025-01-15 13:15:29.45	248.21	14.07	
2025-01-15 13:15:29.65	248.25	14.08	
2025-01-15 13:15:29.85	248.29	14.08	
2025-01-15 13:15:30.06	248.34	14.09	
2025-01-15 13:15:30.26	248.38	14.10	
2025-01-15 13:15:30.46	248.42	14.11	
2025-01-15 13:15:30.66	248.47	14.12	
2025-01-15 13:15:30.87	248.51	14.13	
2025-01-15 13:15:31.07	248.56	14.14	
2025-01-15 13:15:31.27	248.60	14.15	
2025-01-15 13:15:31.48	248.64	14.16	
2025-01-15 13:15:31.68	248.69	14.17	
2025-01-15 13:15:31.88	248.73	14.18	
2025-01-15 13:15:32.09	248.78	14.19	
2025-01-15 13:15:32.29	248.82	14.20	
2025-01-15 13:15:32.49	248.86	14.21	
2025-01-15 13:15:32.69	248.91	14.22	
2025-01-15 13:15:32.90	248.95	14.23	
2025-01-15 13:15:33.10	249.00	14.24	
2025-01-15 13:15:33.30	249.04	14.25	
2025-01-15 13:15:33.51	249.09	14.26	
2025-01-15 13:15:33.71	249.13	14.27	
2025-01-15 13:15:33.91	249.17	14.28	
2025-01-15 13:15:34.11	249.22	14.28	
2025-01-15 13:15:34.32	249.26	14.29	
2025-01-15 13:15:34.52	249.31	14.30	
2025-01-15 13:15:34.72	249.35	14.31	
2025-01-15 13:15:34.93	249.40	14.32	
2025-01-15 13:15:35.13	249.44	14.33	
2025-01-15 13:15:35.33	249.48	14.34	
2025-01-15 13:15:35.54	249.53	14.35	
2025-01-15 13:15:35.74	249.58	14.36	
2025-01-15 13:15:35.94	249.62	14.37	
2025-01-15 13:15:36.14	249.66	14.38	
2025-01-15 13:15:36.35	249.71	14.39	
2025-01-15 13:15:36.55	249.75	14.40	
2025-01-15 13:15:36.75	249.80	14.41	
2025-01-15 13:15:36.96	249.84	14.42	
2025-01-15 13:15:37.16	249.89	14.42	
2025-01-15 13:15:37.36	249.93	14.43	
2025-01-15 13:15:37.56	249.98	14.44	
2025-01-15 13:15:37.77	250.02	14.45	
2025-01-15 13:15:37.97	250.07	14.46	
2025-01-15 13:15:38.17	250.11	14.47	
2025-01-15 13:15:38.38	250.16	14.48	
2025-01-15 13:15:38.58	250.20	14.49	
2025-01-15 13:15:38.78	250.25	14.50	
2025-01-15 13:15:38.99	250.29	14.51	
2025-01-15 13:15:39.19	250.34	14.52	
2025-01-15 13:15:39.39	250.38	14.53	
2025-01-15 13:15:39.59	250.43	14.53	
2025-01-15 13:15:39.80	250.47	14.54	
2025-01-15 13:15:40.00	250.52	14.55	
2025-01-15 13:15:40.20	250.56	14.56	
2025-01-15 13:15:40.41	250.61	14.57	
2025-01-15 13:15:40.61	250.65	14.58	
2025-01-15 13:15:40.81	250.70	14.59	
2025-01-15 13:15:41.02	250.75	14.60	
2025-01-15 13:15:41.22	250.79	14.61	
2025-01-15 13:15:41.42	250.84	14.62	
2025-01-15 13:15:41.62	250.88	14.62	
2025-01-15 13:15:41.83	250.93	14.63	
2025-01-15 13:15:42.03	250.97	14.64	
2025-01-15 13:15:42.23	251.02	14.65	
2025-01-15 13:15:42.44	251.06	14.66	
2025-01-15 13:15:42.64	251.11	14.67	
2025-01-15 13:15:42.84	251.15	14.68	
2025-01-15 13:15:43.04	251.20	14.69	
2025-01-15 13:15:43.25	251.25	14.70	
2025-01-15 13:15:43.45	251.29	14.71	
2025-01-15 13:15:43.65	251.34	14.71	
2025-01-15 13:15:43.86	251.38	14.72	
2025-01-15 13:15:44.06	251.43	14.73	
2025-01-15 13:15:44.26	251.47	14.74	
2025-01-15 13:15:44.47	251.52	14.75	
2025-01-15 13:15:44.67	251.57	14.76	
2025-01-15 13:15:44.87	251.61	14.77	
2025-01-15 13:15:45.07	251.66	14.78	
2025-01-15 13:15:45.28	251.71	14.78	
2025-01-15 13:15:45.48	251.75	14.79	
2025-01-15 13:15:45.68	251.80	14.80	
2025-01-15 13:15:45.89	251.84	14.81	
2025-01-15 13:15:46.09	251.89	14.82	
2025-01-15 13:15:46.29	251.93	14.83	
2025-01-15 13:15:46.49	251.98	14.84	
2025-01-15 13:15:46.70	252.03	14.85	
2025-01-15 13:15:46.90	252.07	14.85	
2025-01-15 13:15:47.10	252.12	14.86	
2025-01-15 13:15:47.31	252.17	14.87	
2025-01-15 13:15:47.51	252.21	14.88	
2025-01-15 13:15:47.71	252.26	14.89	
2025-01-15 13:15:47.92	252.31	14.90	
2025-01-15 13:15:48.12	252.35	14.91	
2025-01-15 13:15:48.32	252.40	14.91	
2025-01-15 13:15:48.52	252.44	14.92	
2025-01-15 13:15:48.73	252.49	14.93	
2025-01-15 13:15:48.93	252.54	14.94	
2025-01-15 13:15:49.13	252.58	14.95	
2025-01-15 13:15:49.34	252.63	14.96	
2025-01-15 13:15:49.54	252.68	14.97	
2025-01-15 13:15:49.74	252.72	14.97	
2025-01-15 13:15:49.94	252.77	14.98	
2025-01-15 13:15:50.15	252.82	14.99	
2025-01-15 13:15:50.35	252.86	15.00	
2025-01-15 13:15:50.55	252.91	15.01	
2025-01-15 13:15:50.76	252.96	15.02	
2025-01-15 13:15:50.96	253.00	15.02	
2025-01-15 13:15:51.16	253.05	15.03	
2025-01-15 13:15:51.37	253.10	15.04	
2025-01-15 13:15:51.57	253.14	15.05	
2025-01-15 13:15:51.77	253.19	15.06	
2025-01-15 13:15:51.97	253.24	15.07	
2025-01-15 13:15:52.18	253.29	15.07	
2025-01-15 13:15:52.38	253.33	15.08	
2025-01-15 13:15:52.58	253.38	15.09	
2025-01-15 13:15:52.79	253.43	15.10	
2025-01-15 13:15:52.99	253.47	15.11	
2025-01-15 13:15:53.19	253.52	15.12	
2025-01-15 13:15:53.40	253.57	15.12	
2025-01-15 13:15:53.60	253.61	15.13	
2025-01-15 13:15:53.80	253.66	15.14	
2025-01-15 13:15:54.00	253.71	15.15	
2025-01-15 13:15:54.21	253.76	15.16	
2025-01-15 13:15:54.41	253.80	15.16	
2025-01-15 13:15:54.61	253.85	15.17	
2025-01-15 13:15:54.82	253.90	15.18	
2025-01-15 13:15:55.02	253.94	15.19	
2025-01-15 13:15:55.22	253.99	15.20	
2025-01-15 13:15:55.42	254.04	15.20	
2025-01-15 13:15:55.63	254.09	15.21	
2025-01-15 13:15:55.83	254.13	15.22	
2025-01-15 13:15:56.03	254.18	15.23	
2025-01-15 13:15:56.24	254.23	15.24	
2025-01-15 13:15:56.44	254.28	15.25	
2025-01-15 13:15:56.64	254.32	15.25	
2025-01-15 13:15:56.85	254.37	15.26	
2025-01-15 13:15:57.05	254.42	15.27	
2025-01-15 13:15:57.25	254.47	15.28	
2025-01-15 13:15:57.45	254.51	15.28	
2025-01-15 13:15:57.66	254.56	15.29	
2025-01-15 13:15:57.86	254.61	15.30	
2025-01-15 13:15:58.06	254.66	15.31	
2025-01-15 13:15:58.27	254.71	15.32	
2025-01-15 13:15:58.47	254.75	15.32	
2025-01-15 13:15:58.67	254.80	15.33	
2025-01-15 13:15:58.87	254.85	15.34	
2025-01-15 13:15:59.08	254.90	15.35	
2025-01-15 13:15:59.28	254.94	15.36	
2025-01-15 13:15:59.48	254.99	15.36	
2025-01-15 13:15:59.69	255.04	15.37	
2025-01-15 13:15:59.89	255.09	15.38	
2025-01-15 13:16:00.09	255.13	15.39	
2025-01-15 13:16:00.30	255.18	15.39	
2025-01-15 13:16:00.50	255.23	15.40	
2025-01-15 13:16:00.70	255.28	15.41	
2025-01-15 13:16:00.90	255.33	15.42	
2025-01-15 13:16:01.11	255.38	15.42	
2025-01-15 13:16:01.31	255.42	15.43	
2025-01-15 13:16:01.51	255.47	15.44	
2025-01-15 13:16:01.72	255.52	15.45	
2025-01-15 13:16:01.92	255.57	15.46	
2025-01-15 13:16:02.12	255.62	15.46	
2025-01-15 13:16:02.32	255.66	15.47	
2025-01-15 13:16:02.53	255.71	15.48	
2025-01-15 13:16:02.73	255.76	15.49	
2025-01-15 13:16:02.93	255.81	15.49	
2025-01-15 13:16:03.14	255.86	15.50	
2025-01-15 13:16:03.34	255.91	15.51	
2025-01-15 13:16:03.54	255.95	15.52	
2025-01-15 13:16:03.75	256.00	15.52	
2025-01-15 13:16:03.95	256.05	15.53	
2025-01-15 13:16:04.15	256.10	15.54	
2025-01-15 13:16:04.35	256.15	15.54	
2025-01-15 13:16:04.56	256.20	15.55	
2025-01-15 13:16:04.76	256.24	15.56	
2025-01-15 13:16:04.96	256.29	15.57	
2025-01-15 13:16:05.17	256.34	15.57	
2025-01-15 13:16:05.37	256.39	15.58	
2025-01-15 13:16:05.57	256.44	15.59	
2025-01-15 13:16:05.78	256.49	15.60	
2025-01-15 13:16:05.98	256.54	15.60	
2025-01-15 13:16:06.18	256.58	15.61	
2025-01-15 13:16:06.38	256.63	15.62	
2025-01-15 13:16:06.59	256.68	15.63	
2025-01-15 13:16:06.79	256.73	15.63	
2025-01-15 13:16:06.99	256.78	15.64	
2025-01-15 13:16:07.20	256.83	15.65	
2025-01-15 13:16:07.40	256.88	15.65	
2025-01-15 13:16:07.60	256.93	15.66	
2025-01-15 13:16:07.80	256.97	15.67	
2025-01-15 13:16:08.01	257.02	15.68	
2025-01-15 13:16:08.21	257.07	15.68	
2025-01-15 13:16:08.41	257.12	15.69	
2025-01-15 13:16:08.62	257.17	15.70	
2025-01-15 13:16:08.82	257.22	15.70	
2025-01-15 13:16:09.02	257.27	15.71	
2025-01-15 13:16:09.23	257.32	15.72	
2025-01-15 13:16:09.43	257.37	15.72	
2025-01-15 13:16:09.63	257.42	15.73	
2025-01-15 13:16:09.83	257.46	15.74	
2025-01-15 13:16:10.04	257.51	15.75	
2025-01-15 13:16:10.24	257.56	15.75	
2025-01-15 13:16:10.44	257.61	15.76	
2025-01-15 13:16:10.65	257.66	15.77	
2025-01-15 13:16:10.85	257.71	15.77	
2025-01-15 13:16:11.05	257.76	15.78	
2025-01-15 13:16:11.25	257.81	15.79	
2025-01-15 13:16:11.46	257.86	15.79	
2025-01-15 13:16:11.66	257.91	15.80	
2025-01-15 13:16:11.86	257.96	15.81	
2025-01-15 13:16:12.07	258.01	15.81	
2025-01-15 13:16:12.27	258.06	15.82	
2025-01-15 13:16:12.47	258.11	15.83	
2025-01-15 13:16:12.68	258.16	15.83	
2025-01-15 13:16:12.88	258.20	15.84	
2025-01-15 13:16:13.08	258.25	15.85	
2025-01-15 13:16:13.28	258.30	15.85	
2025-01-15 13:16:13.49	258.35	15.86	
2025-01-15 13:16:13.69	258.40	15.87	
2025-01-15 13:16:13.89	258.45	15.87	
2025-01-15 13:16:14.10	258.50	15.88	
2025-01-15 13:16:14.30	258.55	15.89	
2025-01-15 13:16:14.50	258.60	15.89	
2025-01-15 13:16:14.70	258.65	15.90	
2025-01-15 13:16:14.91	258.70	15.91	
2025-01-15 13:16:15.11	258.75	15.91	
2025-01-15 13:16:15.31	258.80	15.92	
2025-01-15 13:16:15.52	258.85	15.93	
2025-01-15 13:16:15.72	258.90	15.93	
2025-01-15 13:16:15.92	258.95	15.94	
2025-01-15 13:16:16.13	259.00	15.95	
2025-01-15 13:16:16.33	259.05	15.95	
2025-01-15 13:16:16.53	259.10	15.96	
2025-01-15 13:16:16.73	259.15	15.96	
2025-01-15 13:16:16.94	259.20	15.97	
2025-01-15 13:16:17.14	259.25	15.98	
2025-01-15 13:16:17.34	259.30	15.98	
2025-01-15 13:16:17.55	259.35	15.99	
2025-01-15 13:16:17.75	259.40	16.00	
2025-01-15 13:16:17.95	259.45	16.00	
2025-01-15 13:16:18.16	259.50	16.01	
2025-01-15 13:16:18.36	259.55	16.01	
2025-01-15 13:16:18.56	259.60	16.02	
2025-01-15 13:16:18.76	259.65	16.03	
2025-01-15 13:16:18.97	259.70	16.03	
2025-01-15 13:16:19.17	259.75	16.04	
2025-01-15 13:16:19.37	259.80	16.05	
2025-01-15 13:16:19.58	259.85	16.05	
2025-01-15 13:16:19.78	259.90	16.06	
2025-01-15 13:16:19.98	259.95	16.06	
2025-01-15 13:16:20.18	260.00	16.07	
2025-01-15 13:16:20.39	260.05	16.08	
2025-01-15 13:16:20.59	260.10	16.08	
2025-01-15 13:16:20.79	260.15	16.09	
2025-01-15 13:16:21.00	260.20	16.09	
2025-01-15 13:16:21.20	260.25	16.10	
2025-01-15 13:16:21.40	260.30	16.11	
2025-01-15 13:16:21.61	260.35	16.11	
2025-01-15 13:16:21.81	260.40	16.12	
2025-01-15 13:16:22.01	260.45	16.12	
2025-01-15 13:16:22.21	260.50	16.13	
2025-01-15 13:16:22.42	260.55	16.13	
2025-01-15 13:16:22.62	260.60	16.14	
2025-01-15 13:16:22.82	260.65	16.15	
2025-01-15 13:16:23.03	260.71	16.15	
2025-01-15 13:16:23.23	260.76	16.16	
2025-01-15 13:16:23.43	260.81	16.16	
2025-01-15 13:16:23.63	260.86	16.17	
2025-01-15 13:16:23.84	260.91	16.18	
2025-01-15 13:16:24.04	260.96	16.18	
2025-01-15 13:16:24.24	261.01	16.19	
2025-01-15 13:16:24.45	261.06	16.19	
2025-01-15 13:16:24.65	261.11	16.20	
2025-01-15 13:16:24.85	261.16	16.20	
2025-01-15 13:16:25.06	261.21	16.21	
2025-01-15 13:16:25.26	261.26	16.21	
2025-01-15 13:16:25.46	261.31	16.22	
2025-01-15 13:16:25.66	261.36	16.23	
2025-01-15 13:16:25.87	261.42	16.23	
2025-01-15 13:16:26.07	261.47	16.24	
2025-01-15 13:16:26.27	261.52	16.24	
2025-01-15 13:16:26.48	261.57	16.25	
2025-01-15 13:16:26.68	261.62	16.25	
2025-01-15 13:16:26.88	261.67	16.26	
2025-01-15 13:16:27.08	261.72	16.26	
2025-01-15 13:16:27.29	261.77	16.27	
2025-01-15 13:16:27.49	261.82	16.27	
2025-01-15 13:16:27.69	261.87	16.28	
2025-01-15 13:16:27.90	261.92	16.29	
2025-01-15 13:16:28.10	261.98	16.29	
2025-01-15 13:16:28.30	262.03	16.30	
2025-01-15 13:16:28.51	262.08	16.30	
2025-01-15 13:16:28.71	262.13	16.31	
2025-01-15 13:16:28.91	262.18	16.31	
2025-01-15 13:16:29.11	262.23	16.32	
2025-01-15 13:16:29.32	262.28	16.32	
2025-01-15 13:16:29.52	262.33	16.33	
2025-01-15 13:16:29.72	262.38	16.33	
2025-01-15 13:16:29.93	262.44	16.34	
2025-01-15 13:16:30.13	262.49	16.34	
2025-01-15 13:16:30.33	262.54	16.35	
2025-01-15 13:16:30.54	262.59	16.35	
2025-01-15 13:16:30.74	262.64	16.36	
2025-01-15 13:16:30.94	262.69	16.36	
2025-01-15 13:16:31.14	262.74	16.37	
2025-01-15 13:16:31.35	262.79	16.37	
2025-01-15 13:16:31.55	262.85	16.38	
2025-01-15 13:16:31.75	262.90	16.38	
2025-01-15 13:16:31.96	262.95	16.39	
2025-01-15 13:16:32.16	263.00	16.39	
2025-01-15 13:16:32.36	263.05	16.40	
2025-01-15 13:16:32.56	263.10	16.40	
2025-01-15 13:16:32.77	263.15	16.41	
2025-01-15 13:16:32.97	263.20	16.41	
2025-01-15 13:16:33.17	263.26	16.42	
2025-01-15 13:16:33.38	263.31	16.42	
2025-01-15 13:16:33.58	263.36	16.43	
2025-01-15 13:16:33.78	263.41	16.43	
2025-01-15 13:16:33.99	263.46	16.44	
2025-01-15 13:16:34.19	263.51	16.44	
2025-01-15 13:16:34.39	263.57	16.45	
2025-01-15 13:16:34.59	263.62	16.45	
2025-01-15 13:16:34.80	263.67	16.46	
2025-01-15 13:16:35.00	263.72	16.46	
2025-01-15 13:16:35.20	263.77	16.46	
2025-01-15 13:16:35.41	263.82	16.47	
2025-01-15 13:16:35.61	263.88	16.47	
2025-01-15 13:16:35.81	263.93	16.48	
2025-01-15 13:16:36.01	263.98	16.48	
2025-01-15 13:16:36.22	264.03	16.49	
2025-01-15 13:16:36.42	264.08	16.49	
2025-01-15 13:16:36.62	264.13	16.50	
2025-01-15 13:16:36.83	264.19	16.50	
2025-01-15 13:16:37.03	264.24	16.50	
2025-01-15 13:16:37.23	264.29	16.51	
2025-01-15 13:16:37.44	264.34	16.51	
2025-01-15 13:16:37.64	264.39	16.52	
2025-01-15 13:16:37.84	264.44	16.52	
2025-01-15 13:16:38.04	264.50	16.53	
2025-01-15 13:16:38.25	264.55	16.53	
2025-01-15 13:16:38.45	264.60	16.54	
2025-01-15 13:16:38.65	264.65	16.54	
2025-01-15 13:16:38.86	264.70	16.54	
2025-01-15 13:16:39.06	264.76	16.55	
2025-01-15 13:16:39.26	264.81	16.55	
2025-01-15 13:16:39.46	264.86	16.56	
2025-01-15 13:16:39.67	264.91	16.56	
2025-01-15 13:16:39.87	264.96	16.56	
2025-01-15 13:16:40.07	265.01	16.57	
2025-01-15 13:16:40.28	265.07	16.57	
2025-01-15 13:16:40.48	265.12	16.58	
2025-01-15 13:16:40.68	265.17	16.58	
2025-01-15 13:16:40.89	265.22	16.59	
2025-01-15 13:16:41.09	265.28	16.59	
2025-01-15 13:16:41.29	265.33	16.59	
2025-01-15 13:16:41.49	265.38	16.60	
2025-01-15 13:16:41.70	265.43	16.60	
2025-01-15 13:16:41.90	265.48	16.61	
2025-01-15 13:16:42.10	265.54	16.61	
2025-01-15 13:16:42.31	265.59	16.61	
2025-01-15 13:16:42.51	265.64	16.62	
2025-01-15 13:16:42.71	265.69	16.62	
2025-01-15 13:16:42.92	265.75	16.62	
2025-01-15 13:16:43.12	265.80	16.63	
2025-01-15 13:16:43.32	265.85	16.63	
2025-01-15 13:16:43.52	265.90	16.64	
2025-01-15 13:16:43.73	265.95	16.64	
2025-01-15 13:16:43.93	266.01	16.64	
2025-01-15 13:16:44.13	266.06	16.65	
2025-01-15 13:16:44.34	266.11	16.65	
2025-01-15 13:16:44.54	266.16	16.65	
2025-01-15 13:16:44.74	266.21	16.66	
2025-01-15 13:16:44.94	266.27	16.66	
2025-01-15 13:16:45.15	266.32	16.67	
2025-01-15 13:16:45.35	266.37	16.67	
2025-01-15 13:16:45.55	266.42	16.67	
2025-01-15 13:16:45.76	266.48	16.68	
2025-01-15 13:16:45.96	266.53	16.68	
2025-01-15 13:16:46.16	266.58	16.68	
2025-01-15 13:16:46.37	266.64	16.69	
2025-01-15 13:16:46.57	266.69	16.69	
2025-01-15 13:16:46.77	266.74	16.69	
2025-01-15 13:16:46.97	266.79	16.70	
2025-01-15 13:16:47.18	266.84	16.70	
2025-01-15 13:16:47.38	266.90	16.70	
2025-01-15 13:16:47.58	266.95	16.71	
2025-01-15 13:16:47.79	267.00	16.71	
2025-01-15 13:16:47.99	267.05	16.71	
2025-01-15 13:16:48.19	267.11	16.72	
2025-01-15 13:16:48.39	267.16	16.72	
2025-01-15 13:16:48.60	267.21	16.72	
2025-01-15 13:16:48.80	267.26	16.73	
2025-01-15 13:16:49.00	267.32	16.73	
2025-01-15 13:16:49.21	267.37	16.73	
2025-01-15 13:16:49.41	267.42	16.74	
2025-01-15 13:16:49.61	267.47	16.74	
2025-01-15 13:16:49.82	267.53	16.74	
2025-01-15 13:16:50.02	267.58	16.75	
2025-01-15 13:16:50.22	267.63	16.75	
2025-01-15 13:16:50.42	267.68	16.75	
2025-01-15 13:16:50.63	267.74	16.75	
2025-01-15 13:16:50.83	267.79	16.76	
2025-01-15 13:16:51.03	267.84	16.76	
2025-01-15 13:16:51.24	267.90	16.76	
2025-01-15 13:16:51.44	267.95	16.77	
2025-01-15 13:16:51.64	268.00	16.77	
2025-01-15 13:16:51.84	268.05	16.77	
2025-01-15 13:16:52.05	268.11	16.77	
2025-01-15 13:16:52.25	268.16	16.78	
2025-01-15 13:16:52.45	268.21	16.78	
2025-01-15 13:16:52.66	268.27	16.78	
2025-01-15 13:16:52.86	268.32	16.79	
2025-01-15 13:16:53.06	268.37	16.79	
2025-01-15 13:16:53.27	268.42	16.79	
2025-01-15 13:16:53.47	268.48	16.79	
2025-01-15 13:16:53.67	268.53	16.80	
2025-01-15 13:16:53.87	268.58	16.80	
2025-01-15 13:16:54.08	268.63	16.80	
2025-01-15 13:16:54.28	268.69	16.80	
2025-01-15 13:16:54.48	268.74	16.81	
2025-01-15 13:16:54.69	268.79	16.81	
2025-01-15 13:16:54.89	268.85	16.81	
2025-01-15 13:16:55.09	268.90	16.82	
2025-01-15 13:16:55.30	268.95	16.82	
2025-01-15 13:16:55.50	269.00	16.82	
2025-01-15 13:16:55.70	269.06	16.82	
2025-01-15 13:16:55.90	269.11	16.83	
2025-01-15 13:16:56.11	269.16	16.83	
2025-01-15 13:16:56.31	269.22	16.83	
2025-01-15 13:16:56.51	269.27	16.83	
2025-01-15 13:16:56.72	269.32	16.83	
2025-01-15 13:16:56.92	269.37	16.84	
2025-01-15 13:16:57.12	269.43	16.84	
2025-01-15 13:16:57.32	269.48	16.84	
2025-01-15 13:16:57.53	269.53	16.84	
2025-01-15 13:16:57.73	269.59	16.85	
2025-01-15 13:16:57.93	269.64	16.85	
2025-01-15 13:16:58.14	269.69	16.85	
2025-01-15 13:16:58.34	269.75	16.85	
2025-01-15 13:16:58.54	269.80	16.85	
2025-01-15 13:16:58.75	269.85	16.86	
2025-01-15 13:16:58.95	269.90	16.86	
2025-01-15 13:16:59.15	269.96	16.86	
2025-01-15 13:16:59.35	270.01	16.86	
2025-01-15 13:16:59.56	270.06	16.87	
2025-01-15 13:16:59.76	270.12	16.87	
2025-01-15 13:16:59.96	270.17	16.87	
2025-01-15 13:17:00.17	270.22	16.87	
2025-01-15 13:17:00.37	270.28	16.87	
2025-01-15 13:17:00.57	270.33	16.88	
2025-01-15 13:17:00.77	270.38	16.88	
2025-01-15 13:17:00.98	270.44	16.88	
2025-01-15 13:17:01.18	270.49	16.88	
2025-01-15 13:17:01.38	270.54	16.88	
2025-01-15 13:17:01.59	270.60	16.88	
2025-01-15 13:17:01.79	270.65	16.89	
2025-01-15 13:17:01.99	270.70	16.89	
2025-01-15 13:17:02.20	270.75	16.89	
2025-01-15 13:17:02.40	270.81	16.89	
2025-01-15 13:17:02.60	270.86	16.89	
2025-01-15 13:17:02.80	270.91	16.90	
2025-01-15 13:17:03.01	270.97	16.90	
2025-01-15 13:17:03.21	271.02	16.90	
2025-01-15 13:17:03.41	271.07	16.90	
2025-01-15 13:17:03.62	271.13	16.90	
2025-01-15 13:17:03.82	271.18	16.90	
2025-01-15 13:17:04.02	271.23	16.90	
2025-01-15 13:17:04.23	271.29	16.91	
2025-01-15 13:17:04.43	271.34	16.91	
2025-01-15 13:17:04.63	271.39	16.91	
2025-01-15 13:17:04.83	271.44	16.91	
2025-01-15 13:17:05.04	271.50	16.91	
2025-01-15 13:17:05.24	271.55	16.91	
2025-01-15 13:17:05.44	271.60	16.91	
2025-01-15 13:17:05.65	271.66	16.92	
2025-01-15 13:17:05.85	271.71	16.92	
2025-01-15 13:17:06.05	271.76	16.92	
2025-01-15 13:17:06.25	271.82	16.92	
2025-01-15 13:17:06.46	271.87	16.92	
2025-01-15 13:17:06.66	271.92	16.92	
2025-01-15 13:17:06.86	271.98	16.92	
2025-01-15 13:17:07.07	272.03	16.93	
2025-01-15 13:17:07.27	272.08	16.93	
2025-01-15 13:17:07.47	272.14	16.93	
2025-01-15 13:17:07.67	272.19	16.93	
2025-01-15 13:17:07.88	272.24	16.93	
2025-01-15 13:17:08.08	272.30	16.93	
2025-01-15 13:17:08.28	272.35	16.93	
2025-01-15 13:17:08.49	272.40	16.93	
2025-01-15 13:17:08.69	272.46	16.93	
2025-01-15 13:17:08.89	272.51	16.94	
2025-01-15 13:17:09.10	272.56	16.94	
2025-01-15 13:17:09.30	272.62	16.94	
2025-01-15 13:17:09.50	272.67	16.94	
2025-01-15 13:17:09.70	272.72	16.94	
2025-01-15 13:17:09.91	272.78	16.94	
2025-01-15 13:17:10.11	272.83	16.94	
2025-01-15 13:17:10.31	272.88	16.94	
2025-01-15 13:17:10.52	272.94	16.94	
2025-01-15 13:17:10.72	272.99	16.94	
2025-01-15 13:17:10.92	273.04	16.94	
2025-01-15 13:17:11.13	273.10	16.94	
2025-01-15 13:17:11.33	273.15	16.95	
2025-01-15 13:17:11.53	273.20	16.95	
2025-01-15 13:17:11.73	273.26	16.95	
2025-01-15 13:17:11.94	273.31	16.95	
2025-01-15 13:17:12.14	273.36	16.95	
2025-01-15 13:17:12.34	273.42	16.95	
2025-01-15 13:17:12.55	273.47	16.95	
2025-01-15 13:17:12.75	273.52	16.95	
2025-01-15 13:17:12.95	273.58	16.95	
2025-01-15 13:17:13.15	273.63	16.95	
2025-01-15 13:17:13.36	273.68	16.95	
2025-01-15 13:17:13.56	273.74	16.95	
2025-01-15 13:17:13.76	273.79	16.95	
2025-01-15 13:17:13.97	273.84	16.95	
2025-01-15 13:17:14.17	273.90	16.95	
2025-01-15 13:17:14.37	273.95	16.95	
2025-01-15 13:17:14.58	274.00	16.95	
2025-01-15 13:17:14.78	274.06	16.95	
2025-01-15 13:17:14.98	274.11	16.96	
2025-01-15 13:17:15.18	274.16	16.96	
2025-01-15 13:17:15.39	274.22	16.96	
2025-01-15 13:17:15.59	274.27	16.96	
2025-01-15 13:17:15.79	274.32	16.96	
2025-01-15 13:17:16.00	274.38	16.96	
2025-01-15 13:17:16.20	274.43	16.96	
2025-01-15 13:17:16.40	274.48	16.96	
2025-01-15 13:17:16.61	274.54	16.96	
2025-01-15 13:17:16.81	274.59	16.96	
2025-01-15 13:17:17.01	274.64	16.96	
2025-01-15 13:17:17.21	274.70	16.96	
2025-01-15 13:17:17.42	274.75	16.96	
2025-01-15 13:17:17.62	274.80	16.96	
2025-01-15 13:17:17.82	274.86	16.96	
2025-01-15 13:17:18.03	274.91	16.96	
2025-01-15 13:17:18.23	274.96	16.96	
2025-01-15 13:17:18.43	275.02	16.96	
2025-01-15 13:17:18.63	275.07	16.96	
2025-01-15 13:17:18.84	275.12	16.96	
2025-01-15 13:17:19.04	275.18	16.96	
2025-01-15 13:17:19.24	275.23	16.96	
2025-01-15 13:17:19.45	275.28	16.96	
2025-01-15 13:17:19.65	275.34	16.96	
2025-01-15 13:17:19.85	275.39	16.96	
2025-01-15 13:17:20.06	275.44	16.96	
2025-01-15 13:17:20.26	275.50	16.96	
2025-01-15 13:17:20.46	275.55	16.96	
2025-01-15 13:17:20.66	275.60	16.95	
2025-01-15 13:17:20.87	275.66	16.95	
2025-01-15 13:17:21.07	275.71	16.95	
2025-01-15 13:17:21.27	275.76	16.95	
2025-01-15 13:17:21.48	275.82	16.95	
2025-01-15 13:17:21.68	275.87	16.95	
2025-01-15 13:17:21.88	275.92	16.95	
2025-01-15 13:17:22.08	275.98	16.95	
2025-01-15 13:17:22.29	276.03	16.95	
2025-01-15 13:17:22.49	276.08	16.95	
2025-01-15 13:17:22.69	276.14	16.95	
2025-01-15 13:17:22.90	276.19	16.95	
2025-01-15 13:17:23.10	276.24	16.95	
2025-01-15 13:17:23.30	276.30	16.95	
2025-01-15 13:17:23.51	276.35	16.95	
2025-01-15 13:17:23.71	276.40	16.95	
2025-01-15 13:17:23.91	276.46	16.95	
2025-01-15 13:17:24.11	276.51	16.95	
2025-01-15 13:17:24.32	276.56	16.95	
2025-01-15 13:17:24.52	276.62	16.94	
2025-01-15 13:17:24.72	276.67	16.94	
2025-01-15 13:17:24.93	276.72	16.94	
2025-01-15 13:17:25.13	276.78	16.94	
2025-01-15 13:17:25.33	276.83	16.94	
2025-01-15 13:17:25.53	276.88	16.94	
2025-01-15 13:17:25.74	276.94	16.94	
2025-01-15 13:17:25.94	276.99	16.94	
2025-01-15 13:17:26.14	277.04	16.94	
2025-01-15 13:17:26.35	277.10	16.94	
2025-01-15 13:17:26.55	277.15	16.94	
2025-01-15 13:17:26.75	277.20	16.94	
2025-01-15 13:17:26.96	277.26	16.93	
2025-01-15 13:17:27.16	277.31	16.93	
2025-01-15 13:17:27.36	277.36	16.93	
2025-01-15 13:17:27.56	277.41	16.93	
2025-01-15 13:17:27.77	277.47	16.93	
2025-01-15 13:17:27.97	277.52	16.93	
2025-01-15 13:17:28.17	277.57	16.93	
2025-01-15 13:17:28.38	277.63	16.93	
2025-01-15 13:17:28.58	277.68	16.93	
2025-01-15 13:17:28.78	277.73	16.92	
2025-01-15 13:17:28.99	277.79	16.92	
2025-01-15 13:17:29.19	277.84	16.92	
2025-01-15 13:17:29.39	277.89	16.92	
2025-01-15 13:17:29.59	277.95	16.92	
2025-01-15 13:17:29.80	278.00	16.92	
2025-01-15 13:17:30.00	278.05	16.92	
2025-01-15 13:17:30.20	278.11	16.91	
2025-01-15 13:17:30.41	278.16	16.91	
2025-01-15 13:17:30.61	278.21	16.91	
2025-01-15 13:17:30.81	278.27	16.91	
2025-01-15 13:17:31.01	278.32	16.91	
2025-01-15 13:17:31.22	278.37	16.91	
2025-01-15 13:17:31.42	278.43	16.91	
2025-01-15 13:17:31.62	278.48	16.90	
2025-01-15 13:17:31.83	278.53	16.90	
2025-01-15 13:17:32.03	278.59	16.90	
2025-01-15 13:17:32.23	278.64	16.90	
2025-01-15 13:17:32.44	278.69	16.90	
2025-01-15 13:17:32.64	278.75	16.90	
2025-01-15 13:17:32.84	278.80	16.89	
2025-01-15 13:17:33.04	278.85	16.89	
2025-01-15 13:17:33.25	278.91	16.89	
2025-01-15 13:17:33.45	278.96	16.89	
2025-01-15 13:17:33.65	279.01	16.89	
2025-01-15 13:17:33.86	279.07	16.89	
2025-01-15 13:17:34.06	279.12	16.88	
2025-01-15 13:17:34.26	279.17	16.88	
2025-01-15 13:17:34.46	279.22	16.88	
2025-01-15 13:17:34.67	279.28	16.88	
2025-01-15 13:17:34.87	279.33	16.88	
2025-01-15 13:17:35.07	279.38	16.88	
2025-01-15 13:17:35.28	279.44	16.87	
2025-01-15 13:17:35.48	279.49	16.87	
2025-01-15 13:17:35.68	279.54	16.87	
2025-01-15 13:17:35.89	279.60	16.87	
2025-01-15 13:17:36.09	279.65	16.87	
2025-01-15 13:17:36.29	279.70	16.86	
2025-01-15 13:17:36.49	279.75	16.86	
2025-01-15 13:17:36.70	279.81	16.86	
2025-01-15 13:17:36.90	279.86	16.86	
2025-01-15 13:17:37.10	279.91	16.85	
2025-01-15 13:17:37.31	279.97	16.85	
2025-01-15 13:17:37.51	280.02	16.85	
2025-01-15 13:17:37.71	280.07	16.85	
2025-01-15 13:17:37.91	280.12	16.85	
2025-01-15 13:17:38.12	280.18	16.84	
2025-01-15 13:17:38.32	280.23	16.84	
2025-01-15 13:17:38.52	280.28	16.84	
2025-01-15 13:17:38.73	280.34	16.84	
2025-01-15 13:17:38.93	280.39	16.83	
2025-01-15 13:17:39.13	280.44	16.83	
2025-01-15 13:17:39.34	280.50	16.83	
2025-01-15 13:17:39.54	280.55	16.83	
2025-01-15 13:17:39.74	280.60	16.82	
2025-01-15 13:17:39.94	280.65	16.82	
2025-01-15 13:17:40.15	280.71	16.82	
2025-01-15 13:17:40.35	280.76	16.82	
2025-01-15 13:17:40.55	280.81	16.82	
2025-01-15 13:17:40.76	280.87	16.81	
2025-01-15 13:17:40.96	280.92	16.81	
2025-01-15 13:17:41.16	280.97	16.81	
2025-01-15 13:17:41.37	281.02	16.80	
2025-01-15 13:17:41.57	281.08	16.80	
2025-01-15 13:17:41.77	281.13	16.80	
2025-01-15 13:17:41.97	281.18	16.80	
2025-01-15 13:17:42.18	281.23	16.79	
2025-01-15 13:17:42.38	281.29	16.79	
2025-01-15 13:17:42.58	281.34	16.79	
2025-01-15 13:17:42.79	281.39	16.79	
2025-01-15 13:17:42.99	281.44	16.78	
2025-01-15 13:17:43.19	281.50	16.78	
2025-01-15 13:17:43.39	281.55	16.78	
2025-01-15 13:17:43.60	281.60	16.77	
2025-01-15 13:17:43.80	281.66	16.77	
2025-01-15 13:17:44.00	281.71	16.77	
2025-01-15 13:17:44.21	281.76	16.77	
2025-01-15 13:17:44.41	281.81	16.76	
2025-01-15 13:17:44.61	281.87	16.76	
2025-01-15 13:17:44.82	281.92	16.76	
2025-01-15 13:17:45.02	281.97	16.75	
2025-01-15 13:17:45.22	282.02	16.75	
2025-01-15 13:17:45.42	282.07	16.75	
2025-01-15 13:17:45.63	282.13	16.75	
2025-01-15 13:17:45.83	282.18	16.74	
2025-01-15 13:17:46.03	282.23	16.74	
2025-01-15 13:17:46.24	282.29	16.74	
2025-01-15 13:17:46.44	282.34	16.73	
2025-01-15 13:17:46.64	282.39	16.73	
2025-01-15 13:17:46.84	282.44	16.73	
2025-01-15 13:17:47.05	282.50	16.72	
2025-01-15 13:17:47.25	282.55	16.72	
2025-01-15 13:17:47.45	282.60	16.72	
2025-01-15 13:17:47.66	282.65	16.71	
2025-01-15 13:17:47.86	282.71	16.71	
2025-01-15 13:17:48.06	282.76	16.71	
2025-01-15 13:17:48.27	282.81	16.70	
2025-01-15 13:17:48.47	282.86	16.70	
2025-01-15 13:17:48.67	282.91	16.70	
2025-01-15 13:17:48.87	282.97	16.69	
2025-01-15 13:17:49.08	283.02	16.69	
2025-01-15 13:17:49.28	283.07	16.69	
2025-01-15 13:17:49.48	283.12	16.68	
2025-01-15 13:17:49.69	283.18	16.68	
2025-01-15 13:17:49.89	283.23	16.68	
2025-01-15 13:17:50.09	283.28	16.67	
2025-01-15 13:17:50.29	283.33	16.67	
2025-01-15 13:17:50.50	283.39	16.67	
2025-01-15 13:17:50.70	283.44	16.66	
2025-01-15 13:17:50.90	283.49	16.66	
2025-01-15 13:17:51.11	283.54	16.65	
2025-01-15 13:17:51.31	283.59	16.65	
2025-01-15 13:17:51.51	283.65	16.65	
2025-01-15 13:17:51.72	283.70	16.64	
2025-01-15 13:17:51.92	283.75	16.64	
2025-01-15 13:17:52.12	283.80	16.64	
2025-01-15 13:17:52.32	283.85	16.63	
2025-01-15 13:17:52.53	283.91	16.63	
2025-01-15 13:17:52.73	283.96	16.62	
2025-01-15 13:17:52.93	284.01	16.62	
2025-01-15 13:17:53.14	284.07	16.62	
2025-01-15 13:17:53.34	284.12	16.61	
2025-01-15 13:17:53.54	284.17	16.61	
2025-01-15 13:17:53.75	284.22	16.61	
2025-01-15 13:17:53.95	284.27	16.60	
2025-01-15 13:17:54.15	284.32	16.60	
2025-01-15 13:17:54.35	284.38	16.59	
2025-01-15 13:17:54.56	284.43	16.59	
2025-01-15 13:17:54.76	284.48	16.59	
2025-01-15 13:17:54.96	284.53	16.58	
2025-01-15 13:17:55.17	284.59	16.58	
2025-01-15 13:17:55.37	284.64	16.57	
2025-01-15 13:17:55.57	284.69	16.57	
2025-01-15 13:17:55.77	284.74	16.57	
2025-01-15 13:17:55.98	284.79	16.56	
2025-01-15 13:17:56.18	284.84	16.56	
2025-01-15 13:17:56.38	284.89	16.55	
2025-01-15 13:17:56.59	284.95	16.55	
2025-01-15 13:17:56.79	285.00	16.54	
2025-01-15 13:17:56.99	285.05	16.54	
2025-01-15 13:17:57.20	285.10	16.54	
2025-01-15 13:17:57.40	285.15	16.53	
2025-01-15 13:17:57.60	285.21	16.53	
2025-01-15 13:17:57.80	285.26	16.52	
2025-01-15 13:17:58.01	285.31	16.52	
2025-01-15 13:17:58.21	285.36	16.51	
2025-01-15 13:17:58.41	285.41	16.51	
2025-01-15 13:17:58.62	285.47	16.51	
2025-01-15 13:17:58.82	285.52	16.50	
2025-01-15 13:17:59.02	285.57	16.50	
2025-01-15 13:17:59.22	285.62	16.49	
2025-01-15 13:17:59.43	285.67	16.49	
2025-01-15 13:17:59.63	285.72	16.48	
2025-01-15 13:17:59.83	285.77	16.48	
2025-01-15 13:18:00.04	285.83	16.47	
2025-01-15 13:18:00.24	285.88	16.47	
2025-01-15 13:18:00.44	285.93	16.46	
2025-01-15 13:18:00.65	285.98	16.46	
2025-01-15 13:18:00.85	286.03	16.46	
2025-01-15 13:18:01.05	286.08	16.45	
2025-01-15 13:18:01.25	286.13	16.45	
2025-01-15 13:18:01.46	286.19	16.44	
2025-01-15 13:18:01.66	286.24	16.44	
2025-01-15 13:18:01.86	286.29	16.43	
2025-01-15 13:18:02.07	286.34	16.43	
2025-01-15 13:18:02.27	286.39	16.42	
2025-01-15 13:18:02.47	286.44	16.42	
2025-01-15 13:18:02.67	286.49	16.41	
2025-01-15 13:18:02.88	286.55	16.41	
2025-01-15 13:18:03.08	286.60	16.40	
2025-01-15 13:18:03.28	286.65	16.40	
2025-01-15 13:18:03.49	286.70	16.39	
2025-01-15 13:18:03.69	286.75	16.39	
2025-01-15 13:18:03.89	286.80	16.38	
2025-01-15 13:18:04.10	286.85	16.38	
2025-01-15 13:18:04.30	286.90	16.37	
2025-01-15 13:18:04.50	286.96	16.37	
2025-01-15 13:18:04.70	287.01	16.36	
2025-01-15 13:18:04.91	287.06	16.36	
2025-01-15 13:18:05.11	287.11	16.35	
2025-01-15 13:18:05.31	287.16	16.35	
2025-01-15 13:18:05.52	287.21	16.34	
2025-01-15 13:18:05.72	287.26	16.34	
2025-01-15 13:18:05.92	287.31	16.33	
2025-01-15 13:18:06.13	287.37	16.33	
2025-01-15 13:18:06.33	287.42	16.32	
2025-01-15 13:18:06.53	287.47	16.32	
2025-01-15 13:18:06.73	287.52	16.31	
2025-01-15 13:18:06.94	287.57	16.31	
