passes_logs/2025/01/15/SPB_Silybum_02/SPB_Silybum_02__20250115_100542_SUOMI_NPP_rec.log

#Pass ID: 20250115_100542_SUOMI NPP
#Satellite: SUOMI NPP
#Configuration: NPP
#Start time: 2025-01-15 10:07:19

#Version: 2.0.20230423
#Station: SPB_Silybum_02
#Location: 30.233357 lon 59.946436 lat
#TLE: 1 37849U 11061A   25014.84938308  .00000162  00000+0  97809-4 0  9990
#TLE: 2 37849  98.7446 315.8398 0001684  41.2466 318.8837 14.19538097684890

#Time	Az	El	Level	Level2	SNR	BER	Gain	Gain2
2025-01-15 10:07:21.37	153.40	11.89	
2025-01-15 10:07:21.58	153.39	11.91	
2025-01-15 10:07:21.78	153.39	11.93	
2025-01-15 10:07:21.98	153.39	11.95	
2025-01-15 10:07:22.18	153.39	11.96	
2025-01-15 10:07:22.39	153.39	11.98	
2025-01-15 10:07:22.59	153.38	12.00	
2025-01-15 10:07:22.79	153.38	12.02	
2025-01-15 10:07:23.00	153.38	12.04	
2025-01-15 10:07:23.20	153.38	12.06	
2025-01-15 10:07:23.40	153.38	12.08	
2025-01-15 10:07:23.61	153.37	12.10	
2025-01-15 10:07:23.81	153.37	12.12	
2025-01-15 10:07:24.01	153.37	12.14	
2025-01-15 10:07:24.21	153.37	12.16	
2025-01-15 10:07:24.42	153.37	12.18	
2025-01-15 10:07:24.62	153.36	12.20	
2025-01-15 10:07:24.82	153.36	12.22	
2025-01-15 10:07:25.03	153.36	12.24	
2025-01-15 10:07:25.23	153.36	12.25	
2025-01-15 10:07:25.43	153.35	12.27	
2025-01-15 10:07:25.63	153.35	12.29	
2025-01-15 10:07:25.84	153.35	12.31	
2025-01-15 10:07:26.04	153.35	12.33	
2025-01-15 10:07:26.24	153.35	12.35	
2025-01-15 10:07:26.45	153.34	12.37	
2025-01-15 10:07:26.65	153.34	12.39	
2025-01-15 10:07:26.85	153.34	12.41	
2025-01-15 10:07:27.06	153.34	12.43	
2025-01-15 10:07:27.26	153.33	12.45	
2025-01-15 10:07:27.46	153.33	12.47	
2025-01-15 10:07:27.66	153.33	12.49	
2025-01-15 10:07:27.87	153.33	12.51	
2025-01-15 10:07:28.07	153.33	12.53	
2025-01-15 10:07:28.27	153.32	12.55	
2025-01-15 10:07:28.48	153.32	12.57	
2025-01-15 10:07:28.68	153.32	12.59	
2025-01-15 10:07:28.88	153.32	12.61	
2025-01-15 10:07:29.08	153.32	12.63	
2025-01-15 10:07:29.29	153.31	12.65	
2025-01-15 10:07:29.49	153.31	12.67	
2025-01-15 10:07:29.69	153.31	12.68	
2025-01-15 10:07:29.90	153.31	12.71	
2025-01-15 10:07:30.10	153.30	12.72	
2025-01-15 10:07:30.30	153.30	12.74	
2025-01-15 10:07:30.51	153.30	12.76	
2025-01-15 10:07:30.71	153.30	12.78	
2025-01-15 10:07:30.91	153.30	12.80	
2025-01-15 10:07:31.11	153.29	12.82	
2025-01-15 10:07:31.32	153.29	12.84	
2025-01-15 10:07:31.52	153.29	12.86	
2025-01-15 10:07:31.72	153.29	12.88	
2025-01-15 10:07:31.93	153.28	12.90	
2025-01-15 10:07:32.13	153.28	12.92	
2025-01-15 10:07:32.33	153.28	12.94	
2025-01-15 10:07:32.54	153.28	12.96	
2025-01-15 10:07:32.74	153.27	12.98	
2025-01-15 10:07:32.94	153.27	13.00	
2025-01-15 10:07:33.14	153.27	13.02	
2025-01-15 10:07:33.35	153.27	13.04	
2025-01-15 10:07:33.55	153.27	13.06	
2025-01-15 10:07:33.75	153.26	13.08	
2025-01-15 10:07:33.96	153.26	13.10	
2025-01-15 10:07:34.16	153.26	13.12	
2025-01-15 10:07:34.36	153.26	13.14	
2025-01-15 10:07:34.56	153.25	13.16	
2025-01-15 10:07:34.77	153.25	13.18	
2025-01-15 10:07:34.97	153.25	13.20	
2025-01-15 10:07:35.17	153.25	13.22	
2025-01-15 10:07:35.38	153.24	13.25	
2025-01-15 10:07:35.58	153.24	13.27	
2025-01-15 10:07:35.78	153.24	13.29	
2025-01-15 10:07:35.99	153.24	13.31	
2025-01-15 10:07:36.19	153.24	13.33	
2025-01-15 10:07:36.39	153.23	13.35	
2025-01-15 10:07:36.59	153.23	13.37	
2025-01-15 10:07:36.80	153.23	13.39	
2025-01-15 10:07:37.00	153.23	13.41	
2025-01-15 10:07:37.20	153.22	13.43	
2025-01-15 10:07:37.41	153.22	13.45	
2025-01-15 10:07:37.61	153.22	13.47	
2025-01-15 10:07:37.81	153.22	13.49	
2025-01-15 10:07:38.01	153.21	13.51	
2025-01-15 10:07:38.22	153.21	13.53	
2025-01-15 10:07:38.42	153.21	13.55	
2025-01-15 10:07:38.62	153.21	13.57	
2025-01-15 10:07:38.83	153.20	13.59	
2025-01-15 10:07:39.03	153.20	13.61	
2025-01-15 10:07:39.23	153.20	13.63	
2025-01-15 10:07:39.44	153.20	13.65	
2025-01-15 10:07:39.64	153.20	13.67	
2025-01-15 10:07:39.84	153.19	13.69	
2025-01-15 10:07:40.04	153.19	13.71	
2025-01-15 10:07:40.25	153.19	13.74	
2025-01-15 10:07:40.45	153.19	13.76	
2025-01-15 10:07:40.65	153.18	13.78	
2025-01-15 10:07:40.86	153.18	13.80	
2025-01-15 10:07:41.06	153.18	13.82	
2025-01-15 10:07:41.26	153.18	13.84	
2025-01-15 10:07:41.46	153.17	13.86	
2025-01-15 10:07:41.67	153.17	13.88	
2025-01-15 10:07:41.87	153.17	13.90	
2025-01-15 10:07:42.07	153.17	13.92	
2025-01-15 10:07:42.28	153.16	13.94	
2025-01-15 10:07:42.48	153.16	13.96	
2025-01-15 10:07:42.68	153.16	13.98	
2025-01-15 10:07:42.89	153.16	14.01	
2025-01-15 10:07:43.09	153.15	14.03	
2025-01-15 10:07:43.29	153.15	14.05	
2025-01-15 10:07:43.49	153.15	14.07	
2025-01-15 10:07:43.70	153.15	14.09	
2025-01-15 10:07:43.90	153.14	14.11	
2025-01-15 10:07:44.10	153.14	14.13	
2025-01-15 10:07:44.31	153.14	14.15	
2025-01-15 10:07:44.51	153.14	14.17	
2025-01-15 10:07:44.71	153.13	14.19	
2025-01-15 10:07:44.92	153.13	14.21	
2025-01-15 10:07:45.12	153.13	14.24	
2025-01-15 10:07:45.32	153.13	14.26	
2025-01-15 10:07:45.52	153.12	14.28	
2025-01-15 10:07:45.73	153.12	14.30	
2025-01-15 10:07:45.93	153.12	14.32	
2025-01-15 10:07:46.13	153.12	14.34	
2025-01-15 10:07:46.34	153.11	14.36	
2025-01-15 10:07:46.54	153.11	14.38	
2025-01-15 10:07:46.74	153.11	14.40	
2025-01-15 10:07:46.94	153.11	14.42	
2025-01-15 10:07:47.15	153.10	14.45	
2025-01-15 10:07:47.35	153.10	14.47	
2025-01-15 10:07:47.55	153.10	14.49	
2025-01-15 10:07:47.76	153.09	14.51	
2025-01-15 10:07:47.96	153.09	14.53	
2025-01-15 10:07:48.16	153.09	14.55	
2025-01-15 10:07:48.37	153.09	14.57	
2025-01-15 10:07:48.57	153.08	14.60	
2025-01-15 10:07:48.77	153.08	14.62	
2025-01-15 10:07:48.97	153.08	14.64	
2025-01-15 10:07:49.18	153.08	14.66	
2025-01-15 10:07:49.38	153.07	14.68	
2025-01-15 10:07:49.58	153.07	14.70	
2025-01-15 10:07:49.79	153.07	14.72	
2025-01-15 10:07:49.99	153.07	14.75	
2025-01-15 10:07:50.19	153.06	14.77	
2025-01-15 10:07:50.39	153.06	14.79	
2025-01-15 10:07:50.60	153.06	14.81	
2025-01-15 10:07:50.80	153.06	14.83	
2025-01-15 10:07:51.00	153.05	14.85	
2025-01-15 10:07:51.21	153.05	14.88	
2025-01-15 10:07:51.41	153.05	14.90	
2025-01-15 10:07:51.61	153.04	14.92	
2025-01-15 10:07:51.82	153.04	14.94	
2025-01-15 10:07:52.02	153.04	14.96	
2025-01-15 10:07:52.22	153.04	14.98	
2025-01-15 10:07:52.42	153.03	15.00	
2025-01-15 10:07:52.63	153.03	15.03	
2025-01-15 10:07:52.83	153.03	15.05	
2025-01-15 10:07:53.03	153.03	15.07	
2025-01-15 10:07:53.24	153.02	15.09	
2025-01-15 10:07:53.44	153.02	15.11	
2025-01-15 10:07:53.64	153.02	15.14	
2025-01-15 10:07:53.84	153.02	15.16	
2025-01-15 10:07:54.05	153.01	15.18	
2025-01-15 10:07:54.25	153.01	15.20	
2025-01-15 10:07:54.45	153.01	15.22	
2025-01-15 10:07:54.66	153.00	15.25	
2025-01-15 10:07:54.86	153.00	15.27	
2025-01-15 10:07:55.06	153.00	15.29	
2025-01-15 10:07:55.27	153.00	15.31	
2025-01-15 10:07:55.47	152.99	15.33	
2025-01-15 10:07:55.67	152.99	15.36	
2025-01-15 10:07:55.87	152.99	15.38	
2025-01-15 10:07:56.08	152.98	15.40	
2025-01-15 10:07:56.28	152.98	15.42	
2025-01-15 10:07:56.48	152.98	15.44	
2025-01-15 10:07:56.69	152.98	15.47	
2025-01-15 10:07:56.89	152.97	15.49	
2025-01-15 10:07:57.09	152.97	15.51	
2025-01-15 10:07:57.30	152.97	15.53	
2025-01-15 10:07:57.50	152.97	15.56	
2025-01-15 10:07:57.70	152.96	15.58	
2025-01-15 10:07:57.90	152.96	15.60	
2025-01-15 10:07:58.11	152.96	15.62	
2025-01-15 10:07:58.31	152.95	15.64	
2025-01-15 10:07:58.51	152.95	15.67	
2025-01-15 10:07:58.72	152.95	15.69	
2025-01-15 10:07:58.92	152.95	15.71	
2025-01-15 10:07:59.12	152.94	15.73	
2025-01-15 10:07:59.32	152.94	15.76	
2025-01-15 10:07:59.53	152.94	15.78	
2025-01-15 10:07:59.73	152.93	15.80	
2025-01-15 10:07:59.93	152.93	15.82	
2025-01-15 10:08:00.14	152.93	15.85	
2025-01-15 10:08:00.34	152.93	15.87	
2025-01-15 10:08:00.54	152.92	15.89	
2025-01-15 10:08:00.75	152.92	15.91	
2025-01-15 10:08:00.95	152.92	15.94	
2025-01-15 10:08:01.15	152.91	15.96	
2025-01-15 10:08:01.35	152.91	15.98	
2025-01-15 10:08:01.56	152.91	16.00	
2025-01-15 10:08:01.76	152.90	16.03	
2025-01-15 10:08:01.96	152.90	16.05	
2025-01-15 10:08:02.17	152.90	16.07	
2025-01-15 10:08:02.37	152.90	16.09	
2025-01-15 10:08:02.57	152.89	16.12	
2025-01-15 10:08:02.77	152.89	16.14	
2025-01-15 10:08:02.98	152.89	16.16	
2025-01-15 10:08:03.18	152.88	16.19	
2025-01-15 10:08:03.38	152.88	16.21	
2025-01-15 10:08:03.59	152.88	16.23	
2025-01-15 10:08:03.79	152.88	16.25	
2025-01-15 10:08:03.99	152.87	16.28	
2025-01-15 10:08:04.20	152.87	16.30	
2025-01-15 10:08:04.40	152.87	16.32	
2025-01-15 10:08:04.60	152.86	16.35	
2025-01-15 10:08:04.80	152.86	16.37	
2025-01-15 10:08:05.01	152.86	16.39	
2025-01-15 10:08:05.21	152.85	16.41	
2025-01-15 10:08:05.41	152.85	16.44	
2025-01-15 10:08:05.62	152.85	16.46	
2025-01-15 10:08:05.82	152.85	16.48	
2025-01-15 10:08:06.02	152.84	16.51	
2025-01-15 10:08:06.22	152.84	16.53	
2025-01-15 10:08:06.43	152.84	16.55	
2025-01-15 10:08:06.63	152.83	16.58	
2025-01-15 10:08:06.83	152.83	16.60	
2025-01-15 10:08:07.04	152.83	16.62	
2025-01-15 10:08:07.24	152.82	16.65	
2025-01-15 10:08:07.44	152.82	16.67	
2025-01-15 10:08:07.65	152.82	16.69	
2025-01-15 10:08:07.85	152.81	16.72	
2025-01-15 10:08:08.05	152.81	16.74	
2025-01-15 10:08:08.25	152.81	16.76	
2025-01-15 10:08:08.46	152.81	16.79	
2025-01-15 10:08:08.66	152.80	16.81	
2025-01-15 10:08:08.86	152.80	16.83	
2025-01-15 10:08:09.07	152.80	16.86	
2025-01-15 10:08:09.27	152.79	16.88	
2025-01-15 10:08:09.47	152.79	16.90	
2025-01-15 10:08:09.68	152.79	16.93	
2025-01-15 10:08:09.88	152.78	16.95	
2025-01-15 10:08:10.08	152.78	16.97	
2025-01-15 10:08:10.28	152.78	17.00	
2025-01-15 10:08:10.49	152.77	17.02	
2025-01-15 10:08:10.69	152.77	17.04	
2025-01-15 10:08:10.89	152.77	17.07	
2025-01-15 10:08:11.10	152.76	17.09	
2025-01-15 10:08:11.30	152.76	17.12	
2025-01-15 10:08:11.50	152.76	17.14	
2025-01-15 10:08:11.70	152.75	17.16	
2025-01-15 10:08:11.91	152.75	17.19	
2025-01-15 10:08:12.11	152.75	17.21	
2025-01-15 10:08:12.31	152.74	17.23	
2025-01-15 10:08:12.52	152.74	17.26	
2025-01-15 10:08:12.72	152.74	17.28	
2025-01-15 10:08:12.92	152.74	17.31	
2025-01-15 10:08:13.13	152.73	17.33	
2025-01-15 10:08:13.33	152.73	17.35	
2025-01-15 10:08:13.53	152.73	17.38	
2025-01-15 10:08:13.73	152.72	17.40	
2025-01-15 10:08:13.94	152.72	17.43	
2025-01-15 10:08:14.14	152.72	17.45	
2025-01-15 10:08:14.34	152.71	17.47	
2025-01-15 10:08:14.55	152.71	17.50	
2025-01-15 10:08:14.75	152.71	17.52	
2025-01-15 10:08:14.95	152.70	17.55	
2025-01-15 10:08:15.15	152.70	17.57	
2025-01-15 10:08:15.36	152.70	17.59	
2025-01-15 10:08:15.56	152.69	17.62	
2025-01-15 10:08:15.76	152.69	17.64	
2025-01-15 10:08:15.97	152.69	17.67	
2025-01-15 10:08:16.17	152.68	17.69	
2025-01-15 10:08:16.37	152.68	17.71	
2025-01-15 10:08:16.58	152.68	17.74	
2025-01-15 10:08:16.78	152.67	17.76	
2025-01-15 10:08:16.98	152.67	17.79	
2025-01-15 10:08:17.18	152.67	17.81	
2025-01-15 10:08:17.39	152.66	17.84	
2025-01-15 10:08:17.59	152.66	17.86	
2025-01-15 10:08:17.79	152.66	17.88	
2025-01-15 10:08:18.00	152.65	17.91	
2025-01-15 10:08:18.20	152.65	17.93	
2025-01-15 10:08:18.40	152.65	17.96	
2025-01-15 10:08:18.61	152.64	17.98	
2025-01-15 10:08:18.81	152.64	18.01	
2025-01-15 10:08:19.01	152.64	18.03	
2025-01-15 10:08:19.21	152.63	18.06	
2025-01-15 10:08:19.42	152.63	18.08	
2025-01-15 10:08:19.62	152.62	18.11	
2025-01-15 10:08:19.82	152.62	18.13	
2025-01-15 10:08:20.03	152.62	18.16	
2025-01-15 10:08:20.23	152.61	18.18	
2025-01-15 10:08:20.43	152.61	18.20	
2025-01-15 10:08:20.63	152.61	18.23	
2025-01-15 10:08:20.84	152.60	18.25	
2025-01-15 10:08:21.04	152.60	18.28	
2025-01-15 10:08:21.24	152.60	18.30	
2025-01-15 10:08:21.45	152.59	18.33	
2025-01-15 10:08:21.65	152.59	18.35	
2025-01-15 10:08:21.85	152.59	18.38	
2025-01-15 10:08:22.06	152.58	18.40	
2025-01-15 10:08:22.26	152.58	18.43	
2025-01-15 10:08:22.46	152.58	18.45	
2025-01-15 10:08:22.66	152.57	18.48	
2025-01-15 10:08:22.87	152.57	18.50	
2025-01-15 10:08:23.07	152.57	18.53	
2025-01-15 10:08:23.27	152.56	18.55	
2025-01-15 10:08:23.48	152.56	18.58	
2025-01-15 10:08:23.68	152.55	18.60	
2025-01-15 10:08:23.88	152.55	18.63	
2025-01-15 10:08:24.08	152.55	18.65	
2025-01-15 10:08:24.29	152.54	18.68	
2025-01-15 10:08:24.49	152.54	18.71	
2025-01-15 10:08:24.69	152.54	18.73	
2025-01-15 10:08:24.90	152.53	18.76	
2025-01-15 10:08:25.10	152.53	18.78	
2025-01-15 10:08:25.30	152.53	18.81	
2025-01-15 10:08:25.51	152.52	18.83	
2025-01-15 10:08:25.71	152.52	18.86	
2025-01-15 10:08:25.91	152.51	18.88	
2025-01-15 10:08:26.11	152.51	18.91	
2025-01-15 10:08:26.32	152.51	18.93	
2025-01-15 10:08:26.52	152.50	18.96	
2025-01-15 10:08:26.72	152.50	18.98	
2025-01-15 10:08:26.93	152.50	19.01	
2025-01-15 10:08:27.13	152.49	19.04	
2025-01-15 10:08:27.33	152.49	19.06	
2025-01-15 10:08:27.53	152.48	19.09	
2025-01-15 10:08:27.74	152.48	19.11	
2025-01-15 10:08:27.94	152.48	19.14	
2025-01-15 10:08:28.14	152.47	19.16	
2025-01-15 10:08:28.35	152.47	19.19	
2025-01-15 10:08:28.55	152.47	19.22	
2025-01-15 10:08:28.75	152.46	19.24	
2025-01-15 10:08:28.96	152.46	19.27	
2025-01-15 10:08:29.16	152.45	19.29	
2025-01-15 10:08:29.36	152.45	19.32	
2025-01-15 10:08:29.56	152.45	19.34	
2025-01-15 10:08:29.77	152.44	19.37	
2025-01-15 10:08:29.97	152.44	19.40	
2025-01-15 10:08:30.17	152.44	19.42	
2025-01-15 10:08:30.38	152.43	19.45	
2025-01-15 10:08:30.58	152.43	19.48	
2025-01-15 10:08:30.78	152.42	19.50	
2025-01-15 10:08:30.99	152.42	19.53	
2025-01-15 10:08:31.19	152.42	19.55	
2025-01-15 10:08:31.39	152.41	19.58	
2025-01-15 10:08:31.59	152.41	19.61	
2025-01-15 10:08:31.80	152.41	19.63	
2025-01-15 10:08:32.00	152.40	19.66	
2025-01-15 10:08:32.20	152.40	19.68	
2025-01-15 10:08:32.41	152.39	19.71	
2025-01-15 10:08:32.61	152.39	19.74	
2025-01-15 10:08:32.81	152.39	19.76	
2025-01-15 10:08:33.01	152.38	19.79	
2025-01-15 10:08:33.22	152.38	19.82	
2025-01-15 10:08:33.42	152.37	19.84	
2025-01-15 10:08:33.62	152.37	19.87	
2025-01-15 10:08:33.83	152.37	19.90	
2025-01-15 10:08:34.03	152.36	19.92	
2025-01-15 10:08:34.23	152.36	19.95	
2025-01-15 10:08:34.44	152.35	19.98	
2025-01-15 10:08:34.64	152.35	20.00	
2025-01-15 10:08:34.84	152.35	20.03	
2025-01-15 10:08:35.04	152.34	20.05	
2025-01-15 10:08:35.25	152.34	20.08	
2025-01-15 10:08:35.45	152.33	20.11	
2025-01-15 10:08:35.65	152.33	20.13	
2025-01-15 10:08:35.86	152.33	20.16	
2025-01-15 10:08:36.06	152.32	20.19	
2025-01-15 10:08:36.26	152.32	20.22	
2025-01-15 10:08:36.46	152.31	20.24	
2025-01-15 10:08:36.67	152.31	20.27	
2025-01-15 10:08:36.87	152.31	20.30	
2025-01-15 10:08:37.07	152.30	20.32	
2025-01-15 10:08:37.28	152.30	20.35	
2025-01-15 10:08:37.48	152.29	20.38	
2025-01-15 10:08:37.68	152.29	20.40	
2025-01-15 10:08:37.89	152.29	20.43	
2025-01-15 10:08:38.09	152.28	20.46	
2025-01-15 10:08:38.29	152.28	20.49	
2025-01-15 10:08:38.49	152.27	20.51	
2025-01-15 10:08:38.70	152.27	20.54	
2025-01-15 10:08:38.90	152.26	20.57	
2025-01-15 10:08:39.10	152.26	20.59	
2025-01-15 10:08:39.31	152.26	20.62	
2025-01-15 10:08:39.51	152.25	20.65	
2025-01-15 10:08:39.71	152.25	20.68	
2025-01-15 10:08:39.91	152.24	20.70	
2025-01-15 10:08:40.12	152.24	20.73	
2025-01-15 10:08:40.32	152.24	20.76	
2025-01-15 10:08:40.52	152.23	20.79	
2025-01-15 10:08:40.73	152.23	20.81	
2025-01-15 10:08:40.93	152.22	20.84	
2025-01-15 10:08:41.13	152.22	20.87	
2025-01-15 10:08:41.34	152.21	20.90	
2025-01-15 10:08:41.54	152.21	20.92	
2025-01-15 10:08:41.74	152.21	20.95	
2025-01-15 10:08:41.94	152.20	20.98	
2025-01-15 10:08:42.15	152.20	21.01	
2025-01-15 10:08:42.35	152.19	21.03	
2025-01-15 10:08:42.55	152.19	21.06	
2025-01-15 10:08:42.76	152.18	21.09	
2025-01-15 10:08:42.96	152.18	21.12	
2025-01-15 10:08:43.16	152.18	21.15	
2025-01-15 10:08:43.37	152.17	21.17	
2025-01-15 10:08:43.57	152.17	21.20	
2025-01-15 10:08:43.77	152.16	21.23	
2025-01-15 10:08:43.97	152.16	21.26	
2025-01-15 10:08:44.18	152.15	21.29	
2025-01-15 10:08:44.38	152.15	21.31	
2025-01-15 10:08:44.58	152.14	21.34	
2025-01-15 10:08:44.79	152.14	21.37	
2025-01-15 10:08:44.99	152.14	21.40	
2025-01-15 10:08:45.19	152.13	21.43	
2025-01-15 10:08:45.39	152.13	21.45	
2025-01-15 10:08:45.60	152.12	21.48	
2025-01-15 10:08:45.80	152.12	21.51	
2025-01-15 10:08:46.00	152.11	21.54	
2025-01-15 10:08:46.21	152.11	21.57	
2025-01-15 10:08:46.41	152.10	21.60	
2025-01-15 10:08:46.61	152.10	21.62	
2025-01-15 10:08:46.82	152.10	21.65	
2025-01-15 10:08:47.02	152.09	21.68	
2025-01-15 10:08:47.22	152.09	21.71	
2025-01-15 10:08:47.42	152.08	21.74	
2025-01-15 10:08:47.63	152.08	21.77	
2025-01-15 10:08:47.83	152.07	21.79	
2025-01-15 10:08:48.03	152.07	21.82	
2025-01-15 10:08:48.24	152.06	21.85	
2025-01-15 10:08:48.44	152.06	21.88	
2025-01-15 10:08:48.64	152.05	21.91	
2025-01-15 10:08:48.84	152.05	21.94	
2025-01-15 10:08:49.05	152.05	21.97	
2025-01-15 10:08:49.25	152.04	21.99	
2025-01-15 10:08:49.45	152.04	22.02	
2025-01-15 10:08:49.66	152.03	22.05	
2025-01-15 10:08:49.86	152.03	22.08	
2025-01-15 10:08:50.06	152.02	22.11	
2025-01-15 10:08:50.27	152.02	22.14	
2025-01-15 10:08:50.47	152.01	22.17	
2025-01-15 10:08:50.67	152.01	22.20	
2025-01-15 10:08:50.87	152.00	22.23	
2025-01-15 10:08:51.08	152.00	22.26	
2025-01-15 10:08:51.28	151.99	22.28	
2025-01-15 10:08:51.48	151.99	22.31	
2025-01-15 10:08:51.69	151.98	22.34	
2025-01-15 10:08:51.89	151.98	22.37	
2025-01-15 10:08:52.09	151.98	22.40	
2025-01-15 10:08:52.29	151.97	22.43	
2025-01-15 10:08:52.50	151.97	22.46	
2025-01-15 10:08:52.70	151.96	22.49	
2025-01-15 10:08:52.90	151.96	22.52	
2025-01-15 10:08:53.11	151.95	22.55	
2025-01-15 10:08:53.31	151.95	22.58	
2025-01-15 10:08:53.51	151.94	22.61	
2025-01-15 10:08:53.72	151.94	22.64	
2025-01-15 10:08:53.92	151.93	22.67	
2025-01-15 10:08:54.12	151.93	22.70	
2025-01-15 10:08:54.32	151.92	22.72	
2025-01-15 10:08:54.53	151.92	22.76	
2025-01-15 10:08:54.73	151.91	22.78	
2025-01-15 10:08:54.93	151.91	22.81	
2025-01-15 10:08:55.14	151.90	22.84	
2025-01-15 10:08:55.34	151.90	22.87	
2025-01-15 10:08:55.54	151.89	22.90	
2025-01-15 10:08:55.75	151.89	22.93	
2025-01-15 10:08:55.95	151.88	22.96	
2025-01-15 10:08:56.15	151.88	22.99	
2025-01-15 10:08:56.35	151.87	23.02	
2025-01-15 10:08:56.56	151.87	23.05	
2025-01-15 10:08:56.76	151.86	23.08	
2025-01-15 10:08:56.96	151.86	23.11	
2025-01-15 10:08:57.17	151.85	23.14	
2025-01-15 10:08:57.37	151.85	23.17	
2025-01-15 10:08:57.57	151.84	23.20	
2025-01-15 10:08:57.77	151.84	23.23	
2025-01-15 10:08:57.98	151.83	23.26	
2025-01-15 10:08:58.18	151.83	23.29	
2025-01-15 10:08:58.38	151.82	23.32	
2025-01-15 10:08:58.59	151.82	23.36	
2025-01-15 10:08:58.79	151.81	23.39	
2025-01-15 10:08:58.99	151.81	23.42	
2025-01-15 10:08:59.20	151.80	23.45	
2025-01-15 10:08:59.40	151.80	23.48	
2025-01-15 10:08:59.60	151.79	23.51	
2025-01-15 10:08:59.80	151.79	23.54	
2025-01-15 10:09:00.01	151.78	23.57	
2025-01-15 10:09:00.21	151.78	23.60	
2025-01-15 10:09:00.41	151.77	23.63	
2025-01-15 10:09:00.62	151.77	23.66	
2025-01-15 10:09:00.82	151.76	23.69	
2025-01-15 10:09:01.02	151.76	23.72	
2025-01-15 10:09:01.22	151.75	23.75	
2025-01-15 10:09:01.43	151.74	23.78	
2025-01-15 10:09:01.63	151.74	23.81	
2025-01-15 10:09:01.83	151.73	23.84	
2025-01-15 10:09:02.04	151.73	23.88	
2025-01-15 10:09:02.24	151.72	23.91	
2025-01-15 10:09:02.44	151.72	23.94	
2025-01-15 10:09:02.65	151.71	23.97	
2025-01-15 10:09:02.85	151.71	24.00	
2025-01-15 10:09:03.05	151.70	24.03	
2025-01-15 10:09:03.25	151.70	24.06	
2025-01-15 10:09:03.46	151.69	24.09	
2025-01-15 10:09:03.66	151.69	24.12	
2025-01-15 10:09:03.86	151.68	24.16	
2025-01-15 10:09:04.07	151.68	24.19	
2025-01-15 10:09:04.27	151.67	24.22	
2025-01-15 10:09:04.47	151.66	24.25	
2025-01-15 10:09:04.67	151.66	24.28	
2025-01-15 10:09:04.88	151.65	24.31	
2025-01-15 10:09:05.08	151.65	24.34	
2025-01-15 10:09:05.28	151.64	24.38	
2025-01-15 10:09:05.49	151.64	24.41	
2025-01-15 10:09:05.69	151.63	24.44	
2025-01-15 10:09:05.89	151.63	24.47	
2025-01-15 10:09:06.10	151.62	24.50	
2025-01-15 10:09:06.30	151.62	24.53	
2025-01-15 10:09:06.50	151.61	24.57	
2025-01-15 10:09:06.70	151.60	24.60	
2025-01-15 10:09:06.91	151.60	24.63	
2025-01-15 10:09:07.11	151.59	24.66	
2025-01-15 10:09:07.31	151.59	24.69	
2025-01-15 10:09:07.52	151.58	24.73	
2025-01-15 10:09:07.72	151.58	24.76	
2025-01-15 10:09:07.92	151.57	24.79	
2025-01-15 10:09:08.13	151.56	24.82	
2025-01-15 10:09:08.33	151.56	24.85	
2025-01-15 10:09:08.53	151.55	24.89	
2025-01-15 10:09:08.73	151.55	24.92	
2025-01-15 10:09:08.94	151.54	24.95	
2025-01-15 10:09:09.14	151.54	24.98	
2025-01-15 10:09:09.34	151.53	25.01	
2025-01-15 10:09:09.55	151.52	25.05	
2025-01-15 10:09:09.75	151.52	25.08	
2025-01-15 10:09:09.95	151.51	25.11	
2025-01-15 10:09:10.15	151.51	25.14	
2025-01-15 10:09:10.36	151.50	25.18	
2025-01-15 10:09:10.56	151.50	25.21	
2025-01-15 10:09:10.76	151.49	25.24	
2025-01-15 10:09:10.97	151.48	25.28	
2025-01-15 10:09:11.17	151.48	25.31	
2025-01-15 10:09:11.37	151.47	25.34	
2025-01-15 10:09:11.58	151.47	25.37	
2025-01-15 10:09:11.78	151.46	25.41	
2025-01-15 10:09:11.98	151.46	25.44	
2025-01-15 10:09:12.18	151.45	25.47	
2025-01-15 10:09:12.39	151.44	25.50	
2025-01-15 10:09:12.59	151.44	25.54	
2025-01-15 10:09:12.79	151.43	25.57	
2025-01-15 10:09:13.00	151.43	25.60	
2025-01-15 10:09:13.20	151.42	25.64	
2025-01-15 10:09:13.40	151.41	25.67	
2025-01-15 10:09:13.60	151.41	25.70	
2025-01-15 10:09:13.81	151.40	25.74	
2025-01-15 10:09:14.01	151.40	25.77	
2025-01-15 10:09:14.21	151.39	25.80	
2025-01-15 10:09:14.42	151.38	25.84	
2025-01-15 10:09:14.62	151.38	25.87	
2025-01-15 10:09:14.82	151.37	25.90	
2025-01-15 10:09:15.03	151.36	25.94	
2025-01-15 10:09:15.23	151.36	25.97	
2025-01-15 10:09:15.43	151.35	26.00	
2025-01-15 10:09:15.63	151.35	26.04	
2025-01-15 10:09:15.84	151.34	26.07	
2025-01-15 10:09:16.04	151.33	26.10	
2025-01-15 10:09:16.24	151.33	26.14	
2025-01-15 10:09:16.45	151.32	26.17	
2025-01-15 10:09:16.65	151.32	26.20	
2025-01-15 10:09:16.85	151.31	26.24	
2025-01-15 10:09:17.05	151.30	26.27	
2025-01-15 10:09:17.26	151.30	26.31	
2025-01-15 10:09:17.46	151.29	26.34	
2025-01-15 10:09:17.66	151.28	26.37	
2025-01-15 10:09:17.87	151.28	26.41	
2025-01-15 10:09:18.07	151.27	26.44	
2025-01-15 10:09:18.27	151.27	26.48	
2025-01-15 10:09:18.48	151.26	26.51	
2025-01-15 10:09:18.68	151.25	26.54	
2025-01-15 10:09:18.88	151.25	26.58	
2025-01-15 10:09:19.08	151.24	26.61	
2025-01-15 10:09:19.29	151.23	26.65	
2025-01-15 10:09:19.49	151.23	26.68	
2025-01-15 10:09:19.69	151.22	26.72	
2025-01-15 10:09:19.90	151.21	26.75	
2025-01-15 10:09:20.10	151.21	26.79	
2025-01-15 10:09:20.30	151.20	26.82	
2025-01-15 10:09:20.51	151.19	26.86	
2025-01-15 10:09:20.71	151.19	26.89	
2025-01-15 10:09:20.91	151.18	26.92	
2025-01-15 10:09:21.11	151.17	26.96	
2025-01-15 10:09:21.32	151.17	26.99	
2025-01-15 10:09:21.52	151.16	27.03	
2025-01-15 10:09:21.72	151.16	27.06	
2025-01-15 10:09:21.93	151.15	27.10	
2025-01-15 10:09:22.13	151.14	27.13	
2025-01-15 10:09:22.33	151.14	27.17	
2025-01-15 10:09:22.53	151.13	27.20	
2025-01-15 10:09:22.74	151.12	27.24	
2025-01-15 10:09:22.94	151.12	27.27	
2025-01-15 10:09:23.14	151.11	27.31	
2025-01-15 10:09:23.35	151.10	27.34	
2025-01-15 10:09:23.55	151.09	27.38	
2025-01-15 10:09:23.75	151.09	27.41	
2025-01-15 10:09:23.96	151.08	27.45	
2025-01-15 10:09:24.16	151.07	27.48	
2025-01-15 10:09:24.36	151.07	27.52	
2025-01-15 10:09:24.56	151.06	27.55	
2025-01-15 10:09:24.77	151.05	27.59	
2025-01-15 10:09:24.97	151.05	27.63	
2025-01-15 10:09:25.17	151.04	27.66	
2025-01-15 10:09:25.38	151.03	27.70	
2025-01-15 10:09:25.58	151.03	27.73	
2025-01-15 10:09:25.78	151.02	27.77	
2025-01-15 10:09:25.98	151.01	27.80	
2025-01-15 10:09:26.19	151.01	27.84	
2025-01-15 10:09:26.39	151.00	27.88	
2025-01-15 10:09:26.59	150.99	27.91	
2025-01-15 10:09:26.80	150.98	27.95	
2025-01-15 10:09:27.00	150.98	27.98	
2025-01-15 10:09:27.20	150.97	28.02	
2025-01-15 10:09:27.41	150.96	28.06	
2025-01-15 10:09:27.61	150.96	28.09	
2025-01-15 10:09:27.81	150.95	28.13	
2025-01-15 10:09:28.01	150.94	28.16	
2025-01-15 10:09:28.22	150.93	28.20	
2025-01-15 10:09:28.42	150.93	28.24	
2025-01-15 10:09:28.62	150.92	28.27	
2025-01-15 10:09:28.83	150.91	28.31	
2025-01-15 10:09:29.03	150.91	28.35	
2025-01-15 10:09:29.23	150.90	28.38	
2025-01-15 10:09:29.43	150.89	28.42	
2025-01-15 10:09:29.64	150.88	28.46	
2025-01-15 10:09:29.84	150.88	28.49	
2025-01-15 10:09:30.04	150.87	28.53	
2025-01-15 10:09:30.25	150.86	28.57	
2025-01-15 10:09:30.45	150.86	28.60	
2025-01-15 10:09:30.65	150.85	28.64	
2025-01-15 10:09:30.86	150.84	28.68	
2025-01-15 10:09:31.06	150.83	28.71	
2025-01-15 10:09:31.26	150.83	28.75	
2025-01-15 10:09:31.46	150.82	28.79	
2025-01-15 10:09:31.67	150.81	28.83	
2025-01-15 10:09:31.87	150.80	28.86	
2025-01-15 10:09:32.07	150.80	28.90	
2025-01-15 10:09:32.28	150.79	28.94	
2025-01-15 10:09:32.48	150.78	28.97	
2025-01-15 10:09:32.68	150.77	29.01	
2025-01-15 10:09:32.89	150.77	29.05	
2025-01-15 10:09:33.09	150.76	29.09	
2025-01-15 10:09:33.29	150.75	29.12	
2025-01-15 10:09:33.49	150.74	29.16	
2025-01-15 10:09:33.70	150.74	29.20	
2025-01-15 10:09:33.90	150.73	29.24	
2025-01-15 10:09:34.10	150.72	29.27	
2025-01-15 10:09:34.31	150.71	29.31	
2025-01-15 10:09:34.51	150.70	29.35	
2025-01-15 10:09:34.71	150.70	29.39	
2025-01-15 10:09:34.91	150.69	29.43	
2025-01-15 10:09:35.12	150.68	29.46	
2025-01-15 10:09:35.32	150.67	29.50	
2025-01-15 10:09:35.52	150.67	29.54	
2025-01-15 10:09:35.73	150.66	29.58	
2025-01-15 10:09:35.93	150.65	29.62	
2025-01-15 10:09:36.13	150.64	29.65	
2025-01-15 10:09:36.34	150.63	29.69	
2025-01-15 10:09:36.54	150.63	29.73	
2025-01-15 10:09:36.74	150.62	29.77	
2025-01-15 10:09:36.94	150.61	29.81	
2025-01-15 10:09:37.15	150.60	29.85	
2025-01-15 10:09:37.35	150.59	29.89	
2025-01-15 10:09:37.55	150.59	29.92	
2025-01-15 10:09:37.76	150.58	29.96	
2025-01-15 10:09:37.96	150.57	30.00	
2025-01-15 10:09:38.16	150.56	30.04	
2025-01-15 10:09:38.36	150.55	30.08	
2025-01-15 10:09:38.57	150.55	30.12	
2025-01-15 10:09:38.77	150.54	30.16	
2025-01-15 10:09:38.97	150.53	30.19	
2025-01-15 10:09:39.18	150.52	30.23	
2025-01-15 10:09:39.38	150.51	30.27	
2025-01-15 10:09:39.58	150.51	30.31	
2025-01-15 10:09:39.79	150.50	30.35	
2025-01-15 10:09:39.99	150.49	30.39	
2025-01-15 10:09:40.19	150.48	30.43	
2025-01-15 10:09:40.39	150.47	30.47	
2025-01-15 10:09:40.60	150.46	30.51	
2025-01-15 10:09:40.80	150.46	30.55	
2025-01-15 10:09:41.00	150.45	30.59	
2025-01-15 10:09:41.21	150.44	30.63	
2025-01-15 10:09:41.41	150.43	30.67	
2025-01-15 10:09:41.61	150.42	30.71	
2025-01-15 10:09:41.82	150.41	30.75	
2025-01-15 10:09:42.02	150.41	30.79	
2025-01-15 10:09:42.22	150.40	30.82	
2025-01-15 10:09:42.42	150.39	30.86	
2025-01-15 10:09:42.63	150.38	30.91	
2025-01-15 10:09:42.83	150.37	30.94	
2025-01-15 10:09:43.03	150.36	30.98	
2025-01-15 10:09:43.24	150.35	31.03	
2025-01-15 10:09:43.44	150.35	31.06	
2025-01-15 10:09:43.64	150.34	31.10	
2025-01-15 10:09:43.84	150.33	31.14	
2025-01-15 10:09:44.05	150.32	31.19	
2025-01-15 10:09:44.25	150.31	31.23	
2025-01-15 10:09:44.45	150.30	31.27	
2025-01-15 10:09:44.66	150.29	31.31	
2025-01-15 10:09:44.86	150.28	31.35	
2025-01-15 10:09:45.06	150.28	31.39	
2025-01-15 10:09:45.27	150.27	31.43	
2025-01-15 10:09:45.47	150.26	31.47	
2025-01-15 10:09:45.67	150.25	31.51	
2025-01-15 10:09:45.87	150.24	31.55	
2025-01-15 10:09:46.08	150.23	31.59	
2025-01-15 10:09:46.28	150.22	31.63	
2025-01-15 10:09:46.48	150.21	31.67	
2025-01-15 10:09:46.69	150.20	31.71	
2025-01-15 10:09:46.89	150.19	31.75	
2025-01-15 10:09:47.09	150.19	31.80	
2025-01-15 10:09:47.29	150.18	31.84	
2025-01-15 10:09:47.50	150.17	31.88	
2025-01-15 10:09:47.70	150.16	31.92	
2025-01-15 10:09:47.90	150.15	31.96	
2025-01-15 10:09:48.11	150.14	32.00	
2025-01-15 10:09:48.31	150.13	32.04	
2025-01-15 10:09:48.51	150.12	32.08	
2025-01-15 10:09:48.72	150.11	32.13	
2025-01-15 10:09:48.92	150.10	32.17	
2025-01-15 10:09:49.12	150.09	32.21	
2025-01-15 10:09:49.32	150.08	32.25	
2025-01-15 10:09:49.53	150.07	32.29	
2025-01-15 10:09:49.73	150.07	32.33	
2025-01-15 10:09:49.93	150.06	32.38	
2025-01-15 10:09:50.14	150.05	32.42	
2025-01-15 10:09:50.34	150.04	32.46	
2025-01-15 10:09:50.54	150.03	32.50	
2025-01-15 10:09:50.74	150.02	32.54	
2025-01-15 10:09:50.95	150.01	32.59	
2025-01-15 10:09:51.15	150.00	32.63	
2025-01-15 10:09:51.35	149.99	32.67	
2025-01-15 10:09:51.56	149.98	32.71	
2025-01-15 10:09:51.76	149.97	32.76	
2025-01-15 10:09:51.96	149.96	32.80	
2025-01-15 10:09:52.17	149.95	32.84	
2025-01-15 10:09:52.37	149.94	32.88	
2025-01-15 10:09:52.57	149.93	32.93	
2025-01-15 10:09:52.77	149.92	32.97	
2025-01-15 10:09:52.98	149.91	33.01	
2025-01-15 10:09:53.18	149.90	33.05	
2025-01-15 10:09:53.38	149.89	33.10	
2025-01-15 10:09:53.59	149.88	33.14	
2025-01-15 10:09:53.79	149.87	33.18	
2025-01-15 10:09:53.99	149.86	33.23	
2025-01-15 10:09:54.20	149.85	33.27	
2025-01-15 10:09:54.40	149.84	33.31	
2025-01-15 10:09:54.60	149.83	33.36	
2025-01-15 10:09:54.80	149.82	33.40	
2025-01-15 10:09:55.01	149.81	33.44	
2025-01-15 10:09:55.21	149.80	33.49	
2025-01-15 10:09:55.41	149.79	33.53	
2025-01-15 10:09:55.62	149.78	33.57	
2025-01-15 10:09:55.82	149.77	33.62	
2025-01-15 10:09:56.02	149.76	33.66	
2025-01-15 10:09:56.22	149.75	33.70	
2025-01-15 10:09:56.43	149.74	33.75	
2025-01-15 10:09:56.63	149.73	33.79	
2025-01-15 10:09:56.83	149.72	33.84	
2025-01-15 10:09:57.04	149.71	33.88	
2025-01-15 10:09:57.24	149.70	33.92	
2025-01-15 10:09:57.44	149.69	33.97	
2025-01-15 10:09:57.65	149.68	34.01	
2025-01-15 10:09:57.85	149.67	34.06	
2025-01-15 10:09:58.05	149.66	34.10	
2025-01-15 10:09:58.25	149.65	34.14	
2025-01-15 10:09:58.46	149.64	34.19	
2025-01-15 10:09:58.66	149.63	34.23	
2025-01-15 10:09:58.86	149.61	34.28	
2025-01-15 10:09:59.07	149.60	34.32	
2025-01-15 10:09:59.27	149.59	34.37	
2025-01-15 10:09:59.47	149.58	34.41	
2025-01-15 10:09:59.67	149.57	34.46	
2025-01-15 10:09:59.88	149.56	34.50	
2025-01-15 10:10:00.08	149.55	34.55	
2025-01-15 10:10:00.28	149.54	34.59	
2025-01-15 10:10:00.49	149.53	34.64	
2025-01-15 10:10:00.69	149.52	34.68	
2025-01-15 10:10:00.89	149.51	34.73	
2025-01-15 10:10:01.10	149.50	34.77	
2025-01-15 10:10:01.30	149.48	34.82	
2025-01-15 10:10:01.50	149.47	34.86	
2025-01-15 10:10:01.70	149.46	34.91	
2025-01-15 10:10:01.91	149.45	34.95	
2025-01-15 10:10:02.11	149.44	35.00	
2025-01-15 10:10:02.31	149.43	35.04	
2025-01-15 10:10:02.52	149.42	35.09	
2025-01-15 10:10:02.72	149.41	35.14	
2025-01-15 10:10:02.92	149.39	35.18	
2025-01-15 10:10:03.12	149.38	35.23	
2025-01-15 10:10:03.33	149.37	35.27	
2025-01-15 10:10:03.53	149.36	35.32	
2025-01-15 10:10:03.73	149.35	35.37	
2025-01-15 10:10:03.94	149.34	35.41	
2025-01-15 10:10:04.14	149.33	35.46	
2025-01-15 10:10:04.34	149.31	35.50	
2025-01-15 10:10:04.55	149.30	35.55	
2025-01-15 10:10:04.75	149.29	35.60	
2025-01-15 10:10:04.95	149.28	35.64	
2025-01-15 10:10:05.15	149.27	35.69	
2025-01-15 10:10:05.36	149.26	35.74	
2025-01-15 10:10:05.56	149.24	35.78	
2025-01-15 10:10:05.76	149.23	35.83	
2025-01-15 10:10:05.97	149.22	35.88	
2025-01-15 10:10:06.17	149.21	35.92	
2025-01-15 10:10:06.37	149.20	35.97	
2025-01-15 10:10:06.58	149.19	36.02	
2025-01-15 10:10:06.78	149.17	36.07	
2025-01-15 10:10:06.98	149.16	36.11	
2025-01-15 10:10:07.18	149.15	36.16	
2025-01-15 10:10:07.39	149.14	36.21	
2025-01-15 10:10:07.59	149.13	36.25	
2025-01-15 10:10:07.79	149.11	36.30	
2025-01-15 10:10:08.00	149.10	36.35	
2025-01-15 10:10:08.20	149.09	36.40	
2025-01-15 10:10:08.40	149.08	36.44	
2025-01-15 10:10:08.60	149.06	36.49	
2025-01-15 10:10:08.81	149.05	36.54	
2025-01-15 10:10:09.01	149.04	36.59	
2025-01-15 10:10:09.21	149.03	36.63	
2025-01-15 10:10:09.42	149.01	36.68	
2025-01-15 10:10:09.62	149.00	36.73	
2025-01-15 10:10:09.82	148.99	36.78	
2025-01-15 10:10:10.03	148.98	36.83	
2025-01-15 10:10:10.23	148.96	36.88	
2025-01-15 10:10:10.43	148.95	36.92	
2025-01-15 10:10:10.63	148.94	36.97	
2025-01-15 10:10:10.84	148.93	37.02	
2025-01-15 10:10:11.04	148.91	37.07	
2025-01-15 10:10:11.24	148.90	37.12	
2025-01-15 10:10:11.45	148.89	37.17	
2025-01-15 10:10:11.65	148.87	37.22	
2025-01-15 10:10:11.85	148.86	37.26	
2025-01-15 10:10:12.05	148.85	37.31	
2025-01-15 10:10:12.26	148.84	37.36	
2025-01-15 10:10:12.46	148.82	37.41	
2025-01-15 10:10:12.66	148.81	37.46	
2025-01-15 10:10:12.87	148.80	37.51	
2025-01-15 10:10:13.07	148.78	37.56	
2025-01-15 10:10:13.27	148.77	37.61	
2025-01-15 10:10:13.48	148.76	37.66	
2025-01-15 10:10:13.68	148.74	37.71	
2025-01-15 10:10:13.88	148.73	37.76	
2025-01-15 10:10:14.08	148.72	37.80	
2025-01-15 10:10:14.29	148.70	37.86	
2025-01-15 10:10:14.49	148.69	37.90	
2025-01-15 10:10:14.69	148.68	37.95	
2025-01-15 10:10:14.90	148.66	38.01	
2025-01-15 10:10:15.10	148.65	38.05	
2025-01-15 10:10:15.30	148.64	38.10	
2025-01-15 10:10:15.50	148.62	38.15	
2025-01-15 10:10:15.71	148.61	38.20	
2025-01-15 10:10:15.91	148.59	38.25	
2025-01-15 10:10:16.11	148.58	38.30	
2025-01-15 10:10:16.32	148.57	38.36	
2025-01-15 10:10:16.52	148.55	38.41	
2025-01-15 10:10:16.72	148.54	38.46	
2025-01-15 10:10:16.93	148.52	38.51	
2025-01-15 10:10:17.13	148.51	38.56	
2025-01-15 10:10:17.33	148.50	38.61	
2025-01-15 10:10:17.53	148.48	38.66	
2025-01-15 10:10:17.74	148.47	38.71	
2025-01-15 10:10:17.94	148.45	38.76	
2025-01-15 10:10:18.14	148.44	38.81	
2025-01-15 10:10:18.35	148.43	38.86	
2025-01-15 10:10:18.55	148.41	38.91	
2025-01-15 10:10:18.75	148.40	38.96	
2025-01-15 10:10:18.96	148.38	39.02	
2025-01-15 10:10:19.16	148.37	39.07	
2025-01-15 10:10:19.36	148.35	39.12	
2025-01-15 10:10:19.56	148.34	39.17	
2025-01-15 10:10:19.77	148.32	39.22	
2025-01-15 10:10:19.97	148.31	39.27	
2025-01-15 10:10:20.17	148.30	39.32	
2025-01-15 10:10:20.38	148.28	39.38	
2025-01-15 10:10:20.58	148.27	39.43	
2025-01-15 10:10:20.78	148.25	39.48	
2025-01-15 10:10:20.98	148.24	39.53	
2025-01-15 10:10:21.19	148.22	39.59	
2025-01-15 10:10:21.39	148.21	39.64	
2025-01-15 10:10:21.59	148.19	39.69	
2025-01-15 10:10:21.80	148.17	39.74	
2025-01-15 10:10:22.00	148.16	39.79	
2025-01-15 10:10:22.20	148.14	39.85	
2025-01-15 10:10:22.41	148.13	39.90	
2025-01-15 10:10:22.61	148.11	39.95	
2025-01-15 10:10:22.81	148.10	40.00	
2025-01-15 10:10:23.01	148.08	40.06	
2025-01-15 10:10:23.22	148.07	40.11	
2025-01-15 10:10:23.42	148.05	40.16	
2025-01-15 10:10:23.62	148.04	40.22	
2025-01-15 10:10:23.83	148.02	40.27	
2025-01-15 10:10:24.03	148.01	40.32	
2025-01-15 10:10:24.23	147.99	40.38	
2025-01-15 10:10:24.43	147.97	40.43	
2025-01-15 10:10:24.64	147.96	40.48	
2025-01-15 10:10:24.84	147.94	40.54	
2025-01-15 10:10:25.04	147.93	40.59	
2025-01-15 10:10:25.25	147.91	40.64	
2025-01-15 10:10:25.45	147.89	40.70	
2025-01-15 10:10:25.65	147.88	40.75	
2025-01-15 10:10:25.86	147.86	40.81	
2025-01-15 10:10:26.06	147.84	40.86	
2025-01-15 10:10:26.26	147.83	40.91	
2025-01-15 10:10:26.46	147.81	40.97	
2025-01-15 10:10:26.67	147.80	41.02	
2025-01-15 10:10:26.87	147.78	41.08	
2025-01-15 10:10:27.07	147.76	41.13	
2025-01-15 10:10:27.28	147.75	41.19	
2025-01-15 10:10:27.48	147.73	41.24	
2025-01-15 10:10:27.68	147.71	41.29	
2025-01-15 10:10:27.88	147.70	41.35	
2025-01-15 10:10:28.09	147.68	41.40	
2025-01-15 10:10:28.29	147.66	41.46	
2025-01-15 10:10:28.49	147.65	41.51	
2025-01-15 10:10:28.70	147.63	41.57	
2025-01-15 10:10:28.90	147.61	41.62	
2025-01-15 10:10:29.10	147.59	41.68	
2025-01-15 10:10:29.31	147.58	41.73	
2025-01-15 10:10:29.51	147.56	41.79	
2025-01-15 10:10:29.71	147.54	41.84	
2025-01-15 10:10:29.91	147.53	41.90	
2025-01-15 10:10:30.12	147.51	41.96	
2025-01-15 10:10:30.32	147.49	42.01	
2025-01-15 10:10:30.52	147.47	42.07	
2025-01-15 10:10:30.73	147.45	42.12	
2025-01-15 10:10:30.93	147.44	42.18	
2025-01-15 10:10:31.13	147.42	42.23	
2025-01-15 10:10:31.34	147.40	42.29	
2025-01-15 10:10:31.54	147.38	42.35	
2025-01-15 10:10:31.74	147.37	42.40	
2025-01-15 10:10:31.94	147.35	42.46	
2025-01-15 10:10:32.15	147.33	42.52	
2025-01-15 10:10:32.35	147.31	42.57	
2025-01-15 10:10:32.55	147.29	42.63	
2025-01-15 10:10:32.76	147.27	42.69	
2025-01-15 10:10:32.96	147.26	42.74	
2025-01-15 10:10:33.16	147.24	42.80	
2025-01-15 10:10:33.36	147.22	42.85	
2025-01-15 10:10:33.57	147.20	42.91	
2025-01-15 10:10:33.77	147.18	42.97	
2025-01-15 10:10:33.97	147.16	43.03	
2025-01-15 10:10:34.18	147.14	43.08	
2025-01-15 10:10:34.38	147.13	43.14	
2025-01-15 10:10:34.58	147.11	43.20	
2025-01-15 10:10:34.79	147.09	43.26	
2025-01-15 10:10:34.99	147.07	43.31	
2025-01-15 10:10:35.19	147.05	43.37	
2025-01-15 10:10:35.39	147.03	43.43	
2025-01-15 10:10:35.60	147.01	43.49	
2025-01-15 10:10:35.80	146.99	43.54	
2025-01-15 10:10:36.00	146.97	43.60	
2025-01-15 10:10:36.21	146.95	43.66	
2025-01-15 10:10:36.41	146.93	43.72	
2025-01-15 10:10:36.61	146.91	43.78	
2025-01-15 10:10:36.81	146.89	43.83	
2025-01-15 10:10:37.02	146.87	43.89	
2025-01-15 10:10:37.22	146.85	43.95	
2025-01-15 10:10:37.42	146.84	44.01	
2025-01-15 10:10:37.63	146.81	44.07	
2025-01-15 10:10:37.83	146.79	44.13	
2025-01-15 10:10:38.03	146.77	44.19	
2025-01-15 10:10:38.24	146.75	44.25	
2025-01-15 10:10:38.44	146.73	44.30	
2025-01-15 10:10:38.64	146.71	44.36	
2025-01-15 10:10:38.84	146.69	44.42	
2025-01-15 10:10:39.05	146.67	44.48	
2025-01-15 10:10:39.25	146.65	44.54	
2025-01-15 10:10:39.45	146.63	44.60	
2025-01-15 10:10:39.66	146.61	44.66	
2025-01-15 10:10:39.86	146.59	44.72	
2025-01-15 10:10:40.06	146.57	44.78	
2025-01-15 10:10:40.26	146.55	44.84	
2025-01-15 10:10:40.47	146.53	44.90	
2025-01-15 10:10:40.67	146.51	44.96	
2025-01-15 10:10:40.87	146.48	45.02	
2025-01-15 10:10:41.08	146.46	45.08	
2025-01-15 10:10:41.28	146.44	45.14	
2025-01-15 10:10:41.48	146.42	45.20	
2025-01-15 10:10:41.69	146.40	45.26	
2025-01-15 10:10:41.89	146.38	45.32	
2025-01-15 10:10:42.09	146.36	45.38	
2025-01-15 10:10:42.29	146.33	45.44	
2025-01-15 10:10:42.50	146.31	45.50	
2025-01-15 10:10:42.70	146.29	45.56	
2025-01-15 10:10:42.90	146.27	45.62	
2025-01-15 10:10:43.11	146.24	45.68	
2025-01-15 10:10:43.31	146.22	45.74	
2025-01-15 10:10:43.51	146.20	45.80	
2025-01-15 10:10:43.72	146.18	45.87	
2025-01-15 10:10:43.92	146.15	45.93	
2025-01-15 10:10:44.12	146.13	45.99	
2025-01-15 10:10:44.32	146.11	46.05	
2025-01-15 10:10:44.53	146.09	46.11	
2025-01-15 10:10:44.73	146.06	46.17	
2025-01-15 10:10:44.93	146.04	46.23	
2025-01-15 10:10:45.14	146.02	46.30	
2025-01-15 10:10:45.34	145.99	46.36	
2025-01-15 10:10:45.54	145.97	46.42	
2025-01-15 10:10:45.74	145.95	46.48	
2025-01-15 10:10:45.95	145.92	46.55	
2025-01-15 10:10:46.15	145.90	46.61	
2025-01-15 10:10:46.35	145.88	46.67	
2025-01-15 10:10:46.56	145.85	46.73	
2025-01-15 10:10:46.76	145.83	46.79	
2025-01-15 10:10:46.96	145.81	46.86	
2025-01-15 10:10:47.17	145.78	46.92	
2025-01-15 10:10:47.37	145.76	46.98	
2025-01-15 10:10:47.57	145.73	47.05	
2025-01-15 10:10:47.77	145.71	47.11	
2025-01-15 10:10:47.98	145.68	47.17	
2025-01-15 10:10:48.18	145.66	47.23	
2025-01-15 10:10:48.38	145.64	47.30	
2025-01-15 10:10:48.59	145.61	47.36	
2025-01-15 10:10:48.79	145.59	47.42	
2025-01-15 10:10:48.99	145.56	47.49	
2025-01-15 10:10:49.19	145.54	47.55	
2025-01-15 10:10:49.40	145.51	47.62	
2025-01-15 10:10:49.60	145.48	47.68	
2025-01-15 10:10:49.80	145.46	47.74	
2025-01-15 10:10:50.01	145.43	47.81	
2025-01-15 10:10:50.21	145.41	47.87	
2025-01-15 10:10:50.41	145.38	47.93	
2025-01-15 10:10:50.62	145.36	48.00	
2025-01-15 10:10:50.82	145.33	48.06	
2025-01-15 10:10:51.02	145.30	48.13	
2025-01-15 10:10:51.22	145.28	48.19	
2025-01-15 10:10:51.43	145.25	48.26	
2025-01-15 10:10:51.63	145.23	48.32	
2025-01-15 10:10:51.83	145.20	48.38	
2025-01-15 10:10:52.04	145.17	48.45	
2025-01-15 10:10:52.24	145.15	48.52	
2025-01-15 10:10:52.44	145.12	48.58	
2025-01-15 10:10:52.65	145.09	48.65	
2025-01-15 10:10:52.85	145.07	48.71	
2025-01-15 10:10:53.05	145.04	48.78	
2025-01-15 10:10:53.25	145.01	48.84	
2025-01-15 10:10:53.46	144.98	48.91	
2025-01-15 10:10:53.66	144.96	48.97	
2025-01-15 10:10:53.86	144.93	49.04	
2025-01-15 10:10:54.07	144.90	49.10	
2025-01-15 10:10:54.27	144.87	49.17	
2025-01-15 10:10:54.47	144.84	49.23	
2025-01-15 10:10:54.67	144.82	49.30	
2025-01-15 10:10:54.88	144.79	49.37	
2025-01-15 10:10:55.08	144.76	49.43	
2025-01-15 10:10:55.28	144.73	49.50	
2025-01-15 10:10:55.49	144.70	49.57	
2025-01-15 10:10:55.69	144.67	49.63	
2025-01-15 10:10:55.89	144.64	49.70	
2025-01-15 10:10:56.10	144.61	49.77	
2025-01-15 10:10:56.30	144.59	49.83	
2025-01-15 10:10:56.50	144.56	49.90	
2025-01-15 10:10:56.70	144.53	49.96	
2025-01-15 10:10:56.91	144.50	50.03	
2025-01-15 10:10:57.11	144.47	50.10	
2025-01-15 10:10:57.31	144.44	50.17	
2025-01-15 10:10:57.52	144.41	50.23	
2025-01-15 10:10:57.72	144.38	50.30	
2025-01-15 10:10:57.92	144.35	50.37	
2025-01-15 10:10:58.12	144.32	50.43	
2025-01-15 10:10:58.33	144.29	50.50	
2025-01-15 10:10:58.53	144.26	50.57	
2025-01-15 10:10:58.73	144.23	50.64	
2025-01-15 10:10:58.94	144.19	50.71	
2025-01-15 10:10:59.14	144.16	50.77	
2025-01-15 10:10:59.34	144.13	50.84	
2025-01-15 10:10:59.55	144.10	50.91	
2025-01-15 10:10:59.75	144.07	50.98	
2025-01-15 10:10:59.95	144.04	51.05	
2025-01-15 10:11:00.15	144.01	51.11	
2025-01-15 10:11:00.36	143.97	51.18	
2025-01-15 10:11:00.56	143.94	51.25	
2025-01-15 10:11:00.76	143.91	51.32	
2025-01-15 10:11:00.97	143.88	51.39	
2025-01-15 10:11:01.17	143.84	51.46	
2025-01-15 10:11:01.37	143.81	51.53	
2025-01-15 10:11:01.57	143.78	51.59	
2025-01-15 10:11:01.78	143.75	51.67	
2025-01-15 10:11:01.98	143.71	51.73	
2025-01-15 10:11:02.18	143.68	51.80	
2025-01-15 10:11:02.39	143.65	51.87	
2025-01-15 10:11:02.59	143.61	51.94	
2025-01-15 10:11:02.79	143.58	52.01	
2025-01-15 10:11:03.00	143.54	52.08	
2025-01-15 10:11:03.20	143.51	52.15	
2025-01-15 10:11:03.40	143.48	52.22	
2025-01-15 10:11:03.60	143.44	52.29	
2025-01-15 10:11:03.81	143.41	52.36	
2025-01-15 10:11:04.01	143.37	52.43	
2025-01-15 10:11:04.21	143.34	52.50	
2025-01-15 10:11:04.42	143.30	52.57	
2025-01-15 10:11:04.62	143.27	52.64	
2025-01-15 10:11:04.82	143.23	52.71	
2025-01-15 10:11:05.03	143.19	52.78	
2025-01-15 10:11:05.23	143.16	52.85	
2025-01-15 10:11:05.43	143.12	52.92	
2025-01-15 10:11:05.63	143.09	52.99	
2025-01-15 10:11:05.84	143.05	53.07	
2025-01-15 10:11:06.04	143.01	53.14	
2025-01-15 10:11:06.24	142.98	53.21	
2025-01-15 10:11:06.45	142.94	53.28	
2025-01-15 10:11:06.65	142.90	53.35	
2025-01-15 10:11:06.85	142.87	53.42	
2025-01-15 10:11:07.05	142.83	53.49	
2025-01-15 10:11:07.26	142.79	53.57	
2025-01-15 10:11:07.46	142.75	53.64	
2025-01-15 10:11:07.66	142.72	53.71	
2025-01-15 10:11:07.87	142.68	53.78	
2025-01-15 10:11:08.07	142.64	53.85	
2025-01-15 10:11:08.27	142.60	53.92	
2025-01-15 10:11:08.48	142.56	54.00	
2025-01-15 10:11:08.68	142.52	54.07	
2025-01-15 10:11:08.88	142.48	54.14	
2025-01-15 10:11:09.08	142.44	54.21	
2025-01-15 10:11:09.29	142.40	54.29	
2025-01-15 10:11:09.49	142.36	54.36	
2025-01-15 10:11:09.69	142.33	54.43	
2025-01-15 10:11:09.90	142.28	54.50	
2025-01-15 10:11:10.10	142.24	54.57	
2025-01-15 10:11:10.30	142.20	54.65	
2025-01-15 10:11:10.50	142.16	54.72	
2025-01-15 10:11:10.71	142.12	54.79	
2025-01-15 10:11:10.91	142.08	54.87	
2025-01-15 10:11:11.11	142.04	54.94	
2025-01-15 10:11:11.32	142.00	55.01	
2025-01-15 10:11:11.52	141.95	55.09	
2025-01-15 10:11:11.72	141.91	55.16	
2025-01-15 10:11:11.93	141.87	55.23	
2025-01-15 10:11:12.13	141.83	55.31	
2025-01-15 10:11:12.33	141.79	55.38	
2025-01-15 10:11:12.53	141.74	55.45	
2025-01-15 10:11:12.74	141.70	55.53	
2025-01-15 10:11:12.94	141.66	55.60	
2025-01-15 10:11:13.14	141.61	55.67	
2025-01-15 10:11:13.35	141.57	55.75	
2025-01-15 10:11:13.55	141.52	55.82	
2025-01-15 10:11:13.75	141.48	55.90	
2025-01-15 10:11:13.95	141.43	55.97	
2025-01-15 10:11:14.16	141.39	56.05	
2025-01-15 10:11:14.36	141.34	56.12	
2025-01-15 10:11:14.56	141.30	56.19	
2025-01-15 10:11:14.77	141.25	56.27	
2025-01-15 10:11:14.97	141.21	56.34	
2025-01-15 10:11:15.17	141.16	56.42	
2025-01-15 10:11:15.38	141.11	56.50	
2025-01-15 10:11:15.58	141.07	56.57	
2025-01-15 10:11:15.78	141.02	56.64	
2025-01-15 10:11:15.98	140.97	56.72	
2025-01-15 10:11:16.19	140.93	56.80	
2025-01-15 10:11:16.39	140.88	56.87	
2025-01-15 10:11:16.59	140.83	56.94	
2025-01-15 10:11:16.80	140.78	57.02	
2025-01-15 10:11:17.00	140.73	57.10	
2025-01-15 10:11:17.20	140.68	57.17	
2025-01-15 10:11:17.41	140.63	57.25	
2025-01-15 10:11:17.61	140.59	57.32	
2025-01-15 10:11:17.81	140.54	57.40	
2025-01-15 10:11:18.01	140.49	57.47	
2025-01-15 10:11:18.22	140.44	57.55	
2025-01-15 10:11:18.42	140.39	57.63	
2025-01-15 10:11:18.62	140.34	57.70	
2025-01-15 10:11:18.83	140.28	57.78	
2025-01-15 10:11:19.03	140.23	57.86	
2025-01-15 10:11:19.23	140.18	57.93	
2025-01-15 10:11:19.43	140.13	58.01	
2025-01-15 10:11:19.64	140.08	58.09	
2025-01-15 10:11:19.84	140.02	58.16	
2025-01-15 10:11:20.04	139.97	58.24	
2025-01-15 10:11:20.25	139.92	58.32	
2025-01-15 10:11:20.45	139.86	58.39	
2025-01-15 10:11:20.65	139.81	58.47	
2025-01-15 10:11:20.86	139.76	58.55	
2025-01-15 10:11:21.06	139.70	58.62	
2025-01-15 10:11:21.26	139.65	58.70	
2025-01-15 10:11:21.46	139.59	58.78	
2025-01-15 10:11:21.67	139.54	58.86	
2025-01-15 10:11:21.87	139.48	58.93	
2025-01-15 10:11:22.07	139.43	59.01	
2025-01-15 10:11:22.28	139.37	59.09	
2025-01-15 10:11:22.48	139.31	59.17	
2025-01-15 10:11:22.68	139.26	59.24	
2025-01-15 10:11:22.88	139.20	59.32	
2025-01-15 10:11:23.09	139.14	59.40	
2025-01-15 10:11:23.29	139.08	59.48	
2025-01-15 10:11:23.49	139.02	59.55	
2025-01-15 10:11:23.70	138.96	59.63	
2025-01-15 10:11:23.90	138.91	59.71	
2025-01-15 10:11:24.10	138.85	59.79	
2025-01-15 10:11:24.31	138.78	59.87	
2025-01-15 10:11:24.51	138.72	59.95	
2025-01-15 10:11:24.71	138.67	60.02	
2025-01-15 10:11:24.91	138.61	60.10	
2025-01-15 10:11:25.12	138.54	60.18	
2025-01-15 10:11:25.32	138.48	60.26	
2025-01-15 10:11:25.52	138.42	60.34	
2025-01-15 10:11:25.73	138.35	60.42	
2025-01-15 10:11:25.93	138.29	60.50	
2025-01-15 10:11:26.13	138.23	60.57	
2025-01-15 10:11:26.33	138.17	60.65	
2025-01-15 10:11:26.54	138.10	60.73	
2025-01-15 10:11:26.74	138.04	60.81	
2025-01-15 10:11:26.94	137.97	60.89	
2025-01-15 10:11:27.15	137.91	60.97	
2025-01-15 10:11:27.35	137.84	61.05	
2025-01-15 10:11:27.55	137.78	61.13	
2025-01-15 10:11:27.76	137.71	61.21	
2025-01-15 10:11:27.96	137.64	61.29	
2025-01-15 10:11:28.16	137.57	61.37	
2025-01-15 10:11:28.36	137.51	61.44	
2025-01-15 10:11:28.57	137.44	61.53	
2025-01-15 10:11:28.77	137.37	61.61	
2025-01-15 10:11:28.97	137.30	61.68	
2025-01-15 10:11:29.18	137.23	61.77	
2025-01-15 10:11:29.38	137.16	61.85	
2025-01-15 10:11:29.58	137.09	61.92	
2025-01-15 10:11:29.79	137.02	62.01	
2025-01-15 10:11:29.99	136.95	62.09	
2025-01-15 10:11:30.19	136.87	62.16	
2025-01-15 10:11:30.39	136.80	62.24	
2025-01-15 10:11:30.60	136.73	62.33	
2025-01-15 10:11:30.80	136.65	62.41	
2025-01-15 10:11:31.00	136.58	62.48	
2025-01-15 10:11:31.21	136.50	62.57	
2025-01-15 10:11:31.41	136.43	62.65	
2025-01-15 10:11:31.61	136.36	62.73	
2025-01-15 10:11:31.81	136.28	62.81	
2025-01-15 10:11:32.02	136.20	62.89	
2025-01-15 10:11:32.22	136.13	62.97	
2025-01-15 10:11:32.42	136.05	63.05	
2025-01-15 10:11:32.63	135.97	63.13	
2025-01-15 10:11:32.83	135.89	63.21	
2025-01-15 10:11:33.03	135.81	63.29	
2025-01-15 10:11:33.24	135.73	63.37	
2025-01-15 10:11:33.44	135.65	63.45	
2025-01-15 10:11:33.64	135.57	63.53	
2025-01-15 10:11:33.84	135.49	63.61	
2025-01-15 10:11:34.05	135.41	63.70	
2025-01-15 10:11:34.25	135.33	63.78	
2025-01-15 10:11:34.45	135.24	63.86	
2025-01-15 10:11:34.66	135.16	63.94	
2025-01-15 10:11:34.86	135.07	64.02	
2025-01-15 10:11:35.06	134.99	64.10	
2025-01-15 10:11:35.26	134.91	64.18	
2025-01-15 10:11:35.47	134.82	64.26	
2025-01-15 10:11:35.67	134.73	64.34	
2025-01-15 10:11:35.87	134.65	64.42	
2025-01-15 10:11:36.08	134.56	64.51	
2025-01-15 10:11:36.28	134.47	64.59	
2025-01-15 10:11:36.48	134.38	64.67	
2025-01-15 10:11:36.69	134.29	64.75	
2025-01-15 10:11:36.89	134.20	64.83	
2025-01-15 10:11:37.09	134.11	64.91	
2025-01-15 10:11:37.29	134.02	64.99	
2025-01-15 10:11:37.50	133.92	65.08	
2025-01-15 10:11:37.70	133.83	65.16	
2025-01-15 10:11:37.90	133.74	65.24	
2025-01-15 10:11:38.11	133.64	65.32	
2025-01-15 10:11:38.31	133.55	65.40	
2025-01-15 10:11:38.51	133.45	65.48	
2025-01-15 10:11:38.71	133.36	65.57	
2025-01-15 10:11:38.92	133.25	65.65	
2025-01-15 10:11:39.12	133.16	65.73	
2025-01-15 10:11:39.32	133.06	65.81	
2025-01-15 10:11:39.53	132.96	65.90	
2025-01-15 10:11:39.73	132.86	65.98	
2025-01-15 10:11:39.93	132.76	66.06	
2025-01-15 10:11:40.14	132.65	66.14	
2025-01-15 10:11:40.34	132.55	66.22	
2025-01-15 10:11:40.54	132.45	66.30	
2025-01-15 10:11:40.74	132.35	66.38	
2025-01-15 10:11:40.95	132.24	66.47	
2025-01-15 10:11:41.15	132.13	66.55	
2025-01-15 10:11:41.35	132.03	66.63	
2025-01-15 10:11:41.56	131.92	66.71	
2025-01-15 10:11:41.76	131.81	66.80	
2025-01-15 10:11:41.96	131.70	66.88	
2025-01-15 10:11:42.17	131.59	66.96	
2025-01-15 10:11:42.37	131.48	67.04	
2025-01-15 10:11:42.57	131.37	67.12	
2025-01-15 10:11:42.77	131.26	67.20	
2025-01-15 10:11:42.98	131.14	67.29	
2025-01-15 10:11:43.18	131.03	67.37	
2025-01-15 10:11:43.38	130.91	67.45	
2025-01-15 10:11:43.59	130.79	67.53	
2025-01-15 10:11:43.79	130.68	67.61	
2025-01-15 10:11:43.99	130.56	67.70	
2025-01-15 10:11:44.19	130.44	67.78	
2025-01-15 10:11:44.40	130.32	67.86	
2025-01-15 10:11:44.60	130.20	67.94	
2025-01-15 10:11:44.80	130.08	68.02	
2025-01-15 10:11:45.01	129.95	68.11	
2025-01-15 10:11:45.21	129.83	68.19	
2025-01-15 10:11:45.41	129.71	68.27	
2025-01-15 10:11:45.62	129.58	68.35	
2025-01-15 10:11:45.82	129.45	68.43	
2025-01-15 10:11:46.02	129.33	68.51	
2025-01-15 10:11:46.22	129.20	68.59	
2025-01-15 10:11:46.43	129.06	68.68	
2025-01-15 10:11:46.63	128.93	68.76	
2025-01-15 10:11:46.83	128.80	68.84	
2025-01-15 10:11:47.04	128.66	68.92	
2025-01-15 10:11:47.24	128.53	69.00	
2025-01-15 10:11:47.44	128.40	69.08	
2025-01-15 10:11:47.64	128.26	69.16	
2025-01-15 10:11:47.85	128.12	69.25	
2025-01-15 10:11:48.05	127.98	69.33	
2025-01-15 10:11:48.25	127.84	69.41	
2025-01-15 10:11:48.46	127.70	69.49	
2025-01-15 10:11:48.66	127.56	69.57	
2025-01-15 10:11:48.86	127.41	69.65	
2025-01-15 10:11:49.07	127.26	69.74	
2025-01-15 10:11:49.27	127.12	69.82	
2025-01-15 10:11:49.47	126.97	69.90	
2025-01-15 10:11:49.67	126.83	69.98	
2025-01-15 10:11:49.88	126.67	70.06	
2025-01-15 10:11:50.08	126.52	70.14	
2025-01-15 10:11:50.28	126.37	70.22	
2025-01-15 10:11:50.49	126.21	70.30	
2025-01-15 10:11:50.69	126.05	70.38	
2025-01-15 10:11:50.89	125.90	70.46	
2025-01-15 10:11:51.09	125.74	70.54	
2025-01-15 10:11:51.30	125.58	70.62	
2025-01-15 10:11:51.50	125.42	70.70	
2025-01-15 10:11:51.70	125.26	70.78	
2025-01-15 10:11:51.91	125.09	70.86	
2025-01-15 10:11:52.11	124.92	70.94	
2025-01-15 10:11:52.31	124.76	71.02	
2025-01-15 10:11:52.52	124.58	71.10	
2025-01-15 10:11:52.72	124.42	71.18	
2025-01-15 10:11:52.92	124.25	71.26	
2025-01-15 10:11:53.12	124.08	71.34	
2025-01-15 10:11:53.33	123.89	71.42	
2025-01-15 10:11:53.53	123.72	71.50	
2025-01-15 10:11:53.73	123.54	71.58	
2025-01-15 10:11:53.94	123.36	71.66	
2025-01-15 10:11:54.14	123.18	71.74	
2025-01-15 10:11:54.34	123.00	71.82	
2025-01-15 10:11:54.55	122.81	71.90	
2025-01-15 10:11:54.75	122.62	71.97	
2025-01-15 10:11:54.95	122.44	72.05	
2025-01-15 10:11:55.15	122.25	72.13	
2025-01-15 10:11:55.36	122.05	72.21	
2025-01-15 10:11:55.56	121.86	72.29	
2025-01-15 10:11:55.76	121.67	72.36	
2025-01-15 10:11:55.97	121.46	72.44	
2025-01-15 10:11:56.17	121.27	72.52	
2025-01-15 10:11:56.37	121.07	72.60	
2025-01-15 10:11:56.57	120.87	72.67	
2025-01-15 10:11:56.78	120.66	72.75	
2025-01-15 10:11:56.98	120.45	72.83	
2025-01-15 10:11:57.18	120.25	72.91	
2025-01-15 10:11:57.39	120.03	72.98	
2025-01-15 10:11:57.59	119.82	73.06	
2025-01-15 10:11:57.79	119.61	73.14	
2025-01-15 10:11:58.00	119.38	73.21	
2025-01-15 10:11:58.20	119.16	73.29	
2025-01-15 10:11:58.40	118.95	73.36	
2025-01-15 10:11:58.60	118.73	73.44	
2025-01-15 10:11:58.81	118.49	73.52	
2025-01-15 10:11:59.01	118.27	73.59	
2025-01-15 10:11:59.21	118.04	73.66	
2025-01-15 10:11:59.42	117.80	73.74	
2025-01-15 10:11:59.62	117.57	73.82	
2025-01-15 10:11:59.82	117.34	73.89	
2025-01-15 10:12:00.02	117.10	73.96	
2025-01-15 10:12:00.23	116.85	74.04	
2025-01-15 10:12:00.43	116.61	74.11	
2025-01-15 10:12:00.63	116.37	74.18	
2025-01-15 10:12:00.84	116.11	74.26	
2025-01-15 10:12:01.04	115.87	74.33	
2025-01-15 10:12:01.24	115.62	74.40	
2025-01-15 10:12:01.45	115.35	74.48	
2025-01-15 10:12:01.65	115.10	74.55	
2025-01-15 10:12:01.85	114.84	74.62	
2025-01-15 10:12:02.05	114.58	74.69	
2025-01-15 10:12:02.26	114.31	74.76	
2025-01-15 10:12:02.46	114.04	74.83	
2025-01-15 10:12:02.66	113.78	74.90	
2025-01-15 10:12:02.87	113.49	74.98	
2025-01-15 10:12:03.07	113.22	75.05	
2025-01-15 10:12:03.27	112.94	75.12	
2025-01-15 10:12:03.48	112.65	75.19	
2025-01-15 10:12:03.68	112.37	75.26	
2025-01-15 10:12:03.88	112.09	75.32	
2025-01-15 10:12:04.08	111.80	75.39	
2025-01-15 10:12:04.29	111.50	75.46	
2025-01-15 10:12:04.49	111.21	75.53	
2025-01-15 10:12:04.69	110.91	75.60	
2025-01-15 10:12:04.90	110.60	75.67	
2025-01-15 10:12:05.10	110.30	75.73	
2025-01-15 10:12:05.30	110.00	75.80	
2025-01-15 10:12:05.50	109.69	75.86	
2025-01-15 10:12:05.71	109.37	75.93	
2025-01-15 10:12:05.91	109.06	76.00	
2025-01-15 10:12:06.11	108.74	76.06	
2025-01-15 10:12:06.32	108.41	76.13	
2025-01-15 10:12:06.52	108.08	76.19	
2025-01-15 10:12:06.72	107.76	76.25	
2025-01-15 10:12:06.93	107.42	76.32	
2025-01-15 10:12:07.13	107.09	76.38	
2025-01-15 10:12:07.33	106.75	76.44	
2025-01-15 10:12:07.53	106.42	76.50	
2025-01-15 10:12:07.74	106.06	76.57	
2025-01-15 10:12:07.94	105.71	76.63	
2025-01-15 10:12:08.14	105.37	76.69	
2025-01-15 10:12:08.35	105.00	76.75	
2025-01-15 10:12:08.55	104.65	76.81	
2025-01-15 10:12:08.75	104.29	76.87	
2025-01-15 10:12:08.95	103.93	76.93	
2025-01-15 10:12:09.16	103.55	76.99	
2025-01-15 10:12:09.36	103.18	77.04	
2025-01-15 10:12:09.56	102.81	77.10	
2025-01-15 10:12:09.77	102.42	77.16	
2025-01-15 10:12:09.97	102.04	77.21	
2025-01-15 10:12:10.17	101.66	77.27	
2025-01-15 10:12:10.38	101.26	77.33	
2025-01-15 10:12:10.58	100.87	77.38	
2025-01-15 10:12:10.78	100.48	77.43	
2025-01-15 10:12:10.98	100.09	77.49	
2025-01-15 10:12:11.19	99.67	77.54	
2025-01-15 10:12:11.39	99.27	77.59	
2025-01-15 10:12:11.59	98.87	77.64	
2025-01-15 10:12:11.80	98.44	77.70	
2025-01-15 10:12:12.00	98.03	77.75	
2025-01-15 10:12:12.20	97.61	77.80	
2025-01-15 10:12:12.40	97.19	77.84	
2025-01-15 10:12:12.61	96.75	77.89	
2025-01-15 10:12:12.81	96.33	77.94	
2025-01-15 10:12:13.01	95.90	77.99	
2025-01-15 10:12:13.22	95.44	78.04	
2025-01-15 10:12:13.42	95.01	78.08	
2025-01-15 10:12:13.62	94.57	78.13	
2025-01-15 10:12:13.83	94.11	78.17	
2025-01-15 10:12:14.03	93.66	78.22	
2025-01-15 10:12:14.23	93.21	78.26	
2025-01-15 10:12:14.43	92.76	78.30	
2025-01-15 10:12:14.64	92.28	78.34	
2025-01-15 10:12:14.84	91.82	78.38	
2025-01-15 10:12:15.04	91.36	78.42	
2025-01-15 10:12:15.25	90.87	78.46	
2025-01-15 10:12:15.45	90.40	78.50	
2025-01-15 10:12:15.65	89.93	78.54	
2025-01-15 10:12:15.86	89.43	78.58	
2025-01-15 10:12:16.06	88.95	78.61	
2025-01-15 10:12:16.26	88.47	78.65	
2025-01-15 10:12:16.46	87.98	78.68	
2025-01-15 10:12:16.67	87.47	78.72	
2025-01-15 10:12:16.87	86.98	78.75	
2025-01-15 10:12:17.07	86.49	78.78	
2025-01-15 10:12:17.28	85.97	78.81	
2025-01-15 10:12:17.48	85.47	78.84	
2025-01-15 10:12:17.68	84.97	78.87	
2025-01-15 10:12:17.88	84.46	78.90	
2025-01-15 10:12:18.09	83.93	78.93	
2025-01-15 10:12:18.29	83.42	78.96	
2025-01-15 10:12:18.49	82.91	78.98	
2025-01-15 10:12:18.70	82.36	79.01	
2025-01-15 10:12:18.90	81.85	79.03	
2025-01-15 10:12:19.10	81.33	79.06	
2025-01-15 10:12:19.31	80.78	79.08	
2025-01-15 10:12:19.51	80.26	79.10	
2025-01-15 10:12:19.71	79.73	79.12	
2025-01-15 10:12:19.91	79.20	79.14	
2025-01-15 10:12:20.12	78.65	79.16	
2025-01-15 10:12:20.32	78.11	79.18	
2025-01-15 10:12:20.52	77.58	79.20	
2025-01-15 10:12:20.73	77.02	79.21	
2025-01-15 10:12:20.93	76.48	79.23	
2025-01-15 10:12:21.13	75.94	79.24	
2025-01-15 10:12:21.33	75.40	79.25	
2025-01-15 10:12:21.54	74.83	79.27	
2025-01-15 10:12:21.74	74.29	79.28	
2025-01-15 10:12:21.94	73.75	79.29	
2025-01-15 10:12:22.15	73.18	79.30	
2025-01-15 10:12:22.35	72.63	79.31	
2025-01-15 10:12:22.55	72.09	79.31	
2025-01-15 10:12:22.76	71.51	79.32	
2025-01-15 10:12:22.96	70.96	79.33	
2025-01-15 10:12:23.16	70.42	79.33	
2025-01-15 10:12:23.36	69.87	79.33	
2025-01-15 10:12:23.57	69.29	79.34	
2025-01-15 10:12:23.77	68.74	79.34	
2025-01-15 10:12:23.97	68.19	79.34	
2025-01-15 10:12:24.18	67.62	79.34	
2025-01-15 10:12:24.38	67.07	79.34	
2025-01-15 10:12:24.58	66.52	79.33	
2025-01-15 10:12:24.78	65.97	79.33	
2025-01-15 10:12:24.99	65.40	79.33	
2025-01-15 10:12:25.19	64.85	79.32	
2025-01-15 10:12:25.39	64.30	79.31	
2025-01-15 10:12:25.60	63.73	79.31	
2025-01-15 10:12:25.80	63.18	79.30	
2025-01-15 10:12:26.00	62.64	79.29	
2025-01-15 10:12:26.21	62.07	79.28	
2025-01-15 10:12:26.41	61.53	79.27	
2025-01-15 10:12:26.61	60.99	79.25	
2025-01-15 10:12:26.81	60.45	79.24	
2025-01-15 10:12:27.02	59.88	79.23	
2025-01-15 10:12:27.22	59.35	79.21	
2025-01-15 10:12:27.42	58.81	79.19	
2025-01-15 10:12:27.63	58.25	79.18	
2025-01-15 10:12:27.83	57.72	79.16	
2025-01-15 10:12:28.03	57.19	79.14	
2025-01-15 10:12:28.24	56.64	79.12	
2025-01-15 10:12:28.44	56.11	79.10	
2025-01-15 10:12:28.64	55.59	79.08	
2025-01-15 10:12:28.84	55.06	79.06	
2025-01-15 10:12:29.05	54.52	79.03	
2025-01-15 10:12:29.25	54.00	79.01	
2025-01-15 10:12:29.45	53.49	78.98	
2025-01-15 10:12:29.66	52.95	78.95	
2025-01-15 10:12:29.86	52.44	78.93	
2025-01-15 10:12:30.06	51.93	78.90	
2025-01-15 10:12:30.26	51.43	78.87	
2025-01-15 10:12:30.47	50.90	78.84	
2025-01-15 10:12:30.67	50.41	78.81	
2025-01-15 10:12:30.87	49.91	78.78	
2025-01-15 10:12:31.08	49.39	78.75	
2025-01-15 10:12:31.28	48.90	78.71	
2025-01-15 10:12:31.48	48.41	78.68	
2025-01-15 10:12:31.69	47.91	78.64	
2025-01-15 10:12:31.89	47.43	78.61	
2025-01-15 10:12:32.09	46.95	78.57	
2025-01-15 10:12:32.29	46.47	78.54	
2025-01-15 10:12:32.50	45.98	78.50	
2025-01-15 10:12:32.70	45.51	78.46	
2025-01-15 10:12:32.90	45.04	78.42	
2025-01-15 10:12:33.11	44.56	78.38	
2025-01-15 10:12:33.31	44.10	78.34	
2025-01-15 10:12:33.51	43.65	78.30	
2025-01-15 10:12:33.71	43.19	78.25	
2025-01-15 10:12:33.92	42.72	78.21	
2025-01-15 10:12:34.12	42.28	78.17	
2025-01-15 10:12:34.32	41.84	78.12	
2025-01-15 10:12:34.53	41.38	78.08	
2025-01-15 10:12:34.73	40.94	78.03	
2025-01-15 10:12:34.93	40.51	77.98	
2025-01-15 10:12:35.14	40.06	77.93	
2025-01-15 10:12:35.34	39.64	77.89	
2025-01-15 10:12:35.54	39.22	77.84	
2025-01-15 10:12:35.74	38.80	77.79	
2025-01-15 10:12:35.95	38.36	77.74	
2025-01-15 10:12:36.15	37.95	77.69	
2025-01-15 10:12:36.35	37.55	77.64	
2025-01-15 10:12:36.56	37.12	77.59	
2025-01-15 10:12:36.76	36.72	77.53	
2025-01-15 10:12:36.96	36.32	77.48	
2025-01-15 10:12:37.16	35.93	77.43	
2025-01-15 10:12:37.37	35.52	77.37	
2025-01-15 10:12:37.57	35.14	77.32	
2025-01-15 10:12:37.77	34.75	77.26	
2025-01-15 10:12:37.98	34.35	77.21	
2025-01-15 10:12:38.18	33.98	77.15	
2025-01-15 10:12:38.38	33.61	77.10	
2025-01-15 10:12:38.59	33.22	77.04	
2025-01-15 10:12:38.79	32.85	76.98	
2025-01-15 10:12:38.99	32.49	76.92	
2025-01-15 10:12:39.19	32.13	76.86	
2025-01-15 10:12:39.40	31.76	76.80	
2025-01-15 10:12:39.60	31.40	76.74	
2025-01-15 10:12:39.80	31.05	76.68	
2025-01-15 10:12:40.01	30.69	76.62	
2025-01-15 10:12:40.21	30.35	76.56	
2025-01-15 10:12:40.41	30.01	76.50	
2025-01-15 10:12:40.61	29.67	76.44	
2025-01-15 10:12:40.82	29.32	76.37	
2025-01-15 10:12:41.02	28.99	76.31	
2025-01-15 10:12:41.22	28.67	76.25	
2025-01-15 10:12:41.43	28.33	76.18	
2025-01-15 10:12:41.63	28.01	76.12	
2025-01-15 10:12:41.83	27.69	76.06	
2025-01-15 10:12:42.04	27.36	75.99	
2025-01-15 10:12:42.24	27.05	75.92	
2025-01-15 10:12:42.44	26.74	75.86	
2025-01-15 10:12:42.64	26.43	75.79	
2025-01-15 10:12:42.85	26.11	75.73	
2025-01-15 10:12:43.05	25.81	75.66	
2025-01-15 10:12:43.25	25.52	75.59	
2025-01-15 10:12:43.46	25.21	75.52	
2025-01-15 10:12:43.66	24.92	75.46	
2025-01-15 10:12:43.86	24.63	75.39	
2025-01-15 10:12:44.07	24.33	75.32	
2025-01-15 10:12:44.27	24.05	75.25	
2025-01-15 10:12:44.47	23.77	75.18	
2025-01-15 10:12:44.67	23.49	75.11	
2025-01-15 10:12:44.88	23.20	75.04	
2025-01-15 10:12:45.08	22.93	74.97	
2025-01-15 10:12:45.28	22.66	74.90	
2025-01-15 10:12:45.49	22.38	74.83	
2025-01-15 10:12:45.69	22.12	74.76	
2025-01-15 10:12:45.89	21.86	74.69	
2025-01-15 10:12:46.09	21.60	74.62	
2025-01-15 10:12:46.30	21.33	74.54	
2025-01-15 10:12:46.50	21.07	74.47	
2025-01-15 10:12:46.70	20.82	74.40	
2025-01-15 10:12:46.91	20.56	74.33	
2025-01-15 10:12:47.11	20.31	74.25	
2025-01-15 10:12:47.31	20.07	74.18	
2025-01-15 10:12:47.52	19.82	74.11	
2025-01-15 10:12:47.72	19.58	74.03	
2025-01-15 10:12:47.92	19.34	73.96	
2025-01-15 10:12:48.12	19.10	73.89	
2025-01-15 10:12:48.33	18.86	73.81	
2025-01-15 10:12:48.53	18.63	73.74	
2025-01-15 10:12:48.73	18.40	73.66	
2025-01-15 10:12:48.94	18.16	73.59	
2025-01-15 10:12:49.14	17.94	73.51	
