passes_logs/2025/01/15/SPB_Silybum_02/SPB_Silybum_02__20250115_095632_AQUA_rec.log

#Pass ID: 20250115_095632_AQUA
#Satellite: AQUA
#Configuration: AQUA
#Start time: 2025-01-15 09:56:32

#Version: 2.0.20230423
#Station: SPB_Silybum_02
#Location: 30.233357 lon 59.946436 lat
#TLE: 1 27424U 02022A   25014.86211101  .00001670  00000+0  35273-3 0  9993
#TLE: 2 27424  98.3588 331.5248 0001714 111.5422 273.3352 14.60681448207609

#Time	Az	El	Level	Level2	SNR	BER	Gain	Gain2
2025-01-15 09:56:35.02	115.98	4.17	
2025-01-15 09:56:35.22	115.97	4.18	
2025-01-15 09:56:35.43	115.95	4.20	
2025-01-15 09:56:35.63	115.94	4.21	
2025-01-15 09:56:35.83	115.92	4.22	
2025-01-15 09:56:36.03	115.91	4.24	
2025-01-15 09:56:36.24	115.89	4.25	
2025-01-15 09:56:36.44	115.88	4.26	
2025-01-15 09:56:36.64	115.86	4.28	
2025-01-15 09:56:36.85	115.85	4.29	
2025-01-15 09:56:37.05	115.83	4.30	
2025-01-15 09:56:37.25	115.82	4.32	
2025-01-15 09:56:37.46	115.80	4.33	
2025-01-15 09:56:37.66	115.79	4.34	
2025-01-15 09:56:37.86	115.78	4.36	
2025-01-15 09:56:38.06	115.76	4.37	
2025-01-15 09:56:38.27	115.75	4.38	
2025-01-15 09:56:38.47	115.73	4.40	
2025-01-15 09:56:38.67	115.72	4.41	
2025-01-15 09:56:38.88	115.70	4.42	
2025-01-15 09:56:39.08	115.69	4.44	
2025-01-15 09:56:39.28	115.67	4.45	
2025-01-15 09:56:39.48	115.66	4.46	
2025-01-15 09:56:39.69	115.64	4.48	
2025-01-15 09:56:39.89	115.63	4.49	
2025-01-15 09:56:40.09	115.61	4.50	
2025-01-15 09:56:40.30	115.60	4.52	
2025-01-15 09:56:40.50	115.58	4.53	
2025-01-15 09:56:40.70	115.57	4.54	
2025-01-15 09:56:40.91	115.55	4.56	
2025-01-15 09:56:41.11	115.53	4.57	
2025-01-15 09:56:41.31	115.52	4.58	
2025-01-15 09:56:41.51	115.50	4.60	
2025-01-15 09:56:41.72	115.49	4.61	
2025-01-15 09:56:41.92	115.47	4.62	
2025-01-15 09:56:42.12	115.46	4.64	
2025-01-15 09:56:42.33	115.44	4.65	
2025-01-15 09:56:42.53	115.43	4.66	
2025-01-15 09:56:42.73	115.41	4.68	
2025-01-15 09:56:42.93	115.40	4.69	
2025-01-15 09:56:43.14	115.38	4.71	
2025-01-15 09:56:43.34	115.37	4.72	
2025-01-15 09:56:43.54	115.35	4.73	
2025-01-15 09:56:43.75	115.34	4.75	
2025-01-15 09:56:43.95	115.32	4.76	
2025-01-15 09:56:44.15	115.31	4.77	
2025-01-15 09:56:44.36	115.29	4.79	
2025-01-15 09:56:44.56	115.28	4.80	
2025-01-15 09:56:44.76	115.26	4.81	
2025-01-15 09:56:44.96	115.24	4.83	
2025-01-15 09:56:45.17	115.23	4.84	
2025-01-15 09:56:45.37	115.21	4.85	
2025-01-15 09:56:45.57	115.20	4.87	
2025-01-15 09:56:45.78	115.18	4.88	
2025-01-15 09:56:45.98	115.17	4.89	
2025-01-15 09:56:46.18	115.15	4.91	
2025-01-15 09:56:46.39	115.14	4.92	
2025-01-15 09:56:46.59	115.12	4.94	
2025-01-15 09:56:46.79	115.11	4.95	
2025-01-15 09:56:46.99	115.09	4.96	
2025-01-15 09:56:47.20	115.07	4.98	
2025-01-15 09:56:47.40	115.06	4.99	
2025-01-15 09:56:47.60	115.04	5.00	
2025-01-15 09:56:47.81	115.03	5.02	
2025-01-15 09:56:48.01	115.01	5.03	
2025-01-15 09:56:48.21	115.00	5.04	
2025-01-15 09:56:48.41	114.98	5.06	
2025-01-15 09:56:48.62	114.96	5.07	
2025-01-15 09:56:48.82	114.95	5.08	
2025-01-15 09:56:49.02	114.93	5.10	
2025-01-15 09:56:49.23	114.92	5.11	
2025-01-15 09:56:49.43	114.90	5.13	
2025-01-15 09:56:49.63	114.89	5.14	
2025-01-15 09:56:49.84	114.87	5.15	
2025-01-15 09:56:50.04	114.85	5.17	
2025-01-15 09:56:50.24	114.84	5.18	
2025-01-15 09:56:50.44	114.82	5.19	
2025-01-15 09:56:50.65	114.81	5.21	
2025-01-15 09:56:50.85	114.79	5.22	
2025-01-15 09:56:51.05	114.77	5.23	
2025-01-15 09:56:51.26	114.76	5.25	
2025-01-15 09:56:51.46	114.74	5.26	
2025-01-15 09:56:51.66	114.73	5.28	
2025-01-15 09:56:51.86	114.71	5.29	
2025-01-15 09:56:52.07	114.69	5.30	
2025-01-15 09:56:52.27	114.68	5.32	
2025-01-15 09:56:52.47	114.66	5.33	
2025-01-15 09:56:52.68	114.65	5.34	
2025-01-15 09:56:52.88	114.63	5.36	
2025-01-15 09:56:53.08	114.61	5.37	
2025-01-15 09:56:53.29	114.60	5.39	
2025-01-15 09:56:53.49	114.58	5.40	
2025-01-15 09:56:53.69	114.57	5.41	
2025-01-15 09:56:53.89	114.55	5.43	
2025-01-15 09:56:54.10	114.53	5.44	
2025-01-15 09:56:54.30	114.52	5.45	
2025-01-15 09:56:54.50	114.50	5.47	
2025-01-15 09:56:54.71	114.48	5.48	
2025-01-15 09:56:54.91	114.47	5.50	
2025-01-15 09:56:55.11	114.45	5.51	
2025-01-15 09:56:55.31	114.44	5.52	
2025-01-15 09:56:55.52	114.42	5.54	
2025-01-15 09:56:55.72	114.40	5.55	
2025-01-15 09:56:55.92	114.39	5.57	
2025-01-15 09:56:56.13	114.37	5.58	
2025-01-15 09:56:56.33	114.35	5.59	
2025-01-15 09:56:56.53	114.34	5.61	
2025-01-15 09:56:56.74	114.32	5.62	
2025-01-15 09:56:56.94	114.30	5.63	
2025-01-15 09:56:57.14	114.29	5.65	
2025-01-15 09:56:57.34	114.27	5.66	
2025-01-15 09:56:57.55	114.26	5.68	
2025-01-15 09:56:57.75	114.24	5.69	
2025-01-15 09:56:57.95	114.22	5.70	
2025-01-15 09:56:58.16	114.21	5.72	
2025-01-15 09:56:58.36	114.19	5.73	
2025-01-15 09:56:58.56	114.17	5.75	
2025-01-15 09:56:58.77	114.16	5.76	
2025-01-15 09:56:58.97	114.14	5.77	
2025-01-15 09:56:59.17	114.12	5.79	
2025-01-15 09:56:59.37	114.11	5.80	
2025-01-15 09:56:59.58	114.09	5.82	
2025-01-15 09:56:59.78	114.07	5.83	
2025-01-15 09:56:59.98	114.06	5.84	
2025-01-15 09:57:00.19	114.04	5.86	
2025-01-15 09:57:00.39	114.02	5.87	
2025-01-15 09:57:00.59	114.01	5.89	
2025-01-15 09:57:00.79	113.99	5.90	
2025-01-15 09:57:01.00	113.97	5.91	
2025-01-15 09:57:01.20	113.96	5.93	
2025-01-15 09:57:01.40	113.94	5.94	
2025-01-15 09:57:01.61	113.92	5.96	
2025-01-15 09:57:01.81	113.91	5.97	
2025-01-15 09:57:02.01	113.89	5.98	
2025-01-15 09:57:02.22	113.87	6.00	
2025-01-15 09:57:02.42	113.85	6.01	
2025-01-15 09:57:02.62	113.84	6.03	
2025-01-15 09:57:02.82	113.82	6.04	
2025-01-15 09:57:03.03	113.80	6.05	
2025-01-15 09:57:03.23	113.79	6.07	
2025-01-15 09:57:03.43	113.77	6.08	
2025-01-15 09:57:03.64	113.75	6.10	
2025-01-15 09:57:03.84	113.74	6.11	
2025-01-15 09:57:04.04	113.72	6.12	
2025-01-15 09:57:04.24	113.70	6.14	
2025-01-15 09:57:04.45	113.68	6.15	
2025-01-15 09:57:04.65	113.67	6.17	
2025-01-15 09:57:04.85	113.65	6.18	
2025-01-15 09:57:05.06	113.63	6.19	
2025-01-15 09:57:05.26	113.62	6.21	
2025-01-15 09:57:05.46	113.60	6.22	
2025-01-15 09:57:05.67	113.58	6.24	
2025-01-15 09:57:05.87	113.56	6.25	
2025-01-15 09:57:06.07	113.55	6.27	
2025-01-15 09:57:06.27	113.53	6.28	
2025-01-15 09:57:06.48	113.51	6.29	
2025-01-15 09:57:06.68	113.50	6.31	
2025-01-15 09:57:06.88	113.48	6.32	
2025-01-15 09:57:07.09	113.46	6.34	
2025-01-15 09:57:07.29	113.44	6.35	
2025-01-15 09:57:07.49	113.43	6.36	
2025-01-15 09:57:07.69	113.41	6.38	
2025-01-15 09:57:07.90	113.39	6.39	
2025-01-15 09:57:08.10	113.37	6.41	
2025-01-15 09:57:08.30	113.36	6.42	
2025-01-15 09:57:08.51	113.34	6.44	
2025-01-15 09:57:08.71	113.32	6.45	
2025-01-15 09:57:08.91	113.30	6.46	
2025-01-15 09:57:09.12	113.29	6.48	
2025-01-15 09:57:09.32	113.27	6.49	
2025-01-15 09:57:09.52	113.25	6.51	
2025-01-15 09:57:09.72	113.23	6.52	
2025-01-15 09:57:09.93	113.22	6.54	
2025-01-15 09:57:10.13	113.20	6.55	
2025-01-15 09:57:10.33	113.18	6.56	
2025-01-15 09:57:10.54	113.16	6.58	
2025-01-15 09:57:10.74	113.15	6.59	
2025-01-15 09:57:10.94	113.13	6.61	
2025-01-15 09:57:11.15	113.11	6.62	
2025-01-15 09:57:11.35	113.09	6.64	
2025-01-15 09:57:11.55	113.08	6.65	
2025-01-15 09:57:11.75	113.06	6.66	
2025-01-15 09:57:11.96	113.04	6.68	
2025-01-15 09:57:12.16	113.02	6.69	
2025-01-15 09:57:12.36	113.00	6.71	
2025-01-15 09:57:12.57	112.99	6.72	
2025-01-15 09:57:12.77	112.97	6.74	
2025-01-15 09:57:12.97	112.95	6.75	
2025-01-15 09:57:13.17	112.93	6.76	
2025-01-15 09:57:13.38	112.91	6.78	
2025-01-15 09:57:13.58	112.90	6.79	
2025-01-15 09:57:13.78	112.88	6.81	
2025-01-15 09:57:13.99	112.86	6.82	
2025-01-15 09:57:14.19	112.84	6.84	
2025-01-15 09:57:14.39	112.82	6.85	
2025-01-15 09:57:14.60	112.81	6.87	
2025-01-15 09:57:14.80	112.79	6.88	
2025-01-15 09:57:15.00	112.77	6.89	
2025-01-15 09:57:15.20	112.75	6.91	
2025-01-15 09:57:15.41	112.73	6.92	
2025-01-15 09:57:15.61	112.72	6.94	
2025-01-15 09:57:15.81	112.70	6.95	
2025-01-15 09:57:16.02	112.68	6.97	
2025-01-15 09:57:16.22	112.66	6.98	
2025-01-15 09:57:16.42	112.64	6.99	
2025-01-15 09:57:16.62	112.63	7.01	
2025-01-15 09:57:16.83	112.61	7.02	
2025-01-15 09:57:17.03	112.59	7.04	
2025-01-15 09:57:17.23	112.57	7.05	
2025-01-15 09:57:17.44	112.55	7.07	
2025-01-15 09:57:17.64	112.53	7.08	
2025-01-15 09:57:17.84	112.52	7.10	
2025-01-15 09:57:18.05	112.50	7.11	
2025-01-15 09:57:18.25	112.48	7.13	
2025-01-15 09:57:18.45	112.46	7.14	
2025-01-15 09:57:18.65	112.44	7.15	
2025-01-15 09:57:18.86	112.42	7.17	
2025-01-15 09:57:19.06	112.40	7.18	
2025-01-15 09:57:19.26	112.39	7.20	
2025-01-15 09:57:19.47	112.37	7.21	
2025-01-15 09:57:19.67	112.35	7.23	
2025-01-15 09:57:19.87	112.33	7.24	
2025-01-15 09:57:20.08	112.31	7.26	
2025-01-15 09:57:20.28	112.29	7.27	
2025-01-15 09:57:20.48	112.27	7.29	
2025-01-15 09:57:20.68	112.26	7.30	
2025-01-15 09:57:20.89	112.24	7.32	
2025-01-15 09:57:21.09	112.22	7.33	
2025-01-15 09:57:21.29	112.20	7.34	
2025-01-15 09:57:21.50	112.18	7.36	
2025-01-15 09:57:21.70	112.16	7.37	
2025-01-15 09:57:21.90	112.14	7.39	
2025-01-15 09:57:22.10	112.12	7.40	
2025-01-15 09:57:22.31	112.11	7.42	
2025-01-15 09:57:22.51	112.09	7.43	
2025-01-15 09:57:22.71	112.07	7.45	
2025-01-15 09:57:22.92	112.05	7.46	
2025-01-15 09:57:23.12	112.03	7.48	
2025-01-15 09:57:23.32	112.01	7.49	
2025-01-15 09:57:23.53	111.99	7.51	
2025-01-15 09:57:23.73	111.97	7.52	
2025-01-15 09:57:23.93	111.95	7.53	
2025-01-15 09:57:24.13	111.94	7.55	
2025-01-15 09:57:24.34	111.92	7.56	
2025-01-15 09:57:24.54	111.90	7.58	
2025-01-15 09:57:24.74	111.88	7.59	
2025-01-15 09:57:24.95	111.86	7.61	
2025-01-15 09:57:25.15	111.84	7.62	
2025-01-15 09:57:25.35	111.82	7.64	
2025-01-15 09:57:25.55	111.80	7.65	
2025-01-15 09:57:25.76	111.78	7.67	
2025-01-15 09:57:25.96	111.76	7.68	
2025-01-15 09:57:26.16	111.74	7.70	
2025-01-15 09:57:26.37	111.72	7.71	
2025-01-15 09:57:26.57	111.71	7.73	
2025-01-15 09:57:26.77	111.69	7.74	
2025-01-15 09:57:26.98	111.67	7.76	
2025-01-15 09:57:27.18	111.65	7.77	
2025-01-15 09:57:27.38	111.63	7.79	
2025-01-15 09:57:27.58	111.61	7.80	
2025-01-15 09:57:27.79	111.59	7.82	
2025-01-15 09:57:27.99	111.57	7.83	
2025-01-15 09:57:28.19	111.55	7.85	
2025-01-15 09:57:28.40	111.53	7.86	
2025-01-15 09:57:28.60	111.51	7.88	
2025-01-15 09:57:28.80	111.49	7.89	
2025-01-15 09:57:29.00	111.47	7.90	
2025-01-15 09:57:29.21	111.45	7.92	
2025-01-15 09:57:29.41	111.43	7.93	
2025-01-15 09:57:29.61	111.41	7.95	
2025-01-15 09:57:29.82	111.39	7.96	
2025-01-15 09:57:30.02	111.37	7.98	
2025-01-15 09:57:30.22	111.36	7.99	
2025-01-15 09:57:30.43	111.33	8.01	
2025-01-15 09:57:30.63	111.32	8.02	
2025-01-15 09:57:30.83	111.30	8.04	
2025-01-15 09:57:31.03	111.28	8.05	
2025-01-15 09:57:31.24	111.26	8.07	
2025-01-15 09:57:31.44	111.24	8.08	
2025-01-15 09:57:31.64	111.22	8.10	
2025-01-15 09:57:31.85	111.20	8.11	
2025-01-15 09:57:32.05	111.18	8.13	
2025-01-15 09:57:32.25	111.16	8.14	
2025-01-15 09:57:32.46	111.14	8.16	
2025-01-15 09:57:32.66	111.12	8.17	
2025-01-15 09:57:32.86	111.10	8.19	
2025-01-15 09:57:33.06	111.08	8.20	
2025-01-15 09:57:33.27	111.06	8.22	
2025-01-15 09:57:33.47	111.04	8.23	
2025-01-15 09:57:33.67	111.02	8.25	
2025-01-15 09:57:33.88	111.00	8.26	
2025-01-15 09:57:34.08	110.98	8.28	
2025-01-15 09:57:34.28	110.96	8.29	
2025-01-15 09:57:34.48	110.94	8.31	
2025-01-15 09:57:34.69	110.92	8.32	
2025-01-15 09:57:34.89	110.90	8.34	
2025-01-15 09:57:35.09	110.88	8.35	
2025-01-15 09:57:35.30	110.86	8.37	
2025-01-15 09:57:35.50	110.84	8.38	
2025-01-15 09:57:35.70	110.82	8.40	
2025-01-15 09:57:35.91	110.79	8.42	
2025-01-15 09:57:36.11	110.77	8.43	
2025-01-15 09:57:36.31	110.75	8.45	
2025-01-15 09:57:36.51	110.73	8.46	
2025-01-15 09:57:36.72	110.71	8.48	
2025-01-15 09:57:36.92	110.69	8.49	
2025-01-15 09:57:37.12	110.67	8.51	
2025-01-15 09:57:37.33	110.65	8.52	
2025-01-15 09:57:37.53	110.63	8.54	
2025-01-15 09:57:37.73	110.61	8.55	
2025-01-15 09:57:37.93	110.59	8.57	
2025-01-15 09:57:38.14	110.57	8.58	
2025-01-15 09:57:38.34	110.55	8.60	
2025-01-15 09:57:38.54	110.53	8.61	
2025-01-15 09:57:38.75	110.51	8.63	
2025-01-15 09:57:38.95	110.49	8.64	
2025-01-15 09:57:39.15	110.47	8.66	
2025-01-15 09:57:39.36	110.45	8.67	
2025-01-15 09:57:39.56	110.42	8.69	
2025-01-15 09:57:39.76	110.40	8.70	
2025-01-15 09:57:39.96	110.38	8.72	
2025-01-15 09:57:40.17	110.36	8.73	
2025-01-15 09:57:40.37	110.34	8.75	
2025-01-15 09:57:40.57	110.32	8.76	
2025-01-15 09:57:40.78	110.30	8.78	
2025-01-15 09:57:40.98	110.28	8.80	
2025-01-15 09:57:41.18	110.26	8.81	
2025-01-15 09:57:41.38	110.24	8.83	
2025-01-15 09:57:41.59	110.22	8.84	
2025-01-15 09:57:41.79	110.20	8.86	
2025-01-15 09:57:41.99	110.17	8.87	
2025-01-15 09:57:42.20	110.15	8.89	
2025-01-15 09:57:42.40	110.13	8.90	
2025-01-15 09:57:42.60	110.11	8.92	
2025-01-15 09:57:42.81	110.09	8.93	
2025-01-15 09:57:43.01	110.07	8.95	
2025-01-15 09:57:43.21	110.05	8.96	
2025-01-15 09:57:43.41	110.03	8.98	
2025-01-15 09:57:43.62	110.00	8.99	
2025-01-15 09:57:43.82	109.98	9.01	
2025-01-15 09:57:44.02	109.96	9.02	
2025-01-15 09:57:44.23	109.94	9.04	
2025-01-15 09:57:44.43	109.92	9.06	
2025-01-15 09:57:44.63	109.90	9.07	
2025-01-15 09:57:44.84	109.88	9.09	
2025-01-15 09:57:45.04	109.86	9.10	
2025-01-15 09:57:45.24	109.83	9.12	
2025-01-15 09:57:45.44	109.81	9.13	
2025-01-15 09:57:45.65	109.79	9.15	
2025-01-15 09:57:45.85	109.77	9.16	
2025-01-15 09:57:46.05	109.75	9.18	
2025-01-15 09:57:46.26	109.73	9.20	
2025-01-15 09:57:46.46	109.71	9.21	
2025-01-15 09:57:46.66	109.68	9.23	
2025-01-15 09:57:46.86	109.66	9.24	
2025-01-15 09:57:47.07	109.64	9.26	
2025-01-15 09:57:47.27	109.62	9.27	
2025-01-15 09:57:47.47	109.60	9.29	
2025-01-15 09:57:47.68	109.58	9.30	
2025-01-15 09:57:47.88	109.55	9.32	
2025-01-15 09:57:48.08	109.53	9.33	
2025-01-15 09:57:48.29	109.51	9.35	
2025-01-15 09:57:48.49	109.49	9.37	
2025-01-15 09:57:48.69	109.47	9.38	
2025-01-15 09:57:48.89	109.44	9.40	
2025-01-15 09:57:49.10	109.42	9.41	
2025-01-15 09:57:49.30	109.40	9.43	
2025-01-15 09:57:49.50	109.38	9.44	
2025-01-15 09:57:49.71	109.36	9.46	
2025-01-15 09:57:49.91	109.33	9.47	
2025-01-15 09:57:50.11	109.31	9.49	
2025-01-15 09:57:50.31	109.29	9.51	
2025-01-15 09:57:50.52	109.27	9.52	
2025-01-15 09:57:50.72	109.25	9.54	
2025-01-15 09:57:50.92	109.22	9.55	
2025-01-15 09:57:51.13	109.20	9.57	
2025-01-15 09:57:51.33	109.18	9.58	
2025-01-15 09:57:51.53	109.16	9.60	
2025-01-15 09:57:51.74	109.13	9.62	
2025-01-15 09:57:51.94	109.11	9.63	
2025-01-15 09:57:52.14	109.09	9.65	
2025-01-15 09:57:52.34	109.07	9.66	
2025-01-15 09:57:52.55	109.05	9.68	
2025-01-15 09:57:52.75	109.02	9.69	
2025-01-15 09:57:52.95	109.00	9.71	
2025-01-15 09:57:53.16	108.98	9.72	
2025-01-15 09:57:53.36	108.96	9.74	
2025-01-15 09:57:53.56	108.93	9.76	
2025-01-15 09:57:53.76	108.91	9.77	
2025-01-15 09:57:53.97	108.89	9.79	
2025-01-15 09:57:54.17	108.87	9.80	
2025-01-15 09:57:54.37	108.84	9.82	
2025-01-15 09:57:54.58	108.82	9.83	
2025-01-15 09:57:54.78	108.80	9.85	
2025-01-15 09:57:54.98	108.78	9.87	
2025-01-15 09:57:55.19	108.75	9.88	
2025-01-15 09:57:55.39	108.73	9.90	
2025-01-15 09:57:55.59	108.71	9.91	
2025-01-15 09:57:55.79	108.69	9.93	
2025-01-15 09:57:56.00	108.66	9.95	
2025-01-15 09:57:56.20	108.64	9.96	
2025-01-15 09:57:56.40	108.62	9.98	
2025-01-15 09:57:56.61	108.59	9.99	
2025-01-15 09:57:56.81	108.57	10.01	
2025-01-15 09:57:57.01	108.55	10.02	
2025-01-15 09:57:57.22	108.52	10.04	
2025-01-15 09:57:57.42	108.50	10.06	
2025-01-15 09:57:57.62	108.48	10.07	
2025-01-15 09:57:57.82	108.46	10.09	
2025-01-15 09:57:58.03	108.43	10.10	
2025-01-15 09:57:58.23	108.41	10.12	
2025-01-15 09:57:58.43	108.39	10.14	
2025-01-15 09:57:58.64	108.36	10.15	
2025-01-15 09:57:58.84	108.34	10.17	
2025-01-15 09:57:59.04	108.32	10.18	
2025-01-15 09:57:59.24	108.29	10.20	
2025-01-15 09:57:59.45	108.27	10.21	
2025-01-15 09:57:59.65	108.25	10.23	
2025-01-15 09:57:59.85	108.22	10.25	
2025-01-15 09:58:00.06	108.20	10.26	
2025-01-15 09:58:00.26	108.18	10.28	
2025-01-15 09:58:00.46	108.15	10.29	
2025-01-15 09:58:00.67	108.13	10.31	
2025-01-15 09:58:00.87	108.11	10.33	
2025-01-15 09:58:01.07	108.08	10.34	
2025-01-15 09:58:01.27	108.06	10.36	
2025-01-15 09:58:01.48	108.04	10.37	
2025-01-15 09:58:01.68	108.01	10.39	
2025-01-15 09:58:01.88	107.99	10.41	
2025-01-15 09:58:02.09	107.96	10.42	
2025-01-15 09:58:02.29	107.94	10.44	
2025-01-15 09:58:02.49	107.92	10.45	
2025-01-15 09:58:02.69	107.89	10.47	
2025-01-15 09:58:02.90	107.87	10.49	
2025-01-15 09:58:03.10	107.85	10.50	
2025-01-15 09:58:03.30	107.82	10.52	
2025-01-15 09:58:03.51	107.80	10.53	
2025-01-15 09:58:03.71	107.77	10.55	
2025-01-15 09:58:03.91	107.75	10.57	
2025-01-15 09:58:04.12	107.73	10.58	
2025-01-15 09:58:04.32	107.70	10.60	
2025-01-15 09:58:04.52	107.68	10.61	
2025-01-15 09:58:04.72	107.66	10.63	
2025-01-15 09:58:04.93	107.63	10.65	
2025-01-15 09:58:05.13	107.61	10.66	
2025-01-15 09:58:05.33	107.58	10.68	
2025-01-15 09:58:05.54	107.56	10.70	
2025-01-15 09:58:05.74	107.53	10.71	
2025-01-15 09:58:05.94	107.51	10.73	
2025-01-15 09:58:06.14	107.49	10.74	
2025-01-15 09:58:06.35	107.46	10.76	
2025-01-15 09:58:06.55	107.44	10.78	
2025-01-15 09:58:06.75	107.41	10.79	
2025-01-15 09:58:06.96	107.39	10.81	
2025-01-15 09:58:07.16	107.36	10.82	
2025-01-15 09:58:07.36	107.34	10.84	
2025-01-15 09:58:07.57	107.32	10.86	
2025-01-15 09:58:07.77	107.29	10.87	
2025-01-15 09:58:07.97	107.27	10.89	
2025-01-15 09:58:08.17	107.24	10.91	
2025-01-15 09:58:08.38	107.22	10.92	
2025-01-15 09:58:08.58	107.19	10.94	
2025-01-15 09:58:08.78	107.17	10.95	
2025-01-15 09:58:08.99	107.14	10.97	
2025-01-15 09:58:09.19	107.12	10.99	
2025-01-15 09:58:09.39	107.10	11.00	
2025-01-15 09:58:09.60	107.07	11.02	
2025-01-15 09:58:09.80	107.05	11.04	
2025-01-15 09:58:10.00	107.02	11.05	
2025-01-15 09:58:10.20	107.00	11.07	
2025-01-15 09:58:10.41	106.97	11.09	
2025-01-15 09:58:10.61	106.95	11.10	
2025-01-15 09:58:10.81	106.92	11.12	
2025-01-15 09:58:11.02	106.90	11.13	
2025-01-15 09:58:11.22	106.87	11.15	
2025-01-15 09:58:11.42	106.85	11.17	
2025-01-15 09:58:11.62	106.82	11.18	
2025-01-15 09:58:11.83	106.80	11.20	
2025-01-15 09:58:12.03	106.77	11.22	
2025-01-15 09:58:12.23	106.75	11.23	
2025-01-15 09:58:12.44	106.72	11.25	
2025-01-15 09:58:12.64	106.70	11.26	
2025-01-15 09:58:12.84	106.67	11.28	
2025-01-15 09:58:13.05	106.64	11.30	
2025-01-15 09:58:13.25	106.62	11.31	
2025-01-15 09:58:13.45	106.59	11.33	
2025-01-15 09:58:13.65	106.57	11.35	
2025-01-15 09:58:13.86	106.54	11.36	
2025-01-15 09:58:14.06	106.52	11.38	
2025-01-15 09:58:14.26	106.49	11.40	
2025-01-15 09:58:14.47	106.47	11.41	
2025-01-15 09:58:14.67	106.44	11.43	
2025-01-15 09:58:14.87	106.42	11.44	
2025-01-15 09:58:15.07	106.39	11.46	
2025-01-15 09:58:15.28	106.37	11.48	
2025-01-15 09:58:15.48	106.34	11.49	
2025-01-15 09:58:15.68	106.31	11.51	
2025-01-15 09:58:15.89	106.29	11.53	
2025-01-15 09:58:16.09	106.26	11.54	
2025-01-15 09:58:16.29	106.24	11.56	
2025-01-15 09:58:16.50	106.21	11.58	
2025-01-15 09:58:16.70	106.19	11.59	
2025-01-15 09:58:16.90	106.16	11.61	
2025-01-15 09:58:17.10	106.13	11.63	
2025-01-15 09:58:17.31	106.11	11.64	
2025-01-15 09:58:17.51	106.08	11.66	
2025-01-15 09:58:17.71	106.06	11.68	
2025-01-15 09:58:17.92	106.03	11.69	
2025-01-15 09:58:18.12	106.00	11.71	
2025-01-15 09:58:18.32	105.98	11.73	
2025-01-15 09:58:18.52	105.95	11.74	
2025-01-15 09:58:18.73	105.93	11.76	
2025-01-15 09:58:18.93	105.90	11.78	
2025-01-15 09:58:19.13	105.87	11.79	
2025-01-15 09:58:19.34	105.85	11.81	
2025-01-15 09:58:19.54	105.82	11.83	
2025-01-15 09:58:19.74	105.79	11.84	
2025-01-15 09:58:19.95	105.77	11.86	
2025-01-15 09:58:20.15	105.74	11.88	
2025-01-15 09:58:20.35	105.72	11.89	
2025-01-15 09:58:20.55	105.69	11.91	
2025-01-15 09:58:20.76	105.66	11.93	
2025-01-15 09:58:20.96	105.64	11.94	
2025-01-15 09:58:21.16	105.61	11.96	
2025-01-15 09:58:21.37	105.58	11.98	
2025-01-15 09:58:21.57	105.56	11.99	
2025-01-15 09:58:21.77	105.53	12.01	
2025-01-15 09:58:21.98	105.50	12.03	
2025-01-15 09:58:22.18	105.48	12.04	
2025-01-15 09:58:22.38	105.45	12.06	
2025-01-15 09:58:22.58	105.42	12.08	
2025-01-15 09:58:22.79	105.40	12.09	
2025-01-15 09:58:22.99	105.37	12.11	
2025-01-15 09:58:23.19	105.34	12.13	
2025-01-15 09:58:23.40	105.32	12.14	
2025-01-15 09:58:23.60	105.29	12.16	
2025-01-15 09:58:23.80	105.26	12.18	
2025-01-15 09:58:24.00	105.24	12.19	
2025-01-15 09:58:24.21	105.21	12.21	
2025-01-15 09:58:24.41	105.18	12.23	
2025-01-15 09:58:24.61	105.15	12.24	
2025-01-15 09:58:24.82	105.13	12.26	
2025-01-15 09:58:25.02	105.10	12.28	
2025-01-15 09:58:25.22	105.07	12.29	
2025-01-15 09:58:25.43	105.04	12.31	
2025-01-15 09:58:25.63	105.02	12.33	
2025-01-15 09:58:25.83	104.99	12.34	
2025-01-15 09:58:26.03	104.96	12.36	
2025-01-15 09:58:26.24	104.94	12.38	
2025-01-15 09:58:26.44	104.91	12.39	
2025-01-15 09:58:26.64	104.88	12.41	
2025-01-15 09:58:26.85	104.85	12.43	
2025-01-15 09:58:27.05	104.83	12.44	
2025-01-15 09:58:27.25	104.80	12.46	
2025-01-15 09:58:27.45	104.77	12.48	
2025-01-15 09:58:27.66	104.74	12.50	
2025-01-15 09:58:27.86	104.72	12.51	
2025-01-15 09:58:28.06	104.69	12.53	
2025-01-15 09:58:28.27	104.66	12.55	
2025-01-15 09:58:28.47	104.63	12.56	
2025-01-15 09:58:28.67	104.61	12.58	
2025-01-15 09:58:28.88	104.58	12.60	
2025-01-15 09:58:29.08	104.55	12.61	
2025-01-15 09:58:29.28	104.52	12.63	
2025-01-15 09:58:29.48	104.49	12.65	
2025-01-15 09:58:29.69	104.47	12.66	
2025-01-15 09:58:29.89	104.44	12.68	
2025-01-15 09:58:30.09	104.41	12.70	
2025-01-15 09:58:30.30	104.38	12.72	
2025-01-15 09:58:30.50	104.35	12.73	
2025-01-15 09:58:30.70	104.33	12.75	
2025-01-15 09:58:30.91	104.30	12.77	
2025-01-15 09:58:31.11	104.27	12.78	
2025-01-15 09:58:31.31	104.24	12.80	
2025-01-15 09:58:31.51	104.21	12.82	
2025-01-15 09:58:31.72	104.18	12.83	
2025-01-15 09:58:31.92	104.16	12.85	
2025-01-15 09:58:32.12	104.13	12.87	
2025-01-15 09:58:32.33	104.10	12.89	
2025-01-15 09:58:32.53	104.07	12.90	
2025-01-15 09:58:32.73	104.04	12.92	
2025-01-15 09:58:32.93	104.01	12.94	
2025-01-15 09:58:33.14	103.99	12.95	
2025-01-15 09:58:33.34	103.96	12.97	
2025-01-15 09:58:33.54	103.93	12.99	
2025-01-15 09:58:33.75	103.90	13.01	
2025-01-15 09:58:33.95	103.87	13.02	
2025-01-15 09:58:34.15	103.84	13.04	
2025-01-15 09:58:34.36	103.81	13.06	
2025-01-15 09:58:34.56	103.78	13.07	
2025-01-15 09:58:34.76	103.76	13.09	
2025-01-15 09:58:34.96	103.73	13.11	
2025-01-15 09:58:35.17	103.70	13.13	
2025-01-15 09:58:35.37	103.67	13.14	
2025-01-15 09:58:35.57	103.64	13.16	
2025-01-15 09:58:35.78	103.61	13.18	
2025-01-15 09:58:35.98	103.58	13.19	
2025-01-15 09:58:36.18	103.55	13.21	
2025-01-15 09:58:36.38	103.52	13.23	
2025-01-15 09:58:36.59	103.49	13.25	
2025-01-15 09:58:36.79	103.47	13.26	
2025-01-15 09:58:36.99	103.44	13.28	
2025-01-15 09:58:37.20	103.41	13.30	
2025-01-15 09:58:37.40	103.38	13.31	
2025-01-15 09:58:37.60	103.35	13.33	
2025-01-15 09:58:37.81	103.32	13.35	
2025-01-15 09:58:38.01	103.29	13.37	
2025-01-15 09:58:38.21	103.26	13.38	
2025-01-15 09:58:38.41	103.23	13.40	
2025-01-15 09:58:38.62	103.20	13.42	
2025-01-15 09:58:38.82	103.17	13.43	
2025-01-15 09:58:39.02	103.14	13.45	
2025-01-15 09:58:39.23	103.11	13.47	
2025-01-15 09:58:39.43	103.08	13.49	
2025-01-15 09:58:39.63	103.05	13.50	
2025-01-15 09:58:39.83	103.02	13.52	
2025-01-15 09:58:40.04	102.99	13.54	
2025-01-15 09:58:40.24	102.96	13.55	
2025-01-15 09:58:40.44	102.93	13.57	
2025-01-15 09:58:40.65	102.90	13.59	
2025-01-15 09:58:40.85	102.87	13.61	
2025-01-15 09:58:41.05	102.84	13.62	
2025-01-15 09:58:41.26	102.81	13.64	
2025-01-15 09:58:41.46	102.78	13.66	
2025-01-15 09:58:41.66	102.75	13.68	
2025-01-15 09:58:41.86	102.72	13.69	
2025-01-15 09:58:42.07	102.69	13.71	
2025-01-15 09:58:42.27	102.66	13.73	
2025-01-15 09:58:42.47	102.63	13.75	
2025-01-15 09:58:42.68	102.60	13.76	
2025-01-15 09:58:42.88	102.57	13.78	
2025-01-15 09:58:43.08	102.54	13.80	
2025-01-15 09:58:43.29	102.51	13.82	
2025-01-15 09:58:43.49	102.48	13.83	
2025-01-15 09:58:43.69	102.45	13.85	
2025-01-15 09:58:43.89	102.42	13.87	
2025-01-15 09:58:44.10	102.39	13.88	
2025-01-15 09:58:44.30	102.36	13.90	
2025-01-15 09:58:44.50	102.33	13.92	
2025-01-15 09:58:44.71	102.30	13.94	
2025-01-15 09:58:44.91	102.27	13.95	
2025-01-15 09:58:45.11	102.24	13.97	
2025-01-15 09:58:45.31	102.21	13.99	
2025-01-15 09:58:45.52	102.17	14.01	
2025-01-15 09:58:45.72	102.14	14.02	
2025-01-15 09:58:45.92	102.11	14.04	
2025-01-15 09:58:46.13	102.08	14.06	
2025-01-15 09:58:46.33	102.05	14.08	
2025-01-15 09:58:46.53	102.02	14.09	
2025-01-15 09:58:46.74	101.99	14.11	
2025-01-15 09:58:46.94	101.96	14.13	
2025-01-15 09:58:47.14	101.93	14.15	
2025-01-15 09:58:47.34	101.90	14.16	
2025-01-15 09:58:47.55	101.86	14.18	
2025-01-15 09:58:47.75	101.83	14.20	
2025-01-15 09:58:47.95	101.80	14.22	
2025-01-15 09:58:48.16	101.77	14.23	
2025-01-15 09:58:48.36	101.74	14.25	
2025-01-15 09:58:48.56	101.71	14.27	
2025-01-15 09:58:48.76	101.68	14.29	
2025-01-15 09:58:48.97	101.64	14.30	
2025-01-15 09:58:49.17	101.61	14.32	
2025-01-15 09:58:49.37	101.58	14.34	
2025-01-15 09:58:49.58	101.55	14.36	
2025-01-15 09:58:49.78	101.52	14.37	
2025-01-15 09:58:49.98	101.49	14.39	
2025-01-15 09:58:50.19	101.45	14.41	
2025-01-15 09:58:50.39	101.42	14.43	
2025-01-15 09:58:50.59	101.39	14.44	
2025-01-15 09:58:50.79	101.36	14.46	
2025-01-15 09:58:51.00	101.33	14.48	
2025-01-15 09:58:51.20	101.30	14.50	
2025-01-15 09:58:51.40	101.26	14.51	
2025-01-15 09:58:51.61	101.23	14.53	
2025-01-15 09:58:51.81	101.20	14.55	
2025-01-15 09:58:52.01	101.17	14.57	
2025-01-15 09:58:52.21	101.14	14.59	
2025-01-15 09:58:52.42	101.10	14.60	
2025-01-15 09:58:52.62	101.07	14.62	
2025-01-15 09:58:52.82	101.04	14.64	
2025-01-15 09:58:53.03	101.01	14.66	
2025-01-15 09:58:53.23	100.97	14.67	
2025-01-15 09:58:53.43	100.94	14.69	
2025-01-15 09:58:53.64	100.91	14.71	
2025-01-15 09:58:53.84	100.88	14.73	
2025-01-15 09:58:54.04	100.84	14.74	
2025-01-15 09:58:54.24	100.81	14.76	
2025-01-15 09:58:54.45	100.78	14.78	
2025-01-15 09:58:54.65	100.75	14.80	
2025-01-15 09:58:54.85	100.71	14.81	
2025-01-15 09:58:55.06	100.68	14.83	
2025-01-15 09:58:55.26	100.65	14.85	
2025-01-15 09:58:55.46	100.62	14.87	
2025-01-15 09:58:55.67	100.58	14.89	
2025-01-15 09:58:55.87	100.55	14.90	
2025-01-15 09:58:56.07	100.52	14.92	
2025-01-15 09:58:56.27	100.48	14.94	
2025-01-15 09:58:56.48	100.45	14.96	
2025-01-15 09:58:56.68	100.42	14.97	
2025-01-15 09:58:56.88	100.38	14.99	
2025-01-15 09:58:57.09	100.35	15.01	
2025-01-15 09:58:57.29	100.32	15.03	
2025-01-15 09:58:57.49	100.28	15.05	
2025-01-15 09:58:57.69	100.25	15.06	
2025-01-15 09:58:57.90	100.22	15.08	
2025-01-15 09:58:58.10	100.18	15.10	
2025-01-15 09:58:58.30	100.15	15.12	
2025-01-15 09:58:58.51	100.12	15.13	
2025-01-15 09:58:58.71	100.08	15.15	
2025-01-15 09:58:58.91	100.05	15.17	
2025-01-15 09:58:59.12	100.02	15.19	
2025-01-15 09:58:59.32	99.98	15.21	
2025-01-15 09:58:59.52	99.95	15.22	
2025-01-15 09:58:59.72	99.92	15.24	
2025-01-15 09:58:59.93	99.88	15.26	
2025-01-15 09:59:00.13	99.85	15.28	
2025-01-15 09:59:00.33	99.81	15.29	
2025-01-15 09:59:00.54	99.78	15.31	
2025-01-15 09:59:00.74	99.75	15.33	
2025-01-15 09:59:00.94	99.71	15.35	
2025-01-15 09:59:01.14	99.68	15.37	
2025-01-15 09:59:01.35	99.64	15.38	
2025-01-15 09:59:01.55	99.61	15.40	
2025-01-15 09:59:01.75	99.58	15.42	
2025-01-15 09:59:01.96	99.54	15.44	
2025-01-15 09:59:02.16	99.51	15.46	
2025-01-15 09:59:02.36	99.47	15.47	
2025-01-15 09:59:02.57	99.44	15.49	
2025-01-15 09:59:02.77	99.40	15.51	
2025-01-15 09:59:02.97	99.37	15.53	
2025-01-15 09:59:03.17	99.34	15.54	
2025-01-15 09:59:03.38	99.30	15.56	
2025-01-15 09:59:03.58	99.27	15.58	
2025-01-15 09:59:03.78	99.23	15.60	
2025-01-15 09:59:03.99	99.20	15.62	
2025-01-15 09:59:04.19	99.16	15.63	
2025-01-15 09:59:04.39	99.13	15.65	
2025-01-15 09:59:04.59	99.09	15.67	
2025-01-15 09:59:04.80	99.06	15.69	
2025-01-15 09:59:05.00	99.02	15.71	
2025-01-15 09:59:05.20	98.99	15.72	
2025-01-15 09:59:05.41	98.95	15.74	
2025-01-15 09:59:05.61	98.92	15.76	
2025-01-15 09:59:05.81	98.88	15.78	
2025-01-15 09:59:06.02	98.85	15.80	
2025-01-15 09:59:06.22	98.81	15.81	
2025-01-15 09:59:06.42	98.78	15.83	
2025-01-15 09:59:06.62	98.74	15.85	
2025-01-15 09:59:06.83	98.71	15.87	
2025-01-15 09:59:07.03	98.67	15.89	
2025-01-15 09:59:07.23	98.64	15.90	
2025-01-15 09:59:07.44	98.60	15.92	
2025-01-15 09:59:07.64	98.57	15.94	
2025-01-15 09:59:07.84	98.53	15.96	
2025-01-15 09:59:08.04	98.50	15.98	
2025-01-15 09:59:08.25	98.46	15.99	
2025-01-15 09:59:08.45	98.42	16.01	
2025-01-15 09:59:08.65	98.39	16.03	
2025-01-15 09:59:08.86	98.35	16.05	
2025-01-15 09:59:09.06	98.32	16.07	
2025-01-15 09:59:09.26	98.28	16.08	
2025-01-15 09:59:09.47	98.24	16.10	
2025-01-15 09:59:09.67	98.21	16.12	
2025-01-15 09:59:09.87	98.17	16.14	
2025-01-15 09:59:10.07	98.14	16.16	
2025-01-15 09:59:10.28	98.10	16.17	
2025-01-15 09:59:10.48	98.07	16.19	
2025-01-15 09:59:10.68	98.03	16.21	
2025-01-15 09:59:10.89	97.99	16.23	
2025-01-15 09:59:11.09	97.96	16.25	
2025-01-15 09:59:11.29	97.92	16.26	
2025-01-15 09:59:11.50	97.88	16.28	
2025-01-15 09:59:11.70	97.85	16.30	
2025-01-15 09:59:11.90	97.81	16.32	
2025-01-15 09:59:12.10	97.78	16.34	
2025-01-15 09:59:12.31	97.74	16.36	
2025-01-15 09:59:12.51	97.70	16.37	
2025-01-15 09:59:12.71	97.67	16.39	
2025-01-15 09:59:12.92	97.63	16.41	
2025-01-15 09:59:13.12	97.59	16.43	
2025-01-15 09:59:13.32	97.56	16.45	
2025-01-15 09:59:13.52	97.52	16.46	
2025-01-15 09:59:13.73	97.48	16.48	
2025-01-15 09:59:13.93	97.44	16.50	
2025-01-15 09:59:14.13	97.41	16.52	
2025-01-15 09:59:14.34	97.37	16.54	
2025-01-15 09:59:14.54	97.33	16.55	
2025-01-15 09:59:14.74	97.30	16.57	
2025-01-15 09:59:14.95	97.26	16.59	
2025-01-15 09:59:15.15	97.22	16.61	
2025-01-15 09:59:15.35	97.18	16.63	
2025-01-15 09:59:15.55	97.15	16.64	
2025-01-15 09:59:15.76	97.11	16.66	
2025-01-15 09:59:15.96	97.07	16.68	
2025-01-15 09:59:16.16	97.04	16.70	
2025-01-15 09:59:16.37	97.00	16.72	
2025-01-15 09:59:16.57	96.96	16.74	
2025-01-15 09:59:16.77	96.92	16.75	
2025-01-15 09:59:16.97	96.89	16.77	
2025-01-15 09:59:17.18	96.85	16.79	
2025-01-15 09:59:17.38	96.81	16.81	
2025-01-15 09:59:17.58	96.77	16.83	
2025-01-15 09:59:17.79	96.73	16.84	
2025-01-15 09:59:17.99	96.70	16.86	
2025-01-15 09:59:18.19	96.66	16.88	
2025-01-15 09:59:18.40	96.62	16.90	
2025-01-15 09:59:18.60	96.58	16.92	
2025-01-15 09:59:18.80	96.54	16.94	
2025-01-15 09:59:19.00	96.51	16.95	
2025-01-15 09:59:19.21	96.47	16.97	
2025-01-15 09:59:19.41	96.43	16.99	
2025-01-15 09:59:19.61	96.39	17.01	
2025-01-15 09:59:19.82	96.35	17.03	
2025-01-15 09:59:20.02	96.31	17.04	
2025-01-15 09:59:20.22	96.28	17.06	
2025-01-15 09:59:20.43	96.24	17.08	
2025-01-15 09:59:20.63	96.20	17.10	
2025-01-15 09:59:20.83	96.16	17.12	
2025-01-15 09:59:21.03	96.12	17.13	
2025-01-15 09:59:21.24	96.08	17.15	
2025-01-15 09:59:21.44	96.04	17.17	
2025-01-15 09:59:21.64	96.01	17.19	
2025-01-15 09:59:21.85	95.97	17.21	
2025-01-15 09:59:22.05	95.93	17.23	
2025-01-15 09:59:22.25	95.89	17.24	
2025-01-15 09:59:22.45	95.85	17.26	
2025-01-15 09:59:22.66	95.81	17.28	
2025-01-15 09:59:22.86	95.77	17.30	
2025-01-15 09:59:23.06	95.73	17.32	
2025-01-15 09:59:23.27	95.69	17.34	
2025-01-15 09:59:23.47	95.65	17.35	
2025-01-15 09:59:23.67	95.62	17.37	
2025-01-15 09:59:23.88	95.58	17.39	
2025-01-15 09:59:24.08	95.54	17.41	
2025-01-15 09:59:24.28	95.50	17.43	
2025-01-15 09:59:24.48	95.46	17.44	
2025-01-15 09:59:24.69	95.42	17.46	
2025-01-15 09:59:24.89	95.38	17.48	
2025-01-15 09:59:25.09	95.34	17.50	
2025-01-15 09:59:25.30	95.30	17.52	
2025-01-15 09:59:25.50	95.26	17.54	
2025-01-15 09:59:25.70	95.22	17.55	
2025-01-15 09:59:25.90	95.18	17.57	
2025-01-15 09:59:26.11	95.14	17.59	
2025-01-15 09:59:26.31	95.10	17.61	
2025-01-15 09:59:26.51	95.06	17.63	
2025-01-15 09:59:26.72	95.02	17.65	
2025-01-15 09:59:26.92	94.98	17.66	
2025-01-15 09:59:27.12	94.94	17.68	
2025-01-15 09:59:27.33	94.90	17.70	
2025-01-15 09:59:27.53	94.86	17.72	
2025-01-15 09:59:27.73	94.82	17.74	
2025-01-15 09:59:27.93	94.78	17.75	
2025-01-15 09:59:28.14	94.74	17.77	
2025-01-15 09:59:28.34	94.70	17.79	
2025-01-15 09:59:28.54	94.66	17.81	
2025-01-15 09:59:28.75	94.62	17.83	
2025-01-15 09:59:28.95	94.58	17.85	
2025-01-15 09:59:29.15	94.54	17.86	
2025-01-15 09:59:29.35	94.50	17.88	
2025-01-15 09:59:29.56	94.45	17.90	
2025-01-15 09:59:29.76	94.41	17.92	
2025-01-15 09:59:29.96	94.37	17.94	
2025-01-15 09:59:30.17	94.33	17.96	
2025-01-15 09:59:30.37	94.29	17.97	
2025-01-15 09:59:30.57	94.25	17.99	
2025-01-15 09:59:30.78	94.21	18.01	
2025-01-15 09:59:30.98	94.17	18.03	
2025-01-15 09:59:31.18	94.13	18.05	
2025-01-15 09:59:31.38	94.09	18.06	
2025-01-15 09:59:31.59	94.04	18.08	
2025-01-15 09:59:31.79	94.00	18.10	
2025-01-15 09:59:31.99	93.96	18.12	
2025-01-15 09:59:32.20	93.92	18.14	
2025-01-15 09:59:32.40	93.88	18.16	
2025-01-15 09:59:32.60	93.84	18.17	
2025-01-15 09:59:32.81	93.79	18.19	
2025-01-15 09:59:33.01	93.75	18.21	
2025-01-15 09:59:33.21	93.71	18.23	
2025-01-15 09:59:33.41	93.67	18.25	
2025-01-15 09:59:33.62	93.63	18.27	
2025-01-15 09:59:33.82	93.59	18.28	
2025-01-15 09:59:34.02	93.55	18.30	
2025-01-15 09:59:34.23	93.50	18.32	
2025-01-15 09:59:34.43	93.46	18.34	
2025-01-15 09:59:34.63	93.42	18.36	
2025-01-15 09:59:34.83	93.38	18.38	
2025-01-15 09:59:35.04	93.33	18.39	
2025-01-15 09:59:35.24	93.29	18.41	
2025-01-15 09:59:35.44	93.25	18.43	
2025-01-15 09:59:35.65	93.21	18.45	
2025-01-15 09:59:35.85	93.16	18.47	
2025-01-15 09:59:36.05	93.12	18.48	
2025-01-15 09:59:36.26	93.08	18.50	
2025-01-15 09:59:36.46	93.04	18.52	
2025-01-15 09:59:36.66	93.00	18.54	
2025-01-15 09:59:36.86	92.95	18.56	
2025-01-15 09:59:37.07	92.91	18.58	
2025-01-15 09:59:37.27	92.87	18.59	
2025-01-15 09:59:37.47	92.82	18.61	
2025-01-15 09:59:37.68	92.78	18.63	
2025-01-15 09:59:37.88	92.74	18.65	
2025-01-15 09:59:38.08	92.70	18.67	
2025-01-15 09:59:38.28	92.65	18.69	
2025-01-15 09:59:38.49	92.61	18.70	
2025-01-15 09:59:38.69	92.57	18.72	
2025-01-15 09:59:38.89	92.52	18.74	
2025-01-15 09:59:39.10	92.48	18.76	
2025-01-15 09:59:39.30	92.44	18.78	
2025-01-15 09:59:39.50	92.39	18.79	
2025-01-15 09:59:39.71	92.35	18.81	
2025-01-15 09:59:39.91	92.31	18.83	
2025-01-15 09:59:40.11	92.26	18.85	
2025-01-15 09:59:40.31	92.22	18.87	
2025-01-15 09:59:40.52	92.17	18.89	
2025-01-15 09:59:40.72	92.13	18.90	
2025-01-15 09:59:40.92	92.09	18.92	
2025-01-15 09:59:41.13	92.04	18.94	
2025-01-15 09:59:41.33	92.00	18.96	
2025-01-15 09:59:41.53	91.96	18.98	
2025-01-15 09:59:41.73	91.91	19.00	
2025-01-15 09:59:41.94	91.87	19.01	
2025-01-15 09:59:42.14	91.82	19.03	
2025-01-15 09:59:42.34	91.78	19.05	
2025-01-15 09:59:42.55	91.73	19.07	
2025-01-15 09:59:42.75	91.69	19.09	
2025-01-15 09:59:42.95	91.65	19.10	
2025-01-15 09:59:43.16	91.60	19.12	
2025-01-15 09:59:43.36	91.56	19.14	
2025-01-15 09:59:43.56	91.51	19.16	
2025-01-15 09:59:43.76	91.47	19.18	
2025-01-15 09:59:43.97	91.42	19.20	
2025-01-15 09:59:44.17	91.38	19.21	
2025-01-15 09:59:44.37	91.33	19.23	
2025-01-15 09:59:44.58	91.29	19.25	
2025-01-15 09:59:44.78	91.24	19.27	
2025-01-15 09:59:44.98	91.20	19.29	
2025-01-15 09:59:45.19	91.15	19.31	
2025-01-15 09:59:45.39	91.11	19.32	
2025-01-15 09:59:45.59	91.06	19.34	
2025-01-15 09:59:45.79	91.02	19.36	
2025-01-15 09:59:46.00	90.97	19.38	
2025-01-15 09:59:46.20	90.93	19.40	
2025-01-15 09:59:46.40	90.88	19.41	
2025-01-15 09:59:46.61	90.84	19.43	
2025-01-15 09:59:46.81	90.79	19.45	
2025-01-15 09:59:47.01	90.75	19.47	
2025-01-15 09:59:47.21	90.70	19.49	
2025-01-15 09:59:47.42	90.66	19.50	
2025-01-15 09:59:47.62	90.61	19.52	
2025-01-15 09:59:47.82	90.57	19.54	
2025-01-15 09:59:48.03	90.52	19.56	
2025-01-15 09:59:48.23	90.47	19.58	
2025-01-15 09:59:48.43	90.43	19.59	
2025-01-15 09:59:48.64	90.38	19.61	
2025-01-15 09:59:48.84	90.34	19.63	
2025-01-15 09:59:49.04	90.29	19.65	
2025-01-15 09:59:49.24	90.24	19.67	
2025-01-15 09:59:49.45	90.20	19.69	
2025-01-15 09:59:49.65	90.15	19.70	
2025-01-15 09:59:49.85	90.11	19.72	
2025-01-15 09:59:50.06	90.06	19.74	
2025-01-15 09:59:50.26	90.01	19.76	
2025-01-15 09:59:50.46	89.97	19.78	
2025-01-15 09:59:50.66	89.92	19.79	
2025-01-15 09:59:50.87	89.87	19.81	
2025-01-15 09:59:51.07	89.83	19.83	
2025-01-15 09:59:51.27	89.78	19.85	
2025-01-15 09:59:51.48	89.73	19.87	
2025-01-15 09:59:51.68	89.69	19.88	
2025-01-15 09:59:51.88	89.64	19.90	
2025-01-15 09:59:52.09	89.59	19.92	
2025-01-15 09:59:52.29	89.54	19.94	
2025-01-15 09:59:52.49	89.50	19.96	
2025-01-15 09:59:52.69	89.45	19.97	
2025-01-15 09:59:52.90	89.40	19.99	
2025-01-15 09:59:53.10	89.36	20.01	
2025-01-15 09:59:53.30	89.31	20.03	
2025-01-15 09:59:53.51	89.26	20.05	
2025-01-15 09:59:53.71	89.21	20.06	
2025-01-15 09:59:53.91	89.17	20.08	
2025-01-15 09:59:54.12	89.12	20.10	
2025-01-15 09:59:54.32	89.07	20.12	
2025-01-15 09:59:54.52	89.02	20.14	
2025-01-15 09:59:54.72	88.98	20.15	
2025-01-15 09:59:54.93	88.93	20.17	
2025-01-15 09:59:55.13	88.88	20.19	
2025-01-15 09:59:55.33	88.83	20.21	
2025-01-15 09:59:55.54	88.78	20.23	
2025-01-15 09:59:55.74	88.74	20.24	
2025-01-15 09:59:55.94	88.69	20.26	
2025-01-15 09:59:56.14	88.64	20.28	
2025-01-15 09:59:56.35	88.59	20.30	
2025-01-15 09:59:56.55	88.54	20.31	
2025-01-15 09:59:56.75	88.50	20.33	
2025-01-15 09:59:56.96	88.45	20.35	
2025-01-15 09:59:57.16	88.40	20.37	
2025-01-15 09:59:57.36	88.35	20.39	
2025-01-15 09:59:57.57	88.30	20.40	
2025-01-15 09:59:57.77	88.25	20.42	
2025-01-15 09:59:57.97	88.21	20.44	
2025-01-15 09:59:58.17	88.16	20.46	
2025-01-15 09:59:58.38	88.11	20.48	
2025-01-15 09:59:58.58	88.06	20.49	
2025-01-15 09:59:58.78	88.01	20.51	
2025-01-15 09:59:58.99	87.96	20.53	
2025-01-15 09:59:59.19	87.91	20.55	
2025-01-15 09:59:59.39	87.86	20.56	
2025-01-15 09:59:59.59	87.82	20.58	
2025-01-15 09:59:59.80	87.76	20.60	
2025-01-15 10:00:00.00	87.72	20.62	
2025-01-15 10:00:00.20	87.67	20.64	
2025-01-15 10:00:00.41	87.62	20.65	
2025-01-15 10:00:00.61	87.57	20.67	
2025-01-15 10:00:00.81	87.52	20.69	
2025-01-15 10:00:01.02	87.47	20.71	
2025-01-15 10:00:01.22	87.42	20.72	
2025-01-15 10:00:01.42	87.37	20.74	
2025-01-15 10:00:01.62	87.32	20.76	
2025-01-15 10:00:01.83	87.27	20.78	
2025-01-15 10:00:02.03	87.22	20.79	
2025-01-15 10:00:02.23	87.17	20.81	
2025-01-15 10:00:02.44	87.12	20.83	
2025-01-15 10:00:02.64	87.07	20.85	
2025-01-15 10:00:02.84	87.02	20.87	
2025-01-15 10:00:03.04	86.97	20.88	
2025-01-15 10:00:03.25	86.92	20.90	
2025-01-15 10:00:03.45	86.87	20.92	
2025-01-15 10:00:03.65	86.82	20.94	
2025-01-15 10:00:03.86	86.77	20.95	
2025-01-15 10:00:04.06	86.72	20.97	
2025-01-15 10:00:04.26	86.67	20.99	
2025-01-15 10:00:04.47	86.62	21.01	
2025-01-15 10:00:04.67	86.57	21.02	
2025-01-15 10:00:04.87	86.52	21.04	
2025-01-15 10:00:05.07	86.47	21.06	
2025-01-15 10:00:05.28	86.41	21.08	
2025-01-15 10:00:05.48	86.36	21.09	
2025-01-15 10:00:05.68	86.31	21.11	
2025-01-15 10:00:05.89	86.26	21.13	
2025-01-15 10:00:06.09	86.21	21.15	
2025-01-15 10:00:06.29	86.16	21.16	
2025-01-15 10:00:06.50	86.11	21.18	
2025-01-15 10:00:06.70	86.06	21.20	
2025-01-15 10:00:06.90	86.01	21.22	
2025-01-15 10:00:07.10	85.96	21.23	
2025-01-15 10:00:07.31	85.90	21.25	
2025-01-15 10:00:07.51	85.85	21.27	
2025-01-15 10:00:07.71	85.80	21.29	
2025-01-15 10:00:07.92	85.75	21.30	
2025-01-15 10:00:08.12	85.70	21.32	
2025-01-15 10:00:08.32	85.65	21.34	
2025-01-15 10:00:08.52	85.59	21.36	
2025-01-15 10:00:08.73	85.54	21.37	
2025-01-15 10:00:08.93	85.49	21.39	
2025-01-15 10:00:09.13	85.44	21.41	
2025-01-15 10:00:09.34	85.38	21.43	
2025-01-15 10:00:09.54	85.33	21.44	
2025-01-15 10:00:09.74	85.28	21.46	
2025-01-15 10:00:09.95	85.23	21.48	
2025-01-15 10:00:10.15	85.18	21.49	
2025-01-15 10:00:10.35	85.12	21.51	
2025-01-15 10:00:10.55	85.07	21.53	
2025-01-15 10:00:10.76	85.02	21.55	
2025-01-15 10:00:10.96	84.97	21.56	
2025-01-15 10:00:11.16	84.92	21.58	
2025-01-15 10:00:11.37	84.86	21.60	
2025-01-15 10:00:11.57	84.81	21.62	
2025-01-15 10:00:11.77	84.76	21.63	
2025-01-15 10:00:11.97	84.70	21.65	
2025-01-15 10:00:12.18	84.65	21.67	
2025-01-15 10:00:12.38	84.60	21.68	
2025-01-15 10:00:12.58	84.55	21.70	
2025-01-15 10:00:12.79	84.49	21.72	
2025-01-15 10:00:12.99	84.44	21.74	
2025-01-15 10:00:13.19	84.39	21.75	
2025-01-15 10:00:13.40	84.33	21.77	
2025-01-15 10:00:13.60	84.28	21.79	
2025-01-15 10:00:13.80	84.23	21.80	
2025-01-15 10:00:14.00	84.17	21.82	
2025-01-15 10:00:14.21	84.12	21.84	
2025-01-15 10:00:14.41	84.07	21.85	
2025-01-15 10:00:14.61	84.01	21.87	
2025-01-15 10:00:14.82	83.96	21.89	
2025-01-15 10:00:15.02	83.90	21.91	
2025-01-15 10:00:15.22	83.85	21.92	
2025-01-15 10:00:15.42	83.80	21.94	
2025-01-15 10:00:15.63	83.74	21.96	
2025-01-15 10:00:15.83	83.69	21.97	
2025-01-15 10:00:16.03	83.64	21.99	
2025-01-15 10:00:16.24	83.58	22.01	
2025-01-15 10:00:16.44	83.53	22.02	
2025-01-15 10:00:16.64	83.47	22.04	
2025-01-15 10:00:16.85	83.42	22.06	
2025-01-15 10:00:17.05	83.36	22.08	
2025-01-15 10:00:17.25	83.31	22.09	
2025-01-15 10:00:17.45	83.26	22.11	
2025-01-15 10:00:17.66	83.20	22.13	
2025-01-15 10:00:17.86	83.14	22.14	
2025-01-15 10:00:18.06	83.09	22.16	
2025-01-15 10:00:18.27	83.03	22.18	
2025-01-15 10:00:18.47	82.98	22.19	
2025-01-15 10:00:18.67	82.93	22.21	
2025-01-15 10:00:18.88	82.87	22.23	
2025-01-15 10:00:19.08	82.82	22.24	
2025-01-15 10:00:19.28	82.76	22.26	
2025-01-15 10:00:19.48	82.71	22.28	
2025-01-15 10:00:19.69	82.65	22.29	
2025-01-15 10:00:19.89	82.60	22.31	
2025-01-15 10:00:20.09	82.54	22.33	
2025-01-15 10:00:20.30	82.48	22.34	
2025-01-15 10:00:20.50	82.43	22.36	
2025-01-15 10:00:20.70	82.37	22.38	
2025-01-15 10:00:20.90	82.32	22.39	
2025-01-15 10:00:21.11	82.26	22.41	
2025-01-15 10:00:21.31	82.21	22.43	
2025-01-15 10:00:21.51	82.15	22.44	
2025-01-15 10:00:21.72	82.09	22.46	
2025-01-15 10:00:21.92	82.04	22.47	
2025-01-15 10:00:22.12	81.98	22.49	
2025-01-15 10:00:22.33	81.93	22.51	
2025-01-15 10:00:22.53	81.87	22.52	
2025-01-15 10:00:22.73	81.82	22.54	
2025-01-15 10:00:22.93	81.76	22.56	
2025-01-15 10:00:23.14	81.70	22.57	
2025-01-15 10:00:23.34	81.65	22.59	
2025-01-15 10:00:23.54	81.59	22.61	
2025-01-15 10:00:23.75	81.53	22.62	
2025-01-15 10:00:23.95	81.48	22.64	
2025-01-15 10:00:24.15	81.42	22.65	
2025-01-15 10:00:24.35	81.37	22.67	
2025-01-15 10:00:24.56	81.31	22.69	
2025-01-15 10:00:24.76	81.25	22.70	
2025-01-15 10:00:24.96	81.19	22.72	
2025-01-15 10:00:25.17	81.14	22.74	
2025-01-15 10:00:25.37	81.08	22.75	
2025-01-15 10:00:25.57	81.02	22.77	
2025-01-15 10:00:25.78	80.96	22.78	
2025-01-15 10:00:25.98	80.91	22.80	
2025-01-15 10:00:26.18	80.85	22.82	
2025-01-15 10:00:26.38	80.80	22.83	
2025-01-15 10:00:26.59	80.74	22.85	
2025-01-15 10:00:26.79	80.68	22.86	
2025-01-15 10:00:26.99	80.62	22.88	
2025-01-15 10:00:27.20	80.56	22.90	
2025-01-15 10:00:27.40	80.51	22.91	
2025-01-15 10:00:27.60	80.45	22.93	
2025-01-15 10:00:27.80	80.39	22.94	
2025-01-15 10:00:28.01	80.33	22.96	
2025-01-15 10:00:28.21	80.28	22.98	
2025-01-15 10:00:28.41	80.22	22.99	
2025-01-15 10:00:28.62	80.16	23.01	
2025-01-15 10:00:28.82	80.10	23.02	
2025-01-15 10:00:29.02	80.05	23.04	
2025-01-15 10:00:29.23	79.99	23.06	
2025-01-15 10:00:29.43	79.93	23.07	
2025-01-15 10:00:29.63	79.87	23.09	
2025-01-15 10:00:29.83	79.81	23.10	
2025-01-15 10:00:30.04	79.75	23.12	
2025-01-15 10:00:30.24	79.70	23.13	
2025-01-15 10:00:30.44	79.64	23.15	
2025-01-15 10:00:30.65	79.58	23.17	
2025-01-15 10:00:30.85	79.52	23.18	
2025-01-15 10:00:31.05	79.46	23.20	
2025-01-15 10:00:31.26	79.40	23.21	
2025-01-15 10:00:31.46	79.34	23.23	
2025-01-15 10:00:31.66	79.28	23.24	
2025-01-15 10:00:31.86	79.23	23.26	
2025-01-15 10:00:32.07	79.17	23.28	
2025-01-15 10:00:32.27	79.11	23.29	
2025-01-15 10:00:32.47	79.05	23.31	
2025-01-15 10:00:32.68	78.99	23.32	
2025-01-15 10:00:32.88	78.93	23.34	
2025-01-15 10:00:33.08	78.87	23.35	
2025-01-15 10:00:33.28	78.81	23.37	
2025-01-15 10:00:33.49	78.75	23.38	
2025-01-15 10:00:33.69	78.69	23.40	
2025-01-15 10:00:33.89	78.63	23.41	
2025-01-15 10:00:34.10	78.57	23.43	
2025-01-15 10:00:34.30	78.51	23.44	
2025-01-15 10:00:34.50	78.46	23.46	
2025-01-15 10:00:34.71	78.39	23.48	
2025-01-15 10:00:34.91	78.33	23.49	
2025-01-15 10:00:35.11	78.28	23.51	
2025-01-15 10:00:35.31	78.22	23.52	
2025-01-15 10:00:35.52	78.15	23.54	
2025-01-15 10:00:35.72	78.10	23.55	
2025-01-15 10:00:35.92	78.04	23.57	
2025-01-15 10:00:36.13	77.97	23.58	
2025-01-15 10:00:36.33	77.91	23.60	
2025-01-15 10:00:36.53	77.85	23.61	
2025-01-15 10:00:36.73	77.80	23.63	
2025-01-15 10:00:36.94	77.73	23.64	
2025-01-15 10:00:37.14	77.67	23.66	
2025-01-15 10:00:37.34	77.61	23.67	
2025-01-15 10:00:37.55	77.55	23.69	
2025-01-15 10:00:37.75	77.49	23.70	
2025-01-15 10:00:37.95	77.43	23.72	
2025-01-15 10:00:38.16	77.37	23.73	
2025-01-15 10:00:38.36	77.31	23.75	
2025-01-15 10:00:38.56	77.25	23.76	
2025-01-15 10:00:38.76	77.19	23.77	
2025-01-15 10:00:38.97	77.13	23.79	
2025-01-15 10:00:39.17	77.06	23.80	
2025-01-15 10:00:39.37	77.00	23.82	
2025-01-15 10:00:39.58	76.94	23.83	
2025-01-15 10:00:39.78	76.88	23.85	
2025-01-15 10:00:39.98	76.82	23.86	
2025-01-15 10:00:40.18	76.76	23.88	
2025-01-15 10:00:40.39	76.70	23.89	
2025-01-15 10:00:40.59	76.64	23.91	
2025-01-15 10:00:40.79	76.58	23.92	
2025-01-15 10:00:41.00	76.51	23.94	
2025-01-15 10:00:41.20	76.45	23.95	
2025-01-15 10:00:41.40	76.39	23.96	
2025-01-15 10:00:41.61	76.33	23.98	
2025-01-15 10:00:41.81	76.26	23.99	
2025-01-15 10:00:42.01	76.20	24.01	
2025-01-15 10:00:42.21	76.14	24.02	
2025-01-15 10:00:42.42	76.08	24.04	
2025-01-15 10:00:42.62	76.02	24.05	
2025-01-15 10:00:42.82	75.96	24.06	
2025-01-15 10:00:43.03	75.89	24.08	
2025-01-15 10:00:43.23	75.83	24.09	
2025-01-15 10:00:43.43	75.77	24.11	
2025-01-15 10:00:43.64	75.70	24.12	
2025-01-15 10:00:43.84	75.64	24.14	
2025-01-15 10:00:44.04	75.58	24.15	
2025-01-15 10:00:44.24	75.52	24.16	
2025-01-15 10:00:44.45	75.45	24.18	
2025-01-15 10:00:44.65	75.39	24.19	
2025-01-15 10:00:44.85	75.33	24.21	
2025-01-15 10:00:45.06	75.27	24.22	
2025-01-15 10:00:45.26	75.20	24.23	
2025-01-15 10:00:45.46	75.14	24.25	
2025-01-15 10:00:45.66	75.08	24.26	
2025-01-15 10:00:45.87	75.02	24.28	
2025-01-15 10:00:46.07	74.95	24.29	
2025-01-15 10:00:46.27	74.89	24.30	
2025-01-15 10:00:46.48	74.83	24.32	
2025-01-15 10:00:46.68	74.76	24.33	
2025-01-15 10:00:46.88	74.70	24.34	
2025-01-15 10:00:47.09	74.63	24.36	
2025-01-15 10:00:47.29	74.57	24.37	
2025-01-15 10:00:47.49	74.51	24.38	
2025-01-15 10:00:47.69	74.45	24.40	
2025-01-15 10:00:47.90	74.38	24.41	
2025-01-15 10:00:48.10	74.32	24.43	
2025-01-15 10:00:48.30	74.26	24.44	
2025-01-15 10:00:48.51	74.19	24.45	
2025-01-15 10:00:48.71	74.13	24.47	
2025-01-15 10:00:48.91	74.06	24.48	
2025-01-15 10:00:49.11	74.00	24.49	
2025-01-15 10:00:49.32	73.93	24.51	
2025-01-15 10:00:49.52	73.87	24.52	
2025-01-15 10:00:49.72	73.81	24.53	
2025-01-15 10:00:49.93	73.74	24.55	
2025-01-15 10:00:50.13	73.68	24.56	
2025-01-15 10:00:50.33	73.62	24.57	
2025-01-15 10:00:50.54	73.55	24.59	
2025-01-15 10:00:50.74	73.49	24.60	
2025-01-15 10:00:50.94	73.42	24.61	
2025-01-15 10:00:51.14	73.36	24.62	
2025-01-15 10:00:51.35	73.29	24.64	
2025-01-15 10:00:51.55	73.23	24.65	
2025-01-15 10:00:51.75	73.16	24.66	
2025-01-15 10:00:51.96	73.10	24.68	
2025-01-15 10:00:52.16	73.03	24.69	
2025-01-15 10:00:52.36	72.97	24.70	
2025-01-15 10:00:52.56	72.91	24.71	
2025-01-15 10:00:52.77	72.84	24.73	
2025-01-15 10:00:52.97	72.77	24.74	
2025-01-15 10:00:53.17	72.71	24.75	
2025-01-15 10:00:53.38	72.64	24.77	
2025-01-15 10:00:53.58	72.58	24.78	
2025-01-15 10:00:53.78	72.51	24.79	
2025-01-15 10:00:53.99	72.45	24.80	
2025-01-15 10:00:54.19	72.38	24.82	
2025-01-15 10:00:54.39	72.32	24.83	
2025-01-15 10:00:54.59	72.25	24.84	
2025-01-15 10:00:54.80	72.19	24.85	
2025-01-15 10:00:55.00	72.12	24.87	
2025-01-15 10:00:55.20	72.06	24.88	
2025-01-15 10:00:55.41	71.99	24.89	
2025-01-15 10:00:55.61	71.92	24.90	
2025-01-15 10:00:55.81	71.86	24.92	
2025-01-15 10:00:56.02	71.79	24.93	
2025-01-15 10:00:56.22	71.73	24.94	
2025-01-15 10:00:56.42	71.66	24.95	
2025-01-15 10:00:56.62	71.60	24.96	
2025-01-15 10:00:56.83	71.53	24.98	
2025-01-15 10:00:57.03	71.46	24.99	
2025-01-15 10:00:57.23	71.40	25.00	
2025-01-15 10:00:57.44	71.33	25.01	
2025-01-15 10:00:57.64	71.26	25.03	
2025-01-15 10:00:57.84	71.20	25.04	
2025-01-15 10:00:58.04	71.13	25.05	
2025-01-15 10:00:58.25	71.06	25.06	
2025-01-15 10:00:58.45	71.00	25.07	
2025-01-15 10:00:58.65	70.93	25.08	
2025-01-15 10:00:58.86	70.86	25.10	
2025-01-15 10:00:59.06	70.80	25.11	
2025-01-15 10:00:59.26	70.73	25.12	
2025-01-15 10:00:59.47	70.66	25.13	
2025-01-15 10:00:59.67	70.60	25.14	
2025-01-15 10:00:59.87	70.53	25.15	
2025-01-15 10:01:00.07	70.47	25.17	
2025-01-15 10:01:00.28	70.40	25.18	
2025-01-15 10:01:00.48	70.33	25.19	
2025-01-15 10:01:00.68	70.26	25.20	
2025-01-15 10:01:00.89	70.20	25.21	
2025-01-15 10:01:01.09	70.13	25.22	
2025-01-15 10:01:01.29	70.06	25.23	
2025-01-15 10:01:01.49	70.00	25.25	
2025-01-15 10:01:01.70	69.93	25.26	
2025-01-15 10:01:01.90	69.86	25.27	
2025-01-15 10:01:02.10	69.79	25.28	
2025-01-15 10:01:02.31	69.72	25.29	
2025-01-15 10:01:02.51	69.66	25.30	
2025-01-15 10:01:02.71	69.59	25.31	
2025-01-15 10:01:02.92	69.52	25.32	
2025-01-15 10:01:03.12	69.46	25.34	
2025-01-15 10:01:03.32	69.39	25.35	
2025-01-15 10:01:03.52	69.32	25.36	
2025-01-15 10:01:03.73	69.25	25.37	
2025-01-15 10:01:03.93	69.18	25.38	
2025-01-15 10:01:04.13	69.12	25.39	
2025-01-15 10:01:04.34	69.05	25.40	
2025-01-15 10:01:04.54	68.98	25.41	
2025-01-15 10:01:04.74	68.91	25.42	
2025-01-15 10:01:04.95	68.84	25.43	
2025-01-15 10:01:05.15	68.78	25.44	
2025-01-15 10:01:05.35	68.71	25.45	
2025-01-15 10:01:05.55	68.64	25.47	
2025-01-15 10:01:05.76	68.57	25.48	
2025-01-15 10:01:05.96	68.50	25.49	
2025-01-15 10:01:06.16	68.44	25.50	
2025-01-15 10:01:06.37	68.37	25.51	
2025-01-15 10:01:06.57	68.30	25.52	
2025-01-15 10:01:06.77	68.23	25.53	
2025-01-15 10:01:06.97	68.16	25.54	
2025-01-15 10:01:07.18	68.09	25.55	
2025-01-15 10:01:07.38	68.02	25.56	
2025-01-15 10:01:07.58	67.96	25.57	
2025-01-15 10:01:07.79	67.89	25.58	
2025-01-15 10:01:07.99	67.82	25.59	
2025-01-15 10:01:08.19	67.75	25.60	
2025-01-15 10:01:08.40	67.68	25.61	
2025-01-15 10:01:08.60	67.61	25.62	
2025-01-15 10:01:08.80	67.54	25.63	
2025-01-15 10:01:09.00	67.48	25.64	
2025-01-15 10:01:09.21	67.40	25.65	
2025-01-15 10:01:09.41	67.34	25.66	
2025-01-15 10:01:09.61	67.27	25.67	
2025-01-15 10:01:09.82	67.20	25.68	
2025-01-15 10:01:10.02	67.13	25.69	
2025-01-15 10:01:10.22	67.06	25.70	
2025-01-15 10:01:10.42	66.99	25.71	
2025-01-15 10:01:10.63	66.92	25.72	
2025-01-15 10:01:10.83	66.85	25.73	
2025-01-15 10:01:11.03	66.78	25.74	
2025-01-15 10:01:11.24	66.71	25.75	
2025-01-15 10:01:11.44	66.64	25.76	
2025-01-15 10:01:11.64	66.57	25.76	
2025-01-15 10:01:11.85	66.50	25.77	
2025-01-15 10:01:12.05	66.43	25.78	
2025-01-15 10:01:12.25	66.36	25.79	
2025-01-15 10:01:12.45	66.30	25.80	
2025-01-15 10:01:12.66	66.22	25.81	
2025-01-15 10:01:12.86	66.16	25.82	
2025-01-15 10:01:13.06	66.09	25.83	
2025-01-15 10:01:13.27	66.01	25.84	
2025-01-15 10:01:13.47	65.95	25.85	
2025-01-15 10:01:13.67	65.88	25.86	
2025-01-15 10:01:13.87	65.81	25.86	
2025-01-15 10:01:14.08	65.73	25.87	
2025-01-15 10:01:14.28	65.67	25.88	
2025-01-15 10:01:14.48	65.60	25.89	
2025-01-15 10:01:14.69	65.52	25.90	
2025-01-15 10:01:14.89	65.45	25.91	
2025-01-15 10:01:15.09	65.39	25.92	
2025-01-15 10:01:15.30	65.31	25.93	
2025-01-15 10:01:15.50	65.24	25.93	
2025-01-15 10:01:15.70	65.17	25.94	
2025-01-15 10:01:15.90	65.10	25.95	
2025-01-15 10:01:16.11	65.03	25.96	
2025-01-15 10:01:16.31	64.96	25.97	
2025-01-15 10:01:16.51	64.89	25.98	
2025-01-15 10:01:16.72	64.82	25.99	
2025-01-15 10:01:16.92	64.75	25.99	
2025-01-15 10:01:17.12	64.68	26.00	
2025-01-15 10:01:17.32	64.61	26.01	
2025-01-15 10:01:17.53	64.54	26.02	
2025-01-15 10:01:17.73	64.47	26.03	
2025-01-15 10:01:17.93	64.40	26.03	
2025-01-15 10:01:18.14	64.32	26.04	
2025-01-15 10:01:18.34	64.26	26.05	
2025-01-15 10:01:18.54	64.19	26.06	
2025-01-15 10:01:18.75	64.11	26.07	
2025-01-15 10:01:18.95	64.04	26.07	
2025-01-15 10:01:19.15	63.97	26.08	
2025-01-15 10:01:19.35	63.90	26.09	
2025-01-15 10:01:19.56	63.83	26.10	
2025-01-15 10:01:19.76	63.76	26.11	
2025-01-15 10:01:19.96	63.69	26.11	
2025-01-15 10:01:20.17	63.61	26.12	
2025-01-15 10:01:20.37	63.54	26.13	
2025-01-15 10:01:20.57	63.47	26.14	
2025-01-15 10:01:20.78	63.40	26.14	
2025-01-15 10:01:20.98	63.33	26.15	
2025-01-15 10:01:21.18	63.26	26.16	
2025-01-15 10:01:21.38	63.19	26.16	
2025-01-15 10:01:21.59	63.12	26.17	
2025-01-15 10:01:21.79	63.04	26.18	
2025-01-15 10:01:21.99	62.97	26.19	
2025-01-15 10:01:22.20	62.90	26.19	
2025-01-15 10:01:22.40	62.83	26.20	
2025-01-15 10:01:22.60	62.76	26.21	
2025-01-15 10:01:22.80	62.69	26.21	
2025-01-15 10:01:23.01	62.61	26.22	
2025-01-15 10:01:23.21	62.54	26.23	
2025-01-15 10:01:23.41	62.47	26.24	
2025-01-15 10:01:23.62	62.40	26.24	
2025-01-15 10:01:23.82	62.33	26.25	
2025-01-15 10:01:24.02	62.26	26.26	
2025-01-15 10:01:24.23	62.18	26.26	
2025-01-15 10:01:24.43	62.11	26.27	
2025-01-15 10:01:24.63	62.04	26.28	
2025-01-15 10:01:24.83	61.97	26.28	
2025-01-15 10:01:25.04	61.90	26.29	
2025-01-15 10:01:25.24	61.83	26.30	
2025-01-15 10:01:25.44	61.75	26.30	
2025-01-15 10:01:25.65	61.68	26.31	
2025-01-15 10:01:25.85	61.61	26.31	
2025-01-15 10:01:26.05	61.54	26.32	
2025-01-15 10:01:26.25	61.47	26.33	
2025-01-15 10:01:26.46	61.39	26.33	
2025-01-15 10:01:26.66	61.32	26.34	
2025-01-15 10:01:26.86	61.25	26.34	
2025-01-15 10:01:27.07	61.17	26.35	
2025-01-15 10:01:27.27	61.10	26.36	
2025-01-15 10:01:27.47	61.03	26.36	
2025-01-15 10:01:27.68	60.96	26.37	
2025-01-15 10:01:27.88	60.89	26.37	
2025-01-15 10:01:28.08	60.81	26.38	
2025-01-15 10:01:28.28	60.74	26.39	
2025-01-15 10:01:28.49	60.67	26.39	
2025-01-15 10:01:28.69	60.60	26.40	
2025-01-15 10:01:28.89	60.53	26.40	
2025-01-15 10:01:29.10	60.45	26.41	
2025-01-15 10:01:29.30	60.38	26.41	
2025-01-15 10:01:29.50	60.31	26.42	
2025-01-15 10:01:29.71	60.23	26.43	
2025-01-15 10:01:29.91	60.16	26.43	
2025-01-15 10:01:30.11	60.09	26.44	
2025-01-15 10:01:30.31	60.02	26.44	
2025-01-15 10:01:30.52	59.94	26.45	
2025-01-15 10:01:30.72	59.87	26.45	
2025-01-15 10:01:30.92	59.80	26.46	
2025-01-15 10:01:31.13	59.72	26.46	
2025-01-15 10:01:31.33	59.65	26.47	
2025-01-15 10:01:31.53	59.58	26.47	
2025-01-15 10:01:31.73	59.51	26.48	
2025-01-15 10:01:31.94	59.43	26.48	
2025-01-15 10:01:32.14	59.36	26.49	
2025-01-15 10:01:32.34	59.29	26.49	
2025-01-15 10:01:32.55	59.21	26.50	
2025-01-15 10:01:32.75	59.14	26.50	
2025-01-15 10:01:32.95	59.07	26.50	
2025-01-15 10:01:33.16	58.99	26.51	
2025-01-15 10:01:33.36	58.92	26.51	
2025-01-15 10:01:33.56	58.85	26.52	
2025-01-15 10:01:33.76	58.78	26.52	
2025-01-15 10:01:33.97	58.70	26.53	
2025-01-15 10:01:34.17	58.63	26.53	
2025-01-15 10:01:34.37	58.56	26.54	
2025-01-15 10:01:34.58	58.48	26.54	
2025-01-15 10:01:34.78	58.41	26.54	
2025-01-15 10:01:34.98	58.34	26.55	
2025-01-15 10:01:35.18	58.27	26.55	
2025-01-15 10:01:35.39	58.19	26.56	
2025-01-15 10:01:35.59	58.12	26.56	
2025-01-15 10:01:35.79	58.05	26.56	
2025-01-15 10:01:36.00	57.97	26.57	
2025-01-15 10:01:36.20	57.90	26.57	
2025-01-15 10:01:36.40	57.83	26.58	
2025-01-15 10:01:36.61	57.75	26.58	
2025-01-15 10:01:36.81	57.68	26.58	
2025-01-15 10:01:37.01	57.60	26.59	
2025-01-15 10:01:37.21	57.53	26.59	
2025-01-15 10:01:37.42	57.46	26.59	
2025-01-15 10:01:37.62	57.38	26.60	
2025-01-15 10:01:37.82	57.31	26.60	
2025-01-15 10:01:38.03	57.24	26.60	
2025-01-15 10:01:38.23	57.16	26.61	
2025-01-15 10:01:38.43	57.09	26.61	
2025-01-15 10:01:38.63	57.02	26.61	
2025-01-15 10:01:38.84	56.94	26.62	
2025-01-15 10:01:39.04	56.87	26.62	
2025-01-15 10:01:39.24	56.80	26.62	
2025-01-15 10:01:39.45	56.72	26.63	
2025-01-15 10:01:39.65	56.65	26.63	
2025-01-15 10:01:39.85	56.58	26.63	
2025-01-15 10:01:40.06	56.50	26.64	
2025-01-15 10:01:40.26	56.43	26.64	
2025-01-15 10:01:40.46	56.35	26.64	
2025-01-15 10:01:40.66	56.28	26.64	
2025-01-15 10:01:40.87	56.21	26.65	
2025-01-15 10:01:41.07	56.13	26.65	
2025-01-15 10:01:41.27	56.06	26.65	
2025-01-15 10:01:41.48	55.98	26.65	
2025-01-15 10:01:41.68	55.91	26.66	
2025-01-15 10:01:41.88	55.84	26.66	
2025-01-15 10:01:42.09	55.76	26.66	
2025-01-15 10:01:42.29	55.69	26.66	
2025-01-15 10:01:42.49	55.62	26.67	
2025-01-15 10:01:42.69	55.54	26.67	
2025-01-15 10:01:42.90	55.47	26.67	
2025-01-15 10:01:43.10	55.40	26.67	
2025-01-15 10:01:43.30	55.32	26.68	
2025-01-15 10:01:43.51	55.25	26.68	
2025-01-15 10:01:43.71	55.17	26.68	
2025-01-15 10:01:43.91	55.10	26.68	
2025-01-15 10:01:44.11	55.03	26.68	
2025-01-15 10:01:44.32	54.95	26.69	
2025-01-15 10:01:44.52	54.88	26.69	
2025-01-15 10:01:44.72	54.81	26.69	
2025-01-15 10:01:44.93	54.73	26.69	
2025-01-15 10:01:45.13	54.66	26.69	
2025-01-15 10:01:45.33	54.58	26.69	
2025-01-15 10:01:45.54	54.51	26.70	
2025-01-15 10:01:45.74	54.43	26.70	
2025-01-15 10:01:45.94	54.36	26.70	
2025-01-15 10:01:46.14	54.29	26.70	
2025-01-15 10:01:46.35	54.21	26.70	
2025-01-15 10:01:46.55	54.14	26.70	
2025-01-15 10:01:46.75	54.07	26.70	
2025-01-15 10:01:46.96	53.99	26.70	
2025-01-15 10:01:47.16	53.92	26.71	
2025-01-15 10:01:47.36	53.84	26.71	
2025-01-15 10:01:47.56	53.77	26.71	
2025-01-15 10:01:47.77	53.70	26.71	
2025-01-15 10:01:47.97	53.62	26.71	
2025-01-15 10:01:48.17	53.55	26.71	
2025-01-15 10:01:48.38	53.47	26.71	
2025-01-15 10:01:48.58	53.40	26.71	
2025-01-15 10:01:48.78	53.33	26.71	
2025-01-15 10:01:48.99	53.25	26.71	
2025-01-15 10:01:49.19	53.18	26.71	
2025-01-15 10:01:49.39	53.10	26.71	
2025-01-15 10:01:49.59	53.03	26.72	
2025-01-15 10:01:49.80	52.96	26.72	
2025-01-15 10:01:50.00	52.88	26.72	
2025-01-15 10:01:50.20	52.81	26.72	
2025-01-15 10:01:50.41	52.73	26.72	
2025-01-15 10:01:50.61	52.66	26.72	
2025-01-15 10:01:50.81	52.59	26.72	
2025-01-15 10:01:51.01	52.51	26.72	
2025-01-15 10:01:51.22	52.44	26.72	
2025-01-15 10:01:51.42	52.36	26.72	
2025-01-15 10:01:51.62	52.29	26.72	
2025-01-15 10:01:51.83	52.22	26.72	
2025-01-15 10:01:52.03	52.14	26.72	
2025-01-15 10:01:52.23	52.07	26.72	
2025-01-15 10:01:52.44	51.99	26.72	
2025-01-15 10:01:52.64	51.92	26.72	
2025-01-15 10:01:52.84	51.85	26.72	
2025-01-15 10:01:53.04	51.77	26.72	
2025-01-15 10:01:53.25	51.70	26.72	
2025-01-15 10:01:53.45	51.62	26.72	
2025-01-15 10:01:53.65	51.55	26.71	
2025-01-15 10:01:53.86	51.48	26.71	
2025-01-15 10:01:54.06	51.40	26.71	
2025-01-15 10:01:54.26	51.33	26.71	
2025-01-15 10:01:54.47	51.25	26.71	
2025-01-15 10:01:54.67	51.18	26.71	
2025-01-15 10:01:54.87	51.11	26.71	
2025-01-15 10:01:55.07	51.03	26.71	
2025-01-15 10:01:55.28	50.96	26.71	
2025-01-15 10:01:55.48	50.88	26.71	
2025-01-15 10:01:55.68	50.81	26.71	
2025-01-15 10:01:55.89	50.74	26.71	
2025-01-15 10:01:56.09	50.66	26.70	
2025-01-15 10:01:56.29	50.59	26.70	
2025-01-15 10:01:56.49	50.52	26.70	
2025-01-15 10:01:56.70	50.44	26.70	
2025-01-15 10:01:56.90	50.37	26.70	
2025-01-15 10:01:57.10	50.29	26.70	
2025-01-15 10:01:57.31	50.22	26.70	
2025-01-15 10:01:57.51	50.15	26.70	
2025-01-15 10:01:57.71	50.07	26.69	
2025-01-15 10:01:57.92	50.00	26.69	
2025-01-15 10:01:58.12	49.92	26.69	
2025-01-15 10:01:58.32	49.85	26.69	
2025-01-15 10:01:58.52	49.78	26.69	
2025-01-15 10:01:58.73	49.70	26.69	
2025-01-15 10:01:58.93	49.63	26.68	
2025-01-15 10:01:59.13	49.56	26.68	
2025-01-15 10:01:59.34	49.48	26.68	
2025-01-15 10:01:59.54	49.41	26.68	
2025-01-15 10:01:59.74	49.33	26.68	
2025-01-15 10:01:59.94	49.26	26.67	
2025-01-15 10:02:00.15	49.18	26.67	
2025-01-15 10:02:00.35	49.11	26.67	
2025-01-15 10:02:00.55	49.04	26.67	
2025-01-15 10:02:00.76	48.96	26.67	
2025-01-15 10:02:00.96	48.89	26.66	
2025-01-15 10:02:01.16	48.82	26.66	
2025-01-15 10:02:01.37	48.74	26.66	
2025-01-15 10:02:01.57	48.67	26.66	
2025-01-15 10:02:01.77	48.60	26.65	
2025-01-15 10:02:01.97	48.52	26.65	
2025-01-15 10:02:02.18	48.45	26.65	
2025-01-15 10:02:02.38	48.38	26.65	
2025-01-15 10:02:02.58	48.30	26.64	
2025-01-15 10:02:02.79	48.23	26.64	
2025-01-15 10:02:02.99	48.15	26.64	
2025-01-15 10:02:03.19	48.08	26.63	
2025-01-15 10:02:03.39	48.01	26.63	
2025-01-15 10:02:03.60	47.93	26.63	
2025-01-15 10:02:03.80	47.86	26.62	
2025-01-15 10:02:04.00	47.79	26.62	
2025-01-15 10:02:04.21	47.71	26.62	
2025-01-15 10:02:04.41	47.64	26.62	
2025-01-15 10:02:04.61	47.57	26.61	
2025-01-15 10:02:04.82	47.49	26.61	
2025-01-15 10:02:05.02	47.42	26.61	
2025-01-15 10:02:05.22	47.35	26.60	
2025-01-15 10:02:05.42	47.27	26.60	
2025-01-15 10:02:05.63	47.20	26.60	
2025-01-15 10:02:05.83	47.13	26.59	
2025-01-15 10:02:06.03	47.05	26.59	
2025-01-15 10:02:06.24	46.98	26.58	
2025-01-15 10:02:06.44	46.91	26.58	
2025-01-15 10:02:06.64	46.83	26.58	
2025-01-15 10:02:06.85	46.76	26.57	
2025-01-15 10:02:07.05	46.68	26.57	
2025-01-15 10:02:07.25	46.61	26.57	
2025-01-15 10:02:07.45	46.54	26.56	
2025-01-15 10:02:07.66	46.46	26.56	
2025-01-15 10:02:07.86	46.39	26.55	
2025-01-15 10:02:08.06	46.32	26.55	
2025-01-15 10:02:08.27	46.24	26.55	
2025-01-15 10:02:08.47	46.17	26.54	
2025-01-15 10:02:08.67	46.10	26.54	
2025-01-15 10:02:08.87	46.03	26.53	
2025-01-15 10:02:09.08	45.95	26.53	
