passes_logs/2025/01/15/SPB_Silybum_02/SPB_Silybum_02__20250115_015324_SUOMI_NPP_rec.log

#Pass ID: 20250115_015324_SUOMI NPP
#Satellite: SUOMI NPP
#Configuration: NPP
#Start time: 2025-01-15 01:53:23

#Version: 2.0.20230423
#Station: SPB_Silybum_02
#Location: 30.233357 lon 59.946436 lat
#TLE: 1 37849U 11061A   25014.14453206  .00000163  00000+0  98177-4 0  9992
#TLE: 2 37849  98.7445 315.1439 0001716  42.3577 317.7731 14.19537774684790

#Time	Az	El	Level	Level2	SNR	BER	Gain	Gain2
2025-01-15 01:53:25.77	14.50	4.09	
2025-01-15 01:53:25.99	14.49	4.10	
2025-01-15 01:53:26.21	14.47	4.12	
2025-01-15 01:53:26.41	14.46	4.13	
2025-01-15 01:53:26.61	14.45	4.14	
2025-01-15 01:53:26.82	14.44	4.15	
2025-01-15 01:53:27.02	14.42	4.17	
2025-01-15 01:53:27.22	14.41	4.18	
2025-01-15 01:53:27.43	14.40	4.19	
2025-01-15 01:53:27.63	14.39	4.21	
2025-01-15 01:53:27.83	14.37	4.22	
2025-01-15 01:53:28.04	14.36	4.23	
2025-01-15 01:53:28.24	14.35	4.24	
2025-01-15 01:53:28.44	14.34	4.26	
2025-01-15 01:53:28.64	14.32	4.27	
2025-01-15 01:53:28.85	14.31	4.28	
2025-01-15 01:53:29.05	14.30	4.29	
2025-01-15 01:53:29.25	14.29	4.31	
2025-01-15 01:53:29.46	14.27	4.32	
2025-01-15 01:53:29.66	14.26	4.33	
2025-01-15 01:53:29.86	14.25	4.35	
2025-01-15 01:53:30.07	14.24	4.36	
2025-01-15 01:53:30.27	14.22	4.37	
2025-01-15 01:53:30.47	14.21	4.38	
2025-01-15 01:53:30.68	14.20	4.40	
2025-01-15 01:53:30.88	14.18	4.41	
2025-01-15 01:53:31.08	14.17	4.42	
2025-01-15 01:53:31.28	14.16	4.43	
2025-01-15 01:53:31.49	14.15	4.45	
2025-01-15 01:53:31.69	14.13	4.46	
2025-01-15 01:53:31.89	14.12	4.47	
2025-01-15 01:53:32.10	14.11	4.49	
2025-01-15 01:53:32.30	14.10	4.50	
2025-01-15 01:53:32.50	14.08	4.51	
2025-01-15 01:53:32.71	14.07	4.53	
2025-01-15 01:53:32.91	14.06	4.54	
2025-01-15 01:53:33.11	14.05	4.55	
2025-01-15 01:53:33.32	14.03	4.56	
2025-01-15 01:53:33.52	14.02	4.58	
2025-01-15 01:53:33.72	14.01	4.59	
2025-01-15 01:53:33.92	13.99	4.60	
2025-01-15 01:53:34.13	13.98	4.62	
2025-01-15 01:53:34.33	13.97	4.63	
2025-01-15 01:53:34.53	13.96	4.64	
2025-01-15 01:53:34.74	13.94	4.65	
2025-01-15 01:53:34.94	13.93	4.67	
2025-01-15 01:53:35.14	13.92	4.68	
2025-01-15 01:53:35.35	13.90	4.69	
2025-01-15 01:53:35.55	13.89	4.71	
2025-01-15 01:53:35.75	13.88	4.72	
2025-01-15 01:53:35.96	13.86	4.73	
2025-01-15 01:53:36.16	13.85	4.74	
2025-01-15 01:53:36.36	13.84	4.76	
2025-01-15 01:53:36.56	13.83	4.77	
2025-01-15 01:53:36.77	13.81	4.78	
2025-01-15 01:53:36.97	13.80	4.80	
2025-01-15 01:53:37.17	13.79	4.81	
2025-01-15 01:53:37.38	13.77	4.82	
2025-01-15 01:53:37.58	13.76	4.83	
2025-01-15 01:53:37.78	13.75	4.85	
2025-01-15 01:53:37.99	13.73	4.86	
2025-01-15 01:53:38.19	13.72	4.87	
2025-01-15 01:53:38.39	13.71	4.89	
2025-01-15 01:53:38.60	13.70	4.90	
2025-01-15 01:53:38.80	13.68	4.91	
2025-01-15 01:53:39.00	13.67	4.93	
2025-01-15 01:53:39.20	13.66	4.94	
2025-01-15 01:53:39.41	13.64	4.95	
2025-01-15 01:53:39.61	13.63	4.96	
2025-01-15 01:53:39.81	13.62	4.98	
2025-01-15 01:53:40.02	13.60	4.99	
2025-01-15 01:53:40.22	13.59	5.00	
2025-01-15 01:53:40.42	13.58	5.02	
2025-01-15 01:53:40.63	13.56	5.03	
2025-01-15 01:53:40.83	13.55	5.04	
2025-01-15 01:53:41.03	13.54	5.06	
2025-01-15 01:53:41.24	13.52	5.07	
2025-01-15 01:53:41.44	13.51	5.08	
2025-01-15 01:53:41.64	13.50	5.10	
2025-01-15 01:53:41.84	13.48	5.11	
2025-01-15 01:53:42.05	13.47	5.12	
2025-01-15 01:53:42.25	13.46	5.13	
2025-01-15 01:53:42.45	13.44	5.15	
2025-01-15 01:53:42.66	13.43	5.16	
2025-01-15 01:53:42.86	13.42	5.17	
2025-01-15 01:53:43.06	13.40	5.19	
2025-01-15 01:53:43.27	13.39	5.20	
2025-01-15 01:53:43.47	13.38	5.21	
2025-01-15 01:53:43.67	13.36	5.23	
2025-01-15 01:53:43.88	13.35	5.24	
2025-01-15 01:53:44.08	13.34	5.25	
2025-01-15 01:53:44.28	13.32	5.27	
2025-01-15 01:53:44.48	13.31	5.28	
2025-01-15 01:53:44.69	13.30	5.29	
2025-01-15 01:53:44.89	13.28	5.30	
2025-01-15 01:53:45.09	13.27	5.32	
2025-01-15 01:53:45.30	13.26	5.33	
2025-01-15 01:53:45.50	13.24	5.34	
2025-01-15 01:53:45.70	13.23	5.36	
2025-01-15 01:53:45.91	13.22	5.37	
2025-01-15 01:53:46.11	13.20	5.38	
2025-01-15 01:53:46.31	13.19	5.40	
2025-01-15 01:53:46.52	13.17	5.41	
2025-01-15 01:53:46.72	13.16	5.42	
2025-01-15 01:53:46.92	13.15	5.44	
2025-01-15 01:53:47.12	13.13	5.45	
2025-01-15 01:53:47.33	13.12	5.46	
2025-01-15 01:53:47.53	13.11	5.48	
2025-01-15 01:53:47.73	13.09	5.49	
2025-01-15 01:53:47.94	13.08	5.50	
2025-01-15 01:53:48.14	13.07	5.52	
2025-01-15 01:53:48.34	13.05	5.53	
2025-01-15 01:53:48.55	13.04	5.54	
2025-01-15 01:53:48.75	13.02	5.56	
2025-01-15 01:53:48.95	13.01	5.57	
2025-01-15 01:53:49.16	13.00	5.58	
2025-01-15 01:53:49.36	12.98	5.60	
2025-01-15 01:53:49.56	12.97	5.61	
2025-01-15 01:53:49.76	12.96	5.62	
2025-01-15 01:53:49.97	12.94	5.64	
2025-01-15 01:53:50.17	12.93	5.65	
2025-01-15 01:53:50.37	12.91	5.66	
2025-01-15 01:53:50.58	12.90	5.68	
2025-01-15 01:53:50.78	12.89	5.69	
2025-01-15 01:53:50.98	12.87	5.70	
2025-01-15 01:53:51.19	12.86	5.72	
2025-01-15 01:53:51.39	12.84	5.73	
2025-01-15 01:53:51.59	12.83	5.74	
2025-01-15 01:53:51.80	12.82	5.76	
2025-01-15 01:53:52.00	12.80	5.77	
2025-01-15 01:53:52.20	12.79	5.78	
2025-01-15 01:53:52.40	12.78	5.79	
2025-01-15 01:53:52.61	12.76	5.81	
2025-01-15 01:53:52.81	12.75	5.82	
2025-01-15 01:53:53.01	12.73	5.83	
2025-01-15 01:53:53.22	12.72	5.85	
2025-01-15 01:53:53.42	12.70	5.86	
2025-01-15 01:53:53.62	12.69	5.87	
2025-01-15 01:53:53.83	12.68	5.89	
2025-01-15 01:53:54.03	12.66	5.90	
2025-01-15 01:53:54.23	12.65	5.91	
2025-01-15 01:53:54.44	12.63	5.93	
2025-01-15 01:53:54.64	12.62	5.94	
2025-01-15 01:53:54.84	12.61	5.96	
2025-01-15 01:53:55.04	12.59	5.97	
2025-01-15 01:53:55.25	12.58	5.98	
2025-01-15 01:53:55.45	12.56	6.00	
2025-01-15 01:53:55.65	12.55	6.01	
2025-01-15 01:53:55.86	12.54	6.02	
2025-01-15 01:53:56.06	12.52	6.04	
2025-01-15 01:53:56.26	12.51	6.05	
2025-01-15 01:53:56.47	12.49	6.06	
2025-01-15 01:53:56.67	12.48	6.08	
2025-01-15 01:53:56.87	12.46	6.09	
2025-01-15 01:53:57.08	12.45	6.10	
2025-01-15 01:53:57.28	12.44	6.12	
2025-01-15 01:53:57.48	12.42	6.13	
2025-01-15 01:53:57.68	12.41	6.14	
2025-01-15 01:53:57.89	12.39	6.16	
2025-01-15 01:53:58.09	12.38	6.17	
2025-01-15 01:53:58.29	12.36	6.18	
2025-01-15 01:53:58.50	12.35	6.20	
2025-01-15 01:53:58.70	12.33	6.21	
2025-01-15 01:53:58.90	12.32	6.22	
2025-01-15 01:53:59.11	12.31	6.24	
2025-01-15 01:53:59.31	12.29	6.25	
2025-01-15 01:53:59.51	12.28	6.26	
2025-01-15 01:53:59.72	12.26	6.28	
2025-01-15 01:53:59.92	12.25	6.29	
2025-01-15 01:54:00.12	12.23	6.31	
2025-01-15 01:54:00.32	12.22	6.32	
2025-01-15 01:54:00.53	12.20	6.33	
2025-01-15 01:54:00.73	12.19	6.35	
2025-01-15 01:54:00.93	12.18	6.36	
2025-01-15 01:54:01.14	12.16	6.37	
2025-01-15 01:54:01.34	12.15	6.39	
2025-01-15 01:54:01.54	12.13	6.40	
2025-01-15 01:54:01.75	12.12	6.41	
2025-01-15 01:54:01.95	12.10	6.43	
2025-01-15 01:54:02.15	12.09	6.44	
2025-01-15 01:54:02.36	12.07	6.45	
2025-01-15 01:54:02.56	12.06	6.47	
2025-01-15 01:54:02.76	12.04	6.48	
2025-01-15 01:54:02.96	12.03	6.49	
2025-01-15 01:54:03.17	12.01	6.51	
2025-01-15 01:54:03.37	12.00	6.52	
2025-01-15 01:54:03.57	11.99	6.54	
2025-01-15 01:54:03.78	11.97	6.55	
2025-01-15 01:54:03.98	11.96	6.56	
2025-01-15 01:54:04.18	11.94	6.58	
2025-01-15 01:54:04.39	11.93	6.59	
2025-01-15 01:54:04.59	11.91	6.60	
2025-01-15 01:54:04.79	11.90	6.62	
2025-01-15 01:54:05.00	11.88	6.63	
2025-01-15 01:54:05.20	11.87	6.65	
2025-01-15 01:54:05.40	11.85	6.66	
2025-01-15 01:54:05.60	11.84	6.67	
2025-01-15 01:54:05.81	11.82	6.69	
2025-01-15 01:54:06.01	11.81	6.70	
2025-01-15 01:54:06.21	11.79	6.71	
2025-01-15 01:54:06.42	11.78	6.73	
2025-01-15 01:54:06.62	11.76	6.74	
2025-01-15 01:54:06.82	11.75	6.75	
2025-01-15 01:54:07.03	11.73	6.77	
2025-01-15 01:54:07.23	11.72	6.78	
2025-01-15 01:54:07.43	11.70	6.80	
2025-01-15 01:54:07.64	11.69	6.81	
2025-01-15 01:54:07.84	11.67	6.82	
2025-01-15 01:54:08.04	11.66	6.84	
2025-01-15 01:54:08.24	11.64	6.85	
2025-01-15 01:54:08.45	11.63	6.86	
2025-01-15 01:54:08.65	11.61	6.88	
2025-01-15 01:54:08.85	11.60	6.89	
2025-01-15 01:54:09.06	11.58	6.91	
2025-01-15 01:54:09.26	11.57	6.92	
2025-01-15 01:54:09.46	11.55	6.93	
2025-01-15 01:54:09.67	11.54	6.95	
2025-01-15 01:54:09.87	11.52	6.96	
2025-01-15 01:54:10.07	11.51	6.97	
2025-01-15 01:54:10.28	11.49	6.99	
2025-01-15 01:54:10.48	11.47	7.00	
2025-01-15 01:54:10.68	11.46	7.02	
2025-01-15 01:54:10.88	11.44	7.03	
2025-01-15 01:54:11.09	11.43	7.04	
2025-01-15 01:54:11.29	11.41	7.06	
2025-01-15 01:54:11.49	11.40	7.07	
2025-01-15 01:54:11.70	11.38	7.09	
2025-01-15 01:54:11.90	11.37	7.10	
2025-01-15 01:54:12.10	11.35	7.11	
2025-01-15 01:54:12.31	11.34	7.13	
2025-01-15 01:54:12.51	11.32	7.14	
2025-01-15 01:54:12.71	11.31	7.15	
2025-01-15 01:54:12.92	11.29	7.17	
2025-01-15 01:54:13.12	11.27	7.18	
2025-01-15 01:54:13.32	11.26	7.20	
2025-01-15 01:54:13.52	11.24	7.21	
2025-01-15 01:54:13.73	11.23	7.22	
2025-01-15 01:54:13.93	11.21	7.24	
2025-01-15 01:54:14.13	11.20	7.25	
2025-01-15 01:54:14.34	11.18	7.27	
2025-01-15 01:54:14.54	11.17	7.28	
2025-01-15 01:54:14.75	11.15	7.29	
2025-01-15 01:54:14.96	11.13	7.31	
2025-01-15 01:54:15.16	11.12	7.32	
2025-01-15 01:54:15.36	11.10	7.34	
2025-01-15 01:54:15.57	11.09	7.35	
2025-01-15 01:54:15.77	11.07	7.36	
2025-01-15 01:54:15.97	11.06	7.38	
2025-01-15 01:54:16.18	11.04	7.39	
2025-01-15 01:54:16.38	11.02	7.41	
2025-01-15 01:54:16.58	11.01	7.42	
2025-01-15 01:54:16.79	10.99	7.43	
2025-01-15 01:54:16.99	10.98	7.45	
2025-01-15 01:54:17.19	10.96	7.46	
2025-01-15 01:54:17.39	10.95	7.48	
2025-01-15 01:54:17.60	10.93	7.49	
2025-01-15 01:54:17.80	10.91	7.50	
2025-01-15 01:54:18.00	10.90	7.52	
2025-01-15 01:54:18.21	10.88	7.53	
2025-01-15 01:54:18.41	10.87	7.55	
2025-01-15 01:54:18.61	10.85	7.56	
2025-01-15 01:54:18.82	10.83	7.57	
2025-01-15 01:54:19.02	10.82	7.59	
2025-01-15 01:54:19.22	10.80	7.60	
2025-01-15 01:54:19.43	10.79	7.62	
2025-01-15 01:54:19.63	10.77	7.63	
2025-01-15 01:54:19.83	10.76	7.64	
2025-01-15 01:54:20.03	10.74	7.66	
2025-01-15 01:54:20.24	10.72	7.67	
2025-01-15 01:54:20.44	10.71	7.69	
2025-01-15 01:54:20.64	10.69	7.70	
2025-01-15 01:54:20.85	10.67	7.71	
2025-01-15 01:54:21.05	10.66	7.73	
2025-01-15 01:54:21.25	10.64	7.74	
2025-01-15 01:54:21.46	10.63	7.76	
2025-01-15 01:54:21.66	10.61	7.77	
2025-01-15 01:54:21.86	10.59	7.78	
2025-01-15 01:54:22.07	10.58	7.80	
2025-01-15 01:54:22.27	10.56	7.81	
2025-01-15 01:54:22.47	10.55	7.83	
2025-01-15 01:54:22.67	10.53	7.84	
2025-01-15 01:54:22.88	10.51	7.86	
2025-01-15 01:54:23.08	10.50	7.87	
2025-01-15 01:54:23.28	10.48	7.88	
2025-01-15 01:54:23.49	10.46	7.90	
2025-01-15 01:54:23.69	10.45	7.91	
2025-01-15 01:54:23.89	10.43	7.93	
2025-01-15 01:54:24.10	10.42	7.94	
2025-01-15 01:54:24.30	10.40	7.95	
2025-01-15 01:54:24.50	10.38	7.97	
2025-01-15 01:54:24.71	10.37	7.98	
2025-01-15 01:54:24.91	10.35	8.00	
2025-01-15 01:54:25.11	10.33	8.01	
2025-01-15 01:54:25.31	10.32	8.02	
2025-01-15 01:54:25.52	10.30	8.04	
2025-01-15 01:54:25.72	10.28	8.05	
2025-01-15 01:54:25.92	10.27	8.07	
2025-01-15 01:54:26.13	10.25	8.08	
2025-01-15 01:54:26.33	10.24	8.10	
2025-01-15 01:54:26.53	10.22	8.11	
2025-01-15 01:54:26.74	10.20	8.12	
2025-01-15 01:54:26.94	10.19	8.14	
2025-01-15 01:54:27.14	10.17	8.15	
2025-01-15 01:54:27.35	10.15	8.17	
2025-01-15 01:54:27.55	10.14	8.18	
2025-01-15 01:54:27.75	10.12	8.20	
2025-01-15 01:54:27.95	10.10	8.21	
2025-01-15 01:54:28.16	10.09	8.22	
2025-01-15 01:54:28.36	10.07	8.24	
2025-01-15 01:54:28.56	10.05	8.25	
2025-01-15 01:54:28.77	10.04	8.27	
2025-01-15 01:54:28.97	10.02	8.28	
2025-01-15 01:54:29.17	10.00	8.30	
2025-01-15 01:54:29.38	9.99	8.31	
2025-01-15 01:54:29.58	9.97	8.32	
2025-01-15 01:54:29.78	9.95	8.34	
2025-01-15 01:54:29.99	9.94	8.35	
2025-01-15 01:54:30.19	9.92	8.37	
2025-01-15 01:54:30.39	9.90	8.38	
2025-01-15 01:54:30.59	9.89	8.40	
2025-01-15 01:54:30.80	9.87	8.41	
2025-01-15 01:54:31.00	9.85	8.43	
2025-01-15 01:54:31.20	9.83	8.44	
2025-01-15 01:54:31.41	9.82	8.45	
2025-01-15 01:54:31.61	9.80	8.47	
2025-01-15 01:54:31.81	9.78	8.48	
2025-01-15 01:54:32.02	9.77	8.50	
2025-01-15 01:54:32.22	9.75	8.51	
2025-01-15 01:54:32.42	9.73	8.53	
2025-01-15 01:54:32.63	9.71	8.54	
2025-01-15 01:54:32.84	9.70	8.56	
2025-01-15 01:54:33.04	9.68	8.57	
2025-01-15 01:54:33.25	9.66	8.58	
2025-01-15 01:54:33.45	9.65	8.60	
2025-01-15 01:54:33.65	9.63	8.61	
2025-01-15 01:54:33.85	9.61	8.63	
2025-01-15 01:54:34.06	9.59	8.64	
2025-01-15 01:54:34.26	9.58	8.66	
2025-01-15 01:54:34.46	9.56	8.67	
2025-01-15 01:54:34.67	9.54	8.69	
2025-01-15 01:54:34.87	9.53	8.70	
2025-01-15 01:54:35.07	9.51	8.71	
2025-01-15 01:54:35.28	9.49	8.73	
2025-01-15 01:54:35.48	9.47	8.74	
2025-01-15 01:54:35.68	9.46	8.76	
2025-01-15 01:54:35.89	9.44	8.77	
2025-01-15 01:54:36.09	9.42	8.79	
2025-01-15 01:54:36.29	9.40	8.80	
2025-01-15 01:54:36.49	9.39	8.82	
2025-01-15 01:54:36.70	9.37	8.83	
2025-01-15 01:54:36.90	9.35	8.84	
2025-01-15 01:54:37.10	9.34	8.86	
2025-01-15 01:54:37.31	9.32	8.87	
2025-01-15 01:54:37.51	9.30	8.89	
2025-01-15 01:54:37.71	9.28	8.90	
2025-01-15 01:54:37.92	9.26	8.92	
2025-01-15 01:54:38.12	9.25	8.93	
2025-01-15 01:54:38.32	9.23	8.95	
2025-01-15 01:54:38.53	9.21	8.96	
2025-01-15 01:54:38.73	9.19	8.98	
2025-01-15 01:54:38.93	9.18	8.99	
2025-01-15 01:54:39.13	9.16	9.00	
2025-01-15 01:54:39.34	9.14	9.02	
2025-01-15 01:54:39.54	9.12	9.03	
2025-01-15 01:54:39.74	9.11	9.05	
2025-01-15 01:54:39.95	9.09	9.06	
2025-01-15 01:54:40.15	9.07	9.08	
2025-01-15 01:54:40.35	9.05	9.09	
2025-01-15 01:54:40.56	9.04	9.11	
2025-01-15 01:54:40.76	9.02	9.12	
2025-01-15 01:54:40.96	9.00	9.14	
2025-01-15 01:54:41.17	8.98	9.15	
2025-01-15 01:54:41.37	8.96	9.17	
2025-01-15 01:54:41.57	8.95	9.18	
2025-01-15 01:54:41.77	8.93	9.20	
2025-01-15 01:54:41.98	8.91	9.21	
2025-01-15 01:54:42.18	8.89	9.22	
2025-01-15 01:54:42.38	8.88	9.24	
2025-01-15 01:54:42.59	8.86	9.25	
2025-01-15 01:54:42.79	8.84	9.27	
2025-01-15 01:54:42.99	8.82	9.28	
2025-01-15 01:54:43.20	8.80	9.30	
2025-01-15 01:54:43.40	8.79	9.31	
2025-01-15 01:54:43.60	8.77	9.33	
2025-01-15 01:54:43.81	8.75	9.34	
2025-01-15 01:54:44.01	8.73	9.36	
2025-01-15 01:54:44.21	8.71	9.37	
2025-01-15 01:54:44.41	8.70	9.39	
2025-01-15 01:54:44.62	8.68	9.40	
2025-01-15 01:54:44.82	8.66	9.42	
2025-01-15 01:54:45.02	8.64	9.43	
2025-01-15 01:54:45.23	8.62	9.45	
2025-01-15 01:54:45.43	8.60	9.46	
2025-01-15 01:54:45.63	8.59	9.48	
2025-01-15 01:54:45.84	8.57	9.49	
2025-01-15 01:54:46.04	8.55	9.50	
2025-01-15 01:54:46.24	8.53	9.52	
2025-01-15 01:54:46.45	8.51	9.53	
2025-01-15 01:54:46.65	8.49	9.55	
2025-01-15 01:54:46.85	8.48	9.56	
2025-01-15 01:54:47.05	8.46	9.58	
2025-01-15 01:54:47.26	8.44	9.59	
2025-01-15 01:54:47.46	8.42	9.61	
2025-01-15 01:54:47.66	8.40	9.62	
2025-01-15 01:54:47.87	8.38	9.64	
2025-01-15 01:54:48.07	8.37	9.65	
2025-01-15 01:54:48.27	8.35	9.67	
2025-01-15 01:54:48.48	8.33	9.68	
2025-01-15 01:54:48.68	8.31	9.70	
2025-01-15 01:54:48.88	8.29	9.71	
2025-01-15 01:54:49.09	8.27	9.73	
2025-01-15 01:54:49.29	8.26	9.74	
2025-01-15 01:54:49.49	8.24	9.76	
2025-01-15 01:54:49.69	8.22	9.77	
2025-01-15 01:54:49.90	8.20	9.79	
2025-01-15 01:54:50.10	8.18	9.80	
2025-01-15 01:54:50.30	8.16	9.82	
2025-01-15 01:54:50.51	8.14	9.83	
2025-01-15 01:54:50.71	8.12	9.85	
2025-01-15 01:54:50.91	8.11	9.86	
2025-01-15 01:54:51.12	8.09	9.88	
2025-01-15 01:54:51.32	8.07	9.89	
2025-01-15 01:54:51.52	8.05	9.91	
2025-01-15 01:54:51.73	8.03	9.92	
2025-01-15 01:54:51.93	8.01	9.94	
2025-01-15 01:54:52.13	7.99	9.95	
2025-01-15 01:54:52.33	7.97	9.97	
2025-01-15 01:54:52.54	7.96	9.98	
2025-01-15 01:54:52.74	7.94	10.00	
2025-01-15 01:54:52.94	7.92	10.01	
2025-01-15 01:54:53.15	7.90	10.03	
2025-01-15 01:54:53.35	7.88	10.04	
2025-01-15 01:54:53.55	7.86	10.06	
2025-01-15 01:54:53.76	7.84	10.07	
2025-01-15 01:54:53.96	7.82	10.09	
2025-01-15 01:54:54.16	7.80	10.10	
2025-01-15 01:54:54.37	7.78	10.12	
2025-01-15 01:54:54.57	7.77	10.13	
2025-01-15 01:54:54.77	7.75	10.15	
2025-01-15 01:54:54.97	7.73	10.16	
2025-01-15 01:54:55.18	7.71	10.18	
2025-01-15 01:54:55.38	7.69	10.19	
2025-01-15 01:54:55.58	7.67	10.21	
2025-01-15 01:54:55.79	7.65	10.22	
2025-01-15 01:54:55.99	7.63	10.24	
2025-01-15 01:54:56.19	7.61	10.25	
2025-01-15 01:54:56.40	7.59	10.27	
2025-01-15 01:54:56.60	7.57	10.28	
2025-01-15 01:54:56.80	7.55	10.30	
2025-01-15 01:54:57.01	7.53	10.31	
2025-01-15 01:54:57.21	7.52	10.33	
2025-01-15 01:54:57.41	7.50	10.34	
2025-01-15 01:54:57.61	7.48	10.36	
2025-01-15 01:54:57.82	7.46	10.37	
2025-01-15 01:54:58.02	7.44	10.39	
2025-01-15 01:54:58.22	7.42	10.40	
2025-01-15 01:54:58.43	7.40	10.42	
2025-01-15 01:54:58.63	7.38	10.43	
2025-01-15 01:54:58.83	7.36	10.45	
2025-01-15 01:54:59.04	7.34	10.46	
2025-01-15 01:54:59.24	7.32	10.48	
2025-01-15 01:54:59.44	7.30	10.49	
2025-01-15 01:54:59.65	7.28	10.51	
2025-01-15 01:54:59.85	7.26	10.52	
2025-01-15 01:55:00.05	7.24	10.54	
2025-01-15 01:55:00.25	7.22	10.55	
2025-01-15 01:55:00.46	7.20	10.57	
2025-01-15 01:55:00.66	7.18	10.59	
2025-01-15 01:55:00.86	7.16	10.60	
2025-01-15 01:55:01.07	7.14	10.62	
2025-01-15 01:55:01.27	7.12	10.63	
2025-01-15 01:55:01.47	7.10	10.65	
2025-01-15 01:55:01.68	7.08	10.66	
2025-01-15 01:55:01.88	7.06	10.68	
2025-01-15 01:55:02.08	7.04	10.69	
2025-01-15 01:55:02.29	7.02	10.71	
2025-01-15 01:55:02.49	7.00	10.72	
2025-01-15 01:55:02.69	6.99	10.74	
2025-01-15 01:55:02.89	6.97	10.75	
2025-01-15 01:55:03.10	6.94	10.77	
2025-01-15 01:55:03.30	6.93	10.78	
2025-01-15 01:55:03.50	6.91	10.80	
2025-01-15 01:55:03.71	6.88	10.81	
2025-01-15 01:55:03.91	6.86	10.83	
2025-01-15 01:55:04.11	6.85	10.85	
2025-01-15 01:55:04.32	6.82	10.86	
2025-01-15 01:55:04.52	6.80	10.88	
2025-01-15 01:55:04.72	6.78	10.89	
2025-01-15 01:55:04.93	6.76	10.91	
2025-01-15 01:55:05.13	6.74	10.92	
2025-01-15 01:55:05.33	6.72	10.94	
2025-01-15 01:55:05.53	6.70	10.95	
2025-01-15 01:55:05.74	6.68	10.97	
2025-01-15 01:55:05.94	6.66	10.98	
2025-01-15 01:55:06.14	6.64	11.00	
2025-01-15 01:55:06.35	6.62	11.01	
2025-01-15 01:55:06.55	6.60	11.03	
2025-01-15 01:55:06.75	6.58	11.04	
2025-01-15 01:55:06.96	6.56	11.06	
2025-01-15 01:55:07.16	6.54	11.08	
2025-01-15 01:55:07.36	6.52	11.09	
2025-01-15 01:55:07.57	6.50	11.11	
2025-01-15 01:55:07.77	6.48	11.12	
2025-01-15 01:55:07.97	6.46	11.14	
2025-01-15 01:55:08.17	6.44	11.15	
2025-01-15 01:55:08.38	6.42	11.17	
2025-01-15 01:55:08.58	6.40	11.18	
2025-01-15 01:55:08.78	6.38	11.20	
2025-01-15 01:55:08.99	6.36	11.22	
2025-01-15 01:55:09.19	6.34	11.23	
2025-01-15 01:55:09.39	6.32	11.25	
2025-01-15 01:55:09.60	6.29	11.26	
2025-01-15 01:55:09.80	6.27	11.28	
2025-01-15 01:55:10.00	6.25	11.29	
2025-01-15 01:55:10.21	6.23	11.31	
2025-01-15 01:55:10.41	6.21	11.32	
2025-01-15 01:55:10.61	6.19	11.34	
2025-01-15 01:55:10.81	6.17	11.35	
2025-01-15 01:55:11.02	6.15	11.37	
2025-01-15 01:55:11.22	6.13	11.39	
2025-01-15 01:55:11.42	6.11	11.40	
2025-01-15 01:55:11.63	6.09	11.42	
2025-01-15 01:55:11.83	6.07	11.43	
2025-01-15 01:55:12.03	6.04	11.45	
2025-01-15 01:55:12.24	6.02	11.46	
2025-01-15 01:55:12.44	6.00	11.48	
2025-01-15 01:55:12.64	5.98	11.49	
2025-01-15 01:55:12.85	5.96	11.51	
2025-01-15 01:55:13.05	5.94	11.53	
2025-01-15 01:55:13.25	5.92	11.54	
2025-01-15 01:55:13.45	5.90	11.56	
2025-01-15 01:55:13.66	5.88	11.57	
2025-01-15 01:55:13.86	5.86	11.59	
2025-01-15 01:55:14.06	5.83	11.60	
2025-01-15 01:55:14.27	5.81	11.62	
2025-01-15 01:55:14.47	5.79	11.64	
2025-01-15 01:55:14.67	5.77	11.65	
2025-01-15 01:55:14.88	5.75	11.67	
2025-01-15 01:55:15.08	5.73	11.68	
2025-01-15 01:55:15.28	5.71	11.70	
2025-01-15 01:55:15.49	5.68	11.71	
2025-01-15 01:55:15.69	5.66	11.73	
2025-01-15 01:55:15.89	5.64	11.74	
2025-01-15 01:55:16.09	5.62	11.76	
2025-01-15 01:55:16.30	5.60	11.78	
2025-01-15 01:55:16.50	5.58	11.79	
2025-01-15 01:55:16.70	5.56	11.81	
2025-01-15 01:55:16.91	5.53	11.82	
2025-01-15 01:55:17.11	5.51	11.84	
2025-01-15 01:55:17.31	5.49	11.85	
2025-01-15 01:55:17.52	5.47	11.87	
2025-01-15 01:55:17.72	5.45	11.89	
2025-01-15 01:55:17.92	5.43	11.90	
2025-01-15 01:55:18.13	5.40	11.92	
2025-01-15 01:55:18.33	5.38	11.93	
2025-01-15 01:55:18.53	5.36	11.95	
2025-01-15 01:55:18.73	5.34	11.96	
2025-01-15 01:55:18.94	5.32	11.98	
2025-01-15 01:55:19.14	5.30	12.00	
2025-01-15 01:55:19.34	5.28	12.01	
2025-01-15 01:55:19.55	5.25	12.03	
2025-01-15 01:55:19.75	5.23	12.04	
2025-01-15 01:55:19.95	5.21	12.06	
2025-01-15 01:55:20.16	5.19	12.08	
2025-01-15 01:55:20.36	5.17	12.09	
2025-01-15 01:55:20.56	5.14	12.11	
2025-01-15 01:55:20.77	5.12	12.12	
2025-01-15 01:55:20.97	5.10	12.14	
2025-01-15 01:55:21.17	5.08	12.15	
2025-01-15 01:55:21.37	5.06	12.17	
2025-01-15 01:55:21.58	5.03	12.19	
2025-01-15 01:55:21.78	5.01	12.20	
2025-01-15 01:55:21.98	4.99	12.22	
2025-01-15 01:55:22.19	4.97	12.23	
2025-01-15 01:55:22.39	4.94	12.25	
2025-01-15 01:55:22.59	4.92	12.27	
2025-01-15 01:55:22.80	4.90	12.28	
2025-01-15 01:55:23.00	4.88	12.30	
2025-01-15 01:55:23.20	4.86	12.31	
2025-01-15 01:55:23.41	4.83	12.33	
2025-01-15 01:55:23.61	4.81	12.35	
2025-01-15 01:55:23.81	4.79	12.36	
2025-01-15 01:55:24.01	4.77	12.38	
2025-01-15 01:55:24.22	4.74	12.39	
2025-01-15 01:55:24.42	4.72	12.41	
2025-01-15 01:55:24.62	4.70	12.42	
2025-01-15 01:55:24.83	4.68	12.44	
2025-01-15 01:55:25.03	4.65	12.46	
2025-01-15 01:55:25.23	4.63	12.47	
2025-01-15 01:55:25.44	4.61	12.49	
2025-01-15 01:55:25.64	4.59	12.50	
2025-01-15 01:55:25.84	4.56	12.52	
2025-01-15 01:55:26.05	4.54	12.54	
2025-01-15 01:55:26.25	4.52	12.55	
2025-01-15 01:55:26.45	4.50	12.57	
2025-01-15 01:55:26.65	4.47	12.58	
2025-01-15 01:55:26.86	4.45	12.60	
2025-01-15 01:55:27.06	4.43	12.62	
2025-01-15 01:55:27.26	4.41	12.63	
2025-01-15 01:55:27.47	4.38	12.65	
2025-01-15 01:55:27.67	4.36	12.66	
2025-01-15 01:55:27.87	4.34	12.68	
2025-01-15 01:55:28.08	4.31	12.70	
2025-01-15 01:55:28.28	4.29	12.71	
2025-01-15 01:55:28.48	4.27	12.73	
2025-01-15 01:55:28.69	4.24	12.74	
2025-01-15 01:55:28.89	4.22	12.76	
2025-01-15 01:55:29.09	4.20	12.78	
2025-01-15 01:55:29.29	4.18	12.79	
2025-01-15 01:55:29.50	4.15	12.81	
2025-01-15 01:55:29.70	4.13	12.82	
2025-01-15 01:55:29.90	4.11	12.84	
2025-01-15 01:55:30.11	4.08	12.86	
2025-01-15 01:55:30.31	4.06	12.87	
2025-01-15 01:55:30.51	4.04	12.89	
2025-01-15 01:55:30.72	4.01	12.91	
2025-01-15 01:55:30.92	3.99	12.92	
2025-01-15 01:55:31.12	3.97	12.94	
2025-01-15 01:55:31.33	3.94	12.95	
2025-01-15 01:55:31.53	3.92	12.97	
2025-01-15 01:55:31.73	3.90	12.99	
2025-01-15 01:55:31.93	3.88	13.00	
2025-01-15 01:55:32.14	3.85	13.02	
2025-01-15 01:55:32.34	3.83	13.03	
2025-01-15 01:55:32.54	3.80	13.05	
2025-01-15 01:55:32.75	3.78	13.07	
2025-01-15 01:55:32.95	3.76	13.08	
2025-01-15 01:55:33.15	3.73	13.10	
2025-01-15 01:55:33.36	3.71	13.12	
2025-01-15 01:55:33.56	3.69	13.13	
2025-01-15 01:55:33.76	3.66	13.15	
2025-01-15 01:55:33.97	3.64	13.16	
2025-01-15 01:55:34.17	3.62	13.18	
2025-01-15 01:55:34.37	3.59	13.20	
2025-01-15 01:55:34.57	3.57	13.21	
2025-01-15 01:55:34.78	3.54	13.23	
2025-01-15 01:55:34.98	3.52	13.25	
2025-01-15 01:55:35.18	3.50	13.26	
2025-01-15 01:55:35.39	3.47	13.28	
2025-01-15 01:55:35.59	3.45	13.29	
2025-01-15 01:55:35.79	3.43	13.31	
2025-01-15 01:55:36.00	3.40	13.33	
2025-01-15 01:55:36.20	3.38	13.34	
2025-01-15 01:55:36.40	3.35	13.36	
2025-01-15 01:55:36.61	3.33	13.38	
2025-01-15 01:55:36.81	3.31	13.39	
2025-01-15 01:55:37.01	3.28	13.41	
2025-01-15 01:55:37.21	3.26	13.42	
2025-01-15 01:55:37.42	3.23	13.44	
2025-01-15 01:55:37.62	3.21	13.46	
2025-01-15 01:55:37.82	3.19	13.47	
2025-01-15 01:55:38.03	3.16	13.49	
2025-01-15 01:55:38.23	3.14	13.51	
2025-01-15 01:55:38.43	3.11	13.52	
2025-01-15 01:55:38.64	3.09	13.54	
2025-01-15 01:55:38.84	3.06	13.55	
2025-01-15 01:55:39.04	3.04	13.57	
2025-01-15 01:55:39.25	3.02	13.59	
2025-01-15 01:55:39.45	2.99	13.60	
2025-01-15 01:55:39.65	2.97	13.62	
2025-01-15 01:55:39.85	2.94	13.64	
2025-01-15 01:55:40.06	2.92	13.65	
2025-01-15 01:55:40.26	2.89	13.67	
2025-01-15 01:55:40.46	2.87	13.69	
2025-01-15 01:55:40.67	2.84	13.70	
2025-01-15 01:55:40.87	2.82	13.72	
2025-01-15 01:55:41.07	2.80	13.73	
2025-01-15 01:55:41.28	2.77	13.75	
2025-01-15 01:55:41.48	2.75	13.77	
2025-01-15 01:55:41.68	2.72	13.78	
2025-01-15 01:55:41.89	2.70	13.80	
2025-01-15 01:55:42.09	2.67	13.82	
2025-01-15 01:55:42.29	2.65	13.83	
2025-01-15 01:55:42.49	2.62	13.85	
2025-01-15 01:55:42.70	2.60	13.87	
2025-01-15 01:55:42.90	2.57	13.88	
2025-01-15 01:55:43.10	2.55	13.90	
2025-01-15 01:55:43.31	2.52	13.92	
2025-01-15 01:55:43.51	2.50	13.93	
2025-01-15 01:55:43.71	2.47	13.95	
2025-01-15 01:55:43.92	2.45	13.97	
2025-01-15 01:55:44.12	2.42	13.98	
2025-01-15 01:55:44.32	2.40	14.00	
2025-01-15 01:55:44.53	2.37	14.02	
2025-01-15 01:55:44.73	2.35	14.03	
2025-01-15 01:55:44.93	2.32	14.05	
2025-01-15 01:55:45.13	2.30	14.06	
2025-01-15 01:55:45.34	2.27	14.08	
2025-01-15 01:55:45.54	2.25	14.10	
2025-01-15 01:55:45.74	2.22	14.11	
2025-01-15 01:55:45.95	2.20	14.13	
2025-01-15 01:55:46.15	2.17	14.15	
2025-01-15 01:55:46.35	2.15	14.16	
2025-01-15 01:55:46.56	2.12	14.18	
2025-01-15 01:55:46.76	2.10	14.20	
2025-01-15 01:55:46.96	2.07	14.21	
2025-01-15 01:55:47.17	2.04	14.23	
2025-01-15 01:55:47.37	2.02	14.25	
2025-01-15 01:55:47.57	1.99	14.26	
2025-01-15 01:55:47.77	1.97	14.28	
2025-01-15 01:55:47.98	1.94	14.30	
2025-01-15 01:55:48.18	1.92	14.31	
2025-01-15 01:55:48.38	1.89	14.33	
2025-01-15 01:55:48.59	1.87	14.35	
2025-01-15 01:55:48.79	1.84	14.36	
2025-01-15 01:55:48.99	1.81	14.38	
2025-01-15 01:55:49.20	1.79	14.40	
2025-01-15 01:55:49.40	1.76	14.41	
2025-01-15 01:55:49.60	1.74	14.43	
2025-01-15 01:55:49.81	1.71	14.45	
2025-01-15 01:55:50.01	1.69	14.46	
2025-01-15 01:55:50.21	1.66	14.48	
2025-01-15 01:55:50.41	1.63	14.50	
2025-01-15 01:55:50.62	1.61	14.51	
2025-01-15 01:55:50.82	1.58	14.53	
2025-01-15 01:55:51.02	1.56	14.55	
2025-01-15 01:55:51.23	1.53	14.56	
2025-01-15 01:55:51.43	1.50	14.58	
2025-01-15 01:55:51.63	1.48	14.60	
2025-01-15 01:55:51.84	1.45	14.61	
2025-01-15 01:55:52.04	1.43	14.63	
2025-01-15 01:55:52.24	1.40	14.65	
2025-01-15 01:55:52.45	1.37	14.66	
2025-01-15 01:55:52.65	1.35	14.68	
2025-01-15 01:55:52.85	1.32	14.70	
2025-01-15 01:55:53.05	1.29	14.71	
2025-01-15 01:55:53.26	1.27	14.73	
2025-01-15 01:55:53.46	1.24	14.75	
2025-01-15 01:55:53.66	1.22	14.76	
2025-01-15 01:55:53.87	1.19	14.78	
2025-01-15 01:55:54.07	1.16	14.80	
2025-01-15 01:55:54.27	1.14	14.81	
2025-01-15 01:55:54.48	1.11	14.83	
2025-01-15 01:55:54.68	1.08	14.85	
2025-01-15 01:55:54.88	1.06	14.86	
2025-01-15 01:55:55.09	1.03	14.88	
2025-01-15 01:55:55.29	1.00	14.90	
2025-01-15 01:55:55.49	0.98	14.91	
2025-01-15 01:55:55.69	0.95	14.93	
2025-01-15 01:55:55.90	0.92	14.95	
2025-01-15 01:55:56.10	0.90	14.96	
2025-01-15 01:55:56.30	0.87	14.98	
2025-01-15 01:55:56.51	0.84	15.00	
2025-01-15 01:55:56.71	0.82	15.02	
2025-01-15 01:55:56.91	0.79	15.03	
2025-01-15 01:55:57.12	0.76	15.05	
2025-01-15 01:55:57.32	0.73	15.07	
2025-01-15 01:55:57.52	0.71	15.08	
2025-01-15 01:55:57.73	0.68	15.10	
2025-01-15 01:55:57.93	0.65	15.12	
2025-01-15 01:55:58.13	0.63	15.13	
2025-01-15 01:55:58.33	0.60	15.15	
2025-01-15 01:55:58.54	0.57	15.17	
2025-01-15 01:55:58.74	0.55	15.18	
2025-01-15 01:55:58.94	0.52	15.20	
2025-01-15 01:55:59.15	0.49	15.22	
2025-01-15 01:55:59.35	0.46	15.23	
2025-01-15 01:55:59.55	0.44	15.25	
2025-01-15 01:55:59.76	0.41	15.27	
2025-01-15 01:55:59.96	0.38	15.29	
2025-01-15 01:56:00.16	0.35	15.30	
2025-01-15 01:56:00.37	0.33	15.32	
2025-01-15 01:56:00.57	0.30	15.34	
2025-01-15 01:56:00.77	0.27	15.35	
2025-01-15 01:56:00.97	0.24	15.37	
2025-01-15 01:56:01.18	0.22	15.39	
2025-01-15 01:56:01.38	0.19	15.40	
2025-01-15 01:56:01.58	0.16	15.42	
2025-01-15 01:56:01.79	0.13	15.44	
2025-01-15 01:56:01.99	0.11	15.45	
2025-01-15 01:56:02.19	0.08	15.47	
2025-01-15 01:56:02.40	0.05	15.49	
2025-01-15 01:56:02.60	0.02	15.51	
2025-01-15 01:56:02.80	360.00	15.52	
2025-01-15 01:56:03.01	359.97	15.54	
2025-01-15 01:56:03.21	359.94	15.56	
2025-01-15 01:56:03.41	359.91	15.57	
2025-01-15 01:56:03.61	359.88	15.59	
2025-01-15 01:56:03.82	359.85	15.61	
2025-01-15 01:56:04.02	359.83	15.62	
2025-01-15 01:56:04.22	359.80	15.64	
2025-01-15 01:56:04.43	359.77	15.66	
2025-01-15 01:56:04.63	359.74	15.68	
2025-01-15 01:56:04.83	359.72	15.69	
2025-01-15 01:56:05.04	359.69	15.71	
2025-01-15 01:56:05.24	359.66	15.73	
2025-01-15 01:56:05.44	359.63	15.74	
2025-01-15 01:56:05.65	359.60	15.76	
2025-01-15 01:56:05.85	359.57	15.78	
2025-01-15 01:56:06.05	359.55	15.80	
2025-01-15 01:56:06.25	359.52	15.81	
2025-01-15 01:56:06.46	359.49	15.83	
2025-01-15 01:56:06.66	359.46	15.85	
2025-01-15 01:56:06.86	359.43	15.86	
2025-01-15 01:56:07.07	359.40	15.88	
2025-01-15 01:56:07.27	359.37	15.90	
2025-01-15 01:56:07.47	359.35	15.91	
2025-01-15 01:56:07.68	359.32	15.93	
2025-01-15 01:56:07.88	359.29	15.95	
2025-01-15 01:56:08.08	359.26	15.97	
2025-01-15 01:56:08.29	359.23	15.98	
2025-01-15 01:56:08.49	359.20	16.00	
2025-01-15 01:56:08.69	359.17	16.02	
2025-01-15 01:56:08.89	359.15	16.03	
2025-01-15 01:56:09.10	359.12	16.05	
2025-01-15 01:56:09.30	359.09	16.07	
2025-01-15 01:56:09.50	359.06	16.09	
2025-01-15 01:56:09.71	359.03	16.10	
2025-01-15 01:56:09.91	359.00	16.12	
2025-01-15 01:56:10.11	358.97	16.14	
2025-01-15 01:56:10.32	358.94	16.16	
2025-01-15 01:56:10.52	358.91	16.17	
2025-01-15 01:56:10.72	358.88	16.19	
2025-01-15 01:56:10.93	358.85	16.21	
2025-01-15 01:56:11.13	358.83	16.22	
2025-01-15 01:56:11.33	358.80	16.24	
2025-01-15 01:56:11.53	358.77	16.26	
2025-01-15 01:56:11.74	358.74	16.28	
2025-01-15 01:56:11.94	358.71	16.29	
2025-01-15 01:56:12.14	358.68	16.31	
2025-01-15 01:56:12.35	358.65	16.33	
2025-01-15 01:56:12.55	358.62	16.34	
2025-01-15 01:56:12.75	358.59	16.36	
2025-01-15 01:56:12.96	358.56	16.38	
2025-01-15 01:56:13.16	358.53	16.40	
2025-01-15 01:56:13.36	358.50	16.41	
2025-01-15 01:56:13.57	358.47	16.43	
2025-01-15 01:56:13.77	358.44	16.45	
2025-01-15 01:56:13.97	358.41	16.46	
2025-01-15 01:56:14.17	358.38	16.48	
2025-01-15 01:56:14.38	358.35	16.50	
2025-01-15 01:56:14.58	358.32	16.52	
2025-01-15 01:56:14.78	358.30	16.53	
2025-01-15 01:56:14.99	358.26	16.55	
2025-01-15 01:56:15.19	358.24	16.57	
2025-01-15 01:56:15.39	358.21	16.58	
2025-01-15 01:56:15.60	358.17	16.60	
2025-01-15 01:56:15.80	358.15	16.62	
2025-01-15 01:56:16.00	358.12	16.64	
2025-01-15 01:56:16.21	358.08	16.65	
2025-01-15 01:56:16.41	358.05	16.67	
2025-01-15 01:56:16.61	358.03	16.69	
2025-01-15 01:56:16.81	358.00	16.71	
2025-01-15 01:56:17.02	357.96	16.72	
2025-01-15 01:56:17.22	357.93	16.74	
2025-01-15 01:56:17.42	357.90	16.76	
2025-01-15 01:56:17.63	357.87	16.78	
2025-01-15 01:56:17.83	357.84	16.79	
2025-01-15 01:56:18.03	357.81	16.81	
2025-01-15 01:56:18.24	357.78	16.83	
2025-01-15 01:56:18.44	357.75	16.84	
2025-01-15 01:56:18.64	357.72	16.86	
2025-01-15 01:56:18.85	357.69	16.88	
2025-01-15 01:56:19.05	357.66	16.90	
2025-01-15 01:56:19.25	357.63	16.91	
2025-01-15 01:56:19.45	357.60	16.93	
2025-01-15 01:56:19.66	357.57	16.95	
2025-01-15 01:56:19.86	357.54	16.97	
2025-01-15 01:56:20.06	357.51	16.98	
2025-01-15 01:56:20.27	357.48	17.00	
2025-01-15 01:56:20.47	357.45	17.02	
2025-01-15 01:56:20.67	357.42	17.04	
2025-01-15 01:56:20.88	357.38	17.05	
2025-01-15 01:56:21.08	357.35	17.07	
2025-01-15 01:56:21.28	357.32	17.09	
2025-01-15 01:56:21.49	357.29	17.11	
2025-01-15 01:56:21.69	357.26	17.12	
2025-01-15 01:56:21.89	357.23	17.14	
2025-01-15 01:56:22.09	357.20	17.16	
2025-01-15 01:56:22.30	357.17	17.17	
2025-01-15 01:56:22.50	357.14	17.19	
2025-01-15 01:56:22.70	357.11	17.21	
2025-01-15 01:56:22.91	357.07	17.23	
2025-01-15 01:56:23.11	357.04	17.24	
2025-01-15 01:56:23.31	357.01	17.26	
2025-01-15 01:56:23.52	356.98	17.28	
2025-01-15 01:56:23.72	356.95	17.30	
2025-01-15 01:56:23.92	356.92	17.31	
2025-01-15 01:56:24.13	356.88	17.33	
2025-01-15 01:56:24.33	356.85	17.35	
2025-01-15 01:56:24.53	356.82	17.37	
2025-01-15 01:56:24.73	356.79	17.38	
2025-01-15 01:56:24.94	356.76	17.40	
2025-01-15 01:56:25.14	356.73	17.42	
2025-01-15 01:56:25.34	356.70	17.44	
2025-01-15 01:56:25.55	356.66	17.45	
2025-01-15 01:56:25.75	356.63	17.47	
2025-01-15 01:56:25.95	356.60	17.49	
2025-01-15 01:56:26.16	356.57	17.51	
2025-01-15 01:56:26.36	356.54	17.52	
2025-01-15 01:56:26.56	356.51	17.54	
2025-01-15 01:56:26.77	356.47	17.56	
2025-01-15 01:56:26.97	356.44	17.58	
2025-01-15 01:56:27.17	356.41	17.59	
2025-01-15 01:56:27.37	356.38	17.61	
2025-01-15 01:56:27.58	356.34	17.63	
2025-01-15 01:56:27.78	356.31	17.65	
2025-01-15 01:56:27.98	356.28	17.66	
2025-01-15 01:56:28.19	356.25	17.68	
2025-01-15 01:56:28.39	356.22	17.70	
2025-01-15 01:56:28.59	356.18	17.72	
2025-01-15 01:56:28.80	356.15	17.73	
2025-01-15 01:56:29.00	356.12	17.75	
2025-01-15 01:56:29.20	356.09	17.77	
2025-01-15 01:56:29.41	356.05	17.79	
2025-01-15 01:56:29.61	356.02	17.80	
2025-01-15 01:56:29.81	355.99	17.82	
2025-01-15 01:56:30.01	355.96	17.84	
2025-01-15 01:56:30.22	355.92	17.86	
2025-01-15 01:56:30.42	355.89	17.87	
2025-01-15 01:56:30.62	355.86	17.89	
2025-01-15 01:56:30.83	355.83	17.91	
2025-01-15 01:56:31.03	355.79	17.93	
2025-01-15 01:56:31.23	355.76	17.94	
2025-01-15 01:56:31.44	355.73	17.96	
2025-01-15 01:56:31.64	355.69	17.98	
2025-01-15 01:56:31.84	355.66	18.00	
2025-01-15 01:56:32.05	355.63	18.01	
2025-01-15 01:56:32.25	355.60	18.03	
2025-01-15 01:56:32.45	355.56	18.05	
2025-01-15 01:56:32.65	355.53	18.07	
2025-01-15 01:56:32.86	355.50	18.08	
2025-01-15 01:56:33.06	355.46	18.10	
2025-01-15 01:56:33.26	355.43	18.12	
2025-01-15 01:56:33.47	355.40	18.14	
2025-01-15 01:56:33.67	355.36	18.15	
2025-01-15 01:56:33.87	355.33	18.17	
2025-01-15 01:56:34.08	355.30	18.19	
2025-01-15 01:56:34.28	355.26	18.21	
2025-01-15 01:56:34.48	355.23	18.22	
2025-01-15 01:56:34.69	355.20	18.24	
2025-01-15 01:56:34.89	355.16	18.26	
2025-01-15 01:56:35.09	355.13	18.28	
2025-01-15 01:56:35.29	355.10	18.29	
2025-01-15 01:56:35.50	355.06	18.31	
2025-01-15 01:56:35.70	355.03	18.33	
2025-01-15 01:56:35.90	355.00	18.35	
2025-01-15 01:56:36.11	354.96	18.37	
2025-01-15 01:56:36.31	354.93	18.38	
2025-01-15 01:56:36.51	354.89	18.40	
2025-01-15 01:56:36.72	354.86	18.42	
2025-01-15 01:56:36.92	354.83	18.44	
2025-01-15 01:56:37.12	354.79	18.45	
2025-01-15 01:56:37.33	354.76	18.47	
2025-01-15 01:56:37.53	354.72	18.49	
2025-01-15 01:56:37.73	354.69	18.51	
2025-01-15 01:56:37.93	354.66	18.52	
2025-01-15 01:56:38.14	354.62	18.54	
2025-01-15 01:56:38.34	354.59	18.56	
2025-01-15 01:56:38.54	354.55	18.58	
2025-01-15 01:56:38.75	354.52	18.59	
2025-01-15 01:56:38.95	354.49	18.61	
2025-01-15 01:56:39.15	354.45	18.63	
2025-01-15 01:56:39.36	354.42	18.65	
2025-01-15 01:56:39.56	354.38	18.66	
2025-01-15 01:56:39.76	354.35	18.68	
2025-01-15 01:56:39.97	354.31	18.70	
2025-01-15 01:56:40.17	354.28	18.72	
2025-01-15 01:56:40.37	354.24	18.74	
2025-01-15 01:56:40.57	354.21	18.75	
2025-01-15 01:56:40.78	354.17	18.77	
2025-01-15 01:56:40.98	354.14	18.79	
2025-01-15 01:56:41.18	354.11	18.81	
2025-01-15 01:56:41.39	354.07	18.82	
2025-01-15 01:56:41.59	354.04	18.84	
2025-01-15 01:56:41.79	354.00	18.86	
2025-01-15 01:56:42.00	353.97	18.88	
2025-01-15 01:56:42.20	353.93	18.89	
2025-01-15 01:56:42.40	353.90	18.91	
2025-01-15 01:56:42.61	353.86	18.93	
2025-01-15 01:56:42.81	353.83	18.95	
2025-01-15 01:56:43.01	353.79	18.96	
2025-01-15 01:56:43.21	353.76	18.98	
2025-01-15 01:56:43.42	353.72	19.00	
2025-01-15 01:56:43.62	353.69	19.02	
2025-01-15 01:56:43.82	353.65	19.04	
2025-01-15 01:56:44.03	353.61	19.05	
2025-01-15 01:56:44.23	353.58	19.07	
2025-01-15 01:56:44.43	353.54	19.09	
2025-01-15 01:56:44.64	353.51	19.11	
2025-01-15 01:56:44.84	353.47	19.12	
2025-01-15 01:56:45.04	353.44	19.14	
2025-01-15 01:56:45.25	353.40	19.16	
2025-01-15 01:56:45.45	353.37	19.18	
2025-01-15 01:56:45.65	353.33	19.19	
2025-01-15 01:56:45.85	353.30	19.21	
2025-01-15 01:56:46.06	353.26	19.23	
2025-01-15 01:56:46.26	353.22	19.25	
2025-01-15 01:56:46.46	353.19	19.26	
2025-01-15 01:56:46.67	353.15	19.28	
2025-01-15 01:56:46.87	353.12	19.30	
2025-01-15 01:56:47.07	353.08	19.32	
2025-01-15 01:56:47.28	353.04	19.34	
2025-01-15 01:56:47.48	353.01	19.35	
2025-01-15 01:56:47.68	352.97	19.37	
2025-01-15 01:56:47.89	352.93	19.39	
2025-01-15 01:56:48.09	352.90	19.41	
2025-01-15 01:56:48.29	352.86	19.42	
2025-01-15 01:56:48.49	352.83	19.44	
2025-01-15 01:56:48.70	352.79	19.46	
2025-01-15 01:56:48.90	352.75	19.48	
2025-01-15 01:56:49.10	352.72	19.49	
2025-01-15 01:56:49.31	352.68	19.51	
2025-01-15 01:56:49.51	352.65	19.53	
2025-01-15 01:56:49.71	352.61	19.55	
2025-01-15 01:56:49.92	352.57	19.57	
2025-01-15 01:56:50.12	352.54	19.58	
2025-01-15 01:56:50.32	352.50	19.60	
2025-01-15 01:56:50.53	352.46	19.62	
2025-01-15 01:56:50.73	352.43	19.64	
2025-01-15 01:56:50.93	352.39	19.65	
2025-01-15 01:56:51.13	352.35	19.67	
2025-01-15 01:56:51.34	352.31	19.69	
2025-01-15 01:56:51.54	352.28	19.71	
2025-01-15 01:56:51.74	352.24	19.72	
2025-01-15 01:56:51.95	352.20	19.74	
2025-01-15 01:56:52.15	352.17	19.76	
2025-01-15 01:56:52.35	352.13	19.78	
2025-01-15 01:56:52.56	352.09	19.80	
2025-01-15 01:56:52.76	352.06	19.81	
2025-01-15 01:56:52.96	352.02	19.83	
2025-01-15 01:56:53.17	351.98	19.85	
2025-01-15 01:56:53.37	351.94	19.87	
2025-01-15 01:56:53.57	351.91	19.88	
2025-01-15 01:56:53.77	351.87	19.90	
2025-01-15 01:56:53.98	351.83	19.92	
2025-01-15 01:56:54.18	351.79	19.94	
2025-01-15 01:56:54.38	351.76	19.95	
2025-01-15 01:56:54.59	351.72	19.97	
2025-01-15 01:56:54.79	351.68	19.99	
2025-01-15 01:56:54.99	351.64	20.01	
2025-01-15 01:56:55.20	351.61	20.03	
2025-01-15 01:56:55.40	351.57	20.04	
2025-01-15 01:56:55.60	351.53	20.06	
2025-01-15 01:56:55.81	351.49	20.08	
2025-01-15 01:56:56.01	351.46	20.10	
2025-01-15 01:56:56.21	351.42	20.11	
2025-01-15 01:56:56.41	351.38	20.13	
2025-01-15 01:56:56.62	351.34	20.15	
2025-01-15 01:56:56.82	351.30	20.17	
2025-01-15 01:56:57.02	351.27	20.18	
2025-01-15 01:56:57.23	351.23	20.20	
2025-01-15 01:56:57.43	351.19	20.22	
2025-01-15 01:56:57.63	351.15	20.24	
2025-01-15 01:56:57.84	351.11	20.26	
2025-01-15 01:56:58.04	351.07	20.27	
2025-01-15 01:56:58.24	351.04	20.29	
2025-01-15 01:56:58.45	351.00	20.31	
2025-01-15 01:56:58.65	350.96	20.33	
2025-01-15 01:56:58.85	350.92	20.34	
2025-01-15 01:56:59.05	350.88	20.36	
2025-01-15 01:56:59.26	350.84	20.38	
2025-01-15 01:56:59.46	350.81	20.40	
2025-01-15 01:56:59.66	350.77	20.41	
2025-01-15 01:56:59.87	350.73	20.43	
2025-01-15 01:57:00.07	350.69	20.45	
2025-01-15 01:57:00.27	350.65	20.47	
2025-01-15 01:57:00.48	350.61	20.49	
2025-01-15 01:57:00.68	350.57	20.50	
2025-01-15 01:57:00.88	350.53	20.52	
2025-01-15 01:57:01.09	350.49	20.54	
2025-01-15 01:57:01.29	350.46	20.56	
2025-01-15 01:57:01.49	350.42	20.57	
2025-01-15 01:57:01.69	350.38	20.59	
2025-01-15 01:57:01.90	350.34	20.61	
2025-01-15 01:57:02.10	350.30	20.63	
2025-01-15 01:57:02.30	350.26	20.64	
2025-01-15 01:57:02.51	350.22	20.66	
2025-01-15 01:57:02.71	350.18	20.68	
2025-01-15 01:57:02.91	350.14	20.70	
2025-01-15 01:57:03.12	350.10	20.71	
2025-01-15 01:57:03.32	350.06	20.73	
2025-01-15 01:57:03.52	350.02	20.75	
2025-01-15 01:57:03.73	349.98	20.77	
2025-01-15 01:57:03.93	349.94	20.79	
2025-01-15 01:57:04.13	349.90	20.80	
2025-01-15 01:57:04.33	349.87	20.82	
2025-01-15 01:57:04.54	349.82	20.84	
2025-01-15 01:57:04.74	349.78	20.86	
2025-01-15 01:57:04.94	349.75	20.87	
2025-01-15 01:57:05.15	349.70	20.89	
2025-01-15 01:57:05.35	349.67	20.91	
2025-01-15 01:57:05.55	349.63	20.93	
2025-01-15 01:57:05.76	349.58	20.94	
2025-01-15 01:57:05.96	349.54	20.96	
2025-01-15 01:57:06.16	349.51	20.98	
2025-01-15 01:57:06.37	349.46	21.00	
2025-01-15 01:57:06.57	349.42	21.01	
2025-01-15 01:57:06.77	349.38	21.03	
2025-01-15 01:57:06.97	349.34	21.05	
2025-01-15 01:57:07.18	349.30	21.07	
2025-01-15 01:57:07.38	349.26	21.08	
2025-01-15 01:57:07.58	349.22	21.10	
2025-01-15 01:57:07.79	349.18	21.12	
2025-01-15 01:57:07.99	349.14	21.14	
2025-01-15 01:57:08.19	349.10	21.15	
2025-01-15 01:57:08.40	349.06	21.17	
2025-01-15 01:57:08.60	349.02	21.19	
2025-01-15 01:57:08.80	348.98	21.21	
2025-01-15 01:57:09.01	348.94	21.23	
2025-01-15 01:57:09.21	348.90	21.24	
2025-01-15 01:57:09.41	348.86	21.26	
2025-01-15 01:57:09.62	348.81	21.28	
2025-01-15 01:57:09.82	348.77	21.30	
2025-01-15 01:57:10.02	348.73	21.31	
2025-01-15 01:57:10.22	348.69	21.33	
2025-01-15 01:57:10.43	348.65	21.35	
2025-01-15 01:57:10.63	348.61	21.37	
2025-01-15 01:57:10.83	348.57	21.38	
2025-01-15 01:57:11.04	348.53	21.40	
2025-01-15 01:57:11.24	348.49	21.42	
2025-01-15 01:57:11.44	348.45	21.44	
2025-01-15 01:57:11.65	348.40	21.45	
2025-01-15 01:57:11.85	348.36	21.47	
2025-01-15 01:57:12.05	348.32	21.49	
2025-01-15 01:57:12.26	348.28	21.51	
2025-01-15 01:57:12.46	348.24	21.52	
2025-01-15 01:57:12.66	348.20	21.54	
2025-01-15 01:57:12.86	348.15	21.56	
2025-01-15 01:57:13.07	348.11	21.58	
2025-01-15 01:57:13.27	348.07	21.59	
2025-01-15 01:57:13.47	348.03	21.61	
2025-01-15 01:57:13.68	347.99	21.63	
2025-01-15 01:57:13.88	347.94	21.65	
2025-01-15 01:57:14.08	347.90	21.66	
2025-01-15 01:57:14.29	347.86	21.68	
2025-01-15 01:57:14.49	347.82	21.70	
2025-01-15 01:57:14.69	347.78	21.71	
2025-01-15 01:57:14.90	347.73	21.73	
2025-01-15 01:57:15.10	347.69	21.75	
2025-01-15 01:57:15.30	347.65	21.77	
2025-01-15 01:57:15.50	347.61	21.78	
2025-01-15 01:57:15.71	347.56	21.80	
2025-01-15 01:57:15.91	347.52	21.82	
2025-01-15 01:57:16.11	347.48	21.84	
2025-01-15 01:57:16.32	347.44	21.85	
2025-01-15 01:57:16.52	347.40	21.87	
2025-01-15 01:57:16.72	347.35	21.89	
2025-01-15 01:57:16.93	347.31	21.91	
2025-01-15 01:57:17.13	347.27	21.92	
2025-01-15 01:57:17.33	347.22	21.94	
2025-01-15 01:57:17.54	347.18	21.96	
2025-01-15 01:57:17.74	347.14	21.98	
2025-01-15 01:57:17.94	347.10	21.99	
2025-01-15 01:57:18.14	347.05	22.01	
2025-01-15 01:57:18.35	347.01	22.03	
2025-01-15 01:57:18.55	346.97	22.05	
2025-01-15 01:57:18.75	346.92	22.06	
2025-01-15 01:57:18.96	346.88	22.08	
2025-01-15 01:57:19.16	346.84	22.10	
2025-01-15 01:57:19.36	346.79	22.11	
2025-01-15 01:57:19.57	346.75	22.13	
2025-01-15 01:57:19.77	346.71	22.15	
2025-01-15 01:57:19.97	346.66	22.17	
2025-01-15 01:57:20.18	346.62	22.18	
2025-01-15 01:57:20.38	346.58	22.20	
2025-01-15 01:57:20.58	346.53	22.22	
2025-01-15 01:57:20.78	346.49	22.24	
2025-01-15 01:57:20.99	346.45	22.25	
2025-01-15 01:57:21.19	346.40	22.27	
2025-01-15 01:57:21.39	346.36	22.29	
2025-01-15 01:57:21.60	346.31	22.31	
2025-01-15 01:57:21.80	346.27	22.32	
2025-01-15 01:57:22.00	346.23	22.34	
2025-01-15 01:57:22.21	346.18	22.36	
2025-01-15 01:57:22.41	346.14	22.37	
2025-01-15 01:57:22.61	346.10	22.39	
2025-01-15 01:57:22.82	346.05	22.41	
2025-01-15 01:57:23.02	346.01	22.43	
2025-01-15 01:57:23.22	345.96	22.44	
2025-01-15 01:57:23.42	345.92	22.46	
2025-01-15 01:57:23.63	345.87	22.48	
2025-01-15 01:57:23.83	345.83	22.49	
2025-01-15 01:57:24.03	345.79	22.51	
2025-01-15 01:57:24.24	345.74	22.53	
2025-01-15 01:57:24.44	345.70	22.55	
2025-01-15 01:57:24.64	345.65	22.56	
2025-01-15 01:57:24.85	345.61	22.58	
2025-01-15 01:57:25.05	345.56	22.60	
2025-01-15 01:57:25.25	345.52	22.61	
2025-01-15 01:57:25.46	345.47	22.63	
2025-01-15 01:57:25.66	345.43	22.65	
2025-01-15 01:57:25.86	345.38	22.67	
2025-01-15 01:57:26.06	345.34	22.68	
2025-01-15 01:57:26.27	345.29	22.70	
2025-01-15 01:57:26.47	345.25	22.72	
2025-01-15 01:57:26.67	345.21	22.73	
2025-01-15 01:57:26.88	345.16	22.75	
2025-01-15 01:57:27.08	345.11	22.77	
2025-01-15 01:57:27.28	345.07	22.79	
2025-01-15 01:57:27.49	345.02	22.80	
2025-01-15 01:57:27.69	344.98	22.82	
2025-01-15 01:57:27.89	344.93	22.84	
2025-01-15 01:57:28.10	344.89	22.85	
2025-01-15 01:57:28.30	344.84	22.87	
2025-01-15 01:57:28.50	344.80	22.89	
2025-01-15 01:57:28.70	344.75	22.90	
2025-01-15 01:57:28.91	344.71	22.92	
2025-01-15 01:57:29.11	344.66	22.94	
2025-01-15 01:57:29.31	344.62	22.96	
2025-01-15 01:57:29.52	344.57	22.97	
2025-01-15 01:57:29.72	344.52	22.99	
2025-01-15 01:57:29.92	344.48	23.01	
2025-01-15 01:57:30.13	344.43	23.02	
2025-01-15 01:57:30.33	344.39	23.04	
2025-01-15 01:57:30.53	344.34	23.06	
2025-01-15 01:57:30.74	344.29	23.07	
2025-01-15 01:57:30.94	344.25	23.09	
2025-01-15 01:57:31.14	344.20	23.11	
2025-01-15 01:57:31.34	344.16	23.12	
2025-01-15 01:57:31.55	344.11	23.14	
2025-01-15 01:57:31.75	344.06	23.16	
2025-01-15 01:57:31.95	344.02	23.18	
2025-01-15 01:57:32.16	343.97	23.19	
2025-01-15 01:57:32.36	343.92	23.21	
2025-01-15 01:57:32.56	343.88	23.23	
2025-01-15 01:57:32.77	343.83	23.24	
2025-01-15 01:57:32.97	343.78	23.26	
2025-01-15 01:57:33.17	343.74	23.28	
2025-01-15 01:57:33.37	343.69	23.29	
2025-01-15 01:57:33.58	343.64	23.31	
2025-01-15 01:57:33.78	343.60	23.33	
2025-01-15 01:57:33.98	343.55	23.34	
2025-01-15 01:57:34.19	343.50	23.36	
2025-01-15 01:57:34.39	343.46	23.38	
2025-01-15 01:57:34.59	343.41	23.39	
2025-01-15 01:57:34.80	343.36	23.41	
2025-01-15 01:57:35.00	343.32	23.43	
2025-01-15 01:57:35.20	343.27	23.44	
2025-01-15 01:57:35.41	343.22	23.46	
2025-01-15 01:57:35.61	343.17	23.48	
2025-01-15 01:57:35.81	343.13	23.49	
2025-01-15 01:57:36.02	343.08	23.51	
2025-01-15 01:57:36.22	343.03	23.53	
2025-01-15 01:57:36.42	342.98	23.54	
2025-01-15 01:57:36.62	342.94	23.56	
2025-01-15 01:57:36.83	342.89	23.58	
2025-01-15 01:57:37.03	342.84	23.59	
2025-01-15 01:57:37.23	342.79	23.61	
2025-01-15 01:57:37.44	342.75	23.63	
2025-01-15 01:57:37.64	342.70	23.64	
2025-01-15 01:57:37.84	342.65	23.66	
2025-01-15 01:57:38.05	342.60	23.68	
2025-01-15 01:57:38.25	342.55	23.69	
2025-01-15 01:57:38.45	342.51	23.71	
2025-01-15 01:57:38.66	342.46	23.73	
2025-01-15 01:57:38.86	342.41	23.74	
2025-01-15 01:57:39.06	342.36	23.76	
2025-01-15 01:57:39.26	342.32	23.78	
2025-01-15 01:57:39.47	342.27	23.79	
2025-01-15 01:57:39.67	342.22	23.81	
2025-01-15 01:57:39.87	342.17	23.83	
2025-01-15 01:57:40.08	342.12	23.84	
2025-01-15 01:57:40.28	342.07	23.86	
2025-01-15 01:57:40.48	342.02	23.87	
2025-01-15 01:57:40.69	341.97	23.89	
2025-01-15 01:57:40.89	341.93	23.91	
2025-01-15 01:57:41.09	341.88	23.92	
2025-01-15 01:57:41.30	341.83	23.94	
2025-01-15 01:57:41.50	341.78	23.96	
2025-01-15 01:57:41.70	341.73	23.97	
2025-01-15 01:57:41.90	341.68	23.99	
2025-01-15 01:57:42.11	341.63	24.01	
2025-01-15 01:57:42.31	341.59	24.02	
2025-01-15 01:57:42.51	341.54	24.04	
2025-01-15 01:57:42.72	341.49	24.05	
2025-01-15 01:57:42.92	341.44	24.07	
2025-01-15 01:57:43.12	341.39	24.09	
2025-01-15 01:57:43.33	341.34	24.10	
2025-01-15 01:57:43.53	341.29	24.12	
2025-01-15 01:57:43.73	341.24	24.14	
2025-01-15 01:57:43.94	341.19	24.15	
2025-01-15 01:57:44.14	341.14	24.17	
2025-01-15 01:57:44.34	341.09	24.18	
2025-01-15 01:57:44.54	341.04	24.20	
2025-01-15 01:57:44.75	340.99	24.22	
2025-01-15 01:57:44.95	340.94	24.23	
2025-01-15 01:57:45.15	340.90	24.25	
2025-01-15 01:57:45.36	340.84	24.27	
2025-01-15 01:57:45.56	340.80	24.28	
2025-01-15 01:57:45.76	340.75	24.30	
2025-01-15 01:57:45.97	340.69	24.31	
2025-01-15 01:57:46.17	340.65	24.33	
2025-01-15 01:57:46.37	340.60	24.35	
2025-01-15 01:57:46.58	340.54	24.36	
2025-01-15 01:57:46.78	340.50	24.38	
2025-01-15 01:57:46.98	340.45	24.39	
2025-01-15 01:57:47.18	340.40	24.41	
2025-01-15 01:57:47.39	340.34	24.43	
2025-01-15 01:57:47.59	340.30	24.44	
2025-01-15 01:57:47.79	340.25	24.46	
2025-01-15 01:57:48.00	340.19	24.47	
2025-01-15 01:57:48.20	340.14	24.49	
2025-01-15 01:57:48.40	340.09	24.51	
2025-01-15 01:57:48.61	340.04	24.52	
2025-01-15 01:57:48.81	339.99	24.54	
2025-01-15 01:57:49.01	339.94	24.55	
2025-01-15 01:57:49.22	339.89	24.57	
2025-01-15 01:57:49.42	339.84	24.58	
2025-01-15 01:57:49.62	339.79	24.60	
2025-01-15 01:57:49.82	339.74	24.62	
2025-01-15 01:57:50.03	339.69	24.63	
2025-01-15 01:57:50.23	339.64	24.65	
2025-01-15 01:57:50.43	339.59	24.66	
2025-01-15 01:57:50.64	339.53	24.68	
2025-01-15 01:57:50.84	339.48	24.70	
2025-01-15 01:57:51.04	339.43	24.71	
2025-01-15 01:57:51.25	339.38	24.73	
2025-01-15 01:57:51.45	339.33	24.74	
2025-01-15 01:57:51.65	339.28	24.76	
2025-01-15 01:57:51.86	339.23	24.77	
2025-01-15 01:57:52.06	339.18	24.79	
2025-01-15 01:57:52.26	339.12	24.80	
2025-01-15 01:57:52.46	339.07	24.82	
2025-01-15 01:57:52.67	339.02	24.84	
2025-01-15 01:57:52.87	338.97	24.85	
2025-01-15 01:57:53.07	338.92	24.87	
2025-01-15 01:57:53.28	338.86	24.88	
2025-01-15 01:57:53.48	338.81	24.90	
2025-01-15 01:57:53.68	338.76	24.91	
2025-01-15 01:57:53.89	338.71	24.93	
2025-01-15 01:57:54.09	338.66	24.94	
2025-01-15 01:57:54.29	338.61	24.96	
2025-01-15 01:57:54.50	338.55	24.98	
2025-01-15 01:57:54.70	338.50	24.99	
2025-01-15 01:57:54.90	338.45	25.01	
2025-01-15 01:57:55.10	338.40	25.02	
2025-01-15 01:57:55.31	338.34	25.04	
2025-01-15 01:57:55.51	338.29	25.05	
2025-01-15 01:57:55.71	338.24	25.07	
2025-01-15 01:57:55.92	338.19	25.08	
2025-01-15 01:57:56.12	338.14	25.10	
2025-01-15 01:57:56.32	338.08	25.11	
2025-01-15 01:57:56.53	338.03	25.13	
2025-01-15 01:57:56.73	337.98	25.14	
2025-01-15 01:57:56.93	337.93	25.16	
2025-01-15 01:57:57.14	337.87	25.17	
2025-01-15 01:57:57.34	337.82	25.19	
2025-01-15 01:57:57.54	337.77	25.20	
2025-01-15 01:57:57.74	337.72	25.22	
2025-01-15 01:57:57.95	337.66	25.24	
2025-01-15 01:57:58.15	337.61	25.25	
2025-01-15 01:57:58.35	337.56	25.27	
2025-01-15 01:57:58.56	337.50	25.28	
2025-01-15 01:57:58.76	337.45	25.30	
2025-01-15 01:57:58.96	337.40	25.31	
2025-01-15 01:57:59.17	337.34	25.33	
2025-01-15 01:57:59.37	337.29	25.34	
2025-01-15 01:57:59.57	337.24	25.36	
2025-01-15 01:57:59.78	337.18	25.37	
2025-01-15 01:57:59.98	337.13	25.39	
2025-01-15 01:58:00.18	337.08	25.40	
2025-01-15 01:58:00.38	337.02	25.42	
2025-01-15 01:58:00.59	336.97	25.43	
2025-01-15 01:58:00.79	336.92	25.45	
2025-01-15 01:58:00.99	336.86	25.46	
2025-01-15 01:58:01.20	336.81	25.48	
2025-01-15 01:58:01.40	336.75	25.49	
2025-01-15 01:58:01.60	336.70	25.50	
2025-01-15 01:58:01.81	336.65	25.52	
2025-01-15 01:58:02.01	336.59	25.53	
2025-01-15 01:58:02.21	336.54	25.55	
2025-01-15 01:58:02.41	336.49	25.56	
2025-01-15 01:58:02.62	336.43	25.58	
2025-01-15 01:58:02.82	336.38	25.59	
2025-01-15 01:58:03.02	336.32	25.61	
2025-01-15 01:58:03.23	336.27	25.62	
2025-01-15 01:58:03.43	336.21	25.64	
2025-01-15 01:58:03.63	336.16	25.65	
2025-01-15 01:58:03.84	336.10	25.67	
2025-01-15 01:58:04.04	336.05	25.68	
2025-01-15 01:58:04.24	336.00	25.69	
2025-01-15 01:58:04.45	335.94	25.71	
2025-01-15 01:58:04.65	335.89	25.72	
2025-01-15 01:58:04.85	335.83	25.74	
2025-01-15 01:58:05.06	335.78	25.75	
2025-01-15 01:58:05.26	335.72	25.77	
2025-01-15 01:58:05.46	335.67	25.78	
2025-01-15 01:58:05.66	335.61	25.80	
2025-01-15 01:58:05.87	335.56	25.81	
2025-01-15 01:58:06.07	335.50	25.82	
2025-01-15 01:58:06.27	335.45	25.84	
2025-01-15 01:58:06.48	335.39	25.85	
2025-01-15 01:58:06.68	335.34	25.87	
2025-01-15 01:58:06.88	335.28	25.88	
2025-01-15 01:58:07.09	335.23	25.90	
2025-01-15 01:58:07.29	335.17	25.91	
2025-01-15 01:58:07.49	335.12	25.92	
2025-01-15 01:58:07.70	335.06	25.94	
2025-01-15 01:58:07.90	335.01	25.95	
2025-01-15 01:58:08.10	334.95	25.97	
2025-01-15 01:58:08.30	334.90	25.98	
2025-01-15 01:58:08.51	334.84	26.00	
2025-01-15 01:58:08.71	334.78	26.01	
2025-01-15 01:58:08.91	334.73	26.02	
2025-01-15 01:58:09.12	334.67	26.04	
2025-01-15 01:58:09.32	334.62	26.05	
2025-01-15 01:58:09.52	334.56	26.07	
2025-01-15 01:58:09.73	334.50	26.08	
2025-01-15 01:58:09.93	334.45	26.09	
2025-01-15 01:58:10.13	334.39	26.11	
2025-01-15 01:58:10.34	334.34	26.12	
2025-01-15 01:58:10.54	334.28	26.14	
2025-01-15 01:58:10.74	334.23	26.15	
2025-01-15 01:58:10.94	334.17	26.16	
2025-01-15 01:58:11.15	334.11	26.18	
2025-01-15 01:58:11.35	334.06	26.19	
2025-01-15 01:58:11.55	334.00	26.20	
2025-01-15 01:58:11.76	333.94	26.22	
2025-01-15 01:58:11.96	333.89	26.23	
2025-01-15 01:58:12.16	333.83	26.24	
2025-01-15 01:58:12.37	333.77	26.26	
2025-01-15 01:58:12.57	333.72	26.27	
2025-01-15 01:58:12.77	333.66	26.29	
2025-01-15 01:58:12.98	333.60	26.30	
2025-01-15 01:58:13.18	333.55	26.31	
2025-01-15 01:58:13.38	333.49	26.33	
2025-01-15 01:58:13.58	333.44	26.34	
2025-01-15 01:58:13.79	333.38	26.35	
2025-01-15 01:58:13.99	333.32	26.37	
2025-01-15 01:58:14.19	333.26	26.38	
2025-01-15 01:58:14.40	333.21	26.39	
2025-01-15 01:58:14.60	333.15	26.41	
2025-01-15 01:58:14.80	333.09	26.42	
2025-01-15 01:58:15.01	333.03	26.43	
2025-01-15 01:58:15.21	332.98	26.45	
2025-01-15 01:58:15.41	332.92	26.46	
2025-01-15 01:58:15.62	332.86	26.47	
2025-01-15 01:58:15.82	332.81	26.49	
2025-01-15 01:58:16.02	332.75	26.50	
2025-01-15 01:58:16.22	332.69	26.51	
2025-01-15 01:58:16.43	332.63	26.53	
2025-01-15 01:58:16.63	332.58	26.54	
2025-01-15 01:58:16.83	332.52	26.55	
2025-01-15 01:58:17.04	332.46	26.57	
2025-01-15 01:58:17.24	332.40	26.58	
2025-01-15 01:58:17.44	332.35	26.59	
2025-01-15 01:58:17.65	332.29	26.61	
2025-01-15 01:58:17.85	332.23	26.62	
2025-01-15 01:58:18.05	332.17	26.63	
2025-01-15 01:58:18.26	332.11	26.64	
2025-01-15 01:58:18.46	332.06	26.66	
2025-01-15 01:58:18.66	332.00	26.67	
2025-01-15 01:58:18.86	331.94	26.68	
2025-01-15 01:58:19.07	331.88	26.70	
2025-01-15 01:58:19.27	331.82	26.71	
2025-01-15 01:58:19.47	331.77	26.72	
2025-01-15 01:58:19.68	331.71	26.73	
2025-01-15 01:58:19.88	331.65	26.75	
2025-01-15 01:58:20.08	331.59	26.76	
2025-01-15 01:58:20.29	331.53	26.77	
2025-01-15 01:58:20.49	331.47	26.78	
2025-01-15 01:58:20.69	331.42	26.80	
2025-01-15 01:58:20.90	331.36	26.81	
2025-01-15 01:58:21.10	331.30	26.82	
2025-01-15 01:58:21.30	331.24	26.83	
2025-01-15 01:58:21.50	331.18	26.85	
2025-01-15 01:58:21.71	331.12	26.86	
2025-01-15 01:58:21.91	331.06	26.87	
2025-01-15 01:58:22.11	331.01	26.88	
2025-01-15 01:58:22.32	330.95	26.90	
2025-01-15 01:58:22.52	330.89	26.91	
2025-01-15 01:58:22.72	330.83	26.92	
2025-01-15 01:58:22.93	330.77	26.93	
2025-01-15 01:58:23.13	330.71	26.95	
2025-01-15 01:58:23.33	330.65	26.96	
2025-01-15 01:58:23.54	330.59	26.97	
2025-01-15 01:58:23.74	330.53	26.98	
2025-01-15 01:58:23.94	330.47	27.00	
2025-01-15 01:58:24.14	330.42	27.01	
2025-01-15 01:58:24.35	330.35	27.02	
2025-01-15 01:58:24.55	330.30	27.03	
2025-01-15 01:58:24.75	330.24	27.04	
2025-01-15 01:58:24.96	330.18	27.06	
2025-01-15 01:58:25.16	330.12	27.07	
2025-01-15 01:58:25.36	330.06	27.08	
2025-01-15 01:58:25.57	330.00	27.09	
2025-01-15 01:58:25.77	329.94	27.10	
2025-01-15 01:58:25.97	329.88	27.12	
2025-01-15 01:58:26.18	329.82	27.13	
2025-01-15 01:58:26.38	329.76	27.14	
2025-01-15 01:58:26.58	329.70	27.15	
2025-01-15 01:58:26.78	329.64	27.16	
2025-01-15 01:58:26.99	329.58	27.17	
2025-01-15 01:58:27.19	329.52	27.19	
2025-01-15 01:58:27.39	329.46	27.20	
2025-01-15 01:58:27.60	329.40	27.21	
2025-01-15 01:58:27.80	329.34	27.22	
2025-01-15 01:58:28.00	329.28	27.23	
2025-01-15 01:58:28.21	329.22	27.24	
2025-01-15 01:58:28.41	329.16	27.26	
2025-01-15 01:58:28.61	329.10	27.27	
2025-01-15 01:58:28.82	329.04	27.28	
2025-01-15 01:58:29.02	328.98	27.29	
2025-01-15 01:58:29.22	328.92	27.30	
2025-01-15 01:58:29.42	328.86	27.31	
2025-01-15 01:58:29.63	328.80	27.32	
2025-01-15 01:58:29.83	328.74	27.34	
2025-01-15 01:58:30.03	328.68	27.35	
2025-01-15 01:58:30.24	328.62	27.36	
2025-01-15 01:58:30.44	328.56	27.37	
2025-01-15 01:58:30.64	328.50	27.38	
2025-01-15 01:58:30.85	328.43	27.39	
2025-01-15 01:58:31.05	328.37	27.40	
2025-01-15 01:58:31.25	328.31	27.41	
2025-01-15 01:58:31.46	328.25	27.42	
2025-01-15 01:58:31.66	328.19	27.44	
2025-01-15 01:58:31.86	328.13	27.45	
2025-01-15 01:58:32.06	328.07	27.46	
2025-01-15 01:58:32.27	328.01	27.47	
2025-01-15 01:58:32.47	327.95	27.48	
2025-01-15 01:58:32.67	327.89	27.49	
2025-01-15 01:58:32.88	327.82	27.50	
2025-01-15 01:58:33.08	327.76	27.51	
2025-01-15 01:58:33.28	327.70	27.52	
2025-01-15 01:58:33.49	327.64	27.53	
2025-01-15 01:58:33.69	327.58	27.54	
2025-01-15 01:58:33.89	327.52	27.55	
2025-01-15 01:58:34.10	327.46	27.57	
2025-01-15 01:58:34.30	327.39	27.58	
2025-01-15 01:58:34.50	327.33	27.59	
2025-01-15 01:58:34.70	327.27	27.60	
2025-01-15 01:58:34.91	327.21	27.61	
2025-01-15 01:58:35.11	327.15	27.62	
2025-01-15 01:58:35.31	327.09	27.63	
2025-01-15 01:58:35.52	327.02	27.64	
2025-01-15 01:58:35.72	326.96	27.65	
2025-01-15 01:58:35.92	326.90	27.66	
2025-01-15 01:58:36.13	326.84	27.67	
2025-01-15 01:58:36.33	326.78	27.68	
2025-01-15 01:58:36.53	326.72	27.69	
2025-01-15 01:58:36.73	326.66	27.70	
2025-01-15 01:58:36.94	326.59	27.71	
2025-01-15 01:58:37.14	326.53	27.72	
2025-01-15 01:58:37.34	326.47	27.73	
2025-01-15 01:58:37.55	326.41	27.74	
2025-01-15 01:58:37.75	326.34	27.75	
2025-01-15 01:58:37.95	326.28	27.76	
2025-01-15 01:58:38.16	326.22	27.77	
2025-01-15 01:58:38.36	326.16	27.78	
2025-01-15 01:58:38.56	326.10	27.79	
2025-01-15 01:58:38.77	326.03	27.80	
2025-01-15 01:58:38.97	325.97	27.81	
2025-01-15 01:58:39.17	325.91	27.82	
2025-01-15 01:58:39.38	325.84	27.83	
2025-01-15 01:58:39.58	325.78	27.84	
2025-01-15 01:58:39.78	325.72	27.85	
2025-01-15 01:58:39.98	325.66	27.86	
2025-01-15 01:58:40.19	325.60	27.87	
2025-01-15 01:58:40.39	325.53	27.88	
2025-01-15 01:58:40.59	325.47	27.89	
2025-01-15 01:58:40.80	325.41	27.90	
2025-01-15 01:58:41.00	325.35	27.91	
2025-01-15 01:58:41.20	325.28	27.92	
2025-01-15 01:58:41.41	325.22	27.93	
2025-01-15 01:58:41.61	325.16	27.94	
2025-01-15 01:58:41.81	325.09	27.95	
2025-01-15 01:58:42.02	325.03	27.95	
2025-01-15 01:58:42.22	324.97	27.96	
2025-01-15 01:58:42.42	324.91	27.97	
2025-01-15 01:58:42.62	324.84	27.98	
2025-01-15 01:58:42.83	324.78	27.99	
2025-01-15 01:58:43.03	324.72	28.00	
2025-01-15 01:58:43.23	324.65	28.01	
2025-01-15 01:58:43.44	324.59	28.02	
2025-01-15 01:58:43.64	324.53	28.03	
2025-01-15 01:58:43.84	324.46	28.04	
2025-01-15 01:58:44.05	324.40	28.05	
2025-01-15 01:58:44.25	324.34	28.05	
2025-01-15 01:58:44.45	324.27	28.06	
2025-01-15 01:58:44.66	324.21	28.07	
2025-01-15 01:58:44.86	324.15	28.08	
2025-01-15 01:58:45.06	324.08	28.09	
2025-01-15 01:58:45.26	324.02	28.10	
2025-01-15 01:58:45.47	323.95	28.11	
2025-01-15 01:58:45.67	323.89	28.12	
2025-01-15 01:58:45.87	323.83	28.12	
2025-01-15 01:58:46.08	323.76	28.13	
2025-01-15 01:58:46.28	323.70	28.14	
2025-01-15 01:58:46.48	323.64	28.15	
2025-01-15 01:58:46.69	323.57	28.16	
2025-01-15 01:58:46.89	323.51	28.17	
2025-01-15 01:58:47.09	323.45	28.18	
2025-01-15 01:58:47.30	323.38	28.18	
2025-01-15 01:58:47.50	323.32	28.19	
2025-01-15 01:58:47.70	323.25	28.20	
2025-01-15 01:58:47.90	323.19	28.21	
2025-01-15 01:58:48.11	323.13	28.22	
2025-01-15 01:58:48.31	323.06	28.23	
2025-01-15 01:58:48.51	323.00	28.23	
2025-01-15 01:58:48.72	322.93	28.24	
2025-01-15 01:58:48.92	322.87	28.25	
2025-01-15 01:58:49.12	322.81	28.26	
2025-01-15 01:58:49.33	322.74	28.27	
2025-01-15 01:58:49.53	322.68	28.27	
2025-01-15 01:58:49.73	322.61	28.28	
2025-01-15 01:58:49.94	322.55	28.29	
2025-01-15 01:58:50.14	322.48	28.30	
2025-01-15 01:58:50.34	322.42	28.31	
2025-01-15 01:58:50.54	322.36	28.31	
2025-01-15 01:58:50.75	322.29	28.32	
2025-01-15 01:58:50.95	322.23	28.33	
2025-01-15 01:58:51.15	322.16	28.34	
2025-01-15 01:58:51.36	322.10	28.34	
2025-01-15 01:58:51.56	322.03	28.35	
2025-01-15 01:58:51.76	321.97	28.36	
2025-01-15 01:58:51.97	321.90	28.37	
2025-01-15 01:58:52.17	321.84	28.37	
2025-01-15 01:58:52.37	321.78	28.38	
2025-01-15 01:58:52.58	321.71	28.39	
2025-01-15 01:58:52.78	321.64	28.40	
2025-01-15 01:58:52.98	321.58	28.40	
2025-01-15 01:58:53.18	321.52	28.41	
2025-01-15 01:58:53.39	321.45	28.42	
2025-01-15 01:58:53.59	321.39	28.43	
2025-01-15 01:58:53.79	321.32	28.43	
2025-01-15 01:58:54.00	321.26	28.44	
2025-01-15 01:58:54.20	321.19	28.45	
2025-01-15 01:58:54.40	321.13	28.45	
2025-01-15 01:58:54.61	321.06	28.46	
2025-01-15 01:58:54.81	321.00	28.47	
2025-01-15 01:58:55.01	320.93	28.47	
2025-01-15 01:58:55.22	320.86	28.48	
2025-01-15 01:58:55.42	320.80	28.49	
2025-01-15 01:58:55.62	320.74	28.50	
2025-01-15 01:58:55.82	320.67	28.50	
2025-01-15 01:58:56.03	320.61	28.51	
2025-01-15 01:58:56.23	320.54	28.52	
2025-01-15 01:58:56.43	320.48	28.52	
2025-01-15 01:58:56.64	320.41	28.53	
2025-01-15 01:58:56.84	320.34	28.54	
2025-01-15 01:58:57.04	320.28	28.54	
2025-01-15 01:58:57.25	320.21	28.55	
2025-01-15 01:58:57.45	320.15	28.56	
2025-01-15 01:58:57.65	320.08	28.56	
2025-01-15 01:58:57.86	320.02	28.57	
2025-01-15 01:58:58.06	319.95	28.57	
2025-01-15 01:58:58.26	319.89	28.58	
2025-01-15 01:58:58.46	319.82	28.59	
2025-01-15 01:58:58.67	319.76	28.59	
2025-01-15 01:58:58.87	319.69	28.60	
2025-01-15 01:58:59.07	319.63	28.61	
2025-01-15 01:58:59.28	319.56	28.61	
2025-01-15 01:58:59.48	319.49	28.62	
2025-01-15 01:58:59.68	319.43	28.62	
2025-01-15 01:58:59.89	319.36	28.63	
2025-01-15 01:59:00.09	319.30	28.64	
2025-01-15 01:59:00.29	319.23	28.64	
2025-01-15 01:59:00.50	319.16	28.65	
2025-01-15 01:59:00.70	319.10	28.65	
2025-01-15 01:59:00.90	319.03	28.66	
2025-01-15 01:59:01.10	318.97	28.66	
2025-01-15 01:59:01.31	318.90	28.67	
2025-01-15 01:59:01.51	318.84	28.68	
2025-01-15 01:59:01.71	318.77	28.68	
