passes_logs/2025/01/15/SPB_Silybum_02/SPB_Silybum_02__20250115_235407_SUOMI_NPP_rec.log

#Pass ID: 20250115_235407_SUOMI NPP
#Satellite: SUOMI NPP
#Configuration: NPP
#Start time: 2025-01-15 23:54:05

#Version: 2.0.20230423
#Station: SPB_Silybum_02
#Location: 30.233357 lon 59.946436 lat
#TLE: 1 37849U 11061A   25015.13132341  .00000162  00000+0  97654-4 0  9994
#TLE: 2 37849  98.7446 316.1182 0001675  40.9055 319.2247 14.19538225684933

#Time	Az	El	Level	Level2	SNR	BER	Gain	Gain2
2025-01-15 23:54:07.64	19.39	4.04	
2025-01-15 23:54:07.84	19.39	4.05	
2025-01-15 23:54:08.05	19.40	4.07	
2025-01-15 23:54:08.25	19.40	4.08	
2025-01-15 23:54:08.45	19.41	4.10	
2025-01-15 23:54:08.66	19.41	4.11	
2025-01-15 23:54:08.86	19.42	4.12	
2025-01-15 23:54:09.06	19.42	4.14	
2025-01-15 23:54:09.27	19.43	4.15	
2025-01-15 23:54:09.47	19.43	4.17	
2025-01-15 23:54:09.67	19.44	4.18	
2025-01-15 23:54:09.87	19.44	4.19	
2025-01-15 23:54:10.08	19.45	4.21	
2025-01-15 23:54:10.28	19.45	4.22	
2025-01-15 23:54:10.48	19.45	4.23	
2025-01-15 23:54:10.69	19.46	4.25	
2025-01-15 23:54:10.89	19.46	4.26	
2025-01-15 23:54:11.09	19.47	4.28	
2025-01-15 23:54:11.30	19.47	4.29	
2025-01-15 23:54:11.50	19.48	4.30	
2025-01-15 23:54:11.70	19.48	4.32	
2025-01-15 23:54:11.90	19.49	4.33	
2025-01-15 23:54:12.11	19.49	4.35	
2025-01-15 23:54:12.31	19.50	4.36	
2025-01-15 23:54:12.51	19.50	4.37	
2025-01-15 23:54:12.72	19.51	4.39	
2025-01-15 23:54:12.92	19.51	4.40	
2025-01-15 23:54:13.12	19.52	4.42	
2025-01-15 23:54:13.33	19.52	4.43	
2025-01-15 23:54:13.53	19.53	4.44	
2025-01-15 23:54:13.73	19.53	4.46	
2025-01-15 23:54:13.93	19.53	4.47	
2025-01-15 23:54:14.14	19.54	4.49	
2025-01-15 23:54:14.34	19.54	4.50	
2025-01-15 23:54:14.54	19.55	4.51	
2025-01-15 23:54:14.75	19.55	4.53	
2025-01-15 23:54:14.95	19.56	4.54	
2025-01-15 23:54:15.15	19.56	4.55	
2025-01-15 23:54:15.36	19.57	4.57	
2025-01-15 23:54:15.56	19.57	4.58	
2025-01-15 23:54:15.76	19.58	4.60	
2025-01-15 23:54:15.96	19.58	4.61	
2025-01-15 23:54:16.17	19.59	4.63	
2025-01-15 23:54:16.37	19.59	4.64	
2025-01-15 23:54:16.57	19.60	4.65	
2025-01-15 23:54:16.78	19.60	4.67	
2025-01-15 23:54:16.98	19.61	4.68	
2025-01-15 23:54:17.18	19.61	4.70	
2025-01-15 23:54:17.39	19.62	4.71	
2025-01-15 23:54:17.59	19.62	4.72	
2025-01-15 23:54:17.79	19.62	4.74	
2025-01-15 23:54:17.99	19.63	4.75	
2025-01-15 23:54:18.20	19.63	4.77	
2025-01-15 23:54:18.40	19.64	4.78	
2025-01-15 23:54:18.60	19.64	4.79	
2025-01-15 23:54:18.81	19.65	4.81	
2025-01-15 23:54:19.01	19.65	4.82	
2025-01-15 23:54:19.21	19.66	4.84	
2025-01-15 23:54:19.41	19.66	4.85	
2025-01-15 23:54:19.62	19.67	4.87	
2025-01-15 23:54:19.82	19.67	4.88	
2025-01-15 23:54:20.02	19.68	4.89	
2025-01-15 23:54:20.23	19.68	4.91	
2025-01-15 23:54:20.43	19.69	4.92	
2025-01-15 23:54:20.63	19.69	4.94	
2025-01-15 23:54:20.84	19.70	4.95	
2025-01-15 23:54:21.04	19.70	4.96	
2025-01-15 23:54:21.24	19.71	4.98	
2025-01-15 23:54:21.44	19.71	4.99	
2025-01-15 23:54:21.65	19.72	5.01	
2025-01-15 23:54:21.85	19.72	5.02	
2025-01-15 23:54:22.05	19.73	5.04	
2025-01-15 23:54:22.26	19.73	5.05	
2025-01-15 23:54:22.46	19.74	5.06	
2025-01-15 23:54:22.66	19.74	5.08	
2025-01-15 23:54:22.87	19.75	5.09	
2025-01-15 23:54:23.07	19.75	5.11	
2025-01-15 23:54:23.27	19.76	5.12	
2025-01-15 23:54:23.47	19.76	5.14	
2025-01-15 23:54:23.68	19.77	5.15	
2025-01-15 23:54:23.88	19.77	5.16	
2025-01-15 23:54:24.08	19.78	5.18	
2025-01-15 23:54:24.29	19.78	5.19	
2025-01-15 23:54:24.49	19.79	5.21	
2025-01-15 23:54:24.69	19.79	5.22	
2025-01-15 23:54:24.90	19.80	5.24	
2025-01-15 23:54:25.10	19.80	5.25	
2025-01-15 23:54:25.30	19.80	5.27	
2025-01-15 23:54:25.50	19.81	5.28	
2025-01-15 23:54:25.71	19.81	5.29	
2025-01-15 23:54:25.91	19.82	5.31	
2025-01-15 23:54:26.11	19.82	5.32	
2025-01-15 23:54:26.32	19.83	5.34	
2025-01-15 23:54:26.52	19.83	5.35	
2025-01-15 23:54:26.72	19.84	5.37	
2025-01-15 23:54:26.93	19.84	5.38	
2025-01-15 23:54:27.13	19.85	5.40	
2025-01-15 23:54:27.33	19.85	5.41	
2025-01-15 23:54:27.53	19.86	5.42	
2025-01-15 23:54:27.74	19.86	5.44	
2025-01-15 23:54:27.94	19.87	5.45	
2025-01-15 23:54:28.14	19.87	5.47	
2025-01-15 23:54:28.35	19.88	5.48	
2025-01-15 23:54:28.55	19.88	5.50	
2025-01-15 23:54:28.75	19.89	5.51	
2025-01-15 23:54:28.96	19.89	5.53	
2025-01-15 23:54:29.16	19.90	5.54	
2025-01-15 23:54:29.36	19.90	5.55	
2025-01-15 23:54:29.56	19.91	5.57	
2025-01-15 23:54:29.77	19.91	5.58	
2025-01-15 23:54:29.97	19.92	5.60	
2025-01-15 23:54:30.17	19.92	5.61	
2025-01-15 23:54:30.38	19.93	5.63	
2025-01-15 23:54:30.58	19.93	5.64	
2025-01-15 23:54:30.78	19.94	5.66	
2025-01-15 23:54:30.99	19.94	5.67	
2025-01-15 23:54:31.19	19.95	5.69	
2025-01-15 23:54:31.39	19.95	5.70	
2025-01-15 23:54:31.59	19.96	5.71	
2025-01-15 23:54:31.80	19.97	5.73	
2025-01-15 23:54:32.00	19.97	5.74	
2025-01-15 23:54:32.20	19.98	5.76	
2025-01-15 23:54:32.41	19.98	5.77	
2025-01-15 23:54:32.61	19.99	5.79	
2025-01-15 23:54:32.81	19.99	5.80	
2025-01-15 23:54:33.02	20.00	5.82	
2025-01-15 23:54:33.22	20.00	5.83	
2025-01-15 23:54:33.42	20.01	5.85	
2025-01-15 23:54:33.62	20.01	5.86	
2025-01-15 23:54:33.83	20.02	5.88	
2025-01-15 23:54:34.03	20.02	5.89	
2025-01-15 23:54:34.23	20.03	5.91	
2025-01-15 23:54:34.44	20.03	5.92	
2025-01-15 23:54:34.64	20.04	5.94	
2025-01-15 23:54:34.84	20.04	5.95	
2025-01-15 23:54:35.04	20.05	5.96	
2025-01-15 23:54:35.25	20.05	5.98	
2025-01-15 23:54:35.45	20.06	5.99	
2025-01-15 23:54:35.65	20.06	6.01	
2025-01-15 23:54:35.86	20.07	6.02	
2025-01-15 23:54:36.06	20.07	6.04	
2025-01-15 23:54:36.26	20.08	6.05	
2025-01-15 23:54:36.47	20.08	6.07	
2025-01-15 23:54:36.67	20.09	6.08	
2025-01-15 23:54:36.87	20.09	6.10	
2025-01-15 23:54:37.07	20.10	6.11	
2025-01-15 23:54:37.28	20.10	6.13	
2025-01-15 23:54:37.48	20.11	6.14	
2025-01-15 23:54:37.68	20.11	6.16	
2025-01-15 23:54:37.89	20.12	6.17	
2025-01-15 23:54:38.09	20.12	6.19	
2025-01-15 23:54:38.29	20.13	6.20	
2025-01-15 23:54:38.50	20.13	6.22	
2025-01-15 23:54:38.70	20.14	6.23	
2025-01-15 23:54:38.90	20.14	6.25	
2025-01-15 23:54:39.10	20.15	6.26	
2025-01-15 23:54:39.31	20.16	6.28	
2025-01-15 23:54:39.51	20.16	6.29	
2025-01-15 23:54:39.71	20.17	6.31	
2025-01-15 23:54:39.92	20.17	6.32	
2025-01-15 23:54:40.12	20.18	6.34	
2025-01-15 23:54:40.32	20.18	6.35	
2025-01-15 23:54:40.53	20.19	6.37	
2025-01-15 23:54:40.73	20.19	6.38	
2025-01-15 23:54:40.93	20.20	6.40	
2025-01-15 23:54:41.13	20.20	6.41	
2025-01-15 23:54:41.34	20.21	6.43	
2025-01-15 23:54:41.54	20.21	6.44	
2025-01-15 23:54:41.74	20.22	6.46	
2025-01-15 23:54:41.95	20.22	6.47	
2025-01-15 23:54:42.15	20.23	6.49	
2025-01-15 23:54:42.35	20.23	6.50	
2025-01-15 23:54:42.56	20.24	6.52	
2025-01-15 23:54:42.76	20.24	6.53	
2025-01-15 23:54:42.96	20.25	6.55	
2025-01-15 23:54:43.16	20.26	6.56	
2025-01-15 23:54:43.37	20.26	6.58	
2025-01-15 23:54:43.57	20.27	6.59	
2025-01-15 23:54:43.77	20.27	6.61	
2025-01-15 23:54:43.98	20.28	6.62	
2025-01-15 23:54:44.18	20.28	6.64	
2025-01-15 23:54:44.38	20.29	6.65	
2025-01-15 23:54:44.59	20.29	6.67	
2025-01-15 23:54:44.79	20.30	6.68	
2025-01-15 23:54:44.99	20.30	6.70	
2025-01-15 23:54:45.19	20.31	6.71	
2025-01-15 23:54:45.40	20.31	6.73	
2025-01-15 23:54:45.60	20.32	6.74	
2025-01-15 23:54:45.80	20.32	6.76	
2025-01-15 23:54:46.01	20.33	6.78	
2025-01-15 23:54:46.21	20.34	6.79	
2025-01-15 23:54:46.41	20.34	6.81	
2025-01-15 23:54:46.62	20.35	6.82	
2025-01-15 23:54:46.82	20.35	6.84	
2025-01-15 23:54:47.02	20.36	6.85	
2025-01-15 23:54:47.22	20.36	6.87	
2025-01-15 23:54:47.43	20.37	6.88	
2025-01-15 23:54:47.63	20.37	6.90	
2025-01-15 23:54:47.83	20.38	6.91	
2025-01-15 23:54:48.04	20.38	6.93	
2025-01-15 23:54:48.24	20.39	6.94	
2025-01-15 23:54:48.44	20.40	6.96	
2025-01-15 23:54:48.64	20.40	6.97	
2025-01-15 23:54:48.85	20.41	6.99	
2025-01-15 23:54:49.05	20.41	7.00	
2025-01-15 23:54:49.25	20.42	7.02	
2025-01-15 23:54:49.46	20.42	7.04	
2025-01-15 23:54:49.66	20.43	7.05	
2025-01-15 23:54:49.86	20.43	7.07	
2025-01-15 23:54:50.07	20.44	7.08	
2025-01-15 23:54:50.27	20.44	7.10	
2025-01-15 23:54:50.47	20.45	7.11	
2025-01-15 23:54:50.67	20.45	7.13	
2025-01-15 23:54:50.88	20.46	7.14	
2025-01-15 23:54:51.08	20.47	7.16	
2025-01-15 23:54:51.28	20.47	7.17	
2025-01-15 23:54:51.49	20.48	7.19	
2025-01-15 23:54:51.69	20.48	7.21	
2025-01-15 23:54:51.89	20.49	7.22	
2025-01-15 23:54:52.10	20.49	7.24	
2025-01-15 23:54:52.30	20.50	7.25	
2025-01-15 23:54:52.50	20.50	7.27	
2025-01-15 23:54:52.70	20.51	7.28	
2025-01-15 23:54:52.91	20.52	7.30	
2025-01-15 23:54:53.11	20.52	7.31	
2025-01-15 23:54:53.31	20.53	7.33	
2025-01-15 23:54:53.52	20.53	7.35	
2025-01-15 23:54:53.72	20.54	7.36	
2025-01-15 23:54:53.92	20.54	7.38	
2025-01-15 23:54:54.13	20.55	7.39	
2025-01-15 23:54:54.33	20.55	7.41	
2025-01-15 23:54:54.53	20.56	7.42	
2025-01-15 23:54:54.73	20.57	7.44	
2025-01-15 23:54:54.94	20.57	7.45	
2025-01-15 23:54:55.14	20.58	7.47	
2025-01-15 23:54:55.34	20.58	7.49	
2025-01-15 23:54:55.55	20.59	7.50	
2025-01-15 23:54:55.75	20.59	7.52	
2025-01-15 23:54:55.95	20.60	7.53	
2025-01-15 23:54:56.16	20.61	7.55	
2025-01-15 23:54:56.36	20.61	7.56	
2025-01-15 23:54:56.56	20.62	7.58	
2025-01-15 23:54:56.76	20.62	7.59	
2025-01-15 23:54:56.97	20.63	7.61	
2025-01-15 23:54:57.17	20.63	7.63	
2025-01-15 23:54:57.37	20.64	7.64	
2025-01-15 23:54:57.58	20.64	7.66	
2025-01-15 23:54:57.78	20.65	7.67	
2025-01-15 23:54:57.98	20.66	7.69	
2025-01-15 23:54:58.19	20.66	7.71	
2025-01-15 23:54:58.39	20.67	7.72	
2025-01-15 23:54:58.59	20.67	7.74	
2025-01-15 23:54:58.79	20.68	7.75	
2025-01-15 23:54:59.00	20.68	7.77	
2025-01-15 23:54:59.20	20.69	7.78	
2025-01-15 23:54:59.40	20.70	7.80	
2025-01-15 23:54:59.61	20.70	7.82	
2025-01-15 23:54:59.81	20.71	7.83	
2025-01-15 23:55:00.01	20.71	7.85	
2025-01-15 23:55:00.22	20.72	7.86	
2025-01-15 23:55:00.42	20.72	7.88	
2025-01-15 23:55:00.62	20.73	7.90	
2025-01-15 23:55:00.82	20.74	7.91	
2025-01-15 23:55:01.03	20.74	7.93	
2025-01-15 23:55:01.23	20.75	7.94	
2025-01-15 23:55:01.43	20.75	7.96	
2025-01-15 23:55:01.64	20.76	7.98	
2025-01-15 23:55:01.84	20.76	7.99	
2025-01-15 23:55:02.04	20.77	8.01	
2025-01-15 23:55:02.25	20.78	8.02	
2025-01-15 23:55:02.45	20.78	8.04	
2025-01-15 23:55:02.65	20.79	8.06	
2025-01-15 23:55:02.85	20.79	8.07	
2025-01-15 23:55:03.06	20.80	8.09	
2025-01-15 23:55:03.26	20.80	8.10	
2025-01-15 23:55:03.46	20.81	8.12	
2025-01-15 23:55:03.67	20.82	8.14	
2025-01-15 23:55:03.87	20.82	8.15	
2025-01-15 23:55:04.07	20.83	8.17	
2025-01-15 23:55:04.27	20.83	8.18	
2025-01-15 23:55:04.48	20.84	8.20	
2025-01-15 23:55:04.68	20.85	8.22	
2025-01-15 23:55:04.88	20.85	8.23	
2025-01-15 23:55:05.09	20.86	8.25	
2025-01-15 23:55:05.29	20.86	8.26	
2025-01-15 23:55:05.49	20.87	8.28	
2025-01-15 23:55:05.70	20.87	8.30	
2025-01-15 23:55:05.90	20.88	8.31	
2025-01-15 23:55:06.10	20.89	8.33	
2025-01-15 23:55:06.30	20.89	8.34	
2025-01-15 23:55:06.51	20.90	8.36	
2025-01-15 23:55:06.71	20.90	8.38	
2025-01-15 23:55:06.91	20.91	8.39	
2025-01-15 23:55:07.12	20.92	8.41	
2025-01-15 23:55:07.32	20.92	8.43	
2025-01-15 23:55:07.52	20.93	8.44	
2025-01-15 23:55:07.73	20.93	8.46	
2025-01-15 23:55:07.93	20.94	8.48	
2025-01-15 23:55:08.13	20.95	8.49	
2025-01-15 23:55:08.33	20.95	8.51	
2025-01-15 23:55:08.54	20.96	8.52	
2025-01-15 23:55:08.74	20.96	8.54	
2025-01-15 23:55:08.94	20.97	8.56	
2025-01-15 23:55:09.15	20.98	8.57	
2025-01-15 23:55:09.35	20.98	8.59	
2025-01-15 23:55:09.55	20.99	8.61	
2025-01-15 23:55:09.76	20.99	8.62	
2025-01-15 23:55:09.96	21.00	8.64	
2025-01-15 23:55:10.16	21.01	8.65	
2025-01-15 23:55:10.36	21.01	8.67	
2025-01-15 23:55:10.57	21.02	8.69	
2025-01-15 23:55:10.77	21.02	8.70	
2025-01-15 23:55:10.97	21.03	8.72	
2025-01-15 23:55:11.18	21.04	8.74	
2025-01-15 23:55:11.38	21.04	8.75	
2025-01-15 23:55:11.58	21.05	8.77	
2025-01-15 23:55:11.79	21.05	8.79	
2025-01-15 23:55:11.99	21.06	8.80	
2025-01-15 23:55:12.19	21.07	8.82	
2025-01-15 23:55:12.39	21.07	8.84	
2025-01-15 23:55:12.60	21.08	8.85	
2025-01-15 23:55:12.80	21.08	8.87	
2025-01-15 23:55:13.00	21.09	8.88	
2025-01-15 23:55:13.21	21.10	8.90	
2025-01-15 23:55:13.41	21.10	8.92	
2025-01-15 23:55:13.61	21.11	8.93	
2025-01-15 23:55:13.82	21.11	8.95	
2025-01-15 23:55:14.02	21.12	8.97	
2025-01-15 23:55:14.22	21.13	8.98	
2025-01-15 23:55:14.42	21.13	9.00	
2025-01-15 23:55:14.63	21.14	9.02	
2025-01-15 23:55:14.83	21.14	9.03	
2025-01-15 23:55:15.03	21.15	9.05	
2025-01-15 23:55:15.24	21.16	9.07	
2025-01-15 23:55:15.44	21.16	9.08	
2025-01-15 23:55:15.64	21.17	9.10	
2025-01-15 23:55:15.85	21.18	9.12	
2025-01-15 23:55:16.05	21.18	9.13	
2025-01-15 23:55:16.25	21.19	9.15	
2025-01-15 23:55:16.45	21.19	9.17	
2025-01-15 23:55:16.66	21.20	9.18	
2025-01-15 23:55:16.86	21.21	9.20	
2025-01-15 23:55:17.06	21.21	9.22	
2025-01-15 23:55:17.27	21.22	9.23	
2025-01-15 23:55:17.47	21.22	9.25	
2025-01-15 23:55:17.67	21.23	9.27	
2025-01-15 23:55:17.88	21.24	9.29	
2025-01-15 23:55:18.08	21.24	9.30	
2025-01-15 23:55:18.28	21.25	9.32	
2025-01-15 23:55:18.48	21.26	9.34	
2025-01-15 23:55:18.69	21.26	9.35	
2025-01-15 23:55:18.89	21.27	9.37	
2025-01-15 23:55:19.09	21.27	9.39	
2025-01-15 23:55:19.30	21.28	9.40	
2025-01-15 23:55:19.50	21.29	9.42	
2025-01-15 23:55:19.70	21.29	9.44	
2025-01-15 23:55:19.90	21.30	9.45	
2025-01-15 23:55:20.11	21.31	9.47	
2025-01-15 23:55:20.31	21.31	9.49	
2025-01-15 23:55:20.51	21.32	9.50	
2025-01-15 23:55:20.72	21.32	9.52	
2025-01-15 23:55:20.92	21.33	9.54	
2025-01-15 23:55:21.12	21.34	9.55	
2025-01-15 23:55:21.33	21.34	9.57	
2025-01-15 23:55:21.53	21.35	9.59	
2025-01-15 23:55:21.73	21.36	9.61	
2025-01-15 23:55:21.93	21.36	9.62	
2025-01-15 23:55:22.14	21.37	9.64	
2025-01-15 23:55:22.34	21.38	9.66	
2025-01-15 23:55:22.54	21.38	9.67	
2025-01-15 23:55:22.75	21.39	9.69	
2025-01-15 23:55:22.95	21.39	9.71	
2025-01-15 23:55:23.15	21.40	9.73	
2025-01-15 23:55:23.36	21.41	9.74	
2025-01-15 23:55:23.56	21.41	9.76	
2025-01-15 23:55:23.76	21.42	9.78	
2025-01-15 23:55:23.96	21.43	9.79	
2025-01-15 23:55:24.17	21.43	9.81	
2025-01-15 23:55:24.37	21.44	9.83	
2025-01-15 23:55:24.57	21.45	9.85	
2025-01-15 23:55:24.78	21.45	9.86	
2025-01-15 23:55:24.98	21.46	9.88	
2025-01-15 23:55:25.18	21.46	9.90	
2025-01-15 23:55:25.39	21.47	9.91	
2025-01-15 23:55:25.59	21.48	9.93	
2025-01-15 23:55:25.79	21.48	9.95	
2025-01-15 23:55:25.99	21.49	9.97	
2025-01-15 23:55:26.20	21.50	9.98	
2025-01-15 23:55:26.40	21.50	10.00	
2025-01-15 23:55:26.60	21.51	10.02	
2025-01-15 23:55:26.81	21.52	10.04	
2025-01-15 23:55:27.01	21.52	10.05	
2025-01-15 23:55:27.21	21.53	10.07	
2025-01-15 23:55:27.42	21.54	10.09	
2025-01-15 23:55:27.62	21.54	10.10	
2025-01-15 23:55:27.82	21.55	10.12	
2025-01-15 23:55:28.02	21.56	10.14	
2025-01-15 23:55:28.23	21.56	10.16	
2025-01-15 23:55:28.43	21.57	10.17	
2025-01-15 23:55:28.63	21.57	10.19	
2025-01-15 23:55:28.84	21.58	10.21	
2025-01-15 23:55:29.04	21.59	10.23	
2025-01-15 23:55:29.24	21.59	10.24	
2025-01-15 23:55:29.45	21.60	10.26	
2025-01-15 23:55:29.65	21.61	10.28	
2025-01-15 23:55:29.85	21.61	10.30	
2025-01-15 23:55:30.05	21.62	10.31	
2025-01-15 23:55:30.26	21.63	10.33	
2025-01-15 23:55:30.46	21.63	10.35	
2025-01-15 23:55:30.66	21.64	10.37	
2025-01-15 23:55:30.87	21.65	10.38	
2025-01-15 23:55:31.07	21.65	10.40	
2025-01-15 23:55:31.27	21.66	10.42	
2025-01-15 23:55:31.48	21.67	10.44	
2025-01-15 23:55:31.68	21.67	10.45	
2025-01-15 23:55:31.88	21.68	10.47	
2025-01-15 23:55:32.08	21.69	10.49	
2025-01-15 23:55:32.29	21.69	10.51	
2025-01-15 23:55:32.49	21.70	10.52	
2025-01-15 23:55:32.69	21.71	10.54	
2025-01-15 23:55:32.90	21.71	10.56	
2025-01-15 23:55:33.10	21.72	10.58	
2025-01-15 23:55:33.30	21.73	10.59	
2025-01-15 23:55:33.50	21.73	10.61	
2025-01-15 23:55:33.71	21.74	10.63	
2025-01-15 23:55:33.91	21.75	10.65	
2025-01-15 23:55:34.11	21.75	10.67	
2025-01-15 23:55:34.32	21.76	10.68	
2025-01-15 23:55:34.52	21.77	10.70	
2025-01-15 23:55:34.72	21.77	10.72	
2025-01-15 23:55:34.93	21.78	10.74	
2025-01-15 23:55:35.13	21.79	10.75	
2025-01-15 23:55:35.33	21.79	10.77	
2025-01-15 23:55:35.53	21.80	10.79	
2025-01-15 23:55:35.74	21.81	10.81	
2025-01-15 23:55:35.94	21.82	10.83	
2025-01-15 23:55:36.14	21.82	10.84	
2025-01-15 23:55:36.35	21.83	10.86	
2025-01-15 23:55:36.55	21.84	10.88	
2025-01-15 23:55:36.75	21.84	10.90	
2025-01-15 23:55:36.96	21.85	10.92	
2025-01-15 23:55:37.16	21.86	10.93	
2025-01-15 23:55:37.36	21.86	10.95	
2025-01-15 23:55:37.56	21.87	10.97	
2025-01-15 23:55:37.77	21.88	10.99	
2025-01-15 23:55:37.97	21.88	11.01	
2025-01-15 23:55:38.17	21.89	11.02	
2025-01-15 23:55:38.38	21.90	11.04	
2025-01-15 23:55:38.58	21.90	11.06	
2025-01-15 23:55:38.78	21.91	11.08	
2025-01-15 23:55:38.99	21.92	11.10	
2025-01-15 23:55:39.19	21.93	11.11	
2025-01-15 23:55:39.39	21.93	11.13	
2025-01-15 23:55:39.59	21.94	11.15	
2025-01-15 23:55:39.80	21.95	11.17	
2025-01-15 23:55:40.00	21.95	11.19	
2025-01-15 23:55:40.20	21.96	11.20	
2025-01-15 23:55:40.41	21.97	11.22	
2025-01-15 23:55:40.61	21.97	11.24	
2025-01-15 23:55:40.81	21.98	11.26	
2025-01-15 23:55:41.02	21.99	11.28	
2025-01-15 23:55:41.22	21.99	11.29	
2025-01-15 23:55:41.42	22.00	11.31	
2025-01-15 23:55:41.62	22.01	11.33	
2025-01-15 23:55:41.83	22.02	11.35	
2025-01-15 23:55:42.03	22.02	11.37	
2025-01-15 23:55:42.23	22.03	11.39	
2025-01-15 23:55:42.44	22.04	11.40	
2025-01-15 23:55:42.64	22.04	11.42	
2025-01-15 23:55:42.84	22.05	11.44	
2025-01-15 23:55:43.05	22.06	11.46	
2025-01-15 23:55:43.25	22.06	11.48	
2025-01-15 23:55:43.45	22.07	11.50	
2025-01-15 23:55:43.65	22.08	11.51	
2025-01-15 23:55:43.86	22.09	11.53	
2025-01-15 23:55:44.06	22.09	11.55	
2025-01-15 23:55:44.26	22.10	11.57	
2025-01-15 23:55:44.47	22.11	11.59	
2025-01-15 23:55:44.67	22.11	11.61	
2025-01-15 23:55:44.87	22.12	11.62	
2025-01-15 23:55:45.08	22.13	11.64	
2025-01-15 23:55:45.28	22.14	11.66	
2025-01-15 23:55:45.48	22.14	11.68	
2025-01-15 23:55:45.68	22.15	11.70	
2025-01-15 23:55:45.89	22.16	11.72	
2025-01-15 23:55:46.09	22.16	11.74	
2025-01-15 23:55:46.29	22.17	11.75	
2025-01-15 23:55:46.50	22.18	11.77	
2025-01-15 23:55:46.70	22.19	11.79	
2025-01-15 23:55:46.90	22.19	11.81	
2025-01-15 23:55:47.11	22.20	11.83	
2025-01-15 23:55:47.31	22.21	11.85	
2025-01-15 23:55:47.51	22.22	11.86	
2025-01-15 23:55:47.71	22.22	11.88	
2025-01-15 23:55:47.92	22.23	11.90	
2025-01-15 23:55:48.12	22.24	11.92	
2025-01-15 23:55:48.32	22.24	11.94	
2025-01-15 23:55:48.53	22.25	11.96	
2025-01-15 23:55:48.73	22.26	11.98	
2025-01-15 23:55:48.93	22.27	12.00	
2025-01-15 23:55:49.13	22.27	12.01	
2025-01-15 23:55:49.34	22.28	12.03	
2025-01-15 23:55:49.54	22.29	12.05	
2025-01-15 23:55:49.74	22.30	12.07	
2025-01-15 23:55:49.95	22.30	12.09	
2025-01-15 23:55:50.15	22.31	12.11	
2025-01-15 23:55:50.35	22.32	12.13	
2025-01-15 23:55:50.56	22.32	12.15	
2025-01-15 23:55:50.76	22.33	12.16	
2025-01-15 23:55:50.96	22.34	12.18	
2025-01-15 23:55:51.16	22.35	12.20	
2025-01-15 23:55:51.37	22.35	12.22	
2025-01-15 23:55:51.57	22.36	12.24	
2025-01-15 23:55:51.77	22.37	12.26	
2025-01-15 23:55:51.98	22.38	12.28	
2025-01-15 23:55:52.18	22.38	12.30	
2025-01-15 23:55:52.38	22.39	12.32	
2025-01-15 23:55:52.59	22.40	12.34	
2025-01-15 23:55:52.79	22.41	12.35	
2025-01-15 23:55:52.99	22.41	12.37	
2025-01-15 23:55:53.19	22.42	12.39	
2025-01-15 23:55:53.40	22.43	12.41	
2025-01-15 23:55:53.60	22.44	12.43	
2025-01-15 23:55:53.80	22.44	12.45	
2025-01-15 23:55:54.01	22.45	12.47	
2025-01-15 23:55:54.21	22.46	12.49	
2025-01-15 23:55:54.41	22.47	12.51	
2025-01-15 23:55:54.62	22.47	12.53	
2025-01-15 23:55:54.82	22.48	12.54	
2025-01-15 23:55:55.02	22.49	12.56	
2025-01-15 23:55:55.22	22.50	12.58	
2025-01-15 23:55:55.43	22.50	12.60	
2025-01-15 23:55:55.63	22.51	12.62	
2025-01-15 23:55:55.83	22.52	12.64	
2025-01-15 23:55:56.04	22.53	12.66	
2025-01-15 23:55:56.24	22.53	12.68	
2025-01-15 23:55:56.44	22.54	12.70	
2025-01-15 23:55:56.65	22.55	12.72	
2025-01-15 23:55:56.85	22.56	12.74	
2025-01-15 23:55:57.05	22.56	12.76	
2025-01-15 23:55:57.25	22.57	12.77	
2025-01-15 23:55:57.46	22.58	12.79	
2025-01-15 23:55:57.66	22.59	12.81	
2025-01-15 23:55:57.86	22.59	12.83	
2025-01-15 23:55:58.07	22.60	12.85	
2025-01-15 23:55:58.27	22.61	12.87	
2025-01-15 23:55:58.47	22.62	12.89	
2025-01-15 23:55:58.68	22.63	12.91	
2025-01-15 23:55:58.88	22.63	12.93	
2025-01-15 23:55:59.08	22.64	12.95	
2025-01-15 23:55:59.28	22.65	12.97	
2025-01-15 23:55:59.49	22.66	12.99	
2025-01-15 23:55:59.69	22.66	13.01	
2025-01-15 23:55:59.89	22.67	13.03	
2025-01-15 23:56:00.10	22.68	13.05	
2025-01-15 23:56:00.30	22.69	13.07	
2025-01-15 23:56:00.50	22.70	13.09	
2025-01-15 23:56:00.71	22.70	13.11	
2025-01-15 23:56:00.91	22.71	13.12	
2025-01-15 23:56:01.11	22.72	13.14	
2025-01-15 23:56:01.31	22.73	13.16	
2025-01-15 23:56:01.52	22.73	13.18	
2025-01-15 23:56:01.72	22.74	13.20	
2025-01-15 23:56:01.92	22.75	13.22	
2025-01-15 23:56:02.13	22.76	13.24	
2025-01-15 23:56:02.33	22.77	13.26	
2025-01-15 23:56:02.53	22.77	13.28	
2025-01-15 23:56:02.74	22.78	13.30	
2025-01-15 23:56:02.94	22.79	13.32	
2025-01-15 23:56:03.14	22.80	13.34	
2025-01-15 23:56:03.34	22.81	13.36	
2025-01-15 23:56:03.55	22.81	13.38	
2025-01-15 23:56:03.75	22.82	13.40	
2025-01-15 23:56:03.95	22.83	13.42	
2025-01-15 23:56:04.16	22.84	13.44	
2025-01-15 23:56:04.36	22.84	13.46	
2025-01-15 23:56:04.56	22.85	13.48	
2025-01-15 23:56:04.76	22.86	13.50	
2025-01-15 23:56:04.97	22.87	13.52	
2025-01-15 23:56:05.17	22.88	13.54	
2025-01-15 23:56:05.37	22.88	13.56	
2025-01-15 23:56:05.58	22.89	13.58	
2025-01-15 23:56:05.78	22.90	13.60	
2025-01-15 23:56:05.98	22.91	13.62	
2025-01-15 23:56:06.19	22.92	13.64	
2025-01-15 23:56:06.39	22.92	13.66	
2025-01-15 23:56:06.59	22.93	13.68	
2025-01-15 23:56:06.79	22.94	13.70	
2025-01-15 23:56:07.00	22.95	13.72	
2025-01-15 23:56:07.20	22.96	13.74	
2025-01-15 23:56:07.40	22.97	13.76	
2025-01-15 23:56:07.61	22.97	13.78	
2025-01-15 23:56:07.81	22.98	13.80	
2025-01-15 23:56:08.01	22.99	13.82	
2025-01-15 23:56:08.22	23.00	13.84	
2025-01-15 23:56:08.42	23.01	13.86	
2025-01-15 23:56:08.62	23.01	13.88	
2025-01-15 23:56:08.82	23.02	13.90	
2025-01-15 23:56:09.03	23.03	13.92	
2025-01-15 23:56:09.23	23.04	13.94	
2025-01-15 23:56:09.43	23.05	13.96	
2025-01-15 23:56:09.64	23.06	13.98	
2025-01-15 23:56:09.84	23.06	14.00	
2025-01-15 23:56:10.04	23.07	14.02	
2025-01-15 23:56:10.25	23.08	14.04	
2025-01-15 23:56:10.45	23.09	14.06	
2025-01-15 23:56:10.65	23.10	14.08	
2025-01-15 23:56:10.85	23.10	14.10	
2025-01-15 23:56:11.06	23.11	14.12	
2025-01-15 23:56:11.26	23.12	14.14	
2025-01-15 23:56:11.46	23.13	14.16	
2025-01-15 23:56:11.67	23.14	14.19	
2025-01-15 23:56:11.87	23.15	14.21	
2025-01-15 23:56:12.07	23.15	14.23	
2025-01-15 23:56:12.28	23.16	14.25	
2025-01-15 23:56:12.48	23.17	14.27	
2025-01-15 23:56:12.68	23.18	14.29	
2025-01-15 23:56:12.88	23.19	14.31	
2025-01-15 23:56:13.09	23.20	14.33	
2025-01-15 23:56:13.29	23.20	14.35	
2025-01-15 23:56:13.49	23.21	14.37	
2025-01-15 23:56:13.70	23.22	14.39	
2025-01-15 23:56:13.90	23.23	14.41	
2025-01-15 23:56:14.10	23.24	14.43	
2025-01-15 23:56:14.31	23.25	14.45	
2025-01-15 23:56:14.51	23.26	14.47	
2025-01-15 23:56:14.71	23.26	14.49	
2025-01-15 23:56:14.91	23.27	14.51	
2025-01-15 23:56:15.12	23.28	14.53	
2025-01-15 23:56:15.32	23.29	14.56	
2025-01-15 23:56:15.52	23.30	14.58	
2025-01-15 23:56:15.73	23.31	14.60	
2025-01-15 23:56:15.93	23.31	14.62	
2025-01-15 23:56:16.13	23.32	14.64	
2025-01-15 23:56:16.34	23.33	14.66	
2025-01-15 23:56:16.54	23.34	14.68	
2025-01-15 23:56:16.74	23.35	14.70	
2025-01-15 23:56:16.94	23.36	14.72	
2025-01-15 23:56:17.15	23.37	14.74	
2025-01-15 23:56:17.35	23.37	14.76	
2025-01-15 23:56:17.55	23.38	14.78	
2025-01-15 23:56:17.76	23.39	14.81	
2025-01-15 23:56:17.96	23.40	14.83	
2025-01-15 23:56:18.16	23.41	14.85	
2025-01-15 23:56:18.36	23.42	14.87	
2025-01-15 23:56:18.57	23.43	14.89	
2025-01-15 23:56:18.77	23.44	14.91	
2025-01-15 23:56:18.97	23.44	14.93	
2025-01-15 23:56:19.18	23.45	14.95	
2025-01-15 23:56:19.38	23.46	14.97	
2025-01-15 23:56:19.58	23.47	14.99	
2025-01-15 23:56:19.79	23.48	15.02	
2025-01-15 23:56:19.99	23.49	15.04	
2025-01-15 23:56:20.19	23.50	15.06	
2025-01-15 23:56:20.39	23.50	15.08	
2025-01-15 23:56:20.60	23.51	15.10	
2025-01-15 23:56:20.80	23.52	15.12	
2025-01-15 23:56:21.00	23.53	15.14	
2025-01-15 23:56:21.21	23.54	15.16	
2025-01-15 23:56:21.41	23.55	15.19	
2025-01-15 23:56:21.61	23.56	15.21	
2025-01-15 23:56:21.82	23.57	15.23	
2025-01-15 23:56:22.02	23.58	15.25	
2025-01-15 23:56:22.22	23.58	15.27	
2025-01-15 23:56:22.42	23.59	15.29	
2025-01-15 23:56:22.63	23.60	15.31	
2025-01-15 23:56:22.83	23.61	15.33	
2025-01-15 23:56:23.03	23.62	15.36	
2025-01-15 23:56:23.24	23.63	15.38	
2025-01-15 23:56:23.44	23.64	15.40	
2025-01-15 23:56:23.64	23.65	15.42	
2025-01-15 23:56:23.85	23.66	15.44	
2025-01-15 23:56:24.05	23.66	15.46	
2025-01-15 23:56:24.25	23.67	15.48	
2025-01-15 23:56:24.45	23.68	15.51	
2025-01-15 23:56:24.66	23.69	15.53	
2025-01-15 23:56:24.86	23.70	15.55	
2025-01-15 23:56:25.06	23.71	15.57	
2025-01-15 23:56:25.27	23.72	15.59	
2025-01-15 23:56:25.47	23.73	15.61	
2025-01-15 23:56:25.67	23.74	15.64	
2025-01-15 23:56:25.88	23.75	15.66	
2025-01-15 23:56:26.08	23.76	15.68	
2025-01-15 23:56:26.28	23.76	15.70	
2025-01-15 23:56:26.48	23.77	15.72	
2025-01-15 23:56:26.69	23.78	15.74	
2025-01-15 23:56:26.89	23.79	15.77	
2025-01-15 23:56:27.09	23.80	15.79	
2025-01-15 23:56:27.30	23.81	15.81	
2025-01-15 23:56:27.50	23.82	15.83	
2025-01-15 23:56:27.70	23.83	15.85	
2025-01-15 23:56:27.91	23.84	15.88	
2025-01-15 23:56:28.11	23.85	15.90	
2025-01-15 23:56:28.31	23.86	15.92	
2025-01-15 23:56:28.51	23.86	15.94	
2025-01-15 23:56:28.72	23.87	15.96	
2025-01-15 23:56:28.92	23.88	15.98	
2025-01-15 23:56:29.12	23.89	16.01	
2025-01-15 23:56:29.33	23.90	16.03	
2025-01-15 23:56:29.53	23.91	16.05	
2025-01-15 23:56:29.73	23.92	16.07	
2025-01-15 23:56:29.94	23.93	16.10	
2025-01-15 23:56:30.14	23.94	16.12	
2025-01-15 23:56:30.34	23.95	16.14	
2025-01-15 23:56:30.54	23.96	16.16	
2025-01-15 23:56:30.75	23.97	16.18	
2025-01-15 23:56:30.95	23.98	16.21	
2025-01-15 23:56:31.15	23.99	16.23	
2025-01-15 23:56:31.36	24.00	16.25	
2025-01-15 23:56:31.56	24.01	16.27	
2025-01-15 23:56:31.76	24.01	16.29	
2025-01-15 23:56:31.97	24.02	16.32	
2025-01-15 23:56:32.17	24.03	16.34	
2025-01-15 23:56:32.37	24.04	16.36	
2025-01-15 23:56:32.57	24.05	16.38	
2025-01-15 23:56:32.78	24.06	16.41	
2025-01-15 23:56:32.98	24.07	16.43	
2025-01-15 23:56:33.18	24.08	16.45	
2025-01-15 23:56:33.39	24.09	16.47	
2025-01-15 23:56:33.59	24.10	16.49	
2025-01-15 23:56:33.79	24.11	16.52	
2025-01-15 23:56:33.99	24.12	16.54	
2025-01-15 23:56:34.20	24.13	16.56	
2025-01-15 23:56:34.40	24.14	16.58	
2025-01-15 23:56:34.60	24.15	16.61	
2025-01-15 23:56:34.81	24.16	16.63	
2025-01-15 23:56:35.01	24.17	16.65	
2025-01-15 23:56:35.21	24.18	16.67	
2025-01-15 23:56:35.42	24.19	16.70	
2025-01-15 23:56:35.62	24.20	16.72	
2025-01-15 23:56:35.82	24.21	16.74	
2025-01-15 23:56:36.02	24.22	16.76	
2025-01-15 23:56:36.23	24.23	16.79	
2025-01-15 23:56:36.43	24.23	16.81	
2025-01-15 23:56:36.63	24.24	16.83	
2025-01-15 23:56:36.84	24.25	16.86	
2025-01-15 23:56:37.04	24.26	16.88	
2025-01-15 23:56:37.24	24.27	16.90	
2025-01-15 23:56:37.45	24.28	16.92	
2025-01-15 23:56:37.65	24.29	16.95	
2025-01-15 23:56:37.85	24.30	16.97	
2025-01-15 23:56:38.05	24.31	16.99	
2025-01-15 23:56:38.26	24.32	17.02	
2025-01-15 23:56:38.46	24.33	17.04	
2025-01-15 23:56:38.66	24.34	17.06	
2025-01-15 23:56:38.87	24.35	17.08	
2025-01-15 23:56:39.07	24.36	17.11	
2025-01-15 23:56:39.27	24.37	17.13	
2025-01-15 23:56:39.48	24.38	17.15	
2025-01-15 23:56:39.68	24.39	17.18	
2025-01-15 23:56:39.88	24.40	17.20	
2025-01-15 23:56:40.08	24.41	17.22	
2025-01-15 23:56:40.29	24.42	17.25	
2025-01-15 23:56:40.49	24.43	17.27	
2025-01-15 23:56:40.69	24.44	17.29	
2025-01-15 23:56:40.90	24.45	17.32	
2025-01-15 23:56:41.10	24.46	17.34	
2025-01-15 23:56:41.30	24.47	17.36	
2025-01-15 23:56:41.51	24.48	17.38	
2025-01-15 23:56:41.71	24.49	17.41	
2025-01-15 23:56:41.91	24.50	17.43	
2025-01-15 23:56:42.11	24.51	17.45	
2025-01-15 23:56:42.32	24.52	17.48	
2025-01-15 23:56:42.52	24.53	17.50	
2025-01-15 23:56:42.72	24.54	17.52	
2025-01-15 23:56:42.93	24.55	17.55	
2025-01-15 23:56:43.13	24.56	17.57	
2025-01-15 23:56:43.33	24.57	17.59	
2025-01-15 23:56:43.54	24.58	17.62	
2025-01-15 23:56:43.74	24.59	17.64	
2025-01-15 23:56:43.94	24.60	17.66	
2025-01-15 23:56:44.14	24.61	17.69	
2025-01-15 23:56:44.35	24.63	17.71	
2025-01-15 23:56:44.55	24.64	17.73	
2025-01-15 23:56:44.75	24.65	17.76	
2025-01-15 23:56:44.96	24.66	17.78	
2025-01-15 23:56:45.16	24.67	17.81	
2025-01-15 23:56:45.36	24.68	17.83	
2025-01-15 23:56:45.56	24.69	17.85	
2025-01-15 23:56:45.77	24.70	17.88	
2025-01-15 23:56:45.97	24.71	17.90	
2025-01-15 23:56:46.17	24.72	17.92	
2025-01-15 23:56:46.38	24.73	17.95	
2025-01-15 23:56:46.58	24.74	17.97	
2025-01-15 23:56:46.78	24.75	17.99	
2025-01-15 23:56:46.99	24.76	18.02	
2025-01-15 23:56:47.19	24.77	18.04	
2025-01-15 23:56:47.39	24.78	18.07	
2025-01-15 23:56:47.59	24.79	18.09	
2025-01-15 23:56:47.80	24.80	18.11	
2025-01-15 23:56:48.00	24.81	18.14	
2025-01-15 23:56:48.20	24.82	18.16	
2025-01-15 23:56:48.41	24.83	18.19	
2025-01-15 23:56:48.61	24.84	18.21	
2025-01-15 23:56:48.81	24.86	18.23	
2025-01-15 23:56:49.02	24.87	18.26	
2025-01-15 23:56:49.22	24.88	18.28	
2025-01-15 23:56:49.42	24.89	18.31	
2025-01-15 23:56:49.62	24.90	18.33	
2025-01-15 23:56:49.83	24.91	18.35	
2025-01-15 23:56:50.03	24.92	18.38	
2025-01-15 23:56:50.23	24.93	18.40	
2025-01-15 23:56:50.44	24.94	18.43	
2025-01-15 23:56:50.64	24.95	18.45	
2025-01-15 23:56:50.84	24.96	18.47	
2025-01-15 23:56:51.05	24.97	18.50	
2025-01-15 23:56:51.25	24.98	18.52	
2025-01-15 23:56:51.45	24.99	18.55	
2025-01-15 23:56:51.65	25.01	18.57	
2025-01-15 23:56:51.86	25.02	18.60	
2025-01-15 23:56:52.06	25.03	18.62	
2025-01-15 23:56:52.26	25.04	18.64	
2025-01-15 23:56:52.47	25.05	18.67	
2025-01-15 23:56:52.67	25.06	18.69	
2025-01-15 23:56:52.87	25.07	18.72	
2025-01-15 23:56:53.08	25.08	18.74	
2025-01-15 23:56:53.28	25.09	18.77	
2025-01-15 23:56:53.48	25.10	18.79	
2025-01-15 23:56:53.68	25.11	18.82	
2025-01-15 23:56:53.89	25.13	18.84	
2025-01-15 23:56:54.09	25.14	18.87	
2025-01-15 23:56:54.29	25.15	18.89	
2025-01-15 23:56:54.50	25.16	18.92	
2025-01-15 23:56:54.70	25.17	18.94	
2025-01-15 23:56:54.90	25.18	18.96	
2025-01-15 23:56:55.11	25.19	18.99	
2025-01-15 23:56:55.31	25.20	19.01	
2025-01-15 23:56:55.51	25.21	19.04	
2025-01-15 23:56:55.71	25.22	19.06	
2025-01-15 23:56:55.92	25.24	19.09	
2025-01-15 23:56:56.12	25.25	19.11	
2025-01-15 23:56:56.32	25.26	19.14	
2025-01-15 23:56:56.53	25.27	19.16	
2025-01-15 23:56:56.73	25.28	19.19	
2025-01-15 23:56:56.93	25.29	19.21	
2025-01-15 23:56:57.14	25.30	19.24	
2025-01-15 23:56:57.34	25.32	19.26	
2025-01-15 23:56:57.54	25.33	19.29	
2025-01-15 23:56:57.74	25.34	19.31	
2025-01-15 23:56:57.95	25.35	19.34	
2025-01-15 23:56:58.15	25.36	19.36	
2025-01-15 23:56:58.35	25.37	19.39	
2025-01-15 23:56:58.56	25.38	19.41	
2025-01-15 23:56:58.76	25.39	19.44	
2025-01-15 23:56:58.96	25.41	19.46	
2025-01-15 23:56:59.17	25.42	19.49	
2025-01-15 23:56:59.37	25.43	19.51	
2025-01-15 23:56:59.57	25.44	19.54	
2025-01-15 23:56:59.77	25.45	19.56	
2025-01-15 23:56:59.98	25.46	19.59	
2025-01-15 23:57:00.18	25.47	19.61	
2025-01-15 23:57:00.38	25.49	19.64	
2025-01-15 23:57:00.59	25.50	19.67	
2025-01-15 23:57:00.79	25.51	19.69	
2025-01-15 23:57:00.99	25.52	19.72	
2025-01-15 23:57:01.20	25.53	19.74	
2025-01-15 23:57:01.40	25.54	19.77	
2025-01-15 23:57:01.60	25.56	19.79	
2025-01-15 23:57:01.80	25.57	19.82	
2025-01-15 23:57:02.01	25.58	19.84	
2025-01-15 23:57:02.21	25.59	19.87	
2025-01-15 23:57:02.41	25.60	19.89	
2025-01-15 23:57:02.62	25.61	19.92	
2025-01-15 23:57:02.82	25.63	19.95	
2025-01-15 23:57:03.02	25.64	19.97	
2025-01-15 23:57:03.22	25.65	20.00	
2025-01-15 23:57:03.43	25.66	20.02	
2025-01-15 23:57:03.63	25.67	20.05	
2025-01-15 23:57:03.83	25.69	20.07	
2025-01-15 23:57:04.04	25.70	20.10	
2025-01-15 23:57:04.24	25.71	20.13	
2025-01-15 23:57:04.44	25.72	20.15	
2025-01-15 23:57:04.65	25.73	20.18	
2025-01-15 23:57:04.85	25.74	20.20	
2025-01-15 23:57:05.05	25.76	20.23	
2025-01-15 23:57:05.25	25.77	20.26	
2025-01-15 23:57:05.46	25.78	20.28	
2025-01-15 23:57:05.66	25.79	20.31	
2025-01-15 23:57:05.86	25.80	20.33	
2025-01-15 23:57:06.07	25.82	20.36	
2025-01-15 23:57:06.27	25.83	20.39	
2025-01-15 23:57:06.47	25.84	20.41	
2025-01-15 23:57:06.68	25.85	20.44	
2025-01-15 23:57:06.88	25.87	20.46	
2025-01-15 23:57:07.08	25.88	20.49	
2025-01-15 23:57:07.28	25.89	20.52	
2025-01-15 23:57:07.49	25.90	20.54	
2025-01-15 23:57:07.69	25.91	20.57	
2025-01-15 23:57:07.89	25.93	20.60	
2025-01-15 23:57:08.10	25.94	20.62	
2025-01-15 23:57:08.30	25.95	20.65	
2025-01-15 23:57:08.50	25.96	20.67	
2025-01-15 23:57:08.71	25.98	20.70	
2025-01-15 23:57:08.91	25.99	20.73	
2025-01-15 23:57:09.11	26.00	20.75	
2025-01-15 23:57:09.31	26.01	20.78	
2025-01-15 23:57:09.52	26.03	20.81	
2025-01-15 23:57:09.72	26.04	20.83	
2025-01-15 23:57:09.92	26.05	20.86	
2025-01-15 23:57:10.13	26.06	20.89	
2025-01-15 23:57:10.33	26.07	20.91	
2025-01-15 23:57:10.53	26.09	20.94	
2025-01-15 23:57:10.74	26.10	20.97	
2025-01-15 23:57:10.94	26.11	20.99	
2025-01-15 23:57:11.14	26.12	21.02	
2025-01-15 23:57:11.34	26.14	21.05	
2025-01-15 23:57:11.55	26.15	21.07	
2025-01-15 23:57:11.75	26.16	21.10	
2025-01-15 23:57:11.95	26.17	21.13	
2025-01-15 23:57:12.16	26.19	21.15	
2025-01-15 23:57:12.36	26.20	21.18	
2025-01-15 23:57:12.56	26.21	21.21	
2025-01-15 23:57:12.77	26.23	21.24	
2025-01-15 23:57:12.97	26.24	21.26	
2025-01-15 23:57:13.17	26.25	21.29	
2025-01-15 23:57:13.37	26.26	21.32	
2025-01-15 23:57:13.58	26.28	21.34	
2025-01-15 23:57:13.78	26.29	21.37	
2025-01-15 23:57:13.98	26.30	21.40	
2025-01-15 23:57:14.19	26.32	21.42	
2025-01-15 23:57:14.39	26.33	21.45	
2025-01-15 23:57:14.59	26.34	21.48	
2025-01-15 23:57:14.80	26.35	21.51	
2025-01-15 23:57:15.00	26.37	21.53	
2025-01-15 23:57:15.20	26.38	21.56	
2025-01-15 23:57:15.40	26.39	21.59	
2025-01-15 23:57:15.61	26.41	21.62	
2025-01-15 23:57:15.81	26.42	21.64	
2025-01-15 23:57:16.01	26.43	21.67	
2025-01-15 23:57:16.22	26.45	21.70	
2025-01-15 23:57:16.42	26.46	21.72	
2025-01-15 23:57:16.62	26.47	21.75	
2025-01-15 23:57:16.82	26.48	21.78	
2025-01-15 23:57:17.03	26.50	21.81	
2025-01-15 23:57:17.23	26.51	21.83	
2025-01-15 23:57:17.43	26.52	21.86	
2025-01-15 23:57:17.64	26.54	21.89	
2025-01-15 23:57:17.84	26.55	21.92	
2025-01-15 23:57:18.04	26.56	21.95	
2025-01-15 23:57:18.25	26.58	21.97	
2025-01-15 23:57:18.45	26.59	22.00	
2025-01-15 23:57:18.65	26.60	22.03	
2025-01-15 23:57:18.85	26.62	22.06	
2025-01-15 23:57:19.06	26.63	22.08	
2025-01-15 23:57:19.26	26.64	22.11	
2025-01-15 23:57:19.46	26.66	22.14	
2025-01-15 23:57:19.67	26.67	22.17	
2025-01-15 23:57:19.87	26.68	22.20	
2025-01-15 23:57:20.07	26.70	22.22	
2025-01-15 23:57:20.28	26.71	22.25	
2025-01-15 23:57:20.48	26.72	22.28	
2025-01-15 23:57:20.68	26.74	22.31	
2025-01-15 23:57:20.88	26.75	22.34	
2025-01-15 23:57:21.09	26.77	22.36	
2025-01-15 23:57:21.29	26.78	22.39	
2025-01-15 23:57:21.49	26.79	22.42	
2025-01-15 23:57:21.70	26.81	22.45	
2025-01-15 23:57:21.90	26.82	22.48	
2025-01-15 23:57:22.10	26.83	22.50	
2025-01-15 23:57:22.31	26.85	22.53	
2025-01-15 23:57:22.51	26.86	22.56	
2025-01-15 23:57:22.71	26.88	22.59	
2025-01-15 23:57:22.91	26.89	22.62	
2025-01-15 23:57:23.12	26.90	22.65	
2025-01-15 23:57:23.32	26.92	22.68	
2025-01-15 23:57:23.52	26.93	22.70	
2025-01-15 23:57:23.73	26.94	22.73	
2025-01-15 23:57:23.93	26.96	22.76	
2025-01-15 23:57:24.13	26.97	22.79	
2025-01-15 23:57:24.34	26.99	22.82	
2025-01-15 23:57:24.54	27.00	22.85	
2025-01-15 23:57:24.74	27.01	22.88	
2025-01-15 23:57:24.94	27.03	22.90	
2025-01-15 23:57:25.15	27.04	22.93	
2025-01-15 23:57:25.35	27.06	22.96	
2025-01-15 23:57:25.55	27.07	22.99	
2025-01-15 23:57:25.76	27.09	23.02	
2025-01-15 23:57:25.96	27.10	23.05	
2025-01-15 23:57:26.16	27.11	23.08	
2025-01-15 23:57:26.37	27.13	23.11	
2025-01-15 23:57:26.57	27.14	23.14	
2025-01-15 23:57:26.77	27.16	23.16	
2025-01-15 23:57:26.97	27.17	23.19	
2025-01-15 23:57:27.18	27.18	23.22	
2025-01-15 23:57:27.38	27.20	23.25	
2025-01-15 23:57:27.58	27.21	23.28	
2025-01-15 23:57:27.79	27.23	23.31	
2025-01-15 23:57:27.99	27.24	23.34	
2025-01-15 23:57:28.19	27.26	23.37	
2025-01-15 23:57:28.39	27.27	23.40	
2025-01-15 23:57:28.60	27.29	23.43	
2025-01-15 23:57:28.80	27.30	23.45	
2025-01-15 23:57:29.00	27.31	23.48	
2025-01-15 23:57:29.21	27.33	23.51	
2025-01-15 23:57:29.41	27.34	23.54	
2025-01-15 23:57:29.61	27.36	23.57	
2025-01-15 23:57:29.82	27.37	23.60	
2025-01-15 23:57:30.02	27.39	23.63	
2025-01-15 23:57:30.22	27.40	23.66	
2025-01-15 23:57:30.43	27.42	23.69	
2025-01-15 23:57:30.63	27.43	23.72	
2025-01-15 23:57:30.83	27.45	23.75	
2025-01-15 23:57:31.03	27.46	23.78	
2025-01-15 23:57:31.24	27.48	23.81	
2025-01-15 23:57:31.44	27.49	23.84	
2025-01-15 23:57:31.64	27.51	23.87	
2025-01-15 23:57:31.85	27.52	23.90	
2025-01-15 23:57:32.05	27.54	23.93	
2025-01-15 23:57:32.25	27.55	23.96	
2025-01-15 23:57:32.45	27.57	23.99	
2025-01-15 23:57:32.66	27.58	24.02	
2025-01-15 23:57:32.86	27.60	24.05	
2025-01-15 23:57:33.06	27.61	24.08	
2025-01-15 23:57:33.27	27.63	24.11	
2025-01-15 23:57:33.47	27.64	24.14	
2025-01-15 23:57:33.67	27.66	24.17	
2025-01-15 23:57:33.88	27.67	24.20	
2025-01-15 23:57:34.08	27.69	24.23	
2025-01-15 23:57:34.28	27.70	24.26	
2025-01-15 23:57:34.48	27.72	24.29	
2025-01-15 23:57:34.69	27.73	24.32	
2025-01-15 23:57:34.89	27.75	24.35	
2025-01-15 23:57:35.09	27.76	24.38	
2025-01-15 23:57:35.30	27.78	24.41	
2025-01-15 23:57:35.50	27.79	24.44	
2025-01-15 23:57:35.70	27.81	24.47	
2025-01-15 23:57:35.91	27.83	24.50	
2025-01-15 23:57:36.11	27.84	24.53	
2025-01-15 23:57:36.31	27.86	24.56	
2025-01-15 23:57:36.51	27.87	24.59	
2025-01-15 23:57:36.72	27.89	24.62	
2025-01-15 23:57:36.92	27.90	24.65	
2025-01-15 23:57:37.12	27.92	24.68	
2025-01-15 23:57:37.33	27.93	24.71	
2025-01-15 23:57:37.53	27.95	24.74	
2025-01-15 23:57:37.73	27.97	24.78	
2025-01-15 23:57:37.94	27.98	24.81	
2025-01-15 23:57:38.14	28.00	24.84	
2025-01-15 23:57:38.34	28.01	24.87	
2025-01-15 23:57:38.54	28.03	24.90	
2025-01-15 23:57:38.75	28.04	24.93	
2025-01-15 23:57:38.95	28.06	24.96	
2025-01-15 23:57:39.15	28.08	24.99	
2025-01-15 23:57:39.36	28.09	25.02	
2025-01-15 23:57:39.56	28.11	25.05	
2025-01-15 23:57:39.76	28.12	25.08	
2025-01-15 23:57:39.97	28.14	25.12	
2025-01-15 23:57:40.17	28.16	25.15	
2025-01-15 23:57:40.37	28.17	25.18	
2025-01-15 23:57:40.57	28.19	25.21	
2025-01-15 23:57:40.78	28.21	25.24	
2025-01-15 23:57:40.98	28.22	25.27	
2025-01-15 23:57:41.18	28.24	25.30	
2025-01-15 23:57:41.39	28.25	25.33	
2025-01-15 23:57:41.59	28.27	25.37	
2025-01-15 23:57:41.79	28.29	25.40	
2025-01-15 23:57:42.00	28.30	25.43	
2025-01-15 23:57:42.20	28.32	25.46	
2025-01-15 23:57:42.40	28.34	25.49	
2025-01-15 23:57:42.60	28.35	25.52	
2025-01-15 23:57:42.81	28.37	25.56	
2025-01-15 23:57:43.01	28.38	25.59	
2025-01-15 23:57:43.21	28.40	25.62	
2025-01-15 23:57:43.42	28.42	25.65	
2025-01-15 23:57:43.62	28.43	25.68	
2025-01-15 23:57:43.82	28.45	25.71	
2025-01-15 23:57:44.03	28.47	25.75	
2025-01-15 23:57:44.23	28.48	25.78	
2025-01-15 23:57:44.43	28.50	25.81	
2025-01-15 23:57:44.63	28.52	25.84	
2025-01-15 23:57:44.84	28.54	25.87	
2025-01-15 23:57:45.04	28.55	25.90	
2025-01-15 23:57:45.24	28.57	25.94	
2025-01-15 23:57:45.45	28.59	25.97	
2025-01-15 23:57:45.65	28.60	26.00	
2025-01-15 23:57:45.85	28.62	26.03	
2025-01-15 23:57:46.05	28.64	26.06	
2025-01-15 23:57:46.26	28.65	26.10	
2025-01-15 23:57:46.46	28.67	26.13	
2025-01-15 23:57:46.66	28.69	26.16	
2025-01-15 23:57:46.87	28.70	26.19	
2025-01-15 23:57:47.07	28.72	26.23	
2025-01-15 23:57:47.27	28.74	26.26	
2025-01-15 23:57:47.48	28.76	26.29	
2025-01-15 23:57:47.68	28.77	26.32	
2025-01-15 23:57:47.88	28.79	26.36	
2025-01-15 23:57:48.08	28.81	26.39	
2025-01-15 23:57:48.29	28.83	26.42	
2025-01-15 23:57:48.49	28.84	26.45	
2025-01-15 23:57:48.69	28.86	26.49	
2025-01-15 23:57:48.90	28.88	26.52	
2025-01-15 23:57:49.10	28.90	26.55	
2025-01-15 23:57:49.30	28.91	26.58	
2025-01-15 23:57:49.51	28.93	26.62	
2025-01-15 23:57:49.71	28.95	26.65	
2025-01-15 23:57:49.91	28.97	26.68	
2025-01-15 23:57:50.11	28.98	26.72	
2025-01-15 23:57:50.32	29.00	26.75	
2025-01-15 23:57:50.52	29.02	26.78	
2025-01-15 23:57:50.72	29.04	26.81	
2025-01-15 23:57:50.93	29.05	26.85	
2025-01-15 23:57:51.13	29.07	26.88	
2025-01-15 23:57:51.33	29.09	26.91	
2025-01-15 23:57:51.54	29.11	26.95	
2025-01-15 23:57:51.74	29.13	26.98	
2025-01-15 23:57:51.94	29.14	27.01	
2025-01-15 23:57:52.14	29.16	27.05	
2025-01-15 23:57:52.35	29.18	27.08	
2025-01-15 23:57:52.55	29.20	27.11	
2025-01-15 23:57:52.75	29.22	27.15	
2025-01-15 23:57:52.96	29.23	27.18	
2025-01-15 23:57:53.16	29.25	27.21	
2025-01-15 23:57:53.36	29.27	27.25	
2025-01-15 23:57:53.57	29.29	27.28	
2025-01-15 23:57:53.77	29.31	27.31	
2025-01-15 23:57:53.97	29.33	27.35	
2025-01-15 23:57:54.17	29.34	27.38	
2025-01-15 23:57:54.38	29.36	27.42	
2025-01-15 23:57:54.58	29.38	27.45	
2025-01-15 23:57:54.78	29.40	27.48	
2025-01-15 23:57:54.99	29.42	27.52	
2025-01-15 23:57:55.19	29.44	27.55	
2025-01-15 23:57:55.39	29.45	27.58	
2025-01-15 23:57:55.60	29.47	27.62	
2025-01-15 23:57:55.80	29.49	27.65	
2025-01-15 23:57:56.00	29.51	27.69	
2025-01-15 23:57:56.20	29.53	27.72	
2025-01-15 23:57:56.41	29.55	27.76	
2025-01-15 23:57:56.61	29.57	27.79	
2025-01-15 23:57:56.81	29.59	27.82	
2025-01-15 23:57:57.02	29.61	27.86	
2025-01-15 23:57:57.22	29.62	27.89	
2025-01-15 23:57:57.42	29.64	27.93	
2025-01-15 23:57:57.63	29.66	27.96	
2025-01-15 23:57:57.83	29.68	27.99	
2025-01-15 23:57:58.03	29.70	28.03	
2025-01-15 23:57:58.23	29.72	28.06	
2025-01-15 23:57:58.44	29.74	28.10	
2025-01-15 23:57:58.64	29.76	28.13	
2025-01-15 23:57:58.84	29.78	28.17	
2025-01-15 23:57:59.05	29.80	28.20	
2025-01-15 23:57:59.25	29.82	28.24	
2025-01-15 23:57:59.45	29.83	28.27	
2025-01-15 23:57:59.66	29.85	28.31	
2025-01-15 23:57:59.86	29.87	28.34	
2025-01-15 23:58:00.06	29.89	28.37	
2025-01-15 23:58:00.26	29.91	28.41	
2025-01-15 23:58:00.47	29.93	28.45	
2025-01-15 23:58:00.67	29.95	28.48	
2025-01-15 23:58:00.87	29.97	28.51	
2025-01-15 23:58:01.08	29.99	28.55	
2025-01-15 23:58:01.28	30.01	28.58	
2025-01-15 23:58:01.48	30.03	28.62	
2025-01-15 23:58:01.68	30.05	28.65	
2025-01-15 23:58:01.89	30.07	28.69	
2025-01-15 23:58:02.09	30.09	28.73	
2025-01-15 23:58:02.29	30.11	28.76	
2025-01-15 23:58:02.50	30.13	28.80	
2025-01-15 23:58:02.70	30.15	28.83	
2025-01-15 23:58:02.90	30.17	28.87	
2025-01-15 23:58:03.11	30.19	28.90	
2025-01-15 23:58:03.31	30.21	28.94	
2025-01-15 23:58:03.51	30.23	28.97	
2025-01-15 23:58:03.71	30.25	29.01	
2025-01-15 23:58:03.92	30.27	29.04	
2025-01-15 23:58:04.12	30.29	29.08	
2025-01-15 23:58:04.32	30.31	29.11	
2025-01-15 23:58:04.53	30.33	29.15	
2025-01-15 23:58:04.73	30.35	29.19	
2025-01-15 23:58:04.93	30.37	29.22	
2025-01-15 23:58:05.14	30.39	29.26	
2025-01-15 23:58:05.34	30.41	29.29	
2025-01-15 23:58:05.54	30.44	29.33	
2025-01-15 23:58:05.74	30.46	29.37	
2025-01-15 23:58:05.95	30.48	29.40	
2025-01-15 23:58:06.15	30.50	29.44	
2025-01-15 23:58:06.35	30.52	29.47	
2025-01-15 23:58:06.56	30.54	29.51	
2025-01-15 23:58:06.76	30.56	29.55	
2025-01-15 23:58:06.96	30.58	29.58	
2025-01-15 23:58:07.17	30.60	29.62	
2025-01-15 23:58:07.37	30.62	29.66	
2025-01-15 23:58:07.57	30.64	29.69	
2025-01-15 23:58:07.77	30.66	29.73	
2025-01-15 23:58:07.98	30.69	29.77	
2025-01-15 23:58:08.18	30.71	29.80	
2025-01-15 23:58:08.38	30.73	29.84	
2025-01-15 23:58:08.59	30.75	29.87	
2025-01-15 23:58:08.79	30.77	29.91	
2025-01-15 23:58:08.99	30.79	29.95	
2025-01-15 23:58:09.20	30.81	29.98	
2025-01-15 23:58:09.40	30.84	30.02	
2025-01-15 23:58:09.60	30.86	30.06	
2025-01-15 23:58:09.80	30.88	30.09	
2025-01-15 23:58:10.01	30.90	30.13	
2025-01-15 23:58:10.21	30.92	30.17	
2025-01-15 23:58:10.41	30.94	30.20	
2025-01-15 23:58:10.62	30.97	30.24	
2025-01-15 23:58:10.82	30.99	30.28	
2025-01-15 23:58:11.02	31.01	30.32	
2025-01-15 23:58:11.23	31.03	30.35	
2025-01-15 23:58:11.43	31.05	30.39	
2025-01-15 23:58:11.63	31.08	30.43	
2025-01-15 23:58:11.83	31.10	30.46	
2025-01-15 23:58:12.04	31.12	30.50	
2025-01-15 23:58:12.24	31.14	30.54	
2025-01-15 23:58:12.44	31.16	30.58	
2025-01-15 23:58:12.65	31.19	30.62	
2025-01-15 23:58:12.85	31.21	30.65	
2025-01-15 23:58:13.05	31.23	30.69	
2025-01-15 23:58:13.26	31.25	30.73	
2025-01-15 23:58:13.46	31.28	30.76	
2025-01-15 23:58:13.66	31.30	30.80	
2025-01-15 23:58:13.86	31.32	30.84	
2025-01-15 23:58:14.07	31.34	30.88	
2025-01-15 23:58:14.27	31.37	30.92	
2025-01-15 23:58:14.47	31.39	30.95	
2025-01-15 23:58:14.68	31.41	30.99	
2025-01-15 23:58:14.88	31.43	31.03	
2025-01-15 23:58:15.08	31.46	31.07	
2025-01-15 23:58:15.28	31.48	31.10	
2025-01-15 23:58:15.49	31.50	31.14	
2025-01-15 23:58:15.69	31.53	31.18	
2025-01-15 23:58:15.89	31.55	31.22	
2025-01-15 23:58:16.10	31.57	31.26	
2025-01-15 23:58:16.30	31.60	31.30	
2025-01-15 23:58:16.50	31.62	31.33	
2025-01-15 23:58:16.71	31.64	31.37	
2025-01-15 23:58:16.91	31.67	31.41	
2025-01-15 23:58:17.11	31.69	31.45	
2025-01-15 23:58:17.31	31.71	31.49	
2025-01-15 23:58:17.52	31.74	31.53	
2025-01-15 23:58:17.72	31.76	31.56	
2025-01-15 23:58:17.92	31.78	31.60	
2025-01-15 23:58:18.13	31.81	31.64	
2025-01-15 23:58:18.33	31.83	31.68	
2025-01-15 23:58:18.53	31.85	31.72	
2025-01-15 23:58:18.74	31.88	31.76	
2025-01-15 23:58:18.94	31.90	31.80	
2025-01-15 23:58:19.14	31.93	31.84	
2025-01-15 23:58:19.34	31.95	31.87	
2025-01-15 23:58:19.55	31.97	31.91	
2025-01-15 23:58:19.75	32.00	31.95	
2025-01-15 23:58:19.95	32.02	31.99	
2025-01-15 23:58:20.16	32.05	32.03	
2025-01-15 23:58:20.36	32.07	32.07	
2025-01-15 23:58:20.56	32.10	32.11	
2025-01-15 23:58:20.77	32.12	32.15	
2025-01-15 23:58:20.97	32.14	32.19	
2025-01-15 23:58:21.17	32.17	32.23	
2025-01-15 23:58:21.37	32.19	32.27	
2025-01-15 23:58:21.58	32.22	32.31	
2025-01-15 23:58:21.78	32.24	32.35	
2025-01-15 23:58:21.98	32.27	32.38	
2025-01-15 23:58:22.19	32.29	32.43	
2025-01-15 23:58:22.39	32.32	32.46	
2025-01-15 23:58:22.59	32.34	32.50	
2025-01-15 23:58:22.80	32.37	32.54	
2025-01-15 23:58:23.00	32.39	32.58	
2025-01-15 23:58:23.20	32.42	32.62	
2025-01-15 23:58:23.40	32.44	32.66	
2025-01-15 23:58:23.61	32.47	32.70	
2025-01-15 23:58:23.81	32.49	32.74	
2025-01-15 23:58:24.01	32.52	32.78	
2025-01-15 23:58:24.22	32.54	32.82	
2025-01-15 23:58:24.42	32.57	32.86	
2025-01-15 23:58:24.62	32.59	32.90	
2025-01-15 23:58:24.83	32.62	32.94	
2025-01-15 23:58:25.03	32.65	32.98	
2025-01-15 23:58:25.23	32.67	33.02	
2025-01-15 23:58:25.43	32.70	33.06	
2025-01-15 23:58:25.64	32.72	33.11	
2025-01-15 23:58:25.84	32.75	33.15	
2025-01-15 23:58:26.04	32.77	33.18	
2025-01-15 23:58:26.25	32.80	33.23	
2025-01-15 23:58:26.45	32.83	33.27	
2025-01-15 23:58:26.65	32.85	33.31	
2025-01-15 23:58:26.86	32.88	33.35	
2025-01-15 23:58:27.06	32.91	33.39	
2025-01-15 23:58:27.26	32.93	33.43	
2025-01-15 23:58:27.46	32.96	33.47	
2025-01-15 23:58:27.67	32.99	33.51	
2025-01-15 23:58:27.87	33.01	33.55	
2025-01-15 23:58:28.07	33.04	33.59	
2025-01-15 23:58:28.28	33.07	33.63	
2025-01-15 23:58:28.48	33.09	33.68	
2025-01-15 23:58:28.68	33.12	33.72	
2025-01-15 23:58:28.89	33.15	33.76	
2025-01-15 23:58:29.09	33.17	33.80	
2025-01-15 23:58:29.29	33.20	33.84	
2025-01-15 23:58:29.49	33.23	33.88	
2025-01-15 23:58:29.70	33.25	33.92	
2025-01-15 23:58:29.90	33.28	33.96	
2025-01-15 23:58:30.10	33.31	34.00	
2025-01-15 23:58:30.31	33.34	34.05	
2025-01-15 23:58:30.51	33.36	34.09	
2025-01-15 23:58:30.71	33.39	34.13	
2025-01-15 23:58:30.91	33.42	34.17	
2025-01-15 23:58:31.12	33.44	34.21	
2025-01-15 23:58:31.32	33.47	34.25	
2025-01-15 23:58:31.52	33.50	34.30	
2025-01-15 23:58:31.73	33.53	34.34	
2025-01-15 23:58:31.93	33.56	34.38	
2025-01-15 23:58:32.13	33.58	34.42	
2025-01-15 23:58:32.34	33.61	34.47	
2025-01-15 23:58:32.54	33.64	34.51	
2025-01-15 23:58:32.74	33.67	34.55	
2025-01-15 23:58:32.94	33.70	34.59	
2025-01-15 23:58:33.15	33.72	34.63	
2025-01-15 23:58:33.35	33.75	34.68	
2025-01-15 23:58:33.55	33.78	34.72	
2025-01-15 23:58:33.76	33.81	34.76	
2025-01-15 23:58:33.96	33.84	34.80	
2025-01-15 23:58:34.16	33.87	34.84	
2025-01-15 23:58:34.37	33.90	34.89	
2025-01-15 23:58:34.57	33.92	34.93	
2025-01-15 23:58:34.77	33.95	34.97	
2025-01-15 23:58:34.97	33.98	35.01	
2025-01-15 23:58:35.18	34.01	35.06	
2025-01-15 23:58:35.38	34.04	35.10	
2025-01-15 23:58:35.58	34.07	35.14	
2025-01-15 23:58:35.79	34.10	35.19	
2025-01-15 23:58:35.99	34.13	35.23	
2025-01-15 23:58:36.19	34.16	35.27	
2025-01-15 23:58:36.40	34.19	35.32	
2025-01-15 23:58:36.60	34.22	35.36	
2025-01-15 23:58:36.80	34.25	35.40	
2025-01-15 23:58:37.00	34.27	35.44	
2025-01-15 23:58:37.21	34.31	35.49	
2025-01-15 23:58:37.41	34.34	35.53	
2025-01-15 23:58:37.61	34.36	35.57	
2025-01-15 23:58:37.82	34.40	35.62	
2025-01-15 23:58:38.02	34.43	35.66	
2025-01-15 23:58:38.22	34.45	35.70	
2025-01-15 23:58:38.43	34.49	35.75	
2025-01-15 23:58:38.63	34.52	35.79	
2025-01-15 23:58:38.83	34.55	35.83	
2025-01-15 23:58:39.03	34.58	35.88	
2025-01-15 23:58:39.24	34.61	35.92	
2025-01-15 23:58:39.44	34.64	35.97	
2025-01-15 23:58:39.64	34.67	36.01	
2025-01-15 23:58:39.85	34.70	36.05	
2025-01-15 23:58:40.05	34.73	36.10	
2025-01-15 23:58:40.25	34.76	36.14	
2025-01-15 23:58:40.46	34.79	36.19	
2025-01-15 23:58:40.66	34.82	36.23	
2025-01-15 23:58:40.86	34.85	36.27	
2025-01-15 23:58:41.06	34.88	36.32	
2025-01-15 23:58:41.27	34.92	36.36	
2025-01-15 23:58:41.47	34.95	36.41	
2025-01-15 23:58:41.67	34.98	36.45	
2025-01-15 23:58:41.88	35.01	36.50	
2025-01-15 23:58:42.08	35.04	36.54	
2025-01-15 23:58:42.28	35.07	36.58	
2025-01-15 23:58:42.49	35.11	36.63	
2025-01-15 23:58:42.69	35.14	36.67	
2025-01-15 23:58:42.89	35.17	36.72	
2025-01-15 23:58:43.09	35.20	36.76	
2025-01-15 23:58:43.30	35.24	36.81	
2025-01-15 23:58:43.50	35.27	36.85	
2025-01-15 23:58:43.70	35.30	36.90	
2025-01-15 23:58:43.91	35.33	36.94	
2025-01-15 23:58:44.11	35.36	36.99	
2025-01-15 23:58:44.31	35.40	37.03	
2025-01-15 23:58:44.52	35.43	37.08	
2025-01-15 23:58:44.72	35.46	37.12	
2025-01-15 23:58:44.92	35.50	37.17	
2025-01-15 23:58:45.12	35.53	37.21	
2025-01-15 23:58:45.33	35.56	37.26	
2025-01-15 23:58:45.53	35.59	37.30	
2025-01-15 23:58:45.73	35.63	37.35	
2025-01-15 23:58:45.94	35.66	37.39	
2025-01-15 23:58:46.14	35.70	37.44	
2025-01-15 23:58:46.34	35.73	37.48	
2025-01-15 23:58:46.54	35.76	37.53	
2025-01-15 23:58:46.75	35.80	37.58	
2025-01-15 23:58:46.95	35.83	37.62	
2025-01-15 23:58:47.15	35.86	37.67	
2025-01-15 23:58:47.36	35.90	37.71	
2025-01-15 23:58:47.56	35.93	37.76	
2025-01-15 23:58:47.76	35.97	37.80	
2025-01-15 23:58:47.97	36.00	37.85	
2025-01-15 23:58:48.17	36.03	37.90	
2025-01-15 23:58:48.37	36.07	37.94	
2025-01-15 23:58:48.57	36.10	37.99	
2025-01-15 23:58:48.78	36.14	38.04	
2025-01-15 23:58:48.98	36.17	38.08	
2025-01-15 23:58:49.18	36.21	38.13	
2025-01-15 23:58:49.39	36.24	38.17	
2025-01-15 23:58:49.59	36.28	38.22	
2025-01-15 23:58:49.79	36.31	38.27	
2025-01-15 23:58:50.00	36.35	38.31	
2025-01-15 23:58:50.20	36.38	38.36	
2025-01-15 23:58:50.40	36.42	38.41	
2025-01-15 23:58:50.60	36.45	38.45	
2025-01-15 23:58:50.81	36.49	38.50	
2025-01-15 23:58:51.01	36.53	38.55	
2025-01-15 23:58:51.21	36.56	38.59	
2025-01-15 23:58:51.42	36.60	38.64	
2025-01-15 23:58:51.62	36.63	38.69	
2025-01-15 23:58:51.82	36.67	38.73	
2025-01-15 23:58:52.03	36.71	38.78	
2025-01-15 23:58:52.23	36.74	38.83	
2025-01-15 23:58:52.43	36.78	38.87	
2025-01-15 23:58:52.63	36.81	38.92	
2025-01-15 23:58:52.84	36.85	38.97	
2025-01-15 23:58:53.04	36.89	39.02	
2025-01-15 23:58:53.24	36.92	39.06	
2025-01-15 23:58:53.45	36.96	39.11	
2025-01-15 23:58:53.65	37.00	39.16	
2025-01-15 23:58:53.85	37.04	39.20	
2025-01-15 23:58:54.06	37.07	39.25	
2025-01-15 23:58:54.26	37.11	39.30	
2025-01-15 23:58:54.46	37.15	39.35	
2025-01-15 23:58:54.66	37.19	39.39	
2025-01-15 23:58:54.87	37.22	39.44	
2025-01-15 23:58:55.07	37.26	39.49	
2025-01-15 23:58:55.27	37.30	39.54	
2025-01-15 23:58:55.48	37.34	39.59	
2025-01-15 23:58:55.68	37.38	39.63	
2025-01-15 23:58:55.88	37.41	39.68	
2025-01-15 23:58:56.09	37.45	39.73	
2025-01-15 23:58:56.29	37.49	39.78	
2025-01-15 23:58:56.49	37.53	39.83	
2025-01-15 23:58:56.69	37.57	39.87	
2025-01-15 23:58:56.90	37.61	39.92	
2025-01-15 23:58:57.10	37.65	39.97	
2025-01-15 23:58:57.30	37.68	40.02	
2025-01-15 23:58:57.51	37.72	40.07	
2025-01-15 23:58:57.71	37.76	40.12	
2025-01-15 23:58:57.91	37.80	40.17	
2025-01-15 23:58:58.12	37.84	40.22	
2025-01-15 23:58:58.32	37.88	40.26	
2025-01-15 23:58:58.52	37.92	40.31	
2025-01-15 23:58:58.72	37.96	40.36	
2025-01-15 23:58:58.93	38.00	40.41	
2025-01-15 23:58:59.13	38.04	40.46	
2025-01-15 23:58:59.33	38.08	40.51	
2025-01-15 23:58:59.54	38.12	40.56	
2025-01-15 23:58:59.74	38.16	40.60	
2025-01-15 23:58:59.94	38.20	40.65	
2025-01-15 23:59:00.14	38.24	40.70	
2025-01-15 23:59:00.35	38.28	40.75	
2025-01-15 23:59:00.55	38.32	40.80	
2025-01-15 23:59:00.75	38.36	40.85	
2025-01-15 23:59:00.96	38.41	40.90	
2025-01-15 23:59:01.16	38.45	40.95	
2025-01-15 23:59:01.36	38.49	41.00	
2025-01-15 23:59:01.57	38.53	41.05	
2025-01-15 23:59:01.77	38.57	41.10	
2025-01-15 23:59:01.97	38.61	41.15	
2025-01-15 23:59:02.17	38.66	41.20	
2025-01-15 23:59:02.38	38.70	41.25	
2025-01-15 23:59:02.58	38.74	41.30	
2025-01-15 23:59:02.78	38.78	41.34	
2025-01-15 23:59:02.99	38.83	41.40	
2025-01-15 23:59:03.19	38.87	41.45	
2025-01-15 23:59:03.39	38.91	41.49	
2025-01-15 23:59:03.60	38.95	41.55	
2025-01-15 23:59:03.80	39.00	41.60	
2025-01-15 23:59:04.00	39.04	41.64	
2025-01-15 23:59:04.20	39.08	41.69	
2025-01-15 23:59:04.41	39.13	41.75	
2025-01-15 23:59:04.61	39.17	41.80	
2025-01-15 23:59:04.81	39.21	41.84	
2025-01-15 23:59:05.02	39.26	41.90	
2025-01-15 23:59:05.22	39.30	41.95	
2025-01-15 23:59:05.42	39.34	42.00	
2025-01-15 23:59:05.63	39.39	42.05	
2025-01-15 23:59:05.83	39.43	42.10	
2025-01-15 23:59:06.03	39.48	42.15	
2025-01-15 23:59:06.23	39.52	42.20	
2025-01-15 23:59:06.44	39.57	42.25	
2025-01-15 23:59:06.64	39.61	42.30	
2025-01-15 23:59:06.84	39.66	42.35	
2025-01-15 23:59:07.05	39.70	42.40	
2025-01-15 23:59:07.25	39.75	42.45	
2025-01-15 23:59:07.45	39.79	42.50	
2025-01-15 23:59:07.66	39.84	42.56	
2025-01-15 23:59:07.86	39.88	42.61	
2025-01-15 23:59:08.06	39.93	42.66	
2025-01-15 23:59:08.26	39.97	42.71	
2025-01-15 23:59:08.47	40.02	42.76	
2025-01-15 23:59:08.67	40.07	42.81	
2025-01-15 23:59:08.87	40.11	42.86	
2025-01-15 23:59:09.08	40.16	42.91	
2025-01-15 23:59:09.28	40.21	42.96	
2025-01-15 23:59:09.48	40.25	43.02	
2025-01-15 23:59:09.69	40.30	43.07	
2025-01-15 23:59:09.89	40.35	43.12	
2025-01-15 23:59:10.09	40.39	43.17	
2025-01-15 23:59:10.29	40.44	43.22	
2025-01-15 23:59:10.50	40.49	43.27	
2025-01-15 23:59:10.70	40.54	43.33	
2025-01-15 23:59:10.90	40.58	43.38	
2025-01-15 23:59:11.11	40.63	43.43	
2025-01-15 23:59:11.31	40.68	43.48	
2025-01-15 23:59:11.51	40.73	43.53	
2025-01-15 23:59:11.72	40.78	43.59	
2025-01-15 23:59:11.92	40.83	43.64	
2025-01-15 23:59:12.12	40.88	43.69	
2025-01-15 23:59:12.32	40.92	43.74	
2025-01-15 23:59:12.53	40.97	43.79	
2025-01-15 23:59:12.73	41.02	43.85	
2025-01-15 23:59:12.93	41.07	43.90	
2025-01-15 23:59:13.14	41.12	43.95	
2025-01-15 23:59:13.34	41.17	44.00	
2025-01-15 23:59:13.54	41.22	44.05	
2025-01-15 23:59:13.75	41.27	44.11	
2025-01-15 23:59:13.95	41.32	44.16	
2025-01-15 23:59:14.15	41.37	44.21	
2025-01-15 23:59:14.35	41.42	44.26	
2025-01-15 23:59:14.56	41.47	44.32	
2025-01-15 23:59:14.76	41.52	44.37	
2025-01-15 23:59:14.96	41.57	44.42	
2025-01-15 23:59:15.17	41.63	44.48	
2025-01-15 23:59:15.37	41.68	44.53	
2025-01-15 23:59:15.57	41.73	44.58	
2025-01-15 23:59:15.77	41.78	44.63	
2025-01-15 23:59:15.98	41.83	44.69	
2025-01-15 23:59:16.18	41.88	44.74	
2025-01-15 23:59:16.38	41.94	44.79	
2025-01-15 23:59:16.59	41.99	44.85	
2025-01-15 23:59:16.79	42.04	44.90	
2025-01-15 23:59:16.99	42.09	44.95	
2025-01-15 23:59:17.20	42.15	45.01	
2025-01-15 23:59:17.40	42.20	45.06	
2025-01-15 23:59:17.60	42.25	45.11	
2025-01-15 23:59:17.80	42.31	45.17	
2025-01-15 23:59:18.01	42.36	45.22	
2025-01-15 23:59:18.21	42.41	45.27	
2025-01-15 23:59:18.41	42.47	45.33	
2025-01-15 23:59:18.62	42.52	45.38	
2025-01-15 23:59:18.82	42.58	45.43	
2025-01-15 23:59:19.02	42.63	45.49	
2025-01-15 23:59:19.23	42.69	45.54	
2025-01-15 23:59:19.43	42.74	45.60	
2025-01-15 23:59:19.63	42.80	45.65	
2025-01-15 23:59:19.83	42.85	45.70	
2025-01-15 23:59:20.04	42.91	45.76	
2025-01-15 23:59:20.24	42.96	45.81	
2025-01-15 23:59:20.44	43.02	45.86	
2025-01-15 23:59:20.65	43.08	45.92	
2025-01-15 23:59:20.85	43.13	45.97	
2025-01-15 23:59:21.05	43.19	46.03	
2025-01-15 23:59:21.26	43.25	46.08	
2025-01-15 23:59:21.46	43.30	46.14	
2025-01-15 23:59:21.66	43.36	46.19	
2025-01-15 23:59:21.86	43.41	46.24	
2025-01-15 23:59:22.07	43.47	46.30	
2025-01-15 23:59:22.27	43.53	46.35	
2025-01-15 23:59:22.47	43.59	46.41	
2025-01-15 23:59:22.68	43.65	46.46	
2025-01-15 23:59:22.88	43.70	46.52	
2025-01-15 23:59:23.08	43.76	46.57	
2025-01-15 23:59:23.29	43.82	46.63	
2025-01-15 23:59:23.49	43.88	46.68	
2025-01-15 23:59:23.69	43.94	46.73	
2025-01-15 23:59:23.89	44.00	46.79	
2025-01-15 23:59:24.10	44.06	46.84	
2025-01-15 23:59:24.30	44.12	46.90	
2025-01-15 23:59:24.50	44.17	46.95	
2025-01-15 23:59:24.71	44.24	47.01	
2025-01-15 23:59:24.91	44.30	47.06	
2025-01-15 23:59:25.11	44.36	47.12	
2025-01-15 23:59:25.32	44.42	47.17	
2025-01-15 23:59:25.52	44.48	47.23	
2025-01-15 23:59:25.72	44.54	47.28	
2025-01-15 23:59:25.92	44.60	47.34	
2025-01-15 23:59:26.13	44.66	47.39	
2025-01-15 23:59:26.33	44.72	47.45	
2025-01-15 23:59:26.53	44.78	47.50	
2025-01-15 23:59:26.74	44.85	47.56	
2025-01-15 23:59:26.94	44.91	47.61	
2025-01-15 23:59:27.14	44.97	47.67	
2025-01-15 23:59:27.35	45.04	47.73	
2025-01-15 23:59:27.55	45.10	47.78	
2025-01-15 23:59:27.75	45.16	47.83	
2025-01-15 23:59:27.95	45.22	47.89	
2025-01-15 23:59:28.16	45.29	47.95	
2025-01-15 23:59:28.36	45.35	48.00	
2025-01-15 23:59:28.56	45.41	48.06	
2025-01-15 23:59:28.77	45.48	48.11	
2025-01-15 23:59:28.97	45.54	48.17	
2025-01-15 23:59:29.17	45.61	48.22	
2025-01-15 23:59:29.37	45.67	48.28	
2025-01-15 23:59:29.58	45.74	48.34	
2025-01-15 23:59:29.78	45.80	48.39	
2025-01-15 23:59:29.98	45.87	48.45	
2025-01-15 23:59:30.19	45.94	48.50	
2025-01-15 23:59:30.39	46.00	48.56	
2025-01-15 23:59:30.59	46.07	48.61	
2025-01-15 23:59:30.80	46.14	48.67	
2025-01-15 23:59:31.00	46.20	48.73	
2025-01-15 23:59:31.20	46.27	48.78	
2025-01-15 23:59:31.40	46.34	48.84	
2025-01-15 23:59:31.61	46.41	48.89	
2025-01-15 23:59:31.81	46.47	48.95	
2025-01-15 23:59:32.01	46.54	49.00	
2025-01-15 23:59:32.22	46.61	49.06	
2025-01-15 23:59:32.42	46.68	49.12	
2025-01-15 23:59:32.62	46.75	49.17	
2025-01-15 23:59:32.83	46.82	49.23	
2025-01-15 23:59:33.03	46.89	49.29	
2025-01-15 23:59:33.23	46.95	49.34	
2025-01-15 23:59:33.43	47.02	49.40	
2025-01-15 23:59:33.64	47.10	49.46	
2025-01-15 23:59:33.84	47.16	49.51	
2025-01-15 23:59:34.04	47.23	49.57	
2025-01-15 23:59:34.25	47.31	49.63	
2025-01-15 23:59:34.45	47.38	49.68	
2025-01-15 23:59:34.65	47.45	49.74	
2025-01-15 23:59:34.86	47.52	49.79	
2025-01-15 23:59:35.06	47.59	49.85	
2025-01-15 23:59:35.26	47.66	49.91	
2025-01-15 23:59:35.46	47.74	49.96	
2025-01-15 23:59:35.67	47.81	50.02	
2025-01-15 23:59:35.87	47.88	50.08	
2025-01-15 23:59:36.07	47.95	50.13	
2025-01-15 23:59:36.28	48.03	50.19	
2025-01-15 23:59:36.48	48.10	50.25	
2025-01-15 23:59:36.68	48.18	50.30	
2025-01-15 23:59:36.89	48.25	50.36	
2025-01-15 23:59:37.09	48.33	50.42	
2025-01-15 23:59:37.29	48.40	50.47	
2025-01-15 23:59:37.49	48.47	50.53	
2025-01-15 23:59:37.70	48.55	50.59	
2025-01-15 23:59:37.90	48.63	50.64	
2025-01-15 23:59:38.10	48.70	50.70	
2025-01-15 23:59:38.31	48.78	50.76	
2025-01-15 23:59:38.51	48.86	50.81	
2025-01-15 23:59:38.71	48.93	50.87	
2025-01-15 23:59:38.92	49.01	50.93	
2025-01-15 23:59:39.12	49.09	50.98	
2025-01-15 23:59:39.32	49.16	51.04	
2025-01-15 23:59:39.52	49.24	51.10	
2025-01-15 23:59:39.73	49.32	51.16	
2025-01-15 23:59:39.93	49.40	51.21	
2025-01-15 23:59:40.13	49.48	51.27	
2025-01-15 23:59:40.34	49.56	51.33	
2025-01-15 23:59:40.54	49.64	51.38	
2025-01-15 23:59:40.74	49.72	51.44	
2025-01-15 23:59:40.95	49.80	51.50	
2025-01-15 23:59:41.15	49.88	51.55	
2025-01-15 23:59:41.35	49.96	51.61	
2025-01-15 23:59:41.55	50.04	51.67	
2025-01-15 23:59:41.76	50.12	51.73	
2025-01-15 23:59:41.96	50.20	51.78	
2025-01-15 23:59:42.16	50.28	51.84	
2025-01-15 23:59:42.37	50.37	51.90	
2025-01-15 23:59:42.57	50.45	51.95	
2025-01-15 23:59:42.77	50.53	52.01	
2025-01-15 23:59:42.98	50.62	52.07	
2025-01-15 23:59:43.18	50.70	52.12	
2025-01-15 23:59:43.38	50.78	52.18	
2025-01-15 23:59:43.58	50.87	52.24	
2025-01-15 23:59:43.79	50.95	52.30	
2025-01-15 23:59:43.99	51.04	52.35	
2025-01-15 23:59:44.19	51.12	52.41	
2025-01-15 23:59:44.40	51.21	52.47	
2025-01-15 23:59:44.60	51.29	52.52	
2025-01-15 23:59:44.80	51.38	52.58	
2025-01-15 23:59:45.00	51.46	52.64	
2025-01-15 23:59:45.21	51.55	52.70	
2025-01-15 23:59:45.41	51.64	52.75	
2025-01-15 23:59:45.61	51.73	52.81	
