passes_logs/2025/01/15/SPB_Silybum_02/SPB_Silybum_02__20250115_082213_AQUA_rec.log

#Pass ID: 20250115_082213_AQUA
#Satellite: AQUA
#Configuration: AQUA
#Start time: 2025-01-15 08:22:14

#Version: 2.0.20230423
#Station: SPB_Silybum_02
#Location: 30.233357 lon 59.946436 lat
#TLE: 1 27424U 02022A   25014.86211101  .00001670  00000+0  35273-3 0  9993
#TLE: 2 27424  98.3588 331.5248 0001714 111.5422 273.3352 14.60681448207609

#Time	Az	El	Level	Level2	SNR	BER	Gain	Gain2
2025-01-15 08:22:16.32	66.04	4.12	
2025-01-15 08:22:16.53	66.02	4.13	
2025-01-15 08:22:16.73	65.99	4.14	
2025-01-15 08:22:16.93	65.96	4.15	
2025-01-15 08:22:17.14	65.93	4.16	
2025-01-15 08:22:17.34	65.91	4.17	
2025-01-15 08:22:17.54	65.88	4.18	
2025-01-15 08:22:17.75	65.85	4.18	
2025-01-15 08:22:17.95	65.83	4.19	
2025-01-15 08:22:18.15	65.80	4.20	
2025-01-15 08:22:18.35	65.77	4.21	
2025-01-15 08:22:18.56	65.74	4.22	
2025-01-15 08:22:18.76	65.72	4.23	
2025-01-15 08:22:18.96	65.69	4.24	
2025-01-15 08:22:19.17	65.66	4.24	
2025-01-15 08:22:19.37	65.63	4.25	
2025-01-15 08:22:19.57	65.61	4.26	
2025-01-15 08:22:19.78	65.58	4.27	
2025-01-15 08:22:19.98	65.55	4.28	
2025-01-15 08:22:20.18	65.52	4.29	
2025-01-15 08:22:20.39	65.50	4.30	
2025-01-15 08:22:20.59	65.47	4.30	
2025-01-15 08:22:20.79	65.44	4.31	
2025-01-15 08:22:21.00	65.41	4.32	
2025-01-15 08:22:21.20	65.39	4.33	
2025-01-15 08:22:21.40	65.36	4.34	
2025-01-15 08:22:21.60	65.33	4.35	
2025-01-15 08:22:21.81	65.30	4.35	
2025-01-15 08:22:22.01	65.28	4.36	
2025-01-15 08:22:22.21	65.25	4.37	
2025-01-15 08:22:22.42	65.22	4.38	
2025-01-15 08:22:22.62	65.19	4.39	
2025-01-15 08:22:22.82	65.17	4.40	
2025-01-15 08:22:23.03	65.14	4.41	
2025-01-15 08:22:23.23	65.11	4.41	
2025-01-15 08:22:23.43	65.08	4.42	
2025-01-15 08:22:23.64	65.05	4.43	
2025-01-15 08:22:23.84	65.03	4.44	
2025-01-15 08:22:24.04	65.00	4.45	
2025-01-15 08:22:24.25	64.97	4.46	
2025-01-15 08:22:24.45	64.94	4.47	
2025-01-15 08:22:24.65	64.92	4.47	
2025-01-15 08:22:24.86	64.89	4.48	
2025-01-15 08:22:25.06	64.86	4.49	
2025-01-15 08:22:25.26	64.83	4.50	
2025-01-15 08:22:25.46	64.80	4.51	
2025-01-15 08:22:25.67	64.78	4.52	
2025-01-15 08:22:25.87	64.75	4.52	
2025-01-15 08:22:26.07	64.72	4.53	
2025-01-15 08:22:26.28	64.69	4.54	
2025-01-15 08:22:26.48	64.66	4.55	
2025-01-15 08:22:26.68	64.64	4.56	
2025-01-15 08:22:26.89	64.61	4.57	
2025-01-15 08:22:27.09	64.58	4.57	
2025-01-15 08:22:27.29	64.55	4.58	
2025-01-15 08:22:27.50	64.52	4.59	
2025-01-15 08:22:27.70	64.50	4.60	
2025-01-15 08:22:27.90	64.47	4.61	
2025-01-15 08:22:28.11	64.44	4.62	
2025-01-15 08:22:28.31	64.41	4.63	
2025-01-15 08:22:28.51	64.38	4.63	
2025-01-15 08:22:28.71	64.35	4.64	
2025-01-15 08:22:28.92	64.33	4.65	
2025-01-15 08:22:29.12	64.30	4.66	
2025-01-15 08:22:29.32	64.27	4.67	
2025-01-15 08:22:29.53	64.24	4.68	
2025-01-15 08:22:29.73	64.21	4.68	
2025-01-15 08:22:29.93	64.18	4.69	
2025-01-15 08:22:30.14	64.16	4.70	
2025-01-15 08:22:30.34	64.13	4.71	
2025-01-15 08:22:30.54	64.10	4.72	
2025-01-15 08:22:30.75	64.07	4.73	
2025-01-15 08:22:30.95	64.04	4.73	
2025-01-15 08:22:31.15	64.01	4.74	
2025-01-15 08:22:31.36	63.98	4.75	
2025-01-15 08:22:31.56	63.96	4.76	
2025-01-15 08:22:31.76	63.93	4.77	
2025-01-15 08:22:31.96	63.90	4.78	
2025-01-15 08:22:32.17	63.87	4.78	
2025-01-15 08:22:32.37	63.84	4.79	
2025-01-15 08:22:32.57	63.82	4.80	
2025-01-15 08:22:32.78	63.79	4.81	
2025-01-15 08:22:32.98	63.76	4.82	
2025-01-15 08:22:33.18	63.73	4.83	
2025-01-15 08:22:33.39	63.70	4.83	
2025-01-15 08:22:33.59	63.67	4.84	
2025-01-15 08:22:33.79	63.64	4.85	
2025-01-15 08:22:34.00	63.61	4.86	
2025-01-15 08:22:34.20	63.59	4.87	
2025-01-15 08:22:34.40	63.56	4.88	
2025-01-15 08:22:34.61	63.53	4.88	
2025-01-15 08:22:34.81	63.50	4.89	
2025-01-15 08:22:35.01	63.47	4.90	
2025-01-15 08:22:35.21	63.44	4.91	
2025-01-15 08:22:35.42	63.41	4.92	
2025-01-15 08:22:35.62	63.38	4.93	
2025-01-15 08:22:35.82	63.36	4.93	
2025-01-15 08:22:36.03	63.33	4.94	
2025-01-15 08:22:36.23	63.30	4.95	
2025-01-15 08:22:36.43	63.27	4.96	
2025-01-15 08:22:36.64	63.24	4.97	
2025-01-15 08:22:36.84	63.21	4.98	
2025-01-15 08:22:37.04	63.18	4.98	
2025-01-15 08:22:37.25	63.15	4.99	
2025-01-15 08:22:37.45	63.12	5.00	
2025-01-15 08:22:37.65	63.09	5.01	
2025-01-15 08:22:37.86	63.06	5.02	
2025-01-15 08:22:38.06	63.04	5.03	
2025-01-15 08:22:38.26	63.01	5.03	
2025-01-15 08:22:38.47	62.98	5.04	
2025-01-15 08:22:38.67	62.95	5.05	
2025-01-15 08:22:38.87	62.92	5.06	
2025-01-15 08:22:39.07	62.89	5.07	
2025-01-15 08:22:39.28	62.86	5.07	
2025-01-15 08:22:39.48	62.83	5.08	
2025-01-15 08:22:39.68	62.80	5.09	
2025-01-15 08:22:39.89	62.77	5.10	
2025-01-15 08:22:40.09	62.74	5.11	
2025-01-15 08:22:40.29	62.72	5.12	
2025-01-15 08:22:40.50	62.69	5.12	
2025-01-15 08:22:40.70	62.66	5.13	
2025-01-15 08:22:40.90	62.63	5.14	
2025-01-15 08:22:41.11	62.60	5.15	
2025-01-15 08:22:41.31	62.57	5.16	
2025-01-15 08:22:41.51	62.54	5.16	
2025-01-15 08:22:41.72	62.51	5.17	
2025-01-15 08:22:41.92	62.48	5.18	
2025-01-15 08:22:42.12	62.45	5.19	
2025-01-15 08:22:42.32	62.42	5.20	
2025-01-15 08:22:42.53	62.39	5.21	
2025-01-15 08:22:42.73	62.36	5.21	
2025-01-15 08:22:42.93	62.33	5.22	
2025-01-15 08:22:43.14	62.30	5.23	
2025-01-15 08:22:43.34	62.27	5.24	
2025-01-15 08:22:43.54	62.25	5.25	
2025-01-15 08:22:43.75	62.21	5.25	
2025-01-15 08:22:43.95	62.19	5.26	
2025-01-15 08:22:44.15	62.16	5.27	
2025-01-15 08:22:44.36	62.13	5.28	
2025-01-15 08:22:44.56	62.10	5.29	
2025-01-15 08:22:44.76	62.07	5.30	
2025-01-15 08:22:44.97	62.04	5.30	
2025-01-15 08:22:45.17	62.01	5.31	
2025-01-15 08:22:45.37	61.98	5.32	
2025-01-15 08:22:45.57	61.95	5.33	
2025-01-15 08:22:45.78	61.92	5.34	
2025-01-15 08:22:45.98	61.89	5.34	
2025-01-15 08:22:46.18	61.86	5.35	
2025-01-15 08:22:46.39	61.83	5.36	
2025-01-15 08:22:46.59	61.80	5.37	
2025-01-15 08:22:46.79	61.77	5.38	
2025-01-15 08:22:47.00	61.74	5.38	
2025-01-15 08:22:47.20	61.71	5.39	
2025-01-15 08:22:47.40	61.68	5.40	
2025-01-15 08:22:47.61	61.65	5.41	
2025-01-15 08:22:47.81	61.62	5.42	
2025-01-15 08:22:48.01	61.59	5.42	
2025-01-15 08:22:48.22	61.56	5.43	
2025-01-15 08:22:48.42	61.53	5.44	
2025-01-15 08:22:48.62	61.50	5.45	
2025-01-15 08:22:48.83	61.47	5.46	
2025-01-15 08:22:49.03	61.44	5.47	
2025-01-15 08:22:49.23	61.41	5.47	
2025-01-15 08:22:49.43	61.38	5.48	
2025-01-15 08:22:49.64	61.35	5.49	
2025-01-15 08:22:49.84	61.32	5.50	
2025-01-15 08:22:50.04	61.29	5.51	
2025-01-15 08:22:50.25	61.26	5.51	
2025-01-15 08:22:50.45	61.23	5.52	
2025-01-15 08:22:50.65	61.20	5.53	
2025-01-15 08:22:50.86	61.17	5.54	
2025-01-15 08:22:51.06	61.14	5.55	
2025-01-15 08:22:51.26	61.11	5.55	
2025-01-15 08:22:51.47	61.08	5.56	
2025-01-15 08:22:51.67	61.05	5.57	
2025-01-15 08:22:51.87	61.02	5.58	
2025-01-15 08:22:52.08	60.99	5.59	
2025-01-15 08:22:52.28	60.96	5.59	
2025-01-15 08:22:52.48	60.93	5.60	
2025-01-15 08:22:52.68	60.90	5.61	
2025-01-15 08:22:52.89	60.86	5.62	
2025-01-15 08:22:53.09	60.84	5.63	
2025-01-15 08:22:53.29	60.81	5.63	
2025-01-15 08:22:53.50	60.77	5.64	
2025-01-15 08:22:53.70	60.74	5.65	
2025-01-15 08:22:53.90	60.71	5.66	
2025-01-15 08:22:54.11	60.68	5.67	
2025-01-15 08:22:54.31	60.65	5.67	
2025-01-15 08:22:54.51	60.62	5.68	
2025-01-15 08:22:54.72	60.59	5.69	
2025-01-15 08:22:54.92	60.56	5.70	
2025-01-15 08:22:55.12	60.53	5.70	
2025-01-15 08:22:55.33	60.50	5.71	
2025-01-15 08:22:55.53	60.47	5.72	
2025-01-15 08:22:55.73	60.44	5.73	
2025-01-15 08:22:55.93	60.41	5.74	
2025-01-15 08:22:56.14	60.38	5.74	
2025-01-15 08:22:56.34	60.35	5.75	
2025-01-15 08:22:56.54	60.32	5.76	
2025-01-15 08:22:56.75	60.28	5.77	
2025-01-15 08:22:56.95	60.25	5.78	
2025-01-15 08:22:57.15	60.22	5.78	
2025-01-15 08:22:57.36	60.19	5.79	
2025-01-15 08:22:57.56	60.16	5.80	
2025-01-15 08:22:57.76	60.13	5.81	
2025-01-15 08:22:57.97	60.10	5.82	
2025-01-15 08:22:58.17	60.07	5.82	
2025-01-15 08:22:58.37	60.04	5.83	
2025-01-15 08:22:58.58	60.01	5.84	
2025-01-15 08:22:58.78	59.98	5.85	
2025-01-15 08:22:58.98	59.95	5.85	
2025-01-15 08:22:59.19	59.91	5.86	
2025-01-15 08:22:59.39	59.88	5.87	
2025-01-15 08:22:59.59	59.85	5.88	
2025-01-15 08:22:59.79	59.82	5.89	
2025-01-15 08:23:00.00	59.79	5.89	
2025-01-15 08:23:00.20	59.76	5.90	
2025-01-15 08:23:00.40	59.73	5.91	
2025-01-15 08:23:00.61	59.70	5.92	
2025-01-15 08:23:00.81	59.67	5.92	
2025-01-15 08:23:01.01	59.63	5.93	
2025-01-15 08:23:01.22	59.60	5.94	
2025-01-15 08:23:01.42	59.57	5.95	
2025-01-15 08:23:01.62	59.54	5.96	
2025-01-15 08:23:01.83	59.51	5.96	
2025-01-15 08:23:02.03	59.48	5.97	
2025-01-15 08:23:02.23	59.45	5.98	
2025-01-15 08:23:02.44	59.42	5.99	
2025-01-15 08:23:02.64	59.38	5.99	
2025-01-15 08:23:02.84	59.35	6.00	
2025-01-15 08:23:03.04	59.32	6.01	
2025-01-15 08:23:03.25	59.29	6.02	
2025-01-15 08:23:03.45	59.26	6.03	
2025-01-15 08:23:03.65	59.23	6.03	
2025-01-15 08:23:03.86	59.20	6.04	
2025-01-15 08:23:04.06	59.17	6.05	
2025-01-15 08:23:04.26	59.13	6.06	
2025-01-15 08:23:04.47	59.10	6.06	
2025-01-15 08:23:04.67	59.07	6.07	
2025-01-15 08:23:04.87	59.04	6.08	
2025-01-15 08:23:05.08	59.01	6.09	
2025-01-15 08:23:05.28	58.98	6.09	
2025-01-15 08:23:05.48	58.95	6.10	
2025-01-15 08:23:05.69	58.91	6.11	
2025-01-15 08:23:05.89	58.88	6.12	
2025-01-15 08:23:06.09	58.85	6.13	
2025-01-15 08:23:06.29	58.82	6.13	
2025-01-15 08:23:06.50	58.79	6.14	
2025-01-15 08:23:06.70	58.76	6.15	
2025-01-15 08:23:06.90	58.72	6.16	
2025-01-15 08:23:07.11	58.69	6.16	
2025-01-15 08:23:07.31	58.66	6.17	
2025-01-15 08:23:07.51	58.63	6.18	
2025-01-15 08:23:07.72	58.60	6.19	
2025-01-15 08:23:07.92	58.57	6.19	
2025-01-15 08:23:08.12	58.53	6.20	
2025-01-15 08:23:08.33	58.50	6.21	
2025-01-15 08:23:08.53	58.47	6.22	
2025-01-15 08:23:08.73	58.44	6.22	
2025-01-15 08:23:08.94	58.41	6.23	
2025-01-15 08:23:09.14	58.37	6.24	
2025-01-15 08:23:09.34	58.34	6.25	
2025-01-15 08:23:09.55	58.31	6.25	
2025-01-15 08:23:09.75	58.28	6.26	
2025-01-15 08:23:09.95	58.25	6.27	
2025-01-15 08:23:10.15	58.22	6.28	
2025-01-15 08:23:10.36	58.18	6.28	
2025-01-15 08:23:10.56	58.15	6.29	
2025-01-15 08:23:10.76	58.12	6.30	
2025-01-15 08:23:10.97	58.09	6.31	
2025-01-15 08:23:11.17	58.05	6.31	
2025-01-15 08:23:11.37	58.02	6.32	
2025-01-15 08:23:11.58	57.99	6.33	
2025-01-15 08:23:11.78	57.96	6.34	
2025-01-15 08:23:11.98	57.93	6.34	
2025-01-15 08:23:12.19	57.89	6.35	
2025-01-15 08:23:12.39	57.86	6.36	
2025-01-15 08:23:12.59	57.83	6.37	
2025-01-15 08:23:12.80	57.80	6.38	
2025-01-15 08:23:13.00	57.77	6.38	
2025-01-15 08:23:13.20	57.73	6.39	
2025-01-15 08:23:13.40	57.70	6.40	
2025-01-15 08:23:13.61	57.67	6.40	
2025-01-15 08:23:13.81	57.64	6.41	
2025-01-15 08:23:14.01	57.60	6.42	
2025-01-15 08:23:14.22	57.57	6.43	
2025-01-15 08:23:14.42	57.54	6.43	
2025-01-15 08:23:14.62	57.51	6.44	
2025-01-15 08:23:14.83	57.47	6.45	
2025-01-15 08:23:15.03	57.44	6.46	
2025-01-15 08:23:15.23	57.41	6.46	
2025-01-15 08:23:15.44	57.38	6.47	
2025-01-15 08:23:15.64	57.34	6.48	
2025-01-15 08:23:15.84	57.31	6.49	
2025-01-15 08:23:16.05	57.28	6.49	
2025-01-15 08:23:16.25	57.25	6.50	
2025-01-15 08:23:16.45	57.22	6.51	
2025-01-15 08:23:16.65	57.18	6.52	
2025-01-15 08:23:16.86	57.15	6.52	
2025-01-15 08:23:17.06	57.12	6.53	
2025-01-15 08:23:17.26	57.09	6.54	
2025-01-15 08:23:17.47	57.05	6.55	
2025-01-15 08:23:17.67	57.02	6.55	
2025-01-15 08:23:17.87	56.99	6.56	
2025-01-15 08:23:18.08	56.95	6.57	
2025-01-15 08:23:18.28	56.92	6.57	
2025-01-15 08:23:18.48	56.89	6.58	
2025-01-15 08:23:18.69	56.86	6.59	
2025-01-15 08:23:18.89	56.82	6.60	
2025-01-15 08:23:19.09	56.79	6.60	
2025-01-15 08:23:19.30	56.76	6.61	
2025-01-15 08:23:19.50	56.73	6.62	
2025-01-15 08:23:19.70	56.69	6.63	
2025-01-15 08:23:19.91	56.66	6.63	
2025-01-15 08:23:20.11	56.63	6.64	
2025-01-15 08:23:20.31	56.59	6.65	
2025-01-15 08:23:20.51	56.56	6.65	
2025-01-15 08:23:20.72	56.53	6.66	
2025-01-15 08:23:20.92	56.50	6.67	
2025-01-15 08:23:21.12	56.46	6.68	
2025-01-15 08:23:21.33	56.43	6.68	
2025-01-15 08:23:21.53	56.40	6.69	
2025-01-15 08:23:21.73	56.36	6.70	
2025-01-15 08:23:21.94	56.33	6.71	
2025-01-15 08:23:22.14	56.30	6.71	
2025-01-15 08:23:22.34	56.26	6.72	
2025-01-15 08:23:22.55	56.23	6.73	
2025-01-15 08:23:22.75	56.20	6.73	
2025-01-15 08:23:22.95	56.17	6.74	
2025-01-15 08:23:23.16	56.13	6.75	
2025-01-15 08:23:23.36	56.10	6.76	
2025-01-15 08:23:23.56	56.07	6.76	
2025-01-15 08:23:23.76	56.03	6.77	
2025-01-15 08:23:23.97	56.00	6.78	
2025-01-15 08:23:24.17	55.97	6.78	
2025-01-15 08:23:24.37	55.93	6.79	
2025-01-15 08:23:24.58	55.90	6.80	
2025-01-15 08:23:24.78	55.87	6.81	
2025-01-15 08:23:24.98	55.83	6.81	
2025-01-15 08:23:25.19	55.80	6.82	
2025-01-15 08:23:25.39	55.77	6.83	
2025-01-15 08:23:25.59	55.73	6.83	
2025-01-15 08:23:25.80	55.70	6.84	
2025-01-15 08:23:26.00	55.67	6.85	
2025-01-15 08:23:26.20	55.63	6.86	
2025-01-15 08:23:26.41	55.60	6.86	
2025-01-15 08:23:26.61	55.57	6.87	
2025-01-15 08:23:26.81	55.53	6.88	
2025-01-15 08:23:27.01	55.50	6.88	
2025-01-15 08:23:27.22	55.47	6.89	
2025-01-15 08:23:27.42	55.43	6.90	
2025-01-15 08:23:27.62	55.40	6.91	
2025-01-15 08:23:27.83	55.37	6.91	
2025-01-15 08:23:28.03	55.33	6.92	
2025-01-15 08:23:28.23	55.30	6.93	
2025-01-15 08:23:28.44	55.26	6.93	
2025-01-15 08:23:28.64	55.23	6.94	
2025-01-15 08:23:28.84	55.20	6.95	
2025-01-15 08:23:29.05	55.16	6.95	
2025-01-15 08:23:29.25	55.13	6.96	
2025-01-15 08:23:29.45	55.10	6.97	
2025-01-15 08:23:29.66	55.06	6.98	
2025-01-15 08:23:29.86	55.03	6.98	
2025-01-15 08:23:30.06	55.00	6.99	
2025-01-15 08:23:30.27	54.96	7.00	
2025-01-15 08:23:30.47	54.93	7.00	
2025-01-15 08:23:30.67	54.89	7.01	
2025-01-15 08:23:30.87	54.86	7.02	
2025-01-15 08:23:31.08	54.83	7.02	
2025-01-15 08:23:31.28	54.79	7.03	
2025-01-15 08:23:31.48	54.76	7.04	
2025-01-15 08:23:31.69	54.72	7.05	
2025-01-15 08:23:31.89	54.69	7.05	
2025-01-15 08:23:32.09	54.66	7.06	
2025-01-15 08:23:32.30	54.62	7.07	
2025-01-15 08:23:32.50	54.59	7.07	
2025-01-15 08:23:32.70	54.56	7.08	
2025-01-15 08:23:32.91	54.52	7.09	
2025-01-15 08:23:33.11	54.49	7.09	
2025-01-15 08:23:33.31	54.45	7.10	
2025-01-15 08:23:33.52	54.42	7.11	
2025-01-15 08:23:33.72	54.39	7.11	
2025-01-15 08:23:33.92	54.35	7.12	
2025-01-15 08:23:34.12	54.32	7.13	
2025-01-15 08:23:34.33	54.28	7.13	
2025-01-15 08:23:34.53	54.25	7.14	
2025-01-15 08:23:34.73	54.22	7.15	
2025-01-15 08:23:34.94	54.18	7.15	
2025-01-15 08:23:35.14	54.15	7.16	
2025-01-15 08:23:35.34	54.11	7.17	
2025-01-15 08:23:35.55	54.08	7.18	
2025-01-15 08:23:35.75	54.04	7.18	
2025-01-15 08:23:35.95	54.01	7.19	
2025-01-15 08:23:36.16	53.98	7.20	
2025-01-15 08:23:36.36	53.94	7.20	
2025-01-15 08:23:36.56	53.91	7.21	
2025-01-15 08:23:36.77	53.87	7.22	
2025-01-15 08:23:36.97	53.84	7.22	
2025-01-15 08:23:37.17	53.80	7.23	
2025-01-15 08:23:37.37	53.77	7.24	
2025-01-15 08:23:37.58	53.74	7.24	
2025-01-15 08:23:37.78	53.70	7.25	
2025-01-15 08:23:37.98	53.67	7.26	
2025-01-15 08:23:38.19	53.63	7.26	
2025-01-15 08:23:38.39	53.60	7.27	
2025-01-15 08:23:38.59	53.56	7.28	
2025-01-15 08:23:38.80	53.53	7.28	
2025-01-15 08:23:39.00	53.49	7.29	
2025-01-15 08:23:39.20	53.46	7.30	
2025-01-15 08:23:39.41	53.42	7.30	
2025-01-15 08:23:39.61	53.39	7.31	
2025-01-15 08:23:39.81	53.36	7.32	
2025-01-15 08:23:40.02	53.32	7.32	
2025-01-15 08:23:40.22	53.29	7.33	
2025-01-15 08:23:40.42	53.25	7.34	
2025-01-15 08:23:40.63	53.22	7.34	
2025-01-15 08:23:40.83	53.18	7.35	
2025-01-15 08:23:41.03	53.15	7.36	
2025-01-15 08:23:41.23	53.11	7.36	
2025-01-15 08:23:41.44	53.08	7.37	
2025-01-15 08:23:41.64	53.04	7.38	
2025-01-15 08:23:41.84	53.01	7.38	
2025-01-15 08:23:42.05	52.97	7.39	
2025-01-15 08:23:42.25	52.94	7.39	
2025-01-15 08:23:42.45	52.91	7.40	
2025-01-15 08:23:42.66	52.87	7.41	
2025-01-15 08:23:42.86	52.84	7.41	
2025-01-15 08:23:43.06	52.80	7.42	
2025-01-15 08:23:43.27	52.77	7.43	
2025-01-15 08:23:43.47	52.73	7.43	
2025-01-15 08:23:43.67	52.70	7.44	
2025-01-15 08:23:43.88	52.66	7.45	
2025-01-15 08:23:44.08	52.63	7.45	
2025-01-15 08:23:44.28	52.59	7.46	
2025-01-15 08:23:44.48	52.56	7.47	
2025-01-15 08:23:44.69	52.52	7.47	
2025-01-15 08:23:44.89	52.49	7.48	
2025-01-15 08:23:45.09	52.45	7.49	
2025-01-15 08:23:45.30	52.42	7.49	
2025-01-15 08:23:45.50	52.38	7.50	
2025-01-15 08:23:45.70	52.35	7.50	
2025-01-15 08:23:45.91	52.31	7.51	
2025-01-15 08:23:46.11	52.28	7.52	
2025-01-15 08:23:46.31	52.24	7.52	
2025-01-15 08:23:46.52	52.21	7.53	
2025-01-15 08:23:46.72	52.17	7.54	
2025-01-15 08:23:46.92	52.14	7.54	
2025-01-15 08:23:47.13	52.10	7.55	
2025-01-15 08:23:47.33	52.07	7.56	
2025-01-15 08:23:47.53	52.03	7.56	
2025-01-15 08:23:47.73	52.00	7.57	
2025-01-15 08:23:47.94	51.96	7.58	
2025-01-15 08:23:48.14	51.92	7.58	
2025-01-15 08:23:48.34	51.89	7.59	
2025-01-15 08:23:48.55	51.85	7.59	
2025-01-15 08:23:48.75	51.82	7.60	
2025-01-15 08:23:48.95	51.78	7.61	
2025-01-15 08:23:49.16	51.75	7.61	
2025-01-15 08:23:49.36	51.71	7.62	
2025-01-15 08:23:49.56	51.68	7.63	
2025-01-15 08:23:49.77	51.64	7.63	
2025-01-15 08:23:49.97	51.61	7.64	
2025-01-15 08:23:50.17	51.57	7.64	
2025-01-15 08:23:50.38	51.54	7.65	
2025-01-15 08:23:50.58	51.50	7.66	
2025-01-15 08:23:50.78	51.47	7.66	
2025-01-15 08:23:50.99	51.43	7.67	
2025-01-15 08:23:51.19	51.39	7.68	
2025-01-15 08:23:51.39	51.36	7.68	
2025-01-15 08:23:51.59	51.32	7.69	
2025-01-15 08:23:51.80	51.29	7.69	
2025-01-15 08:23:52.00	51.25	7.70	
2025-01-15 08:23:52.20	51.22	7.71	
2025-01-15 08:23:52.41	51.18	7.71	
2025-01-15 08:23:52.61	51.14	7.72	
2025-01-15 08:23:52.81	51.11	7.72	
2025-01-15 08:23:53.02	51.07	7.73	
2025-01-15 08:23:53.22	51.04	7.74	
2025-01-15 08:23:53.42	51.00	7.74	
2025-01-15 08:23:53.63	50.97	7.75	
2025-01-15 08:23:53.83	50.93	7.76	
2025-01-15 08:23:54.03	50.90	7.76	
2025-01-15 08:23:54.24	50.86	7.77	
2025-01-15 08:23:54.44	50.82	7.77	
2025-01-15 08:23:54.64	50.79	7.78	
2025-01-15 08:23:54.84	50.75	7.79	
2025-01-15 08:23:55.05	50.72	7.79	
2025-01-15 08:23:55.25	50.68	7.80	
2025-01-15 08:23:55.45	50.65	7.80	
2025-01-15 08:23:55.66	50.61	7.81	
2025-01-15 08:23:55.86	50.57	7.82	
2025-01-15 08:23:56.06	50.54	7.82	
2025-01-15 08:23:56.27	50.50	7.83	
2025-01-15 08:23:56.47	50.46	7.83	
2025-01-15 08:23:56.67	50.43	7.84	
2025-01-15 08:23:56.88	50.39	7.85	
2025-01-15 08:23:57.08	50.36	7.85	
2025-01-15 08:23:57.28	50.32	7.86	
2025-01-15 08:23:57.49	50.28	7.86	
2025-01-15 08:23:57.69	50.25	7.87	
2025-01-15 08:23:57.89	50.21	7.88	
2025-01-15 08:23:58.09	50.18	7.88	
2025-01-15 08:23:58.30	50.14	7.89	
2025-01-15 08:23:58.50	50.10	7.89	
2025-01-15 08:23:58.70	50.07	7.90	
2025-01-15 08:23:58.91	50.03	7.91	
2025-01-15 08:23:59.11	50.00	7.91	
2025-01-15 08:23:59.31	49.96	7.92	
2025-01-15 08:23:59.52	49.92	7.92	
2025-01-15 08:23:59.72	49.89	7.93	
2025-01-15 08:23:59.92	49.85	7.93	
2025-01-15 08:24:00.13	49.81	7.94	
2025-01-15 08:24:00.33	49.78	7.95	
2025-01-15 08:24:00.53	49.74	7.95	
2025-01-15 08:24:00.74	49.71	7.96	
2025-01-15 08:24:00.94	49.67	7.96	
2025-01-15 08:24:01.14	49.63	7.97	
2025-01-15 08:24:01.35	49.60	7.98	
2025-01-15 08:24:01.55	49.56	7.98	
2025-01-15 08:24:01.75	49.53	7.99	
2025-01-15 08:24:01.95	49.49	7.99	
2025-01-15 08:24:02.16	49.45	8.00	
2025-01-15 08:24:02.36	49.42	8.00	
2025-01-15 08:24:02.56	49.38	8.01	
2025-01-15 08:24:02.77	49.34	8.02	
2025-01-15 08:24:02.97	49.31	8.02	
2025-01-15 08:24:03.17	49.27	8.03	
2025-01-15 08:24:03.38	49.23	8.03	
2025-01-15 08:24:03.58	49.20	8.04	
2025-01-15 08:24:03.78	49.16	8.04	
2025-01-15 08:24:03.99	49.12	8.05	
2025-01-15 08:24:04.19	49.09	8.06	
2025-01-15 08:24:04.39	49.05	8.06	
2025-01-15 08:24:04.60	49.01	8.07	
2025-01-15 08:24:04.80	48.98	8.07	
2025-01-15 08:24:05.00	48.94	8.08	
2025-01-15 08:24:05.20	48.91	8.08	
2025-01-15 08:24:05.41	48.87	8.09	
2025-01-15 08:24:05.61	48.83	8.09	
2025-01-15 08:24:05.81	48.80	8.10	
2025-01-15 08:24:06.02	48.76	8.11	
2025-01-15 08:24:06.22	48.72	8.11	
2025-01-15 08:24:06.42	48.69	8.12	
2025-01-15 08:24:06.63	48.65	8.12	
2025-01-15 08:24:06.83	48.61	8.13	
2025-01-15 08:24:07.03	48.58	8.13	
2025-01-15 08:24:07.24	48.54	8.14	
2025-01-15 08:24:07.44	48.50	8.14	
2025-01-15 08:24:07.64	48.46	8.15	
2025-01-15 08:24:07.85	48.43	8.16	
2025-01-15 08:24:08.05	48.39	8.16	
2025-01-15 08:24:08.25	48.35	8.17	
2025-01-15 08:24:08.45	48.32	8.17	
2025-01-15 08:24:08.66	48.28	8.18	
2025-01-15 08:24:08.86	48.24	8.18	
2025-01-15 08:24:09.06	48.21	8.19	
2025-01-15 08:24:09.27	48.17	8.19	
2025-01-15 08:24:09.47	48.13	8.20	
2025-01-15 08:24:09.67	48.10	8.20	
2025-01-15 08:24:09.88	48.06	8.21	
2025-01-15 08:24:10.08	48.02	8.22	
2025-01-15 08:24:10.28	47.99	8.22	
2025-01-15 08:24:10.49	47.95	8.23	
2025-01-15 08:24:10.69	47.91	8.23	
2025-01-15 08:24:10.89	47.87	8.24	
2025-01-15 08:24:11.10	47.84	8.24	
2025-01-15 08:24:11.30	47.80	8.25	
2025-01-15 08:24:11.50	47.76	8.25	
2025-01-15 08:24:11.71	47.72	8.26	
2025-01-15 08:24:11.91	47.69	8.26	
2025-01-15 08:24:12.11	47.65	8.27	
2025-01-15 08:24:12.31	47.61	8.27	
2025-01-15 08:24:12.52	47.58	8.28	
2025-01-15 08:24:12.72	47.54	8.28	
2025-01-15 08:24:12.92	47.50	8.29	
2025-01-15 08:24:13.13	47.46	8.30	
2025-01-15 08:24:13.33	47.43	8.30	
2025-01-15 08:24:13.53	47.39	8.31	
2025-01-15 08:24:13.74	47.35	8.31	
2025-01-15 08:24:13.94	47.32	8.32	
2025-01-15 08:24:14.14	47.28	8.32	
2025-01-15 08:24:14.35	47.24	8.33	
2025-01-15 08:24:14.55	47.20	8.33	
2025-01-15 08:24:14.75	47.17	8.34	
2025-01-15 08:24:14.96	47.13	8.34	
2025-01-15 08:24:15.16	47.09	8.35	
2025-01-15 08:24:15.36	47.06	8.35	
2025-01-15 08:24:15.56	47.02	8.36	
2025-01-15 08:24:15.77	46.98	8.36	
2025-01-15 08:24:15.97	46.94	8.37	
2025-01-15 08:24:16.17	46.91	8.37	
2025-01-15 08:24:16.38	46.87	8.38	
2025-01-15 08:24:16.58	46.83	8.38	
2025-01-15 08:24:16.78	46.79	8.39	
2025-01-15 08:24:16.99	46.76	8.39	
2025-01-15 08:24:17.19	46.72	8.40	
2025-01-15 08:24:17.39	46.68	8.40	
2025-01-15 08:24:17.60	46.64	8.41	
2025-01-15 08:24:17.80	46.61	8.41	
2025-01-15 08:24:18.00	46.57	8.42	
2025-01-15 08:24:18.21	46.53	8.42	
2025-01-15 08:24:18.41	46.49	8.43	
2025-01-15 08:24:18.61	46.46	8.43	
2025-01-15 08:24:18.81	46.42	8.44	
2025-01-15 08:24:19.02	46.38	8.44	
2025-01-15 08:24:19.22	46.34	8.45	
2025-01-15 08:24:19.42	46.31	8.45	
2025-01-15 08:24:19.63	46.27	8.46	
2025-01-15 08:24:19.83	46.23	8.46	
2025-01-15 08:24:20.03	46.19	8.47	
2025-01-15 08:24:20.24	46.15	8.47	
2025-01-15 08:24:20.44	46.12	8.48	
2025-01-15 08:24:20.64	46.08	8.48	
2025-01-15 08:24:20.85	46.04	8.49	
2025-01-15 08:24:21.05	46.00	8.49	
2025-01-15 08:24:21.25	45.97	8.50	
2025-01-15 08:24:21.46	45.93	8.50	
2025-01-15 08:24:21.66	45.89	8.51	
2025-01-15 08:24:21.86	45.85	8.51	
2025-01-15 08:24:22.07	45.81	8.52	
2025-01-15 08:24:22.27	45.78	8.52	
2025-01-15 08:24:22.47	45.74	8.53	
2025-01-15 08:24:22.67	45.70	8.53	
2025-01-15 08:24:22.88	45.66	8.54	
2025-01-15 08:24:23.08	45.63	8.54	
2025-01-15 08:24:23.28	45.59	8.55	
2025-01-15 08:24:23.49	45.55	8.55	
2025-01-15 08:24:23.69	45.51	8.56	
2025-01-15 08:24:23.89	45.47	8.56	
2025-01-15 08:24:24.10	45.43	8.56	
2025-01-15 08:24:24.30	45.40	8.57	
2025-01-15 08:24:24.50	45.36	8.57	
2025-01-15 08:24:24.71	45.32	8.58	
2025-01-15 08:24:24.91	45.28	8.58	
2025-01-15 08:24:25.11	45.25	8.59	
2025-01-15 08:24:25.32	45.21	8.59	
2025-01-15 08:24:25.52	45.17	8.60	
2025-01-15 08:24:25.72	45.13	8.60	
2025-01-15 08:24:25.92	45.09	8.61	
2025-01-15 08:24:26.13	45.05	8.61	
2025-01-15 08:24:26.33	45.02	8.62	
2025-01-15 08:24:26.53	44.98	8.62	
2025-01-15 08:24:26.74	44.94	8.63	
2025-01-15 08:24:26.94	44.90	8.63	
2025-01-15 08:24:27.14	44.87	8.63	
2025-01-15 08:24:27.35	44.83	8.64	
2025-01-15 08:24:27.55	44.79	8.64	
2025-01-15 08:24:27.75	44.75	8.65	
2025-01-15 08:24:27.96	44.71	8.65	
2025-01-15 08:24:28.16	44.67	8.66	
2025-01-15 08:24:28.36	44.64	8.66	
2025-01-15 08:24:28.57	44.60	8.67	
2025-01-15 08:24:28.77	44.56	8.67	
2025-01-15 08:24:28.97	44.52	8.67	
2025-01-15 08:24:29.17	44.48	8.68	
2025-01-15 08:24:29.38	44.44	8.68	
2025-01-15 08:24:29.58	44.41	8.69	
2025-01-15 08:24:29.78	44.37	8.69	
2025-01-15 08:24:29.99	44.33	8.70	
2025-01-15 08:24:30.19	44.29	8.70	
2025-01-15 08:24:30.39	44.25	8.71	
2025-01-15 08:24:30.60	44.21	8.71	
2025-01-15 08:24:30.80	44.18	8.71	
2025-01-15 08:24:31.00	44.14	8.72	
2025-01-15 08:24:31.21	44.10	8.72	
2025-01-15 08:24:31.41	44.06	8.73	
2025-01-15 08:24:31.61	44.02	8.73	
2025-01-15 08:24:31.82	43.98	8.74	
2025-01-15 08:24:32.02	43.94	8.74	
2025-01-15 08:24:32.22	43.91	8.75	
2025-01-15 08:24:32.42	43.87	8.75	
2025-01-15 08:24:32.63	43.83	8.75	
2025-01-15 08:24:32.83	43.79	8.76	
2025-01-15 08:24:33.03	43.75	8.76	
2025-01-15 08:24:33.24	43.71	8.77	
2025-01-15 08:24:33.44	43.68	8.77	
2025-01-15 08:24:33.64	43.64	8.77	
2025-01-15 08:24:33.85	43.60	8.78	
2025-01-15 08:24:34.05	43.56	8.78	
2025-01-15 08:24:34.25	43.52	8.79	
2025-01-15 08:24:34.46	43.48	8.79	
2025-01-15 08:24:34.66	43.44	8.80	
2025-01-15 08:24:34.86	43.41	8.80	
2025-01-15 08:24:35.07	43.37	8.80	
2025-01-15 08:24:35.27	43.33	8.81	
2025-01-15 08:24:35.47	43.29	8.81	
2025-01-15 08:24:35.68	43.25	8.82	
2025-01-15 08:24:35.88	43.21	8.82	
2025-01-15 08:24:36.08	43.17	8.82	
2025-01-15 08:24:36.28	43.14	8.83	
2025-01-15 08:24:36.49	43.10	8.83	
2025-01-15 08:24:36.69	43.06	8.84	
2025-01-15 08:24:36.89	43.02	8.84	
2025-01-15 08:24:37.10	42.98	8.85	
2025-01-15 08:24:37.30	42.94	8.85	
2025-01-15 08:24:37.50	42.90	8.85	
2025-01-15 08:24:37.71	42.86	8.86	
2025-01-15 08:24:37.91	42.82	8.86	
2025-01-15 08:24:38.11	42.79	8.87	
2025-01-15 08:24:38.32	42.75	8.87	
2025-01-15 08:24:38.52	42.71	8.87	
2025-01-15 08:24:38.72	42.67	8.88	
2025-01-15 08:24:38.93	42.63	8.88	
2025-01-15 08:24:39.13	42.59	8.89	
2025-01-15 08:24:39.33	42.55	8.89	
2025-01-15 08:24:39.53	42.51	8.89	
2025-01-15 08:24:39.74	42.47	8.90	
2025-01-15 08:24:39.94	42.44	8.90	
2025-01-15 08:24:40.14	42.40	8.90	
2025-01-15 08:24:40.35	42.36	8.91	
2025-01-15 08:24:40.55	42.32	8.91	
2025-01-15 08:24:40.75	42.28	8.92	
2025-01-15 08:24:40.96	42.24	8.92	
2025-01-15 08:24:41.16	42.20	8.92	
2025-01-15 08:24:41.36	42.16	8.93	
2025-01-15 08:24:41.57	42.12	8.93	
2025-01-15 08:24:41.77	42.08	8.94	
2025-01-15 08:24:41.97	42.05	8.94	
2025-01-15 08:24:42.18	42.01	8.94	
2025-01-15 08:24:42.38	41.97	8.95	
2025-01-15 08:24:42.58	41.93	8.95	
2025-01-15 08:24:42.79	41.89	8.95	
2025-01-15 08:24:42.99	41.85	8.96	
2025-01-15 08:24:43.19	41.81	8.96	
2025-01-15 08:24:43.39	41.77	8.97	
2025-01-15 08:24:43.60	41.73	8.97	
2025-01-15 08:24:43.80	41.69	8.97	
2025-01-15 08:24:44.00	41.66	8.98	
2025-01-15 08:24:44.21	41.62	8.98	
2025-01-15 08:24:44.41	41.58	8.98	
2025-01-15 08:24:44.61	41.54	8.99	
2025-01-15 08:24:44.82	41.50	8.99	
2025-01-15 08:24:45.02	41.46	8.99	
2025-01-15 08:24:45.22	41.42	9.00	
2025-01-15 08:24:45.43	41.38	9.00	
2025-01-15 08:24:45.63	41.34	9.01	
2025-01-15 08:24:45.83	41.30	9.01	
2025-01-15 08:24:46.04	41.26	9.01	
2025-01-15 08:24:46.24	41.22	9.02	
2025-01-15 08:24:46.44	41.18	9.02	
2025-01-15 08:24:46.64	41.15	9.02	
2025-01-15 08:24:46.85	41.11	9.03	
2025-01-15 08:24:47.05	41.07	9.03	
2025-01-15 08:24:47.25	41.03	9.03	
2025-01-15 08:24:47.46	40.99	9.04	
2025-01-15 08:24:47.66	40.95	9.04	
2025-01-15 08:24:47.86	40.91	9.04	
2025-01-15 08:24:48.07	40.87	9.05	
2025-01-15 08:24:48.27	40.83	9.05	
2025-01-15 08:24:48.47	40.79	9.05	
2025-01-15 08:24:48.68	40.75	9.06	
2025-01-15 08:24:48.88	40.71	9.06	
2025-01-15 08:24:49.08	40.67	9.06	
2025-01-15 08:24:49.29	40.63	9.07	
2025-01-15 08:24:49.49	40.59	9.07	
2025-01-15 08:24:49.69	40.56	9.07	
2025-01-15 08:24:49.89	40.52	9.08	
2025-01-15 08:24:50.10	40.48	9.08	
2025-01-15 08:24:50.30	40.44	9.08	
2025-01-15 08:24:50.50	40.40	9.09	
2025-01-15 08:24:50.71	40.36	9.09	
2025-01-15 08:24:50.91	40.32	9.09	
2025-01-15 08:24:51.11	40.28	9.10	
2025-01-15 08:24:51.32	40.24	9.10	
2025-01-15 08:24:51.52	40.20	9.10	
2025-01-15 08:24:51.72	40.16	9.11	
2025-01-15 08:24:51.93	40.12	9.11	
2025-01-15 08:24:52.13	40.08	9.11	
2025-01-15 08:24:52.33	40.04	9.12	
2025-01-15 08:24:52.54	40.00	9.12	
2025-01-15 08:24:52.74	39.96	9.12	
2025-01-15 08:24:52.94	39.92	9.13	
2025-01-15 08:24:53.15	39.88	9.13	
2025-01-15 08:24:53.35	39.84	9.13	
2025-01-15 08:24:53.55	39.80	9.14	
2025-01-15 08:24:53.75	39.77	9.14	
2025-01-15 08:24:53.96	39.72	9.14	
2025-01-15 08:24:54.16	39.69	9.14	
2025-01-15 08:24:54.36	39.65	9.15	
2025-01-15 08:24:54.57	39.61	9.15	
2025-01-15 08:24:54.77	39.57	9.15	
2025-01-15 08:24:54.97	39.53	9.16	
2025-01-15 08:24:55.18	39.49	9.16	
2025-01-15 08:24:55.38	39.45	9.16	
2025-01-15 08:24:55.58	39.41	9.17	
2025-01-15 08:24:55.79	39.37	9.17	
2025-01-15 08:24:55.99	39.33	9.17	
2025-01-15 08:24:56.19	39.29	9.17	
2025-01-15 08:24:56.40	39.25	9.18	
2025-01-15 08:24:56.60	39.21	9.18	
2025-01-15 08:24:56.80	39.17	9.18	
2025-01-15 08:24:57.00	39.13	9.19	
2025-01-15 08:24:57.21	39.09	9.19	
2025-01-15 08:24:57.41	39.05	9.19	
2025-01-15 08:24:57.61	39.01	9.20	
2025-01-15 08:24:57.82	38.97	9.20	
2025-01-15 08:24:58.02	38.93	9.20	
2025-01-15 08:24:58.22	38.89	9.20	
2025-01-15 08:24:58.43	38.85	9.21	
2025-01-15 08:24:58.63	38.81	9.21	
2025-01-15 08:24:58.83	38.77	9.21	
2025-01-15 08:24:59.04	38.73	9.22	
2025-01-15 08:24:59.24	38.69	9.22	
2025-01-15 08:24:59.44	38.65	9.22	
2025-01-15 08:24:59.65	38.61	9.22	
2025-01-15 08:24:59.85	38.57	9.23	
2025-01-15 08:25:00.05	38.53	9.23	
2025-01-15 08:25:00.25	38.49	9.23	
2025-01-15 08:25:00.46	38.45	9.23	
2025-01-15 08:25:00.66	38.41	9.24	
2025-01-15 08:25:00.86	38.37	9.24	
2025-01-15 08:25:01.07	38.33	9.24	
2025-01-15 08:25:01.27	38.29	9.25	
2025-01-15 08:25:01.47	38.25	9.25	
2025-01-15 08:25:01.68	38.21	9.25	
2025-01-15 08:25:01.88	38.17	9.25	
2025-01-15 08:25:02.08	38.13	9.26	
2025-01-15 08:25:02.29	38.09	9.26	
2025-01-15 08:25:02.49	38.05	9.26	
2025-01-15 08:25:02.69	38.01	9.26	
2025-01-15 08:25:02.90	37.97	9.27	
2025-01-15 08:25:03.10	37.93	9.27	
2025-01-15 08:25:03.30	37.89	9.27	
2025-01-15 08:25:03.51	37.85	9.27	
2025-01-15 08:25:03.71	37.81	9.28	
2025-01-15 08:25:03.91	37.77	9.28	
2025-01-15 08:25:04.11	37.73	9.28	
2025-01-15 08:25:04.32	37.69	9.28	
2025-01-15 08:25:04.52	37.65	9.29	
2025-01-15 08:25:04.72	37.61	9.29	
2025-01-15 08:25:04.93	37.57	9.29	
2025-01-15 08:25:05.13	37.53	9.29	
2025-01-15 08:25:05.33	37.49	9.30	
2025-01-15 08:25:05.54	37.45	9.30	
2025-01-15 08:25:05.74	37.41	9.30	
2025-01-15 08:25:05.94	37.37	9.30	
2025-01-15 08:25:06.15	37.33	9.31	
2025-01-15 08:25:06.35	37.29	9.31	
2025-01-15 08:25:06.55	37.25	9.31	
2025-01-15 08:25:06.76	37.21	9.31	
2025-01-15 08:25:06.96	37.17	9.31	
2025-01-15 08:25:07.16	37.13	9.32	
2025-01-15 08:25:07.36	37.09	9.32	
2025-01-15 08:25:07.57	37.05	9.32	
2025-01-15 08:25:07.77	37.01	9.32	
2025-01-15 08:25:07.97	36.97	9.33	
2025-01-15 08:25:08.18	36.93	9.33	
2025-01-15 08:25:08.38	36.89	9.33	
2025-01-15 08:25:08.58	36.85	9.33	
2025-01-15 08:25:08.79	36.81	9.34	
2025-01-15 08:25:08.99	36.77	9.34	
2025-01-15 08:25:09.19	36.73	9.34	
2025-01-15 08:25:09.40	36.69	9.34	
2025-01-15 08:25:09.60	36.65	9.34	
2025-01-15 08:25:09.80	36.61	9.35	
2025-01-15 08:25:10.01	36.57	9.35	
2025-01-15 08:25:10.21	36.53	9.35	
2025-01-15 08:25:10.41	36.49	9.35	
2025-01-15 08:25:10.61	36.45	9.35	
2025-01-15 08:25:10.82	36.41	9.36	
2025-01-15 08:25:11.02	36.37	9.36	
2025-01-15 08:25:11.22	36.33	9.36	
2025-01-15 08:25:11.43	36.29	9.36	
2025-01-15 08:25:11.63	36.25	9.36	
2025-01-15 08:25:11.83	36.21	9.37	
2025-01-15 08:25:12.04	36.16	9.37	
2025-01-15 08:25:12.24	36.13	9.37	
2025-01-15 08:25:12.44	36.09	9.37	
2025-01-15 08:25:12.65	36.04	9.37	
2025-01-15 08:25:12.85	36.00	9.38	
2025-01-15 08:25:13.05	35.96	9.38	
2025-01-15 08:25:13.26	35.92	9.38	
2025-01-15 08:25:13.46	35.88	9.38	
2025-01-15 08:25:13.66	35.84	9.38	
2025-01-15 08:25:13.87	35.80	9.39	
2025-01-15 08:25:14.07	35.76	9.39	
2025-01-15 08:25:14.27	35.72	9.39	
2025-01-15 08:25:14.47	35.68	9.39	
2025-01-15 08:25:14.68	35.64	9.39	
2025-01-15 08:25:14.88	35.60	9.40	
2025-01-15 08:25:15.08	35.56	9.40	
2025-01-15 08:25:15.29	35.52	9.40	
2025-01-15 08:25:15.49	35.48	9.40	
2025-01-15 08:25:15.69	35.44	9.40	
2025-01-15 08:25:15.90	35.40	9.40	
2025-01-15 08:25:16.10	35.36	9.41	
2025-01-15 08:25:16.30	35.32	9.41	
2025-01-15 08:25:16.51	35.28	9.41	
2025-01-15 08:25:16.71	35.24	9.41	
2025-01-15 08:25:16.91	35.20	9.41	
2025-01-15 08:25:17.12	35.16	9.41	
2025-01-15 08:25:17.32	35.12	9.42	
2025-01-15 08:25:17.52	35.08	9.42	
2025-01-15 08:25:17.72	35.04	9.42	
2025-01-15 08:25:17.93	34.99	9.42	
2025-01-15 08:25:18.13	34.95	9.42	
2025-01-15 08:25:18.33	34.91	9.42	
2025-01-15 08:25:18.54	34.87	9.43	
2025-01-15 08:25:18.74	34.83	9.43	
2025-01-15 08:25:18.94	34.79	9.43	
2025-01-15 08:25:19.15	34.75	9.43	
2025-01-15 08:25:19.35	34.71	9.43	
2025-01-15 08:25:19.55	34.67	9.43	
2025-01-15 08:25:19.76	34.63	9.44	
2025-01-15 08:25:19.96	34.59	9.44	
2025-01-15 08:25:20.16	34.55	9.44	
2025-01-15 08:25:20.37	34.51	9.44	
2025-01-15 08:25:20.57	34.47	9.44	
2025-01-15 08:25:20.77	34.43	9.44	
2025-01-15 08:25:20.97	34.39	9.44	
2025-01-15 08:25:21.18	34.35	9.45	
2025-01-15 08:25:21.38	34.31	9.45	
2025-01-15 08:25:21.58	34.27	9.45	
2025-01-15 08:25:21.79	34.22	9.45	
2025-01-15 08:25:21.99	34.18	9.45	
2025-01-15 08:25:22.19	34.14	9.45	
2025-01-15 08:25:22.40	34.10	9.45	
2025-01-15 08:25:22.60	34.06	9.46	
2025-01-15 08:25:22.80	34.02	9.46	
2025-01-15 08:25:23.01	33.98	9.46	
2025-01-15 08:25:23.21	33.94	9.46	
2025-01-15 08:25:23.41	33.90	9.46	
2025-01-15 08:25:23.62	33.86	9.46	
2025-01-15 08:25:23.82	33.82	9.46	
2025-01-15 08:25:24.02	33.78	9.46	
2025-01-15 08:25:24.23	33.74	9.47	
2025-01-15 08:25:24.43	33.70	9.47	
2025-01-15 08:25:24.63	33.66	9.47	
2025-01-15 08:25:24.83	33.62	9.47	
2025-01-15 08:25:25.04	33.58	9.47	
2025-01-15 08:25:25.24	33.54	9.47	
2025-01-15 08:25:25.44	33.50	9.47	
2025-01-15 08:25:25.65	33.45	9.47	
2025-01-15 08:25:25.85	33.41	9.48	
2025-01-15 08:25:26.05	33.37	9.48	
2025-01-15 08:25:26.26	33.33	9.48	
2025-01-15 08:25:26.46	33.29	9.48	
2025-01-15 08:25:26.66	33.25	9.48	
2025-01-15 08:25:26.87	33.21	9.48	
2025-01-15 08:25:27.07	33.17	9.48	
2025-01-15 08:25:27.27	33.13	9.48	
2025-01-15 08:25:27.48	33.09	9.48	
2025-01-15 08:25:27.68	33.05	9.49	
2025-01-15 08:25:27.88	33.01	9.49	
2025-01-15 08:25:28.08	32.97	9.49	
2025-01-15 08:25:28.29	32.93	9.49	
2025-01-15 08:25:28.49	32.88	9.49	
2025-01-15 08:25:28.69	32.84	9.49	
2025-01-15 08:25:28.90	32.80	9.49	
2025-01-15 08:25:29.10	32.76	9.49	
2025-01-15 08:25:29.30	32.72	9.49	
2025-01-15 08:25:29.51	32.68	9.49	
2025-01-15 08:25:29.71	32.64	9.49	
2025-01-15 08:25:29.91	32.60	9.50	
2025-01-15 08:25:30.12	32.56	9.50	
2025-01-15 08:25:30.32	32.52	9.50	
2025-01-15 08:25:30.52	32.48	9.50	
2025-01-15 08:25:30.73	32.44	9.50	
2025-01-15 08:25:30.93	32.40	9.50	
2025-01-15 08:25:31.13	32.36	9.50	
2025-01-15 08:25:31.33	32.32	9.50	
2025-01-15 08:25:31.54	32.27	9.50	
2025-01-15 08:25:31.74	32.23	9.50	
2025-01-15 08:25:31.94	32.19	9.50	
2025-01-15 08:25:32.15	32.15	9.50	
2025-01-15 08:25:32.35	32.11	9.51	
2025-01-15 08:25:32.55	32.07	9.51	
2025-01-15 08:25:32.76	32.03	9.51	
2025-01-15 08:25:32.96	31.99	9.51	
2025-01-15 08:25:33.16	31.95	9.51	
2025-01-15 08:25:33.37	31.91	9.51	
2025-01-15 08:25:33.57	31.87	9.51	
2025-01-15 08:25:33.77	31.83	9.51	
2025-01-15 08:25:33.98	31.79	9.51	
2025-01-15 08:25:34.18	31.75	9.51	
2025-01-15 08:25:34.38	31.71	9.51	
2025-01-15 08:25:34.59	31.66	9.51	
2025-01-15 08:25:34.79	31.62	9.51	
2025-01-15 08:25:34.99	31.58	9.51	
2025-01-15 08:25:35.19	31.54	9.51	
2025-01-15 08:25:35.40	31.50	9.51	
2025-01-15 08:25:35.60	31.46	9.52	
2025-01-15 08:25:35.80	31.42	9.52	
2025-01-15 08:25:36.01	31.38	9.52	
2025-01-15 08:25:36.21	31.34	9.52	
2025-01-15 08:25:36.41	31.30	9.52	
2025-01-15 08:25:36.62	31.26	9.52	
2025-01-15 08:25:36.82	31.22	9.52	
2025-01-15 08:25:37.02	31.18	9.52	
2025-01-15 08:25:37.23	31.13	9.52	
2025-01-15 08:25:37.43	31.09	9.52	
2025-01-15 08:25:37.63	31.05	9.52	
2025-01-15 08:25:37.84	31.01	9.52	
2025-01-15 08:25:38.04	30.97	9.52	
2025-01-15 08:25:38.24	30.93	9.52	
2025-01-15 08:25:38.44	30.89	9.52	
2025-01-15 08:25:38.65	30.85	9.52	
2025-01-15 08:25:38.85	30.81	9.52	
2025-01-15 08:25:39.05	30.77	9.52	
2025-01-15 08:25:39.26	30.73	9.52	
2025-01-15 08:25:39.46	30.69	9.52	
2025-01-15 08:25:39.66	30.65	9.52	
2025-01-15 08:25:39.87	30.60	9.52	
2025-01-15 08:25:40.07	30.56	9.52	
2025-01-15 08:25:40.27	30.52	9.52	
2025-01-15 08:25:40.48	30.48	9.52	
2025-01-15 08:25:40.68	30.44	9.52	
2025-01-15 08:25:40.88	30.40	9.52	
2025-01-15 08:25:41.09	30.36	9.52	
2025-01-15 08:25:41.29	30.32	9.52	
2025-01-15 08:25:41.49	30.28	9.52	
2025-01-15 08:25:41.69	30.24	9.52	
2025-01-15 08:25:41.90	30.20	9.52	
2025-01-15 08:25:42.10	30.16	9.53	
2025-01-15 08:25:42.30	30.12	9.53	
2025-01-15 08:25:42.51	30.07	9.53	
2025-01-15 08:25:42.71	30.03	9.53	
2025-01-15 08:25:42.91	29.99	9.53	
2025-01-15 08:25:43.12	29.95	9.53	
2025-01-15 08:25:43.32	29.91	9.53	
2025-01-15 08:25:43.52	29.87	9.53	
2025-01-15 08:25:43.73	29.83	9.53	
2025-01-15 08:25:43.93	29.79	9.53	
2025-01-15 08:25:44.13	29.75	9.53	
2025-01-15 08:25:44.34	29.71	9.53	
2025-01-15 08:25:44.54	29.67	9.53	
2025-01-15 08:25:44.74	29.63	9.53	
2025-01-15 08:25:44.95	29.58	9.53	
2025-01-15 08:25:45.15	29.54	9.53	
2025-01-15 08:25:45.35	29.50	9.52	
2025-01-15 08:25:45.55	29.46	9.52	
2025-01-15 08:25:45.76	29.42	9.52	
2025-01-15 08:25:45.96	29.38	9.52	
2025-01-15 08:25:46.16	29.34	9.52	
2025-01-15 08:25:46.37	29.30	9.52	
2025-01-15 08:25:46.57	29.26	9.52	
2025-01-15 08:25:46.77	29.22	9.52	
2025-01-15 08:25:46.98	29.18	9.52	
2025-01-15 08:25:47.18	29.14	9.52	
2025-01-15 08:25:47.38	29.10	9.52	
2025-01-15 08:25:47.59	29.05	9.52	
2025-01-15 08:25:47.79	29.01	9.52	
2025-01-15 08:25:47.99	28.97	9.52	
2025-01-15 08:25:48.20	28.93	9.52	
2025-01-15 08:25:48.40	28.89	9.52	
2025-01-15 08:25:48.60	28.85	9.52	
2025-01-15 08:25:48.80	28.81	9.52	
2025-01-15 08:25:49.01	28.77	9.52	
2025-01-15 08:25:49.21	28.73	9.52	
2025-01-15 08:25:49.41	28.69	9.52	
2025-01-15 08:25:49.62	28.65	9.52	
2025-01-15 08:25:49.82	28.61	9.52	
2025-01-15 08:25:50.02	28.57	9.52	
2025-01-15 08:25:50.23	28.53	9.52	
2025-01-15 08:25:50.43	28.49	9.52	
2025-01-15 08:25:50.63	28.45	9.52	
2025-01-15 08:25:50.84	28.40	9.52	
2025-01-15 08:25:51.04	28.36	9.52	
2025-01-15 08:25:51.24	28.32	9.52	
2025-01-15 08:25:51.45	28.28	9.52	
2025-01-15 08:25:51.65	28.24	9.52	
2025-01-15 08:25:51.85	28.20	9.51	
2025-01-15 08:25:52.05	28.16	9.51	
2025-01-15 08:25:52.26	28.12	9.51	
2025-01-15 08:25:52.46	28.08	9.51	
2025-01-15 08:25:52.66	28.04	9.51	
2025-01-15 08:25:52.87	28.00	9.51	
2025-01-15 08:25:53.07	27.96	9.51	
2025-01-15 08:25:53.27	27.92	9.51	
2025-01-15 08:25:53.48	27.87	9.51	
2025-01-15 08:25:53.68	27.83	9.51	
2025-01-15 08:25:53.88	27.79	9.51	
2025-01-15 08:25:54.09	27.75	9.51	
2025-01-15 08:25:54.29	27.71	9.51	
2025-01-15 08:25:54.49	27.67	9.51	
2025-01-15 08:25:54.70	27.63	9.51	
2025-01-15 08:25:54.90	27.59	9.51	
2025-01-15 08:25:55.10	27.55	9.50	
2025-01-15 08:25:55.31	27.51	9.50	
2025-01-15 08:25:55.51	27.47	9.50	
2025-01-15 08:25:55.71	27.43	9.50	
2025-01-15 08:25:55.91	27.39	9.50	
2025-01-15 08:25:56.12	27.34	9.50	
2025-01-15 08:25:56.32	27.30	9.50	
2025-01-15 08:25:56.52	27.26	9.50	
2025-01-15 08:25:56.73	27.22	9.50	
2025-01-15 08:25:56.93	27.18	9.50	
2025-01-15 08:25:57.13	27.14	9.50	
2025-01-15 08:25:57.34	27.10	9.50	
2025-01-15 08:25:57.54	27.06	9.49	
2025-01-15 08:25:57.74	27.02	9.49	
2025-01-15 08:25:57.95	26.98	9.49	
2025-01-15 08:25:58.15	26.94	9.49	
2025-01-15 08:25:58.35	26.90	9.49	
2025-01-15 08:25:58.56	26.86	9.49	
2025-01-15 08:25:58.76	26.82	9.49	
2025-01-15 08:25:58.96	26.78	9.49	
2025-01-15 08:25:59.16	26.74	9.49	
2025-01-15 08:25:59.37	26.69	9.49	
2025-01-15 08:25:59.57	26.65	9.49	
2025-01-15 08:25:59.77	26.61	9.48	
2025-01-15 08:25:59.98	26.57	9.48	
2025-01-15 08:26:00.18	26.53	9.48	
2025-01-15 08:26:00.38	26.49	9.48	
2025-01-15 08:26:00.59	26.45	9.48	
2025-01-15 08:26:00.79	26.41	9.48	
2025-01-15 08:26:00.99	26.37	9.48	
2025-01-15 08:26:01.20	26.33	9.48	
2025-01-15 08:26:01.40	26.29	9.48	
2025-01-15 08:26:01.60	26.25	9.47	
2025-01-15 08:26:01.81	26.21	9.47	
2025-01-15 08:26:02.01	26.17	9.47	
2025-01-15 08:26:02.21	26.13	9.47	
2025-01-15 08:26:02.41	26.09	9.47	
2025-01-15 08:26:02.62	26.04	9.47	
2025-01-15 08:26:02.82	26.00	9.47	
2025-01-15 08:26:03.02	25.96	9.47	
2025-01-15 08:26:03.23	25.92	9.46	
2025-01-15 08:26:03.43	25.88	9.46	
2025-01-15 08:26:03.63	25.84	9.46	
2025-01-15 08:26:03.84	25.80	9.46	
2025-01-15 08:26:04.04	25.76	9.46	
2025-01-15 08:26:04.24	25.72	9.46	
2025-01-15 08:26:04.45	25.68	9.46	
2025-01-15 08:26:04.65	25.64	9.46	
2025-01-15 08:26:04.85	25.60	9.45	
2025-01-15 08:26:05.06	25.56	9.45	
2025-01-15 08:26:05.26	25.52	9.45	
2025-01-15 08:26:05.46	25.48	9.45	
2025-01-15 08:26:05.67	25.44	9.45	
2025-01-15 08:26:05.87	25.40	9.45	
2025-01-15 08:26:06.07	25.36	9.45	
2025-01-15 08:26:06.27	25.32	9.44	
2025-01-15 08:26:06.48	25.27	9.44	
2025-01-15 08:26:06.68	25.23	9.44	
2025-01-15 08:26:06.88	25.19	9.44	
2025-01-15 08:26:07.09	25.15	9.44	
2025-01-15 08:26:07.29	25.11	9.44	
2025-01-15 08:26:07.49	25.07	9.44	
2025-01-15 08:26:07.70	25.03	9.43	
2025-01-15 08:26:07.90	24.99	9.43	
2025-01-15 08:26:08.10	24.95	9.43	
2025-01-15 08:26:08.31	24.91	9.43	
2025-01-15 08:26:08.51	24.87	9.43	
2025-01-15 08:26:08.71	24.83	9.43	
2025-01-15 08:26:08.92	24.79	9.42	
2025-01-15 08:26:09.12	24.75	9.42	
2025-01-15 08:26:09.32	24.71	9.42	
2025-01-15 08:26:09.52	24.67	9.42	
2025-01-15 08:26:09.73	24.63	9.42	
2025-01-15 08:26:09.93	24.59	9.42	
2025-01-15 08:26:10.13	24.55	9.42	
2025-01-15 08:26:10.34	24.51	9.41	
2025-01-15 08:26:10.54	24.47	9.41	
2025-01-15 08:26:10.74	24.43	9.41	
2025-01-15 08:26:10.95	24.38	9.41	
2025-01-15 08:26:11.15	24.34	9.41	
2025-01-15 08:26:11.35	24.30	9.40	
2025-01-15 08:26:11.56	24.26	9.40	
2025-01-15 08:26:11.76	24.22	9.40	
2025-01-15 08:26:11.96	24.18	9.40	
2025-01-15 08:26:12.17	24.14	9.40	
2025-01-15 08:26:12.37	24.10	9.40	
2025-01-15 08:26:12.57	24.06	9.39	
2025-01-15 08:26:12.77	24.02	9.39	
2025-01-15 08:26:12.98	23.98	9.39	
2025-01-15 08:26:13.18	23.94	9.39	
2025-01-15 08:26:13.38	23.90	9.39	
2025-01-15 08:26:13.59	23.86	9.38	
2025-01-15 08:26:13.79	23.82	9.38	
2025-01-15 08:26:13.99	23.78	9.38	
2025-01-15 08:26:14.20	23.74	9.38	
2025-01-15 08:26:14.40	23.70	9.38	
2025-01-15 08:26:14.60	23.66	9.37	
2025-01-15 08:26:14.81	23.62	9.37	
2025-01-15 08:26:15.01	23.58	9.37	
2025-01-15 08:26:15.21	23.54	9.37	
2025-01-15 08:26:15.42	23.50	9.37	
2025-01-15 08:26:15.62	23.46	9.36	
2025-01-15 08:26:15.82	23.42	9.36	
2025-01-15 08:26:16.03	23.38	9.36	
2025-01-15 08:26:16.23	23.34	9.36	
2025-01-15 08:26:16.43	23.30	9.36	
2025-01-15 08:26:16.63	23.26	9.35	
2025-01-15 08:26:16.84	23.22	9.35	
2025-01-15 08:26:17.04	23.18	9.35	
2025-01-15 08:26:17.24	23.14	9.35	
2025-01-15 08:26:17.45	23.09	9.35	
2025-01-15 08:26:17.65	23.05	9.34	
2025-01-15 08:26:17.85	23.02	9.34	
2025-01-15 08:26:18.06	22.97	9.34	
2025-01-15 08:26:18.26	22.93	9.34	
2025-01-15 08:26:18.46	22.89	9.34	
2025-01-15 08:26:18.67	22.85	9.33	
2025-01-15 08:26:18.87	22.81	9.33	
2025-01-15 08:26:19.07	22.77	9.33	
2025-01-15 08:26:19.28	22.73	9.33	
2025-01-15 08:26:19.48	22.69	9.32	
2025-01-15 08:26:19.68	22.65	9.32	
2025-01-15 08:26:19.88	22.61	9.32	
2025-01-15 08:26:20.09	22.57	9.32	
2025-01-15 08:26:20.29	22.53	9.32	
2025-01-15 08:26:20.49	22.49	9.31	
2025-01-15 08:26:20.70	22.45	9.31	
2025-01-15 08:26:20.90	22.41	9.31	
2025-01-15 08:26:21.10	22.37	9.31	
2025-01-15 08:26:21.31	22.33	9.30	
2025-01-15 08:26:21.51	22.29	9.30	
2025-01-15 08:26:21.71	22.25	9.30	
2025-01-15 08:26:21.92	22.21	9.30	
2025-01-15 08:26:22.12	22.17	9.29	
2025-01-15 08:26:22.32	22.13	9.29	
2025-01-15 08:26:22.53	22.09	9.29	
2025-01-15 08:26:22.73	22.05	9.29	
2025-01-15 08:26:22.93	22.01	9.28	
2025-01-15 08:26:23.13	21.97	9.28	
2025-01-15 08:26:23.34	21.93	9.28	
2025-01-15 08:26:23.54	21.89	9.28	
2025-01-15 08:26:23.74	21.85	9.27	
2025-01-15 08:26:23.95	21.81	9.27	
2025-01-15 08:26:24.15	21.77	9.27	
2025-01-15 08:26:24.35	21.73	9.27	
2025-01-15 08:26:24.56	21.69	9.26	
2025-01-15 08:26:24.76	21.65	9.26	
2025-01-15 08:26:24.96	21.61	9.26	
2025-01-15 08:26:25.17	21.57	9.26	
2025-01-15 08:26:25.37	21.53	9.25	
2025-01-15 08:26:25.57	21.49	9.25	
2025-01-15 08:26:25.78	21.45	9.25	
2025-01-15 08:26:25.98	21.41	9.25	
2025-01-15 08:26:26.18	21.37	9.24	
2025-01-15 08:26:26.38	21.33	9.24	
2025-01-15 08:26:26.59	21.29	9.24	
2025-01-15 08:26:26.79	21.25	9.23	
2025-01-15 08:26:26.99	21.21	9.23	
2025-01-15 08:26:27.20	21.17	9.23	
2025-01-15 08:26:27.40	21.13	9.23	
2025-01-15 08:26:27.60	21.09	9.22	
2025-01-15 08:26:27.81	21.05	9.22	
2025-01-15 08:26:28.01	21.01	9.22	
2025-01-15 08:26:28.21	20.97	9.22	
2025-01-15 08:26:28.42	20.93	9.21	
2025-01-15 08:26:28.62	20.89	9.21	
2025-01-15 08:26:28.82	20.86	9.21	
2025-01-15 08:26:29.03	20.81	9.20	
2025-01-15 08:26:29.23	20.78	9.20	
2025-01-15 08:26:29.43	20.74	9.20	
2025-01-15 08:26:29.64	20.69	9.20	
2025-01-15 08:26:29.84	20.66	9.19	
2025-01-15 08:26:30.04	20.62	9.19	
2025-01-15 08:26:30.24	20.58	9.19	
2025-01-15 08:26:30.45	20.54	9.18	
2025-01-15 08:26:30.65	20.50	9.18	
2025-01-15 08:26:30.85	20.46	9.18	
2025-01-15 08:26:31.06	20.42	9.18	
2025-01-15 08:26:31.26	20.38	9.17	
2025-01-15 08:26:31.46	20.34	9.17	
2025-01-15 08:26:31.67	20.30	9.17	
2025-01-15 08:26:31.87	20.26	9.16	
2025-01-15 08:26:32.07	20.22	9.16	
2025-01-15 08:26:32.28	20.18	9.16	
2025-01-15 08:26:32.48	20.14	9.15	
2025-01-15 08:26:32.68	20.10	9.15	
2025-01-15 08:26:32.89	20.06	9.15	
2025-01-15 08:26:33.09	20.02	9.15	
2025-01-15 08:26:33.29	19.98	9.14	
2025-01-15 08:26:33.49	19.94	9.14	
2025-01-15 08:26:33.70	19.90	9.14	
2025-01-15 08:26:33.90	19.86	9.13	
2025-01-15 08:26:34.10	19.82	9.13	
2025-01-15 08:26:34.31	19.78	9.13	
2025-01-15 08:26:34.51	19.74	9.12	
2025-01-15 08:26:34.71	19.71	9.12	
2025-01-15 08:26:34.92	19.66	9.12	
2025-01-15 08:26:35.12	19.63	9.11	
2025-01-15 08:26:35.32	19.59	9.11	
2025-01-15 08:26:35.53	19.55	9.11	
2025-01-15 08:26:35.73	19.51	9.10	
2025-01-15 08:26:35.93	19.47	9.10	
2025-01-15 08:26:36.14	19.43	9.10	
2025-01-15 08:26:36.34	19.39	9.09	
2025-01-15 08:26:36.54	19.35	9.09	
2025-01-15 08:26:36.75	19.31	9.09	
2025-01-15 08:26:36.95	19.27	9.08	
2025-01-15 08:26:37.15	19.23	9.08	
2025-01-15 08:26:37.35	19.19	9.08	
2025-01-15 08:26:37.56	19.15	9.07	
2025-01-15 08:26:37.76	19.11	9.07	
2025-01-15 08:26:37.96	19.07	9.07	
2025-01-15 08:26:38.17	19.03	9.06	
2025-01-15 08:26:38.37	19.00	9.06	
2025-01-15 08:26:38.57	18.96	9.06	
2025-01-15 08:26:38.78	18.92	9.05	
2025-01-15 08:26:38.98	18.88	9.05	
2025-01-15 08:26:39.18	18.84	9.05	
2025-01-15 08:26:39.39	18.80	9.04	
2025-01-15 08:26:39.59	18.76	9.04	
2025-01-15 08:26:39.79	18.72	9.04	
2025-01-15 08:26:40.00	18.68	9.03	
2025-01-15 08:26:40.20	18.64	9.03	
2025-01-15 08:26:40.40	18.60	9.03	
2025-01-15 08:26:40.60	18.56	9.02	
2025-01-15 08:26:40.81	18.52	9.02	
2025-01-15 08:26:41.01	18.48	9.02	
2025-01-15 08:26:41.21	18.45	9.01	
2025-01-15 08:26:41.42	18.41	9.01	
2025-01-15 08:26:41.62	18.37	9.01	
2025-01-15 08:26:41.82	18.33	9.00	
2025-01-15 08:26:42.03	18.29	9.00	
2025-01-15 08:26:42.23	18.25	9.00	
2025-01-15 08:26:42.43	18.21	8.99	
2025-01-15 08:26:42.64	18.17	8.99	
2025-01-15 08:26:42.84	18.13	8.98	
2025-01-15 08:26:43.04	18.09	8.98	
2025-01-15 08:26:43.25	18.05	8.98	
2025-01-15 08:26:43.45	18.01	8.97	
2025-01-15 08:26:43.65	17.98	8.97	
2025-01-15 08:26:43.85	17.94	8.97	
2025-01-15 08:26:44.06	17.90	8.96	
2025-01-15 08:26:44.26	17.86	8.96	
2025-01-15 08:26:44.46	17.82	8.95	
2025-01-15 08:26:44.67	17.78	8.95	
2025-01-15 08:26:44.87	17.74	8.95	
2025-01-15 08:26:45.07	17.70	8.94	
2025-01-15 08:26:45.28	17.66	8.94	
2025-01-15 08:26:45.48	17.62	8.94	
2025-01-15 08:26:45.68	17.59	8.93	
2025-01-15 08:26:45.89	17.55	8.93	
2025-01-15 08:26:46.09	17.51	8.92	
2025-01-15 08:26:46.29	17.47	8.92	
2025-01-15 08:26:46.50	17.43	8.92	
2025-01-15 08:26:46.70	17.39	8.91	
2025-01-15 08:26:46.90	17.35	8.91	
2025-01-15 08:26:47.11	17.31	8.91	
2025-01-15 08:26:47.31	17.27	8.90	
2025-01-15 08:26:47.51	17.24	8.90	
2025-01-15 08:26:47.71	17.20	8.89	
2025-01-15 08:26:47.92	17.16	8.89	
2025-01-15 08:26:48.12	17.12	8.89	
2025-01-15 08:26:48.32	17.08	8.88	
2025-01-15 08:26:48.53	17.04	8.88	
2025-01-15 08:26:48.73	17.00	8.87	
2025-01-15 08:26:48.93	16.96	8.87	
2025-01-15 08:26:49.14	16.92	8.87	
2025-01-15 08:26:49.34	16.89	8.86	
2025-01-15 08:26:49.54	16.85	8.86	
2025-01-15 08:26:49.75	16.81	8.85	
2025-01-15 08:26:49.95	16.77	8.85	
2025-01-15 08:26:50.15	16.73	8.85	
2025-01-15 08:26:50.36	16.69	8.84	
2025-01-15 08:26:50.56	16.65	8.84	
2025-01-15 08:26:50.76	16.62	8.83	
2025-01-15 08:26:50.96	16.58	8.83	
2025-01-15 08:26:51.17	16.54	8.83	
2025-01-15 08:26:51.37	16.50	8.82	
2025-01-15 08:26:51.57	16.46	8.82	
2025-01-15 08:26:51.78	16.42	8.81	
2025-01-15 08:26:51.98	16.38	8.81	
2025-01-15 08:26:52.18	16.35	8.81	
2025-01-15 08:26:52.39	16.31	8.80	
2025-01-15 08:26:52.59	16.27	8.80	
2025-01-15 08:26:52.79	16.23	8.79	
2025-01-15 08:26:53.00	16.19	8.79	
2025-01-15 08:26:53.20	16.15	8.78	
2025-01-15 08:26:53.40	16.11	8.78	
2025-01-15 08:26:53.61	16.07	8.78	
2025-01-15 08:26:53.81	16.04	8.77	
2025-01-15 08:26:54.01	16.00	8.77	
2025-01-15 08:26:54.21	15.96	8.76	
2025-01-15 08:26:54.42	15.92	8.76	
2025-01-15 08:26:54.62	15.88	8.75	
2025-01-15 08:26:54.82	15.84	8.75	
2025-01-15 08:26:55.03	15.81	8.75	
2025-01-15 08:26:55.23	15.77	8.74	
2025-01-15 08:26:55.43	15.73	8.74	
2025-01-15 08:26:55.64	15.69	8.73	
2025-01-15 08:26:55.84	15.65	8.73	
2025-01-15 08:26:56.04	15.61	8.72	
2025-01-15 08:26:56.25	15.57	8.72	
2025-01-15 08:26:56.45	15.54	8.72	
2025-01-15 08:26:56.65	15.50	8.71	
2025-01-15 08:26:56.86	15.46	8.71	
2025-01-15 08:26:57.06	15.42	8.70	
2025-01-15 08:26:57.26	15.38	8.70	
2025-01-15 08:26:57.47	15.34	8.69	
2025-01-15 08:26:57.67	15.31	8.69	
2025-01-15 08:26:57.87	15.27	8.69	
2025-01-15 08:26:58.07	15.23	8.68	
2025-01-15 08:26:58.28	15.19	8.68	
2025-01-15 08:26:58.48	15.15	8.67	
2025-01-15 08:26:58.68	15.12	8.67	
2025-01-15 08:26:58.89	15.08	8.66	
2025-01-15 08:26:59.09	15.04	8.66	
2025-01-15 08:26:59.29	15.00	8.65	
2025-01-15 08:26:59.50	14.96	8.65	
2025-01-15 08:26:59.70	14.93	8.64	
2025-01-15 08:26:59.90	14.89	8.64	
2025-01-15 08:27:00.11	14.85	8.64	
2025-01-15 08:27:00.31	14.81	8.63	
2025-01-15 08:27:00.51	14.77	8.63	
2025-01-15 08:27:00.72	14.73	8.62	
2025-01-15 08:27:00.92	14.70	8.62	
2025-01-15 08:27:01.12	14.66	8.61	
2025-01-15 08:27:01.32	14.62	8.61	
2025-01-15 08:27:01.53	14.58	8.60	
2025-01-15 08:27:01.73	14.55	8.60	
2025-01-15 08:27:01.93	14.51	8.59	
2025-01-15 08:27:02.14	14.47	8.59	
2025-01-15 08:27:02.34	14.43	8.58	
2025-01-15 08:27:02.54	14.39	8.58	
2025-01-15 08:27:02.75	14.35	8.58	
2025-01-15 08:27:02.95	14.32	8.57	
2025-01-15 08:27:03.15	14.28	8.57	
2025-01-15 08:27:03.36	14.24	8.56	
2025-01-15 08:27:03.56	14.20	8.56	
2025-01-15 08:27:03.76	14.17	8.55	
2025-01-15 08:27:03.97	14.13	8.55	
2025-01-15 08:27:04.17	14.09	8.54	
2025-01-15 08:27:04.37	14.05	8.54	
2025-01-15 08:27:04.57	14.02	8.53	
2025-01-15 08:27:04.78	13.98	8.53	
2025-01-15 08:27:04.98	13.94	8.52	
2025-01-15 08:27:05.18	13.90	8.52	
2025-01-15 08:27:05.39	13.86	8.51	
2025-01-15 08:27:05.59	13.83	8.51	
2025-01-15 08:27:05.79	13.79	8.50	
2025-01-15 08:27:06.00	13.75	8.50	
2025-01-15 08:27:06.20	13.71	8.49	
2025-01-15 08:27:06.40	13.68	8.49	
2025-01-15 08:27:06.61	13.64	8.48	
2025-01-15 08:27:06.81	13.60	8.48	
2025-01-15 08:27:07.01	13.56	8.47	
2025-01-15 08:27:07.22	13.52	8.47	
2025-01-15 08:27:07.42	13.49	8.46	
2025-01-15 08:27:07.62	13.45	8.46	
2025-01-15 08:27:07.82	13.41	8.46	
2025-01-15 08:27:08.03	13.37	8.45	
2025-01-15 08:27:08.23	13.34	8.45	
2025-01-15 08:27:08.43	13.30	8.44	
2025-01-15 08:27:08.64	13.26	8.44	
2025-01-15 08:27:08.84	13.22	8.43	
2025-01-15 08:27:09.04	13.19	8.43	
2025-01-15 08:27:09.25	13.15	8.42	
2025-01-15 08:27:09.45	13.11	8.42	
2025-01-15 08:27:09.65	13.07	8.41	
2025-01-15 08:27:09.86	13.04	8.41	
2025-01-15 08:27:10.06	13.00	8.40	
2025-01-15 08:27:10.26	12.96	8.40	
2025-01-15 08:27:10.47	12.92	8.39	
2025-01-15 08:27:10.67	12.89	8.38	
2025-01-15 08:27:10.87	12.85	8.38	
2025-01-15 08:27:11.08	12.81	8.37	
2025-01-15 08:27:11.28	12.77	8.37	
2025-01-15 08:27:11.48	12.74	8.36	
2025-01-15 08:27:11.68	12.70	8.36	
2025-01-15 08:27:11.89	12.66	8.35	
2025-01-15 08:27:12.09	12.63	8.35	
2025-01-15 08:27:12.29	12.59	8.34	
2025-01-15 08:27:12.50	12.55	8.34	
2025-01-15 08:27:12.70	12.51	8.33	
2025-01-15 08:27:12.90	12.48	8.33	
2025-01-15 08:27:13.11	12.44	8.32	
2025-01-15 08:27:13.31	12.40	8.32	
2025-01-15 08:27:13.51	12.37	8.31	
2025-01-15 08:27:13.72	12.33	8.31	
2025-01-15 08:27:13.92	12.29	8.30	
2025-01-15 08:27:14.12	12.25	8.30	
2025-01-15 08:27:14.33	12.22	8.29	
2025-01-15 08:27:14.53	12.18	8.29	
2025-01-15 08:27:14.73	12.14	8.28	
2025-01-15 08:27:14.93	12.11	8.28	
2025-01-15 08:27:15.14	12.07	8.27	
2025-01-15 08:27:15.34	12.03	8.27	
2025-01-15 08:27:15.54	11.99	8.26	
2025-01-15 08:27:15.75	11.96	8.25	
2025-01-15 08:27:15.95	11.92	8.25	
2025-01-15 08:27:16.15	11.88	8.24	
2025-01-15 08:27:16.36	11.85	8.24	
2025-01-15 08:27:16.56	11.81	8.23	
2025-01-15 08:27:16.76	11.77	8.23	
2025-01-15 08:27:16.97	11.73	8.22	
2025-01-15 08:27:17.17	11.70	8.22	
2025-01-15 08:27:17.37	11.66	8.21	
2025-01-15 08:27:17.58	11.62	8.21	
2025-01-15 08:27:17.78	11.59	8.20	
2025-01-15 08:27:17.98	11.55	8.20	
2025-01-15 08:27:18.18	11.51	8.19	
2025-01-15 08:27:18.39	11.48	8.18	
2025-01-15 08:27:18.59	11.44	8.18	
2025-01-15 08:27:18.79	11.40	8.17	
2025-01-15 08:27:19.00	11.37	8.17	
2025-01-15 08:27:19.20	11.33	8.16	
2025-01-15 08:27:19.40	11.29	8.16	
2025-01-15 08:27:19.61	11.26	8.15	
2025-01-15 08:27:19.81	11.22	8.15	
2025-01-15 08:27:20.01	11.18	8.14	
2025-01-15 08:27:20.22	11.15	8.14	
2025-01-15 08:27:20.42	11.11	8.13	
2025-01-15 08:27:20.62	11.07	8.12	
2025-01-15 08:27:20.83	11.04	8.12	
2025-01-15 08:27:21.03	11.00	8.11	
2025-01-15 08:27:21.23	10.96	8.11	
2025-01-15 08:27:21.44	10.93	8.10	
2025-01-15 08:27:21.64	10.89	8.10	
2025-01-15 08:27:21.84	10.85	8.09	
2025-01-15 08:27:22.04	10.82	8.09	
2025-01-15 08:27:22.25	10.78	8.08	
2025-01-15 08:27:22.45	10.74	8.07	
2025-01-15 08:27:22.65	10.71	8.07	
2025-01-15 08:27:22.86	10.67	8.06	
2025-01-15 08:27:23.06	10.63	8.06	
2025-01-15 08:27:23.26	10.60	8.05	
2025-01-15 08:27:23.47	10.56	8.05	
2025-01-15 08:27:23.67	10.52	8.04	
2025-01-15 08:27:23.87	10.49	8.03	
2025-01-15 08:27:24.08	10.45	8.03	
2025-01-15 08:27:24.28	10.42	8.02	
2025-01-15 08:27:24.48	10.38	8.02	
2025-01-15 08:27:24.69	10.34	8.01	
2025-01-15 08:27:24.89	10.31	8.01	
2025-01-15 08:27:25.09	10.27	8.00	
2025-01-15 08:27:25.29	10.23	7.99	
2025-01-15 08:27:25.50	10.20	7.99	
2025-01-15 08:27:25.70	10.16	7.98	
2025-01-15 08:27:25.90	10.13	7.98	
2025-01-15 08:27:26.11	10.09	7.97	
2025-01-15 08:27:26.31	10.05	7.97	
2025-01-15 08:27:26.51	10.02	7.96	
2025-01-15 08:27:26.72	9.98	7.95	
2025-01-15 08:27:26.92	9.94	7.95	
2025-01-15 08:27:27.12	9.91	7.94	
2025-01-15 08:27:27.33	9.87	7.94	
2025-01-15 08:27:27.53	9.84	7.93	
2025-01-15 08:27:27.73	9.80	7.93	
2025-01-15 08:27:27.94	9.76	7.92	
2025-01-15 08:27:28.14	9.73	7.91	
2025-01-15 08:27:28.34	9.69	7.91	
2025-01-15 08:27:28.54	9.66	7.90	
2025-01-15 08:27:28.75	9.62	7.90	
2025-01-15 08:27:28.95	9.58	7.89	
2025-01-15 08:27:29.15	9.55	7.88	
2025-01-15 08:27:29.36	9.51	7.88	
2025-01-15 08:27:29.56	9.48	7.87	
2025-01-15 08:27:29.76	9.44	7.87	
2025-01-15 08:27:29.97	9.40	7.86	
2025-01-15 08:27:30.17	9.37	7.85	
2025-01-15 08:27:30.37	9.33	7.85	
2025-01-15 08:27:30.58	9.30	7.84	
2025-01-15 08:27:30.78	9.26	7.84	
2025-01-15 08:27:30.98	9.22	7.83	
2025-01-15 08:27:31.19	9.19	7.82	
2025-01-15 08:27:31.39	9.15	7.82	
2025-01-15 08:27:31.59	9.12	7.81	
2025-01-15 08:27:31.80	9.08	7.81	
2025-01-15 08:27:32.00	9.04	7.80	
2025-01-15 08:27:32.20	9.01	7.79	
2025-01-15 08:27:32.40	8.97	7.79	
2025-01-15 08:27:32.61	8.94	7.78	
2025-01-15 08:27:32.81	8.90	7.78	
2025-01-15 08:27:33.01	8.87	7.77	
2025-01-15 08:27:33.22	8.83	7.76	
2025-01-15 08:27:33.42	8.80	7.76	
2025-01-15 08:27:33.62	8.76	7.75	
2025-01-15 08:27:33.83	8.72	7.75	
2025-01-15 08:27:34.03	8.69	7.74	
2025-01-15 08:27:34.23	8.65	7.73	
2025-01-15 08:27:34.44	8.62	7.73	
2025-01-15 08:27:34.64	8.58	7.72	
2025-01-15 08:27:34.84	8.55	7.72	
2025-01-15 08:27:35.05	8.51	7.71	
2025-01-15 08:27:35.25	8.47	7.70	
2025-01-15 08:27:35.45	8.44	7.70	
2025-01-15 08:27:35.65	8.41	7.69	
2025-01-15 08:27:35.86	8.37	7.68	
2025-01-15 08:27:36.06	8.33	7.68	
2025-01-15 08:27:36.26	8.30	7.67	
2025-01-15 08:27:36.47	8.26	7.67	
2025-01-15 08:27:36.67	8.23	7.66	
2025-01-15 08:27:36.87	8.19	7.65	
2025-01-15 08:27:37.08	8.16	7.65	
2025-01-15 08:27:37.28	8.12	7.64	
2025-01-15 08:27:37.48	8.09	7.63	
2025-01-15 08:27:37.69	8.05	7.63	
2025-01-15 08:27:37.89	8.02	7.62	
2025-01-15 08:27:38.09	7.98	7.62	
2025-01-15 08:27:38.30	7.94	7.61	
2025-01-15 08:27:38.50	7.91	7.60	
2025-01-15 08:27:38.70	7.87	7.60	
2025-01-15 08:27:38.90	7.84	7.59	
2025-01-15 08:27:39.11	7.80	7.58	
2025-01-15 08:27:39.31	7.77	7.58	
2025-01-15 08:27:39.51	7.73	7.57	
2025-01-15 08:27:39.72	7.70	7.57	
2025-01-15 08:27:39.92	7.66	7.56	
2025-01-15 08:27:40.12	7.63	7.55	
2025-01-15 08:27:40.33	7.59	7.55	
2025-01-15 08:27:40.53	7.56	7.54	
2025-01-15 08:27:40.73	7.52	7.53	
2025-01-15 08:27:40.94	7.49	7.53	
2025-01-15 08:27:41.14	7.45	7.52	
2025-01-15 08:27:41.34	7.42	7.51	
2025-01-15 08:27:41.55	7.38	7.51	
2025-01-15 08:27:41.75	7.35	7.50	
2025-01-15 08:27:41.95	7.31	7.50	
2025-01-15 08:27:42.16	7.28	7.49	
2025-01-15 08:27:42.36	7.24	7.48	
2025-01-15 08:27:42.56	7.21	7.48	
2025-01-15 08:27:42.76	7.17	7.47	
2025-01-15 08:27:42.97	7.14	7.46	
2025-01-15 08:27:43.17	7.10	7.46	
2025-01-15 08:27:43.37	7.07	7.45	
2025-01-15 08:27:43.58	7.03	7.44	
2025-01-15 08:27:43.78	7.00	7.44	
2025-01-15 08:27:43.98	6.97	7.43	
2025-01-15 08:27:44.19	6.93	7.42	
2025-01-15 08:27:44.39	6.89	7.42	
2025-01-15 08:27:44.59	6.86	7.41	
2025-01-15 08:27:44.80	6.82	7.40	
2025-01-15 08:27:45.00	6.79	7.40	
2025-01-15 08:27:45.20	6.76	7.39	
2025-01-15 08:27:45.41	6.72	7.38	
2025-01-15 08:27:45.61	6.69	7.38	
2025-01-15 08:27:45.81	6.65	7.37	
2025-01-15 08:27:46.01	6.62	7.37	
2025-01-15 08:27:46.22	6.58	7.36	
2025-01-15 08:27:46.42	6.55	7.35	
2025-01-15 08:27:46.62	6.51	7.35	
2025-01-15 08:27:46.83	6.48	7.34	
2025-01-15 08:27:47.03	6.44	7.33	
2025-01-15 08:27:47.23	6.41	7.33	
2025-01-15 08:27:47.44	6.38	7.32	
2025-01-15 08:27:47.64	6.34	7.31	
2025-01-15 08:27:47.84	6.31	7.31	
2025-01-15 08:27:48.05	6.27	7.30	
2025-01-15 08:27:48.25	6.24	7.29	
2025-01-15 08:27:48.45	6.20	7.29	
2025-01-15 08:27:48.66	6.17	7.28	
2025-01-15 08:27:48.86	6.13	7.27	
2025-01-15 08:27:49.06	6.10	7.27	
2025-01-15 08:27:49.26	6.07	7.26	
2025-01-15 08:27:49.47	6.03	7.25	
2025-01-15 08:27:49.67	6.00	7.25	
2025-01-15 08:27:49.87	5.96	7.24	
2025-01-15 08:27:50.08	5.93	7.23	
2025-01-15 08:27:50.28	5.90	7.23	
2025-01-15 08:27:50.48	5.86	7.22	
2025-01-15 08:27:50.69	5.83	7.21	
2025-01-15 08:27:50.89	5.79	7.21	
2025-01-15 08:27:51.09	5.76	7.20	
2025-01-15 08:27:51.30	5.72	7.19	
2025-01-15 08:27:51.50	5.69	7.19	
2025-01-15 08:27:51.70	5.66	7.18	
2025-01-15 08:27:51.91	5.62	7.17	
2025-01-15 08:27:52.11	5.59	7.16	
2025-01-15 08:27:52.31	5.55	7.16	
2025-01-15 08:27:52.52	5.52	7.15	
2025-01-15 08:27:52.72	5.49	7.14	
2025-01-15 08:27:52.92	5.45	7.14	
2025-01-15 08:27:53.12	5.42	7.13	
2025-01-15 08:27:53.33	5.38	7.12	
2025-01-15 08:27:53.53	5.35	7.12	
2025-01-15 08:27:53.73	5.32	7.11	
2025-01-15 08:27:53.94	5.28	7.10	
2025-01-15 08:27:54.14	5.25	7.10	
2025-01-15 08:27:54.34	5.21	7.09	
2025-01-15 08:27:54.55	5.18	7.08	
2025-01-15 08:27:54.75	5.15	7.08	
2025-01-15 08:27:54.95	5.11	7.07	
2025-01-15 08:27:55.16	5.08	7.06	
2025-01-15 08:27:55.36	5.04	7.06	
2025-01-15 08:27:55.56	5.01	7.05	
2025-01-15 08:27:55.77	4.98	7.04	
2025-01-15 08:27:55.97	4.94	7.03	
2025-01-15 08:27:56.17	4.91	7.03	
2025-01-15 08:27:56.37	4.88	7.02	
2025-01-15 08:27:56.58	4.84	7.01	
2025-01-15 08:27:56.78	4.81	7.01	
2025-01-15 08:27:56.98	4.78	7.00	
2025-01-15 08:27:57.19	4.74	6.99	
2025-01-15 08:27:57.39	4.71	6.99	
2025-01-15 08:27:57.59	4.67	6.98	
2025-01-15 08:27:57.80	4.64	6.97	
2025-01-15 08:27:58.00	4.61	6.97	
2025-01-15 08:27:58.20	4.57	6.96	
2025-01-15 08:27:58.41	4.54	6.95	
2025-01-15 08:27:58.61	4.51	6.94	
2025-01-15 08:27:58.81	4.47	6.94	
2025-01-15 08:27:59.02	4.44	6.93	
2025-01-15 08:27:59.22	4.41	6.92	
2025-01-15 08:27:59.42	4.37	6.92	
2025-01-15 08:27:59.62	4.34	6.91	
2025-01-15 08:27:59.83	4.31	6.90	
2025-01-15 08:28:00.03	4.27	6.90	
2025-01-15 08:28:00.23	4.24	6.89	
2025-01-15 08:28:00.44	4.21	6.88	
2025-01-15 08:28:00.64	4.17	6.87	
2025-01-15 08:28:00.84	4.14	6.87	
2025-01-15 08:28:01.05	4.11	6.86	
2025-01-15 08:28:01.25	4.07	6.85	
2025-01-15 08:28:01.45	4.04	6.85	
2025-01-15 08:28:01.66	4.01	6.84	
2025-01-15 08:28:01.86	3.97	6.83	
2025-01-15 08:28:02.06	3.94	6.82	
2025-01-15 08:28:02.27	3.91	6.82	
2025-01-15 08:28:02.47	3.87	6.81	
2025-01-15 08:28:02.67	3.84	6.80	
2025-01-15 08:28:02.88	3.81	6.80	
2025-01-15 08:28:03.08	3.77	6.79	
