passes_logs/2025/01/15/SPB_Silybum_02/SPB_Silybum_02__20250115_001255_SUOMI_NPP_rec.log

#Pass ID: 20250115_001255_SUOMI NPP
#Satellite: SUOMI NPP
#Configuration: NPP
#Start time: 2025-01-15 00:12:54

#Version: 2.0.20230423
#Station: SPB_Silybum_02
#Location: 30.233357 lon 59.946436 lat
#TLE: 1 37849U 11061A   25014.14453206  .00000163  00000+0  98177-4 0  9992
#TLE: 2 37849  98.7445 315.1439 0001716  42.3577 317.7731 14.19537774684790

#Time	Az	El	Level	Level2	SNR	BER	Gain	Gain2
2025-01-15 00:12:56.56	18.27	4.09	
2025-01-15 00:12:56.77	18.27	4.10	
2025-01-15 00:12:56.99	18.27	4.12	
2025-01-15 00:12:57.20	18.27	4.13	
2025-01-15 00:12:57.40	18.27	4.14	
2025-01-15 00:12:57.62	18.28	4.16	
2025-01-15 00:12:57.82	18.28	4.17	
2025-01-15 00:12:58.03	18.28	4.19	
2025-01-15 00:12:58.24	18.28	4.20	
2025-01-15 00:12:58.46	18.28	4.22	
2025-01-15 00:12:58.66	18.29	4.23	
2025-01-15 00:12:58.87	18.29	4.24	
2025-01-15 00:12:59.07	18.29	4.26	
2025-01-15 00:12:59.27	18.29	4.27	
2025-01-15 00:12:59.48	18.29	4.29	
2025-01-15 00:12:59.68	18.29	4.30	
2025-01-15 00:12:59.89	18.30	4.32	
2025-01-15 00:13:00.10	18.30	4.33	
2025-01-15 00:13:00.30	18.30	4.34	
2025-01-15 00:13:00.51	18.30	4.36	
2025-01-15 00:13:00.71	18.30	4.37	
2025-01-15 00:13:00.91	18.31	4.39	
2025-01-15 00:13:01.12	18.31	4.40	
2025-01-15 00:13:01.33	18.31	4.42	
2025-01-15 00:13:01.54	18.31	4.43	
2025-01-15 00:13:01.74	18.31	4.44	
2025-01-15 00:13:01.94	18.31	4.46	
2025-01-15 00:13:02.15	18.32	4.47	
2025-01-15 00:13:02.37	18.32	4.49	
2025-01-15 00:13:02.58	18.32	4.50	
2025-01-15 00:13:02.79	18.32	4.52	
2025-01-15 00:13:02.99	18.32	4.53	
2025-01-15 00:13:03.19	18.32	4.54	
2025-01-15 00:13:03.41	18.33	4.56	
2025-01-15 00:13:03.62	18.33	4.57	
2025-01-15 00:13:03.83	18.33	4.59	
2025-01-15 00:13:04.03	18.33	4.60	
2025-01-15 00:13:04.24	18.33	4.62	
2025-01-15 00:13:04.44	18.34	4.63	
2025-01-15 00:13:04.65	18.34	4.65	
2025-01-15 00:13:04.85	18.34	4.66	
2025-01-15 00:13:05.05	18.34	4.67	
2025-01-15 00:13:05.25	18.34	4.69	
2025-01-15 00:13:05.47	18.34	4.70	
2025-01-15 00:13:05.67	18.35	4.72	
2025-01-15 00:13:05.89	18.35	4.73	
2025-01-15 00:13:06.09	18.35	4.75	
2025-01-15 00:13:06.29	18.35	4.76	
2025-01-15 00:13:06.51	18.35	4.78	
2025-01-15 00:13:06.71	18.36	4.79	
2025-01-15 00:13:06.91	18.36	4.81	
2025-01-15 00:13:07.12	18.36	4.82	
2025-01-15 00:13:07.34	18.36	4.84	
2025-01-15 00:13:07.54	18.36	4.85	
2025-01-15 00:13:07.74	18.36	4.86	
2025-01-15 00:13:07.96	18.37	4.88	
2025-01-15 00:13:08.16	18.37	4.89	
2025-01-15 00:13:08.36	18.37	4.91	
2025-01-15 00:13:08.57	18.37	4.92	
2025-01-15 00:13:08.77	18.37	4.94	
2025-01-15 00:13:08.97	18.38	4.95	
2025-01-15 00:13:09.18	18.38	4.97	
2025-01-15 00:13:09.39	18.38	4.98	
2025-01-15 00:13:09.60	18.38	5.00	
2025-01-15 00:13:09.82	18.38	5.01	
2025-01-15 00:13:10.03	18.38	5.03	
2025-01-15 00:13:10.24	18.39	5.04	
2025-01-15 00:13:10.44	18.39	5.06	
2025-01-15 00:13:10.64	18.39	5.07	
2025-01-15 00:13:10.85	18.39	5.08	
2025-01-15 00:13:11.05	18.39	5.10	
2025-01-15 00:13:11.26	18.40	5.11	
2025-01-15 00:13:11.47	18.40	5.13	
2025-01-15 00:13:11.68	18.40	5.14	
2025-01-15 00:13:11.90	18.40	5.16	
2025-01-15 00:13:12.10	18.40	5.17	
2025-01-15 00:13:12.30	18.41	5.19	
2025-01-15 00:13:12.51	18.41	5.20	
2025-01-15 00:13:12.72	18.41	5.22	
2025-01-15 00:13:12.93	18.41	5.23	
2025-01-15 00:13:13.13	18.41	5.25	
2025-01-15 00:13:13.35	18.41	5.26	
2025-01-15 00:13:13.56	18.42	5.28	
2025-01-15 00:13:13.78	18.42	5.29	
2025-01-15 00:13:13.99	18.42	5.31	
2025-01-15 00:13:14.19	18.42	5.32	
2025-01-15 00:13:14.41	18.42	5.34	
2025-01-15 00:13:14.61	18.43	5.35	
2025-01-15 00:13:14.81	18.43	5.37	
2025-01-15 00:13:15.01	18.43	5.38	
2025-01-15 00:13:15.21	18.43	5.40	
2025-01-15 00:13:15.42	18.43	5.41	
2025-01-15 00:13:15.62	18.43	5.43	
2025-01-15 00:13:15.83	18.44	5.44	
2025-01-15 00:13:16.03	18.44	5.46	
2025-01-15 00:13:16.23	18.44	5.47	
2025-01-15 00:13:16.44	18.44	5.49	
2025-01-15 00:13:16.64	18.44	5.50	
2025-01-15 00:13:16.84	18.45	5.51	
2025-01-15 00:13:17.05	18.45	5.53	
2025-01-15 00:13:17.25	18.45	5.54	
2025-01-15 00:13:17.46	18.45	5.56	
2025-01-15 00:13:17.67	18.45	5.57	
2025-01-15 00:13:17.88	18.46	5.59	
2025-01-15 00:13:18.08	18.46	5.60	
2025-01-15 00:13:18.29	18.46	5.62	
2025-01-15 00:13:18.49	18.46	5.63	
2025-01-15 00:13:18.71	18.46	5.65	
2025-01-15 00:13:18.91	18.46	5.66	
2025-01-15 00:13:19.12	18.47	5.68	
2025-01-15 00:13:19.32	18.47	5.69	
2025-01-15 00:13:19.53	18.47	5.71	
2025-01-15 00:13:19.74	18.47	5.73	
2025-01-15 00:13:19.95	18.47	5.74	
2025-01-15 00:13:20.15	18.48	5.76	
2025-01-15 00:13:20.37	18.48	5.77	
2025-01-15 00:13:20.57	18.48	5.79	
2025-01-15 00:13:20.77	18.48	5.80	
2025-01-15 00:13:20.98	18.48	5.82	
2025-01-15 00:13:21.18	18.48	5.83	
2025-01-15 00:13:21.38	18.49	5.85	
2025-01-15 00:13:21.58	18.49	5.86	
2025-01-15 00:13:21.80	18.49	5.88	
2025-01-15 00:13:22.00	18.49	5.89	
2025-01-15 00:13:22.21	18.49	5.91	
2025-01-15 00:13:22.41	18.50	5.92	
2025-01-15 00:13:22.62	18.50	5.94	
2025-01-15 00:13:22.82	18.50	5.95	
2025-01-15 00:13:23.03	18.50	5.97	
2025-01-15 00:13:23.23	18.50	5.98	
2025-01-15 00:13:23.43	18.51	6.00	
2025-01-15 00:13:23.65	18.51	6.01	
2025-01-15 00:13:23.85	18.51	6.03	
2025-01-15 00:13:24.07	18.51	6.04	
2025-01-15 00:13:24.29	18.51	6.06	
2025-01-15 00:13:24.49	18.52	6.07	
2025-01-15 00:13:24.70	18.52	6.09	
2025-01-15 00:13:24.90	18.52	6.10	
2025-01-15 00:13:25.10	18.52	6.12	
2025-01-15 00:13:25.32	18.52	6.14	
2025-01-15 00:13:25.53	18.52	6.15	
2025-01-15 00:13:25.74	18.53	6.17	
2025-01-15 00:13:25.94	18.53	6.18	
2025-01-15 00:13:26.14	18.53	6.20	
2025-01-15 00:13:26.34	18.53	6.21	
2025-01-15 00:13:26.55	18.53	6.23	
2025-01-15 00:13:26.75	18.54	6.24	
2025-01-15 00:13:26.95	18.54	6.26	
2025-01-15 00:13:27.16	18.54	6.27	
2025-01-15 00:13:27.36	18.54	6.29	
2025-01-15 00:13:27.56	18.54	6.30	
2025-01-15 00:13:27.76	18.55	6.32	
2025-01-15 00:13:27.97	18.55	6.33	
2025-01-15 00:13:28.17	18.55	6.35	
2025-01-15 00:13:28.38	18.55	6.36	
2025-01-15 00:13:28.58	18.55	6.38	
2025-01-15 00:13:28.80	18.55	6.40	
2025-01-15 00:13:29.00	18.56	6.41	
2025-01-15 00:13:29.20	18.56	6.42	
2025-01-15 00:13:29.41	18.56	6.44	
2025-01-15 00:13:29.61	18.56	6.46	
2025-01-15 00:13:29.81	18.56	6.47	
2025-01-15 00:13:30.01	18.57	6.49	
2025-01-15 00:13:30.22	18.57	6.50	
2025-01-15 00:13:30.42	18.57	6.52	
2025-01-15 00:13:30.64	18.57	6.53	
2025-01-15 00:13:30.84	18.57	6.55	
2025-01-15 00:13:31.05	18.58	6.56	
2025-01-15 00:13:31.25	18.58	6.58	
2025-01-15 00:13:31.45	18.58	6.59	
2025-01-15 00:13:31.65	18.58	6.61	
2025-01-15 00:13:31.86	18.58	6.63	
2025-01-15 00:13:32.06	18.59	6.64	
2025-01-15 00:13:32.27	18.59	6.66	
2025-01-15 00:13:32.47	18.59	6.67	
2025-01-15 00:13:32.67	18.59	6.69	
2025-01-15 00:13:32.87	18.59	6.70	
2025-01-15 00:13:33.08	18.59	6.72	
2025-01-15 00:13:33.28	18.60	6.73	
2025-01-15 00:13:33.49	18.60	6.75	
2025-01-15 00:13:33.70	18.60	6.76	
2025-01-15 00:13:33.90	18.60	6.78	
2025-01-15 00:13:34.10	18.60	6.79	
2025-01-15 00:13:34.31	18.61	6.81	
2025-01-15 00:13:34.51	18.61	6.83	
2025-01-15 00:13:34.71	18.61	6.84	
2025-01-15 00:13:34.92	18.61	6.86	
2025-01-15 00:13:35.12	18.61	6.87	
2025-01-15 00:13:35.33	18.62	6.89	
2025-01-15 00:13:35.53	18.62	6.90	
2025-01-15 00:13:35.73	18.62	6.92	
2025-01-15 00:13:35.94	18.62	6.94	
2025-01-15 00:13:36.14	18.62	6.95	
2025-01-15 00:13:36.34	18.63	6.97	
2025-01-15 00:13:36.54	18.63	6.98	
2025-01-15 00:13:36.75	18.63	7.00	
2025-01-15 00:13:36.95	18.63	7.01	
2025-01-15 00:13:37.15	18.63	7.03	
2025-01-15 00:13:37.36	18.64	7.04	
2025-01-15 00:13:37.57	18.64	7.06	
2025-01-15 00:13:37.77	18.64	7.08	
2025-01-15 00:13:37.97	18.64	7.09	
2025-01-15 00:13:38.18	18.64	7.11	
2025-01-15 00:13:38.38	18.64	7.12	
2025-01-15 00:13:38.58	18.65	7.14	
2025-01-15 00:13:38.80	18.65	7.15	
2025-01-15 00:13:39.00	18.65	7.17	
2025-01-15 00:13:39.21	18.65	7.19	
2025-01-15 00:13:39.42	18.65	7.20	
2025-01-15 00:13:39.63	18.66	7.22	
2025-01-15 00:13:39.83	18.66	7.23	
2025-01-15 00:13:40.04	18.66	7.25	
2025-01-15 00:13:40.25	18.66	7.27	
2025-01-15 00:13:40.46	18.66	7.28	
2025-01-15 00:13:40.66	18.67	7.30	
2025-01-15 00:13:40.86	18.67	7.31	
2025-01-15 00:13:41.07	18.67	7.33	
2025-01-15 00:13:41.28	18.67	7.35	
2025-01-15 00:13:41.49	18.67	7.36	
2025-01-15 00:13:41.69	18.68	7.38	
2025-01-15 00:13:41.89	18.68	7.39	
2025-01-15 00:13:42.11	18.68	7.41	
2025-01-15 00:13:42.31	18.68	7.43	
2025-01-15 00:13:42.52	18.68	7.44	
2025-01-15 00:13:42.72	18.69	7.46	
2025-01-15 00:13:42.94	18.69	7.48	
2025-01-15 00:13:43.15	18.69	7.49	
2025-01-15 00:13:43.35	18.69	7.51	
2025-01-15 00:13:43.55	18.69	7.52	
2025-01-15 00:13:43.76	18.70	7.54	
2025-01-15 00:13:43.96	18.70	7.56	
2025-01-15 00:13:44.16	18.70	7.57	
2025-01-15 00:13:44.37	18.70	7.59	
2025-01-15 00:13:44.57	18.70	7.60	
2025-01-15 00:13:44.77	18.71	7.62	
2025-01-15 00:13:44.98	18.71	7.64	
2025-01-15 00:13:45.18	18.71	7.65	
2025-01-15 00:13:45.38	18.71	7.67	
2025-01-15 00:13:45.59	18.71	7.68	
2025-01-15 00:13:45.79	18.72	7.70	
2025-01-15 00:13:45.99	18.72	7.72	
2025-01-15 00:13:46.21	18.72	7.73	
2025-01-15 00:13:46.41	18.72	7.75	
2025-01-15 00:13:46.62	18.72	7.77	
2025-01-15 00:13:46.82	18.73	7.78	
2025-01-15 00:13:47.03	18.73	7.80	
2025-01-15 00:13:47.25	18.73	7.81	
2025-01-15 00:13:47.45	18.73	7.83	
2025-01-15 00:13:47.66	18.73	7.85	
2025-01-15 00:13:47.86	18.74	7.86	
2025-01-15 00:13:48.06	18.74	7.88	
2025-01-15 00:13:48.28	18.74	7.90	
2025-01-15 00:13:48.48	18.74	7.91	
2025-01-15 00:13:48.70	18.74	7.93	
2025-01-15 00:13:48.90	18.75	7.95	
2025-01-15 00:13:49.10	18.75	7.96	
2025-01-15 00:13:49.31	18.75	7.98	
2025-01-15 00:13:49.51	18.75	7.99	
2025-01-15 00:13:49.71	18.75	8.01	
2025-01-15 00:13:49.91	18.76	8.03	
2025-01-15 00:13:50.11	18.76	8.04	
2025-01-15 00:13:50.32	18.76	8.06	
2025-01-15 00:13:50.52	18.76	8.07	
2025-01-15 00:13:50.73	18.76	8.09	
2025-01-15 00:13:50.93	18.77	8.11	
2025-01-15 00:13:51.13	18.77	8.12	
2025-01-15 00:13:51.33	18.77	8.14	
2025-01-15 00:13:51.53	18.77	8.16	
2025-01-15 00:13:51.74	18.77	8.17	
2025-01-15 00:13:51.94	18.78	8.19	
2025-01-15 00:13:52.14	18.78	8.20	
2025-01-15 00:13:52.35	18.78	8.22	
2025-01-15 00:13:52.55	18.78	8.24	
2025-01-15 00:13:52.75	18.78	8.25	
2025-01-15 00:13:52.95	18.79	8.27	
2025-01-15 00:13:53.16	18.79	8.29	
2025-01-15 00:13:53.36	18.79	8.30	
2025-01-15 00:13:53.56	18.79	8.32	
2025-01-15 00:13:53.77	18.79	8.34	
2025-01-15 00:13:53.97	18.80	8.35	
2025-01-15 00:13:54.18	18.80	8.37	
2025-01-15 00:13:54.38	18.80	8.39	
2025-01-15 00:13:54.59	18.80	8.40	
2025-01-15 00:13:54.79	18.81	8.42	
2025-01-15 00:13:54.99	18.81	8.43	
2025-01-15 00:13:55.20	18.81	8.45	
2025-01-15 00:13:55.41	18.81	8.47	
2025-01-15 00:13:55.63	18.81	8.49	
2025-01-15 00:13:55.83	18.82	8.50	
2025-01-15 00:13:56.04	18.82	8.52	
2025-01-15 00:13:56.24	18.82	8.54	
2025-01-15 00:13:56.44	18.82	8.55	
2025-01-15 00:13:56.64	18.82	8.57	
2025-01-15 00:13:56.85	18.83	8.59	
2025-01-15 00:13:57.07	18.83	8.60	
2025-01-15 00:13:57.27	18.83	8.62	
2025-01-15 00:13:57.47	18.83	8.64	
2025-01-15 00:13:57.68	18.83	8.65	
2025-01-15 00:13:57.88	18.84	8.67	
2025-01-15 00:13:58.08	18.84	8.69	
2025-01-15 00:13:58.30	18.84	8.70	
2025-01-15 00:13:58.50	18.84	8.72	
2025-01-15 00:13:58.72	18.84	8.74	
2025-01-15 00:13:58.92	18.85	8.76	
2025-01-15 00:13:59.12	18.85	8.77	
2025-01-15 00:13:59.33	18.85	8.79	
2025-01-15 00:13:59.53	18.85	8.81	
2025-01-15 00:13:59.73	18.85	8.82	
2025-01-15 00:13:59.94	18.86	8.84	
2025-01-15 00:14:00.16	18.86	8.86	
2025-01-15 00:14:00.36	18.86	8.87	
2025-01-15 00:14:00.56	18.86	8.89	
2025-01-15 00:14:00.77	18.87	8.91	
2025-01-15 00:14:00.97	18.87	8.92	
2025-01-15 00:14:01.18	18.87	8.94	
2025-01-15 00:14:01.38	18.87	8.96	
2025-01-15 00:14:01.58	18.87	8.98	
2025-01-15 00:14:01.78	18.88	8.99	
2025-01-15 00:14:01.99	18.88	9.01	
2025-01-15 00:14:02.19	18.88	9.03	
2025-01-15 00:14:02.39	18.88	9.04	
2025-01-15 00:14:02.60	18.88	9.06	
2025-01-15 00:14:02.80	18.89	9.08	
2025-01-15 00:14:03.01	18.89	9.09	
2025-01-15 00:14:03.21	18.89	9.11	
2025-01-15 00:14:03.42	18.89	9.13	
2025-01-15 00:14:03.62	18.89	9.14	
2025-01-15 00:14:03.82	18.90	9.16	
2025-01-15 00:14:04.03	18.90	9.18	
2025-01-15 00:14:04.23	18.90	9.20	
2025-01-15 00:14:04.43	18.90	9.21	
2025-01-15 00:14:04.64	18.91	9.23	
2025-01-15 00:14:04.84	18.91	9.25	
2025-01-15 00:14:05.04	18.91	9.26	
2025-01-15 00:14:05.25	18.91	9.28	
2025-01-15 00:14:05.45	18.91	9.30	
2025-01-15 00:14:05.66	18.92	9.32	
2025-01-15 00:14:05.87	18.92	9.33	
2025-01-15 00:14:06.08	18.92	9.35	
2025-01-15 00:14:06.29	18.92	9.37	
2025-01-15 00:14:06.50	18.92	9.39	
2025-01-15 00:14:06.70	18.93	9.40	
2025-01-15 00:14:06.90	18.93	9.42	
2025-01-15 00:14:07.11	18.93	9.44	
2025-01-15 00:14:07.31	18.93	9.45	
2025-01-15 00:14:07.51	18.93	9.47	
2025-01-15 00:14:07.72	18.94	9.49	
2025-01-15 00:14:07.92	18.94	9.51	
2025-01-15 00:14:08.12	18.94	9.52	
2025-01-15 00:14:08.33	18.94	9.54	
2025-01-15 00:14:08.53	18.95	9.56	
2025-01-15 00:14:08.75	18.95	9.58	
2025-01-15 00:14:08.95	18.95	9.59	
2025-01-15 00:14:09.17	18.95	9.61	
2025-01-15 00:14:09.37	18.95	9.63	
2025-01-15 00:14:09.57	18.96	9.65	
2025-01-15 00:14:09.77	18.96	9.66	
2025-01-15 00:14:09.98	18.96	9.68	
2025-01-15 00:14:10.20	18.96	9.70	
2025-01-15 00:14:10.40	18.97	9.72	
2025-01-15 00:14:10.62	18.97	9.74	
2025-01-15 00:14:10.82	18.97	9.75	
2025-01-15 00:14:11.03	18.97	9.77	
2025-01-15 00:14:11.23	18.97	9.79	
2025-01-15 00:14:11.44	18.98	9.81	
2025-01-15 00:14:11.64	18.98	9.82	
2025-01-15 00:14:11.86	18.98	9.84	
2025-01-15 00:14:12.06	18.98	9.86	
2025-01-15 00:14:12.26	18.98	9.88	
2025-01-15 00:14:12.46	18.99	9.89	
2025-01-15 00:14:12.67	18.99	9.91	
2025-01-15 00:14:12.88	18.99	9.93	
2025-01-15 00:14:13.10	18.99	9.95	
2025-01-15 00:14:13.30	19.00	9.97	
2025-01-15 00:14:13.50	19.00	9.98	
2025-01-15 00:14:13.71	19.00	10.00	
2025-01-15 00:14:13.92	19.00	10.02	
2025-01-15 00:14:14.13	19.00	10.04	
2025-01-15 00:14:14.34	19.01	10.06	
2025-01-15 00:14:14.55	19.01	10.07	
2025-01-15 00:14:14.77	19.01	10.09	
2025-01-15 00:14:14.97	19.01	10.11	
2025-01-15 00:14:15.18	19.02	10.13	
2025-01-15 00:14:15.39	19.02	10.15	
2025-01-15 00:14:15.60	19.02	10.17	
2025-01-15 00:14:15.80	19.02	10.18	
2025-01-15 00:14:16.00	19.02	10.20	
2025-01-15 00:14:16.21	19.03	10.22	
2025-01-15 00:14:16.41	19.03	10.24	
2025-01-15 00:14:16.62	19.03	10.25	
2025-01-15 00:14:16.82	19.03	10.27	
2025-01-15 00:14:17.02	19.04	10.29	
2025-01-15 00:14:17.23	19.04	10.31	
2025-01-15 00:14:17.43	19.04	10.32	
2025-01-15 00:14:17.64	19.04	10.34	
2025-01-15 00:14:17.84	19.04	10.36	
2025-01-15 00:14:18.04	19.05	10.38	
2025-01-15 00:14:18.24	19.05	10.40	
2025-01-15 00:14:18.45	19.05	10.41	
2025-01-15 00:14:18.65	19.05	10.43	
2025-01-15 00:14:18.86	19.06	10.45	
2025-01-15 00:14:19.08	19.06	10.47	
2025-01-15 00:14:19.28	19.06	10.49	
2025-01-15 00:14:19.48	19.06	10.50	
2025-01-15 00:14:19.69	19.06	10.52	
2025-01-15 00:14:19.89	19.07	10.54	
2025-01-15 00:14:20.09	19.07	10.56	
2025-01-15 00:14:20.29	19.07	10.58	
2025-01-15 00:14:20.50	19.07	10.59	
2025-01-15 00:14:20.70	19.08	10.61	
2025-01-15 00:14:20.91	19.08	10.63	
2025-01-15 00:14:21.11	19.08	10.65	
2025-01-15 00:14:21.31	19.08	10.67	
2025-01-15 00:14:21.52	19.08	10.69	
2025-01-15 00:14:21.72	19.09	10.70	
2025-01-15 00:14:21.92	19.09	10.72	
2025-01-15 00:14:22.13	19.09	10.74	
2025-01-15 00:14:22.34	19.09	10.76	
2025-01-15 00:14:22.54	19.10	10.78	
2025-01-15 00:14:22.74	19.10	10.79	
2025-01-15 00:14:22.94	19.10	10.81	
2025-01-15 00:14:23.15	19.10	10.83	
2025-01-15 00:14:23.35	19.10	10.85	
2025-01-15 00:14:23.55	19.11	10.87	
2025-01-15 00:14:23.77	19.11	10.89	
2025-01-15 00:14:23.97	19.11	10.90	
2025-01-15 00:14:24.18	19.11	10.92	
2025-01-15 00:14:24.38	19.12	10.94	
2025-01-15 00:14:24.59	19.12	10.96	
2025-01-15 00:14:24.79	19.12	10.98	
2025-01-15 00:14:24.99	19.12	11.00	
2025-01-15 00:14:25.21	19.13	11.02	
2025-01-15 00:14:25.41	19.13	11.03	
2025-01-15 00:14:25.61	19.13	11.05	
2025-01-15 00:14:25.81	19.13	11.07	
2025-01-15 00:14:26.02	19.13	11.09	
2025-01-15 00:14:26.22	19.14	11.11	
2025-01-15 00:14:26.43	19.14	11.13	
2025-01-15 00:14:26.63	19.14	11.14	
2025-01-15 00:14:26.84	19.14	11.16	
2025-01-15 00:14:27.04	19.15	11.18	
2025-01-15 00:14:27.24	19.15	11.20	
2025-01-15 00:14:27.44	19.15	11.22	
2025-01-15 00:14:27.64	19.15	11.23	
2025-01-15 00:14:27.85	19.15	11.25	
2025-01-15 00:14:28.07	19.16	11.27	
2025-01-15 00:14:28.27	19.16	11.29	
2025-01-15 00:14:28.47	19.16	11.31	
2025-01-15 00:14:28.69	19.16	11.33	
2025-01-15 00:14:28.89	19.17	11.35	
2025-01-15 00:14:29.10	19.17	11.37	
2025-01-15 00:14:29.30	19.17	11.39	
2025-01-15 00:14:29.52	19.17	11.41	
2025-01-15 00:14:29.72	19.18	11.42	
2025-01-15 00:14:29.94	19.18	11.44	
2025-01-15 00:14:30.14	19.18	11.46	
2025-01-15 00:14:30.35	19.18	11.48	
2025-01-15 00:14:30.55	19.19	11.50	
2025-01-15 00:14:30.75	19.19	11.52	
2025-01-15 00:14:30.95	19.19	11.54	
2025-01-15 00:14:31.17	19.19	11.56	
2025-01-15 00:14:31.37	19.19	11.58	
2025-01-15 00:14:31.58	19.20	11.60	
2025-01-15 00:14:31.78	19.20	11.61	
2025-01-15 00:14:31.99	19.20	11.63	
2025-01-15 00:14:32.19	19.20	11.65	
2025-01-15 00:14:32.40	19.21	11.67	
2025-01-15 00:14:32.60	19.21	11.69	
2025-01-15 00:14:32.80	19.21	11.71	
2025-01-15 00:14:33.02	19.21	11.73	
2025-01-15 00:14:33.22	19.22	11.75	
2025-01-15 00:14:33.43	19.22	11.77	
2025-01-15 00:14:33.63	19.22	11.79	
2025-01-15 00:14:33.84	19.22	11.80	
2025-01-15 00:14:34.04	19.22	11.82	
2025-01-15 00:14:34.25	19.23	11.84	
2025-01-15 00:14:34.45	19.23	11.86	
2025-01-15 00:14:34.65	19.23	11.88	
2025-01-15 00:14:34.85	19.23	11.90	
2025-01-15 00:14:35.06	19.24	11.92	
2025-01-15 00:14:35.26	19.24	11.94	
2025-01-15 00:14:35.46	19.24	11.96	
2025-01-15 00:14:35.67	19.24	11.98	
2025-01-15 00:14:35.87	19.25	11.99	
2025-01-15 00:14:36.09	19.25	12.01	
2025-01-15 00:14:36.29	19.25	12.03	
2025-01-15 00:14:36.50	19.25	12.05	
2025-01-15 00:14:36.70	19.26	12.07	
2025-01-15 00:14:36.92	19.26	12.09	
2025-01-15 00:14:37.12	19.26	12.11	
2025-01-15 00:14:37.32	19.26	12.13	
2025-01-15 00:14:37.53	19.27	12.15	
2025-01-15 00:14:37.74	19.27	12.17	
2025-01-15 00:14:37.95	19.27	12.19	
2025-01-15 00:14:38.16	19.27	12.21	
2025-01-15 00:14:38.36	19.27	12.23	
2025-01-15 00:14:38.57	19.28	12.25	
2025-01-15 00:14:38.77	19.28	12.27	
2025-01-15 00:14:38.98	19.28	12.29	
2025-01-15 00:14:39.18	19.28	12.31	
2025-01-15 00:14:39.38	19.29	12.33	
2025-01-15 00:14:39.59	19.29	12.34	
2025-01-15 00:14:39.80	19.29	12.36	
2025-01-15 00:14:40.02	19.29	12.39	
2025-01-15 00:14:40.22	19.30	12.40	
2025-01-15 00:14:40.43	19.30	12.42	
2025-01-15 00:14:40.63	19.30	12.44	
2025-01-15 00:14:40.85	19.30	12.47	
2025-01-15 00:14:41.05	19.31	12.48	
2025-01-15 00:14:41.25	19.31	12.50	
2025-01-15 00:14:41.46	19.31	12.52	
2025-01-15 00:14:41.66	19.31	12.54	
2025-01-15 00:14:41.86	19.32	12.56	
2025-01-15 00:14:42.07	19.32	12.58	
2025-01-15 00:14:42.29	19.32	12.60	
2025-01-15 00:14:42.49	19.32	12.62	
2025-01-15 00:14:42.70	19.33	12.64	
2025-01-15 00:14:42.90	19.33	12.66	
2025-01-15 00:14:43.12	19.33	12.68	
2025-01-15 00:14:43.32	19.33	12.70	
2025-01-15 00:14:43.52	19.34	12.72	
2025-01-15 00:14:43.74	19.34	12.74	
2025-01-15 00:14:43.96	19.34	12.76	
2025-01-15 00:14:44.16	19.34	12.78	
2025-01-15 00:14:44.38	19.35	12.80	
2025-01-15 00:14:44.58	19.35	12.82	
2025-01-15 00:14:44.79	19.35	12.84	
2025-01-15 00:14:44.99	19.35	12.86	
2025-01-15 00:14:45.20	19.36	12.88	
2025-01-15 00:14:45.40	19.36	12.90	
2025-01-15 00:14:45.60	19.36	12.92	
2025-01-15 00:14:45.80	19.36	12.94	
2025-01-15 00:14:46.00	19.37	12.96	
2025-01-15 00:14:46.21	19.37	12.98	
2025-01-15 00:14:46.41	19.37	13.00	
2025-01-15 00:14:46.61	19.37	13.02	
2025-01-15 00:14:46.81	19.38	13.04	
2025-01-15 00:14:47.02	19.38	13.06	
2025-01-15 00:14:47.22	19.38	13.08	
2025-01-15 00:14:47.42	19.38	13.10	
2025-01-15 00:14:47.63	19.39	13.12	
2025-01-15 00:14:47.83	19.39	13.14	
2025-01-15 00:14:48.03	19.39	13.16	
2025-01-15 00:14:48.23	19.39	13.18	
2025-01-15 00:14:48.44	19.40	13.20	
2025-01-15 00:14:48.64	19.40	13.22	
2025-01-15 00:14:48.85	19.40	13.24	
2025-01-15 00:14:49.05	19.40	13.26	
2025-01-15 00:14:49.27	19.41	13.28	
2025-01-15 00:14:49.47	19.41	13.30	
2025-01-15 00:14:49.67	19.41	13.32	
2025-01-15 00:14:49.87	19.41	13.34	
2025-01-15 00:14:50.08	19.42	13.36	
2025-01-15 00:14:50.29	19.42	13.38	
2025-01-15 00:14:50.50	19.42	13.40	
2025-01-15 00:14:50.70	19.42	13.42	
2025-01-15 00:14:50.90	19.43	13.44	
2025-01-15 00:14:51.11	19.43	13.47	
2025-01-15 00:14:51.32	19.43	13.49	
2025-01-15 00:14:51.53	19.43	13.51	
2025-01-15 00:14:51.73	19.44	13.53	
2025-01-15 00:14:51.94	19.44	13.55	
2025-01-15 00:14:52.14	19.44	13.57	
2025-01-15 00:14:52.34	19.44	13.59	
2025-01-15 00:14:52.54	19.45	13.61	
2025-01-15 00:14:52.75	19.45	13.63	
2025-01-15 00:14:52.95	19.45	13.65	
2025-01-15 00:14:53.16	19.45	13.67	
2025-01-15 00:14:53.36	19.46	13.69	
2025-01-15 00:14:53.56	19.46	13.71	
2025-01-15 00:14:53.76	19.46	13.73	
2025-01-15 00:14:53.97	19.46	13.75	
2025-01-15 00:14:54.18	19.47	13.77	
2025-01-15 00:14:54.39	19.47	13.79	
2025-01-15 00:14:54.60	19.47	13.82	
2025-01-15 00:14:54.80	19.47	13.84	
2025-01-15 00:14:55.00	19.48	13.86	
2025-01-15 00:14:55.21	19.48	13.88	
2025-01-15 00:14:55.41	19.48	13.90	
2025-01-15 00:14:55.61	19.48	13.92	
2025-01-15 00:14:55.82	19.49	13.94	
2025-01-15 00:14:56.02	19.49	13.96	
2025-01-15 00:14:56.22	19.49	13.98	
2025-01-15 00:14:56.42	19.49	14.00	
2025-01-15 00:14:56.63	19.50	14.02	
2025-01-15 00:14:56.83	19.50	14.04	
2025-01-15 00:14:57.04	19.50	14.06	
2025-01-15 00:14:57.24	19.50	14.08	
2025-01-15 00:14:57.44	19.51	14.10	
2025-01-15 00:14:57.64	19.51	14.12	
2025-01-15 00:14:57.85	19.51	14.15	
2025-01-15 00:14:58.05	19.51	14.17	
2025-01-15 00:14:58.25	19.52	14.19	
2025-01-15 00:14:58.46	19.52	14.21	
2025-01-15 00:14:58.67	19.52	14.23	
2025-01-15 00:14:58.87	19.53	14.25	
2025-01-15 00:14:59.07	19.53	14.27	
2025-01-15 00:14:59.27	19.53	14.29	
2025-01-15 00:14:59.48	19.53	14.31	
2025-01-15 00:14:59.68	19.54	14.33	
2025-01-15 00:14:59.89	19.54	14.36	
2025-01-15 00:15:00.09	19.54	14.38	
2025-01-15 00:15:00.29	19.54	14.40	
2025-01-15 00:15:00.50	19.55	14.42	
2025-01-15 00:15:00.70	19.55	14.44	
2025-01-15 00:15:00.91	19.55	14.46	
2025-01-15 00:15:01.12	19.55	14.48	
2025-01-15 00:15:01.32	19.56	14.50	
2025-01-15 00:15:01.52	19.56	14.52	
2025-01-15 00:15:01.73	19.56	14.55	
2025-01-15 00:15:01.93	19.56	14.57	
2025-01-15 00:15:02.14	19.57	14.59	
2025-01-15 00:15:02.34	19.57	14.61	
2025-01-15 00:15:02.55	19.57	14.63	
2025-01-15 00:15:02.76	19.58	14.65	
2025-01-15 00:15:02.97	19.58	14.68	
2025-01-15 00:15:03.17	19.58	14.70	
2025-01-15 00:15:03.38	19.58	14.72	
2025-01-15 00:15:03.58	19.59	14.74	
2025-01-15 00:15:03.79	19.59	14.76	
2025-01-15 00:15:04.00	19.59	14.78	
2025-01-15 00:15:04.21	19.59	14.81	
2025-01-15 00:15:04.41	19.60	14.83	
2025-01-15 00:15:04.61	19.60	14.85	
2025-01-15 00:15:04.82	19.60	14.87	
2025-01-15 00:15:05.02	19.60	14.89	
2025-01-15 00:15:05.22	19.61	14.91	
2025-01-15 00:15:05.44	19.61	14.93	
2025-01-15 00:15:05.64	19.61	14.96	
2025-01-15 00:15:05.84	19.62	14.98	
2025-01-15 00:15:06.05	19.62	15.00	
2025-01-15 00:15:06.25	19.62	15.02	
2025-01-15 00:15:06.45	19.62	15.04	
2025-01-15 00:15:06.65	19.63	15.06	
2025-01-15 00:15:06.86	19.63	15.09	
2025-01-15 00:15:07.07	19.63	15.11	
2025-01-15 00:15:07.27	19.63	15.13	
2025-01-15 00:15:07.47	19.64	15.15	
2025-01-15 00:15:07.69	19.64	15.17	
2025-01-15 00:15:07.90	19.64	15.20	
2025-01-15 00:15:08.10	19.65	15.22	
2025-01-15 00:15:08.30	19.65	15.24	
2025-01-15 00:15:08.51	19.65	15.26	
2025-01-15 00:15:08.71	19.65	15.28	
2025-01-15 00:15:08.91	19.66	15.30	
2025-01-15 00:15:09.11	19.66	15.33	
2025-01-15 00:15:09.32	19.66	15.35	
2025-01-15 00:15:09.52	19.66	15.37	
2025-01-15 00:15:09.72	19.67	15.39	
2025-01-15 00:15:09.92	19.67	15.41	
2025-01-15 00:15:10.14	19.67	15.44	
2025-01-15 00:15:10.34	19.68	15.46	
2025-01-15 00:15:10.54	19.68	15.48	
2025-01-15 00:15:10.75	19.68	15.50	
2025-01-15 00:15:10.95	19.68	15.52	
2025-01-15 00:15:11.15	19.69	15.55	
2025-01-15 00:15:11.35	19.69	15.57	
2025-01-15 00:15:11.56	19.69	15.59	
2025-01-15 00:15:11.76	19.70	15.61	
2025-01-15 00:15:11.97	19.70	15.64	
2025-01-15 00:15:12.17	19.70	15.66	
2025-01-15 00:15:12.39	19.70	15.68	
2025-01-15 00:15:12.59	19.71	15.70	
2025-01-15 00:15:12.79	19.71	15.72	
2025-01-15 00:15:13.01	19.71	15.75	
2025-01-15 00:15:13.22	19.71	15.77	
2025-01-15 00:15:13.42	19.72	15.79	
2025-01-15 00:15:13.62	19.72	15.82	
2025-01-15 00:15:13.84	19.72	15.84	
2025-01-15 00:15:14.06	19.73	15.86	
2025-01-15 00:15:14.26	19.73	15.89	
2025-01-15 00:15:14.46	19.73	15.91	
2025-01-15 00:15:14.67	19.73	15.93	
2025-01-15 00:15:14.87	19.74	15.95	
2025-01-15 00:15:15.07	19.74	15.97	
2025-01-15 00:15:15.27	19.74	16.00	
2025-01-15 00:15:15.49	19.75	16.02	
2025-01-15 00:15:15.69	19.75	16.04	
2025-01-15 00:15:15.89	19.75	16.07	
2025-01-15 00:15:16.10	19.75	16.09	
2025-01-15 00:15:16.30	19.76	16.11	
2025-01-15 00:15:16.50	19.76	16.13	
2025-01-15 00:15:16.71	19.76	16.16	
2025-01-15 00:15:16.92	19.77	16.18	
2025-01-15 00:15:17.13	19.77	16.20	
2025-01-15 00:15:17.34	19.77	16.23	
2025-01-15 00:15:17.54	19.77	16.25	
2025-01-15 00:15:17.76	19.78	16.27	
2025-01-15 00:15:17.96	19.78	16.30	
2025-01-15 00:15:18.18	19.78	16.32	
2025-01-15 00:15:18.38	19.79	16.34	
2025-01-15 00:15:18.58	19.79	16.37	
2025-01-15 00:15:18.79	19.79	16.39	
2025-01-15 00:15:18.99	19.80	16.41	
2025-01-15 00:15:19.19	19.80	16.43	
2025-01-15 00:15:19.40	19.80	16.46	
2025-01-15 00:15:19.61	19.80	16.48	
2025-01-15 00:15:19.83	19.81	16.51	
2025-01-15 00:15:20.04	19.81	16.53	
2025-01-15 00:15:20.24	19.81	16.55	
2025-01-15 00:15:20.44	19.82	16.57	
2025-01-15 00:15:20.65	19.82	16.60	
2025-01-15 00:15:20.85	19.82	16.62	
2025-01-15 00:15:21.05	19.82	16.64	
2025-01-15 00:15:21.26	19.83	16.67	
2025-01-15 00:15:21.47	19.83	16.69	
2025-01-15 00:15:21.67	19.83	16.71	
2025-01-15 00:15:21.87	19.84	16.74	
2025-01-15 00:15:22.09	19.84	16.76	
2025-01-15 00:15:22.29	19.84	16.79	
2025-01-15 00:15:22.50	19.85	16.81	
2025-01-15 00:15:22.70	19.85	16.83	
2025-01-15 00:15:22.90	19.85	16.85	
2025-01-15 00:15:23.10	19.85	16.88	
2025-01-15 00:15:23.30	19.86	16.90	
2025-01-15 00:15:23.51	19.86	16.92	
2025-01-15 00:15:23.71	19.86	16.95	
2025-01-15 00:15:23.92	19.87	16.97	
2025-01-15 00:15:24.12	19.87	16.99	
2025-01-15 00:15:24.32	19.87	17.02	
2025-01-15 00:15:24.53	19.87	17.04	
2025-01-15 00:15:24.73	19.88	17.06	
2025-01-15 00:15:24.93	19.88	17.09	
2025-01-15 00:15:25.14	19.88	17.11	
2025-01-15 00:15:25.34	19.89	17.14	
2025-01-15 00:15:25.55	19.89	17.16	
2025-01-15 00:15:25.76	19.89	17.18	
2025-01-15 00:15:25.96	19.90	17.21	
2025-01-15 00:15:26.16	19.90	17.23	
2025-01-15 00:15:26.37	19.90	17.25	
2025-01-15 00:15:26.57	19.90	17.28	
2025-01-15 00:15:26.77	19.91	17.30	
2025-01-15 00:15:26.97	19.91	17.32	
2025-01-15 00:15:27.17	19.91	17.35	
2025-01-15 00:15:27.38	19.92	17.37	
2025-01-15 00:15:27.60	19.92	17.40	
2025-01-15 00:15:27.82	19.92	17.42	
2025-01-15 00:15:28.02	19.93	17.45	
2025-01-15 00:15:28.24	19.93	17.47	
2025-01-15 00:15:28.45	19.93	17.50	
2025-01-15 00:15:28.66	19.94	17.52	
2025-01-15 00:15:28.86	19.94	17.55	
2025-01-15 00:15:29.06	19.94	17.57	
2025-01-15 00:15:29.26	19.94	17.59	
2025-01-15 00:15:29.47	19.95	17.62	
2025-01-15 00:15:29.69	19.95	17.64	
2025-01-15 00:15:29.89	19.95	17.67	
2025-01-15 00:15:30.09	19.96	17.69	
2025-01-15 00:15:30.30	19.96	17.72	
2025-01-15 00:15:30.50	19.96	17.74	
2025-01-15 00:15:30.70	19.97	17.76	
2025-01-15 00:15:30.91	19.97	17.79	
2025-01-15 00:15:31.11	19.97	17.81	
2025-01-15 00:15:31.31	19.97	17.84	
2025-01-15 00:15:31.51	19.98	17.86	
2025-01-15 00:15:31.72	19.98	17.89	
2025-01-15 00:15:31.92	19.98	17.91	
2025-01-15 00:15:32.12	19.99	17.93	
2025-01-15 00:15:32.32	19.99	17.96	
2025-01-15 00:15:32.54	19.99	17.98	
2025-01-15 00:15:32.74	20.00	18.01	
2025-01-15 00:15:32.94	20.00	18.03	
2025-01-15 00:15:33.15	20.00	18.06	
2025-01-15 00:15:33.35	20.01	18.08	
2025-01-15 00:15:33.55	20.01	18.10	
2025-01-15 00:15:33.75	20.01	18.13	
2025-01-15 00:15:33.96	20.02	18.15	
2025-01-15 00:15:34.16	20.02	18.18	
2025-01-15 00:15:34.38	20.02	18.20	
2025-01-15 00:15:34.58	20.02	18.23	
2025-01-15 00:15:34.78	20.03	18.25	
2025-01-15 00:15:34.98	20.03	18.28	
2025-01-15 00:15:35.19	20.03	18.30	
2025-01-15 00:15:35.39	20.04	18.33	
2025-01-15 00:15:35.60	20.04	18.35	
2025-01-15 00:15:35.81	20.04	18.38	
2025-01-15 00:15:36.03	20.05	18.40	
2025-01-15 00:15:36.23	20.05	18.43	
2025-01-15 00:15:36.43	20.05	18.45	
2025-01-15 00:15:36.64	20.06	18.48	
2025-01-15 00:15:36.85	20.06	18.51	
2025-01-15 00:15:37.06	20.06	18.53	
2025-01-15 00:15:37.27	20.07	18.56	
2025-01-15 00:15:37.47	20.07	18.58	
2025-01-15 00:15:37.69	20.07	18.61	
2025-01-15 00:15:37.89	20.08	18.63	
2025-01-15 00:15:38.11	20.08	18.66	
2025-01-15 00:15:38.31	20.08	18.68	
2025-01-15 00:15:38.51	20.09	18.71	
2025-01-15 00:15:38.72	20.09	18.74	
2025-01-15 00:15:38.92	20.09	18.76	
2025-01-15 00:15:39.12	20.10	18.78	
2025-01-15 00:15:39.34	20.10	18.81	
2025-01-15 00:15:39.56	20.10	18.84	
2025-01-15 00:15:39.76	20.11	18.86	
2025-01-15 00:15:39.96	20.11	18.89	
2025-01-15 00:15:40.16	20.11	18.91	
2025-01-15 00:15:40.36	20.11	18.94	
2025-01-15 00:15:40.57	20.12	18.96	
2025-01-15 00:15:40.78	20.12	18.99	
2025-01-15 00:15:40.99	20.12	19.02	
2025-01-15 00:15:41.19	20.13	19.04	
2025-01-15 00:15:41.41	20.13	19.07	
2025-01-15 00:15:41.61	20.13	19.09	
2025-01-15 00:15:41.83	20.14	19.12	
2025-01-15 00:15:42.04	20.14	19.15	
2025-01-15 00:15:42.24	20.14	19.17	
2025-01-15 00:15:42.46	20.15	19.20	
2025-01-15 00:15:42.66	20.15	19.23	
2025-01-15 00:15:42.86	20.15	19.25	
2025-01-15 00:15:43.08	20.16	19.28	
2025-01-15 00:15:43.28	20.16	19.30	
2025-01-15 00:15:43.50	20.17	19.33	
2025-01-15 00:15:43.71	20.17	19.36	
2025-01-15 00:15:43.91	20.17	19.38	
2025-01-15 00:15:44.12	20.18	19.41	
2025-01-15 00:15:44.33	20.18	19.44	
2025-01-15 00:15:44.54	20.18	19.46	
2025-01-15 00:15:44.75	20.19	19.49	
2025-01-15 00:15:44.96	20.19	19.52	
2025-01-15 00:15:45.16	20.19	19.54	
2025-01-15 00:15:45.37	20.20	19.57	
2025-01-15 00:15:45.57	20.20	19.60	
2025-01-15 00:15:45.78	20.20	19.62	
2025-01-15 00:15:45.99	20.21	19.65	
2025-01-15 00:15:46.21	20.21	19.68	
2025-01-15 00:15:46.41	20.21	19.70	
2025-01-15 00:15:46.62	20.22	19.73	
2025-01-15 00:15:46.82	20.22	19.76	
2025-01-15 00:15:47.03	20.22	19.78	
2025-01-15 00:15:47.25	20.23	19.81	
2025-01-15 00:15:47.45	20.23	19.84	
2025-01-15 00:15:47.66	20.23	19.86	
2025-01-15 00:15:47.88	20.24	19.89	
2025-01-15 00:15:48.08	20.24	19.92	
2025-01-15 00:15:48.29	20.24	19.95	
2025-01-15 00:15:48.49	20.25	19.97	
2025-01-15 00:15:48.71	20.25	20.00	
2025-01-15 00:15:48.91	20.25	20.03	
2025-01-15 00:15:49.13	20.26	20.06	
2025-01-15 00:15:49.34	20.26	20.08	
2025-01-15 00:15:49.55	20.27	20.11	
2025-01-15 00:15:49.75	20.27	20.14	
2025-01-15 00:15:49.95	20.27	20.16	
2025-01-15 00:15:50.16	20.28	20.19	
2025-01-15 00:15:50.36	20.28	20.22	
2025-01-15 00:15:50.56	20.28	20.24	
2025-01-15 00:15:50.76	20.29	20.27	
2025-01-15 00:15:50.96	20.29	20.30	
2025-01-15 00:15:51.17	20.29	20.32	
2025-01-15 00:15:51.37	20.30	20.35	
2025-01-15 00:15:51.57	20.30	20.38	
2025-01-15 00:15:51.78	20.30	20.40	
2025-01-15 00:15:51.98	20.31	20.43	
2025-01-15 00:15:52.19	20.31	20.46	
2025-01-15 00:15:52.39	20.31	20.48	
2025-01-15 00:15:52.59	20.32	20.51	
2025-01-15 00:15:52.79	20.32	20.54	
2025-01-15 00:15:53.00	20.32	20.56	
2025-01-15 00:15:53.20	20.33	20.59	
2025-01-15 00:15:53.40	20.33	20.62	
2025-01-15 00:15:53.61	20.33	20.65	
2025-01-15 00:15:53.81	20.34	20.67	
2025-01-15 00:15:54.01	20.34	20.70	
2025-01-15 00:15:54.22	20.35	20.73	
2025-01-15 00:15:54.42	20.35	20.75	
2025-01-15 00:15:54.63	20.35	20.78	
2025-01-15 00:15:54.83	20.36	20.81	
2025-01-15 00:15:55.05	20.36	20.84	
2025-01-15 00:15:55.25	20.36	20.87	
2025-01-15 00:15:55.45	20.37	20.89	
2025-01-15 00:15:55.66	20.37	20.92	
2025-01-15 00:15:55.86	20.37	20.95	
2025-01-15 00:15:56.06	20.38	20.98	
2025-01-15 00:15:56.26	20.38	21.00	
2025-01-15 00:15:56.46	20.38	21.03	
2025-01-15 00:15:56.67	20.39	21.06	
2025-01-15 00:15:56.87	20.39	21.08	
2025-01-15 00:15:57.07	20.40	21.11	
2025-01-15 00:15:57.29	20.40	21.14	
2025-01-15 00:15:57.51	20.40	21.17	
2025-01-15 00:15:57.71	20.41	21.20	
2025-01-15 00:15:57.91	20.41	21.23	
2025-01-15 00:15:58.11	20.41	21.25	
2025-01-15 00:15:58.32	20.42	21.28	
2025-01-15 00:15:58.52	20.42	21.31	
2025-01-15 00:15:58.73	20.42	21.34	
2025-01-15 00:15:58.93	20.43	21.37	
2025-01-15 00:15:59.14	20.43	21.39	
2025-01-15 00:15:59.34	20.44	21.42	
2025-01-15 00:15:59.55	20.44	21.45	
2025-01-15 00:15:59.77	20.44	21.48	
2025-01-15 00:15:59.99	20.45	21.51	
2025-01-15 00:16:00.21	20.45	21.54	
2025-01-15 00:16:00.41	20.45	21.57	
2025-01-15 00:16:00.63	20.46	21.60	
2025-01-15 00:16:00.83	20.46	21.63	
2025-01-15 00:16:01.03	20.47	21.66	
2025-01-15 00:16:01.23	20.47	21.68	
2025-01-15 00:16:01.44	20.47	21.71	
2025-01-15 00:16:01.64	20.48	21.74	
2025-01-15 00:16:01.84	20.48	21.77	
2025-01-15 00:16:02.05	20.48	21.80	
2025-01-15 00:16:02.26	20.49	21.83	
2025-01-15 00:16:02.47	20.49	21.86	
2025-01-15 00:16:02.67	20.50	21.88	
2025-01-15 00:16:02.88	20.50	21.91	
2025-01-15 00:16:03.08	20.50	21.94	
2025-01-15 00:16:03.28	20.51	21.97	
2025-01-15 00:16:03.49	20.51	22.00	
2025-01-15 00:16:03.69	20.51	22.03	
2025-01-15 00:16:03.89	20.52	22.06	
2025-01-15 00:16:04.10	20.52	22.09	
2025-01-15 00:16:04.31	20.53	22.12	
2025-01-15 00:16:04.52	20.53	22.15	
2025-01-15 00:16:04.72	20.53	22.17	
2025-01-15 00:16:04.92	20.54	22.20	
2025-01-15 00:16:05.13	20.54	22.23	
2025-01-15 00:16:05.34	20.55	22.26	
2025-01-15 00:16:05.56	20.55	22.29	
2025-01-15 00:16:05.76	20.55	22.32	
2025-01-15 00:16:05.97	20.56	22.35	
2025-01-15 00:16:06.17	20.56	22.38	
2025-01-15 00:16:06.37	20.56	22.41	
2025-01-15 00:16:06.57	20.57	22.44	
2025-01-15 00:16:06.78	20.57	22.47	
2025-01-15 00:16:06.99	20.58	22.50	
2025-01-15 00:16:07.20	20.58	22.53	
2025-01-15 00:16:07.41	20.58	22.56	
2025-01-15 00:16:07.61	20.59	22.59	
2025-01-15 00:16:07.81	20.59	22.62	
2025-01-15 00:16:08.02	20.60	22.65	
2025-01-15 00:16:08.22	20.60	22.67	
2025-01-15 00:16:08.42	20.60	22.70	
2025-01-15 00:16:08.63	20.61	22.73	
2025-01-15 00:16:08.84	20.61	22.76	
2025-01-15 00:16:09.05	20.62	22.79	
2025-01-15 00:16:09.26	20.62	22.83	
2025-01-15 00:16:09.46	20.62	22.85	
2025-01-15 00:16:09.68	20.63	22.89	
2025-01-15 00:16:09.89	20.63	22.92	
2025-01-15 00:16:10.10	20.64	22.95	
2025-01-15 00:16:10.31	20.64	22.98	
2025-01-15 00:16:10.52	20.64	23.01	
2025-01-15 00:16:10.72	20.65	23.04	
2025-01-15 00:16:10.93	20.65	23.07	
2025-01-15 00:16:11.13	20.66	23.10	
2025-01-15 00:16:11.33	20.66	23.13	
2025-01-15 00:16:11.53	20.66	23.16	
2025-01-15 00:16:11.74	20.67	23.19	
2025-01-15 00:16:11.94	20.67	23.22	
2025-01-15 00:16:12.15	20.68	23.25	
2025-01-15 00:16:12.35	20.68	23.28	
2025-01-15 00:16:12.55	20.68	23.31	
2025-01-15 00:16:12.77	20.69	23.34	
2025-01-15 00:16:12.99	20.69	23.37	
2025-01-15 00:16:13.19	20.70	23.40	
2025-01-15 00:16:13.40	20.70	23.43	
2025-01-15 00:16:13.60	20.71	23.46	
2025-01-15 00:16:13.80	20.71	23.49	
2025-01-15 00:16:14.01	20.71	23.53	
2025-01-15 00:16:14.21	20.72	23.55	
2025-01-15 00:16:14.43	20.72	23.59	
2025-01-15 00:16:14.63	20.73	23.62	
2025-01-15 00:16:14.83	20.73	23.65	
2025-01-15 00:16:15.05	20.73	23.68	
2025-01-15 00:16:15.26	20.74	23.71	
2025-01-15 00:16:15.47	20.74	23.74	
2025-01-15 00:16:15.67	20.75	23.77	
2025-01-15 00:16:15.87	20.75	23.80	
2025-01-15 00:16:16.07	20.75	23.83	
2025-01-15 00:16:16.27	20.76	23.86	
2025-01-15 00:16:16.48	20.76	23.90	
2025-01-15 00:16:16.68	20.77	23.93	
2025-01-15 00:16:16.89	20.77	23.96	
2025-01-15 00:16:17.10	20.78	23.99	
2025-01-15 00:16:17.31	20.78	24.02	
2025-01-15 00:16:17.51	20.78	24.05	
2025-01-15 00:16:17.71	20.79	24.08	
2025-01-15 00:16:17.91	20.79	24.11	
2025-01-15 00:16:18.12	20.80	24.15	
2025-01-15 00:16:18.32	20.80	24.18	
2025-01-15 00:16:18.52	20.80	24.21	
2025-01-15 00:16:18.74	20.81	24.24	
2025-01-15 00:16:18.94	20.81	24.27	
2025-01-15 00:16:19.14	20.82	24.30	
2025-01-15 00:16:19.36	20.82	24.34	
2025-01-15 00:16:19.56	20.83	24.37	
2025-01-15 00:16:19.78	20.83	24.40	
2025-01-15 00:16:19.98	20.84	24.43	
2025-01-15 00:16:20.19	20.84	24.46	
2025-01-15 00:16:20.39	20.84	24.50	
2025-01-15 00:16:20.61	20.85	24.53	
2025-01-15 00:16:20.81	20.85	24.56	
2025-01-15 00:16:21.03	20.86	24.60	
2025-01-15 00:16:21.25	20.86	24.63	
2025-01-15 00:16:21.45	20.87	24.66	
2025-01-15 00:16:21.65	20.87	24.69	
2025-01-15 00:16:21.86	20.87	24.72	
2025-01-15 00:16:22.06	20.88	24.76	
2025-01-15 00:16:22.26	20.88	24.79	
2025-01-15 00:16:22.46	20.89	24.82	
2025-01-15 00:16:22.66	20.89	24.85	
2025-01-15 00:16:22.87	20.90	24.88	
2025-01-15 00:16:23.07	20.90	24.91	
2025-01-15 00:16:23.27	20.90	24.95	
2025-01-15 00:16:23.49	20.91	24.98	
2025-01-15 00:16:23.69	20.91	25.01	
2025-01-15 00:16:23.89	20.92	25.04	
2025-01-15 00:16:24.10	20.92	25.08	
2025-01-15 00:16:24.30	20.93	25.11	
2025-01-15 00:16:24.50	20.93	25.14	
2025-01-15 00:16:24.70	20.94	25.17	
2025-01-15 00:16:24.91	20.94	25.21	
2025-01-15 00:16:25.11	20.94	25.24	
2025-01-15 00:16:25.31	20.95	25.27	
2025-01-15 00:16:25.52	20.95	25.30	
2025-01-15 00:16:25.72	20.96	25.34	
2025-01-15 00:16:25.93	20.96	25.37	
2025-01-15 00:16:26.14	20.97	25.40	
2025-01-15 00:16:26.35	20.97	25.44	
2025-01-15 00:16:26.56	20.98	25.47	
2025-01-15 00:16:26.77	20.98	25.50	
2025-01-15 00:16:26.97	20.99	25.54	
2025-01-15 00:16:27.17	20.99	25.57	
2025-01-15 00:16:27.38	20.99	25.60	
2025-01-15 00:16:27.58	21.00	25.64	
2025-01-15 00:16:27.78	21.00	25.67	
2025-01-15 00:16:27.99	21.01	25.70	
2025-01-15 00:16:28.19	21.01	25.73	
2025-01-15 00:16:28.39	21.02	25.77	
2025-01-15 00:16:28.59	21.02	25.80	
2025-01-15 00:16:28.80	21.03	25.83	
2025-01-15 00:16:29.00	21.03	25.87	
2025-01-15 00:16:29.21	21.04	25.90	
2025-01-15 00:16:29.41	21.04	25.93	
2025-01-15 00:16:29.61	21.04	25.97	
2025-01-15 00:16:29.83	21.05	26.00	
2025-01-15 00:16:30.04	21.05	26.04	
2025-01-15 00:16:30.24	21.06	26.07	
2025-01-15 00:16:30.44	21.06	26.10	
2025-01-15 00:16:30.64	21.07	26.14	
2025-01-15 00:16:30.85	21.07	26.17	
2025-01-15 00:16:31.05	21.08	26.20	
2025-01-15 00:16:31.25	21.08	26.24	
2025-01-15 00:16:31.47	21.09	26.27	
2025-01-15 00:16:31.68	21.09	26.31	
2025-01-15 00:16:31.89	21.10	26.34	
2025-01-15 00:16:32.11	21.10	26.38	
2025-01-15 00:16:32.33	21.11	26.42	
2025-01-15 00:16:32.55	21.11	26.45	
2025-01-15 00:16:32.75	21.12	26.49	
2025-01-15 00:16:32.97	21.12	26.52	
2025-01-15 00:16:33.17	21.13	26.56	
2025-01-15 00:16:33.37	21.13	26.59	
2025-01-15 00:16:33.58	21.14	26.62	
2025-01-15 00:16:33.78	21.14	26.66	
2025-01-15 00:16:33.98	21.15	26.69	
2025-01-15 00:16:34.20	21.15	26.73	
2025-01-15 00:16:34.41	21.16	26.76	
2025-01-15 00:16:34.62	21.16	26.80	
2025-01-15 00:16:34.84	21.17	26.84	
2025-01-15 00:16:35.04	21.17	26.87	
2025-01-15 00:16:35.25	21.18	26.91	
2025-01-15 00:16:35.45	21.18	26.94	
2025-01-15 00:16:35.66	21.19	26.98	
2025-01-15 00:16:35.86	21.19	27.01	
2025-01-15 00:16:36.06	21.19	27.04	
2025-01-15 00:16:36.26	21.20	27.08	
2025-01-15 00:16:36.46	21.20	27.11	
2025-01-15 00:16:36.67	21.21	27.15	
2025-01-15 00:16:36.87	21.21	27.18	
2025-01-15 00:16:37.08	21.22	27.22	
2025-01-15 00:16:37.28	21.22	27.25	
2025-01-15 00:16:37.48	21.23	27.29	
2025-01-15 00:16:37.69	21.23	27.32	
2025-01-15 00:16:37.89	21.24	27.36	
2025-01-15 00:16:38.10	21.24	27.39	
2025-01-15 00:16:38.31	21.25	27.43	
2025-01-15 00:16:38.51	21.25	27.47	
2025-01-15 00:16:38.72	21.26	27.50	
2025-01-15 00:16:38.92	21.26	27.54	
2025-01-15 00:16:39.12	21.27	27.57	
2025-01-15 00:16:39.33	21.27	27.61	
2025-01-15 00:16:39.53	21.28	27.64	
2025-01-15 00:16:39.74	21.28	27.68	
2025-01-15 00:16:39.94	21.29	27.71	
2025-01-15 00:16:40.16	21.29	27.75	
2025-01-15 00:16:40.36	21.30	27.79	
2025-01-15 00:16:40.58	21.31	27.83	
2025-01-15 00:16:40.78	21.31	27.86	
2025-01-15 00:16:40.98	21.32	27.90	
2025-01-15 00:16:41.20	21.32	27.94	
2025-01-15 00:16:41.40	21.33	27.97	
2025-01-15 00:16:41.61	21.33	28.01	
2025-01-15 00:16:41.81	21.34	28.04	
2025-01-15 00:16:42.02	21.34	28.08	
2025-01-15 00:16:42.22	21.35	28.12	
2025-01-15 00:16:42.42	21.35	28.15	
2025-01-15 00:16:42.62	21.36	28.19	
2025-01-15 00:16:42.83	21.36	28.22	
2025-01-15 00:16:43.03	21.37	28.26	
2025-01-15 00:16:43.25	21.37	28.30	
2025-01-15 00:16:43.46	21.38	28.34	
2025-01-15 00:16:43.67	21.38	28.37	
2025-01-15 00:16:43.87	21.39	28.41	
2025-01-15 00:16:44.08	21.39	28.45	
2025-01-15 00:16:44.28	21.40	28.48	
2025-01-15 00:16:44.50	21.40	28.52	
2025-01-15 00:16:44.70	21.41	28.56	
2025-01-15 00:16:44.90	21.42	28.60	
2025-01-15 00:16:45.11	21.42	28.63	
2025-01-15 00:16:45.31	21.43	28.67	
2025-01-15 00:16:45.52	21.43	28.71	
2025-01-15 00:16:45.74	21.44	28.75	
2025-01-15 00:16:45.95	21.44	28.79	
2025-01-15 00:16:46.17	21.45	28.83	
2025-01-15 00:16:46.37	21.45	28.86	
2025-01-15 00:16:46.58	21.46	28.90	
2025-01-15 00:16:46.78	21.46	28.94	
2025-01-15 00:16:46.98	21.47	28.97	
2025-01-15 00:16:47.18	21.47	29.01	
2025-01-15 00:16:47.39	21.48	29.05	
2025-01-15 00:16:47.59	21.49	29.08	
2025-01-15 00:16:47.79	21.49	29.12	
2025-01-15 00:16:48.00	21.50	29.16	
2025-01-15 00:16:48.20	21.50	29.20	
2025-01-15 00:16:48.41	21.51	29.24	
2025-01-15 00:16:48.62	21.51	29.27	
2025-01-15 00:16:48.83	21.52	29.31	
2025-01-15 00:16:49.04	21.52	29.35	
2025-01-15 00:16:49.25	21.53	29.39	
2025-01-15 00:16:49.46	21.54	29.43	
2025-01-15 00:16:49.67	21.54	29.47	
2025-01-15 00:16:49.88	21.55	29.51	
2025-01-15 00:16:50.08	21.55	29.55	
2025-01-15 00:16:50.28	21.56	29.58	
2025-01-15 00:16:50.49	21.56	29.62	
2025-01-15 00:16:50.69	21.57	29.66	
2025-01-15 00:16:50.89	21.58	29.70	
2025-01-15 00:16:51.09	21.58	29.74	
2025-01-15 00:16:51.31	21.59	29.78	
2025-01-15 00:16:51.51	21.59	29.81	
2025-01-15 00:16:51.73	21.60	29.86	
2025-01-15 00:16:51.93	21.60	29.89	
2025-01-15 00:16:52.13	21.61	29.93	
2025-01-15 00:16:52.34	21.62	29.97	
2025-01-15 00:16:52.54	21.62	30.01	
2025-01-15 00:16:52.75	21.63	30.05	
2025-01-15 00:16:52.95	21.63	30.09	
2025-01-15 00:16:53.15	21.64	30.12	
2025-01-15 00:16:53.36	21.64	30.16	
2025-01-15 00:16:53.56	21.65	30.20	
2025-01-15 00:16:53.76	21.66	30.24	
2025-01-15 00:16:53.97	21.66	30.28	
2025-01-15 00:16:54.18	21.67	30.32	
2025-01-15 00:16:54.38	21.67	30.36	
2025-01-15 00:16:54.59	21.68	30.40	
2025-01-15 00:16:54.79	21.68	30.44	
2025-01-15 00:16:54.99	21.69	30.48	
2025-01-15 00:16:55.20	21.70	30.52	
2025-01-15 00:16:55.40	21.70	30.56	
2025-01-15 00:16:55.61	21.71	30.60	
2025-01-15 00:16:55.81	21.71	30.64	
2025-01-15 00:16:56.01	21.72	30.67	
2025-01-15 00:16:56.23	21.73	30.72	
2025-01-15 00:16:56.45	21.73	30.76	
2025-01-15 00:16:56.66	21.74	30.80	
2025-01-15 00:16:56.87	21.74	30.84	
2025-01-15 00:16:57.07	21.75	30.88	
2025-01-15 00:16:57.29	21.76	30.92	
2025-01-15 00:16:57.49	21.76	30.96	
2025-01-15 00:16:57.69	21.77	31.00	
2025-01-15 00:16:57.90	21.78	31.04	
2025-01-15 00:16:58.10	21.78	31.08	
2025-01-15 00:16:58.30	21.79	31.12	
2025-01-15 00:16:58.51	21.79	31.16	
2025-01-15 00:16:58.71	21.80	31.20	
2025-01-15 00:16:58.91	21.81	31.24	
2025-01-15 00:16:59.11	21.81	31.28	
2025-01-15 00:16:59.31	21.82	31.32	
2025-01-15 00:16:59.52	21.82	31.36	
2025-01-15 00:16:59.73	21.83	31.41	
2025-01-15 00:16:59.93	21.84	31.45	
2025-01-15 00:17:00.13	21.84	31.49	
2025-01-15 00:17:00.34	21.85	31.53	
2025-01-15 00:17:00.54	21.85	31.57	
2025-01-15 00:17:00.74	21.86	31.61	
2025-01-15 00:17:00.94	21.87	31.65	
2025-01-15 00:17:01.15	21.87	31.69	
2025-01-15 00:17:01.35	21.88	31.73	
2025-01-15 00:17:01.56	21.89	31.77	
2025-01-15 00:17:01.76	21.89	31.81	
2025-01-15 00:17:01.97	21.90	31.86	
2025-01-15 00:17:02.18	21.90	31.90	
2025-01-15 00:17:02.38	21.91	31.94	
2025-01-15 00:17:02.58	21.92	31.98	
2025-01-15 00:17:02.79	21.92	32.02	
2025-01-15 00:17:02.99	21.93	32.06	
2025-01-15 00:17:03.19	21.94	32.10	
2025-01-15 00:17:03.40	21.94	32.15	
2025-01-15 00:17:03.60	21.95	32.19	
2025-01-15 00:17:03.80	21.96	32.23	
2025-01-15 00:17:04.02	21.96	32.27	
2025-01-15 00:17:04.22	21.97	32.31	
2025-01-15 00:17:04.42	21.97	32.36	
2025-01-15 00:17:04.62	21.98	32.40	
2025-01-15 00:17:04.83	21.99	32.44	
2025-01-15 00:17:05.03	21.99	32.48	
2025-01-15 00:17:05.23	22.00	32.52	
2025-01-15 00:17:05.43	22.01	32.56	
2025-01-15 00:17:05.63	22.01	32.60	
2025-01-15 00:17:05.84	22.02	32.65	
2025-01-15 00:17:06.04	22.03	32.69	
2025-01-15 00:17:06.24	22.03	32.73	
2025-01-15 00:17:06.44	22.04	32.77	
2025-01-15 00:17:06.65	22.05	32.82	
2025-01-15 00:17:06.85	22.05	32.86	
2025-01-15 00:17:07.05	22.06	32.90	
2025-01-15 00:17:07.25	22.07	32.94	
2025-01-15 00:17:07.46	22.07	32.99	
2025-01-15 00:17:07.66	22.08	33.03	
2025-01-15 00:17:07.86	22.09	33.07	
2025-01-15 00:17:08.06	22.09	33.11	
2025-01-15 00:17:08.27	22.10	33.16	
2025-01-15 00:17:08.47	22.11	33.20	
2025-01-15 00:17:08.67	22.11	33.24	
2025-01-15 00:17:08.87	22.12	33.28	
2025-01-15 00:17:09.07	22.13	33.33	
2025-01-15 00:17:09.28	22.13	33.37	
2025-01-15 00:17:09.48	22.14	33.41	
2025-01-15 00:17:09.68	22.15	33.46	
2025-01-15 00:17:09.90	22.15	33.50	
2025-01-15 00:17:10.10	22.16	33.55	
2025-01-15 00:17:10.30	22.17	33.59	
2025-01-15 00:17:10.50	22.17	33.63	
2025-01-15 00:17:10.71	22.18	33.68	
2025-01-15 00:17:10.91	22.19	33.72	
2025-01-15 00:17:11.11	22.19	33.76	
2025-01-15 00:17:11.32	22.20	33.81	
2025-01-15 00:17:11.52	22.21	33.85	
2025-01-15 00:17:11.72	22.22	33.89	
2025-01-15 00:17:11.92	22.22	33.94	
2025-01-15 00:17:12.13	22.23	33.98	
2025-01-15 00:17:12.33	22.24	34.03	
2025-01-15 00:17:12.54	22.24	34.07	
2025-01-15 00:17:12.74	22.25	34.12	
2025-01-15 00:17:12.94	22.26	34.16	
2025-01-15 00:17:13.14	22.27	34.20	
2025-01-15 00:17:13.35	22.27	34.25	
2025-01-15 00:17:13.55	22.28	34.29	
2025-01-15 00:17:13.76	22.29	34.34	
2025-01-15 00:17:13.97	22.29	34.38	
2025-01-15 00:17:14.17	22.30	34.43	
2025-01-15 00:17:14.37	22.31	34.47	
2025-01-15 00:17:14.58	22.32	34.52	
2025-01-15 00:17:14.79	22.32	34.57	
2025-01-15 00:17:14.99	22.33	34.61	
2025-01-15 00:17:15.19	22.34	34.65	
2025-01-15 00:17:15.40	22.35	34.70	
2025-01-15 00:17:15.60	22.35	34.74	
2025-01-15 00:17:15.81	22.36	34.79	
2025-01-15 00:17:16.01	22.37	34.84	
2025-01-15 00:17:16.21	22.37	34.88	
2025-01-15 00:17:16.41	22.38	34.93	
2025-01-15 00:17:16.62	22.39	34.97	
2025-01-15 00:17:16.82	22.40	35.02	
2025-01-15 00:17:17.02	22.40	35.06	
2025-01-15 00:17:17.22	22.41	35.11	
2025-01-15 00:17:17.42	22.42	35.15	
2025-01-15 00:17:17.63	22.43	35.20	
2025-01-15 00:17:17.83	22.43	35.24	
2025-01-15 00:17:18.03	22.44	35.29	
2025-01-15 00:17:18.23	22.45	35.33	
2025-01-15 00:17:18.44	22.46	35.38	
2025-01-15 00:17:18.64	22.46	35.43	
2025-01-15 00:17:18.84	22.47	35.47	
2025-01-15 00:17:19.04	22.48	35.52	
2025-01-15 00:17:19.25	22.49	35.57	
2025-01-15 00:17:19.45	22.49	35.61	
2025-01-15 00:17:19.65	22.50	35.66	
2025-01-15 00:17:19.85	22.51	35.70	
2025-01-15 00:17:20.06	22.52	35.75	
2025-01-15 00:17:20.26	22.53	35.80	
2025-01-15 00:17:20.46	22.53	35.84	
2025-01-15 00:17:20.67	22.54	35.89	
2025-01-15 00:17:20.87	22.55	35.94	
2025-01-15 00:17:21.07	22.56	35.98	
2025-01-15 00:17:21.27	22.56	36.03	
2025-01-15 00:17:21.47	22.57	36.08	
2025-01-15 00:17:21.68	22.58	36.13	
2025-01-15 00:17:21.88	22.59	36.17	
2025-01-15 00:17:22.08	22.60	36.22	
2025-01-15 00:17:22.29	22.60	36.27	
2025-01-15 00:17:22.49	22.61	36.31	
2025-01-15 00:17:22.70	22.62	36.36	
2025-01-15 00:17:22.92	22.63	36.41	
2025-01-15 00:17:23.12	22.64	36.46	
2025-01-15 00:17:23.32	22.65	36.51	
2025-01-15 00:17:23.52	22.65	36.56	
2025-01-15 00:17:23.73	22.66	36.60	
2025-01-15 00:17:23.93	22.67	36.65	
2025-01-15 00:17:24.13	22.68	36.70	
2025-01-15 00:17:24.33	22.69	36.75	
2025-01-15 00:17:24.54	22.69	36.80	
2025-01-15 00:17:24.74	22.70	36.84	
2025-01-15 00:17:24.94	22.71	36.89	
2025-01-15 00:17:25.14	22.72	36.94	
2025-01-15 00:17:25.34	22.73	36.99	
2025-01-15 00:17:25.55	22.74	37.04	
2025-01-15 00:17:25.75	22.74	37.08	
2025-01-15 00:17:25.95	22.75	37.13	
2025-01-15 00:17:26.16	22.76	37.18	
2025-01-15 00:17:26.36	22.77	37.23	
2025-01-15 00:17:26.57	22.78	37.28	
2025-01-15 00:17:26.77	22.79	37.33	
2025-01-15 00:17:26.97	22.79	37.38	
2025-01-15 00:17:27.19	22.80	37.43	
2025-01-15 00:17:27.39	22.81	37.48	
2025-01-15 00:17:27.60	22.82	37.53	
2025-01-15 00:17:27.80	22.83	37.58	
2025-01-15 00:17:28.00	22.84	37.63	
2025-01-15 00:17:28.21	22.85	37.68	
2025-01-15 00:17:28.41	22.85	37.73	
2025-01-15 00:17:28.61	22.86	37.77	
2025-01-15 00:17:28.81	22.87	37.82	
2025-01-15 00:17:29.01	22.88	37.87	
2025-01-15 00:17:29.22	22.89	37.92	
2025-01-15 00:17:29.43	22.90	37.98	
2025-01-15 00:17:29.64	22.91	38.03	
2025-01-15 00:17:29.85	22.92	38.08	
2025-01-15 00:17:30.06	22.93	38.13	
2025-01-15 00:17:30.26	22.93	38.18	
2025-01-15 00:17:30.46	22.94	38.23	
2025-01-15 00:17:30.66	22.95	38.28	
2025-01-15 00:17:30.87	22.96	38.33	
2025-01-15 00:17:31.07	22.97	38.38	
2025-01-15 00:17:31.27	22.98	38.43	
2025-01-15 00:17:31.47	22.99	38.48	
2025-01-15 00:17:31.68	23.00	38.53	
2025-01-15 00:17:31.88	23.01	38.58	
2025-01-15 00:17:32.08	23.01	38.63	
2025-01-15 00:17:32.29	23.02	38.68	
2025-01-15 00:17:32.49	23.03	38.73	
2025-01-15 00:17:32.70	23.04	38.79	
2025-01-15 00:17:32.90	23.05	38.84	
2025-01-15 00:17:33.10	23.06	38.89	
2025-01-15 00:17:33.31	23.07	38.94	
2025-01-15 00:17:33.51	23.08	38.99	
2025-01-15 00:17:33.71	23.09	39.04	
2025-01-15 00:17:33.92	23.10	39.10	
2025-01-15 00:17:34.12	23.11	39.15	
2025-01-15 00:17:34.32	23.12	39.20	
2025-01-15 00:17:34.54	23.13	39.25	
2025-01-15 00:17:34.74	23.14	39.30	
2025-01-15 00:17:34.94	23.15	39.36	
2025-01-15 00:17:35.14	23.15	39.41	
2025-01-15 00:17:35.35	23.16	39.46	
2025-01-15 00:17:35.55	23.17	39.51	
2025-01-15 00:17:35.75	23.18	39.56	
2025-01-15 00:17:35.95	23.19	39.61	
2025-01-15 00:17:36.16	23.20	39.67	
2025-01-15 00:17:36.36	23.21	39.72	
2025-01-15 00:17:36.57	23.22	39.77	
2025-01-15 00:17:36.77	23.23	39.83	
2025-01-15 00:17:36.97	23.24	39.88	
2025-01-15 00:17:37.18	23.25	39.93	
2025-01-15 00:17:37.38	23.26	39.98	
2025-01-15 00:17:37.59	23.27	40.04	
2025-01-15 00:17:37.80	23.28	40.09	
2025-01-15 00:17:38.00	23.29	40.15	
2025-01-15 00:17:38.20	23.30	40.20	
2025-01-15 00:17:38.40	23.31	40.25	
2025-01-15 00:17:38.60	23.32	40.30	
2025-01-15 00:17:38.81	23.33	40.36	
2025-01-15 00:17:39.01	23.34	40.41	
2025-01-15 00:17:39.22	23.35	40.47	
2025-01-15 00:17:39.42	23.36	40.52	
2025-01-15 00:17:39.62	23.37	40.57	
2025-01-15 00:17:39.83	23.38	40.63	
2025-01-15 00:17:40.03	23.39	40.68	
2025-01-15 00:17:40.23	23.40	40.73	
2025-01-15 00:17:40.44	23.41	40.79	
2025-01-15 00:17:40.67	23.42	40.85	
2025-01-15 00:17:40.88	23.43	40.91	
2025-01-15 00:17:41.08	23.44	40.96	
2025-01-15 00:17:41.29	23.46	41.02	
2025-01-15 00:17:41.49	23.47	41.07	
2025-01-15 00:17:41.70	23.48	41.13	
2025-01-15 00:17:41.91	23.49	41.18	
2025-01-15 00:17:42.12	23.50	41.24	
2025-01-15 00:17:42.32	23.51	41.29	
2025-01-15 00:17:42.53	23.52	41.35	
2025-01-15 00:17:42.74	23.53	41.41	
2025-01-15 00:17:42.94	23.54	41.46	
2025-01-15 00:17:43.15	23.55	41.52	
2025-01-15 00:17:43.36	23.56	41.57	
2025-01-15 00:17:43.57	23.57	41.63	
2025-01-15 00:17:43.77	23.58	41.69	
2025-01-15 00:17:43.98	23.60	41.74	
2025-01-15 00:17:44.18	23.61	41.80	
2025-01-15 00:17:44.39	23.62	41.86	
2025-01-15 00:17:44.59	23.63	41.91	
2025-01-15 00:17:44.79	23.64	41.97	
2025-01-15 00:17:45.01	23.65	42.03	
2025-01-15 00:17:45.21	23.66	42.08	
2025-01-15 00:17:45.42	23.67	42.14	
2025-01-15 00:17:45.63	23.68	42.20	
2025-01-15 00:17:45.83	23.70	42.25	
2025-01-15 00:17:46.04	23.71	42.31	
2025-01-15 00:17:46.24	23.72	42.37	
2025-01-15 00:17:46.44	23.73	42.42	
2025-01-15 00:17:46.64	23.74	42.48	
2025-01-15 00:17:46.86	23.75	42.54	
2025-01-15 00:17:47.06	23.76	42.59	
2025-01-15 00:17:47.27	23.78	42.65	
2025-01-15 00:17:47.47	23.79	42.71	
2025-01-15 00:17:47.67	23.80	42.77	
2025-01-15 00:17:47.88	23.81	42.82	
2025-01-15 00:17:48.08	23.82	42.88	
2025-01-15 00:17:48.28	23.83	42.94	
2025-01-15 00:17:48.49	23.85	43.00	
2025-01-15 00:17:48.69	23.86	43.05	
2025-01-15 00:17:48.89	23.87	43.11	
2025-01-15 00:17:49.09	23.88	43.17	
2025-01-15 00:17:49.31	23.89	43.23	
2025-01-15 00:17:49.51	23.90	43.28	
2025-01-15 00:17:49.71	23.92	43.34	
2025-01-15 00:17:49.92	23.93	43.40	
2025-01-15 00:17:50.12	23.94	43.46	
2025-01-15 00:17:50.32	23.95	43.52	
2025-01-15 00:17:50.52	23.96	43.57	
2025-01-15 00:17:50.73	23.98	43.63	
2025-01-15 00:17:50.93	23.99	43.69	
2025-01-15 00:17:51.15	24.00	43.75	
2025-01-15 00:17:51.35	24.01	43.81	
2025-01-15 00:17:51.56	24.03	43.87	
2025-01-15 00:17:51.77	24.04	43.93	
2025-01-15 00:17:51.97	24.05	43.99	
2025-01-15 00:17:52.17	24.06	44.05	
2025-01-15 00:17:52.38	24.08	44.11	
2025-01-15 00:17:52.58	24.09	44.17	
2025-01-15 00:17:52.79	24.10	44.23	
2025-01-15 00:17:52.99	24.11	44.29	
2025-01-15 00:17:53.19	24.13	44.35	
2025-01-15 00:17:53.39	24.14	44.40	
2025-01-15 00:17:53.61	24.15	44.47	
2025-01-15 00:17:53.81	24.16	44.53	
2025-01-15 00:17:54.03	24.18	44.59	
2025-01-15 00:17:54.23	24.19	44.65	
2025-01-15 00:17:54.43	24.20	44.71	
2025-01-15 00:17:54.65	24.22	44.78	
2025-01-15 00:17:54.85	24.23	44.83	
2025-01-15 00:17:55.05	24.24	44.89	
2025-01-15 00:17:55.26	24.26	44.96	
2025-01-15 00:17:55.46	24.27	45.02	
2025-01-15 00:17:55.68	24.28	45.08	
2025-01-15 00:17:55.88	24.30	45.14	
2025-01-15 00:17:56.09	24.31	45.20	
2025-01-15 00:17:56.29	24.32	45.26	
2025-01-15 00:17:56.49	24.34	45.32	
2025-01-15 00:17:56.69	24.35	45.38	
2025-01-15 00:17:56.90	24.36	45.45	
2025-01-15 00:17:57.11	24.38	45.51	
2025-01-15 00:17:57.31	24.39	45.57	
2025-01-15 00:17:57.51	24.40	45.63	
2025-01-15 00:17:57.72	24.42	45.69	
2025-01-15 00:17:57.92	24.43	45.75	
2025-01-15 00:17:58.12	24.45	45.81	
2025-01-15 00:17:58.33	24.46	45.88	
2025-01-15 00:17:58.53	24.47	45.94	
2025-01-15 00:17:58.73	24.49	46.00	
2025-01-15 00:17:58.94	24.50	46.06	
2025-01-15 00:17:59.14	24.52	46.12	
2025-01-15 00:17:59.35	24.53	46.19	
2025-01-15 00:17:59.55	24.54	46.25	
2025-01-15 00:17:59.75	24.56	46.31	
2025-01-15 00:17:59.95	24.57	46.37	
2025-01-15 00:18:00.16	24.59	46.44	
2025-01-15 00:18:00.36	24.60	46.50	
2025-01-15 00:18:00.56	24.61	46.56	
2025-01-15 00:18:00.77	24.63	46.63	
2025-01-15 00:18:00.97	24.64	46.69	
2025-01-15 00:18:01.18	24.66	46.75	
2025-01-15 00:18:01.38	24.67	46.81	
2025-01-15 00:18:01.58	24.69	46.88	
2025-01-15 00:18:01.78	24.70	46.94	
2025-01-15 00:18:01.99	24.72	47.00	
2025-01-15 00:18:02.19	24.73	47.07	
2025-01-15 00:18:02.40	24.75	47.13	
2025-01-15 00:18:02.61	24.76	47.20	
2025-01-15 00:18:02.81	24.78	47.26	
2025-01-15 00:18:03.01	24.79	47.32	
2025-01-15 00:18:03.22	24.81	47.39	
2025-01-15 00:18:03.42	24.82	47.45	
2025-01-15 00:18:03.63	24.84	47.52	
2025-01-15 00:18:03.83	24.85	47.58	
2025-01-15 00:18:04.03	24.87	47.65	
2025-01-15 00:18:04.24	24.88	47.71	
2025-01-15 00:18:04.44	24.90	47.78	
2025-01-15 00:18:04.65	24.92	47.84	
2025-01-15 00:18:04.85	24.93	47.91	
2025-01-15 00:18:05.05	24.95	47.97	
2025-01-15 00:18:05.26	24.96	48.04	
2025-01-15 00:18:05.46	24.98	48.10	
2025-01-15 00:18:05.66	24.99	48.16	
2025-01-15 00:18:05.87	25.01	48.23	
2025-01-15 00:18:06.07	25.03	48.30	
2025-01-15 00:18:06.27	25.04	48.36	
2025-01-15 00:18:06.47	25.06	48.42	
2025-01-15 00:18:06.68	25.07	48.49	
2025-01-15 00:18:06.88	25.09	48.56	
2025-01-15 00:18:07.10	25.11	48.63	
2025-01-15 00:18:07.31	25.12	48.70	
2025-01-15 00:18:07.53	25.14	48.77	
2025-01-15 00:18:07.73	25.16	48.83	
2025-01-15 00:18:07.94	25.18	48.90	
2025-01-15 00:18:08.16	25.19	48.97	
2025-01-15 00:18:08.36	25.21	49.04	
2025-01-15 00:18:08.57	25.23	49.11	
2025-01-15 00:18:08.79	25.25	49.18	
2025-01-15 00:18:09.01	25.26	49.25	
2025-01-15 00:18:09.21	25.28	49.32	
2025-01-15 00:18:09.43	25.30	49.39	
2025-01-15 00:18:09.65	25.32	49.46	
2025-01-15 00:18:09.85	25.33	49.53	
2025-01-15 00:18:10.07	25.35	49.60	
2025-01-15 00:18:10.29	25.37	49.67	
2025-01-15 00:18:10.50	25.39	49.74	
2025-01-15 00:18:10.72	25.41	49.82	
2025-01-15 00:18:10.92	25.43	49.88	
2025-01-15 00:18:11.14	25.45	49.96	
2025-01-15 00:18:11.34	25.46	50.02	
2025-01-15 00:18:11.56	25.48	50.10	
2025-01-15 00:18:11.78	25.50	50.17	
2025-01-15 00:18:11.98	25.52	50.24	
2025-01-15 00:18:12.20	25.54	50.31	
2025-01-15 00:18:12.40	25.56	50.38	
2025-01-15 00:18:12.61	25.58	50.45	
2025-01-15 00:18:12.82	25.60	50.52	
2025-01-15 00:18:13.03	25.61	50.59	
2025-01-15 00:18:13.24	25.63	50.66	
2025-01-15 00:18:13.44	25.65	50.73	
2025-01-15 00:18:13.66	25.67	50.80	
2025-01-15 00:18:13.88	25.69	50.88	
2025-01-15 00:18:14.08	25.71	50.95	
2025-01-15 00:18:14.30	25.73	51.02	
2025-01-15 00:18:14.50	25.75	51.09	
2025-01-15 00:18:14.72	25.77	51.16	
2025-01-15 00:18:14.94	25.79	51.24	
2025-01-15 00:18:15.14	25.81	51.31	
2025-01-15 00:18:15.36	25.83	51.38	
2025-01-15 00:18:15.57	25.85	51.46	
2025-01-15 00:18:15.78	25.87	51.53	
2025-01-15 00:18:15.98	25.89	51.60	
2025-01-15 00:18:16.19	25.91	51.67	
2025-01-15 00:18:16.40	25.93	51.74	
2025-01-15 00:18:16.62	25.95	51.82	
2025-01-15 00:18:16.84	25.98	51.89	
2025-01-15 00:18:17.05	26.00	51.97	
2025-01-15 00:18:17.26	26.02	52.04	
2025-01-15 00:18:17.47	26.04	52.11	
2025-01-15 00:18:17.69	26.06	52.19	
2025-01-15 00:18:17.90	26.08	52.26	
2025-01-15 00:18:18.10	26.10	52.33	
2025-01-15 00:18:18.32	26.12	52.41	
2025-01-15 00:18:18.53	26.15	52.48	
2025-01-15 00:18:18.75	26.17	52.56	
2025-01-15 00:18:18.97	26.19	52.64	
2025-01-15 00:18:19.17	26.21	52.71	
2025-01-15 00:18:19.38	26.23	52.78	
2025-01-15 00:18:19.60	26.26	52.86	
2025-01-15 00:18:19.80	26.28	52.93	
2025-01-15 00:18:20.01	26.30	53.01	
2025-01-15 00:18:20.22	26.32	53.08	
2025-01-15 00:18:20.44	26.35	53.16	
2025-01-15 00:18:20.64	26.37	53.23	
2025-01-15 00:18:20.86	26.39	53.31	
2025-01-15 00:18:21.06	26.41	53.38	
2025-01-15 00:18:21.28	26.44	53.46	
2025-01-15 00:18:21.48	26.46	53.53	
2025-01-15 00:18:21.70	26.48	53.61	
2025-01-15 00:18:21.91	26.51	53.69	
2025-01-15 00:18:22.11	26.53	53.76	
2025-01-15 00:18:22.33	26.55	53.84	
2025-01-15 00:18:22.53	26.58	53.91	
2025-01-15 00:18:22.74	26.60	53.98	
2025-01-15 00:18:22.96	26.62	54.06	
2025-01-15 00:18:23.16	26.65	54.14	
2025-01-15 00:18:23.37	26.67	54.21	
2025-01-15 00:18:23.58	26.70	54.29	
2025-01-15 00:18:23.80	26.72	54.37	
2025-01-15 00:18:24.02	26.75	54.45	
2025-01-15 00:18:24.23	26.77	54.53	
2025-01-15 00:18:24.45	26.80	54.61	
2025-01-15 00:18:24.67	26.82	54.69	
2025-01-15 00:18:24.88	26.85	54.76	
2025-01-15 00:18:25.09	26.87	54.84	
2025-01-15 00:18:25.30	26.90	54.92	
2025-01-15 00:18:25.52	26.93	55.00	
2025-01-15 00:18:25.74	26.95	55.08	
2025-01-15 00:18:25.95	26.98	55.16	
2025-01-15 00:18:26.16	27.00	55.23	
2025-01-15 00:18:26.37	27.03	55.31	
2025-01-15 00:18:26.57	27.05	55.39	
2025-01-15 00:18:26.78	27.08	55.46	
2025-01-15 00:18:27.00	27.11	55.55	
2025-01-15 00:18:27.21	27.13	55.62	
2025-01-15 00:18:27.42	27.16	55.70	
2025-01-15 00:18:27.63	27.19	55.78	
2025-01-15 00:18:27.84	27.22	55.86	
2025-01-15 00:18:28.04	27.24	55.93	
2025-01-15 00:18:28.24	27.27	56.01	
2025-01-15 00:18:28.46	27.30	56.09	
2025-01-15 00:18:28.68	27.32	56.17	
2025-01-15 00:18:28.88	27.35	56.25	
2025-01-15 00:18:29.10	27.38	56.33	
2025-01-15 00:18:29.30	27.41	56.41	
2025-01-15 00:18:29.52	27.44	56.49	
2025-01-15 00:18:29.74	27.47	56.57	
2025-01-15 00:18:29.94	27.49	56.65	
2025-01-15 00:18:30.15	27.52	56.73	
2025-01-15 00:18:30.35	27.55	56.81	
2025-01-15 00:18:30.57	27.58	56.89	
2025-01-15 00:18:30.78	27.61	56.97	
2025-01-15 00:18:31.00	27.64	57.05	
2025-01-15 00:18:31.20	27.67	57.13	
2025-01-15 00:18:31.42	27.70	57.21	
2025-01-15 00:18:31.63	27.73	57.29	
2025-01-15 00:18:31.85	27.76	57.38	
2025-01-15 00:18:32.05	27.79	57.46	
2025-01-15 00:18:32.26	27.82	57.54	
2025-01-15 00:18:32.46	27.85	57.61	
2025-01-15 00:18:32.68	27.88	57.70	
2025-01-15 00:18:32.89	27.91	57.78	
2025-01-15 00:18:33.10	27.94	57.86	
2025-01-15 00:18:33.32	27.98	57.95	
2025-01-15 00:18:33.53	28.01	58.03	
2025-01-15 00:18:33.75	28.04	58.11	
2025-01-15 00:18:33.95	28.07	58.19	
2025-01-15 00:18:34.15	28.10	58.27	
2025-01-15 00:18:34.36	28.13	58.35	
2025-01-15 00:18:34.57	28.17	58.43	
2025-01-15 00:18:34.78	28.20	58.51	
2025-01-15 00:18:34.98	28.23	58.59	
2025-01-15 00:18:35.19	28.26	58.67	
2025-01-15 00:18:35.40	28.30	58.76	
2025-01-15 00:18:35.61	28.33	58.84	
2025-01-15 00:18:35.83	28.36	58.92	
2025-01-15 00:18:36.05	28.40	59.01	
2025-01-15 00:18:36.25	28.43	59.09	
2025-01-15 00:18:36.47	28.47	59.18	
2025-01-15 00:18:36.67	28.50	59.26	
2025-01-15 00:18:36.87	28.53	59.34	
2025-01-15 00:18:37.09	28.57	59.42	
2025-01-15 00:18:37.30	28.60	59.51	
2025-01-15 00:18:37.52	28.64	59.59	
2025-01-15 00:18:37.72	28.68	59.67	
2025-01-15 00:18:37.94	28.71	59.76	
2025-01-15 00:18:38.15	28.75	59.84	
2025-01-15 00:18:38.36	28.79	59.93	
2025-01-15 00:18:38.57	28.82	60.01	
2025-01-15 00:18:38.78	28.86	60.10	
2025-01-15 00:18:38.99	28.90	60.18	
2025-01-15 00:18:39.21	28.93	60.27	
2025-01-15 00:18:39.41	28.97	60.35	
