passes_logs/2025/01/15/SPB_Silybum_02/SPB_Silybum_02__20250115_001917_AQUA_rec.log

#Pass ID: 20250115_001917_AQUA
#Satellite: AQUA
#Configuration: AQUA
#Start time: 2025-01-15 00:26:31

#Version: 2.0.20230423
#Station: SPB_Silybum_02
#Location: 30.233357 lon 59.946436 lat
#TLE: 1 27424U 02022A   25014.18320900  .00001655  00000+0  34963-3 0  9994
#TLE: 2 27424  98.3587 330.8398 0001685 112.2764 304.7377 14.60678752207509

#Time	Az	El	Level	Level2	SNR	BER	Gain	Gain2
2025-01-15 00:26:33.26	134.03	27.51	
2025-01-15 00:26:33.46	134.09	27.49	
2025-01-15 00:26:33.67	134.15	27.46	
2025-01-15 00:26:33.87	134.21	27.44	
2025-01-15 00:26:34.07	134.27	27.41	
2025-01-15 00:26:34.28	134.33	27.39	
2025-01-15 00:26:34.49	134.40	27.36	
2025-01-15 00:26:34.69	134.45	27.34	
2025-01-15 00:26:34.90	134.52	27.31	
2025-01-15 00:26:35.10	134.58	27.29	
2025-01-15 00:26:35.30	134.63	27.26	
2025-01-15 00:26:35.51	134.70	27.24	
2025-01-15 00:26:35.71	134.76	27.21	
2025-01-15 00:26:35.92	134.82	27.19	
2025-01-15 00:26:36.12	134.88	27.16	
2025-01-15 00:26:36.33	134.94	27.14	
2025-01-15 00:26:36.53	134.99	27.11	
2025-01-15 00:26:36.74	135.06	27.09	
2025-01-15 00:26:36.95	135.12	27.06	
2025-01-15 00:26:37.15	135.18	27.04	
2025-01-15 00:26:37.36	135.24	27.01	
2025-01-15 00:26:37.56	135.29	26.99	
2025-01-15 00:26:37.78	135.36	26.96	
2025-01-15 00:26:37.99	135.42	26.93	
2025-01-15 00:26:38.19	135.48	26.91	
2025-01-15 00:26:38.41	135.54	26.88	
2025-01-15 00:26:38.62	135.60	26.86	
2025-01-15 00:26:38.82	135.66	26.83	
2025-01-15 00:26:39.03	135.72	26.81	
2025-01-15 00:26:39.23	135.77	26.78	
2025-01-15 00:26:39.44	135.83	26.76	
2025-01-15 00:26:39.64	135.89	26.73	
2025-01-15 00:26:39.84	135.95	26.71	
2025-01-15 00:26:40.05	136.01	26.68	
2025-01-15 00:26:40.26	136.07	26.66	
2025-01-15 00:26:40.46	136.12	26.63	
2025-01-15 00:26:40.67	136.18	26.61	
2025-01-15 00:26:40.87	136.24	26.58	
2025-01-15 00:26:41.08	136.30	26.55	
2025-01-15 00:26:41.28	136.35	26.53	
2025-01-15 00:26:41.49	136.41	26.50	
2025-01-15 00:26:41.69	136.47	26.48	
2025-01-15 00:26:41.90	136.53	26.45	
2025-01-15 00:26:42.10	136.58	26.43	
2025-01-15 00:26:42.31	136.64	26.40	
2025-01-15 00:26:42.51	136.70	26.38	
2025-01-15 00:26:42.71	136.75	26.35	
2025-01-15 00:26:42.92	136.81	26.33	
2025-01-15 00:26:43.12	136.87	26.30	
2025-01-15 00:26:43.33	136.93	26.28	
2025-01-15 00:26:43.54	136.98	26.25	
2025-01-15 00:26:43.74	137.04	26.23	
2025-01-15 00:26:43.94	137.09	26.20	
2025-01-15 00:26:44.15	137.15	26.18	
2025-01-15 00:26:44.35	137.21	26.15	
2025-01-15 00:26:44.56	137.26	26.13	
2025-01-15 00:26:44.78	137.32	26.10	
2025-01-15 00:26:44.99	137.38	26.07	
2025-01-15 00:26:45.19	137.44	26.05	
2025-01-15 00:26:45.40	137.49	26.02	
2025-01-15 00:26:45.60	137.55	26.00	
2025-01-15 00:26:45.81	137.61	25.97	
2025-01-15 00:26:46.01	137.66	25.95	
2025-01-15 00:26:46.22	137.72	25.92	
2025-01-15 00:26:46.43	137.77	25.90	
2025-01-15 00:26:46.63	137.83	25.87	
2025-01-15 00:26:46.84	137.88	25.85	
2025-01-15 00:26:47.04	137.94	25.82	
2025-01-15 00:26:47.25	137.99	25.80	
2025-01-15 00:26:47.45	138.05	25.77	
2025-01-15 00:26:47.66	138.10	25.74	
2025-01-15 00:26:47.86	138.16	25.72	
2025-01-15 00:26:48.07	138.21	25.69	
2025-01-15 00:26:48.27	138.27	25.67	
2025-01-15 00:26:48.48	138.32	25.64	
2025-01-15 00:26:48.68	138.37	25.62	
2025-01-15 00:26:48.89	138.43	25.59	
2025-01-15 00:26:49.09	138.48	25.57	
2025-01-15 00:26:49.30	138.54	25.54	
2025-01-15 00:26:49.50	138.59	25.52	
2025-01-15 00:26:49.72	138.65	25.49	
2025-01-15 00:26:49.93	138.70	25.47	
2025-01-15 00:26:50.13	138.76	25.44	
2025-01-15 00:26:50.34	138.81	25.41	
2025-01-15 00:26:50.54	138.86	25.39	
2025-01-15 00:26:50.75	138.92	25.36	
2025-01-15 00:26:50.96	138.97	25.34	
2025-01-15 00:26:51.16	139.03	25.31	
2025-01-15 00:26:51.37	139.08	25.29	
2025-01-15 00:26:51.57	139.13	25.26	
2025-01-15 00:26:51.78	139.19	25.24	
2025-01-15 00:26:51.98	139.24	25.21	
2025-01-15 00:26:52.20	139.29	25.19	
2025-01-15 00:26:52.41	139.35	25.16	
2025-01-15 00:26:52.61	139.40	25.13	
2025-01-15 00:26:52.82	139.45	25.11	
2025-01-15 00:26:53.02	139.50	25.08	
2025-01-15 00:26:53.22	139.56	25.06	
2025-01-15 00:26:53.43	139.61	25.03	
2025-01-15 00:26:53.63	139.66	25.01	
2025-01-15 00:26:53.84	139.71	24.98	
2025-01-15 00:26:54.05	139.77	24.96	
2025-01-15 00:26:54.25	139.82	24.93	
2025-01-15 00:26:54.46	139.87	24.91	
2025-01-15 00:26:54.66	139.92	24.88	
2025-01-15 00:26:54.87	139.98	24.86	
2025-01-15 00:26:55.07	140.03	24.83	
2025-01-15 00:26:55.28	140.08	24.81	
2025-01-15 00:26:55.50	140.13	24.78	
2025-01-15 00:26:55.70	140.18	24.75	
2025-01-15 00:26:55.91	140.24	24.73	
2025-01-15 00:26:56.11	140.29	24.70	
2025-01-15 00:26:56.32	140.34	24.68	
2025-01-15 00:26:56.52	140.39	24.65	
2025-01-15 00:26:56.73	140.44	24.63	
2025-01-15 00:26:56.93	140.49	24.60	
2025-01-15 00:26:57.14	140.54	24.58	
2025-01-15 00:26:57.34	140.59	24.55	
2025-01-15 00:26:57.55	140.64	24.53	
2025-01-15 00:26:57.75	140.69	24.50	
2025-01-15 00:26:57.96	140.75	24.48	
2025-01-15 00:26:58.16	140.79	24.45	
2025-01-15 00:26:58.37	140.85	24.43	
2025-01-15 00:26:58.57	140.90	24.40	
2025-01-15 00:26:58.78	140.95	24.38	
2025-01-15 00:26:58.98	141.00	24.35	
2025-01-15 00:26:59.19	141.05	24.33	
2025-01-15 00:26:59.39	141.10	24.30	
2025-01-15 00:26:59.60	141.15	24.28	
2025-01-15 00:26:59.80	141.19	24.25	
2025-01-15 00:27:00.01	141.25	24.22	
2025-01-15 00:27:00.21	141.29	24.20	
2025-01-15 00:27:00.42	141.34	24.17	
2025-01-15 00:27:00.62	141.39	24.15	
2025-01-15 00:27:00.82	141.44	24.13	
2025-01-15 00:27:01.03	141.49	24.10	
2025-01-15 00:27:01.24	141.54	24.07	
2025-01-15 00:27:01.44	141.59	24.05	
2025-01-15 00:27:01.65	141.64	24.02	
2025-01-15 00:27:01.85	141.69	24.00	
2025-01-15 00:27:02.06	141.74	23.97	
2025-01-15 00:27:02.26	141.79	23.95	
2025-01-15 00:27:02.47	141.84	23.92	
2025-01-15 00:27:02.67	141.88	23.90	
2025-01-15 00:27:02.87	141.93	23.87	
2025-01-15 00:27:03.08	141.98	23.85	
2025-01-15 00:27:03.29	142.03	23.82	
2025-01-15 00:27:03.49	142.08	23.80	
2025-01-15 00:27:03.70	142.13	23.77	
2025-01-15 00:27:03.90	142.17	23.75	
2025-01-15 00:27:04.11	142.22	23.72	
2025-01-15 00:27:04.31	142.27	23.70	
2025-01-15 00:27:04.52	142.32	23.67	
2025-01-15 00:27:04.72	142.37	23.65	
2025-01-15 00:27:04.93	142.41	23.62	
2025-01-15 00:27:05.14	142.46	23.60	
2025-01-15 00:27:05.35	142.51	23.57	
2025-01-15 00:27:05.56	142.56	23.55	
2025-01-15 00:27:05.76	142.61	23.52	
2025-01-15 00:27:05.97	142.66	23.50	
2025-01-15 00:27:06.17	142.70	23.47	
2025-01-15 00:27:06.38	142.75	23.45	
2025-01-15 00:27:06.58	142.80	23.42	
2025-01-15 00:27:06.79	142.84	23.40	
2025-01-15 00:27:06.99	142.89	23.37	
2025-01-15 00:27:07.20	142.94	23.35	
2025-01-15 00:27:07.40	142.98	23.32	
2025-01-15 00:27:07.61	143.03	23.30	
2025-01-15 00:27:07.81	143.08	23.27	
2025-01-15 00:27:08.02	143.13	23.25	
2025-01-15 00:27:08.22	143.17	23.22	
2025-01-15 00:27:08.42	143.22	23.20	
2025-01-15 00:27:08.63	143.26	23.17	
2025-01-15 00:27:08.84	143.31	23.15	
2025-01-15 00:27:09.04	143.36	23.12	
2025-01-15 00:27:09.25	143.40	23.10	
2025-01-15 00:27:09.47	143.45	23.07	
2025-01-15 00:27:09.67	143.50	23.05	
2025-01-15 00:27:09.88	143.54	23.02	
2025-01-15 00:27:10.08	143.59	23.00	
2025-01-15 00:27:10.29	143.64	22.97	
2025-01-15 00:27:10.49	143.68	22.95	
2025-01-15 00:27:10.70	143.73	22.92	
2025-01-15 00:27:10.90	143.77	22.90	
2025-01-15 00:27:11.11	143.82	22.87	
2025-01-15 00:27:11.32	143.87	22.85	
2025-01-15 00:27:11.52	143.91	22.82	
2025-01-15 00:27:11.73	143.96	22.80	
2025-01-15 00:27:11.93	144.00	22.77	
2025-01-15 00:27:12.13	144.04	22.75	
2025-01-15 00:27:12.34	144.09	22.72	
2025-01-15 00:27:12.54	144.13	22.70	
2025-01-15 00:27:12.75	144.18	22.67	
2025-01-15 00:27:12.95	144.22	22.65	
2025-01-15 00:27:13.16	144.27	22.63	
2025-01-15 00:27:13.37	144.32	22.60	
2025-01-15 00:27:13.57	144.36	22.58	
2025-01-15 00:27:13.77	144.40	22.55	
2025-01-15 00:27:13.98	144.45	22.53	
2025-01-15 00:27:14.19	144.49	22.50	
2025-01-15 00:27:14.39	144.54	22.48	
2025-01-15 00:27:14.60	144.58	22.45	
2025-01-15 00:27:14.80	144.63	22.43	
2025-01-15 00:27:15.01	144.67	22.40	
2025-01-15 00:27:15.21	144.71	22.38	
2025-01-15 00:27:15.42	144.76	22.35	
2025-01-15 00:27:15.62	144.80	22.33	
2025-01-15 00:27:15.83	144.85	22.30	
2025-01-15 00:27:16.04	144.89	22.28	
2025-01-15 00:27:16.24	144.93	22.26	
2025-01-15 00:27:16.45	144.98	22.23	
2025-01-15 00:27:16.65	145.02	22.21	
2025-01-15 00:27:16.86	145.07	22.18	
2025-01-15 00:27:17.06	145.11	22.16	
2025-01-15 00:27:17.27	145.15	22.13	
2025-01-15 00:27:17.48	145.20	22.11	
2025-01-15 00:27:17.68	145.24	22.08	
2025-01-15 00:27:17.89	145.28	22.06	
2025-01-15 00:27:18.09	145.32	22.03	
2025-01-15 00:27:18.30	145.37	22.01	
2025-01-15 00:27:18.50	145.41	21.99	
2025-01-15 00:27:18.71	145.45	21.96	
2025-01-15 00:27:18.92	145.50	21.94	
2025-01-15 00:27:19.12	145.54	21.91	
2025-01-15 00:27:19.33	145.58	21.89	
2025-01-15 00:27:19.53	145.63	21.86	
2025-01-15 00:27:19.74	145.67	21.84	
2025-01-15 00:27:19.94	145.71	21.81	
2025-01-15 00:27:20.14	145.75	21.79	
2025-01-15 00:27:20.35	145.79	21.76	
2025-01-15 00:27:20.56	145.84	21.74	
2025-01-15 00:27:20.76	145.88	21.72	
2025-01-15 00:27:20.97	145.92	21.69	
2025-01-15 00:27:21.17	145.96	21.67	
2025-01-15 00:27:21.38	146.01	21.64	
2025-01-15 00:27:21.58	146.05	21.62	
2025-01-15 00:27:21.79	146.09	21.59	
2025-01-15 00:27:21.99	146.13	21.57	
2025-01-15 00:27:22.20	146.17	21.55	
2025-01-15 00:27:22.40	146.21	21.52	
2025-01-15 00:27:22.61	146.26	21.50	
2025-01-15 00:27:22.81	146.30	21.47	
2025-01-15 00:27:23.02	146.34	21.45	
2025-01-15 00:27:23.22	146.38	21.42	
2025-01-15 00:27:23.43	146.42	21.40	
2025-01-15 00:27:23.63	146.46	21.38	
2025-01-15 00:27:23.84	146.50	21.35	
2025-01-15 00:27:24.05	146.55	21.33	
2025-01-15 00:27:24.25	146.59	21.30	
2025-01-15 00:27:24.46	146.63	21.28	
2025-01-15 00:27:24.66	146.67	21.26	
2025-01-15 00:27:24.87	146.71	21.23	
2025-01-15 00:27:25.07	146.75	21.21	
2025-01-15 00:27:25.28	146.79	21.18	
2025-01-15 00:27:25.48	146.83	21.16	
2025-01-15 00:27:25.69	146.87	21.13	
2025-01-15 00:27:25.89	146.91	21.11	
2025-01-15 00:27:26.10	146.95	21.09	
2025-01-15 00:27:26.30	146.99	21.06	
2025-01-15 00:27:26.51	147.03	21.04	
2025-01-15 00:27:26.71	147.07	21.01	
2025-01-15 00:27:26.92	147.12	20.99	
2025-01-15 00:27:27.12	147.15	20.97	
2025-01-15 00:27:27.33	147.20	20.94	
2025-01-15 00:27:27.53	147.23	20.92	
2025-01-15 00:27:27.74	147.28	20.89	
2025-01-15 00:27:27.94	147.31	20.87	
2025-01-15 00:27:28.15	147.35	20.85	
2025-01-15 00:27:28.35	147.39	20.82	
2025-01-15 00:27:28.56	147.43	20.80	
2025-01-15 00:27:28.76	147.47	20.77	
2025-01-15 00:27:28.97	147.51	20.75	
2025-01-15 00:27:29.17	147.55	20.73	
2025-01-15 00:27:29.38	147.59	20.70	
2025-01-15 00:27:29.59	147.63	20.68	
2025-01-15 00:27:29.79	147.67	20.65	
2025-01-15 00:27:29.99	147.71	20.63	
2025-01-15 00:27:30.20	147.75	20.61	
2025-01-15 00:27:30.40	147.79	20.58	
2025-01-15 00:27:30.61	147.83	20.56	
2025-01-15 00:27:30.81	147.87	20.54	
2025-01-15 00:27:31.02	147.91	20.51	
2025-01-15 00:27:31.23	147.95	20.49	
2025-01-15 00:27:31.43	147.98	20.46	
2025-01-15 00:27:31.64	148.02	20.44	
2025-01-15 00:27:31.84	148.06	20.42	
2025-01-15 00:27:32.05	148.10	20.39	
2025-01-15 00:27:32.25	148.14	20.37	
2025-01-15 00:27:32.46	148.18	20.35	
2025-01-15 00:27:32.66	148.21	20.32	
2025-01-15 00:27:32.86	148.25	20.30	
2025-01-15 00:27:33.07	148.29	20.27	
2025-01-15 00:27:33.27	148.33	20.25	
2025-01-15 00:27:33.48	148.37	20.23	
2025-01-15 00:27:33.68	148.41	20.20	
2025-01-15 00:27:33.89	148.44	20.18	
2025-01-15 00:27:34.09	148.48	20.16	
2025-01-15 00:27:34.30	148.52	20.13	
2025-01-15 00:27:34.50	148.56	20.11	
2025-01-15 00:27:34.71	148.60	20.09	
2025-01-15 00:27:34.91	148.63	20.06	
2025-01-15 00:27:35.12	148.67	20.04	
2025-01-15 00:27:35.32	148.71	20.02	
2025-01-15 00:27:35.53	148.75	19.99	
2025-01-15 00:27:35.73	148.78	19.97	
2025-01-15 00:27:35.94	148.82	19.94	
2025-01-15 00:27:36.16	148.86	19.92	
2025-01-15 00:27:36.36	148.90	19.90	
2025-01-15 00:27:36.57	148.94	19.87	
2025-01-15 00:27:36.78	148.97	19.85	
2025-01-15 00:27:36.98	149.01	19.83	
2025-01-15 00:27:37.19	149.05	19.80	
2025-01-15 00:27:37.39	149.08	19.78	
2025-01-15 00:27:37.60	149.12	19.76	
2025-01-15 00:27:37.80	149.16	19.73	
2025-01-15 00:27:38.01	149.20	19.71	
2025-01-15 00:27:38.21	149.23	19.69	
2025-01-15 00:27:38.42	149.27	19.66	
2025-01-15 00:27:38.62	149.31	19.64	
2025-01-15 00:27:38.83	149.34	19.62	
2025-01-15 00:27:39.03	149.38	19.59	
2025-01-15 00:27:39.24	149.42	19.57	
2025-01-15 00:27:39.44	149.45	19.55	
2025-01-15 00:27:39.64	149.49	19.52	
2025-01-15 00:27:39.85	149.53	19.50	
2025-01-15 00:27:40.06	149.56	19.48	
2025-01-15 00:27:40.26	149.60	19.45	
2025-01-15 00:27:40.48	149.64	19.43	
2025-01-15 00:27:40.69	149.67	19.40	
2025-01-15 00:27:40.89	149.71	19.38	
2025-01-15 00:27:41.10	149.75	19.36	
2025-01-15 00:27:41.31	149.78	19.33	
2025-01-15 00:27:41.51	149.82	19.31	
2025-01-15 00:27:41.71	149.85	19.29	
2025-01-15 00:27:41.92	149.89	19.27	
2025-01-15 00:27:42.12	149.92	19.24	
2025-01-15 00:27:42.33	149.96	19.22	
2025-01-15 00:27:42.53	150.00	19.20	
2025-01-15 00:27:42.74	150.03	19.17	
2025-01-15 00:27:42.95	150.07	19.15	
2025-01-15 00:27:43.15	150.10	19.13	
2025-01-15 00:27:43.36	150.14	19.10	
2025-01-15 00:27:43.56	150.17	19.08	
2025-01-15 00:27:43.77	150.21	19.06	
2025-01-15 00:27:43.97	150.24	19.04	
2025-01-15 00:27:44.18	150.28	19.01	
2025-01-15 00:27:44.38	150.31	18.99	
2025-01-15 00:27:44.58	150.35	18.97	
2025-01-15 00:27:44.79	150.39	18.94	
2025-01-15 00:27:45.00	150.42	18.92	
2025-01-15 00:27:45.22	150.46	18.90	
2025-01-15 00:27:45.42	150.49	18.87	
2025-01-15 00:27:45.63	150.53	18.85	
2025-01-15 00:27:45.83	150.56	18.83	
2025-01-15 00:27:46.04	150.60	18.80	
2025-01-15 00:27:46.24	150.63	18.78	
2025-01-15 00:27:46.45	150.67	18.76	
2025-01-15 00:27:46.65	150.70	18.74	
2025-01-15 00:27:46.86	150.74	18.71	
2025-01-15 00:27:47.06	150.77	18.69	
2025-01-15 00:27:47.27	150.80	18.67	
2025-01-15 00:27:47.47	150.84	18.64	
2025-01-15 00:27:47.68	150.87	18.62	
2025-01-15 00:27:47.88	150.91	18.60	
2025-01-15 00:27:48.09	150.94	18.58	
2025-01-15 00:27:48.29	150.98	18.55	
2025-01-15 00:27:48.50	151.01	18.53	
2025-01-15 00:27:48.70	151.04	18.51	
2025-01-15 00:27:48.91	151.08	18.49	
2025-01-15 00:27:49.11	151.11	18.46	
2025-01-15 00:27:49.32	151.15	18.44	
2025-01-15 00:27:49.53	151.18	18.42	
2025-01-15 00:27:49.73	151.21	18.40	
2025-01-15 00:27:49.93	151.25	18.37	
2025-01-15 00:27:50.14	151.28	18.35	
2025-01-15 00:27:50.34	151.31	18.33	
2025-01-15 00:27:50.55	151.35	18.30	
2025-01-15 00:27:50.75	151.38	18.28	
2025-01-15 00:27:50.96	151.41	18.26	
2025-01-15 00:27:51.16	151.45	18.24	
2025-01-15 00:27:51.37	151.48	18.21	
2025-01-15 00:27:51.57	151.51	18.19	
2025-01-15 00:27:51.78	151.55	18.17	
2025-01-15 00:27:51.98	151.58	18.15	
2025-01-15 00:27:52.20	151.62	18.12	
2025-01-15 00:27:52.41	151.65	18.10	
2025-01-15 00:27:52.62	151.68	18.08	
2025-01-15 00:27:52.83	151.72	18.05	
2025-01-15 00:27:53.04	151.75	18.03	
2025-01-15 00:27:53.24	151.78	18.01	
2025-01-15 00:27:53.45	151.82	17.99	
2025-01-15 00:27:53.66	151.85	17.96	
2025-01-15 00:27:53.86	151.88	17.94	
2025-01-15 00:27:54.07	151.92	17.92	
2025-01-15 00:27:54.27	151.95	17.90	
2025-01-15 00:27:54.48	151.98	17.88	
2025-01-15 00:27:54.68	152.01	17.85	
2025-01-15 00:27:54.89	152.05	17.83	
2025-01-15 00:27:55.10	152.08	17.81	
2025-01-15 00:27:55.30	152.11	17.79	
2025-01-15 00:27:55.51	152.14	17.76	
2025-01-15 00:27:55.71	152.18	17.74	
2025-01-15 00:27:55.92	152.21	17.72	
2025-01-15 00:27:56.12	152.24	17.70	
2025-01-15 00:27:56.33	152.27	17.67	
2025-01-15 00:27:56.53	152.30	17.65	
2025-01-15 00:27:56.74	152.34	17.63	
2025-01-15 00:27:56.94	152.37	17.61	
2025-01-15 00:27:57.15	152.40	17.59	
2025-01-15 00:27:57.36	152.43	17.56	
2025-01-15 00:27:57.57	152.47	17.54	
2025-01-15 00:27:57.77	152.50	17.52	
2025-01-15 00:27:57.98	152.53	17.50	
2025-01-15 00:27:58.19	152.56	17.47	
2025-01-15 00:27:58.39	152.59	17.45	
2025-01-15 00:27:58.61	152.63	17.43	
2025-01-15 00:27:58.81	152.66	17.41	
2025-01-15 00:27:59.02	152.69	17.39	
2025-01-15 00:27:59.23	152.72	17.36	
2025-01-15 00:27:59.43	152.75	17.34	
2025-01-15 00:27:59.64	152.79	17.32	
2025-01-15 00:27:59.84	152.82	17.30	
2025-01-15 00:28:00.05	152.85	17.27	
2025-01-15 00:28:00.25	152.88	17.25	
2025-01-15 00:28:00.45	152.91	17.23	
2025-01-15 00:28:00.66	152.94	17.21	
2025-01-15 00:28:00.86	152.97	17.19	
2025-01-15 00:28:01.07	153.00	17.17	
2025-01-15 00:28:01.27	153.03	17.14	
2025-01-15 00:28:01.48	153.07	17.12	
2025-01-15 00:28:01.68	153.10	17.10	
2025-01-15 00:28:01.89	153.13	17.08	
2025-01-15 00:28:02.09	153.16	17.06	
2025-01-15 00:28:02.30	153.19	17.04	
2025-01-15 00:28:02.50	153.22	17.01	
2025-01-15 00:28:02.71	153.25	16.99	
2025-01-15 00:28:02.92	153.28	16.97	
2025-01-15 00:28:03.13	153.31	16.95	
2025-01-15 00:28:03.34	153.34	16.93	
2025-01-15 00:28:03.54	153.37	16.90	
2025-01-15 00:28:03.75	153.41	16.88	
2025-01-15 00:28:03.95	153.44	16.86	
2025-01-15 00:28:04.16	153.47	16.84	
2025-01-15 00:28:04.36	153.50	16.82	
2025-01-15 00:28:04.57	153.53	16.80	
2025-01-15 00:28:04.77	153.56	16.77	
2025-01-15 00:28:04.99	153.59	16.75	
2025-01-15 00:28:05.20	153.62	16.73	
2025-01-15 00:28:05.40	153.65	16.71	
2025-01-15 00:28:05.61	153.68	16.69	
2025-01-15 00:28:05.81	153.71	16.66	
2025-01-15 00:28:06.02	153.74	16.64	
2025-01-15 00:28:06.22	153.77	16.62	
2025-01-15 00:28:06.43	153.80	16.60	
2025-01-15 00:28:06.63	153.83	16.58	
2025-01-15 00:28:06.84	153.86	16.56	
2025-01-15 00:28:07.05	153.89	16.54	
2025-01-15 00:28:07.25	153.92	16.51	
2025-01-15 00:28:07.46	153.95	16.49	
2025-01-15 00:28:07.66	153.98	16.47	
2025-01-15 00:28:07.87	154.01	16.45	
2025-01-15 00:28:08.07	154.04	16.43	
2025-01-15 00:28:08.28	154.07	16.41	
2025-01-15 00:28:08.48	154.10	16.39	
2025-01-15 00:28:08.69	154.13	16.36	
2025-01-15 00:28:08.90	154.16	16.34	
2025-01-15 00:28:09.10	154.19	16.32	
2025-01-15 00:28:09.31	154.22	16.30	
2025-01-15 00:28:09.51	154.24	16.28	
2025-01-15 00:28:09.71	154.27	16.26	
2025-01-15 00:28:09.92	154.30	16.24	
2025-01-15 00:28:10.13	154.33	16.21	
2025-01-15 00:28:10.33	154.36	16.19	
2025-01-15 00:28:10.54	154.39	16.17	
2025-01-15 00:28:10.74	154.42	16.15	
2025-01-15 00:28:10.95	154.45	16.13	
2025-01-15 00:28:11.15	154.48	16.11	
2025-01-15 00:28:11.35	154.50	16.09	
2025-01-15 00:28:11.56	154.53	16.07	
2025-01-15 00:28:11.77	154.56	16.05	
2025-01-15 00:28:11.97	154.59	16.02	
2025-01-15 00:28:12.18	154.62	16.00	
2025-01-15 00:28:12.38	154.65	15.98	
2025-01-15 00:28:12.59	154.68	15.96	
2025-01-15 00:28:12.80	154.71	15.94	
2025-01-15 00:28:13.00	154.74	15.92	
2025-01-15 00:28:13.21	154.76	15.90	
2025-01-15 00:28:13.41	154.79	15.88	
2025-01-15 00:28:13.61	154.82	15.86	
2025-01-15 00:28:13.82	154.85	15.83	
2025-01-15 00:28:14.03	154.88	15.81	
2025-01-15 00:28:14.23	154.91	15.79	
2025-01-15 00:28:14.44	154.93	15.77	
2025-01-15 00:28:14.64	154.96	15.75	
2025-01-15 00:28:14.84	154.99	15.73	
2025-01-15 00:28:15.05	155.02	15.71	
2025-01-15 00:28:15.26	155.05	15.69	
2025-01-15 00:28:15.46	155.07	15.67	
2025-01-15 00:28:15.67	155.10	15.65	
2025-01-15 00:28:15.87	155.13	15.63	
2025-01-15 00:28:16.08	155.16	15.60	
2025-01-15 00:28:16.28	155.19	15.58	
2025-01-15 00:28:16.49	155.21	15.56	
2025-01-15 00:28:16.69	155.24	15.54	
2025-01-15 00:28:16.90	155.27	15.52	
2025-01-15 00:28:17.10	155.30	15.50	
2025-01-15 00:28:17.31	155.33	15.48	
2025-01-15 00:28:17.51	155.35	15.46	
2025-01-15 00:28:17.72	155.38	15.44	
2025-01-15 00:28:17.92	155.41	15.42	
2025-01-15 00:28:18.13	155.44	15.40	
2025-01-15 00:28:18.33	155.46	15.38	
2025-01-15 00:28:18.54	155.49	15.36	
2025-01-15 00:28:18.74	155.52	15.34	
2025-01-15 00:28:18.95	155.55	15.31	
2025-01-15 00:28:19.15	155.57	15.29	
2025-01-15 00:28:19.36	155.60	15.27	
2025-01-15 00:28:19.56	155.63	15.25	
2025-01-15 00:28:19.77	155.65	15.23	
2025-01-15 00:28:19.99	155.68	15.21	
2025-01-15 00:28:20.19	155.71	15.19	
2025-01-15 00:28:20.40	155.74	15.17	
2025-01-15 00:28:20.61	155.77	15.15	
2025-01-15 00:28:20.81	155.79	15.13	
2025-01-15 00:28:21.03	155.82	15.11	
2025-01-15 00:28:21.23	155.85	15.09	
2025-01-15 00:28:21.44	155.87	15.06	
2025-01-15 00:28:21.65	155.90	15.04	
2025-01-15 00:28:21.85	155.93	15.02	
2025-01-15 00:28:22.06	155.96	15.00	
2025-01-15 00:28:22.26	155.98	14.98	
2025-01-15 00:28:22.47	156.01	14.96	
2025-01-15 00:28:22.67	156.03	14.94	
2025-01-15 00:28:22.88	156.06	14.92	
2025-01-15 00:28:23.08	156.09	14.90	
2025-01-15 00:28:23.29	156.12	14.88	
2025-01-15 00:28:23.49	156.14	14.86	
2025-01-15 00:28:23.70	156.17	14.84	
2025-01-15 00:28:23.91	156.20	14.82	
2025-01-15 00:28:24.11	156.22	14.80	
2025-01-15 00:28:24.32	156.25	14.78	
2025-01-15 00:28:24.52	156.27	14.76	
2025-01-15 00:28:24.73	156.30	14.74	
2025-01-15 00:28:24.93	156.33	14.72	
2025-01-15 00:28:25.14	156.35	14.70	
2025-01-15 00:28:25.34	156.38	14.68	
2025-01-15 00:28:25.55	156.41	14.66	
2025-01-15 00:28:25.75	156.43	14.64	
2025-01-15 00:28:25.96	156.46	14.62	
2025-01-15 00:28:26.16	156.48	14.60	
2025-01-15 00:28:26.37	156.51	14.58	
2025-01-15 00:28:26.57	156.54	14.56	
2025-01-15 00:28:26.78	156.56	14.54	
2025-01-15 00:28:26.98	156.59	14.52	
2025-01-15 00:28:27.19	156.61	14.50	
2025-01-15 00:28:27.39	156.64	14.48	
2025-01-15 00:28:27.59	156.66	14.46	
2025-01-15 00:28:27.80	156.69	14.44	
2025-01-15 00:28:28.01	156.72	14.41	
2025-01-15 00:28:28.21	156.74	14.40	
2025-01-15 00:28:28.41	156.77	14.38	
2025-01-15 00:28:28.62	156.79	14.36	
2025-01-15 00:28:28.83	156.82	14.33	
2025-01-15 00:28:29.03	156.84	14.32	
2025-01-15 00:28:29.24	156.87	14.29	
2025-01-15 00:28:29.44	156.89	14.28	
2025-01-15 00:28:29.65	156.92	14.25	
2025-01-15 00:28:29.85	156.95	14.24	
2025-01-15 00:28:30.06	156.97	14.22	
2025-01-15 00:28:30.26	157.00	14.20	
2025-01-15 00:28:30.47	157.02	14.18	
2025-01-15 00:28:30.67	157.05	14.16	
2025-01-15 00:28:30.88	157.07	14.14	
2025-01-15 00:28:31.08	157.10	14.12	
2025-01-15 00:28:31.29	157.12	14.10	
2025-01-15 00:28:31.49	157.15	14.08	
2025-01-15 00:28:31.70	157.17	14.06	
2025-01-15 00:28:31.90	157.20	14.04	
2025-01-15 00:28:32.11	157.22	14.02	
2025-01-15 00:28:32.31	157.25	14.00	
2025-01-15 00:28:32.52	157.27	13.98	
2025-01-15 00:28:32.72	157.30	13.96	
2025-01-15 00:28:32.93	157.32	13.94	
2025-01-15 00:28:33.13	157.35	13.92	
2025-01-15 00:28:33.34	157.37	13.90	
2025-01-15 00:28:33.54	157.40	13.88	
2025-01-15 00:28:33.75	157.42	13.86	
2025-01-15 00:28:33.96	157.45	13.84	
2025-01-15 00:28:34.16	157.47	13.82	
2025-01-15 00:28:34.37	157.50	13.80	
2025-01-15 00:28:34.58	157.52	13.78	
2025-01-15 00:28:34.78	157.55	13.76	
2025-01-15 00:28:34.99	157.57	13.74	
2025-01-15 00:28:35.19	157.59	13.72	
2025-01-15 00:28:35.40	157.62	13.70	
2025-01-15 00:28:35.60	157.64	13.68	
2025-01-15 00:28:35.81	157.67	13.66	
2025-01-15 00:28:36.01	157.69	13.64	
2025-01-15 00:28:36.22	157.72	13.62	
2025-01-15 00:28:36.43	157.74	13.60	
2025-01-15 00:28:36.64	157.77	13.58	
2025-01-15 00:28:36.84	157.79	13.56	
2025-01-15 00:28:37.04	157.81	13.54	
2025-01-15 00:28:37.25	157.84	13.52	
2025-01-15 00:28:37.46	157.86	13.50	
2025-01-15 00:28:37.67	157.89	13.48	
2025-01-15 00:28:37.87	157.91	13.47	
2025-01-15 00:28:38.07	157.94	13.45	
2025-01-15 00:28:38.28	157.96	13.43	
2025-01-15 00:28:38.49	157.98	13.41	
2025-01-15 00:28:38.69	158.01	13.39	
2025-01-15 00:28:38.89	158.03	13.37	
2025-01-15 00:28:39.10	158.06	13.35	
2025-01-15 00:28:39.31	158.08	13.33	
2025-01-15 00:28:39.51	158.10	13.31	
2025-01-15 00:28:39.72	158.13	13.29	
2025-01-15 00:28:39.92	158.15	13.27	
2025-01-15 00:28:40.13	158.17	13.25	
2025-01-15 00:28:40.33	158.20	13.23	
2025-01-15 00:28:40.54	158.22	13.21	
2025-01-15 00:28:40.74	158.25	13.20	
2025-01-15 00:28:40.95	158.27	13.18	
2025-01-15 00:28:41.15	158.29	13.16	
2025-01-15 00:28:41.35	158.32	13.14	
2025-01-15 00:28:41.56	158.34	13.12	
2025-01-15 00:28:41.77	158.36	13.10	
2025-01-15 00:28:41.97	158.39	13.08	
2025-01-15 00:28:42.18	158.41	13.06	
2025-01-15 00:28:42.38	158.43	13.04	
2025-01-15 00:28:42.59	158.46	13.02	
2025-01-15 00:28:42.79	158.48	13.00	
2025-01-15 00:28:43.00	158.50	12.98	
2025-01-15 00:28:43.20	158.53	12.97	
2025-01-15 00:28:43.41	158.55	12.95	
2025-01-15 00:28:43.62	158.57	12.93	
2025-01-15 00:28:43.82	158.60	12.91	
2025-01-15 00:28:44.03	158.62	12.89	
2025-01-15 00:28:44.23	158.64	12.87	
2025-01-15 00:28:44.44	158.67	12.85	
2025-01-15 00:28:44.64	158.69	12.83	
2025-01-15 00:28:44.85	158.71	12.81	
2025-01-15 00:28:45.06	158.74	12.79	
2025-01-15 00:28:45.26	158.76	12.77	
2025-01-15 00:28:45.47	158.78	12.75	
2025-01-15 00:28:45.68	158.80	12.74	
2025-01-15 00:28:45.89	158.83	12.72	
2025-01-15 00:28:46.10	158.85	12.70	
2025-01-15 00:28:46.30	158.87	12.68	
2025-01-15 00:28:46.51	158.90	12.66	
2025-01-15 00:28:46.71	158.92	12.64	
2025-01-15 00:28:46.92	158.94	12.62	
2025-01-15 00:28:47.12	158.96	12.60	
2025-01-15 00:28:47.33	158.99	12.58	
2025-01-15 00:28:47.54	159.01	12.56	
2025-01-15 00:28:47.75	159.03	12.54	
2025-01-15 00:28:47.96	159.06	12.53	
2025-01-15 00:28:48.17	159.08	12.51	
2025-01-15 00:28:48.37	159.10	12.49	
2025-01-15 00:28:48.58	159.13	12.47	
2025-01-15 00:28:48.78	159.15	12.45	
2025-01-15 00:28:48.99	159.17	12.43	
2025-01-15 00:28:49.19	159.19	12.41	
2025-01-15 00:28:49.40	159.21	12.39	
2025-01-15 00:28:49.61	159.24	12.37	
2025-01-15 00:28:49.81	159.26	12.36	
2025-01-15 00:28:50.02	159.28	12.34	
2025-01-15 00:28:50.23	159.30	12.32	
2025-01-15 00:28:50.43	159.33	12.30	
2025-01-15 00:28:50.64	159.35	12.28	
2025-01-15 00:28:50.85	159.37	12.26	
2025-01-15 00:28:51.05	159.39	12.24	
2025-01-15 00:28:51.25	159.41	12.23	
2025-01-15 00:28:51.46	159.44	12.21	
2025-01-15 00:28:51.67	159.46	12.19	
2025-01-15 00:28:51.87	159.48	12.17	
2025-01-15 00:28:52.08	159.50	12.15	
2025-01-15 00:28:52.28	159.53	12.13	
2025-01-15 00:28:52.49	159.55	12.11	
2025-01-15 00:28:52.69	159.57	12.10	
2025-01-15 00:28:52.90	159.59	12.08	
2025-01-15 00:28:53.12	159.61	12.06	
2025-01-15 00:28:53.32	159.64	12.04	
2025-01-15 00:28:53.53	159.66	12.02	
2025-01-15 00:28:53.74	159.68	12.00	
2025-01-15 00:28:53.94	159.70	11.98	
2025-01-15 00:28:54.14	159.72	11.96	
2025-01-15 00:28:54.35	159.74	11.95	
2025-01-15 00:28:54.55	159.77	11.93	
2025-01-15 00:28:54.76	159.79	11.91	
2025-01-15 00:28:54.97	159.81	11.89	
2025-01-15 00:28:55.17	159.83	11.87	
2025-01-15 00:28:55.38	159.85	11.85	
2025-01-15 00:28:55.58	159.87	11.84	
2025-01-15 00:28:55.78	159.89	11.82	
2025-01-15 00:28:55.99	159.92	11.80	
2025-01-15 00:28:56.19	159.94	11.78	
2025-01-15 00:28:56.40	159.96	11.76	
2025-01-15 00:28:56.60	159.98	11.74	
2025-01-15 00:28:56.81	160.00	11.73	
2025-01-15 00:28:57.02	160.02	11.71	
2025-01-15 00:28:57.22	160.04	11.69	
2025-01-15 00:28:57.42	160.07	11.67	
2025-01-15 00:28:57.63	160.09	11.65	
2025-01-15 00:28:57.84	160.11	11.63	
2025-01-15 00:28:58.04	160.13	11.62	
2025-01-15 00:28:58.25	160.15	11.60	
2025-01-15 00:28:58.46	160.17	11.58	
2025-01-15 00:28:58.67	160.19	11.56	
2025-01-15 00:28:58.88	160.22	11.54	
2025-01-15 00:28:59.08	160.24	11.52	
2025-01-15 00:28:59.29	160.26	11.51	
2025-01-15 00:28:59.49	160.28	11.49	
2025-01-15 00:28:59.70	160.30	11.47	
2025-01-15 00:28:59.90	160.32	11.45	
2025-01-15 00:29:00.11	160.34	11.43	
2025-01-15 00:29:00.31	160.36	11.42	
2025-01-15 00:29:00.52	160.38	11.40	
2025-01-15 00:29:00.72	160.40	11.38	
2025-01-15 00:29:00.93	160.42	11.36	
2025-01-15 00:29:01.14	160.45	11.34	
2025-01-15 00:29:01.34	160.47	11.32	
2025-01-15 00:29:01.55	160.49	11.31	
2025-01-15 00:29:01.75	160.51	11.29	
2025-01-15 00:29:01.96	160.53	11.27	
2025-01-15 00:29:02.16	160.55	11.25	
2025-01-15 00:29:02.37	160.57	11.23	
2025-01-15 00:29:02.58	160.59	11.22	
2025-01-15 00:29:02.79	160.61	11.20	
2025-01-15 00:29:03.00	160.63	11.18	
2025-01-15 00:29:03.21	160.65	11.16	
2025-01-15 00:29:03.41	160.67	11.14	
2025-01-15 00:29:03.62	160.69	11.12	
2025-01-15 00:29:03.83	160.72	11.11	
2025-01-15 00:29:04.04	160.74	11.09	
2025-01-15 00:29:04.24	160.76	11.07	
2025-01-15 00:29:04.45	160.78	11.05	
2025-01-15 00:29:04.65	160.80	11.04	
2025-01-15 00:29:04.87	160.82	11.02	
2025-01-15 00:29:05.08	160.84	11.00	
2025-01-15 00:29:05.28	160.86	10.98	
2025-01-15 00:29:05.49	160.88	10.96	
2025-01-15 00:29:05.69	160.90	10.94	
2025-01-15 00:29:05.90	160.92	10.93	
2025-01-15 00:29:06.10	160.94	10.91	
2025-01-15 00:29:06.31	160.96	10.89	
2025-01-15 00:29:06.51	160.98	10.87	
2025-01-15 00:29:06.72	161.00	10.86	
2025-01-15 00:29:06.92	161.02	10.84	
2025-01-15 00:29:07.13	161.04	10.82	
2025-01-15 00:29:07.33	161.06	10.80	
2025-01-15 00:29:07.54	161.08	10.78	
2025-01-15 00:29:07.75	161.10	10.77	
2025-01-15 00:29:07.95	161.12	10.75	
2025-01-15 00:29:08.16	161.14	10.73	
2025-01-15 00:29:08.36	161.16	10.71	
2025-01-15 00:29:08.57	161.18	10.70	
2025-01-15 00:29:08.78	161.20	10.68	
2025-01-15 00:29:08.98	161.22	10.66	
2025-01-15 00:29:09.19	161.24	10.64	
2025-01-15 00:29:09.39	161.26	10.63	
2025-01-15 00:29:09.60	161.28	10.61	
2025-01-15 00:29:09.80	161.30	10.59	
2025-01-15 00:29:10.01	161.32	10.57	
2025-01-15 00:29:10.21	161.34	10.56	
2025-01-15 00:29:10.42	161.36	10.54	
2025-01-15 00:29:10.62	161.38	10.52	
2025-01-15 00:29:10.83	161.40	10.50	
2025-01-15 00:29:11.04	161.42	10.48	
2025-01-15 00:29:11.24	161.44	10.47	
2025-01-15 00:29:11.45	161.46	10.45	
2025-01-15 00:29:11.65	161.47	10.43	
2025-01-15 00:29:11.86	161.49	10.41	
2025-01-15 00:29:12.06	161.51	10.40	
2025-01-15 00:29:12.26	161.53	10.38	
2025-01-15 00:29:12.47	161.55	10.36	
2025-01-15 00:29:12.68	161.57	10.35	
2025-01-15 00:29:12.88	161.59	10.33	
2025-01-15 00:29:13.09	161.61	10.31	
2025-01-15 00:29:13.29	161.63	10.29	
2025-01-15 00:29:13.50	161.65	10.28	
2025-01-15 00:29:13.70	161.67	10.26	
2025-01-15 00:29:13.91	161.69	10.24	
2025-01-15 00:29:14.12	161.71	10.22	
2025-01-15 00:29:14.32	161.73	10.21	
2025-01-15 00:29:14.52	161.74	10.19	
2025-01-15 00:29:14.73	161.76	10.17	
2025-01-15 00:29:14.93	161.78	10.16	
2025-01-15 00:29:15.14	161.80	10.14	
2025-01-15 00:29:15.34	161.82	10.12	
2025-01-15 00:29:15.56	161.84	10.10	
2025-01-15 00:29:15.77	161.86	10.08	
2025-01-15 00:29:15.97	161.88	10.07	
2025-01-15 00:29:16.18	161.90	10.05	
2025-01-15 00:29:16.38	161.92	10.03	
2025-01-15 00:29:16.59	161.94	10.02	
2025-01-15 00:29:16.79	161.95	10.00	
2025-01-15 00:29:17.00	161.97	9.98	
2025-01-15 00:29:17.21	161.99	9.96	
2025-01-15 00:29:17.41	162.01	9.95	
2025-01-15 00:29:17.62	162.03	9.93	
2025-01-15 00:29:17.82	162.05	9.91	
2025-01-15 00:29:18.03	162.07	9.90	
2025-01-15 00:29:18.23	162.09	9.88	
2025-01-15 00:29:18.44	162.11	9.86	
2025-01-15 00:29:18.64	162.12	9.84	
2025-01-15 00:29:18.85	162.14	9.83	
2025-01-15 00:29:19.05	162.16	9.81	
2025-01-15 00:29:19.26	162.18	9.79	
2025-01-15 00:29:19.46	162.20	9.78	
2025-01-15 00:29:19.67	162.22	9.76	
2025-01-15 00:29:19.87	162.23	9.74	
2025-01-15 00:29:20.07	162.25	9.73	
2025-01-15 00:29:20.28	162.27	9.71	
2025-01-15 00:29:20.48	162.29	9.69	
2025-01-15 00:29:20.69	162.31	9.67	
2025-01-15 00:29:20.91	162.33	9.66	
2025-01-15 00:29:21.11	162.35	9.64	
2025-01-15 00:29:21.32	162.36	9.62	
2025-01-15 00:29:21.52	162.38	9.61	
2025-01-15 00:29:21.73	162.40	9.59	
2025-01-15 00:29:21.95	162.42	9.57	
2025-01-15 00:29:22.15	162.44	9.55	
2025-01-15 00:29:22.36	162.46	9.54	
2025-01-15 00:29:22.56	162.48	9.52	
2025-01-15 00:29:22.77	162.49	9.50	
2025-01-15 00:29:22.97	162.51	9.49	
2025-01-15 00:29:23.18	162.53	9.47	
2025-01-15 00:29:23.38	162.55	9.45	
2025-01-15 00:29:23.59	162.57	9.43	
2025-01-15 00:29:23.79	162.58	9.42	
2025-01-15 00:29:24.00	162.60	9.40	
2025-01-15 00:29:24.20	162.62	9.38	
2025-01-15 00:29:24.41	162.64	9.37	
2025-01-15 00:29:24.61	162.66	9.35	
2025-01-15 00:29:24.82	162.67	9.33	
2025-01-15 00:29:25.02	162.69	9.32	
2025-01-15 00:29:25.23	162.71	9.30	
2025-01-15 00:29:25.43	162.73	9.28	
2025-01-15 00:29:25.64	162.75	9.27	
2025-01-15 00:29:25.84	162.76	9.25	
2025-01-15 00:29:26.05	162.78	9.23	
2025-01-15 00:29:26.25	162.80	9.22	
2025-01-15 00:29:26.46	162.82	9.20	
2025-01-15 00:29:26.66	162.84	9.18	
2025-01-15 00:29:26.87	162.85	9.17	
2025-01-15 00:29:27.07	162.87	9.15	
2025-01-15 00:29:27.29	162.89	9.13	
2025-01-15 00:29:27.50	162.91	9.12	
2025-01-15 00:29:27.70	162.93	9.10	
2025-01-15 00:29:27.91	162.94	9.08	
2025-01-15 00:29:28.11	162.96	9.07	
2025-01-15 00:29:28.32	162.98	9.05	
2025-01-15 00:29:28.53	163.00	9.03	
2025-01-15 00:29:28.73	163.01	9.02	
2025-01-15 00:29:28.94	163.03	9.00	
2025-01-15 00:29:29.14	163.05	8.98	
2025-01-15 00:29:29.36	163.07	8.97	
2025-01-15 00:29:29.56	163.08	8.95	
2025-01-15 00:29:29.77	163.10	8.93	
2025-01-15 00:29:29.98	163.12	8.92	
2025-01-15 00:29:30.18	163.14	8.90	
2025-01-15 00:29:30.39	163.16	8.88	
2025-01-15 00:29:30.59	163.17	8.87	
2025-01-15 00:29:30.81	163.19	8.85	
2025-01-15 00:29:31.01	163.21	8.83	
2025-01-15 00:29:31.22	163.23	8.82	
2025-01-15 00:29:31.43	163.24	8.80	
2025-01-15 00:29:31.63	163.26	8.78	
2025-01-15 00:29:31.84	163.28	8.77	
2025-01-15 00:29:32.04	163.30	8.75	
2025-01-15 00:29:32.25	163.31	8.73	
2025-01-15 00:29:32.45	163.33	8.72	
2025-01-15 00:29:32.66	163.35	8.70	
2025-01-15 00:29:32.86	163.36	8.68	
2025-01-15 00:29:33.07	163.38	8.67	
2025-01-15 00:29:33.27	163.40	8.65	
2025-01-15 00:29:33.48	163.42	8.64	
2025-01-15 00:29:33.68	163.43	8.62	
2025-01-15 00:29:33.89	163.45	8.60	
2025-01-15 00:29:34.09	163.47	8.59	
2025-01-15 00:29:34.30	163.48	8.57	
2025-01-15 00:29:34.51	163.50	8.55	
2025-01-15 00:29:34.71	163.52	8.54	
2025-01-15 00:29:34.92	163.54	8.52	
2025-01-15 00:29:35.12	163.55	8.50	
2025-01-15 00:29:35.33	163.57	8.49	
2025-01-15 00:29:35.53	163.59	8.47	
2025-01-15 00:29:35.74	163.60	8.46	
2025-01-15 00:29:35.94	163.62	8.44	
2025-01-15 00:29:36.15	163.64	8.42	
2025-01-15 00:29:36.35	163.65	8.41	
2025-01-15 00:29:36.56	163.67	8.39	
2025-01-15 00:29:36.76	163.69	8.38	
2025-01-15 00:29:36.98	163.70	8.36	
2025-01-15 00:29:37.19	163.72	8.34	
2025-01-15 00:29:37.39	163.74	8.33	
2025-01-15 00:29:37.60	163.76	8.31	
2025-01-15 00:29:37.80	163.77	8.29	
2025-01-15 00:29:38.01	163.79	8.28	
2025-01-15 00:29:38.21	163.81	8.26	
2025-01-15 00:29:38.42	163.82	8.24	
2025-01-15 00:29:38.62	163.84	8.23	
2025-01-15 00:29:38.83	163.86	8.21	
2025-01-15 00:29:39.03	163.87	8.20	
2025-01-15 00:29:39.24	163.89	8.18	
2025-01-15 00:29:39.45	163.91	8.16	
2025-01-15 00:29:39.65	163.92	8.15	
2025-01-15 00:29:39.86	163.94	8.13	
2025-01-15 00:29:40.06	163.95	8.12	
2025-01-15 00:29:40.27	163.97	8.10	
2025-01-15 00:29:40.47	163.99	8.08	
2025-01-15 00:29:40.68	164.00	8.07	
2025-01-15 00:29:40.88	164.02	8.05	
2025-01-15 00:29:41.09	164.04	8.04	
2025-01-15 00:29:41.29	164.05	8.02	
2025-01-15 00:29:41.50	164.07	8.00	
2025-01-15 00:29:41.70	164.09	7.99	
2025-01-15 00:29:41.91	164.10	7.97	
2025-01-15 00:29:42.12	164.12	7.96	
2025-01-15 00:29:42.33	164.14	7.94	
2025-01-15 00:29:42.54	164.15	7.92	
2025-01-15 00:29:42.74	164.17	7.91	
2025-01-15 00:29:42.95	164.19	7.89	
2025-01-15 00:29:43.15	164.20	7.88	
2025-01-15 00:29:43.36	164.22	7.86	
2025-01-15 00:29:43.56	164.23	7.84	
2025-01-15 00:29:43.77	164.25	7.83	
2025-01-15 00:29:43.97	164.27	7.81	
2025-01-15 00:29:44.18	164.28	7.80	
2025-01-15 00:29:44.38	164.30	7.78	
2025-01-15 00:29:44.59	164.31	7.76	
2025-01-15 00:29:44.80	164.33	7.75	
2025-01-15 00:29:45.00	164.35	7.73	
2025-01-15 00:29:45.21	164.36	7.72	
2025-01-15 00:29:45.41	164.38	7.70	
2025-01-15 00:29:45.62	164.40	7.68	
2025-01-15 00:29:45.83	164.41	7.67	
2025-01-15 00:29:46.03	164.43	7.65	
2025-01-15 00:29:46.24	164.44	7.64	
2025-01-15 00:29:46.44	164.46	7.62	
2025-01-15 00:29:46.65	164.48	7.61	
2025-01-15 00:29:46.86	164.49	7.59	
2025-01-15 00:29:47.06	164.51	7.57	
2025-01-15 00:29:47.27	164.52	7.56	
2025-01-15 00:29:47.47	164.54	7.54	
2025-01-15 00:29:47.69	164.56	7.53	
2025-01-15 00:29:47.89	164.57	7.51	
2025-01-15 00:29:48.10	164.59	7.49	
2025-01-15 00:29:48.31	164.60	7.48	
2025-01-15 00:29:48.51	164.62	7.46	
2025-01-15 00:29:48.72	164.63	7.45	
2025-01-15 00:29:48.92	164.65	7.43	
2025-01-15 00:29:49.13	164.67	7.42	
2025-01-15 00:29:49.33	164.68	7.40	
2025-01-15 00:29:49.54	164.70	7.38	
2025-01-15 00:29:49.74	164.71	7.37	
2025-01-15 00:29:49.95	164.73	7.35	
2025-01-15 00:29:50.15	164.74	7.34	
2025-01-15 00:29:50.36	164.76	7.32	
2025-01-15 00:29:50.56	164.78	7.31	
2025-01-15 00:29:50.77	164.79	7.29	
2025-01-15 00:29:50.98	164.81	7.28	
2025-01-15 00:29:51.18	164.82	7.26	
2025-01-15 00:29:51.39	164.84	7.24	
2025-01-15 00:29:51.60	164.85	7.23	
2025-01-15 00:29:51.80	164.87	7.21	
2025-01-15 00:29:52.01	164.88	7.20	
2025-01-15 00:29:52.21	164.90	7.18	
2025-01-15 00:29:52.42	164.92	7.17	
2025-01-15 00:29:52.62	164.93	7.15	
2025-01-15 00:29:52.83	164.95	7.14	
2025-01-15 00:29:53.03	164.96	7.12	
2025-01-15 00:29:53.24	164.98	7.10	
2025-01-15 00:29:53.44	164.99	7.09	
2025-01-15 00:29:53.65	165.01	7.07	
2025-01-15 00:29:53.85	165.02	7.06	
2025-01-15 00:29:54.07	165.04	7.04	
2025-01-15 00:29:54.28	165.05	7.03	
2025-01-15 00:29:54.48	165.07	7.01	
2025-01-15 00:29:54.69	165.09	7.00	
2025-01-15 00:29:54.89	165.10	6.98	
2025-01-15 00:29:55.10	165.12	6.96	
2025-01-15 00:29:55.30	165.13	6.95	
2025-01-15 00:29:55.51	165.15	6.93	
2025-01-15 00:29:55.71	165.16	6.92	
2025-01-15 00:29:55.92	165.18	6.90	
2025-01-15 00:29:56.12	165.19	6.89	
2025-01-15 00:29:56.33	165.21	6.87	
2025-01-15 00:29:56.53	165.22	6.86	
2025-01-15 00:29:56.74	165.24	6.84	
2025-01-15 00:29:56.94	165.25	6.83	
2025-01-15 00:29:57.15	165.27	6.81	
2025-01-15 00:29:57.35	165.28	6.80	
2025-01-15 00:29:57.56	165.30	6.78	
2025-01-15 00:29:57.77	165.31	6.77	
2025-01-15 00:29:57.97	165.33	6.75	
2025-01-15 00:29:58.17	165.34	6.74	
2025-01-15 00:29:58.38	165.36	6.72	
2025-01-15 00:29:58.58	165.37	6.71	
2025-01-15 00:29:58.79	165.39	6.69	
2025-01-15 00:29:58.99	165.40	6.68	
2025-01-15 00:29:59.20	165.42	6.66	
2025-01-15 00:29:59.42	165.43	6.64	
2025-01-15 00:29:59.62	165.45	6.63	
2025-01-15 00:29:59.83	165.46	6.61	
2025-01-15 00:30:00.03	165.48	6.60	
2025-01-15 00:30:00.24	165.49	6.58	
2025-01-15 00:30:00.44	165.51	6.57	
2025-01-15 00:30:00.65	165.52	6.55	
2025-01-15 00:30:00.85	165.54	6.54	
2025-01-15 00:30:01.06	165.55	6.52	
2025-01-15 00:30:01.26	165.56	6.51	
2025-01-15 00:30:01.47	165.58	6.49	
2025-01-15 00:30:01.67	165.59	6.48	
2025-01-15 00:30:01.88	165.61	6.46	
2025-01-15 00:30:02.08	165.62	6.45	
2025-01-15 00:30:02.29	165.64	6.43	
2025-01-15 00:30:02.51	165.65	6.42	
2025-01-15 00:30:02.71	165.67	6.40	
2025-01-15 00:30:02.92	165.68	6.39	
2025-01-15 00:30:03.12	165.70	6.37	
2025-01-15 00:30:03.33	165.71	6.36	
2025-01-15 00:30:03.53	165.73	6.34	
2025-01-15 00:30:03.74	165.74	6.33	
2025-01-15 00:30:03.94	165.76	6.31	
2025-01-15 00:30:04.15	165.77	6.30	
2025-01-15 00:30:04.35	165.78	6.28	
2025-01-15 00:30:04.55	165.80	6.27	
2025-01-15 00:30:04.76	165.81	6.25	
2025-01-15 00:30:04.96	165.83	6.24	
2025-01-15 00:30:05.17	165.84	6.22	
2025-01-15 00:30:05.38	165.86	6.21	
2025-01-15 00:30:05.58	165.87	6.19	
2025-01-15 00:30:05.79	165.89	6.18	
2025-01-15 00:30:05.99	165.90	6.16	
2025-01-15 00:30:06.20	165.91	6.15	
2025-01-15 00:30:06.40	165.93	6.13	
2025-01-15 00:30:06.61	165.94	6.12	
2025-01-15 00:30:06.83	165.96	6.10	
2025-01-15 00:30:07.03	165.97	6.09	
2025-01-15 00:30:07.24	165.99	6.07	
2025-01-15 00:30:07.45	166.00	6.06	
2025-01-15 00:30:07.65	166.02	6.04	
2025-01-15 00:30:07.85	166.03	6.03	
2025-01-15 00:30:08.06	166.04	6.01	
2025-01-15 00:30:08.27	166.06	6.00	
2025-01-15 00:30:08.47	166.07	5.98	
2025-01-15 00:30:08.68	166.09	5.97	
2025-01-15 00:30:08.88	166.10	5.95	
2025-01-15 00:30:09.09	166.12	5.94	
2025-01-15 00:30:09.29	166.13	5.92	
2025-01-15 00:30:09.50	166.14	5.91	
2025-01-15 00:30:09.70	166.16	5.89	
2025-01-15 00:30:09.91	166.17	5.88	
2025-01-15 00:30:10.11	166.19	5.86	
2025-01-15 00:30:10.32	166.20	5.85	
2025-01-15 00:30:10.53	166.21	5.83	
2025-01-15 00:30:10.73	166.23	5.82	
2025-01-15 00:30:10.94	166.24	5.80	
2025-01-15 00:30:11.14	166.26	5.79	
2025-01-15 00:30:11.34	166.27	5.77	
2025-01-15 00:30:11.55	166.28	5.76	
2025-01-15 00:30:11.75	166.30	5.75	
2025-01-15 00:30:11.96	166.31	5.73	
2025-01-15 00:30:12.16	166.33	5.72	
2025-01-15 00:30:12.37	166.34	5.70	
2025-01-15 00:30:12.58	166.35	5.69	
2025-01-15 00:30:12.78	166.37	5.67	
2025-01-15 00:30:12.98	166.38	5.66	
2025-01-15 00:30:13.19	166.39	5.64	
2025-01-15 00:30:13.39	166.41	5.63	
2025-01-15 00:30:13.60	166.42	5.61	
2025-01-15 00:30:13.80	166.44	5.60	
2025-01-15 00:30:14.01	166.45	5.58	
2025-01-15 00:30:14.21	166.46	5.57	
2025-01-15 00:30:14.42	166.48	5.55	
2025-01-15 00:30:14.63	166.49	5.54	
2025-01-15 00:30:14.83	166.50	5.53	
2025-01-15 00:30:15.04	166.52	5.51	
2025-01-15 00:30:15.24	166.53	5.50	
2025-01-15 00:30:15.45	166.55	5.48	
2025-01-15 00:30:15.65	166.56	5.47	
2025-01-15 00:30:15.86	166.57	5.45	
2025-01-15 00:30:16.06	166.59	5.44	
2025-01-15 00:30:16.27	166.60	5.42	
2025-01-15 00:30:16.47	166.61	5.41	
2025-01-15 00:30:16.68	166.63	5.39	
2025-01-15 00:30:16.88	166.64	5.38	
2025-01-15 00:30:17.09	166.66	5.37	
2025-01-15 00:30:17.29	166.67	5.35	
2025-01-15 00:30:17.50	166.68	5.34	
2025-01-15 00:30:17.70	166.70	5.32	
2025-01-15 00:30:17.91	166.71	5.31	
2025-01-15 00:30:18.11	166.72	5.29	
2025-01-15 00:30:18.32	166.74	5.28	
2025-01-15 00:30:18.54	166.75	5.26	
2025-01-15 00:30:18.74	166.76	5.25	
2025-01-15 00:30:18.94	166.78	5.24	
2025-01-15 00:30:19.15	166.79	5.22	
2025-01-15 00:30:19.36	166.80	5.21	
2025-01-15 00:30:19.56	166.82	5.19	
2025-01-15 00:30:19.77	166.83	5.18	
2025-01-15 00:30:19.97	166.84	5.16	
2025-01-15 00:30:20.18	166.86	5.15	
2025-01-15 00:30:20.39	166.87	5.13	
2025-01-15 00:30:20.59	166.88	5.12	
2025-01-15 00:30:20.80	166.90	5.10	
2025-01-15 00:30:21.00	166.91	5.09	
2025-01-15 00:30:21.21	166.93	5.08	
2025-01-15 00:30:21.41	166.94	5.06	
2025-01-15 00:30:21.62	166.95	5.05	
2025-01-15 00:30:21.82	166.96	5.03	
2025-01-15 00:30:22.03	166.98	5.02	
2025-01-15 00:30:22.23	166.99	5.00	
2025-01-15 00:30:22.44	167.00	4.99	
2025-01-15 00:30:22.65	167.02	4.98	
2025-01-15 00:30:22.85	167.03	4.96	
2025-01-15 00:30:23.06	167.04	4.95	
2025-01-15 00:30:23.26	167.06	4.93	
2025-01-15 00:30:23.47	167.07	4.92	
2025-01-15 00:30:23.67	167.08	4.90	
2025-01-15 00:30:23.87	167.10	4.89	
2025-01-15 00:30:24.08	167.11	4.88	
2025-01-15 00:30:24.29	167.12	4.86	
2025-01-15 00:30:24.49	167.14	4.85	
2025-01-15 00:30:24.70	167.15	4.83	
2025-01-15 00:30:24.91	167.16	4.82	
2025-01-15 00:30:25.12	167.18	4.80	
2025-01-15 00:30:25.33	167.19	4.79	
2025-01-15 00:30:25.53	167.20	4.78	
2025-01-15 00:30:25.74	167.22	4.76	
2025-01-15 00:30:25.94	167.23	4.75	
2025-01-15 00:30:26.15	167.24	4.73	
2025-01-15 00:30:26.35	167.25	4.72	
2025-01-15 00:30:26.56	167.27	4.70	
2025-01-15 00:30:26.76	167.28	4.69	
2025-01-15 00:30:26.97	167.29	4.68	
2025-01-15 00:30:27.17	167.31	4.66	
2025-01-15 00:30:27.38	167.32	4.65	
2025-01-15 00:30:27.58	167.33	4.63	
2025-01-15 00:30:27.79	167.34	4.62	
2025-01-15 00:30:27.99	167.36	4.61	
2025-01-15 00:30:28.19	167.37	4.59	
2025-01-15 00:30:28.40	167.38	4.58	
2025-01-15 00:30:28.61	167.40	4.56	
2025-01-15 00:30:28.81	167.41	4.55	
2025-01-15 00:30:29.01	167.42	4.54	
2025-01-15 00:30:29.22	167.43	4.52	
2025-01-15 00:30:29.42	167.45	4.51	
2025-01-15 00:30:29.63	167.46	4.49	
2025-01-15 00:30:29.83	167.47	4.48	
2025-01-15 00:30:30.04	167.49	4.47	
2025-01-15 00:30:30.26	167.50	4.45	
2025-01-15 00:30:30.46	167.51	4.44	
2025-01-15 00:30:30.67	167.52	4.42	
2025-01-15 00:30:30.87	167.54	4.41	
2025-01-15 00:30:31.08	167.55	4.39	
2025-01-15 00:30:31.28	167.56	4.38	
2025-01-15 00:30:31.49	167.57	4.37	
2025-01-15 00:30:31.70	167.59	4.35	
2025-01-15 00:30:31.90	167.60	4.34	
2025-01-15 00:30:32.11	167.61	4.32	
2025-01-15 00:30:32.31	167.63	4.31	
2025-01-15 00:30:32.51	167.64	4.30	
2025-01-15 00:30:32.72	167.65	4.28	
2025-01-15 00:30:32.93	167.66	4.27	
2025-01-15 00:30:33.13	167.68	4.25	
2025-01-15 00:30:33.34	167.69	4.24	
2025-01-15 00:30:33.54	167.70	4.23	
2025-01-15 00:30:33.75	167.71	4.21	
2025-01-15 00:30:33.95	167.73	4.20	
2025-01-15 00:30:34.16	167.74	4.19	
2025-01-15 00:30:34.36	167.75	4.17	
2025-01-15 00:30:34.58	167.76	4.16	
2025-01-15 00:30:34.79	167.78	4.14	
2025-01-15 00:30:34.99	167.79	4.13	
2025-01-15 00:30:35.20	167.80	4.11	
2025-01-15 00:30:35.40	167.81	4.10	
2025-01-15 00:30:35.61	167.83	4.09	
2025-01-15 00:30:35.81	167.84	4.07	
2025-01-15 00:30:36.02	167.85	4.06	
2025-01-15 00:30:36.22	167.86	4.05	
2025-01-15 00:30:36.43	167.88	4.03	
2025-01-15 00:30:36.63	167.89	4.02	
2025-01-15 00:30:36.84	167.90	4.00	

#Closed at: 2025-01-15 00:30:37