passes_logs/2025/01/15/SPB_Silybum_02/SPB_Silybum_02__20250115_205439_TERRA_rec.log

#Pass ID: 20250115_205439_TERRA
#Satellite: TERRA
#Configuration: TERRA
#Start time: 2025-01-15 20:54:39

#Version: 2.0.20230423
#Station: SPB_Silybum_02
#Location: 30.233357 lon 59.946436 lat
#TLE: 1 25994U 99068A   25015.11447882  .00000776  00000+0  16956-3 0  9998
#TLE: 2 25994  98.0215  78.1412 0003445  72.3139 317.8565 14.60395081334091

#Time	Az	El	Level	Level2	SNR	BER	Gain	Gain2
2025-01-15 20:54:41.41	244.39	4.10	
2025-01-15 20:54:41.62	244.42	4.11	
2025-01-15 20:54:41.82	244.45	4.12	
2025-01-15 20:54:42.02	244.47	4.12	
2025-01-15 20:54:42.23	244.50	4.13	
2025-01-15 20:54:42.43	244.53	4.14	
2025-01-15 20:54:42.63	244.56	4.15	
2025-01-15 20:54:42.84	244.59	4.16	
2025-01-15 20:54:43.04	244.61	4.17	
2025-01-15 20:54:43.24	244.64	4.18	
2025-01-15 20:54:43.44	244.67	4.18	
2025-01-15 20:54:43.65	244.70	4.19	
2025-01-15 20:54:43.85	244.72	4.20	
2025-01-15 20:54:44.05	244.75	4.21	
2025-01-15 20:54:44.26	244.78	4.22	
2025-01-15 20:54:44.46	244.81	4.23	
2025-01-15 20:54:44.66	244.83	4.23	
2025-01-15 20:54:44.87	244.86	4.24	
2025-01-15 20:54:45.07	244.89	4.25	
2025-01-15 20:54:45.27	244.92	4.26	
2025-01-15 20:54:45.48	244.95	4.27	
2025-01-15 20:54:45.68	244.97	4.28	
2025-01-15 20:54:45.88	245.00	4.28	
2025-01-15 20:54:46.09	245.03	4.29	
2025-01-15 20:54:46.29	245.06	4.30	
2025-01-15 20:54:46.49	245.08	4.31	
2025-01-15 20:54:46.69	245.11	4.32	
2025-01-15 20:54:46.90	245.14	4.33	
2025-01-15 20:54:47.10	245.17	4.33	
2025-01-15 20:54:47.30	245.20	4.34	
2025-01-15 20:54:47.51	245.23	4.35	
2025-01-15 20:54:47.71	245.25	4.36	
2025-01-15 20:54:47.91	245.28	4.37	
2025-01-15 20:54:48.12	245.31	4.38	
2025-01-15 20:54:48.32	245.34	4.38	
2025-01-15 20:54:48.52	245.36	4.39	
2025-01-15 20:54:48.73	245.39	4.40	
2025-01-15 20:54:48.93	245.42	4.41	
2025-01-15 20:54:49.13	245.45	4.42	
2025-01-15 20:54:49.34	245.48	4.43	
2025-01-15 20:54:49.54	245.51	4.43	
2025-01-15 20:54:49.74	245.53	4.44	
2025-01-15 20:54:49.94	245.56	4.45	
2025-01-15 20:54:50.15	245.59	4.46	
2025-01-15 20:54:50.35	245.62	4.47	
2025-01-15 20:54:50.55	245.65	4.48	
2025-01-15 20:54:50.76	245.68	4.48	
2025-01-15 20:54:50.96	245.70	4.49	
2025-01-15 20:54:51.16	245.73	4.50	
2025-01-15 20:54:51.37	245.76	4.51	
2025-01-15 20:54:51.57	245.79	4.52	
2025-01-15 20:54:51.77	245.82	4.53	
2025-01-15 20:54:51.98	245.85	4.53	
2025-01-15 20:54:52.18	245.87	4.54	
2025-01-15 20:54:52.38	245.90	4.55	
2025-01-15 20:54:52.58	245.93	4.56	
2025-01-15 20:54:52.79	245.96	4.57	
2025-01-15 20:54:52.99	245.99	4.58	
2025-01-15 20:54:53.19	246.02	4.58	
2025-01-15 20:54:53.40	246.04	4.59	
2025-01-15 20:54:53.60	246.07	4.60	
2025-01-15 20:54:53.80	246.10	4.61	
2025-01-15 20:54:54.01	246.13	4.62	
2025-01-15 20:54:54.21	246.16	4.63	
2025-01-15 20:54:54.41	246.19	4.63	
2025-01-15 20:54:54.62	246.22	4.64	
2025-01-15 20:54:54.82	246.24	4.65	
2025-01-15 20:54:55.02	246.27	4.66	
2025-01-15 20:54:55.23	246.30	4.67	
2025-01-15 20:54:55.43	246.33	4.68	
2025-01-15 20:54:55.63	246.36	4.68	
2025-01-15 20:54:55.83	246.39	4.69	
2025-01-15 20:54:56.04	246.42	4.70	
2025-01-15 20:54:56.24	246.44	4.71	
2025-01-15 20:54:56.44	246.47	4.72	
2025-01-15 20:54:56.65	246.50	4.73	
2025-01-15 20:54:56.85	246.53	4.73	
2025-01-15 20:54:57.05	246.56	4.74	
2025-01-15 20:54:57.26	246.59	4.75	
2025-01-15 20:54:57.46	246.62	4.76	
2025-01-15 20:54:57.66	246.65	4.77	
2025-01-15 20:54:57.87	246.68	4.77	
2025-01-15 20:54:58.07	246.70	4.78	
2025-01-15 20:54:58.27	246.73	4.79	
2025-01-15 20:54:58.47	246.76	4.80	
2025-01-15 20:54:58.68	246.79	4.81	
2025-01-15 20:54:58.88	246.82	4.82	
2025-01-15 20:54:59.08	246.85	4.82	
2025-01-15 20:54:59.29	246.88	4.83	
2025-01-15 20:54:59.49	246.91	4.84	
2025-01-15 20:54:59.69	246.94	4.85	
2025-01-15 20:54:59.90	246.97	4.86	
2025-01-15 20:55:00.10	246.99	4.86	
2025-01-15 20:55:00.30	247.02	4.87	
2025-01-15 20:55:00.51	247.05	4.88	
2025-01-15 20:55:00.71	247.08	4.89	
2025-01-15 20:55:00.91	247.11	4.90	
2025-01-15 20:55:01.12	247.14	4.91	
2025-01-15 20:55:01.32	247.17	4.91	
2025-01-15 20:55:01.52	247.20	4.92	
2025-01-15 20:55:01.72	247.23	4.93	
2025-01-15 20:55:01.93	247.26	4.94	
2025-01-15 20:55:02.13	247.29	4.95	
2025-01-15 20:55:02.33	247.31	4.95	
2025-01-15 20:55:02.54	247.34	4.96	
2025-01-15 20:55:02.74	247.37	4.97	
2025-01-15 20:55:02.94	247.40	4.98	
2025-01-15 20:55:03.15	247.43	4.99	
2025-01-15 20:55:03.35	247.46	5.00	
2025-01-15 20:55:03.55	247.49	5.00	
2025-01-15 20:55:03.76	247.52	5.01	
2025-01-15 20:55:03.96	247.55	5.02	
2025-01-15 20:55:04.16	247.58	5.03	
2025-01-15 20:55:04.37	247.61	5.04	
2025-01-15 20:55:04.57	247.64	5.04	
2025-01-15 20:55:04.77	247.67	5.05	
2025-01-15 20:55:04.97	247.70	5.06	
2025-01-15 20:55:05.18	247.73	5.07	
2025-01-15 20:55:05.38	247.76	5.08	
2025-01-15 20:55:05.58	247.78	5.09	
2025-01-15 20:55:05.79	247.82	5.09	
2025-01-15 20:55:05.99	247.84	5.10	
2025-01-15 20:55:06.19	247.87	5.11	
2025-01-15 20:55:06.40	247.90	5.12	
2025-01-15 20:55:06.60	247.93	5.13	
2025-01-15 20:55:06.80	247.96	5.13	
2025-01-15 20:55:07.01	247.99	5.14	
2025-01-15 20:55:07.21	248.02	5.15	
2025-01-15 20:55:07.41	248.05	5.16	
2025-01-15 20:55:07.61	248.08	5.17	
2025-01-15 20:55:07.82	248.11	5.17	
2025-01-15 20:55:08.02	248.14	5.18	
2025-01-15 20:55:08.22	248.17	5.19	
2025-01-15 20:55:08.43	248.20	5.20	
2025-01-15 20:55:08.63	248.23	5.21	
2025-01-15 20:55:08.83	248.26	5.21	
2025-01-15 20:55:09.04	248.29	5.22	
2025-01-15 20:55:09.24	248.32	5.23	
2025-01-15 20:55:09.44	248.35	5.24	
2025-01-15 20:55:09.65	248.38	5.25	
2025-01-15 20:55:09.85	248.41	5.25	
2025-01-15 20:55:10.05	248.44	5.26	
2025-01-15 20:55:10.26	248.47	5.27	
2025-01-15 20:55:10.46	248.50	5.28	
2025-01-15 20:55:10.66	248.53	5.29	
2025-01-15 20:55:10.86	248.56	5.29	
2025-01-15 20:55:11.07	248.59	5.30	
2025-01-15 20:55:11.27	248.62	5.31	
2025-01-15 20:55:11.47	248.65	5.32	
2025-01-15 20:55:11.68	248.68	5.33	
2025-01-15 20:55:11.88	248.71	5.34	
2025-01-15 20:55:12.08	248.74	5.34	
2025-01-15 20:55:12.29	248.77	5.35	
2025-01-15 20:55:12.49	248.80	5.36	
2025-01-15 20:55:12.69	248.83	5.37	
2025-01-15 20:55:12.90	248.86	5.38	
2025-01-15 20:55:13.10	248.89	5.38	
2025-01-15 20:55:13.30	248.92	5.39	
2025-01-15 20:55:13.50	248.95	5.40	
2025-01-15 20:55:13.71	248.98	5.41	
2025-01-15 20:55:13.91	249.01	5.42	
2025-01-15 20:55:14.11	249.04	5.42	
2025-01-15 20:55:14.32	249.07	5.43	
2025-01-15 20:55:14.52	249.10	5.44	
2025-01-15 20:55:14.72	249.13	5.45	
2025-01-15 20:55:14.93	249.16	5.46	
2025-01-15 20:55:15.13	249.19	5.46	
2025-01-15 20:55:15.33	249.22	5.47	
2025-01-15 20:55:15.54	249.25	5.48	
2025-01-15 20:55:15.74	249.28	5.49	
2025-01-15 20:55:15.94	249.31	5.49	
2025-01-15 20:55:16.15	249.34	5.50	
2025-01-15 20:55:16.35	249.37	5.51	
2025-01-15 20:55:16.55	249.40	5.52	
2025-01-15 20:55:16.75	249.43	5.53	
2025-01-15 20:55:16.96	249.47	5.53	
2025-01-15 20:55:17.16	249.50	5.54	
2025-01-15 20:55:17.36	249.53	5.55	
2025-01-15 20:55:17.57	249.56	5.56	
2025-01-15 20:55:17.77	249.59	5.57	
2025-01-15 20:55:17.97	249.62	5.57	
2025-01-15 20:55:18.18	249.65	5.58	
2025-01-15 20:55:18.38	249.68	5.59	
2025-01-15 20:55:18.58	249.71	5.60	
2025-01-15 20:55:18.79	249.74	5.61	
2025-01-15 20:55:18.99	249.77	5.61	
2025-01-15 20:55:19.19	249.80	5.62	
2025-01-15 20:55:19.40	249.83	5.63	
2025-01-15 20:55:19.60	249.86	5.64	
2025-01-15 20:55:19.80	249.89	5.64	
2025-01-15 20:55:20.00	249.92	5.65	
2025-01-15 20:55:20.21	249.96	5.66	
2025-01-15 20:55:20.41	249.99	5.67	
2025-01-15 20:55:20.61	250.02	5.68	
2025-01-15 20:55:20.82	250.05	5.68	
2025-01-15 20:55:21.02	250.08	5.69	
2025-01-15 20:55:21.22	250.11	5.70	
2025-01-15 20:55:21.43	250.14	5.71	
2025-01-15 20:55:21.63	250.17	5.72	
2025-01-15 20:55:21.83	250.20	5.72	
2025-01-15 20:55:22.04	250.23	5.73	
2025-01-15 20:55:22.24	250.27	5.74	
2025-01-15 20:55:22.44	250.30	5.75	
2025-01-15 20:55:22.64	250.33	5.75	
2025-01-15 20:55:22.85	250.36	5.76	
2025-01-15 20:55:23.05	250.39	5.77	
2025-01-15 20:55:23.25	250.42	5.78	
2025-01-15 20:55:23.46	250.45	5.79	
2025-01-15 20:55:23.66	250.48	5.79	
2025-01-15 20:55:23.86	250.51	5.80	
2025-01-15 20:55:24.07	250.54	5.81	
2025-01-15 20:55:24.27	250.58	5.82	
2025-01-15 20:55:24.47	250.61	5.82	
2025-01-15 20:55:24.68	250.64	5.83	
2025-01-15 20:55:24.88	250.67	5.84	
2025-01-15 20:55:25.08	250.70	5.85	
2025-01-15 20:55:25.29	250.73	5.86	
2025-01-15 20:55:25.49	250.76	5.86	
2025-01-15 20:55:25.69	250.79	5.87	
2025-01-15 20:55:25.89	250.82	5.88	
2025-01-15 20:55:26.10	250.86	5.89	
2025-01-15 20:55:26.30	250.89	5.89	
2025-01-15 20:55:26.50	250.92	5.90	
2025-01-15 20:55:26.71	250.95	5.91	
2025-01-15 20:55:26.91	250.98	5.92	
2025-01-15 20:55:27.11	251.01	5.93	
2025-01-15 20:55:27.32	251.04	5.93	
2025-01-15 20:55:27.52	251.08	5.94	
2025-01-15 20:55:27.72	251.11	5.95	
2025-01-15 20:55:27.93	251.14	5.96	
2025-01-15 20:55:28.13	251.17	5.96	
2025-01-15 20:55:28.33	251.20	5.97	
2025-01-15 20:55:28.53	251.23	5.98	
2025-01-15 20:55:28.74	251.26	5.99	
2025-01-15 20:55:28.94	251.30	5.99	
2025-01-15 20:55:29.14	251.33	6.00	
2025-01-15 20:55:29.35	251.36	6.01	
2025-01-15 20:55:29.55	251.39	6.02	
2025-01-15 20:55:29.75	251.42	6.03	
2025-01-15 20:55:29.96	251.45	6.03	
2025-01-15 20:55:30.16	251.49	6.04	
2025-01-15 20:55:30.36	251.52	6.05	
2025-01-15 20:55:30.57	251.55	6.06	
2025-01-15 20:55:30.77	251.58	6.06	
2025-01-15 20:55:30.97	251.61	6.07	
2025-01-15 20:55:31.18	251.64	6.08	
2025-01-15 20:55:31.38	251.68	6.09	
2025-01-15 20:55:31.58	251.71	6.09	
2025-01-15 20:55:31.78	251.74	6.10	
2025-01-15 20:55:31.99	251.77	6.11	
2025-01-15 20:55:32.19	251.80	6.12	
2025-01-15 20:55:32.39	251.83	6.12	
2025-01-15 20:55:32.60	251.87	6.13	
2025-01-15 20:55:32.80	251.90	6.14	
2025-01-15 20:55:33.00	251.93	6.15	
2025-01-15 20:55:33.21	251.96	6.16	
2025-01-15 20:55:33.41	251.99	6.16	
2025-01-15 20:55:33.61	252.03	6.17	
2025-01-15 20:55:33.82	252.06	6.18	
2025-01-15 20:55:34.02	252.09	6.19	
2025-01-15 20:55:34.22	252.12	6.19	
2025-01-15 20:55:34.43	252.15	6.20	
2025-01-15 20:55:34.63	252.19	6.21	
2025-01-15 20:55:34.83	252.22	6.22	
2025-01-15 20:55:35.03	252.25	6.22	
2025-01-15 20:55:35.24	252.28	6.23	
2025-01-15 20:55:35.44	252.31	6.24	
2025-01-15 20:55:35.64	252.35	6.25	
2025-01-15 20:55:35.85	252.38	6.25	
2025-01-15 20:55:36.05	252.41	6.26	
2025-01-15 20:55:36.25	252.44	6.27	
2025-01-15 20:55:36.46	252.47	6.28	
2025-01-15 20:55:36.66	252.51	6.28	
2025-01-15 20:55:36.86	252.54	6.29	
2025-01-15 20:55:37.07	252.57	6.30	
2025-01-15 20:55:37.27	252.60	6.31	
2025-01-15 20:55:37.47	252.64	6.31	
2025-01-15 20:55:37.67	252.67	6.32	
2025-01-15 20:55:37.88	252.70	6.33	
2025-01-15 20:55:38.08	252.73	6.34	
2025-01-15 20:55:38.28	252.76	6.34	
2025-01-15 20:55:38.49	252.80	6.35	
2025-01-15 20:55:38.69	252.83	6.36	
2025-01-15 20:55:38.89	252.86	6.37	
2025-01-15 20:55:39.10	252.89	6.37	
2025-01-15 20:55:39.30	252.93	6.38	
2025-01-15 20:55:39.50	252.96	6.39	
2025-01-15 20:55:39.71	252.99	6.40	
2025-01-15 20:55:39.91	253.02	6.40	
2025-01-15 20:55:40.11	253.06	6.41	
2025-01-15 20:55:40.32	253.09	6.42	
2025-01-15 20:55:40.52	253.12	6.43	
2025-01-15 20:55:40.72	253.15	6.43	
2025-01-15 20:55:40.92	253.19	6.44	
2025-01-15 20:55:41.13	253.22	6.45	
2025-01-15 20:55:41.33	253.25	6.45	
2025-01-15 20:55:41.53	253.28	6.46	
2025-01-15 20:55:41.74	253.32	6.47	
2025-01-15 20:55:41.94	253.35	6.48	
2025-01-15 20:55:42.14	253.38	6.48	
2025-01-15 20:55:42.35	253.42	6.49	
2025-01-15 20:55:42.55	253.45	6.50	
2025-01-15 20:55:42.75	253.48	6.51	
2025-01-15 20:55:42.96	253.51	6.51	
2025-01-15 20:55:43.16	253.55	6.52	
2025-01-15 20:55:43.36	253.58	6.53	
2025-01-15 20:55:43.56	253.61	6.54	
2025-01-15 20:55:43.77	253.64	6.54	
2025-01-15 20:55:43.97	253.68	6.55	
2025-01-15 20:55:44.17	253.71	6.56	
2025-01-15 20:55:44.38	253.74	6.57	
2025-01-15 20:55:44.58	253.78	6.57	
2025-01-15 20:55:44.78	253.81	6.58	
2025-01-15 20:55:44.99	253.84	6.59	
2025-01-15 20:55:45.19	253.87	6.59	
2025-01-15 20:55:45.39	253.91	6.60	
2025-01-15 20:55:45.60	253.94	6.61	
2025-01-15 20:55:45.80	253.97	6.62	
2025-01-15 20:55:46.00	254.01	6.62	
2025-01-15 20:55:46.21	254.04	6.63	
2025-01-15 20:55:46.41	254.07	6.64	
2025-01-15 20:55:46.61	254.10	6.65	
2025-01-15 20:55:46.81	254.14	6.65	
2025-01-15 20:55:47.02	254.17	6.66	
2025-01-15 20:55:47.22	254.20	6.67	
2025-01-15 20:55:47.42	254.24	6.67	
2025-01-15 20:55:47.63	254.27	6.68	
2025-01-15 20:55:47.83	254.30	6.69	
2025-01-15 20:55:48.03	254.34	6.70	
2025-01-15 20:55:48.24	254.37	6.70	
2025-01-15 20:55:48.44	254.40	6.71	
2025-01-15 20:55:48.64	254.44	6.72	
2025-01-15 20:55:48.85	254.47	6.73	
2025-01-15 20:55:49.05	254.50	6.73	
2025-01-15 20:55:49.25	254.54	6.74	
2025-01-15 20:55:49.46	254.57	6.75	
2025-01-15 20:55:49.66	254.60	6.75	
2025-01-15 20:55:49.86	254.64	6.76	
2025-01-15 20:55:50.06	254.67	6.77	
2025-01-15 20:55:50.27	254.70	6.78	
2025-01-15 20:55:50.47	254.74	6.78	
2025-01-15 20:55:50.67	254.77	6.79	
2025-01-15 20:55:50.88	254.80	6.80	
2025-01-15 20:55:51.08	254.84	6.80	
2025-01-15 20:55:51.28	254.87	6.81	
2025-01-15 20:55:51.49	254.90	6.82	
2025-01-15 20:55:51.69	254.94	6.83	
2025-01-15 20:55:51.89	254.97	6.83	
2025-01-15 20:55:52.10	255.00	6.84	
2025-01-15 20:55:52.30	255.04	6.85	
2025-01-15 20:55:52.50	255.07	6.85	
2025-01-15 20:55:52.70	255.10	6.86	
2025-01-15 20:55:52.91	255.14	6.87	
2025-01-15 20:55:53.11	255.17	6.88	
2025-01-15 20:55:53.31	255.20	6.88	
2025-01-15 20:55:53.52	255.24	6.89	
2025-01-15 20:55:53.72	255.27	6.90	
2025-01-15 20:55:53.92	255.30	6.90	
2025-01-15 20:55:54.13	255.34	6.91	
2025-01-15 20:55:54.33	255.37	6.92	
2025-01-15 20:55:54.53	255.41	6.92	
2025-01-15 20:55:54.74	255.44	6.93	
2025-01-15 20:55:54.94	255.47	6.94	
2025-01-15 20:55:55.14	255.51	6.95	
2025-01-15 20:55:55.35	255.54	6.95	
2025-01-15 20:55:55.55	255.58	6.96	
2025-01-15 20:55:55.75	255.61	6.97	
2025-01-15 20:55:55.95	255.64	6.97	
2025-01-15 20:55:56.16	255.68	6.98	
2025-01-15 20:55:56.36	255.71	6.99	
2025-01-15 20:55:56.56	255.74	6.99	
2025-01-15 20:55:56.77	255.78	7.00	
2025-01-15 20:55:56.97	255.81	7.01	
2025-01-15 20:55:57.17	255.85	7.02	
2025-01-15 20:55:57.38	255.88	7.02	
2025-01-15 20:55:57.58	255.91	7.03	
2025-01-15 20:55:57.78	255.95	7.04	
2025-01-15 20:55:57.99	255.98	7.04	
2025-01-15 20:55:58.19	256.02	7.05	
2025-01-15 20:55:58.39	256.05	7.06	
2025-01-15 20:55:58.59	256.08	7.06	
2025-01-15 20:55:58.80	256.12	7.07	
2025-01-15 20:55:59.00	256.15	7.08	
2025-01-15 20:55:59.20	256.19	7.08	
2025-01-15 20:55:59.41	256.22	7.09	
2025-01-15 20:55:59.61	256.25	7.10	
2025-01-15 20:55:59.81	256.29	7.11	
2025-01-15 20:56:00.02	256.32	7.11	
2025-01-15 20:56:00.22	256.36	7.12	
2025-01-15 20:56:00.42	256.39	7.13	
2025-01-15 20:56:00.63	256.43	7.13	
2025-01-15 20:56:00.83	256.46	7.14	
2025-01-15 20:56:01.03	256.49	7.15	
2025-01-15 20:56:01.24	256.53	7.15	
2025-01-15 20:56:01.44	256.56	7.16	
2025-01-15 20:56:01.64	256.60	7.17	
2025-01-15 20:56:01.84	256.63	7.17	
2025-01-15 20:56:02.05	256.67	7.18	
2025-01-15 20:56:02.25	256.70	7.19	
2025-01-15 20:56:02.45	256.73	7.19	
2025-01-15 20:56:02.66	256.77	7.20	
2025-01-15 20:56:02.86	256.80	7.21	
2025-01-15 20:56:03.06	256.84	7.22	
2025-01-15 20:56:03.27	256.87	7.22	
2025-01-15 20:56:03.47	256.91	7.23	
2025-01-15 20:56:03.67	256.94	7.24	
2025-01-15 20:56:03.88	256.98	7.24	
2025-01-15 20:56:04.08	257.01	7.25	
2025-01-15 20:56:04.28	257.04	7.26	
2025-01-15 20:56:04.49	257.08	7.26	
2025-01-15 20:56:04.69	257.11	7.27	
2025-01-15 20:56:04.89	257.15	7.28	
2025-01-15 20:56:05.09	257.18	7.28	
2025-01-15 20:56:05.30	257.22	7.29	
2025-01-15 20:56:05.50	257.25	7.30	
2025-01-15 20:56:05.70	257.29	7.30	
2025-01-15 20:56:05.91	257.32	7.31	
2025-01-15 20:56:06.11	257.36	7.32	
2025-01-15 20:56:06.31	257.39	7.32	
2025-01-15 20:56:06.52	257.43	7.33	
2025-01-15 20:56:06.72	257.46	7.34	
2025-01-15 20:56:06.92	257.49	7.34	
2025-01-15 20:56:07.13	257.53	7.35	
2025-01-15 20:56:07.33	257.56	7.36	
2025-01-15 20:56:07.53	257.60	7.36	
2025-01-15 20:56:07.73	257.63	7.37	
2025-01-15 20:56:07.94	257.67	7.38	
2025-01-15 20:56:08.14	257.70	7.38	
2025-01-15 20:56:08.34	257.74	7.39	
2025-01-15 20:56:08.55	257.77	7.40	
2025-01-15 20:56:08.75	257.81	7.40	
2025-01-15 20:56:08.95	257.84	7.41	
2025-01-15 20:56:09.16	257.88	7.42	
2025-01-15 20:56:09.36	257.91	7.42	
2025-01-15 20:56:09.56	257.95	7.43	
2025-01-15 20:56:09.77	257.98	7.44	
2025-01-15 20:56:09.97	258.02	7.44	
2025-01-15 20:56:10.17	258.05	7.45	
2025-01-15 20:56:10.38	258.09	7.46	
2025-01-15 20:56:10.58	258.12	7.46	
2025-01-15 20:56:10.78	258.16	7.47	
2025-01-15 20:56:10.98	258.19	7.47	
2025-01-15 20:56:11.19	258.23	7.48	
2025-01-15 20:56:11.39	258.26	7.49	
2025-01-15 20:56:11.59	258.30	7.49	
2025-01-15 20:56:11.80	258.33	7.50	
2025-01-15 20:56:12.00	258.37	7.51	
2025-01-15 20:56:12.20	258.40	7.51	
2025-01-15 20:56:12.41	258.44	7.52	
2025-01-15 20:56:12.61	258.47	7.53	
2025-01-15 20:56:12.81	258.51	7.53	
2025-01-15 20:56:13.02	258.54	7.54	
2025-01-15 20:56:13.22	258.58	7.55	
2025-01-15 20:56:13.42	258.61	7.55	
2025-01-15 20:56:13.62	258.65	7.56	
2025-01-15 20:56:13.83	258.69	7.57	
2025-01-15 20:56:14.03	258.72	7.57	
2025-01-15 20:56:14.23	258.76	7.58	
2025-01-15 20:56:14.44	258.79	7.59	
2025-01-15 20:56:14.64	258.83	7.59	
2025-01-15 20:56:14.84	258.86	7.60	
2025-01-15 20:56:15.05	258.90	7.60	
2025-01-15 20:56:15.25	258.93	7.61	
2025-01-15 20:56:15.45	258.97	7.62	
2025-01-15 20:56:15.66	259.00	7.62	
2025-01-15 20:56:15.86	259.04	7.63	
2025-01-15 20:56:16.06	259.07	7.64	
2025-01-15 20:56:16.27	259.11	7.64	
2025-01-15 20:56:16.47	259.15	7.65	
2025-01-15 20:56:16.67	259.18	7.66	
2025-01-15 20:56:16.87	259.22	7.66	
2025-01-15 20:56:17.08	259.25	7.67	
2025-01-15 20:56:17.28	259.29	7.67	
2025-01-15 20:56:17.48	259.32	7.68	
2025-01-15 20:56:17.69	259.36	7.69	
2025-01-15 20:56:17.89	259.39	7.69	
2025-01-15 20:56:18.09	259.43	7.70	
2025-01-15 20:56:18.30	259.47	7.71	
2025-01-15 20:56:18.50	259.50	7.71	
2025-01-15 20:56:18.70	259.54	7.72	
2025-01-15 20:56:18.91	259.57	7.72	
2025-01-15 20:56:19.11	259.61	7.73	
2025-01-15 20:56:19.31	259.64	7.74	
2025-01-15 20:56:19.52	259.68	7.74	
2025-01-15 20:56:19.72	259.72	7.75	
2025-01-15 20:56:19.92	259.75	7.76	
2025-01-15 20:56:20.12	259.79	7.76	
2025-01-15 20:56:20.33	259.82	7.77	
2025-01-15 20:56:20.53	259.86	7.77	
2025-01-15 20:56:20.73	259.89	7.78	
2025-01-15 20:56:20.94	259.93	7.79	
2025-01-15 20:56:21.14	259.97	7.79	
2025-01-15 20:56:21.34	260.00	7.80	
2025-01-15 20:56:21.55	260.04	7.81	
2025-01-15 20:56:21.75	260.07	7.81	
2025-01-15 20:56:21.95	260.11	7.82	
2025-01-15 20:56:22.16	260.15	7.82	
2025-01-15 20:56:22.36	260.18	7.83	
2025-01-15 20:56:22.56	260.22	7.84	
2025-01-15 20:56:22.76	260.25	7.84	
2025-01-15 20:56:22.97	260.29	7.85	
2025-01-15 20:56:23.17	260.33	7.85	
2025-01-15 20:56:23.37	260.36	7.86	
2025-01-15 20:56:23.58	260.40	7.87	
2025-01-15 20:56:23.78	260.43	7.87	
2025-01-15 20:56:23.98	260.47	7.88	
2025-01-15 20:56:24.19	260.51	7.88	
2025-01-15 20:56:24.39	260.54	7.89	
2025-01-15 20:56:24.59	260.58	7.90	
2025-01-15 20:56:24.80	260.62	7.90	
2025-01-15 20:56:25.00	260.65	7.91	
2025-01-15 20:56:25.20	260.69	7.91	
2025-01-15 20:56:25.41	260.72	7.92	
2025-01-15 20:56:25.61	260.76	7.93	
2025-01-15 20:56:25.81	260.80	7.93	
2025-01-15 20:56:26.01	260.83	7.94	
2025-01-15 20:56:26.22	260.87	7.95	
2025-01-15 20:56:26.42	260.90	7.95	
2025-01-15 20:56:26.62	260.94	7.96	
2025-01-15 20:56:26.83	260.98	7.96	
2025-01-15 20:56:27.03	261.01	7.97	
2025-01-15 20:56:27.23	261.05	7.97	
2025-01-15 20:56:27.44	261.09	7.98	
2025-01-15 20:56:27.64	261.12	7.99	
2025-01-15 20:56:27.84	261.16	7.99	
2025-01-15 20:56:28.05	261.20	8.00	
2025-01-15 20:56:28.25	261.23	8.00	
2025-01-15 20:56:28.45	261.27	8.01	
2025-01-15 20:56:28.66	261.31	8.02	
2025-01-15 20:56:28.86	261.34	8.02	
2025-01-15 20:56:29.06	261.38	8.03	
2025-01-15 20:56:29.26	261.41	8.03	
2025-01-15 20:56:29.47	261.45	8.04	
2025-01-15 20:56:29.67	261.49	8.05	
2025-01-15 20:56:29.87	261.52	8.05	
2025-01-15 20:56:30.08	261.56	8.06	
2025-01-15 20:56:30.28	261.60	8.06	
2025-01-15 20:56:30.48	261.63	8.07	
2025-01-15 20:56:30.69	261.67	8.07	
2025-01-15 20:56:30.89	261.71	8.08	
2025-01-15 20:56:31.09	261.74	8.09	
2025-01-15 20:56:31.30	261.78	8.09	
2025-01-15 20:56:31.50	261.82	8.10	
2025-01-15 20:56:31.70	261.85	8.10	
2025-01-15 20:56:31.90	261.89	8.11	
2025-01-15 20:56:32.11	261.93	8.12	
2025-01-15 20:56:32.31	261.96	8.12	
2025-01-15 20:56:32.51	262.00	8.13	
2025-01-15 20:56:32.72	262.04	8.13	
2025-01-15 20:56:32.92	262.07	8.14	
2025-01-15 20:56:33.12	262.11	8.14	
2025-01-15 20:56:33.33	262.15	8.15	
2025-01-15 20:56:33.53	262.18	8.16	
2025-01-15 20:56:33.73	262.22	8.16	
2025-01-15 20:56:33.94	262.26	8.17	
2025-01-15 20:56:34.14	262.30	8.17	
2025-01-15 20:56:34.34	262.33	8.18	
2025-01-15 20:56:34.55	262.37	8.18	
2025-01-15 20:56:34.75	262.41	8.19	
2025-01-15 20:56:34.95	262.44	8.20	
2025-01-15 20:56:35.15	262.48	8.20	
2025-01-15 20:56:35.36	262.52	8.21	
2025-01-15 20:56:35.56	262.55	8.21	
2025-01-15 20:56:35.76	262.59	8.22	
2025-01-15 20:56:35.97	262.63	8.22	
2025-01-15 20:56:36.17	262.66	8.23	
2025-01-15 20:56:36.37	262.70	8.23	
2025-01-15 20:56:36.58	262.74	8.24	
2025-01-15 20:56:36.78	262.78	8.25	
2025-01-15 20:56:36.98	262.81	8.25	
2025-01-15 20:56:37.19	262.85	8.26	
2025-01-15 20:56:37.39	262.89	8.26	
2025-01-15 20:56:37.59	262.92	8.27	
2025-01-15 20:56:37.79	262.96	8.27	
2025-01-15 20:56:38.00	263.00	8.28	
2025-01-15 20:56:38.20	263.04	8.28	
2025-01-15 20:56:38.40	263.07	8.29	
2025-01-15 20:56:38.61	263.11	8.30	
2025-01-15 20:56:38.81	263.15	8.30	
2025-01-15 20:56:39.01	263.18	8.31	
2025-01-15 20:56:39.22	263.22	8.31	
2025-01-15 20:56:39.42	263.26	8.32	
2025-01-15 20:56:39.62	263.30	8.32	
2025-01-15 20:56:39.83	263.33	8.33	
2025-01-15 20:56:40.03	263.37	8.33	
2025-01-15 20:56:40.23	263.41	8.34	
2025-01-15 20:56:40.44	263.45	8.34	
2025-01-15 20:56:40.64	263.48	8.35	
2025-01-15 20:56:40.84	263.52	8.36	
2025-01-15 20:56:41.04	263.56	8.36	
2025-01-15 20:56:41.25	263.59	8.37	
2025-01-15 20:56:41.45	263.63	8.37	
2025-01-15 20:56:41.65	263.67	8.38	
2025-01-15 20:56:41.86	263.71	8.38	
2025-01-15 20:56:42.06	263.74	8.39	
2025-01-15 20:56:42.26	263.78	8.39	
2025-01-15 20:56:42.47	263.82	8.40	
2025-01-15 20:56:42.67	263.86	8.40	
2025-01-15 20:56:42.87	263.89	8.41	
2025-01-15 20:56:43.08	263.93	8.41	
2025-01-15 20:56:43.28	263.97	8.42	
2025-01-15 20:56:43.48	264.01	8.42	
2025-01-15 20:56:43.69	264.05	8.43	
2025-01-15 20:56:43.89	264.08	8.44	
2025-01-15 20:56:44.09	264.12	8.44	
2025-01-15 20:56:44.29	264.16	8.45	
2025-01-15 20:56:44.50	264.20	8.45	
2025-01-15 20:56:44.70	264.23	8.46	
2025-01-15 20:56:44.90	264.27	8.46	
2025-01-15 20:56:45.11	264.31	8.47	
2025-01-15 20:56:45.31	264.35	8.47	
2025-01-15 20:56:45.51	264.38	8.48	
2025-01-15 20:56:45.72	264.42	8.48	
2025-01-15 20:56:45.92	264.46	8.49	
2025-01-15 20:56:46.12	264.50	8.49	
2025-01-15 20:56:46.33	264.53	8.50	
2025-01-15 20:56:46.53	264.57	8.50	
2025-01-15 20:56:46.73	264.61	8.51	
2025-01-15 20:56:46.93	264.65	8.51	
2025-01-15 20:56:47.14	264.69	8.52	
2025-01-15 20:56:47.34	264.72	8.52	
2025-01-15 20:56:47.54	264.76	8.53	
2025-01-15 20:56:47.75	264.80	8.53	
2025-01-15 20:56:47.95	264.84	8.54	
2025-01-15 20:56:48.15	264.87	8.54	
2025-01-15 20:56:48.36	264.91	8.55	
2025-01-15 20:56:48.56	264.95	8.55	
2025-01-15 20:56:48.76	264.99	8.56	
2025-01-15 20:56:48.97	265.03	8.56	
2025-01-15 20:56:49.17	265.06	8.57	
2025-01-15 20:56:49.37	265.10	8.57	
2025-01-15 20:56:49.58	265.14	8.58	
2025-01-15 20:56:49.78	265.18	8.58	
2025-01-15 20:56:49.98	265.21	8.59	
2025-01-15 20:56:50.18	265.25	8.59	
2025-01-15 20:56:50.39	265.29	8.60	
2025-01-15 20:56:50.59	265.33	8.60	
2025-01-15 20:56:50.79	265.37	8.61	
2025-01-15 20:56:51.00	265.41	8.61	
2025-01-15 20:56:51.20	265.44	8.62	
2025-01-15 20:56:51.40	265.48	8.62	
2025-01-15 20:56:51.61	265.52	8.63	
2025-01-15 20:56:51.81	265.56	8.63	
2025-01-15 20:56:52.01	265.60	8.64	
2025-01-15 20:56:52.22	265.63	8.64	
2025-01-15 20:56:52.42	265.67	8.65	
2025-01-15 20:56:52.62	265.71	8.65	
2025-01-15 20:56:52.82	265.75	8.66	
2025-01-15 20:56:53.03	265.79	8.66	
2025-01-15 20:56:53.23	265.82	8.67	
2025-01-15 20:56:53.43	265.86	8.67	
2025-01-15 20:56:53.64	265.90	8.68	
2025-01-15 20:56:53.84	265.94	8.68	
2025-01-15 20:56:54.04	265.98	8.69	
2025-01-15 20:56:54.25	266.02	8.69	
2025-01-15 20:56:54.45	266.05	8.70	
2025-01-15 20:56:54.65	266.09	8.70	
2025-01-15 20:56:54.86	266.13	8.71	
2025-01-15 20:56:55.06	266.17	8.71	
2025-01-15 20:56:55.26	266.21	8.72	
2025-01-15 20:56:55.47	266.25	8.72	
2025-01-15 20:56:55.67	266.28	8.73	
2025-01-15 20:56:55.87	266.32	8.73	
2025-01-15 20:56:56.07	266.36	8.73	
2025-01-15 20:56:56.28	266.40	8.74	
2025-01-15 20:56:56.48	266.44	8.74	
2025-01-15 20:56:56.68	266.48	8.75	
2025-01-15 20:56:56.89	266.52	8.75	
2025-01-15 20:56:57.09	266.55	8.76	
2025-01-15 20:56:57.29	266.59	8.76	
2025-01-15 20:56:57.50	266.63	8.77	
2025-01-15 20:56:57.70	266.67	8.77	
2025-01-15 20:56:57.90	266.71	8.78	
2025-01-15 20:56:58.11	266.75	8.78	
2025-01-15 20:56:58.31	266.78	8.79	
2025-01-15 20:56:58.51	266.82	8.79	
2025-01-15 20:56:58.72	266.86	8.80	
2025-01-15 20:56:58.92	266.90	8.80	
2025-01-15 20:56:59.12	266.94	8.80	
2025-01-15 20:56:59.32	266.98	8.81	
2025-01-15 20:56:59.53	267.02	8.81	
2025-01-15 20:56:59.73	267.05	8.82	
2025-01-15 20:56:59.93	267.09	8.82	
2025-01-15 20:57:00.14	267.13	8.83	
2025-01-15 20:57:00.34	267.17	8.83	
2025-01-15 20:57:00.54	267.21	8.84	
2025-01-15 20:57:00.75	267.25	8.84	
2025-01-15 20:57:00.95	267.29	8.84	
2025-01-15 20:57:01.15	267.32	8.85	
2025-01-15 20:57:01.36	267.36	8.85	
2025-01-15 20:57:01.56	267.40	8.86	
2025-01-15 20:57:01.76	267.44	8.86	
2025-01-15 20:57:01.96	267.48	8.87	
2025-01-15 20:57:02.17	267.52	8.87	
2025-01-15 20:57:02.37	267.56	8.88	
2025-01-15 20:57:02.57	267.59	8.88	
2025-01-15 20:57:02.78	267.63	8.88	
2025-01-15 20:57:02.98	267.67	8.89	
2025-01-15 20:57:03.18	267.71	8.89	
2025-01-15 20:57:03.39	267.75	8.90	
2025-01-15 20:57:03.59	267.79	8.90	
2025-01-15 20:57:03.79	267.83	8.91	
2025-01-15 20:57:04.00	267.87	8.91	
2025-01-15 20:57:04.20	267.91	8.92	
2025-01-15 20:57:04.40	267.94	8.92	
2025-01-15 20:57:04.61	267.98	8.92	
2025-01-15 20:57:04.81	268.02	8.93	
2025-01-15 20:57:05.01	268.06	8.93	
2025-01-15 20:57:05.21	268.10	8.94	
2025-01-15 20:57:05.42	268.14	8.94	
2025-01-15 20:57:05.62	268.18	8.95	
2025-01-15 20:57:05.82	268.22	8.95	
2025-01-15 20:57:06.03	268.26	8.95	
2025-01-15 20:57:06.23	268.30	8.96	
2025-01-15 20:57:06.43	268.33	8.96	
2025-01-15 20:57:06.64	268.37	8.97	
2025-01-15 20:57:06.84	268.41	8.97	
2025-01-15 20:57:07.04	268.45	8.97	
2025-01-15 20:57:07.25	268.49	8.98	
2025-01-15 20:57:07.45	268.53	8.98	
2025-01-15 20:57:07.65	268.57	8.99	
2025-01-15 20:57:07.85	268.61	8.99	
2025-01-15 20:57:08.06	268.65	9.00	
2025-01-15 20:57:08.26	268.69	9.00	
2025-01-15 20:57:08.46	268.72	9.00	
2025-01-15 20:57:08.67	268.76	9.01	
2025-01-15 20:57:08.87	268.80	9.01	
2025-01-15 20:57:09.07	268.84	9.02	
2025-01-15 20:57:09.28	268.88	9.02	
2025-01-15 20:57:09.48	268.92	9.02	
2025-01-15 20:57:09.68	268.96	9.03	
2025-01-15 20:57:09.89	269.00	9.03	
2025-01-15 20:57:10.09	269.04	9.04	
2025-01-15 20:57:10.29	269.08	9.04	
2025-01-15 20:57:10.50	269.12	9.04	
2025-01-15 20:57:10.70	269.16	9.05	
2025-01-15 20:57:10.90	269.20	9.05	
2025-01-15 20:57:11.10	269.23	9.06	
2025-01-15 20:57:11.31	269.27	9.06	
2025-01-15 20:57:11.51	269.31	9.06	
2025-01-15 20:57:11.71	269.35	9.07	
2025-01-15 20:57:11.92	269.39	9.07	
2025-01-15 20:57:12.12	269.43	9.08	
2025-01-15 20:57:12.32	269.47	9.08	
2025-01-15 20:57:12.53	269.51	9.08	
2025-01-15 20:57:12.73	269.55	9.09	
2025-01-15 20:57:12.93	269.59	9.09	
2025-01-15 20:57:13.14	269.63	9.10	
2025-01-15 20:57:13.34	269.67	9.10	
2025-01-15 20:57:13.54	269.71	9.10	
2025-01-15 20:57:13.74	269.75	9.11	
2025-01-15 20:57:13.95	269.79	9.11	
2025-01-15 20:57:14.15	269.82	9.11	
2025-01-15 20:57:14.35	269.86	9.12	
2025-01-15 20:57:14.56	269.90	9.12	
2025-01-15 20:57:14.76	269.94	9.13	
2025-01-15 20:57:14.96	269.98	9.13	
2025-01-15 20:57:15.17	270.02	9.13	
2025-01-15 20:57:15.37	270.06	9.14	
2025-01-15 20:57:15.57	270.10	9.14	
2025-01-15 20:57:15.78	270.14	9.14	
2025-01-15 20:57:15.98	270.18	9.15	
2025-01-15 20:57:16.18	270.22	9.15	
2025-01-15 20:57:16.39	270.26	9.16	
2025-01-15 20:57:16.59	270.30	9.16	
2025-01-15 20:57:16.79	270.34	9.16	
2025-01-15 20:57:16.99	270.38	9.17	
2025-01-15 20:57:17.20	270.42	9.17	
2025-01-15 20:57:17.40	270.46	9.17	
2025-01-15 20:57:17.60	270.50	9.18	
2025-01-15 20:57:17.81	270.54	9.18	
2025-01-15 20:57:18.01	270.58	9.19	
2025-01-15 20:57:18.21	270.62	9.19	
2025-01-15 20:57:18.42	270.66	9.19	
2025-01-15 20:57:18.62	270.70	9.20	
2025-01-15 20:57:18.82	270.73	9.20	
2025-01-15 20:57:19.03	270.78	9.20	
2025-01-15 20:57:19.23	270.81	9.21	
2025-01-15 20:57:19.43	270.85	9.21	
2025-01-15 20:57:19.64	270.89	9.21	
2025-01-15 20:57:19.84	270.93	9.22	
2025-01-15 20:57:20.04	270.97	9.22	
2025-01-15 20:57:20.24	271.01	9.22	
2025-01-15 20:57:20.45	271.05	9.23	
2025-01-15 20:57:20.65	271.09	9.23	
2025-01-15 20:57:20.85	271.13	9.23	
2025-01-15 20:57:21.06	271.17	9.24	
2025-01-15 20:57:21.26	271.21	9.24	
2025-01-15 20:57:21.46	271.25	9.24	
2025-01-15 20:57:21.67	271.29	9.25	
2025-01-15 20:57:21.87	271.33	9.25	
2025-01-15 20:57:22.07	271.37	9.26	
2025-01-15 20:57:22.28	271.41	9.26	
2025-01-15 20:57:22.48	271.45	9.26	
2025-01-15 20:57:22.68	271.49	9.27	
2025-01-15 20:57:22.89	271.53	9.27	
2025-01-15 20:57:23.09	271.57	9.27	
2025-01-15 20:57:23.29	271.61	9.28	
2025-01-15 20:57:23.49	271.65	9.28	
2025-01-15 20:57:23.70	271.69	9.28	
2025-01-15 20:57:23.90	271.73	9.29	
2025-01-15 20:57:24.10	271.77	9.29	
2025-01-15 20:57:24.31	271.81	9.29	
2025-01-15 20:57:24.51	271.85	9.29	
2025-01-15 20:57:24.71	271.89	9.30	
2025-01-15 20:57:24.92	271.93	9.30	
2025-01-15 20:57:25.12	271.97	9.30	
2025-01-15 20:57:25.32	272.01	9.31	
2025-01-15 20:57:25.53	272.05	9.31	
2025-01-15 20:57:25.73	272.09	9.31	
2025-01-15 20:57:25.93	272.13	9.32	
2025-01-15 20:57:26.13	272.17	9.32	
2025-01-15 20:57:26.34	272.21	9.32	
2025-01-15 20:57:26.54	272.25	9.33	
2025-01-15 20:57:26.74	272.29	9.33	
2025-01-15 20:57:26.95	272.33	9.33	
2025-01-15 20:57:27.15	272.37	9.34	
2025-01-15 20:57:27.35	272.41	9.34	
2025-01-15 20:57:27.56	272.45	9.34	
2025-01-15 20:57:27.76	272.49	9.35	
2025-01-15 20:57:27.96	272.53	9.35	
2025-01-15 20:57:28.17	272.57	9.35	
2025-01-15 20:57:28.37	272.61	9.35	
2025-01-15 20:57:28.57	272.65	9.36	
2025-01-15 20:57:28.78	272.69	9.36	
2025-01-15 20:57:28.98	272.73	9.36	
2025-01-15 20:57:29.18	272.77	9.37	
2025-01-15 20:57:29.38	272.81	9.37	
2025-01-15 20:57:29.59	272.85	9.37	
2025-01-15 20:57:29.79	272.89	9.38	
2025-01-15 20:57:29.99	272.93	9.38	
2025-01-15 20:57:30.20	272.97	9.38	
2025-01-15 20:57:30.40	273.01	9.38	
2025-01-15 20:57:30.60	273.05	9.39	
2025-01-15 20:57:30.81	273.09	9.39	
2025-01-15 20:57:31.01	273.13	9.39	
2025-01-15 20:57:31.21	273.17	9.40	
2025-01-15 20:57:31.42	273.21	9.40	
2025-01-15 20:57:31.62	273.25	9.40	
2025-01-15 20:57:31.82	273.29	9.41	
2025-01-15 20:57:32.02	273.33	9.41	
2025-01-15 20:57:32.23	273.37	9.41	
2025-01-15 20:57:32.43	273.41	9.41	
2025-01-15 20:57:32.63	273.45	9.42	
2025-01-15 20:57:32.84	273.50	9.42	
2025-01-15 20:57:33.04	273.53	9.42	
2025-01-15 20:57:33.24	273.57	9.42	
2025-01-15 20:57:33.45	273.62	9.43	
2025-01-15 20:57:33.65	273.66	9.43	
2025-01-15 20:57:33.85	273.70	9.43	
2025-01-15 20:57:34.06	273.74	9.44	
2025-01-15 20:57:34.26	273.78	9.44	
2025-01-15 20:57:34.46	273.82	9.44	
2025-01-15 20:57:34.67	273.86	9.44	
2025-01-15 20:57:34.87	273.90	9.45	
2025-01-15 20:57:35.07	273.94	9.45	
2025-01-15 20:57:35.27	273.98	9.45	
2025-01-15 20:57:35.48	274.02	9.45	
2025-01-15 20:57:35.68	274.06	9.46	
2025-01-15 20:57:35.88	274.10	9.46	
2025-01-15 20:57:36.09	274.14	9.46	
2025-01-15 20:57:36.29	274.18	9.47	
2025-01-15 20:57:36.49	274.22	9.47	
2025-01-15 20:57:36.70	274.26	9.47	
2025-01-15 20:57:36.90	274.30	9.47	
2025-01-15 20:57:37.10	274.34	9.48	
2025-01-15 20:57:37.31	274.38	9.48	
2025-01-15 20:57:37.51	274.42	9.48	
2025-01-15 20:57:37.71	274.46	9.48	
2025-01-15 20:57:37.92	274.51	9.49	
2025-01-15 20:57:38.12	274.55	9.49	
2025-01-15 20:57:38.32	274.59	9.49	
2025-01-15 20:57:38.52	274.63	9.49	
2025-01-15 20:57:38.73	274.67	9.50	
2025-01-15 20:57:38.93	274.71	9.50	
2025-01-15 20:57:39.13	274.75	9.50	
2025-01-15 20:57:39.34	274.79	9.50	
2025-01-15 20:57:39.54	274.83	9.51	
2025-01-15 20:57:39.74	274.87	9.51	
2025-01-15 20:57:39.95	274.91	9.51	
2025-01-15 20:57:40.15	274.95	9.51	
2025-01-15 20:57:40.35	274.99	9.51	
2025-01-15 20:57:40.56	275.03	9.52	
2025-01-15 20:57:40.76	275.07	9.52	
2025-01-15 20:57:40.96	275.11	9.52	
2025-01-15 20:57:41.16	275.15	9.52	
2025-01-15 20:57:41.37	275.19	9.53	
2025-01-15 20:57:41.57	275.23	9.53	
2025-01-15 20:57:41.77	275.27	9.53	
2025-01-15 20:57:41.98	275.32	9.53	
2025-01-15 20:57:42.18	275.36	9.54	
2025-01-15 20:57:42.38	275.40	9.54	
2025-01-15 20:57:42.59	275.44	9.54	
2025-01-15 20:57:42.79	275.48	9.54	
2025-01-15 20:57:42.99	275.52	9.54	
2025-01-15 20:57:43.20	275.56	9.55	
2025-01-15 20:57:43.40	275.60	9.55	
2025-01-15 20:57:43.60	275.64	9.55	
2025-01-15 20:57:43.81	275.68	9.55	
2025-01-15 20:57:44.01	275.72	9.56	
2025-01-15 20:57:44.21	275.76	9.56	
2025-01-15 20:57:44.41	275.80	9.56	
2025-01-15 20:57:44.62	275.84	9.56	
2025-01-15 20:57:44.82	275.88	9.56	
2025-01-15 20:57:45.02	275.92	9.57	
2025-01-15 20:57:45.23	275.97	9.57	
2025-01-15 20:57:45.43	276.01	9.57	
2025-01-15 20:57:45.63	276.05	9.57	
2025-01-15 20:57:45.84	276.09	9.57	
2025-01-15 20:57:46.04	276.13	9.58	
2025-01-15 20:57:46.24	276.17	9.58	
2025-01-15 20:57:46.45	276.21	9.58	
2025-01-15 20:57:46.65	276.25	9.58	
2025-01-15 20:57:46.85	276.29	9.58	
2025-01-15 20:57:47.05	276.33	9.59	
2025-01-15 20:57:47.26	276.37	9.59	
2025-01-15 20:57:47.46	276.41	9.59	
2025-01-15 20:57:47.66	276.45	9.59	
2025-01-15 20:57:47.87	276.50	9.59	
2025-01-15 20:57:48.07	276.54	9.60	
2025-01-15 20:57:48.27	276.58	9.60	
2025-01-15 20:57:48.48	276.62	9.60	
2025-01-15 20:57:48.68	276.66	9.60	
2025-01-15 20:57:48.88	276.70	9.60	
2025-01-15 20:57:49.09	276.74	9.61	
2025-01-15 20:57:49.29	276.78	9.61	
2025-01-15 20:57:49.49	276.82	9.61	
2025-01-15 20:57:49.70	276.86	9.61	
2025-01-15 20:57:49.90	276.90	9.61	
2025-01-15 20:57:50.10	276.94	9.62	
2025-01-15 20:57:50.30	276.99	9.62	
2025-01-15 20:57:50.51	277.03	9.62	
2025-01-15 20:57:50.71	277.07	9.62	
2025-01-15 20:57:50.91	277.11	9.62	
2025-01-15 20:57:51.12	277.15	9.62	
2025-01-15 20:57:51.32	277.19	9.63	
2025-01-15 20:57:51.52	277.23	9.63	
2025-01-15 20:57:51.73	277.27	9.63	
2025-01-15 20:57:51.93	277.31	9.63	
2025-01-15 20:57:52.13	277.35	9.63	
2025-01-15 20:57:52.34	277.40	9.63	
2025-01-15 20:57:52.54	277.44	9.64	
2025-01-15 20:57:52.74	277.48	9.64	
2025-01-15 20:57:52.95	277.52	9.64	
2025-01-15 20:57:53.15	277.56	9.64	
2025-01-15 20:57:53.35	277.60	9.64	
2025-01-15 20:57:53.55	277.64	9.64	
2025-01-15 20:57:53.76	277.68	9.65	
2025-01-15 20:57:53.96	277.72	9.65	
2025-01-15 20:57:54.16	277.76	9.65	
2025-01-15 20:57:54.37	277.80	9.65	
2025-01-15 20:57:54.57	277.85	9.65	
2025-01-15 20:57:54.77	277.89	9.65	
2025-01-15 20:57:54.98	277.93	9.66	
2025-01-15 20:57:55.18	277.97	9.66	
2025-01-15 20:57:55.38	278.01	9.66	
2025-01-15 20:57:55.59	278.05	9.66	
2025-01-15 20:57:55.79	278.09	9.66	
2025-01-15 20:57:55.99	278.13	9.66	
2025-01-15 20:57:56.19	278.17	9.66	
2025-01-15 20:57:56.40	278.21	9.67	
2025-01-15 20:57:56.60	278.25	9.67	
2025-01-15 20:57:56.80	278.29	9.67	
2025-01-15 20:57:57.01	278.34	9.67	
2025-01-15 20:57:57.21	278.38	9.67	
2025-01-15 20:57:57.41	278.42	9.67	
2025-01-15 20:57:57.62	278.46	9.67	
2025-01-15 20:57:57.82	278.50	9.68	
2025-01-15 20:57:58.02	278.54	9.68	
2025-01-15 20:57:58.23	278.58	9.68	
2025-01-15 20:57:58.43	278.62	9.68	
2025-01-15 20:57:58.63	278.66	9.68	
2025-01-15 20:57:58.84	278.71	9.68	
2025-01-15 20:57:59.04	278.75	9.68	
2025-01-15 20:57:59.24	278.79	9.68	
2025-01-15 20:57:59.44	278.83	9.69	
2025-01-15 20:57:59.65	278.87	9.69	
2025-01-15 20:57:59.85	278.91	9.69	
2025-01-15 20:58:00.05	278.95	9.69	
2025-01-15 20:58:00.26	278.99	9.69	
2025-01-15 20:58:00.46	279.03	9.69	
2025-01-15 20:58:00.66	279.07	9.69	
2025-01-15 20:58:00.87	279.12	9.69	
2025-01-15 20:58:01.07	279.16	9.70	
2025-01-15 20:58:01.27	279.20	9.70	
2025-01-15 20:58:01.48	279.24	9.70	
2025-01-15 20:58:01.68	279.28	9.70	
2025-01-15 20:58:01.88	279.32	9.70	
2025-01-15 20:58:02.08	279.36	9.70	
2025-01-15 20:58:02.29	279.40	9.70	
2025-01-15 20:58:02.49	279.45	9.70	
2025-01-15 20:58:02.69	279.49	9.70	
2025-01-15 20:58:02.90	279.53	9.71	
2025-01-15 20:58:03.10	279.57	9.71	
2025-01-15 20:58:03.30	279.61	9.71	
2025-01-15 20:58:03.51	279.65	9.71	
2025-01-15 20:58:03.71	279.69	9.71	
2025-01-15 20:58:03.91	279.73	9.71	
2025-01-15 20:58:04.12	279.77	9.71	
2025-01-15 20:58:04.32	279.82	9.71	
2025-01-15 20:58:04.52	279.86	9.71	
2025-01-15 20:58:04.73	279.90	9.71	
2025-01-15 20:58:04.93	279.94	9.72	
2025-01-15 20:58:05.13	279.98	9.72	
2025-01-15 20:58:05.33	280.02	9.72	
2025-01-15 20:58:05.54	280.06	9.72	
2025-01-15 20:58:05.74	280.10	9.72	
2025-01-15 20:58:05.94	280.14	9.72	
2025-01-15 20:58:06.15	280.19	9.72	
2025-01-15 20:58:06.35	280.23	9.72	
2025-01-15 20:58:06.55	280.27	9.72	
2025-01-15 20:58:06.76	280.31	9.72	
2025-01-15 20:58:06.96	280.35	9.72	
2025-01-15 20:58:07.16	280.39	9.72	
2025-01-15 20:58:07.37	280.43	9.73	
2025-01-15 20:58:07.57	280.47	9.73	
2025-01-15 20:58:07.77	280.51	9.73	
2025-01-15 20:58:07.98	280.56	9.73	
2025-01-15 20:58:08.18	280.60	9.73	
2025-01-15 20:58:08.38	280.64	9.73	
2025-01-15 20:58:08.58	280.68	9.73	
2025-01-15 20:58:08.79	280.72	9.73	
2025-01-15 20:58:08.99	280.76	9.73	
2025-01-15 20:58:09.19	280.80	9.73	
2025-01-15 20:58:09.40	280.84	9.73	
2025-01-15 20:58:09.60	280.89	9.73	
2025-01-15 20:58:09.80	280.93	9.73	
2025-01-15 20:58:10.01	280.97	9.73	
2025-01-15 20:58:10.21	281.01	9.73	
2025-01-15 20:58:10.41	281.05	9.74	
2025-01-15 20:58:10.62	281.09	9.74	
2025-01-15 20:58:10.82	281.13	9.74	
2025-01-15 20:58:11.02	281.17	9.74	
2025-01-15 20:58:11.22	281.21	9.74	
2025-01-15 20:58:11.43	281.26	9.74	
2025-01-15 20:58:11.63	281.30	9.74	
2025-01-15 20:58:11.83	281.34	9.74	
2025-01-15 20:58:12.04	281.38	9.74	
2025-01-15 20:58:12.24	281.42	9.74	
2025-01-15 20:58:12.44	281.46	9.74	
2025-01-15 20:58:12.65	281.50	9.74	
2025-01-15 20:58:12.85	281.54	9.74	
2025-01-15 20:58:13.05	281.58	9.74	
2025-01-15 20:58:13.26	281.63	9.74	
2025-01-15 20:58:13.46	281.67	9.74	
2025-01-15 20:58:13.66	281.71	9.74	
2025-01-15 20:58:13.87	281.75	9.74	
2025-01-15 20:58:14.07	281.79	9.74	
2025-01-15 20:58:14.27	281.83	9.74	
2025-01-15 20:58:14.47	281.87	9.74	
2025-01-15 20:58:14.68	281.92	9.75	
2025-01-15 20:58:14.88	281.96	9.75	
2025-01-15 20:58:15.08	282.00	9.75	
2025-01-15 20:58:15.29	282.04	9.75	
2025-01-15 20:58:15.49	282.08	9.75	
2025-01-15 20:58:15.69	282.12	9.75	
2025-01-15 20:58:15.90	282.16	9.75	
2025-01-15 20:58:16.10	282.20	9.75	
2025-01-15 20:58:16.30	282.24	9.75	
2025-01-15 20:58:16.51	282.29	9.75	
2025-01-15 20:58:16.71	282.33	9.75	
2025-01-15 20:58:16.91	282.37	9.75	
2025-01-15 20:58:17.11	282.41	9.75	
2025-01-15 20:58:17.32	282.45	9.75	
2025-01-15 20:58:17.52	282.49	9.75	
2025-01-15 20:58:17.72	282.53	9.75	
2025-01-15 20:58:17.93	282.58	9.75	
2025-01-15 20:58:18.13	282.62	9.75	
2025-01-15 20:58:18.33	282.66	9.75	
2025-01-15 20:58:18.54	282.70	9.75	
2025-01-15 20:58:18.74	282.74	9.75	
2025-01-15 20:58:18.94	282.78	9.75	
2025-01-15 20:58:19.15	282.82	9.75	
2025-01-15 20:58:19.35	282.86	9.75	
2025-01-15 20:58:19.55	282.90	9.75	
2025-01-15 20:58:19.76	282.95	9.75	
2025-01-15 20:58:19.96	282.99	9.75	
2025-01-15 20:58:20.16	283.03	9.75	
2025-01-15 20:58:20.36	283.07	9.75	
2025-01-15 20:58:20.57	283.11	9.75	
2025-01-15 20:58:20.77	283.15	9.75	
2025-01-15 20:58:20.97	283.19	9.75	
2025-01-15 20:58:21.18	283.23	9.75	
2025-01-15 20:58:21.38	283.28	9.75	
2025-01-15 20:58:21.58	283.32	9.75	
2025-01-15 20:58:21.79	283.36	9.75	
2025-01-15 20:58:21.99	283.40	9.75	
2025-01-15 20:58:22.19	283.44	9.75	
2025-01-15 20:58:22.40	283.48	9.75	
2025-01-15 20:58:22.60	283.52	9.75	
2025-01-15 20:58:22.80	283.56	9.75	
2025-01-15 20:58:23.01	283.61	9.75	
2025-01-15 20:58:23.21	283.65	9.75	
2025-01-15 20:58:23.41	283.69	9.75	
2025-01-15 20:58:23.61	283.73	9.75	
2025-01-15 20:58:23.82	283.77	9.75	
2025-01-15 20:58:24.02	283.81	9.75	
2025-01-15 20:58:24.22	283.85	9.75	
2025-01-15 20:58:24.43	283.89	9.75	
2025-01-15 20:58:24.63	283.93	9.75	
2025-01-15 20:58:24.83	283.98	9.75	
2025-01-15 20:58:25.04	284.02	9.75	
2025-01-15 20:58:25.24	284.06	9.75	
2025-01-15 20:58:25.44	284.10	9.75	
2025-01-15 20:58:25.65	284.14	9.74	
2025-01-15 20:58:25.85	284.18	9.74	
2025-01-15 20:58:26.05	284.22	9.74	
2025-01-15 20:58:26.25	284.26	9.74	
2025-01-15 20:58:26.46	284.31	9.74	
2025-01-15 20:58:26.66	284.35	9.74	
2025-01-15 20:58:26.86	284.39	9.74	
2025-01-15 20:58:27.07	284.43	9.74	
2025-01-15 20:58:27.27	284.47	9.74	
2025-01-15 20:58:27.47	284.51	9.74	
2025-01-15 20:58:27.68	284.55	9.74	
2025-01-15 20:58:27.88	284.59	9.74	
2025-01-15 20:58:28.08	284.63	9.74	
2025-01-15 20:58:28.29	284.68	9.74	
2025-01-15 20:58:28.49	284.72	9.74	
2025-01-15 20:58:28.69	284.76	9.74	
2025-01-15 20:58:28.90	284.80	9.74	
2025-01-15 20:58:29.10	284.84	9.74	
2025-01-15 20:58:29.30	284.88	9.74	
2025-01-15 20:58:29.50	284.92	9.74	
2025-01-15 20:58:29.71	284.96	9.74	
2025-01-15 20:58:29.91	285.01	9.74	
2025-01-15 20:58:30.11	285.05	9.73	
2025-01-15 20:58:30.32	285.09	9.73	
2025-01-15 20:58:30.52	285.13	9.73	
2025-01-15 20:58:30.72	285.17	9.73	
2025-01-15 20:58:30.93	285.21	9.73	
2025-01-15 20:58:31.13	285.25	9.73	
2025-01-15 20:58:31.33	285.29	9.73	
2025-01-15 20:58:31.54	285.34	9.73	
2025-01-15 20:58:31.74	285.38	9.73	
2025-01-15 20:58:31.94	285.42	9.73	
2025-01-15 20:58:32.14	285.46	9.73	
2025-01-15 20:58:32.35	285.50	9.73	
2025-01-15 20:58:32.55	285.54	9.73	
2025-01-15 20:58:32.75	285.58	9.73	
2025-01-15 20:58:32.96	285.62	9.72	
2025-01-15 20:58:33.16	285.66	9.72	
2025-01-15 20:58:33.36	285.70	9.72	
2025-01-15 20:58:33.57	285.75	9.72	
2025-01-15 20:58:33.77	285.79	9.72	
2025-01-15 20:58:33.97	285.83	9.72	
2025-01-15 20:58:34.18	285.87	9.72	
2025-01-15 20:58:34.38	285.91	9.72	
2025-01-15 20:58:34.58	285.95	9.72	
2025-01-15 20:58:34.79	285.99	9.72	
2025-01-15 20:58:34.99	286.03	9.72	
2025-01-15 20:58:35.19	286.07	9.72	
2025-01-15 20:58:35.39	286.12	9.71	
2025-01-15 20:58:35.60	286.16	9.71	
2025-01-15 20:58:35.80	286.20	9.71	
2025-01-15 20:58:36.00	286.24	9.71	
2025-01-15 20:58:36.21	286.28	9.71	
2025-01-15 20:58:36.41	286.32	9.71	
2025-01-15 20:58:36.61	286.36	9.71	
2025-01-15 20:58:36.82	286.40	9.71	
2025-01-15 20:58:37.02	286.44	9.71	
2025-01-15 20:58:37.22	286.49	9.71	
2025-01-15 20:58:37.43	286.53	9.70	
2025-01-15 20:58:37.63	286.57	9.70	
2025-01-15 20:58:37.83	286.61	9.70	
2025-01-15 20:58:38.04	286.65	9.70	
2025-01-15 20:58:38.24	286.69	9.70	
2025-01-15 20:58:38.44	286.73	9.70	
2025-01-15 20:58:38.64	286.77	9.70	
2025-01-15 20:58:38.85	286.81	9.70	
2025-01-15 20:58:39.05	286.86	9.70	
2025-01-15 20:58:39.25	286.90	9.69	
2025-01-15 20:58:39.46	286.94	9.69	
2025-01-15 20:58:39.66	286.98	9.69	
2025-01-15 20:58:39.86	287.02	9.69	
2025-01-15 20:58:40.07	287.06	9.69	
2025-01-15 20:58:40.27	287.10	9.69	
2025-01-15 20:58:40.47	287.14	9.69	
2025-01-15 20:58:40.68	287.18	9.69	
2025-01-15 20:58:40.88	287.22	9.69	
2025-01-15 20:58:41.08	287.27	9.68	
2025-01-15 20:58:41.28	287.31	9.68	
2025-01-15 20:58:41.49	287.35	9.68	
2025-01-15 20:58:41.69	287.39	9.68	
2025-01-15 20:58:41.89	287.43	9.68	
2025-01-15 20:58:42.10	287.47	9.68	
2025-01-15 20:58:42.30	287.51	9.68	
2025-01-15 20:58:42.50	287.55	9.67	
2025-01-15 20:58:42.71	287.59	9.67	
2025-01-15 20:58:42.91	287.63	9.67	
2025-01-15 20:58:43.11	287.67	9.67	
2025-01-15 20:58:43.32	287.72	9.67	
2025-01-15 20:58:43.52	287.76	9.67	
2025-01-15 20:58:43.72	287.80	9.67	
2025-01-15 20:58:43.93	287.84	9.67	
2025-01-15 20:58:44.13	287.88	9.66	
2025-01-15 20:58:44.33	287.92	9.66	
2025-01-15 20:58:44.53	287.96	9.66	
2025-01-15 20:58:44.74	288.00	9.66	
2025-01-15 20:58:44.94	288.04	9.66	
2025-01-15 20:58:45.14	288.08	9.66	
2025-01-15 20:58:45.35	288.13	9.65	
2025-01-15 20:58:45.55	288.17	9.65	
2025-01-15 20:58:45.75	288.21	9.65	
2025-01-15 20:58:45.96	288.25	9.65	
2025-01-15 20:58:46.16	288.29	9.65	
2025-01-15 20:58:46.36	288.33	9.65	
2025-01-15 20:58:46.57	288.37	9.65	
2025-01-15 20:58:46.77	288.41	9.64	
2025-01-15 20:58:46.97	288.45	9.64	
2025-01-15 20:58:47.18	288.49	9.64	
2025-01-15 20:58:47.38	288.54	9.64	
2025-01-15 20:58:47.58	288.58	9.64	
2025-01-15 20:58:47.78	288.62	9.64	
2025-01-15 20:58:47.99	288.66	9.63	
2025-01-15 20:58:48.19	288.70	9.63	
2025-01-15 20:58:48.39	288.74	9.63	
2025-01-15 20:58:48.60	288.78	9.63	
2025-01-15 20:58:48.80	288.82	9.63	
2025-01-15 20:58:49.00	288.86	9.63	
2025-01-15 20:58:49.21	288.90	9.62	
2025-01-15 20:58:49.41	288.94	9.62	
2025-01-15 20:58:49.61	288.98	9.62	
2025-01-15 20:58:49.82	289.03	9.62	
2025-01-15 20:58:50.02	289.07	9.62	
2025-01-15 20:58:50.22	289.11	9.61	
2025-01-15 20:58:50.42	289.15	9.61	
2025-01-15 20:58:50.63	289.19	9.61	
2025-01-15 20:58:50.83	289.23	9.61	
2025-01-15 20:58:51.03	289.27	9.61	
2025-01-15 20:58:51.24	289.31	9.61	
2025-01-15 20:58:51.44	289.35	9.60	
2025-01-15 20:58:51.64	289.39	9.60	
2025-01-15 20:58:51.85	289.43	9.60	
2025-01-15 20:58:52.05	289.47	9.60	
2025-01-15 20:58:52.25	289.51	9.60	
2025-01-15 20:58:52.46	289.56	9.59	
2025-01-15 20:58:52.66	289.60	9.59	
2025-01-15 20:58:52.86	289.64	9.59	
2025-01-15 20:58:53.07	289.68	9.59	
2025-01-15 20:58:53.27	289.72	9.59	
2025-01-15 20:58:53.47	289.76	9.58	
2025-01-15 20:58:53.67	289.80	9.58	
2025-01-15 20:58:53.88	289.84	9.58	
2025-01-15 20:58:54.08	289.88	9.58	
2025-01-15 20:58:54.28	289.92	9.58	
2025-01-15 20:58:54.49	289.96	9.57	
2025-01-15 20:58:54.69	290.00	9.57	
2025-01-15 20:58:54.89	290.04	9.57	
2025-01-15 20:58:55.10	290.08	9.57	
2025-01-15 20:58:55.30	290.12	9.57	
2025-01-15 20:58:55.50	290.16	9.56	
2025-01-15 20:58:55.71	290.21	9.56	
2025-01-15 20:58:55.91	290.25	9.56	
2025-01-15 20:58:56.11	290.29	9.56	
2025-01-15 20:58:56.31	290.33	9.56	
2025-01-15 20:58:56.52	290.37	9.55	
2025-01-15 20:58:56.72	290.41	9.55	
2025-01-15 20:58:56.92	290.45	9.55	
2025-01-15 20:58:57.13	290.49	9.55	
2025-01-15 20:58:57.33	290.53	9.54	
2025-01-15 20:58:57.53	290.57	9.54	
2025-01-15 20:58:57.74	290.61	9.54	
2025-01-15 20:58:57.94	290.65	9.54	
2025-01-15 20:58:58.14	290.69	9.54	
2025-01-15 20:58:58.35	290.73	9.53	
2025-01-15 20:58:58.55	290.77	9.53	
2025-01-15 20:58:58.75	290.81	9.53	
2025-01-15 20:58:58.96	290.86	9.53	
2025-01-15 20:58:59.16	290.90	9.52	
2025-01-15 20:58:59.36	290.94	9.52	
2025-01-15 20:58:59.56	290.98	9.52	
2025-01-15 20:58:59.77	291.02	9.52	
2025-01-15 20:58:59.97	291.06	9.51	
2025-01-15 20:59:00.17	291.10	9.51	
2025-01-15 20:59:00.38	291.14	9.51	
2025-01-15 20:59:00.58	291.18	9.51	
2025-01-15 20:59:00.78	291.22	9.51	
2025-01-15 20:59:00.99	291.26	9.50	
2025-01-15 20:59:01.19	291.30	9.50	
2025-01-15 20:59:01.39	291.34	9.50	
2025-01-15 20:59:01.60	291.38	9.50	
2025-01-15 20:59:01.80	291.42	9.49	
2025-01-15 20:59:02.00	291.46	9.49	
2025-01-15 20:59:02.20	291.50	9.49	
2025-01-15 20:59:02.41	291.54	9.49	
2025-01-15 20:59:02.61	291.58	9.48	
2025-01-15 20:59:02.81	291.62	9.48	
2025-01-15 20:59:03.02	291.66	9.48	
2025-01-15 20:59:03.22	291.70	9.48	
2025-01-15 20:59:03.42	291.74	9.47	
2025-01-15 20:59:03.63	291.79	9.47	
2025-01-15 20:59:03.83	291.83	9.47	
2025-01-15 20:59:04.03	291.86	9.46	
2025-01-15 20:59:04.24	291.91	9.46	
2025-01-15 20:59:04.44	291.95	9.46	
2025-01-15 20:59:04.64	291.99	9.46	
2025-01-15 20:59:04.85	292.03	9.45	
2025-01-15 20:59:05.05	292.07	9.45	
2025-01-15 20:59:05.25	292.11	9.45	
2025-01-15 20:59:05.45	292.15	9.45	
2025-01-15 20:59:05.66	292.19	9.44	
2025-01-15 20:59:05.86	292.23	9.44	
2025-01-15 20:59:06.06	292.27	9.44	
2025-01-15 20:59:06.27	292.31	9.44	
2025-01-15 20:59:06.47	292.35	9.43	
2025-01-15 20:59:06.67	292.39	9.43	
2025-01-15 20:59:06.88	292.43	9.43	
2025-01-15 20:59:07.08	292.47	9.42	
2025-01-15 20:59:07.28	292.51	9.42	
2025-01-15 20:59:07.49	292.55	9.42	
2025-01-15 20:59:07.69	292.59	9.42	
2025-01-15 20:59:07.89	292.63	9.41	
2025-01-15 20:59:08.10	292.67	9.41	
2025-01-15 20:59:08.30	292.71	9.41	
2025-01-15 20:59:08.50	292.75	9.40	
2025-01-15 20:59:08.70	292.79	9.40	
2025-01-15 20:59:08.91	292.83	9.40	
2025-01-15 20:59:09.11	292.87	9.40	
2025-01-15 20:59:09.31	292.91	9.39	
2025-01-15 20:59:09.52	292.95	9.39	
2025-01-15 20:59:09.72	292.99	9.39	
2025-01-15 20:59:09.92	293.03	9.38	
2025-01-15 20:59:10.13	293.07	9.38	
2025-01-15 20:59:10.33	293.11	9.38	
2025-01-15 20:59:10.53	293.15	9.38	
2025-01-15 20:59:10.74	293.19	9.37	
2025-01-15 20:59:10.94	293.23	9.37	
2025-01-15 20:59:11.14	293.27	9.37	
2025-01-15 20:59:11.34	293.31	9.36	
2025-01-15 20:59:11.55	293.35	9.36	
2025-01-15 20:59:11.75	293.39	9.36	
2025-01-15 20:59:11.95	293.43	9.35	
2025-01-15 20:59:12.16	293.47	9.35	
2025-01-15 20:59:12.36	293.51	9.35	
2025-01-15 20:59:12.56	293.55	9.35	
2025-01-15 20:59:12.77	293.59	9.34	
2025-01-15 20:59:12.97	293.63	9.34	
2025-01-15 20:59:13.17	293.67	9.34	
2025-01-15 20:59:13.38	293.71	9.33	
2025-01-15 20:59:13.58	293.75	9.33	
2025-01-15 20:59:13.78	293.79	9.33	
2025-01-15 20:59:13.99	293.83	9.32	
2025-01-15 20:59:14.19	293.87	9.32	
2025-01-15 20:59:14.39	293.91	9.32	
2025-01-15 20:59:14.59	293.95	9.31	
2025-01-15 20:59:14.80	293.99	9.31	
2025-01-15 20:59:15.00	294.03	9.31	
2025-01-15 20:59:15.20	294.07	9.30	
2025-01-15 20:59:15.41	294.11	9.30	
2025-01-15 20:59:15.61	294.15	9.30	
2025-01-15 20:59:15.81	294.19	9.30	
2025-01-15 20:59:16.02	294.23	9.29	
2025-01-15 20:59:16.22	294.27	9.29	
2025-01-15 20:59:16.42	294.31	9.29	
2025-01-15 20:59:16.63	294.35	9.28	
2025-01-15 20:59:16.83	294.39	9.28	
2025-01-15 20:59:17.03	294.43	9.28	
2025-01-15 20:59:17.24	294.47	9.27	
2025-01-15 20:59:17.44	294.51	9.27	
2025-01-15 20:59:17.64	294.55	9.27	
2025-01-15 20:59:17.84	294.59	9.26	
2025-01-15 20:59:18.05	294.63	9.26	
2025-01-15 20:59:18.25	294.67	9.26	
2025-01-15 20:59:18.45	294.71	9.25	
2025-01-15 20:59:18.66	294.75	9.25	
2025-01-15 20:59:18.86	294.79	9.25	
2025-01-15 20:59:19.06	294.83	9.24	
2025-01-15 20:59:19.27	294.87	9.24	
2025-01-15 20:59:19.47	294.91	9.23	
2025-01-15 20:59:19.67	294.95	9.23	
2025-01-15 20:59:19.88	294.99	9.23	
2025-01-15 20:59:20.08	295.03	9.22	
2025-01-15 20:59:20.28	295.06	9.22	
2025-01-15 20:59:20.48	295.10	9.22	
2025-01-15 20:59:20.69	295.14	9.21	
2025-01-15 20:59:20.89	295.18	9.21	
2025-01-15 20:59:21.09	295.22	9.21	
2025-01-15 20:59:21.30	295.26	9.20	
2025-01-15 20:59:21.50	295.30	9.20	
2025-01-15 20:59:21.70	295.34	9.20	
2025-01-15 20:59:21.91	295.38	9.19	
2025-01-15 20:59:22.11	295.42	9.19	
2025-01-15 20:59:22.31	295.46	9.19	
2025-01-15 20:59:22.52	295.50	9.18	
2025-01-15 20:59:22.72	295.54	9.18	
2025-01-15 20:59:22.92	295.58	9.17	
2025-01-15 20:59:23.13	295.62	9.17	
2025-01-15 20:59:23.33	295.66	9.17	
2025-01-15 20:59:23.53	295.70	9.16	
2025-01-15 20:59:23.73	295.74	9.16	
2025-01-15 20:59:23.94	295.78	9.16	
2025-01-15 20:59:24.14	295.82	9.15	
2025-01-15 20:59:24.34	295.85	9.15	
2025-01-15 20:59:24.55	295.90	9.15	
2025-01-15 20:59:24.75	295.93	9.14	
2025-01-15 20:59:24.95	295.97	9.14	
2025-01-15 20:59:25.16	296.01	9.13	
2025-01-15 20:59:25.36	296.05	9.13	
2025-01-15 20:59:25.56	296.09	9.13	
2025-01-15 20:59:25.77	296.13	9.12	
2025-01-15 20:59:25.97	296.17	9.12	
2025-01-15 20:59:26.17	296.21	9.12	
2025-01-15 20:59:26.38	296.25	9.11	
2025-01-15 20:59:26.58	296.29	9.11	
2025-01-15 20:59:26.78	296.33	9.10	
2025-01-15 20:59:26.98	296.37	9.10	
2025-01-15 20:59:27.19	296.41	9.10	
2025-01-15 20:59:27.39	296.45	9.09	
2025-01-15 20:59:27.59	296.48	9.09	
2025-01-15 20:59:27.80	296.52	9.08	
2025-01-15 20:59:28.00	296.56	9.08	
2025-01-15 20:59:28.20	296.60	9.08	
2025-01-15 20:59:28.41	296.64	9.07	
2025-01-15 20:59:28.61	296.68	9.07	
2025-01-15 20:59:28.81	296.72	9.07	
2025-01-15 20:59:29.02	296.76	9.06	
2025-01-15 20:59:29.22	296.80	9.06	
2025-01-15 20:59:29.42	296.84	9.05	
2025-01-15 20:59:29.62	296.88	9.05	
2025-01-15 20:59:29.83	296.92	9.05	
2025-01-15 20:59:30.03	296.95	9.04	
2025-01-15 20:59:30.23	296.99	9.04	
2025-01-15 20:59:30.44	297.03	9.03	
2025-01-15 20:59:30.64	297.07	9.03	
2025-01-15 20:59:30.84	297.11	9.03	
2025-01-15 20:59:31.05	297.15	9.02	
2025-01-15 20:59:31.25	297.19	9.02	
2025-01-15 20:59:31.45	297.23	9.01	
2025-01-15 20:59:31.66	297.27	9.01	
2025-01-15 20:59:31.86	297.31	9.00	
2025-01-15 20:59:32.06	297.34	9.00	
2025-01-15 20:59:32.27	297.38	9.00	
2025-01-15 20:59:32.47	297.42	8.99	
2025-01-15 20:59:32.67	297.46	8.99	
2025-01-15 20:59:32.87	297.50	8.98	
2025-01-15 20:59:33.08	297.54	8.98	
2025-01-15 20:59:33.28	297.58	8.98	
2025-01-15 20:59:33.48	297.62	8.97	
2025-01-15 20:59:33.69	297.66	8.97	
2025-01-15 20:59:33.89	297.70	8.96	
2025-01-15 20:59:34.09	297.73	8.96	
2025-01-15 20:59:34.30	297.77	8.96	
2025-01-15 20:59:34.50	297.81	8.95	
2025-01-15 20:59:34.70	297.85	8.95	
2025-01-15 20:59:34.91	297.89	8.94	
2025-01-15 20:59:35.11	297.93	8.94	
2025-01-15 20:59:35.31	297.97	8.93	
2025-01-15 20:59:35.51	298.01	8.93	
2025-01-15 20:59:35.72	298.05	8.93	
2025-01-15 20:59:35.92	298.08	8.92	
2025-01-15 20:59:36.12	298.12	8.92	
2025-01-15 20:59:36.33	298.16	8.91	
2025-01-15 20:59:36.53	298.20	8.91	
2025-01-15 20:59:36.73	298.24	8.90	
2025-01-15 20:59:36.94	298.28	8.90	
2025-01-15 20:59:37.14	298.32	8.90	
2025-01-15 20:59:37.34	298.35	8.89	
2025-01-15 20:59:37.55	298.39	8.89	
2025-01-15 20:59:37.75	298.43	8.88	
2025-01-15 20:59:37.95	298.47	8.88	
2025-01-15 20:59:38.16	298.51	8.87	
2025-01-15 20:59:38.36	298.55	8.87	
2025-01-15 20:59:38.56	298.59	8.86	
2025-01-15 20:59:38.76	298.62	8.86	
2025-01-15 20:59:38.97	298.66	8.86	
2025-01-15 20:59:39.17	298.70	8.85	
2025-01-15 20:59:39.37	298.74	8.85	
2025-01-15 20:59:39.58	298.78	8.84	
2025-01-15 20:59:39.78	298.82	8.84	
2025-01-15 20:59:39.98	298.86	8.83	
2025-01-15 20:59:40.19	298.90	8.83	
2025-01-15 20:59:40.39	298.93	8.82	
2025-01-15 20:59:40.59	298.97	8.82	
2025-01-15 20:59:40.80	299.01	8.82	
2025-01-15 20:59:41.00	299.05	8.81	
2025-01-15 20:59:41.20	299.09	8.81	
2025-01-15 20:59:41.41	299.13	8.80	
2025-01-15 20:59:41.61	299.16	8.80	
2025-01-15 20:59:41.81	299.20	8.79	
2025-01-15 20:59:42.01	299.24	8.79	
2025-01-15 20:59:42.22	299.28	8.78	
2025-01-15 20:59:42.42	299.32	8.78	
2025-01-15 20:59:42.62	299.36	8.77	
2025-01-15 20:59:42.83	299.39	8.77	
2025-01-15 20:59:43.03	299.43	8.77	
2025-01-15 20:59:43.23	299.47	8.76	
2025-01-15 20:59:43.44	299.51	8.76	
2025-01-15 20:59:43.64	299.55	8.75	
2025-01-15 20:59:43.84	299.59	8.75	
2025-01-15 20:59:44.05	299.62	8.74	
2025-01-15 20:59:44.25	299.66	8.74	
2025-01-15 20:59:44.45	299.70	8.73	
2025-01-15 20:59:44.65	299.74	8.73	
2025-01-15 20:59:44.86	299.78	8.72	
2025-01-15 20:59:45.06	299.81	8.72	
2025-01-15 20:59:45.26	299.85	8.71	
2025-01-15 20:59:45.47	299.89	8.71	
2025-01-15 20:59:45.67	299.93	8.70	
2025-01-15 20:59:45.87	299.97	8.70	
2025-01-15 20:59:46.08	300.01	8.69	
2025-01-15 20:59:46.28	300.04	8.69	
2025-01-15 20:59:46.48	300.08	8.69	
2025-01-15 20:59:46.69	300.12	8.68	
2025-01-15 20:59:46.89	300.16	8.68	
2025-01-15 20:59:47.09	300.20	8.67	
2025-01-15 20:59:47.30	300.24	8.67	
2025-01-15 20:59:47.50	300.27	8.66	
2025-01-15 20:59:47.70	300.31	8.66	
2025-01-15 20:59:47.90	300.35	8.65	
2025-01-15 20:59:48.11	300.39	8.65	
2025-01-15 20:59:48.31	300.42	8.64	
2025-01-15 20:59:48.51	300.46	8.64	
2025-01-15 20:59:48.72	300.50	8.63	
2025-01-15 20:59:48.92	300.54	8.63	
2025-01-15 20:59:49.12	300.58	8.62	
2025-01-15 20:59:49.33	300.61	8.62	
2025-01-15 20:59:49.53	300.65	8.61	
2025-01-15 20:59:49.73	300.69	8.61	
2025-01-15 20:59:49.94	300.73	8.60	
2025-01-15 20:59:50.14	300.77	8.60	
2025-01-15 20:59:50.34	300.80	8.59	
2025-01-15 20:59:50.54	300.84	8.59	
2025-01-15 20:59:50.75	300.88	8.58	
2025-01-15 20:59:50.95	300.92	8.58	
2025-01-15 20:59:51.15	300.95	8.57	
2025-01-15 20:59:51.36	300.99	8.57	
2025-01-15 20:59:51.56	301.03	8.56	
2025-01-15 20:59:51.76	301.07	8.56	
2025-01-15 20:59:51.97	301.11	8.55	
2025-01-15 20:59:52.17	301.14	8.55	
2025-01-15 20:59:52.37	301.18	8.54	
2025-01-15 20:59:52.58	301.22	8.54	
2025-01-15 20:59:52.78	301.26	8.53	
2025-01-15 20:59:52.98	301.29	8.53	
2025-01-15 20:59:53.19	301.33	8.52	
2025-01-15 20:59:53.39	301.37	8.52	
2025-01-15 20:59:53.59	301.41	8.51	
2025-01-15 20:59:53.79	301.44	8.51	
2025-01-15 20:59:54.00	301.48	8.50	
2025-01-15 20:59:54.20	301.52	8.50	
2025-01-15 20:59:54.40	301.56	8.49	
2025-01-15 20:59:54.61	301.60	8.49	
2025-01-15 20:59:54.81	301.63	8.48	
2025-01-15 20:59:55.01	301.67	8.48	
2025-01-15 20:59:55.22	301.71	8.47	
2025-01-15 20:59:55.42	301.74	8.47	
2025-01-15 20:59:55.62	301.78	8.46	
2025-01-15 20:59:55.83	301.82	8.46	
2025-01-15 20:59:56.03	301.86	8.45	
2025-01-15 20:59:56.23	301.89	8.44	
2025-01-15 20:59:56.44	301.93	8.44	
2025-01-15 20:59:56.64	301.97	8.43	
2025-01-15 20:59:56.84	302.01	8.43	
2025-01-15 20:59:57.04	302.04	8.42	
2025-01-15 20:59:57.25	302.08	8.42	
2025-01-15 20:59:57.45	302.12	8.41	
2025-01-15 20:59:57.65	302.16	8.41	
2025-01-15 20:59:57.86	302.19	8.40	
2025-01-15 20:59:58.06	302.23	8.40	
2025-01-15 20:59:58.26	302.27	8.39	
2025-01-15 20:59:58.47	302.31	8.39	
2025-01-15 20:59:58.67	302.34	8.38	
2025-01-15 20:59:58.87	302.38	8.38	
2025-01-15 20:59:59.08	302.42	8.37	
2025-01-15 20:59:59.28	302.45	8.37	
2025-01-15 20:59:59.48	302.49	8.36	
2025-01-15 20:59:59.68	302.53	8.35	
2025-01-15 20:59:59.89	302.57	8.35	
2025-01-15 21:00:00.09	302.60	8.34	
2025-01-15 21:00:00.29	302.64	8.34	
2025-01-15 21:00:00.51	302.68	8.33	
2025-01-15 21:00:00.71	302.72	8.33	
2025-01-15 21:00:00.91	302.75	8.32	
2025-01-15 21:00:01.12	302.79	8.32	
2025-01-15 21:00:01.32	302.83	8.31	
2025-01-15 21:00:01.52	302.86	8.31	
2025-01-15 21:00:01.74	302.90	8.30	
2025-01-15 21:00:01.94	302.94	8.29	
2025-01-15 21:00:02.14	302.98	8.29	
2025-01-15 21:00:02.35	303.02	8.28	
2025-01-15 21:00:02.55	303.05	8.28	
2025-01-15 21:00:02.77	303.09	8.27	
2025-01-15 21:00:02.97	303.13	8.27	
2025-01-15 21:00:03.18	303.17	8.26	
2025-01-15 21:00:03.39	303.20	8.26	
2025-01-15 21:00:03.59	303.24	8.25	
2025-01-15 21:00:03.80	303.28	8.24	
2025-01-15 21:00:04.00	303.32	8.24	
2025-01-15 21:00:04.20	303.35	8.23	
2025-01-15 21:00:04.41	303.39	8.23	
2025-01-15 21:00:04.61	303.43	8.22	
2025-01-15 21:00:04.81	303.46	8.22	
2025-01-15 21:00:05.02	303.50	8.21	
2025-01-15 21:00:05.22	303.54	8.21	
2025-01-15 21:00:05.42	303.57	8.20	
2025-01-15 21:00:05.63	303.61	8.19	
2025-01-15 21:00:05.83	303.65	8.19	
2025-01-15 21:00:06.03	303.68	8.18	
2025-01-15 21:00:06.24	303.72	8.18	
2025-01-15 21:00:06.44	303.76	8.17	
2025-01-15 21:00:06.64	303.79	8.17	
2025-01-15 21:00:06.84	303.83	8.16	
2025-01-15 21:00:07.05	303.87	8.15	
2025-01-15 21:00:07.25	303.90	8.15	
2025-01-15 21:00:07.45	303.94	8.14	
2025-01-15 21:00:07.66	303.98	8.14	
2025-01-15 21:00:07.86	304.01	8.13	
2025-01-15 21:00:08.06	304.05	8.13	
2025-01-15 21:00:08.27	304.09	8.12	
2025-01-15 21:00:08.47	304.12	8.11	
2025-01-15 21:00:08.67	304.16	8.11	
2025-01-15 21:00:08.88	304.20	8.10	
2025-01-15 21:00:09.08	304.23	8.10	
2025-01-15 21:00:09.28	304.27	8.09	
2025-01-15 21:00:09.49	304.31	8.09	
2025-01-15 21:00:09.69	304.34	8.08	
2025-01-15 21:00:09.89	304.38	8.07	
2025-01-15 21:00:10.09	304.41	8.07	
2025-01-15 21:00:10.30	304.45	8.06	
2025-01-15 21:00:10.50	304.49	8.06	
2025-01-15 21:00:10.70	304.52	8.05	
2025-01-15 21:00:10.91	304.56	8.05	
2025-01-15 21:00:11.11	304.60	8.04	
2025-01-15 21:00:11.31	304.63	8.03	
2025-01-15 21:00:11.52	304.67	8.03	
2025-01-15 21:00:11.72	304.71	8.02	
2025-01-15 21:00:11.92	304.74	8.02	
2025-01-15 21:00:12.13	304.78	8.01	
2025-01-15 21:00:12.33	304.82	8.00	
2025-01-15 21:00:12.53	304.85	8.00	
2025-01-15 21:00:12.73	304.89	7.99	
2025-01-15 21:00:12.94	304.92	7.99	
2025-01-15 21:00:13.14	304.96	7.98	
2025-01-15 21:00:13.34	305.00	7.98	
2025-01-15 21:00:13.55	305.03	7.97	
2025-01-15 21:00:13.75	305.07	7.96	
2025-01-15 21:00:13.95	305.10	7.96	
2025-01-15 21:00:14.16	305.14	7.95	
2025-01-15 21:00:14.36	305.18	7.95	
2025-01-15 21:00:14.56	305.21	7.94	
2025-01-15 21:00:14.77	305.25	7.93	
2025-01-15 21:00:14.97	305.29	7.93	
2025-01-15 21:00:15.17	305.32	7.92	
2025-01-15 21:00:15.38	305.36	7.92	
2025-01-15 21:00:15.58	305.39	7.91	
2025-01-15 21:00:15.78	305.43	7.90	
2025-01-15 21:00:15.98	305.46	7.90	
2025-01-15 21:00:16.19	305.50	7.89	
2025-01-15 21:00:16.39	305.54	7.89	
2025-01-15 21:00:16.59	305.57	7.88	
2025-01-15 21:00:16.80	305.61	7.87	
2025-01-15 21:00:17.00	305.64	7.87	
2025-01-15 21:00:17.20	305.68	7.86	
2025-01-15 21:00:17.41	305.72	7.86	
