passes_logs/2025/01/15/SPB_Silybum_02/SPB_Silybum_02__20250115_062225_TERRA_rec.log

#Pass ID: 20250115_062225_TERRA
#Satellite: TERRA
#Configuration: TERRA
#Start time: 2025-01-15 06:22:23

#Version: 2.0.20230423
#Station: SPB_Silybum_02
#Location: 30.233357 lon 59.946436 lat
#TLE: 1 25994U 99068A   25014.85746573  .00000777  00000+0  16972-3 0  9996
#TLE: 2 25994  98.0216  77.8924 0003456  72.8612  46.8876 14.60394566334056

#Time	Az	El	Level	Level2	SNR	BER	Gain	Gain2
2025-01-15 06:22:26.04	32.58	4.01	
2025-01-15 06:22:26.24	32.60	4.02	
2025-01-15 06:22:26.45	32.62	4.03	
2025-01-15 06:22:26.65	32.65	4.04	
2025-01-15 06:22:26.85	32.67	4.05	
2025-01-15 06:22:27.06	32.69	4.07	
2025-01-15 06:22:27.26	32.72	4.08	
2025-01-15 06:22:27.46	32.74	4.09	
2025-01-15 06:22:27.67	32.77	4.10	
2025-01-15 06:22:27.87	32.79	4.11	
2025-01-15 06:22:28.07	32.81	4.12	
2025-01-15 06:22:28.27	32.84	4.13	
2025-01-15 06:22:28.48	32.86	4.14	
2025-01-15 06:22:28.68	32.88	4.15	
2025-01-15 06:22:28.88	32.91	4.16	
2025-01-15 06:22:29.09	32.93	4.17	
2025-01-15 06:22:29.29	32.95	4.18	
2025-01-15 06:22:29.49	32.98	4.19	
2025-01-15 06:22:29.70	33.00	4.20	
2025-01-15 06:22:29.90	33.03	4.21	
2025-01-15 06:22:30.10	33.05	4.22	
2025-01-15 06:22:30.31	33.07	4.23	
2025-01-15 06:22:30.51	33.10	4.24	
2025-01-15 06:22:30.71	33.12	4.25	
2025-01-15 06:22:30.91	33.15	4.26	
2025-01-15 06:22:31.12	33.17	4.27	
2025-01-15 06:22:31.32	33.19	4.28	
2025-01-15 06:22:31.52	33.22	4.29	
2025-01-15 06:22:31.73	33.24	4.30	
2025-01-15 06:22:31.93	33.27	4.31	
2025-01-15 06:22:32.13	33.29	4.32	
2025-01-15 06:22:32.34	33.31	4.33	
2025-01-15 06:22:32.54	33.34	4.34	
2025-01-15 06:22:32.74	33.36	4.35	
2025-01-15 06:22:32.95	33.39	4.36	
2025-01-15 06:22:33.15	33.41	4.37	
2025-01-15 06:22:33.35	33.43	4.38	
2025-01-15 06:22:33.55	33.46	4.39	
2025-01-15 06:22:33.76	33.48	4.40	
2025-01-15 06:22:33.96	33.51	4.41	
2025-01-15 06:22:34.16	33.53	4.42	
2025-01-15 06:22:34.37	33.56	4.43	
2025-01-15 06:22:34.57	33.58	4.44	
2025-01-15 06:22:34.77	33.60	4.45	
2025-01-15 06:22:34.98	33.63	4.47	
2025-01-15 06:22:35.18	33.65	4.48	
2025-01-15 06:22:35.38	33.68	4.49	
2025-01-15 06:22:35.59	33.70	4.50	
2025-01-15 06:22:35.79	33.73	4.51	
2025-01-15 06:22:35.99	33.75	4.52	
2025-01-15 06:22:36.19	33.77	4.53	
2025-01-15 06:22:36.40	33.80	4.54	
2025-01-15 06:22:36.60	33.82	4.55	
2025-01-15 06:22:36.80	33.85	4.56	
2025-01-15 06:22:37.01	33.87	4.57	
2025-01-15 06:22:37.21	33.90	4.58	
2025-01-15 06:22:37.41	33.92	4.59	
2025-01-15 06:22:37.62	33.95	4.60	
2025-01-15 06:22:37.82	33.97	4.61	
2025-01-15 06:22:38.02	33.99	4.62	
2025-01-15 06:22:38.23	34.02	4.63	
2025-01-15 06:22:38.43	34.04	4.64	
2025-01-15 06:22:38.63	34.07	4.65	
2025-01-15 06:22:38.84	34.09	4.66	
2025-01-15 06:22:39.04	34.12	4.67	
2025-01-15 06:22:39.24	34.14	4.68	
2025-01-15 06:22:39.44	34.17	4.69	
2025-01-15 06:22:39.65	34.19	4.70	
2025-01-15 06:22:39.85	34.22	4.71	
2025-01-15 06:22:40.05	34.24	4.72	
2025-01-15 06:22:40.26	34.27	4.73	
2025-01-15 06:22:40.46	34.29	4.74	
2025-01-15 06:22:40.66	34.31	4.75	
2025-01-15 06:22:40.87	34.34	4.76	
2025-01-15 06:22:41.07	34.36	4.77	
2025-01-15 06:22:41.27	34.39	4.78	
2025-01-15 06:22:41.48	34.41	4.79	
2025-01-15 06:22:41.68	34.44	4.80	
2025-01-15 06:22:41.88	34.46	4.81	
2025-01-15 06:22:42.08	34.49	4.82	
2025-01-15 06:22:42.29	34.51	4.84	
2025-01-15 06:22:42.49	34.54	4.85	
2025-01-15 06:22:42.69	34.56	4.86	
2025-01-15 06:22:42.90	34.59	4.87	
2025-01-15 06:22:43.10	34.61	4.88	
2025-01-15 06:22:43.30	34.64	4.89	
2025-01-15 06:22:43.51	34.66	4.90	
2025-01-15 06:22:43.71	34.69	4.91	
2025-01-15 06:22:43.91	34.71	4.92	
2025-01-15 06:22:44.12	34.74	4.93	
2025-01-15 06:22:44.32	34.76	4.94	
2025-01-15 06:22:44.52	34.79	4.95	
2025-01-15 06:22:44.72	34.81	4.96	
2025-01-15 06:22:44.93	34.84	4.97	
2025-01-15 06:22:45.13	34.86	4.98	
2025-01-15 06:22:45.33	34.89	4.99	
2025-01-15 06:22:45.54	34.92	5.00	
2025-01-15 06:22:45.74	34.94	5.01	
2025-01-15 06:22:45.94	34.97	5.02	
2025-01-15 06:22:46.15	34.99	5.03	
2025-01-15 06:22:46.35	35.02	5.04	
2025-01-15 06:22:46.55	35.04	5.05	
2025-01-15 06:22:46.76	35.07	5.06	
2025-01-15 06:22:46.96	35.09	5.07	
2025-01-15 06:22:47.16	35.12	5.08	
2025-01-15 06:22:47.36	35.14	5.09	
2025-01-15 06:22:47.57	35.17	5.10	
2025-01-15 06:22:47.77	35.19	5.11	
2025-01-15 06:22:47.97	35.22	5.12	
2025-01-15 06:22:48.18	35.25	5.13	
2025-01-15 06:22:48.38	35.27	5.14	
2025-01-15 06:22:48.58	35.30	5.15	
2025-01-15 06:22:48.79	35.32	5.16	
2025-01-15 06:22:48.99	35.35	5.17	
2025-01-15 06:22:49.19	35.37	5.19	
2025-01-15 06:22:49.40	35.40	5.20	
2025-01-15 06:22:49.60	35.42	5.21	
2025-01-15 06:22:49.80	35.45	5.22	
2025-01-15 06:22:50.00	35.47	5.23	
2025-01-15 06:22:50.21	35.50	5.24	
2025-01-15 06:22:50.41	35.53	5.25	
2025-01-15 06:22:50.61	35.55	5.26	
2025-01-15 06:22:50.82	35.58	5.27	
2025-01-15 06:22:51.02	35.60	5.28	
2025-01-15 06:22:51.22	35.63	5.29	
2025-01-15 06:22:51.43	35.66	5.30	
2025-01-15 06:22:51.63	35.68	5.31	
2025-01-15 06:22:51.83	35.71	5.32	
2025-01-15 06:22:52.04	35.73	5.33	
2025-01-15 06:22:52.24	35.76	5.34	
2025-01-15 06:22:52.44	35.78	5.35	
2025-01-15 06:22:52.64	35.81	5.36	
2025-01-15 06:22:52.85	35.84	5.37	
2025-01-15 06:22:53.05	35.86	5.38	
2025-01-15 06:22:53.25	35.89	5.39	
2025-01-15 06:22:53.46	35.91	5.40	
2025-01-15 06:22:53.66	35.94	5.41	
2025-01-15 06:22:53.86	35.97	5.42	
2025-01-15 06:22:54.07	35.99	5.43	
2025-01-15 06:22:54.27	36.02	5.44	
2025-01-15 06:22:54.47	36.04	5.45	
2025-01-15 06:22:54.68	36.07	5.46	
2025-01-15 06:22:54.88	36.10	5.47	
2025-01-15 06:22:55.08	36.12	5.48	
2025-01-15 06:22:55.28	36.15	5.49	
2025-01-15 06:22:55.49	36.17	5.50	
2025-01-15 06:22:55.69	36.20	5.51	
2025-01-15 06:22:55.89	36.23	5.52	
2025-01-15 06:22:56.10	36.25	5.54	
2025-01-15 06:22:56.30	36.28	5.55	
2025-01-15 06:22:56.50	36.30	5.56	
2025-01-15 06:22:56.71	36.33	5.57	
2025-01-15 06:22:56.91	36.36	5.58	
2025-01-15 06:22:57.11	36.38	5.59	
2025-01-15 06:22:57.32	36.41	5.60	
2025-01-15 06:22:57.52	36.44	5.61	
2025-01-15 06:22:57.72	36.46	5.62	
2025-01-15 06:22:57.92	36.49	5.63	
2025-01-15 06:22:58.13	36.52	5.64	
2025-01-15 06:22:58.33	36.54	5.65	
2025-01-15 06:22:58.53	36.57	5.66	
2025-01-15 06:22:58.74	36.60	5.67	
2025-01-15 06:22:58.94	36.62	5.68	
2025-01-15 06:22:59.14	36.65	5.69	
2025-01-15 06:22:59.35	36.68	5.70	
2025-01-15 06:22:59.55	36.70	5.71	
2025-01-15 06:22:59.75	36.73	5.72	
2025-01-15 06:22:59.96	36.76	5.73	
2025-01-15 06:23:00.16	36.78	5.74	
2025-01-15 06:23:00.36	36.81	5.75	
2025-01-15 06:23:00.56	36.83	5.76	
2025-01-15 06:23:00.77	36.86	5.77	
2025-01-15 06:23:00.97	36.89	5.78	
2025-01-15 06:23:01.17	36.91	5.79	
2025-01-15 06:23:01.38	36.94	5.80	
2025-01-15 06:23:01.58	36.97	5.81	
2025-01-15 06:23:01.78	36.99	5.82	
2025-01-15 06:23:01.99	37.02	5.83	
2025-01-15 06:23:02.19	37.05	5.84	
2025-01-15 06:23:02.39	37.07	5.85	
2025-01-15 06:23:02.60	37.10	5.86	
2025-01-15 06:23:02.80	37.13	5.87	
2025-01-15 06:23:03.00	37.16	5.88	
2025-01-15 06:23:03.20	37.18	5.89	
2025-01-15 06:23:03.41	37.21	5.91	
2025-01-15 06:23:03.61	37.24	5.92	
2025-01-15 06:23:03.81	37.26	5.93	
2025-01-15 06:23:04.02	37.29	5.94	
2025-01-15 06:23:04.22	37.32	5.95	
2025-01-15 06:23:04.42	37.34	5.96	
2025-01-15 06:23:04.63	37.37	5.97	
2025-01-15 06:23:04.83	37.40	5.98	
2025-01-15 06:23:05.03	37.43	5.99	
2025-01-15 06:23:05.24	37.45	6.00	
2025-01-15 06:23:05.44	37.48	6.01	
2025-01-15 06:23:05.64	37.51	6.02	
2025-01-15 06:23:05.85	37.53	6.03	
2025-01-15 06:23:06.05	37.56	6.04	
2025-01-15 06:23:06.25	37.59	6.05	
2025-01-15 06:23:06.45	37.62	6.06	
2025-01-15 06:23:06.66	37.64	6.07	
2025-01-15 06:23:06.86	37.67	6.08	
2025-01-15 06:23:07.06	37.70	6.09	
2025-01-15 06:23:07.27	37.73	6.10	
2025-01-15 06:23:07.47	37.75	6.11	
2025-01-15 06:23:07.67	37.78	6.12	
2025-01-15 06:23:07.88	37.81	6.13	
2025-01-15 06:23:08.08	37.83	6.14	
2025-01-15 06:23:08.28	37.86	6.15	
2025-01-15 06:23:08.49	37.89	6.16	
2025-01-15 06:23:08.69	37.92	6.17	
2025-01-15 06:23:08.89	37.94	6.18	
2025-01-15 06:23:09.09	37.97	6.19	
2025-01-15 06:23:09.30	38.00	6.20	
2025-01-15 06:23:09.50	38.03	6.21	
2025-01-15 06:23:09.70	38.05	6.22	
2025-01-15 06:23:09.91	38.08	6.23	
2025-01-15 06:23:10.11	38.11	6.24	
2025-01-15 06:23:10.31	38.14	6.25	
2025-01-15 06:23:10.52	38.16	6.26	
2025-01-15 06:23:10.72	38.19	6.28	
2025-01-15 06:23:10.92	38.22	6.29	
2025-01-15 06:23:11.13	38.25	6.30	
2025-01-15 06:23:11.33	38.28	6.31	
2025-01-15 06:23:11.53	38.30	6.32	
2025-01-15 06:23:11.73	38.33	6.33	
2025-01-15 06:23:11.94	38.36	6.34	
2025-01-15 06:23:12.14	38.39	6.35	
2025-01-15 06:23:12.34	38.41	6.36	
2025-01-15 06:23:12.55	38.44	6.37	
2025-01-15 06:23:12.75	38.47	6.38	
2025-01-15 06:23:12.95	38.50	6.39	
2025-01-15 06:23:13.16	38.53	6.40	
2025-01-15 06:23:13.36	38.55	6.41	
2025-01-15 06:23:13.56	38.58	6.42	
2025-01-15 06:23:13.77	38.61	6.43	
2025-01-15 06:23:13.97	38.64	6.44	
2025-01-15 06:23:14.17	38.66	6.45	
2025-01-15 06:23:14.37	38.69	6.46	
2025-01-15 06:23:14.58	38.72	6.47	
2025-01-15 06:23:14.78	38.75	6.48	
2025-01-15 06:23:14.98	38.78	6.49	
2025-01-15 06:23:15.19	38.81	6.50	
2025-01-15 06:23:15.39	38.83	6.51	
2025-01-15 06:23:15.59	38.86	6.52	
2025-01-15 06:23:15.80	38.89	6.53	
2025-01-15 06:23:16.00	38.92	6.54	
2025-01-15 06:23:16.20	38.95	6.55	
2025-01-15 06:23:16.41	38.98	6.56	
2025-01-15 06:23:16.61	39.00	6.57	
2025-01-15 06:23:16.81	39.03	6.58	
2025-01-15 06:23:17.01	39.06	6.59	
2025-01-15 06:23:17.22	39.09	6.60	
2025-01-15 06:23:17.42	39.12	6.61	
2025-01-15 06:23:17.62	39.14	6.62	
2025-01-15 06:23:17.83	39.17	6.63	
2025-01-15 06:23:18.03	39.20	6.64	
2025-01-15 06:23:18.23	39.23	6.65	
2025-01-15 06:23:18.44	39.26	6.66	
2025-01-15 06:23:18.64	39.29	6.67	
2025-01-15 06:23:18.84	39.31	6.68	
2025-01-15 06:23:19.05	39.34	6.70	
2025-01-15 06:23:19.25	39.37	6.71	
2025-01-15 06:23:19.45	39.40	6.72	
2025-01-15 06:23:19.65	39.43	6.73	
2025-01-15 06:23:19.86	39.46	6.74	
2025-01-15 06:23:20.06	39.49	6.75	
2025-01-15 06:23:20.26	39.51	6.76	
2025-01-15 06:23:20.47	39.54	6.77	
2025-01-15 06:23:20.67	39.57	6.78	
2025-01-15 06:23:20.87	39.60	6.79	
2025-01-15 06:23:21.08	39.63	6.80	
2025-01-15 06:23:21.28	39.66	6.81	
2025-01-15 06:23:21.48	39.69	6.82	
2025-01-15 06:23:21.69	39.72	6.83	
2025-01-15 06:23:21.89	39.74	6.84	
2025-01-15 06:23:22.09	39.77	6.85	
2025-01-15 06:23:22.29	39.80	6.86	
2025-01-15 06:23:22.50	39.83	6.87	
2025-01-15 06:23:22.70	39.86	6.88	
2025-01-15 06:23:22.90	39.89	6.89	
2025-01-15 06:23:23.11	39.92	6.90	
2025-01-15 06:23:23.31	39.95	6.91	
2025-01-15 06:23:23.51	39.98	6.92	
2025-01-15 06:23:23.72	40.01	6.93	
2025-01-15 06:23:23.92	40.03	6.94	
2025-01-15 06:23:24.12	40.06	6.95	
2025-01-15 06:23:24.33	40.09	6.96	
2025-01-15 06:23:24.53	40.12	6.97	
2025-01-15 06:23:24.73	40.15	6.98	
2025-01-15 06:23:24.94	40.18	6.99	
2025-01-15 06:23:25.14	40.21	7.00	
2025-01-15 06:23:25.34	40.24	7.01	
2025-01-15 06:23:25.54	40.27	7.02	
2025-01-15 06:23:25.75	40.30	7.03	
2025-01-15 06:23:25.95	40.32	7.04	
2025-01-15 06:23:26.15	40.35	7.05	
2025-01-15 06:23:26.36	40.38	7.06	
2025-01-15 06:23:26.56	40.41	7.07	
2025-01-15 06:23:26.76	40.44	7.08	
2025-01-15 06:23:26.97	40.47	7.09	
2025-01-15 06:23:27.17	40.50	7.10	
2025-01-15 06:23:27.37	40.53	7.11	
2025-01-15 06:23:27.58	40.56	7.12	
2025-01-15 06:23:27.78	40.59	7.13	
2025-01-15 06:23:27.98	40.62	7.14	
2025-01-15 06:23:28.18	40.65	7.15	
2025-01-15 06:23:28.39	40.68	7.16	
2025-01-15 06:23:28.59	40.71	7.17	
2025-01-15 06:23:28.79	40.74	7.18	
2025-01-15 06:23:29.00	40.77	7.19	
2025-01-15 06:23:29.20	40.80	7.20	
2025-01-15 06:23:29.40	40.82	7.21	
2025-01-15 06:23:29.61	40.86	7.23	
2025-01-15 06:23:29.81	40.88	7.24	
2025-01-15 06:23:30.01	40.91	7.25	
2025-01-15 06:23:30.22	40.94	7.26	
2025-01-15 06:23:30.42	40.97	7.27	
2025-01-15 06:23:30.62	41.00	7.28	
2025-01-15 06:23:30.82	41.03	7.29	
2025-01-15 06:23:31.03	41.06	7.30	
2025-01-15 06:23:31.23	41.09	7.31	
2025-01-15 06:23:31.43	41.12	7.32	
2025-01-15 06:23:31.64	41.15	7.33	
2025-01-15 06:23:31.84	41.18	7.34	
2025-01-15 06:23:32.04	41.21	7.35	
2025-01-15 06:23:32.25	41.24	7.36	
2025-01-15 06:23:32.45	41.27	7.37	
2025-01-15 06:23:32.65	41.30	7.38	
2025-01-15 06:23:32.86	41.33	7.39	
2025-01-15 06:23:33.06	41.36	7.40	
2025-01-15 06:23:33.26	41.39	7.41	
2025-01-15 06:23:33.46	41.42	7.42	
2025-01-15 06:23:33.67	41.45	7.43	
2025-01-15 06:23:33.87	41.48	7.44	
2025-01-15 06:23:34.07	41.51	7.45	
2025-01-15 06:23:34.28	41.54	7.46	
2025-01-15 06:23:34.48	41.57	7.47	
2025-01-15 06:23:34.68	41.60	7.48	
2025-01-15 06:23:34.89	41.63	7.49	
2025-01-15 06:23:35.09	41.66	7.50	
2025-01-15 06:23:35.29	41.69	7.51	
2025-01-15 06:23:35.50	41.72	7.52	
2025-01-15 06:23:35.70	41.75	7.53	
2025-01-15 06:23:35.90	41.78	7.54	
2025-01-15 06:23:36.10	41.81	7.55	
2025-01-15 06:23:36.31	41.84	7.56	
2025-01-15 06:23:36.51	41.87	7.57	
2025-01-15 06:23:36.71	41.90	7.58	
2025-01-15 06:23:36.92	41.94	7.59	
2025-01-15 06:23:37.12	41.97	7.60	
2025-01-15 06:23:37.32	42.00	7.61	
2025-01-15 06:23:37.53	42.03	7.62	
2025-01-15 06:23:37.73	42.06	7.63	
2025-01-15 06:23:37.93	42.09	7.64	
2025-01-15 06:23:38.14	42.12	7.65	
2025-01-15 06:23:38.34	42.15	7.66	
2025-01-15 06:23:38.54	42.18	7.67	
2025-01-15 06:23:38.74	42.21	7.68	
2025-01-15 06:23:38.95	42.24	7.69	
2025-01-15 06:23:39.15	42.27	7.70	
2025-01-15 06:23:39.35	42.30	7.71	
2025-01-15 06:23:39.56	42.33	7.72	
2025-01-15 06:23:39.76	42.36	7.73	
2025-01-15 06:23:39.96	42.39	7.74	
2025-01-15 06:23:40.17	42.42	7.75	
2025-01-15 06:23:40.37	42.46	7.76	
2025-01-15 06:23:40.57	42.49	7.77	
2025-01-15 06:23:40.78	42.52	7.78	
2025-01-15 06:23:40.98	42.55	7.79	
2025-01-15 06:23:41.18	42.58	7.80	
2025-01-15 06:23:41.38	42.61	7.81	
2025-01-15 06:23:41.59	42.64	7.82	
2025-01-15 06:23:41.79	42.67	7.83	
2025-01-15 06:23:41.99	42.70	7.84	
2025-01-15 06:23:42.20	42.73	7.85	
2025-01-15 06:23:42.40	42.76	7.86	
2025-01-15 06:23:42.60	42.79	7.87	
2025-01-15 06:23:42.81	42.83	7.88	
2025-01-15 06:23:43.01	42.86	7.89	
2025-01-15 06:23:43.21	42.89	7.90	
2025-01-15 06:23:43.42	42.92	7.91	
2025-01-15 06:23:43.62	42.95	7.92	
2025-01-15 06:23:43.82	42.98	7.93	
2025-01-15 06:23:44.02	43.01	7.94	
2025-01-15 06:23:44.23	43.04	7.95	
2025-01-15 06:23:44.43	43.08	7.96	
2025-01-15 06:23:44.63	43.11	7.97	
2025-01-15 06:23:44.84	43.14	7.98	
2025-01-15 06:23:45.04	43.17	7.99	
2025-01-15 06:23:45.24	43.20	8.00	
2025-01-15 06:23:45.45	43.23	8.01	
2025-01-15 06:23:45.65	43.26	8.02	
2025-01-15 06:23:45.85	43.29	8.03	
2025-01-15 06:23:46.06	43.33	8.04	
2025-01-15 06:23:46.26	43.36	8.05	
2025-01-15 06:23:46.46	43.39	8.06	
2025-01-15 06:23:46.67	43.42	8.07	
2025-01-15 06:23:46.87	43.45	8.08	
2025-01-15 06:23:47.07	43.48	8.09	
2025-01-15 06:23:47.27	43.51	8.10	
2025-01-15 06:23:47.48	43.55	8.11	
2025-01-15 06:23:47.68	43.58	8.12	
2025-01-15 06:23:47.88	43.61	8.13	
2025-01-15 06:23:48.09	43.64	8.14	
2025-01-15 06:23:48.29	43.67	8.15	
2025-01-15 06:23:48.49	43.70	8.16	
2025-01-15 06:23:48.70	43.74	8.17	
2025-01-15 06:23:48.90	43.77	8.18	
2025-01-15 06:23:49.10	43.80	8.19	
2025-01-15 06:23:49.31	43.83	8.20	
2025-01-15 06:23:49.51	43.86	8.21	
2025-01-15 06:23:49.71	43.89	8.22	
2025-01-15 06:23:49.91	43.93	8.23	
2025-01-15 06:23:50.12	43.96	8.24	
2025-01-15 06:23:50.32	43.99	8.25	
2025-01-15 06:23:50.52	44.02	8.26	
2025-01-15 06:23:50.73	44.06	8.27	
2025-01-15 06:23:50.93	44.09	8.28	
2025-01-15 06:23:51.13	44.12	8.29	
2025-01-15 06:23:51.34	44.15	8.30	
2025-01-15 06:23:51.54	44.18	8.31	
2025-01-15 06:23:51.74	44.21	8.32	
2025-01-15 06:23:51.95	44.25	8.33	
2025-01-15 06:23:52.15	44.28	8.34	
2025-01-15 06:23:52.35	44.31	8.35	
2025-01-15 06:23:52.55	44.34	8.36	
2025-01-15 06:23:52.76	44.38	8.37	
2025-01-15 06:23:52.96	44.41	8.38	
2025-01-15 06:23:53.16	44.44	8.39	
2025-01-15 06:23:53.37	44.47	8.40	
2025-01-15 06:23:53.57	44.50	8.41	
2025-01-15 06:23:53.77	44.54	8.42	
2025-01-15 06:23:53.98	44.57	8.43	
2025-01-15 06:23:54.18	44.60	8.44	
2025-01-15 06:23:54.38	44.63	8.45	
2025-01-15 06:23:54.59	44.67	8.46	
2025-01-15 06:23:54.79	44.70	8.47	
2025-01-15 06:23:54.99	44.73	8.48	
2025-01-15 06:23:55.19	44.76	8.49	
2025-01-15 06:23:55.40	44.80	8.50	
2025-01-15 06:23:55.60	44.83	8.51	
2025-01-15 06:23:55.80	44.86	8.52	
2025-01-15 06:23:56.01	44.89	8.53	
2025-01-15 06:23:56.21	44.93	8.54	
2025-01-15 06:23:56.41	44.96	8.55	
2025-01-15 06:23:56.62	44.99	8.56	
2025-01-15 06:23:56.82	45.02	8.57	
2025-01-15 06:23:57.02	45.06	8.58	
2025-01-15 06:23:57.23	45.09	8.59	
2025-01-15 06:23:57.43	45.12	8.60	
2025-01-15 06:23:57.63	45.15	8.61	
2025-01-15 06:23:57.83	45.19	8.62	
2025-01-15 06:23:58.04	45.22	8.63	
2025-01-15 06:23:58.24	45.25	8.64	
2025-01-15 06:23:58.44	45.28	8.65	
2025-01-15 06:23:58.65	45.32	8.66	
2025-01-15 06:23:58.85	45.35	8.67	
2025-01-15 06:23:59.05	45.38	8.68	
2025-01-15 06:23:59.26	45.42	8.69	
2025-01-15 06:23:59.46	45.45	8.70	
2025-01-15 06:23:59.66	45.48	8.70	
2025-01-15 06:23:59.87	45.52	8.71	
2025-01-15 06:24:00.07	45.55	8.72	
2025-01-15 06:24:00.27	45.58	8.73	
2025-01-15 06:24:00.47	45.61	8.74	
2025-01-15 06:24:00.68	45.65	8.75	
2025-01-15 06:24:00.88	45.68	8.76	
2025-01-15 06:24:01.08	45.71	8.77	
2025-01-15 06:24:01.29	45.75	8.78	
2025-01-15 06:24:01.49	45.78	8.79	
2025-01-15 06:24:01.69	45.81	8.80	
2025-01-15 06:24:01.90	45.85	8.81	
2025-01-15 06:24:02.10	45.88	8.82	
2025-01-15 06:24:02.30	45.91	8.83	
2025-01-15 06:24:02.51	45.95	8.84	
2025-01-15 06:24:02.71	45.98	8.85	
2025-01-15 06:24:02.91	46.01	8.86	
2025-01-15 06:24:03.11	46.05	8.87	
2025-01-15 06:24:03.32	46.08	8.88	
2025-01-15 06:24:03.52	46.11	8.89	
2025-01-15 06:24:03.72	46.15	8.90	
2025-01-15 06:24:03.93	46.18	8.91	
2025-01-15 06:24:04.13	46.21	8.92	
2025-01-15 06:24:04.33	46.25	8.93	
2025-01-15 06:24:04.54	46.28	8.94	
2025-01-15 06:24:04.74	46.31	8.95	
2025-01-15 06:24:04.94	46.35	8.96	
2025-01-15 06:24:05.15	46.38	8.97	
2025-01-15 06:24:05.35	46.41	8.98	
2025-01-15 06:24:05.55	46.45	8.99	
2025-01-15 06:24:05.75	46.48	9.00	
2025-01-15 06:24:05.96	46.52	9.01	
2025-01-15 06:24:06.16	46.55	9.02	
2025-01-15 06:24:06.36	46.58	9.03	
2025-01-15 06:24:06.57	46.62	9.04	
2025-01-15 06:24:06.77	46.65	9.05	
2025-01-15 06:24:06.97	46.68	9.05	
2025-01-15 06:24:07.18	46.72	9.06	
2025-01-15 06:24:07.38	46.75	9.07	
2025-01-15 06:24:07.58	46.78	9.08	
2025-01-15 06:24:07.79	46.82	9.09	
2025-01-15 06:24:07.99	46.85	9.10	
2025-01-15 06:24:08.19	46.89	9.11	
2025-01-15 06:24:08.39	46.92	9.12	
2025-01-15 06:24:08.60	46.96	9.13	
2025-01-15 06:24:08.80	46.99	9.14	
2025-01-15 06:24:09.00	47.02	9.15	
2025-01-15 06:24:09.21	47.06	9.16	
2025-01-15 06:24:09.41	47.09	9.17	
2025-01-15 06:24:09.61	47.12	9.18	
2025-01-15 06:24:09.82	47.16	9.19	
2025-01-15 06:24:10.02	47.19	9.20	
2025-01-15 06:24:10.22	47.23	9.21	
2025-01-15 06:24:10.43	47.26	9.22	
2025-01-15 06:24:10.63	47.30	9.23	
2025-01-15 06:24:10.83	47.33	9.24	
2025-01-15 06:24:11.04	47.37	9.25	
2025-01-15 06:24:11.24	47.40	9.26	
2025-01-15 06:24:11.44	47.43	9.27	
2025-01-15 06:24:11.64	47.47	9.28	
2025-01-15 06:24:11.85	47.50	9.29	
2025-01-15 06:24:12.05	47.54	9.30	
2025-01-15 06:24:12.25	47.57	9.30	
2025-01-15 06:24:12.46	47.61	9.31	
2025-01-15 06:24:12.66	47.64	9.32	
2025-01-15 06:24:12.86	47.67	9.33	
2025-01-15 06:24:13.07	47.71	9.34	
2025-01-15 06:24:13.27	47.74	9.35	
2025-01-15 06:24:13.47	47.78	9.36	
2025-01-15 06:24:13.68	47.81	9.37	
2025-01-15 06:24:13.88	47.85	9.38	
2025-01-15 06:24:14.08	47.88	9.39	
2025-01-15 06:24:14.28	47.92	9.40	
2025-01-15 06:24:14.49	47.95	9.41	
2025-01-15 06:24:14.69	47.99	9.42	
2025-01-15 06:24:14.89	48.02	9.43	
2025-01-15 06:24:15.10	48.06	9.44	
2025-01-15 06:24:15.30	48.09	9.45	
2025-01-15 06:24:15.50	48.12	9.46	
2025-01-15 06:24:15.71	48.16	9.47	
2025-01-15 06:24:15.91	48.19	9.48	
2025-01-15 06:24:16.11	48.23	9.49	
2025-01-15 06:24:16.32	48.26	9.50	
2025-01-15 06:24:16.52	48.30	9.50	
2025-01-15 06:24:16.72	48.33	9.51	
2025-01-15 06:24:16.92	48.37	9.52	
2025-01-15 06:24:17.13	48.40	9.53	
2025-01-15 06:24:17.33	48.44	9.54	
2025-01-15 06:24:17.53	48.47	9.55	
2025-01-15 06:24:17.74	48.51	9.56	
2025-01-15 06:24:17.94	48.54	9.57	
2025-01-15 06:24:18.14	48.58	9.58	
2025-01-15 06:24:18.35	48.61	9.59	
2025-01-15 06:24:18.55	48.65	9.60	
2025-01-15 06:24:18.75	48.68	9.61	
2025-01-15 06:24:18.96	48.72	9.62	
2025-01-15 06:24:19.16	48.75	9.63	
2025-01-15 06:24:19.36	48.79	9.64	
2025-01-15 06:24:19.56	48.82	9.65	
2025-01-15 06:24:19.77	48.86	9.66	
2025-01-15 06:24:19.97	48.90	9.66	
2025-01-15 06:24:20.17	48.93	9.67	
2025-01-15 06:24:20.38	48.97	9.68	
2025-01-15 06:24:20.58	49.00	9.69	
2025-01-15 06:24:20.78	49.04	9.70	
2025-01-15 06:24:20.99	49.07	9.71	
2025-01-15 06:24:21.19	49.11	9.72	
2025-01-15 06:24:21.39	49.14	9.73	
2025-01-15 06:24:21.60	49.18	9.74	
2025-01-15 06:24:21.80	49.21	9.75	
2025-01-15 06:24:22.00	49.25	9.76	
2025-01-15 06:24:22.20	49.28	9.77	
2025-01-15 06:24:22.41	49.32	9.78	
2025-01-15 06:24:22.61	49.36	9.79	
2025-01-15 06:24:22.81	49.39	9.80	
2025-01-15 06:24:23.02	49.43	9.80	
2025-01-15 06:24:23.22	49.46	9.81	
2025-01-15 06:24:23.42	49.50	9.82	
2025-01-15 06:24:23.63	49.54	9.83	
2025-01-15 06:24:23.83	49.57	9.84	
2025-01-15 06:24:24.03	49.61	9.85	
2025-01-15 06:24:24.24	49.64	9.86	
2025-01-15 06:24:24.44	49.68	9.87	
2025-01-15 06:24:24.64	49.71	9.88	
2025-01-15 06:24:24.84	49.75	9.89	
2025-01-15 06:24:25.05	49.79	9.90	
2025-01-15 06:24:25.25	49.82	9.91	
2025-01-15 06:24:25.45	49.86	9.92	
2025-01-15 06:24:25.66	49.89	9.93	
2025-01-15 06:24:25.86	49.93	9.93	
2025-01-15 06:24:26.06	49.97	9.94	
2025-01-15 06:24:26.27	50.00	9.95	
2025-01-15 06:24:26.47	50.04	9.96	
2025-01-15 06:24:26.67	50.07	9.97	
2025-01-15 06:24:26.88	50.11	9.98	
2025-01-15 06:24:27.08	50.15	9.99	
2025-01-15 06:24:27.28	50.18	10.00	
2025-01-15 06:24:27.48	50.22	10.01	
2025-01-15 06:24:27.69	50.26	10.02	
2025-01-15 06:24:27.89	50.29	10.03	
2025-01-15 06:24:28.09	50.33	10.04	
2025-01-15 06:24:28.30	50.36	10.04	
2025-01-15 06:24:28.50	50.40	10.05	
2025-01-15 06:24:28.70	50.44	10.06	
2025-01-15 06:24:28.91	50.47	10.07	
2025-01-15 06:24:29.11	50.51	10.08	
2025-01-15 06:24:29.31	50.55	10.09	
2025-01-15 06:24:29.52	50.58	10.10	
2025-01-15 06:24:29.72	50.62	10.11	
2025-01-15 06:24:29.92	50.65	10.12	
2025-01-15 06:24:30.12	50.69	10.13	
2025-01-15 06:24:30.33	50.73	10.14	
2025-01-15 06:24:30.53	50.76	10.14	
2025-01-15 06:24:30.73	50.80	10.15	
2025-01-15 06:24:30.94	50.84	10.16	
2025-01-15 06:24:31.14	50.87	10.17	
2025-01-15 06:24:31.34	50.91	10.18	
2025-01-15 06:24:31.55	50.95	10.19	
2025-01-15 06:24:31.75	50.98	10.20	
2025-01-15 06:24:31.95	51.02	10.21	
2025-01-15 06:24:32.16	51.06	10.22	
2025-01-15 06:24:32.36	51.09	10.23	
2025-01-15 06:24:32.56	51.13	10.24	
2025-01-15 06:24:32.77	51.17	10.24	
2025-01-15 06:24:32.97	51.21	10.25	
2025-01-15 06:24:33.17	51.24	10.26	
2025-01-15 06:24:33.37	51.28	10.27	
2025-01-15 06:24:33.58	51.32	10.28	
2025-01-15 06:24:33.78	51.35	10.29	
2025-01-15 06:24:33.98	51.39	10.30	
2025-01-15 06:24:34.19	51.43	10.31	
2025-01-15 06:24:34.39	51.46	10.32	
2025-01-15 06:24:34.59	51.50	10.33	
2025-01-15 06:24:34.80	51.54	10.33	
2025-01-15 06:24:35.00	51.58	10.34	
2025-01-15 06:24:35.20	51.61	10.35	
2025-01-15 06:24:35.41	51.65	10.36	
2025-01-15 06:24:35.61	51.69	10.37	
2025-01-15 06:24:35.81	51.72	10.38	
2025-01-15 06:24:36.01	51.76	10.39	
2025-01-15 06:24:36.22	51.80	10.40	
2025-01-15 06:24:36.42	51.83	10.41	
2025-01-15 06:24:36.62	51.87	10.41	
2025-01-15 06:24:36.83	51.91	10.42	
2025-01-15 06:24:37.03	51.95	10.43	
2025-01-15 06:24:37.23	51.98	10.44	
2025-01-15 06:24:37.44	52.02	10.45	
2025-01-15 06:24:37.64	52.06	10.46	
2025-01-15 06:24:37.84	52.10	10.47	
2025-01-15 06:24:38.05	52.13	10.48	
2025-01-15 06:24:38.25	52.17	10.49	
2025-01-15 06:24:38.45	52.21	10.49	
2025-01-15 06:24:38.65	52.25	10.50	
2025-01-15 06:24:38.86	52.28	10.51	
2025-01-15 06:24:39.06	52.32	10.52	
2025-01-15 06:24:39.26	52.36	10.53	
2025-01-15 06:24:39.47	52.40	10.54	
2025-01-15 06:24:39.67	52.43	10.55	
2025-01-15 06:24:39.87	52.47	10.56	
2025-01-15 06:24:40.08	52.51	10.57	
2025-01-15 06:24:40.28	52.55	10.57	
2025-01-15 06:24:40.48	52.58	10.58	
2025-01-15 06:24:40.69	52.62	10.59	
2025-01-15 06:24:40.89	52.66	10.60	
2025-01-15 06:24:41.09	52.70	10.61	
2025-01-15 06:24:41.29	52.74	10.62	
2025-01-15 06:24:41.50	52.77	10.63	
2025-01-15 06:24:41.70	52.81	10.64	
2025-01-15 06:24:41.90	52.85	10.64	
2025-01-15 06:24:42.11	52.89	10.65	
2025-01-15 06:24:42.31	52.93	10.66	
2025-01-15 06:24:42.51	52.96	10.67	
2025-01-15 06:24:42.72	53.00	10.68	
2025-01-15 06:24:42.92	53.04	10.69	
2025-01-15 06:24:43.12	53.08	10.70	
2025-01-15 06:24:43.33	53.12	10.71	
2025-01-15 06:24:43.53	53.15	10.71	
2025-01-15 06:24:43.73	53.19	10.72	
2025-01-15 06:24:43.93	53.23	10.73	
2025-01-15 06:24:44.14	53.27	10.74	
2025-01-15 06:24:44.34	53.31	10.75	
2025-01-15 06:24:44.54	53.34	10.76	
2025-01-15 06:24:44.75	53.38	10.77	
2025-01-15 06:24:44.95	53.42	10.77	
2025-01-15 06:24:45.15	53.46	10.78	
2025-01-15 06:24:45.36	53.50	10.79	
2025-01-15 06:24:45.56	53.54	10.80	
2025-01-15 06:24:45.76	53.57	10.81	
2025-01-15 06:24:45.97	53.61	10.82	
2025-01-15 06:24:46.17	53.65	10.83	
2025-01-15 06:24:46.37	53.69	10.83	
2025-01-15 06:24:46.57	53.73	10.84	
2025-01-15 06:24:46.78	53.77	10.85	
2025-01-15 06:24:46.98	53.80	10.86	
2025-01-15 06:24:47.18	53.84	10.87	
2025-01-15 06:24:47.39	53.88	10.88	
2025-01-15 06:24:47.59	53.92	10.89	
2025-01-15 06:24:47.79	53.96	10.89	
2025-01-15 06:24:48.00	54.00	10.90	
2025-01-15 06:24:48.20	54.04	10.91	
2025-01-15 06:24:48.40	54.07	10.92	
2025-01-15 06:24:48.61	54.11	10.93	
2025-01-15 06:24:48.81	54.15	10.94	
2025-01-15 06:24:49.01	54.19	10.95	
2025-01-15 06:24:49.21	54.23	10.95	
2025-01-15 06:24:49.42	54.27	10.96	
2025-01-15 06:24:49.62	54.31	10.97	
2025-01-15 06:24:49.82	54.35	10.98	
2025-01-15 06:24:50.03	54.39	10.99	
2025-01-15 06:24:50.23	54.42	11.00	
2025-01-15 06:24:50.43	54.46	11.00	
2025-01-15 06:24:50.64	54.50	11.01	
2025-01-15 06:24:50.84	54.54	11.02	
2025-01-15 06:24:51.04	54.58	11.03	
2025-01-15 06:24:51.25	54.62	11.04	
2025-01-15 06:24:51.45	54.66	11.05	
2025-01-15 06:24:51.65	54.70	11.05	
2025-01-15 06:24:51.85	54.73	11.06	
2025-01-15 06:24:52.06	54.77	11.07	
2025-01-15 06:24:52.26	54.81	11.08	
2025-01-15 06:24:52.46	54.85	11.09	
2025-01-15 06:24:52.67	54.89	11.10	
2025-01-15 06:24:52.87	54.93	11.10	
2025-01-15 06:24:53.07	54.97	11.11	
2025-01-15 06:24:53.28	55.01	11.12	
2025-01-15 06:24:53.48	55.05	11.13	
2025-01-15 06:24:53.68	55.09	11.14	
2025-01-15 06:24:53.89	55.13	11.15	
2025-01-15 06:24:54.09	55.17	11.15	
2025-01-15 06:24:54.29	55.21	11.16	
2025-01-15 06:24:54.50	55.25	11.17	
2025-01-15 06:24:54.70	55.28	11.18	
2025-01-15 06:24:54.90	55.32	11.19	
2025-01-15 06:24:55.10	55.36	11.20	
2025-01-15 06:24:55.31	55.40	11.20	
2025-01-15 06:24:55.51	55.44	11.21	
2025-01-15 06:24:55.71	55.48	11.22	
2025-01-15 06:24:55.92	55.52	11.23	
2025-01-15 06:24:56.12	55.56	11.24	
2025-01-15 06:24:56.32	55.60	11.24	
2025-01-15 06:24:56.53	55.64	11.25	
2025-01-15 06:24:56.73	55.68	11.26	
2025-01-15 06:24:56.93	55.72	11.27	
2025-01-15 06:24:57.14	55.76	11.28	
2025-01-15 06:24:57.34	55.80	11.29	
2025-01-15 06:24:57.54	55.84	11.29	
2025-01-15 06:24:57.74	55.88	11.30	
2025-01-15 06:24:57.95	55.92	11.31	
2025-01-15 06:24:58.15	55.96	11.32	
2025-01-15 06:24:58.35	56.00	11.33	
2025-01-15 06:24:58.56	56.04	11.33	
2025-01-15 06:24:58.76	56.08	11.34	
2025-01-15 06:24:58.96	56.12	11.35	
2025-01-15 06:24:59.17	56.16	11.36	
2025-01-15 06:24:59.37	56.20	11.37	
2025-01-15 06:24:59.57	56.24	11.37	
2025-01-15 06:24:59.78	56.28	11.38	
2025-01-15 06:24:59.98	56.32	11.39	
2025-01-15 06:25:00.18	56.36	11.40	
2025-01-15 06:25:00.38	56.40	11.41	
2025-01-15 06:25:00.59	56.44	11.41	
2025-01-15 06:25:00.79	56.48	11.42	
2025-01-15 06:25:00.99	56.52	11.43	
2025-01-15 06:25:01.20	56.56	11.44	
2025-01-15 06:25:01.40	56.60	11.45	
2025-01-15 06:25:01.60	56.64	11.45	
2025-01-15 06:25:01.81	56.68	11.46	
2025-01-15 06:25:02.01	56.72	11.47	
2025-01-15 06:25:02.21	56.76	11.48	
2025-01-15 06:25:02.42	56.80	11.49	
2025-01-15 06:25:02.62	56.84	11.49	
2025-01-15 06:25:02.82	56.88	11.50	
2025-01-15 06:25:03.02	56.92	11.51	
2025-01-15 06:25:03.23	56.96	11.52	
2025-01-15 06:25:03.43	57.00	11.53	
2025-01-15 06:25:03.63	57.04	11.53	
2025-01-15 06:25:03.84	57.08	11.54	
2025-01-15 06:25:04.04	57.12	11.55	
2025-01-15 06:25:04.24	57.16	11.56	
2025-01-15 06:25:04.45	57.20	11.57	
2025-01-15 06:25:04.65	57.24	11.57	
2025-01-15 06:25:04.85	57.28	11.58	
2025-01-15 06:25:05.06	57.32	11.59	
2025-01-15 06:25:05.26	57.36	11.60	
2025-01-15 06:25:05.46	57.40	11.60	
2025-01-15 06:25:05.66	57.44	11.61	
2025-01-15 06:25:05.87	57.49	11.62	
2025-01-15 06:25:06.07	57.53	11.63	
2025-01-15 06:25:06.27	57.57	11.63	
2025-01-15 06:25:06.48	57.61	11.64	
2025-01-15 06:25:06.68	57.65	11.65	
2025-01-15 06:25:06.88	57.69	11.66	
2025-01-15 06:25:07.09	57.73	11.67	
2025-01-15 06:25:07.29	57.77	11.67	
2025-01-15 06:25:07.49	57.81	11.68	
2025-01-15 06:25:07.70	57.85	11.69	
2025-01-15 06:25:07.90	57.89	11.70	
2025-01-15 06:25:08.10	57.93	11.70	
2025-01-15 06:25:08.30	57.97	11.71	
2025-01-15 06:25:08.51	58.02	11.72	
2025-01-15 06:25:08.71	58.06	11.73	
2025-01-15 06:25:08.91	58.10	11.73	
2025-01-15 06:25:09.12	58.14	11.74	
2025-01-15 06:25:09.32	58.18	11.75	
2025-01-15 06:25:09.52	58.22	11.76	
2025-01-15 06:25:09.73	58.26	11.77	
2025-01-15 06:25:09.93	58.30	11.77	
2025-01-15 06:25:10.13	58.34	11.78	
2025-01-15 06:25:10.34	58.39	11.79	
2025-01-15 06:25:10.54	58.43	11.80	
2025-01-15 06:25:10.74	58.47	11.80	
2025-01-15 06:25:10.94	58.51	11.81	
2025-01-15 06:25:11.15	58.55	11.82	
2025-01-15 06:25:11.35	58.59	11.83	
2025-01-15 06:25:11.55	58.63	11.83	
2025-01-15 06:25:11.76	58.67	11.84	
2025-01-15 06:25:11.96	58.72	11.85	
2025-01-15 06:25:12.16	58.76	11.85	
2025-01-15 06:25:12.37	58.80	11.86	
2025-01-15 06:25:12.57	58.84	11.87	
2025-01-15 06:25:12.77	58.88	11.88	
2025-01-15 06:25:12.98	58.92	11.88	
2025-01-15 06:25:13.18	58.96	11.89	
2025-01-15 06:25:13.38	59.01	11.90	
2025-01-15 06:25:13.58	59.05	11.91	
2025-01-15 06:25:13.79	59.09	11.91	
2025-01-15 06:25:13.99	59.13	11.92	
2025-01-15 06:25:14.19	59.17	11.93	
2025-01-15 06:25:14.40	59.21	11.94	
2025-01-15 06:25:14.60	59.25	11.94	
2025-01-15 06:25:14.80	59.30	11.95	
2025-01-15 06:25:15.01	59.34	11.96	
2025-01-15 06:25:15.21	59.38	11.97	
2025-01-15 06:25:15.41	59.42	11.97	
2025-01-15 06:25:15.62	59.46	11.98	
2025-01-15 06:25:15.82	59.50	11.99	
2025-01-15 06:25:16.02	59.55	11.99	
2025-01-15 06:25:16.22	59.59	12.00	
2025-01-15 06:25:16.43	59.63	12.01	
2025-01-15 06:25:16.63	59.67	12.02	
2025-01-15 06:25:16.83	59.71	12.02	
2025-01-15 06:25:17.04	59.76	12.03	
2025-01-15 06:25:17.24	59.80	12.04	
2025-01-15 06:25:17.44	59.84	12.05	
2025-01-15 06:25:17.65	59.88	12.05	
2025-01-15 06:25:17.85	59.92	12.06	
2025-01-15 06:25:18.05	59.96	12.07	
2025-01-15 06:25:18.26	60.01	12.07	
2025-01-15 06:25:18.46	60.05	12.08	
2025-01-15 06:25:18.66	60.09	12.09	
2025-01-15 06:25:18.87	60.13	12.10	
2025-01-15 06:25:19.07	60.18	12.10	
2025-01-15 06:25:19.27	60.22	12.11	
2025-01-15 06:25:19.47	60.26	12.12	
2025-01-15 06:25:19.68	60.30	12.12	
2025-01-15 06:25:19.88	60.34	12.13	
2025-01-15 06:25:20.08	60.39	12.14	
2025-01-15 06:25:20.29	60.43	12.14	
2025-01-15 06:25:20.49	60.47	12.15	
2025-01-15 06:25:20.69	60.51	12.16	
2025-01-15 06:25:20.90	60.56	12.17	
2025-01-15 06:25:21.10	60.60	12.17	
2025-01-15 06:25:21.30	60.64	12.18	
2025-01-15 06:25:21.51	60.68	12.19	
2025-01-15 06:25:21.71	60.72	12.19	
2025-01-15 06:25:21.91	60.77	12.20	
2025-01-15 06:25:22.11	60.81	12.21	
2025-01-15 06:25:22.32	60.85	12.21	
2025-01-15 06:25:22.52	60.89	12.22	
2025-01-15 06:25:22.72	60.94	12.23	
2025-01-15 06:25:22.93	60.98	12.23	
2025-01-15 06:25:23.13	61.02	12.24	
2025-01-15 06:25:23.33	61.06	12.25	
2025-01-15 06:25:23.54	61.11	12.26	
2025-01-15 06:25:23.74	61.15	12.26	
2025-01-15 06:25:23.94	61.19	12.27	
2025-01-15 06:25:24.15	61.24	12.28	
2025-01-15 06:25:24.35	61.28	12.28	
2025-01-15 06:25:24.55	61.32	12.29	
2025-01-15 06:25:24.75	61.36	12.30	
2025-01-15 06:25:24.96	61.41	12.30	
2025-01-15 06:25:25.16	61.45	12.31	
2025-01-15 06:25:25.36	61.49	12.32	
2025-01-15 06:25:25.57	61.53	12.32	
2025-01-15 06:25:25.77	61.58	12.33	
2025-01-15 06:25:25.97	61.62	12.34	
2025-01-15 06:25:26.18	61.66	12.34	
2025-01-15 06:25:26.38	61.70	12.35	
2025-01-15 06:25:26.58	61.75	12.36	
2025-01-15 06:25:26.79	61.79	12.36	
2025-01-15 06:25:26.99	61.83	12.37	
2025-01-15 06:25:27.19	61.88	12.38	
2025-01-15 06:25:27.39	61.92	12.38	
2025-01-15 06:25:27.60	61.96	12.39	
2025-01-15 06:25:27.80	62.00	12.40	
2025-01-15 06:25:28.00	62.05	12.40	
2025-01-15 06:25:28.21	62.09	12.41	
2025-01-15 06:25:28.41	62.13	12.42	
2025-01-15 06:25:28.61	62.18	12.42	
2025-01-15 06:25:28.82	62.22	12.43	
2025-01-15 06:25:29.02	62.26	12.44	
2025-01-15 06:25:29.22	62.31	12.44	
2025-01-15 06:25:29.43	62.35	12.45	
2025-01-15 06:25:29.63	62.39	12.46	
2025-01-15 06:25:29.83	62.44	12.46	
2025-01-15 06:25:30.03	62.48	12.47	
2025-01-15 06:25:30.24	62.52	12.47	
2025-01-15 06:25:30.44	62.56	12.48	
2025-01-15 06:25:30.64	62.61	12.49	
2025-01-15 06:25:30.85	62.65	12.49	
2025-01-15 06:25:31.05	62.69	12.50	
2025-01-15 06:25:31.25	62.74	12.51	
2025-01-15 06:25:31.46	62.78	12.51	
2025-01-15 06:25:31.66	62.82	12.52	
2025-01-15 06:25:31.86	62.87	12.53	
2025-01-15 06:25:32.07	62.91	12.53	
2025-01-15 06:25:32.27	62.96	12.54	
2025-01-15 06:25:32.47	63.00	12.55	
2025-01-15 06:25:32.67	63.04	12.55	
2025-01-15 06:25:32.88	63.09	12.56	
2025-01-15 06:25:33.08	63.13	12.56	
2025-01-15 06:25:33.28	63.17	12.57	
2025-01-15 06:25:33.49	63.22	12.58	
2025-01-15 06:25:33.69	63.26	12.58	
2025-01-15 06:25:33.89	63.30	12.59	
2025-01-15 06:25:34.10	63.35	12.60	
2025-01-15 06:25:34.30	63.39	12.60	
2025-01-15 06:25:34.50	63.43	12.61	
2025-01-15 06:25:34.71	63.48	12.61	
2025-01-15 06:25:34.91	63.52	12.62	
2025-01-15 06:25:35.11	63.56	12.63	
2025-01-15 06:25:35.31	63.61	12.63	
2025-01-15 06:25:35.52	63.65	12.64	
2025-01-15 06:25:35.72	63.70	12.64	
2025-01-15 06:25:35.92	63.74	12.65	
2025-01-15 06:25:36.13	63.78	12.66	
2025-01-15 06:25:36.33	63.83	12.66	
2025-01-15 06:25:36.53	63.87	12.67	
2025-01-15 06:25:36.74	63.92	12.68	
2025-01-15 06:25:36.94	63.96	12.68	
2025-01-15 06:25:37.14	64.00	12.69	
2025-01-15 06:25:37.35	64.05	12.69	
2025-01-15 06:25:37.55	64.09	12.70	
2025-01-15 06:25:37.75	64.13	12.71	
2025-01-15 06:25:37.95	64.18	12.71	
2025-01-15 06:25:38.16	64.22	12.72	
2025-01-15 06:25:38.36	64.27	12.72	
2025-01-15 06:25:38.56	64.31	12.73	
2025-01-15 06:25:38.77	64.36	12.74	
2025-01-15 06:25:38.97	64.40	12.74	
2025-01-15 06:25:39.17	64.44	12.75	
2025-01-15 06:25:39.38	64.49	12.75	
2025-01-15 06:25:39.58	64.53	12.76	
2025-01-15 06:25:39.78	64.57	12.76	
2025-01-15 06:25:39.99	64.62	12.77	
2025-01-15 06:25:40.19	64.66	12.78	
2025-01-15 06:25:40.39	64.71	12.78	
2025-01-15 06:25:40.60	64.75	12.79	
2025-01-15 06:25:40.80	64.80	12.79	
2025-01-15 06:25:41.00	64.84	12.80	
2025-01-15 06:25:41.20	64.88	12.81	
2025-01-15 06:25:41.41	64.93	12.81	
2025-01-15 06:25:41.61	64.97	12.82	
2025-01-15 06:25:41.81	65.02	12.82	
2025-01-15 06:25:42.02	65.06	12.83	
2025-01-15 06:25:42.22	65.11	12.83	
2025-01-15 06:25:42.42	65.15	12.84	
2025-01-15 06:25:42.63	65.20	12.85	
2025-01-15 06:25:42.83	65.24	12.85	
2025-01-15 06:25:43.03	65.28	12.86	
2025-01-15 06:25:43.24	65.33	12.86	
2025-01-15 06:25:43.44	65.37	12.87	
2025-01-15 06:25:43.64	65.42	12.87	
2025-01-15 06:25:43.84	65.46	12.88	
2025-01-15 06:25:44.05	65.51	12.88	
2025-01-15 06:25:44.25	65.55	12.89	
2025-01-15 06:25:44.45	65.59	12.90	
2025-01-15 06:25:44.66	65.64	12.90	
2025-01-15 06:25:44.86	65.68	12.91	
2025-01-15 06:25:45.06	65.73	12.91	
2025-01-15 06:25:45.27	65.77	12.92	
2025-01-15 06:25:45.47	65.82	12.92	
2025-01-15 06:25:45.67	65.86	12.93	
2025-01-15 06:25:45.88	65.91	12.93	
2025-01-15 06:25:46.08	65.95	12.94	
2025-01-15 06:25:46.28	66.00	12.95	
2025-01-15 06:25:46.48	66.04	12.95	
2025-01-15 06:25:46.69	66.09	12.96	
2025-01-15 06:25:46.89	66.13	12.96	
2025-01-15 06:25:47.09	66.17	12.97	
2025-01-15 06:25:47.30	66.22	12.97	
2025-01-15 06:25:47.50	66.27	12.98	
2025-01-15 06:25:47.70	66.31	12.98	
2025-01-15 06:25:47.91	66.36	12.99	
2025-01-15 06:25:48.11	66.40	12.99	
2025-01-15 06:25:48.31	66.44	13.00	
2025-01-15 06:25:48.52	66.49	13.00	
2025-01-15 06:25:48.72	66.53	13.01	
2025-01-15 06:25:48.92	66.58	13.01	
2025-01-15 06:25:49.12	66.62	13.02	
2025-01-15 06:25:49.33	66.67	13.03	
2025-01-15 06:25:49.53	66.71	13.03	
2025-01-15 06:25:49.73	66.76	13.04	
2025-01-15 06:25:49.94	66.80	13.04	
2025-01-15 06:25:50.14	66.85	13.05	
2025-01-15 06:25:50.34	66.89	13.05	
2025-01-15 06:25:50.55	66.94	13.06	
2025-01-15 06:25:50.75	66.98	13.06	
2025-01-15 06:25:50.95	67.03	13.07	
2025-01-15 06:25:51.16	67.08	13.07	
2025-01-15 06:25:51.36	67.12	13.08	
2025-01-15 06:25:51.56	67.16	13.08	
2025-01-15 06:25:51.76	67.21	13.09	
2025-01-15 06:25:51.97	67.26	13.09	
2025-01-15 06:25:52.17	67.30	13.10	
2025-01-15 06:25:52.37	67.34	13.10	
2025-01-15 06:25:52.58	67.39	13.11	
2025-01-15 06:25:52.78	67.44	13.11	
2025-01-15 06:25:52.98	67.48	13.12	
2025-01-15 06:25:53.19	67.53	13.12	
2025-01-15 06:25:53.39	67.57	13.13	
2025-01-15 06:25:53.59	67.62	13.13	
2025-01-15 06:25:53.80	67.66	13.14	
2025-01-15 06:25:54.00	67.71	13.14	
2025-01-15 06:25:54.20	67.75	13.15	
2025-01-15 06:25:54.40	67.80	13.15	
2025-01-15 06:25:54.61	67.84	13.16	
2025-01-15 06:25:54.81	67.89	13.16	
2025-01-15 06:25:55.01	67.93	13.17	
2025-01-15 06:25:55.22	67.98	13.17	
2025-01-15 06:25:55.42	68.03	13.18	
2025-01-15 06:25:55.62	68.07	13.18	
2025-01-15 06:25:55.83	68.12	13.18	
2025-01-15 06:25:56.03	68.16	13.19	
2025-01-15 06:25:56.23	68.21	13.19	
2025-01-15 06:25:56.44	68.25	13.20	
2025-01-15 06:25:56.64	68.30	13.20	
2025-01-15 06:25:56.84	68.34	13.21	
2025-01-15 06:25:57.04	68.39	13.21	
2025-01-15 06:25:57.25	68.44	13.22	
2025-01-15 06:25:57.45	68.48	13.22	
2025-01-15 06:25:57.65	68.53	13.23	
2025-01-15 06:25:57.86	68.57	13.23	
2025-01-15 06:25:58.06	68.62	13.24	
2025-01-15 06:25:58.26	68.66	13.24	
2025-01-15 06:25:58.47	68.71	13.25	
2025-01-15 06:25:58.67	68.75	13.25	
2025-01-15 06:25:58.87	68.80	13.25	
2025-01-15 06:25:59.08	68.85	13.26	
2025-01-15 06:25:59.28	68.89	13.26	
2025-01-15 06:25:59.48	68.94	13.27	
2025-01-15 06:25:59.68	68.98	13.27	
2025-01-15 06:25:59.89	69.03	13.28	
2025-01-15 06:26:00.09	69.07	13.28	
2025-01-15 06:26:00.29	69.12	13.29	
2025-01-15 06:26:00.50	69.17	13.29	
2025-01-15 06:26:00.70	69.21	13.29	
2025-01-15 06:26:00.90	69.26	13.30	
2025-01-15 06:26:01.11	69.30	13.30	
2025-01-15 06:26:01.31	69.35	13.31	
2025-01-15 06:26:01.51	69.39	13.31	
2025-01-15 06:26:01.72	69.44	13.32	
2025-01-15 06:26:01.92	69.49	13.32	
2025-01-15 06:26:02.12	69.53	13.33	
2025-01-15 06:26:02.32	69.58	13.33	
2025-01-15 06:26:02.53	69.63	13.33	
2025-01-15 06:26:02.73	69.67	13.34	
2025-01-15 06:26:02.93	69.72	13.34	
2025-01-15 06:26:03.14	69.76	13.35	
2025-01-15 06:26:03.34	69.81	13.35	
2025-01-15 06:26:03.54	69.85	13.35	
2025-01-15 06:26:03.75	69.90	13.36	
2025-01-15 06:26:03.95	69.95	13.36	
2025-01-15 06:26:04.15	69.99	13.37	
2025-01-15 06:26:04.36	70.04	13.37	
2025-01-15 06:26:04.56	70.09	13.38	
2025-01-15 06:26:04.76	70.13	13.38	
2025-01-15 06:26:04.97	70.18	13.38	
2025-01-15 06:26:05.17	70.22	13.39	
2025-01-15 06:26:05.37	70.27	13.39	
2025-01-15 06:26:05.57	70.32	13.40	
2025-01-15 06:26:05.78	70.36	13.40	
2025-01-15 06:26:05.98	70.41	13.40	
2025-01-15 06:26:06.18	70.45	13.41	
2025-01-15 06:26:06.39	70.50	13.41	
2025-01-15 06:26:06.59	70.55	13.42	
2025-01-15 06:26:06.79	70.59	13.42	
2025-01-15 06:26:07.00	70.64	13.42	
2025-01-15 06:26:07.20	70.69	13.43	
2025-01-15 06:26:07.40	70.73	13.43	
2025-01-15 06:26:07.61	70.78	13.44	
2025-01-15 06:26:07.81	70.83	13.44	
2025-01-15 06:26:08.01	70.87	13.44	
2025-01-15 06:26:08.21	70.92	13.45	
2025-01-15 06:26:08.42	70.96	13.45	
2025-01-15 06:26:08.62	71.01	13.45	
2025-01-15 06:26:08.82	71.06	13.46	
2025-01-15 06:26:09.03	71.10	13.46	
2025-01-15 06:26:09.23	71.15	13.47	
2025-01-15 06:26:09.43	71.20	13.47	
2025-01-15 06:26:09.64	71.24	13.47	
2025-01-15 06:26:09.84	71.29	13.48	
2025-01-15 06:26:10.04	71.33	13.48	
2025-01-15 06:26:10.25	71.38	13.48	
2025-01-15 06:26:10.45	71.43	13.49	
2025-01-15 06:26:10.65	71.47	13.49	
2025-01-15 06:26:10.85	71.52	13.50	
2025-01-15 06:26:11.06	71.57	13.50	
2025-01-15 06:26:11.26	71.61	13.50	
2025-01-15 06:26:11.46	71.66	13.51	
2025-01-15 06:26:11.67	71.71	13.51	
2025-01-15 06:26:11.87	71.75	13.51	
2025-01-15 06:26:12.07	71.80	13.52	
2025-01-15 06:26:12.28	71.85	13.52	
2025-01-15 06:26:12.48	71.89	13.52	
2025-01-15 06:26:12.68	71.94	13.53	
2025-01-15 06:26:12.89	71.99	13.53	
2025-01-15 06:26:13.09	72.03	13.53	
2025-01-15 06:26:13.29	72.08	13.54	
2025-01-15 06:26:13.49	72.13	13.54	
2025-01-15 06:26:13.70	72.17	13.54	
2025-01-15 06:26:13.90	72.22	13.55	
2025-01-15 06:26:14.10	72.27	13.55	
2025-01-15 06:26:14.31	72.31	13.56	
2025-01-15 06:26:14.51	72.36	13.56	
2025-01-15 06:26:14.71	72.41	13.56	
2025-01-15 06:26:14.92	72.45	13.57	
2025-01-15 06:26:15.12	72.50	13.57	
2025-01-15 06:26:15.32	72.55	13.57	
2025-01-15 06:26:15.53	72.60	13.57	
2025-01-15 06:26:15.73	72.64	13.58	
2025-01-15 06:26:15.93	72.69	13.58	
2025-01-15 06:26:16.13	72.73	13.58	
2025-01-15 06:26:16.34	72.78	13.59	
2025-01-15 06:26:16.54	72.83	13.59	
2025-01-15 06:26:16.74	72.87	13.59	
2025-01-15 06:26:16.95	72.92	13.60	
2025-01-15 06:26:17.15	72.97	13.60	
2025-01-15 06:26:17.35	73.01	13.60	
2025-01-15 06:26:17.56	73.06	13.61	
2025-01-15 06:26:17.76	73.11	13.61	
2025-01-15 06:26:17.96	73.16	13.61	
2025-01-15 06:26:18.17	73.20	13.62	
2025-01-15 06:26:18.37	73.25	13.62	
2025-01-15 06:26:18.57	73.30	13.62	
2025-01-15 06:26:18.77	73.34	13.62	
2025-01-15 06:26:18.98	73.39	13.63	
2025-01-15 06:26:19.18	73.44	13.63	
2025-01-15 06:26:19.38	73.48	13.63	
2025-01-15 06:26:19.59	73.53	13.64	
2025-01-15 06:26:19.79	73.58	13.64	
2025-01-15 06:26:19.99	73.62	13.64	
2025-01-15 06:26:20.20	73.67	13.65	
2025-01-15 06:26:20.40	73.72	13.65	
2025-01-15 06:26:20.60	73.77	13.65	
2025-01-15 06:26:20.81	73.81	13.65	
2025-01-15 06:26:21.01	73.86	13.66	
2025-01-15 06:26:21.21	73.91	13.66	
2025-01-15 06:26:21.41	73.95	13.66	
2025-01-15 06:26:21.62	74.00	13.67	
2025-01-15 06:26:21.82	74.05	13.67	
2025-01-15 06:26:22.02	74.10	13.67	
2025-01-15 06:26:22.23	74.14	13.67	
2025-01-15 06:26:22.43	74.19	13.68	
2025-01-15 06:26:22.63	74.24	13.68	
2025-01-15 06:26:22.84	74.29	13.68	
2025-01-15 06:26:23.04	74.33	13.68	
2025-01-15 06:26:23.24	74.38	13.69	
2025-01-15 06:26:23.45	74.43	13.69	
2025-01-15 06:26:23.65	74.47	13.69	
2025-01-15 06:26:23.85	74.52	13.69	
2025-01-15 06:26:24.05	74.57	13.70	
2025-01-15 06:26:24.26	74.62	13.70	
2025-01-15 06:26:24.46	74.66	13.70	
2025-01-15 06:26:24.66	74.71	13.70	
2025-01-15 06:26:24.87	74.76	13.71	
2025-01-15 06:26:25.07	74.80	13.71	
2025-01-15 06:26:25.27	74.85	13.71	
2025-01-15 06:26:25.48	74.90	13.71	
2025-01-15 06:26:25.68	74.95	13.72	
2025-01-15 06:26:25.88	74.99	13.72	
2025-01-15 06:26:26.09	75.04	13.72	
2025-01-15 06:26:26.29	75.09	13.72	
2025-01-15 06:26:26.49	75.13	13.73	
2025-01-15 06:26:26.70	75.18	13.73	
2025-01-15 06:26:26.90	75.23	13.73	
2025-01-15 06:26:27.10	75.28	13.73	
2025-01-15 06:26:27.30	75.32	13.74	
2025-01-15 06:26:27.51	75.37	13.74	
2025-01-15 06:26:27.71	75.42	13.74	
2025-01-15 06:26:27.91	75.46	13.74	
2025-01-15 06:26:28.12	75.51	13.75	
2025-01-15 06:26:28.32	75.56	13.75	
2025-01-15 06:26:28.52	75.61	13.75	
2025-01-15 06:26:28.73	75.66	13.75	
2025-01-15 06:26:28.93	75.70	13.75	
2025-01-15 06:26:29.13	75.75	13.76	
2025-01-15 06:26:29.34	75.80	13.76	
2025-01-15 06:26:29.54	75.85	13.76	
2025-01-15 06:26:29.74	75.89	13.76	
2025-01-15 06:26:29.94	75.94	13.76	
2025-01-15 06:26:30.15	75.99	13.77	
2025-01-15 06:26:30.35	76.03	13.77	
2025-01-15 06:26:30.55	76.08	13.77	
2025-01-15 06:26:30.76	76.13	13.77	
2025-01-15 06:26:30.96	76.18	13.77	
2025-01-15 06:26:31.16	76.22	13.78	
2025-01-15 06:26:31.37	76.27	13.78	
2025-01-15 06:26:31.57	76.32	13.78	
2025-01-15 06:26:31.77	76.37	13.78	
2025-01-15 06:26:31.98	76.42	13.78	
2025-01-15 06:26:32.18	76.46	13.79	
2025-01-15 06:26:32.38	76.51	13.79	
2025-01-15 06:26:32.58	76.56	13.79	
2025-01-15 06:26:32.79	76.60	13.79	
2025-01-15 06:26:32.99	76.65	13.79	
2025-01-15 06:26:33.19	76.70	13.80	
2025-01-15 06:26:33.40	76.75	13.80	
2025-01-15 06:26:33.60	76.79	13.80	
2025-01-15 06:26:33.80	76.84	13.80	
2025-01-15 06:26:34.01	76.89	13.80	
2025-01-15 06:26:34.21	76.94	13.80	
2025-01-15 06:26:34.41	76.98	13.81	
2025-01-15 06:26:34.62	77.03	13.81	
2025-01-15 06:26:34.82	77.08	13.81	
2025-01-15 06:26:35.02	77.13	13.81	
2025-01-15 06:26:35.22	77.17	13.81	
2025-01-15 06:26:35.43	77.22	13.81	
2025-01-15 06:26:35.63	77.27	13.82	
2025-01-15 06:26:35.83	77.32	13.82	
2025-01-15 06:26:36.04	77.37	13.82	
2025-01-15 06:26:36.24	77.41	13.82	
2025-01-15 06:26:36.44	77.46	13.82	
2025-01-15 06:26:36.65	77.51	13.82	
2025-01-15 06:26:36.85	77.56	13.83	
2025-01-15 06:26:37.05	77.60	13.83	
2025-01-15 06:26:37.26	77.65	13.83	
2025-01-15 06:26:37.46	77.70	13.83	
2025-01-15 06:26:37.66	77.75	13.83	
2025-01-15 06:26:37.86	77.79	13.83	
2025-01-15 06:26:38.07	77.84	13.83	
2025-01-15 06:26:38.27	77.89	13.84	
2025-01-15 06:26:38.47	77.94	13.84	
2025-01-15 06:26:38.68	77.99	13.84	
2025-01-15 06:26:38.88	78.03	13.84	
2025-01-15 06:26:39.08	78.08	13.84	
2025-01-15 06:26:39.29	78.13	13.84	
2025-01-15 06:26:39.49	78.18	13.84	
2025-01-15 06:26:39.69	78.22	13.84	
2025-01-15 06:26:39.90	78.27	13.85	
2025-01-15 06:26:40.10	78.32	13.85	
2025-01-15 06:26:40.30	78.37	13.85	
2025-01-15 06:26:40.50	78.41	13.85	
2025-01-15 06:26:40.71	78.46	13.85	
2025-01-15 06:26:40.91	78.51	13.85	
2025-01-15 06:26:41.11	78.56	13.85	
2025-01-15 06:26:41.32	78.61	13.85	
2025-01-15 06:26:41.52	78.65	13.85	
2025-01-15 06:26:41.72	78.70	13.86	
2025-01-15 06:26:41.93	78.75	13.86	
2025-01-15 06:26:42.13	78.80	13.86	
2025-01-15 06:26:42.33	78.84	13.86	
2025-01-15 06:26:42.54	78.89	13.86	
2025-01-15 06:26:42.74	78.94	13.86	
2025-01-15 06:26:42.94	78.99	13.86	
2025-01-15 06:26:43.14	79.03	13.86	
2025-01-15 06:26:43.35	79.08	13.86	
2025-01-15 06:26:43.55	79.13	13.86	
2025-01-15 06:26:43.75	79.18	13.87	
2025-01-15 06:26:43.96	79.23	13.87	
2025-01-15 06:26:44.16	79.27	13.87	
2025-01-15 06:26:44.36	79.32	13.87	
2025-01-15 06:26:44.57	79.37	13.87	
2025-01-15 06:26:44.77	79.42	13.87	
2025-01-15 06:26:44.97	79.46	13.87	
2025-01-15 06:26:45.18	79.51	13.87	
2025-01-15 06:26:45.38	79.56	13.87	
2025-01-15 06:26:45.58	79.61	13.87	
2025-01-15 06:26:45.78	79.65	13.87	
2025-01-15 06:26:45.99	79.70	13.87	
2025-01-15 06:26:46.19	79.75	13.88	
2025-01-15 06:26:46.39	79.80	13.88	
2025-01-15 06:26:46.60	79.85	13.88	
2025-01-15 06:26:46.80	79.89	13.88	
2025-01-15 06:26:47.00	79.94	13.88	
2025-01-15 06:26:47.21	79.99	13.88	
2025-01-15 06:26:47.41	80.04	13.88	
2025-01-15 06:26:47.61	80.09	13.88	
2025-01-15 06:26:47.82	80.13	13.88	
2025-01-15 06:26:48.02	80.18	13.88	
2025-01-15 06:26:48.22	80.23	13.88	
2025-01-15 06:26:48.43	80.28	13.88	
2025-01-15 06:26:48.63	80.33	13.88	
2025-01-15 06:26:48.83	80.37	13.88	
2025-01-15 06:26:49.03	80.42	13.88	
2025-01-15 06:26:49.24	80.47	13.88	
2025-01-15 06:26:49.44	80.52	13.88	
2025-01-15 06:26:49.64	80.56	13.88	
2025-01-15 06:26:49.85	80.61	13.88	
2025-01-15 06:26:50.05	80.66	13.89	
2025-01-15 06:26:50.25	80.71	13.89	
2025-01-15 06:26:50.46	80.76	13.89	
2025-01-15 06:26:50.66	80.80	13.89	
2025-01-15 06:26:50.86	80.85	13.89	
2025-01-15 06:26:51.07	80.90	13.89	
2025-01-15 06:26:51.27	80.95	13.89	
2025-01-15 06:26:51.47	80.99	13.89	
2025-01-15 06:26:51.67	81.04	13.89	
2025-01-15 06:26:51.88	81.09	13.89	
2025-01-15 06:26:52.08	81.14	13.89	
2025-01-15 06:26:52.28	81.19	13.89	
2025-01-15 06:26:52.49	81.23	13.89	
2025-01-15 06:26:52.69	81.28	13.89	
2025-01-15 06:26:52.89	81.33	13.89	
2025-01-15 06:26:53.10	81.38	13.89	
2025-01-15 06:26:53.30	81.43	13.89	
2025-01-15 06:26:53.50	81.47	13.89	
2025-01-15 06:26:53.71	81.52	13.89	
2025-01-15 06:26:53.91	81.57	13.89	
2025-01-15 06:26:54.11	81.62	13.89	
2025-01-15 06:26:54.31	81.66	13.89	
2025-01-15 06:26:54.52	81.71	13.89	
2025-01-15 06:26:54.72	81.76	13.89	
2025-01-15 06:26:54.92	81.81	13.89	
2025-01-15 06:26:55.13	81.86	13.89	
2025-01-15 06:26:55.33	81.90	13.89	
2025-01-15 06:26:55.53	81.95	13.89	
2025-01-15 06:26:55.74	82.00	13.89	
2025-01-15 06:26:55.94	82.05	13.89	
2025-01-15 06:26:56.14	82.10	13.89	
2025-01-15 06:26:56.35	82.14	13.89	
2025-01-15 06:26:56.55	82.19	13.89	
2025-01-15 06:26:56.75	82.24	13.89	
2025-01-15 06:26:56.95	82.29	13.89	
2025-01-15 06:26:57.16	82.34	13.89	
2025-01-15 06:26:57.36	82.38	13.89	
2025-01-15 06:26:57.56	82.43	13.89	
2025-01-15 06:26:57.77	82.48	13.89	
2025-01-15 06:26:57.97	82.53	13.89	
2025-01-15 06:26:58.17	82.57	13.89	
2025-01-15 06:26:58.38	82.62	13.89	
2025-01-15 06:26:58.58	82.67	13.88	
2025-01-15 06:26:58.78	82.72	13.88	
2025-01-15 06:26:58.99	82.77	13.88	
2025-01-15 06:26:59.19	82.81	13.88	
2025-01-15 06:26:59.39	82.86	13.88	
2025-01-15 06:26:59.59	82.91	13.88	
2025-01-15 06:26:59.80	82.96	13.88	
2025-01-15 06:27:00.00	83.00	13.88	
2025-01-15 06:27:00.20	83.05	13.88	
2025-01-15 06:27:00.41	83.10	13.88	
2025-01-15 06:27:00.61	83.15	13.88	
2025-01-15 06:27:00.81	83.20	13.88	
2025-01-15 06:27:01.02	83.25	13.88	
2025-01-15 06:27:01.22	83.29	13.88	
2025-01-15 06:27:01.42	83.34	13.88	
2025-01-15 06:27:01.63	83.39	13.88	
2025-01-15 06:27:01.83	83.44	13.88	
2025-01-15 06:27:02.03	83.48	13.88	
2025-01-15 06:27:02.23	83.53	13.87	
2025-01-15 06:27:02.44	83.58	13.87	
2025-01-15 06:27:02.64	83.63	13.87	
2025-01-15 06:27:02.84	83.67	13.87	
2025-01-15 06:27:03.05	83.72	13.87	
2025-01-15 06:27:03.25	83.77	13.87	
2025-01-15 06:27:03.45	83.82	13.87	
2025-01-15 06:27:03.66	83.87	13.87	
2025-01-15 06:27:03.86	83.91	13.87	
2025-01-15 06:27:04.06	83.96	13.87	
2025-01-15 06:27:04.27	84.01	13.87	
2025-01-15 06:27:04.47	84.06	13.87	
2025-01-15 06:27:04.67	84.10	13.87	
2025-01-15 06:27:04.87	84.15	13.86	
2025-01-15 06:27:05.08	84.20	13.86	
2025-01-15 06:27:05.28	84.25	13.86	
2025-01-15 06:27:05.48	84.30	13.86	
2025-01-15 06:27:05.69	84.34	13.86	
2025-01-15 06:27:05.89	84.39	13.86	
2025-01-15 06:27:06.09	84.44	13.86	
2025-01-15 06:27:06.30	84.49	13.86	
2025-01-15 06:27:06.50	84.54	13.86	
2025-01-15 06:27:06.70	84.58	13.86	
2025-01-15 06:27:06.91	84.63	13.85	
2025-01-15 06:27:07.11	84.68	13.85	
2025-01-15 06:27:07.31	84.73	13.85	
2025-01-15 06:27:07.51	84.77	13.85	
2025-01-15 06:27:07.72	84.82	13.85	
2025-01-15 06:27:07.92	84.87	13.85	
2025-01-15 06:27:08.12	84.92	13.85	
2025-01-15 06:27:08.33	84.97	13.85	
2025-01-15 06:27:08.53	85.01	13.84	
2025-01-15 06:27:08.73	85.06	13.84	
2025-01-15 06:27:08.94	85.11	13.84	
2025-01-15 06:27:09.14	85.16	13.84	
2025-01-15 06:27:09.34	85.20	13.84	
2025-01-15 06:27:09.55	85.25	13.84	
2025-01-15 06:27:09.75	85.30	13.84	
2025-01-15 06:27:09.95	85.35	13.84	
2025-01-15 06:27:10.15	85.39	13.83	
2025-01-15 06:27:10.36	85.44	13.83	
2025-01-15 06:27:10.56	85.49	13.83	
2025-01-15 06:27:10.76	85.54	13.83	
2025-01-15 06:27:10.97	85.59	13.83	
2025-01-15 06:27:11.17	85.63	13.83	
2025-01-15 06:27:11.37	85.68	13.83	
2025-01-15 06:27:11.58	85.73	13.82	
2025-01-15 06:27:11.78	85.78	13.82	
2025-01-15 06:27:11.98	85.82	13.82	
2025-01-15 06:27:12.19	85.87	13.82	
2025-01-15 06:27:12.39	85.92	13.82	
2025-01-15 06:27:12.59	85.97	13.82	
2025-01-15 06:27:12.80	86.02	13.81	
2025-01-15 06:27:13.00	86.06	13.81	
2025-01-15 06:27:13.20	86.11	13.81	
2025-01-15 06:27:13.40	86.16	13.81	
2025-01-15 06:27:13.61	86.21	13.81	
2025-01-15 06:27:13.81	86.25	13.81	
2025-01-15 06:27:14.01	86.30	13.80	
2025-01-15 06:27:14.22	86.35	13.80	
2025-01-15 06:27:14.42	86.39	13.80	
2025-01-15 06:27:14.62	86.44	13.80	
2025-01-15 06:27:14.83	86.49	13.80	
2025-01-15 06:27:15.03	86.54	13.80	
2025-01-15 06:27:15.23	86.58	13.79	
2025-01-15 06:27:15.44	86.63	13.79	
2025-01-15 06:27:15.64	86.68	13.79	
2025-01-15 06:27:15.84	86.73	13.79	
2025-01-15 06:27:16.04	86.77	13.79	
2025-01-15 06:27:16.25	86.82	13.78	
2025-01-15 06:27:16.45	86.87	13.78	
2025-01-15 06:27:16.65	86.92	13.78	
2025-01-15 06:27:16.86	86.97	13.78	
2025-01-15 06:27:17.06	87.01	13.78	
2025-01-15 06:27:17.26	87.06	13.78	
2025-01-15 06:27:17.47	87.11	13.77	
2025-01-15 06:27:17.67	87.16	13.77	
2025-01-15 06:27:17.87	87.20	13.77	
2025-01-15 06:27:18.08	87.25	13.77	
2025-01-15 06:27:18.28	87.30	13.77	
2025-01-15 06:27:18.48	87.35	13.76	
2025-01-15 06:27:18.68	87.39	13.76	
2025-01-15 06:27:18.89	87.44	13.76	
2025-01-15 06:27:19.09	87.49	13.76	
2025-01-15 06:27:19.29	87.53	13.75	
2025-01-15 06:27:19.50	87.58	13.75	
2025-01-15 06:27:19.70	87.63	13.75	
2025-01-15 06:27:19.90	87.68	13.75	
2025-01-15 06:27:20.11	87.73	13.75	
2025-01-15 06:27:20.31	87.77	13.74	
2025-01-15 06:27:20.51	87.82	13.74	
2025-01-15 06:27:20.72	87.87	13.74	
2025-01-15 06:27:20.92	87.92	13.74	
2025-01-15 06:27:21.12	87.96	13.73	
2025-01-15 06:27:21.32	88.01	13.73	
2025-01-15 06:27:21.53	88.06	13.73	
2025-01-15 06:27:21.73	88.10	13.73	
2025-01-15 06:27:21.93	88.15	13.73	
2025-01-15 06:27:22.14	88.20	13.72	
2025-01-15 06:27:22.34	88.25	13.72	
2025-01-15 06:27:22.54	88.29	13.72	
2025-01-15 06:27:22.75	88.34	13.72	
2025-01-15 06:27:22.95	88.39	13.71	
2025-01-15 06:27:23.15	88.43	13.71	
2025-01-15 06:27:23.36	88.48	13.71	
2025-01-15 06:27:23.56	88.53	13.71	
2025-01-15 06:27:23.76	88.58	13.70	
2025-01-15 06:27:23.96	88.62	13.70	
2025-01-15 06:27:24.17	88.67	13.70	
2025-01-15 06:27:24.37	88.72	13.70	
2025-01-15 06:27:24.57	88.77	13.69	
2025-01-15 06:27:24.78	88.81	13.69	
2025-01-15 06:27:24.98	88.86	13.69	
2025-01-15 06:27:25.18	88.91	13.68	
2025-01-15 06:27:25.39	88.96	13.68	
2025-01-15 06:27:25.59	89.00	13.68	
2025-01-15 06:27:25.79	89.05	13.68	
2025-01-15 06:27:26.00	89.10	13.67	
2025-01-15 06:27:26.20	89.14	13.67	
2025-01-15 06:27:26.40	89.19	13.67	
2025-01-15 06:27:26.60	89.24	13.67	
2025-01-15 06:27:26.81	89.29	13.66	
2025-01-15 06:27:27.01	89.33	13.66	
2025-01-15 06:27:27.21	89.38	13.66	
2025-01-15 06:27:27.42	89.43	13.65	
2025-01-15 06:27:27.62	89.47	13.65	
2025-01-15 06:27:27.82	89.52	13.65	
2025-01-15 06:27:28.03	89.57	13.65	
2025-01-15 06:27:28.23	89.62	13.64	
2025-01-15 06:27:28.43	89.66	13.64	
2025-01-15 06:27:28.64	89.71	13.64	
2025-01-15 06:27:28.84	89.76	13.63	
2025-01-15 06:27:29.04	89.80	13.63	
2025-01-15 06:27:29.24	89.85	13.63	
2025-01-15 06:27:29.45	89.90	13.63	
2025-01-15 06:27:29.65	89.94	13.62	
2025-01-15 06:27:29.85	89.99	13.62	
2025-01-15 06:27:30.06	90.04	13.62	
2025-01-15 06:27:30.26	90.09	13.61	
2025-01-15 06:27:30.46	90.13	13.61	
2025-01-15 06:27:30.67	90.18	13.61	
2025-01-15 06:27:30.87	90.23	13.60	
2025-01-15 06:27:31.07	90.27	13.60	
2025-01-15 06:27:31.28	90.32	13.60	
2025-01-15 06:27:31.48	90.37	13.59	
2025-01-15 06:27:31.68	90.41	13.59	
2025-01-15 06:27:31.88	90.46	13.59	
2025-01-15 06:27:32.09	90.51	13.59	
2025-01-15 06:27:32.29	90.55	13.58	
2025-01-15 06:27:32.49	90.60	13.58	
2025-01-15 06:27:32.70	90.65	13.58	
2025-01-15 06:27:32.90	90.70	13.57	
2025-01-15 06:27:33.10	90.74	13.57	
2025-01-15 06:27:33.31	90.79	13.57	
2025-01-15 06:27:33.51	90.84	13.56	
2025-01-15 06:27:33.71	90.88	13.56	
2025-01-15 06:27:33.92	90.93	13.56	
2025-01-15 06:27:34.12	90.98	13.55	
2025-01-15 06:27:34.32	91.02	13.55	
2025-01-15 06:27:34.53	91.07	13.55	
2025-01-15 06:27:34.73	91.12	13.54	
2025-01-15 06:27:34.93	91.16	13.54	
2025-01-15 06:27:35.13	91.21	13.54	
2025-01-15 06:27:35.34	91.26	13.53	
2025-01-15 06:27:35.54	91.30	13.53	
2025-01-15 06:27:35.74	91.35	13.52	
2025-01-15 06:27:35.95	91.40	13.52	
2025-01-15 06:27:36.15	91.44	13.52	
2025-01-15 06:27:36.35	91.49	13.51	
2025-01-15 06:27:36.56	91.54	13.51	
2025-01-15 06:27:36.76	91.58	13.51	
2025-01-15 06:27:36.96	91.63	13.50	
2025-01-15 06:27:37.17	91.68	13.50	
2025-01-15 06:27:37.37	91.72	13.50	
2025-01-15 06:27:37.57	91.77	13.49	
2025-01-15 06:27:37.77	91.82	13.49	
2025-01-15 06:27:37.98	91.86	13.49	
2025-01-15 06:27:38.18	91.91	13.48	
2025-01-15 06:27:38.38	91.96	13.48	
2025-01-15 06:27:38.59	92.00	13.47	
2025-01-15 06:27:38.79	92.05	13.47	
2025-01-15 06:27:38.99	92.10	13.47	
2025-01-15 06:27:39.20	92.14	13.46	
2025-01-15 06:27:39.40	92.19	13.46	
2025-01-15 06:27:39.60	92.23	13.46	
2025-01-15 06:27:39.81	92.28	13.45	
2025-01-15 06:27:40.01	92.33	13.45	
2025-01-15 06:27:40.21	92.37	13.44	
2025-01-15 06:27:40.41	92.42	13.44	
2025-01-15 06:27:40.62	92.47	13.44	
2025-01-15 06:27:40.82	92.51	13.43	
2025-01-15 06:27:41.02	92.56	13.43	
2025-01-15 06:27:41.23	92.61	13.42	
2025-01-15 06:27:41.43	92.65	13.42	
2025-01-15 06:27:41.63	92.70	13.42	
2025-01-15 06:27:41.84	92.75	13.41	
2025-01-15 06:27:42.04	92.79	13.41	
2025-01-15 06:27:42.24	92.84	13.40	
2025-01-15 06:27:42.45	92.89	13.40	
2025-01-15 06:27:42.65	92.93	13.40	
2025-01-15 06:27:42.85	92.98	13.39	
2025-01-15 06:27:43.05	93.02	13.39	
2025-01-15 06:27:43.26	93.07	13.38	
2025-01-15 06:27:43.46	93.12	13.38	
2025-01-15 06:27:43.66	93.16	13.38	
2025-01-15 06:27:43.87	93.21	13.37	
2025-01-15 06:27:44.07	93.25	13.37	
2025-01-15 06:27:44.27	93.30	13.36	
2025-01-15 06:27:44.48	93.35	13.36	
2025-01-15 06:27:44.68	93.39	13.36	
2025-01-15 06:27:44.88	93.44	13.35	
2025-01-15 06:27:45.09	93.49	13.35	
2025-01-15 06:27:45.29	93.53	13.34	
2025-01-15 06:27:45.49	93.58	13.34	
2025-01-15 06:27:45.69	93.62	13.33	
2025-01-15 06:27:45.90	93.67	13.33	
2025-01-15 06:27:46.10	93.72	13.33	
2025-01-15 06:27:46.30	93.76	13.32	
2025-01-15 06:27:46.51	93.81	13.32	
2025-01-15 06:27:46.71	93.85	13.31	
2025-01-15 06:27:46.91	93.90	13.31	
2025-01-15 06:27:47.12	93.95	13.30	
2025-01-15 06:27:47.32	93.99	13.30	
2025-01-15 06:27:47.52	94.04	13.29	
2025-01-15 06:27:47.73	94.08	13.29	
2025-01-15 06:27:47.93	94.13	13.29	
2025-01-15 06:27:48.13	94.18	13.28	
2025-01-15 06:27:48.33	94.22	13.28	
2025-01-15 06:27:48.54	94.27	13.27	
2025-01-15 06:27:48.74	94.31	13.27	
2025-01-15 06:27:48.94	94.36	13.26	
2025-01-15 06:27:49.15	94.41	13.26	
2025-01-15 06:27:49.35	94.45	13.25	
2025-01-15 06:27:49.55	94.50	13.25	
2025-01-15 06:27:49.76	94.54	13.25	
2025-01-15 06:27:49.96	94.59	13.24	
2025-01-15 06:27:50.16	94.63	13.24	
2025-01-15 06:27:50.37	94.68	13.23	
2025-01-15 06:27:50.57	94.73	13.23	
2025-01-15 06:27:50.77	94.77	13.22	
2025-01-15 06:27:50.97	94.82	13.22	
2025-01-15 06:27:51.18	94.86	13.21	
2025-01-15 06:27:51.38	94.91	13.21	
2025-01-15 06:27:51.58	94.95	13.20	
2025-01-15 06:27:51.79	95.00	13.20	
2025-01-15 06:27:51.99	95.05	13.19	
2025-01-15 06:27:52.19	95.09	13.19	
2025-01-15 06:27:52.40	95.14	13.18	
2025-01-15 06:27:52.60	95.18	13.18	
2025-01-15 06:27:52.80	95.23	13.17	
2025-01-15 06:27:53.01	95.27	13.17	
2025-01-15 06:27:53.21	95.32	13.17	
2025-01-15 06:27:53.41	95.36	13.16	
2025-01-15 06:27:53.61	95.41	13.16	
2025-01-15 06:27:53.82	95.46	13.15	
2025-01-15 06:27:54.02	95.50	13.15	
2025-01-15 06:27:54.22	95.55	13.14	
2025-01-15 06:27:54.43	95.59	13.14	
2025-01-15 06:27:54.63	95.64	13.13	
2025-01-15 06:27:54.83	95.68	13.13	
2025-01-15 06:27:55.04	95.73	13.12	
2025-01-15 06:27:55.24	95.77	13.12	
2025-01-15 06:27:55.44	95.82	13.11	
2025-01-15 06:27:55.65	95.87	13.11	
2025-01-15 06:27:55.85	95.91	13.10	
2025-01-15 06:27:56.05	95.95	13.10	
2025-01-15 06:27:56.26	96.00	13.09	
2025-01-15 06:27:56.46	96.05	13.09	
2025-01-15 06:27:56.66	96.09	13.08	
2025-01-15 06:27:56.86	96.14	13.08	
2025-01-15 06:27:57.07	96.18	13.07	
2025-01-15 06:27:57.27	96.23	13.07	
2025-01-15 06:27:57.47	96.27	13.06	
2025-01-15 06:27:57.68	96.32	13.06	
2025-01-15 06:27:57.88	96.36	13.05	
2025-01-15 06:27:58.08	96.41	13.05	
2025-01-15 06:27:58.29	96.45	13.04	
2025-01-15 06:27:58.49	96.50	13.03	
2025-01-15 06:27:58.69	96.54	13.03	
2025-01-15 06:27:58.90	96.59	13.02	
2025-01-15 06:27:59.10	96.63	13.02	
2025-01-15 06:27:59.30	96.68	13.01	
2025-01-15 06:27:59.50	96.72	13.01	
2025-01-15 06:27:59.71	96.77	13.00	
2025-01-15 06:27:59.91	96.81	13.00	
2025-01-15 06:28:00.11	96.86	12.99	
2025-01-15 06:28:00.32	96.90	12.99	
2025-01-15 06:28:00.52	96.95	12.98	
2025-01-15 06:28:00.72	96.99	12.98	
2025-01-15 06:28:00.93	97.04	12.97	
2025-01-15 06:28:01.13	97.08	12.97	
2025-01-15 06:28:01.33	97.13	12.96	
2025-01-15 06:28:01.54	97.17	12.95	
2025-01-15 06:28:01.74	97.22	12.95	
2025-01-15 06:28:01.94	97.26	12.94	
2025-01-15 06:28:02.14	97.31	12.94	
2025-01-15 06:28:02.35	97.35	12.93	
2025-01-15 06:28:02.55	97.40	12.93	
2025-01-15 06:28:02.75	97.44	12.92	
2025-01-15 06:28:02.96	97.49	12.92	
2025-01-15 06:28:03.16	97.53	12.91	
2025-01-15 06:28:03.36	97.58	12.91	
2025-01-15 06:28:03.57	97.62	12.90	
2025-01-15 06:28:03.77	97.67	12.89	
2025-01-15 06:28:03.97	97.71	12.89	
2025-01-15 06:28:04.18	97.76	12.88	
2025-01-15 06:28:04.38	97.80	12.88	
2025-01-15 06:28:04.58	97.84	12.87	
2025-01-15 06:28:04.78	97.89	12.87	
2025-01-15 06:28:04.99	97.93	12.86	
2025-01-15 06:28:05.19	97.98	12.85	
2025-01-15 06:28:05.39	98.02	12.85	
