passes_logs/2025/01/15/SPB_Silybum_02/SPB_Silybum_02__20250115_173617_TERRA_rec.log

#Pass ID: 20250115_173617_TERRA
#Satellite: TERRA
#Configuration: TERRA
#Start time: 2025-01-15 17:36:17

#Version: 2.0.20230423
#Station: SPB_Silybum_02
#Location: 30.233357 lon 59.946436 lat
#TLE: 1 25994U 99068A   25014.85746573  .00000777  00000+0  16972-3 0  9996
#TLE: 2 25994  98.0216  77.8924 0003456  72.8612  46.8876 14.60394566334056

#Time	Az	El	Level	Level2	SNR	BER	Gain	Gain2
2025-01-15 17:36:19.42	133.07	4.10	
2025-01-15 17:36:19.62	133.06	4.12	
2025-01-15 17:36:19.82	133.05	4.13	
2025-01-15 17:36:20.03	133.04	4.14	
2025-01-15 17:36:20.23	133.03	4.16	
2025-01-15 17:36:20.43	133.02	4.17	
2025-01-15 17:36:20.64	133.01	4.19	
2025-01-15 17:36:20.84	133.00	4.20	
2025-01-15 17:36:21.04	132.99	4.22	
2025-01-15 17:36:21.24	132.98	4.23	
2025-01-15 17:36:21.45	132.97	4.24	
2025-01-15 17:36:21.65	132.96	4.26	
2025-01-15 17:36:21.85	132.96	4.27	
2025-01-15 17:36:22.06	132.95	4.29	
2025-01-15 17:36:22.26	132.94	4.30	
2025-01-15 17:36:22.46	132.93	4.31	
2025-01-15 17:36:22.67	132.92	4.33	
2025-01-15 17:36:22.87	132.91	4.34	
2025-01-15 17:36:23.07	132.90	4.36	
2025-01-15 17:36:23.28	132.89	4.37	
2025-01-15 17:36:23.48	132.88	4.39	
2025-01-15 17:36:23.68	132.87	4.40	
2025-01-15 17:36:23.88	132.86	4.41	
2025-01-15 17:36:24.09	132.85	4.43	
2025-01-15 17:36:24.29	132.84	4.44	
2025-01-15 17:36:24.49	132.83	4.46	
2025-01-15 17:36:24.70	132.82	4.47	
2025-01-15 17:36:24.90	132.81	4.49	
2025-01-15 17:36:25.10	132.80	4.50	
2025-01-15 17:36:25.31	132.79	4.52	
2025-01-15 17:36:25.51	132.78	4.53	
2025-01-15 17:36:25.71	132.77	4.54	
2025-01-15 17:36:25.92	132.76	4.56	
2025-01-15 17:36:26.12	132.75	4.57	
2025-01-15 17:36:26.32	132.75	4.59	
2025-01-15 17:36:26.52	132.74	4.60	
2025-01-15 17:36:26.73	132.73	4.62	
2025-01-15 17:36:26.93	132.72	4.63	
2025-01-15 17:36:27.13	132.71	4.64	
2025-01-15 17:36:27.34	132.70	4.66	
2025-01-15 17:36:27.54	132.69	4.67	
2025-01-15 17:36:27.74	132.68	4.69	
2025-01-15 17:36:27.95	132.67	4.70	
2025-01-15 17:36:28.15	132.66	4.72	
2025-01-15 17:36:28.35	132.65	4.73	
2025-01-15 17:36:28.56	132.64	4.75	
2025-01-15 17:36:28.76	132.63	4.76	
2025-01-15 17:36:28.96	132.62	4.77	
2025-01-15 17:36:29.16	132.61	4.79	
2025-01-15 17:36:29.37	132.60	4.80	
2025-01-15 17:36:29.57	132.59	4.82	
2025-01-15 17:36:29.77	132.58	4.83	
2025-01-15 17:36:29.98	132.57	4.85	
2025-01-15 17:36:30.18	132.56	4.86	
2025-01-15 17:36:30.38	132.55	4.88	
2025-01-15 17:36:30.59	132.54	4.89	
2025-01-15 17:36:30.79	132.53	4.91	
2025-01-15 17:36:30.99	132.52	4.92	
2025-01-15 17:36:31.20	132.51	4.93	
2025-01-15 17:36:31.40	132.50	4.95	
2025-01-15 17:36:31.60	132.49	4.96	
2025-01-15 17:36:31.80	132.48	4.98	
2025-01-15 17:36:32.01	132.47	4.99	
2025-01-15 17:36:32.21	132.46	5.01	
2025-01-15 17:36:32.41	132.45	5.02	
2025-01-15 17:36:32.62	132.44	5.04	
2025-01-15 17:36:32.82	132.43	5.05	
2025-01-15 17:36:33.02	132.42	5.07	
2025-01-15 17:36:33.23	132.41	5.08	
2025-01-15 17:36:33.43	132.40	5.10	
2025-01-15 17:36:33.63	132.39	5.11	
2025-01-15 17:36:33.84	132.38	5.12	
2025-01-15 17:36:34.04	132.37	5.14	
2025-01-15 17:36:34.24	132.36	5.15	
2025-01-15 17:36:34.44	132.35	5.17	
2025-01-15 17:36:34.65	132.34	5.18	
2025-01-15 17:36:34.85	132.33	5.20	
2025-01-15 17:36:35.05	132.32	5.21	
2025-01-15 17:36:35.26	132.31	5.23	
2025-01-15 17:36:35.46	132.30	5.24	
2025-01-15 17:36:35.66	132.29	5.26	
2025-01-15 17:36:35.87	132.28	5.27	
2025-01-15 17:36:36.07	132.27	5.29	
2025-01-15 17:36:36.27	132.26	5.30	
2025-01-15 17:36:36.48	132.25	5.32	
2025-01-15 17:36:36.68	132.24	5.33	
2025-01-15 17:36:36.88	132.23	5.35	
2025-01-15 17:36:37.08	132.22	5.36	
2025-01-15 17:36:37.29	132.21	5.38	
2025-01-15 17:36:37.49	132.20	5.39	
2025-01-15 17:36:37.69	132.19	5.40	
2025-01-15 17:36:37.90	132.18	5.42	
2025-01-15 17:36:38.10	132.17	5.43	
2025-01-15 17:36:38.30	132.16	5.45	
2025-01-15 17:36:38.51	132.14	5.46	
2025-01-15 17:36:38.71	132.13	5.48	
2025-01-15 17:36:38.91	132.12	5.49	
2025-01-15 17:36:39.12	132.11	5.51	
2025-01-15 17:36:39.32	132.10	5.52	
2025-01-15 17:36:39.52	132.09	5.54	
2025-01-15 17:36:39.72	132.08	5.55	
2025-01-15 17:36:39.93	132.07	5.57	
2025-01-15 17:36:40.13	132.06	5.58	
2025-01-15 17:36:40.33	132.05	5.60	
2025-01-15 17:36:40.54	132.04	5.61	
2025-01-15 17:36:40.74	132.03	5.63	
2025-01-15 17:36:40.94	132.02	5.64	
2025-01-15 17:36:41.15	132.01	5.66	
2025-01-15 17:36:41.35	132.00	5.67	
2025-01-15 17:36:41.55	131.99	5.69	
2025-01-15 17:36:41.76	131.98	5.70	
2025-01-15 17:36:41.96	131.97	5.72	
2025-01-15 17:36:42.16	131.96	5.73	
2025-01-15 17:36:42.36	131.95	5.75	
2025-01-15 17:36:42.57	131.93	5.76	
2025-01-15 17:36:42.77	131.92	5.78	
2025-01-15 17:36:42.97	131.91	5.79	
2025-01-15 17:36:43.18	131.90	5.81	
2025-01-15 17:36:43.38	131.89	5.82	
2025-01-15 17:36:43.58	131.88	5.84	
2025-01-15 17:36:43.79	131.87	5.85	
2025-01-15 17:36:43.99	131.86	5.87	
2025-01-15 17:36:44.19	131.85	5.88	
2025-01-15 17:36:44.39	131.84	5.90	
2025-01-15 17:36:44.60	131.83	5.91	
2025-01-15 17:36:44.80	131.82	5.93	
2025-01-15 17:36:45.00	131.81	5.94	
2025-01-15 17:36:45.21	131.80	5.96	
2025-01-15 17:36:45.41	131.79	5.98	
2025-01-15 17:36:45.61	131.77	5.99	
2025-01-15 17:36:45.82	131.76	6.01	
2025-01-15 17:36:46.02	131.75	6.02	
2025-01-15 17:36:46.22	131.74	6.04	
2025-01-15 17:36:46.43	131.73	6.05	
2025-01-15 17:36:46.63	131.72	6.07	
2025-01-15 17:36:46.83	131.71	6.08	
2025-01-15 17:36:47.03	131.70	6.10	
2025-01-15 17:36:47.24	131.69	6.11	
2025-01-15 17:36:47.44	131.68	6.13	
2025-01-15 17:36:47.64	131.67	6.14	
2025-01-15 17:36:47.85	131.65	6.16	
2025-01-15 17:36:48.05	131.64	6.17	
2025-01-15 17:36:48.25	131.63	6.19	
2025-01-15 17:36:48.46	131.62	6.20	
2025-01-15 17:36:48.66	131.61	6.22	
2025-01-15 17:36:48.86	131.60	6.23	
2025-01-15 17:36:49.07	131.59	6.25	
2025-01-15 17:36:49.27	131.58	6.27	
2025-01-15 17:36:49.47	131.57	6.28	
2025-01-15 17:36:49.67	131.56	6.30	
2025-01-15 17:36:49.88	131.54	6.31	
2025-01-15 17:36:50.08	131.53	6.33	
2025-01-15 17:36:50.28	131.52	6.34	
2025-01-15 17:36:50.49	131.51	6.36	
2025-01-15 17:36:50.69	131.50	6.37	
2025-01-15 17:36:50.89	131.49	6.39	
2025-01-15 17:36:51.10	131.48	6.40	
2025-01-15 17:36:51.30	131.47	6.42	
2025-01-15 17:36:51.50	131.46	6.43	
2025-01-15 17:36:51.71	131.44	6.45	
2025-01-15 17:36:51.91	131.43	6.47	
2025-01-15 17:36:52.11	131.42	6.48	
2025-01-15 17:36:52.31	131.41	6.50	
2025-01-15 17:36:52.52	131.40	6.51	
2025-01-15 17:36:52.72	131.39	6.53	
2025-01-15 17:36:52.94	131.38	6.54	
2025-01-15 17:36:53.14	131.37	6.56	
2025-01-15 17:36:53.35	131.35	6.58	
2025-01-15 17:36:53.55	131.34	6.59	
2025-01-15 17:36:53.75	131.33	6.61	
2025-01-15 17:36:53.95	131.32	6.62	
2025-01-15 17:36:54.16	131.31	6.64	
2025-01-15 17:36:54.36	131.30	6.65	
2025-01-15 17:36:54.56	131.29	6.67	
2025-01-15 17:36:54.77	131.27	6.68	
2025-01-15 17:36:54.97	131.26	6.70	
2025-01-15 17:36:55.17	131.25	6.71	
2025-01-15 17:36:55.38	131.24	6.73	
2025-01-15 17:36:55.58	131.23	6.75	
2025-01-15 17:36:55.78	131.22	6.76	
2025-01-15 17:36:55.99	131.21	6.78	
2025-01-15 17:36:56.19	131.19	6.79	
2025-01-15 17:36:56.39	131.18	6.81	
2025-01-15 17:36:56.60	131.17	6.82	
2025-01-15 17:36:56.80	131.16	6.84	
2025-01-15 17:36:57.00	131.15	6.86	
2025-01-15 17:36:57.20	131.14	6.87	
2025-01-15 17:36:57.41	131.12	6.89	
2025-01-15 17:36:57.61	131.11	6.90	
2025-01-15 17:36:57.81	131.10	6.92	
2025-01-15 17:36:58.02	131.09	6.93	
2025-01-15 17:36:58.22	131.08	6.95	
2025-01-15 17:36:58.42	131.07	6.97	
2025-01-15 17:36:58.63	131.05	6.98	
2025-01-15 17:36:58.83	131.04	7.00	
2025-01-15 17:36:59.03	131.03	7.01	
2025-01-15 17:36:59.24	131.02	7.03	
2025-01-15 17:36:59.44	131.01	7.05	
2025-01-15 17:36:59.64	131.00	7.06	
2025-01-15 17:36:59.84	130.99	7.08	
2025-01-15 17:37:00.05	130.97	7.09	
2025-01-15 17:37:00.25	130.96	7.11	
2025-01-15 17:37:00.45	130.95	7.12	
2025-01-15 17:37:00.66	130.94	7.14	
2025-01-15 17:37:00.86	130.93	7.16	
2025-01-15 17:37:01.06	130.91	7.17	
2025-01-15 17:37:01.27	130.90	7.19	
2025-01-15 17:37:01.47	130.89	7.20	
2025-01-15 17:37:01.67	130.88	7.22	
2025-01-15 17:37:01.88	130.87	7.24	
2025-01-15 17:37:02.08	130.85	7.25	
2025-01-15 17:37:02.28	130.84	7.27	
2025-01-15 17:37:02.48	130.83	7.28	
2025-01-15 17:37:02.69	130.82	7.30	
2025-01-15 17:37:02.89	130.81	7.32	
2025-01-15 17:37:03.09	130.80	7.33	
2025-01-15 17:37:03.30	130.78	7.35	
2025-01-15 17:37:03.50	130.77	7.36	
2025-01-15 17:37:03.70	130.76	7.38	
2025-01-15 17:37:03.91	130.75	7.40	
2025-01-15 17:37:04.11	130.73	7.41	
2025-01-15 17:37:04.31	130.72	7.43	
2025-01-15 17:37:04.52	130.71	7.44	
2025-01-15 17:37:04.72	130.70	7.46	
2025-01-15 17:37:04.92	130.69	7.48	
2025-01-15 17:37:05.12	130.67	7.49	
2025-01-15 17:37:05.33	130.66	7.51	
2025-01-15 17:37:05.53	130.65	7.52	
2025-01-15 17:37:05.73	130.64	7.54	
2025-01-15 17:37:05.94	130.63	7.56	
2025-01-15 17:37:06.14	130.61	7.57	
2025-01-15 17:37:06.34	130.60	7.59	
2025-01-15 17:37:06.55	130.59	7.60	
2025-01-15 17:37:06.75	130.58	7.62	
2025-01-15 17:37:06.95	130.56	7.64	
2025-01-15 17:37:07.15	130.55	7.65	
2025-01-15 17:37:07.36	130.54	7.67	
2025-01-15 17:37:07.56	130.53	7.69	
2025-01-15 17:37:07.76	130.52	7.70	
2025-01-15 17:37:07.97	130.50	7.72	
2025-01-15 17:37:08.17	130.49	7.73	
2025-01-15 17:37:08.37	130.48	7.75	
2025-01-15 17:37:08.58	130.47	7.77	
2025-01-15 17:37:08.78	130.45	7.78	
2025-01-15 17:37:08.98	130.44	7.80	
2025-01-15 17:37:09.19	130.43	7.82	
2025-01-15 17:37:09.39	130.42	7.83	
2025-01-15 17:37:09.59	130.40	7.85	
2025-01-15 17:37:09.79	130.39	7.86	
2025-01-15 17:37:10.00	130.38	7.88	
2025-01-15 17:37:10.20	130.37	7.90	
2025-01-15 17:37:10.40	130.35	7.91	
2025-01-15 17:37:10.61	130.34	7.93	
2025-01-15 17:37:10.81	130.33	7.95	
2025-01-15 17:37:11.01	130.32	7.96	
2025-01-15 17:37:11.22	130.30	7.98	
2025-01-15 17:37:11.42	130.29	8.00	
2025-01-15 17:37:11.62	130.28	8.01	
2025-01-15 17:37:11.83	130.27	8.03	
2025-01-15 17:37:12.03	130.25	8.04	
2025-01-15 17:37:12.23	130.24	8.06	
2025-01-15 17:37:12.43	130.23	8.08	
2025-01-15 17:37:12.64	130.21	8.09	
2025-01-15 17:37:12.84	130.20	8.11	
2025-01-15 17:37:13.04	130.19	8.13	
2025-01-15 17:37:13.25	130.18	8.14	
2025-01-15 17:37:13.45	130.16	8.16	
2025-01-15 17:37:13.65	130.15	8.18	
2025-01-15 17:37:13.86	130.14	8.19	
2025-01-15 17:37:14.06	130.13	8.21	
2025-01-15 17:37:14.26	130.11	8.23	
2025-01-15 17:37:14.47	130.10	8.24	
2025-01-15 17:37:14.67	130.09	8.26	
2025-01-15 17:37:14.87	130.07	8.28	
2025-01-15 17:37:15.07	130.06	8.29	
2025-01-15 17:37:15.28	130.05	8.31	
2025-01-15 17:37:15.48	130.03	8.33	
2025-01-15 17:37:15.68	130.02	8.34	
2025-01-15 17:37:15.89	130.01	8.36	
2025-01-15 17:37:16.09	130.00	8.38	
2025-01-15 17:37:16.29	129.98	8.39	
2025-01-15 17:37:16.50	129.97	8.41	
2025-01-15 17:37:16.70	129.96	8.43	
2025-01-15 17:37:16.90	129.94	8.44	
2025-01-15 17:37:17.11	129.93	8.46	
2025-01-15 17:37:17.31	129.92	8.48	
2025-01-15 17:37:17.51	129.90	8.49	
2025-01-15 17:37:17.71	129.89	8.51	
2025-01-15 17:37:17.92	129.88	8.53	
2025-01-15 17:37:18.12	129.87	8.54	
2025-01-15 17:37:18.32	129.85	8.56	
2025-01-15 17:37:18.53	129.84	8.58	
2025-01-15 17:37:18.73	129.83	8.59	
2025-01-15 17:37:18.93	129.81	8.61	
2025-01-15 17:37:19.14	129.80	8.63	
2025-01-15 17:37:19.34	129.79	8.64	
2025-01-15 17:37:19.54	129.77	8.66	
2025-01-15 17:37:19.75	129.76	8.68	
2025-01-15 17:37:19.95	129.75	8.69	
2025-01-15 17:37:20.15	129.73	8.71	
2025-01-15 17:37:20.35	129.72	8.73	
2025-01-15 17:37:20.56	129.71	8.75	
2025-01-15 17:37:20.76	129.69	8.76	
2025-01-15 17:37:20.96	129.68	8.78	
2025-01-15 17:37:21.17	129.67	8.80	
2025-01-15 17:37:21.37	129.65	8.81	
2025-01-15 17:37:21.57	129.64	8.83	
2025-01-15 17:37:21.78	129.62	8.85	
2025-01-15 17:37:21.98	129.61	8.86	
2025-01-15 17:37:22.18	129.60	8.88	
2025-01-15 17:37:22.39	129.58	8.90	
2025-01-15 17:37:22.59	129.57	8.91	
2025-01-15 17:37:22.79	129.56	8.93	
2025-01-15 17:37:22.99	129.54	8.95	
2025-01-15 17:37:23.20	129.53	8.97	
2025-01-15 17:37:23.40	129.52	8.98	
2025-01-15 17:37:23.60	129.50	9.00	
2025-01-15 17:37:23.81	129.49	9.02	
2025-01-15 17:37:24.01	129.48	9.03	
2025-01-15 17:37:24.21	129.46	9.05	
2025-01-15 17:37:24.42	129.45	9.07	
2025-01-15 17:37:24.62	129.43	9.09	
2025-01-15 17:37:24.82	129.42	9.10	
2025-01-15 17:37:25.03	129.41	9.12	
2025-01-15 17:37:25.23	129.39	9.14	
2025-01-15 17:37:25.43	129.38	9.15	
2025-01-15 17:37:25.63	129.37	9.17	
2025-01-15 17:37:25.84	129.35	9.19	
2025-01-15 17:37:26.04	129.34	9.21	
2025-01-15 17:37:26.24	129.32	9.22	
2025-01-15 17:37:26.45	129.31	9.24	
2025-01-15 17:37:26.65	129.30	9.26	
2025-01-15 17:37:26.85	129.28	9.27	
2025-01-15 17:37:27.06	129.27	9.29	
2025-01-15 17:37:27.26	129.25	9.31	
2025-01-15 17:37:27.46	129.24	9.33	
2025-01-15 17:37:27.67	129.23	9.34	
2025-01-15 17:37:27.87	129.21	9.36	
2025-01-15 17:37:28.07	129.20	9.38	
2025-01-15 17:37:28.27	129.18	9.40	
2025-01-15 17:37:28.48	129.17	9.41	
2025-01-15 17:37:28.68	129.16	9.43	
2025-01-15 17:37:28.88	129.14	9.45	
2025-01-15 17:37:29.09	129.13	9.47	
2025-01-15 17:37:29.29	129.11	9.48	
2025-01-15 17:37:29.49	129.10	9.50	
2025-01-15 17:37:29.70	129.09	9.52	
2025-01-15 17:37:29.90	129.07	9.53	
2025-01-15 17:37:30.10	129.06	9.55	
2025-01-15 17:37:30.31	129.04	9.57	
2025-01-15 17:37:30.51	129.03	9.59	
2025-01-15 17:37:30.71	129.01	9.60	
2025-01-15 17:37:30.91	129.00	9.62	
2025-01-15 17:37:31.12	128.99	9.64	
2025-01-15 17:37:31.32	128.97	9.66	
2025-01-15 17:37:31.52	128.96	9.67	
2025-01-15 17:37:31.73	128.94	9.69	
2025-01-15 17:37:31.93	128.93	9.71	
2025-01-15 17:37:32.13	128.91	9.73	
2025-01-15 17:37:32.34	128.90	9.75	
2025-01-15 17:37:32.54	128.88	9.76	
2025-01-15 17:37:32.74	128.87	9.78	
2025-01-15 17:37:32.95	128.86	9.80	
2025-01-15 17:37:33.15	128.84	9.82	
2025-01-15 17:37:33.35	128.83	9.83	
2025-01-15 17:37:33.55	128.81	9.85	
2025-01-15 17:37:33.76	128.80	9.87	
2025-01-15 17:37:33.96	128.78	9.89	
2025-01-15 17:37:34.16	128.77	9.90	
2025-01-15 17:37:34.37	128.75	9.92	
2025-01-15 17:37:34.57	128.74	9.94	
2025-01-15 17:37:34.77	128.72	9.96	
2025-01-15 17:37:34.98	128.71	9.97	
2025-01-15 17:37:35.18	128.70	9.99	
2025-01-15 17:37:35.38	128.68	10.01	
2025-01-15 17:37:35.59	128.67	10.03	
2025-01-15 17:37:35.79	128.65	10.05	
2025-01-15 17:37:35.99	128.64	10.06	
2025-01-15 17:37:36.19	128.62	10.08	
2025-01-15 17:37:36.40	128.61	10.10	
2025-01-15 17:37:36.60	128.59	10.12	
2025-01-15 17:37:36.80	128.58	10.13	
2025-01-15 17:37:37.01	128.56	10.15	
2025-01-15 17:37:37.21	128.55	10.17	
2025-01-15 17:37:37.41	128.53	10.19	
2025-01-15 17:37:37.62	128.52	10.21	
2025-01-15 17:37:37.82	128.50	10.22	
2025-01-15 17:37:38.02	128.49	10.24	
2025-01-15 17:37:38.23	128.47	10.26	
2025-01-15 17:37:38.43	128.46	10.28	
2025-01-15 17:37:38.63	128.44	10.30	
2025-01-15 17:37:38.83	128.43	10.31	
2025-01-15 17:37:39.04	128.41	10.33	
2025-01-15 17:37:39.24	128.40	10.35	
2025-01-15 17:37:39.44	128.38	10.37	
2025-01-15 17:37:39.65	128.37	10.39	
2025-01-15 17:37:39.85	128.35	10.40	
2025-01-15 17:37:40.05	128.34	10.42	
2025-01-15 17:37:40.26	128.32	10.44	
2025-01-15 17:37:40.46	128.31	10.46	
2025-01-15 17:37:40.66	128.29	10.48	
2025-01-15 17:37:40.87	128.27	10.49	
2025-01-15 17:37:41.07	128.26	10.51	
2025-01-15 17:37:41.27	128.24	10.53	
2025-01-15 17:37:41.47	128.23	10.55	
2025-01-15 17:37:41.68	128.21	10.57	
2025-01-15 17:37:41.88	128.20	10.58	
2025-01-15 17:37:42.08	128.18	10.60	
2025-01-15 17:37:42.29	128.17	10.62	
2025-01-15 17:37:42.49	128.15	10.64	
2025-01-15 17:37:42.69	128.14	10.66	
2025-01-15 17:37:42.90	128.12	10.68	
2025-01-15 17:37:43.10	128.11	10.69	
2025-01-15 17:37:43.30	128.09	10.71	
2025-01-15 17:37:43.51	128.07	10.73	
2025-01-15 17:37:43.71	128.06	10.75	
2025-01-15 17:37:43.91	128.04	10.77	
2025-01-15 17:37:44.11	128.03	10.79	
2025-01-15 17:37:44.32	128.01	10.80	
2025-01-15 17:37:44.52	128.00	10.82	
2025-01-15 17:37:44.72	127.98	10.84	
2025-01-15 17:37:44.93	127.96	10.86	
2025-01-15 17:37:45.13	127.95	10.88	
2025-01-15 17:37:45.33	127.93	10.90	
2025-01-15 17:37:45.54	127.92	10.91	
2025-01-15 17:37:45.74	127.90	10.93	
2025-01-15 17:37:45.94	127.89	10.95	
2025-01-15 17:37:46.15	127.87	10.97	
2025-01-15 17:37:46.35	127.85	10.99	
2025-01-15 17:37:46.55	127.84	11.01	
2025-01-15 17:37:46.75	127.82	11.02	
2025-01-15 17:37:46.96	127.81	11.04	
2025-01-15 17:37:47.16	127.79	11.06	
2025-01-15 17:37:47.36	127.77	11.08	
2025-01-15 17:37:47.57	127.76	11.10	
2025-01-15 17:37:47.77	127.74	11.12	
2025-01-15 17:37:47.97	127.73	11.14	
2025-01-15 17:37:48.18	127.71	11.16	
2025-01-15 17:37:48.38	127.69	11.17	
2025-01-15 17:37:48.58	127.68	11.19	
2025-01-15 17:37:48.79	127.66	11.21	
2025-01-15 17:37:48.99	127.65	11.23	
2025-01-15 17:37:49.19	127.63	11.25	
2025-01-15 17:37:49.39	127.61	11.27	
2025-01-15 17:37:49.60	127.60	11.29	
2025-01-15 17:37:49.80	127.58	11.30	
2025-01-15 17:37:50.00	127.57	11.32	
2025-01-15 17:37:50.21	127.55	11.34	
2025-01-15 17:37:50.41	127.53	11.36	
2025-01-15 17:37:50.61	127.52	11.38	
2025-01-15 17:37:50.82	127.50	11.40	
2025-01-15 17:37:51.02	127.48	11.42	
2025-01-15 17:37:51.22	127.47	11.43	
2025-01-15 17:37:51.43	127.45	11.45	
2025-01-15 17:37:51.63	127.43	11.47	
2025-01-15 17:37:51.83	127.42	11.49	
2025-01-15 17:37:52.03	127.40	11.51	
2025-01-15 17:37:52.24	127.38	11.53	
2025-01-15 17:37:52.44	127.37	11.55	
2025-01-15 17:37:52.64	127.35	11.57	
2025-01-15 17:37:52.85	127.33	11.59	
2025-01-15 17:37:53.05	127.32	11.60	
2025-01-15 17:37:53.25	127.30	11.62	
2025-01-15 17:37:53.46	127.28	11.64	
2025-01-15 17:37:53.66	127.27	11.66	
2025-01-15 17:37:53.86	127.25	11.68	
2025-01-15 17:37:54.07	127.23	11.70	
2025-01-15 17:37:54.27	127.22	11.72	
2025-01-15 17:37:54.47	127.20	11.74	
2025-01-15 17:37:54.67	127.18	11.76	
2025-01-15 17:37:54.88	127.17	11.78	
2025-01-15 17:37:55.08	127.15	11.79	
2025-01-15 17:37:55.28	127.13	11.81	
2025-01-15 17:37:55.49	127.12	11.83	
2025-01-15 17:37:55.69	127.10	11.85	
2025-01-15 17:37:55.89	127.08	11.87	
2025-01-15 17:37:56.10	127.07	11.89	
2025-01-15 17:37:56.30	127.05	11.91	
2025-01-15 17:37:56.50	127.03	11.93	
2025-01-15 17:37:56.71	127.01	11.95	
2025-01-15 17:37:56.91	127.00	11.97	
2025-01-15 17:37:57.11	126.98	11.99	
2025-01-15 17:37:57.31	126.96	12.00	
2025-01-15 17:37:57.52	126.95	12.02	
2025-01-15 17:37:57.72	126.93	12.04	
2025-01-15 17:37:57.92	126.91	12.06	
2025-01-15 17:37:58.13	126.89	12.08	
2025-01-15 17:37:58.33	126.88	12.10	
2025-01-15 17:37:58.53	126.86	12.12	
2025-01-15 17:37:58.74	126.84	12.14	
2025-01-15 17:37:58.94	126.82	12.16	
2025-01-15 17:37:59.14	126.81	12.18	
2025-01-15 17:37:59.35	126.79	12.20	
2025-01-15 17:37:59.55	126.77	12.22	
2025-01-15 17:37:59.75	126.76	12.24	
2025-01-15 17:37:59.95	126.74	12.26	
2025-01-15 17:38:00.16	126.72	12.28	
2025-01-15 17:38:00.36	126.70	12.29	
2025-01-15 17:38:00.56	126.69	12.31	
2025-01-15 17:38:00.77	126.67	12.33	
2025-01-15 17:38:00.97	126.65	12.35	
2025-01-15 17:38:01.17	126.63	12.37	
2025-01-15 17:38:01.38	126.61	12.39	
2025-01-15 17:38:01.58	126.60	12.41	
2025-01-15 17:38:01.78	126.58	12.43	
2025-01-15 17:38:01.99	126.56	12.45	
2025-01-15 17:38:02.19	126.54	12.47	
2025-01-15 17:38:02.39	126.53	12.49	
2025-01-15 17:38:02.59	126.51	12.51	
2025-01-15 17:38:02.80	126.49	12.53	
2025-01-15 17:38:03.00	126.47	12.55	
2025-01-15 17:38:03.20	126.46	12.57	
2025-01-15 17:38:03.41	126.44	12.59	
2025-01-15 17:38:03.61	126.42	12.61	
2025-01-15 17:38:03.81	126.40	12.63	
2025-01-15 17:38:04.02	126.38	12.65	
2025-01-15 17:38:04.22	126.37	12.67	
2025-01-15 17:38:04.42	126.35	12.69	
2025-01-15 17:38:04.63	126.33	12.71	
2025-01-15 17:38:04.83	126.31	12.73	
2025-01-15 17:38:05.03	126.29	12.75	
2025-01-15 17:38:05.23	126.28	12.76	
2025-01-15 17:38:05.44	126.26	12.79	
2025-01-15 17:38:05.64	126.24	12.80	
2025-01-15 17:38:05.84	126.22	12.82	
2025-01-15 17:38:06.05	126.20	12.84	
2025-01-15 17:38:06.25	126.18	12.86	
2025-01-15 17:38:06.45	126.17	12.88	
2025-01-15 17:38:06.66	126.15	12.90	
2025-01-15 17:38:06.86	126.13	12.92	
2025-01-15 17:38:07.06	126.11	12.94	
2025-01-15 17:38:07.27	126.09	12.96	
2025-01-15 17:38:07.47	126.07	12.98	
2025-01-15 17:38:07.67	126.06	13.00	
2025-01-15 17:38:07.87	126.04	13.02	
2025-01-15 17:38:08.08	126.02	13.04	
2025-01-15 17:38:08.28	126.00	13.06	
2025-01-15 17:38:08.48	125.98	13.08	
2025-01-15 17:38:08.69	125.96	13.10	
2025-01-15 17:38:08.89	125.94	13.12	
2025-01-15 17:38:09.09	125.93	13.14	
2025-01-15 17:38:09.30	125.91	13.16	
2025-01-15 17:38:09.50	125.89	13.18	
2025-01-15 17:38:09.70	125.87	13.20	
2025-01-15 17:38:09.91	125.85	13.22	
2025-01-15 17:38:10.11	125.83	13.24	
2025-01-15 17:38:10.31	125.81	13.26	
2025-01-15 17:38:10.51	125.79	13.28	
2025-01-15 17:38:10.72	125.77	13.30	
2025-01-15 17:38:10.92	125.76	13.32	
2025-01-15 17:38:11.12	125.74	13.34	
2025-01-15 17:38:11.33	125.72	13.37	
2025-01-15 17:38:11.53	125.70	13.39	
2025-01-15 17:38:11.73	125.68	13.41	
2025-01-15 17:38:11.94	125.66	13.43	
2025-01-15 17:38:12.14	125.64	13.45	
2025-01-15 17:38:12.34	125.62	13.47	
2025-01-15 17:38:12.54	125.60	13.49	
2025-01-15 17:38:12.75	125.58	13.51	
2025-01-15 17:38:12.95	125.57	13.53	
2025-01-15 17:38:13.15	125.55	13.55	
2025-01-15 17:38:13.36	125.53	13.57	
2025-01-15 17:38:13.56	125.51	13.59	
2025-01-15 17:38:13.76	125.49	13.61	
2025-01-15 17:38:13.97	125.47	13.63	
2025-01-15 17:38:14.17	125.45	13.65	
2025-01-15 17:38:14.37	125.43	13.67	
2025-01-15 17:38:14.58	125.41	13.69	
2025-01-15 17:38:14.78	125.39	13.71	
2025-01-15 17:38:14.98	125.37	13.73	
2025-01-15 17:38:15.19	125.35	13.75	
2025-01-15 17:38:15.39	125.33	13.77	
2025-01-15 17:38:15.59	125.31	13.79	
2025-01-15 17:38:15.79	125.29	13.81	
2025-01-15 17:38:16.00	125.27	13.84	
2025-01-15 17:38:16.20	125.25	13.86	
2025-01-15 17:38:16.40	125.23	13.88	
2025-01-15 17:38:16.61	125.21	13.90	
2025-01-15 17:38:16.81	125.19	13.92	
2025-01-15 17:38:17.01	125.18	13.94	
2025-01-15 17:38:17.22	125.15	13.96	
2025-01-15 17:38:17.42	125.14	13.98	
2025-01-15 17:38:17.62	125.12	14.00	
2025-01-15 17:38:17.82	125.10	14.02	
2025-01-15 17:38:18.03	125.08	14.04	
2025-01-15 17:38:18.23	125.06	14.06	
2025-01-15 17:38:18.43	125.04	14.08	
2025-01-15 17:38:18.64	125.02	14.10	
2025-01-15 17:38:18.84	125.00	14.12	
2025-01-15 17:38:19.04	124.98	14.15	
2025-01-15 17:38:19.25	124.95	14.17	
2025-01-15 17:38:19.45	124.94	14.19	
2025-01-15 17:38:19.65	124.92	14.21	
2025-01-15 17:38:19.86	124.89	14.23	
2025-01-15 17:38:20.06	124.87	14.25	
2025-01-15 17:38:20.26	124.85	14.27	
2025-01-15 17:38:20.46	124.83	14.29	
2025-01-15 17:38:20.67	124.81	14.31	
2025-01-15 17:38:20.87	124.79	14.33	
2025-01-15 17:38:21.07	124.77	14.35	
2025-01-15 17:38:21.28	124.75	14.38	
2025-01-15 17:38:21.48	124.73	14.40	
2025-01-15 17:38:21.68	124.71	14.42	
2025-01-15 17:38:21.89	124.69	14.44	
2025-01-15 17:38:22.09	124.67	14.46	
2025-01-15 17:38:22.29	124.65	14.48	
2025-01-15 17:38:22.50	124.63	14.50	
2025-01-15 17:38:22.70	124.61	14.52	
2025-01-15 17:38:22.90	124.59	14.54	
2025-01-15 17:38:23.10	124.57	14.57	
2025-01-15 17:38:23.31	124.55	14.59	
2025-01-15 17:38:23.51	124.53	14.61	
2025-01-15 17:38:23.71	124.50	14.63	
2025-01-15 17:38:23.92	124.48	14.65	
2025-01-15 17:38:24.12	124.46	14.67	
2025-01-15 17:38:24.32	124.44	14.69	
2025-01-15 17:38:24.53	124.42	14.72	
2025-01-15 17:38:24.73	124.40	14.74	
2025-01-15 17:38:24.93	124.38	14.76	
2025-01-15 17:38:25.14	124.36	14.78	
2025-01-15 17:38:25.34	124.34	14.80	
2025-01-15 17:38:25.54	124.32	14.82	
2025-01-15 17:38:25.74	124.29	14.84	
2025-01-15 17:38:25.95	124.27	14.86	
2025-01-15 17:38:26.15	124.25	14.89	
2025-01-15 17:38:26.35	124.23	14.91	
2025-01-15 17:38:26.56	124.21	14.93	
2025-01-15 17:38:26.76	124.19	14.95	
2025-01-15 17:38:26.96	124.17	14.97	
2025-01-15 17:38:27.17	124.15	14.99	
2025-01-15 17:38:27.37	124.12	15.01	
2025-01-15 17:38:27.57	124.10	15.04	
2025-01-15 17:38:27.78	124.08	15.06	
2025-01-15 17:38:27.98	124.06	15.08	
2025-01-15 17:38:28.18	124.04	15.10	
2025-01-15 17:38:28.38	124.02	15.12	
2025-01-15 17:38:28.59	123.99	15.14	
2025-01-15 17:38:28.79	123.97	15.17	
2025-01-15 17:38:28.99	123.95	15.19	
2025-01-15 17:38:29.20	123.93	15.21	
2025-01-15 17:38:29.40	123.91	15.23	
2025-01-15 17:38:29.60	123.89	15.25	
2025-01-15 17:38:29.81	123.86	15.27	
2025-01-15 17:38:30.01	123.84	15.30	
2025-01-15 17:38:30.21	123.82	15.32	
2025-01-15 17:38:30.42	123.80	15.34	
2025-01-15 17:38:30.62	123.78	15.36	
2025-01-15 17:38:30.82	123.75	15.38	
2025-01-15 17:38:31.02	123.73	15.40	
2025-01-15 17:38:31.23	123.71	15.43	
2025-01-15 17:38:31.43	123.69	15.45	
2025-01-15 17:38:31.63	123.67	15.47	
2025-01-15 17:38:31.84	123.64	15.49	
2025-01-15 17:38:32.04	123.62	15.51	
2025-01-15 17:38:32.24	123.60	15.54	
2025-01-15 17:38:32.45	123.58	15.56	
2025-01-15 17:38:32.65	123.55	15.58	
2025-01-15 17:38:32.85	123.53	15.60	
2025-01-15 17:38:33.06	123.51	15.62	
2025-01-15 17:38:33.26	123.49	15.65	
2025-01-15 17:38:33.46	123.47	15.67	
2025-01-15 17:38:33.66	123.44	15.69	
2025-01-15 17:38:33.87	123.42	15.71	
2025-01-15 17:38:34.07	123.40	15.73	
2025-01-15 17:38:34.27	123.38	15.76	
2025-01-15 17:38:34.48	123.35	15.78	
2025-01-15 17:38:34.68	123.33	15.80	
2025-01-15 17:38:34.88	123.31	15.82	
2025-01-15 17:38:35.09	123.28	15.85	
2025-01-15 17:38:35.29	123.26	15.87	
2025-01-15 17:38:35.49	123.24	15.89	
2025-01-15 17:38:35.70	123.22	15.91	
2025-01-15 17:38:35.90	123.19	15.93	
2025-01-15 17:38:36.10	123.17	15.96	
2025-01-15 17:38:36.30	123.15	15.98	
2025-01-15 17:38:36.51	123.12	16.00	
2025-01-15 17:38:36.71	123.10	16.02	
2025-01-15 17:38:36.91	123.08	16.05	
2025-01-15 17:38:37.12	123.05	16.07	
2025-01-15 17:38:37.32	123.03	16.09	
2025-01-15 17:38:37.52	123.01	16.11	
2025-01-15 17:38:37.73	122.98	16.14	
2025-01-15 17:38:37.93	122.96	16.16	
2025-01-15 17:38:38.13	122.94	16.18	
2025-01-15 17:38:38.34	122.91	16.20	
2025-01-15 17:38:38.54	122.89	16.23	
2025-01-15 17:38:38.74	122.87	16.25	
2025-01-15 17:38:38.94	122.85	16.27	
2025-01-15 17:38:39.15	122.82	16.29	
2025-01-15 17:38:39.35	122.80	16.32	
2025-01-15 17:38:39.55	122.77	16.34	
2025-01-15 17:38:39.76	122.75	16.36	
2025-01-15 17:38:39.96	122.73	16.38	
2025-01-15 17:38:40.16	122.70	16.41	
2025-01-15 17:38:40.37	122.68	16.43	
2025-01-15 17:38:40.57	122.66	16.45	
2025-01-15 17:38:40.77	122.63	16.47	
2025-01-15 17:38:40.98	122.61	16.50	
2025-01-15 17:38:41.18	122.58	16.52	
2025-01-15 17:38:41.38	122.56	16.54	
2025-01-15 17:38:41.58	122.54	16.56	
2025-01-15 17:38:41.79	122.51	16.59	
2025-01-15 17:38:41.99	122.49	16.61	
2025-01-15 17:38:42.19	122.46	16.63	
2025-01-15 17:38:42.40	122.44	16.66	
2025-01-15 17:38:42.60	122.42	16.68	
2025-01-15 17:38:42.80	122.39	16.70	
2025-01-15 17:38:43.01	122.37	16.73	
2025-01-15 17:38:43.21	122.34	16.75	
2025-01-15 17:38:43.41	122.32	16.77	
2025-01-15 17:38:43.62	122.29	16.79	
2025-01-15 17:38:43.82	122.27	16.82	
2025-01-15 17:38:44.02	122.25	16.84	
2025-01-15 17:38:44.22	122.22	16.86	
2025-01-15 17:38:44.43	122.20	16.89	
2025-01-15 17:38:44.63	122.17	16.91	
2025-01-15 17:38:44.83	122.15	16.93	
2025-01-15 17:38:45.04	122.12	16.96	
2025-01-15 17:38:45.24	122.10	16.98	
2025-01-15 17:38:45.44	122.07	17.00	
2025-01-15 17:38:45.65	122.05	17.02	
2025-01-15 17:38:45.85	122.02	17.05	
2025-01-15 17:38:46.05	122.00	17.07	
2025-01-15 17:38:46.26	121.97	17.09	
2025-01-15 17:38:46.46	121.95	17.12	
2025-01-15 17:38:46.66	121.92	17.14	
2025-01-15 17:38:46.86	121.90	17.16	
2025-01-15 17:38:47.07	121.87	17.19	
2025-01-15 17:38:47.27	121.85	17.21	
2025-01-15 17:38:47.47	121.82	17.23	
2025-01-15 17:38:47.68	121.80	17.26	
2025-01-15 17:38:47.88	121.77	17.28	
2025-01-15 17:38:48.08	121.75	17.30	
2025-01-15 17:38:48.29	121.72	17.33	
2025-01-15 17:38:48.49	121.70	17.35	
2025-01-15 17:38:48.69	121.67	17.37	
2025-01-15 17:38:48.90	121.65	17.40	
2025-01-15 17:38:49.10	121.62	17.42	
2025-01-15 17:38:49.30	121.60	17.44	
2025-01-15 17:38:49.50	121.57	17.47	
2025-01-15 17:38:49.71	121.54	17.49	
2025-01-15 17:38:49.91	121.52	17.51	
2025-01-15 17:38:50.11	121.49	17.54	
2025-01-15 17:38:50.32	121.47	17.56	
2025-01-15 17:38:50.52	121.44	17.59	
2025-01-15 17:38:50.72	121.42	17.61	
2025-01-15 17:38:50.93	121.39	17.63	
2025-01-15 17:38:51.13	121.36	17.66	
2025-01-15 17:38:51.33	121.34	17.68	
2025-01-15 17:38:51.54	121.31	17.70	
2025-01-15 17:38:51.74	121.29	17.73	
2025-01-15 17:38:51.94	121.26	17.75	
2025-01-15 17:38:52.14	121.23	17.77	
2025-01-15 17:38:52.35	121.21	17.80	
2025-01-15 17:38:52.55	121.18	17.82	
2025-01-15 17:38:52.75	121.16	17.85	
2025-01-15 17:38:52.96	121.13	17.87	
2025-01-15 17:38:53.16	121.10	17.89	
2025-01-15 17:38:53.36	121.08	17.92	
2025-01-15 17:38:53.57	121.05	17.94	
2025-01-15 17:38:53.77	121.02	17.97	
2025-01-15 17:38:53.97	121.00	17.99	
2025-01-15 17:38:54.18	120.97	18.01	
2025-01-15 17:38:54.38	120.94	18.04	
2025-01-15 17:38:54.58	120.92	18.06	
2025-01-15 17:38:54.78	120.89	18.08	
2025-01-15 17:38:54.99	120.86	18.11	
2025-01-15 17:38:55.19	120.84	18.13	
2025-01-15 17:38:55.39	120.81	18.16	
2025-01-15 17:38:55.60	120.78	18.18	
2025-01-15 17:38:55.80	120.76	18.21	
2025-01-15 17:38:56.00	120.73	18.23	
2025-01-15 17:38:56.21	120.70	18.25	
2025-01-15 17:38:56.41	120.67	18.28	
2025-01-15 17:38:56.61	120.65	18.30	
2025-01-15 17:38:56.82	120.62	18.33	
2025-01-15 17:38:57.02	120.59	18.35	
2025-01-15 17:38:57.22	120.57	18.37	
2025-01-15 17:38:57.42	120.54	18.40	
2025-01-15 17:38:57.63	120.51	18.42	
2025-01-15 17:38:57.83	120.48	18.45	
2025-01-15 17:38:58.03	120.46	18.47	
2025-01-15 17:38:58.24	120.43	18.50	
2025-01-15 17:38:58.44	120.40	18.52	
2025-01-15 17:38:58.64	120.37	18.54	
2025-01-15 17:38:58.85	120.35	18.57	
2025-01-15 17:38:59.05	120.32	18.59	
2025-01-15 17:38:59.25	120.29	18.62	
2025-01-15 17:38:59.46	120.26	18.64	
2025-01-15 17:38:59.66	120.23	18.67	
2025-01-15 17:38:59.86	120.21	18.69	
2025-01-15 17:39:00.06	120.18	18.72	
2025-01-15 17:39:00.27	120.15	18.74	
2025-01-15 17:39:00.47	120.12	18.76	
2025-01-15 17:39:00.67	120.10	18.79	
2025-01-15 17:39:00.88	120.07	18.81	
2025-01-15 17:39:01.08	120.04	18.84	
2025-01-15 17:39:01.28	120.01	18.86	
2025-01-15 17:39:01.49	119.98	18.89	
2025-01-15 17:39:01.69	119.95	18.91	
2025-01-15 17:39:01.89	119.93	18.94	
2025-01-15 17:39:02.10	119.90	18.96	
2025-01-15 17:39:02.30	119.87	18.99	
2025-01-15 17:39:02.50	119.84	19.01	
2025-01-15 17:39:02.70	119.81	19.04	
2025-01-15 17:39:02.91	119.78	19.06	
2025-01-15 17:39:03.11	119.75	19.09	
2025-01-15 17:39:03.31	119.73	19.11	
2025-01-15 17:39:03.52	119.70	19.14	
2025-01-15 17:39:03.72	119.67	19.16	
2025-01-15 17:39:03.92	119.64	19.18	
2025-01-15 17:39:04.13	119.61	19.21	
2025-01-15 17:39:04.33	119.58	19.23	
2025-01-15 17:39:04.53	119.55	19.26	
2025-01-15 17:39:04.74	119.52	19.29	
2025-01-15 17:39:04.94	119.49	19.31	
2025-01-15 17:39:05.14	119.46	19.33	
2025-01-15 17:39:05.34	119.44	19.36	
2025-01-15 17:39:05.55	119.41	19.39	
2025-01-15 17:39:05.75	119.38	19.41	
2025-01-15 17:39:05.95	119.35	19.43	
2025-01-15 17:39:06.16	119.32	19.46	
2025-01-15 17:39:06.36	119.29	19.49	
2025-01-15 17:39:06.56	119.26	19.51	
2025-01-15 17:39:06.77	119.23	19.54	
2025-01-15 17:39:06.97	119.20	19.56	
2025-01-15 17:39:07.17	119.17	19.59	
2025-01-15 17:39:07.38	119.14	19.61	
2025-01-15 17:39:07.58	119.11	19.64	
2025-01-15 17:39:07.78	119.08	19.66	
2025-01-15 17:39:07.98	119.05	19.69	
2025-01-15 17:39:08.19	119.02	19.71	
2025-01-15 17:39:08.39	118.99	19.74	
2025-01-15 17:39:08.59	118.96	19.76	
2025-01-15 17:39:08.80	118.93	19.79	
2025-01-15 17:39:09.00	118.90	19.81	
2025-01-15 17:39:09.20	118.87	19.84	
2025-01-15 17:39:09.41	118.84	19.86	
2025-01-15 17:39:09.61	118.81	19.89	
2025-01-15 17:39:09.81	118.78	19.92	
2025-01-15 17:39:10.02	118.75	19.94	
2025-01-15 17:39:10.22	118.72	19.97	
2025-01-15 17:39:10.42	118.69	19.99	
2025-01-15 17:39:10.62	118.66	20.02	
2025-01-15 17:39:10.83	118.63	20.04	
2025-01-15 17:39:11.03	118.60	20.07	
2025-01-15 17:39:11.23	118.57	20.09	
2025-01-15 17:39:11.44	118.53	20.12	
2025-01-15 17:39:11.64	118.50	20.15	
2025-01-15 17:39:11.84	118.47	20.17	
2025-01-15 17:39:12.05	118.44	20.20	
2025-01-15 17:39:12.25	118.41	20.22	
2025-01-15 17:39:12.45	118.38	20.25	
2025-01-15 17:39:12.65	118.35	20.27	
2025-01-15 17:39:12.86	118.32	20.30	
2025-01-15 17:39:13.06	118.29	20.33	
2025-01-15 17:39:13.26	118.25	20.35	
2025-01-15 17:39:13.47	118.22	20.38	
2025-01-15 17:39:13.67	118.19	20.40	
2025-01-15 17:39:13.87	118.16	20.43	
2025-01-15 17:39:14.08	118.13	20.46	
2025-01-15 17:39:14.28	118.10	20.48	
2025-01-15 17:39:14.48	118.07	20.51	
2025-01-15 17:39:14.69	118.03	20.53	
2025-01-15 17:39:14.89	118.00	20.56	
2025-01-15 17:39:15.09	117.97	20.58	
2025-01-15 17:39:15.30	117.94	20.61	
2025-01-15 17:39:15.50	117.91	20.64	
2025-01-15 17:39:15.70	117.87	20.66	
2025-01-15 17:39:15.90	117.84	20.69	
2025-01-15 17:39:16.11	117.81	20.72	
2025-01-15 17:39:16.31	117.78	20.74	
2025-01-15 17:39:16.51	117.75	20.77	
2025-01-15 17:39:16.72	117.71	20.79	
2025-01-15 17:39:16.92	117.68	20.82	
2025-01-15 17:39:17.12	117.65	20.85	
2025-01-15 17:39:17.33	117.61	20.87	
2025-01-15 17:39:17.53	117.58	20.90	
2025-01-15 17:39:17.73	117.55	20.92	
2025-01-15 17:39:17.94	117.52	20.95	
2025-01-15 17:39:18.14	117.48	20.98	
2025-01-15 17:39:18.34	117.45	21.00	
2025-01-15 17:39:18.54	117.42	21.03	
2025-01-15 17:39:18.75	117.39	21.06	
2025-01-15 17:39:18.95	117.35	21.08	
2025-01-15 17:39:19.15	117.32	21.11	
2025-01-15 17:39:19.36	117.29	21.14	
2025-01-15 17:39:19.56	117.25	21.16	
2025-01-15 17:39:19.76	117.22	21.19	
2025-01-15 17:39:19.97	117.19	21.22	
2025-01-15 17:39:20.17	117.15	21.24	
2025-01-15 17:39:20.37	117.12	21.27	
2025-01-15 17:39:20.58	117.09	21.29	
2025-01-15 17:39:20.78	117.05	21.32	
2025-01-15 17:39:20.98	117.02	21.35	
2025-01-15 17:39:21.18	116.99	21.37	
2025-01-15 17:39:21.39	116.95	21.40	
2025-01-15 17:39:21.59	116.92	21.43	
2025-01-15 17:39:21.79	116.89	21.45	
2025-01-15 17:39:22.00	116.85	21.48	
2025-01-15 17:39:22.20	116.82	21.51	
2025-01-15 17:39:22.40	116.78	21.53	
2025-01-15 17:39:22.61	116.75	21.56	
2025-01-15 17:39:22.81	116.72	21.59	
2025-01-15 17:39:23.01	116.68	21.61	
2025-01-15 17:39:23.22	116.65	21.64	
2025-01-15 17:39:23.42	116.61	21.67	
2025-01-15 17:39:23.62	116.58	21.69	
2025-01-15 17:39:23.82	116.55	21.72	
2025-01-15 17:39:24.03	116.51	21.75	
2025-01-15 17:39:24.23	116.48	21.78	
2025-01-15 17:39:24.43	116.44	21.80	
2025-01-15 17:39:24.64	116.41	21.83	
2025-01-15 17:39:24.84	116.37	21.86	
2025-01-15 17:39:25.04	116.34	21.88	
2025-01-15 17:39:25.25	116.30	21.91	
2025-01-15 17:39:25.45	116.27	21.94	
2025-01-15 17:39:25.65	116.23	21.96	
2025-01-15 17:39:25.86	116.20	21.99	
2025-01-15 17:39:26.06	116.16	22.02	
2025-01-15 17:39:26.26	116.13	22.05	
2025-01-15 17:39:26.46	116.09	22.07	
2025-01-15 17:39:26.67	116.06	22.10	
2025-01-15 17:39:26.87	116.02	22.13	
2025-01-15 17:39:27.07	115.99	22.15	
2025-01-15 17:39:27.28	115.95	22.18	
2025-01-15 17:39:27.48	115.91	22.21	
2025-01-15 17:39:27.68	115.88	22.24	
2025-01-15 17:39:27.89	115.84	22.26	
2025-01-15 17:39:28.09	115.81	22.29	
2025-01-15 17:39:28.29	115.77	22.32	
2025-01-15 17:39:28.49	115.74	22.34	
2025-01-15 17:39:28.70	115.70	22.37	
2025-01-15 17:39:28.90	115.66	22.40	
2025-01-15 17:39:29.10	115.63	22.43	
2025-01-15 17:39:29.31	115.59	22.45	
2025-01-15 17:39:29.51	115.55	22.48	
2025-01-15 17:39:29.71	115.52	22.51	
2025-01-15 17:39:29.92	115.48	22.54	
2025-01-15 17:39:30.12	115.45	22.56	
2025-01-15 17:39:30.32	115.41	22.59	
2025-01-15 17:39:30.53	115.37	22.62	
2025-01-15 17:39:30.73	115.34	22.65	
2025-01-15 17:39:30.93	115.30	22.67	
2025-01-15 17:39:31.13	115.26	22.70	
2025-01-15 17:39:31.34	115.22	22.73	
2025-01-15 17:39:31.54	115.19	22.76	
2025-01-15 17:39:31.74	115.15	22.78	
2025-01-15 17:39:31.95	115.11	22.81	
2025-01-15 17:39:32.15	115.08	22.84	
2025-01-15 17:39:32.35	115.04	22.87	
2025-01-15 17:39:32.56	115.00	22.90	
2025-01-15 17:39:32.76	114.96	22.92	
2025-01-15 17:39:32.96	114.93	22.95	
2025-01-15 17:39:33.17	114.89	22.98	
2025-01-15 17:39:33.37	114.85	23.01	
2025-01-15 17:39:33.57	114.82	23.03	
2025-01-15 17:39:33.77	114.78	23.06	
2025-01-15 17:39:33.98	114.74	23.09	
2025-01-15 17:39:34.18	114.70	23.12	
2025-01-15 17:39:34.38	114.66	23.15	
2025-01-15 17:39:34.59	114.62	23.17	
2025-01-15 17:39:34.79	114.59	23.20	
2025-01-15 17:39:34.99	114.55	23.23	
2025-01-15 17:39:35.20	114.51	23.26	
2025-01-15 17:39:35.40	114.47	23.29	
2025-01-15 17:39:35.60	114.43	23.31	
2025-01-15 17:39:35.81	114.40	23.34	
2025-01-15 17:39:36.01	114.36	23.37	
2025-01-15 17:39:36.21	114.32	23.40	
2025-01-15 17:39:36.41	114.28	23.43	
2025-01-15 17:39:36.62	114.24	23.45	
2025-01-15 17:39:36.82	114.20	23.48	
2025-01-15 17:39:37.02	114.16	23.51	
2025-01-15 17:39:37.23	114.12	23.54	
2025-01-15 17:39:37.43	114.09	23.57	
2025-01-15 17:39:37.63	114.05	23.59	
2025-01-15 17:39:37.84	114.01	23.62	
2025-01-15 17:39:38.04	113.97	23.65	
2025-01-15 17:39:38.24	113.93	23.68	
2025-01-15 17:39:38.45	113.89	23.71	
2025-01-15 17:39:38.65	113.85	23.74	
2025-01-15 17:39:38.85	113.81	23.76	
2025-01-15 17:39:39.05	113.77	23.79	
2025-01-15 17:39:39.26	113.73	23.82	
2025-01-15 17:39:39.46	113.69	23.85	
2025-01-15 17:39:39.66	113.65	23.88	
2025-01-15 17:39:39.87	113.61	23.91	
2025-01-15 17:39:40.07	113.57	23.94	
2025-01-15 17:39:40.27	113.53	23.96	
2025-01-15 17:39:40.48	113.49	23.99	
2025-01-15 17:39:40.68	113.45	24.02	
2025-01-15 17:39:40.88	113.41	24.05	
2025-01-15 17:39:41.09	113.37	24.08	
2025-01-15 17:39:41.29	113.33	24.11	
2025-01-15 17:39:41.49	113.29	24.13	
2025-01-15 17:39:41.69	113.25	24.16	
2025-01-15 17:39:41.90	113.21	24.19	
2025-01-15 17:39:42.10	113.17	24.22	
2025-01-15 17:39:42.30	113.13	24.25	
2025-01-15 17:39:42.51	113.09	24.28	
2025-01-15 17:39:42.71	113.04	24.31	
2025-01-15 17:39:42.91	113.00	24.33	
2025-01-15 17:39:43.12	112.96	24.36	
2025-01-15 17:39:43.32	112.92	24.39	
2025-01-15 17:39:43.52	112.88	24.42	
2025-01-15 17:39:43.73	112.84	24.45	
2025-01-15 17:39:43.93	112.80	24.48	
2025-01-15 17:39:44.13	112.76	24.51	
2025-01-15 17:39:44.33	112.71	24.54	
2025-01-15 17:39:44.54	112.67	24.57	
2025-01-15 17:39:44.74	112.63	24.59	
2025-01-15 17:39:44.94	112.59	24.62	
2025-01-15 17:39:45.15	112.55	24.65	
2025-01-15 17:39:45.35	112.50	24.68	
2025-01-15 17:39:45.55	112.46	24.71	
2025-01-15 17:39:45.76	112.42	24.74	
2025-01-15 17:39:45.96	112.38	24.77	
2025-01-15 17:39:46.16	112.34	24.80	
2025-01-15 17:39:46.37	112.29	24.83	
2025-01-15 17:39:46.57	112.25	24.86	
2025-01-15 17:39:46.77	112.21	24.88	
2025-01-15 17:39:46.97	112.17	24.91	
2025-01-15 17:39:47.18	112.12	24.94	
2025-01-15 17:39:47.38	112.08	24.97	
2025-01-15 17:39:47.58	112.04	25.00	
2025-01-15 17:39:47.79	111.99	25.03	
2025-01-15 17:39:47.99	111.95	25.06	
2025-01-15 17:39:48.19	111.91	25.09	
2025-01-15 17:39:48.40	111.86	25.12	
2025-01-15 17:39:48.60	111.82	25.15	
2025-01-15 17:39:48.80	111.78	25.18	
2025-01-15 17:39:49.01	111.73	25.21	
2025-01-15 17:39:49.21	111.69	25.23	
2025-01-15 17:39:49.41	111.65	25.26	
2025-01-15 17:39:49.61	111.60	25.29	
2025-01-15 17:39:49.82	111.56	25.32	
2025-01-15 17:39:50.02	111.51	25.35	
2025-01-15 17:39:50.22	111.47	25.38	
2025-01-15 17:39:50.43	111.43	25.41	
2025-01-15 17:39:50.63	111.38	25.44	
2025-01-15 17:39:50.83	111.34	25.47	
2025-01-15 17:39:51.04	111.29	25.50	
2025-01-15 17:39:51.24	111.25	25.53	
2025-01-15 17:39:51.44	111.20	25.56	
2025-01-15 17:39:51.65	111.16	25.59	
2025-01-15 17:39:51.85	111.11	25.62	
2025-01-15 17:39:52.05	111.07	25.65	
2025-01-15 17:39:52.25	111.03	25.67	
2025-01-15 17:39:52.46	110.98	25.70	
2025-01-15 17:39:52.66	110.94	25.73	
2025-01-15 17:39:52.86	110.89	25.76	
2025-01-15 17:39:53.07	110.84	25.79	
2025-01-15 17:39:53.27	110.80	25.82	
2025-01-15 17:39:53.47	110.75	25.85	
2025-01-15 17:39:53.68	110.71	25.88	
2025-01-15 17:39:53.88	110.66	25.91	
2025-01-15 17:39:54.08	110.62	25.94	
2025-01-15 17:39:54.29	110.57	25.97	
2025-01-15 17:39:54.49	110.52	26.00	
2025-01-15 17:39:54.69	110.48	26.03	
2025-01-15 17:39:54.89	110.43	26.06	
2025-01-15 17:39:55.10	110.39	26.09	
2025-01-15 17:39:55.30	110.34	26.12	
2025-01-15 17:39:55.50	110.30	26.15	
2025-01-15 17:39:55.71	110.25	26.18	
2025-01-15 17:39:55.91	110.20	26.21	
2025-01-15 17:39:56.11	110.16	26.24	
2025-01-15 17:39:56.32	110.11	26.27	
2025-01-15 17:39:56.52	110.06	26.30	
2025-01-15 17:39:56.72	110.01	26.33	
2025-01-15 17:39:56.93	109.97	26.36	
2025-01-15 17:39:57.13	109.92	26.39	
2025-01-15 17:39:57.33	109.87	26.42	
2025-01-15 17:39:57.53	109.83	26.45	
2025-01-15 17:39:57.74	109.78	26.48	
2025-01-15 17:39:57.94	109.73	26.51	
2025-01-15 17:39:58.14	109.68	26.54	
2025-01-15 17:39:58.35	109.63	26.57	
2025-01-15 17:39:58.55	109.59	26.60	
2025-01-15 17:39:58.75	109.54	26.63	
2025-01-15 17:39:58.96	109.49	26.66	
2025-01-15 17:39:59.16	109.44	26.69	
2025-01-15 17:39:59.36	109.40	26.72	
2025-01-15 17:39:59.57	109.35	26.75	
2025-01-15 17:39:59.77	109.30	26.78	
2025-01-15 17:39:59.97	109.25	26.81	
2025-01-15 17:40:00.17	109.20	26.84	
2025-01-15 17:40:00.38	109.15	26.87	
2025-01-15 17:40:00.58	109.11	26.90	
2025-01-15 17:40:00.78	109.06	26.93	
2025-01-15 17:40:00.99	109.01	26.96	
2025-01-15 17:40:01.19	108.96	26.99	
2025-01-15 17:40:01.39	108.91	27.02	
2025-01-15 17:40:01.60	108.86	27.05	
2025-01-15 17:40:01.80	108.81	27.08	
2025-01-15 17:40:02.00	108.76	27.11	
2025-01-15 17:40:02.21	108.71	27.14	
2025-01-15 17:40:02.41	108.66	27.17	
2025-01-15 17:40:02.61	108.61	27.20	
2025-01-15 17:40:02.81	108.56	27.23	
2025-01-15 17:40:03.02	108.51	27.26	
2025-01-15 17:40:03.22	108.46	27.29	
2025-01-15 17:40:03.42	108.41	27.32	
2025-01-15 17:40:03.63	108.36	27.35	
2025-01-15 17:40:03.83	108.31	27.38	
2025-01-15 17:40:04.03	108.26	27.41	
2025-01-15 17:40:04.24	108.21	27.44	
2025-01-15 17:40:04.44	108.16	27.47	
2025-01-15 17:40:04.64	108.11	27.50	
2025-01-15 17:40:04.85	108.06	27.53	
2025-01-15 17:40:05.05	108.01	27.56	
2025-01-15 17:40:05.25	107.96	27.59	
2025-01-15 17:40:05.45	107.91	27.62	
2025-01-15 17:40:05.66	107.86	27.66	
2025-01-15 17:40:05.86	107.81	27.69	
2025-01-15 17:40:06.06	107.75	27.72	
2025-01-15 17:40:06.27	107.70	27.75	
2025-01-15 17:40:06.47	107.65	27.78	
2025-01-15 17:40:06.67	107.60	27.81	
2025-01-15 17:40:06.88	107.55	27.84	
2025-01-15 17:40:07.08	107.49	27.87	
2025-01-15 17:40:07.28	107.44	27.90	
2025-01-15 17:40:07.49	107.39	27.93	
2025-01-15 17:40:07.69	107.34	27.96	
2025-01-15 17:40:07.89	107.29	27.99	
2025-01-15 17:40:08.09	107.24	28.02	
2025-01-15 17:40:08.30	107.18	28.05	
2025-01-15 17:40:08.50	107.13	28.08	
2025-01-15 17:40:08.70	107.08	28.11	
2025-01-15 17:40:08.91	107.02	28.14	
2025-01-15 17:40:09.11	106.97	28.17	
2025-01-15 17:40:09.31	106.92	28.20	
2025-01-15 17:40:09.52	106.86	28.24	
2025-01-15 17:40:09.72	106.81	28.27	
2025-01-15 17:40:09.92	106.76	28.30	
2025-01-15 17:40:10.13	106.70	28.33	
2025-01-15 17:40:10.33	106.65	28.36	
2025-01-15 17:40:10.53	106.60	28.39	
2025-01-15 17:40:10.73	106.54	28.42	
2025-01-15 17:40:10.94	106.49	28.45	
2025-01-15 17:40:11.14	106.44	28.48	
2025-01-15 17:40:11.34	106.38	28.51	
2025-01-15 17:40:11.55	106.33	28.54	
2025-01-15 17:40:11.75	106.27	28.57	
2025-01-15 17:40:11.95	106.22	28.60	
2025-01-15 17:40:12.16	106.16	28.64	
2025-01-15 17:40:12.36	106.11	28.67	
2025-01-15 17:40:12.56	106.06	28.70	
2025-01-15 17:40:12.77	106.00	28.73	
2025-01-15 17:40:12.97	105.94	28.76	
2025-01-15 17:40:13.17	105.89	28.79	
2025-01-15 17:40:13.37	105.84	28.82	
2025-01-15 17:40:13.58	105.78	28.85	
2025-01-15 17:40:13.78	105.72	28.88	
2025-01-15 17:40:13.98	105.67	28.91	
2025-01-15 17:40:14.19	105.61	28.94	
2025-01-15 17:40:14.39	105.56	28.97	
2025-01-15 17:40:14.59	105.50	29.00	
2025-01-15 17:40:14.80	105.44	29.04	
2025-01-15 17:40:15.00	105.39	29.07	
2025-01-15 17:40:15.20	105.33	29.10	
2025-01-15 17:40:15.41	105.28	29.13	
2025-01-15 17:40:15.61	105.22	29.16	
2025-01-15 17:40:15.81	105.16	29.19	
2025-01-15 17:40:16.01	105.11	29.22	
2025-01-15 17:40:16.22	105.05	29.25	
2025-01-15 17:40:16.42	104.99	29.28	
2025-01-15 17:40:16.62	104.94	29.31	
2025-01-15 17:40:16.83	104.88	29.35	
2025-01-15 17:40:17.03	104.82	29.38	
2025-01-15 17:40:17.23	104.77	29.41	
2025-01-15 17:40:17.44	104.71	29.44	
2025-01-15 17:40:17.64	104.65	29.47	
2025-01-15 17:40:17.84	104.59	29.50	
2025-01-15 17:40:18.05	104.53	29.53	
2025-01-15 17:40:18.25	104.48	29.56	
2025-01-15 17:40:18.45	104.42	29.59	
2025-01-15 17:40:18.65	104.36	29.62	
2025-01-15 17:40:18.86	104.30	29.65	
2025-01-15 17:40:19.06	104.24	29.68	
2025-01-15 17:40:19.26	104.19	29.72	
2025-01-15 17:40:19.47	104.13	29.75	
2025-01-15 17:40:19.67	104.07	29.78	
2025-01-15 17:40:19.87	104.01	29.81	
2025-01-15 17:40:20.08	103.95	29.84	
2025-01-15 17:40:20.28	103.89	29.87	
2025-01-15 17:40:20.48	103.83	29.90	
2025-01-15 17:40:20.69	103.77	29.93	
2025-01-15 17:40:20.89	103.71	29.96	
2025-01-15 17:40:21.09	103.65	29.99	
2025-01-15 17:40:21.29	103.60	30.02	
2025-01-15 17:40:21.50	103.53	30.06	
2025-01-15 17:40:21.70	103.47	30.09	
2025-01-15 17:40:21.90	103.42	30.12	
2025-01-15 17:40:22.11	103.35	30.15	
2025-01-15 17:40:22.31	103.29	30.18	
2025-01-15 17:40:22.51	103.23	30.21	
2025-01-15 17:40:22.72	103.17	30.24	
2025-01-15 17:40:22.92	103.11	30.27	
2025-01-15 17:40:23.12	103.05	30.30	
2025-01-15 17:40:23.33	102.99	30.34	
2025-01-15 17:40:23.53	102.93	30.37	
2025-01-15 17:40:23.73	102.87	30.40	
2025-01-15 17:40:23.93	102.81	30.43	
2025-01-15 17:40:24.14	102.75	30.46	
2025-01-15 17:40:24.34	102.69	30.49	
2025-01-15 17:40:24.54	102.62	30.52	
2025-01-15 17:40:24.75	102.56	30.55	
2025-01-15 17:40:24.95	102.50	30.58	
2025-01-15 17:40:25.15	102.44	30.61	
2025-01-15 17:40:25.36	102.37	30.65	
2025-01-15 17:40:25.56	102.31	30.68	
2025-01-15 17:40:25.76	102.25	30.71	
2025-01-15 17:40:25.96	102.19	30.74	
2025-01-15 17:40:26.17	102.13	30.77	
2025-01-15 17:40:26.37	102.06	30.80	
2025-01-15 17:40:26.57	102.00	30.83	
2025-01-15 17:40:26.78	101.94	30.86	
2025-01-15 17:40:26.98	101.88	30.89	
2025-01-15 17:40:27.18	101.81	30.92	
2025-01-15 17:40:27.39	101.75	30.96	
2025-01-15 17:40:27.59	101.68	30.99	
2025-01-15 17:40:27.79	101.62	31.02	
2025-01-15 17:40:28.00	101.56	31.05	
2025-01-15 17:40:28.20	101.49	31.08	
2025-01-15 17:40:28.40	101.43	31.11	
2025-01-15 17:40:28.61	101.36	31.14	
2025-01-15 17:40:28.81	101.30	31.17	
2025-01-15 17:40:29.01	101.24	31.20	
2025-01-15 17:40:29.21	101.17	31.23	
2025-01-15 17:40:29.42	101.11	31.26	
2025-01-15 17:40:29.62	101.04	31.30	
2025-01-15 17:40:29.82	100.98	31.33	
2025-01-15 17:40:30.03	100.91	31.36	
2025-01-15 17:40:30.23	100.85	31.39	
2025-01-15 17:40:30.43	100.78	31.42	
2025-01-15 17:40:30.64	100.72	31.45	
2025-01-15 17:40:30.84	100.65	31.48	
2025-01-15 17:40:31.04	100.59	31.51	
2025-01-15 17:40:31.24	100.52	31.54	
2025-01-15 17:40:31.45	100.45	31.57	
2025-01-15 17:40:31.65	100.39	31.60	
2025-01-15 17:40:31.85	100.32	31.63	
2025-01-15 17:40:32.06	100.26	31.67	
2025-01-15 17:40:32.26	100.19	31.70	
2025-01-15 17:40:32.46	100.13	31.73	
2025-01-15 17:40:32.67	100.06	31.76	
2025-01-15 17:40:32.87	99.99	31.79	
2025-01-15 17:40:33.07	99.92	31.82	
2025-01-15 17:40:33.28	99.86	31.85	
2025-01-15 17:40:33.48	99.79	31.88	
2025-01-15 17:40:33.68	99.72	31.91	
2025-01-15 17:40:33.89	99.65	31.94	
2025-01-15 17:40:34.09	99.59	31.97	
2025-01-15 17:40:34.29	99.52	32.00	
2025-01-15 17:40:34.49	99.45	32.03	
2025-01-15 17:40:34.70	99.38	32.07	
2025-01-15 17:40:34.90	99.32	32.10	
2025-01-15 17:40:35.10	99.25	32.13	
2025-01-15 17:40:35.31	99.18	32.16	
2025-01-15 17:40:35.51	99.11	32.19	
2025-01-15 17:40:35.71	99.04	32.22	
2025-01-15 17:40:35.92	98.97	32.25	
2025-01-15 17:40:36.12	98.90	32.28	
2025-01-15 17:40:36.32	98.84	32.31	
2025-01-15 17:40:36.52	98.77	32.34	
2025-01-15 17:40:36.73	98.70	32.37	
2025-01-15 17:40:36.93	98.63	32.40	
2025-01-15 17:40:37.13	98.56	32.43	
2025-01-15 17:40:37.34	98.49	32.46	
2025-01-15 17:40:37.54	98.42	32.49	
2025-01-15 17:40:37.74	98.35	32.52	
2025-01-15 17:40:37.95	98.28	32.56	
2025-01-15 17:40:38.15	98.21	32.59	
2025-01-15 17:40:38.35	98.14	32.62	
2025-01-15 17:40:38.56	98.07	32.65	
2025-01-15 17:40:38.76	98.00	32.68	
2025-01-15 17:40:38.96	97.93	32.71	
2025-01-15 17:40:39.16	97.86	32.74	
2025-01-15 17:40:39.37	97.78	32.77	
2025-01-15 17:40:39.57	97.71	32.80	
2025-01-15 17:40:39.77	97.64	32.83	
2025-01-15 17:40:39.98	97.57	32.86	
2025-01-15 17:40:40.18	97.50	32.89	
2025-01-15 17:40:40.38	97.43	32.92	
2025-01-15 17:40:40.59	97.35	32.95	
2025-01-15 17:40:40.79	97.28	32.98	
2025-01-15 17:40:40.99	97.21	33.01	
2025-01-15 17:40:41.20	97.14	33.04	
2025-01-15 17:40:41.40	97.06	33.07	
2025-01-15 17:40:41.60	96.99	33.10	
2025-01-15 17:40:41.80	96.92	33.13	
2025-01-15 17:40:42.01	96.85	33.16	
2025-01-15 17:40:42.21	96.77	33.19	
2025-01-15 17:40:42.41	96.70	33.22	
2025-01-15 17:40:42.62	96.63	33.25	
2025-01-15 17:40:42.82	96.55	33.28	
2025-01-15 17:40:43.02	96.48	33.31	
2025-01-15 17:40:43.23	96.41	33.34	
2025-01-15 17:40:43.43	96.33	33.37	
2025-01-15 17:40:43.63	96.26	33.40	
2025-01-15 17:40:43.84	96.18	33.43	
2025-01-15 17:40:44.04	96.11	33.46	
2025-01-15 17:40:44.24	96.04	33.49	
2025-01-15 17:40:44.44	95.96	33.52	
2025-01-15 17:40:44.65	95.89	33.55	
2025-01-15 17:40:44.85	95.81	33.58	
2025-01-15 17:40:45.05	95.74	33.61	
2025-01-15 17:40:45.26	95.66	33.64	
2025-01-15 17:40:45.46	95.59	33.67	
2025-01-15 17:40:45.66	95.51	33.70	
2025-01-15 17:40:45.87	95.43	33.73	
2025-01-15 17:40:46.07	95.36	33.76	
2025-01-15 17:40:46.27	95.29	33.79	
2025-01-15 17:40:46.48	95.21	33.82	
2025-01-15 17:40:46.68	95.13	33.85	
2025-01-15 17:40:46.88	95.06	33.88	
2025-01-15 17:40:47.08	94.98	33.91	
2025-01-15 17:40:47.29	94.90	33.94	
2025-01-15 17:40:47.49	94.83	33.97	
2025-01-15 17:40:47.69	94.75	34.00	
2025-01-15 17:40:47.90	94.67	34.03	
2025-01-15 17:40:48.10	94.60	34.06	
2025-01-15 17:40:48.30	94.52	34.09	
2025-01-15 17:40:48.51	94.44	34.12	
2025-01-15 17:40:48.71	94.36	34.14	
2025-01-15 17:40:48.91	94.29	34.17	
2025-01-15 17:40:49.12	94.21	34.20	
2025-01-15 17:40:49.32	94.13	34.23	
2025-01-15 17:40:49.52	94.05	34.26	
2025-01-15 17:40:49.72	93.98	34.29	
2025-01-15 17:40:49.93	93.89	34.32	
2025-01-15 17:40:50.13	93.82	34.35	
2025-01-15 17:40:50.33	93.74	34.38	
2025-01-15 17:40:50.54	93.66	34.41	
2025-01-15 17:40:50.74	93.58	34.44	
2025-01-15 17:40:50.94	93.50	34.47	
2025-01-15 17:40:51.15	93.42	34.50	
2025-01-15 17:40:51.35	93.34	34.52	
2025-01-15 17:40:51.55	93.26	34.55	
2025-01-15 17:40:51.76	93.18	34.58	
2025-01-15 17:40:51.96	93.10	34.61	
2025-01-15 17:40:52.16	93.02	34.64	
2025-01-15 17:40:52.36	92.95	34.67	
2025-01-15 17:40:52.57	92.86	34.70	
2025-01-15 17:40:52.77	92.78	34.73	
2025-01-15 17:40:52.97	92.70	34.75	
2025-01-15 17:40:53.18	92.62	34.78	
2025-01-15 17:40:53.38	92.54	34.81	
2025-01-15 17:40:53.58	92.46	34.84	
2025-01-15 17:40:53.79	92.38	34.87	
2025-01-15 17:40:53.99	92.30	34.90	
2025-01-15 17:40:54.19	92.22	34.93	
2025-01-15 17:40:54.40	92.13	34.95	
2025-01-15 17:40:54.60	92.05	34.98	
2025-01-15 17:40:54.80	91.97	35.01	
2025-01-15 17:40:55.00	91.89	35.04	
2025-01-15 17:40:55.21	91.81	35.07	
2025-01-15 17:40:55.41	91.72	35.10	
2025-01-15 17:40:55.61	91.64	35.12	
2025-01-15 17:40:55.82	91.56	35.15	
2025-01-15 17:40:56.02	91.48	35.18	
2025-01-15 17:40:56.22	91.39	35.21	
2025-01-15 17:40:56.43	91.31	35.24	
2025-01-15 17:40:56.63	91.23	35.26	
2025-01-15 17:40:56.83	91.14	35.29	
2025-01-15 17:40:57.04	91.06	35.32	
2025-01-15 17:40:57.24	90.98	35.35	
2025-01-15 17:40:57.44	90.89	35.38	
2025-01-15 17:40:57.64	90.81	35.40	
2025-01-15 17:40:57.85	90.72	35.43	
2025-01-15 17:40:58.05	90.64	35.46	
2025-01-15 17:40:58.25	90.56	35.49	
2025-01-15 17:40:58.46	90.47	35.51	
2025-01-15 17:40:58.66	90.39	35.54	
2025-01-15 17:40:58.86	90.30	35.57	
2025-01-15 17:40:59.07	90.21	35.60	
2025-01-15 17:40:59.27	90.13	35.62	
2025-01-15 17:40:59.47	90.05	35.65	
2025-01-15 17:40:59.68	89.96	35.68	
2025-01-15 17:40:59.88	89.87	35.71	
2025-01-15 17:41:00.08	89.79	35.73	
2025-01-15 17:41:00.28	89.71	35.76	
2025-01-15 17:41:00.49	89.62	35.79	
2025-01-15 17:41:00.69	89.53	35.82	
2025-01-15 17:41:00.89	89.45	35.84	
2025-01-15 17:41:01.10	89.36	35.87	
2025-01-15 17:41:01.30	89.27	35.90	
2025-01-15 17:41:01.50	89.19	35.92	
2025-01-15 17:41:01.71	89.10	35.95	
2025-01-15 17:41:01.91	89.01	35.98	
2025-01-15 17:41:02.11	88.93	36.00	
2025-01-15 17:41:02.32	88.84	36.03	
2025-01-15 17:41:02.52	88.75	36.06	
2025-01-15 17:41:02.72	88.66	36.08	
2025-01-15 17:41:02.92	88.58	36.11	
2025-01-15 17:41:03.13	88.49	36.14	
2025-01-15 17:41:03.33	88.40	36.16	
2025-01-15 17:41:03.53	88.31	36.19	
2025-01-15 17:41:03.74	88.22	36.22	
2025-01-15 17:41:03.94	88.13	36.24	
2025-01-15 17:41:04.14	88.05	36.27	
2025-01-15 17:41:04.35	87.95	36.30	
2025-01-15 17:41:04.55	87.87	36.32	
2025-01-15 17:41:04.75	87.78	36.35	
2025-01-15 17:41:04.96	87.69	36.37	
2025-01-15 17:41:05.16	87.60	36.40	
2025-01-15 17:41:05.36	87.51	36.42	
2025-01-15 17:41:05.56	87.42	36.45	
2025-01-15 17:41:05.77	87.33	36.48	
2025-01-15 17:41:05.97	87.24	36.50	
2025-01-15 17:41:06.17	87.15	36.53	
2025-01-15 17:41:06.38	87.06	36.55	
2025-01-15 17:41:06.58	86.97	36.58	
2025-01-15 17:41:06.78	86.88	36.60	
2025-01-15 17:41:06.99	86.79	36.63	
2025-01-15 17:41:07.19	86.70	36.66	
2025-01-15 17:41:07.39	86.61	36.68	
2025-01-15 17:41:07.60	86.51	36.71	
2025-01-15 17:41:07.80	86.42	36.73	
2025-01-15 17:41:08.00	86.33	36.76	
2025-01-15 17:41:08.20	86.24	36.78	
2025-01-15 17:41:08.41	86.15	36.81	
2025-01-15 17:41:08.61	86.06	36.83	
2025-01-15 17:41:08.81	85.97	36.86	
2025-01-15 17:41:09.02	85.87	36.88	
2025-01-15 17:41:09.22	85.78	36.91	
2025-01-15 17:41:09.42	85.69	36.93	
2025-01-15 17:41:09.63	85.59	36.96	
2025-01-15 17:41:09.83	85.50	36.98	
2025-01-15 17:41:10.03	85.41	37.00	
2025-01-15 17:41:10.24	85.32	37.03	
2025-01-15 17:41:10.44	85.22	37.05	
2025-01-15 17:41:10.64	85.13	37.08	
2025-01-15 17:41:10.84	85.04	37.10	
2025-01-15 17:41:11.05	84.94	37.13	
2025-01-15 17:41:11.25	84.85	37.15	
2025-01-15 17:41:11.45	84.76	37.17	
2025-01-15 17:41:11.66	84.66	37.20	
2025-01-15 17:41:11.86	84.57	37.22	
2025-01-15 17:41:12.06	84.48	37.25	
2025-01-15 17:41:12.27	84.38	37.27	
2025-01-15 17:41:12.47	84.29	37.29	
2025-01-15 17:41:12.67	84.19	37.32	
2025-01-15 17:41:12.88	84.09	37.34	
2025-01-15 17:41:13.08	84.00	37.36	
2025-01-15 17:41:13.28	83.91	37.39	
2025-01-15 17:41:13.48	83.81	37.41	
2025-01-15 17:41:13.69	83.71	37.43	
2025-01-15 17:41:13.89	83.62	37.46	
2025-01-15 17:41:14.09	83.53	37.48	
2025-01-15 17:41:14.30	83.43	37.50	
2025-01-15 17:41:14.50	83.33	37.53	
2025-01-15 17:41:14.70	83.24	37.55	
2025-01-15 17:41:14.91	83.14	37.57	
2025-01-15 17:41:15.11	83.04	37.59	
2025-01-15 17:41:15.31	82.95	37.62	
2025-01-15 17:41:15.52	82.85	37.64	
2025-01-15 17:41:15.72	82.75	37.66	
2025-01-15 17:41:15.92	82.66	37.68	
2025-01-15 17:41:16.12	82.56	37.71	
2025-01-15 17:41:16.33	82.46	37.73	
2025-01-15 17:41:16.53	82.37	37.75	
2025-01-15 17:41:16.73	82.27	37.77	
2025-01-15 17:41:16.94	82.17	37.80	
2025-01-15 17:41:17.14	82.07	37.82	
2025-01-15 17:41:17.34	81.98	37.84	
2025-01-15 17:41:17.55	81.88	37.86	
2025-01-15 17:41:17.75	81.78	37.88	
2025-01-15 17:41:17.95	81.68	37.91	
2025-01-15 17:41:18.16	81.58	37.93	
2025-01-15 17:41:18.36	81.48	37.95	
2025-01-15 17:41:18.56	81.39	37.97	
2025-01-15 17:41:18.76	81.29	37.99	
2025-01-15 17:41:18.97	81.19	38.01	
2025-01-15 17:41:19.17	81.09	38.03	
2025-01-15 17:41:19.37	80.99	38.05	
2025-01-15 17:41:19.58	80.89	38.08	
2025-01-15 17:41:19.78	80.79	38.10	
2025-01-15 17:41:19.98	80.69	38.12	
2025-01-15 17:41:20.19	80.59	38.14	
2025-01-15 17:41:20.39	80.49	38.16	
2025-01-15 17:41:20.59	80.39	38.18	
2025-01-15 17:41:20.80	80.29	38.20	
2025-01-15 17:41:21.00	80.19	38.22	
2025-01-15 17:41:21.20	80.09	38.24	
2025-01-15 17:41:21.40	79.99	38.26	
2025-01-15 17:41:21.61	79.89	38.28	
2025-01-15 17:41:21.81	79.79	38.30	
2025-01-15 17:41:22.01	79.69	38.32	
2025-01-15 17:41:22.22	79.59	38.34	
2025-01-15 17:41:22.42	79.49	38.36	
2025-01-15 17:41:22.62	79.39	38.38	
2025-01-15 17:41:22.83	79.28	38.40	
2025-01-15 17:41:23.03	79.18	38.42	
2025-01-15 17:41:23.23	79.08	38.44	
2025-01-15 17:41:23.44	78.98	38.46	
2025-01-15 17:41:23.64	78.88	38.48	
2025-01-15 17:41:23.84	78.78	38.50	
2025-01-15 17:41:24.04	78.68	38.52	
2025-01-15 17:41:24.25	78.57	38.54	
2025-01-15 17:41:24.45	78.47	38.56	
2025-01-15 17:41:24.65	78.37	38.57	
2025-01-15 17:41:24.86	78.26	38.59	
2025-01-15 17:41:25.06	78.16	38.61	
2025-01-15 17:41:25.26	78.06	38.63	
2025-01-15 17:41:25.47	77.95	38.65	
2025-01-15 17:41:25.67	77.85	38.67	
2025-01-15 17:41:25.87	77.75	38.69	
2025-01-15 17:41:26.08	77.64	38.70	
2025-01-15 17:41:26.28	77.54	38.72	
2025-01-15 17:41:26.48	77.44	38.74	
2025-01-15 17:41:26.68	77.34	38.76	
2025-01-15 17:41:26.89	77.23	38.78	
2025-01-15 17:41:27.09	77.13	38.79	
2025-01-15 17:41:27.29	77.03	38.81	
2025-01-15 17:41:27.50	76.92	38.83	
2025-01-15 17:41:27.70	76.82	38.85	
2025-01-15 17:41:27.90	76.71	38.86	
2025-01-15 17:41:28.11	76.60	38.88	
2025-01-15 17:41:28.31	76.50	38.90	
2025-01-15 17:41:28.51	76.40	38.92	
2025-01-15 17:41:28.72	76.29	38.93	
2025-01-15 17:41:28.92	76.19	38.95	
2025-01-15 17:41:29.12	76.08	38.97	
2025-01-15 17:41:29.32	75.98	38.98	
2025-01-15 17:41:29.53	75.87	39.00	
2025-01-15 17:41:29.73	75.77	39.02	
2025-01-15 17:41:29.93	75.66	39.03	
2025-01-15 17:41:30.14	75.55	39.05	
2025-01-15 17:41:30.34	75.45	39.06	
2025-01-15 17:41:30.54	75.35	39.08	
2025-01-15 17:41:30.75	75.24	39.10	
2025-01-15 17:41:30.95	75.13	39.11	
2025-01-15 17:41:31.15	75.03	39.13	
2025-01-15 17:41:31.36	74.92	39.14	
2025-01-15 17:41:31.56	74.81	39.16	
2025-01-15 17:41:31.76	74.71	39.17	
2025-01-15 17:41:31.96	74.60	39.19	
2025-01-15 17:41:32.17	74.49	39.21	
2025-01-15 17:41:32.37	74.39	39.22	
2025-01-15 17:41:32.57	74.28	39.24	
2025-01-15 17:41:32.78	74.17	39.25	
2025-01-15 17:41:32.98	74.07	39.27	
2025-01-15 17:41:33.18	73.96	39.28	
2025-01-15 17:41:33.39	73.85	39.30	
2025-01-15 17:41:33.59	73.75	39.31	
2025-01-15 17:41:33.79	73.64	39.32	
2025-01-15 17:41:34.00	73.53	39.34	
2025-01-15 17:41:34.20	73.42	39.35	
2025-01-15 17:41:34.40	73.32	39.37	
2025-01-15 17:41:34.60	73.21	39.38	
2025-01-15 17:41:34.81	73.10	39.39	
2025-01-15 17:41:35.01	72.99	39.41	
2025-01-15 17:41:35.21	72.89	39.42	
2025-01-15 17:41:35.42	72.77	39.44	
2025-01-15 17:41:35.62	72.67	39.45	
2025-01-15 17:41:35.82	72.56	39.46	
2025-01-15 17:41:36.03	72.45	39.48	
2025-01-15 17:41:36.23	72.34	39.49	
2025-01-15 17:41:36.43	72.24	39.50	
2025-01-15 17:41:36.64	72.12	39.51	
2025-01-15 17:41:36.84	72.02	39.53	
2025-01-15 17:41:37.04	71.91	39.54	
2025-01-15 17:41:37.24	71.80	39.55	
2025-01-15 17:41:37.45	71.69	39.57	
2025-01-15 17:41:37.65	71.58	39.58	
2025-01-15 17:41:37.85	71.47	39.59	
2025-01-15 17:41:38.06	71.36	39.60	
2025-01-15 17:41:38.26	71.25	39.61	
2025-01-15 17:41:38.46	71.14	39.63	
2025-01-15 17:41:38.67	71.03	39.64	
2025-01-15 17:41:38.87	70.92	39.65	
2025-01-15 17:41:39.07	70.82	39.66	
2025-01-15 17:41:39.28	70.70	39.67	
2025-01-15 17:41:39.48	70.59	39.68	
2025-01-15 17:41:39.68	70.49	39.69	
2025-01-15 17:41:39.88	70.38	39.71	
2025-01-15 17:41:40.09	70.26	39.72	
2025-01-15 17:41:40.29	70.16	39.73	
2025-01-15 17:41:40.49	70.05	39.74	
2025-01-15 17:41:40.70	69.93	39.75	
2025-01-15 17:41:40.90	69.82	39.76	
2025-01-15 17:41:41.10	69.72	39.77	
2025-01-15 17:41:41.31	69.60	39.78	
2025-01-15 17:41:41.51	69.49	39.79	
2025-01-15 17:41:41.71	69.38	39.80	
2025-01-15 17:41:41.92	69.27	39.81	
2025-01-15 17:41:42.12	69.16	39.82	
2025-01-15 17:41:42.32	69.05	39.83	
2025-01-15 17:41:42.52	68.94	39.84	
2025-01-15 17:41:42.73	68.83	39.85	
2025-01-15 17:41:42.93	68.72	39.86	
2025-01-15 17:41:43.13	68.61	39.87	
2025-01-15 17:41:43.34	68.49	39.88	
2025-01-15 17:41:43.54	68.38	39.89	
2025-01-15 17:41:43.74	68.27	39.89	
2025-01-15 17:41:43.95	68.16	39.90	
2025-01-15 17:41:44.15	68.05	39.91	
2025-01-15 17:41:44.35	67.94	39.92	
2025-01-15 17:41:44.56	67.82	39.93	
2025-01-15 17:41:44.76	67.71	39.94	
2025-01-15 17:41:44.96	67.60	39.95	
2025-01-15 17:41:45.16	67.49	39.95	
2025-01-15 17:41:45.37	67.38	39.96	
2025-01-15 17:41:45.57	67.27	39.97	
2025-01-15 17:41:45.77	67.16	39.98	
2025-01-15 17:41:45.98	67.04	39.98	
2025-01-15 17:41:46.18	66.93	39.99	
2025-01-15 17:41:46.38	66.82	40.00	
2025-01-15 17:41:46.59	66.71	40.01	
2025-01-15 17:41:46.79	66.59	40.01	
2025-01-15 17:41:46.99	66.48	40.02	
2025-01-15 17:41:47.20	66.37	40.03	
2025-01-15 17:41:47.40	66.26	40.03	
2025-01-15 17:41:47.60	66.15	40.04	
2025-01-15 17:41:47.80	66.04	40.05	
2025-01-15 17:41:48.01	65.92	40.05	
2025-01-15 17:41:48.21	65.81	40.06	
2025-01-15 17:41:48.41	65.70	40.07	
2025-01-15 17:41:48.62	65.58	40.07	
2025-01-15 17:41:48.82	65.47	40.08	
2025-01-15 17:41:49.02	65.36	40.08	
2025-01-15 17:41:49.23	65.24	40.09	
2025-01-15 17:41:49.43	65.13	40.09	
2025-01-15 17:41:49.63	65.02	40.10	
2025-01-15 17:41:49.83	64.91	40.11	
2025-01-15 17:41:50.04	64.79	40.11	
2025-01-15 17:41:50.24	64.68	40.12	
2025-01-15 17:41:50.44	64.57	40.12	
