passes_logs/2025/01/14/SPB_Silybum_02/SPB_Silybum_02__20250114_035231_SUOMI_NPP_rec.log

#Pass ID: 20250114_035231_SUOMI NPP
#Satellite: SUOMI NPP
#Configuration: NPP
#Start time: 2025-01-14 03:52:29

#Version: 2.0.20230423
#Station: SPB_Silybum_02
#Location: 30.233357 lon 59.946436 lat
#TLE: 1 37849U 11061A   25013.15774042  .00000145  00000+0  89802-4 0  9991
#TLE: 2 37849  98.7444 314.1696 0001761  43.7896 316.3420 14.19537310684653

#Time	Az	El	Level	Level2	SNR	BER	Gain	Gain2
2025-01-14 03:52:31.85	15.85	4.02	
2025-01-14 03:52:32.06	15.83	4.03	
2025-01-14 03:52:32.26	15.81	4.04	
2025-01-14 03:52:32.46	15.78	4.04	
2025-01-14 03:52:32.67	15.76	4.05	
2025-01-14 03:52:32.88	15.73	4.06	
2025-01-14 03:52:33.08	15.71	4.07	
2025-01-14 03:52:33.28	15.69	4.08	
2025-01-14 03:52:33.49	15.66	4.09	
2025-01-14 03:52:33.69	15.64	4.10	
2025-01-14 03:52:33.90	15.62	4.10	
2025-01-14 03:52:34.10	15.59	4.11	
2025-01-14 03:52:34.30	15.57	4.12	
2025-01-14 03:52:34.51	15.55	4.13	
2025-01-14 03:52:34.72	15.52	4.14	
2025-01-14 03:52:34.92	15.50	4.15	
2025-01-14 03:52:35.13	15.47	4.16	
2025-01-14 03:52:35.33	15.45	4.16	
2025-01-14 03:52:35.54	15.43	4.17	
2025-01-14 03:52:35.74	15.40	4.18	
2025-01-14 03:52:35.95	15.38	4.19	
2025-01-14 03:52:36.16	15.35	4.20	
2025-01-14 03:52:36.36	15.33	4.21	
2025-01-14 03:52:36.56	15.31	4.21	
2025-01-14 03:52:36.77	15.28	4.22	
2025-01-14 03:52:36.97	15.26	4.23	
2025-01-14 03:52:37.18	15.23	4.24	
2025-01-14 03:52:37.39	15.21	4.25	
2025-01-14 03:52:37.59	15.18	4.26	
2025-01-14 03:52:37.80	15.16	4.27	
2025-01-14 03:52:38.00	15.14	4.27	
2025-01-14 03:52:38.21	15.11	4.28	
2025-01-14 03:52:38.41	15.09	4.29	
2025-01-14 03:52:38.61	15.06	4.30	
2025-01-14 03:52:38.82	15.04	4.31	
2025-01-14 03:52:39.02	15.02	4.32	
2025-01-14 03:52:39.23	14.99	4.33	
2025-01-14 03:52:39.43	14.97	4.33	
2025-01-14 03:52:39.64	14.94	4.34	
2025-01-14 03:52:39.84	14.92	4.35	
2025-01-14 03:52:40.05	14.89	4.36	
2025-01-14 03:52:40.25	14.87	4.37	
2025-01-14 03:52:40.46	14.85	4.38	
2025-01-14 03:52:40.66	14.82	4.39	
2025-01-14 03:52:40.87	14.80	4.39	
2025-01-14 03:52:41.07	14.77	4.40	
2025-01-14 03:52:41.28	14.75	4.41	
2025-01-14 03:52:41.49	14.72	4.42	
2025-01-14 03:52:41.69	14.70	4.43	
2025-01-14 03:52:41.90	14.68	4.44	
2025-01-14 03:52:42.10	14.65	4.44	
2025-01-14 03:52:42.31	14.63	4.45	
2025-01-14 03:52:42.52	14.60	4.46	
2025-01-14 03:52:42.72	14.58	4.47	
2025-01-14 03:52:42.94	14.55	4.48	
2025-01-14 03:52:43.14	14.53	4.49	
2025-01-14 03:52:43.35	14.50	4.50	
2025-01-14 03:52:43.56	14.48	4.50	
2025-01-14 03:52:43.76	14.45	4.51	
2025-01-14 03:52:43.97	14.43	4.52	
2025-01-14 03:52:44.17	14.40	4.53	
2025-01-14 03:52:44.38	14.38	4.54	
2025-01-14 03:52:44.58	14.35	4.55	
2025-01-14 03:52:44.79	14.33	4.56	
2025-01-14 03:52:44.99	14.31	4.56	
2025-01-14 03:52:45.19	14.28	4.57	
2025-01-14 03:52:45.40	14.26	4.58	
2025-01-14 03:52:45.61	14.23	4.59	
2025-01-14 03:52:45.81	14.21	4.60	
2025-01-14 03:52:46.02	14.18	4.61	
2025-01-14 03:52:46.22	14.16	4.61	
2025-01-14 03:52:46.42	14.13	4.62	
2025-01-14 03:52:46.63	14.11	4.63	
2025-01-14 03:52:46.83	14.08	4.64	
2025-01-14 03:52:47.04	14.06	4.65	
2025-01-14 03:52:47.24	14.03	4.66	
2025-01-14 03:52:47.45	14.01	4.67	
2025-01-14 03:52:47.66	13.98	4.67	
2025-01-14 03:52:47.86	13.96	4.68	
2025-01-14 03:52:48.07	13.93	4.69	
2025-01-14 03:52:48.27	13.91	4.70	
2025-01-14 03:52:48.48	13.88	4.71	
2025-01-14 03:52:48.68	13.86	4.72	
2025-01-14 03:52:48.89	13.83	4.72	
2025-01-14 03:52:49.09	13.81	4.73	
2025-01-14 03:52:49.29	13.79	4.74	
2025-01-14 03:52:49.50	13.76	4.75	
2025-01-14 03:52:49.71	13.74	4.76	
2025-01-14 03:52:49.91	13.71	4.77	
2025-01-14 03:52:50.12	13.69	4.77	
2025-01-14 03:52:50.32	13.66	4.78	
2025-01-14 03:52:50.53	13.64	4.79	
2025-01-14 03:52:50.73	13.61	4.80	
2025-01-14 03:52:50.94	13.59	4.81	
2025-01-14 03:52:51.14	13.56	4.82	
2025-01-14 03:52:51.35	13.53	4.82	
2025-01-14 03:52:51.55	13.51	4.83	
2025-01-14 03:52:51.76	13.48	4.84	
2025-01-14 03:52:51.96	13.46	4.85	
2025-01-14 03:52:52.17	13.43	4.86	
2025-01-14 03:52:52.37	13.41	4.87	
2025-01-14 03:52:52.57	13.39	4.87	
2025-01-14 03:52:52.78	13.36	4.88	
2025-01-14 03:52:52.98	13.34	4.89	
2025-01-14 03:52:53.19	13.31	4.90	
2025-01-14 03:52:53.39	13.28	4.91	
2025-01-14 03:52:53.59	13.26	4.92	
2025-01-14 03:52:53.80	13.23	4.92	
2025-01-14 03:52:54.00	13.21	4.93	
2025-01-14 03:52:54.21	13.18	4.94	
2025-01-14 03:52:54.41	13.16	4.95	
2025-01-14 03:52:54.62	13.13	4.96	
2025-01-14 03:52:54.82	13.11	4.97	
2025-01-14 03:52:55.03	13.08	4.97	
2025-01-14 03:52:55.23	13.06	4.98	
2025-01-14 03:52:55.44	13.03	4.99	
2025-01-14 03:52:55.64	13.01	5.00	
2025-01-14 03:52:55.85	12.98	5.01	
2025-01-14 03:52:56.05	12.96	5.02	
2025-01-14 03:52:56.26	12.93	5.02	
2025-01-14 03:52:56.47	12.90	5.03	
2025-01-14 03:52:56.67	12.88	5.04	
2025-01-14 03:52:56.89	12.85	5.05	
2025-01-14 03:52:57.09	12.83	5.06	
2025-01-14 03:52:57.30	12.80	5.07	
2025-01-14 03:52:57.50	12.78	5.07	
2025-01-14 03:52:57.71	12.75	5.08	
2025-01-14 03:52:57.91	12.72	5.09	
2025-01-14 03:52:58.12	12.70	5.10	
2025-01-14 03:52:58.32	12.67	5.11	
2025-01-14 03:52:58.53	12.65	5.12	
2025-01-14 03:52:58.73	12.62	5.12	
2025-01-14 03:52:58.94	12.60	5.13	
2025-01-14 03:52:59.14	12.57	5.14	
2025-01-14 03:52:59.35	12.55	5.15	
2025-01-14 03:52:59.55	12.52	5.16	
2025-01-14 03:52:59.76	12.49	5.17	
2025-01-14 03:52:59.96	12.47	5.17	
2025-01-14 03:53:00.17	12.44	5.18	
2025-01-14 03:53:00.37	12.42	5.19	
2025-01-14 03:53:00.58	12.39	5.20	
2025-01-14 03:53:00.78	12.37	5.21	
2025-01-14 03:53:00.99	12.34	5.22	
2025-01-14 03:53:01.19	12.31	5.22	
2025-01-14 03:53:01.40	12.29	5.23	
2025-01-14 03:53:01.60	12.26	5.24	
2025-01-14 03:53:01.81	12.24	5.25	
2025-01-14 03:53:02.01	12.21	5.26	
2025-01-14 03:53:02.21	12.19	5.26	
2025-01-14 03:53:02.42	12.16	5.27	
2025-01-14 03:53:02.63	12.13	5.28	
2025-01-14 03:53:02.83	12.11	5.29	
2025-01-14 03:53:03.04	12.08	5.30	
2025-01-14 03:53:03.24	12.06	5.31	
2025-01-14 03:53:03.45	12.03	5.31	
2025-01-14 03:53:03.65	12.00	5.32	
2025-01-14 03:53:03.86	11.98	5.33	
2025-01-14 03:53:04.06	11.95	5.34	
2025-01-14 03:53:04.28	11.92	5.35	
2025-01-14 03:53:04.48	11.90	5.36	
2025-01-14 03:53:04.69	11.87	5.36	
2025-01-14 03:53:04.89	11.85	5.37	
2025-01-14 03:53:05.10	11.82	5.38	
2025-01-14 03:53:05.30	11.79	5.39	
2025-01-14 03:53:05.51	11.77	5.40	
2025-01-14 03:53:05.71	11.74	5.40	
2025-01-14 03:53:05.93	11.71	5.41	
2025-01-14 03:53:06.14	11.69	5.42	
2025-01-14 03:53:06.34	11.66	5.43	
2025-01-14 03:53:06.55	11.63	5.44	
2025-01-14 03:53:06.75	11.61	5.45	
2025-01-14 03:53:06.95	11.58	5.45	
2025-01-14 03:53:07.16	11.56	5.46	
2025-01-14 03:53:07.36	11.53	5.47	
2025-01-14 03:53:07.57	11.50	5.48	
2025-01-14 03:53:07.77	11.48	5.49	
2025-01-14 03:53:07.98	11.45	5.50	
2025-01-14 03:53:08.18	11.43	5.50	
2025-01-14 03:53:08.39	11.40	5.51	
2025-01-14 03:53:08.59	11.37	5.52	
2025-01-14 03:53:08.80	11.35	5.53	
2025-01-14 03:53:09.00	11.32	5.54	
2025-01-14 03:53:09.21	11.29	5.54	
2025-01-14 03:53:09.41	11.27	5.55	
2025-01-14 03:53:09.62	11.24	5.56	
2025-01-14 03:53:09.82	11.22	5.57	
2025-01-14 03:53:10.03	11.19	5.58	
2025-01-14 03:53:10.23	11.16	5.58	
2025-01-14 03:53:10.44	11.14	5.59	
2025-01-14 03:53:10.64	11.11	5.60	
2025-01-14 03:53:10.85	11.08	5.61	
2025-01-14 03:53:11.05	11.06	5.62	
2025-01-14 03:53:11.26	11.03	5.63	
2025-01-14 03:53:11.46	11.00	5.63	
2025-01-14 03:53:11.67	10.98	5.64	
2025-01-14 03:53:11.87	10.95	5.65	
2025-01-14 03:53:12.08	10.92	5.66	
2025-01-14 03:53:12.28	10.90	5.67	
2025-01-14 03:53:12.49	10.87	5.67	
2025-01-14 03:53:12.69	10.84	5.68	
2025-01-14 03:53:12.90	10.82	5.69	
2025-01-14 03:53:13.11	10.79	5.70	
2025-01-14 03:53:13.31	10.76	5.71	
2025-01-14 03:53:13.52	10.74	5.71	
2025-01-14 03:53:13.72	10.71	5.72	
2025-01-14 03:53:13.93	10.68	5.73	
2025-01-14 03:53:14.13	10.66	5.74	
2025-01-14 03:53:14.34	10.63	5.75	
2025-01-14 03:53:14.55	10.60	5.75	
2025-01-14 03:53:14.75	10.58	5.76	
2025-01-14 03:53:14.95	10.55	5.77	
2025-01-14 03:53:15.16	10.52	5.78	
2025-01-14 03:53:15.36	10.50	5.79	
2025-01-14 03:53:15.57	10.47	5.79	
2025-01-14 03:53:15.78	10.44	5.80	
2025-01-14 03:53:15.98	10.41	5.81	
2025-01-14 03:53:16.18	10.39	5.82	
2025-01-14 03:53:16.39	10.36	5.83	
2025-01-14 03:53:16.59	10.33	5.83	
2025-01-14 03:53:16.80	10.31	5.84	
2025-01-14 03:53:17.00	10.28	5.85	
2025-01-14 03:53:17.21	10.25	5.86	
2025-01-14 03:53:17.41	10.23	5.87	
2025-01-14 03:53:17.62	10.20	5.87	
2025-01-14 03:53:17.82	10.17	5.88	
2025-01-14 03:53:18.03	10.15	5.89	
2025-01-14 03:53:18.25	10.12	5.90	
2025-01-14 03:53:18.45	10.09	5.91	
2025-01-14 03:53:18.66	10.06	5.92	
2025-01-14 03:53:18.87	10.03	5.92	
2025-01-14 03:53:19.08	10.01	5.93	
2025-01-14 03:53:19.28	9.98	5.94	
2025-01-14 03:53:19.49	9.95	5.95	
2025-01-14 03:53:19.70	9.92	5.96	
2025-01-14 03:53:19.90	9.90	5.96	
2025-01-14 03:53:20.11	9.87	5.97	
2025-01-14 03:53:20.31	9.84	5.98	
2025-01-14 03:53:20.52	9.82	5.99	
2025-01-14 03:53:20.72	9.79	6.00	
2025-01-14 03:53:20.93	9.76	6.00	
2025-01-14 03:53:21.13	9.73	6.01	
2025-01-14 03:53:21.34	9.71	6.02	
2025-01-14 03:53:21.54	9.68	6.03	
2025-01-14 03:53:21.75	9.65	6.03	
2025-01-14 03:53:21.95	9.63	6.04	
2025-01-14 03:53:22.16	9.60	6.05	
2025-01-14 03:53:22.36	9.57	6.06	
2025-01-14 03:53:22.57	9.54	6.07	
2025-01-14 03:53:22.77	9.52	6.07	
2025-01-14 03:53:22.98	9.49	6.08	
2025-01-14 03:53:23.18	9.46	6.09	
2025-01-14 03:53:23.39	9.43	6.10	
2025-01-14 03:53:23.59	9.41	6.11	
2025-01-14 03:53:23.80	9.38	6.11	
2025-01-14 03:53:24.00	9.35	6.12	
2025-01-14 03:53:24.21	9.32	6.13	
2025-01-14 03:53:24.41	9.30	6.14	
2025-01-14 03:53:24.62	9.27	6.15	
2025-01-14 03:53:24.82	9.24	6.15	
2025-01-14 03:53:25.03	9.21	6.16	
2025-01-14 03:53:25.23	9.19	6.17	
2025-01-14 03:53:25.44	9.16	6.18	
2025-01-14 03:53:25.64	9.13	6.18	
2025-01-14 03:53:25.85	9.10	6.19	
2025-01-14 03:53:26.06	9.07	6.20	
2025-01-14 03:53:26.26	9.05	6.21	
2025-01-14 03:53:26.47	9.02	6.22	
2025-01-14 03:53:26.68	8.99	6.22	
2025-01-14 03:53:26.89	8.96	6.23	
2025-01-14 03:53:27.09	8.94	6.24	
2025-01-14 03:53:27.30	8.91	6.25	
2025-01-14 03:53:27.51	8.88	6.26	
2025-01-14 03:53:27.71	8.85	6.26	
2025-01-14 03:53:27.92	8.82	6.27	
2025-01-14 03:53:28.12	8.80	6.28	
2025-01-14 03:53:28.33	8.77	6.29	
2025-01-14 03:53:28.53	8.74	6.29	
2025-01-14 03:53:28.74	8.71	6.30	
2025-01-14 03:53:28.95	8.68	6.31	
2025-01-14 03:53:29.16	8.66	6.32	
2025-01-14 03:53:29.37	8.63	6.33	
2025-01-14 03:53:29.57	8.60	6.33	
2025-01-14 03:53:29.78	8.57	6.34	
2025-01-14 03:53:29.98	8.54	6.35	
2025-01-14 03:53:30.19	8.52	6.36	
2025-01-14 03:53:30.39	8.49	6.37	
2025-01-14 03:53:30.60	8.46	6.37	
2025-01-14 03:53:30.80	8.43	6.38	
2025-01-14 03:53:31.00	8.40	6.39	
2025-01-14 03:53:31.21	8.38	6.40	
2025-01-14 03:53:31.41	8.35	6.40	
2025-01-14 03:53:31.62	8.32	6.41	
2025-01-14 03:53:31.83	8.29	6.42	
2025-01-14 03:53:32.03	8.26	6.43	
2025-01-14 03:53:32.24	8.24	6.44	
2025-01-14 03:53:32.44	8.21	6.44	
2025-01-14 03:53:32.65	8.18	6.45	
2025-01-14 03:53:32.85	8.15	6.46	
2025-01-14 03:53:33.06	8.12	6.47	
2025-01-14 03:53:33.26	8.10	6.47	
2025-01-14 03:53:33.47	8.07	6.48	
2025-01-14 03:53:33.67	8.04	6.49	
2025-01-14 03:53:33.88	8.01	6.50	
2025-01-14 03:53:34.08	7.98	6.50	
2025-01-14 03:53:34.28	7.96	6.51	
2025-01-14 03:53:34.49	7.93	6.52	
2025-01-14 03:53:34.70	7.90	6.53	
2025-01-14 03:53:34.90	7.87	6.53	
2025-01-14 03:53:35.11	7.84	6.54	
2025-01-14 03:53:35.32	7.81	6.55	
2025-01-14 03:53:35.53	7.78	6.56	
2025-01-14 03:53:35.73	7.76	6.57	
2025-01-14 03:53:35.94	7.73	6.57	
2025-01-14 03:53:36.15	7.70	6.58	
2025-01-14 03:53:36.36	7.67	6.59	
2025-01-14 03:53:36.56	7.64	6.60	
2025-01-14 03:53:36.77	7.61	6.60	
2025-01-14 03:53:36.97	7.58	6.61	
2025-01-14 03:53:37.18	7.55	6.62	
2025-01-14 03:53:37.38	7.53	6.63	
2025-01-14 03:53:37.58	7.50	6.63	
2025-01-14 03:53:37.79	7.47	6.64	
2025-01-14 03:53:38.00	7.44	6.65	
2025-01-14 03:53:38.20	7.41	6.66	
2025-01-14 03:53:38.40	7.38	6.66	
2025-01-14 03:53:38.61	7.36	6.67	
2025-01-14 03:53:38.81	7.33	6.68	
2025-01-14 03:53:39.02	7.30	6.69	
2025-01-14 03:53:39.23	7.27	6.70	
2025-01-14 03:53:39.43	7.24	6.70	
2025-01-14 03:53:39.64	7.21	6.71	
2025-01-14 03:53:39.84	7.18	6.72	
2025-01-14 03:53:40.05	7.15	6.73	
2025-01-14 03:53:40.25	7.13	6.73	
2025-01-14 03:53:40.46	7.10	6.74	
2025-01-14 03:53:40.66	7.07	6.75	
2025-01-14 03:53:40.87	7.04	6.76	
2025-01-14 03:53:41.07	7.01	6.76	
2025-01-14 03:53:41.28	6.98	6.77	
2025-01-14 03:53:41.49	6.95	6.78	
2025-01-14 03:53:41.69	6.92	6.79	
2025-01-14 03:53:41.89	6.90	6.79	
2025-01-14 03:53:42.10	6.87	6.80	
2025-01-14 03:53:42.30	6.84	6.81	
2025-01-14 03:53:42.51	6.81	6.82	
2025-01-14 03:53:42.71	6.78	6.82	
2025-01-14 03:53:42.92	6.75	6.83	
2025-01-14 03:53:43.12	6.72	6.84	
2025-01-14 03:53:43.33	6.69	6.85	
2025-01-14 03:53:43.53	6.67	6.85	
2025-01-14 03:53:43.74	6.64	6.86	
2025-01-14 03:53:43.94	6.61	6.87	
2025-01-14 03:53:44.15	6.58	6.88	
2025-01-14 03:53:44.35	6.55	6.88	
2025-01-14 03:53:44.56	6.52	6.89	
2025-01-14 03:53:44.77	6.49	6.90	
2025-01-14 03:53:44.97	6.46	6.91	
2025-01-14 03:53:45.17	6.43	6.91	
2025-01-14 03:53:45.38	6.40	6.92	
2025-01-14 03:53:45.59	6.37	6.93	
2025-01-14 03:53:45.79	6.35	6.94	
2025-01-14 03:53:46.00	6.32	6.94	
2025-01-14 03:53:46.20	6.29	6.95	
2025-01-14 03:53:46.41	6.26	6.96	
2025-01-14 03:53:46.61	6.23	6.97	
2025-01-14 03:53:46.82	6.20	6.97	
2025-01-14 03:53:47.02	6.17	6.98	
2025-01-14 03:53:47.23	6.14	6.99	
2025-01-14 03:53:47.43	6.11	6.99	
2025-01-14 03:53:47.64	6.08	7.00	
2025-01-14 03:53:47.84	6.05	7.01	
2025-01-14 03:53:48.05	6.02	7.02	
2025-01-14 03:53:48.25	6.00	7.02	
2025-01-14 03:53:48.46	5.97	7.03	
2025-01-14 03:53:48.67	5.94	7.04	
2025-01-14 03:53:48.87	5.91	7.05	
2025-01-14 03:53:49.07	5.88	7.05	
2025-01-14 03:53:49.28	5.85	7.06	
2025-01-14 03:53:49.48	5.82	7.07	
2025-01-14 03:53:49.69	5.79	7.08	
2025-01-14 03:53:49.90	5.76	7.08	
2025-01-14 03:53:50.10	5.73	7.09	
2025-01-14 03:53:50.30	5.70	7.10	
2025-01-14 03:53:50.51	5.67	7.11	
2025-01-14 03:53:50.71	5.64	7.11	
2025-01-14 03:53:50.92	5.61	7.12	
2025-01-14 03:53:51.12	5.58	7.13	
2025-01-14 03:53:51.34	5.55	7.13	
2025-01-14 03:53:51.55	5.52	7.14	
2025-01-14 03:53:51.75	5.49	7.15	
2025-01-14 03:53:51.96	5.46	7.16	
2025-01-14 03:53:52.16	5.44	7.16	
2025-01-14 03:53:52.37	5.40	7.17	
2025-01-14 03:53:52.57	5.38	7.18	
2025-01-14 03:53:52.78	5.35	7.19	
2025-01-14 03:53:52.99	5.32	7.19	
2025-01-14 03:53:53.20	5.28	7.20	
2025-01-14 03:53:53.40	5.26	7.21	
2025-01-14 03:53:53.61	5.23	7.22	
2025-01-14 03:53:53.81	5.20	7.22	
2025-01-14 03:53:54.02	5.17	7.23	
2025-01-14 03:53:54.23	5.14	7.24	
2025-01-14 03:53:54.43	5.11	7.24	
2025-01-14 03:53:54.63	5.08	7.25	
2025-01-14 03:53:54.84	5.05	7.26	
2025-01-14 03:53:55.05	5.02	7.27	
2025-01-14 03:53:55.25	4.99	7.27	
2025-01-14 03:53:55.46	4.96	7.28	
2025-01-14 03:53:55.66	4.93	7.29	
2025-01-14 03:53:55.86	4.90	7.29	
2025-01-14 03:53:56.07	4.87	7.30	
2025-01-14 03:53:56.28	4.84	7.31	
2025-01-14 03:53:56.48	4.81	7.32	
2025-01-14 03:53:56.69	4.78	7.32	
2025-01-14 03:53:56.89	4.75	7.33	
2025-01-14 03:53:57.10	4.72	7.34	
2025-01-14 03:53:57.30	4.69	7.34	
2025-01-14 03:53:57.51	4.66	7.35	
2025-01-14 03:53:57.71	4.63	7.36	
2025-01-14 03:53:57.92	4.60	7.37	
2025-01-14 03:53:58.12	4.57	7.37	
2025-01-14 03:53:58.33	4.54	7.38	
2025-01-14 03:53:58.54	4.51	7.39	
2025-01-14 03:53:58.74	4.48	7.39	
2025-01-14 03:53:58.95	4.45	7.40	
2025-01-14 03:53:59.15	4.42	7.41	
2025-01-14 03:53:59.36	4.39	7.42	
2025-01-14 03:53:59.56	4.36	7.42	
2025-01-14 03:53:59.77	4.33	7.43	
2025-01-14 03:53:59.97	4.30	7.44	
2025-01-14 03:54:00.18	4.27	7.44	
2025-01-14 03:54:00.38	4.24	7.45	
2025-01-14 03:54:00.59	4.21	7.46	
2025-01-14 03:54:00.79	4.18	7.46	
2025-01-14 03:54:00.99	4.15	7.47	
2025-01-14 03:54:01.20	4.12	7.48	
2025-01-14 03:54:01.40	4.09	7.49	
2025-01-14 03:54:01.61	4.06	7.49	
2025-01-14 03:54:01.82	4.03	7.50	
2025-01-14 03:54:02.03	3.99	7.51	
2025-01-14 03:54:02.24	3.96	7.51	
2025-01-14 03:54:02.45	3.93	7.52	
2025-01-14 03:54:02.65	3.90	7.53	
2025-01-14 03:54:02.86	3.87	7.54	
2025-01-14 03:54:03.06	3.84	7.54	
2025-01-14 03:54:03.27	3.81	7.55	
2025-01-14 03:54:03.47	3.78	7.56	
2025-01-14 03:54:03.68	3.75	7.56	
2025-01-14 03:54:03.88	3.72	7.57	
2025-01-14 03:54:04.09	3.69	7.58	
2025-01-14 03:54:04.29	3.66	7.58	
2025-01-14 03:54:04.50	3.63	7.59	
2025-01-14 03:54:04.71	3.60	7.60	
2025-01-14 03:54:04.91	3.57	7.61	
2025-01-14 03:54:05.11	3.54	7.61	
2025-01-14 03:54:05.32	3.51	7.62	
2025-01-14 03:54:05.53	3.48	7.63	
2025-01-14 03:54:05.73	3.45	7.63	
2025-01-14 03:54:05.94	3.41	7.64	
2025-01-14 03:54:06.14	3.38	7.65	
2025-01-14 03:54:06.35	3.35	7.65	
2025-01-14 03:54:06.55	3.32	7.66	
2025-01-14 03:54:06.76	3.29	7.67	
2025-01-14 03:54:06.97	3.26	7.67	
2025-01-14 03:54:07.17	3.23	7.68	
2025-01-14 03:54:07.37	3.20	7.69	
2025-01-14 03:54:07.58	3.17	7.70	
2025-01-14 03:54:07.79	3.14	7.70	
2025-01-14 03:54:07.99	3.11	7.71	
2025-01-14 03:54:08.20	3.08	7.72	
2025-01-14 03:54:08.40	3.05	7.72	
2025-01-14 03:54:08.60	3.02	7.73	
2025-01-14 03:54:08.81	2.99	7.74	
2025-01-14 03:54:09.01	2.96	7.74	
2025-01-14 03:54:09.22	2.92	7.75	
2025-01-14 03:54:09.42	2.89	7.76	
2025-01-14 03:54:09.63	2.86	7.76	
2025-01-14 03:54:09.84	2.83	7.77	
2025-01-14 03:54:10.04	2.80	7.78	
2025-01-14 03:54:10.25	2.77	7.78	
2025-01-14 03:54:10.45	2.74	7.79	
2025-01-14 03:54:10.66	2.71	7.80	
2025-01-14 03:54:10.86	2.68	7.80	
2025-01-14 03:54:11.07	2.65	7.81	
2025-01-14 03:54:11.27	2.62	7.82	
2025-01-14 03:54:11.48	2.58	7.82	
2025-01-14 03:54:11.68	2.55	7.83	
2025-01-14 03:54:11.89	2.52	7.84	
2025-01-14 03:54:12.09	2.49	7.84	
2025-01-14 03:54:12.30	2.46	7.85	
2025-01-14 03:54:12.50	2.43	7.86	
2025-01-14 03:54:12.71	2.40	7.86	
2025-01-14 03:54:12.91	2.37	7.87	
2025-01-14 03:54:13.12	2.34	7.88	
2025-01-14 03:54:13.32	2.30	7.88	
2025-01-14 03:54:13.53	2.27	7.89	
2025-01-14 03:54:13.73	2.24	7.90	
2025-01-14 03:54:13.94	2.21	7.90	
2025-01-14 03:54:14.14	2.18	7.91	
2025-01-14 03:54:14.35	2.15	7.92	
2025-01-14 03:54:14.56	2.12	7.92	
2025-01-14 03:54:14.76	2.09	7.93	
2025-01-14 03:54:14.96	2.06	7.94	
2025-01-14 03:54:15.17	2.02	7.94	
2025-01-14 03:54:15.37	1.99	7.95	
2025-01-14 03:54:15.58	1.96	7.96	
2025-01-14 03:54:15.78	1.93	7.96	
2025-01-14 03:54:15.99	1.90	7.97	
2025-01-14 03:54:16.20	1.87	7.98	
2025-01-14 03:54:16.40	1.84	7.98	
2025-01-14 03:54:16.61	1.80	7.99	
2025-01-14 03:54:16.81	1.77	8.00	
2025-01-14 03:54:17.01	1.74	8.00	
2025-01-14 03:54:17.22	1.71	8.01	
2025-01-14 03:54:17.43	1.68	8.02	
2025-01-14 03:54:17.63	1.65	8.02	
2025-01-14 03:54:17.84	1.62	8.03	
2025-01-14 03:54:18.04	1.59	8.04	
2025-01-14 03:54:18.25	1.55	8.04	
2025-01-14 03:54:18.45	1.52	8.05	
2025-01-14 03:54:18.66	1.49	8.06	
2025-01-14 03:54:18.86	1.46	8.06	
2025-01-14 03:54:19.07	1.43	8.07	
2025-01-14 03:54:19.27	1.40	8.08	
2025-01-14 03:54:19.48	1.36	8.08	
2025-01-14 03:54:19.68	1.33	8.09	
2025-01-14 03:54:19.89	1.30	8.10	
2025-01-14 03:54:20.09	1.27	8.10	
2025-01-14 03:54:20.30	1.24	8.11	
2025-01-14 03:54:20.50	1.21	8.11	
2025-01-14 03:54:20.71	1.17	8.12	
2025-01-14 03:54:20.92	1.14	8.13	
2025-01-14 03:54:21.12	1.11	8.13	
2025-01-14 03:54:21.33	1.08	8.14	
2025-01-14 03:54:21.53	1.05	8.15	
2025-01-14 03:54:21.74	1.02	8.15	
2025-01-14 03:54:21.95	0.98	8.16	
2025-01-14 03:54:22.15	0.95	8.17	
2025-01-14 03:54:22.35	0.92	8.17	
2025-01-14 03:54:22.56	0.89	8.18	
2025-01-14 03:54:22.76	0.86	8.19	
2025-01-14 03:54:22.97	0.83	8.19	
2025-01-14 03:54:23.17	0.79	8.20	
2025-01-14 03:54:23.38	0.76	8.20	
2025-01-14 03:54:23.58	0.73	8.21	
2025-01-14 03:54:23.79	0.70	8.22	
2025-01-14 03:54:24.00	0.67	8.22	
2025-01-14 03:54:24.20	0.63	8.23	
2025-01-14 03:54:24.42	0.60	8.24	
2025-01-14 03:54:24.62	0.57	8.24	
2025-01-14 03:54:24.83	0.54	8.25	
2025-01-14 03:54:25.04	0.50	8.26	
2025-01-14 03:54:25.24	0.47	8.26	
2025-01-14 03:54:25.44	0.44	8.27	
2025-01-14 03:54:25.65	0.41	8.27	
2025-01-14 03:54:25.85	0.38	8.28	
2025-01-14 03:54:26.06	0.35	8.29	
2025-01-14 03:54:26.26	0.31	8.29	
2025-01-14 03:54:26.47	0.28	8.30	
2025-01-14 03:54:26.67	0.25	8.31	
2025-01-14 03:54:26.87	0.22	8.31	
2025-01-14 03:54:27.08	0.19	8.32	
2025-01-14 03:54:27.29	0.15	8.32	
2025-01-14 03:54:27.49	0.12	8.33	
2025-01-14 03:54:27.69	0.09	8.34	
2025-01-14 03:54:27.90	0.06	8.34	
2025-01-14 03:54:28.11	0.02	8.35	
2025-01-14 03:54:28.31	359.99	8.36	
2025-01-14 03:54:28.52	359.96	8.36	
2025-01-14 03:54:28.72	359.93	8.37	
2025-01-14 03:54:28.93	359.90	8.37	
2025-01-14 03:54:29.13	359.86	8.38	
2025-01-14 03:54:29.34	359.83	8.39	
2025-01-14 03:54:29.54	359.80	8.39	
2025-01-14 03:54:29.75	359.77	8.40	
2025-01-14 03:54:29.95	359.74	8.41	
2025-01-14 03:54:30.16	359.70	8.41	
2025-01-14 03:54:30.36	359.67	8.42	
2025-01-14 03:54:30.57	359.64	8.42	
2025-01-14 03:54:30.77	359.61	8.43	
2025-01-14 03:54:30.98	359.57	8.44	
2025-01-14 03:54:31.18	359.54	8.44	
2025-01-14 03:54:31.39	359.51	8.45	
2025-01-14 03:54:31.59	359.48	8.45	
2025-01-14 03:54:31.80	359.44	8.46	
2025-01-14 03:54:32.00	359.41	8.47	
2025-01-14 03:54:32.21	359.38	8.47	
2025-01-14 03:54:32.41	359.35	8.48	
2025-01-14 03:54:32.62	359.31	8.48	
2025-01-14 03:54:32.82	359.28	8.49	
2025-01-14 03:54:33.03	359.25	8.50	
2025-01-14 03:54:33.23	359.22	8.50	
2025-01-14 03:54:33.44	359.18	8.51	
2025-01-14 03:54:33.65	359.15	8.51	
2025-01-14 03:54:33.85	359.12	8.52	
2025-01-14 03:54:34.07	359.09	8.53	
2025-01-14 03:54:34.28	359.05	8.53	
2025-01-14 03:54:34.48	359.02	8.54	
2025-01-14 03:54:34.69	358.99	8.55	
2025-01-14 03:54:34.89	358.95	8.55	
2025-01-14 03:54:35.10	358.92	8.56	
2025-01-14 03:54:35.30	358.89	8.56	
2025-01-14 03:54:35.51	358.86	8.57	
2025-01-14 03:54:35.72	358.82	8.58	
2025-01-14 03:54:35.92	358.79	8.58	
2025-01-14 03:54:36.12	358.76	8.59	
2025-01-14 03:54:36.33	358.73	8.59	
2025-01-14 03:54:36.53	358.69	8.60	
2025-01-14 03:54:36.74	358.66	8.60	
2025-01-14 03:54:36.95	358.63	8.61	
2025-01-14 03:54:37.15	358.59	8.62	
2025-01-14 03:54:37.35	358.56	8.62	
2025-01-14 03:54:37.56	358.53	8.63	
2025-01-14 03:54:37.77	358.50	8.63	
2025-01-14 03:54:37.97	358.46	8.64	
2025-01-14 03:54:38.18	358.43	8.65	
2025-01-14 03:54:38.39	358.40	8.65	
2025-01-14 03:54:38.59	358.36	8.66	
2025-01-14 03:54:38.79	358.33	8.66	
2025-01-14 03:54:39.00	358.30	8.67	
2025-01-14 03:54:39.21	358.27	8.68	
2025-01-14 03:54:39.42	358.23	8.68	
2025-01-14 03:54:39.63	358.20	8.69	
2025-01-14 03:54:39.83	358.17	8.69	
2025-01-14 03:54:40.04	358.13	8.70	
2025-01-14 03:54:40.24	358.10	8.70	
2025-01-14 03:54:40.46	358.06	8.71	
2025-01-14 03:54:40.67	358.03	8.72	
2025-01-14 03:54:40.87	358.00	8.72	
2025-01-14 03:54:41.08	357.97	8.73	
2025-01-14 03:54:41.28	357.93	8.73	
2025-01-14 03:54:41.49	357.90	8.74	
2025-01-14 03:54:41.69	357.87	8.74	
2025-01-14 03:54:41.90	357.83	8.75	
2025-01-14 03:54:42.10	357.80	8.76	
2025-01-14 03:54:42.31	357.77	8.76	
2025-01-14 03:54:42.51	357.73	8.77	
2025-01-14 03:54:42.72	357.70	8.77	
2025-01-14 03:54:42.92	357.67	8.78	
2025-01-14 03:54:43.13	357.63	8.78	
2025-01-14 03:54:43.33	357.60	8.79	
2025-01-14 03:54:43.54	357.57	8.80	
2025-01-14 03:54:43.74	357.54	8.80	
2025-01-14 03:54:43.95	357.50	8.81	
2025-01-14 03:54:44.15	357.47	8.81	
2025-01-14 03:54:44.36	357.44	8.82	
2025-01-14 03:54:44.57	357.40	8.82	
2025-01-14 03:54:44.78	357.37	8.83	
2025-01-14 03:54:44.99	357.33	8.84	
2025-01-14 03:54:45.19	357.30	8.84	
2025-01-14 03:54:45.40	357.27	8.85	
2025-01-14 03:54:45.60	357.23	8.85	
2025-01-14 03:54:45.81	357.20	8.86	
2025-01-14 03:54:46.01	357.17	8.86	
2025-01-14 03:54:46.22	357.13	8.87	
2025-01-14 03:54:46.42	357.10	8.87	
2025-01-14 03:54:46.63	357.07	8.88	
2025-01-14 03:54:46.83	357.04	8.89	
2025-01-14 03:54:47.04	357.00	8.89	
2025-01-14 03:54:47.24	356.97	8.90	
2025-01-14 03:54:47.45	356.93	8.90	
2025-01-14 03:54:47.65	356.90	8.91	
2025-01-14 03:54:47.86	356.87	8.91	
2025-01-14 03:54:48.06	356.83	8.92	
2025-01-14 03:54:48.27	356.80	8.92	
2025-01-14 03:54:48.47	356.77	8.93	
2025-01-14 03:54:48.68	356.73	8.94	
2025-01-14 03:54:48.89	356.70	8.94	
2025-01-14 03:54:49.09	356.67	8.95	
2025-01-14 03:54:49.30	356.63	8.95	
2025-01-14 03:54:49.50	356.60	8.96	
2025-01-14 03:54:49.71	356.57	8.96	
2025-01-14 03:54:49.91	356.53	8.97	
2025-01-14 03:54:50.13	356.50	8.97	
2025-01-14 03:54:50.34	356.46	8.98	
2025-01-14 03:54:50.54	356.43	8.98	
2025-01-14 03:54:50.75	356.40	8.99	
2025-01-14 03:54:50.95	356.36	8.99	
2025-01-14 03:54:51.17	356.33	9.00	
2025-01-14 03:54:51.37	356.29	9.01	
2025-01-14 03:54:51.58	356.26	9.01	
2025-01-14 03:54:51.79	356.22	9.02	
2025-01-14 03:54:51.99	356.19	9.02	
2025-01-14 03:54:52.19	356.16	9.03	
2025-01-14 03:54:52.40	356.12	9.03	
2025-01-14 03:54:52.60	356.09	9.04	
2025-01-14 03:54:52.81	356.06	9.04	
2025-01-14 03:54:53.02	356.02	9.05	
2025-01-14 03:54:53.22	355.99	9.05	
2025-01-14 03:54:53.42	355.96	9.06	
2025-01-14 03:54:53.63	355.92	9.06	
2025-01-14 03:54:53.83	355.89	9.07	
2025-01-14 03:54:54.04	355.85	9.07	
2025-01-14 03:54:54.25	355.82	9.08	
2025-01-14 03:54:54.45	355.79	9.08	
2025-01-14 03:54:54.66	355.75	9.09	
2025-01-14 03:54:54.86	355.72	9.10	
2025-01-14 03:54:55.07	355.68	9.10	
2025-01-14 03:54:55.27	355.65	9.11	
2025-01-14 03:54:55.49	355.62	9.11	
2025-01-14 03:54:55.69	355.58	9.12	
2025-01-14 03:54:55.90	355.55	9.12	
2025-01-14 03:54:56.11	355.51	9.13	
2025-01-14 03:54:56.31	355.48	9.13	
2025-01-14 03:54:56.51	355.45	9.14	
2025-01-14 03:54:56.72	355.41	9.14	
2025-01-14 03:54:56.92	355.38	9.15	
2025-01-14 03:54:57.13	355.34	9.15	
2025-01-14 03:54:57.33	355.31	9.16	
2025-01-14 03:54:57.54	355.28	9.16	
2025-01-14 03:54:57.74	355.24	9.17	
2025-01-14 03:54:57.95	355.21	9.17	
2025-01-14 03:54:58.15	355.17	9.18	
2025-01-14 03:54:58.36	355.14	9.18	
2025-01-14 03:54:58.57	355.10	9.19	
2025-01-14 03:54:58.77	355.07	9.19	
2025-01-14 03:54:58.98	355.04	9.20	
2025-01-14 03:54:59.18	355.00	9.20	
2025-01-14 03:54:59.39	354.97	9.21	
2025-01-14 03:54:59.59	354.94	9.21	
2025-01-14 03:54:59.79	354.90	9.22	
2025-01-14 03:55:00.00	354.87	9.22	
2025-01-14 03:55:00.20	354.83	9.23	
2025-01-14 03:55:00.41	354.80	9.23	
2025-01-14 03:55:00.61	354.77	9.24	
2025-01-14 03:55:00.83	354.73	9.24	
2025-01-14 03:55:01.04	354.69	9.25	
2025-01-14 03:55:01.24	354.66	9.25	
2025-01-14 03:55:01.45	354.63	9.26	
2025-01-14 03:55:01.65	354.59	9.26	
2025-01-14 03:55:01.86	354.56	9.27	
2025-01-14 03:55:02.07	354.52	9.27	
2025-01-14 03:55:02.27	354.49	9.28	
2025-01-14 03:55:02.48	354.45	9.28	
2025-01-14 03:55:02.68	354.42	9.29	
2025-01-14 03:55:02.89	354.38	9.29	
2025-01-14 03:55:03.09	354.35	9.30	
2025-01-14 03:55:03.30	354.32	9.30	
2025-01-14 03:55:03.50	354.28	9.31	
2025-01-14 03:55:03.71	354.25	9.31	
2025-01-14 03:55:03.91	354.21	9.32	
2025-01-14 03:55:04.12	354.18	9.32	
2025-01-14 03:55:04.32	354.14	9.33	
2025-01-14 03:55:04.53	354.11	9.33	
2025-01-14 03:55:04.73	354.08	9.34	
2025-01-14 03:55:04.94	354.04	9.34	
2025-01-14 03:55:05.14	354.01	9.34	
2025-01-14 03:55:05.35	353.97	9.35	
2025-01-14 03:55:05.56	353.94	9.35	
2025-01-14 03:55:05.76	353.90	9.36	
2025-01-14 03:55:05.97	353.87	9.36	
2025-01-14 03:55:06.17	353.83	9.37	
2025-01-14 03:55:06.38	353.80	9.37	
2025-01-14 03:55:06.58	353.77	9.38	
2025-01-14 03:55:06.79	353.73	9.38	
2025-01-14 03:55:06.99	353.70	9.39	
2025-01-14 03:55:07.20	353.66	9.39	
2025-01-14 03:55:07.40	353.63	9.40	
2025-01-14 03:55:07.61	353.59	9.40	
2025-01-14 03:55:07.81	353.56	9.41	
2025-01-14 03:55:08.02	353.52	9.41	
2025-01-14 03:55:08.22	353.49	9.42	
2025-01-14 03:55:08.43	353.45	9.42	
2025-01-14 03:55:08.63	353.42	9.42	
2025-01-14 03:55:08.84	353.38	9.43	
2025-01-14 03:55:09.05	353.35	9.43	
2025-01-14 03:55:09.25	353.31	9.44	
2025-01-14 03:55:09.45	353.28	9.44	
2025-01-14 03:55:09.66	353.25	9.45	
2025-01-14 03:55:09.86	353.21	9.45	
2025-01-14 03:55:10.07	353.18	9.46	
2025-01-14 03:55:10.27	353.14	9.46	
2025-01-14 03:55:10.48	353.11	9.47	
2025-01-14 03:55:10.68	353.07	9.47	
2025-01-14 03:55:10.89	353.04	9.47	
2025-01-14 03:55:11.09	353.00	9.48	
2025-01-14 03:55:11.30	352.97	9.48	
2025-01-14 03:55:11.50	352.93	9.49	
2025-01-14 03:55:11.70	352.90	9.49	
2025-01-14 03:55:11.91	352.86	9.50	
2025-01-14 03:55:12.12	352.83	9.50	
2025-01-14 03:55:12.32	352.79	9.51	
2025-01-14 03:55:12.52	352.76	9.51	
2025-01-14 03:55:12.73	352.72	9.51	
2025-01-14 03:55:12.94	352.69	9.52	
2025-01-14 03:55:13.14	352.66	9.52	
2025-01-14 03:55:13.35	352.62	9.53	
2025-01-14 03:55:13.56	352.58	9.53	
2025-01-14 03:55:13.77	352.55	9.54	
2025-01-14 03:55:13.98	352.51	9.54	
2025-01-14 03:55:14.18	352.48	9.55	
2025-01-14 03:55:14.39	352.44	9.55	
2025-01-14 03:55:14.59	352.41	9.55	
2025-01-14 03:55:14.80	352.37	9.56	
2025-01-14 03:55:15.00	352.34	9.56	
2025-01-14 03:55:15.21	352.30	9.57	
2025-01-14 03:55:15.41	352.27	9.57	
2025-01-14 03:55:15.62	352.23	9.58	
2025-01-14 03:55:15.82	352.20	9.58	
2025-01-14 03:55:16.02	352.16	9.58	
2025-01-14 03:55:16.23	352.13	9.59	
2025-01-14 03:55:16.43	352.09	9.59	
2025-01-14 03:55:16.64	352.06	9.60	
2025-01-14 03:55:16.84	352.02	9.60	
2025-01-14 03:55:17.05	351.99	9.61	
2025-01-14 03:55:17.25	351.95	9.61	
2025-01-14 03:55:17.46	351.92	9.61	
2025-01-14 03:55:17.67	351.88	9.62	
2025-01-14 03:55:17.87	351.85	9.62	
2025-01-14 03:55:18.08	351.81	9.63	
2025-01-14 03:55:18.28	351.78	9.63	
2025-01-14 03:55:18.49	351.74	9.64	
2025-01-14 03:55:18.69	351.71	9.64	
2025-01-14 03:55:18.89	351.67	9.64	
2025-01-14 03:55:19.11	351.64	9.65	
2025-01-14 03:55:19.31	351.60	9.65	
2025-01-14 03:55:19.52	351.56	9.66	
2025-01-14 03:55:19.72	351.53	9.66	
2025-01-14 03:55:19.93	351.49	9.66	
2025-01-14 03:55:20.13	351.46	9.67	
2025-01-14 03:55:20.34	351.42	9.67	
2025-01-14 03:55:20.55	351.39	9.68	
2025-01-14 03:55:20.75	351.35	9.68	
2025-01-14 03:55:20.96	351.32	9.68	
2025-01-14 03:55:21.16	351.28	9.69	
2025-01-14 03:55:21.37	351.25	9.69	
2025-01-14 03:55:21.57	351.21	9.70	
2025-01-14 03:55:21.78	351.18	9.70	
2025-01-14 03:55:21.98	351.14	9.70	
2025-01-14 03:55:22.19	351.11	9.71	
2025-01-14 03:55:22.39	351.07	9.71	
2025-01-14 03:55:22.60	351.04	9.72	
2025-01-14 03:55:22.80	351.00	9.72	
2025-01-14 03:55:23.01	350.96	9.72	
2025-01-14 03:55:23.21	350.93	9.73	
2025-01-14 03:55:23.42	350.89	9.73	
2025-01-14 03:55:23.62	350.86	9.74	
2025-01-14 03:55:23.83	350.82	9.74	
2025-01-14 03:55:24.03	350.79	9.74	
2025-01-14 03:55:24.24	350.75	9.75	
2025-01-14 03:55:24.44	350.72	9.75	
2025-01-14 03:55:24.65	350.68	9.76	
2025-01-14 03:55:24.86	350.64	9.76	
2025-01-14 03:55:25.06	350.61	9.76	
2025-01-14 03:55:25.27	350.57	9.77	
2025-01-14 03:55:25.47	350.54	9.77	
2025-01-14 03:55:25.68	350.50	9.77	
2025-01-14 03:55:25.88	350.47	9.78	
2025-01-14 03:55:26.09	350.43	9.78	
2025-01-14 03:55:26.29	350.40	9.79	
2025-01-14 03:55:26.50	350.36	9.79	
2025-01-14 03:55:26.70	350.33	9.79	
2025-01-14 03:55:26.91	350.29	9.80	
2025-01-14 03:55:27.11	350.26	9.80	
2025-01-14 03:55:27.32	350.22	9.80	
2025-01-14 03:55:27.52	350.18	9.81	
2025-01-14 03:55:27.73	350.15	9.81	
2025-01-14 03:55:27.93	350.11	9.82	
2025-01-14 03:55:28.14	350.08	9.82	
2025-01-14 03:55:28.34	350.04	9.82	
2025-01-14 03:55:28.55	350.01	9.83	
2025-01-14 03:55:28.75	349.97	9.83	
2025-01-14 03:55:28.96	349.93	9.83	
2025-01-14 03:55:29.16	349.90	9.84	
2025-01-14 03:55:29.37	349.86	9.84	
2025-01-14 03:55:29.57	349.83	9.85	
2025-01-14 03:55:29.78	349.79	9.85	
2025-01-14 03:55:29.98	349.76	9.85	
2025-01-14 03:55:30.19	349.72	9.86	
2025-01-14 03:55:30.40	349.68	9.86	
2025-01-14 03:55:30.60	349.65	9.86	
2025-01-14 03:55:30.80	349.61	9.87	
2025-01-14 03:55:31.01	349.58	9.87	
2025-01-14 03:55:31.22	349.54	9.87	
2025-01-14 03:55:31.42	349.51	9.88	
2025-01-14 03:55:31.63	349.47	9.88	
2025-01-14 03:55:31.83	349.43	9.88	
2025-01-14 03:55:32.03	349.40	9.89	
2025-01-14 03:55:32.24	349.36	9.89	
2025-01-14 03:55:32.44	349.33	9.89	
2025-01-14 03:55:32.65	349.29	9.90	
2025-01-14 03:55:32.85	349.26	9.90	
2025-01-14 03:55:33.05	349.22	9.91	
2025-01-14 03:55:33.26	349.18	9.91	
2025-01-14 03:55:33.47	349.15	9.91	
2025-01-14 03:55:33.68	349.11	9.92	
2025-01-14 03:55:33.90	349.07	9.92	
2025-01-14 03:55:34.10	349.04	9.92	
2025-01-14 03:55:34.31	349.00	9.93	
2025-01-14 03:55:34.51	348.97	9.93	
2025-01-14 03:55:34.72	348.93	9.93	
2025-01-14 03:55:34.93	348.89	9.94	
2025-01-14 03:55:35.14	348.86	9.94	
2025-01-14 03:55:35.35	348.82	9.94	
2025-01-14 03:55:35.55	348.78	9.95	
2025-01-14 03:55:35.76	348.75	9.95	
2025-01-14 03:55:35.96	348.71	9.95	
2025-01-14 03:55:36.17	348.68	9.96	
2025-01-14 03:55:36.37	348.64	9.96	
2025-01-14 03:55:36.58	348.60	9.96	
2025-01-14 03:55:36.78	348.57	9.97	
2025-01-14 03:55:36.99	348.53	9.97	
2025-01-14 03:55:37.19	348.50	9.97	
2025-01-14 03:55:37.40	348.46	9.98	
2025-01-14 03:55:37.61	348.42	9.98	
2025-01-14 03:55:37.81	348.39	9.98	
2025-01-14 03:55:38.02	348.35	9.99	
2025-01-14 03:55:38.22	348.32	9.99	
2025-01-14 03:55:38.43	348.28	9.99	
2025-01-14 03:55:38.63	348.24	9.99	
2025-01-14 03:55:38.84	348.21	10.00	
2025-01-14 03:55:39.04	348.17	10.00	
2025-01-14 03:55:39.26	348.13	10.00	
2025-01-14 03:55:39.47	348.10	10.01	
2025-01-14 03:55:39.67	348.06	10.01	
2025-01-14 03:55:39.88	348.02	10.01	
2025-01-14 03:55:40.08	347.99	10.02	
2025-01-14 03:55:40.28	347.95	10.02	
2025-01-14 03:55:40.49	347.92	10.02	
2025-01-14 03:55:40.70	347.88	10.03	
2025-01-14 03:55:40.90	347.84	10.03	
2025-01-14 03:55:41.11	347.81	10.03	
2025-01-14 03:55:41.31	347.77	10.04	
2025-01-14 03:55:41.52	347.73	10.04	
2025-01-14 03:55:41.72	347.70	10.04	
2025-01-14 03:55:41.93	347.66	10.04	
2025-01-14 03:55:42.13	347.63	10.05	
2025-01-14 03:55:42.34	347.59	10.05	
2025-01-14 03:55:42.54	347.56	10.05	
2025-01-14 03:55:42.75	347.52	10.06	
2025-01-14 03:55:42.95	347.48	10.06	
2025-01-14 03:55:43.16	347.45	10.06	
2025-01-14 03:55:43.36	347.41	10.07	
2025-01-14 03:55:43.57	347.37	10.07	
2025-01-14 03:55:43.77	347.34	10.07	
2025-01-14 03:55:43.98	347.30	10.07	
2025-01-14 03:55:44.18	347.27	10.08	
2025-01-14 03:55:44.39	347.23	10.08	
2025-01-14 03:55:44.59	347.19	10.08	
2025-01-14 03:55:44.80	347.16	10.09	
2025-01-14 03:55:45.01	347.12	10.09	
2025-01-14 03:55:45.21	347.08	10.09	
2025-01-14 03:55:45.42	347.05	10.09	
2025-01-14 03:55:45.62	347.01	10.10	
2025-01-14 03:55:45.82	346.98	10.10	
2025-01-14 03:55:46.02	346.94	10.10	
2025-01-14 03:55:46.23	346.90	10.10	
2025-01-14 03:55:46.44	346.87	10.11	
2025-01-14 03:55:46.64	346.83	10.11	
2025-01-14 03:55:46.85	346.79	10.11	
2025-01-14 03:55:47.05	346.76	10.12	
2025-01-14 03:55:47.25	346.72	10.12	
2025-01-14 03:55:47.46	346.68	10.12	
2025-01-14 03:55:47.66	346.65	10.12	
2025-01-14 03:55:47.88	346.61	10.13	
2025-01-14 03:55:48.09	346.57	10.13	
2025-01-14 03:55:48.29	346.54	10.13	
2025-01-14 03:55:48.50	346.50	10.13	
2025-01-14 03:55:48.70	346.46	10.14	
2025-01-14 03:55:48.91	346.43	10.14	
2025-01-14 03:55:49.11	346.39	10.14	
2025-01-14 03:55:49.32	346.35	10.15	
2025-01-14 03:55:49.52	346.32	10.15	
2025-01-14 03:55:49.73	346.28	10.15	
2025-01-14 03:55:49.93	346.25	10.15	
2025-01-14 03:55:50.14	346.21	10.16	
2025-01-14 03:55:50.34	346.17	10.16	
2025-01-14 03:55:50.55	346.14	10.16	
2025-01-14 03:55:50.75	346.10	10.16	
2025-01-14 03:55:50.96	346.06	10.17	
2025-01-14 03:55:51.16	346.03	10.17	
2025-01-14 03:55:51.37	345.99	10.17	
2025-01-14 03:55:51.57	345.95	10.17	
2025-01-14 03:55:51.78	345.92	10.18	
2025-01-14 03:55:51.98	345.88	10.18	
2025-01-14 03:55:52.19	345.84	10.18	
2025-01-14 03:55:52.39	345.81	10.18	
2025-01-14 03:55:52.60	345.77	10.19	
2025-01-14 03:55:52.80	345.74	10.19	
2025-01-14 03:55:53.01	345.70	10.19	
2025-01-14 03:55:53.21	345.66	10.19	
2025-01-14 03:55:53.42	345.63	10.20	
2025-01-14 03:55:53.63	345.59	10.20	
2025-01-14 03:55:53.83	345.55	10.20	
2025-01-14 03:55:54.04	345.51	10.20	
2025-01-14 03:55:54.24	345.48	10.20	
2025-01-14 03:55:54.45	345.44	10.21	
2025-01-14 03:55:54.65	345.41	10.21	
2025-01-14 03:55:54.86	345.37	10.21	
2025-01-14 03:55:55.06	345.33	10.21	
2025-01-14 03:55:55.26	345.30	10.22	
2025-01-14 03:55:55.47	345.26	10.22	
2025-01-14 03:55:55.68	345.22	10.22	
2025-01-14 03:55:55.88	345.19	10.22	
2025-01-14 03:55:56.09	345.15	10.23	
2025-01-14 03:55:56.29	345.11	10.23	
2025-01-14 03:55:56.50	345.08	10.23	
2025-01-14 03:55:56.70	345.04	10.23	
2025-01-14 03:55:56.91	345.00	10.23	
2025-01-14 03:55:57.11	344.97	10.24	
2025-01-14 03:55:57.32	344.93	10.24	
2025-01-14 03:55:57.52	344.89	10.24	
2025-01-14 03:55:57.73	344.86	10.24	
2025-01-14 03:55:57.93	344.82	10.25	
2025-01-14 03:55:58.14	344.78	10.25	
2025-01-14 03:55:58.34	344.75	10.25	
2025-01-14 03:55:58.55	344.71	10.25	
2025-01-14 03:55:58.75	344.67	10.25	
2025-01-14 03:55:58.96	344.64	10.26	
2025-01-14 03:55:59.16	344.60	10.26	
2025-01-14 03:55:59.37	344.56	10.26	
2025-01-14 03:55:59.57	344.53	10.26	
2025-01-14 03:55:59.78	344.49	10.26	
2025-01-14 03:55:59.99	344.45	10.27	
2025-01-14 03:56:00.20	344.41	10.27	
2025-01-14 03:56:00.41	344.38	10.27	
2025-01-14 03:56:00.61	344.34	10.27	
2025-01-14 03:56:00.82	344.30	10.27	
2025-01-14 03:56:01.02	344.27	10.28	
2025-01-14 03:56:01.22	344.23	10.28	
2025-01-14 03:56:01.43	344.19	10.28	
2025-01-14 03:56:01.63	344.16	10.28	
2025-01-14 03:56:01.84	344.12	10.28	
2025-01-14 03:56:02.05	344.08	10.29	
2025-01-14 03:56:02.25	344.05	10.29	
2025-01-14 03:56:02.46	344.01	10.29	
2025-01-14 03:56:02.66	343.97	10.29	
2025-01-14 03:56:02.87	343.93	10.29	
2025-01-14 03:56:03.07	343.90	10.30	
2025-01-14 03:56:03.28	343.86	10.30	
2025-01-14 03:56:03.48	343.83	10.30	
2025-01-14 03:56:03.69	343.79	10.30	
2025-01-14 03:56:03.89	343.75	10.30	
2025-01-14 03:56:04.10	343.71	10.30	
2025-01-14 03:56:04.30	343.68	10.31	
2025-01-14 03:56:04.51	343.64	10.31	
2025-01-14 03:56:04.71	343.60	10.31	
2025-01-14 03:56:04.92	343.57	10.31	
2025-01-14 03:56:05.12	343.53	10.31	
2025-01-14 03:56:05.33	343.49	10.32	
2025-01-14 03:56:05.53	343.46	10.32	
2025-01-14 03:56:05.74	343.42	10.32	
2025-01-14 03:56:05.94	343.38	10.32	
2025-01-14 03:56:06.15	343.35	10.32	
2025-01-14 03:56:06.35	343.31	10.32	
2025-01-14 03:56:06.56	343.27	10.33	
2025-01-14 03:56:06.76	343.24	10.33	
2025-01-14 03:56:06.97	343.20	10.33	
2025-01-14 03:56:07.17	343.16	10.33	
2025-01-14 03:56:07.38	343.12	10.33	
2025-01-14 03:56:07.58	343.09	10.33	
2025-01-14 03:56:07.79	343.05	10.34	
2025-01-14 03:56:07.99	343.01	10.34	
2025-01-14 03:56:08.20	342.98	10.34	
2025-01-14 03:56:08.40	342.94	10.34	
2025-01-14 03:56:08.61	342.90	10.34	
2025-01-14 03:56:08.82	342.86	10.34	
2025-01-14 03:56:09.02	342.83	10.34	
2025-01-14 03:56:09.24	342.79	10.35	
2025-01-14 03:56:09.44	342.75	10.35	
2025-01-14 03:56:09.65	342.72	10.35	
2025-01-14 03:56:09.85	342.68	10.35	
2025-01-14 03:56:10.06	342.64	10.35	
2025-01-14 03:56:10.26	342.61	10.35	
2025-01-14 03:56:10.47	342.57	10.36	
2025-01-14 03:56:10.68	342.53	10.36	
2025-01-14 03:56:10.88	342.49	10.36	
2025-01-14 03:56:11.09	342.46	10.36	
2025-01-14 03:56:11.31	342.42	10.36	
2025-01-14 03:56:11.51	342.38	10.36	
2025-01-14 03:56:11.71	342.34	10.36	
2025-01-14 03:56:11.92	342.31	10.37	
2025-01-14 03:56:12.13	342.27	10.37	
2025-01-14 03:56:12.33	342.23	10.37	
2025-01-14 03:56:12.54	342.19	10.37	
2025-01-14 03:56:12.74	342.16	10.37	
2025-01-14 03:56:12.95	342.12	10.37	
2025-01-14 03:56:13.15	342.08	10.37	
2025-01-14 03:56:13.36	342.05	10.37	
2025-01-14 03:56:13.56	342.01	10.38	
2025-01-14 03:56:13.77	341.97	10.38	
2025-01-14 03:56:13.98	341.93	10.38	
2025-01-14 03:56:14.19	341.90	10.38	
2025-01-14 03:56:14.39	341.86	10.38	
2025-01-14 03:56:14.60	341.82	10.38	
2025-01-14 03:56:14.80	341.79	10.38	
2025-01-14 03:56:15.01	341.75	10.38	
2025-01-14 03:56:15.21	341.71	10.39	
2025-01-14 03:56:15.42	341.67	10.39	
2025-01-14 03:56:15.62	341.64	10.39	
2025-01-14 03:56:15.83	341.60	10.39	
2025-01-14 03:56:16.03	341.56	10.39	
2025-01-14 03:56:16.24	341.53	10.39	
2025-01-14 03:56:16.44	341.49	10.39	
2025-01-14 03:56:16.65	341.45	10.39	
2025-01-14 03:56:16.85	341.42	10.40	
2025-01-14 03:56:17.06	341.38	10.40	
2025-01-14 03:56:17.26	341.34	10.40	
2025-01-14 03:56:17.47	341.30	10.40	
2025-01-14 03:56:17.67	341.27	10.40	
2025-01-14 03:56:17.88	341.23	10.40	
2025-01-14 03:56:18.08	341.19	10.40	
2025-01-14 03:56:18.29	341.16	10.40	
2025-01-14 03:56:18.49	341.12	10.40	
2025-01-14 03:56:18.69	341.08	10.40	
2025-01-14 03:56:18.90	341.05	10.41	
2025-01-14 03:56:19.10	341.01	10.41	
2025-01-14 03:56:19.31	340.97	10.41	
2025-01-14 03:56:19.51	340.93	10.41	
2025-01-14 03:56:19.72	340.90	10.41	
2025-01-14 03:56:19.92	340.86	10.41	
2025-01-14 03:56:20.13	340.82	10.41	
2025-01-14 03:56:20.33	340.79	10.41	
2025-01-14 03:56:20.54	340.75	10.41	
2025-01-14 03:56:20.74	340.71	10.41	
2025-01-14 03:56:20.95	340.67	10.41	
2025-01-14 03:56:21.15	340.64	10.42	
2025-01-14 03:56:21.36	340.60	10.42	
2025-01-14 03:56:21.56	340.56	10.42	
2025-01-14 03:56:21.77	340.53	10.42	
2025-01-14 03:56:21.97	340.49	10.42	
2025-01-14 03:56:22.18	340.45	10.42	
2025-01-14 03:56:22.38	340.42	10.42	
2025-01-14 03:56:22.59	340.38	10.42	
2025-01-14 03:56:22.79	340.34	10.42	
2025-01-14 03:56:23.00	340.30	10.42	
2025-01-14 03:56:23.21	340.26	10.42	
2025-01-14 03:56:23.41	340.23	10.42	
2025-01-14 03:56:23.62	340.19	10.43	
2025-01-14 03:56:23.82	340.15	10.43	
2025-01-14 03:56:24.02	340.12	10.43	
2025-01-14 03:56:24.23	340.08	10.43	
2025-01-14 03:56:24.43	340.04	10.43	
2025-01-14 03:56:24.64	340.01	10.43	
2025-01-14 03:56:24.84	339.97	10.43	
2025-01-14 03:56:25.05	339.93	10.43	
2025-01-14 03:56:25.25	339.90	10.43	
2025-01-14 03:56:25.46	339.86	10.43	
2025-01-14 03:56:25.67	339.82	10.43	
2025-01-14 03:56:25.87	339.78	10.43	
2025-01-14 03:56:26.08	339.74	10.43	
2025-01-14 03:56:26.28	339.71	10.43	
2025-01-14 03:56:26.49	339.67	10.43	
2025-01-14 03:56:26.69	339.63	10.43	
2025-01-14 03:56:26.90	339.60	10.44	
2025-01-14 03:56:27.10	339.56	10.44	
2025-01-14 03:56:27.32	339.52	10.44	
2025-01-14 03:56:27.52	339.48	10.44	
2025-01-14 03:56:27.73	339.45	10.44	
2025-01-14 03:56:27.94	339.41	10.44	
2025-01-14 03:56:28.14	339.37	10.44	
2025-01-14 03:56:28.34	339.34	10.44	
2025-01-14 03:56:28.55	339.30	10.44	
2025-01-14 03:56:28.76	339.26	10.44	
2025-01-14 03:56:28.96	339.22	10.44	
2025-01-14 03:56:29.17	339.18	10.44	
2025-01-14 03:56:29.37	339.15	10.44	
2025-01-14 03:56:29.57	339.11	10.44	
2025-01-14 03:56:29.78	339.07	10.44	
2025-01-14 03:56:29.98	339.04	10.44	
2025-01-14 03:56:30.19	339.00	10.44	
2025-01-14 03:56:30.39	338.96	10.44	
2025-01-14 03:56:30.60	338.93	10.44	
2025-01-14 03:56:30.81	338.89	10.44	
2025-01-14 03:56:31.01	338.85	10.44	
2025-01-14 03:56:31.22	338.81	10.44	
2025-01-14 03:56:31.42	338.78	10.44	
2025-01-14 03:56:31.63	338.74	10.44	
2025-01-14 03:56:31.83	338.70	10.44	
2025-01-14 03:56:32.04	338.66	10.44	
2025-01-14 03:56:32.24	338.63	10.45	
2025-01-14 03:56:32.45	338.59	10.45	
2025-01-14 03:56:32.65	338.55	10.45	
2025-01-14 03:56:32.85	338.52	10.45	
2025-01-14 03:56:33.06	338.48	10.45	
2025-01-14 03:56:33.27	338.44	10.45	
2025-01-14 03:56:33.47	338.40	10.45	
2025-01-14 03:56:33.67	338.37	10.45	
2025-01-14 03:56:33.88	338.33	10.45	
2025-01-14 03:56:34.08	338.29	10.45	
2025-01-14 03:56:34.29	338.26	10.45	
2025-01-14 03:56:34.49	338.22	10.45	
2025-01-14 03:56:34.71	338.18	10.45	
2025-01-14 03:56:34.91	338.14	10.45	
2025-01-14 03:56:35.12	338.11	10.45	
2025-01-14 03:56:35.32	338.07	10.45	
2025-01-14 03:56:35.53	338.03	10.45	
2025-01-14 03:56:35.73	337.99	10.45	
2025-01-14 03:56:35.94	337.96	10.45	
2025-01-14 03:56:36.14	337.92	10.45	
2025-01-14 03:56:36.35	337.88	10.45	
2025-01-14 03:56:36.55	337.85	10.45	
2025-01-14 03:56:36.75	337.81	10.45	
2025-01-14 03:56:36.96	337.77	10.45	
2025-01-14 03:56:37.17	337.73	10.45	
2025-01-14 03:56:37.37	337.70	10.45	
2025-01-14 03:56:37.58	337.66	10.45	
2025-01-14 03:56:37.78	337.62	10.45	
2025-01-14 03:56:38.00	337.58	10.45	
2025-01-14 03:56:38.21	337.54	10.45	
2025-01-14 03:56:38.41	337.51	10.45	
2025-01-14 03:56:38.62	337.47	10.45	
2025-01-14 03:56:38.82	337.43	10.45	
2025-01-14 03:56:39.03	337.40	10.45	
2025-01-14 03:56:39.23	337.36	10.45	
2025-01-14 03:56:39.44	337.32	10.45	
2025-01-14 03:56:39.64	337.29	10.45	
2025-01-14 03:56:39.85	337.25	10.45	
2025-01-14 03:56:40.05	337.21	10.45	
2025-01-14 03:56:40.25	337.17	10.45	
2025-01-14 03:56:40.46	337.14	10.44	
2025-01-14 03:56:40.67	337.10	10.44	
2025-01-14 03:56:40.87	337.06	10.44	
2025-01-14 03:56:41.07	337.03	10.44	
2025-01-14 03:56:41.28	336.99	10.44	
2025-01-14 03:56:41.48	336.95	10.44	
2025-01-14 03:56:41.69	336.91	10.44	
2025-01-14 03:56:41.90	336.88	10.44	
2025-01-14 03:56:42.10	336.84	10.44	
2025-01-14 03:56:42.31	336.80	10.44	
2025-01-14 03:56:42.51	336.76	10.44	
2025-01-14 03:56:42.71	336.73	10.44	
2025-01-14 03:56:42.92	336.69	10.44	
2025-01-14 03:56:43.13	336.65	10.44	
2025-01-14 03:56:43.33	336.62	10.44	
2025-01-14 03:56:43.53	336.58	10.44	
2025-01-14 03:56:43.74	336.54	10.44	
2025-01-14 03:56:43.95	336.50	10.44	
2025-01-14 03:56:44.15	336.47	10.44	
2025-01-14 03:56:44.35	336.43	10.44	
2025-01-14 03:56:44.56	336.39	10.44	
2025-01-14 03:56:44.76	336.36	10.44	
2025-01-14 03:56:44.97	336.32	10.44	
2025-01-14 03:56:45.19	336.28	10.44	
2025-01-14 03:56:45.39	336.24	10.44	
2025-01-14 03:56:45.60	336.20	10.44	
2025-01-14 03:56:45.80	336.17	10.43	
2025-01-14 03:56:46.01	336.13	10.43	
2025-01-14 03:56:46.21	336.09	10.43	
2025-01-14 03:56:46.42	336.06	10.43	
2025-01-14 03:56:46.62	336.02	10.43	
2025-01-14 03:56:46.82	335.98	10.43	
2025-01-14 03:56:47.03	335.95	10.43	
2025-01-14 03:56:47.24	335.91	10.43	
2025-01-14 03:56:47.44	335.87	10.43	
2025-01-14 03:56:47.65	335.83	10.43	
2025-01-14 03:56:47.85	335.80	10.43	
2025-01-14 03:56:48.06	335.76	10.43	
2025-01-14 03:56:48.26	335.72	10.43	
2025-01-14 03:56:48.47	335.68	10.43	
2025-01-14 03:56:48.67	335.65	10.43	
2025-01-14 03:56:48.88	335.61	10.43	
2025-01-14 03:56:49.08	335.57	10.42	
2025-01-14 03:56:49.28	335.54	10.42	
2025-01-14 03:56:49.49	335.50	10.42	
2025-01-14 03:56:49.69	335.46	10.42	
2025-01-14 03:56:49.90	335.43	10.42	
2025-01-14 03:56:50.11	335.39	10.42	
2025-01-14 03:56:50.31	335.35	10.42	
2025-01-14 03:56:50.52	335.31	10.42	
2025-01-14 03:56:50.72	335.28	10.42	
2025-01-14 03:56:50.92	335.24	10.42	
2025-01-14 03:56:51.13	335.20	10.42	
2025-01-14 03:56:51.33	335.17	10.42	
2025-01-14 03:56:51.54	335.13	10.42	
2025-01-14 03:56:51.74	335.09	10.41	
2025-01-14 03:56:51.95	335.05	10.41	
2025-01-14 03:56:52.16	335.02	10.41	
2025-01-14 03:56:52.36	334.98	10.41	
2025-01-14 03:56:52.57	334.94	10.41	
2025-01-14 03:56:52.77	334.91	10.41	
2025-01-14 03:56:52.98	334.87	10.41	
2025-01-14 03:56:53.18	334.83	10.41	
2025-01-14 03:56:53.39	334.79	10.41	
2025-01-14 03:56:53.59	334.76	10.41	
2025-01-14 03:56:53.80	334.72	10.41	
2025-01-14 03:56:54.00	334.68	10.40	
2025-01-14 03:56:54.20	334.65	10.40	
2025-01-14 03:56:54.41	334.61	10.40	
2025-01-14 03:56:54.62	334.57	10.40	
2025-01-14 03:56:54.82	334.53	10.40	
2025-01-14 03:56:55.03	334.50	10.40	
2025-01-14 03:56:55.23	334.46	10.40	
2025-01-14 03:56:55.44	334.42	10.40	
2025-01-14 03:56:55.64	334.39	10.40	
2025-01-14 03:56:55.85	334.35	10.39	
2025-01-14 03:56:56.05	334.31	10.39	
2025-01-14 03:56:56.26	334.27	10.39	
2025-01-14 03:56:56.47	334.24	10.39	
2025-01-14 03:56:56.67	334.20	10.39	
2025-01-14 03:56:56.88	334.16	10.39	
2025-01-14 03:56:57.09	334.12	10.39	
2025-01-14 03:56:57.30	334.09	10.39	
2025-01-14 03:56:57.51	334.05	10.39	
2025-01-14 03:56:57.71	334.01	10.38	
2025-01-14 03:56:57.92	333.97	10.38	
2025-01-14 03:56:58.12	333.94	10.38	
2025-01-14 03:56:58.32	333.90	10.38	
2025-01-14 03:56:58.53	333.86	10.38	
2025-01-14 03:56:58.74	333.83	10.38	
2025-01-14 03:56:58.94	333.79	10.38	
2025-01-14 03:56:59.15	333.75	10.38	
2025-01-14 03:56:59.35	333.72	10.37	
2025-01-14 03:56:59.55	333.68	10.37	
2025-01-14 03:56:59.76	333.64	10.37	
2025-01-14 03:56:59.97	333.60	10.37	
2025-01-14 03:57:00.17	333.57	10.37	
2025-01-14 03:57:00.37	333.53	10.37	
2025-01-14 03:57:00.58	333.49	10.37	
2025-01-14 03:57:00.78	333.46	10.36	
2025-01-14 03:57:00.99	333.42	10.36	
2025-01-14 03:57:01.19	333.38	10.36	
2025-01-14 03:57:01.40	333.35	10.36	
2025-01-14 03:57:01.60	333.31	10.36	
2025-01-14 03:57:01.81	333.27	10.36	
2025-01-14 03:57:02.02	333.23	10.36	
2025-01-14 03:57:02.22	333.20	10.35	
2025-01-14 03:57:02.42	333.16	10.35	
2025-01-14 03:57:02.63	333.12	10.35	
2025-01-14 03:57:02.84	333.09	10.35	
2025-01-14 03:57:03.04	333.05	10.35	
2025-01-14 03:57:03.25	333.01	10.35	
2025-01-14 03:57:03.45	332.98	10.35	
2025-01-14 03:57:03.65	332.94	10.34	
2025-01-14 03:57:03.86	332.90	10.34	
2025-01-14 03:57:04.06	332.87	10.34	
2025-01-14 03:57:04.27	332.83	10.34	
2025-01-14 03:57:04.47	332.79	10.34	
2025-01-14 03:57:04.68	332.75	10.34	
2025-01-14 03:57:04.88	332.72	10.33	
2025-01-14 03:57:05.09	332.68	10.33	
2025-01-14 03:57:05.30	332.64	10.33	
2025-01-14 03:57:05.50	332.61	10.33	
2025-01-14 03:57:05.71	332.57	10.33	
2025-01-14 03:57:05.91	332.53	10.33	
2025-01-14 03:57:06.12	332.50	10.33	
2025-01-14 03:57:06.32	332.46	10.32	
2025-01-14 03:57:06.53	332.42	10.32	
2025-01-14 03:57:06.73	332.39	10.32	
2025-01-14 03:57:06.94	332.35	10.32	
2025-01-14 03:57:07.14	332.31	10.32	
2025-01-14 03:57:07.35	332.27	10.31	
2025-01-14 03:57:07.55	332.24	10.31	
2025-01-14 03:57:07.77	332.20	10.31	
2025-01-14 03:57:07.97	332.16	10.31	
2025-01-14 03:57:08.18	332.13	10.31	
2025-01-14 03:57:08.39	332.09	10.31	
2025-01-14 03:57:08.59	332.05	10.30	
2025-01-14 03:57:08.80	332.01	10.30	
2025-01-14 03:57:09.00	331.98	10.30	
2025-01-14 03:57:09.20	331.94	10.30	
2025-01-14 03:57:09.41	331.90	10.30	
2025-01-14 03:57:09.62	331.87	10.29	
2025-01-14 03:57:09.82	331.83	10.29	
2025-01-14 03:57:10.03	331.79	10.29	
2025-01-14 03:57:10.23	331.76	10.29	
2025-01-14 03:57:10.44	331.72	10.29	
2025-01-14 03:57:10.64	331.68	10.29	
2025-01-14 03:57:10.85	331.65	10.28	
2025-01-14 03:57:11.06	331.61	10.28	
2025-01-14 03:57:11.27	331.57	10.28	
2025-01-14 03:57:11.48	331.53	10.28	
2025-01-14 03:57:11.68	331.50	10.28	
2025-01-14 03:57:11.89	331.46	10.27	
2025-01-14 03:57:12.09	331.42	10.27	
2025-01-14 03:57:12.30	331.39	10.27	
2025-01-14 03:57:12.50	331.35	10.27	
2025-01-14 03:57:12.71	331.31	10.27	
2025-01-14 03:57:12.91	331.28	10.26	
2025-01-14 03:57:13.13	331.24	10.26	
2025-01-14 03:57:13.33	331.20	10.26	
2025-01-14 03:57:13.54	331.16	10.26	
2025-01-14 03:57:13.75	331.13	10.25	
2025-01-14 03:57:13.95	331.09	10.25	
2025-01-14 03:57:14.15	331.05	10.25	
2025-01-14 03:57:14.36	331.02	10.25	
2025-01-14 03:57:14.57	330.98	10.25	
2025-01-14 03:57:14.77	330.94	10.24	
2025-01-14 03:57:14.98	330.91	10.24	
2025-01-14 03:57:15.18	330.87	10.24	
2025-01-14 03:57:15.39	330.83	10.24	
2025-01-14 03:57:15.59	330.80	10.24	
2025-01-14 03:57:15.80	330.76	10.23	
2025-01-14 03:57:16.00	330.72	10.23	
2025-01-14 03:57:16.21	330.69	10.23	
2025-01-14 03:57:16.42	330.65	10.23	
2025-01-14 03:57:16.62	330.61	10.22	
2025-01-14 03:57:16.82	330.58	10.22	
2025-01-14 03:57:17.03	330.54	10.22	
2025-01-14 03:57:17.23	330.50	10.22	
2025-01-14 03:57:17.44	330.47	10.22	
2025-01-14 03:57:17.64	330.43	10.21	
2025-01-14 03:57:17.85	330.39	10.21	
2025-01-14 03:57:18.05	330.36	10.21	
2025-01-14 03:57:18.26	330.32	10.21	
2025-01-14 03:57:18.46	330.28	10.20	
2025-01-14 03:57:18.67	330.25	10.20	
2025-01-14 03:57:18.87	330.21	10.20	
2025-01-14 03:57:19.08	330.17	10.20	
2025-01-14 03:57:19.29	330.14	10.19	
2025-01-14 03:57:19.49	330.10	10.19	
2025-01-14 03:57:19.69	330.06	10.19	
2025-01-14 03:57:19.90	330.03	10.19	
2025-01-14 03:57:20.10	329.99	10.18	
2025-01-14 03:57:20.31	329.95	10.18	
2025-01-14 03:57:20.51	329.92	10.18	
2025-01-14 03:57:20.72	329.88	10.18	
2025-01-14 03:57:20.92	329.85	10.17	
2025-01-14 03:57:21.13	329.81	10.17	
2025-01-14 03:57:21.33	329.77	10.17	
2025-01-14 03:57:21.54	329.74	10.17	
2025-01-14 03:57:21.74	329.70	10.16	
2025-01-14 03:57:21.95	329.66	10.16	
2025-01-14 03:57:22.15	329.63	10.16	
2025-01-14 03:57:22.36	329.59	10.16	
2025-01-14 03:57:22.56	329.55	10.15	
2025-01-14 03:57:22.77	329.52	10.15	
2025-01-14 03:57:22.97	329.48	10.15	
2025-01-14 03:57:23.18	329.44	10.15	
2025-01-14 03:57:23.38	329.41	10.14	
2025-01-14 03:57:23.59	329.37	10.14	
2025-01-14 03:57:23.79	329.33	10.14	
2025-01-14 03:57:24.00	329.30	10.14	
2025-01-14 03:57:24.20	329.26	10.13	
2025-01-14 03:57:24.41	329.22	10.13	
2025-01-14 03:57:24.62	329.19	10.13	
2025-01-14 03:57:24.82	329.15	10.13	
2025-01-14 03:57:25.02	329.12	10.12	
2025-01-14 03:57:25.23	329.08	10.12	
2025-01-14 03:57:25.44	329.04	10.12	
2025-01-14 03:57:25.64	329.01	10.11	
2025-01-14 03:57:25.85	328.97	10.11	
2025-01-14 03:57:26.05	328.93	10.11	
2025-01-14 03:57:26.26	328.90	10.11	
2025-01-14 03:57:26.46	328.86	10.10	
2025-01-14 03:57:26.67	328.82	10.10	
2025-01-14 03:57:26.87	328.79	10.10	
2025-01-14 03:57:27.09	328.75	10.10	
2025-01-14 03:57:27.29	328.71	10.09	
2025-01-14 03:57:27.50	328.68	10.09	
2025-01-14 03:57:27.71	328.64	10.09	
2025-01-14 03:57:27.91	328.60	10.08	
2025-01-14 03:57:28.13	328.57	10.08	
2025-01-14 03:57:28.33	328.53	10.08	
2025-01-14 03:57:28.54	328.49	10.08	
2025-01-14 03:57:28.74	328.46	10.07	
2025-01-14 03:57:28.95	328.42	10.07	
2025-01-14 03:57:29.15	328.39	10.07	
2025-01-14 03:57:29.36	328.35	10.06	
2025-01-14 03:57:29.56	328.31	10.06	
2025-01-14 03:57:29.77	328.28	10.06	
2025-01-14 03:57:29.97	328.24	10.05	
2025-01-14 03:57:30.17	328.20	10.05	
2025-01-14 03:57:30.38	328.17	10.05	
2025-01-14 03:57:30.58	328.13	10.05	
2025-01-14 03:57:30.79	328.10	10.04	
2025-01-14 03:57:31.00	328.06	10.04	
2025-01-14 03:57:31.20	328.02	10.04	
2025-01-14 03:57:31.42	327.98	10.03	
2025-01-14 03:57:31.62	327.95	10.03	
2025-01-14 03:57:31.83	327.91	10.03	
2025-01-14 03:57:32.04	327.87	10.02	
2025-01-14 03:57:32.24	327.84	10.02	
2025-01-14 03:57:32.44	327.80	10.02	
2025-01-14 03:57:32.65	327.77	10.02	
2025-01-14 03:57:32.86	327.73	10.01	
2025-01-14 03:57:33.06	327.70	10.01	
2025-01-14 03:57:33.27	327.66	10.01	
2025-01-14 03:57:33.48	327.62	10.00	
2025-01-14 03:57:33.69	327.58	10.00	
2025-01-14 03:57:33.89	327.55	10.00	
2025-01-14 03:57:34.10	327.51	9.99	
2025-01-14 03:57:34.31	327.48	9.99	
2025-01-14 03:57:34.51	327.44	9.99	
2025-01-14 03:57:34.72	327.40	9.98	
2025-01-14 03:57:34.92	327.37	9.98	
2025-01-14 03:57:35.13	327.33	9.98	
2025-01-14 03:57:35.33	327.30	9.97	
2025-01-14 03:57:35.53	327.26	9.97	
2025-01-14 03:57:35.74	327.22	9.97	
2025-01-14 03:57:35.94	327.19	9.96	
2025-01-14 03:57:36.15	327.15	9.96	
2025-01-14 03:57:36.35	327.12	9.96	
2025-01-14 03:57:36.56	327.08	9.95	
2025-01-14 03:57:36.76	327.05	9.95	
2025-01-14 03:57:36.97	327.01	9.95	
2025-01-14 03:57:37.17	326.97	9.94	
2025-01-14 03:57:37.38	326.94	9.94	
2025-01-14 03:57:37.58	326.90	9.94	
2025-01-14 03:57:37.79	326.86	9.93	
2025-01-14 03:57:38.00	326.83	9.93	
2025-01-14 03:57:38.20	326.79	9.93	
2025-01-14 03:57:38.41	326.76	9.92	
2025-01-14 03:57:38.61	326.72	9.92	
2025-01-14 03:57:38.81	326.69	9.92	
2025-01-14 03:57:39.02	326.65	9.91	
2025-01-14 03:57:39.23	326.61	9.91	
2025-01-14 03:57:39.43	326.58	9.91	
2025-01-14 03:57:39.64	326.54	9.90	
2025-01-14 03:57:39.85	326.50	9.90	
2025-01-14 03:57:40.06	326.47	9.90	
2025-01-14 03:57:40.27	326.43	9.89	
2025-01-14 03:57:40.47	326.40	9.89	
2025-01-14 03:57:40.67	326.36	9.89	
2025-01-14 03:57:40.88	326.32	9.88	
2025-01-14 03:57:41.08	326.29	9.88	
2025-01-14 03:57:41.29	326.25	9.88	
2025-01-14 03:57:41.49	326.22	9.87	
2025-01-14 03:57:41.70	326.18	9.87	
2025-01-14 03:57:41.90	326.15	9.87	
2025-01-14 03:57:42.11	326.11	9.86	
2025-01-14 03:57:42.31	326.07	9.86	
2025-01-14 03:57:42.52	326.04	9.85	
2025-01-14 03:57:42.72	326.00	9.85	
2025-01-14 03:57:42.93	325.97	9.85	
2025-01-14 03:57:43.13	325.93	9.84	
2025-01-14 03:57:43.34	325.90	9.84	
2025-01-14 03:57:43.54	325.86	9.84	
2025-01-14 03:57:43.75	325.82	9.83	
2025-01-14 03:57:43.95	325.79	9.83	
2025-01-14 03:57:44.17	325.75	9.83	
2025-01-14 03:57:44.38	325.71	9.82	
2025-01-14 03:57:44.58	325.68	9.82	
2025-01-14 03:57:44.79	325.64	9.81	
2025-01-14 03:57:45.00	325.61	9.81	
2025-01-14 03:57:45.20	325.57	9.81	
2025-01-14 03:57:45.41	325.54	9.80	
2025-01-14 03:57:45.61	325.50	9.80	
2025-01-14 03:57:45.82	325.46	9.80	
2025-01-14 03:57:46.02	325.43	9.79	
2025-01-14 03:57:46.23	325.39	9.79	
2025-01-14 03:57:46.43	325.36	9.78	
2025-01-14 03:57:46.64	325.32	9.78	
2025-01-14 03:57:46.84	325.29	9.78	
2025-01-14 03:57:47.05	325.25	9.77	
2025-01-14 03:57:47.25	325.22	9.77	
2025-01-14 03:57:47.46	325.18	9.76	
2025-01-14 03:57:47.66	325.15	9.76	
2025-01-14 03:57:47.87	325.11	9.76	
2025-01-14 03:57:48.08	325.07	9.75	
2025-01-14 03:57:48.28	325.04	9.75	
2025-01-14 03:57:48.48	325.00	9.75	
2025-01-14 03:57:48.69	324.97	9.74	
2025-01-14 03:57:48.89	324.93	9.74	
2025-01-14 03:57:49.10	324.90	9.73	
2025-01-14 03:57:49.30	324.86	9.73	
2025-01-14 03:57:49.51	324.83	9.73	
2025-01-14 03:57:49.71	324.79	9.72	
2025-01-14 03:57:49.92	324.76	9.72	
2025-01-14 03:57:50.12	324.72	9.71	
2025-01-14 03:57:50.33	324.68	9.71	
2025-01-14 03:57:50.53	324.65	9.71	
2025-01-14 03:57:50.74	324.61	9.70	
2025-01-14 03:57:50.94	324.58	9.70	
2025-01-14 03:57:51.15	324.54	9.69	
2025-01-14 03:57:51.35	324.51	9.69	
2025-01-14 03:57:51.56	324.47	9.69	
2025-01-14 03:57:51.76	324.44	9.68	
2025-01-14 03:57:51.97	324.40	9.68	
2025-01-14 03:57:52.17	324.37	9.67	
2025-01-14 03:57:52.38	324.33	9.67	
2025-01-14 03:57:52.58	324.30	9.67	
2025-01-14 03:57:52.79	324.26	9.66	
2025-01-14 03:57:52.99	324.23	9.66	
2025-01-14 03:57:53.20	324.19	9.65	
2025-01-14 03:57:53.40	324.16	9.65	
2025-01-14 03:57:53.61	324.12	9.65	
2025-01-14 03:57:53.81	324.09	9.64	
2025-01-14 03:57:54.02	324.05	9.64	
2025-01-14 03:57:54.23	324.01	9.63	
2025-01-14 03:57:54.43	323.98	9.63	
2025-01-14 03:57:54.64	323.94	9.62	
2025-01-14 03:57:54.84	323.91	9.62	
2025-01-14 03:57:55.05	323.87	9.62	
2025-01-14 03:57:55.25	323.84	9.61	
2025-01-14 03:57:55.46	323.80	9.61	
2025-01-14 03:57:55.66	323.77	9.60	
2025-01-14 03:57:55.87	323.73	9.60	
2025-01-14 03:57:56.07	323.70	9.60	
2025-01-14 03:57:56.28	323.66	9.59	
2025-01-14 03:57:56.48	323.63	9.59	
2025-01-14 03:57:56.69	323.59	9.58	
2025-01-14 03:57:56.89	323.56	9.58	
2025-01-14 03:57:57.10	323.52	9.57	
2025-01-14 03:57:57.30	323.49	9.57	
2025-01-14 03:57:57.51	323.45	9.57	
2025-01-14 03:57:57.72	323.42	9.56	
2025-01-14 03:57:57.92	323.38	9.56	
2025-01-14 03:57:58.12	323.35	9.55	
2025-01-14 03:57:58.33	323.31	9.55	
2025-01-14 03:57:58.54	323.28	9.54	
2025-01-14 03:57:58.74	323.24	9.54	
2025-01-14 03:57:58.95	323.21	9.53	
2025-01-14 03:57:59.15	323.17	9.53	
2025-01-14 03:57:59.36	323.14	9.53	
2025-01-14 03:57:59.56	323.10	9.52	
2025-01-14 03:57:59.77	323.07	9.52	
2025-01-14 03:57:59.97	323.03	9.51	
2025-01-14 03:58:00.18	323.00	9.51	
2025-01-14 03:58:00.38	322.96	9.50	
2025-01-14 03:58:00.59	322.93	9.50	
2025-01-14 03:58:00.79	322.89	9.50	
2025-01-14 03:58:01.00	322.86	9.49	
2025-01-14 03:58:01.20	322.82	9.49	
2025-01-14 03:58:01.41	322.79	9.48	
2025-01-14 03:58:01.62	322.75	9.48	
2025-01-14 03:58:01.82	322.72	9.47	
2025-01-14 03:58:02.03	322.68	9.47	
2025-01-14 03:58:02.24	322.65	9.46	
2025-01-14 03:58:02.45	322.61	9.46	
2025-01-14 03:58:02.66	322.58	9.45	
2025-01-14 03:58:02.86	322.54	9.45	
2025-01-14 03:58:03.07	322.51	9.44	
2025-01-14 03:58:03.29	322.47	9.44	
2025-01-14 03:58:03.49	322.44	9.44	
2025-01-14 03:58:03.70	322.40	9.43	
2025-01-14 03:58:03.90	322.37	9.43	
2025-01-14 03:58:04.11	322.33	9.42	
2025-01-14 03:58:04.31	322.30	9.42	
2025-01-14 03:58:04.52	322.26	9.41	
2025-01-14 03:58:04.73	322.23	9.41	
2025-01-14 03:58:04.93	322.19	9.40	
2025-01-14 03:58:05.14	322.16	9.40	
2025-01-14 03:58:05.34	322.12	9.39	
2025-01-14 03:58:05.55	322.09	9.39	
2025-01-14 03:58:05.75	322.05	9.38	
2025-01-14 03:58:05.96	322.02	9.38	
2025-01-14 03:58:06.16	321.98	9.38	
2025-01-14 03:58:06.37	321.95	9.37	
2025-01-14 03:58:06.57	321.92	9.37	
2025-01-14 03:58:06.77	321.88	9.36	
2025-01-14 03:58:06.98	321.85	9.36	
2025-01-14 03:58:07.18	321.81	9.35	
2025-01-14 03:58:07.39	321.78	9.35	
2025-01-14 03:58:07.59	321.74	9.34	
2025-01-14 03:58:07.80	321.71	9.34	
2025-01-14 03:58:08.00	321.68	9.33	
2025-01-14 03:58:08.21	321.64	9.33	
2025-01-14 03:58:08.41	321.61	9.32	
2025-01-14 03:58:08.62	321.57	9.32	
2025-01-14 03:58:08.82	321.54	9.31	
2025-01-14 03:58:09.03	321.50	9.31	
2025-01-14 03:58:09.23	321.47	9.30	
2025-01-14 03:58:09.44	321.43	9.30	
2025-01-14 03:58:09.64	321.40	9.29	
2025-01-14 03:58:09.85	321.36	9.29	
2025-01-14 03:58:10.06	321.33	9.28	
2025-01-14 03:58:10.26	321.30	9.28	
2025-01-14 03:58:10.47	321.26	9.27	
2025-01-14 03:58:10.67	321.23	9.27	
2025-01-14 03:58:10.88	321.19	9.26	
2025-01-14 03:58:11.08	321.16	9.26	
2025-01-14 03:58:11.29	321.12	9.25	
2025-01-14 03:58:11.49	321.09	9.25	
2025-01-14 03:58:11.70	321.06	9.24	
2025-01-14 03:58:11.90	321.02	9.24	
2025-01-14 03:58:12.11	320.99	9.23	
2025-01-14 03:58:12.31	320.95	9.23	
2025-01-14 03:58:12.52	320.92	9.23	
2025-01-14 03:58:12.72	320.89	9.22	
2025-01-14 03:58:12.93	320.85	9.22	
2025-01-14 03:58:13.13	320.82	9.21	
2025-01-14 03:58:13.34	320.78	9.21	
2025-01-14 03:58:13.54	320.75	9.20	
2025-01-14 03:58:13.75	320.71	9.20	
