passes_logs/2025/01/14/SPB_Silybum_02/SPB_Silybum_02__20250114_025522_AQUA_rec.log

#Pass ID: 20250114_025522_AQUA
#Satellite: AQUA
#Configuration: AQUA
#Start time: 2025-01-14 02:55:21

#Version: 2.0.20230423
#Station: SPB_Silybum_02
#Location: 30.233357 lon 59.946436 lat
#TLE: 1 27424U 02022A   25013.15568498  .00001660  00000+0  35066-3 0  9997
#TLE: 2 27424  98.3585 329.8030 0001646 113.3422 303.6913 14.60674931207350

#Time	Az	El	Level	Level2	SNR	BER	Gain	Gain2
2025-01-14 02:55:23.29	10.82	4.03	
2025-01-14 02:55:23.50	10.81	4.04	
2025-01-14 02:55:23.70	10.79	4.06	
2025-01-14 02:55:23.91	10.78	4.07	
2025-01-14 02:55:24.11	10.76	4.08	
2025-01-14 02:55:24.32	10.75	4.09	
2025-01-14 02:55:24.52	10.73	4.11	
2025-01-14 02:55:24.73	10.71	4.12	
2025-01-14 02:55:24.93	10.70	4.13	
2025-01-14 02:55:25.14	10.68	4.15	
2025-01-14 02:55:25.35	10.67	4.16	
2025-01-14 02:55:25.55	10.65	4.17	
2025-01-14 02:55:25.75	10.63	4.19	
2025-01-14 02:55:25.96	10.62	4.20	
2025-01-14 02:55:26.17	10.60	4.21	
2025-01-14 02:55:26.37	10.59	4.22	
2025-01-14 02:55:26.57	10.57	4.24	
2025-01-14 02:55:26.78	10.55	4.25	
2025-01-14 02:55:26.98	10.54	4.26	
2025-01-14 02:55:27.19	10.52	4.28	
2025-01-14 02:55:27.39	10.51	4.29	
2025-01-14 02:55:27.60	10.49	4.30	
2025-01-14 02:55:27.80	10.47	4.32	
2025-01-14 02:55:28.01	10.46	4.33	
2025-01-14 02:55:28.21	10.44	4.34	
2025-01-14 02:55:28.42	10.43	4.36	
2025-01-14 02:55:28.62	10.41	4.37	
2025-01-14 02:55:28.83	10.39	4.38	
2025-01-14 02:55:29.03	10.38	4.39	
2025-01-14 02:55:29.24	10.36	4.41	
2025-01-14 02:55:29.44	10.35	4.42	
2025-01-14 02:55:29.65	10.33	4.43	
2025-01-14 02:55:29.85	10.31	4.45	
2025-01-14 02:55:30.06	10.30	4.46	
2025-01-14 02:55:30.26	10.28	4.47	
2025-01-14 02:55:30.47	10.26	4.49	
2025-01-14 02:55:30.67	10.25	4.50	
2025-01-14 02:55:30.88	10.23	4.51	
2025-01-14 02:55:31.08	10.21	4.53	
2025-01-14 02:55:31.29	10.20	4.54	
2025-01-14 02:55:31.49	10.18	4.55	
2025-01-14 02:55:31.70	10.17	4.56	
2025-01-14 02:55:31.90	10.15	4.58	
2025-01-14 02:55:32.11	10.13	4.59	
2025-01-14 02:55:32.31	10.12	4.60	
2025-01-14 02:55:32.52	10.10	4.62	
2025-01-14 02:55:32.72	10.08	4.63	
2025-01-14 02:55:32.93	10.07	4.64	
2025-01-14 02:55:33.13	10.05	4.66	
2025-01-14 02:55:33.34	10.03	4.67	
2025-01-14 02:55:33.54	10.02	4.68	
2025-01-14 02:55:33.75	10.00	4.70	
2025-01-14 02:55:33.95	9.98	4.71	
2025-01-14 02:55:34.15	9.97	4.72	
2025-01-14 02:55:34.36	9.95	4.74	
2025-01-14 02:55:34.57	9.93	4.75	
2025-01-14 02:55:34.77	9.92	4.76	
2025-01-14 02:55:34.98	9.90	4.78	
2025-01-14 02:55:35.18	9.88	4.79	
2025-01-14 02:55:35.39	9.87	4.80	
2025-01-14 02:55:35.59	9.85	4.82	
2025-01-14 02:55:35.80	9.83	4.83	
2025-01-14 02:55:36.01	9.82	4.84	
2025-01-14 02:55:36.21	9.80	4.86	
2025-01-14 02:55:36.42	9.78	4.87	
2025-01-14 02:55:36.62	9.77	4.88	
2025-01-14 02:55:36.83	9.75	4.90	
2025-01-14 02:55:37.03	9.73	4.91	
2025-01-14 02:55:37.24	9.72	4.92	
2025-01-14 02:55:37.44	9.70	4.94	
2025-01-14 02:55:37.65	9.68	4.95	
2025-01-14 02:55:37.85	9.67	4.96	
2025-01-14 02:55:38.06	9.65	4.98	
2025-01-14 02:55:38.27	9.63	4.99	
2025-01-14 02:55:38.47	9.61	5.00	
2025-01-14 02:55:38.68	9.60	5.02	
2025-01-14 02:55:38.88	9.58	5.03	
2025-01-14 02:55:39.09	9.56	5.04	
2025-01-14 02:55:39.29	9.55	5.06	
2025-01-14 02:55:39.50	9.53	5.07	
2025-01-14 02:55:39.70	9.51	5.08	
2025-01-14 02:55:39.91	9.49	5.10	
2025-01-14 02:55:40.11	9.48	5.11	
2025-01-14 02:55:40.32	9.46	5.12	
2025-01-14 02:55:40.52	9.44	5.14	
2025-01-14 02:55:40.74	9.42	5.15	
2025-01-14 02:55:40.95	9.41	5.16	
2025-01-14 02:55:41.15	9.39	5.18	
2025-01-14 02:55:41.36	9.37	5.19	
2025-01-14 02:55:41.56	9.36	5.20	
2025-01-14 02:55:41.77	9.34	5.22	
2025-01-14 02:55:41.97	9.32	5.23	
2025-01-14 02:55:42.18	9.30	5.24	
2025-01-14 02:55:42.38	9.29	5.26	
2025-01-14 02:55:42.59	9.27	5.27	
2025-01-14 02:55:42.79	9.25	5.28	
2025-01-14 02:55:43.00	9.23	5.30	
2025-01-14 02:55:43.20	9.22	5.31	
2025-01-14 02:55:43.41	9.20	5.32	
2025-01-14 02:55:43.61	9.18	5.34	
2025-01-14 02:55:43.82	9.16	5.35	
2025-01-14 02:55:44.02	9.15	5.36	
2025-01-14 02:55:44.23	9.13	5.38	
2025-01-14 02:55:44.44	9.11	5.39	
2025-01-14 02:55:44.64	9.09	5.41	
2025-01-14 02:55:44.85	9.08	5.42	
2025-01-14 02:55:45.05	9.06	5.43	
2025-01-14 02:55:45.26	9.04	5.45	
2025-01-14 02:55:45.46	9.02	5.46	
2025-01-14 02:55:45.67	9.01	5.47	
2025-01-14 02:55:45.87	8.99	5.49	
2025-01-14 02:55:46.08	8.97	5.50	
2025-01-14 02:55:46.28	8.95	5.51	
2025-01-14 02:55:46.49	8.94	5.53	
2025-01-14 02:55:46.69	8.92	5.54	
2025-01-14 02:55:46.90	8.90	5.55	
2025-01-14 02:55:47.10	8.88	5.57	
2025-01-14 02:55:47.31	8.86	5.58	
2025-01-14 02:55:47.51	8.85	5.59	
2025-01-14 02:55:47.72	8.83	5.61	
2025-01-14 02:55:47.93	8.81	5.62	
2025-01-14 02:55:48.13	8.79	5.64	
2025-01-14 02:55:48.33	8.78	5.65	
2025-01-14 02:55:48.54	8.76	5.66	
2025-01-14 02:55:48.74	8.74	5.68	
2025-01-14 02:55:48.95	8.72	5.69	
2025-01-14 02:55:49.15	8.70	5.70	
2025-01-14 02:55:49.36	8.69	5.72	
2025-01-14 02:55:49.57	8.67	5.73	
2025-01-14 02:55:49.77	8.65	5.74	
2025-01-14 02:55:49.98	8.63	5.76	
2025-01-14 02:55:50.18	8.61	5.77	
2025-01-14 02:55:50.39	8.60	5.79	
2025-01-14 02:55:50.59	8.58	5.80	
2025-01-14 02:55:50.80	8.56	5.81	
2025-01-14 02:55:51.00	8.54	5.83	
2025-01-14 02:55:51.21	8.52	5.84	
2025-01-14 02:55:51.41	8.51	5.85	
2025-01-14 02:55:51.62	8.49	5.87	
2025-01-14 02:55:51.82	8.47	5.88	
2025-01-14 02:55:52.03	8.45	5.89	
2025-01-14 02:55:52.24	8.43	5.91	
2025-01-14 02:55:52.44	8.41	5.92	
2025-01-14 02:55:52.64	8.40	5.94	
2025-01-14 02:55:52.85	8.38	5.95	
2025-01-14 02:55:53.05	8.36	5.96	
2025-01-14 02:55:53.26	8.34	5.98	
2025-01-14 02:55:53.46	8.32	5.99	
2025-01-14 02:55:53.67	8.30	6.00	
2025-01-14 02:55:53.87	8.29	6.02	
2025-01-14 02:55:54.08	8.27	6.03	
2025-01-14 02:55:54.28	8.25	6.04	
2025-01-14 02:55:54.49	8.23	6.06	
2025-01-14 02:55:54.69	8.21	6.07	
2025-01-14 02:55:54.90	8.19	6.09	
2025-01-14 02:55:55.10	8.18	6.10	
2025-01-14 02:55:55.31	8.16	6.11	
2025-01-14 02:55:55.53	8.14	6.13	
2025-01-14 02:55:55.73	8.12	6.14	
2025-01-14 02:55:55.94	8.10	6.16	
2025-01-14 02:55:56.14	8.08	6.17	
2025-01-14 02:55:56.35	8.06	6.18	
2025-01-14 02:55:56.55	8.04	6.20	
2025-01-14 02:55:56.77	8.02	6.21	
2025-01-14 02:55:56.97	8.01	6.23	
2025-01-14 02:55:57.18	7.99	6.24	
2025-01-14 02:55:57.38	7.97	6.25	
2025-01-14 02:55:57.60	7.95	6.27	
2025-01-14 02:55:57.80	7.93	6.28	
2025-01-14 02:55:58.01	7.91	6.30	
2025-01-14 02:55:58.21	7.89	6.31	
2025-01-14 02:55:58.42	7.87	6.32	
2025-01-14 02:55:58.62	7.86	6.34	
2025-01-14 02:55:58.84	7.84	6.35	
2025-01-14 02:55:59.05	7.82	6.37	
2025-01-14 02:55:59.25	7.80	6.38	
2025-01-14 02:55:59.46	7.78	6.39	
2025-01-14 02:55:59.66	7.76	6.41	
2025-01-14 02:55:59.86	7.74	6.42	
2025-01-14 02:56:00.07	7.72	6.43	
2025-01-14 02:56:00.27	7.70	6.45	
2025-01-14 02:56:00.48	7.68	6.46	
2025-01-14 02:56:00.69	7.66	6.48	
2025-01-14 02:56:00.89	7.65	6.49	
2025-01-14 02:56:01.09	7.63	6.50	
2025-01-14 02:56:01.30	7.61	6.52	
2025-01-14 02:56:01.51	7.59	6.53	
2025-01-14 02:56:01.71	7.57	6.55	
2025-01-14 02:56:01.92	7.55	6.56	
2025-01-14 02:56:02.12	7.53	6.57	
2025-01-14 02:56:02.33	7.51	6.59	
2025-01-14 02:56:02.53	7.49	6.60	
2025-01-14 02:56:02.74	7.47	6.62	
2025-01-14 02:56:02.94	7.45	6.63	
2025-01-14 02:56:03.15	7.43	6.64	
2025-01-14 02:56:03.35	7.42	6.66	
2025-01-14 02:56:03.56	7.40	6.67	
2025-01-14 02:56:03.76	7.38	6.69	
2025-01-14 02:56:03.97	7.36	6.70	
2025-01-14 02:56:04.19	7.34	6.71	
2025-01-14 02:56:04.39	7.32	6.73	
2025-01-14 02:56:04.60	7.30	6.74	
2025-01-14 02:56:04.80	7.28	6.76	
2025-01-14 02:56:05.01	7.26	6.77	
2025-01-14 02:56:05.21	7.24	6.78	
2025-01-14 02:56:05.42	7.22	6.80	
2025-01-14 02:56:05.62	7.20	6.81	
2025-01-14 02:56:05.82	7.18	6.83	
2025-01-14 02:56:06.03	7.16	6.84	
2025-01-14 02:56:06.23	7.14	6.85	
2025-01-14 02:56:06.44	7.12	6.87	
2025-01-14 02:56:06.65	7.10	6.88	
2025-01-14 02:56:06.85	7.08	6.90	
2025-01-14 02:56:07.06	7.06	6.91	
2025-01-14 02:56:07.26	7.04	6.92	
2025-01-14 02:56:07.47	7.02	6.94	
2025-01-14 02:56:07.67	7.00	6.95	
2025-01-14 02:56:07.88	6.98	6.97	
2025-01-14 02:56:08.09	6.96	6.98	
2025-01-14 02:56:08.29	6.94	7.00	
2025-01-14 02:56:08.50	6.92	7.01	
2025-01-14 02:56:08.70	6.90	7.02	
2025-01-14 02:56:08.91	6.88	7.04	
2025-01-14 02:56:09.12	6.86	7.05	
2025-01-14 02:56:09.32	6.84	7.07	
2025-01-14 02:56:09.54	6.82	7.08	
2025-01-14 02:56:09.75	6.80	7.10	
2025-01-14 02:56:09.95	6.78	7.11	
2025-01-14 02:56:10.16	6.76	7.12	
2025-01-14 02:56:10.36	6.74	7.14	
2025-01-14 02:56:10.58	6.72	7.15	
2025-01-14 02:56:10.79	6.70	7.17	
2025-01-14 02:56:10.99	6.68	7.18	
2025-01-14 02:56:11.20	6.66	7.20	
2025-01-14 02:56:11.41	6.64	7.21	
2025-01-14 02:56:11.61	6.62	7.22	
2025-01-14 02:56:11.82	6.60	7.24	
2025-01-14 02:56:12.02	6.58	7.25	
2025-01-14 02:56:12.23	6.56	7.27	
2025-01-14 02:56:12.43	6.54	7.28	
2025-01-14 02:56:12.63	6.52	7.30	
2025-01-14 02:56:12.84	6.50	7.31	
2025-01-14 02:56:13.04	6.48	7.32	
2025-01-14 02:56:13.25	6.46	7.34	
2025-01-14 02:56:13.46	6.44	7.35	
2025-01-14 02:56:13.67	6.42	7.37	
2025-01-14 02:56:13.88	6.39	7.38	
2025-01-14 02:56:14.09	6.37	7.40	
2025-01-14 02:56:14.29	6.35	7.41	
2025-01-14 02:56:14.50	6.33	7.43	
2025-01-14 02:56:14.70	6.31	7.44	
2025-01-14 02:56:14.91	6.29	7.45	
2025-01-14 02:56:15.11	6.27	7.47	
2025-01-14 02:56:15.32	6.25	7.48	
2025-01-14 02:56:15.52	6.23	7.50	
2025-01-14 02:56:15.73	6.21	7.51	
2025-01-14 02:56:15.94	6.19	7.53	
2025-01-14 02:56:16.14	6.17	7.54	
2025-01-14 02:56:16.35	6.15	7.55	
2025-01-14 02:56:16.55	6.13	7.57	
2025-01-14 02:56:16.76	6.11	7.58	
2025-01-14 02:56:16.96	6.08	7.60	
2025-01-14 02:56:17.17	6.06	7.61	
2025-01-14 02:56:17.38	6.04	7.63	
2025-01-14 02:56:17.58	6.02	7.64	
2025-01-14 02:56:17.79	6.00	7.65	
2025-01-14 02:56:17.99	5.98	7.67	
2025-01-14 02:56:18.20	5.96	7.68	
2025-01-14 02:56:18.40	5.94	7.70	
2025-01-14 02:56:18.61	5.92	7.71	
2025-01-14 02:56:18.81	5.90	7.73	
2025-01-14 02:56:19.01	5.88	7.74	
2025-01-14 02:56:19.22	5.85	7.76	
2025-01-14 02:56:19.42	5.83	7.77	
2025-01-14 02:56:19.63	5.81	7.78	
2025-01-14 02:56:19.83	5.79	7.80	
2025-01-14 02:56:20.04	5.77	7.81	
2025-01-14 02:56:20.24	5.75	7.83	
2025-01-14 02:56:20.45	5.73	7.84	
2025-01-14 02:56:20.65	5.71	7.86	
2025-01-14 02:56:20.86	5.69	7.87	
2025-01-14 02:56:21.06	5.66	7.88	
2025-01-14 02:56:21.27	5.64	7.90	
2025-01-14 02:56:21.47	5.62	7.91	
2025-01-14 02:56:21.69	5.60	7.93	
2025-01-14 02:56:21.89	5.58	7.94	
2025-01-14 02:56:22.10	5.56	7.96	
2025-01-14 02:56:22.30	5.54	7.97	
2025-01-14 02:56:22.50	5.51	7.99	
2025-01-14 02:56:22.71	5.49	8.00	
2025-01-14 02:56:22.92	5.47	8.02	
2025-01-14 02:56:23.12	5.45	8.03	
2025-01-14 02:56:23.32	5.43	8.04	
2025-01-14 02:56:23.53	5.41	8.06	
2025-01-14 02:56:23.73	5.39	8.07	
2025-01-14 02:56:23.94	5.36	8.09	
2025-01-14 02:56:24.14	5.34	8.10	
2025-01-14 02:56:24.35	5.32	8.12	
2025-01-14 02:56:24.55	5.30	8.13	
2025-01-14 02:56:24.76	5.28	8.15	
2025-01-14 02:56:24.97	5.26	8.16	
2025-01-14 02:56:25.17	5.23	8.18	
2025-01-14 02:56:25.38	5.21	8.19	
2025-01-14 02:56:25.58	5.19	8.20	
2025-01-14 02:56:25.79	5.17	8.22	
2025-01-14 02:56:25.99	5.15	8.23	
2025-01-14 02:56:26.20	5.12	8.25	
2025-01-14 02:56:26.40	5.10	8.26	
2025-01-14 02:56:26.61	5.08	8.28	
2025-01-14 02:56:26.81	5.06	8.29	
2025-01-14 02:56:27.02	5.04	8.31	
2025-01-14 02:56:27.22	5.02	8.32	
2025-01-14 02:56:27.43	4.99	8.34	
2025-01-14 02:56:27.63	4.97	8.35	
2025-01-14 02:56:27.84	4.95	8.37	
2025-01-14 02:56:28.04	4.93	8.38	
2025-01-14 02:56:28.25	4.90	8.39	
2025-01-14 02:56:28.45	4.88	8.41	
2025-01-14 02:56:28.66	4.86	8.42	
2025-01-14 02:56:28.86	4.84	8.44	
2025-01-14 02:56:29.07	4.82	8.45	
2025-01-14 02:56:29.27	4.79	8.47	
2025-01-14 02:56:29.48	4.77	8.48	
2025-01-14 02:56:29.68	4.75	8.50	
2025-01-14 02:56:29.89	4.73	8.51	
2025-01-14 02:56:30.09	4.71	8.53	
2025-01-14 02:56:30.30	4.68	8.54	
2025-01-14 02:56:30.50	4.66	8.56	
2025-01-14 02:56:30.71	4.64	8.57	
2025-01-14 02:56:30.91	4.62	8.58	
2025-01-14 02:56:31.12	4.59	8.60	
2025-01-14 02:56:31.32	4.57	8.61	
2025-01-14 02:56:31.53	4.55	8.63	
2025-01-14 02:56:31.73	4.53	8.64	
2025-01-14 02:56:31.94	4.50	8.66	
2025-01-14 02:56:32.14	4.48	8.67	
2025-01-14 02:56:32.35	4.46	8.69	
2025-01-14 02:56:32.55	4.44	8.70	
2025-01-14 02:56:32.75	4.41	8.72	
2025-01-14 02:56:32.96	4.39	8.73	
2025-01-14 02:56:33.16	4.37	8.75	
2025-01-14 02:56:33.37	4.35	8.76	
2025-01-14 02:56:33.57	4.32	8.78	
2025-01-14 02:56:33.78	4.30	8.79	
2025-01-14 02:56:33.98	4.28	8.81	
2025-01-14 02:56:34.19	4.25	8.82	
2025-01-14 02:56:34.39	4.23	8.84	
2025-01-14 02:56:34.60	4.21	8.85	
2025-01-14 02:56:34.80	4.19	8.86	
2025-01-14 02:56:35.01	4.16	8.88	
2025-01-14 02:56:35.21	4.14	8.89	
2025-01-14 02:56:35.42	4.12	8.91	
2025-01-14 02:56:35.62	4.09	8.92	
2025-01-14 02:56:35.82	4.07	8.94	
2025-01-14 02:56:36.03	4.05	8.95	
2025-01-14 02:56:36.24	4.02	8.97	
2025-01-14 02:56:36.44	4.00	8.98	
2025-01-14 02:56:36.65	3.98	9.00	
2025-01-14 02:56:36.85	3.96	9.01	
2025-01-14 02:56:37.06	3.93	9.03	
2025-01-14 02:56:37.26	3.91	9.04	
2025-01-14 02:56:37.47	3.89	9.06	
2025-01-14 02:56:37.67	3.86	9.07	
2025-01-14 02:56:37.88	3.84	9.09	
2025-01-14 02:56:38.08	3.82	9.10	
2025-01-14 02:56:38.30	3.79	9.12	
2025-01-14 02:56:38.50	3.77	9.13	
2025-01-14 02:56:38.71	3.74	9.15	
2025-01-14 02:56:38.91	3.72	9.16	
2025-01-14 02:56:39.12	3.70	9.18	
2025-01-14 02:56:39.32	3.67	9.19	
2025-01-14 02:56:39.53	3.65	9.21	
2025-01-14 02:56:39.73	3.63	9.22	
2025-01-14 02:56:39.94	3.60	9.24	
2025-01-14 02:56:40.14	3.58	9.25	
2025-01-14 02:56:40.35	3.56	9.27	
2025-01-14 02:56:40.55	3.53	9.28	
2025-01-14 02:56:40.76	3.51	9.30	
2025-01-14 02:56:40.96	3.49	9.31	
2025-01-14 02:56:41.17	3.46	9.33	
2025-01-14 02:56:41.37	3.44	9.34	
2025-01-14 02:56:41.58	3.41	9.36	
2025-01-14 02:56:41.78	3.39	9.37	
2025-01-14 02:56:41.99	3.37	9.39	
2025-01-14 02:56:42.19	3.34	9.40	
2025-01-14 02:56:42.40	3.32	9.42	
2025-01-14 02:56:42.60	3.30	9.43	
2025-01-14 02:56:42.81	3.27	9.45	
2025-01-14 02:56:43.02	3.25	9.46	
2025-01-14 02:56:43.24	3.22	9.48	
2025-01-14 02:56:43.44	3.20	9.49	
2025-01-14 02:56:43.65	3.17	9.51	
2025-01-14 02:56:43.85	3.15	9.52	
2025-01-14 02:56:44.06	3.12	9.54	
2025-01-14 02:56:44.26	3.10	9.55	
2025-01-14 02:56:44.47	3.08	9.57	
2025-01-14 02:56:44.67	3.05	9.58	
2025-01-14 02:56:44.88	3.03	9.60	
2025-01-14 02:56:45.09	3.00	9.62	
2025-01-14 02:56:45.29	2.98	9.63	
2025-01-14 02:56:45.50	2.95	9.65	
2025-01-14 02:56:45.70	2.93	9.66	
2025-01-14 02:56:45.91	2.91	9.68	
2025-01-14 02:56:46.12	2.88	9.69	
2025-01-14 02:56:46.32	2.86	9.71	
2025-01-14 02:56:46.53	2.83	9.72	
2025-01-14 02:56:46.73	2.81	9.74	
2025-01-14 02:56:46.95	2.78	9.75	
2025-01-14 02:56:47.15	2.76	9.77	
2025-01-14 02:56:47.36	2.73	9.78	
2025-01-14 02:56:47.56	2.71	9.80	
2025-01-14 02:56:47.77	2.68	9.81	
2025-01-14 02:56:47.97	2.66	9.83	
2025-01-14 02:56:48.18	2.63	9.84	
2025-01-14 02:56:48.39	2.61	9.86	
2025-01-14 02:56:48.59	2.58	9.87	
2025-01-14 02:56:48.80	2.56	9.89	
2025-01-14 02:56:49.00	2.54	9.90	
2025-01-14 02:56:49.20	2.51	9.92	
2025-01-14 02:56:49.41	2.49	9.93	
2025-01-14 02:56:49.62	2.46	9.95	
2025-01-14 02:56:49.83	2.43	9.97	
2025-01-14 02:56:50.03	2.41	9.98	
2025-01-14 02:56:50.24	2.38	10.00	
2025-01-14 02:56:50.45	2.36	10.01	
2025-01-14 02:56:50.65	2.33	10.03	
2025-01-14 02:56:50.86	2.31	10.04	
2025-01-14 02:56:51.06	2.28	10.06	
2025-01-14 02:56:51.27	2.26	10.07	
2025-01-14 02:56:51.47	2.23	10.09	
2025-01-14 02:56:51.68	2.21	10.10	
2025-01-14 02:56:51.89	2.18	10.12	
2025-01-14 02:56:52.09	2.16	10.13	
2025-01-14 02:56:52.29	2.13	10.15	
2025-01-14 02:56:52.50	2.11	10.16	
2025-01-14 02:56:52.71	2.08	10.18	
2025-01-14 02:56:52.91	2.06	10.19	
2025-01-14 02:56:53.11	2.03	10.21	
2025-01-14 02:56:53.32	2.01	10.23	
2025-01-14 02:56:53.52	1.98	10.24	
2025-01-14 02:56:53.73	1.96	10.26	
2025-01-14 02:56:53.94	1.93	10.27	
2025-01-14 02:56:54.14	1.90	10.29	
2025-01-14 02:56:54.34	1.88	10.30	
2025-01-14 02:56:54.55	1.85	10.32	
2025-01-14 02:56:54.76	1.83	10.33	
2025-01-14 02:56:54.96	1.80	10.35	
2025-01-14 02:56:55.17	1.78	10.36	
2025-01-14 02:56:55.39	1.75	10.38	
2025-01-14 02:56:55.59	1.72	10.40	
2025-01-14 02:56:55.80	1.70	10.41	
2025-01-14 02:56:56.00	1.67	10.43	
2025-01-14 02:56:56.21	1.65	10.44	
2025-01-14 02:56:56.41	1.62	10.46	
2025-01-14 02:56:56.62	1.59	10.47	
2025-01-14 02:56:56.82	1.57	10.49	
2025-01-14 02:56:57.03	1.54	10.50	
2025-01-14 02:56:57.23	1.52	10.52	
2025-01-14 02:56:57.44	1.49	10.53	
2025-01-14 02:56:57.64	1.46	10.55	
2025-01-14 02:56:57.85	1.44	10.57	
2025-01-14 02:56:58.05	1.41	10.58	
2025-01-14 02:56:58.26	1.39	10.60	
2025-01-14 02:56:58.46	1.36	10.61	
2025-01-14 02:56:58.68	1.33	10.63	
2025-01-14 02:56:58.89	1.30	10.64	
2025-01-14 02:56:59.09	1.28	10.66	
2025-01-14 02:56:59.30	1.25	10.67	
2025-01-14 02:56:59.50	1.23	10.69	
2025-01-14 02:56:59.71	1.20	10.71	
2025-01-14 02:56:59.91	1.17	10.72	
2025-01-14 02:57:00.11	1.15	10.74	
2025-01-14 02:57:00.32	1.12	10.75	
2025-01-14 02:57:00.52	1.10	10.77	
2025-01-14 02:57:00.73	1.07	10.78	
2025-01-14 02:57:00.93	1.04	10.80	
2025-01-14 02:57:01.14	1.02	10.81	
2025-01-14 02:57:01.34	0.99	10.83	
2025-01-14 02:57:01.55	0.96	10.84	
2025-01-14 02:57:01.75	0.94	10.86	
2025-01-14 02:57:01.96	0.91	10.88	
2025-01-14 02:57:02.16	0.88	10.89	
2025-01-14 02:57:02.37	0.86	10.91	
2025-01-14 02:57:02.57	0.83	10.92	
2025-01-14 02:57:02.78	0.80	10.94	
2025-01-14 02:57:02.99	0.77	10.95	
2025-01-14 02:57:03.19	0.75	10.97	
2025-01-14 02:57:03.40	0.72	10.98	
2025-01-14 02:57:03.60	0.69	11.00	
2025-01-14 02:57:03.81	0.67	11.02	
2025-01-14 02:57:04.01	0.64	11.03	
2025-01-14 02:57:04.21	0.61	11.05	
2025-01-14 02:57:04.42	0.59	11.06	
2025-01-14 02:57:04.62	0.56	11.08	
2025-01-14 02:57:04.83	0.53	11.09	
2025-01-14 02:57:05.03	0.51	11.11	
2025-01-14 02:57:05.24	0.48	11.12	
2025-01-14 02:57:05.44	0.45	11.14	
2025-01-14 02:57:05.65	0.42	11.16	
2025-01-14 02:57:05.86	0.40	11.17	
2025-01-14 02:57:06.06	0.37	11.19	
2025-01-14 02:57:06.27	0.34	11.20	
2025-01-14 02:57:06.47	0.31	11.22	
2025-01-14 02:57:06.68	0.29	11.23	
2025-01-14 02:57:06.88	0.26	11.25	
2025-01-14 02:57:07.09	0.23	11.27	
2025-01-14 02:57:07.29	0.20	11.28	
2025-01-14 02:57:07.50	0.18	11.30	
2025-01-14 02:57:07.71	0.15	11.31	
2025-01-14 02:57:07.91	0.12	11.33	
2025-01-14 02:57:08.12	0.09	11.34	
2025-01-14 02:57:08.32	0.07	11.36	
2025-01-14 02:57:08.53	0.04	11.38	
2025-01-14 02:57:08.73	0.01	11.39	
2025-01-14 02:57:08.94	359.98	11.41	
2025-01-14 02:57:09.14	359.95	11.42	
2025-01-14 02:57:09.34	359.93	11.44	
2025-01-14 02:57:09.55	359.90	11.45	
2025-01-14 02:57:09.75	359.87	11.47	
2025-01-14 02:57:09.97	359.84	11.49	
2025-01-14 02:57:10.18	359.81	11.50	
2025-01-14 02:57:10.38	359.79	11.52	
2025-01-14 02:57:10.58	359.76	11.53	
2025-01-14 02:57:10.79	359.73	11.55	
2025-01-14 02:57:10.99	359.70	11.56	
2025-01-14 02:57:11.20	359.67	11.58	
2025-01-14 02:57:11.40	359.65	11.60	
2025-01-14 02:57:11.61	359.62	11.61	
2025-01-14 02:57:11.82	359.59	11.63	
2025-01-14 02:57:12.02	359.56	11.64	
2025-01-14 02:57:12.23	359.53	11.66	
2025-01-14 02:57:12.43	359.50	11.67	
2025-01-14 02:57:12.63	359.48	11.69	
2025-01-14 02:57:12.84	359.45	11.71	
2025-01-14 02:57:13.04	359.42	11.72	
2025-01-14 02:57:13.25	359.39	11.74	
2025-01-14 02:57:13.46	359.36	11.75	
2025-01-14 02:57:13.66	359.33	11.77	
2025-01-14 02:57:13.86	359.31	11.78	
2025-01-14 02:57:14.07	359.28	11.80	
2025-01-14 02:57:14.28	359.25	11.82	
2025-01-14 02:57:14.48	359.22	11.83	
2025-01-14 02:57:14.69	359.19	11.85	
2025-01-14 02:57:14.89	359.16	11.86	
2025-01-14 02:57:15.10	359.13	11.88	
2025-01-14 02:57:15.30	359.10	11.90	
2025-01-14 02:57:15.51	359.07	11.91	
2025-01-14 02:57:15.71	359.05	11.93	
2025-01-14 02:57:15.92	359.02	11.94	
2025-01-14 02:57:16.12	358.99	11.96	
2025-01-14 02:57:16.33	358.96	11.98	
2025-01-14 02:57:16.53	358.93	11.99	
2025-01-14 02:57:16.74	358.90	12.01	
2025-01-14 02:57:16.94	358.87	12.02	
2025-01-14 02:57:17.15	358.84	12.04	
2025-01-14 02:57:17.36	358.81	12.06	
2025-01-14 02:57:17.56	358.78	12.07	
2025-01-14 02:57:17.77	358.75	12.09	
2025-01-14 02:57:17.97	358.73	12.10	
2025-01-14 02:57:18.18	358.70	12.12	
2025-01-14 02:57:18.38	358.67	12.13	
2025-01-14 02:57:18.59	358.64	12.15	
2025-01-14 02:57:18.79	358.61	12.17	
2025-01-14 02:57:19.00	358.58	12.18	
2025-01-14 02:57:19.21	358.55	12.20	
2025-01-14 02:57:19.41	358.52	12.21	
2025-01-14 02:57:19.62	358.49	12.23	
2025-01-14 02:57:19.82	358.46	12.25	
2025-01-14 02:57:20.03	358.43	12.26	
2025-01-14 02:57:20.23	358.40	12.28	
2025-01-14 02:57:20.44	358.37	12.29	
2025-01-14 02:57:20.64	358.34	12.31	
2025-01-14 02:57:20.85	358.31	12.33	
2025-01-14 02:57:21.07	358.28	12.34	
2025-01-14 02:57:21.27	358.25	12.36	
2025-01-14 02:57:21.47	358.22	12.37	
2025-01-14 02:57:21.68	358.19	12.39	
2025-01-14 02:57:21.89	358.16	12.41	
2025-01-14 02:57:22.09	358.13	12.42	
2025-01-14 02:57:22.30	358.10	12.44	
2025-01-14 02:57:22.50	358.07	12.46	
2025-01-14 02:57:22.71	358.04	12.47	
2025-01-14 02:57:22.91	358.01	12.49	
2025-01-14 02:57:23.12	357.98	12.50	
2025-01-14 02:57:23.32	357.95	12.52	
2025-01-14 02:57:23.52	357.92	12.53	
2025-01-14 02:57:23.73	357.89	12.55	
2025-01-14 02:57:23.93	357.86	12.57	
2025-01-14 02:57:24.14	357.83	12.58	
2025-01-14 02:57:24.34	357.80	12.60	
2025-01-14 02:57:24.55	357.77	12.62	
2025-01-14 02:57:24.76	357.74	12.63	
2025-01-14 02:57:24.96	357.71	12.65	
2025-01-14 02:57:25.17	357.68	12.66	
2025-01-14 02:57:25.37	357.65	12.68	
2025-01-14 02:57:25.58	357.61	12.70	
2025-01-14 02:57:25.78	357.58	12.71	
2025-01-14 02:57:25.99	357.55	12.73	
2025-01-14 02:57:26.20	357.52	12.74	
2025-01-14 02:57:26.40	357.49	12.76	
2025-01-14 02:57:26.60	357.46	12.78	
2025-01-14 02:57:26.81	357.43	12.79	
2025-01-14 02:57:27.01	357.40	12.81	
2025-01-14 02:57:27.22	357.37	12.82	
2025-01-14 02:57:27.42	357.34	12.84	
2025-01-14 02:57:27.62	357.31	12.86	
2025-01-14 02:57:27.83	357.28	12.87	
2025-01-14 02:57:28.03	357.25	12.89	
2025-01-14 02:57:28.24	357.21	12.90	
2025-01-14 02:57:28.44	357.18	12.92	
2025-01-14 02:57:28.65	357.15	12.94	
2025-01-14 02:57:28.85	357.12	12.95	
2025-01-14 02:57:29.06	357.09	12.97	
2025-01-14 02:57:29.27	357.06	12.99	
2025-01-14 02:57:29.47	357.03	13.00	
2025-01-14 02:57:29.69	356.99	13.02	
2025-01-14 02:57:29.90	356.96	13.04	
2025-01-14 02:57:30.10	356.93	13.05	
2025-01-14 02:57:30.31	356.90	13.07	
2025-01-14 02:57:30.51	356.87	13.08	
2025-01-14 02:57:30.73	356.83	13.10	
2025-01-14 02:57:30.93	356.80	13.12	
2025-01-14 02:57:31.14	356.77	13.13	
2025-01-14 02:57:31.35	356.74	13.15	
2025-01-14 02:57:31.55	356.71	13.17	
2025-01-14 02:57:31.76	356.68	13.18	
2025-01-14 02:57:31.96	356.64	13.20	
2025-01-14 02:57:32.17	356.61	13.21	
2025-01-14 02:57:32.37	356.58	13.23	
2025-01-14 02:57:32.58	356.55	13.25	
2025-01-14 02:57:32.78	356.52	13.26	
2025-01-14 02:57:32.98	356.49	13.28	
2025-01-14 02:57:33.19	356.45	13.29	
2025-01-14 02:57:33.40	356.42	13.31	
2025-01-14 02:57:33.60	356.39	13.33	
2025-01-14 02:57:33.81	356.36	13.34	
2025-01-14 02:57:34.02	356.32	13.36	
2025-01-14 02:57:34.23	356.29	13.38	
2025-01-14 02:57:34.43	356.26	13.39	
2025-01-14 02:57:34.64	356.23	13.41	
2025-01-14 02:57:34.84	356.19	13.43	
2025-01-14 02:57:35.05	356.16	13.44	
2025-01-14 02:57:35.25	356.13	13.46	
2025-01-14 02:57:35.46	356.10	13.47	
2025-01-14 02:57:35.66	356.07	13.49	
2025-01-14 02:57:35.87	356.03	13.51	
2025-01-14 02:57:36.08	356.00	13.52	
2025-01-14 02:57:36.29	355.97	13.54	
2025-01-14 02:57:36.49	355.93	13.56	
2025-01-14 02:57:36.70	355.90	13.57	
2025-01-14 02:57:36.90	355.87	13.59	
2025-01-14 02:57:37.11	355.84	13.61	
2025-01-14 02:57:37.31	355.80	13.62	
2025-01-14 02:57:37.52	355.77	13.64	
2025-01-14 02:57:37.73	355.74	13.65	
2025-01-14 02:57:37.93	355.70	13.67	
2025-01-14 02:57:38.13	355.67	13.69	
2025-01-14 02:57:38.34	355.64	13.70	
2025-01-14 02:57:38.55	355.60	13.72	
2025-01-14 02:57:38.75	355.57	13.74	
2025-01-14 02:57:38.96	355.54	13.75	
2025-01-14 02:57:39.16	355.51	13.77	
2025-01-14 02:57:39.37	355.47	13.78	
2025-01-14 02:57:39.57	355.44	13.80	
2025-01-14 02:57:39.78	355.41	13.82	
2025-01-14 02:57:39.98	355.37	13.83	
2025-01-14 02:57:40.18	355.34	13.85	
2025-01-14 02:57:40.39	355.31	13.87	
2025-01-14 02:57:40.59	355.27	13.88	
2025-01-14 02:57:40.80	355.24	13.90	
2025-01-14 02:57:41.01	355.21	13.91	
2025-01-14 02:57:41.21	355.17	13.93	
2025-01-14 02:57:41.41	355.14	13.95	
2025-01-14 02:57:41.62	355.11	13.96	
2025-01-14 02:57:41.83	355.07	13.98	
2025-01-14 02:57:42.03	355.04	14.00	
2025-01-14 02:57:42.24	355.00	14.01	
2025-01-14 02:57:42.44	354.97	14.03	
2025-01-14 02:57:42.65	354.94	14.05	
2025-01-14 02:57:42.86	354.90	14.06	
2025-01-14 02:57:43.06	354.87	14.08	
2025-01-14 02:57:43.27	354.83	14.10	
2025-01-14 02:57:43.47	354.80	14.11	
2025-01-14 02:57:43.67	354.77	14.13	
2025-01-14 02:57:43.88	354.73	14.14	
2025-01-14 02:57:44.09	354.70	14.16	
2025-01-14 02:57:44.29	354.66	14.18	
2025-01-14 02:57:44.50	354.63	14.19	
2025-01-14 02:57:44.70	354.60	14.21	
2025-01-14 02:57:44.91	354.56	14.23	
2025-01-14 02:57:45.11	354.53	14.24	
2025-01-14 02:57:45.32	354.49	14.26	
2025-01-14 02:57:45.52	354.46	14.27	
2025-01-14 02:57:45.74	354.42	14.29	
2025-01-14 02:57:45.95	354.39	14.31	
2025-01-14 02:57:46.15	354.35	14.32	
2025-01-14 02:57:46.36	354.32	14.34	
2025-01-14 02:57:46.56	354.28	14.36	
2025-01-14 02:57:46.77	354.25	14.37	
2025-01-14 02:57:46.97	354.21	14.39	
2025-01-14 02:57:47.18	354.18	14.41	
2025-01-14 02:57:47.38	354.15	14.42	
2025-01-14 02:57:47.59	354.11	14.44	
2025-01-14 02:57:47.79	354.08	14.46	
2025-01-14 02:57:48.00	354.04	14.47	
2025-01-14 02:57:48.20	354.01	14.49	
2025-01-14 02:57:48.41	353.97	14.51	
2025-01-14 02:57:48.61	353.94	14.52	
2025-01-14 02:57:48.82	353.90	14.54	
2025-01-14 02:57:49.02	353.87	14.55	
2025-01-14 02:57:49.23	353.83	14.57	
2025-01-14 02:57:49.43	353.80	14.59	
2025-01-14 02:57:49.64	353.76	14.60	
2025-01-14 02:57:49.84	353.73	14.62	
2025-01-14 02:57:50.05	353.69	14.64	
2025-01-14 02:57:50.25	353.65	14.65	
2025-01-14 02:57:50.46	353.62	14.67	
2025-01-14 02:57:50.66	353.58	14.69	
2025-01-14 02:57:50.87	353.55	14.70	
2025-01-14 02:57:51.07	353.51	14.72	
2025-01-14 02:57:51.28	353.48	14.74	
2025-01-14 02:57:51.48	353.44	14.75	
2025-01-14 02:57:51.69	353.41	14.77	
2025-01-14 02:57:51.89	353.37	14.78	
2025-01-14 02:57:52.10	353.33	14.80	
2025-01-14 02:57:52.30	353.30	14.82	
2025-01-14 02:57:52.51	353.26	14.83	
2025-01-14 02:57:52.71	353.23	14.85	
2025-01-14 02:57:52.92	353.19	14.87	
2025-01-14 02:57:53.12	353.16	14.88	
2025-01-14 02:57:53.32	353.12	14.90	
2025-01-14 02:57:53.53	353.08	14.92	
2025-01-14 02:57:53.73	353.05	14.93	
2025-01-14 02:57:53.94	353.01	14.95	
2025-01-14 02:57:54.15	352.97	14.97	
2025-01-14 02:57:54.35	352.94	14.98	
2025-01-14 02:57:54.55	352.90	15.00	
2025-01-14 02:57:54.76	352.87	15.01	
2025-01-14 02:57:54.97	352.83	15.03	
2025-01-14 02:57:55.17	352.79	15.05	
2025-01-14 02:57:55.37	352.76	15.06	
2025-01-14 02:57:55.58	352.72	15.08	
2025-01-14 02:57:55.78	352.69	15.10	
2025-01-14 02:57:55.99	352.65	15.11	
2025-01-14 02:57:56.19	352.61	15.13	
2025-01-14 02:57:56.41	352.57	15.15	
2025-01-14 02:57:56.62	352.54	15.16	
2025-01-14 02:57:56.82	352.50	15.18	
2025-01-14 02:57:57.03	352.46	15.20	
2025-01-14 02:57:57.24	352.42	15.21	
2025-01-14 02:57:57.44	352.39	15.23	
2025-01-14 02:57:57.64	352.35	15.25	
2025-01-14 02:57:57.85	352.32	15.26	
2025-01-14 02:57:58.05	352.28	15.28	
2025-01-14 02:57:58.26	352.24	15.30	
2025-01-14 02:57:58.46	352.20	15.31	
2025-01-14 02:57:58.67	352.17	15.33	
2025-01-14 02:57:58.87	352.13	15.34	
2025-01-14 02:57:59.08	352.09	15.36	
2025-01-14 02:57:59.28	352.06	15.38	
2025-01-14 02:57:59.49	352.02	15.39	
2025-01-14 02:57:59.69	351.98	15.41	
2025-01-14 02:57:59.90	351.94	15.43	
2025-01-14 02:58:00.10	351.91	15.44	
2025-01-14 02:58:00.31	351.87	15.46	
2025-01-14 02:58:00.51	351.83	15.48	
2025-01-14 02:58:00.71	351.80	15.49	
2025-01-14 02:58:00.92	351.76	15.51	
2025-01-14 02:58:01.13	351.72	15.53	
2025-01-14 02:58:01.33	351.68	15.54	
2025-01-14 02:58:01.54	351.64	15.56	
2025-01-14 02:58:01.76	351.60	15.58	
2025-01-14 02:58:01.96	351.57	15.59	
2025-01-14 02:58:02.16	351.53	15.61	
2025-01-14 02:58:02.37	351.49	15.63	
2025-01-14 02:58:02.57	351.45	15.64	
2025-01-14 02:58:02.78	351.41	15.66	
2025-01-14 02:58:02.98	351.38	15.68	
2025-01-14 02:58:03.19	351.34	15.69	
2025-01-14 02:58:03.40	351.30	15.71	
2025-01-14 02:58:03.60	351.26	15.72	
2025-01-14 02:58:03.80	351.22	15.74	
2025-01-14 02:58:04.01	351.18	15.76	
2025-01-14 02:58:04.21	351.15	15.77	
2025-01-14 02:58:04.42	351.11	15.79	
2025-01-14 02:58:04.63	351.07	15.81	
2025-01-14 02:58:04.83	351.03	15.82	
2025-01-14 02:58:05.03	350.99	15.84	
2025-01-14 02:58:05.24	350.95	15.86	
2025-01-14 02:58:05.45	350.91	15.87	
2025-01-14 02:58:05.65	350.88	15.89	
2025-01-14 02:58:05.86	350.84	15.91	
2025-01-14 02:58:06.08	350.80	15.92	
2025-01-14 02:58:06.28	350.76	15.94	
2025-01-14 02:58:06.49	350.72	15.96	
2025-01-14 02:58:06.69	350.68	15.97	
2025-01-14 02:58:06.90	350.64	15.99	
2025-01-14 02:58:07.10	350.60	16.01	
2025-01-14 02:58:07.31	350.56	16.02	
2025-01-14 02:58:07.51	350.52	16.04	
2025-01-14 02:58:07.72	350.48	16.06	
2025-01-14 02:58:07.93	350.44	16.07	
2025-01-14 02:58:08.14	350.40	16.09	
2025-01-14 02:58:08.35	350.36	16.11	
2025-01-14 02:58:08.56	350.32	16.12	
2025-01-14 02:58:08.76	350.28	16.14	
2025-01-14 02:58:08.97	350.24	16.16	
2025-01-14 02:58:09.18	350.20	16.17	
2025-01-14 02:58:09.39	350.16	16.19	
2025-01-14 02:58:09.59	350.13	16.21	
2025-01-14 02:58:09.80	350.08	16.22	
2025-01-14 02:58:10.00	350.05	16.24	
2025-01-14 02:58:10.20	350.01	16.26	
2025-01-14 02:58:10.41	349.97	16.27	
2025-01-14 02:58:10.61	349.93	16.29	
2025-01-14 02:58:10.82	349.89	16.30	
2025-01-14 02:58:11.02	349.85	16.32	
2025-01-14 02:58:11.23	349.81	16.34	
2025-01-14 02:58:11.43	349.77	16.35	
2025-01-14 02:58:11.64	349.73	16.37	
2025-01-14 02:58:11.84	349.69	16.39	
2025-01-14 02:58:12.05	349.65	16.40	
2025-01-14 02:58:12.26	349.61	16.42	
2025-01-14 02:58:12.46	349.57	16.44	
2025-01-14 02:58:12.66	349.53	16.45	
2025-01-14 02:58:12.87	349.49	16.47	
2025-01-14 02:58:13.08	349.44	16.49	
2025-01-14 02:58:13.28	349.41	16.50	
2025-01-14 02:58:13.48	349.37	16.52	
2025-01-14 02:58:13.69	349.32	16.54	
2025-01-14 02:58:13.90	349.28	16.55	
2025-01-14 02:58:14.10	349.24	16.57	
2025-01-14 02:58:14.31	349.20	16.58	
2025-01-14 02:58:14.51	349.16	16.60	
2025-01-14 02:58:14.72	349.12	16.62	
2025-01-14 02:58:14.92	349.08	16.63	
2025-01-14 02:58:15.13	349.04	16.65	
2025-01-14 02:58:15.33	349.00	16.67	
2025-01-14 02:58:15.54	348.96	16.68	
2025-01-14 02:58:15.76	348.91	16.70	
2025-01-14 02:58:15.96	348.87	16.72	
2025-01-14 02:58:16.17	348.83	16.73	
2025-01-14 02:58:16.37	348.79	16.75	
2025-01-14 02:58:16.58	348.75	16.77	
2025-01-14 02:58:16.78	348.71	16.78	
2025-01-14 02:58:16.99	348.67	16.80	
2025-01-14 02:58:17.19	348.63	16.82	
2025-01-14 02:58:17.40	348.58	16.83	
2025-01-14 02:58:17.60	348.54	16.85	
2025-01-14 02:58:17.81	348.50	16.87	
2025-01-14 02:58:18.01	348.46	16.88	
2025-01-14 02:58:18.22	348.42	16.90	
2025-01-14 02:58:18.42	348.38	16.91	
2025-01-14 02:58:18.63	348.33	16.93	
2025-01-14 02:58:18.83	348.29	16.95	
2025-01-14 02:58:19.04	348.25	16.96	
2025-01-14 02:58:19.24	348.21	16.98	
2025-01-14 02:58:19.45	348.17	17.00	
2025-01-14 02:58:19.65	348.13	17.01	
2025-01-14 02:58:19.86	348.08	17.03	
2025-01-14 02:58:20.06	348.04	17.04	
2025-01-14 02:58:20.27	348.00	17.06	
2025-01-14 02:58:20.47	347.96	17.08	
2025-01-14 02:58:20.68	347.92	17.09	
2025-01-14 02:58:20.88	347.87	17.11	
2025-01-14 02:58:21.09	347.83	17.13	
2025-01-14 02:58:21.29	347.79	17.14	
2025-01-14 02:58:21.50	347.75	17.16	
2025-01-14 02:58:21.71	347.70	17.18	
2025-01-14 02:58:21.91	347.66	17.19	
2025-01-14 02:58:22.11	347.62	17.21	
2025-01-14 02:58:22.32	347.58	17.23	
2025-01-14 02:58:22.52	347.53	17.24	
2025-01-14 02:58:22.73	347.49	17.26	
2025-01-14 02:58:22.93	347.45	17.27	
2025-01-14 02:58:23.14	347.41	17.29	
2025-01-14 02:58:23.34	347.36	17.31	
2025-01-14 02:58:23.55	347.32	17.32	
2025-01-14 02:58:23.76	347.28	17.34	
2025-01-14 02:58:23.96	347.23	17.36	
2025-01-14 02:58:24.17	347.19	17.37	
2025-01-14 02:58:24.37	347.15	17.39	
2025-01-14 02:58:24.58	347.10	17.40	
2025-01-14 02:58:24.78	347.06	17.42	
2025-01-14 02:58:24.99	347.02	17.44	
2025-01-14 02:58:25.21	346.97	17.45	
2025-01-14 02:58:25.41	346.93	17.47	
2025-01-14 02:58:25.62	346.88	17.49	
2025-01-14 02:58:25.82	346.84	17.50	
2025-01-14 02:58:26.03	346.80	17.52	
2025-01-14 02:58:26.23	346.76	17.54	
2025-01-14 02:58:26.44	346.71	17.55	
2025-01-14 02:58:26.65	346.67	17.57	
2025-01-14 02:58:26.85	346.62	17.58	
2025-01-14 02:58:27.06	346.58	17.60	
2025-01-14 02:58:27.26	346.54	17.62	
2025-01-14 02:58:27.47	346.49	17.63	
2025-01-14 02:58:27.67	346.45	17.65	
2025-01-14 02:58:27.88	346.40	17.67	
2025-01-14 02:58:28.08	346.36	17.68	
2025-01-14 02:58:28.29	346.32	17.70	
2025-01-14 02:58:28.49	346.27	17.71	
2025-01-14 02:58:28.70	346.23	17.73	
2025-01-14 02:58:28.90	346.18	17.75	
2025-01-14 02:58:29.11	346.14	17.76	
2025-01-14 02:58:29.31	346.10	17.78	
2025-01-14 02:58:29.52	346.05	17.80	
2025-01-14 02:58:29.72	346.01	17.81	
2025-01-14 02:58:29.93	345.96	17.83	
2025-01-14 02:58:30.13	345.92	17.84	
2025-01-14 02:58:30.34	345.87	17.86	
2025-01-14 02:58:30.54	345.83	17.88	
2025-01-14 02:58:30.75	345.78	17.89	
2025-01-14 02:58:30.96	345.74	17.91	
2025-01-14 02:58:31.16	345.69	17.93	
2025-01-14 02:58:31.37	345.65	17.94	
2025-01-14 02:58:31.57	345.61	17.96	
2025-01-14 02:58:31.78	345.56	17.97	
2025-01-14 02:58:31.98	345.52	17.99	
2025-01-14 02:58:32.19	345.47	18.01	
2025-01-14 02:58:32.39	345.43	18.02	
2025-01-14 02:58:32.60	345.38	18.04	
2025-01-14 02:58:32.80	345.34	18.05	
2025-01-14 02:58:33.01	345.29	18.07	
2025-01-14 02:58:33.21	345.24	18.09	
2025-01-14 02:58:33.42	345.20	18.10	
2025-01-14 02:58:33.62	345.15	18.12	
2025-01-14 02:58:33.83	345.11	18.13	
2025-01-14 02:58:34.03	345.06	18.15	
2025-01-14 02:58:34.24	345.02	18.17	
2025-01-14 02:58:34.44	344.97	18.18	
2025-01-14 02:58:34.65	344.93	18.20	
2025-01-14 02:58:34.85	344.88	18.21	
2025-01-14 02:58:35.06	344.83	18.23	
2025-01-14 02:58:35.26	344.79	18.25	
2025-01-14 02:58:35.47	344.74	18.26	
2025-01-14 02:58:35.68	344.70	18.28	
2025-01-14 02:58:35.88	344.65	18.29	
2025-01-14 02:58:36.08	344.61	18.31	
2025-01-14 02:58:36.29	344.56	18.33	
2025-01-14 02:58:36.50	344.51	18.34	
2025-01-14 02:58:36.70	344.47	18.36	
2025-01-14 02:58:36.91	344.42	18.37	
2025-01-14 02:58:37.11	344.37	18.39	
2025-01-14 02:58:37.32	344.33	18.41	
2025-01-14 02:58:37.52	344.28	18.42	
2025-01-14 02:58:37.73	344.23	18.44	
2025-01-14 02:58:37.93	344.19	18.45	
2025-01-14 02:58:38.14	344.14	18.47	
2025-01-14 02:58:38.34	344.10	18.49	
2025-01-14 02:58:38.55	344.05	18.50	
2025-01-14 02:58:38.75	344.00	18.52	
2025-01-14 02:58:38.96	343.96	18.53	
2025-01-14 02:58:39.16	343.91	18.55	
2025-01-14 02:58:39.37	343.86	18.57	
2025-01-14 02:58:39.57	343.82	18.58	
2025-01-14 02:58:39.78	343.77	18.60	
2025-01-14 02:58:39.98	343.72	18.61	
2025-01-14 02:58:40.19	343.67	18.63	
2025-01-14 02:58:40.39	343.63	18.64	
2025-01-14 02:58:40.60	343.58	18.66	
2025-01-14 02:58:40.80	343.53	18.68	
2025-01-14 02:58:41.01	343.49	18.69	
2025-01-14 02:58:41.21	343.44	18.71	
2025-01-14 02:58:41.42	343.39	18.72	
2025-01-14 02:58:41.62	343.34	18.74	
2025-01-14 02:58:41.83	343.30	18.76	
2025-01-14 02:58:42.03	343.25	18.77	
2025-01-14 02:58:42.24	343.20	18.79	
2025-01-14 02:58:42.44	343.15	18.80	
2025-01-14 02:58:42.65	343.11	18.82	
2025-01-14 02:58:42.86	343.06	18.83	
2025-01-14 02:58:43.06	343.01	18.85	
2025-01-14 02:58:43.27	342.96	18.87	
2025-01-14 02:58:43.47	342.92	18.88	
2025-01-14 02:58:43.68	342.87	18.90	
2025-01-14 02:58:43.88	342.82	18.91	
2025-01-14 02:58:44.09	342.77	18.93	
2025-01-14 02:58:44.30	342.72	18.94	
2025-01-14 02:58:44.50	342.67	18.96	
2025-01-14 02:58:44.71	342.62	18.98	
2025-01-14 02:58:44.91	342.58	18.99	
2025-01-14 02:58:45.12	342.53	19.01	
2025-01-14 02:58:45.33	342.48	19.02	
2025-01-14 02:58:45.53	342.43	19.04	
2025-01-14 02:58:45.74	342.38	19.05	
2025-01-14 02:58:45.94	342.33	19.07	
2025-01-14 02:58:46.15	342.29	19.09	
2025-01-14 02:58:46.35	342.24	19.10	
2025-01-14 02:58:46.55	342.19	19.12	
2025-01-14 02:58:46.76	342.14	19.13	
2025-01-14 02:58:46.97	342.09	19.15	
2025-01-14 02:58:47.17	342.04	19.16	
2025-01-14 02:58:47.38	341.99	19.18	
2025-01-14 02:58:47.58	341.95	19.19	
2025-01-14 02:58:47.79	341.89	19.21	
2025-01-14 02:58:48.00	341.84	19.23	
2025-01-14 02:58:48.20	341.80	19.24	
2025-01-14 02:58:48.41	341.75	19.26	
2025-01-14 02:58:48.61	341.70	19.27	
2025-01-14 02:58:48.82	341.65	19.29	
2025-01-14 02:58:49.02	341.60	19.30	
2025-01-14 02:58:49.23	341.55	19.32	
2025-01-14 02:58:49.44	341.50	19.33	
2025-01-14 02:58:49.64	341.45	19.35	
2025-01-14 02:58:49.84	341.40	19.36	
2025-01-14 02:58:50.05	341.35	19.38	
2025-01-14 02:58:50.26	341.30	19.40	
2025-01-14 02:58:50.46	341.25	19.41	
2025-01-14 02:58:50.67	341.20	19.43	
2025-01-14 02:58:50.87	341.15	19.44	
2025-01-14 02:58:51.08	341.10	19.46	
2025-01-14 02:58:51.28	341.05	19.47	
2025-01-14 02:58:51.49	341.00	19.49	
2025-01-14 02:58:51.69	340.95	19.50	
2025-01-14 02:58:51.89	340.90	19.52	
2025-01-14 02:58:52.10	340.85	19.53	
2025-01-14 02:58:52.31	340.80	19.55	
2025-01-14 02:58:52.51	340.75	19.56	
2025-01-14 02:58:52.72	340.70	19.58	
2025-01-14 02:58:52.92	340.65	19.59	
2025-01-14 02:58:53.13	340.60	19.61	
2025-01-14 02:58:53.33	340.55	19.62	
2025-01-14 02:58:53.54	340.50	19.64	
2025-01-14 02:58:53.75	340.45	19.66	
2025-01-14 02:58:53.95	340.40	19.67	
2025-01-14 02:58:54.16	340.35	19.69	
2025-01-14 02:58:54.36	340.30	19.70	
2025-01-14 02:58:54.56	340.25	19.72	
2025-01-14 02:58:54.77	340.20	19.73	
2025-01-14 02:58:54.98	340.14	19.75	
2025-01-14 02:58:55.18	340.09	19.76	
2025-01-14 02:58:55.38	340.05	19.78	
2025-01-14 02:58:55.59	339.99	19.79	
2025-01-14 02:58:55.80	339.94	19.81	
2025-01-14 02:58:56.00	339.89	19.82	
2025-01-14 02:58:56.20	339.84	19.84	
2025-01-14 02:58:56.41	339.79	19.85	
2025-01-14 02:58:56.62	339.74	19.87	
2025-01-14 02:58:56.82	339.69	19.88	
2025-01-14 02:58:57.03	339.63	19.90	
2025-01-14 02:58:57.23	339.58	19.91	
2025-01-14 02:58:57.44	339.53	19.93	
2025-01-14 02:58:57.64	339.48	19.94	
2025-01-14 02:58:57.85	339.43	19.96	
2025-01-14 02:58:58.05	339.38	19.97	
2025-01-14 02:58:58.26	339.32	19.99	
2025-01-14 02:58:58.46	339.27	20.00	
2025-01-14 02:58:58.67	339.22	20.02	
2025-01-14 02:58:58.87	339.17	20.03	
2025-01-14 02:58:59.08	339.12	20.05	
2025-01-14 02:58:59.28	339.07	20.06	
2025-01-14 02:58:59.49	339.01	20.07	
2025-01-14 02:58:59.69	338.96	20.09	
2025-01-14 02:58:59.90	338.91	20.10	
2025-01-14 02:59:00.10	338.86	20.12	
2025-01-14 02:59:00.31	338.80	20.13	
2025-01-14 02:59:00.51	338.75	20.15	
2025-01-14 02:59:00.72	338.70	20.16	
2025-01-14 02:59:00.92	338.65	20.18	
2025-01-14 02:59:01.13	338.60	20.19	
2025-01-14 02:59:01.33	338.54	20.21	
2025-01-14 02:59:01.54	338.49	20.22	
2025-01-14 02:59:01.74	338.44	20.24	
2025-01-14 02:59:01.95	338.38	20.25	
2025-01-14 02:59:02.15	338.33	20.27	
2025-01-14 02:59:02.36	338.28	20.28	
2025-01-14 02:59:02.56	338.23	20.29	
2025-01-14 02:59:02.77	338.17	20.31	
2025-01-14 02:59:02.97	338.12	20.32	
2025-01-14 02:59:03.18	338.07	20.34	
2025-01-14 02:59:03.39	338.01	20.35	
2025-01-14 02:59:03.59	337.96	20.37	
2025-01-14 02:59:03.79	337.91	20.38	
2025-01-14 02:59:04.00	337.86	20.40	
2025-01-14 02:59:04.20	337.80	20.41	
2025-01-14 02:59:04.41	337.75	20.43	
2025-01-14 02:59:04.61	337.70	20.44	
2025-01-14 02:59:04.82	337.64	20.45	
2025-01-14 02:59:05.02	337.59	20.47	
2025-01-14 02:59:05.23	337.54	20.48	
2025-01-14 02:59:05.43	337.48	20.50	
2025-01-14 02:59:05.64	337.43	20.51	
2025-01-14 02:59:05.84	337.38	20.53	
2025-01-14 02:59:06.05	337.32	20.54	
2025-01-14 02:59:06.25	337.27	20.55	
2025-01-14 02:59:06.46	337.21	20.57	
2025-01-14 02:59:06.66	337.16	20.58	
2025-01-14 02:59:06.87	337.11	20.60	
2025-01-14 02:59:07.08	337.05	20.61	
2025-01-14 02:59:07.28	337.00	20.63	
2025-01-14 02:59:07.49	336.94	20.64	
2025-01-14 02:59:07.69	336.89	20.65	
2025-01-14 02:59:07.91	336.83	20.67	
2025-01-14 02:59:08.12	336.78	20.68	
2025-01-14 02:59:08.32	336.72	20.70	
2025-01-14 02:59:08.53	336.67	20.71	
2025-01-14 02:59:08.73	336.61	20.73	
2025-01-14 02:59:08.95	336.56	20.74	
2025-01-14 02:59:09.15	336.50	20.75	
2025-01-14 02:59:09.36	336.45	20.77	
2025-01-14 02:59:09.57	336.39	20.78	
2025-01-14 02:59:09.77	336.34	20.80	
2025-01-14 02:59:09.98	336.28	20.81	
2025-01-14 02:59:10.18	336.23	20.82	
2025-01-14 02:59:10.39	336.17	20.84	
2025-01-14 02:59:10.59	336.12	20.85	
2025-01-14 02:59:10.79	336.06	20.87	
2025-01-14 02:59:11.00	336.01	20.88	
2025-01-14 02:59:11.20	335.95	20.89	
2025-01-14 02:59:11.41	335.90	20.91	
2025-01-14 02:59:11.61	335.84	20.92	
2025-01-14 02:59:11.82	335.79	20.94	
2025-01-14 02:59:12.02	335.73	20.95	
2025-01-14 02:59:12.23	335.68	20.96	
2025-01-14 02:59:12.43	335.62	20.98	
2025-01-14 02:59:12.64	335.57	20.99	
2025-01-14 02:59:12.85	335.51	21.00	
2025-01-14 02:59:13.05	335.46	21.02	
2025-01-14 02:59:13.26	335.40	21.03	
2025-01-14 02:59:13.46	335.34	21.05	
2025-01-14 02:59:13.67	335.29	21.06	
2025-01-14 02:59:13.87	335.23	21.07	
2025-01-14 02:59:14.08	335.18	21.09	
2025-01-14 02:59:14.28	335.12	21.10	
2025-01-14 02:59:14.49	335.06	21.11	
2025-01-14 02:59:14.69	335.01	21.13	
2025-01-14 02:59:14.89	334.95	21.14	
2025-01-14 02:59:15.10	334.90	21.15	
2025-01-14 02:59:15.30	334.84	21.17	
2025-01-14 02:59:15.51	334.79	21.18	
2025-01-14 02:59:15.71	334.73	21.19	
2025-01-14 02:59:15.92	334.67	21.21	
2025-01-14 02:59:16.12	334.62	21.22	
2025-01-14 02:59:16.33	334.56	21.23	
2025-01-14 02:59:16.53	334.51	21.25	
2025-01-14 02:59:16.74	334.45	21.26	
2025-01-14 02:59:16.95	334.39	21.27	
2025-01-14 02:59:17.15	334.33	21.29	
2025-01-14 02:59:17.36	334.28	21.30	
2025-01-14 02:59:17.56	334.22	21.31	
2025-01-14 02:59:17.77	334.16	21.33	
2025-01-14 02:59:17.97	334.11	21.34	
2025-01-14 02:59:18.18	334.05	21.35	
2025-01-14 02:59:18.39	333.99	21.37	
2025-01-14 02:59:18.59	333.94	21.38	
2025-01-14 02:59:18.79	333.88	21.39	
2025-01-14 02:59:19.00	333.82	21.41	
2025-01-14 02:59:19.21	333.76	21.42	
2025-01-14 02:59:19.41	333.71	21.43	
2025-01-14 02:59:19.61	333.65	21.45	
2025-01-14 02:59:19.82	333.59	21.46	
2025-01-14 02:59:20.03	333.53	21.47	
2025-01-14 02:59:20.23	333.48	21.48	
2025-01-14 02:59:20.44	333.42	21.50	
2025-01-14 02:59:20.64	333.36	21.51	
2025-01-14 02:59:20.86	333.30	21.52	
2025-01-14 02:59:21.07	333.24	21.54	
2025-01-14 02:59:21.27	333.19	21.55	
2025-01-14 02:59:21.48	333.13	21.56	
2025-01-14 02:59:21.68	333.07	21.58	
2025-01-14 02:59:21.89	333.01	21.59	
2025-01-14 02:59:22.09	332.96	21.60	
2025-01-14 02:59:22.30	332.90	21.61	
2025-01-14 02:59:22.50	332.84	21.63	
2025-01-14 02:59:22.70	332.78	21.64	
2025-01-14 02:59:22.91	332.72	21.65	
2025-01-14 02:59:23.11	332.67	21.66	
2025-01-14 02:59:23.31	332.61	21.68	
2025-01-14 02:59:23.52	332.55	21.69	
2025-01-14 02:59:23.72	332.49	21.70	
2025-01-14 02:59:23.93	332.44	21.71	
2025-01-14 02:59:24.13	332.38	21.73	
2025-01-14 02:59:24.34	332.32	21.74	
2025-01-14 02:59:24.54	332.26	21.75	
2025-01-14 02:59:24.75	332.20	21.76	
2025-01-14 02:59:24.95	332.14	21.78	
2025-01-14 02:59:25.16	332.08	21.79	
2025-01-14 02:59:25.36	332.03	21.80	
2025-01-14 02:59:25.57	331.97	21.81	
2025-01-14 02:59:25.78	331.91	21.83	
2025-01-14 02:59:25.98	331.85	21.84	
2025-01-14 02:59:26.18	331.79	21.85	
2025-01-14 02:59:26.39	331.73	21.86	
2025-01-14 02:59:26.59	331.67	21.88	
2025-01-14 02:59:26.80	331.61	21.89	
2025-01-14 02:59:27.00	331.56	21.90	
2025-01-14 02:59:27.21	331.50	21.91	
2025-01-14 02:59:27.41	331.44	21.92	
2025-01-14 02:59:27.62	331.38	21.94	
2025-01-14 02:59:27.82	331.32	21.95	
2025-01-14 02:59:28.03	331.26	21.96	
2025-01-14 02:59:28.23	331.20	21.97	
2025-01-14 02:59:28.44	331.14	21.98	
2025-01-14 02:59:28.64	331.08	22.00	
2025-01-14 02:59:28.85	331.02	22.01	
2025-01-14 02:59:29.06	330.96	22.02	
2025-01-14 02:59:29.26	330.90	22.03	
2025-01-14 02:59:29.46	330.85	22.04	
2025-01-14 02:59:29.67	330.78	22.06	
2025-01-14 02:59:29.88	330.72	22.07	
2025-01-14 02:59:30.08	330.67	22.08	
2025-01-14 02:59:30.29	330.60	22.09	
2025-01-14 02:59:30.49	330.55	22.10	
2025-01-14 02:59:30.70	330.48	22.12	
2025-01-14 02:59:30.90	330.43	22.13	
2025-01-14 02:59:31.11	330.36	22.14	
2025-01-14 02:59:31.31	330.31	22.15	
2025-01-14 02:59:31.52	330.24	22.16	
2025-01-14 02:59:31.72	330.19	22.17	
2025-01-14 02:59:31.93	330.12	22.19	
2025-01-14 02:59:32.13	330.07	22.20	
2025-01-14 02:59:32.34	330.00	22.21	
2025-01-14 02:59:32.54	329.94	22.22	
2025-01-14 02:59:32.74	329.89	22.23	
2025-01-14 02:59:32.95	329.82	22.24	
2025-01-14 02:59:33.16	329.76	22.25	
2025-01-14 02:59:33.36	329.70	22.27	
2025-01-14 02:59:33.57	329.64	22.28	
2025-01-14 02:59:33.77	329.58	22.29	
2025-01-14 02:59:33.98	329.52	22.30	
2025-01-14 02:59:34.18	329.46	22.31	
2025-01-14 02:59:34.39	329.40	22.32	
2025-01-14 02:59:34.59	329.34	22.33	
2025-01-14 02:59:34.80	329.28	22.34	
2025-01-14 02:59:35.00	329.22	22.36	
2025-01-14 02:59:35.21	329.16	22.37	
2025-01-14 02:59:35.41	329.10	22.38	
2025-01-14 02:59:35.62	329.03	22.39	
2025-01-14 02:59:35.82	328.97	22.40	
2025-01-14 02:59:36.03	328.91	22.41	
2025-01-14 02:59:36.23	328.85	22.42	
2025-01-14 02:59:36.44	328.79	22.43	
2025-01-14 02:59:36.64	328.73	22.44	
2025-01-14 02:59:36.85	328.67	22.45	
2025-01-14 02:59:37.05	328.61	22.47	
2025-01-14 02:59:37.26	328.54	22.48	
2025-01-14 02:59:37.46	328.48	22.49	
2025-01-14 02:59:37.67	328.42	22.50	
2025-01-14 02:59:37.87	328.36	22.51	
2025-01-14 02:59:38.08	328.30	22.52	
2025-01-14 02:59:38.28	328.24	22.53	
2025-01-14 02:59:38.49	328.17	22.54	
2025-01-14 02:59:38.69	328.11	22.55	
2025-01-14 02:59:38.90	328.05	22.56	
2025-01-14 02:59:39.10	327.99	22.57	
2025-01-14 02:59:39.31	327.93	22.58	
2025-01-14 02:59:39.51	327.87	22.59	
2025-01-14 02:59:39.72	327.80	22.60	
2025-01-14 02:59:39.92	327.74	22.61	
2025-01-14 02:59:40.13	327.68	22.63	
2025-01-14 02:59:40.34	327.62	22.64	
2025-01-14 02:59:40.54	327.56	22.65	
2025-01-14 02:59:40.75	327.49	22.66	
2025-01-14 02:59:40.95	327.43	22.67	
2025-01-14 02:59:41.16	327.37	22.68	
2025-01-14 02:59:41.36	327.31	22.69	
2025-01-14 02:59:41.57	327.24	22.70	
2025-01-14 02:59:41.77	327.18	22.71	
2025-01-14 02:59:41.98	327.12	22.72	
2025-01-14 02:59:42.18	327.06	22.73	
2025-01-14 02:59:42.39	326.99	22.74	
2025-01-14 02:59:42.60	326.93	22.75	
2025-01-14 02:59:42.80	326.87	22.76	
2025-01-14 02:59:43.01	326.80	22.77	
2025-01-14 02:59:43.22	326.74	22.78	
2025-01-14 02:59:43.43	326.68	22.79	
2025-01-14 02:59:43.63	326.62	22.80	
2025-01-14 02:59:43.84	326.55	22.81	
2025-01-14 02:59:44.05	326.49	22.82	
2025-01-14 02:59:44.26	326.42	22.83	
2025-01-14 02:59:44.47	326.36	22.84	
2025-01-14 02:59:44.68	326.29	22.85	
2025-01-14 02:59:44.88	326.23	22.86	
2025-01-14 02:59:45.09	326.17	22.87	
2025-01-14 02:59:45.29	326.11	22.88	
2025-01-14 02:59:45.50	326.04	22.89	
2025-01-14 02:59:45.70	325.98	22.90	
2025-01-14 02:59:45.90	325.92	22.91	
2025-01-14 02:59:46.11	325.85	22.92	
2025-01-14 02:59:46.31	325.79	22.93	
2025-01-14 02:59:46.52	325.73	22.94	
2025-01-14 02:59:46.73	325.66	22.95	
2025-01-14 02:59:46.94	325.60	22.95	
2025-01-14 02:59:47.14	325.53	22.96	
2025-01-14 02:59:47.35	325.47	22.97	
2025-01-14 02:59:47.55	325.41	22.98	
2025-01-14 02:59:47.75	325.35	22.99	
2025-01-14 02:59:47.96	325.28	23.00	
2025-01-14 02:59:48.16	325.22	23.01	
2025-01-14 02:59:48.37	325.15	23.02	
2025-01-14 02:59:48.57	325.09	23.03	
2025-01-14 02:59:48.78	325.03	23.04	
2025-01-14 02:59:48.98	324.96	23.05	
2025-01-14 02:59:49.19	324.90	23.06	
2025-01-14 02:59:49.39	324.84	23.06	
2025-01-14 02:59:49.61	324.77	23.07	
2025-01-14 02:59:49.82	324.70	23.08	
2025-01-14 02:59:50.02	324.64	23.09	
2025-01-14 02:59:50.23	324.57	23.10	
2025-01-14 02:59:50.44	324.51	23.11	
2025-01-14 02:59:50.64	324.45	23.12	
2025-01-14 02:59:50.85	324.38	23.13	
2025-01-14 02:59:51.05	324.32	23.14	
2025-01-14 02:59:51.26	324.25	23.15	
2025-01-14 02:59:51.46	324.19	23.15	
2025-01-14 02:59:51.66	324.13	23.16	
2025-01-14 02:59:51.87	324.06	23.17	
2025-01-14 02:59:52.08	323.99	23.18	
2025-01-14 02:59:52.28	323.93	23.19	
2025-01-14 02:59:52.49	323.87	23.20	
2025-01-14 02:59:52.69	323.80	23.20	
2025-01-14 02:59:52.90	323.74	23.21	
2025-01-14 02:59:53.10	323.67	23.22	
2025-01-14 02:59:53.31	323.61	23.23	
2025-01-14 02:59:53.52	323.54	23.24	
2025-01-14 02:59:53.72	323.48	23.25	
2025-01-14 02:59:53.92	323.41	23.25	
2025-01-14 02:59:54.13	323.35	23.26	
2025-01-14 02:59:54.34	323.28	23.27	
2025-01-14 02:59:54.54	323.22	23.28	
2025-01-14 02:59:54.75	323.15	23.29	
2025-01-14 02:59:54.95	323.09	23.30	
2025-01-14 02:59:55.15	323.03	23.30	
2025-01-14 02:59:55.36	322.96	23.31	
2025-01-14 02:59:55.57	322.89	23.32	
2025-01-14 02:59:55.77	322.83	23.33	
2025-01-14 02:59:55.99	322.76	23.34	
2025-01-14 02:59:56.20	322.69	23.34	
2025-01-14 02:59:56.40	322.63	23.35	
2025-01-14 02:59:56.61	322.56	23.36	
2025-01-14 02:59:56.81	322.50	23.37	
2025-01-14 02:59:57.02	322.43	23.38	
2025-01-14 02:59:57.22	322.37	23.38	
2025-01-14 02:59:57.42	322.30	23.39	
2025-01-14 02:59:57.63	322.24	23.40	
2025-01-14 02:59:57.83	322.17	23.41	
2025-01-14 02:59:58.04	322.11	23.41	
2025-01-14 02:59:58.24	322.04	23.42	
2025-01-14 02:59:58.45	321.98	23.43	
2025-01-14 02:59:58.65	321.91	23.44	
2025-01-14 02:59:58.86	321.85	23.44	
2025-01-14 02:59:59.07	321.78	23.45	
2025-01-14 02:59:59.27	321.71	23.46	
2025-01-14 02:59:59.48	321.65	23.47	
2025-01-14 02:59:59.68	321.58	23.47	
2025-01-14 02:59:59.89	321.52	23.48	
2025-01-14 03:00:00.09	321.45	23.49	
2025-01-14 03:00:00.30	321.38	23.49	
2025-01-14 03:00:00.50	321.32	23.50	
2025-01-14 03:00:00.71	321.25	23.51	
2025-01-14 03:00:00.91	321.19	23.51	
2025-01-14 03:00:01.12	321.12	23.52	
2025-01-14 03:00:01.32	321.06	23.53	
2025-01-14 03:00:01.52	320.99	23.54	
2025-01-14 03:00:01.73	320.92	23.54	
2025-01-14 03:00:01.93	320.86	23.55	
2025-01-14 03:00:02.14	320.79	23.56	
2025-01-14 03:00:02.34	320.73	23.56	
2025-01-14 03:00:02.55	320.66	23.57	
2025-01-14 03:00:02.75	320.60	23.58	
2025-01-14 03:00:02.96	320.53	23.58	
2025-01-14 03:00:03.16	320.46	23.59	
2025-01-14 03:00:03.37	320.40	23.60	
2025-01-14 03:00:03.57	320.33	23.60	
2025-01-14 03:00:03.78	320.26	23.61	
2025-01-14 03:00:03.99	320.19	23.62	
2025-01-14 03:00:04.19	320.13	23.62	
2025-01-14 03:00:04.40	320.06	23.63	
2025-01-14 03:00:04.60	320.00	23.63	
2025-01-14 03:00:04.81	319.93	23.64	
2025-01-14 03:00:05.01	319.86	23.65	
2025-01-14 03:00:05.22	319.80	23.65	
2025-01-14 03:00:05.42	319.73	23.66	
2025-01-14 03:00:05.63	319.66	23.67	
2025-01-14 03:00:05.83	319.60	23.67	
2025-01-14 03:00:06.04	319.53	23.68	
2025-01-14 03:00:06.24	319.47	23.68	
2025-01-14 03:00:06.45	319.40	23.69	
2025-01-14 03:00:06.65	319.33	23.70	
2025-01-14 03:00:06.86	319.26	23.70	
2025-01-14 03:00:07.06	319.20	23.71	
2025-01-14 03:00:07.27	319.13	23.71	
2025-01-14 03:00:07.48	319.06	23.72	
2025-01-14 03:00:07.68	319.00	23.73	
2025-01-14 03:00:07.89	318.93	23.73	
2025-01-14 03:00:08.09	318.86	23.74	
2025-01-14 03:00:08.30	318.79	23.74	
2025-01-14 03:00:08.50	318.73	23.75	
2025-01-14 03:00:08.70	318.66	23.75	
2025-01-14 03:00:08.91	318.60	23.76	
2025-01-14 03:00:09.12	318.53	23.76	
2025-01-14 03:00:09.32	318.46	23.77	
2025-01-14 03:00:09.53	318.39	23.78	
2025-01-14 03:00:09.73	318.33	23.78	
2025-01-14 03:00:09.94	318.26	23.79	
2025-01-14 03:00:10.14	318.19	23.79	
2025-01-14 03:00:10.35	318.12	23.80	
2025-01-14 03:00:10.55	318.06	23.80	
2025-01-14 03:00:10.76	317.99	23.81	
2025-01-14 03:00:10.96	317.92	23.81	
2025-01-14 03:00:11.17	317.86	23.82	
2025-01-14 03:00:11.37	317.79	23.82	
2025-01-14 03:00:11.58	317.72	23.83	
2025-01-14 03:00:11.78	317.66	23.83	
2025-01-14 03:00:11.99	317.59	23.84	
2025-01-14 03:00:12.19	317.52	23.84	
2025-01-14 03:00:12.40	317.45	23.85	
2025-01-14 03:00:12.60	317.39	23.85	
2025-01-14 03:00:12.81	317.32	23.86	
2025-01-14 03:00:13.01	317.25	23.86	
2025-01-14 03:00:13.22	317.18	23.87	
2025-01-14 03:00:13.42	317.12	23.87	
2025-01-14 03:00:13.63	317.05	23.87	
2025-01-14 03:00:13.83	316.98	23.88	
2025-01-14 03:00:14.04	316.91	23.88	
2025-01-14 03:00:14.24	316.85	23.89	
2025-01-14 03:00:14.45	316.78	23.89	
2025-01-14 03:00:14.65	316.71	23.90	
2025-01-14 03:00:14.86	316.64	23.90	
2025-01-14 03:00:15.06	316.58	23.91	
2025-01-14 03:00:15.27	316.51	23.91	
2025-01-14 03:00:15.47	316.44	23.91	
2025-01-14 03:00:15.68	316.37	23.92	
2025-01-14 03:00:15.89	316.30	23.92	
2025-01-14 03:00:16.09	316.24	23.93	
2025-01-14 03:00:16.29	316.17	23.93	
2025-01-14 03:00:16.50	316.10	23.93	
2025-01-14 03:00:16.71	316.03	23.94	
2025-01-14 03:00:16.91	315.96	23.94	
2025-01-14 03:00:17.12	315.89	23.95	
2025-01-14 03:00:17.34	315.82	23.95	
2025-01-14 03:00:17.54	315.76	23.95	
2025-01-14 03:00:17.76	315.68	23.96	
2025-01-14 03:00:17.96	315.62	23.96	
2025-01-14 03:00:18.17	315.55	23.97	
2025-01-14 03:00:18.39	315.47	23.97	
2025-01-14 03:00:18.59	315.41	23.97	
2025-01-14 03:00:18.80	315.34	23.98	
2025-01-14 03:00:19.00	315.27	23.98	
2025-01-14 03:00:19.21	315.20	23.98	
2025-01-14 03:00:19.41	315.14	23.99	
2025-01-14 03:00:19.61	315.07	23.99	
2025-01-14 03:00:19.82	315.00	23.99	
2025-01-14 03:00:20.02	314.93	24.00	
2025-01-14 03:00:20.23	314.86	24.00	
2025-01-14 03:00:20.43	314.80	24.00	
2025-01-14 03:00:20.64	314.73	24.01	
2025-01-14 03:00:20.84	314.66	24.01	
2025-01-14 03:00:21.05	314.59	24.01	
2025-01-14 03:00:21.25	314.52	24.02	
2025-01-14 03:00:21.46	314.46	24.02	
2025-01-14 03:00:21.66	314.39	24.02	
2025-01-14 03:00:21.87	314.32	24.03	
2025-01-14 03:00:22.08	314.25	24.03	
2025-01-14 03:00:22.28	314.18	24.03	
2025-01-14 03:00:22.49	314.11	24.03	
2025-01-14 03:00:22.69	314.05	24.04	
2025-01-14 03:00:22.89	313.98	24.04	
2025-01-14 03:00:23.10	313.91	24.04	
2025-01-14 03:00:23.31	313.84	24.05	
2025-01-14 03:00:23.51	313.77	24.05	
2025-01-14 03:00:23.72	313.70	24.05	
2025-01-14 03:00:23.92	313.64	24.05	
2025-01-14 03:00:24.13	313.57	24.06	
2025-01-14 03:00:24.34	313.50	24.06	
2025-01-14 03:00:24.54	313.43	24.06	
2025-01-14 03:00:24.74	313.36	24.06	
2025-01-14 03:00:24.95	313.29	24.06	
2025-01-14 03:00:25.16	313.22	24.07	
2025-01-14 03:00:25.36	313.16	24.07	
2025-01-14 03:00:25.57	313.09	24.07	
2025-01-14 03:00:25.77	313.02	24.07	
2025-01-14 03:00:25.98	312.95	24.08	
2025-01-14 03:00:26.18	312.88	24.08	
2025-01-14 03:00:26.39	312.81	24.08	
2025-01-14 03:00:26.59	312.75	24.08	
2025-01-14 03:00:26.80	312.68	24.08	
2025-01-14 03:00:27.00	312.61	24.09	
2025-01-14 03:00:27.21	312.54	24.09	
2025-01-14 03:00:27.41	312.47	24.09	
2025-01-14 03:00:27.62	312.40	24.09	
2025-01-14 03:00:27.82	312.33	24.09	
2025-01-14 03:00:28.04	312.26	24.09	
2025-01-14 03:00:28.25	312.19	24.10	
2025-01-14 03:00:28.45	312.12	24.10	
2025-01-14 03:00:28.66	312.05	24.10	
2025-01-14 03:00:28.86	311.99	24.10	
2025-01-14 03:00:29.07	311.92	24.10	
2025-01-14 03:00:29.27	311.85	24.10	
2025-01-14 03:00:29.48	311.78	24.10	
2025-01-14 03:00:29.69	311.71	24.11	
2025-01-14 03:00:29.89	311.64	24.11	
2025-01-14 03:00:30.11	311.57	24.11	
2025-01-14 03:00:30.31	311.50	24.11	
2025-01-14 03:00:30.52	311.43	24.11	
2025-01-14 03:00:30.73	311.36	24.11	
2025-01-14 03:00:30.93	311.29	24.11	
2025-01-14 03:00:31.14	311.22	24.11	
2025-01-14 03:00:31.34	311.16	24.11	
2025-01-14 03:00:31.55	311.09	24.12	
2025-01-14 03:00:31.75	311.02	24.12	
2025-01-14 03:00:31.96	310.95	24.12	
2025-01-14 03:00:32.16	310.88	24.12	
2025-01-14 03:00:32.38	310.81	24.12	
2025-01-14 03:00:32.59	310.74	24.12	
2025-01-14 03:00:32.79	310.67	24.12	
2025-01-14 03:00:33.00	310.60	24.12	
2025-01-14 03:00:33.20	310.53	24.12	
2025-01-14 03:00:33.41	310.46	24.12	
2025-01-14 03:00:33.61	310.40	24.12	
2025-01-14 03:00:33.82	310.33	24.12	
2025-01-14 03:00:34.03	310.26	24.12	
2025-01-14 03:00:34.23	310.19	24.12	
2025-01-14 03:00:34.44	310.12	24.12	
2025-01-14 03:00:34.64	310.05	24.12	
2025-01-14 03:00:34.85	309.98	24.12	
2025-01-14 03:00:35.05	309.91	24.13	
2025-01-14 03:00:35.26	309.84	24.13	
2025-01-14 03:00:35.46	309.78	24.13	
2025-01-14 03:00:35.67	309.71	24.13	
2025-01-14 03:00:35.88	309.64	24.13	
2025-01-14 03:00:36.08	309.57	24.13	
2025-01-14 03:00:36.29	309.50	24.13	
2025-01-14 03:00:36.49	309.43	24.13	
2025-01-14 03:00:36.70	309.36	24.13	
2025-01-14 03:00:36.90	309.29	24.12	
2025-01-14 03:00:37.11	309.22	24.12	
2025-01-14 03:00:37.31	309.16	24.12	
2025-01-14 03:00:37.51	309.09	24.12	
2025-01-14 03:00:37.72	309.02	24.12	
2025-01-14 03:00:37.93	308.95	24.12	
2025-01-14 03:00:38.13	308.88	24.12	
2025-01-14 03:00:38.34	308.81	24.12	
2025-01-14 03:00:38.54	308.75	24.12	
2025-01-14 03:00:38.76	308.67	24.12	
2025-01-14 03:00:38.97	308.60	24.12	
2025-01-14 03:00:39.17	308.53	24.12	
2025-01-14 03:00:39.38	308.46	24.12	
2025-01-14 03:00:39.58	308.40	24.12	
2025-01-14 03:00:39.80	308.32	24.12	
2025-01-14 03:00:40.00	308.26	24.12	
2025-01-14 03:00:40.21	308.19	24.12	
2025-01-14 03:00:40.42	308.12	24.11	
2025-01-14 03:00:40.62	308.05	24.11	
2025-01-14 03:00:40.83	307.98	24.11	
2025-01-14 03:00:41.03	307.91	24.11	
2025-01-14 03:00:41.24	307.84	24.11	
2025-01-14 03:00:41.44	307.77	24.11	
2025-01-14 03:00:41.65	307.70	24.11	
2025-01-14 03:00:41.86	307.63	24.11	
2025-01-14 03:00:42.07	307.56	24.11	
2025-01-14 03:00:42.28	307.49	24.10	
2025-01-14 03:00:42.48	307.43	24.10	
2025-01-14 03:00:42.68	307.36	24.10	
2025-01-14 03:00:42.89	307.29	24.10	
2025-01-14 03:00:43.09	307.22	24.10	
2025-01-14 03:00:43.30	307.15	24.10	
2025-01-14 03:00:43.50	307.09	24.10	
2025-01-14 03:00:43.71	307.01	24.09	
2025-01-14 03:00:43.91	306.95	24.09	
2025-01-14 03:00:44.12	306.88	24.09	
2025-01-14 03:00:44.33	306.81	24.09	
2025-01-14 03:00:44.53	306.74	24.09	
2025-01-14 03:00:44.74	306.67	24.09	
2025-01-14 03:00:44.94	306.60	24.08	
2025-01-14 03:00:45.14	306.54	24.08	
2025-01-14 03:00:45.35	306.47	24.08	
2025-01-14 03:00:45.56	306.40	24.08	
2025-01-14 03:00:45.76	306.33	24.08	
2025-01-14 03:00:45.97	306.26	24.07	
2025-01-14 03:00:46.19	306.19	24.07	
2025-01-14 03:00:46.39	306.12	24.07	
2025-01-14 03:00:46.60	306.05	24.07	
2025-01-14 03:00:46.80	305.98	24.06	
2025-01-14 03:00:47.01	305.91	24.06	
2025-01-14 03:00:47.21	305.85	24.06	
2025-01-14 03:00:47.42	305.78	24.06	
2025-01-14 03:00:47.63	305.71	24.05	
2025-01-14 03:00:47.83	305.64	24.05	
2025-01-14 03:00:48.03	305.57	24.05	
2025-01-14 03:00:48.24	305.50	24.05	
2025-01-14 03:00:48.44	305.44	24.04	
2025-01-14 03:00:48.65	305.37	24.04	
2025-01-14 03:00:48.85	305.30	24.04	
2025-01-14 03:00:49.06	305.23	24.04	
2025-01-14 03:00:49.26	305.16	24.03	
2025-01-14 03:00:49.47	305.09	24.03	
2025-01-14 03:00:49.67	305.03	24.03	
2025-01-14 03:00:49.88	304.96	24.03	
2025-01-14 03:00:50.08	304.89	24.02	
2025-01-14 03:00:50.29	304.82	24.02	
2025-01-14 03:00:50.49	304.75	24.02	
2025-01-14 03:00:50.70	304.68	24.01	
2025-01-14 03:00:50.90	304.62	24.01	
2025-01-14 03:00:51.11	304.55	24.01	
2025-01-14 03:00:51.31	304.48	24.00	
2025-01-14 03:00:51.53	304.41	24.00	
2025-01-14 03:00:51.74	304.34	24.00	
2025-01-14 03:00:51.94	304.27	23.99	
2025-01-14 03:00:52.15	304.20	23.99	
2025-01-14 03:00:52.35	304.13	23.99	
2025-01-14 03:00:52.56	304.06	23.98	
2025-01-14 03:00:52.76	304.00	23.98	
2025-01-14 03:00:52.97	303.93	23.98	
2025-01-14 03:00:53.17	303.86	23.97	
2025-01-14 03:00:53.38	303.79	23.97	
2025-01-14 03:00:53.59	303.72	23.97	
2025-01-14 03:00:53.79	303.66	23.96	
2025-01-14 03:00:54.00	303.59	23.96	
2025-01-14 03:00:54.20	303.52	23.95	
2025-01-14 03:00:54.41	303.45	23.95	
2025-01-14 03:00:54.61	303.38	23.95	
2025-01-14 03:00:54.82	303.32	23.94	
2025-01-14 03:00:55.02	303.25	23.94	
2025-01-14 03:00:55.23	303.18	23.93	
2025-01-14 03:00:55.43	303.11	23.93	
2025-01-14 03:00:55.64	303.04	23.93	
2025-01-14 03:00:55.84	302.98	23.92	
2025-01-14 03:00:56.04	302.91	23.92	
2025-01-14 03:00:56.25	302.84	23.91	
2025-01-14 03:00:56.46	302.77	23.91	
2025-01-14 03:00:56.66	302.71	23.91	
2025-01-14 03:00:56.87	302.64	23.90	
2025-01-14 03:00:57.07	302.57	23.90	
2025-01-14 03:00:57.28	302.50	23.89	
2025-01-14 03:00:57.49	302.43	23.89	
2025-01-14 03:00:57.69	302.37	23.88	
2025-01-14 03:00:57.91	302.29	23.88	
2025-01-14 03:00:58.11	302.23	23.87	
2025-01-14 03:00:58.32	302.16	23.87	
2025-01-14 03:00:58.52	302.09	23.87	
2025-01-14 03:00:58.73	302.02	23.86	
2025-01-14 03:00:58.93	301.96	23.86	
2025-01-14 03:00:59.14	301.89	23.85	
2025-01-14 03:00:59.34	301.82	23.85	
2025-01-14 03:00:59.55	301.75	23.84	
2025-01-14 03:00:59.76	301.69	23.84	
2025-01-14 03:00:59.96	301.62	23.83	
2025-01-14 03:01:00.16	301.55	23.83	
2025-01-14 03:01:00.37	301.48	23.82	
2025-01-14 03:01:00.58	301.42	23.82	
2025-01-14 03:01:00.78	301.35	23.81	
2025-01-14 03:01:00.99	301.28	23.81	
2025-01-14 03:01:01.19	301.22	23.80	
2025-01-14 03:01:01.40	301.15	23.80	
2025-01-14 03:01:01.60	301.08	23.79	
2025-01-14 03:01:01.81	301.01	23.79	
