passes_logs/2025/01/14/SPB_Silybum_02/SPB_Silybum_02__20250114_223251_SUOMI_NPP_rec.log

#Pass ID: 20250114_223251_SUOMI NPP
#Satellite: SUOMI NPP
#Configuration: NPP
#Start time: 2025-01-14 22:32:51

#Version: 2.0.20230423
#Station: SPB_Silybum_02
#Location: 30.233357 lon 59.946436 lat
#TLE: 1 37849U 11061A   25014.14453206  .00000163  00000+0  98177-4 0  9992
#TLE: 2 37849  98.7445 315.1439 0001716  42.3577 317.7731 14.19537774684790

#Time	Az	El	Level	Level2	SNR	BER	Gain	Gain2
2025-01-14 22:32:53.29	27.04	4.10	
2025-01-14 22:32:53.49	27.06	4.11	
2025-01-14 22:32:53.70	27.07	4.12	
2025-01-14 22:32:53.91	27.09	4.13	
2025-01-14 22:32:54.11	27.11	4.14	
2025-01-14 22:32:54.32	27.13	4.15	
2025-01-14 22:32:54.52	27.14	4.16	
2025-01-14 22:32:54.73	27.16	4.18	
2025-01-14 22:32:54.93	27.18	4.19	
2025-01-14 22:32:55.14	27.20	4.20	
2025-01-14 22:32:55.34	27.21	4.21	
2025-01-14 22:32:55.55	27.23	4.22	
2025-01-14 22:32:55.75	27.25	4.23	
2025-01-14 22:32:55.96	27.27	4.24	
2025-01-14 22:32:56.16	27.28	4.26	
2025-01-14 22:32:56.36	27.30	4.27	
2025-01-14 22:32:56.57	27.32	4.28	
2025-01-14 22:32:56.78	27.34	4.29	
2025-01-14 22:32:56.98	27.35	4.30	
2025-01-14 22:32:57.19	27.37	4.31	
2025-01-14 22:32:57.39	27.39	4.33	
2025-01-14 22:32:57.60	27.41	4.34	
2025-01-14 22:32:57.80	27.43	4.35	
2025-01-14 22:32:58.01	27.44	4.36	
2025-01-14 22:32:58.22	27.46	4.37	
2025-01-14 22:32:58.42	27.48	4.38	
2025-01-14 22:32:58.63	27.50	4.40	
2025-01-14 22:32:58.83	27.51	4.41	
2025-01-14 22:32:59.04	27.53	4.42	
2025-01-14 22:32:59.24	27.55	4.43	
2025-01-14 22:32:59.45	27.57	4.44	
2025-01-14 22:32:59.66	27.59	4.45	
2025-01-14 22:32:59.86	27.60	4.46	
2025-01-14 22:33:00.06	27.62	4.48	
2025-01-14 22:33:00.27	27.64	4.49	
2025-01-14 22:33:00.49	27.66	4.50	
2025-01-14 22:33:00.69	27.68	4.51	
2025-01-14 22:33:00.89	27.69	4.52	
2025-01-14 22:33:01.10	27.71	4.53	
2025-01-14 22:33:01.31	27.73	4.55	
2025-01-14 22:33:01.51	27.75	4.56	
2025-01-14 22:33:01.72	27.77	4.57	
2025-01-14 22:33:01.92	27.78	4.58	
2025-01-14 22:33:02.12	27.80	4.59	
2025-01-14 22:33:02.33	27.82	4.60	
2025-01-14 22:33:02.54	27.84	4.62	
2025-01-14 22:33:02.74	27.86	4.63	
2025-01-14 22:33:02.95	27.87	4.64	
2025-01-14 22:33:03.15	27.89	4.65	
2025-01-14 22:33:03.36	27.91	4.66	
2025-01-14 22:33:03.56	27.93	4.67	
2025-01-14 22:33:03.77	27.95	4.69	
2025-01-14 22:33:03.97	27.96	4.70	
2025-01-14 22:33:04.18	27.98	4.71	
2025-01-14 22:33:04.38	28.00	4.72	
2025-01-14 22:33:04.59	28.02	4.73	
2025-01-14 22:33:04.79	28.04	4.74	
2025-01-14 22:33:05.00	28.06	4.75	
2025-01-14 22:33:05.21	28.07	4.77	
2025-01-14 22:33:05.41	28.09	4.78	
2025-01-14 22:33:05.61	28.11	4.79	
2025-01-14 22:33:05.82	28.13	4.80	
2025-01-14 22:33:06.02	28.15	4.81	
2025-01-14 22:33:06.23	28.16	4.82	
2025-01-14 22:33:06.43	28.18	4.84	
2025-01-14 22:33:06.64	28.20	4.85	
2025-01-14 22:33:06.85	28.22	4.86	
2025-01-14 22:33:07.05	28.24	4.87	
2025-01-14 22:33:07.26	28.26	4.88	
2025-01-14 22:33:07.46	28.27	4.89	
2025-01-14 22:33:07.67	28.29	4.91	
2025-01-14 22:33:07.87	28.31	4.92	
2025-01-14 22:33:08.08	28.33	4.93	
2025-01-14 22:33:08.28	28.35	4.94	
2025-01-14 22:33:08.49	28.37	4.95	
2025-01-14 22:33:08.69	28.38	4.96	
2025-01-14 22:33:08.90	28.40	4.98	
2025-01-14 22:33:09.10	28.42	4.99	
2025-01-14 22:33:09.31	28.44	5.00	
2025-01-14 22:33:09.52	28.46	5.01	
2025-01-14 22:33:09.72	28.48	5.02	
2025-01-14 22:33:09.93	28.50	5.04	
2025-01-14 22:33:10.13	28.51	5.05	
2025-01-14 22:33:10.34	28.53	5.06	
2025-01-14 22:33:10.54	28.55	5.07	
2025-01-14 22:33:10.75	28.57	5.08	
2025-01-14 22:33:10.95	28.59	5.09	
2025-01-14 22:33:11.16	28.61	5.11	
2025-01-14 22:33:11.36	28.63	5.12	
2025-01-14 22:33:11.57	28.64	5.13	
2025-01-14 22:33:11.77	28.66	5.14	
2025-01-14 22:33:11.98	28.68	5.15	
2025-01-14 22:33:12.18	28.70	5.16	
2025-01-14 22:33:12.39	28.72	5.18	
2025-01-14 22:33:12.59	28.74	5.19	
2025-01-14 22:33:12.80	28.76	5.20	
2025-01-14 22:33:13.00	28.77	5.21	
2025-01-14 22:33:13.21	28.79	5.22	
2025-01-14 22:33:13.41	28.81	5.23	
2025-01-14 22:33:13.62	28.83	5.25	
2025-01-14 22:33:13.82	28.85	5.26	
2025-01-14 22:33:14.03	28.87	5.27	
2025-01-14 22:33:14.23	28.89	5.28	
2025-01-14 22:33:14.43	28.91	5.29	
2025-01-14 22:33:14.64	28.92	5.30	
2025-01-14 22:33:14.85	28.94	5.32	
2025-01-14 22:33:15.05	28.96	5.33	
2025-01-14 22:33:15.26	28.98	5.34	
2025-01-14 22:33:15.46	29.00	5.35	
2025-01-14 22:33:15.68	29.02	5.36	
2025-01-14 22:33:15.89	29.04	5.38	
2025-01-14 22:33:16.09	29.06	5.39	
2025-01-14 22:33:16.30	29.08	5.40	
2025-01-14 22:33:16.50	29.10	5.41	
2025-01-14 22:33:16.71	29.12	5.42	
2025-01-14 22:33:16.91	29.13	5.44	
2025-01-14 22:33:17.12	29.15	5.45	
2025-01-14 22:33:17.32	29.17	5.46	
2025-01-14 22:33:17.53	29.19	5.47	
2025-01-14 22:33:17.73	29.21	5.48	
2025-01-14 22:33:17.94	29.23	5.49	
2025-01-14 22:33:18.14	29.25	5.51	
2025-01-14 22:33:18.35	29.27	5.52	
2025-01-14 22:33:18.55	29.29	5.53	
2025-01-14 22:33:18.75	29.31	5.54	
2025-01-14 22:33:18.96	29.32	5.55	
2025-01-14 22:33:19.17	29.34	5.57	
2025-01-14 22:33:19.37	29.36	5.58	
2025-01-14 22:33:19.58	29.38	5.59	
2025-01-14 22:33:19.78	29.40	5.60	
2025-01-14 22:33:19.99	29.42	5.61	
2025-01-14 22:33:20.19	29.44	5.62	
2025-01-14 22:33:20.40	29.46	5.64	
2025-01-14 22:33:20.60	29.48	5.65	
2025-01-14 22:33:20.81	29.50	5.66	
2025-01-14 22:33:21.01	29.52	5.67	
2025-01-14 22:33:21.22	29.54	5.68	
2025-01-14 22:33:21.42	29.56	5.70	
2025-01-14 22:33:21.63	29.58	5.71	
2025-01-14 22:33:21.83	29.59	5.72	
2025-01-14 22:33:22.04	29.61	5.73	
2025-01-14 22:33:22.24	29.63	5.74	
2025-01-14 22:33:22.45	29.65	5.75	
2025-01-14 22:33:22.66	29.67	5.77	
2025-01-14 22:33:22.86	29.69	5.78	
2025-01-14 22:33:23.07	29.71	5.79	
2025-01-14 22:33:23.27	29.73	5.80	
2025-01-14 22:33:23.48	29.75	5.81	
2025-01-14 22:33:23.68	29.77	5.83	
2025-01-14 22:33:23.89	29.79	5.84	
2025-01-14 22:33:24.09	29.81	5.85	
2025-01-14 22:33:24.30	29.83	5.86	
2025-01-14 22:33:24.50	29.85	5.87	
2025-01-14 22:33:24.71	29.87	5.89	
2025-01-14 22:33:24.91	29.89	5.90	
2025-01-14 22:33:25.12	29.91	5.91	
2025-01-14 22:33:25.32	29.93	5.92	
2025-01-14 22:33:25.53	29.95	5.93	
2025-01-14 22:33:25.74	29.97	5.95	
2025-01-14 22:33:25.94	29.98	5.96	
2025-01-14 22:33:26.15	30.00	5.97	
2025-01-14 22:33:26.35	30.02	5.98	
2025-01-14 22:33:26.56	30.04	5.99	
2025-01-14 22:33:26.76	30.06	6.00	
2025-01-14 22:33:26.97	30.08	6.02	
2025-01-14 22:33:27.17	30.10	6.03	
2025-01-14 22:33:27.37	30.12	6.04	
2025-01-14 22:33:27.58	30.14	6.05	
2025-01-14 22:33:27.79	30.16	6.06	
2025-01-14 22:33:27.99	30.18	6.08	
2025-01-14 22:33:28.21	30.20	6.09	
2025-01-14 22:33:28.41	30.22	6.10	
2025-01-14 22:33:28.62	30.24	6.11	
2025-01-14 22:33:28.82	30.26	6.12	
2025-01-14 22:33:29.03	30.28	6.14	
2025-01-14 22:33:29.23	30.30	6.15	
2025-01-14 22:33:29.43	30.32	6.16	
2025-01-14 22:33:29.64	30.34	6.17	
2025-01-14 22:33:29.85	30.36	6.18	
2025-01-14 22:33:30.05	30.38	6.20	
2025-01-14 22:33:30.26	30.40	6.21	
2025-01-14 22:33:30.46	30.42	6.22	
2025-01-14 22:33:30.66	30.44	6.23	
2025-01-14 22:33:30.87	30.46	6.24	
2025-01-14 22:33:31.08	30.48	6.26	
2025-01-14 22:33:31.28	30.50	6.27	
2025-01-14 22:33:31.49	30.52	6.28	
2025-01-14 22:33:31.69	30.54	6.29	
2025-01-14 22:33:31.90	30.56	6.30	
2025-01-14 22:33:32.10	30.58	6.32	
2025-01-14 22:33:32.31	30.60	6.33	
2025-01-14 22:33:32.52	30.62	6.34	
2025-01-14 22:33:32.72	30.64	6.35	
2025-01-14 22:33:32.92	30.66	6.36	
2025-01-14 22:33:33.13	30.68	6.38	
2025-01-14 22:33:33.33	30.70	6.39	
2025-01-14 22:33:33.54	30.72	6.40	
2025-01-14 22:33:33.75	30.74	6.41	
2025-01-14 22:33:33.95	30.76	6.42	
2025-01-14 22:33:34.16	30.78	6.44	
2025-01-14 22:33:34.36	30.80	6.45	
2025-01-14 22:33:34.57	30.83	6.46	
2025-01-14 22:33:34.79	30.85	6.47	
2025-01-14 22:33:34.99	30.87	6.49	
2025-01-14 22:33:35.20	30.89	6.50	
2025-01-14 22:33:35.40	30.91	6.51	
2025-01-14 22:33:35.61	30.93	6.52	
2025-01-14 22:33:35.81	30.95	6.53	
2025-01-14 22:33:36.02	30.97	6.55	
2025-01-14 22:33:36.22	30.99	6.56	
2025-01-14 22:33:36.43	31.01	6.57	
2025-01-14 22:33:36.64	31.03	6.58	
2025-01-14 22:33:36.84	31.05	6.59	
2025-01-14 22:33:37.04	31.07	6.61	
2025-01-14 22:33:37.25	31.09	6.62	
2025-01-14 22:33:37.46	31.11	6.63	
2025-01-14 22:33:37.66	31.13	6.64	
2025-01-14 22:33:37.87	31.15	6.65	
2025-01-14 22:33:38.07	31.17	6.67	
2025-01-14 22:33:38.28	31.20	6.68	
2025-01-14 22:33:38.48	31.22	6.69	
2025-01-14 22:33:38.69	31.24	6.70	
2025-01-14 22:33:38.89	31.26	6.71	
2025-01-14 22:33:39.10	31.28	6.73	
2025-01-14 22:33:39.30	31.30	6.74	
2025-01-14 22:33:39.51	31.32	6.75	
2025-01-14 22:33:39.71	31.34	6.76	
2025-01-14 22:33:39.92	31.36	6.78	
2025-01-14 22:33:40.13	31.38	6.79	
2025-01-14 22:33:40.33	31.40	6.80	
2025-01-14 22:33:40.54	31.42	6.81	
2025-01-14 22:33:40.75	31.44	6.82	
2025-01-14 22:33:40.95	31.46	6.84	
2025-01-14 22:33:41.16	31.49	6.85	
2025-01-14 22:33:41.36	31.51	6.86	
2025-01-14 22:33:41.57	31.53	6.87	
2025-01-14 22:33:41.77	31.55	6.88	
2025-01-14 22:33:41.98	31.57	6.90	
2025-01-14 22:33:42.18	31.59	6.91	
2025-01-14 22:33:42.38	31.61	6.92	
2025-01-14 22:33:42.59	31.63	6.93	
2025-01-14 22:33:42.80	31.65	6.95	
2025-01-14 22:33:43.00	31.67	6.96	
2025-01-14 22:33:43.21	31.69	6.97	
2025-01-14 22:33:43.41	31.72	6.98	
2025-01-14 22:33:43.62	31.74	6.99	
2025-01-14 22:33:43.83	31.76	7.01	
2025-01-14 22:33:44.03	31.78	7.02	
2025-01-14 22:33:44.24	31.80	7.03	
2025-01-14 22:33:44.44	31.82	7.04	
2025-01-14 22:33:44.65	31.84	7.06	
2025-01-14 22:33:44.85	31.86	7.07	
2025-01-14 22:33:45.06	31.88	7.08	
2025-01-14 22:33:45.26	31.91	7.09	
2025-01-14 22:33:45.47	31.93	7.10	
2025-01-14 22:33:45.67	31.95	7.12	
2025-01-14 22:33:45.88	31.97	7.13	
2025-01-14 22:33:46.08	31.99	7.14	
2025-01-14 22:33:46.29	32.01	7.15	
2025-01-14 22:33:46.49	32.03	7.16	
2025-01-14 22:33:46.69	32.05	7.18	
2025-01-14 22:33:46.90	32.08	7.19	
2025-01-14 22:33:47.10	32.10	7.20	
2025-01-14 22:33:47.31	32.12	7.21	
2025-01-14 22:33:47.51	32.14	7.23	
2025-01-14 22:33:47.72	32.16	7.24	
2025-01-14 22:33:47.92	32.18	7.25	
2025-01-14 22:33:48.13	32.20	7.26	
2025-01-14 22:33:48.33	32.22	7.27	
2025-01-14 22:33:48.54	32.25	7.29	
2025-01-14 22:33:48.74	32.27	7.30	
2025-01-14 22:33:48.95	32.29	7.31	
2025-01-14 22:33:49.15	32.31	7.32	
2025-01-14 22:33:49.36	32.33	7.34	
2025-01-14 22:33:49.56	32.35	7.35	
2025-01-14 22:33:49.77	32.37	7.36	
2025-01-14 22:33:49.97	32.40	7.37	
2025-01-14 22:33:50.18	32.42	7.38	
2025-01-14 22:33:50.39	32.44	7.40	
2025-01-14 22:33:50.59	32.46	7.41	
2025-01-14 22:33:50.80	32.48	7.42	
2025-01-14 22:33:51.00	32.50	7.43	
2025-01-14 22:33:51.21	32.53	7.45	
2025-01-14 22:33:51.42	32.55	7.46	
2025-01-14 22:33:51.62	32.57	7.47	
2025-01-14 22:33:51.83	32.59	7.48	
2025-01-14 22:33:52.03	32.61	7.49	
2025-01-14 22:33:52.24	32.64	7.51	
2025-01-14 22:33:52.44	32.66	7.52	
2025-01-14 22:33:52.65	32.68	7.53	
2025-01-14 22:33:52.85	32.70	7.54	
2025-01-14 22:33:53.06	32.72	7.56	
2025-01-14 22:33:53.26	32.74	7.57	
2025-01-14 22:33:53.47	32.77	7.58	
2025-01-14 22:33:53.67	32.79	7.59	
2025-01-14 22:33:53.88	32.81	7.61	
2025-01-14 22:33:54.10	32.83	7.62	
2025-01-14 22:33:54.30	32.85	7.63	
2025-01-14 22:33:54.51	32.88	7.64	
2025-01-14 22:33:54.71	32.90	7.66	
2025-01-14 22:33:54.92	32.92	7.67	
2025-01-14 22:33:55.14	32.94	7.68	
2025-01-14 22:33:55.34	32.97	7.69	
2025-01-14 22:33:55.55	32.99	7.71	
2025-01-14 22:33:55.76	33.01	7.72	
2025-01-14 22:33:55.96	33.03	7.73	
2025-01-14 22:33:56.17	33.06	7.74	
2025-01-14 22:33:56.37	33.08	7.75	
2025-01-14 22:33:56.58	33.10	7.77	
2025-01-14 22:33:56.78	33.12	7.78	
2025-01-14 22:33:56.99	33.14	7.79	
2025-01-14 22:33:57.19	33.17	7.80	
2025-01-14 22:33:57.39	33.19	7.82	
2025-01-14 22:33:57.60	33.21	7.83	
2025-01-14 22:33:57.81	33.23	7.84	
2025-01-14 22:33:58.01	33.25	7.85	
2025-01-14 22:33:58.23	33.28	7.87	
2025-01-14 22:33:58.44	33.30	7.88	
2025-01-14 22:33:58.64	33.32	7.89	
2025-01-14 22:33:58.85	33.35	7.90	
2025-01-14 22:33:59.05	33.37	7.92	
2025-01-14 22:33:59.26	33.39	7.93	
2025-01-14 22:33:59.46	33.41	7.94	
2025-01-14 22:33:59.67	33.43	7.95	
2025-01-14 22:33:59.88	33.46	7.97	
2025-01-14 22:34:00.08	33.48	7.98	
2025-01-14 22:34:00.29	33.50	7.99	
2025-01-14 22:34:00.50	33.53	8.00	
2025-01-14 22:34:00.71	33.55	8.02	
2025-01-14 22:34:00.91	33.57	8.03	
2025-01-14 22:34:01.12	33.59	8.04	
2025-01-14 22:34:01.32	33.62	8.05	
2025-01-14 22:34:01.53	33.64	8.07	
2025-01-14 22:34:01.73	33.66	8.08	
2025-01-14 22:34:01.94	33.68	8.09	
2025-01-14 22:34:02.14	33.71	8.10	
2025-01-14 22:34:02.35	33.73	8.11	
2025-01-14 22:34:02.55	33.75	8.13	
2025-01-14 22:34:02.76	33.77	8.14	
2025-01-14 22:34:02.96	33.80	8.15	
2025-01-14 22:34:03.17	33.82	8.16	
2025-01-14 22:34:03.38	33.84	8.18	
2025-01-14 22:34:03.59	33.87	8.19	
2025-01-14 22:34:03.80	33.89	8.20	
2025-01-14 22:34:04.01	33.91	8.21	
2025-01-14 22:34:04.21	33.93	8.23	
2025-01-14 22:34:04.42	33.96	8.24	
2025-01-14 22:34:04.62	33.98	8.25	
2025-01-14 22:34:04.82	34.00	8.26	
2025-01-14 22:34:05.03	34.03	8.28	
2025-01-14 22:34:05.23	34.05	8.29	
2025-01-14 22:34:05.44	34.07	8.30	
2025-01-14 22:34:05.64	34.09	8.31	
2025-01-14 22:34:05.85	34.12	8.33	
2025-01-14 22:34:06.05	34.14	8.34	
2025-01-14 22:34:06.26	34.16	8.35	
2025-01-14 22:34:06.47	34.19	8.36	
2025-01-14 22:34:06.67	34.21	8.38	
2025-01-14 22:34:06.89	34.23	8.39	
2025-01-14 22:34:07.10	34.26	8.40	
2025-01-14 22:34:07.30	34.28	8.41	
2025-01-14 22:34:07.51	34.30	8.43	
2025-01-14 22:34:07.71	34.33	8.44	
2025-01-14 22:34:07.92	34.35	8.45	
2025-01-14 22:34:08.12	34.37	8.46	
2025-01-14 22:34:08.33	34.40	8.48	
2025-01-14 22:34:08.53	34.42	8.49	
2025-01-14 22:34:08.74	34.44	8.50	
2025-01-14 22:34:08.96	34.47	8.51	
2025-01-14 22:34:09.16	34.49	8.53	
2025-01-14 22:34:09.37	34.51	8.54	
2025-01-14 22:34:09.57	34.54	8.55	
2025-01-14 22:34:09.78	34.56	8.56	
2025-01-14 22:34:09.98	34.58	8.58	
2025-01-14 22:34:10.19	34.61	8.59	
2025-01-14 22:34:10.40	34.63	8.60	
2025-01-14 22:34:10.60	34.65	8.61	
2025-01-14 22:34:10.81	34.68	8.63	
2025-01-14 22:34:11.01	34.70	8.64	
2025-01-14 22:34:11.21	34.72	8.65	
2025-01-14 22:34:11.42	34.75	8.66	
2025-01-14 22:34:11.63	34.77	8.68	
2025-01-14 22:34:11.83	34.79	8.69	
2025-01-14 22:34:12.04	34.82	8.70	
2025-01-14 22:34:12.24	34.84	8.71	
2025-01-14 22:34:12.45	34.87	8.73	
2025-01-14 22:34:12.65	34.89	8.74	
2025-01-14 22:34:12.86	34.91	8.75	
2025-01-14 22:34:13.06	34.94	8.76	
2025-01-14 22:34:13.27	34.96	8.78	
2025-01-14 22:34:13.47	34.98	8.79	
2025-01-14 22:34:13.68	35.01	8.80	
2025-01-14 22:34:13.88	35.03	8.81	
2025-01-14 22:34:14.09	35.05	8.83	
2025-01-14 22:34:14.29	35.08	8.84	
2025-01-14 22:34:14.50	35.10	8.85	
2025-01-14 22:34:14.70	35.13	8.86	
2025-01-14 22:34:14.91	35.15	8.88	
2025-01-14 22:34:15.12	35.17	8.89	
2025-01-14 22:34:15.32	35.20	8.90	
2025-01-14 22:34:15.53	35.22	8.91	
2025-01-14 22:34:15.73	35.24	8.93	
2025-01-14 22:34:15.94	35.27	8.94	
2025-01-14 22:34:16.14	35.29	8.95	
2025-01-14 22:34:16.35	35.32	8.96	
2025-01-14 22:34:16.55	35.34	8.98	
2025-01-14 22:34:16.75	35.36	8.99	
2025-01-14 22:34:16.96	35.39	9.00	
2025-01-14 22:34:17.17	35.41	9.02	
2025-01-14 22:34:17.37	35.44	9.03	
2025-01-14 22:34:17.58	35.46	9.04	
2025-01-14 22:34:17.78	35.48	9.05	
2025-01-14 22:34:17.99	35.51	9.07	
2025-01-14 22:34:18.19	35.53	9.08	
2025-01-14 22:34:18.40	35.56	9.09	
2025-01-14 22:34:18.60	35.58	9.10	
2025-01-14 22:34:18.81	35.61	9.12	
2025-01-14 22:34:19.01	35.63	9.13	
2025-01-14 22:34:19.22	35.65	9.14	
2025-01-14 22:34:19.42	35.68	9.15	
2025-01-14 22:34:19.63	35.70	9.17	
2025-01-14 22:34:19.83	35.73	9.18	
2025-01-14 22:34:20.04	35.75	9.19	
2025-01-14 22:34:20.24	35.77	9.20	
2025-01-14 22:34:20.45	35.80	9.22	
2025-01-14 22:34:20.65	35.82	9.23	
2025-01-14 22:34:20.86	35.85	9.24	
2025-01-14 22:34:21.06	35.87	9.25	
2025-01-14 22:34:21.27	35.90	9.27	
2025-01-14 22:34:21.47	35.92	9.28	
2025-01-14 22:34:21.68	35.95	9.29	
2025-01-14 22:34:21.89	35.97	9.30	
2025-01-14 22:34:22.10	36.00	9.32	
2025-01-14 22:34:22.31	36.02	9.33	
2025-01-14 22:34:22.52	36.05	9.34	
2025-01-14 22:34:22.72	36.07	9.36	
2025-01-14 22:34:22.94	36.10	9.37	
2025-01-14 22:34:23.14	36.12	9.38	
2025-01-14 22:34:23.35	36.15	9.39	
2025-01-14 22:34:23.55	36.17	9.41	
2025-01-14 22:34:23.76	36.19	9.42	
2025-01-14 22:34:23.98	36.22	9.43	
2025-01-14 22:34:24.18	36.25	9.44	
2025-01-14 22:34:24.39	36.27	9.46	
2025-01-14 22:34:24.60	36.30	9.47	
2025-01-14 22:34:24.80	36.32	9.48	
2025-01-14 22:34:25.01	36.35	9.50	
2025-01-14 22:34:25.21	36.37	9.51	
2025-01-14 22:34:25.42	36.39	9.52	
2025-01-14 22:34:25.62	36.42	9.53	
2025-01-14 22:34:25.83	36.44	9.55	
2025-01-14 22:34:26.03	36.47	9.56	
2025-01-14 22:34:26.24	36.49	9.57	
2025-01-14 22:34:26.44	36.52	9.58	
2025-01-14 22:34:26.65	36.54	9.60	
2025-01-14 22:34:26.86	36.57	9.61	
2025-01-14 22:34:27.06	36.59	9.62	
2025-01-14 22:34:27.27	36.62	9.64	
2025-01-14 22:34:27.47	36.64	9.65	
2025-01-14 22:34:27.68	36.67	9.66	
2025-01-14 22:34:27.88	36.69	9.67	
2025-01-14 22:34:28.09	36.72	9.69	
2025-01-14 22:34:28.29	36.74	9.70	
2025-01-14 22:34:28.50	36.77	9.71	
2025-01-14 22:34:28.70	36.79	9.72	
2025-01-14 22:34:28.91	36.82	9.74	
2025-01-14 22:34:29.11	36.84	9.75	
2025-01-14 22:34:29.32	36.87	9.76	
2025-01-14 22:34:29.52	36.89	9.77	
2025-01-14 22:34:29.73	36.92	9.79	
2025-01-14 22:34:29.94	36.95	9.80	
2025-01-14 22:34:30.14	36.97	9.81	
2025-01-14 22:34:30.35	37.00	9.83	
2025-01-14 22:34:30.55	37.02	9.84	
2025-01-14 22:34:30.76	37.05	9.85	
2025-01-14 22:34:30.96	37.07	9.86	
2025-01-14 22:34:31.16	37.10	9.88	
2025-01-14 22:34:31.37	37.12	9.89	
2025-01-14 22:34:31.57	37.15	9.90	
2025-01-14 22:34:31.78	37.17	9.91	
2025-01-14 22:34:31.99	37.20	9.93	
2025-01-14 22:34:32.19	37.23	9.94	
2025-01-14 22:34:32.39	37.25	9.95	
2025-01-14 22:34:32.60	37.28	9.96	
2025-01-14 22:34:32.80	37.30	9.98	
2025-01-14 22:34:33.01	37.33	9.99	
2025-01-14 22:34:33.21	37.35	10.00	
2025-01-14 22:34:33.42	37.38	10.01	
2025-01-14 22:34:33.62	37.40	10.03	
2025-01-14 22:34:33.83	37.43	10.04	
2025-01-14 22:34:34.03	37.45	10.05	
2025-01-14 22:34:34.24	37.48	10.07	
2025-01-14 22:34:34.44	37.51	10.08	
2025-01-14 22:34:34.65	37.53	10.09	
2025-01-14 22:34:34.85	37.56	10.10	
2025-01-14 22:34:35.06	37.58	10.12	
2025-01-14 22:34:35.26	37.61	10.13	
2025-01-14 22:34:35.47	37.64	10.14	
2025-01-14 22:34:35.67	37.66	10.15	
2025-01-14 22:34:35.88	37.69	10.17	
2025-01-14 22:34:36.08	37.71	10.18	
2025-01-14 22:34:36.29	37.74	10.19	
2025-01-14 22:34:36.49	37.76	10.20	
2025-01-14 22:34:36.70	37.79	10.22	
2025-01-14 22:34:36.90	37.82	10.23	
2025-01-14 22:34:37.10	37.84	10.24	
2025-01-14 22:34:37.31	37.87	10.26	
2025-01-14 22:34:37.51	37.89	10.27	
2025-01-14 22:34:37.72	37.92	10.28	
2025-01-14 22:34:37.92	37.95	10.29	
2025-01-14 22:34:38.13	37.97	10.31	
2025-01-14 22:34:38.33	38.00	10.32	
2025-01-14 22:34:38.53	38.02	10.33	
2025-01-14 22:34:38.75	38.05	10.35	
2025-01-14 22:34:38.95	38.08	10.36	
2025-01-14 22:34:39.16	38.10	10.37	
2025-01-14 22:34:39.37	38.13	10.38	
2025-01-14 22:34:39.57	38.16	10.40	
2025-01-14 22:34:39.77	38.18	10.41	
2025-01-14 22:34:39.99	38.21	10.42	
2025-01-14 22:34:40.20	38.24	10.44	
2025-01-14 22:34:40.40	38.26	10.45	
2025-01-14 22:34:40.61	38.29	10.46	
2025-01-14 22:34:40.81	38.32	10.47	
2025-01-14 22:34:41.02	38.34	10.49	
2025-01-14 22:34:41.22	38.37	10.50	
2025-01-14 22:34:41.43	38.40	10.51	
2025-01-14 22:34:41.63	38.42	10.52	
2025-01-14 22:34:41.84	38.45	10.54	
2025-01-14 22:34:42.04	38.48	10.55	
2025-01-14 22:34:42.25	38.50	10.56	
2025-01-14 22:34:42.45	38.53	10.58	
2025-01-14 22:34:42.66	38.56	10.59	
2025-01-14 22:34:42.86	38.58	10.60	
2025-01-14 22:34:43.07	38.61	10.61	
2025-01-14 22:34:43.27	38.63	10.63	
2025-01-14 22:34:43.48	38.66	10.64	
2025-01-14 22:34:43.68	38.69	10.65	
2025-01-14 22:34:43.89	38.72	10.66	
2025-01-14 22:34:44.09	38.74	10.68	
2025-01-14 22:34:44.30	38.77	10.69	
2025-01-14 22:34:44.51	38.80	10.70	
2025-01-14 22:34:44.71	38.82	10.72	
2025-01-14 22:34:44.92	38.85	10.73	
2025-01-14 22:34:45.12	38.88	10.74	
2025-01-14 22:34:45.32	38.90	10.75	
2025-01-14 22:34:45.53	38.93	10.77	
2025-01-14 22:34:45.74	38.96	10.78	
2025-01-14 22:34:45.94	38.98	10.79	
2025-01-14 22:34:46.15	39.01	10.81	
2025-01-14 22:34:46.35	39.04	10.82	
2025-01-14 22:34:46.56	39.07	10.83	
2025-01-14 22:34:46.76	39.09	10.84	
2025-01-14 22:34:46.97	39.12	10.86	
2025-01-14 22:34:47.17	39.15	10.87	
2025-01-14 22:34:47.39	39.18	10.88	
2025-01-14 22:34:47.60	39.20	10.90	
2025-01-14 22:34:47.80	39.23	10.91	
2025-01-14 22:34:48.01	39.26	10.92	
2025-01-14 22:34:48.21	39.28	10.93	
2025-01-14 22:34:48.42	39.31	10.95	
2025-01-14 22:34:48.62	39.34	10.96	
2025-01-14 22:34:48.83	39.37	10.97	
2025-01-14 22:34:49.04	39.39	10.99	
2025-01-14 22:34:49.24	39.42	11.00	
2025-01-14 22:34:49.45	39.45	11.01	
2025-01-14 22:34:49.65	39.48	11.02	
2025-01-14 22:34:49.86	39.50	11.04	
2025-01-14 22:34:50.06	39.53	11.05	
2025-01-14 22:34:50.27	39.56	11.06	
2025-01-14 22:34:50.48	39.59	11.08	
2025-01-14 22:34:50.68	39.61	11.09	
2025-01-14 22:34:50.89	39.64	11.10	
2025-01-14 22:34:51.09	39.67	11.11	
2025-01-14 22:34:51.30	39.70	11.13	
2025-01-14 22:34:51.50	39.72	11.14	
2025-01-14 22:34:51.72	39.75	11.15	
2025-01-14 22:34:51.92	39.78	11.17	
2025-01-14 22:34:52.13	39.81	11.18	
2025-01-14 22:34:52.34	39.84	11.19	
2025-01-14 22:34:52.54	39.86	11.20	
2025-01-14 22:34:52.74	39.89	11.22	
2025-01-14 22:34:52.95	39.92	11.23	
2025-01-14 22:34:53.15	39.95	11.24	
2025-01-14 22:34:53.36	39.98	11.26	
2025-01-14 22:34:53.57	40.00	11.27	
2025-01-14 22:34:53.77	40.03	11.28	
2025-01-14 22:34:53.97	40.06	11.29	
2025-01-14 22:34:54.18	40.09	11.31	
2025-01-14 22:34:54.39	40.12	11.32	
2025-01-14 22:34:54.59	40.14	11.33	
2025-01-14 22:34:54.79	40.17	11.34	
2025-01-14 22:34:55.00	40.20	11.36	
2025-01-14 22:34:55.21	40.23	11.37	
2025-01-14 22:34:55.41	40.25	11.38	
2025-01-14 22:34:55.62	40.28	11.40	
2025-01-14 22:34:55.82	40.31	11.41	
2025-01-14 22:34:56.03	40.34	11.42	
2025-01-14 22:34:56.23	40.37	11.43	
2025-01-14 22:34:56.44	40.40	11.45	
2025-01-14 22:34:56.64	40.42	11.46	
2025-01-14 22:34:56.85	40.45	11.47	
2025-01-14 22:34:57.05	40.48	11.49	
2025-01-14 22:34:57.26	40.51	11.50	
2025-01-14 22:34:57.46	40.54	11.51	
2025-01-14 22:34:57.67	40.57	11.52	
2025-01-14 22:34:57.88	40.59	11.54	
2025-01-14 22:34:58.08	40.62	11.55	
2025-01-14 22:34:58.28	40.65	11.56	
2025-01-14 22:34:58.49	40.68	11.58	
2025-01-14 22:34:58.70	40.71	11.59	
2025-01-14 22:34:58.90	40.74	11.60	
2025-01-14 22:34:59.11	40.76	11.61	
2025-01-14 22:34:59.31	40.79	11.63	
2025-01-14 22:34:59.52	40.82	11.64	
2025-01-14 22:34:59.72	40.85	11.65	
2025-01-14 22:34:59.93	40.88	11.67	
2025-01-14 22:35:00.13	40.91	11.68	
2025-01-14 22:35:00.34	40.94	11.69	
2025-01-14 22:35:00.54	40.96	11.70	
2025-01-14 22:35:00.75	40.99	11.72	
2025-01-14 22:35:00.95	41.02	11.73	
2025-01-14 22:35:01.16	41.05	11.74	
2025-01-14 22:35:01.36	41.08	11.76	
2025-01-14 22:35:01.57	41.11	11.77	
2025-01-14 22:35:01.77	41.14	11.78	
2025-01-14 22:35:01.98	41.17	11.79	
2025-01-14 22:35:02.19	41.19	11.81	
2025-01-14 22:35:02.39	41.22	11.82	
2025-01-14 22:35:02.60	41.25	11.83	
2025-01-14 22:35:02.80	41.28	11.85	
2025-01-14 22:35:03.01	41.31	11.86	
2025-01-14 22:35:03.21	41.34	11.87	
2025-01-14 22:35:03.42	41.37	11.88	
2025-01-14 22:35:03.62	41.40	11.90	
2025-01-14 22:35:03.83	41.43	11.91	
2025-01-14 22:35:04.04	41.46	11.92	
2025-01-14 22:35:04.24	41.48	11.94	
2025-01-14 22:35:04.44	41.51	11.95	
2025-01-14 22:35:04.65	41.54	11.96	
2025-01-14 22:35:04.85	41.57	11.97	
2025-01-14 22:35:05.06	41.60	11.99	
2025-01-14 22:35:05.26	41.63	12.00	
2025-01-14 22:35:05.47	41.66	12.01	
2025-01-14 22:35:05.67	41.69	12.03	
2025-01-14 22:35:05.88	41.72	12.04	
2025-01-14 22:35:06.08	41.75	12.05	
2025-01-14 22:35:06.29	41.78	12.06	
2025-01-14 22:35:06.49	41.81	12.08	
2025-01-14 22:35:06.70	41.84	12.09	
2025-01-14 22:35:06.90	41.86	12.10	
2025-01-14 22:35:07.11	41.89	12.12	
2025-01-14 22:35:07.31	41.92	12.13	
2025-01-14 22:35:07.52	41.95	12.14	
2025-01-14 22:35:07.72	41.98	12.15	
2025-01-14 22:35:07.93	42.01	12.17	
2025-01-14 22:35:08.13	42.04	12.18	
2025-01-14 22:35:08.34	42.07	12.19	
2025-01-14 22:35:08.55	42.10	12.21	
2025-01-14 22:35:08.75	42.13	12.22	
2025-01-14 22:35:08.95	42.16	12.23	
2025-01-14 22:35:09.16	42.19	12.24	
2025-01-14 22:35:09.37	42.22	12.26	
2025-01-14 22:35:09.57	42.25	12.27	
2025-01-14 22:35:09.77	42.28	12.28	
2025-01-14 22:35:09.98	42.31	12.30	
2025-01-14 22:35:10.19	42.34	12.31	
2025-01-14 22:35:10.39	42.37	12.32	
2025-01-14 22:35:10.60	42.40	12.33	
2025-01-14 22:35:10.80	42.43	12.35	
2025-01-14 22:35:11.00	42.46	12.36	
2025-01-14 22:35:11.21	42.49	12.37	
2025-01-14 22:35:11.42	42.52	12.39	
2025-01-14 22:35:11.62	42.55	12.40	
2025-01-14 22:35:11.82	42.58	12.41	
2025-01-14 22:35:12.03	42.61	12.42	
2025-01-14 22:35:12.24	42.64	12.44	
2025-01-14 22:35:12.44	42.67	12.45	
2025-01-14 22:35:12.65	42.70	12.46	
2025-01-14 22:35:12.85	42.73	12.48	
2025-01-14 22:35:13.07	42.76	12.49	
2025-01-14 22:35:13.28	42.79	12.50	
2025-01-14 22:35:13.48	42.82	12.51	
2025-01-14 22:35:13.69	42.85	12.53	
2025-01-14 22:35:13.89	42.88	12.54	
2025-01-14 22:35:14.11	42.91	12.55	
2025-01-14 22:35:14.32	42.94	12.57	
2025-01-14 22:35:14.52	42.97	12.58	
2025-01-14 22:35:14.73	43.00	12.59	
2025-01-14 22:35:14.93	43.03	12.61	
2025-01-14 22:35:15.14	43.07	12.62	
2025-01-14 22:35:15.34	43.10	12.63	
2025-01-14 22:35:15.55	43.13	12.64	
2025-01-14 22:35:15.75	43.16	12.66	
2025-01-14 22:35:15.96	43.19	12.67	
2025-01-14 22:35:16.16	43.22	12.68	
2025-01-14 22:35:16.37	43.25	12.70	
2025-01-14 22:35:16.58	43.28	12.71	
2025-01-14 22:35:16.78	43.31	12.72	
2025-01-14 22:35:16.99	43.34	12.73	
2025-01-14 22:35:17.19	43.37	12.75	
2025-01-14 22:35:17.40	43.40	12.76	
2025-01-14 22:35:17.61	43.43	12.77	
2025-01-14 22:35:17.81	43.46	12.79	
2025-01-14 22:35:18.01	43.49	12.80	
2025-01-14 22:35:18.22	43.53	12.81	
2025-01-14 22:35:18.44	43.56	12.82	
2025-01-14 22:35:18.64	43.59	12.84	
2025-01-14 22:35:18.85	43.62	12.85	
2025-01-14 22:35:19.05	43.65	12.86	
2025-01-14 22:35:19.26	43.68	12.88	
2025-01-14 22:35:19.46	43.71	12.89	
2025-01-14 22:35:19.67	43.74	12.90	
2025-01-14 22:35:19.88	43.78	12.92	
2025-01-14 22:35:20.08	43.81	12.93	
2025-01-14 22:35:20.29	43.84	12.94	
2025-01-14 22:35:20.51	43.87	12.95	
2025-01-14 22:35:20.71	43.90	12.97	
2025-01-14 22:35:20.92	43.93	12.98	
2025-01-14 22:35:21.12	43.96	12.99	
2025-01-14 22:35:21.33	44.00	13.01	
2025-01-14 22:35:21.53	44.03	13.02	
2025-01-14 22:35:21.74	44.06	13.03	
2025-01-14 22:35:21.94	44.09	13.04	
2025-01-14 22:35:22.15	44.12	13.06	
2025-01-14 22:35:22.35	44.15	13.07	
2025-01-14 22:35:22.56	44.18	13.08	
2025-01-14 22:35:22.76	44.21	13.10	
2025-01-14 22:35:22.97	44.25	13.11	
2025-01-14 22:35:23.18	44.28	13.12	
2025-01-14 22:35:23.38	44.31	13.13	
2025-01-14 22:35:23.59	44.34	13.15	
2025-01-14 22:35:23.79	44.37	13.16	
2025-01-14 22:35:24.00	44.40	13.17	
2025-01-14 22:35:24.21	44.44	13.19	
2025-01-14 22:35:24.41	44.47	13.20	
2025-01-14 22:35:24.62	44.50	13.21	
2025-01-14 22:35:24.82	44.53	13.22	
2025-01-14 22:35:25.03	44.56	13.24	
2025-01-14 22:35:25.23	44.59	13.25	
2025-01-14 22:35:25.44	44.63	13.26	
2025-01-14 22:35:25.64	44.66	13.27	
2025-01-14 22:35:25.85	44.69	13.29	
2025-01-14 22:35:26.05	44.72	13.30	
2025-01-14 22:35:26.26	44.75	13.31	
2025-01-14 22:35:26.46	44.78	13.33	
2025-01-14 22:35:26.67	44.82	13.34	
2025-01-14 22:35:26.87	44.85	13.35	
2025-01-14 22:35:27.08	44.88	13.36	
2025-01-14 22:35:27.29	44.91	13.38	
2025-01-14 22:35:27.49	44.94	13.39	
2025-01-14 22:35:27.70	44.98	13.40	
2025-01-14 22:35:27.90	45.01	13.42	
2025-01-14 22:35:28.11	45.04	13.43	
2025-01-14 22:35:28.31	45.07	13.44	
2025-01-14 22:35:28.52	45.11	13.45	
2025-01-14 22:35:28.73	45.14	13.47	
2025-01-14 22:35:28.93	45.17	13.48	
2025-01-14 22:35:29.14	45.20	13.49	
2025-01-14 22:35:29.34	45.23	13.51	
2025-01-14 22:35:29.55	45.27	13.52	
2025-01-14 22:35:29.75	45.30	13.53	
2025-01-14 22:35:29.96	45.33	13.54	
2025-01-14 22:35:30.16	45.36	13.56	
2025-01-14 22:35:30.37	45.40	13.57	
2025-01-14 22:35:30.57	45.43	13.58	
2025-01-14 22:35:30.78	45.46	13.60	
2025-01-14 22:35:30.98	45.49	13.61	
2025-01-14 22:35:31.19	45.53	13.62	
2025-01-14 22:35:31.40	45.56	13.63	
2025-01-14 22:35:31.60	45.59	13.65	
2025-01-14 22:35:31.81	45.63	13.66	
2025-01-14 22:35:32.01	45.66	13.67	
2025-01-14 22:35:32.21	45.69	13.68	
2025-01-14 22:35:32.42	45.72	13.70	
2025-01-14 22:35:32.63	45.76	13.71	
2025-01-14 22:35:32.83	45.79	13.72	
2025-01-14 22:35:33.04	45.82	13.74	
2025-01-14 22:35:33.24	45.85	13.75	
2025-01-14 22:35:33.45	45.89	13.76	
2025-01-14 22:35:33.65	45.92	13.77	
2025-01-14 22:35:33.86	45.95	13.79	
2025-01-14 22:35:34.06	45.98	13.80	
2025-01-14 22:35:34.27	46.02	13.81	
2025-01-14 22:35:34.47	46.05	13.82	
2025-01-14 22:35:34.68	46.08	13.84	
2025-01-14 22:35:34.89	46.12	13.85	
2025-01-14 22:35:35.09	46.15	13.86	
2025-01-14 22:35:35.30	46.18	13.88	
2025-01-14 22:35:35.50	46.22	13.89	
2025-01-14 22:35:35.70	46.25	13.90	
2025-01-14 22:35:35.91	46.28	13.91	
2025-01-14 22:35:36.12	46.32	13.93	
2025-01-14 22:35:36.32	46.35	13.94	
2025-01-14 22:35:36.53	46.38	13.95	
2025-01-14 22:35:36.73	46.41	13.97	
2025-01-14 22:35:36.94	46.45	13.98	
2025-01-14 22:35:37.15	46.48	13.99	
2025-01-14 22:35:37.36	46.52	14.00	
2025-01-14 22:35:37.57	46.55	14.02	
2025-01-14 22:35:37.77	46.58	14.03	
2025-01-14 22:35:37.98	46.62	14.04	
2025-01-14 22:35:38.18	46.65	14.05	
2025-01-14 22:35:38.39	46.68	14.07	
2025-01-14 22:35:38.59	46.72	14.08	
2025-01-14 22:35:38.79	46.75	14.09	
2025-01-14 22:35:39.00	46.78	14.11	
2025-01-14 22:35:39.20	46.82	14.12	
2025-01-14 22:35:39.41	46.85	14.13	
2025-01-14 22:35:39.61	46.88	14.14	
2025-01-14 22:35:39.82	46.92	14.16	
2025-01-14 22:35:40.03	46.95	14.17	
2025-01-14 22:35:40.23	46.99	14.18	
2025-01-14 22:35:40.44	47.02	14.19	
2025-01-14 22:35:40.64	47.05	14.21	
2025-01-14 22:35:40.86	47.09	14.22	
2025-01-14 22:35:41.07	47.12	14.23	
2025-01-14 22:35:41.28	47.16	14.25	
2025-01-14 22:35:41.48	47.19	14.26	
2025-01-14 22:35:41.69	47.23	14.27	
2025-01-14 22:35:41.91	47.26	14.29	
2025-01-14 22:35:42.11	47.30	14.30	
2025-01-14 22:35:42.32	47.33	14.31	
2025-01-14 22:35:42.53	47.37	14.32	
2025-01-14 22:35:42.73	47.40	14.34	
2025-01-14 22:35:42.95	47.44	14.35	
2025-01-14 22:35:43.16	47.47	14.36	
2025-01-14 22:35:43.36	47.50	14.37	
2025-01-14 22:35:43.57	47.54	14.39	
2025-01-14 22:35:43.77	47.57	14.40	
2025-01-14 22:35:43.98	47.61	14.41	
2025-01-14 22:35:44.18	47.64	14.43	
2025-01-14 22:35:44.39	47.68	14.44	
2025-01-14 22:35:44.59	47.71	14.45	
2025-01-14 22:35:44.80	47.74	14.46	
2025-01-14 22:35:45.00	47.78	14.48	
2025-01-14 22:35:45.20	47.81	14.49	
2025-01-14 22:35:45.41	47.85	14.50	
2025-01-14 22:35:45.61	47.88	14.51	
2025-01-14 22:35:45.82	47.91	14.53	
2025-01-14 22:35:46.02	47.95	14.54	
2025-01-14 22:35:46.23	47.98	14.55	
2025-01-14 22:35:46.44	48.02	14.56	
2025-01-14 22:35:46.64	48.05	14.58	
2025-01-14 22:35:46.85	48.09	14.59	
2025-01-14 22:35:47.05	48.12	14.60	
2025-01-14 22:35:47.26	48.16	14.61	
2025-01-14 22:35:47.46	48.19	14.63	
2025-01-14 22:35:47.67	48.23	14.64	
2025-01-14 22:35:47.88	48.26	14.65	
2025-01-14 22:35:48.08	48.30	14.66	
2025-01-14 22:35:48.30	48.33	14.68	
2025-01-14 22:35:48.50	48.37	14.69	
2025-01-14 22:35:48.71	48.40	14.70	
2025-01-14 22:35:48.91	48.44	14.72	
2025-01-14 22:35:49.12	48.47	14.73	
2025-01-14 22:35:49.32	48.51	14.74	
2025-01-14 22:35:49.53	48.54	14.75	
2025-01-14 22:35:49.74	48.58	14.77	
2025-01-14 22:35:49.94	48.61	14.78	
2025-01-14 22:35:50.15	48.65	14.79	
2025-01-14 22:35:50.35	48.68	14.80	
2025-01-14 22:35:50.56	48.72	14.82	
2025-01-14 22:35:50.76	48.75	14.83	
2025-01-14 22:35:50.97	48.79	14.84	
2025-01-14 22:35:51.17	48.82	14.85	
2025-01-14 22:35:51.38	48.86	14.87	
2025-01-14 22:35:51.60	48.90	14.88	
2025-01-14 22:35:51.80	48.93	14.89	
2025-01-14 22:35:52.01	48.97	14.91	
2025-01-14 22:35:52.21	49.00	14.92	
2025-01-14 22:35:52.42	49.04	14.93	
2025-01-14 22:35:52.63	49.08	14.94	
2025-01-14 22:35:52.83	49.11	14.96	
2025-01-14 22:35:53.03	49.14	14.97	
2025-01-14 22:35:53.24	49.18	14.98	
2025-01-14 22:35:53.45	49.22	14.99	
2025-01-14 22:35:53.65	49.25	15.01	
2025-01-14 22:35:53.86	49.29	15.02	
2025-01-14 22:35:54.06	49.32	15.03	
2025-01-14 22:35:54.27	49.36	15.04	
2025-01-14 22:35:54.47	49.39	15.06	
2025-01-14 22:35:54.68	49.43	15.07	
2025-01-14 22:35:54.89	49.47	15.08	
2025-01-14 22:35:55.09	49.50	15.09	
2025-01-14 22:35:55.30	49.54	15.11	
2025-01-14 22:35:55.50	49.57	15.12	
2025-01-14 22:35:55.71	49.61	15.13	
2025-01-14 22:35:55.91	49.65	15.14	
2025-01-14 22:35:56.12	49.68	15.16	
2025-01-14 22:35:56.32	49.72	15.17	
2025-01-14 22:35:56.53	49.75	15.18	
2025-01-14 22:35:56.73	49.79	15.19	
2025-01-14 22:35:56.94	49.83	15.20	
2025-01-14 22:35:57.14	49.86	15.22	
2025-01-14 22:35:57.35	49.90	15.23	
2025-01-14 22:35:57.55	49.93	15.24	
2025-01-14 22:35:57.76	49.97	15.25	
2025-01-14 22:35:57.96	50.01	15.27	
2025-01-14 22:35:58.17	50.04	15.28	
2025-01-14 22:35:58.37	50.08	15.29	
2025-01-14 22:35:58.58	50.12	15.30	
2025-01-14 22:35:58.78	50.15	15.32	
2025-01-14 22:35:58.99	50.19	15.33	
2025-01-14 22:35:59.19	50.22	15.34	
2025-01-14 22:35:59.40	50.26	15.35	
2025-01-14 22:35:59.60	50.30	15.37	
2025-01-14 22:35:59.81	50.33	15.38	
2025-01-14 22:36:00.01	50.37	15.39	
2025-01-14 22:36:00.22	50.41	15.40	
2025-01-14 22:36:00.42	50.44	15.41	
2025-01-14 22:36:00.63	50.48	15.43	
2025-01-14 22:36:00.83	50.52	15.44	
2025-01-14 22:36:01.04	50.55	15.45	
2025-01-14 22:36:01.24	50.59	15.46	
2025-01-14 22:36:01.45	50.63	15.48	
2025-01-14 22:36:01.65	50.66	15.49	
2025-01-14 22:36:01.86	50.70	15.50	
2025-01-14 22:36:02.07	50.74	15.51	
2025-01-14 22:36:02.27	50.77	15.53	
2025-01-14 22:36:02.47	50.81	15.54	
2025-01-14 22:36:02.68	50.85	15.55	
2025-01-14 22:36:02.89	50.88	15.56	
2025-01-14 22:36:03.09	50.92	15.58	
2025-01-14 22:36:03.30	50.96	15.59	
2025-01-14 22:36:03.50	50.99	15.60	
2025-01-14 22:36:03.71	51.03	15.61	
2025-01-14 22:36:03.91	51.07	15.62	
2025-01-14 22:36:04.12	51.11	15.64	
2025-01-14 22:36:04.32	51.14	15.65	
2025-01-14 22:36:04.53	51.18	15.66	
2025-01-14 22:36:04.74	51.22	15.67	
2025-01-14 22:36:04.94	51.25	15.69	
2025-01-14 22:36:05.14	51.29	15.70	
2025-01-14 22:36:05.35	51.33	15.71	
2025-01-14 22:36:05.55	51.37	15.72	
2025-01-14 22:36:05.76	51.40	15.73	
2025-01-14 22:36:05.96	51.44	15.75	
2025-01-14 22:36:06.17	51.48	15.76	
2025-01-14 22:36:06.37	51.51	15.77	
2025-01-14 22:36:06.58	51.55	15.78	
2025-01-14 22:36:06.78	51.59	15.80	
2025-01-14 22:36:06.99	51.63	15.81	
2025-01-14 22:36:07.19	51.66	15.82	
2025-01-14 22:36:07.40	51.70	15.83	
2025-01-14 22:36:07.61	51.74	15.84	
2025-01-14 22:36:07.82	51.78	15.86	
2025-01-14 22:36:08.02	51.82	15.87	
2025-01-14 22:36:08.23	51.86	15.88	
2025-01-14 22:36:08.43	51.89	15.89	
2025-01-14 22:36:08.64	51.93	15.91	
2025-01-14 22:36:08.85	51.97	15.92	
2025-01-14 22:36:09.05	52.01	15.93	
2025-01-14 22:36:09.26	52.04	15.94	
2025-01-14 22:36:09.47	52.08	15.95	
2025-01-14 22:36:09.67	52.12	15.97	
2025-01-14 22:36:09.88	52.16	15.98	
2025-01-14 22:36:10.08	52.20	15.99	
2025-01-14 22:36:10.28	52.23	16.00	
2025-01-14 22:36:10.49	52.27	16.01	
2025-01-14 22:36:10.69	52.31	16.03	
2025-01-14 22:36:10.90	52.35	16.04	
2025-01-14 22:36:11.11	52.39	16.05	
2025-01-14 22:36:11.31	52.42	16.06	
2025-01-14 22:36:11.52	52.46	16.08	
2025-01-14 22:36:11.72	52.50	16.09	
2025-01-14 22:36:11.93	52.54	16.10	
2025-01-14 22:36:12.13	52.58	16.11	
2025-01-14 22:36:12.34	52.62	16.12	
2025-01-14 22:36:12.55	52.66	16.14	
2025-01-14 22:36:12.75	52.69	16.15	
2025-01-14 22:36:12.97	52.73	16.16	
2025-01-14 22:36:13.18	52.77	16.17	
2025-01-14 22:36:13.38	52.81	16.18	
2025-01-14 22:36:13.59	52.85	16.20	
2025-01-14 22:36:13.79	52.89	16.21	
2025-01-14 22:36:13.99	52.93	16.22	
2025-01-14 22:36:14.20	52.96	16.23	
2025-01-14 22:36:14.41	53.00	16.24	
2025-01-14 22:36:14.61	53.04	16.26	
2025-01-14 22:36:14.82	53.08	16.27	
2025-01-14 22:36:15.03	53.12	16.28	
2025-01-14 22:36:15.23	53.16	16.29	
2025-01-14 22:36:15.44	53.20	16.30	
2025-01-14 22:36:15.64	53.24	16.32	
2025-01-14 22:36:15.85	53.28	16.33	
2025-01-14 22:36:16.05	53.31	16.34	
2025-01-14 22:36:16.26	53.35	16.35	
2025-01-14 22:36:16.46	53.39	16.36	
2025-01-14 22:36:16.67	53.43	16.38	
2025-01-14 22:36:16.87	53.47	16.39	
2025-01-14 22:36:17.08	53.51	16.40	
2025-01-14 22:36:17.29	53.55	16.41	
2025-01-14 22:36:17.49	53.59	16.42	
2025-01-14 22:36:17.70	53.63	16.44	
2025-01-14 22:36:17.90	53.66	16.45	
2025-01-14 22:36:18.11	53.70	16.46	
2025-01-14 22:36:18.31	53.74	16.47	
2025-01-14 22:36:18.52	53.78	16.48	
2025-01-14 22:36:18.72	53.82	16.50	
2025-01-14 22:36:18.93	53.86	16.51	
2025-01-14 22:36:19.13	53.90	16.52	
2025-01-14 22:36:19.35	53.94	16.53	
2025-01-14 22:36:19.56	53.98	16.54	
2025-01-14 22:36:19.76	54.02	16.56	
2025-01-14 22:36:19.97	54.06	16.57	
2025-01-14 22:36:20.17	54.10	16.58	
2025-01-14 22:36:20.38	54.14	16.59	
2025-01-14 22:36:20.58	54.18	16.60	
2025-01-14 22:36:20.79	54.22	16.61	
2025-01-14 22:36:20.99	54.26	16.63	
2025-01-14 22:36:21.20	54.30	16.64	
2025-01-14 22:36:21.40	54.34	16.65	
2025-01-14 22:36:21.61	54.38	16.66	
2025-01-14 22:36:21.81	54.42	16.67	
2025-01-14 22:36:22.02	54.46	16.68	
2025-01-14 22:36:22.22	54.49	16.70	
2025-01-14 22:36:22.43	54.54	16.71	
2025-01-14 22:36:22.63	54.57	16.72	
2025-01-14 22:36:22.84	54.61	16.73	
2025-01-14 22:36:23.04	54.65	16.74	
2025-01-14 22:36:23.25	54.69	16.75	
2025-01-14 22:36:23.46	54.74	16.77	
2025-01-14 22:36:23.66	54.77	16.78	
2025-01-14 22:36:23.87	54.82	16.79	
2025-01-14 22:36:24.07	54.85	16.80	
2025-01-14 22:36:24.28	54.90	16.81	
2025-01-14 22:36:24.49	54.94	16.83	
2025-01-14 22:36:24.69	54.98	16.84	
2025-01-14 22:36:24.90	55.02	16.85	
2025-01-14 22:36:25.10	55.06	16.86	
2025-01-14 22:36:25.31	55.10	16.87	
2025-01-14 22:36:25.51	55.14	16.88	
2025-01-14 22:36:25.72	55.18	16.90	
2025-01-14 22:36:25.92	55.22	16.91	
2025-01-14 22:36:26.13	55.26	16.92	
2025-01-14 22:36:26.33	55.30	16.93	
2025-01-14 22:36:26.54	55.34	16.94	
2025-01-14 22:36:26.74	55.38	16.95	
2025-01-14 22:36:26.95	55.42	16.96	
2025-01-14 22:36:27.16	55.46	16.98	
2025-01-14 22:36:27.36	55.50	16.99	
2025-01-14 22:36:27.57	55.54	17.00	
2025-01-14 22:36:27.77	55.58	17.01	
2025-01-14 22:36:27.97	55.62	17.02	
2025-01-14 22:36:28.18	55.66	17.03	
2025-01-14 22:36:28.39	55.70	17.05	
2025-01-14 22:36:28.59	55.74	17.06	
2025-01-14 22:36:28.80	55.78	17.07	
2025-01-14 22:36:29.00	55.82	17.08	
2025-01-14 22:36:29.21	55.87	17.09	
2025-01-14 22:36:29.41	55.91	17.10	
2025-01-14 22:36:29.62	55.95	17.11	
2025-01-14 22:36:29.82	55.99	17.13	
2025-01-14 22:36:30.03	56.03	17.14	
2025-01-14 22:36:30.23	56.07	17.15	
2025-01-14 22:36:30.44	56.11	17.16	
2025-01-14 22:36:30.65	56.15	17.17	
2025-01-14 22:36:30.85	56.19	17.18	
2025-01-14 22:36:31.06	56.23	17.19	
2025-01-14 22:36:31.26	56.27	17.21	
2025-01-14 22:36:31.47	56.32	17.22	
2025-01-14 22:36:31.67	56.36	17.23	
2025-01-14 22:36:31.88	56.40	17.24	
2025-01-14 22:36:32.08	56.44	17.25	
2025-01-14 22:36:32.29	56.48	17.26	
2025-01-14 22:36:32.49	56.52	17.27	
2025-01-14 22:36:32.70	56.56	17.28	
2025-01-14 22:36:32.90	56.60	17.30	
2025-01-14 22:36:33.11	56.65	17.31	
2025-01-14 22:36:33.32	56.69	17.32	
2025-01-14 22:36:33.52	56.73	17.33	
2025-01-14 22:36:33.73	56.77	17.34	
2025-01-14 22:36:33.93	56.81	17.35	
2025-01-14 22:36:34.14	56.85	17.36	
2025-01-14 22:36:34.36	56.90	17.38	
2025-01-14 22:36:34.57	56.94	17.39	
2025-01-14 22:36:34.77	56.98	17.40	
2025-01-14 22:36:34.98	57.02	17.41	
2025-01-14 22:36:35.18	57.07	17.42	
2025-01-14 22:36:35.39	57.11	17.43	
2025-01-14 22:36:35.59	57.15	17.44	
2025-01-14 22:36:35.79	57.19	17.45	
2025-01-14 22:36:36.00	57.23	17.47	
2025-01-14 22:36:36.21	57.27	17.48	
2025-01-14 22:36:36.41	57.32	17.49	
2025-01-14 22:36:36.61	57.36	17.50	
2025-01-14 22:36:36.82	57.40	17.51	
2025-01-14 22:36:37.02	57.44	17.52	
2025-01-14 22:36:37.23	57.48	17.53	
2025-01-14 22:36:37.43	57.52	17.54	
2025-01-14 22:36:37.64	57.57	17.55	
2025-01-14 22:36:37.84	57.61	17.57	
2025-01-14 22:36:38.05	57.65	17.58	
2025-01-14 22:36:38.25	57.69	17.59	
2025-01-14 22:36:38.46	57.73	17.60	
2025-01-14 22:36:38.66	57.78	17.61	
2025-01-14 22:36:38.87	57.82	17.62	
2025-01-14 22:36:39.07	57.86	17.63	
2025-01-14 22:36:39.28	57.90	17.64	
2025-01-14 22:36:39.48	57.94	17.65	
2025-01-14 22:36:39.69	57.99	17.66	
2025-01-14 22:36:39.89	58.03	17.68	
2025-01-14 22:36:40.10	58.07	17.69	
2025-01-14 22:36:40.30	58.11	17.70	
2025-01-14 22:36:40.51	58.16	17.71	
2025-01-14 22:36:40.71	58.20	17.72	
2025-01-14 22:36:40.91	58.24	17.73	
2025-01-14 22:36:41.12	58.28	17.74	
2025-01-14 22:36:41.33	58.33	17.75	
2025-01-14 22:36:41.54	58.37	17.76	
2025-01-14 22:36:41.75	58.41	17.77	
2025-01-14 22:36:41.96	58.46	17.79	
2025-01-14 22:36:42.16	58.50	17.80	
2025-01-14 22:36:42.38	58.55	17.81	
2025-01-14 22:36:42.59	58.59	17.82	
2025-01-14 22:36:42.79	58.63	17.83	
2025-01-14 22:36:43.00	58.67	17.84	
2025-01-14 22:36:43.20	58.72	17.85	
2025-01-14 22:36:43.41	58.76	17.86	
2025-01-14 22:36:43.61	58.80	17.87	
2025-01-14 22:36:43.82	58.85	17.88	
2025-01-14 22:36:44.02	58.89	17.89	
2025-01-14 22:36:44.23	58.93	17.91	
2025-01-14 22:36:44.43	58.97	17.92	
2025-01-14 22:36:44.64	59.02	17.93	
2025-01-14 22:36:44.85	59.06	17.94	
2025-01-14 22:36:45.05	59.10	17.95	
2025-01-14 22:36:45.25	59.15	17.96	
2025-01-14 22:36:45.46	59.19	17.97	
2025-01-14 22:36:45.67	59.23	17.98	
2025-01-14 22:36:45.87	59.28	17.99	
2025-01-14 22:36:46.08	59.32	18.00	
2025-01-14 22:36:46.28	59.36	18.01	
2025-01-14 22:36:46.49	59.41	18.02	
2025-01-14 22:36:46.69	59.45	18.03	
2025-01-14 22:36:46.90	59.49	18.04	
2025-01-14 22:36:47.10	59.54	18.05	
2025-01-14 22:36:47.31	59.58	18.07	
2025-01-14 22:36:47.51	59.62	18.08	
2025-01-14 22:36:47.71	59.66	18.09	
2025-01-14 22:36:47.92	59.71	18.10	
2025-01-14 22:36:48.12	59.75	18.11	
2025-01-14 22:36:48.33	59.80	18.12	
2025-01-14 22:36:48.53	59.84	18.13	
2025-01-14 22:36:48.74	59.88	18.14	
2025-01-14 22:36:48.95	59.93	18.15	
2025-01-14 22:36:49.15	59.97	18.16	
2025-01-14 22:36:49.35	60.01	18.17	
2025-01-14 22:36:49.56	60.06	18.18	
2025-01-14 22:36:49.77	60.10	18.19	
2025-01-14 22:36:49.97	60.15	18.20	
2025-01-14 22:36:50.18	60.19	18.21	
2025-01-14 22:36:50.38	60.23	18.22	
2025-01-14 22:36:50.58	60.28	18.23	
2025-01-14 22:36:50.79	60.32	18.24	
2025-01-14 22:36:51.00	60.37	18.25	
2025-01-14 22:36:51.20	60.41	18.26	
2025-01-14 22:36:51.41	60.45	18.27	
2025-01-14 22:36:51.61	60.50	18.29	
2025-01-14 22:36:51.82	60.54	18.30	
2025-01-14 22:36:52.02	60.58	18.31	
2025-01-14 22:36:52.23	60.63	18.32	
2025-01-14 22:36:52.43	60.67	18.33	
2025-01-14 22:36:52.64	60.72	18.34	
2025-01-14 22:36:52.84	60.76	18.35	
2025-01-14 22:36:53.05	60.81	18.36	
2025-01-14 22:36:53.25	60.85	18.37	
2025-01-14 22:36:53.46	60.89	18.38	
2025-01-14 22:36:53.66	60.94	18.39	
2025-01-14 22:36:53.87	60.98	18.40	
2025-01-14 22:36:54.07	61.03	18.41	
2025-01-14 22:36:54.28	61.07	18.42	
2025-01-14 22:36:54.48	61.12	18.43	
2025-01-14 22:36:54.68	61.16	18.44	
2025-01-14 22:36:54.89	61.20	18.45	
2025-01-14 22:36:55.10	61.25	18.46	
2025-01-14 22:36:55.30	61.29	18.47	
2025-01-14 22:36:55.51	61.34	18.48	
2025-01-14 22:36:55.71	61.38	18.49	
2025-01-14 22:36:55.92	61.43	18.50	
2025-01-14 22:36:56.12	61.47	18.51	
2025-01-14 22:36:56.33	61.52	18.52	
2025-01-14 22:36:56.53	61.56	18.53	
2025-01-14 22:36:56.74	61.61	18.54	
2025-01-14 22:36:56.94	61.65	18.55	
2025-01-14 22:36:57.15	61.70	18.56	
2025-01-14 22:36:57.36	61.74	18.57	
2025-01-14 22:36:57.56	61.79	18.58	
2025-01-14 22:36:57.78	61.83	18.59	
2025-01-14 22:36:57.98	61.88	18.60	
2025-01-14 22:36:58.19	61.92	18.61	
2025-01-14 22:36:58.40	61.97	18.62	
2025-01-14 22:36:58.60	62.01	18.63	
2025-01-14 22:36:58.81	62.06	18.64	
2025-01-14 22:36:59.01	62.10	18.65	
2025-01-14 22:36:59.22	62.15	18.66	
2025-01-14 22:36:59.42	62.19	18.67	
2025-01-14 22:36:59.63	62.24	18.68	
2025-01-14 22:36:59.83	62.28	18.69	
2025-01-14 22:37:00.04	62.33	18.70	
2025-01-14 22:37:00.24	62.38	18.71	
2025-01-14 22:37:00.45	62.42	18.72	
2025-01-14 22:37:00.65	62.47	18.73	
2025-01-14 22:37:00.86	62.51	18.74	
2025-01-14 22:37:01.07	62.56	18.75	
2025-01-14 22:37:01.28	62.60	18.76	
2025-01-14 22:37:01.49	62.65	18.77	
2025-01-14 22:37:01.69	62.70	18.78	
2025-01-14 22:37:01.90	62.74	18.79	
2025-01-14 22:37:02.10	62.79	18.80	
2025-01-14 22:37:02.31	62.83	18.81	
2025-01-14 22:37:02.51	62.88	18.82	
2025-01-14 22:37:02.72	62.92	18.83	
2025-01-14 22:37:02.93	62.97	18.84	
2025-01-14 22:37:03.14	63.02	18.85	
2025-01-14 22:37:03.35	63.06	18.86	
2025-01-14 22:37:03.56	63.11	18.87	
2025-01-14 22:37:03.76	63.16	18.88	
2025-01-14 22:37:03.97	63.20	18.89	
2025-01-14 22:37:04.17	63.25	18.90	
2025-01-14 22:37:04.37	63.29	18.90	
2025-01-14 22:37:04.58	63.34	18.91	
2025-01-14 22:37:04.79	63.39	18.92	
2025-01-14 22:37:04.99	63.43	18.93	
2025-01-14 22:37:05.19	63.48	18.94	
2025-01-14 22:37:05.40	63.52	18.95	
2025-01-14 22:37:05.60	63.57	18.96	
2025-01-14 22:37:05.81	63.61	18.97	
2025-01-14 22:37:06.02	63.66	18.98	
2025-01-14 22:37:06.22	63.71	18.99	
2025-01-14 22:37:06.42	63.75	19.00	
2025-01-14 22:37:06.63	63.80	19.01	
2025-01-14 22:37:06.84	63.85	19.02	
2025-01-14 22:37:07.04	63.89	19.03	
2025-01-14 22:37:07.25	63.94	19.04	
2025-01-14 22:37:07.45	63.98	19.05	
2025-01-14 22:37:07.66	64.03	19.06	
2025-01-14 22:37:07.86	64.08	19.06	
2025-01-14 22:37:08.07	64.12	19.07	
2025-01-14 22:37:08.28	64.17	19.08	
2025-01-14 22:37:08.48	64.22	19.09	
2025-01-14 22:37:08.69	64.26	19.10	
2025-01-14 22:37:08.89	64.31	19.11	
2025-01-14 22:37:09.10	64.36	19.12	
2025-01-14 22:37:09.30	64.40	19.13	
2025-01-14 22:37:09.51	64.45	19.14	
2025-01-14 22:37:09.71	64.49	19.15	
2025-01-14 22:37:09.92	64.54	19.16	
2025-01-14 22:37:10.13	64.59	19.17	
2025-01-14 22:37:10.33	64.64	19.18	
2025-01-14 22:37:10.54	64.68	19.18	
2025-01-14 22:37:10.74	64.73	19.19	
2025-01-14 22:37:10.95	64.78	19.20	
2025-01-14 22:37:11.15	64.82	19.21	
2025-01-14 22:37:11.36	64.87	19.22	
2025-01-14 22:37:11.57	64.92	19.23	
2025-01-14 22:37:11.77	64.96	19.24	
2025-01-14 22:37:11.98	65.01	19.25	
2025-01-14 22:37:12.18	65.06	19.26	
2025-01-14 22:37:12.39	65.11	19.27	
2025-01-14 22:37:12.59	65.15	19.27	
2025-01-14 22:37:12.81	65.20	19.28	
2025-01-14 22:37:13.02	65.25	19.29	
2025-01-14 22:37:13.22	65.30	19.30	
2025-01-14 22:37:13.43	65.34	19.31	
2025-01-14 22:37:13.63	65.39	19.32	
2025-01-14 22:37:13.84	65.44	19.33	
2025-01-14 22:37:14.04	65.48	19.34	
2025-01-14 22:37:14.25	65.53	19.35	
2025-01-14 22:37:14.45	65.58	19.36	
2025-01-14 22:37:14.66	65.63	19.36	
2025-01-14 22:37:14.86	65.67	19.37	
2025-01-14 22:37:15.07	65.72	19.38	
2025-01-14 22:37:15.27	65.77	19.39	
2025-01-14 22:37:15.48	65.82	19.40	
2025-01-14 22:37:15.69	65.86	19.41	
2025-01-14 22:37:15.89	65.91	19.42	
2025-01-14 22:37:16.10	65.96	19.43	
2025-01-14 22:37:16.30	66.00	19.43	
2025-01-14 22:37:16.51	66.05	19.44	
2025-01-14 22:37:16.71	66.10	19.45	
2025-01-14 22:37:16.92	66.15	19.46	
2025-01-14 22:37:17.12	66.19	19.47	
2025-01-14 22:37:17.32	66.24	19.48	
2025-01-14 22:37:17.53	66.29	19.49	
2025-01-14 22:37:17.74	66.34	19.49	
2025-01-14 22:37:17.94	66.38	19.50	
2025-01-14 22:37:18.16	66.44	19.51	
2025-01-14 22:37:18.36	66.48	19.52	
2025-01-14 22:37:18.57	66.53	19.53	
2025-01-14 22:37:18.77	66.58	19.54	
2025-01-14 22:37:18.98	66.63	19.55	
2025-01-14 22:37:19.19	66.68	19.55	
2025-01-14 22:37:19.39	66.72	19.56	
2025-01-14 22:37:19.60	66.77	19.57	
2025-01-14 22:37:19.80	66.82	19.58	
2025-01-14 22:37:20.01	66.87	19.59	
2025-01-14 22:37:20.23	66.92	19.60	
2025-01-14 22:37:20.43	66.96	19.61	
2025-01-14 22:37:20.64	67.01	19.61	
2025-01-14 22:37:20.84	67.06	19.62	
2025-01-14 22:37:21.05	67.11	19.63	
2025-01-14 22:37:21.25	67.16	19.64	
2025-01-14 22:37:21.46	67.21	19.65	
2025-01-14 22:37:21.67	67.26	19.66	
2025-01-14 22:37:21.87	67.30	19.66	
2025-01-14 22:37:22.08	67.35	19.67	
2025-01-14 22:37:22.28	67.40	19.68	
2025-01-14 22:37:22.48	67.45	19.69	
2025-01-14 22:37:22.69	67.49	19.70	
2025-01-14 22:37:22.89	67.54	19.70	
2025-01-14 22:37:23.10	67.59	19.71	
2025-01-14 22:37:23.31	67.64	19.72	
2025-01-14 22:37:23.51	67.69	19.73	
2025-01-14 22:37:23.72	67.74	19.74	
2025-01-14 22:37:23.92	67.78	19.74	
2025-01-14 22:37:24.13	67.83	19.75	
2025-01-14 22:37:24.33	67.88	19.76	
2025-01-14 22:37:24.54	67.93	19.77	
2025-01-14 22:37:24.74	67.98	19.78	
2025-01-14 22:37:24.95	68.03	19.78	
2025-01-14 22:37:25.16	68.08	19.79	
2025-01-14 22:37:25.36	68.12	19.80	
2025-01-14 22:37:25.56	68.17	19.81	
2025-01-14 22:37:25.77	68.22	19.82	
2025-01-14 22:37:25.98	68.27	19.82	
2025-01-14 22:37:26.18	68.32	19.83	
2025-01-14 22:37:26.39	68.37	19.84	
2025-01-14 22:37:26.59	68.42	19.85	
2025-01-14 22:37:26.80	68.47	19.86	
2025-01-14 22:37:27.00	68.51	19.86	
2025-01-14 22:37:27.21	68.56	19.87	
2025-01-14 22:37:27.41	68.61	19.88	
2025-01-14 22:37:27.62	68.66	19.89	
2025-01-14 22:37:27.82	68.71	19.89	
2025-01-14 22:37:28.03	68.76	19.90	
2025-01-14 22:37:28.23	68.81	19.91	
2025-01-14 22:37:28.44	68.86	19.92	
2025-01-14 22:37:28.65	68.91	19.93	
2025-01-14 22:37:28.85	68.95	19.93	
2025-01-14 22:37:29.06	69.00	19.94	
2025-01-14 22:37:29.26	69.05	19.95	
2025-01-14 22:37:29.47	69.10	19.96	
2025-01-14 22:37:29.67	69.15	19.96	
2025-01-14 22:37:29.88	69.20	19.97	
2025-01-14 22:37:30.08	69.25	19.98	
2025-01-14 22:37:30.29	69.30	19.99	
2025-01-14 22:37:30.49	69.35	19.99	
2025-01-14 22:37:30.70	69.40	20.00	
2025-01-14 22:37:30.90	69.44	20.01	
2025-01-14 22:37:31.11	69.50	20.02	
2025-01-14 22:37:31.31	69.54	20.02	
2025-01-14 22:37:31.52	69.59	20.03	
2025-01-14 22:37:31.72	69.64	20.04	
2025-01-14 22:37:31.93	69.69	20.04	
2025-01-14 22:37:32.13	69.74	20.05	
2025-01-14 22:37:32.34	69.79	20.06	
2025-01-14 22:37:32.54	69.84	20.07	
2025-01-14 22:37:32.75	69.89	20.07	
2025-01-14 22:37:32.95	69.94	20.08	
2025-01-14 22:37:33.16	69.99	20.09	
2025-01-14 22:37:33.37	70.04	20.10	
2025-01-14 22:37:33.57	70.09	20.10	
2025-01-14 22:37:33.78	70.14	20.11	
2025-01-14 22:37:33.98	70.19	20.12	
2025-01-14 22:37:34.19	70.24	20.12	
2025-01-14 22:37:34.39	70.29	20.13	
2025-01-14 22:37:34.60	70.34	20.14	
2025-01-14 22:37:34.81	70.39	20.15	
2025-01-14 22:37:35.01	70.44	20.15	
2025-01-14 22:37:35.23	70.49	20.16	
2025-01-14 22:37:35.43	70.54	20.17	
2025-01-14 22:37:35.64	70.59	20.17	
2025-01-14 22:37:35.84	70.64	20.18	
2025-01-14 22:37:36.05	70.69	20.19	
2025-01-14 22:37:36.27	70.74	20.20	
2025-01-14 22:37:36.47	70.79	20.20	
2025-01-14 22:37:36.68	70.84	20.21	
2025-01-14 22:37:36.88	70.89	20.22	
2025-01-14 22:37:37.09	70.94	20.22	
2025-01-14 22:37:37.29	70.99	20.23	
2025-01-14 22:37:37.50	71.04	20.24	
2025-01-14 22:37:37.70	71.09	20.24	
2025-01-14 22:37:37.91	71.14	20.25	
2025-01-14 22:37:38.11	71.19	20.26	
2025-01-14 22:37:38.31	71.24	20.26	
2025-01-14 22:37:38.52	71.29	20.27	
2025-01-14 22:37:38.73	71.34	20.28	
2025-01-14 22:37:38.93	71.39	20.28	
2025-01-14 22:37:39.14	71.44	20.29	
2025-01-14 22:37:39.34	71.49	20.30	
2025-01-14 22:37:39.55	71.54	20.30	
2025-01-14 22:37:39.75	71.59	20.31	
2025-01-14 22:37:39.96	71.64	20.32	
2025-01-14 22:37:40.16	71.69	20.32	
2025-01-14 22:37:40.37	71.74	20.33	
2025-01-14 22:37:40.57	71.79	20.34	
2025-01-14 22:37:40.78	71.84	20.34	
2025-01-14 22:37:40.98	71.89	20.35	
2025-01-14 22:37:41.19	71.94	20.36	
2025-01-14 22:37:41.40	71.99	20.36	
2025-01-14 22:37:41.60	72.04	20.37	
2025-01-14 22:37:41.81	72.09	20.38	
2025-01-14 22:37:42.01	72.14	20.38	
2025-01-14 22:37:42.22	72.19	20.39	
2025-01-14 22:37:42.42	72.24	20.39	
2025-01-14 22:37:42.63	72.30	20.40	
2025-01-14 22:37:42.83	72.34	20.41	
2025-01-14 22:37:43.04	72.40	20.41	
2025-01-14 22:37:43.24	72.45	20.42	
2025-01-14 22:37:43.45	72.50	20.43	
2025-01-14 22:37:43.65	72.55	20.43	
2025-01-14 22:37:43.85	72.60	20.44	
2025-01-14 22:37:44.06	72.65	20.44	
2025-01-14 22:37:44.27	72.70	20.45	
2025-01-14 22:37:44.47	72.75	20.46	
2025-01-14 22:37:44.68	72.80	20.46	
2025-01-14 22:37:44.88	72.85	20.47	
2025-01-14 22:37:45.09	72.90	20.48	
2025-01-14 22:37:45.29	72.95	20.48	
2025-01-14 22:37:45.50	73.00	20.49	
2025-01-14 22:37:45.71	73.06	20.49	
2025-01-14 22:37:45.91	73.11	20.50	
2025-01-14 22:37:46.12	73.16	20.51	
2025-01-14 22:37:46.32	73.21	20.51	
2025-01-14 22:37:46.52	73.26	20.52	
2025-01-14 22:37:46.73	73.31	20.52	
2025-01-14 22:37:46.93	73.36	20.53	
2025-01-14 22:37:47.14	73.41	20.53	
2025-01-14 22:37:47.34	73.46	20.54	
2025-01-14 22:37:47.55	73.51	20.55	
2025-01-14 22:37:47.75	73.56	20.55	
2025-01-14 22:37:47.96	73.61	20.56	
2025-01-14 22:37:48.16	73.66	20.56	
2025-01-14 22:37:48.37	73.72	20.57	
2025-01-14 22:37:48.57	73.77	20.58	
2025-01-14 22:37:48.78	73.82	20.58	
2025-01-14 22:37:48.99	73.87	20.59	
2025-01-14 22:37:49.19	73.92	20.59	
2025-01-14 22:37:49.40	73.97	20.60	
2025-01-14 22:37:49.60	74.02	20.60	
2025-01-14 22:37:49.81	74.07	20.61	
2025-01-14 22:37:50.01	74.12	20.61	
2025-01-14 22:37:50.21	74.17	20.62	
2025-01-14 22:37:50.42	74.23	20.63	
2025-01-14 22:37:50.62	74.28	20.63	
2025-01-14 22:37:50.83	74.33	20.64	
2025-01-14 22:37:51.03	74.38	20.64	
2025-01-14 22:37:51.24	74.43	20.65	
2025-01-14 22:37:51.44	74.48	20.65	
2025-01-14 22:37:51.65	74.53	20.66	
2025-01-14 22:37:51.85	74.58	20.66	
2025-01-14 22:37:52.06	74.64	20.67	
2025-01-14 22:37:52.26	74.69	20.67	
2025-01-14 22:37:52.47	74.74	20.68	
2025-01-14 22:37:52.67	74.79	20.68	
2025-01-14 22:37:52.88	74.84	20.69	
2025-01-14 22:37:53.08	74.89	20.70	
2025-01-14 22:37:53.29	74.94	20.70	
2025-01-14 22:37:53.49	75.00	20.71	
2025-01-14 22:37:53.69	75.05	20.71	
2025-01-14 22:37:53.90	75.10	20.72	
2025-01-14 22:37:54.11	75.15	20.72	
2025-01-14 22:37:54.31	75.20	20.73	
2025-01-14 22:37:54.51	75.25	20.73	
2025-01-14 22:37:54.72	75.30	20.74	
2025-01-14 22:37:54.93	75.36	20.74	
2025-01-14 22:37:55.13	75.41	20.75	
2025-01-14 22:37:55.34	75.46	20.75	
2025-01-14 22:37:55.54	75.51	20.76	
2025-01-14 22:37:55.75	75.56	20.76	
2025-01-14 22:37:55.95	75.61	20.77	
2025-01-14 22:37:56.16	75.67	20.77	
2025-01-14 22:37:56.37	75.72	20.78	
2025-01-14 22:37:56.57	75.77	20.78	
2025-01-14 22:37:56.77	75.82	20.79	
2025-01-14 22:37:56.98	75.87	20.79	
2025-01-14 22:37:57.19	75.93	20.80	
2025-01-14 22:37:57.39	75.98	20.80	
2025-01-14 22:37:57.61	76.03	20.81	
2025-01-14 22:37:57.81	76.08	20.81	
2025-01-14 22:37:58.02	76.14	20.82	
2025-01-14 22:37:58.22	76.19	20.82	
2025-01-14 22:37:58.43	76.24	20.82	
2025-01-14 22:37:58.64	76.29	20.83	
2025-01-14 22:37:58.84	76.34	20.83	
2025-01-14 22:37:59.05	76.40	20.84	
2025-01-14 22:37:59.25	76.45	20.84	
2025-01-14 22:37:59.46	76.50	20.85	
2025-01-14 22:37:59.66	76.55	20.85	
2025-01-14 22:37:59.87	76.60	20.86	
2025-01-14 22:38:00.07	76.65	20.86	
2025-01-14 22:38:00.28	76.71	20.87	
2025-01-14 22:38:00.48	76.76	20.87	
2025-01-14 22:38:00.69	76.81	20.87	
2025-01-14 22:38:00.89	76.86	20.88	
2025-01-14 22:38:01.10	76.92	20.88	
2025-01-14 22:38:01.30	76.97	20.89	
2025-01-14 22:38:01.51	77.02	20.89	
2025-01-14 22:38:01.71	77.07	20.90	
2025-01-14 22:38:01.92	77.12	20.90	
2025-01-14 22:38:02.12	77.17	20.90	
2025-01-14 22:38:02.33	77.23	20.91	
2025-01-14 22:38:02.53	77.28	20.91	
2025-01-14 22:38:02.74	77.33	20.92	
2025-01-14 22:38:02.94	77.38	20.92	
2025-01-14 22:38:03.15	77.44	20.93	
2025-01-14 22:38:03.36	77.49	20.93	
2025-01-14 22:38:03.56	77.54	20.93	
2025-01-14 22:38:03.77	77.59	20.94	
2025-01-14 22:38:03.97	77.65	20.94	
2025-01-14 22:38:04.18	77.70	20.95	
2025-01-14 22:38:04.38	77.75	20.95	
2025-01-14 22:38:04.59	77.80	20.95	
2025-01-14 22:38:04.80	77.86	20.96	
2025-01-14 22:38:05.00	77.91	20.96	
2025-01-14 22:38:05.20	77.96	20.97	
2025-01-14 22:38:05.41	78.01	20.97	
2025-01-14 22:38:05.62	78.07	20.97	
2025-01-14 22:38:05.82	78.12	20.98	
2025-01-14 22:38:06.03	78.17	20.98	
2025-01-14 22:38:06.23	78.22	20.99	
2025-01-14 22:38:06.44	78.28	20.99	
2025-01-14 22:38:06.64	78.33	20.99	
2025-01-14 22:38:06.85	78.38	21.00	
2025-01-14 22:38:07.05	78.43	21.00	
2025-01-14 22:38:07.26	78.49	21.00	
2025-01-14 22:38:07.46	78.54	21.01	
2025-01-14 22:38:07.67	78.59	21.01	
2025-01-14 22:38:07.88	78.64	21.01	
2025-01-14 22:38:08.08	78.70	21.02	
2025-01-14 22:38:08.29	78.75	21.02	
2025-01-14 22:38:08.49	78.80	21.03	
2025-01-14 22:38:08.70	78.85	21.03	
2025-01-14 22:38:08.90	78.91	21.03	
2025-01-14 22:38:09.11	78.96	21.04	
2025-01-14 22:38:09.31	79.01	21.04	
2025-01-14 22:38:09.52	79.06	21.04	
2025-01-14 22:38:09.72	79.12	21.05	
2025-01-14 22:38:09.93	79.17	21.05	
2025-01-14 22:38:10.13	79.22	21.05	
2025-01-14 22:38:10.34	79.27	21.06	
2025-01-14 22:38:10.54	79.33	21.06	
2025-01-14 22:38:10.75	79.38	21.06	
2025-01-14 22:38:10.95	79.43	21.07	
2025-01-14 22:38:11.16	79.49	21.07	
2025-01-14 22:38:11.36	79.54	21.07	
2025-01-14 22:38:11.58	79.59	21.08	
2025-01-14 22:38:11.79	79.65	21.08	
2025-01-14 22:38:11.99	79.70	21.08	
2025-01-14 22:38:12.20	79.75	21.09	
2025-01-14 22:38:12.40	79.80	21.09	
2025-01-14 22:38:12.61	79.86	21.09	
2025-01-14 22:38:12.81	79.91	21.09	
2025-01-14 22:38:13.02	79.96	21.10	
2025-01-14 22:38:13.22	80.02	21.10	
2025-01-14 22:38:13.43	80.07	21.10	
2025-01-14 22:38:13.63	80.12	21.11	
2025-01-14 22:38:13.84	80.17	21.11	
2025-01-14 22:38:14.04	80.23	21.11	
2025-01-14 22:38:14.25	80.28	21.12	
2025-01-14 22:38:14.46	80.33	21.12	
2025-01-14 22:38:14.66	80.39	21.12	
2025-01-14 22:38:14.87	80.44	21.12	
2025-01-14 22:38:15.07	80.49	21.13	
2025-01-14 22:38:15.28	80.55	21.13	
2025-01-14 22:38:15.48	80.60	21.13	
2025-01-14 22:38:15.69	80.65	21.13	
2025-01-14 22:38:15.89	80.70	21.14	
2025-01-14 22:38:16.10	80.76	21.14	
2025-01-14 22:38:16.30	80.81	21.14	
2025-01-14 22:38:16.51	80.86	21.15	
2025-01-14 22:38:16.71	80.91	21.15	
2025-01-14 22:38:16.92	80.97	21.15	
2025-01-14 22:38:17.12	81.02	21.15	
2025-01-14 22:38:17.33	81.07	21.16	
2025-01-14 22:38:17.54	81.13	21.16	
2025-01-14 22:38:17.74	81.18	21.16	
2025-01-14 22:38:17.95	81.24	21.16	
2025-01-14 22:38:18.15	81.29	21.17	
2025-01-14 22:38:18.36	81.34	21.17	
2025-01-14 22:38:18.57	81.40	21.17	
2025-01-14 22:38:18.77	81.45	21.17	
2025-01-14 22:38:18.98	81.50	21.17	
2025-01-14 22:38:19.18	81.55	21.18	
2025-01-14 22:38:19.39	81.61	21.18	
2025-01-14 22:38:19.59	81.66	21.18	
2025-01-14 22:38:19.80	81.71	21.18	
2025-01-14 22:38:20.00	81.77	21.19	
2025-01-14 22:38:20.20	81.82	21.19	
2025-01-14 22:38:20.41	81.87	21.19	
2025-01-14 22:38:20.61	81.92	21.19	
2025-01-14 22:38:20.82	81.98	21.19	
2025-01-14 22:38:21.03	82.03	21.20	
2025-01-14 22:38:21.23	82.08	21.20	
2025-01-14 22:38:21.44	82.14	21.20	
2025-01-14 22:38:21.64	82.19	21.20	
2025-01-14 22:38:21.85	82.24	21.20	
2025-01-14 22:38:22.05	82.30	21.21	
2025-01-14 22:38:22.26	82.35	21.21	
2025-01-14 22:38:22.46	82.40	21.21	
2025-01-14 22:38:22.67	82.46	21.21	
2025-01-14 22:38:22.87	82.51	21.21	
2025-01-14 22:38:23.08	82.56	21.22	
2025-01-14 22:38:23.28	82.62	21.22	
2025-01-14 22:38:23.48	82.67	21.22	
2025-01-14 22:38:23.69	82.72	21.22	
2025-01-14 22:38:23.89	82.77	21.22	
2025-01-14 22:38:24.10	82.83	21.22	
2025-01-14 22:38:24.30	82.88	21.23	
2025-01-14 22:38:24.51	82.93	21.23	
2025-01-14 22:38:24.71	82.99	21.23	
2025-01-14 22:38:24.92	83.04	21.23	
2025-01-14 22:38:25.13	83.10	21.23	
2025-01-14 22:38:25.33	83.15	21.23	
2025-01-14 22:38:25.54	83.20	21.24	
2025-01-14 22:38:25.74	83.25	21.24	
2025-01-14 22:38:25.95	83.31	21.24	
2025-01-14 22:38:26.15	83.36	21.24	
2025-01-14 22:38:26.36	83.41	21.24	
2025-01-14 22:38:26.56	83.47	21.24	
2025-01-14 22:38:26.77	83.52	21.24	
2025-01-14 22:38:26.97	83.57	21.25	
2025-01-14 22:38:27.18	83.63	21.25	
2025-01-14 22:38:27.38	83.68	21.25	
2025-01-14 22:38:27.59	83.73	21.25	
2025-01-14 22:38:27.79	83.79	21.25	
2025-01-14 22:38:28.00	83.84	21.25	
2025-01-14 22:38:28.22	83.90	21.25	
2025-01-14 22:38:28.42	83.95	21.25	
2025-01-14 22:38:28.63	84.00	21.26	
2025-01-14 22:38:28.83	84.06	21.26	
2025-01-14 22:38:29.04	84.11	21.26	
2025-01-14 22:38:29.24	84.16	21.26	
2025-01-14 22:38:29.45	84.22	21.26	
2025-01-14 22:38:29.65	84.27	21.26	
2025-01-14 22:38:29.86	84.32	21.26	
2025-01-14 22:38:30.06	84.38	21.26	
2025-01-14 22:38:30.27	84.43	21.26	
2025-01-14 22:38:30.48	84.49	21.27	
2025-01-14 22:38:30.68	84.54	21.27	
2025-01-14 22:38:30.89	84.59	21.27	
2025-01-14 22:38:31.09	84.64	21.27	
2025-01-14 22:38:31.30	84.70	21.27	
2025-01-14 22:38:31.50	84.75	21.27	
2025-01-14 22:38:31.71	84.81	21.27	
2025-01-14 22:38:31.91	84.86	21.27	
2025-01-14 22:38:32.12	84.91	21.27	
2025-01-14 22:38:32.32	84.97	21.27	
2025-01-14 22:38:32.53	85.02	21.27	
2025-01-14 22:38:32.74	85.07	21.27	
2025-01-14 22:38:32.94	85.13	21.27	
2025-01-14 22:38:33.14	85.18	21.28	
2025-01-14 22:38:33.35	85.23	21.28	
2025-01-14 22:38:33.56	85.29	21.28	
2025-01-14 22:38:33.76	85.34	21.28	
2025-01-14 22:38:33.96	85.39	21.28	
2025-01-14 22:38:34.17	85.45	21.28	
2025-01-14 22:38:34.37	85.50	21.28	
2025-01-14 22:38:34.58	85.55	21.28	
2025-01-14 22:38:34.78	85.61	21.28	
2025-01-14 22:38:34.99	85.66	21.28	
2025-01-14 22:38:35.19	85.71	21.28	
2025-01-14 22:38:35.40	85.77	21.28	
2025-01-14 22:38:35.60	85.82	21.28	
2025-01-14 22:38:35.81	85.87	21.28	
2025-01-14 22:38:36.01	85.93	21.28	
2025-01-14 22:38:36.23	85.98	21.28	
