passes_logs/2025/01/14/SPB_Silybum_02/SPB_Silybum_02__20250114_102429_SUOMI_NPP_rec.log

#Pass ID: 20250114_102429_SUOMI NPP
#Satellite: SUOMI NPP
#Configuration: NPP
#Start time: 2025-01-14 10:24:29

#Version: 2.0.20230423
#Station: SPB_Silybum_02
#Location: 30.233357 lon 59.946436 lat
#TLE: 1 37849U 11061A   25013.79210654  .00000158  00000+0  95823-4 0  9999
#TLE: 2 37849  98.7445 314.7959 0001726  42.6053 317.5257 14.19537607684746

#Time	Az	El	Level	Level2	SNR	BER	Gain	Gain2
2025-01-14 10:24:31.18	163.18	4.10	
2025-01-14 10:24:31.39	163.18	4.11	
2025-01-14 10:24:31.59	163.18	4.13	
2025-01-14 10:24:31.80	163.19	4.14	
2025-01-14 10:24:32.01	163.19	4.15	
2025-01-14 10:24:32.21	163.19	4.17	
2025-01-14 10:24:32.42	163.19	4.18	
2025-01-14 10:24:32.62	163.19	4.20	
2025-01-14 10:24:32.83	163.20	4.21	
2025-01-14 10:24:33.04	163.20	4.23	
2025-01-14 10:24:33.24	163.20	4.24	
2025-01-14 10:24:33.44	163.20	4.25	
2025-01-14 10:24:33.65	163.20	4.27	
2025-01-14 10:24:33.86	163.21	4.28	
2025-01-14 10:24:34.06	163.21	4.30	
2025-01-14 10:24:34.26	163.21	4.31	
2025-01-14 10:24:34.47	163.21	4.33	
2025-01-14 10:24:34.68	163.21	4.34	
2025-01-14 10:24:34.88	163.22	4.35	
2025-01-14 10:24:35.09	163.22	4.37	
2025-01-14 10:24:35.29	163.22	4.38	
2025-01-14 10:24:35.50	163.22	4.40	
2025-01-14 10:24:35.70	163.22	4.41	
2025-01-14 10:24:35.91	163.23	4.43	
2025-01-14 10:24:36.11	163.23	4.44	
2025-01-14 10:24:36.32	163.23	4.46	
2025-01-14 10:24:36.52	163.23	4.47	
2025-01-14 10:24:36.73	163.23	4.48	
2025-01-14 10:24:36.94	163.24	4.50	
2025-01-14 10:24:37.14	163.24	4.51	
2025-01-14 10:24:37.35	163.24	4.53	
2025-01-14 10:24:37.56	163.24	4.54	
2025-01-14 10:24:37.77	163.24	4.56	
2025-01-14 10:24:37.98	163.25	4.57	
2025-01-14 10:24:38.18	163.25	4.59	
2025-01-14 10:24:38.39	163.25	4.60	
2025-01-14 10:24:38.59	163.25	4.62	
2025-01-14 10:24:38.80	163.25	4.63	
2025-01-14 10:24:39.00	163.26	4.64	
2025-01-14 10:24:39.21	163.26	4.66	
2025-01-14 10:24:39.41	163.26	4.67	
2025-01-14 10:24:39.62	163.26	4.69	
2025-01-14 10:24:39.82	163.26	4.70	
2025-01-14 10:24:40.03	163.27	4.72	
2025-01-14 10:24:40.23	163.27	4.73	
2025-01-14 10:24:40.44	163.27	4.75	
2025-01-14 10:24:40.64	163.27	4.76	
2025-01-14 10:24:40.85	163.27	4.78	
2025-01-14 10:24:41.06	163.28	4.79	
2025-01-14 10:24:41.26	163.28	4.80	
2025-01-14 10:24:41.47	163.28	4.82	
2025-01-14 10:24:41.67	163.28	4.83	
2025-01-14 10:24:41.87	163.28	4.85	
2025-01-14 10:24:42.08	163.29	4.86	
2025-01-14 10:24:42.28	163.29	4.88	
2025-01-14 10:24:42.49	163.29	4.89	
2025-01-14 10:24:42.70	163.29	4.91	
2025-01-14 10:24:42.90	163.29	4.92	
2025-01-14 10:24:43.10	163.30	4.94	
2025-01-14 10:24:43.31	163.30	4.95	
2025-01-14 10:24:43.52	163.30	4.97	
2025-01-14 10:24:43.72	163.30	4.98	
2025-01-14 10:24:43.94	163.30	5.00	
2025-01-14 10:24:44.15	163.31	5.01	
2025-01-14 10:24:44.35	163.31	5.02	
2025-01-14 10:24:44.56	163.31	5.04	
2025-01-14 10:24:44.76	163.31	5.05	
2025-01-14 10:24:44.98	163.31	5.07	
2025-01-14 10:24:45.19	163.32	5.09	
2025-01-14 10:24:45.39	163.32	5.10	
2025-01-14 10:24:45.60	163.32	5.11	
2025-01-14 10:24:45.80	163.32	5.13	
2025-01-14 10:24:46.01	163.32	5.14	
2025-01-14 10:24:46.22	163.33	5.16	
2025-01-14 10:24:46.42	163.33	5.17	
2025-01-14 10:24:46.63	163.33	5.19	
2025-01-14 10:24:46.83	163.33	5.20	
2025-01-14 10:24:47.03	163.33	5.22	
2025-01-14 10:24:47.24	163.34	5.23	
2025-01-14 10:24:47.45	163.34	5.25	
2025-01-14 10:24:47.65	163.34	5.26	
2025-01-14 10:24:47.86	163.34	5.28	
2025-01-14 10:24:48.06	163.34	5.29	
2025-01-14 10:24:48.26	163.35	5.31	
2025-01-14 10:24:48.47	163.35	5.32	
2025-01-14 10:24:48.68	163.35	5.34	
2025-01-14 10:24:48.88	163.35	5.35	
2025-01-14 10:24:49.09	163.35	5.37	
2025-01-14 10:24:49.30	163.36	5.38	
2025-01-14 10:24:49.51	163.36	5.40	
2025-01-14 10:24:49.71	163.36	5.41	
2025-01-14 10:24:49.91	163.36	5.43	
2025-01-14 10:24:50.12	163.36	5.44	
2025-01-14 10:24:50.32	163.37	5.46	
2025-01-14 10:24:50.53	163.37	5.47	
2025-01-14 10:24:50.73	163.37	5.49	
2025-01-14 10:24:50.94	163.37	5.50	
2025-01-14 10:24:51.15	163.37	5.52	
2025-01-14 10:24:51.35	163.38	5.53	
2025-01-14 10:24:51.56	163.38	5.55	
2025-01-14 10:24:51.76	163.38	5.56	
2025-01-14 10:24:51.97	163.38	5.58	
2025-01-14 10:24:52.17	163.38	5.59	
2025-01-14 10:24:52.37	163.39	5.61	
2025-01-14 10:24:52.58	163.39	5.62	
2025-01-14 10:24:52.79	163.39	5.64	
2025-01-14 10:24:52.99	163.39	5.65	
2025-01-14 10:24:53.20	163.40	5.67	
2025-01-14 10:24:53.40	163.40	5.68	
2025-01-14 10:24:53.61	163.40	5.70	
2025-01-14 10:24:53.81	163.40	5.71	
2025-01-14 10:24:54.02	163.40	5.73	
2025-01-14 10:24:54.22	163.41	5.74	
2025-01-14 10:24:54.43	163.41	5.76	
2025-01-14 10:24:54.63	163.41	5.77	
2025-01-14 10:24:54.84	163.41	5.79	
2025-01-14 10:24:55.05	163.41	5.80	
2025-01-14 10:24:55.25	163.42	5.82	
2025-01-14 10:24:55.46	163.42	5.83	
2025-01-14 10:24:55.66	163.42	5.85	
2025-01-14 10:24:55.87	163.42	5.86	
2025-01-14 10:24:56.07	163.42	5.88	
2025-01-14 10:24:56.28	163.43	5.89	
2025-01-14 10:24:56.49	163.43	5.91	
2025-01-14 10:24:56.69	163.43	5.93	
2025-01-14 10:24:56.90	163.43	5.94	
2025-01-14 10:24:57.10	163.43	5.96	
2025-01-14 10:24:57.31	163.44	5.97	
2025-01-14 10:24:57.51	163.44	5.99	
2025-01-14 10:24:57.72	163.44	6.00	
2025-01-14 10:24:57.92	163.44	6.02	
2025-01-14 10:24:58.13	163.45	6.03	
2025-01-14 10:24:58.33	163.45	6.05	
2025-01-14 10:24:58.54	163.45	6.06	
2025-01-14 10:24:58.74	163.45	6.08	
2025-01-14 10:24:58.96	163.45	6.09	
2025-01-14 10:24:59.17	163.46	6.11	
2025-01-14 10:24:59.37	163.46	6.12	
2025-01-14 10:24:59.58	163.46	6.14	
2025-01-14 10:24:59.78	163.46	6.16	
2025-01-14 10:24:59.99	163.46	6.17	
2025-01-14 10:25:00.19	163.47	6.19	
2025-01-14 10:25:00.39	163.47	6.20	
2025-01-14 10:25:00.60	163.47	6.22	
2025-01-14 10:25:00.81	163.47	6.23	
2025-01-14 10:25:01.01	163.48	6.25	
2025-01-14 10:25:01.22	163.48	6.26	
2025-01-14 10:25:01.42	163.48	6.28	
2025-01-14 10:25:01.63	163.48	6.29	
2025-01-14 10:25:01.83	163.48	6.31	
2025-01-14 10:25:02.04	163.49	6.33	
2025-01-14 10:25:02.24	163.49	6.34	
2025-01-14 10:25:02.45	163.49	6.36	
2025-01-14 10:25:02.65	163.49	6.37	
2025-01-14 10:25:02.86	163.49	6.39	
2025-01-14 10:25:03.06	163.50	6.40	
2025-01-14 10:25:03.27	163.50	6.42	
2025-01-14 10:25:03.47	163.50	6.43	
2025-01-14 10:25:03.68	163.50	6.45	
2025-01-14 10:25:03.88	163.51	6.46	
2025-01-14 10:25:04.09	163.51	6.48	
2025-01-14 10:25:04.29	163.51	6.50	
2025-01-14 10:25:04.50	163.51	6.51	
2025-01-14 10:25:04.70	163.51	6.53	
2025-01-14 10:25:04.91	163.52	6.54	
2025-01-14 10:25:05.12	163.52	6.56	
2025-01-14 10:25:05.32	163.52	6.57	
2025-01-14 10:25:05.53	163.52	6.59	
2025-01-14 10:25:05.73	163.52	6.61	
2025-01-14 10:25:05.94	163.53	6.62	
2025-01-14 10:25:06.14	163.53	6.64	
2025-01-14 10:25:06.35	163.53	6.65	
2025-01-14 10:25:06.55	163.53	6.67	
2025-01-14 10:25:06.76	163.54	6.68	
2025-01-14 10:25:06.96	163.54	6.70	
2025-01-14 10:25:07.17	163.54	6.71	
2025-01-14 10:25:07.37	163.54	6.73	
2025-01-14 10:25:07.58	163.54	6.75	
2025-01-14 10:25:07.79	163.55	6.76	
2025-01-14 10:25:07.99	163.55	6.78	
2025-01-14 10:25:08.20	163.55	6.79	
2025-01-14 10:25:08.40	163.55	6.81	
2025-01-14 10:25:08.61	163.56	6.83	
2025-01-14 10:25:08.81	163.56	6.84	
2025-01-14 10:25:09.02	163.56	6.86	
2025-01-14 10:25:09.22	163.56	6.87	
2025-01-14 10:25:09.43	163.56	6.89	
2025-01-14 10:25:09.63	163.57	6.90	
2025-01-14 10:25:09.84	163.57	6.92	
2025-01-14 10:25:10.05	163.57	6.94	
2025-01-14 10:25:10.25	163.57	6.95	
2025-01-14 10:25:10.46	163.58	6.97	
2025-01-14 10:25:10.66	163.58	6.98	
2025-01-14 10:25:10.87	163.58	7.00	
2025-01-14 10:25:11.07	163.58	7.02	
2025-01-14 10:25:11.28	163.58	7.03	
2025-01-14 10:25:11.48	163.59	7.05	
2025-01-14 10:25:11.69	163.59	7.06	
2025-01-14 10:25:11.89	163.59	7.08	
2025-01-14 10:25:12.10	163.59	7.10	
2025-01-14 10:25:12.30	163.60	7.11	
2025-01-14 10:25:12.51	163.60	7.13	
2025-01-14 10:25:12.71	163.60	7.14	
2025-01-14 10:25:12.92	163.60	7.16	
2025-01-14 10:25:13.12	163.60	7.17	
2025-01-14 10:25:13.33	163.61	7.19	
2025-01-14 10:25:13.54	163.61	7.21	
2025-01-14 10:25:13.74	163.61	7.22	
2025-01-14 10:25:13.95	163.61	7.24	
2025-01-14 10:25:14.15	163.62	7.25	
2025-01-14 10:25:14.36	163.62	7.27	
2025-01-14 10:25:14.56	163.62	7.29	
2025-01-14 10:25:14.77	163.62	7.30	
2025-01-14 10:25:14.97	163.62	7.32	
2025-01-14 10:25:15.18	163.63	7.34	
2025-01-14 10:25:15.38	163.63	7.35	
2025-01-14 10:25:15.59	163.63	7.37	
2025-01-14 10:25:15.80	163.63	7.38	
2025-01-14 10:25:16.00	163.64	7.40	
2025-01-14 10:25:16.21	163.64	7.42	
2025-01-14 10:25:16.41	163.64	7.43	
2025-01-14 10:25:16.62	163.64	7.45	
2025-01-14 10:25:16.82	163.64	7.46	
2025-01-14 10:25:17.03	163.65	7.48	
2025-01-14 10:25:17.23	163.65	7.50	
2025-01-14 10:25:17.44	163.65	7.51	
2025-01-14 10:25:17.65	163.65	7.53	
2025-01-14 10:25:17.85	163.66	7.55	
2025-01-14 10:25:18.05	163.66	7.56	
2025-01-14 10:25:18.26	163.66	7.58	
2025-01-14 10:25:18.47	163.66	7.59	
2025-01-14 10:25:18.67	163.67	7.61	
2025-01-14 10:25:18.88	163.67	7.63	
2025-01-14 10:25:19.08	163.67	7.64	
2025-01-14 10:25:19.29	163.67	7.66	
2025-01-14 10:25:19.49	163.67	7.68	
2025-01-14 10:25:19.70	163.68	7.69	
2025-01-14 10:25:19.91	163.68	7.71	
2025-01-14 10:25:20.11	163.68	7.72	
2025-01-14 10:25:20.33	163.68	7.74	
2025-01-14 10:25:20.54	163.69	7.76	
2025-01-14 10:25:20.74	163.69	7.78	
2025-01-14 10:25:20.95	163.69	7.79	
2025-01-14 10:25:21.16	163.69	7.81	
2025-01-14 10:25:21.36	163.70	7.82	
2025-01-14 10:25:21.57	163.70	7.84	
2025-01-14 10:25:21.77	163.70	7.86	
2025-01-14 10:25:21.98	163.70	7.87	
2025-01-14 10:25:22.18	163.70	7.89	
2025-01-14 10:25:22.39	163.71	7.91	
2025-01-14 10:25:22.59	163.71	7.92	
2025-01-14 10:25:22.80	163.71	7.94	
2025-01-14 10:25:23.00	163.71	7.96	
2025-01-14 10:25:23.21	163.72	7.97	
2025-01-14 10:25:23.41	163.72	7.99	
2025-01-14 10:25:23.62	163.72	8.01	
2025-01-14 10:25:23.83	163.72	8.02	
2025-01-14 10:25:24.03	163.73	8.04	
2025-01-14 10:25:24.24	163.73	8.06	
2025-01-14 10:25:24.44	163.73	8.07	
2025-01-14 10:25:24.65	163.73	8.09	
2025-01-14 10:25:24.85	163.73	8.10	
2025-01-14 10:25:25.06	163.74	8.12	
2025-01-14 10:25:25.26	163.74	8.14	
2025-01-14 10:25:25.47	163.74	8.16	
2025-01-14 10:25:25.67	163.74	8.17	
2025-01-14 10:25:25.88	163.75	8.19	
2025-01-14 10:25:26.08	163.75	8.20	
2025-01-14 10:25:26.29	163.75	8.22	
2025-01-14 10:25:26.49	163.75	8.24	
2025-01-14 10:25:26.70	163.76	8.25	
2025-01-14 10:25:26.91	163.76	8.27	
2025-01-14 10:25:27.11	163.76	8.29	
2025-01-14 10:25:27.32	163.76	8.31	
2025-01-14 10:25:27.52	163.77	8.32	
2025-01-14 10:25:27.72	163.77	8.34	
2025-01-14 10:25:27.93	163.77	8.36	
2025-01-14 10:25:28.14	163.77	8.37	
2025-01-14 10:25:28.34	163.78	8.39	
2025-01-14 10:25:28.55	163.78	8.41	
2025-01-14 10:25:28.75	163.78	8.42	
2025-01-14 10:25:28.96	163.78	8.44	
2025-01-14 10:25:29.16	163.78	8.46	
2025-01-14 10:25:29.37	163.79	8.47	
2025-01-14 10:25:29.57	163.79	8.49	
2025-01-14 10:25:29.78	163.79	8.51	
2025-01-14 10:25:29.98	163.79	8.52	
2025-01-14 10:25:30.19	163.80	8.54	
2025-01-14 10:25:30.39	163.80	8.56	
2025-01-14 10:25:30.60	163.80	8.57	
2025-01-14 10:25:30.80	163.80	8.59	
2025-01-14 10:25:31.01	163.81	8.61	
2025-01-14 10:25:31.21	163.81	8.62	
2025-01-14 10:25:31.42	163.81	8.64	
2025-01-14 10:25:31.63	163.81	8.66	
2025-01-14 10:25:31.83	163.82	8.68	
2025-01-14 10:25:32.04	163.82	8.69	
2025-01-14 10:25:32.24	163.82	8.71	
2025-01-14 10:25:32.45	163.82	8.73	
2025-01-14 10:25:32.65	163.83	8.74	
2025-01-14 10:25:32.86	163.83	8.76	
2025-01-14 10:25:33.07	163.83	8.78	
2025-01-14 10:25:33.28	163.83	8.80	
2025-01-14 10:25:33.49	163.84	8.81	
2025-01-14 10:25:33.69	163.84	8.83	
2025-01-14 10:25:33.90	163.84	8.85	
2025-01-14 10:25:34.10	163.84	8.86	
2025-01-14 10:25:34.31	163.85	8.88	
2025-01-14 10:25:34.52	163.85	8.90	
2025-01-14 10:25:34.72	163.85	8.92	
2025-01-14 10:25:34.94	163.85	8.93	
2025-01-14 10:25:35.16	163.86	8.95	
2025-01-14 10:25:35.37	163.86	8.97	
2025-01-14 10:25:35.57	163.86	8.99	
2025-01-14 10:25:35.78	163.86	9.00	
2025-01-14 10:25:35.98	163.87	9.02	
2025-01-14 10:25:36.19	163.87	9.04	
2025-01-14 10:25:36.39	163.87	9.06	
2025-01-14 10:25:36.60	163.87	9.07	
2025-01-14 10:25:36.80	163.87	9.09	
2025-01-14 10:25:37.01	163.88	9.11	
2025-01-14 10:25:37.21	163.88	9.12	
2025-01-14 10:25:37.42	163.88	9.14	
2025-01-14 10:25:37.62	163.88	9.16	
2025-01-14 10:25:37.83	163.89	9.18	
2025-01-14 10:25:38.03	163.89	9.19	
2025-01-14 10:25:38.24	163.89	9.21	
2025-01-14 10:25:38.46	163.89	9.23	
2025-01-14 10:25:38.66	163.90	9.25	
2025-01-14 10:25:38.87	163.90	9.26	
2025-01-14 10:25:39.07	163.90	9.28	
2025-01-14 10:25:39.28	163.90	9.30	
2025-01-14 10:25:39.48	163.91	9.32	
2025-01-14 10:25:39.69	163.91	9.33	
2025-01-14 10:25:39.90	163.91	9.35	
2025-01-14 10:25:40.10	163.91	9.37	
2025-01-14 10:25:40.31	163.92	9.39	
2025-01-14 10:25:40.51	163.92	9.40	
2025-01-14 10:25:40.71	163.92	9.42	
2025-01-14 10:25:40.92	163.92	9.44	
2025-01-14 10:25:41.12	163.93	9.46	
2025-01-14 10:25:41.33	163.93	9.47	
2025-01-14 10:25:41.53	163.93	9.49	
2025-01-14 10:25:41.74	163.93	9.51	
2025-01-14 10:25:41.94	163.94	9.53	
2025-01-14 10:25:42.15	163.94	9.54	
2025-01-14 10:25:42.35	163.94	9.56	
2025-01-14 10:25:42.55	163.94	9.58	
2025-01-14 10:25:42.76	163.95	9.60	
2025-01-14 10:25:42.96	163.95	9.61	
2025-01-14 10:25:43.17	163.95	9.63	
2025-01-14 10:25:43.37	163.96	9.65	
2025-01-14 10:25:43.58	163.96	9.67	
2025-01-14 10:25:43.78	163.96	9.68	
2025-01-14 10:25:43.99	163.96	9.70	
2025-01-14 10:25:44.20	163.97	9.72	
2025-01-14 10:25:44.40	163.97	9.74	
2025-01-14 10:25:44.61	163.97	9.76	
2025-01-14 10:25:44.82	163.97	9.77	
2025-01-14 10:25:45.02	163.98	9.79	
2025-01-14 10:25:45.22	163.98	9.81	
2025-01-14 10:25:45.43	163.98	9.83	
2025-01-14 10:25:45.64	163.98	9.84	
2025-01-14 10:25:45.84	163.99	9.86	
2025-01-14 10:25:46.05	163.99	9.88	
2025-01-14 10:25:46.25	163.99	9.90	
2025-01-14 10:25:46.46	163.99	9.92	
2025-01-14 10:25:46.66	164.00	9.93	
2025-01-14 10:25:46.87	164.00	9.95	
2025-01-14 10:25:47.07	164.00	9.97	
2025-01-14 10:25:47.28	164.00	9.99	
2025-01-14 10:25:47.48	164.01	10.00	
2025-01-14 10:25:47.69	164.01	10.02	
2025-01-14 10:25:47.90	164.01	10.04	
2025-01-14 10:25:48.10	164.01	10.06	
2025-01-14 10:25:48.31	164.02	10.08	
2025-01-14 10:25:48.51	164.02	10.09	
2025-01-14 10:25:48.72	164.02	10.11	
2025-01-14 10:25:48.92	164.02	10.13	
2025-01-14 10:25:49.13	164.03	10.15	
2025-01-14 10:25:49.33	164.03	10.17	
2025-01-14 10:25:49.54	164.03	10.18	
2025-01-14 10:25:49.74	164.03	10.20	
2025-01-14 10:25:49.95	164.04	10.22	
2025-01-14 10:25:50.15	164.04	10.24	
2025-01-14 10:25:50.36	164.04	10.26	
2025-01-14 10:25:50.56	164.05	10.27	
2025-01-14 10:25:50.77	164.05	10.29	
2025-01-14 10:25:50.98	164.05	10.31	
2025-01-14 10:25:51.18	164.05	10.33	
2025-01-14 10:25:51.39	164.06	10.35	
2025-01-14 10:25:51.59	164.06	10.37	
2025-01-14 10:25:51.80	164.06	10.38	
2025-01-14 10:25:52.00	164.06	10.40	
2025-01-14 10:25:52.21	164.07	10.42	
2025-01-14 10:25:52.41	164.07	10.44	
2025-01-14 10:25:52.61	164.07	10.46	
2025-01-14 10:25:52.82	164.07	10.47	
2025-01-14 10:25:53.02	164.08	10.49	
2025-01-14 10:25:53.23	164.08	10.51	
2025-01-14 10:25:53.43	164.08	10.53	
2025-01-14 10:25:53.64	164.09	10.55	
2025-01-14 10:25:53.85	164.09	10.57	
2025-01-14 10:25:54.05	164.09	10.58	
2025-01-14 10:25:54.26	164.09	10.60	
2025-01-14 10:25:54.47	164.10	10.62	
2025-01-14 10:25:54.67	164.10	10.64	
2025-01-14 10:25:54.88	164.10	10.66	
2025-01-14 10:25:55.09	164.10	10.68	
2025-01-14 10:25:55.29	164.11	10.69	
2025-01-14 10:25:55.49	164.11	10.71	
2025-01-14 10:25:55.70	164.11	10.73	
2025-01-14 10:25:55.91	164.11	10.75	
2025-01-14 10:25:56.11	164.12	10.77	
2025-01-14 10:25:56.32	164.12	10.79	
2025-01-14 10:25:56.52	164.12	10.81	
2025-01-14 10:25:56.73	164.13	10.82	
2025-01-14 10:25:56.93	164.13	10.84	
2025-01-14 10:25:57.14	164.13	10.86	
2025-01-14 10:25:57.34	164.13	10.88	
2025-01-14 10:25:57.55	164.14	10.90	
2025-01-14 10:25:57.75	164.14	10.92	
2025-01-14 10:25:57.96	164.14	10.94	
2025-01-14 10:25:58.16	164.14	10.95	
2025-01-14 10:25:58.37	164.15	10.97	
2025-01-14 10:25:58.57	164.15	10.99	
2025-01-14 10:25:58.79	164.15	11.01	
2025-01-14 10:25:58.99	164.16	11.03	
2025-01-14 10:25:59.20	164.16	11.05	
2025-01-14 10:25:59.41	164.16	11.07	
2025-01-14 10:25:59.61	164.16	11.09	
2025-01-14 10:25:59.82	164.17	11.10	
2025-01-14 10:26:00.02	164.17	11.12	
2025-01-14 10:26:00.22	164.17	11.14	
2025-01-14 10:26:00.43	164.17	11.16	
2025-01-14 10:26:00.63	164.18	11.18	
2025-01-14 10:26:00.84	164.18	11.20	
2025-01-14 10:26:01.05	164.18	11.22	
2025-01-14 10:26:01.25	164.19	11.24	
2025-01-14 10:26:01.46	164.19	11.25	
2025-01-14 10:26:01.67	164.19	11.27	
2025-01-14 10:26:01.87	164.19	11.29	
2025-01-14 10:26:02.07	164.20	11.31	
2025-01-14 10:26:02.28	164.20	11.33	
2025-01-14 10:26:02.48	164.20	11.35	
2025-01-14 10:26:02.69	164.20	11.37	
2025-01-14 10:26:02.89	164.21	11.39	
2025-01-14 10:26:03.10	164.21	11.41	
2025-01-14 10:26:03.31	164.21	11.42	
2025-01-14 10:26:03.51	164.22	11.44	
2025-01-14 10:26:03.72	164.22	11.46	
2025-01-14 10:26:03.92	164.22	11.48	
2025-01-14 10:26:04.13	164.22	11.50	
2025-01-14 10:26:04.33	164.23	11.52	
2025-01-14 10:26:04.54	164.23	11.54	
2025-01-14 10:26:04.74	164.23	11.56	
2025-01-14 10:26:04.95	164.24	11.58	
2025-01-14 10:26:05.15	164.24	11.60	
2025-01-14 10:26:05.36	164.24	11.61	
2025-01-14 10:26:05.57	164.24	11.63	
2025-01-14 10:26:05.77	164.25	11.65	
2025-01-14 10:26:05.98	164.25	11.67	
2025-01-14 10:26:06.18	164.25	11.69	
2025-01-14 10:26:06.38	164.26	11.71	
2025-01-14 10:26:06.59	164.26	11.73	
2025-01-14 10:26:06.80	164.26	11.75	
2025-01-14 10:26:07.00	164.26	11.77	
2025-01-14 10:26:07.21	164.27	11.79	
2025-01-14 10:26:07.41	164.27	11.81	
2025-01-14 10:26:07.62	164.27	11.83	
2025-01-14 10:26:07.82	164.28	11.84	
2025-01-14 10:26:08.03	164.28	11.86	
2025-01-14 10:26:08.23	164.28	11.88	
2025-01-14 10:26:08.45	164.28	11.90	
2025-01-14 10:26:08.66	164.29	11.92	
2025-01-14 10:26:08.86	164.29	11.94	
2025-01-14 10:26:09.07	164.29	11.96	
2025-01-14 10:26:09.27	164.30	11.98	
2025-01-14 10:26:09.49	164.30	12.00	
2025-01-14 10:26:09.69	164.30	12.02	
2025-01-14 10:26:09.90	164.30	12.04	
2025-01-14 10:26:10.10	164.31	12.06	
2025-01-14 10:26:10.31	164.31	12.08	
2025-01-14 10:26:10.53	164.31	12.10	
2025-01-14 10:26:10.73	164.32	12.12	
2025-01-14 10:26:10.94	164.32	12.14	
2025-01-14 10:26:11.15	164.32	12.16	
2025-01-14 10:26:11.35	164.32	12.18	
2025-01-14 10:26:11.55	164.33	12.20	
2025-01-14 10:26:11.76	164.33	12.22	
2025-01-14 10:26:11.97	164.33	12.24	
2025-01-14 10:26:12.17	164.34	12.26	
2025-01-14 10:26:12.38	164.34	12.28	
2025-01-14 10:26:12.58	164.34	12.30	
2025-01-14 10:26:12.79	164.35	12.32	
2025-01-14 10:26:12.99	164.35	12.34	
2025-01-14 10:26:13.20	164.35	12.36	
2025-01-14 10:26:13.40	164.35	12.38	
2025-01-14 10:26:13.61	164.36	12.40	
2025-01-14 10:26:13.81	164.36	12.41	
2025-01-14 10:26:14.02	164.36	12.43	
2025-01-14 10:26:14.22	164.37	12.45	
2025-01-14 10:26:14.43	164.37	12.47	
2025-01-14 10:26:14.64	164.37	12.49	
2025-01-14 10:26:14.84	164.37	12.51	
2025-01-14 10:26:15.05	164.38	12.53	
2025-01-14 10:26:15.25	164.38	12.55	
2025-01-14 10:26:15.46	164.38	12.57	
2025-01-14 10:26:15.66	164.39	12.59	
2025-01-14 10:26:15.87	164.39	12.61	
2025-01-14 10:26:16.07	164.39	12.63	
2025-01-14 10:26:16.28	164.40	12.65	
2025-01-14 10:26:16.48	164.40	12.67	
2025-01-14 10:26:16.69	164.40	12.69	
2025-01-14 10:26:16.89	164.40	12.71	
2025-01-14 10:26:17.10	164.41	12.73	
2025-01-14 10:26:17.30	164.41	12.75	
2025-01-14 10:26:17.51	164.41	12.77	
2025-01-14 10:26:17.71	164.42	12.79	
2025-01-14 10:26:17.92	164.42	12.81	
2025-01-14 10:26:18.12	164.42	12.83	
2025-01-14 10:26:18.33	164.42	12.85	
2025-01-14 10:26:18.53	164.43	12.87	
2025-01-14 10:26:18.74	164.43	12.89	
2025-01-14 10:26:18.94	164.43	12.91	
2025-01-14 10:26:19.15	164.44	12.93	
2025-01-14 10:26:19.36	164.44	12.95	
2025-01-14 10:26:19.56	164.44	12.97	
2025-01-14 10:26:19.77	164.45	12.99	
2025-01-14 10:26:19.97	164.45	13.01	
2025-01-14 10:26:20.17	164.45	13.03	
2025-01-14 10:26:20.38	164.46	13.05	
2025-01-14 10:26:20.58	164.46	13.07	
2025-01-14 10:26:20.79	164.46	13.10	
2025-01-14 10:26:20.99	164.46	13.12	
2025-01-14 10:26:21.20	164.47	13.14	
2025-01-14 10:26:21.40	164.47	13.16	
2025-01-14 10:26:21.61	164.47	13.18	
2025-01-14 10:26:21.81	164.48	13.20	
2025-01-14 10:26:22.02	164.48	13.22	
2025-01-14 10:26:22.22	164.48	13.24	
2025-01-14 10:26:22.43	164.49	13.26	
2025-01-14 10:26:22.63	164.49	13.28	
2025-01-14 10:26:22.84	164.49	13.30	
2025-01-14 10:26:23.05	164.49	13.32	
2025-01-14 10:26:23.25	164.50	13.34	
2025-01-14 10:26:23.45	164.50	13.36	
2025-01-14 10:26:23.66	164.50	13.38	
2025-01-14 10:26:23.86	164.51	13.40	
2025-01-14 10:26:24.07	164.51	13.42	
2025-01-14 10:26:24.27	164.51	13.44	
2025-01-14 10:26:24.48	164.52	13.46	
2025-01-14 10:26:24.68	164.52	13.48	
2025-01-14 10:26:24.89	164.52	13.50	
2025-01-14 10:26:25.09	164.53	13.52	
2025-01-14 10:26:25.30	164.53	13.55	
2025-01-14 10:26:25.51	164.53	13.57	
2025-01-14 10:26:25.71	164.54	13.59	
2025-01-14 10:26:25.92	164.54	13.61	
2025-01-14 10:26:26.12	164.54	13.63	
2025-01-14 10:26:26.33	164.54	13.65	
2025-01-14 10:26:26.53	164.55	13.67	
2025-01-14 10:26:26.74	164.55	13.69	
2025-01-14 10:26:26.94	164.55	13.71	
2025-01-14 10:26:27.15	164.56	13.73	
2025-01-14 10:26:27.36	164.56	13.75	
2025-01-14 10:26:27.56	164.56	13.77	
2025-01-14 10:26:27.76	164.57	13.79	
2025-01-14 10:26:27.97	164.57	13.82	
2025-01-14 10:26:28.17	164.57	13.84	
2025-01-14 10:26:28.38	164.58	13.86	
2025-01-14 10:26:28.58	164.58	13.88	
2025-01-14 10:26:28.79	164.58	13.90	
2025-01-14 10:26:28.99	164.59	13.92	
2025-01-14 10:26:29.20	164.59	13.94	
2025-01-14 10:26:29.40	164.59	13.96	
2025-01-14 10:26:29.61	164.60	13.98	
2025-01-14 10:26:29.83	164.60	14.01	
2025-01-14 10:26:30.03	164.60	14.03	
2025-01-14 10:26:30.24	164.61	14.05	
2025-01-14 10:26:30.45	164.61	14.07	
2025-01-14 10:26:30.65	164.61	14.09	
2025-01-14 10:26:30.87	164.61	14.11	
2025-01-14 10:26:31.07	164.62	14.13	
2025-01-14 10:26:31.28	164.62	14.16	
2025-01-14 10:26:31.49	164.62	14.18	
2025-01-14 10:26:31.69	164.63	14.20	
2025-01-14 10:26:31.90	164.63	14.22	
2025-01-14 10:26:32.10	164.63	14.24	
2025-01-14 10:26:32.31	164.64	14.26	
2025-01-14 10:26:32.51	164.64	14.28	
2025-01-14 10:26:32.72	164.64	14.31	
2025-01-14 10:26:32.92	164.65	14.33	
2025-01-14 10:26:33.13	164.65	14.35	
2025-01-14 10:26:33.34	164.65	14.37	
2025-01-14 10:26:33.54	164.66	14.39	
2025-01-14 10:26:33.75	164.66	14.41	
2025-01-14 10:26:33.95	164.66	14.43	
2025-01-14 10:26:34.16	164.67	14.46	
2025-01-14 10:26:34.36	164.67	14.48	
2025-01-14 10:26:34.57	164.67	14.50	
2025-01-14 10:26:34.78	164.68	14.52	
2025-01-14 10:26:34.98	164.68	14.54	
2025-01-14 10:26:35.20	164.68	14.56	
2025-01-14 10:26:35.41	164.69	14.59	
2025-01-14 10:26:35.61	164.69	14.61	
2025-01-14 10:26:35.82	164.69	14.63	
2025-01-14 10:26:36.02	164.70	14.65	
2025-01-14 10:26:36.23	164.70	14.67	
2025-01-14 10:26:36.43	164.70	14.69	
2025-01-14 10:26:36.64	164.71	14.72	
2025-01-14 10:26:36.85	164.71	14.74	
2025-01-14 10:26:37.05	164.71	14.76	
2025-01-14 10:26:37.25	164.72	14.78	
2025-01-14 10:26:37.46	164.72	14.80	
2025-01-14 10:26:37.66	164.72	14.82	
2025-01-14 10:26:37.87	164.73	14.85	
2025-01-14 10:26:38.07	164.73	14.87	
2025-01-14 10:26:38.29	164.73	14.89	
2025-01-14 10:26:38.50	164.74	14.91	
2025-01-14 10:26:38.70	164.74	14.94	
2025-01-14 10:26:38.91	164.74	14.96	
2025-01-14 10:26:39.11	164.75	14.98	
2025-01-14 10:26:39.31	164.75	15.00	
2025-01-14 10:26:39.52	164.75	15.02	
2025-01-14 10:26:39.73	164.76	15.05	
2025-01-14 10:26:39.93	164.76	15.07	
2025-01-14 10:26:40.14	164.76	15.09	
2025-01-14 10:26:40.34	164.77	15.11	
2025-01-14 10:26:40.55	164.77	15.13	
2025-01-14 10:26:40.75	164.77	15.15	
2025-01-14 10:26:40.96	164.78	15.18	
2025-01-14 10:26:41.16	164.78	15.20	
2025-01-14 10:26:41.37	164.78	15.22	
2025-01-14 10:26:41.57	164.79	15.24	
2025-01-14 10:26:41.78	164.79	15.27	
2025-01-14 10:26:41.98	164.79	15.29	
2025-01-14 10:26:42.19	164.80	15.31	
2025-01-14 10:26:42.39	164.80	15.33	
2025-01-14 10:26:42.61	164.81	15.36	
2025-01-14 10:26:42.81	164.81	15.38	
2025-01-14 10:26:43.02	164.81	15.40	
2025-01-14 10:26:43.23	164.82	15.42	
2025-01-14 10:26:43.43	164.82	15.45	
2025-01-14 10:26:43.65	164.82	15.47	
2025-01-14 10:26:43.85	164.83	15.49	
2025-01-14 10:26:44.06	164.83	15.51	
2025-01-14 10:26:44.26	164.83	15.54	
2025-01-14 10:26:44.47	164.84	15.56	
2025-01-14 10:26:44.68	164.84	15.58	
2025-01-14 10:26:44.88	164.84	15.60	
2025-01-14 10:26:45.09	164.85	15.63	
2025-01-14 10:26:45.29	164.85	15.65	
2025-01-14 10:26:45.50	164.85	15.67	
2025-01-14 10:26:45.70	164.86	15.69	
2025-01-14 10:26:45.91	164.86	15.72	
2025-01-14 10:26:46.11	164.86	15.74	
2025-01-14 10:26:46.32	164.87	15.76	
2025-01-14 10:26:46.53	164.87	15.79	
2025-01-14 10:26:46.73	164.88	15.81	
2025-01-14 10:26:46.93	164.88	15.83	
2025-01-14 10:26:47.14	164.88	15.85	
2025-01-14 10:26:47.35	164.89	15.88	
2025-01-14 10:26:47.55	164.89	15.90	
2025-01-14 10:26:47.76	164.89	15.92	
2025-01-14 10:26:47.96	164.90	15.94	
2025-01-14 10:26:48.17	164.90	15.97	
2025-01-14 10:26:48.38	164.90	15.99	
2025-01-14 10:26:48.58	164.91	16.01	
2025-01-14 10:26:48.79	164.91	16.04	
2025-01-14 10:26:48.99	164.91	16.06	
2025-01-14 10:26:49.20	164.92	16.08	
2025-01-14 10:26:49.40	164.92	16.10	
2025-01-14 10:26:49.61	164.93	16.13	
2025-01-14 10:26:49.81	164.93	16.15	
2025-01-14 10:26:50.02	164.93	16.17	
2025-01-14 10:26:50.22	164.94	16.20	
2025-01-14 10:26:50.43	164.94	16.22	
2025-01-14 10:26:50.63	164.94	16.24	
2025-01-14 10:26:50.84	164.95	16.27	
2025-01-14 10:26:51.04	164.95	16.29	
2025-01-14 10:26:51.25	164.95	16.31	
2025-01-14 10:26:51.45	164.96	16.34	
2025-01-14 10:26:51.66	164.96	16.36	
2025-01-14 10:26:51.86	164.96	16.38	
2025-01-14 10:26:52.07	164.97	16.41	
2025-01-14 10:26:52.27	164.97	16.43	
2025-01-14 10:26:52.48	164.98	16.45	
2025-01-14 10:26:52.68	164.98	16.47	
2025-01-14 10:26:52.89	164.98	16.50	
2025-01-14 10:26:53.09	164.99	16.52	
2025-01-14 10:26:53.30	164.99	16.54	
2025-01-14 10:26:53.50	164.99	16.57	
2025-01-14 10:26:53.71	165.00	16.59	
2025-01-14 10:26:53.91	165.00	16.61	
2025-01-14 10:26:54.12	165.01	16.64	
2025-01-14 10:26:54.32	165.01	16.66	
2025-01-14 10:26:54.52	165.01	16.68	
2025-01-14 10:26:54.73	165.02	16.71	
2025-01-14 10:26:54.94	165.02	16.73	
2025-01-14 10:26:55.14	165.02	16.76	
2025-01-14 10:26:55.34	165.03	16.78	
2025-01-14 10:26:55.55	165.03	16.80	
2025-01-14 10:26:55.75	165.03	16.83	
2025-01-14 10:26:55.96	165.04	16.85	
2025-01-14 10:26:56.16	165.04	16.87	
2025-01-14 10:26:56.37	165.05	16.90	
2025-01-14 10:26:56.59	165.05	16.92	
2025-01-14 10:26:56.79	165.05	16.95	
2025-01-14 10:26:57.00	165.06	16.97	
2025-01-14 10:26:57.20	165.06	16.99	
2025-01-14 10:26:57.41	165.06	17.02	
2025-01-14 10:26:57.61	165.07	17.04	
2025-01-14 10:26:57.82	165.07	17.07	
2025-01-14 10:26:58.02	165.08	17.09	
2025-01-14 10:26:58.23	165.08	17.11	
2025-01-14 10:26:58.43	165.08	17.14	
2025-01-14 10:26:58.64	165.09	17.16	
2025-01-14 10:26:58.84	165.09	17.18	
2025-01-14 10:26:59.05	165.10	17.21	
2025-01-14 10:26:59.26	165.10	17.23	
2025-01-14 10:26:59.46	165.10	17.26	
2025-01-14 10:26:59.67	165.11	17.28	
2025-01-14 10:26:59.87	165.11	17.31	
2025-01-14 10:27:00.08	165.11	17.33	
2025-01-14 10:27:00.28	165.12	17.35	
2025-01-14 10:27:00.49	165.12	17.38	
2025-01-14 10:27:00.69	165.13	17.40	
2025-01-14 10:27:00.89	165.13	17.43	
2025-01-14 10:27:01.10	165.13	17.45	
2025-01-14 10:27:01.31	165.14	17.48	
2025-01-14 10:27:01.51	165.14	17.50	
2025-01-14 10:27:01.71	165.14	17.52	
2025-01-14 10:27:01.92	165.15	17.55	
2025-01-14 10:27:02.13	165.15	17.57	
2025-01-14 10:27:02.33	165.16	17.60	
2025-01-14 10:27:02.53	165.16	17.62	
2025-01-14 10:27:02.74	165.16	17.65	
2025-01-14 10:27:02.96	165.17	17.67	
2025-01-14 10:27:03.17	165.17	17.70	
2025-01-14 10:27:03.37	165.18	17.72	
2025-01-14 10:27:03.58	165.18	17.75	
2025-01-14 10:27:03.78	165.18	17.77	
2025-01-14 10:27:03.99	165.19	17.79	
2025-01-14 10:27:04.19	165.19	17.82	
2025-01-14 10:27:04.40	165.20	17.84	
2025-01-14 10:27:04.60	165.20	17.87	
2025-01-14 10:27:04.81	165.20	17.89	
2025-01-14 10:27:05.01	165.21	17.92	
2025-01-14 10:27:05.22	165.21	17.94	
2025-01-14 10:27:05.42	165.22	17.97	
2025-01-14 10:27:05.63	165.22	17.99	
2025-01-14 10:27:05.84	165.22	18.02	
2025-01-14 10:27:06.04	165.23	18.04	
2025-01-14 10:27:06.25	165.23	18.07	
2025-01-14 10:27:06.45	165.24	18.09	
2025-01-14 10:27:06.66	165.24	18.12	
2025-01-14 10:27:06.87	165.24	18.14	
2025-01-14 10:27:07.08	165.25	18.17	
2025-01-14 10:27:07.28	165.25	18.19	
2025-01-14 10:27:07.49	165.26	18.22	
2025-01-14 10:27:07.69	165.26	18.24	
2025-01-14 10:27:07.90	165.26	18.27	
2025-01-14 10:27:08.10	165.27	18.29	
2025-01-14 10:27:08.32	165.27	18.32	
2025-01-14 10:27:08.52	165.28	18.34	
2025-01-14 10:27:08.73	165.28	18.37	
2025-01-14 10:27:08.93	165.28	18.39	
2025-01-14 10:27:09.14	165.29	18.42	
2025-01-14 10:27:09.36	165.29	18.45	
2025-01-14 10:27:09.56	165.30	18.47	
2025-01-14 10:27:09.77	165.30	18.50	
2025-01-14 10:27:09.97	165.31	18.52	
2025-01-14 10:27:10.18	165.31	18.55	
2025-01-14 10:27:10.38	165.31	18.57	
2025-01-14 10:27:10.59	165.32	18.60	
2025-01-14 10:27:10.79	165.32	18.62	
2025-01-14 10:27:11.00	165.33	18.65	
2025-01-14 10:27:11.21	165.33	18.68	
2025-01-14 10:27:11.41	165.33	18.70	
2025-01-14 10:27:11.62	165.34	18.73	
2025-01-14 10:27:11.82	165.34	18.75	
2025-01-14 10:27:12.03	165.35	18.78	
2025-01-14 10:27:12.23	165.35	18.80	
2025-01-14 10:27:12.44	165.35	18.83	
2025-01-14 10:27:12.65	165.36	18.86	
2025-01-14 10:27:12.85	165.36	18.88	
2025-01-14 10:27:13.06	165.37	18.91	
2025-01-14 10:27:13.26	165.37	18.93	
2025-01-14 10:27:13.47	165.38	18.96	
2025-01-14 10:27:13.67	165.38	18.98	
2025-01-14 10:27:13.88	165.38	19.01	
2025-01-14 10:27:14.08	165.39	19.04	
2025-01-14 10:27:14.29	165.39	19.06	
2025-01-14 10:27:14.50	165.40	19.09	
2025-01-14 10:27:14.70	165.40	19.11	
2025-01-14 10:27:14.91	165.41	19.14	
2025-01-14 10:27:15.11	165.41	19.17	
2025-01-14 10:27:15.32	165.41	19.19	
2025-01-14 10:27:15.53	165.42	19.22	
2025-01-14 10:27:15.73	165.42	19.24	
2025-01-14 10:27:15.94	165.43	19.27	
2025-01-14 10:27:16.14	165.43	19.30	
2025-01-14 10:27:16.35	165.44	19.32	
2025-01-14 10:27:16.55	165.44	19.35	
2025-01-14 10:27:16.76	165.44	19.38	
2025-01-14 10:27:16.96	165.45	19.40	
2025-01-14 10:27:17.17	165.45	19.43	
2025-01-14 10:27:17.38	165.46	19.46	
2025-01-14 10:27:17.59	165.46	19.48	
2025-01-14 10:27:17.79	165.47	19.51	
2025-01-14 10:27:18.00	165.47	19.53	
2025-01-14 10:27:18.20	165.47	19.56	
2025-01-14 10:27:18.41	165.48	19.59	
2025-01-14 10:27:18.61	165.48	19.61	
2025-01-14 10:27:18.82	165.49	19.64	
2025-01-14 10:27:19.02	165.49	19.67	
2025-01-14 10:27:19.23	165.50	19.69	
2025-01-14 10:27:19.43	165.50	19.72	
2025-01-14 10:27:19.64	165.50	19.75	
2025-01-14 10:27:19.84	165.51	19.77	
2025-01-14 10:27:20.05	165.51	19.80	
2025-01-14 10:27:20.25	165.52	19.83	
2025-01-14 10:27:20.46	165.52	19.85	
2025-01-14 10:27:20.66	165.53	19.88	
2025-01-14 10:27:20.87	165.53	19.91	
2025-01-14 10:27:21.07	165.54	19.93	
2025-01-14 10:27:21.28	165.54	19.96	
2025-01-14 10:27:21.48	165.54	19.99	
2025-01-14 10:27:21.69	165.55	20.01	
2025-01-14 10:27:21.89	165.55	20.04	
2025-01-14 10:27:22.10	165.56	20.07	
2025-01-14 10:27:22.30	165.56	20.09	
2025-01-14 10:27:22.51	165.57	20.12	
2025-01-14 10:27:22.71	165.57	20.15	
2025-01-14 10:27:22.92	165.58	20.18	
2025-01-14 10:27:23.12	165.58	20.20	
2025-01-14 10:27:23.33	165.58	20.23	
2025-01-14 10:27:23.53	165.59	20.26	
2025-01-14 10:27:23.74	165.59	20.28	
2025-01-14 10:27:23.95	165.60	20.31	
2025-01-14 10:27:24.15	165.60	20.34	
2025-01-14 10:27:24.36	165.61	20.37	
2025-01-14 10:27:24.56	165.61	20.39	
2025-01-14 10:27:24.77	165.62	20.42	
2025-01-14 10:27:24.97	165.62	20.45	
2025-01-14 10:27:25.18	165.63	20.48	
2025-01-14 10:27:25.38	165.63	20.50	
2025-01-14 10:27:25.59	165.63	20.53	
2025-01-14 10:27:25.79	165.64	20.56	
2025-01-14 10:27:26.00	165.64	20.59	
2025-01-14 10:27:26.20	165.65	20.61	
2025-01-14 10:27:26.41	165.65	20.64	
2025-01-14 10:27:26.61	165.66	20.67	
2025-01-14 10:27:26.82	165.66	20.70	
2025-01-14 10:27:27.02	165.67	20.72	
2025-01-14 10:27:27.23	165.67	20.75	
2025-01-14 10:27:27.44	165.68	20.78	
2025-01-14 10:27:27.65	165.68	20.81	
2025-01-14 10:27:27.85	165.69	20.84	
2025-01-14 10:27:28.06	165.69	20.86	
2025-01-14 10:27:28.26	165.69	20.89	
2025-01-14 10:27:28.47	165.70	20.92	
2025-01-14 10:27:28.67	165.70	20.95	
2025-01-14 10:27:28.87	165.71	20.97	
2025-01-14 10:27:29.09	165.71	21.00	
2025-01-14 10:27:29.30	165.72	21.03	
2025-01-14 10:27:29.50	165.72	21.06	
2025-01-14 10:27:29.71	165.73	21.09	
2025-01-14 10:27:29.91	165.73	21.12	
2025-01-14 10:27:30.12	165.74	21.15	
2025-01-14 10:27:30.32	165.74	21.17	
2025-01-14 10:27:30.53	165.75	21.20	
2025-01-14 10:27:30.73	165.75	21.23	
2025-01-14 10:27:30.94	165.76	21.26	
2025-01-14 10:27:31.14	165.76	21.29	
2025-01-14 10:27:31.35	165.77	21.31	
2025-01-14 10:27:31.55	165.77	21.34	
2025-01-14 10:27:31.76	165.78	21.37	
2025-01-14 10:27:31.96	165.78	21.40	
2025-01-14 10:27:32.17	165.78	21.43	
2025-01-14 10:27:32.37	165.79	21.46	
2025-01-14 10:27:32.58	165.79	21.48	
2025-01-14 10:27:32.79	165.80	21.51	
2025-01-14 10:27:32.99	165.80	21.54	
2025-01-14 10:27:33.20	165.81	21.57	
2025-01-14 10:27:33.40	165.81	21.60	
2025-01-14 10:27:33.61	165.82	21.63	
2025-01-14 10:27:33.81	165.82	21.66	
2025-01-14 10:27:34.01	165.83	21.68	
2025-01-14 10:27:34.22	165.83	21.71	
2025-01-14 10:27:34.43	165.84	21.74	
2025-01-14 10:27:34.63	165.84	21.77	
2025-01-14 10:27:34.84	165.85	21.80	
2025-01-14 10:27:35.04	165.85	21.83	
2025-01-14 10:27:35.25	165.86	21.86	
2025-01-14 10:27:35.45	165.86	21.89	
2025-01-14 10:27:35.66	165.87	21.92	
2025-01-14 10:27:35.86	165.87	21.95	
2025-01-14 10:27:36.08	165.88	21.98	
2025-01-14 10:27:36.29	165.88	22.01	
2025-01-14 10:27:36.49	165.89	22.03	
2025-01-14 10:27:36.70	165.89	22.06	
2025-01-14 10:27:36.92	165.90	22.10	
2025-01-14 10:27:37.12	165.90	22.12	
2025-01-14 10:27:37.32	165.91	22.15	
2025-01-14 10:27:37.53	165.91	22.18	
2025-01-14 10:27:37.73	165.92	22.21	
2025-01-14 10:27:37.94	165.92	22.24	
2025-01-14 10:27:38.14	165.93	22.27	
2025-01-14 10:27:38.35	165.93	22.30	
2025-01-14 10:27:38.56	165.94	22.33	
2025-01-14 10:27:38.76	165.94	22.36	
2025-01-14 10:27:38.97	165.95	22.39	
2025-01-14 10:27:39.17	165.95	22.42	
2025-01-14 10:27:39.38	165.96	22.45	
2025-01-14 10:27:39.58	165.96	22.48	
2025-01-14 10:27:39.79	165.97	22.51	
2025-01-14 10:27:39.99	165.97	22.54	
2025-01-14 10:27:40.20	165.98	22.57	
2025-01-14 10:27:40.40	165.98	22.60	
2025-01-14 10:27:40.60	165.99	22.63	
2025-01-14 10:27:40.81	165.99	22.66	
2025-01-14 10:27:41.02	166.00	22.69	
2025-01-14 10:27:41.22	166.00	22.72	
2025-01-14 10:27:41.42	166.01	22.74	
2025-01-14 10:27:41.63	166.01	22.78	
2025-01-14 10:27:41.83	166.02	22.80	
2025-01-14 10:27:42.04	166.03	22.84	
2025-01-14 10:27:42.24	166.03	22.86	
2025-01-14 10:27:42.46	166.04	22.90	
2025-01-14 10:27:42.67	166.04	22.93	
2025-01-14 10:27:42.87	166.05	22.96	
2025-01-14 10:27:43.08	166.05	22.99	
2025-01-14 10:27:43.28	166.06	23.02	
2025-01-14 10:27:43.48	166.06	23.05	
2025-01-14 10:27:43.69	166.07	23.08	
2025-01-14 10:27:43.90	166.07	23.11	
2025-01-14 10:27:44.10	166.08	23.14	
2025-01-14 10:27:44.31	166.08	23.17	
2025-01-14 10:27:44.51	166.09	23.20	
2025-01-14 10:27:44.72	166.09	23.23	
2025-01-14 10:27:44.92	166.10	23.26	
2025-01-14 10:27:45.13	166.10	23.29	
2025-01-14 10:27:45.33	166.11	23.32	
2025-01-14 10:27:45.54	166.11	23.35	
2025-01-14 10:27:45.76	166.12	23.39	
2025-01-14 10:27:45.96	166.13	23.42	
2025-01-14 10:27:46.17	166.13	23.45	
2025-01-14 10:27:46.37	166.14	23.48	
2025-01-14 10:27:46.58	166.14	23.51	
2025-01-14 10:27:46.78	166.15	23.54	
2025-01-14 10:27:46.99	166.15	23.57	
2025-01-14 10:27:47.20	166.16	23.60	
2025-01-14 10:27:47.40	166.16	23.63	
2025-01-14 10:27:47.61	166.17	23.66	
2025-01-14 10:27:47.81	166.17	23.70	
2025-01-14 10:27:48.02	166.18	23.73	
2025-01-14 10:27:48.23	166.19	23.76	
2025-01-14 10:27:48.44	166.19	23.79	
2025-01-14 10:27:48.64	166.20	23.82	
2025-01-14 10:27:48.84	166.20	23.85	
2025-01-14 10:27:49.05	166.21	23.88	
2025-01-14 10:27:49.26	166.21	23.92	
2025-01-14 10:27:49.46	166.22	23.95	
2025-01-14 10:27:49.67	166.22	23.98	
2025-01-14 10:27:49.87	166.23	24.01	
2025-01-14 10:27:50.08	166.24	24.04	
2025-01-14 10:27:50.28	166.24	24.07	
2025-01-14 10:27:50.49	166.25	24.10	
2025-01-14 10:27:50.70	166.25	24.14	
2025-01-14 10:27:50.90	166.26	24.17	
2025-01-14 10:27:51.11	166.26	24.20	
2025-01-14 10:27:51.31	166.27	24.23	
2025-01-14 10:27:51.52	166.27	24.26	
2025-01-14 10:27:51.72	166.28	24.29	
2025-01-14 10:27:51.93	166.29	24.33	
2025-01-14 10:27:52.13	166.29	24.36	
2025-01-14 10:27:52.34	166.30	24.39	
2025-01-14 10:27:52.54	166.30	24.42	
2025-01-14 10:27:52.75	166.31	24.45	
2025-01-14 10:27:52.95	166.31	24.49	
2025-01-14 10:27:53.17	166.32	24.52	
2025-01-14 10:27:53.38	166.33	24.55	
2025-01-14 10:27:53.58	166.33	24.58	
2025-01-14 10:27:53.79	166.34	24.62	
2025-01-14 10:27:53.99	166.34	24.65	
2025-01-14 10:27:54.20	166.35	24.68	
2025-01-14 10:27:54.40	166.35	24.71	
2025-01-14 10:27:54.61	166.36	24.75	
2025-01-14 10:27:54.81	166.37	24.78	
2025-01-14 10:27:55.02	166.37	24.81	
2025-01-14 10:27:55.22	166.38	24.84	
2025-01-14 10:27:55.43	166.38	24.88	
2025-01-14 10:27:55.63	166.39	24.91	
2025-01-14 10:27:55.84	166.40	24.94	
2025-01-14 10:27:56.05	166.40	24.97	
2025-01-14 10:27:56.25	166.41	25.01	
2025-01-14 10:27:56.45	166.41	25.04	
2025-01-14 10:27:56.66	166.42	25.07	
2025-01-14 10:27:56.87	166.43	25.11	
2025-01-14 10:27:57.07	166.43	25.14	
2025-01-14 10:27:57.28	166.44	25.17	
2025-01-14 10:27:57.48	166.44	25.20	
2025-01-14 10:27:57.68	166.45	25.24	
2025-01-14 10:27:57.89	166.45	25.27	
2025-01-14 10:27:58.09	166.46	25.30	
2025-01-14 10:27:58.30	166.47	25.33	
2025-01-14 10:27:58.50	166.47	25.37	
2025-01-14 10:27:58.71	166.48	25.40	
2025-01-14 10:27:58.92	166.48	25.43	
2025-01-14 10:27:59.12	166.49	25.47	
2025-01-14 10:27:59.33	166.50	25.50	
2025-01-14 10:27:59.53	166.50	25.53	
2025-01-14 10:27:59.74	166.51	25.57	
2025-01-14 10:27:59.94	166.51	25.60	
2025-01-14 10:28:00.15	166.52	25.63	
2025-01-14 10:28:00.35	166.53	25.67	
2025-01-14 10:28:00.56	166.53	25.70	
2025-01-14 10:28:00.77	166.54	25.74	
2025-01-14 10:28:00.98	166.55	25.77	
2025-01-14 10:28:01.18	166.55	25.80	
2025-01-14 10:28:01.39	166.56	25.84	
2025-01-14 10:28:01.59	166.56	25.87	
2025-01-14 10:28:01.80	166.57	25.91	
2025-01-14 10:28:02.00	166.58	25.94	
2025-01-14 10:28:02.21	166.58	25.97	
2025-01-14 10:28:02.41	166.59	26.01	
2025-01-14 10:28:02.62	166.59	26.04	
2025-01-14 10:28:02.82	166.60	26.07	
2025-01-14 10:28:03.03	166.61	26.11	
2025-01-14 10:28:03.23	166.61	26.14	
2025-01-14 10:28:03.44	166.62	26.18	
2025-01-14 10:28:03.64	166.63	26.21	
2025-01-14 10:28:03.85	166.63	26.24	
2025-01-14 10:28:04.05	166.64	26.28	
2025-01-14 10:28:04.26	166.64	26.31	
2025-01-14 10:28:04.47	166.65	26.35	
2025-01-14 10:28:04.67	166.66	26.38	
2025-01-14 10:28:04.89	166.66	26.42	
2025-01-14 10:28:05.10	166.67	26.45	
2025-01-14 10:28:05.30	166.68	26.49	
2025-01-14 10:28:05.51	166.68	26.52	
2025-01-14 10:28:05.71	166.69	26.56	
2025-01-14 10:28:05.93	166.70	26.59	
2025-01-14 10:28:06.14	166.70	26.63	
2025-01-14 10:28:06.34	166.71	26.66	
2025-01-14 10:28:06.55	166.72	26.70	
2025-01-14 10:28:06.75	166.72	26.73	
2025-01-14 10:28:06.95	166.73	26.77	
2025-01-14 10:28:07.16	166.74	26.80	
2025-01-14 10:28:07.37	166.74	26.84	
2025-01-14 10:28:07.57	166.75	26.87	
2025-01-14 10:28:07.78	166.75	26.91	
2025-01-14 10:28:07.98	166.76	26.94	
2025-01-14 10:28:08.19	166.77	26.98	
2025-01-14 10:28:08.39	166.77	27.01	
2025-01-14 10:28:08.60	166.78	27.05	
2025-01-14 10:28:08.80	166.79	27.08	
2025-01-14 10:28:09.01	166.79	27.12	
2025-01-14 10:28:09.21	166.80	27.15	
2025-01-14 10:28:09.42	166.81	27.19	
2025-01-14 10:28:09.63	166.81	27.23	
2025-01-14 10:28:09.83	166.82	27.26	
2025-01-14 10:28:10.04	166.83	27.30	
2025-01-14 10:28:10.26	166.83	27.34	
2025-01-14 10:28:10.46	166.84	27.37	
2025-01-14 10:28:10.67	166.85	27.41	
2025-01-14 10:28:10.87	166.85	27.44	
2025-01-14 10:28:11.08	166.86	27.48	
2025-01-14 10:28:11.28	166.87	27.51	
2025-01-14 10:28:11.49	166.88	27.55	
2025-01-14 10:28:11.69	166.88	27.59	
2025-01-14 10:28:11.90	166.89	27.62	
2025-01-14 10:28:12.10	166.90	27.66	
2025-01-14 10:28:12.31	166.90	27.69	
2025-01-14 10:28:12.51	166.91	27.73	
2025-01-14 10:28:12.72	166.92	27.77	
2025-01-14 10:28:12.92	166.92	27.80	
2025-01-14 10:28:13.13	166.93	27.84	
2025-01-14 10:28:13.33	166.94	27.87	
2025-01-14 10:28:13.54	166.94	27.91	
2025-01-14 10:28:13.74	166.95	27.95	
2025-01-14 10:28:13.95	166.96	27.98	
2025-01-14 10:28:14.15	166.96	28.02	
2025-01-14 10:28:14.35	166.97	28.05	
2025-01-14 10:28:14.56	166.98	28.09	
2025-01-14 10:28:14.76	166.98	28.13	
2025-01-14 10:28:14.97	166.99	28.17	
2025-01-14 10:28:15.18	167.00	28.20	
2025-01-14 10:28:15.38	167.01	28.24	
2025-01-14 10:28:15.59	167.01	28.28	
2025-01-14 10:28:15.79	167.02	28.31	
2025-01-14 10:28:16.00	167.03	28.35	
2025-01-14 10:28:16.20	167.03	28.39	
2025-01-14 10:28:16.41	167.04	28.42	
2025-01-14 10:28:16.61	167.05	28.46	
2025-01-14 10:28:16.82	167.06	28.50	
2025-01-14 10:28:17.02	167.06	28.53	
2025-01-14 10:28:17.23	167.07	28.57	
2025-01-14 10:28:17.43	167.08	28.61	
2025-01-14 10:28:17.64	167.08	28.65	
2025-01-14 10:28:17.84	167.09	28.68	
2025-01-14 10:28:18.05	167.10	28.72	
2025-01-14 10:28:18.25	167.11	28.76	
2025-01-14 10:28:18.46	167.11	28.80	
2025-01-14 10:28:18.67	167.12	28.84	
2025-01-14 10:28:18.87	167.13	28.87	
2025-01-14 10:28:19.08	167.14	28.91	
2025-01-14 10:28:19.28	167.14	28.95	
2025-01-14 10:28:19.49	167.15	28.99	
2025-01-14 10:28:19.69	167.16	29.02	
2025-01-14 10:28:19.90	167.16	29.06	
2025-01-14 10:28:20.10	167.17	29.10	
2025-01-14 10:28:20.31	167.18	29.14	
2025-01-14 10:28:20.51	167.19	29.17	
2025-01-14 10:28:20.72	167.19	29.21	
2025-01-14 10:28:20.94	167.20	29.25	
2025-01-14 10:28:21.14	167.21	29.29	
2025-01-14 10:28:21.35	167.22	29.33	
2025-01-14 10:28:21.55	167.22	29.37	
2025-01-14 10:28:21.76	167.23	29.41	
2025-01-14 10:28:21.96	167.24	29.44	
2025-01-14 10:28:22.17	167.25	29.48	
2025-01-14 10:28:22.37	167.25	29.52	
2025-01-14 10:28:22.57	167.26	29.56	
2025-01-14 10:28:22.78	167.27	29.60	
2025-01-14 10:28:22.98	167.28	29.64	
2025-01-14 10:28:23.19	167.28	29.68	
2025-01-14 10:28:23.39	167.29	29.71	
2025-01-14 10:28:23.60	167.30	29.75	
2025-01-14 10:28:23.81	167.31	29.79	
2025-01-14 10:28:24.01	167.32	29.83	
2025-01-14 10:28:24.21	167.32	29.87	
2025-01-14 10:28:24.42	167.33	29.91	
2025-01-14 10:28:24.63	167.34	29.95	
2025-01-14 10:28:24.83	167.35	29.99	
2025-01-14 10:28:25.03	167.35	30.02	
2025-01-14 10:28:25.24	167.36	30.07	
2025-01-14 10:28:25.45	167.37	30.11	
2025-01-14 10:28:25.65	167.38	30.14	
2025-01-14 10:28:25.86	167.39	30.18	
2025-01-14 10:28:26.06	167.39	30.22	
2025-01-14 10:28:26.26	167.40	30.26	
2025-01-14 10:28:26.47	167.41	30.30	
2025-01-14 10:28:26.68	167.42	30.34	
2025-01-14 10:28:26.88	167.42	30.38	
2025-01-14 10:28:27.09	167.43	30.42	
2025-01-14 10:28:27.29	167.44	30.46	
2025-01-14 10:28:27.50	167.45	30.50	
2025-01-14 10:28:27.70	167.46	30.54	
2025-01-14 10:28:27.91	167.46	30.58	
2025-01-14 10:28:28.11	167.47	30.62	
2025-01-14 10:28:28.33	167.48	30.66	
2025-01-14 10:28:28.54	167.49	30.70	
2025-01-14 10:28:28.74	167.50	30.74	
2025-01-14 10:28:28.95	167.51	30.78	
2025-01-14 10:28:29.15	167.51	30.82	
2025-01-14 10:28:29.37	167.52	30.87	
2025-01-14 10:28:29.58	167.53	30.91	
2025-01-14 10:28:29.78	167.54	30.95	
2025-01-14 10:28:29.99	167.55	30.99	
2025-01-14 10:28:30.19	167.55	31.03	
2025-01-14 10:28:30.40	167.56	31.07	
2025-01-14 10:28:30.60	167.57	31.11	
2025-01-14 10:28:30.81	167.58	31.15	
2025-01-14 10:28:31.01	167.59	31.19	
2025-01-14 10:28:31.22	167.60	31.23	
2025-01-14 10:28:31.42	167.60	31.27	
2025-01-14 10:28:31.63	167.61	31.31	
2025-01-14 10:28:31.84	167.62	31.36	
2025-01-14 10:28:32.04	167.63	31.40	
2025-01-14 10:28:32.25	167.64	31.44	
2025-01-14 10:28:32.47	167.65	31.48	
2025-01-14 10:28:32.67	167.66	31.52	
2025-01-14 10:28:32.87	167.66	31.56	
2025-01-14 10:28:33.08	167.67	31.60	
2025-01-14 10:28:33.29	167.68	31.65	
2025-01-14 10:28:33.49	167.69	31.69	
2025-01-14 10:28:33.69	167.70	31.73	
2025-01-14 10:28:33.90	167.71	31.77	
2025-01-14 10:28:34.11	167.72	31.81	
2025-01-14 10:28:34.31	167.72	31.85	
2025-01-14 10:28:34.52	167.73	31.90	
2025-01-14 10:28:34.72	167.74	31.94	
2025-01-14 10:28:34.93	167.75	31.98	
2025-01-14 10:28:35.13	167.76	32.02	
2025-01-14 10:28:35.34	167.77	32.06	
2025-01-14 10:28:35.55	167.78	32.11	
2025-01-14 10:28:35.75	167.78	32.15	
2025-01-14 10:28:35.96	167.79	32.19	
2025-01-14 10:28:36.16	167.80	32.23	
2025-01-14 10:28:36.37	167.81	32.27	
2025-01-14 10:28:36.58	167.82	32.32	
2025-01-14 10:28:36.78	167.83	32.36	
2025-01-14 10:28:36.98	167.84	32.40	
2025-01-14 10:28:37.19	167.85	32.44	
2025-01-14 10:28:37.39	167.86	32.49	
2025-01-14 10:28:37.60	167.86	32.53	
2025-01-14 10:28:37.80	167.87	32.57	
2025-01-14 10:28:38.01	167.88	32.61	
2025-01-14 10:28:38.21	167.89	32.66	
2025-01-14 10:28:38.42	167.90	32.70	
2025-01-14 10:28:38.62	167.91	32.74	
2025-01-14 10:28:38.83	167.92	32.79	
2025-01-14 10:28:39.05	167.93	32.83	
2025-01-14 10:28:39.25	167.94	32.87	
2025-01-14 10:28:39.46	167.95	32.92	
2025-01-14 10:28:39.66	167.96	32.96	
2025-01-14 10:28:39.87	167.96	33.00	
2025-01-14 10:28:40.07	167.97	33.05	
2025-01-14 10:28:40.28	167.98	33.09	
2025-01-14 10:28:40.48	167.99	33.13	
2025-01-14 10:28:40.69	168.00	33.18	
2025-01-14 10:28:40.89	168.01	33.22	
2025-01-14 10:28:41.10	168.02	33.27	
2025-01-14 10:28:41.30	168.03	33.31	
2025-01-14 10:28:41.51	168.04	33.35	
2025-01-14 10:28:41.72	168.05	33.40	
2025-01-14 10:28:41.92	168.06	33.44	
2025-01-14 10:28:42.13	168.07	33.49	
2025-01-14 10:28:42.33	168.08	33.53	
2025-01-14 10:28:42.54	168.09	33.57	
2025-01-14 10:28:42.74	168.10	33.62	
2025-01-14 10:28:42.95	168.11	33.66	
2025-01-14 10:28:43.16	168.12	33.71	
2025-01-14 10:28:43.36	168.12	33.75	
2025-01-14 10:28:43.56	168.13	33.79	
2025-01-14 10:28:43.77	168.14	33.84	
2025-01-14 10:28:43.97	168.15	33.88	
2025-01-14 10:28:44.18	168.16	33.93	
2025-01-14 10:28:44.40	168.17	33.98	
2025-01-14 10:28:44.60	168.18	34.02	
2025-01-14 10:28:44.81	168.19	34.07	
2025-01-14 10:28:45.01	168.20	34.11	
2025-01-14 10:28:45.22	168.21	34.16	
2025-01-14 10:28:45.42	168.22	34.20	
2025-01-14 10:28:45.63	168.23	34.25	
2025-01-14 10:28:45.83	168.24	34.29	
2025-01-14 10:28:46.04	168.25	34.34	
2025-01-14 10:28:46.25	168.26	34.38	
2025-01-14 10:28:46.45	168.27	34.43	
2025-01-14 10:28:46.65	168.28	34.47	
2025-01-14 10:28:46.86	168.29	34.52	
2025-01-14 10:28:47.06	168.30	34.56	
2025-01-14 10:28:47.27	168.31	34.61	
2025-01-14 10:28:47.47	168.32	34.65	
2025-01-14 10:28:47.68	168.33	34.70	
2025-01-14 10:28:47.88	168.34	34.74	
2025-01-14 10:28:48.09	168.35	34.79	
2025-01-14 10:28:48.29	168.36	34.84	
2025-01-14 10:28:48.50	168.37	34.88	
2025-01-14 10:28:48.71	168.38	34.93	
2025-01-14 10:28:48.92	168.39	34.98	
2025-01-14 10:28:49.13	168.40	35.02	
2025-01-14 10:28:49.33	168.41	35.07	
2025-01-14 10:28:49.54	168.43	35.12	
2025-01-14 10:28:49.74	168.44	35.16	
2025-01-14 10:28:49.95	168.45	35.21	
2025-01-14 10:28:50.16	168.46	35.26	
2025-01-14 10:28:50.36	168.47	35.30	
2025-01-14 10:28:50.57	168.48	35.35	
2025-01-14 10:28:50.77	168.49	35.40	
2025-01-14 10:28:50.98	168.50	35.44	
2025-01-14 10:28:51.19	168.51	35.49	
2025-01-14 10:28:51.39	168.52	35.54	
2025-01-14 10:28:51.60	168.53	35.59	
2025-01-14 10:28:51.80	168.54	35.63	
2025-01-14 10:28:52.01	168.55	35.68	
2025-01-14 10:28:52.21	168.56	35.73	
2025-01-14 10:28:52.42	168.57	35.77	
2025-01-14 10:28:52.62	168.58	35.82	
2025-01-14 10:28:52.83	168.59	35.87	
2025-01-14 10:28:53.03	168.61	35.91	
2025-01-14 10:28:53.24	168.62	35.96	
2025-01-14 10:28:53.44	168.63	36.01	
2025-01-14 10:28:53.65	168.64	36.06	
2025-01-14 10:28:53.85	168.65	36.10	
2025-01-14 10:28:54.06	168.66	36.15	
2025-01-14 10:28:54.26	168.67	36.20	
2025-01-14 10:28:54.47	168.68	36.25	
2025-01-14 10:28:54.67	168.69	36.30	
2025-01-14 10:28:54.88	168.70	36.35	
2025-01-14 10:28:55.08	168.72	36.39	
2025-01-14 10:28:55.29	168.73	36.44	
2025-01-14 10:28:55.50	168.74	36.49	
2025-01-14 10:28:55.70	168.75	36.54	
2025-01-14 10:28:55.91	168.76	36.59	
2025-01-14 10:28:56.11	168.77	36.64	
2025-01-14 10:28:56.32	168.78	36.69	
2025-01-14 10:28:56.53	168.80	36.73	
2025-01-14 10:28:56.73	168.81	36.78	
2025-01-14 10:28:56.93	168.82	36.83	
2025-01-14 10:28:57.14	168.83	36.88	
2025-01-14 10:28:57.34	168.84	36.93	
2025-01-14 10:28:57.55	168.85	36.98	
2025-01-14 10:28:57.76	168.86	37.03	
2025-01-14 10:28:57.96	168.88	37.08	
2025-01-14 10:28:58.17	168.89	37.13	
2025-01-14 10:28:58.37	168.90	37.17	
2025-01-14 10:28:58.57	168.91	37.22	
2025-01-14 10:28:58.78	168.92	37.27	
2025-01-14 10:28:58.98	168.93	37.32	
2025-01-14 10:28:59.19	168.95	37.37	
2025-01-14 10:28:59.39	168.96	37.42	
2025-01-14 10:28:59.60	168.97	37.47	
2025-01-14 10:28:59.81	168.98	37.52	
2025-01-14 10:29:00.01	168.99	37.57	
2025-01-14 10:29:00.21	169.00	37.62	
2025-01-14 10:29:00.42	169.02	37.67	
2025-01-14 10:29:00.62	169.03	37.72	
2025-01-14 10:29:00.83	169.04	37.77	
2025-01-14 10:29:01.04	169.05	37.82	
2025-01-14 10:29:01.24	169.06	37.87	
2025-01-14 10:29:01.45	169.08	37.92	
2025-01-14 10:29:01.65	169.09	37.97	
2025-01-14 10:29:01.86	169.10	38.02	
2025-01-14 10:29:02.06	169.11	38.07	
2025-01-14 10:29:02.27	169.13	38.13	
2025-01-14 10:29:02.47	169.14	38.18	
2025-01-14 10:29:02.68	169.15	38.23	
2025-01-14 10:29:02.88	169.16	38.28	
2025-01-14 10:29:03.09	169.18	38.33	
2025-01-14 10:29:03.29	169.19	38.38	
2025-01-14 10:29:03.50	169.20	38.43	
2025-01-14 10:29:03.70	169.21	38.48	
2025-01-14 10:29:03.91	169.23	38.53	
2025-01-14 10:29:04.11	169.24	38.58	
2025-01-14 10:29:04.32	169.25	38.64	
2025-01-14 10:29:04.53	169.26	38.69	
2025-01-14 10:29:04.73	169.28	38.74	
2025-01-14 10:29:04.94	169.29	38.79	
2025-01-14 10:29:05.14	169.30	38.84	
2025-01-14 10:29:05.35	169.32	38.90	
2025-01-14 10:29:05.56	169.33	38.95	
2025-01-14 10:29:05.76	169.34	39.00	
2025-01-14 10:29:05.97	169.35	39.05	
2025-01-14 10:29:06.17	169.37	39.10	
2025-01-14 10:29:06.38	169.38	39.16	
2025-01-14 10:29:06.58	169.39	39.21	
2025-01-14 10:29:06.80	169.41	39.26	
2025-01-14 10:29:07.01	169.42	39.32	
2025-01-14 10:29:07.21	169.43	39.37	
2025-01-14 10:29:07.42	169.45	39.42	
2025-01-14 10:29:07.62	169.46	39.47	
2025-01-14 10:29:07.83	169.47	39.53	
2025-01-14 10:29:08.03	169.49	39.58	
2025-01-14 10:29:08.24	169.50	39.63	
2025-01-14 10:29:08.44	169.51	39.69	
2025-01-14 10:29:08.65	169.53	39.74	
2025-01-14 10:29:08.85	169.54	39.79	
2025-01-14 10:29:09.06	169.55	39.85	
2025-01-14 10:29:09.26	169.57	39.90	
2025-01-14 10:29:09.47	169.58	39.95	
2025-01-14 10:29:09.68	169.60	40.01	
2025-01-14 10:29:09.88	169.61	40.06	
2025-01-14 10:29:10.09	169.62	40.12	
2025-01-14 10:29:10.29	169.64	40.17	
2025-01-14 10:29:10.50	169.65	40.22	
2025-01-14 10:29:10.70	169.67	40.28	
2025-01-14 10:29:10.91	169.68	40.33	
2025-01-14 10:29:11.11	169.69	40.38	
2025-01-14 10:29:11.32	169.71	40.44	
2025-01-14 10:29:11.53	169.72	40.49	
2025-01-14 10:29:11.73	169.74	40.55	
2025-01-14 10:29:11.94	169.75	40.60	
2025-01-14 10:29:12.14	169.76	40.66	
2025-01-14 10:29:12.35	169.78	40.71	
2025-01-14 10:29:12.56	169.79	40.77	
2025-01-14 10:29:12.76	169.81	40.82	
2025-01-14 10:29:12.97	169.82	40.88	
2025-01-14 10:29:13.17	169.84	40.93	
2025-01-14 10:29:13.38	169.85	40.99	
2025-01-14 10:29:13.58	169.87	41.04	
2025-01-14 10:29:13.79	169.88	41.10	
2025-01-14 10:29:13.99	169.89	41.15	
2025-01-14 10:29:14.20	169.91	41.21	
2025-01-14 10:29:14.40	169.92	41.26	
2025-01-14 10:29:14.61	169.94	41.32	
2025-01-14 10:29:14.81	169.95	41.37	
2025-01-14 10:29:15.02	169.97	41.43	
2025-01-14 10:29:15.22	169.98	41.48	
2025-01-14 10:29:15.43	170.00	41.54	
2025-01-14 10:29:15.63	170.01	41.59	
2025-01-14 10:29:15.84	170.03	41.65	
2025-01-14 10:29:16.04	170.04	41.71	
2025-01-14 10:29:16.25	170.06	41.76	
2025-01-14 10:29:16.45	170.07	41.82	
2025-01-14 10:29:16.65	170.09	41.87	
2025-01-14 10:29:16.86	170.11	41.93	
2025-01-14 10:29:17.07	170.12	41.99	
2025-01-14 10:29:17.27	170.14	42.04	
2025-01-14 10:29:17.47	170.15	42.10	
2025-01-14 10:29:17.68	170.17	42.16	
2025-01-14 10:29:17.89	170.18	42.22	
2025-01-14 10:29:18.09	170.20	42.27	
2025-01-14 10:29:18.30	170.21	42.33	
2025-01-14 10:29:18.50	170.23	42.39	
2025-01-14 10:29:18.71	170.25	42.44	
2025-01-14 10:29:18.92	170.26	42.50	
2025-01-14 10:29:19.12	170.28	42.56	
2025-01-14 10:29:19.33	170.29	42.62	
2025-01-14 10:29:19.53	170.31	42.67	
2025-01-14 10:29:19.75	170.33	42.73	
2025-01-14 10:29:19.96	170.34	42.79	
2025-01-14 10:29:20.16	170.36	42.85	
2025-01-14 10:29:20.37	170.38	42.91	
2025-01-14 10:29:20.57	170.39	42.97	
2025-01-14 10:29:20.78	170.41	43.02	
2025-01-14 10:29:20.99	170.43	43.08	
2025-01-14 10:29:21.19	170.44	43.14	
2025-01-14 10:29:21.40	170.46	43.20	
2025-01-14 10:29:21.60	170.47	43.26	
2025-01-14 10:29:21.82	170.49	43.32	
2025-01-14 10:29:22.03	170.51	43.38	
2025-01-14 10:29:22.23	170.53	43.44	
2025-01-14 10:29:22.44	170.54	43.50	
2025-01-14 10:29:22.65	170.56	43.56	
2025-01-14 10:29:22.85	170.58	43.61	
2025-01-14 10:29:23.05	170.59	43.67	
2025-01-14 10:29:23.26	170.61	43.73	
2025-01-14 10:29:23.46	170.63	43.79	
2025-01-14 10:29:23.67	170.65	43.85	
2025-01-14 10:29:23.87	170.66	43.91	
2025-01-14 10:29:24.08	170.68	43.97	
2025-01-14 10:29:24.29	170.70	44.03	
2025-01-14 10:29:24.49	170.71	44.09	
2025-01-14 10:29:24.70	170.73	44.15	
2025-01-14 10:29:24.90	170.75	44.21	
2025-01-14 10:29:25.11	170.77	44.27	
2025-01-14 10:29:25.31	170.79	44.33	
2025-01-14 10:29:25.52	170.80	44.39	
2025-01-14 10:29:25.72	170.82	44.45	
2025-01-14 10:29:25.93	170.84	44.51	
2025-01-14 10:29:26.13	170.86	44.57	
2025-01-14 10:29:26.34	170.88	44.63	
2025-01-14 10:29:26.55	170.89	44.69	
2025-01-14 10:29:26.75	170.91	44.75	
2025-01-14 10:29:26.96	170.93	44.81	
2025-01-14 10:29:27.18	170.95	44.88	
2025-01-14 10:29:27.38	170.97	44.94	
2025-01-14 10:29:27.59	170.99	45.00	
2025-01-14 10:29:27.80	171.01	45.06	
2025-01-14 10:29:28.00	171.02	45.12	
2025-01-14 10:29:28.20	171.04	45.18	
2025-01-14 10:29:28.41	171.06	45.24	
2025-01-14 10:29:28.62	171.08	45.31	
2025-01-14 10:29:28.82	171.10	45.37	
2025-01-14 10:29:29.03	171.12	45.43	
2025-01-14 10:29:29.23	171.14	45.49	
2025-01-14 10:29:29.44	171.16	45.55	
2025-01-14 10:29:29.64	171.17	45.61	
2025-01-14 10:29:29.85	171.19	45.68	
2025-01-14 10:29:30.06	171.21	45.74	
2025-01-14 10:29:30.26	171.23	45.80	
2025-01-14 10:29:30.46	171.25	45.86	
2025-01-14 10:29:30.67	171.27	45.92	
2025-01-14 10:29:30.88	171.29	45.99	
2025-01-14 10:29:31.08	171.31	46.05	
2025-01-14 10:29:31.29	171.33	46.11	
2025-01-14 10:29:31.51	171.35	46.18	
2025-01-14 10:29:31.71	171.37	46.24	
2025-01-14 10:29:31.92	171.39	46.31	
2025-01-14 10:29:32.12	171.41	46.37	
2025-01-14 10:29:32.33	171.43	46.43	
2025-01-14 10:29:32.53	171.45	46.49	
2025-01-14 10:29:32.74	171.47	46.56	
2025-01-14 10:29:32.94	171.49	46.62	
2025-01-14 10:29:33.15	171.51	46.68	
2025-01-14 10:29:33.35	171.53	46.75	
2025-01-14 10:29:33.56	171.55	46.81	
2025-01-14 10:29:33.76	171.57	46.87	
2025-01-14 10:29:33.97	171.60	46.94	
2025-01-14 10:29:34.18	171.62	47.00	
2025-01-14 10:29:34.38	171.64	47.07	
2025-01-14 10:29:34.59	171.66	47.13	
2025-01-14 10:29:34.79	171.68	47.19	
2025-01-14 10:29:35.00	171.70	47.26	
2025-01-14 10:29:35.21	171.72	47.33	
2025-01-14 10:29:35.41	171.74	47.39	
2025-01-14 10:29:35.62	171.77	47.46	
2025-01-14 10:29:35.82	171.79	47.52	
2025-01-14 10:29:36.03	171.81	47.58	
2025-01-14 10:29:36.23	171.83	47.65	
2025-01-14 10:29:36.44	171.85	47.71	
2025-01-14 10:29:36.65	171.87	47.78	
2025-01-14 10:29:36.86	171.90	47.85	
2025-01-14 10:29:37.07	171.92	47.91	
2025-01-14 10:29:37.27	171.94	47.98	
2025-01-14 10:29:37.48	171.96	48.04	
2025-01-14 10:29:37.68	171.99	48.11	
2025-01-14 10:29:37.89	172.01	48.18	
2025-01-14 10:29:38.09	172.03	48.24	
2025-01-14 10:29:38.30	172.05	48.31	
2025-01-14 10:29:38.50	172.08	48.37	
2025-01-14 10:29:38.71	172.10	48.44	
2025-01-14 10:29:38.91	172.12	48.50	
2025-01-14 10:29:39.12	172.14	48.57	
2025-01-14 10:29:39.32	172.17	48.64	
2025-01-14 10:29:39.53	172.19	48.70	
2025-01-14 10:29:39.74	172.21	48.77	
2025-01-14 10:29:39.94	172.24	48.84	
2025-01-14 10:29:40.15	172.26	48.90	
2025-01-14 10:29:40.35	172.28	48.97	
2025-01-14 10:29:40.56	172.31	49.04	
2025-01-14 10:29:40.76	172.33	49.10	
2025-01-14 10:29:40.96	172.36	49.17	
2025-01-14 10:29:41.17	172.38	49.24	
2025-01-14 10:29:41.38	172.40	49.31	
2025-01-14 10:29:41.58	172.43	49.37	
2025-01-14 10:29:41.79	172.45	49.44	
2025-01-14 10:29:41.99	172.48	49.51	
2025-01-14 10:29:42.20	172.50	49.58	
2025-01-14 10:29:42.40	172.53	49.64	
2025-01-14 10:29:42.61	172.55	49.71	
2025-01-14 10:29:42.81	172.57	49.78	
2025-01-14 10:29:43.02	172.60	49.85	
2025-01-14 10:29:43.24	172.63	49.92	
2025-01-14 10:29:43.44	172.65	49.99	
2025-01-14 10:29:43.65	172.68	50.06	
2025-01-14 10:29:43.85	172.70	50.12	
2025-01-14 10:29:44.06	172.73	50.19	
2025-01-14 10:29:44.27	172.75	50.26	
2025-01-14 10:29:44.47	172.78	50.33	
2025-01-14 10:29:44.68	172.81	50.40	
2025-01-14 10:29:44.89	172.83	50.47	
2025-01-14 10:29:45.09	172.86	50.54	
2025-01-14 10:29:45.31	172.89	50.61	
2025-01-14 10:29:45.51	172.91	50.68	
2025-01-14 10:29:45.72	172.94	50.75	
2025-01-14 10:29:45.93	172.97	50.82	
2025-01-14 10:29:46.13	172.99	50.89	
2025-01-14 10:29:46.34	173.02	50.96	
2025-01-14 10:29:46.54	173.04	51.03	
2025-01-14 10:29:46.75	173.07	51.10	
2025-01-14 10:29:46.96	173.10	51.17	
2025-01-14 10:29:47.16	173.13	51.24	
2025-01-14 10:29:47.38	173.16	51.31	
2025-01-14 10:29:47.58	173.18	51.38	
2025-01-14 10:29:47.79	173.21	51.45	
2025-01-14 10:29:47.99	173.24	51.52	
2025-01-14 10:29:48.20	173.27	51.59	
2025-01-14 10:29:48.40	173.29	51.66	
2025-01-14 10:29:48.61	173.32	51.74	
2025-01-14 10:29:48.81	173.35	51.80	
2025-01-14 10:29:49.02	173.38	51.88	
2025-01-14 10:29:49.22	173.41	51.95	
2025-01-14 10:29:49.43	173.44	52.02	
2025-01-14 10:29:49.63	173.46	52.09	
2025-01-14 10:29:49.84	173.49	52.16	
2025-01-14 10:29:50.04	173.52	52.23	
2025-01-14 10:29:50.25	173.55	52.30	
2025-01-14 10:29:50.45	173.58	52.37	
2025-01-14 10:29:50.66	173.61	52.45	
2025-01-14 10:29:50.86	173.64	52.52	
2025-01-14 10:29:51.07	173.67	52.59	
2025-01-14 10:29:51.27	173.70	52.66	
2025-01-14 10:29:51.48	173.73	52.73	
2025-01-14 10:29:51.70	173.76	52.81	
2025-01-14 10:29:51.90	173.79	52.88	
2025-01-14 10:29:52.11	173.82	52.95	
2025-01-14 10:29:52.31	173.85	53.02	
2025-01-14 10:29:52.52	173.88	53.10	
2025-01-14 10:29:52.72	173.91	53.17	
2025-01-14 10:29:52.93	173.95	53.24	
2025-01-14 10:29:53.14	173.98	53.32	
2025-01-14 10:29:53.34	174.01	53.39	
2025-01-14 10:29:53.55	174.04	53.46	
2025-01-14 10:29:53.75	174.07	53.54	
2025-01-14 10:29:53.96	174.10	53.61	
2025-01-14 10:29:54.16	174.14	53.68	
2025-01-14 10:29:54.37	174.17	53.76	
2025-01-14 10:29:54.57	174.20	53.83	
2025-01-14 10:29:54.78	174.23	53.90	
2025-01-14 10:29:54.98	174.26	53.98	
2025-01-14 10:29:55.19	174.30	54.05	
2025-01-14 10:29:55.39	174.33	54.12	
2025-01-14 10:29:55.60	174.36	54.20	
2025-01-14 10:29:55.81	174.40	54.27	
2025-01-14 10:29:56.01	174.43	54.35	
2025-01-14 10:29:56.22	174.47	54.42	
2025-01-14 10:29:56.42	174.50	54.49	
2025-01-14 10:29:56.63	174.53	54.57	
2025-01-14 10:29:56.84	174.57	54.65	
2025-01-14 10:29:57.04	174.60	54.72	
2025-01-14 10:29:57.24	174.63	54.79	
2025-01-14 10:29:57.45	174.67	54.87	
2025-01-14 10:29:57.65	174.70	54.94	
2025-01-14 10:29:57.86	174.74	55.02	
2025-01-14 10:29:58.06	174.77	55.09	
2025-01-14 10:29:58.27	174.81	55.17	
2025-01-14 10:29:58.47	174.85	55.24	
2025-01-14 10:29:58.68	174.88	55.32	
2025-01-14 10:29:58.89	174.92	55.40	
2025-01-14 10:29:59.09	174.95	55.47	
2025-01-14 10:29:59.29	174.99	55.54	
2025-01-14 10:29:59.50	175.03	55.62	
2025-01-14 10:29:59.70	175.06	55.70	
2025-01-14 10:29:59.91	175.10	55.77	
2025-01-14 10:30:00.11	175.14	55.85	
2025-01-14 10:30:00.32	175.17	55.92	
2025-01-14 10:30:00.52	175.21	56.00	
2025-01-14 10:30:00.73	175.25	56.08	
2025-01-14 10:30:00.94	175.29	56.16	
2025-01-14 10:30:01.14	175.33	56.23	
2025-01-14 10:30:01.35	175.36	56.31	
2025-01-14 10:30:01.55	175.40	56.38	
2025-01-14 10:30:01.76	175.44	56.46	
2025-01-14 10:30:01.97	175.48	56.54	
2025-01-14 10:30:02.17	175.52	56.62	
2025-01-14 10:30:02.38	175.56	56.69	
2025-01-14 10:30:02.58	175.60	56.77	
2025-01-14 10:30:02.79	175.64	56.85	
2025-01-14 10:30:02.99	175.68	56.92	
2025-01-14 10:30:03.20	175.72	57.00	
2025-01-14 10:30:03.40	175.76	57.08	
2025-01-14 10:30:03.61	175.80	57.16	
2025-01-14 10:30:03.81	175.84	57.23	
2025-01-14 10:30:04.02	175.88	57.31	
2025-01-14 10:30:04.23	175.93	57.39	
