passes_logs/2025/01/14/SPB_Silybum_02/SPB_Silybum_02__20250114_103536_TERRA_rec.log

#Pass ID: 20250114_103536_TERRA
#Satellite: TERRA
#Configuration: TERRA
#Start time: 2025-01-14 10:38:03

#Version: 2.0.20230423
#Station: SPB_Silybum_02
#Location: 30.233357 lon 59.946436 lat
#TLE: 1 25994U 99068A   25013.82437757  .00000752  00000+0  16464-3 0  9992
#TLE: 2 25994  98.0218  76.8921 0003482  75.0849  16.5253 14.60392614333908

#Time	Az	El	Level	Level2	SNR	BER	Gain	Gain2
2025-01-14 10:38:05.39	346.42	12.26	
2025-01-14 10:38:05.60	346.38	12.27	
2025-01-14 10:38:05.80	346.34	12.28	
2025-01-14 10:38:06.01	346.30	12.29	
2025-01-14 10:38:06.21	346.26	12.30	
2025-01-14 10:38:06.42	346.22	12.31	
2025-01-14 10:38:06.62	346.19	12.32	
2025-01-14 10:38:06.83	346.14	12.33	
2025-01-14 10:38:07.04	346.10	12.34	
2025-01-14 10:38:07.25	346.06	12.35	
2025-01-14 10:38:07.45	346.02	12.36	
2025-01-14 10:38:07.66	345.98	12.37	
2025-01-14 10:38:07.86	345.94	12.38	
2025-01-14 10:38:08.06	345.90	12.39	
2025-01-14 10:38:08.27	345.86	12.41	
2025-01-14 10:38:08.47	345.82	12.42	
2025-01-14 10:38:08.68	345.78	12.43	
2025-01-14 10:38:08.88	345.74	12.44	
2025-01-14 10:38:09.09	345.70	12.45	
2025-01-14 10:38:09.29	345.66	12.46	
2025-01-14 10:38:09.50	345.62	12.47	
2025-01-14 10:38:09.70	345.58	12.48	
2025-01-14 10:38:09.91	345.54	12.49	
2025-01-14 10:38:10.12	345.50	12.50	
2025-01-14 10:38:10.32	345.46	12.51	
2025-01-14 10:38:10.53	345.42	12.52	
2025-01-14 10:38:10.73	345.38	12.53	
2025-01-14 10:38:10.94	345.34	12.54	
2025-01-14 10:38:11.14	345.30	12.55	
2025-01-14 10:38:11.35	345.26	12.56	
2025-01-14 10:38:11.56	345.22	12.57	
2025-01-14 10:38:11.76	345.18	12.58	
2025-01-14 10:38:11.97	345.14	12.59	
2025-01-14 10:38:12.17	345.10	12.60	
2025-01-14 10:38:12.38	345.05	12.61	
2025-01-14 10:38:12.58	345.01	12.62	
2025-01-14 10:38:12.79	344.97	12.63	
2025-01-14 10:38:12.99	344.93	12.64	
2025-01-14 10:38:13.20	344.89	12.65	
2025-01-14 10:38:13.40	344.85	12.66	
2025-01-14 10:38:13.61	344.81	12.67	
2025-01-14 10:38:13.82	344.77	12.68	
2025-01-14 10:38:14.02	344.73	12.69	
2025-01-14 10:38:14.22	344.69	12.70	
2025-01-14 10:38:14.43	344.65	12.71	
2025-01-14 10:38:14.63	344.61	12.72	
2025-01-14 10:38:14.84	344.56	12.73	
2025-01-14 10:38:15.04	344.52	12.74	
2025-01-14 10:38:15.25	344.48	12.75	
2025-01-14 10:38:15.45	344.44	12.76	
2025-01-14 10:38:15.66	344.40	12.77	
2025-01-14 10:38:15.86	344.36	12.78	
2025-01-14 10:38:16.07	344.32	12.79	
2025-01-14 10:38:16.27	344.28	12.79	
2025-01-14 10:38:16.48	344.24	12.80	
2025-01-14 10:38:16.68	344.19	12.81	
2025-01-14 10:38:16.88	344.15	12.82	
2025-01-14 10:38:17.09	344.11	12.83	
2025-01-14 10:38:17.29	344.07	12.84	
2025-01-14 10:38:17.50	344.03	12.85	
2025-01-14 10:38:17.71	343.99	12.86	
2025-01-14 10:38:17.91	343.95	12.87	
2025-01-14 10:38:18.12	343.90	12.88	
2025-01-14 10:38:18.33	343.86	12.89	
2025-01-14 10:38:18.53	343.82	12.90	
2025-01-14 10:38:18.73	343.78	12.91	
2025-01-14 10:38:18.94	343.74	12.92	
2025-01-14 10:38:19.15	343.69	12.93	
2025-01-14 10:38:19.35	343.65	12.94	
2025-01-14 10:38:19.56	343.61	12.95	
2025-01-14 10:38:19.76	343.57	12.96	
2025-01-14 10:38:19.97	343.53	12.97	
2025-01-14 10:38:20.17	343.49	12.98	
2025-01-14 10:38:20.38	343.44	12.99	
2025-01-14 10:38:20.58	343.40	13.00	
2025-01-14 10:38:20.79	343.36	13.01	
2025-01-14 10:38:20.99	343.32	13.02	
2025-01-14 10:38:21.20	343.28	13.03	
2025-01-14 10:38:21.40	343.24	13.04	
2025-01-14 10:38:21.61	343.19	13.05	
2025-01-14 10:38:21.81	343.15	13.06	
2025-01-14 10:38:22.02	343.11	13.07	
2025-01-14 10:38:22.22	343.07	13.08	
2025-01-14 10:38:22.43	343.02	13.08	
2025-01-14 10:38:22.64	342.98	13.09	
2025-01-14 10:38:22.84	342.94	13.10	
2025-01-14 10:38:23.06	342.90	13.11	
2025-01-14 10:38:23.26	342.85	13.12	
2025-01-14 10:38:23.47	342.81	13.13	
2025-01-14 10:38:23.68	342.77	13.14	
2025-01-14 10:38:23.88	342.73	13.15	
2025-01-14 10:38:24.09	342.68	13.16	
2025-01-14 10:38:24.29	342.64	13.17	
2025-01-14 10:38:24.50	342.60	13.18	
2025-01-14 10:38:24.71	342.55	13.19	
2025-01-14 10:38:24.91	342.51	13.20	
2025-01-14 10:38:25.12	342.47	13.21	
2025-01-14 10:38:25.32	342.43	13.22	
2025-01-14 10:38:25.53	342.38	13.23	
2025-01-14 10:38:25.73	342.34	13.24	
2025-01-14 10:38:25.94	342.30	13.25	
2025-01-14 10:38:26.14	342.26	13.26	
2025-01-14 10:38:26.34	342.22	13.26	
2025-01-14 10:38:26.55	342.17	13.27	
2025-01-14 10:38:26.76	342.13	13.28	
2025-01-14 10:38:26.96	342.09	13.29	
2025-01-14 10:38:27.17	342.04	13.30	
2025-01-14 10:38:27.37	342.00	13.31	
2025-01-14 10:38:27.58	341.96	13.32	
2025-01-14 10:38:27.78	341.92	13.33	
2025-01-14 10:38:27.99	341.87	13.34	
2025-01-14 10:38:28.20	341.83	13.35	
2025-01-14 10:38:28.40	341.79	13.36	
2025-01-14 10:38:28.61	341.74	13.37	
2025-01-14 10:38:28.81	341.70	13.38	
2025-01-14 10:38:29.02	341.66	13.38	
2025-01-14 10:38:29.22	341.61	13.39	
2025-01-14 10:38:29.43	341.57	13.40	
2025-01-14 10:38:29.63	341.53	13.41	
2025-01-14 10:38:29.84	341.48	13.42	
2025-01-14 10:38:30.04	341.44	13.43	
2025-01-14 10:38:30.25	341.40	13.44	
2025-01-14 10:38:30.45	341.35	13.45	
2025-01-14 10:38:30.66	341.31	13.46	
2025-01-14 10:38:30.86	341.27	13.47	
2025-01-14 10:38:31.07	341.22	13.48	
2025-01-14 10:38:31.29	341.18	13.49	
2025-01-14 10:38:31.49	341.13	13.49	
2025-01-14 10:38:31.69	341.09	13.50	
2025-01-14 10:38:31.90	341.05	13.51	
2025-01-14 10:38:32.10	341.00	13.52	
2025-01-14 10:38:32.31	340.96	13.53	
2025-01-14 10:38:32.51	340.92	13.54	
2025-01-14 10:38:32.72	340.87	13.55	
2025-01-14 10:38:32.92	340.83	13.56	
2025-01-14 10:38:33.13	340.79	13.57	
2025-01-14 10:38:33.33	340.74	13.57	
2025-01-14 10:38:33.54	340.70	13.58	
2025-01-14 10:38:33.76	340.65	13.59	
2025-01-14 10:38:33.96	340.61	13.60	
2025-01-14 10:38:34.17	340.56	13.61	
2025-01-14 10:38:34.37	340.52	13.62	
2025-01-14 10:38:34.58	340.48	13.63	
2025-01-14 10:38:34.80	340.43	13.64	
2025-01-14 10:38:35.00	340.39	13.65	
2025-01-14 10:38:35.21	340.34	13.66	
2025-01-14 10:38:35.42	340.30	13.66	
2025-01-14 10:38:35.62	340.25	13.67	
2025-01-14 10:38:35.82	340.21	13.68	
2025-01-14 10:38:36.03	340.17	13.69	
2025-01-14 10:38:36.24	340.12	13.70	
2025-01-14 10:38:36.44	340.08	13.71	
2025-01-14 10:38:36.65	340.03	13.72	
2025-01-14 10:38:36.85	339.99	13.73	
2025-01-14 10:38:37.06	339.94	13.73	
2025-01-14 10:38:37.26	339.90	13.74	
2025-01-14 10:38:37.47	339.86	13.75	
2025-01-14 10:38:37.67	339.81	13.76	
2025-01-14 10:38:37.87	339.77	13.77	
2025-01-14 10:38:38.08	339.72	13.78	
2025-01-14 10:38:38.28	339.68	13.79	
2025-01-14 10:38:38.49	339.63	13.80	
2025-01-14 10:38:38.70	339.59	13.80	
2025-01-14 10:38:38.90	339.55	13.81	
2025-01-14 10:38:39.12	339.50	13.82	
2025-01-14 10:38:39.32	339.45	13.83	
2025-01-14 10:38:39.53	339.41	13.84	
2025-01-14 10:38:39.73	339.37	13.85	
2025-01-14 10:38:39.94	339.32	13.86	
2025-01-14 10:38:40.16	339.27	13.86	
2025-01-14 10:38:40.36	339.23	13.87	
2025-01-14 10:38:40.57	339.18	13.88	
2025-01-14 10:38:40.77	339.14	13.89	
2025-01-14 10:38:40.98	339.09	13.90	
2025-01-14 10:38:41.18	339.05	13.91	
2025-01-14 10:38:41.39	339.00	13.92	
2025-01-14 10:38:41.59	338.96	13.92	
2025-01-14 10:38:41.80	338.91	13.93	
2025-01-14 10:38:42.00	338.87	13.94	
2025-01-14 10:38:42.21	338.82	13.95	
2025-01-14 10:38:42.41	338.78	13.96	
2025-01-14 10:38:42.62	338.73	13.97	
2025-01-14 10:38:42.83	338.69	13.97	
2025-01-14 10:38:43.03	338.64	13.98	
2025-01-14 10:38:43.24	338.60	13.99	
2025-01-14 10:38:43.44	338.55	14.00	
2025-01-14 10:38:43.65	338.51	14.01	
2025-01-14 10:38:43.85	338.46	14.02	
2025-01-14 10:38:44.06	338.42	14.02	
2025-01-14 10:38:44.26	338.37	14.03	
2025-01-14 10:38:44.46	338.33	14.04	
2025-01-14 10:38:44.67	338.28	14.05	
2025-01-14 10:38:44.87	338.24	14.06	
2025-01-14 10:38:45.09	338.19	14.06	
2025-01-14 10:38:45.30	338.14	14.07	
2025-01-14 10:38:45.50	338.10	14.08	
2025-01-14 10:38:45.71	338.05	14.09	
2025-01-14 10:38:45.92	338.01	14.10	
2025-01-14 10:38:46.12	337.96	14.11	
2025-01-14 10:38:46.33	337.92	14.11	
2025-01-14 10:38:46.53	337.87	14.12	
2025-01-14 10:38:46.73	337.83	14.13	
2025-01-14 10:38:46.94	337.78	14.14	
2025-01-14 10:38:47.15	337.73	14.15	
2025-01-14 10:38:47.35	337.69	14.15	
2025-01-14 10:38:47.55	337.65	14.16	
2025-01-14 10:38:47.76	337.60	14.17	
2025-01-14 10:38:47.97	337.55	14.18	
2025-01-14 10:38:48.17	337.51	14.19	
2025-01-14 10:38:48.38	337.46	14.19	
2025-01-14 10:38:48.58	337.42	14.20	
2025-01-14 10:38:48.79	337.37	14.21	
2025-01-14 10:38:48.99	337.32	14.22	
2025-01-14 10:38:49.20	337.28	14.23	
2025-01-14 10:38:49.41	337.23	14.23	
2025-01-14 10:38:49.61	337.19	14.24	
2025-01-14 10:38:49.82	337.14	14.25	
2025-01-14 10:38:50.02	337.09	14.26	
2025-01-14 10:38:50.23	337.05	14.27	
2025-01-14 10:38:50.43	337.00	14.27	
2025-01-14 10:38:50.64	336.96	14.28	
2025-01-14 10:38:50.86	336.91	14.29	
2025-01-14 10:38:51.06	336.86	14.30	
2025-01-14 10:38:51.27	336.81	14.30	
2025-01-14 10:38:51.47	336.77	14.31	
2025-01-14 10:38:51.68	336.72	14.32	
2025-01-14 10:38:51.89	336.67	14.33	
2025-01-14 10:38:52.10	336.63	14.34	
2025-01-14 10:38:52.31	336.58	14.34	
2025-01-14 10:38:52.51	336.53	14.35	
2025-01-14 10:38:52.72	336.49	14.36	
2025-01-14 10:38:52.92	336.44	14.37	
2025-01-14 10:38:53.13	336.40	14.37	
2025-01-14 10:38:53.33	336.35	14.38	
2025-01-14 10:38:53.54	336.30	14.39	
2025-01-14 10:38:53.74	336.26	14.40	
2025-01-14 10:38:53.95	336.21	14.40	
2025-01-14 10:38:54.15	336.16	14.41	
2025-01-14 10:38:54.36	336.12	14.42	
2025-01-14 10:38:54.56	336.07	14.43	
2025-01-14 10:38:54.77	336.02	14.43	
2025-01-14 10:38:54.98	335.98	14.44	
2025-01-14 10:38:55.18	335.93	14.45	
2025-01-14 10:38:55.38	335.89	14.46	
2025-01-14 10:38:55.59	335.84	14.46	
2025-01-14 10:38:55.79	335.79	14.47	
2025-01-14 10:38:56.00	335.74	14.48	
2025-01-14 10:38:56.20	335.70	14.49	
2025-01-14 10:38:56.41	335.65	14.49	
2025-01-14 10:38:56.62	335.60	14.50	
2025-01-14 10:38:56.82	335.56	14.51	
2025-01-14 10:38:57.03	335.51	14.52	
2025-01-14 10:38:57.23	335.46	14.52	
2025-01-14 10:38:57.44	335.42	14.53	
2025-01-14 10:38:57.64	335.37	14.54	
2025-01-14 10:38:57.85	335.32	14.54	
2025-01-14 10:38:58.05	335.28	14.55	
2025-01-14 10:38:58.26	335.23	14.56	
2025-01-14 10:38:58.46	335.18	14.57	
2025-01-14 10:38:58.67	335.13	14.57	
2025-01-14 10:38:58.87	335.09	14.58	
2025-01-14 10:38:59.08	335.04	14.59	
2025-01-14 10:38:59.28	334.99	14.60	
2025-01-14 10:38:59.49	334.95	14.60	
2025-01-14 10:38:59.69	334.90	14.61	
2025-01-14 10:38:59.90	334.85	14.62	
2025-01-14 10:39:00.10	334.81	14.62	
2025-01-14 10:39:00.31	334.76	14.63	
2025-01-14 10:39:00.51	334.71	14.64	
2025-01-14 10:39:00.72	334.66	14.64	
2025-01-14 10:39:00.93	334.61	14.65	
2025-01-14 10:39:01.13	334.57	14.66	
2025-01-14 10:39:01.33	334.52	14.67	
2025-01-14 10:39:01.54	334.47	14.67	
2025-01-14 10:39:01.74	334.43	14.68	
2025-01-14 10:39:01.95	334.38	14.69	
2025-01-14 10:39:02.15	334.33	14.69	
2025-01-14 10:39:02.36	334.28	14.70	
2025-01-14 10:39:02.56	334.24	14.71	
2025-01-14 10:39:02.77	334.19	14.71	
2025-01-14 10:39:02.97	334.14	14.72	
2025-01-14 10:39:03.18	334.09	14.73	
2025-01-14 10:39:03.38	334.05	14.73	
2025-01-14 10:39:03.59	334.00	14.74	
2025-01-14 10:39:03.79	333.95	14.75	
2025-01-14 10:39:04.00	333.90	14.75	
2025-01-14 10:39:04.20	333.86	14.76	
2025-01-14 10:39:04.41	333.81	14.77	
2025-01-14 10:39:04.62	333.76	14.78	
2025-01-14 10:39:04.82	333.71	14.78	
2025-01-14 10:39:05.03	333.66	14.79	
2025-01-14 10:39:05.23	333.62	14.80	
2025-01-14 10:39:05.44	333.57	14.80	
2025-01-14 10:39:05.64	333.52	14.81	
2025-01-14 10:39:05.85	333.47	14.82	
2025-01-14 10:39:06.05	333.43	14.82	
2025-01-14 10:39:06.26	333.38	14.83	
2025-01-14 10:39:06.46	333.33	14.83	
2025-01-14 10:39:06.67	333.28	14.84	
2025-01-14 10:39:06.87	333.24	14.85	
2025-01-14 10:39:07.08	333.19	14.85	
2025-01-14 10:39:07.28	333.14	14.86	
2025-01-14 10:39:07.49	333.09	14.87	
2025-01-14 10:39:07.69	333.04	14.87	
2025-01-14 10:39:07.90	332.99	14.88	
2025-01-14 10:39:08.10	332.95	14.89	
2025-01-14 10:39:08.31	332.90	14.89	
2025-01-14 10:39:08.51	332.85	14.90	
2025-01-14 10:39:08.72	332.80	14.91	
2025-01-14 10:39:08.92	332.75	14.91	
2025-01-14 10:39:09.13	332.71	14.92	
2025-01-14 10:39:09.33	332.66	14.92	
2025-01-14 10:39:09.54	332.61	14.93	
2025-01-14 10:39:09.74	332.56	14.94	
2025-01-14 10:39:09.95	332.51	14.94	
2025-01-14 10:39:10.15	332.47	14.95	
2025-01-14 10:39:10.36	332.42	14.96	
2025-01-14 10:39:10.56	332.37	14.96	
2025-01-14 10:39:10.77	332.32	14.97	
2025-01-14 10:39:10.97	332.27	14.97	
2025-01-14 10:39:11.18	332.22	14.98	
2025-01-14 10:39:11.38	332.18	14.99	
2025-01-14 10:39:11.59	332.13	14.99	
2025-01-14 10:39:11.79	332.08	15.00	
2025-01-14 10:39:12.00	332.03	15.01	
2025-01-14 10:39:12.20	331.98	15.01	
2025-01-14 10:39:12.40	331.93	15.02	
2025-01-14 10:39:12.61	331.88	15.02	
2025-01-14 10:39:12.82	331.83	15.03	
2025-01-14 10:39:13.02	331.79	15.04	
2025-01-14 10:39:13.23	331.74	15.04	
2025-01-14 10:39:13.43	331.69	15.05	
2025-01-14 10:39:13.64	331.64	15.05	
2025-01-14 10:39:13.84	331.59	15.06	
2025-01-14 10:39:14.05	331.54	15.07	
2025-01-14 10:39:14.25	331.50	15.07	
2025-01-14 10:39:14.46	331.45	15.08	
2025-01-14 10:39:14.66	331.40	15.08	
2025-01-14 10:39:14.87	331.35	15.09	
2025-01-14 10:39:15.07	331.30	15.09	
2025-01-14 10:39:15.28	331.25	15.10	
2025-01-14 10:39:15.48	331.20	15.11	
2025-01-14 10:39:15.69	331.15	15.11	
2025-01-14 10:39:15.89	331.10	15.12	
2025-01-14 10:39:16.10	331.05	15.12	
2025-01-14 10:39:16.30	331.01	15.13	
2025-01-14 10:39:16.51	330.96	15.13	
2025-01-14 10:39:16.71	330.91	15.14	
2025-01-14 10:39:16.92	330.86	15.15	
2025-01-14 10:39:17.12	330.81	15.15	
2025-01-14 10:39:17.33	330.76	15.16	
2025-01-14 10:39:17.53	330.71	15.16	
2025-01-14 10:39:17.73	330.67	15.17	
2025-01-14 10:39:17.94	330.61	15.17	
2025-01-14 10:39:18.14	330.57	15.18	
2025-01-14 10:39:18.35	330.52	15.18	
2025-01-14 10:39:18.56	330.47	15.19	
2025-01-14 10:39:18.76	330.42	15.20	
2025-01-14 10:39:18.97	330.37	15.20	
2025-01-14 10:39:19.17	330.32	15.21	
2025-01-14 10:39:19.38	330.27	15.21	
2025-01-14 10:39:19.58	330.22	15.22	
2025-01-14 10:39:19.79	330.17	15.22	
2025-01-14 10:39:19.99	330.12	15.23	
2025-01-14 10:39:20.20	330.07	15.23	
2025-01-14 10:39:20.41	330.02	15.24	
2025-01-14 10:39:20.61	329.97	15.24	
2025-01-14 10:39:20.82	329.92	15.25	
2025-01-14 10:39:21.02	329.88	15.25	
2025-01-14 10:39:21.23	329.82	15.26	
2025-01-14 10:39:21.43	329.78	15.27	
2025-01-14 10:39:21.64	329.73	15.27	
2025-01-14 10:39:21.84	329.68	15.28	
2025-01-14 10:39:22.05	329.63	15.28	
2025-01-14 10:39:22.25	329.58	15.29	
2025-01-14 10:39:22.46	329.53	15.29	
2025-01-14 10:39:22.66	329.48	15.30	
2025-01-14 10:39:22.87	329.43	15.30	
2025-01-14 10:39:23.07	329.38	15.31	
2025-01-14 10:39:23.28	329.33	15.31	
2025-01-14 10:39:23.48	329.28	15.32	
2025-01-14 10:39:23.69	329.23	15.32	
2025-01-14 10:39:23.90	329.18	15.33	
2025-01-14 10:39:24.10	329.13	15.33	
2025-01-14 10:39:24.30	329.08	15.34	
2025-01-14 10:39:24.51	329.03	15.34	
2025-01-14 10:39:24.71	328.98	15.35	
2025-01-14 10:39:24.92	328.93	15.35	
2025-01-14 10:39:25.12	328.88	15.36	
2025-01-14 10:39:25.33	328.83	15.36	
2025-01-14 10:39:25.54	328.78	15.37	
2025-01-14 10:39:25.74	328.73	15.37	
2025-01-14 10:39:25.95	328.68	15.38	
2025-01-14 10:39:26.16	328.63	15.38	
2025-01-14 10:39:26.37	328.58	15.39	
2025-01-14 10:39:26.58	328.53	15.39	
2025-01-14 10:39:26.78	328.48	15.39	
2025-01-14 10:39:26.99	328.43	15.40	
2025-01-14 10:39:27.19	328.38	15.40	
2025-01-14 10:39:27.40	328.33	15.41	
2025-01-14 10:39:27.60	328.28	15.41	
2025-01-14 10:39:27.81	328.23	15.42	
2025-01-14 10:39:28.01	328.18	15.42	
2025-01-14 10:39:28.21	328.13	15.43	
2025-01-14 10:39:28.42	328.08	15.43	
2025-01-14 10:39:28.63	328.03	15.44	
2025-01-14 10:39:28.83	327.98	15.44	
2025-01-14 10:39:29.04	327.93	15.45	
2025-01-14 10:39:29.24	327.88	15.45	
2025-01-14 10:39:29.45	327.83	15.45	
2025-01-14 10:39:29.65	327.78	15.46	
2025-01-14 10:39:29.86	327.73	15.46	
2025-01-14 10:39:30.07	327.68	15.47	
2025-01-14 10:39:30.27	327.63	15.47	
2025-01-14 10:39:30.47	327.58	15.48	
2025-01-14 10:39:30.68	327.53	15.48	
2025-01-14 10:39:30.89	327.48	15.49	
2025-01-14 10:39:31.09	327.43	15.49	
2025-01-14 10:39:31.30	327.38	15.49	
2025-01-14 10:39:31.52	327.32	15.50	
2025-01-14 10:39:31.72	327.27	15.50	
2025-01-14 10:39:31.93	327.22	15.51	
2025-01-14 10:39:32.13	327.17	15.51	
2025-01-14 10:39:32.34	327.12	15.52	
2025-01-14 10:39:32.54	327.07	15.52	
2025-01-14 10:39:32.75	327.02	15.52	
2025-01-14 10:39:32.95	326.97	15.53	
2025-01-14 10:39:33.16	326.92	15.53	
2025-01-14 10:39:33.37	326.87	15.54	
2025-01-14 10:39:33.57	326.82	15.54	
2025-01-14 10:39:33.78	326.77	15.54	
2025-01-14 10:39:33.98	326.72	15.55	
2025-01-14 10:39:34.19	326.67	15.55	
2025-01-14 10:39:34.39	326.62	15.56	
2025-01-14 10:39:34.59	326.57	15.56	
2025-01-14 10:39:34.80	326.52	15.56	
2025-01-14 10:39:35.01	326.46	15.57	
2025-01-14 10:39:35.21	326.42	15.57	
2025-01-14 10:39:35.42	326.36	15.58	
2025-01-14 10:39:35.62	326.31	15.58	
2025-01-14 10:39:35.84	326.26	15.58	
2025-01-14 10:39:36.05	326.21	15.59	
2025-01-14 10:39:36.25	326.16	15.59	
2025-01-14 10:39:36.46	326.11	15.60	
2025-01-14 10:39:36.66	326.06	15.60	
2025-01-14 10:39:36.86	326.01	15.60	
2025-01-14 10:39:37.07	325.96	15.61	
2025-01-14 10:39:37.29	325.90	15.61	
2025-01-14 10:39:37.49	325.85	15.61	
2025-01-14 10:39:37.70	325.80	15.62	
2025-01-14 10:39:37.90	325.75	15.62	
2025-01-14 10:39:38.11	325.70	15.62	
2025-01-14 10:39:38.32	325.65	15.63	
2025-01-14 10:39:38.52	325.60	15.63	
2025-01-14 10:39:38.73	325.55	15.64	
2025-01-14 10:39:38.94	325.49	15.64	
2025-01-14 10:39:39.15	325.44	15.64	
2025-01-14 10:39:39.36	325.39	15.65	
2025-01-14 10:39:39.56	325.34	15.65	
2025-01-14 10:39:39.77	325.29	15.65	
2025-01-14 10:39:39.97	325.24	15.66	
2025-01-14 10:39:40.18	325.19	15.66	
2025-01-14 10:39:40.38	325.14	15.66	
2025-01-14 10:39:40.59	325.08	15.67	
2025-01-14 10:39:40.79	325.04	15.67	
2025-01-14 10:39:41.00	324.98	15.67	
2025-01-14 10:39:41.20	324.93	15.68	
2025-01-14 10:39:41.41	324.88	15.68	
2025-01-14 10:39:41.62	324.83	15.68	
2025-01-14 10:39:41.82	324.78	15.69	
2025-01-14 10:39:42.03	324.73	15.69	
2025-01-14 10:39:42.23	324.68	15.69	
2025-01-14 10:39:42.44	324.63	15.70	
2025-01-14 10:39:42.64	324.58	15.70	
2025-01-14 10:39:42.86	324.52	15.70	
2025-01-14 10:39:43.06	324.47	15.71	
2025-01-14 10:39:43.27	324.42	15.71	
2025-01-14 10:39:43.47	324.37	15.71	
2025-01-14 10:39:43.68	324.32	15.71	
2025-01-14 10:39:43.89	324.26	15.72	
2025-01-14 10:39:44.09	324.21	15.72	
2025-01-14 10:39:44.29	324.16	15.72	
2025-01-14 10:39:44.50	324.11	15.73	
2025-01-14 10:39:44.71	324.06	15.73	
2025-01-14 10:39:44.91	324.01	15.73	
2025-01-14 10:39:45.12	323.96	15.73	
2025-01-14 10:39:45.32	323.91	15.74	
2025-01-14 10:39:45.53	323.86	15.74	
2025-01-14 10:39:45.73	323.81	15.74	
2025-01-14 10:39:45.94	323.75	15.75	
2025-01-14 10:39:46.14	323.70	15.75	
2025-01-14 10:39:46.36	323.65	15.75	
2025-01-14 10:39:46.57	323.60	15.75	
2025-01-14 10:39:46.77	323.55	15.76	
2025-01-14 10:39:46.98	323.49	15.76	
2025-01-14 10:39:47.18	323.44	15.76	
2025-01-14 10:39:47.39	323.39	15.77	
2025-01-14 10:39:47.59	323.34	15.77	
2025-01-14 10:39:47.80	323.29	15.77	
2025-01-14 10:39:48.00	323.24	15.77	
2025-01-14 10:39:48.21	323.19	15.78	
2025-01-14 10:39:48.41	323.14	15.78	
2025-01-14 10:39:48.62	323.08	15.78	
2025-01-14 10:39:48.82	323.03	15.78	
2025-01-14 10:39:49.03	322.98	15.79	
2025-01-14 10:39:49.23	322.93	15.79	
2025-01-14 10:39:49.44	322.88	15.79	
2025-01-14 10:39:49.64	322.83	15.79	
2025-01-14 10:39:49.85	322.78	15.80	
2025-01-14 10:39:50.06	322.72	15.80	
2025-01-14 10:39:50.26	322.67	15.80	
2025-01-14 10:39:50.47	322.62	15.80	
2025-01-14 10:39:50.67	322.57	15.80	
2025-01-14 10:39:50.88	322.52	15.81	
2025-01-14 10:39:51.08	322.47	15.81	
2025-01-14 10:39:51.29	322.41	15.81	
2025-01-14 10:39:51.49	322.36	15.81	
2025-01-14 10:39:51.70	322.31	15.82	
2025-01-14 10:39:51.90	322.26	15.82	
2025-01-14 10:39:52.11	322.21	15.82	
2025-01-14 10:39:52.31	322.16	15.82	
2025-01-14 10:39:52.52	322.11	15.82	
2025-01-14 10:39:52.72	322.06	15.83	
2025-01-14 10:39:52.93	322.00	15.83	
2025-01-14 10:39:53.13	321.95	15.83	
2025-01-14 10:39:53.34	321.90	15.83	
2025-01-14 10:39:53.55	321.85	15.83	
2025-01-14 10:39:53.75	321.80	15.84	
2025-01-14 10:39:53.96	321.74	15.84	
2025-01-14 10:39:54.16	321.69	15.84	
2025-01-14 10:39:54.36	321.64	15.84	
2025-01-14 10:39:54.57	321.59	15.84	
2025-01-14 10:39:54.78	321.54	15.85	
2025-01-14 10:39:54.98	321.49	15.85	
2025-01-14 10:39:55.19	321.43	15.85	
2025-01-14 10:39:55.39	321.38	15.85	
2025-01-14 10:39:55.60	321.33	15.85	
2025-01-14 10:39:55.80	321.28	15.85	
2025-01-14 10:39:56.01	321.23	15.86	
2025-01-14 10:39:56.22	321.18	15.86	
2025-01-14 10:39:56.42	321.13	15.86	
2025-01-14 10:39:56.63	321.07	15.86	
2025-01-14 10:39:56.83	321.02	15.86	
2025-01-14 10:39:57.04	320.97	15.86	
2025-01-14 10:39:57.24	320.92	15.87	
2025-01-14 10:39:57.44	320.87	15.87	
2025-01-14 10:39:57.65	320.82	15.87	
2025-01-14 10:39:57.86	320.76	15.87	
2025-01-14 10:39:58.06	320.71	15.87	
2025-01-14 10:39:58.27	320.66	15.87	
2025-01-14 10:39:58.47	320.61	15.87	
2025-01-14 10:39:58.67	320.56	15.88	
2025-01-14 10:39:58.88	320.51	15.88	
2025-01-14 10:39:59.09	320.45	15.88	
2025-01-14 10:39:59.29	320.40	15.88	
2025-01-14 10:39:59.49	320.35	15.88	
2025-01-14 10:39:59.70	320.30	15.88	
2025-01-14 10:39:59.90	320.25	15.88	
2025-01-14 10:40:00.11	320.20	15.89	
2025-01-14 10:40:00.32	320.14	15.89	
2025-01-14 10:40:00.53	320.09	15.89	
2025-01-14 10:40:00.73	320.04	15.89	
2025-01-14 10:40:00.94	319.99	15.89	
2025-01-14 10:40:01.14	319.94	15.89	
2025-01-14 10:40:01.34	319.89	15.89	
2025-01-14 10:40:01.55	319.83	15.89	
2025-01-14 10:40:01.76	319.78	15.90	
2025-01-14 10:40:01.96	319.73	15.90	
2025-01-14 10:40:02.17	319.68	15.90	
2025-01-14 10:40:02.37	319.63	15.90	
2025-01-14 10:40:02.58	319.57	15.90	
2025-01-14 10:40:02.78	319.52	15.90	
2025-01-14 10:40:02.99	319.47	15.90	
2025-01-14 10:40:03.19	319.42	15.90	
2025-01-14 10:40:03.40	319.37	15.90	
2025-01-14 10:40:03.60	319.31	15.90	
2025-01-14 10:40:03.81	319.26	15.90	
2025-01-14 10:40:04.02	319.21	15.91	
2025-01-14 10:40:04.22	319.16	15.91	
2025-01-14 10:40:04.43	319.11	15.91	
2025-01-14 10:40:04.63	319.05	15.91	
2025-01-14 10:40:04.84	319.00	15.91	
2025-01-14 10:40:05.04	318.95	15.91	
2025-01-14 10:40:05.25	318.90	15.91	
2025-01-14 10:40:05.46	318.84	15.91	
2025-01-14 10:40:05.66	318.79	15.91	
2025-01-14 10:40:05.86	318.74	15.91	
2025-01-14 10:40:06.07	318.69	15.91	
2025-01-14 10:40:06.27	318.64	15.91	
2025-01-14 10:40:06.48	318.59	15.91	
2025-01-14 10:40:06.68	318.54	15.91	
2025-01-14 10:40:06.88	318.49	15.91	
2025-01-14 10:40:07.09	318.43	15.92	
2025-01-14 10:40:07.29	318.38	15.92	
2025-01-14 10:40:07.50	318.33	15.92	
2025-01-14 10:40:07.70	318.28	15.92	
2025-01-14 10:40:07.91	318.23	15.92	
2025-01-14 10:40:08.13	318.17	15.92	
2025-01-14 10:40:08.33	318.12	15.92	
2025-01-14 10:40:08.54	318.07	15.92	
2025-01-14 10:40:08.74	318.02	15.92	
2025-01-14 10:40:08.95	317.96	15.92	
2025-01-14 10:40:09.15	317.91	15.92	
2025-01-14 10:40:09.36	317.86	15.92	
2025-01-14 10:40:09.56	317.81	15.92	
2025-01-14 10:40:09.77	317.76	15.92	
2025-01-14 10:40:09.97	317.70	15.92	
2025-01-14 10:40:10.18	317.65	15.92	
2025-01-14 10:40:10.38	317.60	15.92	
2025-01-14 10:40:10.59	317.55	15.92	
2025-01-14 10:40:10.79	317.50	15.92	
2025-01-14 10:40:11.00	317.44	15.92	
2025-01-14 10:40:11.21	317.39	15.92	
2025-01-14 10:40:11.41	317.34	15.92	
2025-01-14 10:40:11.62	317.29	15.92	
2025-01-14 10:40:11.82	317.24	15.92	
2025-01-14 10:40:12.02	317.19	15.92	
2025-01-14 10:40:12.23	317.13	15.92	
2025-01-14 10:40:12.43	317.08	15.92	
2025-01-14 10:40:12.64	317.03	15.92	
2025-01-14 10:40:12.85	316.98	15.92	
2025-01-14 10:40:13.05	316.93	15.92	
2025-01-14 10:40:13.26	316.87	15.92	
2025-01-14 10:40:13.46	316.82	15.92	
2025-01-14 10:40:13.67	316.77	15.92	
2025-01-14 10:40:13.87	316.72	15.92	
2025-01-14 10:40:14.08	316.67	15.92	
2025-01-14 10:40:14.28	316.61	15.92	
2025-01-14 10:40:14.49	316.56	15.92	
2025-01-14 10:40:14.69	316.51	15.92	
2025-01-14 10:40:14.90	316.46	15.92	
2025-01-14 10:40:15.10	316.41	15.92	
2025-01-14 10:40:15.32	316.35	15.92	
2025-01-14 10:40:15.53	316.30	15.92	
2025-01-14 10:40:15.73	316.25	15.92	
2025-01-14 10:40:15.94	316.20	15.92	
2025-01-14 10:40:16.15	316.14	15.91	
2025-01-14 10:40:16.35	316.09	15.91	
2025-01-14 10:40:16.56	316.04	15.91	
2025-01-14 10:40:16.76	315.99	15.91	
2025-01-14 10:40:16.97	315.93	15.91	
2025-01-14 10:40:17.17	315.88	15.91	
2025-01-14 10:40:17.38	315.83	15.91	
2025-01-14 10:40:17.58	315.78	15.91	
2025-01-14 10:40:17.79	315.73	15.91	
2025-01-14 10:40:18.00	315.67	15.91	
2025-01-14 10:40:18.20	315.62	15.91	
2025-01-14 10:40:18.40	315.57	15.91	
2025-01-14 10:40:18.61	315.52	15.91	
2025-01-14 10:40:18.82	315.47	15.91	
2025-01-14 10:40:19.02	315.42	15.91	
2025-01-14 10:40:19.23	315.36	15.90	
2025-01-14 10:40:19.43	315.31	15.90	
2025-01-14 10:40:19.64	315.26	15.90	
2025-01-14 10:40:19.84	315.21	15.90	
2025-01-14 10:40:20.05	315.16	15.90	
2025-01-14 10:40:20.25	315.11	15.90	
2025-01-14 10:40:20.46	315.05	15.90	
2025-01-14 10:40:20.66	315.00	15.90	
2025-01-14 10:40:20.87	314.95	15.90	
2025-01-14 10:40:21.07	314.90	15.90	
2025-01-14 10:40:21.28	314.85	15.90	
2025-01-14 10:40:21.49	314.79	15.89	
2025-01-14 10:40:21.70	314.74	15.89	
2025-01-14 10:40:21.91	314.69	15.89	
2025-01-14 10:40:22.11	314.64	15.89	
2025-01-14 10:40:22.33	314.58	15.89	
2025-01-14 10:40:22.54	314.53	15.89	
2025-01-14 10:40:22.74	314.48	15.89	
2025-01-14 10:40:22.95	314.42	15.89	
2025-01-14 10:40:23.15	314.37	15.88	
2025-01-14 10:40:23.36	314.32	15.88	
2025-01-14 10:40:23.56	314.27	15.88	
2025-01-14 10:40:23.76	314.22	15.88	
2025-01-14 10:40:23.96	314.17	15.88	
2025-01-14 10:40:24.17	314.12	15.88	
2025-01-14 10:40:24.37	314.07	15.88	
2025-01-14 10:40:24.58	314.01	15.87	
2025-01-14 10:40:24.78	313.96	15.87	
2025-01-14 10:40:24.99	313.91	15.87	
2025-01-14 10:40:25.19	313.86	15.87	
2025-01-14 10:40:25.40	313.81	15.87	
2025-01-14 10:40:25.60	313.76	15.87	
2025-01-14 10:40:25.81	313.70	15.87	
2025-01-14 10:40:26.02	313.65	15.86	
2025-01-14 10:40:26.22	313.60	15.86	
2025-01-14 10:40:26.43	313.55	15.86	
2025-01-14 10:40:26.63	313.50	15.86	
2025-01-14 10:40:26.84	313.44	15.86	
2025-01-14 10:40:27.04	313.39	15.86	
2025-01-14 10:40:27.25	313.34	15.85	
2025-01-14 10:40:27.45	313.29	15.85	
2025-01-14 10:40:27.66	313.24	15.85	
2025-01-14 10:40:27.86	313.19	15.85	
2025-01-14 10:40:28.08	313.13	15.85	
2025-01-14 10:40:28.29	313.08	15.85	
2025-01-14 10:40:28.49	313.03	15.84	
2025-01-14 10:40:28.70	312.98	15.84	
2025-01-14 10:40:28.90	312.93	15.84	
2025-01-14 10:40:29.12	312.87	15.84	
2025-01-14 10:40:29.32	312.82	15.84	
2025-01-14 10:40:29.53	312.77	15.83	
2025-01-14 10:40:29.73	312.72	15.83	
2025-01-14 10:40:29.94	312.66	15.83	
2025-01-14 10:40:30.14	312.61	15.83	
2025-01-14 10:40:30.35	312.56	15.83	
2025-01-14 10:40:30.56	312.51	15.82	
2025-01-14 10:40:30.76	312.46	15.82	
2025-01-14 10:40:30.97	312.41	15.82	
2025-01-14 10:40:31.17	312.36	15.82	
2025-01-14 10:40:31.38	312.30	15.82	
2025-01-14 10:40:31.58	312.25	15.81	
2025-01-14 10:40:31.79	312.20	15.81	
2025-01-14 10:40:32.00	312.15	15.81	
2025-01-14 10:40:32.20	312.10	15.81	
2025-01-14 10:40:32.40	312.05	15.80	
2025-01-14 10:40:32.61	311.99	15.80	
2025-01-14 10:40:32.82	311.94	15.80	
2025-01-14 10:40:33.02	311.89	15.80	
2025-01-14 10:40:33.23	311.84	15.79	
2025-01-14 10:40:33.43	311.79	15.79	
2025-01-14 10:40:33.64	311.74	15.79	
2025-01-14 10:40:33.84	311.69	15.79	
2025-01-14 10:40:34.05	311.63	15.79	
2025-01-14 10:40:34.25	311.58	15.78	
2025-01-14 10:40:34.46	311.53	15.78	
2025-01-14 10:40:34.66	311.48	15.78	
2025-01-14 10:40:34.87	311.43	15.78	
2025-01-14 10:40:35.07	311.38	15.77	
2025-01-14 10:40:35.28	311.32	15.77	
2025-01-14 10:40:35.48	311.27	15.77	
2025-01-14 10:40:35.69	311.22	15.76	
2025-01-14 10:40:35.89	311.17	15.76	
2025-01-14 10:40:36.10	311.12	15.76	
2025-01-14 10:40:36.32	311.06	15.76	
2025-01-14 10:40:36.52	311.01	15.75	
2025-01-14 10:40:36.72	310.96	15.75	
2025-01-14 10:40:36.93	310.91	15.75	
2025-01-14 10:40:37.14	310.86	15.75	
2025-01-14 10:40:37.34	310.81	15.74	
2025-01-14 10:40:37.54	310.76	15.74	
2025-01-14 10:40:37.75	310.71	15.74	
2025-01-14 10:40:37.95	310.66	15.73	
2025-01-14 10:40:38.16	310.61	15.73	
2025-01-14 10:40:38.37	310.55	15.73	
2025-01-14 10:40:38.57	310.50	15.73	
2025-01-14 10:40:38.79	310.45	15.72	
2025-01-14 10:40:38.99	310.40	15.72	
2025-01-14 10:40:39.20	310.35	15.72	
2025-01-14 10:40:39.41	310.29	15.71	
2025-01-14 10:40:39.61	310.24	15.71	
2025-01-14 10:40:39.82	310.19	15.71	
2025-01-14 10:40:40.02	310.14	15.70	
2025-01-14 10:40:40.23	310.09	15.70	
2025-01-14 10:40:40.43	310.04	15.70	
2025-01-14 10:40:40.64	309.99	15.70	
2025-01-14 10:40:40.84	309.94	15.69	
2025-01-14 10:40:41.05	309.88	15.69	
2025-01-14 10:40:41.25	309.84	15.69	
2025-01-14 10:40:41.46	309.78	15.68	
2025-01-14 10:40:41.66	309.73	15.68	
2025-01-14 10:40:41.87	309.68	15.68	
2025-01-14 10:40:42.07	309.63	15.67	
2025-01-14 10:40:42.28	309.58	15.67	
2025-01-14 10:40:42.49	309.53	15.67	
2025-01-14 10:40:42.69	309.48	15.66	
2025-01-14 10:40:42.90	309.43	15.66	
2025-01-14 10:40:43.10	309.38	15.66	
2025-01-14 10:40:43.31	309.32	15.65	
2025-01-14 10:40:43.51	309.27	15.65	
2025-01-14 10:40:43.72	309.22	15.65	
2025-01-14 10:40:43.92	309.17	15.64	
2025-01-14 10:40:44.12	309.12	15.64	
2025-01-14 10:40:44.33	309.07	15.64	
2025-01-14 10:40:44.54	309.02	15.63	
2025-01-14 10:40:44.74	308.97	15.63	
2025-01-14 10:40:44.95	308.92	15.62	
2025-01-14 10:40:45.15	308.87	15.62	
2025-01-14 10:40:45.36	308.82	15.62	
2025-01-14 10:40:45.56	308.77	15.61	
2025-01-14 10:40:45.77	308.71	15.61	
2025-01-14 10:40:45.97	308.66	15.61	
2025-01-14 10:40:46.18	308.61	15.60	
2025-01-14 10:40:46.38	308.56	15.60	
2025-01-14 10:40:46.59	308.51	15.59	
2025-01-14 10:40:46.79	308.46	15.59	
2025-01-14 10:40:47.00	308.41	15.59	
2025-01-14 10:40:47.20	308.36	15.58	
2025-01-14 10:40:47.41	308.31	15.58	
2025-01-14 10:40:47.61	308.26	15.58	
2025-01-14 10:40:47.82	308.21	15.57	
2025-01-14 10:40:48.02	308.16	15.57	
2025-01-14 10:40:48.23	308.11	15.56	
2025-01-14 10:40:48.43	308.06	15.56	
2025-01-14 10:40:48.64	308.00	15.56	
2025-01-14 10:40:48.84	307.96	15.55	
2025-01-14 10:40:49.05	307.90	15.55	
2025-01-14 10:40:49.26	307.85	15.54	
2025-01-14 10:40:49.46	307.80	15.54	
2025-01-14 10:40:49.66	307.75	15.54	
2025-01-14 10:40:49.87	307.70	15.53	
2025-01-14 10:40:50.08	307.65	15.53	
2025-01-14 10:40:50.28	307.60	15.52	
2025-01-14 10:40:50.48	307.55	15.52	
2025-01-14 10:40:50.69	307.50	15.52	
2025-01-14 10:40:50.89	307.45	15.51	
2025-01-14 10:40:51.10	307.40	15.51	
2025-01-14 10:40:51.30	307.35	15.50	
2025-01-14 10:40:51.51	307.30	15.50	
2025-01-14 10:40:51.71	307.25	15.49	
2025-01-14 10:40:51.92	307.20	15.49	
2025-01-14 10:40:52.12	307.15	15.49	
2025-01-14 10:40:52.33	307.10	15.48	
2025-01-14 10:40:52.54	307.05	15.48	
2025-01-14 10:40:52.74	307.00	15.47	
2025-01-14 10:40:52.94	306.95	15.47	
2025-01-14 10:40:53.15	306.90	15.46	
2025-01-14 10:40:53.36	306.85	15.46	
2025-01-14 10:40:53.56	306.80	15.46	
2025-01-14 10:40:53.76	306.75	15.45	
2025-01-14 10:40:53.97	306.70	15.45	
2025-01-14 10:40:54.18	306.64	15.44	
2025-01-14 10:40:54.38	306.60	15.44	
2025-01-14 10:40:54.59	306.54	15.43	
2025-01-14 10:40:54.79	306.50	15.43	
2025-01-14 10:40:55.00	306.44	15.42	
2025-01-14 10:40:55.20	306.40	15.42	
2025-01-14 10:40:55.41	306.34	15.41	
2025-01-14 10:40:55.61	306.30	15.41	
2025-01-14 10:40:55.82	306.24	15.40	
2025-01-14 10:40:56.02	306.20	15.40	
2025-01-14 10:40:56.23	306.14	15.40	
2025-01-14 10:40:56.44	306.09	15.39	
2025-01-14 10:40:56.64	306.04	15.39	
2025-01-14 10:40:56.85	305.99	15.38	
2025-01-14 10:40:57.05	305.94	15.38	
2025-01-14 10:40:57.26	305.89	15.37	
2025-01-14 10:40:57.46	305.84	15.37	
2025-01-14 10:40:57.67	305.79	15.36	
2025-01-14 10:40:57.87	305.75	15.36	
2025-01-14 10:40:58.08	305.69	15.35	
2025-01-14 10:40:58.28	305.65	15.35	
2025-01-14 10:40:58.49	305.59	15.34	
2025-01-14 10:40:58.69	305.55	15.34	
2025-01-14 10:40:58.90	305.49	15.33	
2025-01-14 10:40:59.11	305.44	15.33	
2025-01-14 10:40:59.32	305.39	15.32	
2025-01-14 10:40:59.52	305.34	15.32	
2025-01-14 10:40:59.73	305.29	15.31	
2025-01-14 10:40:59.94	305.24	15.31	
2025-01-14 10:41:00.14	305.19	15.30	
2025-01-14 10:41:00.35	305.14	15.30	
2025-01-14 10:41:00.55	305.10	15.29	
2025-01-14 10:41:00.76	305.04	15.29	
2025-01-14 10:41:00.96	305.00	15.28	
2025-01-14 10:41:01.17	304.95	15.28	
2025-01-14 10:41:01.37	304.90	15.27	
2025-01-14 10:41:01.58	304.85	15.27	
2025-01-14 10:41:01.78	304.80	15.26	
2025-01-14 10:41:01.99	304.75	15.26	
2025-01-14 10:41:02.19	304.70	15.25	
2025-01-14 10:41:02.40	304.65	15.24	
2025-01-14 10:41:02.60	304.60	15.24	
2025-01-14 10:41:02.81	304.55	15.23	
2025-01-14 10:41:03.01	304.50	15.23	
2025-01-14 10:41:03.22	304.45	15.22	
2025-01-14 10:41:03.42	304.40	15.22	
2025-01-14 10:41:03.63	304.35	15.21	
2025-01-14 10:41:03.84	304.30	15.21	
2025-01-14 10:41:04.04	304.25	15.20	
2025-01-14 10:41:04.26	304.20	15.20	
2025-01-14 10:41:04.46	304.15	15.19	
2025-01-14 10:41:04.67	304.10	15.18	
2025-01-14 10:41:04.87	304.05	15.18	
2025-01-14 10:41:05.08	304.00	15.17	
2025-01-14 10:41:05.29	303.95	15.17	
2025-01-14 10:41:05.49	303.91	15.16	
2025-01-14 10:41:05.70	303.86	15.16	
2025-01-14 10:41:05.90	303.81	15.15	
2025-01-14 10:41:06.11	303.76	15.15	
2025-01-14 10:41:06.31	303.71	15.14	
2025-01-14 10:41:06.52	303.66	15.13	
2025-01-14 10:41:06.72	303.61	15.13	
2025-01-14 10:41:06.93	303.56	15.12	
2025-01-14 10:41:07.13	303.51	15.12	
2025-01-14 10:41:07.34	303.46	15.11	
2025-01-14 10:41:07.56	303.41	15.11	
2025-01-14 10:41:07.76	303.36	15.10	
2025-01-14 10:41:07.97	303.31	15.09	
2025-01-14 10:41:08.17	303.26	15.09	
2025-01-14 10:41:08.38	303.21	15.08	
2025-01-14 10:41:08.58	303.17	15.08	
2025-01-14 10:41:08.79	303.12	15.07	
2025-01-14 10:41:08.99	303.07	15.06	
2025-01-14 10:41:09.20	303.02	15.06	
2025-01-14 10:41:09.40	302.97	15.05	
2025-01-14 10:41:09.61	302.92	15.05	
2025-01-14 10:41:09.81	302.87	15.04	
2025-01-14 10:41:10.02	302.82	15.03	
2025-01-14 10:41:10.22	302.78	15.03	
2025-01-14 10:41:10.43	302.73	15.02	
2025-01-14 10:41:10.64	302.68	15.02	
2025-01-14 10:41:10.84	302.63	15.01	
2025-01-14 10:41:11.04	302.58	15.00	
2025-01-14 10:41:11.25	302.53	15.00	
2025-01-14 10:41:11.45	302.49	14.99	
2025-01-14 10:41:11.66	302.44	14.99	
2025-01-14 10:41:11.86	302.39	14.98	
2025-01-14 10:41:12.07	302.34	14.97	
2025-01-14 10:41:12.28	302.29	14.97	
2025-01-14 10:41:12.48	302.24	14.96	
2025-01-14 10:41:12.69	302.19	14.95	
2025-01-14 10:41:12.89	302.15	14.95	
2025-01-14 10:41:13.10	302.10	14.94	
2025-01-14 10:41:13.30	302.05	14.94	
2025-01-14 10:41:13.51	302.00	14.93	
2025-01-14 10:41:13.72	301.95	14.92	
2025-01-14 10:41:13.92	301.90	14.92	
2025-01-14 10:41:14.13	301.85	14.91	
2025-01-14 10:41:14.33	301.81	14.90	
2025-01-14 10:41:14.54	301.76	14.90	
2025-01-14 10:41:14.75	301.71	14.89	
2025-01-14 10:41:14.95	301.66	14.89	
2025-01-14 10:41:15.15	301.61	14.88	
2025-01-14 10:41:15.36	301.56	14.87	
2025-01-14 10:41:15.57	301.51	14.87	
2025-01-14 10:41:15.77	301.47	14.86	
2025-01-14 10:41:15.98	301.42	14.85	
2025-01-14 10:41:16.18	301.37	14.85	
2025-01-14 10:41:16.39	301.32	14.84	
2025-01-14 10:41:16.59	301.28	14.83	
2025-01-14 10:41:16.80	301.23	14.83	
2025-01-14 10:41:17.00	301.18	14.82	
2025-01-14 10:41:17.21	301.13	14.81	
2025-01-14 10:41:17.41	301.08	14.81	
2025-01-14 10:41:17.62	301.03	14.80	
2025-01-14 10:41:17.82	300.99	14.79	
2025-01-14 10:41:18.03	300.94	14.79	
2025-01-14 10:41:18.23	300.89	14.78	
2025-01-14 10:41:18.44	300.84	14.77	
2025-01-14 10:41:18.64	300.80	14.77	
2025-01-14 10:41:18.85	300.75	14.76	
2025-01-14 10:41:19.05	300.70	14.75	
2025-01-14 10:41:19.26	300.65	14.75	
2025-01-14 10:41:19.46	300.61	14.74	
2025-01-14 10:41:19.67	300.56	14.73	
2025-01-14 10:41:19.87	300.51	14.73	
2025-01-14 10:41:20.08	300.46	14.72	
2025-01-14 10:41:20.28	300.42	14.71	
2025-01-14 10:41:20.49	300.37	14.71	
2025-01-14 10:41:20.69	300.32	14.70	
2025-01-14 10:41:20.90	300.27	14.69	
2025-01-14 10:41:21.10	300.23	14.68	
2025-01-14 10:41:21.31	300.18	14.68	
2025-01-14 10:41:21.51	300.13	14.67	
2025-01-14 10:41:21.72	300.08	14.66	
2025-01-14 10:41:21.92	300.04	14.66	
2025-01-14 10:41:22.13	299.99	14.65	
2025-01-14 10:41:22.33	299.94	14.64	
2025-01-14 10:41:22.54	299.89	14.64	
2025-01-14 10:41:22.74	299.85	14.63	
2025-01-14 10:41:22.95	299.80	14.62	
2025-01-14 10:41:23.15	299.75	14.61	
2025-01-14 10:41:23.36	299.70	14.61	
2025-01-14 10:41:23.56	299.66	14.60	
2025-01-14 10:41:23.77	299.61	14.59	
2025-01-14 10:41:23.97	299.56	14.59	
2025-01-14 10:41:24.18	299.51	14.58	
2025-01-14 10:41:24.38	299.47	14.57	
2025-01-14 10:41:24.59	299.42	14.56	
2025-01-14 10:41:24.79	299.37	14.56	
2025-01-14 10:41:25.00	299.33	14.55	
2025-01-14 10:41:25.20	299.28	14.54	
2025-01-14 10:41:25.41	299.23	14.54	
2025-01-14 10:41:25.61	299.19	14.53	
2025-01-14 10:41:25.82	299.14	14.52	
2025-01-14 10:41:26.02	299.09	14.51	
2025-01-14 10:41:26.23	299.04	14.51	
2025-01-14 10:41:26.43	299.00	14.50	
2025-01-14 10:41:26.64	298.95	14.49	
2025-01-14 10:41:26.86	298.90	14.48	
2025-01-14 10:41:27.06	298.85	14.48	
2025-01-14 10:41:27.27	298.81	14.47	
2025-01-14 10:41:27.47	298.76	14.46	
2025-01-14 10:41:27.68	298.71	14.45	
2025-01-14 10:41:27.90	298.66	14.45	
2025-01-14 10:41:28.11	298.62	14.44	
2025-01-14 10:41:28.31	298.57	14.43	
2025-01-14 10:41:28.52	298.52	14.42	
2025-01-14 10:41:28.72	298.48	14.42	
2025-01-14 10:41:28.93	298.43	14.41	
2025-01-14 10:41:29.13	298.38	14.40	
2025-01-14 10:41:29.34	298.34	14.39	
2025-01-14 10:41:29.54	298.29	14.39	
2025-01-14 10:41:29.75	298.24	14.38	
2025-01-14 10:41:29.95	298.20	14.37	
2025-01-14 10:41:30.16	298.15	14.36	
2025-01-14 10:41:30.36	298.10	14.36	
2025-01-14 10:41:30.57	298.06	14.35	
2025-01-14 10:41:30.77	298.01	14.34	
2025-01-14 10:41:30.97	297.97	14.33	
2025-01-14 10:41:31.19	297.92	14.32	
2025-01-14 10:41:31.40	297.87	14.32	
2025-01-14 10:41:31.60	297.82	14.31	
2025-01-14 10:41:31.81	297.78	14.30	
2025-01-14 10:41:32.01	297.73	14.29	
2025-01-14 10:41:32.22	297.69	14.29	
2025-01-14 10:41:32.42	297.64	14.28	
2025-01-14 10:41:32.63	297.59	14.27	
2025-01-14 10:41:32.83	297.55	14.26	
2025-01-14 10:41:33.04	297.50	14.25	
2025-01-14 10:41:33.24	297.46	14.25	
2025-01-14 10:41:33.45	297.41	14.24	
2025-01-14 10:41:33.65	297.36	14.23	
2025-01-14 10:41:33.86	297.32	14.22	
2025-01-14 10:41:34.07	297.27	14.21	
2025-01-14 10:41:34.28	297.22	14.21	
2025-01-14 10:41:34.49	297.18	14.20	
2025-01-14 10:41:34.69	297.13	14.19	
2025-01-14 10:41:34.90	297.08	14.18	
2025-01-14 10:41:35.11	297.04	14.17	
2025-01-14 10:41:35.31	296.99	14.17	
2025-01-14 10:41:35.51	296.95	14.16	
2025-01-14 10:41:35.72	296.90	14.15	
2025-01-14 10:41:35.93	296.85	14.14	
2025-01-14 10:41:36.13	296.81	14.13	
2025-01-14 10:41:36.34	296.76	14.13	
2025-01-14 10:41:36.54	296.72	14.12	
2025-01-14 10:41:36.75	296.67	14.11	
2025-01-14 10:41:36.95	296.63	14.10	
2025-01-14 10:41:37.16	296.58	14.09	
2025-01-14 10:41:37.36	296.54	14.09	
2025-01-14 10:41:37.57	296.49	14.08	
2025-01-14 10:41:37.77	296.45	14.07	
2025-01-14 10:41:37.98	296.40	14.06	
2025-01-14 10:41:38.18	296.35	14.05	
2025-01-14 10:41:38.39	296.31	14.04	
2025-01-14 10:41:38.59	296.26	14.04	
2025-01-14 10:41:38.80	296.22	14.03	
2025-01-14 10:41:39.00	296.17	14.02	
2025-01-14 10:41:39.21	296.13	14.01	
2025-01-14 10:41:39.41	296.08	14.00	
2025-01-14 10:41:39.62	296.04	14.00	
2025-01-14 10:41:39.82	295.99	13.99	
2025-01-14 10:41:40.03	295.95	13.98	
2025-01-14 10:41:40.23	295.90	13.97	
2025-01-14 10:41:40.44	295.86	13.96	
2025-01-14 10:41:40.64	295.81	13.95	
2025-01-14 10:41:40.85	295.77	13.95	
2025-01-14 10:41:41.05	295.72	13.94	
2025-01-14 10:41:41.26	295.68	13.93	
2025-01-14 10:41:41.46	295.63	13.92	
2025-01-14 10:41:41.67	295.59	13.91	
2025-01-14 10:41:41.87	295.54	13.90	
2025-01-14 10:41:42.08	295.50	13.89	
2025-01-14 10:41:42.28	295.45	13.89	
2025-01-14 10:41:42.49	295.41	13.88	
2025-01-14 10:41:42.69	295.36	13.87	
2025-01-14 10:41:42.91	295.32	13.86	
2025-01-14 10:41:43.12	295.27	13.85	
2025-01-14 10:41:43.32	295.23	13.84	
2025-01-14 10:41:43.53	295.18	13.83	
2025-01-14 10:41:43.74	295.13	13.83	
2025-01-14 10:41:43.94	295.09	13.82	
2025-01-14 10:41:44.15	295.05	13.81	
2025-01-14 10:41:44.35	295.00	13.80	
2025-01-14 10:41:44.56	294.96	13.79	
2025-01-14 10:41:44.76	294.91	13.78	
2025-01-14 10:41:44.98	294.87	13.77	
2025-01-14 10:41:45.18	294.82	13.77	
2025-01-14 10:41:45.39	294.78	13.76	
2025-01-14 10:41:45.60	294.73	13.75	
2025-01-14 10:41:45.80	294.69	13.74	
2025-01-14 10:41:46.00	294.64	13.73	
2025-01-14 10:41:46.21	294.60	13.72	
2025-01-14 10:41:46.41	294.56	13.71	
2025-01-14 10:41:46.62	294.51	13.70	
2025-01-14 10:41:46.83	294.46	13.70	
2025-01-14 10:41:47.03	294.42	13.69	
2025-01-14 10:41:47.24	294.38	13.68	
2025-01-14 10:41:47.44	294.33	13.67	
2025-01-14 10:41:47.65	294.29	13.66	
2025-01-14 10:41:47.85	294.25	13.65	
2025-01-14 10:41:48.06	294.20	13.64	
2025-01-14 10:41:48.26	294.16	13.63	
2025-01-14 10:41:48.47	294.11	13.63	
2025-01-14 10:41:48.67	294.07	13.62	
2025-01-14 10:41:48.87	294.03	13.61	
2025-01-14 10:41:49.08	293.98	13.60	
2025-01-14 10:41:49.28	293.94	13.59	
2025-01-14 10:41:49.49	293.89	13.58	
2025-01-14 10:41:49.69	293.85	13.57	
2025-01-14 10:41:49.90	293.81	13.56	
2025-01-14 10:41:50.11	293.76	13.55	
2025-01-14 10:41:50.31	293.72	13.55	
2025-01-14 10:41:50.51	293.68	13.54	
2025-01-14 10:41:50.72	293.63	13.53	
2025-01-14 10:41:50.92	293.59	13.52	
2025-01-14 10:41:51.13	293.54	13.51	
2025-01-14 10:41:51.33	293.50	13.50	
2025-01-14 10:41:51.54	293.46	13.49	
2025-01-14 10:41:51.74	293.41	13.48	
2025-01-14 10:41:51.95	293.37	13.47	
2025-01-14 10:41:52.15	293.33	13.46	
2025-01-14 10:41:52.36	293.28	13.45	
2025-01-14 10:41:52.56	293.24	13.45	
2025-01-14 10:41:52.77	293.20	13.44	
2025-01-14 10:41:52.97	293.15	13.43	
2025-01-14 10:41:53.18	293.11	13.42	
2025-01-14 10:41:53.39	293.06	13.41	
2025-01-14 10:41:53.59	293.02	13.40	
2025-01-14 10:41:53.80	292.98	13.39	
2025-01-14 10:41:54.00	292.94	13.38	
2025-01-14 10:41:54.21	292.89	13.37	
2025-01-14 10:41:54.41	292.85	13.36	
2025-01-14 10:41:54.62	292.81	13.35	
2025-01-14 10:41:54.82	292.76	13.35	
2025-01-14 10:41:55.03	292.72	13.34	
2025-01-14 10:41:55.23	292.68	13.33	
2025-01-14 10:41:55.44	292.63	13.32	
2025-01-14 10:41:55.64	292.59	13.31	
2025-01-14 10:41:55.85	292.55	13.30	
2025-01-14 10:41:56.06	292.50	13.29	
2025-01-14 10:41:56.26	292.46	13.28	
2025-01-14 10:41:56.48	292.42	13.27	
2025-01-14 10:41:56.68	292.37	13.26	
2025-01-14 10:41:56.89	292.33	13.25	
2025-01-14 10:41:57.09	292.29	13.24	
2025-01-14 10:41:57.30	292.24	13.23	
2025-01-14 10:41:57.51	292.20	13.22	
2025-01-14 10:41:57.71	292.16	13.21	
2025-01-14 10:41:57.91	292.12	13.20	
2025-01-14 10:41:58.12	292.07	13.20	
2025-01-14 10:41:58.33	292.03	13.19	
2025-01-14 10:41:58.53	291.99	13.18	
2025-01-14 10:41:58.74	291.94	13.17	
2025-01-14 10:41:58.94	291.90	13.16	
2025-01-14 10:41:59.15	291.86	13.15	
2025-01-14 10:41:59.35	291.82	13.14	
2025-01-14 10:41:59.56	291.77	13.13	
2025-01-14 10:41:59.76	291.73	13.12	
2025-01-14 10:41:59.97	291.69	13.11	
2025-01-14 10:42:00.19	291.64	13.10	
2025-01-14 10:42:00.39	291.60	13.09	
2025-01-14 10:42:00.60	291.56	13.08	
2025-01-14 10:42:00.80	291.52	13.07	
2025-01-14 10:42:01.00	291.48	13.06	
2025-01-14 10:42:01.21	291.43	13.05	
2025-01-14 10:42:01.41	291.39	13.04	
2025-01-14 10:42:01.62	291.35	13.03	
2025-01-14 10:42:01.82	291.31	13.02	
2025-01-14 10:42:02.03	291.27	13.01	
2025-01-14 10:42:02.24	291.22	13.00	
2025-01-14 10:42:02.44	291.18	12.99	
2025-01-14 10:42:02.65	291.14	12.98	
2025-01-14 10:42:02.85	291.10	12.98	
2025-01-14 10:42:03.06	291.05	12.97	
2025-01-14 10:42:03.26	291.01	12.96	
2025-01-14 10:42:03.47	290.97	12.95	
2025-01-14 10:42:03.67	290.93	12.94	
2025-01-14 10:42:03.88	290.89	12.93	
2025-01-14 10:42:04.09	290.84	12.92	
2025-01-14 10:42:04.29	290.80	12.91	
2025-01-14 10:42:04.50	290.76	12.90	
2025-01-14 10:42:04.70	290.72	12.89	
2025-01-14 10:42:04.91	290.68	12.88	
2025-01-14 10:42:05.11	290.64	12.87	
2025-01-14 10:42:05.33	290.59	12.86	
2025-01-14 10:42:05.54	290.55	12.85	
2025-01-14 10:42:05.74	290.51	12.84	
2025-01-14 10:42:05.95	290.47	12.83	
2025-01-14 10:42:06.15	290.43	12.82	
2025-01-14 10:42:06.37	290.38	12.81	
2025-01-14 10:42:06.58	290.34	12.80	
2025-01-14 10:42:06.78	290.30	12.79	
2025-01-14 10:42:06.99	290.26	12.78	
2025-01-14 10:42:07.19	290.22	12.77	
2025-01-14 10:42:07.40	290.17	12.76	
2025-01-14 10:42:07.60	290.13	12.75	
2025-01-14 10:42:07.81	290.09	12.74	
2025-01-14 10:42:08.01	290.05	12.73	
2025-01-14 10:42:08.22	290.01	12.72	
2025-01-14 10:42:08.42	289.97	12.71	
2025-01-14 10:42:08.63	289.93	12.70	
2025-01-14 10:42:08.83	289.89	12.69	
2025-01-14 10:42:09.04	289.84	12.68	
2025-01-14 10:42:09.24	289.80	12.67	
2025-01-14 10:42:09.45	289.76	12.66	
2025-01-14 10:42:09.65	289.72	12.65	
2025-01-14 10:42:09.86	289.68	12.64	
2025-01-14 10:42:10.06	289.64	12.63	
2025-01-14 10:42:10.27	289.60	12.62	
2025-01-14 10:42:10.47	289.56	12.61	
2025-01-14 10:42:10.69	289.51	12.60	
2025-01-14 10:42:10.90	289.47	12.59	
2025-01-14 10:42:11.10	289.43	12.58	
2025-01-14 10:42:11.31	289.39	12.57	
2025-01-14 10:42:11.52	289.35	12.56	
2025-01-14 10:42:11.73	289.31	12.55	
2025-01-14 10:42:11.94	289.27	12.54	
2025-01-14 10:42:12.15	289.23	12.53	
2025-01-14 10:42:12.35	289.19	12.52	
2025-01-14 10:42:12.56	289.14	12.51	
2025-01-14 10:42:12.76	289.10	12.50	
2025-01-14 10:42:12.97	289.06	12.49	
2025-01-14 10:42:13.18	289.02	12.48	
2025-01-14 10:42:13.38	288.98	12.47	
2025-01-14 10:42:13.59	288.94	12.46	
2025-01-14 10:42:13.79	288.90	12.45	
2025-01-14 10:42:14.00	288.86	12.44	
2025-01-14 10:42:14.20	288.82	12.43	
2025-01-14 10:42:14.41	288.78	12.42	
2025-01-14 10:42:14.62	288.74	12.41	
2025-01-14 10:42:14.82	288.70	12.40	
2025-01-14 10:42:15.02	288.66	12.39	
2025-01-14 10:42:15.23	288.62	12.38	
2025-01-14 10:42:15.44	288.58	12.37	
2025-01-14 10:42:15.64	288.54	12.36	
2025-01-14 10:42:15.84	288.50	12.35	
2025-01-14 10:42:16.05	288.46	12.34	
2025-01-14 10:42:16.26	288.42	12.32	
2025-01-14 10:42:16.46	288.38	12.31	
2025-01-14 10:42:16.67	288.34	12.30	
2025-01-14 10:42:16.87	288.30	12.29	
2025-01-14 10:42:17.09	288.26	12.28	
2025-01-14 10:42:17.30	288.21	12.27	
2025-01-14 10:42:17.50	288.18	12.26	
2025-01-14 10:42:17.71	288.13	12.25	
2025-01-14 10:42:17.92	288.09	12.24	
2025-01-14 10:42:18.12	288.06	12.23	
2025-01-14 10:42:18.33	288.01	12.22	
2025-01-14 10:42:18.53	287.98	12.21	
2025-01-14 10:42:18.74	287.94	12.20	
2025-01-14 10:42:18.94	287.90	12.19	
2025-01-14 10:42:19.15	287.86	12.18	
2025-01-14 10:42:19.35	287.82	12.17	
2025-01-14 10:42:19.56	287.78	12.16	
2025-01-14 10:42:19.76	287.74	12.15	
2025-01-14 10:42:19.97	287.70	12.14	
2025-01-14 10:42:20.17	287.66	12.13	
2025-01-14 10:42:20.37	287.62	12.12	
2025-01-14 10:42:20.58	287.58	12.11	
2025-01-14 10:42:20.79	287.54	12.10	
2025-01-14 10:42:20.99	287.50	12.09	
2025-01-14 10:42:21.19	287.46	12.08	
2025-01-14 10:42:21.40	287.42	12.07	
2025-01-14 10:42:21.60	287.39	12.06	
2025-01-14 10:42:21.81	287.35	12.04	
2025-01-14 10:42:22.01	287.31	12.03	
2025-01-14 10:42:22.22	287.27	12.02	
2025-01-14 10:42:22.43	287.23	12.01	
2025-01-14 10:42:22.63	287.19	12.00	
2025-01-14 10:42:22.84	287.15	11.99	
2025-01-14 10:42:23.04	287.11	11.98	
2025-01-14 10:42:23.25	287.07	11.97	
2025-01-14 10:42:23.45	287.03	11.96	
2025-01-14 10:42:23.66	286.99	11.95	
2025-01-14 10:42:23.86	286.95	11.94	
2025-01-14 10:42:24.07	286.92	11.93	
2025-01-14 10:42:24.27	286.88	11.92	
2025-01-14 10:42:24.48	286.84	11.91	
2025-01-14 10:42:24.68	286.80	11.90	
2025-01-14 10:42:24.89	286.76	11.89	
2025-01-14 10:42:25.10	286.72	11.88	
2025-01-14 10:42:25.30	286.68	11.87	
2025-01-14 10:42:25.51	286.64	11.85	
2025-01-14 10:42:25.71	286.61	11.84	
2025-01-14 10:42:25.92	286.57	11.83	
2025-01-14 10:42:26.12	286.53	11.82	
2025-01-14 10:42:26.33	286.49	11.81	
2025-01-14 10:42:26.53	286.45	11.80	
2025-01-14 10:42:26.74	286.41	11.79	
2025-01-14 10:42:26.94	286.37	11.78	
2025-01-14 10:42:27.15	286.33	11.77	
2025-01-14 10:42:27.35	286.30	11.76	
2025-01-14 10:42:27.56	286.26	11.75	
2025-01-14 10:42:27.76	286.22	11.74	
2025-01-14 10:42:27.97	286.18	11.73	
2025-01-14 10:42:28.17	286.14	11.72	
2025-01-14 10:42:28.37	286.11	11.71	
2025-01-14 10:42:28.58	286.07	11.70	
2025-01-14 10:42:28.78	286.03	11.69	
2025-01-14 10:42:28.99	285.99	11.67	
2025-01-14 10:42:29.20	285.95	11.66	
2025-01-14 10:42:29.40	285.92	11.65	
2025-01-14 10:42:29.61	285.88	11.64	
2025-01-14 10:42:29.81	285.84	11.63	
2025-01-14 10:42:30.02	285.80	11.62	
2025-01-14 10:42:30.22	285.76	11.61	
2025-01-14 10:42:30.43	285.72	11.60	
2025-01-14 10:42:30.64	285.69	11.59	
2025-01-14 10:42:30.84	285.65	11.58	
2025-01-14 10:42:31.05	285.61	11.57	
2025-01-14 10:42:31.25	285.57	11.56	
2025-01-14 10:42:31.46	285.53	11.55	
2025-01-14 10:42:31.67	285.50	11.53	
2025-01-14 10:42:31.88	285.46	11.52	
2025-01-14 10:42:32.08	285.42	11.51	
2025-01-14 10:42:32.29	285.38	11.50	
2025-01-14 10:42:32.49	285.34	11.49	
2025-01-14 10:42:32.70	285.31	11.48	
2025-01-14 10:42:32.91	285.27	11.47	
2025-01-14 10:42:33.11	285.23	11.46	
2025-01-14 10:42:33.32	285.19	11.45	
2025-01-14 10:42:33.52	285.16	11.44	
2025-01-14 10:42:33.73	285.12	11.43	
2025-01-14 10:42:33.93	285.08	11.41	
2025-01-14 10:42:34.15	285.04	11.40	
2025-01-14 10:42:34.36	285.00	11.39	
2025-01-14 10:42:34.56	284.97	11.38	
2025-01-14 10:42:34.77	284.93	11.37	
2025-01-14 10:42:34.97	284.89	11.36	
2025-01-14 10:42:35.18	284.85	11.35	
2025-01-14 10:42:35.38	284.82	11.34	
2025-01-14 10:42:35.59	284.78	11.33	
2025-01-14 10:42:35.79	284.74	11.32	
2025-01-14 10:42:36.00	284.71	11.31	
2025-01-14 10:42:36.20	284.67	11.29	
2025-01-14 10:42:36.41	284.63	11.28	
2025-01-14 10:42:36.61	284.59	11.27	
2025-01-14 10:42:36.82	284.56	11.26	
2025-01-14 10:42:37.02	284.52	11.25	
2025-01-14 10:42:37.23	284.48	11.24	
2025-01-14 10:42:37.43	284.45	11.23	
2025-01-14 10:42:37.64	284.41	11.22	
2025-01-14 10:42:37.84	284.37	11.21	
2025-01-14 10:42:38.05	284.34	11.20	
2025-01-14 10:42:38.26	284.30	11.18	
2025-01-14 10:42:38.46	284.26	11.17	
2025-01-14 10:42:38.67	284.22	11.16	
2025-01-14 10:42:38.87	284.19	11.15	
2025-01-14 10:42:39.08	284.15	11.14	
2025-01-14 10:42:39.28	284.12	11.13	
2025-01-14 10:42:39.49	284.08	11.12	
2025-01-14 10:42:39.69	284.04	11.11	
2025-01-14 10:42:39.90	284.00	11.10	
2025-01-14 10:42:40.10	283.97	11.09	
2025-01-14 10:42:40.31	283.93	11.07	
2025-01-14 10:42:40.53	283.89	11.06	
2025-01-14 10:42:40.73	283.86	11.05	
2025-01-14 10:42:40.94	283.82	11.04	
2025-01-14 10:42:41.14	283.78	11.03	
2025-01-14 10:42:41.35	283.75	11.02	
2025-01-14 10:42:41.55	283.71	11.01	
2025-01-14 10:42:41.76	283.67	11.00	
2025-01-14 10:42:41.97	283.64	10.99	
2025-01-14 10:42:42.17	283.60	10.97	
2025-01-14 10:42:42.38	283.56	10.96	
2025-01-14 10:42:42.58	283.53	10.95	
2025-01-14 10:42:42.79	283.49	10.94	
2025-01-14 10:42:42.99	283.46	10.93	
2025-01-14 10:42:43.20	283.42	10.92	
2025-01-14 10:42:43.40	283.39	10.91	
2025-01-14 10:42:43.61	283.35	10.90	
2025-01-14 10:42:43.82	283.31	10.89	
2025-01-14 10:42:44.02	283.28	10.87	
2025-01-14 10:42:44.23	283.24	10.86	
2025-01-14 10:42:44.43	283.20	10.85	
2025-01-14 10:42:44.64	283.17	10.84	
2025-01-14 10:42:44.84	283.13	10.83	
2025-01-14 10:42:45.05	283.10	10.82	
2025-01-14 10:42:45.25	283.06	10.81	
2025-01-14 10:42:45.46	283.02	10.80	
2025-01-14 10:42:45.66	282.99	10.79	
2025-01-14 10:42:45.87	282.95	10.77	
2025-01-14 10:42:46.07	282.92	10.76	
2025-01-14 10:42:46.28	282.88	10.75	
2025-01-14 10:42:46.48	282.85	10.74	
2025-01-14 10:42:46.69	282.81	10.73	
2025-01-14 10:42:46.89	282.78	10.72	
2025-01-14 10:42:47.10	282.74	10.71	
2025-01-14 10:42:47.30	282.71	10.70	
2025-01-14 10:42:47.51	282.67	10.68	
2025-01-14 10:42:47.72	282.63	10.67	
2025-01-14 10:42:47.92	282.60	10.66	
2025-01-14 10:42:48.12	282.56	10.65	
2025-01-14 10:42:48.33	282.53	10.64	
2025-01-14 10:42:48.53	282.49	10.63	
2025-01-14 10:42:48.74	282.46	10.62	
2025-01-14 10:42:48.94	282.42	10.61	
2025-01-14 10:42:49.15	282.39	10.60	
2025-01-14 10:42:49.35	282.35	10.58	
2025-01-14 10:42:49.56	282.32	10.57	
2025-01-14 10:42:49.76	282.28	10.56	
2025-01-14 10:42:49.97	282.25	10.55	
2025-01-14 10:42:50.19	282.21	10.54	
2025-01-14 10:42:50.39	282.17	10.53	
2025-01-14 10:42:50.59	282.14	10.52	
2025-01-14 10:42:50.80	282.10	10.50	
2025-01-14 10:42:51.01	282.07	10.49	
2025-01-14 10:42:51.21	282.03	10.48	
2025-01-14 10:42:51.42	282.00	10.47	
2025-01-14 10:42:51.62	281.96	10.46	
2025-01-14 10:42:51.83	281.93	10.45	
2025-01-14 10:42:52.03	281.89	10.44	
2025-01-14 10:42:52.24	281.86	10.43	
2025-01-14 10:42:52.44	281.83	10.41	
2025-01-14 10:42:52.65	281.79	10.40	
2025-01-14 10:42:52.85	281.76	10.39	
2025-01-14 10:42:53.06	281.72	10.38	
2025-01-14 10:42:53.27	281.68	10.37	
2025-01-14 10:42:53.47	281.65	10.36	
2025-01-14 10:42:53.68	281.62	10.35	
2025-01-14 10:42:53.88	281.58	10.34	
2025-01-14 10:42:54.09	281.55	10.32	
2025-01-14 10:42:54.29	281.51	10.31	
2025-01-14 10:42:54.51	281.48	10.30	
2025-01-14 10:42:54.72	281.44	10.29	
2025-01-14 10:42:54.92	281.41	10.28	
2025-01-14 10:42:55.13	281.37	10.27	
2025-01-14 10:42:55.33	281.34	10.26	
2025-01-14 10:42:55.53	281.31	10.24	
2025-01-14 10:42:55.74	281.27	10.23	
2025-01-14 10:42:55.95	281.23	10.22	
2025-01-14 10:42:56.15	281.20	10.21	
2025-01-14 10:42:56.36	281.17	10.20	
2025-01-14 10:42:56.56	281.13	10.19	
2025-01-14 10:42:56.77	281.10	10.18	
2025-01-14 10:42:56.97	281.06	10.16	
2025-01-14 10:42:57.18	281.03	10.15	
2025-01-14 10:42:57.39	281.00	10.14	
2025-01-14 10:42:57.59	280.96	10.13	
2025-01-14 10:42:57.79	280.93	10.12	
2025-01-14 10:42:58.00	280.89	10.11	
2025-01-14 10:42:58.21	280.86	10.10	
2025-01-14 10:42:58.41	280.83	10.08	
2025-01-14 10:42:58.62	280.79	10.07	
2025-01-14 10:42:58.82	280.76	10.06	
2025-01-14 10:42:59.03	280.72	10.05	
2025-01-14 10:42:59.23	280.69	10.04	
2025-01-14 10:42:59.44	280.66	10.03	
2025-01-14 10:42:59.64	280.62	10.02	
2025-01-14 10:42:59.86	280.59	10.00	
2025-01-14 10:43:00.07	280.55	9.99	
2025-01-14 10:43:00.27	280.52	9.98	
2025-01-14 10:43:00.47	280.49	9.97	
2025-01-14 10:43:00.68	280.45	9.96	
2025-01-14 10:43:00.88	280.42	9.95	
2025-01-14 10:43:01.09	280.39	9.94	
2025-01-14 10:43:01.30	280.35	9.92	
2025-01-14 10:43:01.50	280.32	9.91	
2025-01-14 10:43:01.71	280.28	9.90	
2025-01-14 10:43:01.91	280.25	9.89	
2025-01-14 10:43:02.12	280.22	9.88	
2025-01-14 10:43:02.32	280.19	9.87	
2025-01-14 10:43:02.53	280.15	9.86	
2025-01-14 10:43:02.73	280.12	9.84	
2025-01-14 10:43:02.93	280.09	9.83	
2025-01-14 10:43:03.14	280.05	9.82	
2025-01-14 10:43:03.35	280.02	9.81	
2025-01-14 10:43:03.55	279.99	9.80	
2025-01-14 10:43:03.76	279.95	9.79	
2025-01-14 10:43:03.96	279.92	9.78	
2025-01-14 10:43:04.16	279.89	9.76	
2025-01-14 10:43:04.37	279.85	9.75	
2025-01-14 10:43:04.58	279.82	9.74	
2025-01-14 10:43:04.78	279.79	9.73	
2025-01-14 10:43:04.99	279.75	9.72	
2025-01-14 10:43:05.19	279.72	9.71	
2025-01-14 10:43:05.40	279.69	9.69	
2025-01-14 10:43:05.60	279.66	9.68	
2025-01-14 10:43:05.81	279.62	9.67	
2025-01-14 10:43:06.01	279.59	9.66	
2025-01-14 10:43:06.21	279.56	9.65	
2025-01-14 10:43:06.42	279.52	9.64	
2025-01-14 10:43:06.63	279.49	9.63	
2025-01-14 10:43:06.83	279.46	9.61	
2025-01-14 10:43:07.04	279.42	9.60	
2025-01-14 10:43:07.24	279.39	9.59	
2025-01-14 10:43:07.44	279.36	9.58	
2025-01-14 10:43:07.65	279.33	9.57	
2025-01-14 10:43:07.86	279.29	9.56	
2025-01-14 10:43:08.06	279.26	9.55	
2025-01-14 10:43:08.27	279.23	9.53	
2025-01-14 10:43:08.47	279.20	9.52	
2025-01-14 10:43:08.68	279.16	9.51	
2025-01-14 10:43:08.88	279.13	9.50	
2025-01-14 10:43:09.09	279.10	9.49	
2025-01-14 10:43:09.29	279.07	9.48	
2025-01-14 10:43:09.50	279.03	9.46	
2025-01-14 10:43:09.70	279.00	9.45	
2025-01-14 10:43:09.91	278.97	9.44	
2025-01-14 10:43:10.11	278.94	9.43	
2025-01-14 10:43:10.32	278.91	9.42	
2025-01-14 10:43:10.52	278.87	9.41	
2025-01-14 10:43:10.73	278.84	9.40	
2025-01-14 10:43:10.93	278.81	9.38	
2025-01-14 10:43:11.14	278.78	9.37	
2025-01-14 10:43:11.34	278.75	9.36	
2025-01-14 10:43:11.55	278.71	9.35	
2025-01-14 10:43:11.75	278.68	9.34	
2025-01-14 10:43:11.96	278.65	9.33	
2025-01-14 10:43:12.17	278.62	9.31	
2025-01-14 10:43:12.37	278.58	9.30	
2025-01-14 10:43:12.57	278.55	9.29	
2025-01-14 10:43:12.78	278.52	9.28	
2025-01-14 10:43:12.99	278.49	9.27	
2025-01-14 10:43:13.19	278.46	9.26	
2025-01-14 10:43:13.40	278.42	9.24	
2025-01-14 10:43:13.60	278.39	9.23	
2025-01-14 10:43:13.81	278.36	9.22	
2025-01-14 10:43:14.01	278.33	9.21	
2025-01-14 10:43:14.22	278.30	9.20	
2025-01-14 10:43:14.43	278.26	9.19	
2025-01-14 10:43:14.63	278.23	9.18	
2025-01-14 10:43:14.83	278.20	9.16	
2025-01-14 10:43:15.04	278.17	9.15	
2025-01-14 10:43:15.25	278.14	9.14	
2025-01-14 10:43:15.45	278.11	9.13	
2025-01-14 10:43:15.66	278.08	9.12	
2025-01-14 10:43:15.86	278.04	9.11	
2025-01-14 10:43:16.06	278.01	9.09	
2025-01-14 10:43:16.27	277.98	9.08	
2025-01-14 10:43:16.48	277.95	9.07	
2025-01-14 10:43:16.68	277.92	9.06	
2025-01-14 10:43:16.88	277.89	9.05	
2025-01-14 10:43:17.09	277.86	9.04	
2025-01-14 10:43:17.30	277.82	9.02	
2025-01-14 10:43:17.50	277.79	9.01	
2025-01-14 10:43:17.71	277.76	9.00	
2025-01-14 10:43:17.91	277.73	8.99	
2025-01-14 10:43:18.11	277.70	8.98	
2025-01-14 10:43:18.32	277.67	8.97	
2025-01-14 10:43:18.52	277.64	8.95	
2025-01-14 10:43:18.73	277.61	8.94	
2025-01-14 10:43:18.93	277.58	8.93	
2025-01-14 10:43:19.14	277.54	8.92	
2025-01-14 10:43:19.35	277.51	8.91	
2025-01-14 10:43:19.55	277.48	8.90	
2025-01-14 10:43:19.76	277.45	8.88	
2025-01-14 10:43:19.96	277.42	8.87	
2025-01-14 10:43:20.17	277.39	8.86	
2025-01-14 10:43:20.37	277.36	8.85	
2025-01-14 10:43:20.57	277.33	8.84	
2025-01-14 10:43:20.78	277.30	8.83	
2025-01-14 10:43:20.98	277.27	8.82	
2025-01-14 10:43:21.19	277.24	8.80	
2025-01-14 10:43:21.39	277.20	8.79	
2025-01-14 10:43:21.60	277.17	8.78	
2025-01-14 10:43:21.81	277.14	8.77	
2025-01-14 10:43:22.01	277.11	8.76	
2025-01-14 10:43:22.22	277.08	8.74	
2025-01-14 10:43:22.42	277.05	8.73	
2025-01-14 10:43:22.63	277.02	8.72	
2025-01-14 10:43:22.83	276.99	8.71	
2025-01-14 10:43:23.04	276.96	8.70	
2025-01-14 10:43:23.24	276.93	8.69	
2025-01-14 10:43:23.44	276.90	8.68	
2025-01-14 10:43:23.65	276.87	8.66	
2025-01-14 10:43:23.86	276.84	8.65	
2025-01-14 10:43:24.06	276.81	8.64	
2025-01-14 10:43:24.27	276.78	8.63	
2025-01-14 10:43:24.47	276.75	8.62	
2025-01-14 10:43:24.68	276.71	8.61	
2025-01-14 10:43:24.88	276.69	8.59	
2025-01-14 10:43:25.09	276.65	8.58	
2025-01-14 10:43:25.29	276.62	8.57	
2025-01-14 10:43:25.50	276.59	8.56	
2025-01-14 10:43:25.70	276.56	8.55	
2025-01-14 10:43:25.91	276.53	8.54	
2025-01-14 10:43:26.11	276.50	8.52	
2025-01-14 10:43:26.32	276.47	8.51	
2025-01-14 10:43:26.53	276.44	8.50	
2025-01-14 10:43:26.73	276.41	8.49	
2025-01-14 10:43:26.94	276.38	8.48	
2025-01-14 10:43:27.14	276.35	8.47	
2025-01-14 10:43:27.35	276.32	8.45	
2025-01-14 10:43:27.57	276.29	8.44	
2025-01-14 10:43:27.77	276.26	8.43	
2025-01-14 10:43:27.98	276.23	8.42	
2025-01-14 10:43:28.19	276.20	8.41	
2025-01-14 10:43:28.39	276.17	8.39	
2025-01-14 10:43:28.60	276.14	8.38	
2025-01-14 10:43:28.80	276.11	8.37	
2025-01-14 10:43:29.01	276.08	8.36	
2025-01-14 10:43:29.22	276.05	8.35	
2025-01-14 10:43:29.42	276.02	8.34	
2025-01-14 10:43:29.62	275.99	8.32	
2025-01-14 10:43:29.83	275.96	8.31	
2025-01-14 10:43:30.03	275.93	8.30	
2025-01-14 10:43:30.24	275.90	8.29	
2025-01-14 10:43:30.45	275.87	8.28	
2025-01-14 10:43:30.65	275.84	8.27	
2025-01-14 10:43:30.86	275.81	8.25	
2025-01-14 10:43:31.06	275.78	8.24	
2025-01-14 10:43:31.27	275.75	8.23	
2025-01-14 10:43:31.48	275.72	8.22	
2025-01-14 10:43:31.68	275.69	8.21	
2025-01-14 10:43:31.89	275.66	8.19	
2025-01-14 10:43:32.09	275.64	8.18	
2025-01-14 10:43:32.30	275.61	8.17	
2025-01-14 10:43:32.50	275.58	8.16	
2025-01-14 10:43:32.71	275.55	8.15	
2025-01-14 10:43:32.91	275.52	8.14	
2025-01-14 10:43:33.12	275.49	8.12	
2025-01-14 10:43:33.32	275.46	8.11	
2025-01-14 10:43:33.53	275.43	8.10	
2025-01-14 10:43:33.73	275.40	8.09	
2025-01-14 10:43:33.94	275.37	8.08	
2025-01-14 10:43:34.14	275.34	8.07	
2025-01-14 10:43:34.35	275.31	8.05	
2025-01-14 10:43:34.56	275.28	8.04	
2025-01-14 10:43:34.76	275.26	8.03	
2025-01-14 10:43:34.96	275.23	8.02	
2025-01-14 10:43:35.17	275.20	8.01	
2025-01-14 10:43:35.38	275.17	8.00	
2025-01-14 10:43:35.58	275.14	7.98	
2025-01-14 10:43:35.79	275.11	7.97	
2025-01-14 10:43:35.99	275.08	7.96	
2025-01-14 10:43:36.20	275.05	7.95	
2025-01-14 10:43:36.40	275.02	7.94	
2025-01-14 10:43:36.61	274.99	7.92	
2025-01-14 10:43:36.81	274.97	7.91	
2025-01-14 10:43:37.02	274.94	7.90	
2025-01-14 10:43:37.22	274.91	7.89	
2025-01-14 10:43:37.42	274.88	7.88	
