passes_logs/2025/01/14/SPB_Silybum_02/SPB_Silybum_02__20250114_120635_SUOMI_NPP_rec.log

#Pass ID: 20250114_120635_SUOMI NPP
#Satellite: SUOMI NPP
#Configuration: NPP
#Start time: 2025-01-14 12:06:35

#Version: 2.0.20230423
#Station: SPB_Silybum_02
#Location: 30.233357 lon 59.946436 lat
#TLE: 1 37849U 11061A   25013.79210654  .00000158  00000+0  95823-4 0  9999
#TLE: 2 37849  98.7445 314.7959 0001726  42.6053 317.5257 14.19537607684746

#Time	Az	El	Level	Level2	SNR	BER	Gain	Gain2
2025-01-14 12:06:37.46	215.65	4.09	
2025-01-14 12:06:37.67	215.66	4.10	
2025-01-14 12:06:37.87	215.68	4.11	
2025-01-14 12:06:38.08	215.70	4.12	
2025-01-14 12:06:38.29	215.72	4.13	
2025-01-14 12:06:38.49	215.74	4.14	
2025-01-14 12:06:38.70	215.75	4.16	
2025-01-14 12:06:38.90	215.77	4.17	
2025-01-14 12:06:39.11	215.79	4.18	
2025-01-14 12:06:39.31	215.81	4.19	
2025-01-14 12:06:39.52	215.83	4.20	
2025-01-14 12:06:39.72	215.84	4.21	
2025-01-14 12:06:39.93	215.86	4.23	
2025-01-14 12:06:40.13	215.88	4.24	
2025-01-14 12:06:40.34	215.90	4.25	
2025-01-14 12:06:40.54	215.92	4.26	
2025-01-14 12:06:40.75	215.93	4.27	
2025-01-14 12:06:40.95	215.95	4.28	
2025-01-14 12:06:41.16	215.97	4.29	
2025-01-14 12:06:41.36	215.99	4.31	
2025-01-14 12:06:41.57	216.01	4.32	
2025-01-14 12:06:41.77	216.02	4.33	
2025-01-14 12:06:41.98	216.04	4.34	
2025-01-14 12:06:42.18	216.06	4.35	
2025-01-14 12:06:42.38	216.08	4.36	
2025-01-14 12:06:42.59	216.10	4.37	
2025-01-14 12:06:42.80	216.12	4.39	
2025-01-14 12:06:43.00	216.13	4.40	
2025-01-14 12:06:43.22	216.15	4.41	
2025-01-14 12:06:43.43	216.17	4.42	
2025-01-14 12:06:43.63	216.19	4.43	
2025-01-14 12:06:43.84	216.21	4.45	
2025-01-14 12:06:44.05	216.23	4.46	
2025-01-14 12:06:44.25	216.24	4.47	
2025-01-14 12:06:44.46	216.26	4.48	
2025-01-14 12:06:44.66	216.28	4.49	
2025-01-14 12:06:44.87	216.30	4.50	
2025-01-14 12:06:45.07	216.32	4.51	
2025-01-14 12:06:45.28	216.34	4.53	
2025-01-14 12:06:45.48	216.35	4.54	
2025-01-14 12:06:45.69	216.37	4.55	
2025-01-14 12:06:45.89	216.39	4.56	
2025-01-14 12:06:46.10	216.41	4.57	
2025-01-14 12:06:46.30	216.43	4.58	
2025-01-14 12:06:46.51	216.45	4.60	
2025-01-14 12:06:46.71	216.47	4.61	
2025-01-14 12:06:46.92	216.48	4.62	
2025-01-14 12:06:47.12	216.50	4.63	
2025-01-14 12:06:47.33	216.52	4.64	
2025-01-14 12:06:47.53	216.54	4.65	
2025-01-14 12:06:47.74	216.56	4.67	
2025-01-14 12:06:47.94	216.58	4.68	
2025-01-14 12:06:48.15	216.60	4.69	
2025-01-14 12:06:48.35	216.61	4.70	
2025-01-14 12:06:48.56	216.63	4.71	
2025-01-14 12:06:48.76	216.65	4.72	
2025-01-14 12:06:48.97	216.67	4.74	
2025-01-14 12:06:49.18	216.69	4.75	
2025-01-14 12:06:49.38	216.71	4.76	
2025-01-14 12:06:49.60	216.73	4.77	
2025-01-14 12:06:49.81	216.75	4.78	
2025-01-14 12:06:50.01	216.76	4.79	
2025-01-14 12:06:50.22	216.78	4.81	
2025-01-14 12:06:50.42	216.80	4.82	
2025-01-14 12:06:50.63	216.82	4.83	
2025-01-14 12:06:50.83	216.84	4.84	
2025-01-14 12:06:51.04	216.86	4.85	
2025-01-14 12:06:51.25	216.88	4.86	
2025-01-14 12:06:51.45	216.90	4.88	
2025-01-14 12:06:51.65	216.91	4.89	
2025-01-14 12:06:51.86	216.93	4.90	
2025-01-14 12:06:52.07	216.95	4.91	
2025-01-14 12:06:52.27	216.97	4.92	
2025-01-14 12:06:52.48	216.99	4.93	
2025-01-14 12:06:52.68	217.01	4.95	
2025-01-14 12:06:52.88	217.03	4.96	
2025-01-14 12:06:53.09	217.05	4.97	
2025-01-14 12:06:53.30	217.07	4.98	
2025-01-14 12:06:53.50	217.09	4.99	
2025-01-14 12:06:53.71	217.10	5.00	
2025-01-14 12:06:53.91	217.12	5.02	
2025-01-14 12:06:54.12	217.14	5.03	
2025-01-14 12:06:54.32	217.16	5.04	
2025-01-14 12:06:54.53	217.18	5.05	
2025-01-14 12:06:54.73	217.20	5.06	
2025-01-14 12:06:54.95	217.22	5.08	
2025-01-14 12:06:55.16	217.24	5.09	
2025-01-14 12:06:55.36	217.26	5.10	
2025-01-14 12:06:55.57	217.28	5.11	
2025-01-14 12:06:55.77	217.30	5.12	
2025-01-14 12:06:55.98	217.32	5.13	
2025-01-14 12:06:56.18	217.33	5.15	
2025-01-14 12:06:56.39	217.35	5.16	
2025-01-14 12:06:56.59	217.37	5.17	
2025-01-14 12:06:56.80	217.39	5.18	
2025-01-14 12:06:57.00	217.41	5.19	
2025-01-14 12:06:57.21	217.43	5.20	
2025-01-14 12:06:57.41	217.45	5.22	
2025-01-14 12:06:57.62	217.47	5.23	
2025-01-14 12:06:57.82	217.49	5.24	
2025-01-14 12:06:58.03	217.51	5.25	
2025-01-14 12:06:58.23	217.53	5.26	
2025-01-14 12:06:58.44	217.55	5.28	
2025-01-14 12:06:58.64	217.56	5.29	
2025-01-14 12:06:58.85	217.58	5.30	
2025-01-14 12:06:59.05	217.60	5.31	
2025-01-14 12:06:59.26	217.62	5.32	
2025-01-14 12:06:59.47	217.64	5.33	
2025-01-14 12:06:59.67	217.66	5.35	
2025-01-14 12:06:59.87	217.68	5.36	
2025-01-14 12:07:00.08	217.70	5.37	
2025-01-14 12:07:00.28	217.72	5.38	
2025-01-14 12:07:00.49	217.74	5.39	
2025-01-14 12:07:00.69	217.76	5.40	
2025-01-14 12:07:00.90	217.78	5.42	
2025-01-14 12:07:01.10	217.80	5.43	
2025-01-14 12:07:01.31	217.82	5.44	
2025-01-14 12:07:01.52	217.84	5.45	
2025-01-14 12:07:01.72	217.86	5.46	
2025-01-14 12:07:01.93	217.88	5.48	
2025-01-14 12:07:02.13	217.90	5.49	
2025-01-14 12:07:02.34	217.92	5.50	
2025-01-14 12:07:02.54	217.94	5.51	
2025-01-14 12:07:02.75	217.96	5.52	
2025-01-14 12:07:02.95	217.97	5.53	
2025-01-14 12:07:03.16	217.99	5.55	
2025-01-14 12:07:03.36	218.01	5.56	
2025-01-14 12:07:03.57	218.03	5.57	
2025-01-14 12:07:03.78	218.05	5.58	
2025-01-14 12:07:03.98	218.07	5.59	
2025-01-14 12:07:04.19	218.09	5.61	
2025-01-14 12:07:04.39	218.11	5.62	
2025-01-14 12:07:04.59	218.13	5.63	
2025-01-14 12:07:04.80	218.15	5.64	
2025-01-14 12:07:05.01	218.17	5.65	
2025-01-14 12:07:05.21	218.19	5.66	
2025-01-14 12:07:05.42	218.21	5.68	
2025-01-14 12:07:05.63	218.23	5.69	
2025-01-14 12:07:05.84	218.25	5.70	
2025-01-14 12:07:06.05	218.27	5.71	
2025-01-14 12:07:06.25	218.29	5.72	
2025-01-14 12:07:06.46	218.31	5.74	
2025-01-14 12:07:06.68	218.33	5.75	
2025-01-14 12:07:06.88	218.35	5.76	
2025-01-14 12:07:07.09	218.37	5.77	
2025-01-14 12:07:07.29	218.39	5.78	
2025-01-14 12:07:07.50	218.41	5.80	
2025-01-14 12:07:07.70	218.43	5.81	
2025-01-14 12:07:07.91	218.45	5.82	
2025-01-14 12:07:08.11	218.47	5.83	
2025-01-14 12:07:08.32	218.49	5.84	
2025-01-14 12:07:08.53	218.51	5.86	
2025-01-14 12:07:08.73	218.53	5.87	
2025-01-14 12:07:08.94	218.55	5.88	
2025-01-14 12:07:09.14	218.57	5.89	
2025-01-14 12:07:09.35	218.60	5.90	
2025-01-14 12:07:09.55	218.61	5.92	
2025-01-14 12:07:09.75	218.63	5.93	
2025-01-14 12:07:09.96	218.66	5.94	
2025-01-14 12:07:10.16	218.67	5.95	
2025-01-14 12:07:10.37	218.70	5.96	
2025-01-14 12:07:10.57	218.72	5.97	
2025-01-14 12:07:10.78	218.74	5.99	
2025-01-14 12:07:11.00	218.76	6.00	
2025-01-14 12:07:11.20	218.78	6.01	
2025-01-14 12:07:11.41	218.80	6.02	
2025-01-14 12:07:11.61	218.82	6.04	
2025-01-14 12:07:11.82	218.84	6.05	
2025-01-14 12:07:12.02	218.86	6.06	
2025-01-14 12:07:12.23	218.88	6.07	
2025-01-14 12:07:12.43	218.90	6.08	
2025-01-14 12:07:12.64	218.92	6.10	
2025-01-14 12:07:12.85	218.94	6.11	
2025-01-14 12:07:13.05	218.96	6.12	
2025-01-14 12:07:13.25	218.98	6.13	
2025-01-14 12:07:13.46	219.00	6.14	
2025-01-14 12:07:13.67	219.02	6.16	
2025-01-14 12:07:13.87	219.04	6.17	
2025-01-14 12:07:14.07	219.06	6.18	
2025-01-14 12:07:14.28	219.08	6.19	
2025-01-14 12:07:14.49	219.10	6.20	
2025-01-14 12:07:14.69	219.12	6.21	
2025-01-14 12:07:14.90	219.15	6.23	
2025-01-14 12:07:15.10	219.17	6.24	
2025-01-14 12:07:15.31	219.19	6.25	
2025-01-14 12:07:15.51	219.21	6.26	
2025-01-14 12:07:15.72	219.23	6.27	
2025-01-14 12:07:15.92	219.25	6.29	
2025-01-14 12:07:16.13	219.27	6.30	
2025-01-14 12:07:16.33	219.29	6.31	
2025-01-14 12:07:16.54	219.31	6.32	
2025-01-14 12:07:16.74	219.33	6.33	
2025-01-14 12:07:16.95	219.35	6.35	
2025-01-14 12:07:17.16	219.37	6.36	
2025-01-14 12:07:17.36	219.39	6.37	
2025-01-14 12:07:17.57	219.41	6.38	
2025-01-14 12:07:17.77	219.44	6.39	
2025-01-14 12:07:17.98	219.46	6.41	
2025-01-14 12:07:18.18	219.48	6.42	
2025-01-14 12:07:18.40	219.50	6.43	
2025-01-14 12:07:18.61	219.52	6.44	
2025-01-14 12:07:18.81	219.54	6.46	
2025-01-14 12:07:19.02	219.56	6.47	
2025-01-14 12:07:19.22	219.58	6.48	
2025-01-14 12:07:19.43	219.60	6.49	
2025-01-14 12:07:19.63	219.62	6.50	
2025-01-14 12:07:19.84	219.65	6.52	
2025-01-14 12:07:20.04	219.67	6.53	
2025-01-14 12:07:20.26	219.69	6.54	
2025-01-14 12:07:20.46	219.71	6.55	
2025-01-14 12:07:20.67	219.73	6.56	
2025-01-14 12:07:20.87	219.75	6.58	
2025-01-14 12:07:21.08	219.77	6.59	
2025-01-14 12:07:21.28	219.79	6.60	
2025-01-14 12:07:21.49	219.82	6.61	
2025-01-14 12:07:21.69	219.84	6.62	
2025-01-14 12:07:21.90	219.86	6.64	
2025-01-14 12:07:22.11	219.88	6.65	
2025-01-14 12:07:22.31	219.90	6.66	
2025-01-14 12:07:22.51	219.92	6.67	
2025-01-14 12:07:22.72	219.94	6.68	
2025-01-14 12:07:22.92	219.96	6.70	
2025-01-14 12:07:23.13	219.98	6.71	
2025-01-14 12:07:23.34	220.01	6.72	
2025-01-14 12:07:23.54	220.03	6.73	
2025-01-14 12:07:23.74	220.05	6.74	
2025-01-14 12:07:23.95	220.07	6.76	
2025-01-14 12:07:24.15	220.09	6.77	
2025-01-14 12:07:24.36	220.11	6.78	
2025-01-14 12:07:24.56	220.13	6.79	
2025-01-14 12:07:24.77	220.15	6.80	
2025-01-14 12:07:24.97	220.18	6.82	
2025-01-14 12:07:25.18	220.20	6.83	
2025-01-14 12:07:25.38	220.22	6.84	
2025-01-14 12:07:25.59	220.24	6.85	
2025-01-14 12:07:25.79	220.26	6.86	
2025-01-14 12:07:26.00	220.28	6.88	
2025-01-14 12:07:26.20	220.30	6.89	
2025-01-14 12:07:26.41	220.33	6.90	
2025-01-14 12:07:26.61	220.35	6.91	
2025-01-14 12:07:26.82	220.37	6.93	
2025-01-14 12:07:27.02	220.39	6.94	
2025-01-14 12:07:27.23	220.41	6.95	
2025-01-14 12:07:27.43	220.43	6.96	
2025-01-14 12:07:27.64	220.46	6.97	
2025-01-14 12:07:27.84	220.48	6.99	
2025-01-14 12:07:28.06	220.50	7.00	
2025-01-14 12:07:28.27	220.52	7.01	
2025-01-14 12:07:28.47	220.54	7.02	
2025-01-14 12:07:28.68	220.57	7.04	
2025-01-14 12:07:28.88	220.59	7.05	
2025-01-14 12:07:29.08	220.61	7.06	
2025-01-14 12:07:29.29	220.63	7.07	
2025-01-14 12:07:29.50	220.65	7.08	
2025-01-14 12:07:29.70	220.67	7.10	
2025-01-14 12:07:29.91	220.70	7.11	
2025-01-14 12:07:30.11	220.72	7.12	
2025-01-14 12:07:30.32	220.74	7.13	
2025-01-14 12:07:30.52	220.76	7.14	
2025-01-14 12:07:30.73	220.78	7.16	
2025-01-14 12:07:30.93	220.80	7.17	
2025-01-14 12:07:31.14	220.83	7.18	
2025-01-14 12:07:31.34	220.85	7.19	
2025-01-14 12:07:31.55	220.87	7.21	
2025-01-14 12:07:31.75	220.89	7.22	
2025-01-14 12:07:31.96	220.91	7.23	
2025-01-14 12:07:32.16	220.94	7.24	
2025-01-14 12:07:32.38	220.96	7.25	
2025-01-14 12:07:32.58	220.98	7.27	
2025-01-14 12:07:32.78	221.00	7.28	
2025-01-14 12:07:32.99	221.02	7.29	
2025-01-14 12:07:33.20	221.05	7.30	
2025-01-14 12:07:33.40	221.07	7.31	
2025-01-14 12:07:33.61	221.09	7.33	
2025-01-14 12:07:33.81	221.11	7.34	
2025-01-14 12:07:34.02	221.14	7.35	
2025-01-14 12:07:34.22	221.16	7.36	
2025-01-14 12:07:34.43	221.18	7.38	
2025-01-14 12:07:34.63	221.20	7.39	
2025-01-14 12:07:34.84	221.22	7.40	
2025-01-14 12:07:35.04	221.25	7.41	
2025-01-14 12:07:35.25	221.27	7.42	
2025-01-14 12:07:35.45	221.29	7.44	
2025-01-14 12:07:35.66	221.31	7.45	
2025-01-14 12:07:35.87	221.34	7.46	
2025-01-14 12:07:36.07	221.36	7.47	
2025-01-14 12:07:36.28	221.38	7.49	
2025-01-14 12:07:36.48	221.40	7.50	
2025-01-14 12:07:36.69	221.43	7.51	
2025-01-14 12:07:36.90	221.45	7.52	
2025-01-14 12:07:37.10	221.47	7.53	
2025-01-14 12:07:37.31	221.49	7.55	
2025-01-14 12:07:37.51	221.52	7.56	
2025-01-14 12:07:37.72	221.54	7.57	
2025-01-14 12:07:37.92	221.56	7.58	
2025-01-14 12:07:38.13	221.58	7.60	
2025-01-14 12:07:38.33	221.61	7.61	
2025-01-14 12:07:38.54	221.63	7.62	
2025-01-14 12:07:38.76	221.65	7.63	
2025-01-14 12:07:38.96	221.67	7.65	
2025-01-14 12:07:39.17	221.70	7.66	
2025-01-14 12:07:39.37	221.72	7.67	
2025-01-14 12:07:39.58	221.74	7.68	
2025-01-14 12:07:39.78	221.76	7.69	
2025-01-14 12:07:39.99	221.79	7.71	
2025-01-14 12:07:40.19	221.81	7.72	
2025-01-14 12:07:40.40	221.83	7.73	
2025-01-14 12:07:40.60	221.86	7.74	
2025-01-14 12:07:40.81	221.88	7.76	
2025-01-14 12:07:41.01	221.90	7.77	
2025-01-14 12:07:41.22	221.92	7.78	
2025-01-14 12:07:41.42	221.95	7.79	
2025-01-14 12:07:41.63	221.97	7.81	
2025-01-14 12:07:41.83	221.99	7.82	
2025-01-14 12:07:42.04	222.02	7.83	
2025-01-14 12:07:42.24	222.04	7.84	
2025-01-14 12:07:42.45	222.06	7.85	
2025-01-14 12:07:42.65	222.08	7.87	
2025-01-14 12:07:42.86	222.11	7.88	
2025-01-14 12:07:43.06	222.13	7.89	
2025-01-14 12:07:43.27	222.15	7.90	
2025-01-14 12:07:43.48	222.18	7.92	
2025-01-14 12:07:43.68	222.20	7.93	
2025-01-14 12:07:43.89	222.22	7.94	
2025-01-14 12:07:44.09	222.25	7.95	
2025-01-14 12:07:44.30	222.27	7.96	
2025-01-14 12:07:44.50	222.29	7.98	
2025-01-14 12:07:44.71	222.31	7.99	
2025-01-14 12:07:44.91	222.34	8.00	
2025-01-14 12:07:45.12	222.36	8.01	
2025-01-14 12:07:45.33	222.38	8.03	
2025-01-14 12:07:45.53	222.41	8.04	
2025-01-14 12:07:45.74	222.43	8.05	
2025-01-14 12:07:45.95	222.46	8.06	
2025-01-14 12:07:46.15	222.48	8.08	
2025-01-14 12:07:46.36	222.50	8.09	
2025-01-14 12:07:46.56	222.52	8.10	
2025-01-14 12:07:46.77	222.55	8.11	
2025-01-14 12:07:46.97	222.57	8.12	
2025-01-14 12:07:47.17	222.59	8.14	
2025-01-14 12:07:47.38	222.62	8.15	
2025-01-14 12:07:47.59	222.64	8.16	
2025-01-14 12:07:47.80	222.67	8.17	
2025-01-14 12:07:48.00	222.69	8.19	
2025-01-14 12:07:48.20	222.71	8.20	
2025-01-14 12:07:48.41	222.73	8.21	
2025-01-14 12:07:48.61	222.76	8.22	
2025-01-14 12:07:48.82	222.78	8.24	
2025-01-14 12:07:49.02	222.80	8.25	
2025-01-14 12:07:49.23	222.83	8.26	
2025-01-14 12:07:49.43	222.85	8.27	
2025-01-14 12:07:49.64	222.88	8.29	
2025-01-14 12:07:49.85	222.90	8.30	
2025-01-14 12:07:50.05	222.92	8.31	
2025-01-14 12:07:50.26	222.95	8.32	
2025-01-14 12:07:50.46	222.97	8.33	
2025-01-14 12:07:50.67	222.99	8.35	
2025-01-14 12:07:50.87	223.02	8.36	
2025-01-14 12:07:51.08	223.04	8.37	
2025-01-14 12:07:51.28	223.06	8.38	
2025-01-14 12:07:51.49	223.09	8.40	
2025-01-14 12:07:51.69	223.11	8.41	
2025-01-14 12:07:51.90	223.14	8.42	
2025-01-14 12:07:52.10	223.16	8.43	
2025-01-14 12:07:52.31	223.18	8.45	
2025-01-14 12:07:52.53	223.21	8.46	
2025-01-14 12:07:52.73	223.23	8.47	
2025-01-14 12:07:52.94	223.26	8.48	
2025-01-14 12:07:53.14	223.28	8.50	
2025-01-14 12:07:53.35	223.31	8.51	
2025-01-14 12:07:53.57	223.33	8.52	
2025-01-14 12:07:53.77	223.35	8.53	
2025-01-14 12:07:53.98	223.38	8.55	
2025-01-14 12:07:54.18	223.40	8.56	
2025-01-14 12:07:54.39	223.43	8.57	
2025-01-14 12:07:54.59	223.45	8.58	
2025-01-14 12:07:54.80	223.47	8.60	
2025-01-14 12:07:55.01	223.50	8.61	
2025-01-14 12:07:55.21	223.52	8.62	
2025-01-14 12:07:55.42	223.55	8.63	
2025-01-14 12:07:55.62	223.57	8.65	
2025-01-14 12:07:55.83	223.60	8.66	
2025-01-14 12:07:56.03	223.62	8.67	
2025-01-14 12:07:56.24	223.64	8.68	
2025-01-14 12:07:56.44	223.67	8.70	
2025-01-14 12:07:56.65	223.69	8.71	
2025-01-14 12:07:56.85	223.72	8.72	
2025-01-14 12:07:57.06	223.74	8.73	
2025-01-14 12:07:57.26	223.76	8.74	
2025-01-14 12:07:57.47	223.79	8.76	
2025-01-14 12:07:57.67	223.81	8.77	
2025-01-14 12:07:57.89	223.84	8.78	
2025-01-14 12:07:58.10	223.86	8.80	
2025-01-14 12:07:58.30	223.89	8.81	
2025-01-14 12:07:58.51	223.91	8.82	
2025-01-14 12:07:58.71	223.94	8.83	
2025-01-14 12:07:58.93	223.96	8.85	
2025-01-14 12:07:59.14	223.99	8.86	
2025-01-14 12:07:59.35	224.01	8.87	
2025-01-14 12:07:59.55	224.04	8.88	
2025-01-14 12:07:59.76	224.06	8.90	
2025-01-14 12:07:59.96	224.09	8.91	
2025-01-14 12:08:00.17	224.11	8.92	
2025-01-14 12:08:00.37	224.14	8.93	
2025-01-14 12:08:00.58	224.16	8.95	
2025-01-14 12:08:00.78	224.18	8.96	
2025-01-14 12:08:00.99	224.21	8.97	
2025-01-14 12:08:01.19	224.23	8.98	
2025-01-14 12:08:01.40	224.26	9.00	
2025-01-14 12:08:01.60	224.28	9.01	
2025-01-14 12:08:01.81	224.31	9.02	
2025-01-14 12:08:02.01	224.33	9.03	
2025-01-14 12:08:02.22	224.36	9.05	
2025-01-14 12:08:02.42	224.38	9.06	
2025-01-14 12:08:02.63	224.41	9.07	
2025-01-14 12:08:02.83	224.43	9.08	
2025-01-14 12:08:03.04	224.46	9.10	
2025-01-14 12:08:03.24	224.48	9.11	
2025-01-14 12:08:03.45	224.51	9.12	
2025-01-14 12:08:03.66	224.53	9.13	
2025-01-14 12:08:03.86	224.56	9.14	
2025-01-14 12:08:04.07	224.58	9.16	
2025-01-14 12:08:04.27	224.61	9.17	
2025-01-14 12:08:04.48	224.63	9.18	
2025-01-14 12:08:04.68	224.66	9.19	
2025-01-14 12:08:04.89	224.68	9.21	
2025-01-14 12:08:05.09	224.71	9.22	
2025-01-14 12:08:05.30	224.73	9.23	
2025-01-14 12:08:05.50	224.76	9.24	
2025-01-14 12:08:05.71	224.78	9.26	
2025-01-14 12:08:05.91	224.81	9.27	
2025-01-14 12:08:06.12	224.83	9.28	
2025-01-14 12:08:06.32	224.86	9.29	
2025-01-14 12:08:06.53	224.88	9.31	
2025-01-14 12:08:06.73	224.91	9.32	
2025-01-14 12:08:06.94	224.93	9.33	
2025-01-14 12:08:07.14	224.96	9.34	
2025-01-14 12:08:07.35	224.98	9.36	
2025-01-14 12:08:07.55	225.01	9.37	
2025-01-14 12:08:07.76	225.03	9.38	
2025-01-14 12:08:07.97	225.06	9.39	
2025-01-14 12:08:08.17	225.09	9.41	
2025-01-14 12:08:08.38	225.11	9.42	
2025-01-14 12:08:08.60	225.14	9.43	
2025-01-14 12:08:08.80	225.16	9.45	
2025-01-14 12:08:09.01	225.19	9.46	
2025-01-14 12:08:09.21	225.21	9.47	
2025-01-14 12:08:09.42	225.24	9.48	
2025-01-14 12:08:09.62	225.27	9.50	
2025-01-14 12:08:09.83	225.29	9.51	
2025-01-14 12:08:10.03	225.32	9.52	
2025-01-14 12:08:10.24	225.34	9.53	
2025-01-14 12:08:10.44	225.37	9.55	
2025-01-14 12:08:10.64	225.39	9.56	
2025-01-14 12:08:10.85	225.42	9.57	
2025-01-14 12:08:11.06	225.44	9.58	
2025-01-14 12:08:11.26	225.47	9.60	
2025-01-14 12:08:11.47	225.50	9.61	
2025-01-14 12:08:11.67	225.52	9.62	
2025-01-14 12:08:11.88	225.55	9.63	
2025-01-14 12:08:12.08	225.57	9.65	
2025-01-14 12:08:12.29	225.60	9.66	
2025-01-14 12:08:12.50	225.63	9.67	
2025-01-14 12:08:12.70	225.65	9.68	
2025-01-14 12:08:12.91	225.68	9.70	
2025-01-14 12:08:13.11	225.70	9.71	
2025-01-14 12:08:13.32	225.73	9.72	
2025-01-14 12:08:13.52	225.75	9.73	
2025-01-14 12:08:13.73	225.78	9.75	
2025-01-14 12:08:13.93	225.81	9.76	
2025-01-14 12:08:14.14	225.83	9.77	
2025-01-14 12:08:14.34	225.86	9.78	
2025-01-14 12:08:14.55	225.88	9.80	
2025-01-14 12:08:14.76	225.91	9.81	
2025-01-14 12:08:14.97	225.94	9.82	
2025-01-14 12:08:15.18	225.96	9.83	
2025-01-14 12:08:15.39	225.99	9.85	
2025-01-14 12:08:15.59	226.02	9.86	
2025-01-14 12:08:15.80	226.04	9.87	
2025-01-14 12:08:16.00	226.07	9.88	
2025-01-14 12:08:16.21	226.10	9.90	
2025-01-14 12:08:16.41	226.12	9.91	
2025-01-14 12:08:16.62	226.15	9.92	
2025-01-14 12:08:16.82	226.17	9.93	
2025-01-14 12:08:17.03	226.20	9.95	
2025-01-14 12:08:17.23	226.23	9.96	
2025-01-14 12:08:17.44	226.25	9.97	
2025-01-14 12:08:17.64	226.28	9.99	
2025-01-14 12:08:17.85	226.31	10.00	
2025-01-14 12:08:18.05	226.33	10.01	
2025-01-14 12:08:18.26	226.36	10.02	
2025-01-14 12:08:18.46	226.39	10.04	
2025-01-14 12:08:18.67	226.41	10.05	
2025-01-14 12:08:18.88	226.44	10.06	
2025-01-14 12:08:19.08	226.47	10.07	
2025-01-14 12:08:19.29	226.49	10.09	
2025-01-14 12:08:19.49	226.52	10.10	
2025-01-14 12:08:19.70	226.55	10.11	
2025-01-14 12:08:19.90	226.57	10.12	
2025-01-14 12:08:20.11	226.60	10.14	
2025-01-14 12:08:20.32	226.63	10.15	
2025-01-14 12:08:20.52	226.65	10.16	
2025-01-14 12:08:20.73	226.68	10.17	
2025-01-14 12:08:20.93	226.71	10.19	
2025-01-14 12:08:21.14	226.73	10.20	
2025-01-14 12:08:21.34	226.76	10.21	
2025-01-14 12:08:21.55	226.79	10.22	
2025-01-14 12:08:21.75	226.81	10.24	
2025-01-14 12:08:21.96	226.84	10.25	
2025-01-14 12:08:22.16	226.87	10.26	
2025-01-14 12:08:22.37	226.89	10.27	
2025-01-14 12:08:22.57	226.92	10.29	
2025-01-14 12:08:22.78	226.95	10.30	
2025-01-14 12:08:22.98	226.97	10.31	
2025-01-14 12:08:23.19	227.00	10.33	
2025-01-14 12:08:23.39	227.03	10.34	
2025-01-14 12:08:23.59	227.05	10.35	
2025-01-14 12:08:23.80	227.08	10.36	
2025-01-14 12:08:24.01	227.11	10.38	
2025-01-14 12:08:24.21	227.14	10.39	
2025-01-14 12:08:24.42	227.16	10.40	
2025-01-14 12:08:24.62	227.19	10.41	
2025-01-14 12:08:24.83	227.22	10.43	
2025-01-14 12:08:25.03	227.24	10.44	
2025-01-14 12:08:25.24	227.27	10.45	
2025-01-14 12:08:25.44	227.30	10.46	
2025-01-14 12:08:25.64	227.32	10.48	
2025-01-14 12:08:25.85	227.35	10.49	
2025-01-14 12:08:26.06	227.38	10.50	
2025-01-14 12:08:26.26	227.41	10.51	
2025-01-14 12:08:26.47	227.43	10.53	
2025-01-14 12:08:26.67	227.46	10.54	
2025-01-14 12:08:26.88	227.49	10.55	
2025-01-14 12:08:27.08	227.52	10.56	
2025-01-14 12:08:27.29	227.54	10.58	
2025-01-14 12:08:27.49	227.57	10.59	
2025-01-14 12:08:27.70	227.60	10.60	
2025-01-14 12:08:27.90	227.63	10.61	
2025-01-14 12:08:28.11	227.65	10.63	
2025-01-14 12:08:28.31	227.68	10.64	
2025-01-14 12:08:28.52	227.71	10.65	
2025-01-14 12:08:28.73	227.74	10.66	
2025-01-14 12:08:28.93	227.76	10.68	
2025-01-14 12:08:29.13	227.79	10.69	
2025-01-14 12:08:29.34	227.82	10.70	
2025-01-14 12:08:29.55	227.85	10.72	
2025-01-14 12:08:29.75	227.87	10.73	
2025-01-14 12:08:29.96	227.90	10.74	
2025-01-14 12:08:30.16	227.93	10.75	
2025-01-14 12:08:30.37	227.96	10.77	
2025-01-14 12:08:30.57	227.99	10.78	
2025-01-14 12:08:30.78	228.01	10.79	
2025-01-14 12:08:30.98	228.04	10.80	
2025-01-14 12:08:31.19	228.07	10.82	
2025-01-14 12:08:31.39	228.10	10.83	
2025-01-14 12:08:31.60	228.13	10.84	
2025-01-14 12:08:31.80	228.15	10.85	
2025-01-14 12:08:32.01	228.18	10.87	
2025-01-14 12:08:32.21	228.21	10.88	
2025-01-14 12:08:32.42	228.24	10.89	
2025-01-14 12:08:32.62	228.26	10.90	
2025-01-14 12:08:32.82	228.29	10.92	
2025-01-14 12:08:33.03	228.32	10.93	
2025-01-14 12:08:33.23	228.35	10.94	
2025-01-14 12:08:33.44	228.38	10.95	
2025-01-14 12:08:33.65	228.41	10.97	
2025-01-14 12:08:33.85	228.43	10.98	
2025-01-14 12:08:34.06	228.46	10.99	
2025-01-14 12:08:34.27	228.49	11.01	
2025-01-14 12:08:34.48	228.52	11.02	
2025-01-14 12:08:34.69	228.55	11.03	
2025-01-14 12:08:34.89	228.58	11.04	
2025-01-14 12:08:35.10	228.60	11.06	
2025-01-14 12:08:35.30	228.63	11.07	
2025-01-14 12:08:35.51	228.66	11.08	
2025-01-14 12:08:35.72	228.69	11.09	
2025-01-14 12:08:35.92	228.72	11.11	
2025-01-14 12:08:36.13	228.75	11.12	
2025-01-14 12:08:36.33	228.77	11.13	
2025-01-14 12:08:36.54	228.80	11.14	
2025-01-14 12:08:36.74	228.83	11.16	
2025-01-14 12:08:36.95	228.86	11.17	
2025-01-14 12:08:37.16	228.89	11.18	
2025-01-14 12:08:37.36	228.92	11.20	
2025-01-14 12:08:37.56	228.95	11.21	
2025-01-14 12:08:37.77	228.98	11.22	
2025-01-14 12:08:37.97	229.00	11.23	
2025-01-14 12:08:38.18	229.03	11.25	
2025-01-14 12:08:38.38	229.06	11.26	
2025-01-14 12:08:38.59	229.09	11.27	
2025-01-14 12:08:38.79	229.12	11.28	
2025-01-14 12:08:39.00	229.15	11.30	
2025-01-14 12:08:39.20	229.18	11.31	
2025-01-14 12:08:39.41	229.20	11.32	
2025-01-14 12:08:39.61	229.23	11.33	
2025-01-14 12:08:39.82	229.26	11.35	
2025-01-14 12:08:40.03	229.29	11.36	
2025-01-14 12:08:40.23	229.32	11.37	
2025-01-14 12:08:40.44	229.35	11.38	
2025-01-14 12:08:40.66	229.38	11.40	
2025-01-14 12:08:40.86	229.41	11.41	
2025-01-14 12:08:41.07	229.44	11.42	
2025-01-14 12:08:41.27	229.47	11.44	
2025-01-14 12:08:41.48	229.50	11.45	
2025-01-14 12:08:41.68	229.52	11.46	
2025-01-14 12:08:41.89	229.55	11.47	
2025-01-14 12:08:42.09	229.58	11.49	
2025-01-14 12:08:42.30	229.61	11.50	
2025-01-14 12:08:42.50	229.64	11.51	
2025-01-14 12:08:42.71	229.67	11.52	
2025-01-14 12:08:42.91	229.70	11.54	
2025-01-14 12:08:43.12	229.73	11.55	
2025-01-14 12:08:43.32	229.76	11.56	
2025-01-14 12:08:43.53	229.79	11.57	
2025-01-14 12:08:43.73	229.82	11.59	
2025-01-14 12:08:43.94	229.85	11.60	
2025-01-14 12:08:44.14	229.88	11.61	
2025-01-14 12:08:44.35	229.91	11.63	
2025-01-14 12:08:44.55	229.93	11.64	
2025-01-14 12:08:44.76	229.96	11.65	
2025-01-14 12:08:44.96	229.99	11.66	
2025-01-14 12:08:45.17	230.02	11.68	
2025-01-14 12:08:45.38	230.05	11.69	
2025-01-14 12:08:45.58	230.08	11.70	
2025-01-14 12:08:45.79	230.11	11.71	
2025-01-14 12:08:45.99	230.14	11.73	
2025-01-14 12:08:46.20	230.17	11.74	
2025-01-14 12:08:46.40	230.20	11.75	
2025-01-14 12:08:46.61	230.23	11.76	
2025-01-14 12:08:46.81	230.26	11.78	
2025-01-14 12:08:47.02	230.29	11.79	
2025-01-14 12:08:47.22	230.32	11.80	
2025-01-14 12:08:47.43	230.35	11.81	
2025-01-14 12:08:47.63	230.38	11.83	
2025-01-14 12:08:47.84	230.41	11.84	
2025-01-14 12:08:48.04	230.44	11.85	
2025-01-14 12:08:48.25	230.47	11.87	
2025-01-14 12:08:48.45	230.50	11.88	
2025-01-14 12:08:48.66	230.53	11.89	
2025-01-14 12:08:48.87	230.56	11.90	
2025-01-14 12:08:49.07	230.59	11.92	
2025-01-14 12:08:49.28	230.62	11.93	
2025-01-14 12:08:49.48	230.65	11.94	
2025-01-14 12:08:49.69	230.68	11.95	
2025-01-14 12:08:49.89	230.71	11.97	
2025-01-14 12:08:50.10	230.74	11.98	
2025-01-14 12:08:50.32	230.77	11.99	
2025-01-14 12:08:50.52	230.80	12.00	
2025-01-14 12:08:50.73	230.83	12.02	
2025-01-14 12:08:50.93	230.86	12.03	
2025-01-14 12:08:51.14	230.89	12.04	
2025-01-14 12:08:51.36	230.92	12.06	
2025-01-14 12:08:51.56	230.95	12.07	
2025-01-14 12:08:51.77	230.98	12.08	
2025-01-14 12:08:51.97	231.01	12.09	
2025-01-14 12:08:52.18	231.04	12.11	
2025-01-14 12:08:52.38	231.07	12.12	
2025-01-14 12:08:52.59	231.11	12.13	
2025-01-14 12:08:52.79	231.13	12.14	
2025-01-14 12:08:53.00	231.17	12.16	
2025-01-14 12:08:53.21	231.20	12.17	
2025-01-14 12:08:53.42	231.23	12.18	
2025-01-14 12:08:53.63	231.26	12.20	
2025-01-14 12:08:53.84	231.29	12.21	
2025-01-14 12:08:54.04	231.32	12.22	
2025-01-14 12:08:54.25	231.35	12.23	
2025-01-14 12:08:54.45	231.38	12.25	
2025-01-14 12:08:54.66	231.41	12.26	
2025-01-14 12:08:54.86	231.44	12.27	
2025-01-14 12:08:55.07	231.47	12.28	
2025-01-14 12:08:55.27	231.50	12.30	
2025-01-14 12:08:55.48	231.54	12.31	
2025-01-14 12:08:55.68	231.57	12.32	
2025-01-14 12:08:55.89	231.60	12.33	
2025-01-14 12:08:56.09	231.63	12.35	
2025-01-14 12:08:56.30	231.66	12.36	
2025-01-14 12:08:56.50	231.69	12.37	
2025-01-14 12:08:56.72	231.72	12.39	
2025-01-14 12:08:56.92	231.75	12.40	
2025-01-14 12:08:57.13	231.78	12.41	
2025-01-14 12:08:57.34	231.82	12.42	
2025-01-14 12:08:57.54	231.85	12.44	
2025-01-14 12:08:57.75	231.88	12.45	
2025-01-14 12:08:57.95	231.91	12.46	
2025-01-14 12:08:58.15	231.94	12.47	
2025-01-14 12:08:58.36	231.97	12.49	
2025-01-14 12:08:58.57	232.00	12.50	
2025-01-14 12:08:58.77	232.03	12.51	
2025-01-14 12:08:58.97	232.06	12.52	
2025-01-14 12:08:59.18	232.09	12.54	
2025-01-14 12:08:59.38	232.12	12.55	
2025-01-14 12:08:59.59	232.16	12.56	
2025-01-14 12:08:59.79	232.19	12.57	
2025-01-14 12:09:00.00	232.22	12.59	
2025-01-14 12:09:00.20	232.25	12.60	
2025-01-14 12:09:00.41	232.28	12.61	
2025-01-14 12:09:00.61	232.31	12.62	
2025-01-14 12:09:00.82	232.34	12.64	
2025-01-14 12:09:01.02	232.37	12.65	
2025-01-14 12:09:01.23	232.41	12.66	
2025-01-14 12:09:01.44	232.44	12.67	
2025-01-14 12:09:01.64	232.47	12.69	
2025-01-14 12:09:01.85	232.50	12.70	
2025-01-14 12:09:02.05	232.53	12.71	
2025-01-14 12:09:02.26	232.57	12.72	
2025-01-14 12:09:02.46	232.60	12.74	
2025-01-14 12:09:02.67	232.63	12.75	
2025-01-14 12:09:02.87	232.66	12.76	
2025-01-14 12:09:03.08	232.69	12.77	
2025-01-14 12:09:03.28	232.72	12.79	
2025-01-14 12:09:03.49	232.76	12.80	
2025-01-14 12:09:03.69	232.79	12.81	
2025-01-14 12:09:03.90	232.82	12.82	
2025-01-14 12:09:04.10	232.85	12.84	
2025-01-14 12:09:04.31	232.88	12.85	
2025-01-14 12:09:04.52	232.91	12.86	
2025-01-14 12:09:04.72	232.95	12.87	
2025-01-14 12:09:04.93	232.98	12.89	
2025-01-14 12:09:05.13	233.01	12.90	
2025-01-14 12:09:05.34	233.04	12.91	
2025-01-14 12:09:05.54	233.07	12.92	
2025-01-14 12:09:05.75	233.11	12.94	
2025-01-14 12:09:05.95	233.14	12.95	
2025-01-14 12:09:06.16	233.17	12.96	
2025-01-14 12:09:06.36	233.20	12.97	
2025-01-14 12:09:06.57	233.23	12.99	
2025-01-14 12:09:06.78	233.27	13.00	
2025-01-14 12:09:06.98	233.30	13.01	
2025-01-14 12:09:07.19	233.33	13.03	
2025-01-14 12:09:07.41	233.37	13.04	
2025-01-14 12:09:07.61	233.40	13.05	
2025-01-14 12:09:07.82	233.43	13.06	
2025-01-14 12:09:08.03	233.46	13.08	
2025-01-14 12:09:08.23	233.50	13.09	
2025-01-14 12:09:08.43	233.53	13.10	
2025-01-14 12:09:08.64	233.56	13.11	
2025-01-14 12:09:08.85	233.59	13.13	
2025-01-14 12:09:09.05	233.62	13.14	
2025-01-14 12:09:09.26	233.66	13.15	
2025-01-14 12:09:09.48	233.69	13.17	
2025-01-14 12:09:09.68	233.72	13.18	
2025-01-14 12:09:09.89	233.76	13.19	
2025-01-14 12:09:10.09	233.79	13.20	
2025-01-14 12:09:10.30	233.82	13.22	
2025-01-14 12:09:10.50	233.85	13.23	
2025-01-14 12:09:10.71	233.89	13.24	
2025-01-14 12:09:10.91	233.92	13.25	
2025-01-14 12:09:11.12	233.95	13.26	
2025-01-14 12:09:11.32	233.99	13.28	
2025-01-14 12:09:11.53	234.02	13.29	
2025-01-14 12:09:11.73	234.05	13.30	
2025-01-14 12:09:11.93	234.08	13.31	
2025-01-14 12:09:12.14	234.12	13.33	
2025-01-14 12:09:12.35	234.15	13.34	
2025-01-14 12:09:12.55	234.18	13.35	
2025-01-14 12:09:12.77	234.22	13.37	
2025-01-14 12:09:12.97	234.25	13.38	
2025-01-14 12:09:13.18	234.28	13.39	
2025-01-14 12:09:13.38	234.32	13.40	
2025-01-14 12:09:13.59	234.35	13.41	
2025-01-14 12:09:13.80	234.38	13.43	
2025-01-14 12:09:14.00	234.42	13.44	
2025-01-14 12:09:14.21	234.45	13.45	
2025-01-14 12:09:14.42	234.48	13.47	
2025-01-14 12:09:14.62	234.52	13.48	
2025-01-14 12:09:14.82	234.55	13.49	
2025-01-14 12:09:15.03	234.58	13.50	
2025-01-14 12:09:15.23	234.61	13.51	
2025-01-14 12:09:15.44	234.65	13.53	
2025-01-14 12:09:15.64	234.68	13.54	
2025-01-14 12:09:15.85	234.72	13.55	
2025-01-14 12:09:16.05	234.75	13.56	
2025-01-14 12:09:16.26	234.78	13.58	
2025-01-14 12:09:16.47	234.82	13.59	
2025-01-14 12:09:16.67	234.85	13.60	
2025-01-14 12:09:16.88	234.88	13.61	
2025-01-14 12:09:17.08	234.92	13.63	
2025-01-14 12:09:17.29	234.95	13.64	
2025-01-14 12:09:17.50	234.98	13.65	
2025-01-14 12:09:17.70	235.02	13.66	
2025-01-14 12:09:17.91	235.05	13.68	
2025-01-14 12:09:18.11	235.08	13.69	
2025-01-14 12:09:18.32	235.12	13.70	
2025-01-14 12:09:18.52	235.15	13.71	
2025-01-14 12:09:18.73	235.19	13.73	
2025-01-14 12:09:18.93	235.22	13.74	
2025-01-14 12:09:19.14	235.25	13.75	
2025-01-14 12:09:19.34	235.29	13.76	
2025-01-14 12:09:19.55	235.32	13.78	
2025-01-14 12:09:19.75	235.35	13.79	
2025-01-14 12:09:19.96	235.39	13.80	
2025-01-14 12:09:20.17	235.42	13.81	
2025-01-14 12:09:20.38	235.46	13.83	
2025-01-14 12:09:20.59	235.49	13.84	
2025-01-14 12:09:20.79	235.53	13.85	
2025-01-14 12:09:21.00	235.56	13.86	
2025-01-14 12:09:21.21	235.60	13.88	
2025-01-14 12:09:21.42	235.63	13.89	
2025-01-14 12:09:21.62	235.66	13.90	
2025-01-14 12:09:21.83	235.70	13.91	
2025-01-14 12:09:22.04	235.73	13.93	
2025-01-14 12:09:22.24	235.77	13.94	
2025-01-14 12:09:22.44	235.80	13.95	
2025-01-14 12:09:22.65	235.84	13.96	
2025-01-14 12:09:22.85	235.87	13.97	
2025-01-14 12:09:23.06	235.90	13.99	
2025-01-14 12:09:23.27	235.94	14.00	
2025-01-14 12:09:23.47	235.97	14.01	
2025-01-14 12:09:23.67	236.01	14.02	
2025-01-14 12:09:23.88	236.04	14.04	
2025-01-14 12:09:24.09	236.08	14.05	
2025-01-14 12:09:24.29	236.11	14.06	
2025-01-14 12:09:24.49	236.14	14.07	
2025-01-14 12:09:24.70	236.18	14.09	
2025-01-14 12:09:24.90	236.21	14.10	
2025-01-14 12:09:25.11	236.25	14.11	
2025-01-14 12:09:25.32	236.28	14.12	
2025-01-14 12:09:25.52	236.32	14.13	
2025-01-14 12:09:25.72	236.35	14.15	
2025-01-14 12:09:25.93	236.39	14.16	
2025-01-14 12:09:26.13	236.42	14.17	
2025-01-14 12:09:26.34	236.46	14.18	
2025-01-14 12:09:26.54	236.49	14.20	
2025-01-14 12:09:26.75	236.53	14.21	
2025-01-14 12:09:26.95	236.56	14.22	
2025-01-14 12:09:27.16	236.60	14.23	
2025-01-14 12:09:27.37	236.63	14.24	
2025-01-14 12:09:27.57	236.66	14.26	
2025-01-14 12:09:27.77	236.70	14.27	
2025-01-14 12:09:27.98	236.73	14.28	
2025-01-14 12:09:28.19	236.77	14.29	
2025-01-14 12:09:28.39	236.80	14.31	
2025-01-14 12:09:28.60	236.84	14.32	
2025-01-14 12:09:28.80	236.87	14.33	
2025-01-14 12:09:29.01	236.91	14.34	
2025-01-14 12:09:29.22	236.95	14.36	
2025-01-14 12:09:29.42	236.98	14.37	
2025-01-14 12:09:29.63	237.02	14.38	
2025-01-14 12:09:29.85	237.05	14.39	
2025-01-14 12:09:30.05	237.09	14.40	
2025-01-14 12:09:30.26	237.12	14.42	
2025-01-14 12:09:30.46	237.16	14.43	
2025-01-14 12:09:30.67	237.20	14.44	
2025-01-14 12:09:30.89	237.23	14.45	
2025-01-14 12:09:31.09	237.27	14.47	
2025-01-14 12:09:31.30	237.30	14.48	
2025-01-14 12:09:31.51	237.34	14.49	
2025-01-14 12:09:31.71	237.38	14.50	
2025-01-14 12:09:31.93	237.41	14.52	
2025-01-14 12:09:32.14	237.45	14.53	
2025-01-14 12:09:32.34	237.48	14.54	
2025-01-14 12:09:32.55	237.52	14.55	
2025-01-14 12:09:32.75	237.56	14.56	
2025-01-14 12:09:32.97	237.59	14.58	
2025-01-14 12:09:33.18	237.63	14.59	
2025-01-14 12:09:33.38	237.66	14.60	
2025-01-14 12:09:33.60	237.70	14.62	
2025-01-14 12:09:33.80	237.74	14.63	
2025-01-14 12:09:34.01	237.77	14.64	
2025-01-14 12:09:34.21	237.81	14.65	
2025-01-14 12:09:34.42	237.85	14.66	
2025-01-14 12:09:34.62	237.88	14.68	
2025-01-14 12:09:34.83	237.92	14.69	
2025-01-14 12:09:35.03	237.95	14.70	
2025-01-14 12:09:35.24	237.99	14.71	
2025-01-14 12:09:35.44	238.02	14.72	
2025-01-14 12:09:35.65	238.06	14.74	
2025-01-14 12:09:35.86	238.10	14.75	
2025-01-14 12:09:36.06	238.13	14.76	
2025-01-14 12:09:36.26	238.17	14.77	
2025-01-14 12:09:36.47	238.21	14.78	
2025-01-14 12:09:36.68	238.24	14.80	
2025-01-14 12:09:36.88	238.28	14.81	
2025-01-14 12:09:37.09	238.32	14.82	
2025-01-14 12:09:37.29	238.35	14.83	
2025-01-14 12:09:37.49	238.39	14.84	
2025-01-14 12:09:37.70	238.42	14.86	
2025-01-14 12:09:37.90	238.46	14.87	
2025-01-14 12:09:38.11	238.50	14.88	
2025-01-14 12:09:38.31	238.53	14.89	
2025-01-14 12:09:38.52	238.57	14.90	
2025-01-14 12:09:38.72	238.60	14.92	
2025-01-14 12:09:38.93	238.64	14.93	
2025-01-14 12:09:39.14	238.68	14.94	
2025-01-14 12:09:39.34	238.71	14.95	
2025-01-14 12:09:39.55	238.75	14.97	
2025-01-14 12:09:39.75	238.79	14.98	
2025-01-14 12:09:39.96	238.82	14.99	
2025-01-14 12:09:40.16	238.86	15.00	
2025-01-14 12:09:40.37	238.90	15.01	
2025-01-14 12:09:40.58	238.94	15.03	
2025-01-14 12:09:40.79	238.97	15.04	
2025-01-14 12:09:40.99	239.01	15.05	
2025-01-14 12:09:41.19	239.04	15.06	
2025-01-14 12:09:41.40	239.08	15.07	
2025-01-14 12:09:41.60	239.12	15.08	
2025-01-14 12:09:41.81	239.16	15.10	
2025-01-14 12:09:42.02	239.19	15.11	
2025-01-14 12:09:42.22	239.23	15.12	
2025-01-14 12:09:42.42	239.27	15.13	
2025-01-14 12:09:42.63	239.30	15.14	
2025-01-14 12:09:42.84	239.34	15.16	
2025-01-14 12:09:43.04	239.38	15.17	
2025-01-14 12:09:43.24	239.41	15.18	
2025-01-14 12:09:43.45	239.45	15.19	
2025-01-14 12:09:43.65	239.49	15.20	
2025-01-14 12:09:43.86	239.53	15.22	
2025-01-14 12:09:44.06	239.56	15.23	
2025-01-14 12:09:44.27	239.60	15.24	
2025-01-14 12:09:44.47	239.64	15.25	
2025-01-14 12:09:44.68	239.67	15.26	
2025-01-14 12:09:44.88	239.71	15.28	
2025-01-14 12:09:45.09	239.75	15.29	
2025-01-14 12:09:45.29	239.79	15.30	
2025-01-14 12:09:45.50	239.82	15.31	
2025-01-14 12:09:45.70	239.86	15.32	
2025-01-14 12:09:45.91	239.90	15.33	
2025-01-14 12:09:46.11	239.94	15.35	
2025-01-14 12:09:46.32	239.97	15.36	
2025-01-14 12:09:46.53	240.01	15.37	
2025-01-14 12:09:46.73	240.05	15.38	
2025-01-14 12:09:46.93	240.09	15.39	
2025-01-14 12:09:47.14	240.12	15.41	
2025-01-14 12:09:47.36	240.16	15.42	
2025-01-14 12:09:47.56	240.20	15.43	
2025-01-14 12:09:47.77	240.24	15.44	
2025-01-14 12:09:47.99	240.28	15.45	
2025-01-14 12:09:48.19	240.32	15.47	
2025-01-14 12:09:48.40	240.36	15.48	
2025-01-14 12:09:48.60	240.39	15.49	
2025-01-14 12:09:48.81	240.43	15.50	
2025-01-14 12:09:49.01	240.47	15.51	
2025-01-14 12:09:49.22	240.51	15.52	
2025-01-14 12:09:49.42	240.54	15.54	
2025-01-14 12:09:49.63	240.58	15.55	
2025-01-14 12:09:49.83	240.62	15.56	
2025-01-14 12:09:50.04	240.66	15.57	
2025-01-14 12:09:50.24	240.70	15.58	
2025-01-14 12:09:50.45	240.73	15.59	
2025-01-14 12:09:50.65	240.77	15.61	
2025-01-14 12:09:50.86	240.81	15.62	
2025-01-14 12:09:51.06	240.85	15.63	
2025-01-14 12:09:51.27	240.89	15.64	
2025-01-14 12:09:51.48	240.93	15.65	
2025-01-14 12:09:51.68	240.96	15.66	
2025-01-14 12:09:51.89	241.00	15.68	
2025-01-14 12:09:52.09	241.04	15.69	
2025-01-14 12:09:52.30	241.08	15.70	
2025-01-14 12:09:52.50	241.12	15.71	
2025-01-14 12:09:52.71	241.16	15.72	
2025-01-14 12:09:52.91	241.19	15.73	
2025-01-14 12:09:53.12	241.23	15.75	
2025-01-14 12:09:53.32	241.27	15.76	
2025-01-14 12:09:53.53	241.31	15.77	
2025-01-14 12:09:53.73	241.35	15.78	
2025-01-14 12:09:53.94	241.39	15.79	
2025-01-14 12:09:54.14	241.42	15.80	
2025-01-14 12:09:54.35	241.46	15.82	
2025-01-14 12:09:54.55	241.50	15.83	
2025-01-14 12:09:54.76	241.54	15.84	
2025-01-14 12:09:54.96	241.58	15.85	
2025-01-14 12:09:55.17	241.62	15.86	
2025-01-14 12:09:55.37	241.66	15.87	
2025-01-14 12:09:55.57	241.69	15.88	
2025-01-14 12:09:55.78	241.73	15.90	
2025-01-14 12:09:55.98	241.77	15.91	
2025-01-14 12:09:56.19	241.81	15.92	
2025-01-14 12:09:56.40	241.85	15.93	
2025-01-14 12:09:56.60	241.89	15.94	
2025-01-14 12:09:56.80	241.93	15.95	
2025-01-14 12:09:57.01	241.97	15.97	
2025-01-14 12:09:57.21	242.01	15.98	
2025-01-14 12:09:57.42	242.05	15.99	
2025-01-14 12:09:57.62	242.08	16.00	
2025-01-14 12:09:57.83	242.12	16.01	
2025-01-14 12:09:58.03	242.16	16.02	
2025-01-14 12:09:58.24	242.20	16.03	
2025-01-14 12:09:58.44	242.24	16.05	
2025-01-14 12:09:58.66	242.28	16.06	
2025-01-14 12:09:58.86	242.32	16.07	
2025-01-14 12:09:59.07	242.36	16.08	
2025-01-14 12:09:59.27	242.40	16.09	
2025-01-14 12:09:59.48	242.44	16.10	
2025-01-14 12:09:59.70	242.48	16.12	
2025-01-14 12:09:59.90	242.52	16.13	
2025-01-14 12:10:00.11	242.56	16.14	
2025-01-14 12:10:00.31	242.60	16.15	
2025-01-14 12:10:00.53	242.64	16.16	
2025-01-14 12:10:00.73	242.68	16.17	
2025-01-14 12:10:00.94	242.72	16.18	
2025-01-14 12:10:01.14	242.76	16.20	
2025-01-14 12:10:01.35	242.80	16.21	
2025-01-14 12:10:01.55	242.84	16.22	
2025-01-14 12:10:01.76	242.88	16.23	
2025-01-14 12:10:01.96	242.92	16.24	
2025-01-14 12:10:02.17	242.96	16.25	
2025-01-14 12:10:02.37	243.00	16.26	
2025-01-14 12:10:02.58	243.04	16.27	
2025-01-14 12:10:02.78	243.08	16.29	
2025-01-14 12:10:02.98	243.12	16.30	
2025-01-14 12:10:03.19	243.16	16.31	
2025-01-14 12:10:03.39	243.19	16.32	
2025-01-14 12:10:03.60	243.24	16.33	
2025-01-14 12:10:03.81	243.28	16.34	
2025-01-14 12:10:04.01	243.32	16.35	
2025-01-14 12:10:04.22	243.36	16.36	
2025-01-14 12:10:04.42	243.40	16.38	
2025-01-14 12:10:04.63	243.44	16.39	
2025-01-14 12:10:04.83	243.48	16.40	
2025-01-14 12:10:05.04	243.52	16.41	
2025-01-14 12:10:05.24	243.56	16.42	
2025-01-14 12:10:05.45	243.60	16.43	
2025-01-14 12:10:05.65	243.64	16.44	
2025-01-14 12:10:05.86	243.68	16.45	
2025-01-14 12:10:06.06	243.72	16.47	
2025-01-14 12:10:06.27	243.76	16.48	
2025-01-14 12:10:06.48	243.80	16.49	
2025-01-14 12:10:06.68	243.84	16.50	
2025-01-14 12:10:06.89	243.88	16.51	
2025-01-14 12:10:07.09	243.92	16.52	
2025-01-14 12:10:07.29	243.96	16.53	
2025-01-14 12:10:07.51	244.00	16.54	
2025-01-14 12:10:07.72	244.04	16.56	
2025-01-14 12:10:07.92	244.08	16.57	
2025-01-14 12:10:08.13	244.13	16.58	
2025-01-14 12:10:08.33	244.16	16.59	
2025-01-14 12:10:08.53	244.20	16.60	
2025-01-14 12:10:08.74	244.25	16.61	
2025-01-14 12:10:08.95	244.29	16.62	
2025-01-14 12:10:09.15	244.33	16.63	
2025-01-14 12:10:09.35	244.37	16.64	
2025-01-14 12:10:09.56	244.41	16.65	
2025-01-14 12:10:09.77	244.45	16.67	
2025-01-14 12:10:09.97	244.49	16.68	
2025-01-14 12:10:10.17	244.53	16.69	
2025-01-14 12:10:10.38	244.57	16.70	
2025-01-14 12:10:10.58	244.61	16.71	
2025-01-14 12:10:10.79	244.65	16.72	
2025-01-14 12:10:11.00	244.70	16.73	
2025-01-14 12:10:11.20	244.74	16.74	
2025-01-14 12:10:11.41	244.78	16.75	
2025-01-14 12:10:11.61	244.82	16.76	
2025-01-14 12:10:11.81	244.86	16.77	
2025-01-14 12:10:12.02	244.90	16.79	
2025-01-14 12:10:12.22	244.94	16.80	
2025-01-14 12:10:12.43	244.98	16.81	
2025-01-14 12:10:12.63	245.02	16.82	
2025-01-14 12:10:12.83	245.06	16.83	
2025-01-14 12:10:13.04	245.10	16.84	
2025-01-14 12:10:13.25	245.15	16.85	
2025-01-14 12:10:13.45	245.19	16.86	
2025-01-14 12:10:13.66	245.23	16.87	
2025-01-14 12:10:13.86	245.27	16.88	
2025-01-14 12:10:14.07	245.31	16.89	
2025-01-14 12:10:14.27	245.35	16.90	
2025-01-14 12:10:14.48	245.40	16.92	
2025-01-14 12:10:14.70	245.44	16.93	
2025-01-14 12:10:14.90	245.48	16.94	
2025-01-14 12:10:15.11	245.52	16.95	
2025-01-14 12:10:15.31	245.56	16.96	
2025-01-14 12:10:15.52	245.61	16.97	
2025-01-14 12:10:15.72	245.65	16.98	
2025-01-14 12:10:15.93	245.69	16.99	
2025-01-14 12:10:16.13	245.73	17.00	
2025-01-14 12:10:16.34	245.77	17.01	
2025-01-14 12:10:16.54	245.81	17.02	
2025-01-14 12:10:16.75	245.86	17.03	
2025-01-14 12:10:16.95	245.90	17.04	
2025-01-14 12:10:17.16	245.94	17.06	
2025-01-14 12:10:17.37	245.98	17.07	
2025-01-14 12:10:17.57	246.02	17.08	
2025-01-14 12:10:17.77	246.06	17.09	
2025-01-14 12:10:17.98	246.11	17.10	
2025-01-14 12:10:18.19	246.15	17.11	
2025-01-14 12:10:18.39	246.19	17.12	
2025-01-14 12:10:18.60	246.23	17.13	
2025-01-14 12:10:18.80	246.28	17.14	
2025-01-14 12:10:19.00	246.32	17.15	
2025-01-14 12:10:19.21	246.36	17.16	
2025-01-14 12:10:19.41	246.40	17.17	
2025-01-14 12:10:19.62	246.44	17.18	
2025-01-14 12:10:19.82	246.48	17.19	
2025-01-14 12:10:20.03	246.53	17.20	
2025-01-14 12:10:20.23	246.57	17.21	
2025-01-14 12:10:20.44	246.61	17.22	
2025-01-14 12:10:20.64	246.65	17.23	
2025-01-14 12:10:20.85	246.70	17.25	
2025-01-14 12:10:21.05	246.74	17.26	
2025-01-14 12:10:21.26	246.78	17.27	
2025-01-14 12:10:21.47	246.83	17.28	
2025-01-14 12:10:21.67	246.87	17.29	
2025-01-14 12:10:21.88	246.91	17.30	
2025-01-14 12:10:22.08	246.95	17.31	
2025-01-14 12:10:22.29	247.00	17.32	
2025-01-14 12:10:22.49	247.04	17.33	
2025-01-14 12:10:22.70	247.08	17.34	
2025-01-14 12:10:22.90	247.12	17.35	
2025-01-14 12:10:23.11	247.17	17.36	
2025-01-14 12:10:23.31	247.21	17.37	
2025-01-14 12:10:23.52	247.25	17.38	
2025-01-14 12:10:23.72	247.29	17.39	
2025-01-14 12:10:23.93	247.34	17.40	
2025-01-14 12:10:24.14	247.38	17.41	
2025-01-14 12:10:24.34	247.42	17.42	
2025-01-14 12:10:24.55	247.47	17.43	
2025-01-14 12:10:24.75	247.51	17.44	
2025-01-14 12:10:24.96	247.55	17.45	
2025-01-14 12:10:25.16	247.59	17.46	
2025-01-14 12:10:25.37	247.64	17.47	
2025-01-14 12:10:25.57	247.68	17.48	
2025-01-14 12:10:25.78	247.72	17.49	
2025-01-14 12:10:25.98	247.77	17.50	
2025-01-14 12:10:26.19	247.81	17.51	
2025-01-14 12:10:26.39	247.85	17.52	
2025-01-14 12:10:26.60	247.90	17.53	
2025-01-14 12:10:26.81	247.94	17.55	
2025-01-14 12:10:27.01	247.98	17.55	
2025-01-14 12:10:27.22	248.03	17.57	
2025-01-14 12:10:27.42	248.07	17.58	
2025-01-14 12:10:27.62	248.11	17.59	
2025-01-14 12:10:27.83	248.16	17.60	
2025-01-14 12:10:28.03	248.20	17.61	
2025-01-14 12:10:28.24	248.24	17.62	
2025-01-14 12:10:28.44	248.28	17.63	
2025-01-14 12:10:28.65	248.33	17.64	
2025-01-14 12:10:28.85	248.37	17.65	
2025-01-14 12:10:29.06	248.42	17.66	
2025-01-14 12:10:29.27	248.46	17.67	
2025-01-14 12:10:29.47	248.50	17.68	
2025-01-14 12:10:29.69	248.55	17.69	
2025-01-14 12:10:29.89	248.59	17.70	
2025-01-14 12:10:30.10	248.64	17.71	
2025-01-14 12:10:30.31	248.68	17.72	
2025-01-14 12:10:30.51	248.72	17.73	
2025-01-14 12:10:30.72	248.77	17.74	
2025-01-14 12:10:30.93	248.81	17.75	
2025-01-14 12:10:31.13	248.86	17.76	
2025-01-14 12:10:31.34	248.90	17.77	
2025-01-14 12:10:31.54	248.94	17.78	
2025-01-14 12:10:31.75	248.99	17.79	
2025-01-14 12:10:31.95	249.03	17.80	
2025-01-14 12:10:32.16	249.08	17.81	
2025-01-14 12:10:32.36	249.12	17.82	
2025-01-14 12:10:32.57	249.16	17.83	
2025-01-14 12:10:32.77	249.21	17.84	
2025-01-14 12:10:32.98	249.25	17.85	
2025-01-14 12:10:33.19	249.30	17.86	
2025-01-14 12:10:33.39	249.34	17.86	
2025-01-14 12:10:33.60	249.39	17.87	
2025-01-14 12:10:33.80	249.43	17.88	
2025-01-14 12:10:34.01	249.47	17.89	
2025-01-14 12:10:34.21	249.52	17.90	
2025-01-14 12:10:34.42	249.56	17.91	
2025-01-14 12:10:34.62	249.61	17.92	
2025-01-14 12:10:34.83	249.65	17.93	
2025-01-14 12:10:35.03	249.69	17.94	
2025-01-14 12:10:35.24	249.74	17.95	
2025-01-14 12:10:35.44	249.78	17.96	
2025-01-14 12:10:35.65	249.83	17.97	
2025-01-14 12:10:35.86	249.87	17.98	
2025-01-14 12:10:36.07	249.92	17.99	
2025-01-14 12:10:36.28	249.96	18.00	
2025-01-14 12:10:36.48	250.01	18.01	
2025-01-14 12:10:36.69	250.05	18.02	
2025-01-14 12:10:36.91	250.10	18.03	
2025-01-14 12:10:37.11	250.14	18.04	
2025-01-14 12:10:37.31	250.19	18.05	
2025-01-14 12:10:37.52	250.23	18.06	
2025-01-14 12:10:37.72	250.28	18.07	
2025-01-14 12:10:37.93	250.32	18.08	
2025-01-14 12:10:38.13	250.37	18.09	
2025-01-14 12:10:38.34	250.41	18.10	
2025-01-14 12:10:38.54	250.46	18.11	
2025-01-14 12:10:38.75	250.50	18.12	
2025-01-14 12:10:38.95	250.55	18.12	
2025-01-14 12:10:39.17	250.59	18.13	
2025-01-14 12:10:39.38	250.64	18.14	
2025-01-14 12:10:39.58	250.68	18.15	
2025-01-14 12:10:39.79	250.73	18.16	
2025-01-14 12:10:40.00	250.78	18.17	
2025-01-14 12:10:40.21	250.82	18.18	
2025-01-14 12:10:40.42	250.87	18.19	
2025-01-14 12:10:40.63	250.91	18.20	
2025-01-14 12:10:40.83	250.96	18.21	
2025-01-14 12:10:41.04	251.00	18.22	
2025-01-14 12:10:41.26	251.05	18.23	
2025-01-14 12:10:41.46	251.10	18.24	
2025-01-14 12:10:41.67	251.14	18.25	
2025-01-14 12:10:41.87	251.19	18.26	
2025-01-14 12:10:42.08	251.23	18.27	
2025-01-14 12:10:42.28	251.28	18.28	
2025-01-14 12:10:42.49	251.32	18.29	
2025-01-14 12:10:42.69	251.37	18.29	
2025-01-14 12:10:42.90	251.41	18.30	
2025-01-14 12:10:43.11	251.46	18.31	
2025-01-14 12:10:43.31	251.50	18.32	
2025-01-14 12:10:43.52	251.55	18.33	
2025-01-14 12:10:43.72	251.59	18.34	
2025-01-14 12:10:43.93	251.64	18.35	
2025-01-14 12:10:44.13	251.69	18.36	
2025-01-14 12:10:44.34	251.73	18.37	
2025-01-14 12:10:44.56	251.78	18.38	
2025-01-14 12:10:44.76	251.83	18.39	
2025-01-14 12:10:44.97	251.87	18.40	
2025-01-14 12:10:45.17	251.92	18.40	
2025-01-14 12:10:45.39	251.97	18.41	
2025-01-14 12:10:45.60	252.01	18.42	
2025-01-14 12:10:45.80	252.06	18.43	
2025-01-14 12:10:46.01	252.10	18.44	
2025-01-14 12:10:46.21	252.15	18.45	
2025-01-14 12:10:46.42	252.20	18.46	
2025-01-14 12:10:46.62	252.24	18.47	
2025-01-14 12:10:46.83	252.29	18.48	
2025-01-14 12:10:47.04	252.33	18.49	
2025-01-14 12:10:47.24	252.38	18.49	
2025-01-14 12:10:47.45	252.43	18.50	
2025-01-14 12:10:47.65	252.47	18.51	
2025-01-14 12:10:47.86	252.52	18.52	
2025-01-14 12:10:48.06	252.56	18.53	
2025-01-14 12:10:48.27	252.61	18.54	
2025-01-14 12:10:48.47	252.65	18.55	
2025-01-14 12:10:48.68	252.70	18.56	
2025-01-14 12:10:48.88	252.75	18.56	
2025-01-14 12:10:49.09	252.79	18.57	
2025-01-14 12:10:49.29	252.84	18.58	
2025-01-14 12:10:49.50	252.89	18.59	
2025-01-14 12:10:49.71	252.93	18.60	
2025-01-14 12:10:49.91	252.98	18.61	
2025-01-14 12:10:50.12	253.03	18.62	
2025-01-14 12:10:50.32	253.07	18.63	
2025-01-14 12:10:50.53	253.12	18.63	
2025-01-14 12:10:50.73	253.16	18.64	
2025-01-14 12:10:50.93	253.21	18.65	
2025-01-14 12:10:51.14	253.26	18.66	
2025-01-14 12:10:51.34	253.30	18.67	
2025-01-14 12:10:51.55	253.35	18.68	
2025-01-14 12:10:51.75	253.39	18.68	
2025-01-14 12:10:51.96	253.44	18.69	
2025-01-14 12:10:52.16	253.49	18.70	
2025-01-14 12:10:52.37	253.53	18.71	
2025-01-14 12:10:52.57	253.58	18.72	
2025-01-14 12:10:52.78	253.63	18.73	
2025-01-14 12:10:52.99	253.68	18.74	
2025-01-14 12:10:53.19	253.72	18.74	
2025-01-14 12:10:53.40	253.77	18.75	
2025-01-14 12:10:53.60	253.81	18.76	
2025-01-14 12:10:53.81	253.86	18.77	
2025-01-14 12:10:54.01	253.91	18.78	
2025-01-14 12:10:54.22	253.96	18.79	
2025-01-14 12:10:54.42	254.00	18.79	
2025-01-14 12:10:54.63	254.05	18.80	
2025-01-14 12:10:54.83	254.09	18.81	
2025-01-14 12:10:55.04	254.14	18.82	
2025-01-14 12:10:55.24	254.19	18.83	
2025-01-14 12:10:55.45	254.24	18.84	
2025-01-14 12:10:55.66	254.28	18.84	
2025-01-14 12:10:55.86	254.33	18.85	
2025-01-14 12:10:56.07	254.38	18.86	
2025-01-14 12:10:56.27	254.42	18.87	
2025-01-14 12:10:56.48	254.47	18.88	
2025-01-14 12:10:56.68	254.52	18.89	
2025-01-14 12:10:56.89	254.57	18.89	
2025-01-14 12:10:57.09	254.61	18.90	
2025-01-14 12:10:57.30	254.66	18.91	
2025-01-14 12:10:57.50	254.71	18.92	
2025-01-14 12:10:57.71	254.75	18.93	
2025-01-14 12:10:57.91	254.80	18.93	
2025-01-14 12:10:58.12	254.85	18.94	
2025-01-14 12:10:58.32	254.89	18.95	
2025-01-14 12:10:58.53	254.94	18.96	
2025-01-14 12:10:58.73	254.99	18.97	
2025-01-14 12:10:58.94	255.04	18.97	
2025-01-14 12:10:59.14	255.08	18.98	
2025-01-14 12:10:59.35	255.13	18.99	
2025-01-14 12:10:59.55	255.18	19.00	
2025-01-14 12:10:59.76	255.23	19.01	
2025-01-14 12:10:59.96	255.27	19.01	
2025-01-14 12:11:00.17	255.32	19.02	
2025-01-14 12:11:00.37	255.37	19.03	
2025-01-14 12:11:00.57	255.41	19.04	
2025-01-14 12:11:00.78	255.46	19.04	
2025-01-14 12:11:00.98	255.51	19.05	
2025-01-14 12:11:01.19	255.56	19.06	
2025-01-14 12:11:01.39	255.60	19.07	
2025-01-14 12:11:01.60	255.65	19.08	
2025-01-14 12:11:01.80	255.70	19.08	
2025-01-14 12:11:02.01	255.75	19.09	
2025-01-14 12:11:02.21	255.80	19.10	
2025-01-14 12:11:02.42	255.84	19.11	
2025-01-14 12:11:02.62	255.89	19.11	
2025-01-14 12:11:02.83	255.94	19.12	
2025-01-14 12:11:03.04	255.99	19.13	
2025-01-14 12:11:03.24	256.04	19.14	
2025-01-14 12:11:03.45	256.08	19.14	
2025-01-14 12:11:03.65	256.13	19.15	
2025-01-14 12:11:03.85	256.18	19.16	
2025-01-14 12:11:04.06	256.23	19.17	
2025-01-14 12:11:04.27	256.28	19.18	
2025-01-14 12:11:04.47	256.32	19.18	
2025-01-14 12:11:04.68	256.37	19.19	
2025-01-14 12:11:04.88	256.42	19.20	
2025-01-14 12:11:05.09	256.47	19.20	
2025-01-14 12:11:05.29	256.51	19.21	
2025-01-14 12:11:05.50	256.56	19.22	
2025-01-14 12:11:05.70	256.61	19.23	
2025-01-14 12:11:05.92	256.66	19.23	
2025-01-14 12:11:06.13	256.71	19.24	
2025-01-14 12:11:06.33	256.76	19.25	
2025-01-14 12:11:06.54	256.81	19.26	
2025-01-14 12:11:06.74	256.85	19.26	
2025-01-14 12:11:06.95	256.90	19.27	
2025-01-14 12:11:07.15	256.95	19.28	
2025-01-14 12:11:07.36	257.00	19.29	
2025-01-14 12:11:07.56	257.05	19.29	
2025-01-14 12:11:07.77	257.10	19.30	
2025-01-14 12:11:07.97	257.14	19.31	
2025-01-14 12:11:08.17	257.19	19.31	
2025-01-14 12:11:08.38	257.24	19.32	
2025-01-14 12:11:08.58	257.29	19.33	
2025-01-14 12:11:08.78	257.33	19.34	
2025-01-14 12:11:08.99	257.38	19.34	
2025-01-14 12:11:09.19	257.43	19.35	
2025-01-14 12:11:09.40	257.48	19.36	
2025-01-14 12:11:09.60	257.53	19.36	
2025-01-14 12:11:09.81	257.58	19.37	
2025-01-14 12:11:10.01	257.63	19.38	
2025-01-14 12:11:10.22	257.68	19.39	
2025-01-14 12:11:10.42	257.72	19.39	
2025-01-14 12:11:10.63	257.77	19.40	
2025-01-14 12:11:10.83	257.82	19.41	
2025-01-14 12:11:11.04	257.87	19.41	
2025-01-14 12:11:11.24	257.92	19.42	
2025-01-14 12:11:11.45	257.97	19.43	
2025-01-14 12:11:11.66	258.02	19.43	
2025-01-14 12:11:11.86	258.06	19.44	
2025-01-14 12:11:12.07	258.11	19.45	
2025-01-14 12:11:12.28	258.16	19.46	
2025-01-14 12:11:12.49	258.21	19.46	
2025-01-14 12:11:12.70	258.26	19.47	
2025-01-14 12:11:12.90	258.31	19.48	
2025-01-14 12:11:13.11	258.36	19.48	
2025-01-14 12:11:13.33	258.41	19.49	
2025-01-14 12:11:13.53	258.46	19.50	
2025-01-14 12:11:13.74	258.51	19.50	
2025-01-14 12:11:13.94	258.56	19.51	
2025-01-14 12:11:14.15	258.61	19.52	
2025-01-14 12:11:14.35	258.66	19.52	
2025-01-14 12:11:14.55	258.71	19.53	
2025-01-14 12:11:14.76	258.76	19.54	
2025-01-14 12:11:14.97	258.81	19.54	
2025-01-14 12:11:15.17	258.85	19.55	
2025-01-14 12:11:15.38	258.90	19.56	
2025-01-14 12:11:15.58	258.95	19.56	
2025-01-14 12:11:15.79	259.00	19.57	
2025-01-14 12:11:15.99	259.05	19.58	
2025-01-14 12:11:16.20	259.10	19.58	
2025-01-14 12:11:16.40	259.15	19.59	
2025-01-14 12:11:16.61	259.20	19.59	
2025-01-14 12:11:16.81	259.25	19.60	
2025-01-14 12:11:17.02	259.30	19.61	
2025-01-14 12:11:17.22	259.35	19.61	
2025-01-14 12:11:17.43	259.40	19.62	
2025-01-14 12:11:17.63	259.44	19.63	
2025-01-14 12:11:17.84	259.49	19.63	
2025-01-14 12:11:18.04	259.54	19.64	
2025-01-14 12:11:18.25	259.59	19.65	
2025-01-14 12:11:18.45	259.64	19.65	
2025-01-14 12:11:18.66	259.69	19.66	
2025-01-14 12:11:18.86	259.74	19.66	
2025-01-14 12:11:19.07	259.79	19.67	
2025-01-14 12:11:19.28	259.84	19.68	
2025-01-14 12:11:19.48	259.89	19.68	
2025-01-14 12:11:19.69	259.94	19.69	
2025-01-14 12:11:19.89	259.99	19.70	
2025-01-14 12:11:20.10	260.04	19.70	
2025-01-14 12:11:20.30	260.09	19.71	
2025-01-14 12:11:20.51	260.14	19.71	
2025-01-14 12:11:20.71	260.19	19.72	
2025-01-14 12:11:20.92	260.24	19.73	
2025-01-14 12:11:21.12	260.29	19.73	
2025-01-14 12:11:21.33	260.34	19.74	
2025-01-14 12:11:21.53	260.38	19.74	
2025-01-14 12:11:21.74	260.44	19.75	
2025-01-14 12:11:21.94	260.48	19.76	
2025-01-14 12:11:22.15	260.54	19.76	
2025-01-14 12:11:22.36	260.59	19.77	
2025-01-14 12:11:22.56	260.63	19.77	
2025-01-14 12:11:22.77	260.69	19.78	
2025-01-14 12:11:22.97	260.73	19.78	
2025-01-14 12:11:23.18	260.79	19.79	
2025-01-14 12:11:23.38	260.83	19.80	
2025-01-14 12:11:23.58	260.88	19.80	
2025-01-14 12:11:23.79	260.93	19.81	
2025-01-14 12:11:23.99	260.98	19.81	
2025-01-14 12:11:24.20	261.03	19.82	
2025-01-14 12:11:24.40	261.08	19.82	
2025-01-14 12:11:24.61	261.13	19.83	
2025-01-14 12:11:24.81	261.18	19.84	
2025-01-14 12:11:25.02	261.23	19.84	
2025-01-14 12:11:25.22	261.28	19.85	
2025-01-14 12:11:25.43	261.33	19.85	
2025-01-14 12:11:25.63	261.38	19.86	
2025-01-14 12:11:25.84	261.43	19.86	
2025-01-14 12:11:26.06	261.49	19.87	
2025-01-14 12:11:26.26	261.54	19.88	
2025-01-14 12:11:26.47	261.59	19.88	
2025-01-14 12:11:26.67	261.64	19.89	
2025-01-14 12:11:26.88	261.69	19.89	
2025-01-14 12:11:27.08	261.74	19.90	
2025-01-14 12:11:27.30	261.79	19.90	
2025-01-14 12:11:27.51	261.84	19.91	
2025-01-14 12:11:27.71	261.89	19.91	
2025-01-14 12:11:27.92	261.94	19.92	
2025-01-14 12:11:28.12	261.99	19.92	
2025-01-14 12:11:28.32	262.04	19.93	
2025-01-14 12:11:28.53	262.09	19.93	
2025-01-14 12:11:28.74	262.14	19.94	
2025-01-14 12:11:28.95	262.19	19.95	
2025-01-14 12:11:29.15	262.24	19.95	
2025-01-14 12:11:29.35	262.29	19.96	
2025-01-14 12:11:29.56	262.34	19.96	
2025-01-14 12:11:29.76	262.39	19.97	
2025-01-14 12:11:29.97	262.44	19.97	
2025-01-14 12:11:30.18	262.50	19.98	
2025-01-14 12:11:30.38	262.55	19.98	
2025-01-14 12:11:30.59	262.60	19.99	
2025-01-14 12:11:30.79	262.65	19.99	
2025-01-14 12:11:31.00	262.70	20.00	
2025-01-14 12:11:31.21	262.75	20.00	
2025-01-14 12:11:31.41	262.80	20.01	
2025-01-14 12:11:31.62	262.85	20.01	
2025-01-14 12:11:31.82	262.90	20.02	
2025-01-14 12:11:32.03	262.95	20.02	
2025-01-14 12:11:32.23	263.00	20.03	
2025-01-14 12:11:32.44	263.05	20.03	
2025-01-14 12:11:32.64	263.10	20.04	
2025-01-14 12:11:32.85	263.15	20.04	
2025-01-14 12:11:33.06	263.21	20.05	
2025-01-14 12:11:33.26	263.25	20.05	
2025-01-14 12:11:33.47	263.31	20.06	
2025-01-14 12:11:33.67	263.36	20.06	
2025-01-14 12:11:33.88	263.41	20.07	
2025-01-14 12:11:34.08	263.46	20.07	
2025-01-14 12:11:34.29	263.51	20.07	
2025-01-14 12:11:34.50	263.56	20.08	
2025-01-14 12:11:34.70	263.61	20.08	
2025-01-14 12:11:34.90	263.66	20.09	
2025-01-14 12:11:35.11	263.71	20.09	
2025-01-14 12:11:35.32	263.76	20.10	
2025-01-14 12:11:35.52	263.81	20.10	
2025-01-14 12:11:35.73	263.87	20.11	
2025-01-14 12:11:35.93	263.92	20.11	
2025-01-14 12:11:36.14	263.97	20.12	
2025-01-14 12:11:36.34	264.02	20.12	
2025-01-14 12:11:36.55	264.07	20.12	
2025-01-14 12:11:36.75	264.12	20.13	
2025-01-14 12:11:36.96	264.17	20.13	
2025-01-14 12:11:37.16	264.22	20.14	
2025-01-14 12:11:37.37	264.27	20.14	
2025-01-14 12:11:37.57	264.32	20.15	
2025-01-14 12:11:37.78	264.37	20.15	
2025-01-14 12:11:37.99	264.43	20.16	
2025-01-14 12:11:38.19	264.48	20.16	
2025-01-14 12:11:38.40	264.53	20.16	
2025-01-14 12:11:38.60	264.58	20.17	
2025-01-14 12:11:38.81	264.63	20.17	
2025-01-14 12:11:39.01	264.68	20.18	
2025-01-14 12:11:39.22	264.73	20.18	
2025-01-14 12:11:39.43	264.79	20.19	
2025-01-14 12:11:39.63	264.83	20.19	
2025-01-14 12:11:39.84	264.89	20.19	
2025-01-14 12:11:40.04	264.94	20.20	
2025-01-14 12:11:40.25	264.99	20.20	
2025-01-14 12:11:40.45	265.04	20.21	
2025-01-14 12:11:40.66	265.09	20.21	
2025-01-14 12:11:40.86	265.14	20.21	
2025-01-14 12:11:41.06	265.19	20.22	
2025-01-14 12:11:41.27	265.24	20.22	
2025-01-14 12:11:41.47	265.29	20.23	
2025-01-14 12:11:41.68	265.35	20.23	
2025-01-14 12:11:41.89	265.40	20.23	
2025-01-14 12:11:42.09	265.45	20.24	
2025-01-14 12:11:42.29	265.50	20.24	
2025-01-14 12:11:42.50	265.55	20.24	
2025-01-14 12:11:42.70	265.60	20.25	
2025-01-14 12:11:42.91	265.65	20.25	
2025-01-14 12:11:43.11	265.70	20.26	
2025-01-14 12:11:43.33	265.76	20.26	
2025-01-14 12:11:43.54	265.81	20.26	
2025-01-14 12:11:43.74	265.86	20.27	
2025-01-14 12:11:43.95	265.91	20.27	
2025-01-14 12:11:44.16	265.97	20.27	
2025-01-14 12:11:44.36	266.02	20.28	
2025-01-14 12:11:44.57	266.07	20.28	
2025-01-14 12:11:44.77	266.12	20.29	
2025-01-14 12:11:44.98	266.17	20.29	
2025-01-14 12:11:45.18	266.22	20.29	
2025-01-14 12:11:45.38	266.27	20.30	
2025-01-14 12:11:45.59	266.32	20.30	
2025-01-14 12:11:45.79	266.37	20.30	
2025-01-14 12:11:46.00	266.43	20.31	
2025-01-14 12:11:46.21	266.48	20.31	
2025-01-14 12:11:46.41	266.53	20.31	
2025-01-14 12:11:46.62	266.58	20.32	
2025-01-14 12:11:46.82	266.63	20.32	
2025-01-14 12:11:47.03	266.69	20.32	
2025-01-14 12:11:47.23	266.74	20.33	
2025-01-14 12:11:47.44	266.79	20.33	
2025-01-14 12:11:47.64	266.84	20.33	
2025-01-14 12:11:47.85	266.89	20.34	
2025-01-14 12:11:48.05	266.94	20.34	
2025-01-14 12:11:48.26	267.00	20.34	
2025-01-14 12:11:48.46	267.05	20.35	
2025-01-14 12:11:48.68	267.10	20.35	
2025-01-14 12:11:48.88	267.15	20.35	
2025-01-14 12:11:49.09	267.20	20.36	
2025-01-14 12:11:49.29	267.25	20.36	
2025-01-14 12:11:49.50	267.31	20.36	
2025-01-14 12:11:49.70	267.36	20.36	
2025-01-14 12:11:49.91	267.41	20.37	
2025-01-14 12:11:50.11	267.46	20.37	
2025-01-14 12:11:50.32	267.51	20.37	
2025-01-14 12:11:50.53	267.57	20.38	
2025-01-14 12:11:50.73	267.62	20.38	
2025-01-14 12:11:50.94	267.67	20.38	
2025-01-14 12:11:51.14	267.72	20.38	
2025-01-14 12:11:51.35	267.77	20.39	
2025-01-14 12:11:51.55	267.82	20.39	
2025-01-14 12:11:51.76	267.88	20.39	
2025-01-14 12:11:51.96	267.93	20.40	
2025-01-14 12:11:52.17	267.98	20.40	
2025-01-14 12:11:52.37	268.03	20.40	
2025-01-14 12:11:52.58	268.08	20.40	
2025-01-14 12:11:52.78	268.13	20.41	
2025-01-14 12:11:52.99	268.19	20.41	
2025-01-14 12:11:53.20	268.24	20.41	
2025-01-14 12:11:53.40	268.29	20.41	
2025-01-14 12:11:53.61	268.34	20.42	
2025-01-14 12:11:53.81	268.39	20.42	
2025-01-14 12:11:54.01	268.45	20.42	
2025-01-14 12:11:54.22	268.50	20.43	
2025-01-14 12:11:54.43	268.55	20.43	
2025-01-14 12:11:54.63	268.60	20.43	
2025-01-14 12:11:54.84	268.65	20.43	
2025-01-14 12:11:55.04	268.71	20.44	
2025-01-14 12:11:55.25	268.76	20.44	
2025-01-14 12:11:55.45	268.81	20.44	
2025-01-14 12:11:55.66	268.86	20.44	
2025-01-14 12:11:55.86	268.91	20.44	
2025-01-14 12:11:56.08	268.97	20.45	
2025-01-14 12:11:56.29	269.02	20.45	
2025-01-14 12:11:56.50	269.08	20.45	
2025-01-14 12:11:56.70	269.13	20.45	
2025-01-14 12:11:56.91	269.18	20.46	
2025-01-14 12:11:57.11	269.23	20.46	
2025-01-14 12:11:57.32	269.28	20.46	
2025-01-14 12:11:57.52	269.33	20.46	
2025-01-14 12:11:57.73	269.39	20.46	
2025-01-14 12:11:57.93	269.44	20.47	
2025-01-14 12:11:58.14	269.49	20.47	
2025-01-14 12:11:58.34	269.54	20.47	
2025-01-14 12:11:58.55	269.59	20.47	
2025-01-14 12:11:58.75	269.65	20.48	
2025-01-14 12:11:58.96	269.70	20.48	
2025-01-14 12:11:59.16	269.75	20.48	
2025-01-14 12:11:59.37	269.80	20.48	
2025-01-14 12:11:59.57	269.85	20.48	
2025-01-14 12:11:59.78	269.91	20.48	
2025-01-14 12:11:59.99	269.96	20.49	
2025-01-14 12:12:00.19	270.01	20.49	
2025-01-14 12:12:00.41	270.07	20.49	
2025-01-14 12:12:00.61	270.12	20.49	
2025-01-14 12:12:00.82	270.17	20.49	
2025-01-14 12:12:01.02	270.22	20.50	
2025-01-14 12:12:01.23	270.27	20.50	
2025-01-14 12:12:01.43	270.33	20.50	
2025-01-14 12:12:01.64	270.38	20.50	
2025-01-14 12:12:01.85	270.43	20.50	
2025-01-14 12:12:02.05	270.48	20.50	
2025-01-14 12:12:02.26	270.54	20.51	
2025-01-14 12:12:02.46	270.59	20.51	
2025-01-14 12:12:02.67	270.64	20.51	
2025-01-14 12:12:02.87	270.69	20.51	
2025-01-14 12:12:03.08	270.74	20.51	
2025-01-14 12:12:03.28	270.80	20.51	
2025-01-14 12:12:03.48	270.85	20.52	
2025-01-14 12:12:03.69	270.90	20.52	
2025-01-14 12:12:03.90	270.95	20.52	
2025-01-14 12:12:04.10	271.00	20.52	
2025-01-14 12:12:04.31	271.06	20.52	
2025-01-14 12:12:04.51	271.11	20.52	
2025-01-14 12:12:04.71	271.16	20.52	
2025-01-14 12:12:04.92	271.21	20.52	
2025-01-14 12:12:05.13	271.27	20.53	
2025-01-14 12:12:05.33	271.32	20.53	
2025-01-14 12:12:05.54	271.37	20.53	
2025-01-14 12:12:05.75	271.42	20.53	
2025-01-14 12:12:05.96	271.48	20.53	
2025-01-14 12:12:06.17	271.53	20.53	
2025-01-14 12:12:06.37	271.58	20.53	
2025-01-14 12:12:06.58	271.63	20.53	
2025-01-14 12:12:06.80	271.69	20.54	
2025-01-14 12:12:07.00	271.74	20.54	
2025-01-14 12:12:07.21	271.79	20.54	
2025-01-14 12:12:07.41	271.85	20.54	
2025-01-14 12:12:07.62	271.90	20.54	
2025-01-14 12:12:07.82	271.95	20.54	
2025-01-14 12:12:08.03	272.00	20.54	
2025-01-14 12:12:08.23	272.05	20.54	
2025-01-14 12:12:08.44	272.11	20.54	
2025-01-14 12:12:08.64	272.16	20.54	
2025-01-14 12:12:08.85	272.21	20.55	
2025-01-14 12:12:09.05	272.26	20.55	
2025-01-14 12:12:09.26	272.32	20.55	
2025-01-14 12:12:09.47	272.37	20.55	
2025-01-14 12:12:09.67	272.42	20.55	
2025-01-14 12:12:09.87	272.47	20.55	
2025-01-14 12:12:10.08	272.53	20.55	
2025-01-14 12:12:10.29	272.58	20.55	
2025-01-14 12:12:10.49	272.63	20.55	
2025-01-14 12:12:10.70	272.68	20.55	
2025-01-14 12:12:10.90	272.73	20.55	
2025-01-14 12:12:11.10	272.79	20.55	
2025-01-14 12:12:11.31	272.84	20.55	
