passes_logs/2025/01/14/SPB_Silybum_02/SPB_Silybum_02__20250114_043321_AQUA_rec.log

#Pass ID: 20250114_043321_AQUA
#Satellite: AQUA
#Configuration: AQUA
#Start time: 2025-01-14 04:33:19

#Version: 2.0.20230423
#Station: SPB_Silybum_02
#Location: 30.233357 lon 59.946436 lat
#TLE: 1 27424U 02022A   25013.15568498  .00001660  00000+0  35066-3 0  9997
#TLE: 2 27424  98.3585 329.8030 0001646 113.3422 303.6913 14.60674931207350

#Time	Az	El	Level	Level2	SNR	BER	Gain	Gain2
2025-01-14 04:33:21.74	6.26	4.03	
2025-01-14 04:33:21.94	6.23	4.04	
2025-01-14 04:33:22.15	6.20	4.04	
2025-01-14 04:33:22.35	6.17	4.05	
2025-01-14 04:33:22.55	6.15	4.06	
2025-01-14 04:33:22.77	6.12	4.07	
2025-01-14 04:33:22.98	6.09	4.08	
2025-01-14 04:33:23.18	6.06	4.09	
2025-01-14 04:33:23.39	6.03	4.09	
2025-01-14 04:33:23.59	6.01	4.10	
2025-01-14 04:33:23.80	5.98	4.11	
2025-01-14 04:33:24.00	5.95	4.12	
2025-01-14 04:33:24.21	5.92	4.13	
2025-01-14 04:33:24.41	5.89	4.13	
2025-01-14 04:33:24.62	5.86	4.14	
2025-01-14 04:33:24.82	5.84	4.15	
2025-01-14 04:33:25.02	5.81	4.16	
2025-01-14 04:33:25.23	5.78	4.17	
2025-01-14 04:33:25.44	5.75	4.17	
2025-01-14 04:33:25.64	5.72	4.18	
2025-01-14 04:33:25.84	5.70	4.19	
2025-01-14 04:33:26.05	5.67	4.20	
2025-01-14 04:33:26.26	5.64	4.21	
2025-01-14 04:33:26.46	5.61	4.21	
2025-01-14 04:33:26.67	5.58	4.22	
2025-01-14 04:33:26.87	5.55	4.23	
2025-01-14 04:33:27.08	5.53	4.24	
2025-01-14 04:33:27.28	5.50	4.25	
2025-01-14 04:33:27.48	5.47	4.25	
2025-01-14 04:33:27.69	5.44	4.26	
2025-01-14 04:33:27.90	5.41	4.27	
2025-01-14 04:33:28.10	5.38	4.28	
2025-01-14 04:33:28.31	5.35	4.29	
2025-01-14 04:33:28.51	5.33	4.30	
2025-01-14 04:33:28.72	5.30	4.30	
2025-01-14 04:33:28.92	5.27	4.31	
2025-01-14 04:33:29.14	5.24	4.32	
2025-01-14 04:33:29.35	5.21	4.33	
2025-01-14 04:33:29.55	5.18	4.34	
2025-01-14 04:33:29.76	5.15	4.34	
2025-01-14 04:33:29.97	5.12	4.35	
2025-01-14 04:33:30.17	5.10	4.36	
2025-01-14 04:33:30.37	5.07	4.37	
2025-01-14 04:33:30.58	5.04	4.38	
2025-01-14 04:33:30.78	5.01	4.38	
2025-01-14 04:33:30.99	4.98	4.39	
2025-01-14 04:33:31.19	4.95	4.40	
2025-01-14 04:33:31.40	4.92	4.41	
2025-01-14 04:33:31.61	4.89	4.42	
2025-01-14 04:33:31.81	4.87	4.42	
2025-01-14 04:33:32.02	4.84	4.43	
2025-01-14 04:33:32.23	4.81	4.44	
2025-01-14 04:33:32.43	4.78	4.45	
2025-01-14 04:33:32.64	4.75	4.46	
2025-01-14 04:33:32.84	4.72	4.46	
2025-01-14 04:33:33.04	4.69	4.47	
2025-01-14 04:33:33.25	4.66	4.48	
2025-01-14 04:33:33.45	4.64	4.49	
2025-01-14 04:33:33.66	4.61	4.50	
2025-01-14 04:33:33.86	4.58	4.50	
2025-01-14 04:33:34.07	4.55	4.51	
2025-01-14 04:33:34.27	4.52	4.52	
2025-01-14 04:33:34.48	4.49	4.53	
2025-01-14 04:33:34.68	4.46	4.54	
2025-01-14 04:33:34.89	4.43	4.54	
2025-01-14 04:33:35.10	4.40	4.55	
2025-01-14 04:33:35.33	4.37	4.56	
2025-01-14 04:33:35.54	4.34	4.57	
2025-01-14 04:33:35.74	4.31	4.58	
2025-01-14 04:33:35.95	4.28	4.58	
2025-01-14 04:33:36.15	4.25	4.59	
2025-01-14 04:33:36.36	4.22	4.60	
2025-01-14 04:33:36.56	4.20	4.61	
2025-01-14 04:33:36.77	4.17	4.62	
2025-01-14 04:33:36.97	4.14	4.62	
2025-01-14 04:33:37.18	4.11	4.63	
2025-01-14 04:33:37.38	4.08	4.64	
2025-01-14 04:33:37.58	4.05	4.65	
2025-01-14 04:33:37.79	4.02	4.66	
2025-01-14 04:33:38.00	3.99	4.66	
2025-01-14 04:33:38.20	3.96	4.67	
2025-01-14 04:33:38.41	3.93	4.68	
2025-01-14 04:33:38.61	3.90	4.69	
2025-01-14 04:33:38.81	3.87	4.69	
2025-01-14 04:33:39.02	3.84	4.70	
2025-01-14 04:33:39.22	3.82	4.71	
2025-01-14 04:33:39.43	3.79	4.72	
2025-01-14 04:33:39.64	3.76	4.73	
2025-01-14 04:33:39.84	3.73	4.73	
2025-01-14 04:33:40.05	3.70	4.74	
2025-01-14 04:33:40.25	3.67	4.75	
2025-01-14 04:33:40.46	3.64	4.76	
2025-01-14 04:33:40.66	3.61	4.77	
2025-01-14 04:33:40.86	3.58	4.77	
2025-01-14 04:33:41.07	3.55	4.78	
2025-01-14 04:33:41.27	3.52	4.79	
2025-01-14 04:33:41.48	3.49	4.80	
2025-01-14 04:33:41.68	3.46	4.80	
2025-01-14 04:33:41.89	3.43	4.81	
2025-01-14 04:33:42.09	3.40	4.82	
2025-01-14 04:33:42.30	3.37	4.83	
2025-01-14 04:33:42.50	3.34	4.84	
2025-01-14 04:33:42.71	3.31	4.84	
2025-01-14 04:33:42.91	3.28	4.85	
2025-01-14 04:33:43.12	3.25	4.86	
2025-01-14 04:33:43.32	3.22	4.87	
2025-01-14 04:33:43.53	3.19	4.87	
2025-01-14 04:33:43.74	3.16	4.88	
2025-01-14 04:33:43.94	3.13	4.89	
2025-01-14 04:33:44.14	3.11	4.90	
2025-01-14 04:33:44.35	3.08	4.91	
2025-01-14 04:33:44.56	3.04	4.91	
2025-01-14 04:33:44.76	3.02	4.92	
2025-01-14 04:33:44.97	2.98	4.93	
2025-01-14 04:33:45.17	2.96	4.94	
2025-01-14 04:33:45.37	2.93	4.94	
2025-01-14 04:33:45.58	2.90	4.95	
2025-01-14 04:33:45.78	2.87	4.96	
2025-01-14 04:33:45.99	2.84	4.97	
2025-01-14 04:33:46.21	2.80	4.98	
2025-01-14 04:33:46.41	2.77	4.98	
2025-01-14 04:33:46.62	2.74	4.99	
2025-01-14 04:33:46.83	2.71	5.00	
2025-01-14 04:33:47.03	2.68	5.01	
2025-01-14 04:33:47.23	2.65	5.01	
2025-01-14 04:33:47.44	2.62	5.02	
2025-01-14 04:33:47.64	2.59	5.03	
2025-01-14 04:33:47.85	2.56	5.04	
2025-01-14 04:33:48.05	2.53	5.04	
2025-01-14 04:33:48.26	2.50	5.05	
2025-01-14 04:33:48.46	2.47	5.06	
2025-01-14 04:33:48.67	2.44	5.07	
2025-01-14 04:33:48.87	2.41	5.07	
2025-01-14 04:33:49.08	2.38	5.08	
2025-01-14 04:33:49.28	2.35	5.09	
2025-01-14 04:33:49.49	2.32	5.10	
2025-01-14 04:33:49.69	2.29	5.11	
2025-01-14 04:33:49.90	2.26	5.11	
2025-01-14 04:33:50.10	2.23	5.12	
2025-01-14 04:33:50.31	2.20	5.13	
2025-01-14 04:33:50.51	2.17	5.14	
2025-01-14 04:33:50.72	2.14	5.14	
2025-01-14 04:33:50.92	2.11	5.15	
2025-01-14 04:33:51.13	2.08	5.16	
2025-01-14 04:33:51.33	2.05	5.17	
2025-01-14 04:33:51.54	2.02	5.17	
2025-01-14 04:33:51.74	1.99	5.18	
2025-01-14 04:33:51.95	1.96	5.19	
2025-01-14 04:33:52.15	1.93	5.20	
2025-01-14 04:33:52.36	1.90	5.20	
2025-01-14 04:33:52.56	1.87	5.21	
2025-01-14 04:33:52.76	1.84	5.22	
2025-01-14 04:33:52.97	1.81	5.23	
2025-01-14 04:33:53.17	1.78	5.23	
2025-01-14 04:33:53.38	1.74	5.24	
2025-01-14 04:33:53.58	1.71	5.25	
2025-01-14 04:33:53.79	1.68	5.26	
2025-01-14 04:33:53.99	1.65	5.26	
2025-01-14 04:33:54.20	1.62	5.27	
2025-01-14 04:33:54.40	1.59	5.28	
2025-01-14 04:33:54.60	1.56	5.29	
2025-01-14 04:33:54.81	1.53	5.29	
2025-01-14 04:33:55.01	1.50	5.30	
2025-01-14 04:33:55.22	1.47	5.31	
2025-01-14 04:33:55.43	1.44	5.32	
2025-01-14 04:33:55.63	1.41	5.32	
2025-01-14 04:33:55.85	1.37	5.33	
2025-01-14 04:33:56.05	1.34	5.34	
2025-01-14 04:33:56.26	1.31	5.35	
2025-01-14 04:33:56.47	1.28	5.36	
2025-01-14 04:33:56.68	1.25	5.36	
2025-01-14 04:33:56.88	1.22	5.37	
2025-01-14 04:33:57.09	1.19	5.38	
2025-01-14 04:33:57.30	1.16	5.39	
2025-01-14 04:33:57.50	1.13	5.39	
2025-01-14 04:33:57.71	1.09	5.40	
2025-01-14 04:33:57.91	1.06	5.41	
2025-01-14 04:33:58.12	1.03	5.42	
2025-01-14 04:33:58.32	1.00	5.42	
2025-01-14 04:33:58.53	0.97	5.43	
2025-01-14 04:33:58.73	0.94	5.44	
2025-01-14 04:33:58.94	0.91	5.44	
2025-01-14 04:33:59.14	0.88	5.45	
2025-01-14 04:33:59.34	0.85	5.46	
2025-01-14 04:33:59.55	0.82	5.47	
2025-01-14 04:33:59.76	0.78	5.47	
2025-01-14 04:33:59.96	0.75	5.48	
2025-01-14 04:34:00.18	0.72	5.49	
2025-01-14 04:34:00.39	0.69	5.50	
2025-01-14 04:34:00.59	0.66	5.50	
2025-01-14 04:34:00.80	0.63	5.51	
2025-01-14 04:34:01.00	0.59	5.52	
2025-01-14 04:34:01.22	0.56	5.53	
2025-01-14 04:34:01.43	0.53	5.53	
2025-01-14 04:34:01.63	0.50	5.54	
2025-01-14 04:34:01.84	0.47	5.55	
2025-01-14 04:34:02.04	0.44	5.56	
2025-01-14 04:34:02.24	0.41	5.56	
2025-01-14 04:34:02.45	0.37	5.57	
2025-01-14 04:34:02.65	0.34	5.58	
2025-01-14 04:34:02.86	0.31	5.59	
2025-01-14 04:34:03.06	0.28	5.59	
2025-01-14 04:34:03.27	0.25	5.60	
2025-01-14 04:34:03.47	0.22	5.61	
2025-01-14 04:34:03.68	0.18	5.61	
2025-01-14 04:34:03.88	0.15	5.62	
2025-01-14 04:34:04.09	0.12	5.63	
2025-01-14 04:34:04.29	0.09	5.64	
2025-01-14 04:34:04.49	0.06	5.64	
2025-01-14 04:34:04.70	0.03	5.65	
2025-01-14 04:34:04.91	360.00	5.66	
2025-01-14 04:34:05.11	359.96	5.67	
2025-01-14 04:34:05.32	359.93	5.67	
2025-01-14 04:34:05.54	359.90	5.68	
2025-01-14 04:34:05.74	359.87	5.69	
2025-01-14 04:34:05.95	359.83	5.70	
2025-01-14 04:34:06.15	359.80	5.70	
2025-01-14 04:34:06.36	359.77	5.71	
2025-01-14 04:34:06.56	359.74	5.72	
2025-01-14 04:34:06.77	359.71	5.72	
2025-01-14 04:34:06.97	359.68	5.73	
2025-01-14 04:34:07.18	359.64	5.74	
2025-01-14 04:34:07.38	359.61	5.75	
2025-01-14 04:34:07.59	359.58	5.75	
2025-01-14 04:34:07.79	359.55	5.76	
2025-01-14 04:34:08.00	359.52	5.77	
2025-01-14 04:34:08.20	359.49	5.77	
2025-01-14 04:34:08.41	359.45	5.78	
2025-01-14 04:34:08.61	359.42	5.79	
2025-01-14 04:34:08.82	359.39	5.80	
2025-01-14 04:34:09.02	359.36	5.80	
2025-01-14 04:34:09.23	359.33	5.81	
2025-01-14 04:34:09.43	359.29	5.82	
2025-01-14 04:34:09.64	359.26	5.82	
2025-01-14 04:34:09.84	359.23	5.83	
2025-01-14 04:34:10.05	359.20	5.84	
2025-01-14 04:34:10.25	359.17	5.85	
2025-01-14 04:34:10.46	359.13	5.85	
2025-01-14 04:34:10.66	359.10	5.86	
2025-01-14 04:34:10.87	359.07	5.87	
2025-01-14 04:34:11.07	359.04	5.87	
2025-01-14 04:34:11.28	359.01	5.88	
2025-01-14 04:34:11.48	358.97	5.89	
2025-01-14 04:34:11.69	358.94	5.90	
2025-01-14 04:34:11.89	358.91	5.90	
2025-01-14 04:34:12.10	358.88	5.91	
2025-01-14 04:34:12.30	358.85	5.92	
2025-01-14 04:34:12.51	358.81	5.92	
2025-01-14 04:34:12.71	358.78	5.93	
2025-01-14 04:34:12.92	358.75	5.94	
2025-01-14 04:34:13.12	358.72	5.94	
2025-01-14 04:34:13.33	358.68	5.95	
2025-01-14 04:34:13.53	358.65	5.96	
2025-01-14 04:34:13.74	358.62	5.97	
2025-01-14 04:34:13.95	358.59	5.97	
2025-01-14 04:34:14.16	358.55	5.98	
2025-01-14 04:34:14.36	358.52	5.99	
2025-01-14 04:34:14.57	358.49	5.99	
2025-01-14 04:34:14.77	358.46	6.00	
2025-01-14 04:34:14.98	358.42	6.01	
2025-01-14 04:34:15.19	358.39	6.02	
2025-01-14 04:34:15.39	358.36	6.02	
2025-01-14 04:34:15.60	358.32	6.03	
2025-01-14 04:34:15.80	358.29	6.04	
2025-01-14 04:34:16.01	358.26	6.04	
2025-01-14 04:34:16.21	358.23	6.05	
2025-01-14 04:34:16.42	358.19	6.06	
2025-01-14 04:34:16.63	358.16	6.06	
2025-01-14 04:34:16.83	358.13	6.07	
2025-01-14 04:34:17.04	358.10	6.08	
2025-01-14 04:34:17.24	358.06	6.08	
2025-01-14 04:34:17.44	358.03	6.09	
2025-01-14 04:34:17.65	358.00	6.10	
2025-01-14 04:34:17.85	357.97	6.11	
2025-01-14 04:34:18.06	357.93	6.11	
2025-01-14 04:34:18.26	357.90	6.12	
2025-01-14 04:34:18.47	357.87	6.13	
2025-01-14 04:34:18.68	357.83	6.13	
2025-01-14 04:34:18.88	357.80	6.14	
2025-01-14 04:34:19.09	357.77	6.15	
2025-01-14 04:34:19.29	357.74	6.15	
2025-01-14 04:34:19.50	357.70	6.16	
2025-01-14 04:34:19.70	357.67	6.17	
2025-01-14 04:34:19.91	357.64	6.17	
2025-01-14 04:34:20.11	357.61	6.18	
2025-01-14 04:34:20.32	357.57	6.19	
2025-01-14 04:34:20.52	357.54	6.19	
2025-01-14 04:34:20.73	357.51	6.20	
2025-01-14 04:34:20.93	357.47	6.21	
2025-01-14 04:34:21.14	357.44	6.22	
2025-01-14 04:34:21.34	357.41	6.22	
2025-01-14 04:34:21.54	357.38	6.23	
2025-01-14 04:34:21.75	357.34	6.24	
2025-01-14 04:34:21.96	357.31	6.24	
2025-01-14 04:34:22.16	357.28	6.25	
2025-01-14 04:34:22.37	357.24	6.26	
2025-01-14 04:34:22.57	357.21	6.26	
2025-01-14 04:34:22.77	357.18	6.27	
2025-01-14 04:34:22.98	357.14	6.28	
2025-01-14 04:34:23.18	357.11	6.28	
2025-01-14 04:34:23.39	357.08	6.29	
2025-01-14 04:34:23.60	357.04	6.30	
2025-01-14 04:34:23.81	357.01	6.30	
2025-01-14 04:34:24.02	356.98	6.31	
2025-01-14 04:34:24.22	356.94	6.32	
2025-01-14 04:34:24.43	356.91	6.32	
2025-01-14 04:34:24.63	356.88	6.33	
2025-01-14 04:34:24.84	356.84	6.34	
2025-01-14 04:34:25.04	356.81	6.34	
2025-01-14 04:34:25.25	356.78	6.35	
2025-01-14 04:34:25.45	356.74	6.36	
2025-01-14 04:34:25.66	356.71	6.36	
2025-01-14 04:34:25.88	356.67	6.37	
2025-01-14 04:34:26.08	356.64	6.38	
2025-01-14 04:34:26.29	356.61	6.38	
2025-01-14 04:34:26.49	356.57	6.39	
2025-01-14 04:34:26.70	356.54	6.40	
2025-01-14 04:34:26.90	356.51	6.40	
2025-01-14 04:34:27.11	356.47	6.41	
2025-01-14 04:34:27.32	356.44	6.42	
2025-01-14 04:34:27.52	356.41	6.42	
2025-01-14 04:34:27.73	356.37	6.43	
2025-01-14 04:34:27.93	356.34	6.44	
2025-01-14 04:34:28.14	356.30	6.44	
2025-01-14 04:34:28.34	356.27	6.45	
2025-01-14 04:34:28.55	356.24	6.46	
2025-01-14 04:34:28.75	356.20	6.46	
2025-01-14 04:34:28.95	356.17	6.47	
2025-01-14 04:34:29.16	356.14	6.48	
2025-01-14 04:34:29.37	356.10	6.48	
2025-01-14 04:34:29.57	356.07	6.49	
2025-01-14 04:34:29.78	356.04	6.50	
2025-01-14 04:34:29.98	356.00	6.50	
2025-01-14 04:34:30.20	355.97	6.51	
2025-01-14 04:34:30.41	355.93	6.52	
2025-01-14 04:34:30.61	355.90	6.52	
2025-01-14 04:34:30.82	355.86	6.53	
2025-01-14 04:34:31.02	355.83	6.54	
2025-01-14 04:34:31.23	355.80	6.54	
2025-01-14 04:34:31.43	355.76	6.55	
2025-01-14 04:34:31.64	355.73	6.55	
2025-01-14 04:34:31.84	355.70	6.56	
2025-01-14 04:34:32.05	355.66	6.57	
2025-01-14 04:34:32.25	355.63	6.57	
2025-01-14 04:34:32.46	355.59	6.58	
2025-01-14 04:34:32.66	355.56	6.59	
2025-01-14 04:34:32.87	355.53	6.59	
2025-01-14 04:34:33.07	355.49	6.60	
2025-01-14 04:34:33.28	355.46	6.61	
2025-01-14 04:34:33.48	355.43	6.61	
2025-01-14 04:34:33.69	355.39	6.62	
2025-01-14 04:34:33.89	355.36	6.63	
2025-01-14 04:34:34.10	355.32	6.63	
2025-01-14 04:34:34.30	355.29	6.64	
2025-01-14 04:34:34.50	355.26	6.64	
2025-01-14 04:34:34.71	355.22	6.65	
2025-01-14 04:34:34.92	355.19	6.66	
2025-01-14 04:34:35.12	355.15	6.66	
2025-01-14 04:34:35.33	355.12	6.67	
2025-01-14 04:34:35.53	355.08	6.68	
2025-01-14 04:34:35.74	355.05	6.68	
2025-01-14 04:34:35.94	355.02	6.69	
2025-01-14 04:34:36.15	354.98	6.69	
2025-01-14 04:34:36.35	354.95	6.70	
2025-01-14 04:34:36.56	354.91	6.71	
2025-01-14 04:34:36.76	354.88	6.71	
2025-01-14 04:34:36.98	354.84	6.72	
2025-01-14 04:34:37.18	354.81	6.73	
2025-01-14 04:34:37.39	354.77	6.73	
2025-01-14 04:34:37.61	354.74	6.74	
2025-01-14 04:34:37.81	354.70	6.75	
2025-01-14 04:34:38.02	354.67	6.75	
2025-01-14 04:34:38.23	354.63	6.76	
2025-01-14 04:34:38.43	354.60	6.76	
2025-01-14 04:34:38.63	354.57	6.77	
2025-01-14 04:34:38.84	354.53	6.78	
2025-01-14 04:34:39.04	354.50	6.78	
2025-01-14 04:34:39.25	354.46	6.79	
2025-01-14 04:34:39.45	354.43	6.80	
2025-01-14 04:34:39.66	354.39	6.80	
2025-01-14 04:34:39.86	354.36	6.81	
2025-01-14 04:34:40.07	354.32	6.81	
2025-01-14 04:34:40.27	354.29	6.82	
2025-01-14 04:34:40.48	354.26	6.83	
2025-01-14 04:34:40.68	354.22	6.83	
2025-01-14 04:34:40.89	354.19	6.84	
2025-01-14 04:34:41.10	354.15	6.84	
2025-01-14 04:34:41.30	354.12	6.85	
2025-01-14 04:34:41.51	354.08	6.86	
2025-01-14 04:34:41.71	354.05	6.86	
2025-01-14 04:34:41.91	354.01	6.87	
2025-01-14 04:34:42.12	353.98	6.88	
2025-01-14 04:34:42.33	353.94	6.88	
2025-01-14 04:34:42.53	353.91	6.89	
2025-01-14 04:34:42.74	353.87	6.89	
2025-01-14 04:34:42.94	353.84	6.90	
2025-01-14 04:34:43.15	353.80	6.91	
2025-01-14 04:34:43.35	353.77	6.91	
2025-01-14 04:34:43.56	353.73	6.92	
2025-01-14 04:34:43.76	353.70	6.92	
2025-01-14 04:34:43.97	353.67	6.93	
2025-01-14 04:34:44.17	353.63	6.94	
2025-01-14 04:34:44.38	353.60	6.94	
2025-01-14 04:34:44.58	353.56	6.95	
2025-01-14 04:34:44.79	353.53	6.95	
2025-01-14 04:34:44.99	353.49	6.96	
2025-01-14 04:34:45.20	353.46	6.97	
2025-01-14 04:34:45.41	353.42	6.97	
2025-01-14 04:34:45.61	353.39	6.98	
2025-01-14 04:34:45.82	353.35	6.98	
2025-01-14 04:34:46.02	353.32	6.99	
2025-01-14 04:34:46.23	353.28	7.00	
2025-01-14 04:34:46.43	353.25	7.00	
2025-01-14 04:34:46.64	353.21	7.01	
2025-01-14 04:34:46.84	353.18	7.01	
2025-01-14 04:34:47.05	353.14	7.02	
2025-01-14 04:34:47.25	353.11	7.02	
2025-01-14 04:34:47.46	353.07	7.03	
2025-01-14 04:34:47.66	353.04	7.04	
2025-01-14 04:34:47.87	353.00	7.04	
2025-01-14 04:34:48.08	352.96	7.05	
2025-01-14 04:34:48.28	352.93	7.05	
2025-01-14 04:34:48.49	352.89	7.06	
2025-01-14 04:34:48.69	352.86	7.07	
2025-01-14 04:34:48.90	352.82	7.07	
2025-01-14 04:34:49.10	352.79	7.08	
2025-01-14 04:34:49.31	352.75	7.08	
2025-01-14 04:34:49.51	352.72	7.09	
2025-01-14 04:34:49.72	352.68	7.10	
2025-01-14 04:34:49.92	352.65	7.10	
2025-01-14 04:34:50.13	352.61	7.11	
2025-01-14 04:34:50.33	352.58	7.11	
2025-01-14 04:34:50.54	352.54	7.12	
2025-01-14 04:34:50.74	352.51	7.12	
2025-01-14 04:34:50.95	352.47	7.13	
2025-01-14 04:34:51.15	352.44	7.14	
2025-01-14 04:34:51.35	352.40	7.14	
2025-01-14 04:34:51.56	352.37	7.15	
2025-01-14 04:34:51.77	352.33	7.15	
2025-01-14 04:34:51.97	352.29	7.16	
2025-01-14 04:34:52.18	352.26	7.16	
2025-01-14 04:34:52.38	352.22	7.17	
2025-01-14 04:34:52.58	352.19	7.18	
2025-01-14 04:34:52.79	352.15	7.18	
2025-01-14 04:34:52.99	352.12	7.19	
2025-01-14 04:34:53.20	352.08	7.19	
2025-01-14 04:34:53.40	352.05	7.20	
2025-01-14 04:34:53.61	352.01	7.20	
2025-01-14 04:34:53.81	351.98	7.21	
2025-01-14 04:34:54.02	351.94	7.21	
2025-01-14 04:34:54.22	351.91	7.22	
2025-01-14 04:34:54.43	351.87	7.23	
2025-01-14 04:34:54.63	351.83	7.23	
2025-01-14 04:34:54.84	351.80	7.24	
2025-01-14 04:34:55.04	351.76	7.24	
2025-01-14 04:34:55.25	351.73	7.25	
2025-01-14 04:34:55.45	351.69	7.25	
2025-01-14 04:34:55.65	351.66	7.26	
2025-01-14 04:34:55.86	351.62	7.26	
2025-01-14 04:34:56.06	351.59	7.27	
2025-01-14 04:34:56.27	351.55	7.28	
2025-01-14 04:34:56.48	351.51	7.28	
2025-01-14 04:34:56.68	351.48	7.29	
2025-01-14 04:34:56.89	351.44	7.29	
2025-01-14 04:34:57.09	351.41	7.30	
2025-01-14 04:34:57.30	351.37	7.30	
2025-01-14 04:34:57.50	351.33	7.31	
2025-01-14 04:34:57.71	351.30	7.31	
2025-01-14 04:34:57.91	351.26	7.32	
2025-01-14 04:34:58.12	351.23	7.33	
2025-01-14 04:34:58.32	351.19	7.33	
2025-01-14 04:34:58.53	351.15	7.34	
2025-01-14 04:34:58.73	351.12	7.34	
2025-01-14 04:34:58.94	351.08	7.35	
2025-01-14 04:34:59.14	351.05	7.35	
2025-01-14 04:34:59.35	351.01	7.36	
2025-01-14 04:34:59.55	350.97	7.36	
2025-01-14 04:34:59.76	350.94	7.37	
2025-01-14 04:34:59.96	350.90	7.37	
2025-01-14 04:35:00.17	350.87	7.38	
2025-01-14 04:35:00.37	350.83	7.38	
2025-01-14 04:35:00.58	350.79	7.39	
2025-01-14 04:35:00.78	350.76	7.40	
2025-01-14 04:35:01.00	350.72	7.40	
2025-01-14 04:35:01.21	350.68	7.41	
2025-01-14 04:35:01.41	350.65	7.41	
2025-01-14 04:35:01.62	350.61	7.42	
2025-01-14 04:35:01.83	350.57	7.42	
2025-01-14 04:35:02.03	350.54	7.43	
2025-01-14 04:35:02.23	350.50	7.43	
2025-01-14 04:35:02.44	350.47	7.44	
2025-01-14 04:35:02.65	350.43	7.44	
2025-01-14 04:35:02.85	350.39	7.45	
2025-01-14 04:35:03.05	350.36	7.45	
2025-01-14 04:35:03.26	350.32	7.46	
2025-01-14 04:35:03.47	350.28	7.46	
2025-01-14 04:35:03.67	350.25	7.47	
2025-01-14 04:35:03.88	350.21	7.48	
2025-01-14 04:35:04.08	350.18	7.48	
2025-01-14 04:35:04.29	350.14	7.49	
2025-01-14 04:35:04.49	350.10	7.49	
2025-01-14 04:35:04.70	350.07	7.50	
2025-01-14 04:35:04.90	350.03	7.50	
2025-01-14 04:35:05.11	349.99	7.51	
2025-01-14 04:35:05.31	349.96	7.51	
2025-01-14 04:35:05.52	349.92	7.52	
2025-01-14 04:35:05.72	349.89	7.52	
2025-01-14 04:35:05.93	349.85	7.53	
2025-01-14 04:35:06.13	349.81	7.53	
2025-01-14 04:35:06.34	349.78	7.54	
2025-01-14 04:35:06.54	349.74	7.54	
2025-01-14 04:35:06.75	349.70	7.55	
2025-01-14 04:35:06.96	349.67	7.55	
2025-01-14 04:35:07.16	349.63	7.56	
2025-01-14 04:35:07.37	349.59	7.56	
2025-01-14 04:35:07.57	349.56	7.57	
2025-01-14 04:35:07.78	349.52	7.57	
2025-01-14 04:35:07.98	349.48	7.58	
2025-01-14 04:35:08.19	349.45	7.58	
2025-01-14 04:35:08.39	349.41	7.59	
2025-01-14 04:35:08.60	349.37	7.59	
2025-01-14 04:35:08.80	349.34	7.60	
2025-01-14 04:35:09.01	349.30	7.60	
2025-01-14 04:35:09.21	349.26	7.61	
2025-01-14 04:35:09.42	349.23	7.61	
2025-01-14 04:35:09.62	349.19	7.62	
2025-01-14 04:35:09.82	349.15	7.62	
2025-01-14 04:35:10.03	349.12	7.63	
2025-01-14 04:35:10.23	349.08	7.63	
2025-01-14 04:35:10.44	349.04	7.64	
2025-01-14 04:35:10.64	349.01	7.64	
2025-01-14 04:35:10.85	348.97	7.65	
2025-01-14 04:35:11.05	348.93	7.65	
2025-01-14 04:35:11.26	348.90	7.66	
2025-01-14 04:35:11.46	348.86	7.66	
2025-01-14 04:35:11.66	348.82	7.67	
2025-01-14 04:35:11.87	348.79	7.67	
2025-01-14 04:35:12.07	348.75	7.68	
2025-01-14 04:35:12.28	348.71	7.68	
2025-01-14 04:35:12.48	348.68	7.69	
2025-01-14 04:35:12.69	348.64	7.69	
2025-01-14 04:35:12.90	348.60	7.70	
2025-01-14 04:35:13.10	348.57	7.70	
2025-01-14 04:35:13.31	348.53	7.70	
2025-01-14 04:35:13.51	348.49	7.71	
2025-01-14 04:35:13.72	348.45	7.71	
2025-01-14 04:35:13.94	348.41	7.72	
2025-01-14 04:35:14.14	348.38	7.72	
2025-01-14 04:35:14.35	348.34	7.73	
2025-01-14 04:35:14.55	348.30	7.73	
2025-01-14 04:35:14.76	348.27	7.74	
2025-01-14 04:35:14.96	348.23	7.74	
2025-01-14 04:35:15.17	348.19	7.75	
2025-01-14 04:35:15.37	348.16	7.75	
2025-01-14 04:35:15.58	348.12	7.76	
2025-01-14 04:35:15.78	348.08	7.76	
2025-01-14 04:35:15.98	348.05	7.77	
2025-01-14 04:35:16.19	348.01	7.77	
2025-01-14 04:35:16.40	347.97	7.78	
2025-01-14 04:35:16.60	347.93	7.78	
2025-01-14 04:35:16.81	347.90	7.78	
2025-01-14 04:35:17.01	347.86	7.79	
2025-01-14 04:35:17.22	347.82	7.79	
2025-01-14 04:35:17.42	347.79	7.80	
2025-01-14 04:35:17.63	347.75	7.80	
2025-01-14 04:35:17.83	347.71	7.81	
2025-01-14 04:35:18.03	347.67	7.81	
2025-01-14 04:35:18.24	347.64	7.82	
2025-01-14 04:35:18.45	347.60	7.82	
2025-01-14 04:35:18.65	347.56	7.83	
2025-01-14 04:35:18.86	347.52	7.83	
2025-01-14 04:35:19.06	347.49	7.83	
2025-01-14 04:35:19.27	347.45	7.84	
2025-01-14 04:35:19.47	347.41	7.84	
2025-01-14 04:35:19.68	347.37	7.85	
2025-01-14 04:35:19.88	347.34	7.85	
2025-01-14 04:35:20.09	347.30	7.86	
2025-01-14 04:35:20.29	347.26	7.86	
2025-01-14 04:35:20.50	347.23	7.87	
2025-01-14 04:35:20.70	347.19	7.87	
2025-01-14 04:35:20.91	347.15	7.87	
2025-01-14 04:35:21.11	347.11	7.88	
2025-01-14 04:35:21.32	347.08	7.88	
2025-01-14 04:35:21.52	347.04	7.89	
2025-01-14 04:35:21.73	347.00	7.89	
2025-01-14 04:35:21.93	346.96	7.90	
2025-01-14 04:35:22.14	346.93	7.90	
2025-01-14 04:35:22.36	346.89	7.91	
2025-01-14 04:35:22.56	346.85	7.91	
2025-01-14 04:35:22.77	346.81	7.91	
2025-01-14 04:35:22.97	346.77	7.92	
2025-01-14 04:35:23.18	346.74	7.92	
2025-01-14 04:35:23.40	346.70	7.93	
2025-01-14 04:35:23.60	346.66	7.93	
2025-01-14 04:35:23.81	346.62	7.94	
2025-01-14 04:35:24.01	346.58	7.94	
2025-01-14 04:35:24.22	346.54	7.94	
2025-01-14 04:35:24.42	346.51	7.95	
2025-01-14 04:35:24.63	346.47	7.95	
2025-01-14 04:35:24.83	346.43	7.96	
2025-01-14 04:35:25.04	346.39	7.96	
2025-01-14 04:35:25.25	346.36	7.97	
2025-01-14 04:35:25.45	346.32	7.97	
2025-01-14 04:35:25.65	346.28	7.97	
2025-01-14 04:35:25.86	346.24	7.98	
2025-01-14 04:35:26.07	346.20	7.98	
2025-01-14 04:35:26.27	346.17	7.99	
2025-01-14 04:35:26.47	346.13	7.99	
2025-01-14 04:35:26.69	346.09	8.00	
2025-01-14 04:35:26.90	346.05	8.00	
2025-01-14 04:35:27.10	346.02	8.00	
2025-01-14 04:35:27.31	345.98	8.01	
2025-01-14 04:35:27.52	345.94	8.01	
2025-01-14 04:35:27.72	345.90	8.02	
2025-01-14 04:35:27.92	345.86	8.02	
2025-01-14 04:35:28.13	345.83	8.02	
2025-01-14 04:35:28.34	345.79	8.03	
2025-01-14 04:35:28.54	345.75	8.03	
2025-01-14 04:35:28.74	345.71	8.04	
2025-01-14 04:35:28.95	345.67	8.04	
2025-01-14 04:35:29.16	345.64	8.04	
2025-01-14 04:35:29.36	345.60	8.05	
2025-01-14 04:35:29.57	345.56	8.05	
2025-01-14 04:35:29.77	345.52	8.06	
2025-01-14 04:35:29.98	345.48	8.06	
2025-01-14 04:35:30.18	345.45	8.06	
2025-01-14 04:35:30.39	345.41	8.07	
2025-01-14 04:35:30.59	345.37	8.07	
2025-01-14 04:35:30.80	345.33	8.08	
2025-01-14 04:35:31.00	345.29	8.08	
2025-01-14 04:35:31.21	345.26	8.08	
2025-01-14 04:35:31.42	345.22	8.09	
2025-01-14 04:35:31.62	345.18	8.09	
2025-01-14 04:35:31.83	345.14	8.10	
2025-01-14 04:35:32.03	345.10	8.10	
2025-01-14 04:35:32.24	345.06	8.10	
2025-01-14 04:35:32.44	345.03	8.11	
2025-01-14 04:35:32.65	344.99	8.11	
2025-01-14 04:35:32.87	344.95	8.11	
2025-01-14 04:35:33.08	344.91	8.12	
2025-01-14 04:35:33.29	344.87	8.12	
2025-01-14 04:35:33.49	344.83	8.13	
2025-01-14 04:35:33.70	344.79	8.13	
2025-01-14 04:35:33.91	344.75	8.13	
2025-01-14 04:35:34.12	344.72	8.14	
2025-01-14 04:35:34.32	344.68	8.14	
2025-01-14 04:35:34.53	344.64	8.15	
2025-01-14 04:35:34.73	344.60	8.15	
2025-01-14 04:35:34.94	344.56	8.15	
2025-01-14 04:35:35.15	344.52	8.16	
2025-01-14 04:35:35.36	344.48	8.16	
2025-01-14 04:35:35.56	344.45	8.16	
2025-01-14 04:35:35.77	344.41	8.17	
2025-01-14 04:35:35.98	344.37	8.17	
2025-01-14 04:35:36.18	344.33	8.18	
2025-01-14 04:35:36.39	344.29	8.18	
2025-01-14 04:35:36.59	344.25	8.18	
2025-01-14 04:35:36.80	344.22	8.19	
2025-01-14 04:35:37.00	344.18	8.19	
2025-01-14 04:35:37.20	344.14	8.19	
2025-01-14 04:35:37.41	344.10	8.20	
2025-01-14 04:35:37.62	344.06	8.20	
2025-01-14 04:35:37.82	344.02	8.20	
2025-01-14 04:35:38.03	343.99	8.21	
2025-01-14 04:35:38.23	343.95	8.21	
2025-01-14 04:35:38.44	343.91	8.21	
2025-01-14 04:35:38.64	343.87	8.22	
2025-01-14 04:35:38.85	343.83	8.22	
2025-01-14 04:35:39.05	343.79	8.22	
2025-01-14 04:35:39.26	343.76	8.23	
2025-01-14 04:35:39.46	343.72	8.23	
2025-01-14 04:35:39.67	343.68	8.24	
2025-01-14 04:35:39.87	343.64	8.24	
2025-01-14 04:35:40.08	343.60	8.24	
2025-01-14 04:35:40.28	343.56	8.25	
2025-01-14 04:35:40.50	343.52	8.25	
2025-01-14 04:35:40.71	343.48	8.25	
2025-01-14 04:35:40.91	343.45	8.26	
2025-01-14 04:35:41.12	343.41	8.26	
2025-01-14 04:35:41.32	343.37	8.26	
2025-01-14 04:35:41.54	343.33	8.27	
2025-01-14 04:35:41.74	343.29	8.27	
2025-01-14 04:35:41.95	343.25	8.27	
2025-01-14 04:35:42.15	343.21	8.28	
2025-01-14 04:35:42.36	343.17	8.28	
2025-01-14 04:35:42.56	343.14	8.28	
2025-01-14 04:35:42.77	343.10	8.29	
2025-01-14 04:35:42.98	343.06	8.29	
2025-01-14 04:35:43.18	343.02	8.29	
2025-01-14 04:35:43.39	342.98	8.30	
2025-01-14 04:35:43.59	342.94	8.30	
2025-01-14 04:35:43.79	342.90	8.30	
2025-01-14 04:35:44.00	342.86	8.31	
2025-01-14 04:35:44.20	342.83	8.31	
2025-01-14 04:35:44.41	342.79	8.31	
2025-01-14 04:35:44.62	342.75	8.32	
2025-01-14 04:35:44.82	342.71	8.32	
2025-01-14 04:35:45.03	342.67	8.32	
2025-01-14 04:35:45.23	342.63	8.33	
2025-01-14 04:35:45.43	342.59	8.33	
2025-01-14 04:35:45.64	342.55	8.33	
2025-01-14 04:35:45.86	342.51	8.33	
2025-01-14 04:35:46.06	342.48	8.34	
2025-01-14 04:35:46.27	342.44	8.34	
2025-01-14 04:35:46.47	342.40	8.34	
2025-01-14 04:35:46.68	342.36	8.35	
2025-01-14 04:35:46.88	342.32	8.35	
2025-01-14 04:35:47.09	342.28	8.35	
2025-01-14 04:35:47.29	342.24	8.36	
2025-01-14 04:35:47.50	342.20	8.36	
2025-01-14 04:35:47.71	342.16	8.36	
2025-01-14 04:35:47.93	342.12	8.37	
2025-01-14 04:35:48.13	342.08	8.37	
2025-01-14 04:35:48.34	342.04	8.37	
2025-01-14 04:35:48.54	342.01	8.37	
2025-01-14 04:35:48.75	341.97	8.38	
2025-01-14 04:35:48.95	341.93	8.38	
2025-01-14 04:35:49.16	341.89	8.38	
2025-01-14 04:35:49.36	341.85	8.39	
2025-01-14 04:35:49.56	341.81	8.39	
2025-01-14 04:35:49.77	341.77	8.39	
2025-01-14 04:35:49.97	341.73	8.39	
2025-01-14 04:35:50.18	341.69	8.40	
2025-01-14 04:35:50.38	341.66	8.40	
2025-01-14 04:35:50.59	341.62	8.40	
2025-01-14 04:35:50.79	341.58	8.41	
2025-01-14 04:35:51.00	341.54	8.41	
2025-01-14 04:35:51.20	341.50	8.41	
2025-01-14 04:35:51.41	341.46	8.41	
2025-01-14 04:35:51.62	341.42	8.42	
2025-01-14 04:35:51.83	341.38	8.42	
2025-01-14 04:35:52.03	341.34	8.42	
2025-01-14 04:35:52.24	341.30	8.43	
2025-01-14 04:35:52.44	341.27	8.43	
2025-01-14 04:35:52.65	341.23	8.43	
2025-01-14 04:35:52.85	341.19	8.43	
2025-01-14 04:35:53.06	341.15	8.44	
2025-01-14 04:35:53.26	341.11	8.44	
2025-01-14 04:35:53.47	341.07	8.44	
2025-01-14 04:35:53.67	341.03	8.45	
2025-01-14 04:35:53.88	340.99	8.45	
2025-01-14 04:35:54.08	340.95	8.45	
2025-01-14 04:35:54.30	340.91	8.45	
2025-01-14 04:35:54.50	340.87	8.46	
2025-01-14 04:35:54.71	340.83	8.46	
2025-01-14 04:35:54.92	340.79	8.46	
2025-01-14 04:35:55.12	340.75	8.46	
2025-01-14 04:35:55.33	340.71	8.47	
2025-01-14 04:35:55.53	340.68	8.47	
2025-01-14 04:35:55.73	340.64	8.47	
2025-01-14 04:35:55.94	340.60	8.47	
2025-01-14 04:35:56.15	340.56	8.48	
2025-01-14 04:35:56.35	340.52	8.48	
2025-01-14 04:35:56.57	340.48	8.48	
2025-01-14 04:35:56.77	340.44	8.48	
2025-01-14 04:35:56.98	340.40	8.49	
2025-01-14 04:35:57.18	340.36	8.49	
2025-01-14 04:35:57.39	340.32	8.49	
2025-01-14 04:35:57.59	340.28	8.49	
2025-01-14 04:35:57.80	340.24	8.50	
2025-01-14 04:35:58.00	340.20	8.50	
2025-01-14 04:35:58.21	340.16	8.50	
2025-01-14 04:35:58.41	340.13	8.50	
2025-01-14 04:35:58.62	340.09	8.51	
2025-01-14 04:35:58.82	340.05	8.51	
2025-01-14 04:35:59.03	340.01	8.51	
2025-01-14 04:35:59.23	339.97	8.51	
2025-01-14 04:35:59.43	339.93	8.52	
2025-01-14 04:35:59.64	339.89	8.52	
2025-01-14 04:35:59.84	339.85	8.52	
2025-01-14 04:36:00.04	339.81	8.52	
2025-01-14 04:36:00.25	339.77	8.53	
2025-01-14 04:36:00.45	339.74	8.53	
2025-01-14 04:36:00.66	339.69	8.53	
2025-01-14 04:36:00.86	339.66	8.53	
2025-01-14 04:36:01.07	339.62	8.53	
2025-01-14 04:36:01.27	339.58	8.54	
2025-01-14 04:36:01.48	339.54	8.54	
2025-01-14 04:36:01.68	339.50	8.54	
2025-01-14 04:36:01.89	339.46	8.54	
2025-01-14 04:36:02.09	339.42	8.55	
2025-01-14 04:36:02.30	339.38	8.55	
2025-01-14 04:36:02.51	339.34	8.55	
2025-01-14 04:36:02.71	339.30	8.55	
2025-01-14 04:36:02.92	339.26	8.55	
2025-01-14 04:36:03.12	339.22	8.56	
2025-01-14 04:36:03.33	339.18	8.56	
2025-01-14 04:36:03.53	339.14	8.56	
2025-01-14 04:36:03.74	339.10	8.56	
2025-01-14 04:36:03.96	339.06	8.57	
2025-01-14 04:36:04.16	339.02	8.57	
2025-01-14 04:36:04.37	338.98	8.57	
2025-01-14 04:36:04.58	338.94	8.57	
2025-01-14 04:36:04.78	338.90	8.57	
2025-01-14 04:36:04.98	338.87	8.58	
2025-01-14 04:36:05.19	338.82	8.58	
2025-01-14 04:36:05.39	338.79	8.58	
2025-01-14 04:36:05.60	338.75	8.58	
2025-01-14 04:36:05.81	338.71	8.58	
2025-01-14 04:36:06.01	338.67	8.59	
2025-01-14 04:36:06.21	338.63	8.59	
2025-01-14 04:36:06.42	338.59	8.59	
2025-01-14 04:36:06.62	338.55	8.59	
2025-01-14 04:36:06.83	338.51	8.59	
2025-01-14 04:36:07.03	338.47	8.60	
2025-01-14 04:36:07.24	338.43	8.60	
2025-01-14 04:36:07.44	338.39	8.60	
2025-01-14 04:36:07.65	338.35	8.60	
2025-01-14 04:36:07.85	338.31	8.60	
2025-01-14 04:36:08.06	338.27	8.60	
2025-01-14 04:36:08.26	338.23	8.61	
2025-01-14 04:36:08.46	338.19	8.61	
2025-01-14 04:36:08.67	338.15	8.61	
2025-01-14 04:36:08.87	338.12	8.61	
2025-01-14 04:36:09.08	338.07	8.61	
2025-01-14 04:36:09.28	338.04	8.62	
2025-01-14 04:36:09.49	338.00	8.62	
2025-01-14 04:36:09.69	337.96	8.62	
2025-01-14 04:36:09.90	337.92	8.62	
2025-01-14 04:36:10.11	337.88	8.62	
2025-01-14 04:36:10.31	337.84	8.62	
2025-01-14 04:36:10.52	337.80	8.63	
2025-01-14 04:36:10.72	337.76	8.63	
2025-01-14 04:36:10.93	337.72	8.63	
2025-01-14 04:36:11.13	337.68	8.63	
2025-01-14 04:36:11.34	337.64	8.63	
2025-01-14 04:36:11.54	337.60	8.63	
2025-01-14 04:36:11.75	337.56	8.64	
2025-01-14 04:36:11.95	337.52	8.64	
2025-01-14 04:36:12.16	337.48	8.64	
2025-01-14 04:36:12.36	337.44	8.64	
2025-01-14 04:36:12.57	337.40	8.64	
2025-01-14 04:36:12.77	337.36	8.64	
2025-01-14 04:36:12.98	337.32	8.65	
2025-01-14 04:36:13.18	337.28	8.65	
2025-01-14 04:36:13.39	337.24	8.65	
2025-01-14 04:36:13.59	337.20	8.65	
2025-01-14 04:36:13.80	337.16	8.65	
2025-01-14 04:36:14.00	337.12	8.65	
2025-01-14 04:36:14.21	337.08	8.66	
2025-01-14 04:36:14.41	337.04	8.66	
2025-01-14 04:36:14.62	337.00	8.66	
2025-01-14 04:36:14.82	336.96	8.66	
2025-01-14 04:36:15.03	336.92	8.66	
2025-01-14 04:36:15.23	336.89	8.66	
2025-01-14 04:36:15.44	336.84	8.66	
2025-01-14 04:36:15.66	336.80	8.67	
2025-01-14 04:36:15.86	336.76	8.67	
2025-01-14 04:36:16.07	336.72	8.67	
2025-01-14 04:36:16.28	336.68	8.67	
2025-01-14 04:36:16.48	336.64	8.67	
2025-01-14 04:36:16.69	336.60	8.67	
2025-01-14 04:36:16.89	336.56	8.67	
2025-01-14 04:36:17.10	336.52	8.68	
2025-01-14 04:36:17.30	336.48	8.68	
2025-01-14 04:36:17.51	336.44	8.68	
2025-01-14 04:36:17.71	336.40	8.68	
2025-01-14 04:36:17.92	336.36	8.68	
2025-01-14 04:36:18.12	336.33	8.68	
2025-01-14 04:36:18.33	336.28	8.68	
2025-01-14 04:36:18.54	336.24	8.68	
2025-01-14 04:36:18.75	336.20	8.69	
2025-01-14 04:36:18.96	336.16	8.69	
2025-01-14 04:36:19.16	336.12	8.69	
2025-01-14 04:36:19.37	336.08	8.69	
2025-01-14 04:36:19.57	336.04	8.69	
2025-01-14 04:36:19.78	336.00	8.69	
2025-01-14 04:36:19.98	335.96	8.69	
2025-01-14 04:36:20.19	335.92	8.69	
2025-01-14 04:36:20.39	335.88	8.69	
2025-01-14 04:36:20.60	335.84	8.70	
2025-01-14 04:36:20.80	335.81	8.70	
2025-01-14 04:36:21.02	335.76	8.70	
2025-01-14 04:36:21.23	335.72	8.70	
2025-01-14 04:36:21.43	335.68	8.70	
2025-01-14 04:36:21.64	335.64	8.70	
2025-01-14 04:36:21.84	335.60	8.70	
2025-01-14 04:36:22.04	335.56	8.70	
2025-01-14 04:36:22.25	335.52	8.70	
2025-01-14 04:36:22.46	335.48	8.71	
2025-01-14 04:36:22.66	335.44	8.71	
2025-01-14 04:36:22.87	335.40	8.71	
2025-01-14 04:36:23.07	335.36	8.71	
2025-01-14 04:36:23.28	335.32	8.71	
2025-01-14 04:36:23.48	335.28	8.71	
2025-01-14 04:36:23.69	335.24	8.71	
2025-01-14 04:36:23.89	335.20	8.71	
2025-01-14 04:36:24.10	335.16	8.71	
2025-01-14 04:36:24.30	335.12	8.71	
2025-01-14 04:36:24.51	335.08	8.71	
2025-01-14 04:36:24.72	335.04	8.72	
2025-01-14 04:36:24.92	335.00	8.72	
2025-01-14 04:36:25.13	334.96	8.72	
2025-01-14 04:36:25.33	334.92	8.72	
2025-01-14 04:36:25.54	334.88	8.72	
2025-01-14 04:36:25.74	334.84	8.72	
2025-01-14 04:36:25.94	334.81	8.72	
2025-01-14 04:36:26.15	334.76	8.72	
2025-01-14 04:36:26.36	334.72	8.72	
2025-01-14 04:36:26.56	334.68	8.72	
2025-01-14 04:36:26.77	334.64	8.72	
2025-01-14 04:36:26.97	334.61	8.72	
2025-01-14 04:36:27.18	334.56	8.73	
2025-01-14 04:36:27.40	334.52	8.73	
2025-01-14 04:36:27.60	334.48	8.73	
2025-01-14 04:36:27.81	334.44	8.73	
2025-01-14 04:36:28.01	334.40	8.73	
2025-01-14 04:36:28.22	334.36	8.73	
2025-01-14 04:36:28.44	334.32	8.73	
2025-01-14 04:36:28.65	334.28	8.73	
2025-01-14 04:36:28.85	334.24	8.73	
2025-01-14 04:36:29.06	334.20	8.73	
2025-01-14 04:36:29.26	334.16	8.73	
2025-01-14 04:36:29.47	334.12	8.73	
2025-01-14 04:36:29.67	334.08	8.73	
2025-01-14 04:36:29.87	334.04	8.73	
2025-01-14 04:36:30.08	334.00	8.73	
2025-01-14 04:36:30.29	333.96	8.73	
2025-01-14 04:36:30.49	333.92	8.74	
2025-01-14 04:36:30.69	333.88	8.74	
2025-01-14 04:36:30.90	333.84	8.74	
2025-01-14 04:36:31.11	333.80	8.74	
2025-01-14 04:36:31.31	333.76	8.74	
2025-01-14 04:36:31.52	333.72	8.74	
2025-01-14 04:36:31.72	333.68	8.74	
2025-01-14 04:36:31.92	333.64	8.74	
2025-01-14 04:36:32.13	333.60	8.74	
2025-01-14 04:36:32.33	333.56	8.74	
2025-01-14 04:36:32.54	333.52	8.74	
2025-01-14 04:36:32.74	333.48	8.74	
2025-01-14 04:36:32.95	333.44	8.74	
2025-01-14 04:36:33.15	333.40	8.74	
2025-01-14 04:36:33.36	333.36	8.74	
2025-01-14 04:36:33.56	333.32	8.74	
2025-01-14 04:36:33.77	333.28	8.74	
2025-01-14 04:36:33.97	333.24	8.74	
2025-01-14 04:36:34.18	333.20	8.74	
2025-01-14 04:36:34.39	333.16	8.74	
2025-01-14 04:36:34.59	333.12	8.74	
2025-01-14 04:36:34.79	333.08	8.74	
2025-01-14 04:36:35.00	333.04	8.74	
2025-01-14 04:36:35.20	333.00	8.74	
2025-01-14 04:36:35.41	332.96	8.74	
2025-01-14 04:36:35.61	332.92	8.74	
2025-01-14 04:36:35.83	332.88	8.74	
2025-01-14 04:36:36.03	332.84	8.74	
2025-01-14 04:36:36.24	332.80	8.75	
2025-01-14 04:36:36.44	332.76	8.75	
2025-01-14 04:36:36.65	332.72	8.75	
2025-01-14 04:36:36.85	332.68	8.75	
2025-01-14 04:36:37.07	332.64	8.75	
2025-01-14 04:36:37.27	332.60	8.75	
2025-01-14 04:36:37.48	332.56	8.75	
2025-01-14 04:36:37.68	332.52	8.75	
2025-01-14 04:36:37.89	332.48	8.75	
2025-01-14 04:36:38.09	332.44	8.75	
2025-01-14 04:36:38.30	332.40	8.75	
2025-01-14 04:36:38.51	332.36	8.75	
2025-01-14 04:36:38.71	332.32	8.75	
2025-01-14 04:36:38.92	332.28	8.75	
2025-01-14 04:36:39.12	332.24	8.75	
2025-01-14 04:36:39.33	332.20	8.75	
2025-01-14 04:36:39.53	332.16	8.75	
2025-01-14 04:36:39.74	332.12	8.75	
2025-01-14 04:36:39.94	332.08	8.75	
2025-01-14 04:36:40.15	332.04	8.75	
2025-01-14 04:36:40.35	332.00	8.75	
2025-01-14 04:36:40.56	331.96	8.75	
2025-01-14 04:36:40.76	331.92	8.75	
2025-01-14 04:36:40.97	331.88	8.75	
2025-01-14 04:36:41.17	331.84	8.75	
2025-01-14 04:36:41.38	331.80	8.75	
2025-01-14 04:36:41.58	331.76	8.75	
2025-01-14 04:36:41.79	331.72	8.75	
2025-01-14 04:36:41.99	331.68	8.74	
2025-01-14 04:36:42.20	331.64	8.74	
2025-01-14 04:36:42.40	331.60	8.74	
2025-01-14 04:36:42.61	331.56	8.74	
2025-01-14 04:36:42.82	331.52	8.74	
2025-01-14 04:36:43.02	331.48	8.74	
2025-01-14 04:36:43.23	331.44	8.74	
2025-01-14 04:36:43.43	331.40	8.74	
2025-01-14 04:36:43.64	331.36	8.74	
2025-01-14 04:36:43.84	331.32	8.74	
2025-01-14 04:36:44.05	331.28	8.74	
2025-01-14 04:36:44.25	331.24	8.74	
2025-01-14 04:36:44.46	331.20	8.74	
2025-01-14 04:36:44.66	331.16	8.74	
2025-01-14 04:36:44.87	331.12	8.74	
2025-01-14 04:36:45.07	331.08	8.74	
2025-01-14 04:36:45.28	331.04	8.74	
2025-01-14 04:36:45.48	331.00	8.74	
2025-01-14 04:36:45.69	330.96	8.74	
2025-01-14 04:36:45.89	330.92	8.74	
2025-01-14 04:36:46.10	330.88	8.74	
2025-01-14 04:36:46.31	330.84	8.74	
2025-01-14 04:36:46.51	330.80	8.74	
2025-01-14 04:36:46.72	330.76	8.74	
2025-01-14 04:36:46.92	330.72	8.74	
2025-01-14 04:36:47.13	330.68	8.74	
2025-01-14 04:36:47.33	330.64	8.74	
2025-01-14 04:36:47.54	330.60	8.74	
2025-01-14 04:36:47.74	330.56	8.73	
2025-01-14 04:36:47.95	330.52	8.73	
2025-01-14 04:36:48.15	330.48	8.73	
2025-01-14 04:36:48.36	330.44	8.73	
2025-01-14 04:36:48.57	330.40	8.73	
2025-01-14 04:36:48.77	330.36	8.73	
2025-01-14 04:36:48.98	330.32	8.73	
2025-01-14 04:36:49.18	330.28	8.73	
2025-01-14 04:36:49.39	330.24	8.73	
2025-01-14 04:36:49.59	330.20	8.73	
2025-01-14 04:36:49.80	330.16	8.73	
2025-01-14 04:36:50.00	330.12	8.73	
2025-01-14 04:36:50.21	330.08	8.73	
2025-01-14 04:36:50.41	330.04	8.73	
2025-01-14 04:36:50.62	330.00	8.73	
2025-01-14 04:36:50.82	329.96	8.73	
2025-01-14 04:36:51.03	329.92	8.72	
2025-01-14 04:36:51.23	329.88	8.72	
2025-01-14 04:36:51.44	329.84	8.72	
2025-01-14 04:36:51.64	329.80	8.72	
2025-01-14 04:36:51.85	329.76	8.72	
2025-01-14 04:36:52.05	329.72	8.72	
2025-01-14 04:36:52.26	329.68	8.72	
2025-01-14 04:36:52.46	329.64	8.72	
2025-01-14 04:36:52.67	329.60	8.72	
2025-01-14 04:36:52.87	329.56	8.72	
2025-01-14 04:36:53.08	329.52	8.72	
2025-01-14 04:36:53.28	329.48	8.72	
2025-01-14 04:36:53.49	329.44	8.72	
2025-01-14 04:36:53.69	329.40	8.71	
2025-01-14 04:36:53.90	329.36	8.71	
2025-01-14 04:36:54.10	329.32	8.71	
2025-01-14 04:36:54.30	329.28	8.71	
2025-01-14 04:36:54.51	329.24	8.71	
2025-01-14 04:36:54.72	329.20	8.71	
2025-01-14 04:36:54.92	329.16	8.71	
2025-01-14 04:36:55.14	329.12	8.71	
2025-01-14 04:36:55.35	329.08	8.71	
2025-01-14 04:36:55.55	329.04	8.71	
2025-01-14 04:36:55.76	329.00	8.70	
2025-01-14 04:36:55.96	328.96	8.70	
2025-01-14 04:36:56.16	328.92	8.70	
2025-01-14 04:36:56.37	328.88	8.70	
2025-01-14 04:36:56.57	328.84	8.70	
2025-01-14 04:36:56.78	328.80	8.70	
2025-01-14 04:36:56.98	328.76	8.70	
2025-01-14 04:36:57.19	328.72	8.70	
2025-01-14 04:36:57.39	328.68	8.70	
2025-01-14 04:36:57.60	328.64	8.70	
2025-01-14 04:36:57.80	328.60	8.69	
2025-01-14 04:36:58.01	328.56	8.69	
2025-01-14 04:36:58.21	328.52	8.69	
2025-01-14 04:36:58.42	328.48	8.69	
2025-01-14 04:36:58.62	328.44	8.69	
2025-01-14 04:36:58.83	328.40	8.69	
2025-01-14 04:36:59.03	328.36	8.69	
2025-01-14 04:36:59.24	328.32	8.69	
2025-01-14 04:36:59.44	328.28	8.68	
2025-01-14 04:36:59.65	328.24	8.68	
2025-01-14 04:36:59.85	328.20	8.68	
2025-01-14 04:37:00.06	328.16	8.68	
2025-01-14 04:37:00.27	328.12	8.68	
2025-01-14 04:37:00.47	328.08	8.68	
2025-01-14 04:37:00.67	328.04	8.68	
2025-01-14 04:37:00.88	328.00	8.68	
2025-01-14 04:37:01.08	327.96	8.67	
2025-01-14 04:37:01.29	327.92	8.67	
2025-01-14 04:37:01.49	327.88	8.67	
2025-01-14 04:37:01.70	327.84	8.67	
2025-01-14 04:37:01.90	327.80	8.67	
2025-01-14 04:37:02.10	327.76	8.67	
2025-01-14 04:37:02.31	327.72	8.67	
2025-01-14 04:37:02.51	327.68	8.66	
2025-01-14 04:37:02.72	327.64	8.66	
2025-01-14 04:37:02.92	327.61	8.66	
2025-01-14 04:37:03.13	327.56	8.66	
2025-01-14 04:37:03.33	327.53	8.66	
2025-01-14 04:37:03.54	327.49	8.66	
2025-01-14 04:37:03.74	327.45	8.66	
2025-01-14 04:37:03.95	327.41	8.65	
2025-01-14 04:37:04.15	327.37	8.65	
2025-01-14 04:37:04.36	327.33	8.65	
2025-01-14 04:37:04.56	327.29	8.65	
2025-01-14 04:37:04.77	327.25	8.65	
2025-01-14 04:37:04.97	327.21	8.65	
2025-01-14 04:37:05.18	327.17	8.65	
2025-01-14 04:37:05.38	327.13	8.64	
2025-01-14 04:37:05.59	327.09	8.64	
2025-01-14 04:37:05.79	327.05	8.64	
2025-01-14 04:37:06.00	327.01	8.64	
2025-01-14 04:37:06.21	326.97	8.64	
2025-01-14 04:37:06.41	326.93	8.64	
2025-01-14 04:37:06.62	326.89	8.63	
2025-01-14 04:37:06.82	326.85	8.63	
2025-01-14 04:37:07.03	326.81	8.63	
2025-01-14 04:37:07.23	326.77	8.63	
2025-01-14 04:37:07.44	326.73	8.63	
2025-01-14 04:37:07.64	326.69	8.63	
2025-01-14 04:37:07.84	326.65	8.62	
2025-01-14 04:37:08.05	326.61	8.62	
2025-01-14 04:37:08.26	326.57	8.62	
2025-01-14 04:37:08.46	326.53	8.62	
2025-01-14 04:37:08.67	326.49	8.62	
2025-01-14 04:37:08.87	326.45	8.62	
2025-01-14 04:37:09.08	326.41	8.61	
2025-01-14 04:37:09.28	326.37	8.61	
2025-01-14 04:37:09.49	326.33	8.61	
2025-01-14 04:37:09.69	326.30	8.61	
2025-01-14 04:37:09.90	326.26	8.61	
2025-01-14 04:37:10.10	326.22	8.60	
2025-01-14 04:37:10.31	326.18	8.60	
2025-01-14 04:37:10.51	326.14	8.60	
2025-01-14 04:37:10.72	326.10	8.60	
2025-01-14 04:37:10.92	326.06	8.60	
2025-01-14 04:37:11.13	326.02	8.59	
2025-01-14 04:37:11.33	325.98	8.59	
2025-01-14 04:37:11.54	325.94	8.59	
2025-01-14 04:37:11.74	325.90	8.59	
2025-01-14 04:37:11.94	325.86	8.59	
2025-01-14 04:37:12.15	325.82	8.58	
2025-01-14 04:37:12.35	325.78	8.58	
2025-01-14 04:37:12.56	325.74	8.58	
2025-01-14 04:37:12.76	325.70	8.58	
2025-01-14 04:37:12.97	325.66	8.58	
2025-01-14 04:37:13.17	325.62	8.57	
2025-01-14 04:37:13.38	325.58	8.57	
2025-01-14 04:37:13.58	325.55	8.57	
2025-01-14 04:37:13.79	325.51	8.57	
2025-01-14 04:37:13.99	325.47	8.57	
2025-01-14 04:37:14.20	325.43	8.56	
2025-01-14 04:37:14.40	325.39	8.56	
2025-01-14 04:37:14.61	325.35	8.56	
2025-01-14 04:37:14.81	325.31	8.56	
2025-01-14 04:37:15.02	325.27	8.56	
2025-01-14 04:37:15.22	325.23	8.55	
2025-01-14 04:37:15.42	325.19	8.55	
2025-01-14 04:37:15.63	325.15	8.55	
2025-01-14 04:37:15.83	325.11	8.55	
2025-01-14 04:37:16.04	325.07	8.55	
2025-01-14 04:37:16.24	325.03	8.54	
2025-01-14 04:37:16.46	324.99	8.54	
2025-01-14 04:37:16.67	324.95	8.54	
2025-01-14 04:37:16.87	324.91	8.54	
2025-01-14 04:37:17.08	324.87	8.53	
2025-01-14 04:37:17.28	324.83	8.53	
2025-01-14 04:37:17.49	324.79	8.53	
2025-01-14 04:37:17.69	324.76	8.53	
2025-01-14 04:37:17.90	324.72	8.52	
2025-01-14 04:37:18.10	324.68	8.52	
2025-01-14 04:37:18.31	324.64	8.52	
2025-01-14 04:37:18.51	324.60	8.52	
2025-01-14 04:37:18.71	324.56	8.52	
2025-01-14 04:37:18.92	324.52	8.51	
2025-01-14 04:37:19.12	324.48	8.51	
2025-01-14 04:37:19.33	324.44	8.51	
2025-01-14 04:37:19.53	324.40	8.51	
2025-01-14 04:37:19.74	324.36	8.50	
2025-01-14 04:37:19.94	324.32	8.50	
2025-01-14 04:37:20.15	324.28	8.50	
2025-01-14 04:37:20.35	324.25	8.50	
2025-01-14 04:37:20.55	324.21	8.49	
2025-01-14 04:37:20.76	324.17	8.49	
2025-01-14 04:37:20.96	324.13	8.49	
2025-01-14 04:37:21.17	324.09	8.49	
2025-01-14 04:37:21.37	324.05	8.48	
2025-01-14 04:37:21.58	324.01	8.48	
2025-01-14 04:37:21.78	323.97	8.48	
2025-01-14 04:37:21.98	323.93	8.48	
2025-01-14 04:37:22.19	323.89	8.47	
2025-01-14 04:37:22.40	323.85	8.47	
2025-01-14 04:37:22.60	323.82	8.47	
2025-01-14 04:37:22.82	323.77	8.47	
2025-01-14 04:37:23.02	323.74	8.46	
2025-01-14 04:37:23.23	323.69	8.46	
2025-01-14 04:37:23.43	323.66	8.46	
2025-01-14 04:37:23.64	323.62	8.46	
2025-01-14 04:37:23.84	323.58	8.45	
2025-01-14 04:37:24.05	323.54	8.45	
2025-01-14 04:37:24.25	323.50	8.45	
2025-01-14 04:37:24.46	323.46	8.44	
2025-01-14 04:37:24.66	323.42	8.44	
2025-01-14 04:37:24.87	323.38	8.44	
2025-01-14 04:37:25.07	323.34	8.44	
2025-01-14 04:37:25.28	323.30	8.43	
2025-01-14 04:37:25.48	323.27	8.43	
2025-01-14 04:37:25.69	323.23	8.43	
2025-01-14 04:37:25.89	323.19	8.43	
2025-01-14 04:37:26.10	323.15	8.42	
2025-01-14 04:37:26.31	323.11	8.42	
2025-01-14 04:37:26.51	323.07	8.42	
2025-01-14 04:37:26.71	323.03	8.41	
2025-01-14 04:37:26.92	322.99	8.41	
2025-01-14 04:37:27.12	322.95	8.41	
2025-01-14 04:37:27.33	322.91	8.41	
2025-01-14 04:37:27.53	322.88	8.40	
2025-01-14 04:37:27.74	322.84	8.40	
2025-01-14 04:37:27.95	322.80	8.40	
2025-01-14 04:37:28.15	322.76	8.39	
2025-01-14 04:37:28.36	322.72	8.39	
2025-01-14 04:37:28.56	322.68	8.39	
2025-01-14 04:37:28.77	322.64	8.39	
2025-01-14 04:37:28.97	322.60	8.38	
2025-01-14 04:37:29.19	322.56	8.38	
2025-01-14 04:37:29.40	322.52	8.38	
2025-01-14 04:37:29.60	322.48	8.37	
2025-01-14 04:37:29.81	322.44	8.37	
2025-01-14 04:37:30.01	322.40	8.37	
2025-01-14 04:37:30.21	322.37	8.36	
2025-01-14 04:37:30.42	322.33	8.36	
2025-01-14 04:37:30.63	322.29	8.36	
2025-01-14 04:37:30.83	322.25	8.36	
2025-01-14 04:37:31.04	322.21	8.35	
2025-01-14 04:37:31.24	322.17	8.35	
2025-01-14 04:37:31.45	322.13	8.35	
2025-01-14 04:37:31.65	322.09	8.34	
2025-01-14 04:37:31.86	322.05	8.34	
2025-01-14 04:37:32.07	322.01	8.34	
2025-01-14 04:37:32.27	321.98	8.33	
2025-01-14 04:37:32.48	321.94	8.33	
2025-01-14 04:37:32.68	321.90	8.33	
2025-01-14 04:37:32.89	321.86	8.32	
2025-01-14 04:37:33.09	321.82	8.32	
2025-01-14 04:37:33.30	321.78	8.32	
2025-01-14 04:37:33.50	321.74	8.31	
2025-01-14 04:37:33.70	321.71	8.31	
2025-01-14 04:37:33.91	321.67	8.31	
2025-01-14 04:37:34.11	321.63	8.31	
2025-01-14 04:37:34.32	321.59	8.30	
2025-01-14 04:37:34.52	321.55	8.30	
2025-01-14 04:37:34.73	321.51	8.30	
2025-01-14 04:37:34.93	321.47	8.29	
2025-01-14 04:37:35.14	321.43	8.29	
2025-01-14 04:37:35.34	321.40	8.29	
2025-01-14 04:37:35.55	321.36	8.28	
2025-01-14 04:37:35.75	321.32	8.28	
2025-01-14 04:37:35.96	321.28	8.28	
2025-01-14 04:37:36.16	321.24	8.27	
2025-01-14 04:37:36.37	321.20	8.27	
2025-01-14 04:37:36.57	321.17	8.27	
2025-01-14 04:37:36.78	321.13	8.26	
2025-01-14 04:37:36.98	321.09	8.26	
2025-01-14 04:37:37.19	321.05	8.26	
2025-01-14 04:37:37.39	321.01	8.25	
2025-01-14 04:37:37.60	320.97	8.25	
2025-01-14 04:37:37.80	320.93	8.25	
2025-01-14 04:37:38.01	320.89	8.24	
2025-01-14 04:37:38.21	320.86	8.24	
2025-01-14 04:37:38.42	320.82	8.23	
2025-01-14 04:37:38.63	320.78	8.23	
2025-01-14 04:37:38.84	320.74	8.23	
2025-01-14 04:37:39.05	320.70	8.22	
2025-01-14 04:37:39.26	320.66	8.22	
2025-01-14 04:37:39.46	320.62	8.22	
2025-01-14 04:37:39.67	320.58	8.21	
2025-01-14 04:37:39.88	320.54	8.21	
2025-01-14 04:37:40.09	320.50	8.21	
2025-01-14 04:37:40.30	320.46	8.20	
2025-01-14 04:37:40.50	320.43	8.20	
2025-01-14 04:37:40.71	320.39	8.20	
2025-01-14 04:37:40.91	320.35	8.19	
2025-01-14 04:37:41.12	320.31	8.19	
2025-01-14 04:37:41.32	320.27	8.18	
2025-01-14 04:37:41.53	320.23	8.18	
2025-01-14 04:37:41.73	320.20	8.18	
2025-01-14 04:37:41.94	320.16	8.17	
2025-01-14 04:37:42.14	320.12	8.17	
2025-01-14 04:37:42.35	320.08	8.17	
2025-01-14 04:37:42.55	320.04	8.16	
2025-01-14 04:37:42.76	320.00	8.16	
2025-01-14 04:37:42.96	319.97	8.16	
2025-01-14 04:37:43.16	319.93	8.15	
2025-01-14 04:37:43.37	319.89	8.15	
2025-01-14 04:37:43.57	319.85	8.14	
2025-01-14 04:37:43.78	319.81	8.14	
2025-01-14 04:37:43.99	319.78	8.14	
2025-01-14 04:37:44.19	319.74	8.13	
2025-01-14 04:37:44.39	319.70	8.13	
2025-01-14 04:37:44.60	319.66	8.13	
2025-01-14 04:37:44.80	319.62	8.12	
2025-01-14 04:37:45.01	319.59	8.12	
2025-01-14 04:37:45.21	319.55	8.11	
2025-01-14 04:37:45.42	319.51	8.11	
2025-01-14 04:37:45.62	319.47	8.11	
2025-01-14 04:37:45.83	319.43	8.10	
2025-01-14 04:37:46.04	319.39	8.10	
2025-01-14 04:37:46.24	319.36	8.10	
2025-01-14 04:37:46.45	319.32	8.09	
2025-01-14 04:37:46.65	319.28	8.09	
2025-01-14 04:37:46.86	319.24	8.08	
2025-01-14 04:37:47.07	319.20	8.08	
2025-01-14 04:37:47.27	319.17	8.08	
2025-01-14 04:37:47.48	319.13	8.07	
2025-01-14 04:37:47.68	319.09	8.07	
2025-01-14 04:37:47.88	319.05	8.06	
2025-01-14 04:37:48.09	319.01	8.06	
2025-01-14 04:37:48.29	318.98	8.06	
2025-01-14 04:37:48.50	318.94	8.05	
2025-01-14 04:37:48.70	318.90	8.05	
2025-01-14 04:37:48.91	318.86	8.04	
2025-01-14 04:37:49.11	318.82	8.04	
2025-01-14 04:37:49.32	318.79	8.04	
2025-01-14 04:37:49.52	318.75	8.03	
2025-01-14 04:37:49.73	318.71	8.03	
2025-01-14 04:37:49.93	318.67	8.02	
2025-01-14 04:37:50.14	318.63	8.02	
2025-01-14 04:37:50.34	318.60	8.02	
2025-01-14 04:37:50.55	318.56	8.01	
2025-01-14 04:37:50.75	318.52	8.01	
2025-01-14 04:37:50.96	318.48	8.00	
2025-01-14 04:37:51.17	318.44	8.00	
2025-01-14 04:37:51.37	318.41	8.00	
2025-01-14 04:37:51.58	318.37	7.99	
2025-01-14 04:37:51.78	318.33	7.99	
2025-01-14 04:37:51.99	318.29	7.98	
2025-01-14 04:37:52.19	318.26	7.98	
2025-01-14 04:37:52.40	318.22	7.97	
2025-01-14 04:37:52.60	318.18	7.97	
2025-01-14 04:37:52.81	318.14	7.97	
2025-01-14 04:37:53.01	318.10	7.96	
2025-01-14 04:37:53.22	318.07	7.96	
2025-01-14 04:37:53.43	318.03	7.95	
2025-01-14 04:37:53.63	317.99	7.95	
2025-01-14 04:37:53.83	317.95	7.94	
2025-01-14 04:37:54.04	317.92	7.94	
2025-01-14 04:37:54.24	317.88	7.94	
2025-01-14 04:37:54.45	317.84	7.93	
2025-01-14 04:37:54.65	317.80	7.93	
2025-01-14 04:37:54.86	317.76	7.92	
2025-01-14 04:37:55.06	317.73	7.92	
2025-01-14 04:37:55.27	317.69	7.91	
2025-01-14 04:37:55.47	317.65	7.91	
2025-01-14 04:37:55.68	317.61	7.91	
2025-01-14 04:37:55.89	317.58	7.90	
2025-01-14 04:37:56.09	317.54	7.90	
2025-01-14 04:37:56.30	317.50	7.89	
2025-01-14 04:37:56.51	317.46	7.89	
2025-01-14 04:37:56.71	317.43	7.88	
2025-01-14 04:37:56.91	317.39	7.88	
2025-01-14 04:37:57.12	317.35	7.88	
2025-01-14 04:37:57.32	317.31	7.87	
2025-01-14 04:37:57.53	317.28	7.87	
2025-01-14 04:37:57.73	317.24	7.86	
2025-01-14 04:37:57.94	317.20	7.86	
2025-01-14 04:37:58.14	317.16	7.85	
2025-01-14 04:37:58.35	317.13	7.85	
2025-01-14 04:37:58.55	317.09	7.84	
2025-01-14 04:37:58.76	317.05	7.84	
2025-01-14 04:37:58.96	317.01	7.84	
2025-01-14 04:37:59.18	316.97	7.83	
2025-01-14 04:37:59.38	316.94	7.83	
2025-01-14 04:37:59.59	316.90	7.82	
2025-01-14 04:37:59.80	316.86	7.82	
2025-01-14 04:38:00.00	316.83	7.81	
2025-01-14 04:38:00.20	316.79	7.81	
2025-01-14 04:38:00.41	316.75	7.80	
2025-01-14 04:38:00.61	316.71	7.80	
2025-01-14 04:38:00.82	316.68	7.79	
2025-01-14 04:38:01.02	316.64	7.79	
2025-01-14 04:38:01.23	316.60	7.78	
2025-01-14 04:38:01.43	316.57	7.78	
2025-01-14 04:38:01.64	316.53	7.78	
2025-01-14 04:38:01.84	316.49	7.77	
2025-01-14 04:38:02.05	316.45	7.77	
2025-01-14 04:38:02.25	316.42	7.76	
2025-01-14 04:38:02.46	316.38	7.76	
2025-01-14 04:38:02.66	316.34	7.75	
2025-01-14 04:38:02.87	316.30	7.75	
2025-01-14 04:38:03.07	316.27	7.74	
2025-01-14 04:38:03.28	316.23	7.74	
2025-01-14 04:38:03.49	316.19	7.73	
2025-01-14 04:38:03.69	316.16	7.73	
2025-01-14 04:38:03.90	316.12	7.72	
2025-01-14 04:38:04.10	316.08	7.72	
2025-01-14 04:38:04.31	316.04	7.71	
2025-01-14 04:38:04.51	316.01	7.71	
2025-01-14 04:38:04.72	315.97	7.70	
2025-01-14 04:38:04.92	315.93	7.70	
2025-01-14 04:38:05.12	315.90	7.70	
2025-01-14 04:38:05.33	315.86	7.69	
2025-01-14 04:38:05.53	315.82	7.69	
2025-01-14 04:38:05.74	315.79	7.68	
2025-01-14 04:38:05.95	315.75	7.68	
2025-01-14 04:38:06.15	315.71	7.67	
2025-01-14 04:38:06.36	315.67	7.67	
2025-01-14 04:38:06.56	315.64	7.66	
2025-01-14 04:38:06.76	315.60	7.66	
2025-01-14 04:38:06.97	315.56	7.65	
2025-01-14 04:38:07.19	315.53	7.65	
2025-01-14 04:38:07.39	315.49	7.64	
2025-01-14 04:38:07.60	315.45	7.64	
2025-01-14 04:38:07.80	315.42	7.63	
2025-01-14 04:38:08.01	315.38	7.63	
2025-01-14 04:38:08.21	315.34	7.62	
2025-01-14 04:38:08.41	315.31	7.62	
2025-01-14 04:38:08.62	315.27	7.61	
2025-01-14 04:38:08.82	315.23	7.61	
2025-01-14 04:38:09.03	315.20	7.60	
2025-01-14 04:38:09.24	315.16	7.60	
2025-01-14 04:38:09.44	315.12	7.59	
2025-01-14 04:38:09.65	315.08	7.59	
2025-01-14 04:38:09.85	315.05	7.58	
2025-01-14 04:38:10.06	315.01	7.58	
2025-01-14 04:38:10.26	314.98	7.57	
2025-01-14 04:38:10.47	314.94	7.57	
2025-01-14 04:38:10.67	314.90	7.56	
2025-01-14 04:38:10.88	314.86	7.56	
2025-01-14 04:38:11.08	314.83	7.55	
2025-01-14 04:38:11.29	314.79	7.55	
2025-01-14 04:38:11.49	314.76	7.54	
2025-01-14 04:38:11.70	314.72	7.54	
2025-01-14 04:38:11.90	314.68	7.53	
2025-01-14 04:38:12.11	314.65	7.53	
2025-01-14 04:38:12.31	314.61	7.52	
2025-01-14 04:38:12.52	314.57	7.52	
2025-01-14 04:38:12.73	314.53	7.51	
2025-01-14 04:38:12.93	314.50	7.51	
2025-01-14 04:38:13.13	314.46	7.50	
2025-01-14 04:38:13.34	314.43	7.50	
2025-01-14 04:38:13.54	314.39	7.49	
2025-01-14 04:38:13.75	314.35	7.49	
2025-01-14 04:38:13.95	314.32	7.48	
2025-01-14 04:38:14.16	314.28	7.47	
2025-01-14 04:38:14.36	314.25	7.47	
2025-01-14 04:38:14.57	314.21	7.46	
2025-01-14 04:38:14.78	314.17	7.46	
2025-01-14 04:38:14.98	314.14	7.45	
2025-01-14 04:38:15.18	314.10	7.45	
2025-01-14 04:38:15.39	314.06	7.44	
2025-01-14 04:38:15.60	314.03	7.44	
2025-01-14 04:38:15.80	313.99	7.43	
2025-01-14 04:38:16.01	313.95	7.43	
2025-01-14 04:38:16.22	313.92	7.42	
2025-01-14 04:38:16.43	313.88	7.42	
2025-01-14 04:38:16.63	313.84	7.41	
2025-01-14 04:38:16.84	313.81	7.41	
2025-01-14 04:38:17.05	313.77	7.40	
2025-01-14 04:38:17.25	313.73	7.40	
2025-01-14 04:38:17.46	313.70	7.39	
2025-01-14 04:38:17.66	313.66	7.38	
2025-01-14 04:38:17.87	313.62	7.38	
2025-01-14 04:38:18.07	313.59	7.37	
2025-01-14 04:38:18.28	313.55	7.37	
2025-01-14 04:38:18.48	313.52	7.36	
2025-01-14 04:38:18.69	313.48	7.36	
2025-01-14 04:38:18.89	313.45	7.35	
2025-01-14 04:38:19.10	313.41	7.35	
2025-01-14 04:38:19.30	313.37	7.34	
2025-01-14 04:38:19.50	313.34	7.34	
2025-01-14 04:38:19.71	313.30	7.33	
2025-01-14 04:38:19.91	313.27	7.33	
2025-01-14 04:38:20.12	313.23	7.32	
2025-01-14 04:38:20.32	313.19	7.31	
2025-01-14 04:38:20.53	313.16	7.31	
2025-01-14 04:38:20.73	313.12	7.30	
2025-01-14 04:38:20.94	313.09	7.30	
2025-01-14 04:38:21.14	313.05	7.29	
2025-01-14 04:38:21.35	313.01	7.29	
2025-01-14 04:38:21.55	312.98	7.28	
2025-01-14 04:38:21.76	312.94	7.28	
2025-01-14 04:38:21.96	312.91	7.27	
2025-01-14 04:38:22.17	312.87	7.26	
2025-01-14 04:38:22.37	312.84	7.26	
2025-01-14 04:38:22.59	312.80	7.25	
2025-01-14 04:38:22.80	312.76	7.25	
2025-01-14 04:38:23.00	312.73	7.24	
2025-01-14 04:38:23.21	312.69	7.24	
2025-01-14 04:38:23.41	312.65	7.23	
2025-01-14 04:38:23.63	312.62	7.23	
2025-01-14 04:38:23.83	312.58	7.22	
2025-01-14 04:38:24.04	312.54	7.21	
2025-01-14 04:38:24.25	312.51	7.21	
2025-01-14 04:38:24.45	312.47	7.20	
2025-01-14 04:38:24.67	312.44	7.20	
2025-01-14 04:38:24.87	312.40	7.19	
2025-01-14 04:38:25.08	312.36	7.19	
2025-01-14 04:38:25.29	312.33	7.18	
2025-01-14 04:38:25.49	312.29	7.17	
2025-01-14 04:38:25.70	312.26	7.17	
2025-01-14 04:38:25.90	312.22	7.16	
2025-01-14 04:38:26.11	312.19	7.16	
2025-01-14 04:38:26.31	312.15	7.15	
2025-01-14 04:38:26.52	312.11	7.15	
2025-01-14 04:38:26.72	312.08	7.14	
2025-01-14 04:38:26.94	312.04	7.13	
2025-01-14 04:38:27.14	312.01	7.13	
2025-01-14 04:38:27.35	311.97	7.12	
2025-01-14 04:38:27.55	311.94	7.12	
2025-01-14 04:38:27.76	311.90	7.11	
2025-01-14 04:38:27.96	311.87	7.10	
2025-01-14 04:38:28.16	311.83	7.10	
2025-01-14 04:38:28.36	311.80	7.09	
2025-01-14 04:38:28.57	311.76	7.09	
2025-01-14 04:38:28.78	311.72	7.08	
2025-01-14 04:38:28.98	311.69	7.08	
2025-01-14 04:38:29.18	311.66	7.07	
2025-01-14 04:38:29.39	311.62	7.06	
2025-01-14 04:38:29.60	311.58	7.06	
2025-01-14 04:38:29.80	311.55	7.05	
2025-01-14 04:38:30.01	311.51	7.05	
2025-01-14 04:38:30.21	311.48	7.04	
2025-01-14 04:38:30.42	311.44	7.03	
2025-01-14 04:38:30.62	311.41	7.03	
2025-01-14 04:38:30.83	311.37	7.02	
2025-01-14 04:38:31.03	311.34	7.02	
2025-01-14 04:38:31.23	311.30	7.01	
2025-01-14 04:38:31.44	311.27	7.01	
2025-01-14 04:38:31.64	311.23	7.00	
2025-01-14 04:38:31.85	311.20	6.99	
2025-01-14 04:38:32.05	311.16	6.99	
2025-01-14 04:38:32.27	311.13	6.98	
2025-01-14 04:38:32.47	311.09	6.98	
2025-01-14 04:38:32.68	311.06	6.97	
2025-01-14 04:38:32.88	311.02	6.96	
2025-01-14 04:38:33.09	310.99	6.96	
2025-01-14 04:38:33.31	310.95	6.95	
2025-01-14 04:38:33.51	310.91	6.95	
2025-01-14 04:38:33.72	310.88	6.94	
2025-01-14 04:38:33.92	310.84	6.93	
2025-01-14 04:38:34.14	310.81	6.93	
2025-01-14 04:38:34.35	310.77	6.92	
2025-01-14 04:38:34.55	310.74	6.91	
2025-01-14 04:38:34.76	310.70	6.91	
2025-01-14 04:38:34.96	310.67	6.90	
2025-01-14 04:38:35.17	310.63	6.90	
2025-01-14 04:38:35.37	310.60	6.89	
2025-01-14 04:38:35.58	310.56	6.88	
2025-01-14 04:38:35.78	310.53	6.88	
2025-01-14 04:38:35.99	310.49	6.87	
2025-01-14 04:38:36.19	310.46	6.87	
2025-01-14 04:38:36.40	310.42	6.86	
2025-01-14 04:38:36.60	310.39	6.85	
2025-01-14 04:38:36.81	310.35	6.85	
2025-01-14 04:38:37.01	310.32	6.84	
2025-01-14 04:38:37.22	310.28	6.84	
2025-01-14 04:38:37.42	310.25	6.83	
2025-01-14 04:38:37.62	310.22	6.82	
2025-01-14 04:38:37.83	310.18	6.82	
2025-01-14 04:38:38.03	310.15	6.81	
2025-01-14 04:38:38.24	310.11	6.80	
2025-01-14 04:38:38.44	310.08	6.80	
2025-01-14 04:38:38.65	310.04	6.79	
2025-01-14 04:38:38.85	310.01	6.79	
2025-01-14 04:38:39.06	309.97	6.78	
2025-01-14 04:38:39.26	309.94	6.77	
2025-01-14 04:38:39.47	309.90	6.77	
2025-01-14 04:38:39.67	309.87	6.76	
2025-01-14 04:38:39.88	309.84	6.76	
2025-01-14 04:38:40.08	309.80	6.75	
2025-01-14 04:38:40.29	309.77	6.74	
2025-01-14 04:38:40.49	309.73	6.74	
2025-01-14 04:38:40.70	309.70	6.73	
2025-01-14 04:38:40.90	309.66	6.72	
2025-01-14 04:38:41.11	309.63	6.72	
2025-01-14 04:38:41.31	309.60	6.71	
2025-01-14 04:38:41.52	309.56	6.71	
2025-01-14 04:38:41.72	309.53	6.70	
2025-01-14 04:38:41.93	309.49	6.69	
2025-01-14 04:38:42.13	309.46	6.69	
2025-01-14 04:38:42.34	309.42	6.68	
2025-01-14 04:38:42.54	309.39	6.67	
2025-01-14 04:38:42.75	309.35	6.67	
2025-01-14 04:38:42.95	309.32	6.66	
2025-01-14 04:38:43.16	309.29	6.65	
2025-01-14 04:38:43.36	309.25	6.65	
2025-01-14 04:38:43.57	309.22	6.64	
2025-01-14 04:38:43.78	309.18	6.64	
2025-01-14 04:38:43.98	309.15	6.63	
2025-01-14 04:38:44.19	309.11	6.62	
2025-01-14 04:38:44.39	309.08	6.62	
2025-01-14 04:38:44.60	309.05	6.61	
2025-01-14 04:38:44.80	309.01	6.60	
2025-01-14 04:38:45.01	308.98	6.60	
2025-01-14 04:38:45.21	308.95	6.59	
2025-01-14 04:38:45.42	308.91	6.58	
2025-01-14 04:38:45.62	308.88	6.58	
2025-01-14 04:38:45.83	308.84	6.57	
2025-01-14 04:38:46.03	308.81	6.57	
2025-01-14 04:38:46.24	308.77	6.56	
2025-01-14 04:38:46.44	308.74	6.55	
2025-01-14 04:38:46.64	308.71	6.55	
2025-01-14 04:38:46.85	308.67	6.54	
2025-01-14 04:38:47.05	308.64	6.53	
2025-01-14 04:38:47.26	308.61	6.53	
2025-01-14 04:38:47.46	308.57	6.52	
2025-01-14 04:38:47.67	308.54	6.51	
2025-01-14 04:38:47.87	308.51	6.51	
2025-01-14 04:38:48.08	308.47	6.50	
2025-01-14 04:38:48.29	308.44	6.49	
2025-01-14 04:38:48.50	308.40	6.49	
2025-01-14 04:38:48.70	308.37	6.48	
2025-01-14 04:38:48.91	308.33	6.47	
2025-01-14 04:38:49.12	308.30	6.47	
2025-01-14 04:38:49.32	308.27	6.46	
2025-01-14 04:38:49.52	308.23	6.45	
2025-01-14 04:38:49.73	308.20	6.45	
2025-01-14 04:38:49.93	308.17	6.44	
2025-01-14 04:38:50.14	308.13	6.43	
2025-01-14 04:38:50.34	308.10	6.43	
2025-01-14 04:38:50.55	308.06	6.42	
2025-01-14 04:38:50.75	308.03	6.41	
2025-01-14 04:38:50.96	308.00	6.41	
2025-01-14 04:38:51.16	307.96	6.40	
2025-01-14 04:38:51.36	307.93	6.40	
2025-01-14 04:38:51.57	307.90	6.39	
2025-01-14 04:38:51.78	307.86	6.38	
2025-01-14 04:38:51.98	307.83	6.37	
2025-01-14 04:38:52.19	307.80	6.37	
2025-01-14 04:38:52.39	307.76	6.36	
2025-01-14 04:38:52.60	307.73	6.35	
2025-01-14 04:38:52.80	307.70	6.35	
2025-01-14 04:38:53.01	307.66	6.34	
2025-01-14 04:38:53.21	307.63	6.33	
2025-01-14 04:38:53.42	307.60	6.33	
2025-01-14 04:38:53.64	307.56	6.32	
2025-01-14 04:38:53.84	307.53	6.31	
2025-01-14 04:38:54.05	307.49	6.31	
2025-01-14 04:38:54.26	307.46	6.30	
2025-01-14 04:38:54.46	307.43	6.29	
2025-01-14 04:38:54.68	307.39	6.29	
2025-01-14 04:38:54.89	307.36	6.28	
2025-01-14 04:38:55.09	307.32	6.27	
2025-01-14 04:38:55.30	307.29	6.27	
2025-01-14 04:38:55.50	307.26	6.26	
2025-01-14 04:38:55.72	307.22	6.25	
2025-01-14 04:38:55.93	307.19	6.25	
2025-01-14 04:38:56.13	307.16	6.24	
2025-01-14 04:38:56.34	307.12	6.23	
2025-01-14 04:38:56.54	307.09	6.23	
2025-01-14 04:38:56.75	307.06	6.22	
2025-01-14 04:38:56.95	307.02	6.21	
2025-01-14 04:38:57.17	306.99	6.20	
2025-01-14 04:38:57.38	306.95	6.20	
2025-01-14 04:38:57.58	306.92	6.19	
2025-01-14 04:38:57.78	306.89	6.18	
2025-01-14 04:38:57.99	306.86	6.18	
2025-01-14 04:38:58.19	306.82	6.17	
2025-01-14 04:38:58.40	306.79	6.16	
2025-01-14 04:38:58.60	306.76	6.16	
2025-01-14 04:38:58.81	306.72	6.15	
2025-01-14 04:38:59.01	306.69	6.14	
2025-01-14 04:38:59.22	306.66	6.14	
2025-01-14 04:38:59.42	306.63	6.13	
2025-01-14 04:38:59.63	306.59	6.12	
2025-01-14 04:38:59.83	306.56	6.12	
2025-01-14 04:39:00.03	306.53	6.11	
2025-01-14 04:39:00.24	306.50	6.10	
2025-01-14 04:39:00.45	306.46	6.09	
2025-01-14 04:39:00.65	306.43	6.09	
2025-01-14 04:39:00.86	306.40	6.08	
2025-01-14 04:39:01.06	306.36	6.07	
2025-01-14 04:39:01.27	306.33	6.07	
2025-01-14 04:39:01.47	306.30	6.06	
2025-01-14 04:39:01.68	306.27	6.05	
2025-01-14 04:39:01.89	306.23	6.05	
2025-01-14 04:39:02.10	306.20	6.04	
2025-01-14 04:39:02.31	306.17	6.03	
2025-01-14 04:39:02.51	306.13	6.02	
2025-01-14 04:39:02.72	306.10	6.02	
2025-01-14 04:39:02.93	306.07	6.01	
2025-01-14 04:39:03.13	306.04	6.00	
2025-01-14 04:39:03.34	306.00	6.00	
2025-01-14 04:39:03.54	305.97	5.99	
2025-01-14 04:39:03.75	305.94	5.98	
2025-01-14 04:39:03.95	305.91	5.98	
2025-01-14 04:39:04.15	305.87	5.97	
