passes_logs/2025/01/14/SPB_Silybum_02/SPB_Silybum_02__20250114_072002_TERRA_rec.log

#Pass ID: 20250114_072002_TERRA
#Satellite: TERRA
#Configuration: TERRA
#Start time: 2025-01-14 07:20:03

#Version: 2.0.20230423
#Station: SPB_Silybum_02
#Location: 30.233357 lon 59.946436 lat
#TLE: 1 25994U 99068A   25013.82437757  .00000752  00000+0  16464-3 0  9992
#TLE: 2 25994  98.0218  76.8921 0003482  75.0849  16.5253 14.60392614333908

#Time	Az	El	Level	Level2	SNR	BER	Gain	Gain2
2025-01-14 07:20:05.23	23.11	4.18	
2025-01-14 07:20:05.43	23.13	4.20	
2025-01-14 07:20:05.64	23.14	4.21	
2025-01-14 07:20:05.84	23.15	4.23	
2025-01-14 07:20:06.05	23.17	4.24	
2025-01-14 07:20:06.26	23.18	4.25	
2025-01-14 07:20:06.46	23.19	4.27	
2025-01-14 07:20:06.67	23.20	4.28	
2025-01-14 07:20:06.87	23.22	4.29	
2025-01-14 07:20:07.08	23.23	4.31	
2025-01-14 07:20:07.28	23.24	4.32	
2025-01-14 07:20:07.49	23.26	4.34	
2025-01-14 07:20:07.69	23.27	4.35	
2025-01-14 07:20:07.90	23.28	4.36	
2025-01-14 07:20:03.54	23.01	4.07	
2025-01-14 07:20:03.74	23.02	4.09	
2025-01-14 07:20:03.95	23.03	4.10	
2025-01-14 07:20:04.15	23.05	4.11	
2025-01-14 07:20:04.36	23.06	4.13	
2025-01-14 07:20:04.57	23.07	4.14	
2025-01-14 07:20:04.77	23.08	4.15	
2025-01-14 07:20:04.98	23.10	4.17	
2025-01-14 07:20:05.18	23.11	4.18	
2025-01-14 07:20:05.39	23.12	4.20	
2025-01-14 07:20:05.59	23.14	4.21	
2025-01-14 07:20:05.80	23.15	4.22	
2025-01-14 07:20:06.00	23.16	4.24	
2025-01-14 07:20:06.21	23.18	4.25	
2025-01-14 07:20:06.42	23.19	4.26	
2025-01-14 07:20:06.62	23.20	4.28	
2025-01-14 07:20:06.82	23.21	4.29	
2025-01-14 07:20:07.03	23.23	4.30	
2025-01-14 07:20:07.24	23.24	4.32	
2025-01-14 07:20:07.44	23.25	4.33	
2025-01-14 07:20:07.65	23.27	4.35	
2025-01-14 07:20:07.85	23.28	4.36	
2025-01-14 07:20:08.06	23.29	4.37	
2025-01-14 07:20:08.26	23.31	4.39	
2025-01-14 07:20:08.47	23.32	4.40	
2025-01-14 07:20:08.67	23.33	4.41	
2025-01-14 07:20:08.88	23.35	4.43	
2025-01-14 07:20:09.08	23.36	4.44	
2025-01-14 07:20:09.29	23.37	4.46	
2025-01-14 07:20:09.50	23.39	4.47	
2025-01-14 07:20:09.70	23.40	4.48	
2025-01-14 07:20:09.90	23.41	4.50	
2025-01-14 07:20:10.11	23.43	4.51	
2025-01-14 07:20:10.31	23.44	4.52	
2025-01-14 07:20:10.51	23.45	4.54	
2025-01-14 07:20:10.72	23.46	4.55	
2025-01-14 07:20:10.93	23.48	4.57	
2025-01-14 07:20:11.13	23.49	4.58	
2025-01-14 07:20:11.34	23.50	4.59	
2025-01-14 07:20:11.54	23.52	4.61	
2025-01-14 07:20:11.75	23.53	4.62	
2025-01-14 07:20:11.96	23.55	4.64	
2025-01-14 07:20:12.16	23.56	4.65	
2025-01-14 07:20:12.36	23.57	4.66	
2025-01-14 07:20:12.57	23.59	4.68	
2025-01-14 07:20:12.78	23.60	4.69	
2025-01-14 07:20:12.98	23.61	4.70	
2025-01-14 07:20:13.20	23.63	4.72	
2025-01-14 07:20:13.41	23.64	4.73	
2025-01-14 07:20:13.61	23.65	4.75	
2025-01-14 07:20:13.82	23.67	4.76	
2025-01-14 07:20:14.02	23.68	4.77	
2025-01-14 07:20:14.23	23.69	4.79	
2025-01-14 07:20:14.43	23.71	4.80	
2025-01-14 07:20:14.64	23.72	4.82	
2025-01-14 07:20:14.85	23.73	4.83	
2025-01-14 07:20:15.05	23.75	4.84	
2025-01-14 07:20:15.26	23.76	4.86	
2025-01-14 07:20:15.46	23.78	4.87	
2025-01-14 07:20:15.67	23.79	4.89	
2025-01-14 07:20:15.87	23.80	4.90	
2025-01-14 07:20:16.08	23.82	4.91	
2025-01-14 07:20:16.29	23.83	4.93	
2025-01-14 07:20:16.49	23.84	4.94	
2025-01-14 07:20:16.70	23.86	4.96	
2025-01-14 07:20:16.90	23.87	4.97	
2025-01-14 07:20:17.11	23.89	4.99	
2025-01-14 07:20:17.32	23.90	5.00	
2025-01-14 07:20:17.52	23.91	5.01	
2025-01-14 07:20:17.72	23.93	5.03	
2025-01-14 07:20:17.93	23.94	5.04	
2025-01-14 07:20:18.14	23.95	5.06	
2025-01-14 07:20:18.34	23.97	5.07	
2025-01-14 07:20:18.55	23.98	5.08	
2025-01-14 07:20:18.75	24.00	5.10	
2025-01-14 07:20:18.96	24.01	5.11	
2025-01-14 07:20:19.17	24.02	5.13	
2025-01-14 07:20:19.37	24.04	5.14	
2025-01-14 07:20:19.57	24.05	5.15	
2025-01-14 07:20:19.78	24.06	5.17	
2025-01-14 07:20:19.99	24.08	5.18	
2025-01-14 07:20:20.19	24.09	5.20	
2025-01-14 07:20:20.40	24.11	5.21	
2025-01-14 07:20:20.60	24.12	5.22	
2025-01-14 07:20:20.81	24.13	5.24	
2025-01-14 07:20:21.01	24.15	5.25	
2025-01-14 07:20:21.22	24.16	5.27	
2025-01-14 07:20:21.42	24.18	5.28	
2025-01-14 07:20:21.63	24.19	5.30	
2025-01-14 07:20:21.83	24.20	5.31	
2025-01-14 07:20:22.04	24.22	5.32	
2025-01-14 07:20:22.24	24.23	5.34	
2025-01-14 07:20:22.45	24.25	5.35	
2025-01-14 07:20:22.65	24.26	5.37	
2025-01-14 07:20:22.86	24.27	5.38	
2025-01-14 07:20:23.06	24.29	5.40	
2025-01-14 07:20:23.27	24.30	5.41	
2025-01-14 07:20:23.48	24.32	5.42	
2025-01-14 07:20:23.68	24.33	5.44	
2025-01-14 07:20:23.89	24.35	5.45	
2025-01-14 07:20:24.09	24.36	5.47	
2025-01-14 07:20:24.30	24.37	5.48	
2025-01-14 07:20:24.50	24.39	5.50	
2025-01-14 07:20:24.71	24.40	5.51	
2025-01-14 07:20:24.91	24.42	5.52	
2025-01-14 07:20:25.12	24.43	5.54	
2025-01-14 07:20:25.32	24.44	5.55	
2025-01-14 07:20:25.53	24.46	5.57	
2025-01-14 07:20:25.74	24.47	5.58	
2025-01-14 07:20:25.94	24.49	5.60	
2025-01-14 07:20:26.15	24.50	5.61	
2025-01-14 07:20:26.35	24.52	5.62	
2025-01-14 07:20:26.56	24.53	5.64	
2025-01-14 07:20:26.76	24.54	5.65	
2025-01-14 07:20:26.97	24.56	5.67	
2025-01-14 07:20:27.17	24.57	5.68	
2025-01-14 07:20:27.38	24.59	5.70	
2025-01-14 07:20:27.59	24.60	5.71	
2025-01-14 07:20:27.79	24.62	5.73	
2025-01-14 07:20:28.00	24.63	5.74	
2025-01-14 07:20:28.21	24.65	5.75	
2025-01-14 07:20:28.42	24.66	5.77	
2025-01-14 07:20:28.62	24.68	5.78	
2025-01-14 07:20:28.83	24.69	5.80	
2025-01-14 07:20:29.03	24.70	5.81	
2025-01-14 07:20:29.25	24.72	5.83	
2025-01-14 07:20:29.46	24.74	5.84	
2025-01-14 07:20:29.66	24.75	5.86	
2025-01-14 07:20:29.87	24.76	5.87	
2025-01-14 07:20:30.07	24.78	5.89	
2025-01-14 07:20:30.27	24.79	5.90	
2025-01-14 07:20:30.48	24.81	5.91	
2025-01-14 07:20:30.69	24.82	5.93	
2025-01-14 07:20:30.89	24.84	5.94	
2025-01-14 07:20:31.10	24.85	5.96	
2025-01-14 07:20:31.30	24.87	5.97	
2025-01-14 07:20:31.51	24.88	5.99	
2025-01-14 07:20:31.71	24.90	6.00	
2025-01-14 07:20:31.92	24.91	6.02	
2025-01-14 07:20:32.13	24.93	6.03	
2025-01-14 07:20:32.33	24.94	6.05	
2025-01-14 07:20:32.54	24.96	6.06	
2025-01-14 07:20:32.74	24.97	6.08	
2025-01-14 07:20:32.95	24.98	6.09	
2025-01-14 07:20:33.15	25.00	6.10	
2025-01-14 07:20:33.36	25.01	6.12	
2025-01-14 07:20:33.56	25.03	6.13	
2025-01-14 07:20:33.77	25.04	6.15	
2025-01-14 07:20:33.98	25.06	6.16	
2025-01-14 07:20:34.18	25.07	6.18	
2025-01-14 07:20:34.39	25.09	6.19	
2025-01-14 07:20:34.59	25.10	6.21	
2025-01-14 07:20:34.80	25.12	6.22	
2025-01-14 07:20:35.00	25.13	6.24	
2025-01-14 07:20:35.21	25.15	6.25	
2025-01-14 07:20:35.41	25.16	6.27	
2025-01-14 07:20:35.61	25.18	6.28	
2025-01-14 07:20:35.82	25.19	6.30	
2025-01-14 07:20:36.03	25.21	6.31	
2025-01-14 07:20:36.23	25.22	6.32	
2025-01-14 07:20:36.44	25.24	6.34	
2025-01-14 07:20:36.64	25.25	6.35	
2025-01-14 07:20:36.84	25.27	6.37	
2025-01-14 07:20:37.05	25.28	6.38	
2025-01-14 07:20:37.26	25.30	6.40	
2025-01-14 07:20:37.46	25.31	6.41	
2025-01-14 07:20:37.67	25.33	6.43	
2025-01-14 07:20:37.87	25.34	6.44	
2025-01-14 07:20:38.08	25.36	6.46	
2025-01-14 07:20:38.28	25.37	6.47	
2025-01-14 07:20:38.49	25.39	6.49	
2025-01-14 07:20:38.70	25.41	6.50	
2025-01-14 07:20:38.90	25.42	6.52	
2025-01-14 07:20:39.10	25.44	6.53	
2025-01-14 07:20:39.31	25.45	6.55	
2025-01-14 07:20:39.51	25.47	6.56	
2025-01-14 07:20:39.72	25.48	6.58	
2025-01-14 07:20:39.93	25.50	6.59	
2025-01-14 07:20:40.13	25.51	6.61	
2025-01-14 07:20:40.34	25.53	6.62	
2025-01-14 07:20:40.55	25.54	6.64	
2025-01-14 07:20:40.75	25.56	6.65	
2025-01-14 07:20:40.96	25.57	6.67	
2025-01-14 07:20:41.16	25.59	6.68	
2025-01-14 07:20:41.37	25.61	6.70	
2025-01-14 07:20:41.57	25.62	6.71	
2025-01-14 07:20:41.78	25.64	6.73	
2025-01-14 07:20:41.98	25.65	6.74	
2025-01-14 07:20:42.19	25.67	6.76	
2025-01-14 07:20:42.39	25.68	6.77	
2025-01-14 07:20:42.60	25.70	6.79	
2025-01-14 07:20:42.80	25.71	6.80	
2025-01-14 07:20:43.01	25.73	6.82	
2025-01-14 07:20:43.21	25.74	6.83	
2025-01-14 07:20:43.42	25.76	6.85	
2025-01-14 07:20:43.62	25.78	6.86	
2025-01-14 07:20:43.83	25.79	6.88	
2025-01-14 07:20:44.04	25.81	6.89	
2025-01-14 07:20:44.24	25.82	6.91	
2025-01-14 07:20:44.45	25.84	6.92	
2025-01-14 07:20:44.65	25.85	6.94	
2025-01-14 07:20:44.86	25.87	6.95	
2025-01-14 07:20:45.06	25.89	6.97	
2025-01-14 07:20:45.27	25.90	6.98	
2025-01-14 07:20:45.47	25.92	7.00	
2025-01-14 07:20:45.68	25.93	7.01	
2025-01-14 07:20:45.88	25.95	7.03	
2025-01-14 07:20:46.08	25.96	7.04	
2025-01-14 07:20:46.30	25.98	7.06	
2025-01-14 07:20:46.51	26.00	7.07	
2025-01-14 07:20:46.71	26.01	7.09	
2025-01-14 07:20:46.92	26.03	7.10	
2025-01-14 07:20:47.12	26.04	7.12	
2025-01-14 07:20:47.32	26.06	7.13	
2025-01-14 07:20:47.53	26.08	7.15	
2025-01-14 07:20:47.74	26.09	7.16	
2025-01-14 07:20:47.94	26.11	7.18	
2025-01-14 07:20:48.15	26.12	7.19	
2025-01-14 07:20:48.35	26.14	7.21	
2025-01-14 07:20:48.55	26.16	7.22	
2025-01-14 07:20:48.76	26.17	7.24	
2025-01-14 07:20:48.97	26.19	7.25	
2025-01-14 07:20:49.17	26.20	7.27	
2025-01-14 07:20:49.38	26.22	7.28	
2025-01-14 07:20:49.58	26.24	7.30	
2025-01-14 07:20:49.78	26.25	7.31	
2025-01-14 07:20:49.99	26.27	7.33	
2025-01-14 07:20:50.19	26.28	7.34	
2025-01-14 07:20:50.40	26.30	7.36	
2025-01-14 07:20:50.60	26.32	7.38	
2025-01-14 07:20:50.81	26.33	7.39	
2025-01-14 07:20:51.02	26.35	7.41	
2025-01-14 07:20:51.22	26.37	7.42	
2025-01-14 07:20:51.43	26.38	7.44	
2025-01-14 07:20:51.63	26.40	7.45	
2025-01-14 07:20:51.83	26.41	7.47	
2025-01-14 07:20:52.04	26.43	7.48	
2025-01-14 07:20:52.24	26.45	7.50	
2025-01-14 07:20:52.45	26.46	7.51	
2025-01-14 07:20:52.66	26.48	7.53	
2025-01-14 07:20:52.86	26.50	7.54	
2025-01-14 07:20:53.07	26.51	7.56	
2025-01-14 07:20:53.27	26.53	7.58	
2025-01-14 07:20:53.48	26.55	7.59	
2025-01-14 07:20:53.69	26.56	7.61	
2025-01-14 07:20:53.90	26.58	7.62	
2025-01-14 07:20:54.11	26.60	7.64	
2025-01-14 07:20:54.31	26.61	7.65	
2025-01-14 07:20:54.51	26.63	7.67	
2025-01-14 07:20:54.72	26.65	7.68	
2025-01-14 07:20:54.92	26.66	7.70	
2025-01-14 07:20:55.13	26.68	7.72	
2025-01-14 07:20:55.33	26.69	7.73	
2025-01-14 07:20:55.54	26.71	7.75	
2025-01-14 07:20:55.74	26.73	7.76	
2025-01-14 07:20:55.95	26.74	7.78	
2025-01-14 07:20:56.15	26.76	7.79	
2025-01-14 07:20:56.36	26.78	7.81	
2025-01-14 07:20:56.56	26.79	7.82	
2025-01-14 07:20:56.77	26.81	7.84	
2025-01-14 07:20:56.97	26.83	7.85	
2025-01-14 07:20:57.18	26.85	7.87	
2025-01-14 07:20:57.38	26.86	7.89	
2025-01-14 07:20:57.59	26.88	7.90	
2025-01-14 07:20:57.80	26.90	7.92	
2025-01-14 07:20:58.00	26.91	7.93	
2025-01-14 07:20:58.20	26.93	7.95	
2025-01-14 07:20:58.41	26.95	7.96	
2025-01-14 07:20:58.62	26.96	7.98	
2025-01-14 07:20:58.82	26.98	8.00	
2025-01-14 07:20:59.03	27.00	8.01	
2025-01-14 07:20:59.23	27.01	8.03	
2025-01-14 07:20:59.44	27.03	8.04	
2025-01-14 07:20:59.64	27.05	8.06	
2025-01-14 07:20:59.85	27.06	8.07	
2025-01-14 07:21:00.07	27.08	8.09	
2025-01-14 07:21:00.27	27.10	8.11	
2025-01-14 07:21:00.48	27.12	8.12	
2025-01-14 07:21:00.68	27.13	8.14	
2025-01-14 07:21:00.89	27.15	8.15	
2025-01-14 07:21:01.09	27.17	8.17	
2025-01-14 07:21:01.30	27.19	8.18	
2025-01-14 07:21:01.50	27.20	8.20	
2025-01-14 07:21:01.71	27.22	8.22	
2025-01-14 07:21:01.92	27.24	8.23	
2025-01-14 07:21:02.12	27.25	8.25	
2025-01-14 07:21:02.32	27.27	8.26	
2025-01-14 07:21:02.53	27.29	8.28	
2025-01-14 07:21:02.73	27.31	8.29	
2025-01-14 07:21:02.94	27.32	8.31	
2025-01-14 07:21:03.14	27.34	8.33	
2025-01-14 07:21:03.35	27.36	8.34	
2025-01-14 07:21:03.55	27.37	8.36	
2025-01-14 07:21:03.76	27.39	8.37	
2025-01-14 07:21:03.96	27.41	8.39	
2025-01-14 07:21:04.17	27.43	8.41	
2025-01-14 07:21:04.37	27.44	8.42	
2025-01-14 07:21:04.58	27.46	8.44	
2025-01-14 07:21:04.78	27.48	8.45	
2025-01-14 07:21:04.99	27.50	8.47	
2025-01-14 07:21:05.19	27.51	8.49	
2025-01-14 07:21:05.40	27.53	8.50	
2025-01-14 07:21:05.60	27.55	8.52	
2025-01-14 07:21:05.81	27.57	8.53	
2025-01-14 07:21:06.02	27.58	8.55	
2025-01-14 07:21:06.23	27.60	8.57	
2025-01-14 07:21:06.44	27.62	8.58	
2025-01-14 07:21:06.65	27.64	8.60	
2025-01-14 07:21:06.86	27.66	8.61	
2025-01-14 07:21:07.06	27.67	8.63	
2025-01-14 07:21:07.27	27.69	8.65	
2025-01-14 07:21:07.48	27.71	8.66	
2025-01-14 07:21:07.68	27.73	8.68	
2025-01-14 07:21:07.89	27.75	8.70	
2025-01-14 07:21:08.09	27.76	8.71	
2025-01-14 07:21:08.30	27.78	8.73	
2025-01-14 07:21:08.51	27.80	8.74	
2025-01-14 07:21:08.71	27.82	8.76	
2025-01-14 07:21:08.92	27.84	8.78	
2025-01-14 07:21:09.12	27.85	8.79	
2025-01-14 07:21:09.33	27.87	8.81	
2025-01-14 07:21:09.54	27.89	8.82	
2025-01-14 07:21:09.74	27.91	8.84	
2025-01-14 07:21:09.96	27.93	8.86	
2025-01-14 07:21:10.16	27.94	8.87	
2025-01-14 07:21:10.37	27.96	8.89	
2025-01-14 07:21:10.58	27.98	8.91	
2025-01-14 07:21:10.78	28.00	8.92	
2025-01-14 07:21:11.00	28.02	8.94	
2025-01-14 07:21:11.20	28.04	8.96	
2025-01-14 07:21:11.41	28.05	8.97	
2025-01-14 07:21:11.61	28.07	8.99	
2025-01-14 07:21:11.82	28.09	9.00	
2025-01-14 07:21:12.02	28.11	9.02	
2025-01-14 07:21:12.23	28.13	9.04	
2025-01-14 07:21:12.44	28.15	9.05	
2025-01-14 07:21:12.64	28.16	9.07	
2025-01-14 07:21:12.86	28.18	9.09	
2025-01-14 07:21:13.06	28.20	9.10	
2025-01-14 07:21:13.27	28.22	9.12	
2025-01-14 07:21:13.47	28.24	9.14	
2025-01-14 07:21:13.68	28.26	9.15	
2025-01-14 07:21:13.88	28.27	9.17	
2025-01-14 07:21:14.09	28.29	9.18	
2025-01-14 07:21:14.29	28.31	9.20	
2025-01-14 07:21:14.50	28.33	9.22	
2025-01-14 07:21:14.70	28.35	9.23	
2025-01-14 07:21:14.91	28.37	9.25	
2025-01-14 07:21:15.12	28.38	9.27	
2025-01-14 07:21:15.32	28.40	9.28	
2025-01-14 07:21:15.53	28.42	9.30	
2025-01-14 07:21:15.73	28.44	9.32	
2025-01-14 07:21:15.94	28.46	9.33	
2025-01-14 07:21:16.15	28.48	9.35	
2025-01-14 07:21:16.35	28.50	9.36	
2025-01-14 07:21:16.55	28.51	9.38	
2025-01-14 07:21:16.76	28.53	9.40	
2025-01-14 07:21:16.97	28.55	9.41	
2025-01-14 07:21:17.17	28.57	9.43	
2025-01-14 07:21:17.39	28.59	9.45	
2025-01-14 07:21:17.59	28.61	9.46	
2025-01-14 07:21:17.80	28.63	9.48	
2025-01-14 07:21:18.01	28.65	9.50	
2025-01-14 07:21:18.21	28.67	9.51	
2025-01-14 07:21:18.41	28.68	9.53	
2025-01-14 07:21:18.62	28.70	9.55	
2025-01-14 07:21:18.83	28.72	9.56	
2025-01-14 07:21:19.03	28.74	9.58	
2025-01-14 07:21:19.24	28.76	9.60	
2025-01-14 07:21:19.44	28.78	9.61	
2025-01-14 07:21:19.65	28.80	9.63	
2025-01-14 07:21:19.86	28.82	9.65	
2025-01-14 07:21:20.06	28.84	9.66	
2025-01-14 07:21:20.27	28.86	9.68	
2025-01-14 07:21:20.47	28.87	9.70	
2025-01-14 07:21:20.69	28.89	9.71	
2025-01-14 07:21:20.89	28.91	9.73	
2025-01-14 07:21:21.09	28.93	9.75	
2025-01-14 07:21:21.30	28.95	9.76	
2025-01-14 07:21:21.51	28.97	9.78	
2025-01-14 07:21:21.71	28.99	9.80	
2025-01-14 07:21:21.92	29.01	9.81	
2025-01-14 07:21:22.12	29.03	9.83	
2025-01-14 07:21:22.33	29.05	9.85	
2025-01-14 07:21:22.53	29.07	9.86	
2025-01-14 07:21:22.74	29.09	9.88	
2025-01-14 07:21:22.94	29.11	9.90	
2025-01-14 07:21:23.15	29.13	9.92	
2025-01-14 07:21:23.35	29.14	9.93	
2025-01-14 07:21:23.56	29.16	9.95	
2025-01-14 07:21:23.76	29.18	9.97	
2025-01-14 07:21:23.97	29.20	9.98	
2025-01-14 07:21:24.17	29.22	10.00	
2025-01-14 07:21:24.38	29.24	10.02	
2025-01-14 07:21:24.58	29.26	10.03	
2025-01-14 07:21:24.79	29.28	10.05	
2025-01-14 07:21:24.99	29.30	10.07	
2025-01-14 07:21:25.20	29.32	10.08	
2025-01-14 07:21:25.40	29.34	10.10	
2025-01-14 07:21:25.61	29.36	10.12	
2025-01-14 07:21:25.81	29.38	10.13	
2025-01-14 07:21:26.02	29.40	10.15	
2025-01-14 07:21:26.22	29.42	10.17	
2025-01-14 07:21:26.43	29.44	10.18	
2025-01-14 07:21:26.63	29.46	10.20	
2025-01-14 07:21:26.84	29.48	10.22	
2025-01-14 07:21:27.04	29.50	10.23	
2025-01-14 07:21:27.25	29.52	10.25	
2025-01-14 07:21:27.45	29.54	10.27	
2025-01-14 07:21:27.67	29.56	10.29	
2025-01-14 07:21:27.88	29.58	10.30	
2025-01-14 07:21:28.08	29.60	10.32	
2025-01-14 07:21:28.29	29.62	10.34	
2025-01-14 07:21:28.49	29.64	10.35	
2025-01-14 07:21:28.70	29.66	10.37	
2025-01-14 07:21:28.91	29.68	10.39	
2025-01-14 07:21:29.11	29.70	10.41	
2025-01-14 07:21:29.31	29.72	10.42	
2025-01-14 07:21:29.52	29.74	10.44	
2025-01-14 07:21:29.73	29.76	10.46	
2025-01-14 07:21:29.93	29.78	10.47	
2025-01-14 07:21:30.14	29.80	10.49	
2025-01-14 07:21:30.34	29.82	10.51	
2025-01-14 07:21:30.55	29.84	10.53	
2025-01-14 07:21:30.75	29.86	10.54	
2025-01-14 07:21:30.96	29.88	10.56	
2025-01-14 07:21:31.17	29.90	10.58	
2025-01-14 07:21:31.37	29.92	10.60	
2025-01-14 07:21:31.57	29.94	10.61	
2025-01-14 07:21:31.78	29.96	10.63	
2025-01-14 07:21:31.99	29.98	10.65	
2025-01-14 07:21:32.19	30.00	10.66	
2025-01-14 07:21:32.39	30.02	10.68	
2025-01-14 07:21:32.60	30.04	10.70	
2025-01-14 07:21:32.81	30.06	10.72	
2025-01-14 07:21:33.01	30.08	10.73	
2025-01-14 07:21:33.22	30.10	10.75	
2025-01-14 07:21:33.42	30.12	10.77	
2025-01-14 07:21:33.63	30.14	10.78	
2025-01-14 07:21:33.83	30.16	10.80	
2025-01-14 07:21:34.04	30.19	10.82	
2025-01-14 07:21:34.24	30.21	10.84	
2025-01-14 07:21:34.45	30.23	10.85	
2025-01-14 07:21:34.65	30.25	10.87	
2025-01-14 07:21:34.86	30.27	10.89	
2025-01-14 07:21:35.06	30.29	10.91	
2025-01-14 07:21:35.27	30.31	10.92	
2025-01-14 07:21:35.48	30.33	10.94	
2025-01-14 07:21:35.68	30.35	10.96	
2025-01-14 07:21:35.88	30.37	10.98	
2025-01-14 07:21:36.09	30.39	10.99	
2025-01-14 07:21:36.29	30.41	11.01	
2025-01-14 07:21:36.50	30.44	11.03	
2025-01-14 07:21:36.70	30.46	11.04	
2025-01-14 07:21:36.91	30.48	11.06	
2025-01-14 07:21:37.11	30.50	11.08	
2025-01-14 07:21:37.32	30.52	11.10	
2025-01-14 07:21:37.52	30.54	11.11	
2025-01-14 07:21:37.73	30.56	11.13	
2025-01-14 07:21:37.93	30.58	11.15	
2025-01-14 07:21:38.14	30.60	11.17	
2025-01-14 07:21:38.35	30.62	11.19	
2025-01-14 07:21:38.55	30.65	11.20	
2025-01-14 07:21:38.76	30.67	11.22	
2025-01-14 07:21:38.96	30.69	11.24	
2025-01-14 07:21:39.16	30.71	11.25	
2025-01-14 07:21:39.37	30.73	11.27	
2025-01-14 07:21:39.58	30.75	11.29	
2025-01-14 07:21:39.78	30.77	11.31	
2025-01-14 07:21:39.99	30.79	11.33	
2025-01-14 07:21:40.19	30.82	11.34	
2025-01-14 07:21:40.40	30.84	11.36	
2025-01-14 07:21:40.60	30.86	11.38	
2025-01-14 07:21:40.81	30.88	11.40	
2025-01-14 07:21:41.01	30.90	11.41	
2025-01-14 07:21:41.22	30.92	11.43	
2025-01-14 07:21:41.43	30.95	11.45	
2025-01-14 07:21:41.63	30.97	11.47	
2025-01-14 07:21:41.84	30.99	11.49	
2025-01-14 07:21:42.04	31.01	11.50	
2025-01-14 07:21:42.25	31.03	11.52	
2025-01-14 07:21:42.45	31.05	11.54	
2025-01-14 07:21:42.66	31.08	11.56	
2025-01-14 07:21:42.86	31.10	11.57	
2025-01-14 07:21:43.08	31.12	11.59	
2025-01-14 07:21:43.29	31.14	11.61	
2025-01-14 07:21:43.49	31.16	11.63	
2025-01-14 07:21:43.70	31.19	11.65	
2025-01-14 07:21:43.90	31.21	11.66	
2025-01-14 07:21:44.10	31.23	11.68	
2025-01-14 07:21:44.31	31.25	11.70	
2025-01-14 07:21:44.52	31.27	11.72	
2025-01-14 07:21:44.72	31.29	11.74	
2025-01-14 07:21:44.93	31.32	11.75	
2025-01-14 07:21:45.13	31.34	11.77	
2025-01-14 07:21:45.34	31.36	11.79	
2025-01-14 07:21:45.54	31.38	11.81	
2025-01-14 07:21:45.75	31.41	11.83	
2025-01-14 07:21:45.96	31.43	11.84	
2025-01-14 07:21:46.16	31.45	11.86	
2025-01-14 07:21:46.36	31.47	11.88	
2025-01-14 07:21:46.57	31.49	11.90	
2025-01-14 07:21:46.77	31.52	11.91	
2025-01-14 07:21:46.98	31.54	11.93	
2025-01-14 07:21:47.19	31.56	11.95	
2025-01-14 07:21:47.40	31.58	11.97	
2025-01-14 07:21:47.61	31.61	11.99	
2025-01-14 07:21:47.81	31.63	12.01	
2025-01-14 07:21:48.02	31.65	12.02	
2025-01-14 07:21:48.22	31.67	12.04	
2025-01-14 07:21:48.43	31.70	12.06	
2025-01-14 07:21:48.63	31.72	12.08	
2025-01-14 07:21:48.84	31.74	12.10	
2025-01-14 07:21:49.05	31.77	12.11	
2025-01-14 07:21:49.25	31.79	12.13	
2025-01-14 07:21:49.46	31.81	12.15	
2025-01-14 07:21:49.66	31.83	12.17	
2025-01-14 07:21:49.87	31.86	12.19	
2025-01-14 07:21:50.07	31.88	12.21	
2025-01-14 07:21:50.28	31.90	12.22	
2025-01-14 07:21:50.48	31.92	12.24	
2025-01-14 07:21:50.69	31.95	12.26	
2025-01-14 07:21:50.90	31.97	12.28	
2025-01-14 07:21:51.10	31.99	12.30	
2025-01-14 07:21:51.31	32.02	12.32	
2025-01-14 07:21:51.51	32.04	12.33	
2025-01-14 07:21:51.72	32.06	12.35	
2025-01-14 07:21:51.92	32.08	12.37	
2025-01-14 07:21:52.13	32.11	12.39	
2025-01-14 07:21:52.33	32.13	12.41	
2025-01-14 07:21:52.54	32.15	12.42	
2025-01-14 07:21:52.74	32.18	12.44	
2025-01-14 07:21:52.95	32.20	12.46	
2025-01-14 07:21:53.15	32.22	12.48	
2025-01-14 07:21:53.36	32.25	12.50	
2025-01-14 07:21:53.57	32.27	12.52	
2025-01-14 07:21:53.77	32.29	12.53	
2025-01-14 07:21:53.97	32.31	12.55	
2025-01-14 07:21:54.18	32.34	12.57	
2025-01-14 07:21:54.38	32.36	12.59	
2025-01-14 07:21:54.59	32.39	12.61	
2025-01-14 07:21:54.79	32.41	12.63	
2025-01-14 07:21:55.00	32.43	12.64	
2025-01-14 07:21:55.20	32.46	12.66	
2025-01-14 07:21:55.41	32.48	12.68	
2025-01-14 07:21:55.61	32.50	12.70	
2025-01-14 07:21:55.82	32.53	12.72	
2025-01-14 07:21:56.02	32.55	12.74	
2025-01-14 07:21:56.23	32.57	12.76	
2025-01-14 07:21:56.44	32.60	12.77	
2025-01-14 07:21:56.64	32.62	12.79	
2025-01-14 07:21:56.85	32.64	12.81	
2025-01-14 07:21:57.05	32.67	12.83	
2025-01-14 07:21:57.25	32.69	12.85	
2025-01-14 07:21:57.46	32.72	12.87	
2025-01-14 07:21:57.67	32.74	12.89	
2025-01-14 07:21:57.87	32.76	12.90	
2025-01-14 07:21:58.07	32.79	12.92	
2025-01-14 07:21:58.28	32.81	12.94	
2025-01-14 07:21:58.49	32.84	12.96	
2025-01-14 07:21:58.69	32.86	12.98	
2025-01-14 07:21:58.90	32.88	13.00	
2025-01-14 07:21:59.10	32.91	13.02	
2025-01-14 07:21:59.31	32.93	13.03	
2025-01-14 07:21:59.52	32.96	13.05	
2025-01-14 07:21:59.72	32.98	13.07	
2025-01-14 07:21:59.93	33.00	13.09	
2025-01-14 07:22:00.13	33.03	13.11	
2025-01-14 07:22:00.34	33.05	13.13	
2025-01-14 07:22:00.54	33.08	13.15	
2025-01-14 07:22:00.75	33.10	13.17	
2025-01-14 07:22:00.95	33.12	13.18	
2025-01-14 07:22:01.16	33.15	13.20	
2025-01-14 07:22:01.36	33.17	13.22	
2025-01-14 07:22:01.57	33.20	13.24	
2025-01-14 07:22:01.78	33.22	13.26	
2025-01-14 07:22:01.98	33.25	13.28	
2025-01-14 07:22:02.19	33.27	13.30	
2025-01-14 07:22:02.39	33.30	13.32	
2025-01-14 07:22:02.60	33.32	13.34	
2025-01-14 07:22:02.80	33.35	13.35	
2025-01-14 07:22:03.01	33.37	13.37	
2025-01-14 07:22:03.21	33.39	13.39	
2025-01-14 07:22:03.42	33.42	13.41	
2025-01-14 07:22:03.62	33.44	13.43	
2025-01-14 07:22:03.83	33.47	13.45	
2025-01-14 07:22:04.03	33.49	13.47	
2025-01-14 07:22:04.24	33.52	13.49	
2025-01-14 07:22:04.44	33.54	13.51	
2025-01-14 07:22:04.65	33.57	13.53	
2025-01-14 07:22:04.85	33.59	13.54	
2025-01-14 07:22:05.06	33.62	13.56	
2025-01-14 07:22:05.26	33.64	13.58	
2025-01-14 07:22:05.46	33.67	13.60	
2025-01-14 07:22:05.67	33.69	13.62	
2025-01-14 07:22:05.87	33.72	13.64	
2025-01-14 07:22:06.08	33.74	13.66	
2025-01-14 07:22:06.29	33.77	13.68	
2025-01-14 07:22:06.49	33.79	13.70	
2025-01-14 07:22:06.69	33.82	13.71	
2025-01-14 07:22:06.90	33.84	13.73	
2025-01-14 07:22:07.10	33.87	13.75	
2025-01-14 07:22:07.31	33.89	13.77	
2025-01-14 07:22:07.52	33.92	13.79	
2025-01-14 07:22:07.72	33.95	13.81	
2025-01-14 07:22:07.92	33.97	13.83	
2025-01-14 07:22:08.13	34.00	13.85	
2025-01-14 07:22:08.34	34.02	13.87	
2025-01-14 07:22:08.54	34.05	13.89	
2025-01-14 07:22:08.74	34.07	13.91	
2025-01-14 07:22:08.95	34.10	13.93	
2025-01-14 07:22:09.16	34.12	13.95	
2025-01-14 07:22:09.36	34.15	13.96	
2025-01-14 07:22:09.57	34.18	13.98	
2025-01-14 07:22:09.77	34.20	14.00	
2025-01-14 07:22:09.97	34.23	14.02	
2025-01-14 07:22:10.18	34.25	14.04	
2025-01-14 07:22:10.38	34.28	14.06	
2025-01-14 07:22:10.59	34.30	14.08	
2025-01-14 07:22:10.79	34.33	14.10	
2025-01-14 07:22:11.00	34.36	14.12	
2025-01-14 07:22:11.21	34.38	14.14	
2025-01-14 07:22:11.41	34.41	14.16	
2025-01-14 07:22:11.62	34.43	14.18	
2025-01-14 07:22:11.82	34.46	14.20	
2025-01-14 07:22:12.03	34.49	14.22	
2025-01-14 07:22:12.23	34.51	14.24	
2025-01-14 07:22:12.44	34.54	14.25	
2025-01-14 07:22:12.65	34.57	14.27	
2025-01-14 07:22:12.85	34.59	14.29	
2025-01-14 07:22:13.06	34.62	14.31	
2025-01-14 07:22:13.26	34.64	14.33	
2025-01-14 07:22:13.46	34.67	14.35	
2025-01-14 07:22:13.67	34.70	14.37	
2025-01-14 07:22:13.88	34.72	14.39	
2025-01-14 07:22:14.08	34.75	14.41	
2025-01-14 07:22:14.29	34.78	14.43	
2025-01-14 07:22:14.49	34.80	14.45	
2025-01-14 07:22:14.70	34.83	14.47	
2025-01-14 07:22:14.90	34.86	14.49	
2025-01-14 07:22:15.11	34.88	14.51	
2025-01-14 07:22:15.31	34.91	14.53	
2025-01-14 07:22:15.52	34.94	14.55	
2025-01-14 07:22:15.72	34.96	14.57	
2025-01-14 07:22:15.93	34.99	14.59	
2025-01-14 07:22:16.14	35.02	14.61	
2025-01-14 07:22:16.34	35.04	14.63	
2025-01-14 07:22:16.54	35.07	14.65	
2025-01-14 07:22:16.75	35.10	14.67	
2025-01-14 07:22:16.95	35.12	14.69	
2025-01-14 07:22:17.16	35.15	14.71	
2025-01-14 07:22:17.36	35.18	14.72	
2025-01-14 07:22:17.57	35.21	14.74	
2025-01-14 07:22:17.77	35.23	14.76	
2025-01-14 07:22:17.98	35.26	14.78	
2025-01-14 07:22:18.19	35.29	14.80	
2025-01-14 07:22:18.40	35.32	14.82	
2025-01-14 07:22:18.61	35.34	14.85	
2025-01-14 07:22:18.81	35.37	14.86	
2025-01-14 07:22:19.02	35.40	14.88	
2025-01-14 07:22:19.22	35.43	14.90	
2025-01-14 07:22:19.44	35.45	14.93	
2025-01-14 07:22:19.65	35.48	14.95	
2025-01-14 07:22:19.85	35.51	14.97	
2025-01-14 07:22:20.06	35.54	14.99	
2025-01-14 07:22:20.26	35.56	15.00	
2025-01-14 07:22:20.47	35.59	15.03	
2025-01-14 07:22:20.67	35.62	15.04	
2025-01-14 07:22:20.88	35.65	15.07	
2025-01-14 07:22:21.08	35.68	15.08	
2025-01-14 07:22:21.29	35.70	15.11	
2025-01-14 07:22:21.49	35.73	15.12	
2025-01-14 07:22:21.70	35.76	15.15	
2025-01-14 07:22:21.90	35.79	15.16	
2025-01-14 07:22:22.11	35.82	15.19	
2025-01-14 07:22:22.31	35.84	15.20	
2025-01-14 07:22:22.52	35.87	15.23	
2025-01-14 07:22:22.72	35.90	15.24	
2025-01-14 07:22:22.93	35.93	15.27	
2025-01-14 07:22:23.13	35.95	15.28	
2025-01-14 07:22:23.34	35.98	15.31	
2025-01-14 07:22:23.55	36.01	15.33	
2025-01-14 07:22:23.75	36.04	15.35	
2025-01-14 07:22:23.95	36.07	15.37	
2025-01-14 07:22:24.16	36.10	15.39	
2025-01-14 07:22:24.37	36.13	15.41	
2025-01-14 07:22:24.57	36.15	15.43	
2025-01-14 07:22:24.77	36.18	15.45	
2025-01-14 07:22:24.98	36.21	15.47	
2025-01-14 07:22:25.18	36.24	15.49	
2025-01-14 07:22:25.39	36.27	15.51	
2025-01-14 07:22:25.59	36.30	15.53	
2025-01-14 07:22:25.81	36.33	15.55	
2025-01-14 07:22:26.02	36.36	15.57	
2025-01-14 07:22:26.22	36.38	15.59	
2025-01-14 07:22:26.43	36.41	15.61	
2025-01-14 07:22:26.64	36.44	15.63	
2025-01-14 07:22:26.84	36.47	15.65	
2025-01-14 07:22:27.05	36.50	15.67	
2025-01-14 07:22:27.25	36.53	15.69	
2025-01-14 07:22:27.46	36.56	15.71	
2025-01-14 07:22:27.66	36.59	15.73	
2025-01-14 07:22:27.87	36.62	15.75	
2025-01-14 07:22:28.07	36.64	15.77	
2025-01-14 07:22:28.28	36.67	15.79	
2025-01-14 07:22:28.48	36.70	15.81	
2025-01-14 07:22:28.69	36.73	15.83	
2025-01-14 07:22:28.90	36.76	15.85	
2025-01-14 07:22:29.10	36.79	15.87	
2025-01-14 07:22:29.31	36.82	15.90	
2025-01-14 07:22:29.51	36.85	15.92	
2025-01-14 07:22:29.72	36.88	15.94	
2025-01-14 07:22:29.92	36.91	15.96	
2025-01-14 07:22:30.14	36.94	15.98	
2025-01-14 07:22:30.35	36.97	16.00	
2025-01-14 07:22:30.55	37.00	16.02	
2025-01-14 07:22:30.75	37.03	16.04	
2025-01-14 07:22:30.96	37.06	16.06	
2025-01-14 07:22:31.16	37.09	16.08	
2025-01-14 07:22:31.37	37.12	16.10	
2025-01-14 07:22:31.57	37.15	16.12	
2025-01-14 07:22:31.78	37.18	16.14	
2025-01-14 07:22:31.99	37.21	16.16	
2025-01-14 07:22:32.19	37.24	16.18	
2025-01-14 07:22:32.39	37.27	16.20	
2025-01-14 07:22:32.60	37.30	16.22	
2025-01-14 07:22:32.81	37.33	16.25	
2025-01-14 07:22:33.01	37.36	16.27	
2025-01-14 07:22:33.21	37.39	16.29	
2025-01-14 07:22:33.42	37.42	16.31	
2025-01-14 07:22:33.63	37.45	16.33	
2025-01-14 07:22:33.83	37.48	16.35	
2025-01-14 07:22:34.04	37.51	16.37	
2025-01-14 07:22:34.24	37.54	16.39	
2025-01-14 07:22:34.44	37.57	16.41	
2025-01-14 07:22:34.65	37.60	16.43	
2025-01-14 07:22:34.86	37.63	16.45	
2025-01-14 07:22:35.06	37.66	16.47	
2025-01-14 07:22:35.26	37.69	16.49	
2025-01-14 07:22:35.47	37.72	16.52	
2025-01-14 07:22:35.68	37.75	16.54	
2025-01-14 07:22:35.88	37.78	16.56	
2025-01-14 07:22:36.09	37.81	16.58	
2025-01-14 07:22:36.29	37.84	16.60	
2025-01-14 07:22:36.49	37.87	16.62	
2025-01-14 07:22:36.70	37.91	16.64	
2025-01-14 07:22:36.91	37.94	16.66	
2025-01-14 07:22:37.11	37.97	16.68	
2025-01-14 07:22:37.32	38.00	16.70	
2025-01-14 07:22:37.52	38.03	16.72	
2025-01-14 07:22:37.73	38.06	16.75	
2025-01-14 07:22:37.93	38.09	16.77	
2025-01-14 07:22:38.14	38.12	16.79	
2025-01-14 07:22:38.34	38.15	16.81	
2025-01-14 07:22:38.55	38.19	16.83	
2025-01-14 07:22:38.75	38.22	16.85	
2025-01-14 07:22:38.96	38.25	16.87	
2025-01-14 07:22:39.16	38.28	16.89	
2025-01-14 07:22:39.37	38.31	16.91	
2025-01-14 07:22:39.57	38.34	16.93	
2025-01-14 07:22:39.78	38.37	16.96	
2025-01-14 07:22:39.98	38.41	16.98	
2025-01-14 07:22:40.19	38.44	17.00	
2025-01-14 07:22:40.39	38.47	17.02	
2025-01-14 07:22:40.60	38.50	17.04	
2025-01-14 07:22:40.81	38.53	17.06	
2025-01-14 07:22:41.01	38.56	17.08	
2025-01-14 07:22:41.22	38.60	17.10	
2025-01-14 07:22:41.42	38.63	17.12	
2025-01-14 07:22:41.63	38.66	17.15	
2025-01-14 07:22:41.83	38.69	17.17	
2025-01-14 07:22:42.04	38.72	17.19	
2025-01-14 07:22:42.24	38.76	17.21	
2025-01-14 07:22:42.45	38.79	17.23	
2025-01-14 07:22:42.66	38.82	17.25	
2025-01-14 07:22:42.86	38.85	17.27	
2025-01-14 07:22:43.07	38.89	17.30	
2025-01-14 07:22:43.27	38.92	17.32	
2025-01-14 07:22:43.48	38.95	17.34	
2025-01-14 07:22:43.68	38.98	17.36	
2025-01-14 07:22:43.89	39.02	17.38	
2025-01-14 07:22:44.09	39.05	17.40	
2025-01-14 07:22:44.30	39.08	17.42	
2025-01-14 07:22:44.50	39.11	17.44	
2025-01-14 07:22:44.71	39.15	17.47	
2025-01-14 07:22:44.91	39.18	17.49	
2025-01-14 07:22:45.12	39.21	17.51	
2025-01-14 07:22:45.32	39.24	17.53	
2025-01-14 07:22:45.53	39.28	17.55	
2025-01-14 07:22:45.73	39.31	17.57	
2025-01-14 07:22:45.94	39.34	17.59	
2025-01-14 07:22:46.14	39.38	17.61	
2025-01-14 07:22:46.35	39.41	17.64	
2025-01-14 07:22:46.56	39.44	17.66	
2025-01-14 07:22:46.76	39.48	17.68	
2025-01-14 07:22:46.97	39.51	17.70	
2025-01-14 07:22:47.17	39.54	17.72	
2025-01-14 07:22:47.38	39.58	17.74	
2025-01-14 07:22:47.58	39.61	17.77	
2025-01-14 07:22:47.79	39.64	17.79	
2025-01-14 07:22:47.99	39.67	17.81	
2025-01-14 07:22:48.20	39.71	17.83	
2025-01-14 07:22:48.40	39.74	17.85	
2025-01-14 07:22:48.61	39.78	17.87	
2025-01-14 07:22:48.81	39.81	17.90	
2025-01-14 07:22:49.02	39.84	17.92	
2025-01-14 07:22:49.22	39.88	17.94	
2025-01-14 07:22:49.42	39.91	17.96	
2025-01-14 07:22:49.63	39.94	17.98	
2025-01-14 07:22:49.84	39.98	18.00	
2025-01-14 07:22:50.04	40.01	18.03	
2025-01-14 07:22:50.25	40.05	18.05	
2025-01-14 07:22:50.45	40.08	18.07	
2025-01-14 07:22:50.66	40.11	18.09	
2025-01-14 07:22:50.86	40.15	18.11	
2025-01-14 07:22:51.07	40.18	18.13	
2025-01-14 07:22:51.27	40.22	18.16	
2025-01-14 07:22:51.47	40.25	18.18	
2025-01-14 07:22:51.68	40.28	18.20	
2025-01-14 07:22:51.89	40.32	18.22	
2025-01-14 07:22:52.09	40.35	18.24	
2025-01-14 07:22:52.30	40.39	18.26	
2025-01-14 07:22:52.50	40.42	18.29	
2025-01-14 07:22:52.71	40.46	18.31	
2025-01-14 07:22:52.91	40.49	18.33	
2025-01-14 07:22:53.12	40.53	18.35	
2025-01-14 07:22:53.32	40.56	18.37	
2025-01-14 07:22:53.53	40.60	18.40	
2025-01-14 07:22:53.73	40.63	18.42	
2025-01-14 07:22:53.94	40.67	18.44	
2025-01-14 07:22:54.14	40.70	18.46	
2025-01-14 07:22:54.35	40.74	18.48	
2025-01-14 07:22:54.55	40.77	18.50	
2025-01-14 07:22:54.76	40.81	18.53	
2025-01-14 07:22:54.96	40.84	18.55	
2025-01-14 07:22:55.17	40.88	18.57	
2025-01-14 07:22:55.37	40.91	18.59	
2025-01-14 07:22:55.58	40.95	18.62	
2025-01-14 07:22:55.78	40.98	18.64	
2025-01-14 07:22:55.98	41.02	18.66	
2025-01-14 07:22:56.19	41.05	18.68	
2025-01-14 07:22:56.39	41.09	18.70	
2025-01-14 07:22:56.60	41.12	18.72	
2025-01-14 07:22:56.81	41.16	18.75	
2025-01-14 07:22:57.01	41.19	18.77	
2025-01-14 07:22:57.22	41.23	18.79	
2025-01-14 07:22:57.42	41.27	18.81	
2025-01-14 07:22:57.63	41.30	18.84	
2025-01-14 07:22:57.83	41.34	18.86	
2025-01-14 07:22:58.04	41.37	18.88	
2025-01-14 07:22:58.25	41.41	18.90	
2025-01-14 07:22:58.45	41.45	18.92	
2025-01-14 07:22:58.66	41.48	18.95	
2025-01-14 07:22:58.86	41.52	18.97	
2025-01-14 07:22:59.07	41.56	18.99	
2025-01-14 07:22:59.27	41.59	19.01	
2025-01-14 07:22:59.48	41.63	19.04	
2025-01-14 07:22:59.68	41.66	19.06	
2025-01-14 07:22:59.89	41.70	19.08	
2025-01-14 07:23:00.09	41.74	19.10	
2025-01-14 07:23:00.30	41.77	19.12	
2025-01-14 07:23:00.50	41.81	19.15	
2025-01-14 07:23:00.71	41.85	19.17	
2025-01-14 07:23:00.91	41.88	19.19	
2025-01-14 07:23:01.12	41.92	19.21	
2025-01-14 07:23:01.32	41.96	19.24	
2025-01-14 07:23:01.53	41.99	19.26	
2025-01-14 07:23:01.73	42.03	19.28	
2025-01-14 07:23:01.94	42.07	19.30	
2025-01-14 07:23:02.16	42.11	19.33	
2025-01-14 07:23:02.36	42.14	19.35	
2025-01-14 07:23:02.57	42.18	19.37	
2025-01-14 07:23:02.78	42.22	19.39	
2025-01-14 07:23:02.98	42.26	19.42	
2025-01-14 07:23:03.18	42.29	19.44	
2025-01-14 07:23:03.39	42.33	19.46	
2025-01-14 07:23:03.60	42.37	19.48	
2025-01-14 07:23:03.80	42.41	19.51	
2025-01-14 07:23:04.01	42.44	19.53	
2025-01-14 07:23:04.22	42.48	19.55	
2025-01-14 07:23:04.43	42.52	19.58	
2025-01-14 07:23:04.64	42.56	19.60	
2025-01-14 07:23:04.84	42.60	19.62	
2025-01-14 07:23:05.05	42.64	19.64	
2025-01-14 07:23:05.25	42.67	19.66	
2025-01-14 07:23:05.46	42.71	19.69	
2025-01-14 07:23:05.66	42.75	19.71	
2025-01-14 07:23:05.87	42.79	19.73	
2025-01-14 07:23:06.07	42.82	19.76	
2025-01-14 07:23:06.28	42.86	19.78	
2025-01-14 07:23:06.48	42.90	19.80	
2025-01-14 07:23:06.68	42.94	19.82	
2025-01-14 07:23:06.89	42.98	19.85	
2025-01-14 07:23:07.09	43.02	19.87	
2025-01-14 07:23:07.30	43.05	19.89	
2025-01-14 07:23:07.50	43.09	19.91	
2025-01-14 07:23:07.71	43.13	19.94	
2025-01-14 07:23:07.92	43.17	19.96	
2025-01-14 07:23:08.12	43.21	19.98	
2025-01-14 07:23:08.33	43.25	20.00	
2025-01-14 07:23:08.53	43.29	20.03	
2025-01-14 07:23:08.74	43.33	20.05	
2025-01-14 07:23:08.94	43.36	20.07	
2025-01-14 07:23:09.15	43.40	20.10	
2025-01-14 07:23:09.36	43.44	20.12	
2025-01-14 07:23:09.56	43.48	20.14	
2025-01-14 07:23:09.76	43.52	20.16	
2025-01-14 07:23:09.97	43.56	20.19	
2025-01-14 07:23:10.18	43.60	20.21	
2025-01-14 07:23:10.38	43.64	20.23	
2025-01-14 07:23:10.59	43.68	20.26	
2025-01-14 07:23:10.79	43.72	20.28	
2025-01-14 07:23:11.00	43.76	20.30	
2025-01-14 07:23:11.20	43.80	20.32	
2025-01-14 07:23:11.41	43.84	20.35	
2025-01-14 07:23:11.61	43.88	20.37	
2025-01-14 07:23:11.82	43.92	20.39	
2025-01-14 07:23:12.02	43.96	20.41	
2025-01-14 07:23:12.23	44.00	20.44	
2025-01-14 07:23:12.43	44.04	20.46	
2025-01-14 07:23:12.64	44.08	20.48	
2025-01-14 07:23:12.84	44.12	20.51	
2025-01-14 07:23:13.05	44.16	20.53	
2025-01-14 07:23:13.26	44.20	20.55	
2025-01-14 07:23:13.46	44.24	20.58	
2025-01-14 07:23:13.67	44.28	20.60	
2025-01-14 07:23:13.87	44.32	20.62	
2025-01-14 07:23:14.08	44.36	20.64	
2025-01-14 07:23:14.28	44.40	20.67	
2025-01-14 07:23:14.49	44.44	20.69	
2025-01-14 07:23:14.69	44.48	20.71	
2025-01-14 07:23:14.90	44.52	20.74	
2025-01-14 07:23:15.10	44.56	20.76	
2025-01-14 07:23:15.30	44.60	20.78	
2025-01-14 07:23:15.51	44.64	20.80	
2025-01-14 07:23:15.72	44.69	20.83	
2025-01-14 07:23:15.92	44.73	20.85	
2025-01-14 07:23:16.13	44.77	20.87	
2025-01-14 07:23:16.33	44.81	20.90	
2025-01-14 07:23:16.54	44.85	20.92	
2025-01-14 07:23:16.74	44.89	20.94	
2025-01-14 07:23:16.95	44.93	20.97	
2025-01-14 07:23:17.17	44.98	20.99	
2025-01-14 07:23:17.37	45.02	21.01	
2025-01-14 07:23:17.58	45.06	21.04	
2025-01-14 07:23:17.78	45.10	21.06	
2025-01-14 07:23:17.99	45.14	21.08	
2025-01-14 07:23:18.19	45.18	21.11	
2025-01-14 07:23:18.40	45.23	21.13	
2025-01-14 07:23:18.60	45.27	21.15	
2025-01-14 07:23:18.81	45.31	21.18	
2025-01-14 07:23:19.01	45.35	21.20	
2025-01-14 07:23:19.23	45.40	21.22	
2025-01-14 07:23:19.44	45.44	21.25	
2025-01-14 07:23:19.64	45.48	21.27	
2025-01-14 07:23:19.85	45.52	21.29	
2025-01-14 07:23:20.05	45.57	21.32	
2025-01-14 07:23:20.26	45.61	21.34	
2025-01-14 07:23:20.46	45.65	21.36	
2025-01-14 07:23:20.67	45.69	21.39	
2025-01-14 07:23:20.87	45.73	21.41	
2025-01-14 07:23:21.08	45.78	21.43	
2025-01-14 07:23:21.28	45.82	21.46	
2025-01-14 07:23:21.49	45.86	21.48	
2025-01-14 07:23:21.69	45.91	21.50	
2025-01-14 07:23:21.90	45.95	21.53	
2025-01-14 07:23:22.10	45.99	21.55	
2025-01-14 07:23:22.31	46.04	21.57	
2025-01-14 07:23:22.51	46.08	21.60	
2025-01-14 07:23:22.72	46.12	21.62	
2025-01-14 07:23:22.92	46.16	21.64	
2025-01-14 07:23:23.13	46.21	21.67	
2025-01-14 07:23:23.33	46.25	21.69	
2025-01-14 07:23:23.55	46.30	21.71	
2025-01-14 07:23:23.76	46.34	21.74	
2025-01-14 07:23:23.96	46.38	21.76	
2025-01-14 07:23:24.16	46.43	21.78	
2025-01-14 07:23:24.37	46.47	21.81	
2025-01-14 07:23:24.57	46.51	21.83	
2025-01-14 07:23:24.78	46.56	21.85	
2025-01-14 07:23:24.99	46.60	21.88	
2025-01-14 07:23:25.19	46.65	21.90	
2025-01-14 07:23:25.41	46.69	21.93	
2025-01-14 07:23:25.61	46.74	21.95	
2025-01-14 07:23:25.82	46.78	21.97	
2025-01-14 07:23:26.02	46.83	22.00	
2025-01-14 07:23:26.23	46.87	22.02	
2025-01-14 07:23:26.44	46.92	22.04	
2025-01-14 07:23:26.64	46.96	22.07	
2025-01-14 07:23:26.85	47.01	22.09	
2025-01-14 07:23:27.05	47.05	22.11	
2025-01-14 07:23:27.26	47.09	22.14	
2025-01-14 07:23:27.47	47.14	22.16	
2025-01-14 07:23:27.67	47.18	22.19	
2025-01-14 07:23:27.87	47.23	22.21	
2025-01-14 07:23:28.08	47.27	22.23	
2025-01-14 07:23:28.28	47.32	22.25	
2025-01-14 07:23:28.49	47.36	22.28	
2025-01-14 07:23:28.69	47.41	22.30	
2025-01-14 07:23:28.91	47.46	22.33	
2025-01-14 07:23:29.12	47.50	22.35	
2025-01-14 07:23:29.32	47.55	22.37	
2025-01-14 07:23:29.53	47.59	22.40	
2025-01-14 07:23:29.74	47.64	22.42	
2025-01-14 07:23:29.95	47.69	22.45	
2025-01-14 07:23:30.16	47.73	22.47	
2025-01-14 07:23:30.36	47.78	22.49	
2025-01-14 07:23:30.57	47.83	22.52	
2025-01-14 07:23:30.78	47.87	22.54	
2025-01-14 07:23:30.99	47.92	22.57	
2025-01-14 07:23:31.20	47.97	22.59	
2025-01-14 07:23:31.40	48.01	22.61	
2025-01-14 07:23:31.61	48.06	22.64	
2025-01-14 07:23:31.82	48.11	22.66	
2025-01-14 07:23:32.02	48.15	22.69	
2025-01-14 07:23:32.23	48.20	22.71	
2025-01-14 07:23:32.43	48.24	22.73	
2025-01-14 07:23:32.64	48.29	22.76	
2025-01-14 07:23:32.84	48.34	22.78	
2025-01-14 07:23:33.05	48.38	22.80	
2025-01-14 07:23:33.25	48.43	22.83	
2025-01-14 07:23:33.46	48.48	22.85	
2025-01-14 07:23:33.66	48.52	22.87	
2025-01-14 07:23:33.87	48.57	22.90	
2025-01-14 07:23:34.07	48.62	22.92	
2025-01-14 07:23:34.28	48.67	22.95	
2025-01-14 07:23:34.49	48.71	22.97	
2025-01-14 07:23:34.69	48.76	22.99	
2025-01-14 07:23:34.90	48.81	23.02	
2025-01-14 07:23:35.10	48.86	23.04	
2025-01-14 07:23:35.30	48.90	23.06	
2025-01-14 07:23:35.51	48.95	23.09	
2025-01-14 07:23:35.71	49.00	23.11	
2025-01-14 07:23:35.92	49.05	23.14	
2025-01-14 07:23:36.14	49.10	23.16	
2025-01-14 07:23:36.34	49.14	23.18	
2025-01-14 07:23:36.54	49.19	23.21	
2025-01-14 07:23:36.75	49.24	23.23	
2025-01-14 07:23:36.95	49.29	23.25	
2025-01-14 07:23:37.15	49.33	23.28	
2025-01-14 07:23:37.36	49.38	23.30	
2025-01-14 07:23:37.56	49.43	23.33	
2025-01-14 07:23:37.77	49.48	23.35	
2025-01-14 07:23:37.98	49.53	23.37	
2025-01-14 07:23:38.18	49.58	23.40	
2025-01-14 07:23:38.39	49.63	23.42	
2025-01-14 07:23:38.59	49.67	23.44	
2025-01-14 07:23:38.80	49.72	23.47	
2025-01-14 07:23:39.00	49.77	23.49	
2025-01-14 07:23:39.21	49.82	23.52	
2025-01-14 07:23:39.41	49.87	23.54	
2025-01-14 07:23:39.62	49.92	23.56	
2025-01-14 07:23:39.82	49.97	23.59	
2025-01-14 07:23:40.03	50.02	23.61	
2025-01-14 07:23:40.23	50.07	23.64	
2025-01-14 07:23:40.44	50.12	23.66	
2025-01-14 07:23:40.64	50.16	23.68	
2025-01-14 07:23:40.84	50.21	23.71	
2025-01-14 07:23:41.05	50.26	23.73	
2025-01-14 07:23:41.25	50.31	23.75	
2025-01-14 07:23:41.46	50.36	23.78	
2025-01-14 07:23:41.66	50.41	23.80	
2025-01-14 07:23:41.87	50.46	23.83	
2025-01-14 07:23:42.07	50.51	23.85	
2025-01-14 07:23:42.28	50.56	23.87	
2025-01-14 07:23:42.48	50.61	23.90	
2025-01-14 07:23:42.69	50.66	23.92	
2025-01-14 07:23:42.89	50.71	23.94	
2025-01-14 07:23:43.10	50.76	23.97	
2025-01-14 07:23:43.30	50.81	23.99	
2025-01-14 07:23:43.51	50.86	24.02	
2025-01-14 07:23:43.71	50.91	24.04	
2025-01-14 07:23:43.92	50.97	24.06	
2025-01-14 07:23:44.12	51.02	24.09	
2025-01-14 07:23:44.33	51.07	24.11	
2025-01-14 07:23:44.54	51.12	24.14	
2025-01-14 07:23:44.74	51.17	24.16	
2025-01-14 07:23:44.95	51.22	24.18	
2025-01-14 07:23:45.15	51.27	24.21	
2025-01-14 07:23:45.36	51.32	24.23	
2025-01-14 07:23:45.56	51.37	24.25	
2025-01-14 07:23:45.77	51.43	24.28	
2025-01-14 07:23:45.97	51.48	24.30	
2025-01-14 07:23:46.18	51.53	24.33	
2025-01-14 07:23:46.39	51.58	24.35	
2025-01-14 07:23:46.59	51.63	24.37	
2025-01-14 07:23:46.80	51.69	24.40	
2025-01-14 07:23:47.01	51.74	24.42	
2025-01-14 07:23:47.22	51.79	24.45	
2025-01-14 07:23:47.43	51.85	24.47	
2025-01-14 07:23:47.63	51.90	24.50	
2025-01-14 07:23:47.84	51.95	24.52	
2025-01-14 07:23:48.06	52.01	24.55	
2025-01-14 07:23:48.26	52.06	24.57	
2025-01-14 07:23:48.47	52.11	24.59	
2025-01-14 07:23:48.67	52.16	24.62	
2025-01-14 07:23:48.88	52.22	24.64	
2025-01-14 07:23:49.08	52.27	24.66	
2025-01-14 07:23:49.29	52.32	24.69	
2025-01-14 07:23:49.49	52.37	24.71	
2025-01-14 07:23:49.70	52.43	24.74	
2025-01-14 07:23:49.90	52.48	24.76	
2025-01-14 07:23:50.11	52.53	24.78	
2025-01-14 07:23:50.31	52.59	24.81	
2025-01-14 07:23:50.51	52.64	24.83	
2025-01-14 07:23:50.72	52.69	24.85	
2025-01-14 07:23:50.93	52.75	24.88	
2025-01-14 07:23:51.13	52.80	24.90	
2025-01-14 07:23:51.34	52.85	24.93	
2025-01-14 07:23:51.54	52.91	24.95	
2025-01-14 07:23:51.75	52.96	24.97	
2025-01-14 07:23:51.95	53.01	25.00	
2025-01-14 07:23:52.16	53.07	25.02	
2025-01-14 07:23:52.37	53.12	25.05	
2025-01-14 07:23:52.57	53.18	25.07	
2025-01-14 07:23:52.78	53.23	25.09	
2025-01-14 07:23:52.98	53.29	25.12	
2025-01-14 07:23:53.19	53.34	25.14	
2025-01-14 07:23:53.39	53.39	25.17	
2025-01-14 07:23:53.60	53.45	25.19	
2025-01-14 07:23:53.80	53.50	25.21	
2025-01-14 07:23:54.01	53.56	25.24	
2025-01-14 07:23:54.21	53.61	25.26	
2025-01-14 07:23:54.42	53.67	25.28	
2025-01-14 07:23:54.62	53.72	25.31	
2025-01-14 07:23:54.83	53.78	25.33	
2025-01-14 07:23:55.03	53.83	25.36	
2025-01-14 07:23:55.23	53.89	25.38	
2025-01-14 07:23:55.44	53.94	25.40	
2025-01-14 07:23:55.64	54.00	25.43	
2025-01-14 07:23:55.85	54.05	25.45	
2025-01-14 07:23:56.05	54.11	25.47	
2025-01-14 07:23:56.26	54.17	25.50	
2025-01-14 07:23:56.46	54.22	25.52	
2025-01-14 07:23:56.67	54.28	25.55	
2025-01-14 07:23:56.87	54.33	25.57	
2025-01-14 07:23:57.08	54.39	25.59	
2025-01-14 07:23:57.29	54.45	25.62	
2025-01-14 07:23:57.50	54.50	25.64	
2025-01-14 07:23:57.70	54.56	25.67	
2025-01-14 07:23:57.91	54.62	25.69	
2025-01-14 07:23:58.11	54.67	25.71	
2025-01-14 07:23:58.32	54.73	25.74	
2025-01-14 07:23:58.53	54.79	25.76	
2025-01-14 07:23:58.74	54.85	25.79	
2025-01-14 07:23:58.95	54.90	25.81	
2025-01-14 07:23:59.16	54.96	25.83	
2025-01-14 07:23:59.36	55.02	25.86	
2025-01-14 07:23:59.57	55.08	25.88	
2025-01-14 07:23:59.77	55.13	25.90	
2025-01-14 07:23:59.97	55.19	25.93	
2025-01-14 07:24:00.18	55.25	25.95	
2025-01-14 07:24:00.38	55.30	25.97	
2025-01-14 07:24:00.59	55.36	26.00	
2025-01-14 07:24:00.79	55.42	26.02	
2025-01-14 07:24:01.00	55.48	26.05	
2025-01-14 07:24:01.20	55.53	26.07	
2025-01-14 07:24:01.41	55.59	26.09	
2025-01-14 07:24:01.61	55.65	26.12	
2025-01-14 07:24:01.82	55.71	26.14	
2025-01-14 07:24:02.02	55.76	26.16	
2025-01-14 07:24:02.23	55.82	26.19	
2025-01-14 07:24:02.43	55.88	26.21	
2025-01-14 07:24:02.64	55.94	26.24	
2025-01-14 07:24:02.84	56.00	26.26	
2025-01-14 07:24:03.05	56.06	26.28	
2025-01-14 07:24:03.25	56.11	26.31	
2025-01-14 07:24:03.46	56.17	26.33	
2025-01-14 07:24:03.66	56.23	26.35	
2025-01-14 07:24:03.87	56.29	26.38	
2025-01-14 07:24:04.07	56.35	26.40	
2025-01-14 07:24:04.28	56.41	26.42	
2025-01-14 07:24:04.49	56.47	26.45	
2025-01-14 07:24:04.69	56.53	26.47	
2025-01-14 07:24:04.90	56.59	26.49	
2025-01-14 07:24:05.10	56.65	26.52	
2025-01-14 07:24:05.31	56.71	26.54	
2025-01-14 07:24:05.51	56.77	26.56	
2025-01-14 07:24:05.72	56.83	26.59	
2025-01-14 07:24:05.92	56.89	26.61	
2025-01-14 07:24:06.12	56.94	26.63	
2025-01-14 07:24:06.33	57.01	26.66	
2025-01-14 07:24:06.54	57.07	26.68	
2025-01-14 07:24:06.74	57.13	26.71	
2025-01-14 07:24:06.95	57.19	26.73	
2025-01-14 07:24:07.15	57.25	26.75	
2025-01-14 07:24:07.36	57.31	26.78	
2025-01-14 07:24:07.56	57.37	26.80	
2025-01-14 07:24:07.77	57.43	26.82	
2025-01-14 07:24:07.98	57.49	26.85	
2025-01-14 07:24:08.18	57.55	26.87	
2025-01-14 07:24:08.38	57.61	26.89	
2025-01-14 07:24:08.59	57.67	26.92	
2025-01-14 07:24:08.79	57.73	26.94	
2025-01-14 07:24:09.00	57.79	26.96	
2025-01-14 07:24:09.20	57.85	26.99	
2025-01-14 07:24:09.41	57.92	27.01	
2025-01-14 07:24:09.61	57.98	27.03	
2025-01-14 07:24:09.82	58.04	27.06	
2025-01-14 07:24:10.03	58.10	27.08	
2025-01-14 07:24:10.23	58.16	27.10	
2025-01-14 07:24:10.44	58.23	27.13	
2025-01-14 07:24:10.64	58.29	27.15	
2025-01-14 07:24:10.85	58.35	27.17	
2025-01-14 07:24:11.05	58.41	27.19	
2025-01-14 07:24:11.26	58.47	27.22	
2025-01-14 07:24:11.46	58.54	27.24	
2025-01-14 07:24:11.67	58.60	27.26	
2025-01-14 07:24:11.87	58.66	27.29	
2025-01-14 07:24:12.08	58.72	27.31	
2025-01-14 07:24:12.28	58.79	27.33	
2025-01-14 07:24:12.49	58.85	27.36	
2025-01-14 07:24:12.70	58.91	27.38	
2025-01-14 07:24:12.91	58.98	27.40	
2025-01-14 07:24:13.11	59.04	27.43	
2025-01-14 07:24:13.32	59.10	27.45	
2025-01-14 07:24:13.53	59.17	27.47	
2025-01-14 07:24:13.73	59.23	27.50	
2025-01-14 07:24:13.93	59.29	27.52	
2025-01-14 07:24:14.14	59.36	27.54	
2025-01-14 07:24:14.35	59.42	27.57	
2025-01-14 07:24:14.55	59.48	27.59	
2025-01-14 07:24:14.75	59.55	27.61	
2025-01-14 07:24:14.96	59.61	27.63	
2025-01-14 07:24:15.17	59.68	27.66	
2025-01-14 07:24:15.37	59.74	27.68	
2025-01-14 07:24:15.58	59.81	27.70	
2025-01-14 07:24:15.78	59.87	27.73	
2025-01-14 07:24:15.99	59.93	27.75	
2025-01-14 07:24:16.19	60.00	27.77	
2025-01-14 07:24:16.40	60.06	27.79	
2025-01-14 07:24:16.60	60.13	27.82	
2025-01-14 07:24:16.80	60.19	27.84	
2025-01-14 07:24:17.01	60.26	27.86	
2025-01-14 07:24:17.22	60.32	27.89	
2025-01-14 07:24:17.42	60.39	27.91	
2025-01-14 07:24:17.63	60.45	27.93	
2025-01-14 07:24:17.83	60.52	27.95	
2025-01-14 07:24:18.04	60.58	27.98	
2025-01-14 07:24:18.24	60.65	28.00	
2025-01-14 07:24:18.45	60.71	28.02	
2025-01-14 07:24:18.65	60.78	28.04	
2025-01-14 07:24:18.86	60.84	28.07	
2025-01-14 07:24:19.06	60.91	28.09	
2025-01-14 07:24:19.27	60.98	28.11	
2025-01-14 07:24:19.48	61.04	28.13	
2025-01-14 07:24:19.68	61.11	28.16	
2025-01-14 07:24:19.89	61.18	28.18	
2025-01-14 07:24:20.09	61.24	28.20	
2025-01-14 07:24:20.30	61.31	28.22	
2025-01-14 07:24:20.51	61.38	28.25	
2025-01-14 07:24:20.71	61.44	28.27	
2025-01-14 07:24:20.92	61.51	28.29	
2025-01-14 07:24:21.12	61.57	28.31	
2025-01-14 07:24:21.33	61.64	28.34	
2025-01-14 07:24:21.53	61.71	28.36	
2025-01-14 07:24:21.74	61.78	28.38	
2025-01-14 07:24:21.94	61.84	28.40	
2025-01-14 07:24:22.15	61.91	28.43	
2025-01-14 07:24:22.35	61.98	28.45	
2025-01-14 07:24:22.56	62.04	28.47	
2025-01-14 07:24:22.76	62.11	28.49	
2025-01-14 07:24:22.97	62.18	28.51	
2025-01-14 07:24:23.17	62.25	28.54	
2025-01-14 07:24:23.39	62.32	28.56	
2025-01-14 07:24:23.60	62.39	28.58	
2025-01-14 07:24:23.80	62.45	28.60	
2025-01-14 07:24:24.01	62.52	28.63	
2025-01-14 07:24:24.21	62.59	28.65	
2025-01-14 07:24:24.41	62.66	28.67	
2025-01-14 07:24:24.62	62.73	28.69	
2025-01-14 07:24:24.83	62.80	28.71	
2025-01-14 07:24:25.03	62.86	28.74	
2025-01-14 07:24:25.24	62.93	28.76	
2025-01-14 07:24:25.44	63.00	28.78	
2025-01-14 07:24:25.65	63.07	28.80	
2025-01-14 07:24:25.86	63.14	28.82	
2025-01-14 07:24:26.06	63.21	28.85	
2025-01-14 07:24:26.26	63.28	28.87	
2025-01-14 07:24:26.47	63.35	28.89	
2025-01-14 07:24:26.67	63.41	28.91	
2025-01-14 07:24:26.88	63.49	28.93	
2025-01-14 07:24:27.08	63.55	28.95	
2025-01-14 07:24:27.29	63.62	28.98	
2025-01-14 07:24:27.49	63.69	29.00	
2025-01-14 07:24:27.70	63.76	29.02	
2025-01-14 07:24:27.90	63.83	29.04	
2025-01-14 07:24:28.11	63.90	29.06	
2025-01-14 07:24:28.31	63.97	29.08	
2025-01-14 07:24:28.52	64.04	29.10	
2025-01-14 07:24:28.72	64.11	29.13	
2025-01-14 07:24:28.93	64.18	29.15	
2025-01-14 07:24:29.13	64.25	29.17	
2025-01-14 07:24:29.34	64.32	29.19	
2025-01-14 07:24:29.54	64.39	29.21	
2025-01-14 07:24:29.75	64.47	29.23	
2025-01-14 07:24:29.95	64.54	29.25	
2025-01-14 07:24:30.16	64.61	29.28	
2025-01-14 07:24:30.36	64.68	29.30	
2025-01-14 07:24:30.57	64.75	29.32	
2025-01-14 07:24:30.77	64.82	29.34	
2025-01-14 07:24:30.98	64.89	29.36	
2025-01-14 07:24:31.18	64.96	29.38	
2025-01-14 07:24:31.39	65.04	29.40	
2025-01-14 07:24:31.59	65.10	29.42	
2025-01-14 07:24:31.80	65.18	29.44	
2025-01-14 07:24:32.00	65.25	29.46	
2025-01-14 07:24:32.21	65.32	29.49	
2025-01-14 07:24:32.42	65.40	29.51	
2025-01-14 07:24:32.62	65.47	29.53	
2025-01-14 07:24:32.82	65.54	29.55	
2025-01-14 07:24:33.03	65.61	29.57	
2025-01-14 07:24:33.24	65.68	29.59	
2025-01-14 07:24:33.44	65.75	29.61	
2025-01-14 07:24:33.65	65.83	29.63	
2025-01-14 07:24:33.85	65.90	29.65	
2025-01-14 07:24:34.07	65.98	29.68	
2025-01-14 07:24:34.28	66.05	29.70	
2025-01-14 07:24:34.48	66.12	29.72	
2025-01-14 07:24:34.69	66.20	29.74	
2025-01-14 07:24:34.89	66.27	29.76	
2025-01-14 07:24:35.10	66.34	29.78	
2025-01-14 07:24:35.31	66.42	29.80	
2025-01-14 07:24:35.51	66.49	29.82	
2025-01-14 07:24:35.72	66.57	29.84	
2025-01-14 07:24:35.92	66.64	29.86	
2025-01-14 07:24:36.13	66.71	29.88	
2025-01-14 07:24:36.33	66.79	29.90	
2025-01-14 07:24:36.54	66.86	29.92	
2025-01-14 07:24:36.74	66.93	29.94	
2025-01-14 07:24:36.95	67.01	29.96	
2025-01-14 07:24:37.15	67.08	29.98	
2025-01-14 07:24:37.36	67.16	30.00	
2025-01-14 07:24:37.56	67.23	30.02	
2025-01-14 07:24:37.77	67.31	30.04	
2025-01-14 07:24:37.97	67.38	30.06	
2025-01-14 07:24:38.18	67.46	30.08	
2025-01-14 07:24:38.38	67.53	30.10	
2025-01-14 07:24:38.59	67.60	30.12	
2025-01-14 07:24:38.80	67.68	30.14	
2025-01-14 07:24:39.00	67.75	30.16	
2025-01-14 07:24:39.21	67.83	30.18	
2025-01-14 07:24:39.42	67.91	30.20	
2025-01-14 07:24:39.62	67.98	30.22	
2025-01-14 07:24:39.83	68.06	30.24	
2025-01-14 07:24:40.03	68.13	30.26	
2025-01-14 07:24:40.24	68.21	30.28	
2025-01-14 07:24:40.44	68.28	30.30	
2025-01-14 07:24:40.65	68.36	30.32	
2025-01-14 07:24:40.85	68.44	30.34	
2025-01-14 07:24:41.06	68.51	30.36	
2025-01-14 07:24:41.27	68.59	30.38	
2025-01-14 07:24:41.47	68.67	30.40	
2025-01-14 07:24:41.68	68.74	30.42	
2025-01-14 07:24:41.88	68.82	30.44	
2025-01-14 07:24:42.09	68.90	30.46	
2025-01-14 07:24:42.29	68.97	30.48	
2025-01-14 07:24:42.51	69.05	30.50	
2025-01-14 07:24:42.72	69.13	30.52	
2025-01-14 07:24:42.92	69.21	30.53	
2025-01-14 07:24:43.13	69.28	30.55	
2025-01-14 07:24:43.33	69.36	30.57	
2025-01-14 07:24:43.54	69.44	30.59	
2025-01-14 07:24:43.75	69.52	30.61	
2025-01-14 07:24:43.96	69.60	30.63	
2025-01-14 07:24:44.17	69.68	30.65	
2025-01-14 07:24:44.37	69.75	30.67	
2025-01-14 07:24:44.58	69.83	30.69	
2025-01-14 07:24:44.78	69.91	30.71	
2025-01-14 07:24:44.99	69.99	30.73	
2025-01-14 07:24:45.19	70.06	30.74	
2025-01-14 07:24:45.40	70.14	30.76	
2025-01-14 07:24:45.60	70.22	30.78	
2025-01-14 07:24:45.80	70.29	30.80	
2025-01-14 07:24:46.01	70.37	30.82	
2025-01-14 07:24:46.21	70.45	30.84	
2025-01-14 07:24:46.42	70.53	30.85	
2025-01-14 07:24:46.62	70.61	30.87	
2025-01-14 07:24:46.83	70.69	30.89	
2025-01-14 07:24:47.04	70.77	30.91	
2025-01-14 07:24:47.24	70.84	30.93	
2025-01-14 07:24:47.45	70.93	30.95	
2025-01-14 07:24:47.65	71.00	30.96	
2025-01-14 07:24:47.86	71.08	30.98	
2025-01-14 07:24:48.06	71.16	31.00	
2025-01-14 07:24:48.27	71.24	31.02	
2025-01-14 07:24:48.48	71.32	31.04	
2025-01-14 07:24:48.68	71.40	31.05	
2025-01-14 07:24:48.88	71.48	31.07	
2025-01-14 07:24:49.09	71.56	31.09	
2025-01-14 07:24:49.29	71.64	31.11	
2025-01-14 07:24:49.50	71.72	31.13	
2025-01-14 07:24:49.70	71.80	31.14	
2025-01-14 07:24:49.91	71.88	31.16	
2025-01-14 07:24:50.12	71.96	31.18	
2025-01-14 07:24:50.33	72.04	31.20	
2025-01-14 07:24:50.53	72.12	31.21	
2025-01-14 07:24:50.74	72.20	31.23	
2025-01-14 07:24:50.94	72.28	31.25	
2025-01-14 07:24:51.14	72.36	31.27	
2025-01-14 07:24:51.35	72.44	31.28	
2025-01-14 07:24:51.56	72.52	31.30	
2025-01-14 07:24:51.76	72.60	31.32	
2025-01-14 07:24:51.97	72.69	31.34	
2025-01-14 07:24:52.19	72.77	31.35	
2025-01-14 07:24:52.39	72.85	31.37	
2025-01-14 07:24:52.60	72.93	31.39	
2025-01-14 07:24:52.80	73.01	31.40	
2025-01-14 07:24:53.01	73.10	31.42	
2025-01-14 07:24:53.21	73.18	31.44	
2025-01-14 07:24:53.42	73.26	31.46	
2025-01-14 07:24:53.62	73.34	31.47	
2025-01-14 07:24:53.83	73.42	31.49	
2025-01-14 07:24:54.04	73.51	31.51	
2025-01-14 07:24:54.24	73.59	31.52	
2025-01-14 07:24:54.45	73.67	31.54	
2025-01-14 07:24:54.65	73.75	31.55	
2025-01-14 07:24:54.86	73.83	31.57	
2025-01-14 07:24:55.06	73.91	31.59	
2025-01-14 07:24:55.26	73.99	31.60	
2025-01-14 07:24:55.47	74.08	31.62	
2025-01-14 07:24:55.67	74.16	31.64	
2025-01-14 07:24:55.88	74.24	31.65	
2025-01-14 07:24:56.09	74.33	31.67	
2025-01-14 07:24:56.29	74.41	31.68	
2025-01-14 07:24:56.50	74.49	31.70	
2025-01-14 07:24:56.70	74.57	31.72	
2025-01-14 07:24:56.91	74.66	31.73	
2025-01-14 07:24:57.12	74.74	31.75	
2025-01-14 07:24:57.32	74.82	31.76	
2025-01-14 07:24:57.53	74.91	31.78	
2025-01-14 07:24:57.73	74.99	31.80	
2025-01-14 07:24:57.94	75.07	31.81	
2025-01-14 07:24:58.14	75.16	31.83	
2025-01-14 07:24:58.35	75.24	31.84	
2025-01-14 07:24:58.55	75.32	31.86	
2025-01-14 07:24:58.76	75.41	31.87	
2025-01-14 07:24:58.96	75.49	31.89	
2025-01-14 07:24:59.17	75.58	31.90	
2025-01-14 07:24:59.37	75.66	31.92	
2025-01-14 07:24:59.57	75.74	31.93	
2025-01-14 07:24:59.78	75.82	31.95	
2025-01-14 07:24:59.99	75.91	31.96	
2025-01-14 07:25:00.19	75.99	31.98	
2025-01-14 07:25:00.40	76.08	31.99	
2025-01-14 07:25:00.60	76.16	32.01	
2025-01-14 07:25:00.81	76.25	32.02	
2025-01-14 07:25:01.01	76.33	32.04	
2025-01-14 07:25:01.22	76.42	32.05	
2025-01-14 07:25:01.42	76.50	32.07	
2025-01-14 07:25:01.63	76.59	32.08	
2025-01-14 07:25:01.83	76.67	32.10	
2025-01-14 07:25:02.04	76.76	32.11	
2025-01-14 07:25:02.24	76.84	32.13	
2025-01-14 07:25:02.45	76.93	32.14	
2025-01-14 07:25:02.65	77.01	32.15	
2025-01-14 07:25:02.86	77.10	32.17	
2025-01-14 07:25:03.06	77.18	32.18	
2025-01-14 07:25:03.27	77.27	32.20	
2025-01-14 07:25:03.47	77.35	32.21	
2025-01-14 07:25:03.68	77.44	32.23	
2025-01-14 07:25:03.88	77.52	32.24	
2025-01-14 07:25:04.09	77.61	32.25	
2025-01-14 07:25:04.29	77.69	32.27	
2025-01-14 07:25:04.50	77.78	32.28	
2025-01-14 07:25:04.70	77.86	32.29	
2025-01-14 07:25:04.91	77.95	32.31	
2025-01-14 07:25:05.11	78.03	32.32	
2025-01-14 07:25:05.32	78.12	32.34	
2025-01-14 07:25:05.52	78.21	32.35	
2025-01-14 07:25:05.73	78.29	32.36	
2025-01-14 07:25:05.93	78.38	32.38	
2025-01-14 07:25:06.14	78.47	32.39	
2025-01-14 07:25:06.34	78.55	32.40	
2025-01-14 07:25:06.55	78.64	32.42	
2025-01-14 07:25:06.76	78.73	32.43	
2025-01-14 07:25:06.96	78.81	32.44	
2025-01-14 07:25:07.17	78.90	32.45	
2025-01-14 07:25:07.37	78.99	32.47	
2025-01-14 07:25:07.58	79.08	32.48	
2025-01-14 07:25:07.78	79.16	32.49	
2025-01-14 07:25:07.99	79.25	32.51	
2025-01-14 07:25:08.19	79.33	32.52	
2025-01-14 07:25:08.40	79.42	32.53	
2025-01-14 07:25:08.60	79.51	32.54	
2025-01-14 07:25:08.81	79.60	32.56	
2025-01-14 07:25:09.01	79.68	32.57	
2025-01-14 07:25:09.23	79.78	32.58	
2025-01-14 07:25:09.43	79.86	32.59	
2025-01-14 07:25:09.64	79.95	32.60	
2025-01-14 07:25:09.85	80.04	32.62	
2025-01-14 07:25:10.05	80.13	32.63	
2025-01-14 07:25:10.26	80.22	32.64	
2025-01-14 07:25:10.46	80.30	32.65	
2025-01-14 07:25:10.67	80.39	32.66	
2025-01-14 07:25:10.87	80.48	32.68	
2025-01-14 07:25:11.08	80.57	32.69	
2025-01-14 07:25:11.28	80.65	32.70	
2025-01-14 07:25:11.49	80.74	32.71	
2025-01-14 07:25:11.69	80.83	32.72	
2025-01-14 07:25:11.90	80.92	32.73	
2025-01-14 07:25:12.10	81.01	32.75	
2025-01-14 07:25:12.31	81.10	32.76	
2025-01-14 07:25:12.51	81.18	32.77	
2025-01-14 07:25:12.72	81.27	32.78	
2025-01-14 07:25:12.92	81.36	32.79	
2025-01-14 07:25:13.13	81.45	32.80	
2025-01-14 07:25:13.34	81.54	32.81	
2025-01-14 07:25:13.54	81.63	32.82	
2025-01-14 07:25:13.74	81.71	32.83	
2025-01-14 07:25:13.95	81.81	32.84	
2025-01-14 07:25:14.16	81.90	32.86	
2025-01-14 07:25:14.36	81.98	32.87	
2025-01-14 07:25:14.57	82.07	32.88	
2025-01-14 07:25:14.77	82.16	32.89	
2025-01-14 07:25:14.98	82.25	32.90	
2025-01-14 07:25:15.18	82.34	32.91	
2025-01-14 07:25:15.39	82.43	32.92	
2025-01-14 07:25:15.59	82.52	32.93	
2025-01-14 07:25:15.79	82.61	32.94	
2025-01-14 07:25:16.00	82.70	32.95	
2025-01-14 07:25:16.21	82.79	32.96	
2025-01-14 07:25:16.41	82.88	32.97	
2025-01-14 07:25:16.61	82.96	32.98	
2025-01-14 07:25:16.82	83.05	32.99	
2025-01-14 07:25:17.03	83.15	33.00	
2025-01-14 07:25:17.23	83.23	33.01	
2025-01-14 07:25:17.43	83.32	33.02	
2025-01-14 07:25:17.64	83.41	33.03	
2025-01-14 07:25:17.84	83.50	33.03	
2025-01-14 07:25:18.05	83.59	33.04	
2025-01-14 07:25:18.25	83.68	33.05	
2025-01-14 07:25:18.46	83.77	33.06	
2025-01-14 07:25:18.66	83.86	33.07	
2025-01-14 07:25:18.87	83.95	33.08	
2025-01-14 07:25:19.07	84.04	33.09	
2025-01-14 07:25:19.28	84.13	33.10	
2025-01-14 07:25:19.48	84.22	33.11	
2025-01-14 07:25:19.69	84.32	33.12	
2025-01-14 07:25:19.89	84.40	33.12	
2025-01-14 07:25:20.10	84.50	33.13	
2025-01-14 07:25:20.30	84.58	33.14	
2025-01-14 07:25:20.51	84.68	33.15	
2025-01-14 07:25:20.72	84.77	33.16	
2025-01-14 07:25:20.93	84.86	33.17	
2025-01-14 07:25:21.14	84.96	33.18	
2025-01-14 07:25:21.35	85.05	33.18	
2025-01-14 07:25:21.55	85.14	33.19	
2025-01-14 07:25:21.76	85.23	33.20	
2025-01-14 07:25:21.96	85.32	33.21	
2025-01-14 07:25:22.17	85.41	33.22	
2025-01-14 07:25:22.38	85.51	33.22	
2025-01-14 07:25:22.58	85.59	33.23	
2025-01-14 07:25:22.79	85.69	33.24	
2025-01-14 07:25:22.99	85.78	33.25	
2025-01-14 07:25:23.20	85.87	33.25	
2025-01-14 07:25:23.40	85.96	33.26	
2025-01-14 07:25:23.61	86.05	33.27	
2025-01-14 07:25:23.81	86.14	33.27	
2025-01-14 07:25:24.02	86.23	33.28	
2025-01-14 07:25:24.23	86.33	33.29	
2025-01-14 07:25:24.43	86.42	33.30	
2025-01-14 07:25:24.64	86.51	33.30	
2025-01-14 07:25:24.84	86.60	33.31	
2025-01-14 07:25:25.05	86.69	33.32	
2025-01-14 07:25:25.26	86.79	33.32	
2025-01-14 07:25:25.46	86.88	33.33	
2025-01-14 07:25:25.67	86.97	33.34	
2025-01-14 07:25:25.87	87.06	33.34	
2025-01-14 07:25:26.08	87.15	33.35	
2025-01-14 07:25:26.28	87.24	33.36	
2025-01-14 07:25:26.49	87.34	33.36	
2025-01-14 07:25:26.69	87.43	33.37	
2025-01-14 07:25:26.90	87.52	33.37	
2025-01-14 07:25:27.10	87.61	33.38	
2025-01-14 07:25:27.32	87.71	33.39	
2025-01-14 07:25:27.53	87.80	33.39	
2025-01-14 07:25:27.73	87.89	33.40	
2025-01-14 07:25:27.94	87.99	33.40	
2025-01-14 07:25:28.15	88.08	33.41	
2025-01-14 07:25:28.35	88.17	33.41	
2025-01-14 07:25:28.56	88.27	33.42	
2025-01-14 07:25:28.76	88.36	33.43	
2025-01-14 07:25:28.97	88.45	33.43	
2025-01-14 07:25:29.17	88.54	33.44	
2025-01-14 07:25:29.38	88.63	33.44	
2025-01-14 07:25:29.58	88.73	33.45	
2025-01-14 07:25:29.79	88.82	33.45	
2025-01-14 07:25:29.99	88.91	33.46	
2025-01-14 07:25:30.20	89.00	33.46	
2025-01-14 07:25:30.40	89.09	33.47	
2025-01-14 07:25:30.61	89.19	33.47	
2025-01-14 07:25:30.81	89.28	33.47	
2025-01-14 07:25:31.02	89.37	33.48	
2025-01-14 07:25:31.22	89.46	33.48	
2025-01-14 07:25:31.43	89.56	33.49	
2025-01-14 07:25:31.63	89.65	33.49	
2025-01-14 07:25:31.84	89.74	33.50	
2025-01-14 07:25:32.05	89.84	33.50	
2025-01-14 07:25:32.25	89.93	33.50	
2025-01-14 07:25:32.46	90.02	33.51	
2025-01-14 07:25:32.66	90.11	33.51	
2025-01-14 07:25:32.87	90.21	33.52	
2025-01-14 07:25:33.07	90.30	33.52	
2025-01-14 07:25:33.28	90.39	33.52	
2025-01-14 07:25:33.49	90.49	33.53	
2025-01-14 07:25:33.69	90.58	33.53	
2025-01-14 07:25:33.90	90.68	33.53	
2025-01-14 07:25:34.10	90.77	33.54	
2025-01-14 07:25:34.31	90.86	33.54	
2025-01-14 07:25:34.51	90.95	33.54	
2025-01-14 07:25:34.72	91.05	33.55	
2025-01-14 07:25:34.94	91.15	33.55	
2025-01-14 07:25:35.14	91.24	33.55	
2025-01-14 07:25:35.35	91.33	33.55	
2025-01-14 07:25:35.55	91.42	33.56	
2025-01-14 07:25:35.76	91.52	33.56	
2025-01-14 07:25:35.96	91.61	33.56	
2025-01-14 07:25:36.16	91.70	33.57	
2025-01-14 07:25:36.37	91.79	33.57	
2025-01-14 07:25:36.58	91.89	33.57	
2025-01-14 07:25:36.78	91.98	33.57	
2025-01-14 07:25:37.00	92.08	33.57	
2025-01-14 07:25:37.20	92.17	33.58	
2025-01-14 07:25:37.41	92.27	33.58	
2025-01-14 07:25:37.61	92.36	33.58	
2025-01-14 07:25:37.82	92.45	33.58	
2025-01-14 07:25:38.02	92.54	33.58	
2025-01-14 07:25:38.23	92.64	33.59	
2025-01-14 07:25:38.43	92.73	33.59	
2025-01-14 07:25:38.64	92.83	33.59	
2025-01-14 07:25:38.85	92.92	33.59	
2025-01-14 07:25:39.05	93.01	33.59	
2025-01-14 07:25:39.25	93.10	33.59	
2025-01-14 07:25:39.46	93.20	33.59	
2025-01-14 07:25:39.66	93.29	33.59	
2025-01-14 07:25:39.87	93.38	33.60	
2025-01-14 07:25:40.07	93.48	33.60	
2025-01-14 07:25:40.28	93.57	33.60	
2025-01-14 07:25:40.48	93.66	33.60	
2025-01-14 07:25:40.69	93.76	33.60	
2025-01-14 07:25:40.90	93.85	33.60	
2025-01-14 07:25:41.10	93.94	33.60	
2025-01-14 07:25:41.30	94.03	33.60	
2025-01-14 07:25:41.51	94.13	33.60	
2025-01-14 07:25:41.72	94.23	33.60	
2025-01-14 07:25:41.92	94.32	33.60	
2025-01-14 07:25:42.12	94.41	33.60	
2025-01-14 07:25:42.33	94.50	33.60	
2025-01-14 07:25:42.53	94.59	33.60	
2025-01-14 07:25:42.74	94.69	33.60	
2025-01-14 07:25:42.94	94.78	33.60	
2025-01-14 07:25:43.15	94.88	33.60	
