passes_logs/2025/01/14/SPB_Silybum_02/SPB_Silybum_02__20250114_152325_TERRA_rec.log

#Pass ID: 20250114_152325_TERRA
#Satellite: TERRA
#Configuration: TERRA
#Start time: 2025-01-14 15:23:26

#Version: 2.0.20230423
#Station: SPB_Silybum_02
#Location: 30.233357 lon 59.946436 lat
#TLE: 1 25994U 99068A   25013.82437757  .00000752  00000+0  16464-3 0  9992
#TLE: 2 25994  98.0218  76.8921 0003482  75.0849  16.5253 14.60392614333908

#Time	Az	El	Level	Level2	SNR	BER	Gain	Gain2
2025-01-14 15:23:28.15	62.22	4.11	
2025-01-14 15:23:28.36	62.19	4.12	
2025-01-14 15:23:28.56	62.16	4.12	
2025-01-14 15:23:28.77	62.14	4.13	
2025-01-14 15:23:28.97	62.11	4.14	
2025-01-14 15:23:29.19	62.08	4.15	
2025-01-14 15:23:29.40	62.05	4.16	
2025-01-14 15:23:29.60	62.02	4.16	
2025-01-14 15:23:29.81	61.99	4.17	
2025-01-14 15:23:30.01	61.96	4.18	
2025-01-14 15:23:30.22	61.93	4.19	
2025-01-14 15:23:30.42	61.91	4.20	
2025-01-14 15:23:30.63	61.88	4.20	
2025-01-14 15:23:30.83	61.85	4.21	
2025-01-14 15:23:31.04	61.82	4.22	
2025-01-14 15:23:31.24	61.79	4.23	
2025-01-14 15:23:31.45	61.76	4.24	
2025-01-14 15:23:31.65	61.74	4.24	
2025-01-14 15:23:31.86	61.71	4.25	
2025-01-14 15:23:32.06	61.68	4.26	
2025-01-14 15:23:32.26	61.65	4.27	
2025-01-14 15:23:32.47	61.62	4.28	
2025-01-14 15:23:32.68	61.59	4.28	
2025-01-14 15:23:32.88	61.56	4.29	
2025-01-14 15:23:33.09	61.53	4.30	
2025-01-14 15:23:33.29	61.51	4.31	
2025-01-14 15:23:33.50	61.48	4.32	
2025-01-14 15:23:33.70	61.45	4.32	
2025-01-14 15:23:33.91	61.42	4.33	
2025-01-14 15:23:34.11	61.39	4.34	
2025-01-14 15:23:34.32	61.36	4.35	
2025-01-14 15:23:34.52	61.33	4.36	
2025-01-14 15:23:34.73	61.30	4.36	
2025-01-14 15:23:34.93	61.28	4.37	
2025-01-14 15:23:35.14	61.25	4.38	
2025-01-14 15:23:35.34	61.22	4.39	
2025-01-14 15:23:35.55	61.19	4.40	
2025-01-14 15:23:35.75	61.16	4.40	
2025-01-14 15:23:35.96	61.13	4.41	
2025-01-14 15:23:36.16	61.10	4.42	
2025-01-14 15:23:36.37	61.07	4.43	
2025-01-14 15:23:36.58	61.04	4.44	
2025-01-14 15:23:36.78	61.01	4.44	
2025-01-14 15:23:36.99	60.98	4.45	
2025-01-14 15:23:37.19	60.96	4.46	
2025-01-14 15:23:37.40	60.93	4.47	
2025-01-14 15:23:37.62	60.89	4.48	
2025-01-14 15:23:37.82	60.87	4.48	
2025-01-14 15:23:38.02	60.84	4.49	
2025-01-14 15:23:38.24	60.81	4.50	
2025-01-14 15:23:38.45	60.78	4.51	
2025-01-14 15:23:38.65	60.75	4.51	
2025-01-14 15:23:38.86	60.72	4.52	
2025-01-14 15:23:39.06	60.69	4.53	
2025-01-14 15:23:39.27	60.66	4.54	
2025-01-14 15:23:39.47	60.63	4.55	
2025-01-14 15:23:39.68	60.60	4.55	
2025-01-14 15:23:39.88	60.57	4.56	
2025-01-14 15:23:40.08	60.54	4.57	
2025-01-14 15:23:40.29	60.51	4.58	
2025-01-14 15:23:40.50	60.48	4.59	
2025-01-14 15:23:40.70	60.45	4.59	
2025-01-14 15:23:40.90	60.43	4.60	
2025-01-14 15:23:41.11	60.40	4.61	
2025-01-14 15:23:41.31	60.37	4.62	
2025-01-14 15:23:41.52	60.34	4.62	
2025-01-14 15:23:41.72	60.31	4.63	
2025-01-14 15:23:41.93	60.28	4.64	
2025-01-14 15:23:42.13	60.25	4.65	
2025-01-14 15:23:42.34	60.22	4.66	
2025-01-14 15:23:42.54	60.19	4.66	
2025-01-14 15:23:42.75	60.16	4.67	
2025-01-14 15:23:42.95	60.13	4.68	
2025-01-14 15:23:43.16	60.10	4.69	
2025-01-14 15:23:43.37	60.07	4.69	
2025-01-14 15:23:43.57	60.04	4.70	
2025-01-14 15:23:43.78	60.01	4.71	
2025-01-14 15:23:43.98	59.98	4.72	
2025-01-14 15:23:44.18	59.95	4.73	
2025-01-14 15:23:44.39	59.92	4.73	
2025-01-14 15:23:44.59	59.89	4.74	
2025-01-14 15:23:44.80	59.86	4.75	
2025-01-14 15:23:45.00	59.83	4.76	
2025-01-14 15:23:45.21	59.80	4.76	
2025-01-14 15:23:45.41	59.78	4.77	
2025-01-14 15:23:45.62	59.74	4.78	
2025-01-14 15:23:45.82	59.72	4.79	
2025-01-14 15:23:46.03	59.68	4.79	
2025-01-14 15:23:46.23	59.66	4.80	
2025-01-14 15:23:46.44	59.63	4.81	
2025-01-14 15:23:46.64	59.60	4.82	
2025-01-14 15:23:46.85	59.57	4.83	
2025-01-14 15:23:47.05	59.54	4.83	
2025-01-14 15:23:47.25	59.51	4.84	
2025-01-14 15:23:47.46	59.48	4.85	
2025-01-14 15:23:47.67	59.45	4.86	
2025-01-14 15:23:47.87	59.42	4.86	
2025-01-14 15:23:48.08	59.39	4.87	
2025-01-14 15:23:48.28	59.36	4.88	
2025-01-14 15:23:48.49	59.33	4.89	
2025-01-14 15:23:48.69	59.30	4.89	
2025-01-14 15:23:48.90	59.27	4.90	
2025-01-14 15:23:49.10	59.24	4.91	
2025-01-14 15:23:49.31	59.21	4.92	
2025-01-14 15:23:49.51	59.18	4.93	
2025-01-14 15:23:49.71	59.15	4.93	
2025-01-14 15:23:49.92	59.12	4.94	
2025-01-14 15:23:50.13	59.08	4.95	
2025-01-14 15:23:50.33	59.06	4.96	
2025-01-14 15:23:50.53	59.03	4.96	
2025-01-14 15:23:50.74	58.99	4.97	
2025-01-14 15:23:50.95	58.96	4.98	
2025-01-14 15:23:51.15	58.93	4.99	
2025-01-14 15:23:51.36	58.90	4.99	
2025-01-14 15:23:51.56	58.87	5.00	
2025-01-14 15:23:51.77	58.84	5.01	
2025-01-14 15:23:51.97	58.81	5.02	
2025-01-14 15:23:52.18	58.78	5.02	
2025-01-14 15:23:52.38	58.75	5.03	
2025-01-14 15:23:52.59	58.72	5.04	
2025-01-14 15:23:52.79	58.69	5.05	
2025-01-14 15:23:53.00	58.66	5.05	
2025-01-14 15:23:53.20	58.63	5.06	
2025-01-14 15:23:53.41	58.60	5.07	
2025-01-14 15:23:53.61	58.57	5.08	
2025-01-14 15:23:53.82	58.54	5.08	
2025-01-14 15:23:54.02	58.51	5.09	
2025-01-14 15:23:54.23	58.48	5.10	
2025-01-14 15:23:54.43	58.45	5.11	
2025-01-14 15:23:54.64	58.42	5.11	
2025-01-14 15:23:54.84	58.39	5.12	
2025-01-14 15:23:55.05	58.36	5.13	
2025-01-14 15:23:55.25	58.33	5.14	
2025-01-14 15:23:55.46	58.29	5.14	
2025-01-14 15:23:55.67	58.26	5.15	
2025-01-14 15:23:55.88	58.23	5.16	
2025-01-14 15:23:56.09	58.20	5.17	
2025-01-14 15:23:56.29	58.17	5.18	
2025-01-14 15:23:56.50	58.14	5.18	
2025-01-14 15:23:56.70	58.11	5.19	
2025-01-14 15:23:56.91	58.08	5.20	
2025-01-14 15:23:57.12	58.05	5.21	
2025-01-14 15:23:57.32	58.02	5.21	
2025-01-14 15:23:57.53	57.98	5.22	
2025-01-14 15:23:57.73	57.95	5.23	
2025-01-14 15:23:57.94	57.92	5.24	
2025-01-14 15:23:58.14	57.89	5.24	
2025-01-14 15:23:58.35	57.86	5.25	
2025-01-14 15:23:58.55	57.83	5.26	
2025-01-14 15:23:58.76	57.80	5.27	
2025-01-14 15:23:58.98	57.77	5.27	
2025-01-14 15:23:59.18	57.73	5.28	
2025-01-14 15:23:59.39	57.70	5.29	
2025-01-14 15:23:59.59	57.67	5.30	
2025-01-14 15:23:59.80	57.64	5.30	
2025-01-14 15:24:00.00	57.61	5.31	
2025-01-14 15:24:00.21	57.58	5.32	
2025-01-14 15:24:00.41	57.55	5.32	
2025-01-14 15:24:00.62	57.52	5.33	
2025-01-14 15:24:00.82	57.49	5.34	
2025-01-14 15:24:01.03	57.45	5.35	
2025-01-14 15:24:01.25	57.42	5.35	
2025-01-14 15:24:01.45	57.39	5.36	
2025-01-14 15:24:01.66	57.36	5.37	
2025-01-14 15:24:01.86	57.33	5.38	
2025-01-14 15:24:02.07	57.30	5.38	
2025-01-14 15:24:02.27	57.27	5.39	
2025-01-14 15:24:02.48	57.23	5.40	
2025-01-14 15:24:02.68	57.20	5.41	
2025-01-14 15:24:02.89	57.17	5.41	
2025-01-14 15:24:03.09	57.14	5.42	
2025-01-14 15:24:03.29	57.11	5.43	
2025-01-14 15:24:03.50	57.08	5.44	
2025-01-14 15:24:03.70	57.05	5.44	
2025-01-14 15:24:03.91	57.02	5.45	
2025-01-14 15:24:04.11	56.99	5.46	
2025-01-14 15:24:04.32	56.95	5.46	
2025-01-14 15:24:04.52	56.92	5.47	
2025-01-14 15:24:04.73	56.89	5.48	
2025-01-14 15:24:04.94	56.86	5.49	
2025-01-14 15:24:05.14	56.83	5.49	
2025-01-14 15:24:05.34	56.80	5.50	
2025-01-14 15:24:05.55	56.76	5.51	
2025-01-14 15:24:05.75	56.73	5.52	
2025-01-14 15:24:05.96	56.70	5.52	
2025-01-14 15:24:06.17	56.67	5.53	
2025-01-14 15:24:06.37	56.64	5.54	
2025-01-14 15:24:06.58	56.61	5.54	
2025-01-14 15:24:06.78	56.58	5.55	
2025-01-14 15:24:06.99	56.54	5.56	
2025-01-14 15:24:07.19	56.51	5.57	
2025-01-14 15:24:07.40	56.48	5.57	
2025-01-14 15:24:07.60	56.45	5.58	
2025-01-14 15:24:07.81	56.42	5.59	
2025-01-14 15:24:08.01	56.39	5.60	
2025-01-14 15:24:08.22	56.35	5.60	
2025-01-14 15:24:08.42	56.32	5.61	
2025-01-14 15:24:08.63	56.29	5.62	
2025-01-14 15:24:08.83	56.26	5.62	
2025-01-14 15:24:09.04	56.23	5.63	
2025-01-14 15:24:09.24	56.19	5.64	
2025-01-14 15:24:09.45	56.16	5.65	
2025-01-14 15:24:09.65	56.13	5.65	
2025-01-14 15:24:09.86	56.10	5.66	
2025-01-14 15:24:10.06	56.07	5.67	
2025-01-14 15:24:10.27	56.03	5.67	
2025-01-14 15:24:10.48	56.00	5.68	
2025-01-14 15:24:10.68	55.97	5.69	
2025-01-14 15:24:10.89	55.94	5.70	
2025-01-14 15:24:11.09	55.91	5.70	
2025-01-14 15:24:11.31	55.87	5.71	
2025-01-14 15:24:11.52	55.84	5.72	
2025-01-14 15:24:11.72	55.81	5.72	
2025-01-14 15:24:11.92	55.78	5.73	
2025-01-14 15:24:12.13	55.74	5.74	
2025-01-14 15:24:12.33	55.71	5.75	
2025-01-14 15:24:12.54	55.68	5.75	
2025-01-14 15:24:12.75	55.65	5.76	
2025-01-14 15:24:12.96	55.61	5.77	
2025-01-14 15:24:13.17	55.58	5.77	
2025-01-14 15:24:13.38	55.55	5.78	
2025-01-14 15:24:13.58	55.52	5.79	
2025-01-14 15:24:13.78	55.49	5.80	
2025-01-14 15:24:13.99	55.45	5.80	
2025-01-14 15:24:14.19	55.42	5.81	
2025-01-14 15:24:14.40	55.39	5.82	
2025-01-14 15:24:14.60	55.36	5.82	
2025-01-14 15:24:14.81	55.32	5.83	
2025-01-14 15:24:15.01	55.29	5.84	
2025-01-14 15:24:15.21	55.26	5.84	
2025-01-14 15:24:15.42	55.23	5.85	
2025-01-14 15:24:15.63	55.20	5.86	
2025-01-14 15:24:15.83	55.16	5.87	
2025-01-14 15:24:16.04	55.13	5.87	
2025-01-14 15:24:16.24	55.10	5.88	
2025-01-14 15:24:16.44	55.07	5.89	
2025-01-14 15:24:16.65	55.03	5.89	
2025-01-14 15:24:16.86	55.00	5.90	
2025-01-14 15:24:17.06	54.97	5.91	
2025-01-14 15:24:17.27	54.94	5.91	
2025-01-14 15:24:17.47	54.90	5.92	
2025-01-14 15:24:17.68	54.87	5.93	
2025-01-14 15:24:17.88	54.84	5.93	
2025-01-14 15:24:18.09	54.81	5.94	
2025-01-14 15:24:18.30	54.77	5.95	
2025-01-14 15:24:18.51	54.74	5.96	
2025-01-14 15:24:18.71	54.71	5.96	
2025-01-14 15:24:18.92	54.67	5.97	
2025-01-14 15:24:19.13	54.64	5.98	
2025-01-14 15:24:19.33	54.61	5.98	
2025-01-14 15:24:19.54	54.58	5.99	
2025-01-14 15:24:19.74	54.54	6.00	
2025-01-14 15:24:19.95	54.51	6.00	
2025-01-14 15:24:20.15	54.48	6.01	
2025-01-14 15:24:20.36	54.44	6.02	
2025-01-14 15:24:20.56	54.41	6.02	
2025-01-14 15:24:20.77	54.38	6.03	
2025-01-14 15:24:20.98	54.35	6.04	
2025-01-14 15:24:21.18	54.31	6.05	
2025-01-14 15:24:21.39	54.28	6.05	
2025-01-14 15:24:21.59	54.25	6.06	
2025-01-14 15:24:21.80	54.21	6.07	
2025-01-14 15:24:22.00	54.18	6.07	
2025-01-14 15:24:22.21	54.15	6.08	
2025-01-14 15:24:22.41	54.12	6.09	
2025-01-14 15:24:22.63	54.08	6.09	
2025-01-14 15:24:22.83	54.05	6.10	
2025-01-14 15:24:23.04	54.01	6.11	
2025-01-14 15:24:23.25	53.98	6.11	
2025-01-14 15:24:23.45	53.95	6.12	
2025-01-14 15:24:23.65	53.92	6.13	
2025-01-14 15:24:23.86	53.88	6.13	
2025-01-14 15:24:24.07	53.85	6.14	
2025-01-14 15:24:24.27	53.82	6.15	
2025-01-14 15:24:24.48	53.78	6.15	
2025-01-14 15:24:24.68	53.75	6.16	
2025-01-14 15:24:24.89	53.72	6.17	
2025-01-14 15:24:25.09	53.68	6.17	
2025-01-14 15:24:25.30	53.65	6.18	
2025-01-14 15:24:25.50	53.62	6.19	
2025-01-14 15:24:25.71	53.58	6.19	
2025-01-14 15:24:25.92	53.55	6.20	
2025-01-14 15:24:26.13	53.52	6.21	
2025-01-14 15:24:26.33	53.48	6.21	
2025-01-14 15:24:26.54	53.45	6.22	
2025-01-14 15:24:26.74	53.42	6.23	
2025-01-14 15:24:26.94	53.38	6.23	
2025-01-14 15:24:27.15	53.35	6.24	
2025-01-14 15:24:27.36	53.32	6.25	
2025-01-14 15:24:27.56	53.28	6.25	
2025-01-14 15:24:27.77	53.25	6.26	
2025-01-14 15:24:27.99	53.21	6.27	
2025-01-14 15:24:28.19	53.18	6.27	
2025-01-14 15:24:28.40	53.15	6.28	
2025-01-14 15:24:28.60	53.11	6.29	
2025-01-14 15:24:28.81	53.08	6.29	
2025-01-14 15:24:29.01	53.05	6.30	
2025-01-14 15:24:29.22	53.01	6.31	
2025-01-14 15:24:29.42	52.98	6.31	
2025-01-14 15:24:29.63	52.95	6.32	
2025-01-14 15:24:29.83	52.91	6.33	
2025-01-14 15:24:30.04	52.88	6.33	
2025-01-14 15:24:30.24	52.85	6.34	
2025-01-14 15:24:30.45	52.81	6.35	
2025-01-14 15:24:30.65	52.78	6.35	
2025-01-14 15:24:30.86	52.75	6.36	
2025-01-14 15:24:31.06	52.71	6.37	
2025-01-14 15:24:31.26	52.68	6.37	
2025-01-14 15:24:31.47	52.65	6.38	
2025-01-14 15:24:31.67	52.61	6.39	
2025-01-14 15:24:31.88	52.58	6.39	
2025-01-14 15:24:32.08	52.55	6.40	
2025-01-14 15:24:32.29	52.51	6.41	
2025-01-14 15:24:32.49	52.48	6.41	
2025-01-14 15:24:32.70	52.44	6.42	
2025-01-14 15:24:32.90	52.41	6.42	
2025-01-14 15:24:33.11	52.38	6.43	
2025-01-14 15:24:33.33	52.34	6.44	
2025-01-14 15:24:33.53	52.31	6.44	
2025-01-14 15:24:33.74	52.27	6.45	
2025-01-14 15:24:33.94	52.24	6.46	
2025-01-14 15:24:34.15	52.20	6.46	
2025-01-14 15:24:34.35	52.17	6.47	
2025-01-14 15:24:34.56	52.14	6.48	
2025-01-14 15:24:34.76	52.10	6.48	
2025-01-14 15:24:34.96	52.07	6.49	
2025-01-14 15:24:35.17	52.04	6.50	
2025-01-14 15:24:35.38	52.00	6.50	
2025-01-14 15:24:35.59	51.97	6.51	
2025-01-14 15:24:35.80	51.93	6.52	
2025-01-14 15:24:36.00	51.90	6.52	
2025-01-14 15:24:36.21	51.86	6.53	
2025-01-14 15:24:36.43	51.83	6.53	
2025-01-14 15:24:36.63	51.79	6.54	
2025-01-14 15:24:36.84	51.76	6.55	
2025-01-14 15:24:37.04	51.73	6.55	
2025-01-14 15:24:37.25	51.69	6.56	
2025-01-14 15:24:37.45	51.66	6.57	
2025-01-14 15:24:37.65	51.62	6.57	
2025-01-14 15:24:37.86	51.59	6.58	
2025-01-14 15:24:38.07	51.55	6.59	
2025-01-14 15:24:38.27	51.52	6.59	
2025-01-14 15:24:38.48	51.49	6.60	
2025-01-14 15:24:38.68	51.45	6.60	
2025-01-14 15:24:38.89	51.42	6.61	
2025-01-14 15:24:39.09	51.38	6.62	
2025-01-14 15:24:39.30	51.35	6.62	
2025-01-14 15:24:39.50	51.32	6.63	
2025-01-14 15:24:39.71	51.28	6.64	
2025-01-14 15:24:39.91	51.25	6.64	
2025-01-14 15:24:40.12	51.21	6.65	
2025-01-14 15:24:40.32	51.18	6.65	
2025-01-14 15:24:40.53	51.14	6.66	
2025-01-14 15:24:40.73	51.11	6.67	
2025-01-14 15:24:40.93	51.08	6.67	
2025-01-14 15:24:41.14	51.04	6.68	
2025-01-14 15:24:41.35	51.01	6.68	
2025-01-14 15:24:41.55	50.97	6.69	
2025-01-14 15:24:41.75	50.94	6.70	
2025-01-14 15:24:41.96	50.90	6.70	
2025-01-14 15:24:42.17	50.87	6.71	
2025-01-14 15:24:42.37	50.83	6.71	
2025-01-14 15:24:42.58	50.80	6.72	
2025-01-14 15:24:42.78	50.76	6.73	
2025-01-14 15:24:42.98	50.73	6.73	
2025-01-14 15:24:43.19	50.70	6.74	
2025-01-14 15:24:43.39	50.66	6.75	
2025-01-14 15:24:43.60	50.63	6.75	
2025-01-14 15:24:43.81	50.59	6.76	
2025-01-14 15:24:44.01	50.56	6.76	
2025-01-14 15:24:44.21	50.52	6.77	
2025-01-14 15:24:44.42	50.49	6.78	
2025-01-14 15:24:44.63	50.45	6.78	
2025-01-14 15:24:44.83	50.42	6.79	
2025-01-14 15:24:45.03	50.38	6.79	
2025-01-14 15:24:45.24	50.35	6.80	
2025-01-14 15:24:45.45	50.31	6.81	
2025-01-14 15:24:45.65	50.28	6.81	
2025-01-14 15:24:45.86	50.24	6.82	
2025-01-14 15:24:46.07	50.21	6.82	
2025-01-14 15:24:46.28	50.17	6.83	
2025-01-14 15:24:46.49	50.14	6.84	
2025-01-14 15:24:46.69	50.10	6.84	
2025-01-14 15:24:46.90	50.07	6.85	
2025-01-14 15:24:47.10	50.03	6.85	
2025-01-14 15:24:47.31	50.00	6.86	
2025-01-14 15:24:47.51	49.96	6.87	
2025-01-14 15:24:47.72	49.93	6.87	
2025-01-14 15:24:47.92	49.89	6.88	
2025-01-14 15:24:48.13	49.86	6.88	
2025-01-14 15:24:48.33	49.82	6.89	
2025-01-14 15:24:48.54	49.79	6.90	
2025-01-14 15:24:48.74	49.75	6.90	
2025-01-14 15:24:48.95	49.72	6.91	
2025-01-14 15:24:49.15	49.68	6.91	
2025-01-14 15:24:49.36	49.65	6.92	
2025-01-14 15:24:49.56	49.61	6.92	
2025-01-14 15:24:49.77	49.58	6.93	
2025-01-14 15:24:49.97	49.54	6.94	
2025-01-14 15:24:50.18	49.51	6.94	
2025-01-14 15:24:50.38	49.47	6.95	
2025-01-14 15:24:50.59	49.44	6.95	
2025-01-14 15:24:50.81	49.40	6.96	
2025-01-14 15:24:51.01	49.37	6.97	
2025-01-14 15:24:51.22	49.33	6.97	
2025-01-14 15:24:51.42	49.30	6.98	
2025-01-14 15:24:51.63	49.26	6.98	
2025-01-14 15:24:51.83	49.23	6.99	
2025-01-14 15:24:52.04	49.19	6.99	
2025-01-14 15:24:52.24	49.15	7.00	
2025-01-14 15:24:52.45	49.12	7.01	
2025-01-14 15:24:52.66	49.08	7.01	
2025-01-14 15:24:52.86	49.05	7.02	
2025-01-14 15:24:53.07	49.01	7.02	
2025-01-14 15:24:53.28	48.98	7.03	
2025-01-14 15:24:53.48	48.94	7.03	
2025-01-14 15:24:53.69	48.90	7.04	
2025-01-14 15:24:53.89	48.87	7.05	
2025-01-14 15:24:54.10	48.83	7.05	
2025-01-14 15:24:54.30	48.80	7.06	
2025-01-14 15:24:54.51	48.76	7.06	
2025-01-14 15:24:54.71	48.73	7.07	
2025-01-14 15:24:54.92	48.69	7.07	
2025-01-14 15:24:55.12	48.66	7.08	
2025-01-14 15:24:55.33	48.62	7.09	
2025-01-14 15:24:55.53	48.59	7.09	
2025-01-14 15:24:55.75	48.55	7.10	
2025-01-14 15:24:55.96	48.51	7.10	
2025-01-14 15:24:56.16	48.48	7.11	
2025-01-14 15:24:56.37	48.44	7.11	
2025-01-14 15:24:56.57	48.41	7.12	
2025-01-14 15:24:56.79	48.37	7.13	
2025-01-14 15:24:56.99	48.33	7.13	
2025-01-14 15:24:57.20	48.30	7.14	
2025-01-14 15:24:57.41	48.26	7.14	
2025-01-14 15:24:57.61	48.23	7.15	
2025-01-14 15:24:57.82	48.19	7.15	
2025-01-14 15:24:58.02	48.15	7.16	
2025-01-14 15:24:58.22	48.12	7.16	
2025-01-14 15:24:58.43	48.08	7.17	
2025-01-14 15:24:58.64	48.05	7.18	
2025-01-14 15:24:58.84	48.01	7.18	
2025-01-14 15:24:59.05	47.98	7.19	
2025-01-14 15:24:59.25	47.94	7.19	
2025-01-14 15:24:59.45	47.91	7.20	
2025-01-14 15:24:59.66	47.87	7.20	
2025-01-14 15:24:59.87	47.83	7.21	
2025-01-14 15:25:00.07	47.80	7.21	
2025-01-14 15:25:00.27	47.76	7.22	
2025-01-14 15:25:00.48	47.73	7.22	
2025-01-14 15:25:00.68	47.69	7.23	
2025-01-14 15:25:00.89	47.65	7.24	
2025-01-14 15:25:01.10	47.62	7.24	
2025-01-14 15:25:01.30	47.58	7.25	
2025-01-14 15:25:01.51	47.55	7.25	
2025-01-14 15:25:01.71	47.51	7.26	
2025-01-14 15:25:01.92	47.47	7.26	
2025-01-14 15:25:02.12	47.44	7.27	
2025-01-14 15:25:02.33	47.40	7.27	
2025-01-14 15:25:02.53	47.37	7.28	
2025-01-14 15:25:02.74	47.33	7.28	
2025-01-14 15:25:02.94	47.29	7.29	
2025-01-14 15:25:03.15	47.26	7.29	
2025-01-14 15:25:03.35	47.22	7.30	
2025-01-14 15:25:03.56	47.19	7.30	
2025-01-14 15:25:03.76	47.15	7.31	
2025-01-14 15:25:03.97	47.11	7.31	
2025-01-14 15:25:04.17	47.08	7.32	
2025-01-14 15:25:04.37	47.04	7.33	
2025-01-14 15:25:04.58	47.01	7.33	
2025-01-14 15:25:04.78	46.97	7.34	
2025-01-14 15:25:04.99	46.93	7.34	
2025-01-14 15:25:05.19	46.90	7.35	
2025-01-14 15:25:05.40	46.86	7.35	
2025-01-14 15:25:05.60	46.83	7.36	
2025-01-14 15:25:05.81	46.79	7.36	
2025-01-14 15:25:06.01	46.75	7.37	
2025-01-14 15:25:06.22	46.72	7.37	
2025-01-14 15:25:06.42	46.68	7.38	
2025-01-14 15:25:06.63	46.64	7.38	
2025-01-14 15:25:06.83	46.61	7.39	
2025-01-14 15:25:07.04	46.57	7.39	
2025-01-14 15:25:07.24	46.54	7.40	
2025-01-14 15:25:07.45	46.50	7.40	
2025-01-14 15:25:07.65	46.46	7.41	
2025-01-14 15:25:07.86	46.43	7.41	
2025-01-14 15:25:08.06	46.39	7.42	
2025-01-14 15:25:08.27	46.35	7.42	
2025-01-14 15:25:08.47	46.32	7.43	
2025-01-14 15:25:08.67	46.28	7.43	
2025-01-14 15:25:08.88	46.24	7.44	
2025-01-14 15:25:09.09	46.21	7.44	
2025-01-14 15:25:09.29	46.17	7.45	
2025-01-14 15:25:09.50	46.13	7.45	
2025-01-14 15:25:09.70	46.10	7.46	
2025-01-14 15:25:09.91	46.06	7.46	
2025-01-14 15:25:10.11	46.03	7.47	
2025-01-14 15:25:10.32	45.99	7.47	
2025-01-14 15:25:10.52	45.95	7.48	
2025-01-14 15:25:10.73	45.92	7.48	
2025-01-14 15:25:10.93	45.88	7.49	
2025-01-14 15:25:11.14	45.84	7.49	
2025-01-14 15:25:11.35	45.80	7.50	
2025-01-14 15:25:11.55	45.77	7.50	
2025-01-14 15:25:11.77	45.73	7.51	
2025-01-14 15:25:11.97	45.69	7.51	
2025-01-14 15:25:12.18	45.66	7.52	
2025-01-14 15:25:12.39	45.62	7.52	
2025-01-14 15:25:12.59	45.58	7.53	
2025-01-14 15:25:12.80	45.55	7.53	
2025-01-14 15:25:13.00	45.51	7.54	
2025-01-14 15:25:13.21	45.47	7.54	
2025-01-14 15:25:13.41	45.44	7.55	
2025-01-14 15:25:13.62	45.40	7.55	
2025-01-14 15:25:13.82	45.36	7.56	
2025-01-14 15:25:14.03	45.32	7.56	
2025-01-14 15:25:14.23	45.29	7.57	
2025-01-14 15:25:14.44	45.25	7.57	
2025-01-14 15:25:14.65	45.21	7.58	
2025-01-14 15:25:14.85	45.18	7.58	
2025-01-14 15:25:15.05	45.14	7.59	
2025-01-14 15:25:15.26	45.10	7.59	
2025-01-14 15:25:15.46	45.07	7.60	
2025-01-14 15:25:15.67	45.03	7.60	
2025-01-14 15:25:15.87	44.99	7.60	
2025-01-14 15:25:16.08	44.96	7.61	
2025-01-14 15:25:16.28	44.92	7.61	
2025-01-14 15:25:16.49	44.88	7.62	
2025-01-14 15:25:16.69	44.85	7.62	
2025-01-14 15:25:16.90	44.81	7.63	
2025-01-14 15:25:17.10	44.77	7.63	
2025-01-14 15:25:17.31	44.73	7.64	
2025-01-14 15:25:17.51	44.70	7.64	
2025-01-14 15:25:17.72	44.66	7.65	
2025-01-14 15:25:17.92	44.62	7.65	
2025-01-14 15:25:18.13	44.59	7.66	
2025-01-14 15:25:18.33	44.55	7.66	
2025-01-14 15:25:18.54	44.51	7.67	
2025-01-14 15:25:18.74	44.48	7.67	
2025-01-14 15:25:18.95	44.44	7.67	
2025-01-14 15:25:19.15	44.40	7.68	
2025-01-14 15:25:19.36	44.36	7.68	
2025-01-14 15:25:19.56	44.33	7.69	
2025-01-14 15:25:19.77	44.29	7.69	
2025-01-14 15:25:19.97	44.25	7.70	
2025-01-14 15:25:20.18	44.22	7.70	
2025-01-14 15:25:20.38	44.18	7.71	
2025-01-14 15:25:20.59	44.14	7.71	
2025-01-14 15:25:20.79	44.11	7.72	
2025-01-14 15:25:21.00	44.07	7.72	
2025-01-14 15:25:21.20	44.03	7.72	
2025-01-14 15:25:21.41	43.99	7.73	
2025-01-14 15:25:21.61	43.96	7.73	
2025-01-14 15:25:21.82	43.92	7.74	
2025-01-14 15:25:22.02	43.88	7.74	
2025-01-14 15:25:22.23	43.84	7.75	
2025-01-14 15:25:22.43	43.81	7.75	
2025-01-14 15:25:22.64	43.77	7.76	
2025-01-14 15:25:22.84	43.73	7.76	
2025-01-14 15:25:23.05	43.69	7.76	
2025-01-14 15:25:23.25	43.66	7.77	
2025-01-14 15:25:23.45	43.62	7.77	
2025-01-14 15:25:23.66	43.58	7.78	
2025-01-14 15:25:23.87	43.55	7.78	
2025-01-14 15:25:24.07	43.51	7.79	
2025-01-14 15:25:24.28	43.47	7.79	
2025-01-14 15:25:24.48	43.43	7.79	
2025-01-14 15:25:24.68	43.40	7.80	
2025-01-14 15:25:24.89	43.36	7.80	
2025-01-14 15:25:25.09	43.32	7.81	
2025-01-14 15:25:25.30	43.28	7.81	
2025-01-14 15:25:25.51	43.25	7.82	
2025-01-14 15:25:25.71	43.21	7.82	
2025-01-14 15:25:25.91	43.17	7.82	
2025-01-14 15:25:26.12	43.13	7.83	
2025-01-14 15:25:26.32	43.10	7.83	
2025-01-14 15:25:26.53	43.06	7.84	
2025-01-14 15:25:26.73	43.02	7.84	
2025-01-14 15:25:26.94	42.98	7.85	
2025-01-14 15:25:27.14	42.95	7.85	
2025-01-14 15:25:27.35	42.91	7.85	
2025-01-14 15:25:27.55	42.87	7.86	
2025-01-14 15:25:27.76	42.83	7.86	
2025-01-14 15:25:27.96	42.80	7.87	
2025-01-14 15:25:28.17	42.76	7.87	
2025-01-14 15:25:28.37	42.72	7.87	
2025-01-14 15:25:28.58	42.68	7.88	
2025-01-14 15:25:28.78	42.65	7.88	
2025-01-14 15:25:28.98	42.61	7.89	
2025-01-14 15:25:29.19	42.57	7.89	
2025-01-14 15:25:29.40	42.53	7.89	
2025-01-14 15:25:29.60	42.50	7.90	
2025-01-14 15:25:29.81	42.46	7.90	
2025-01-14 15:25:30.02	42.42	7.91	
2025-01-14 15:25:30.23	42.38	7.91	
2025-01-14 15:25:30.44	42.34	7.92	
2025-01-14 15:25:30.64	42.30	7.92	
2025-01-14 15:25:30.85	42.27	7.92	
2025-01-14 15:25:31.05	42.23	7.93	
2025-01-14 15:25:31.26	42.19	7.93	
2025-01-14 15:25:31.46	42.15	7.94	
2025-01-14 15:25:31.67	42.11	7.94	
2025-01-14 15:25:31.87	42.08	7.94	
2025-01-14 15:25:32.08	42.04	7.95	
2025-01-14 15:25:32.28	42.00	7.95	
2025-01-14 15:25:32.49	41.96	7.96	
2025-01-14 15:25:32.69	41.93	7.96	
2025-01-14 15:25:32.90	41.89	7.96	
2025-01-14 15:25:33.10	41.85	7.97	
2025-01-14 15:25:33.31	41.81	7.97	
2025-01-14 15:25:33.51	41.77	7.97	
2025-01-14 15:25:33.72	41.74	7.98	
2025-01-14 15:25:33.93	41.70	7.98	
2025-01-14 15:25:34.13	41.66	7.99	
2025-01-14 15:25:34.33	41.62	7.99	
2025-01-14 15:25:34.54	41.58	7.99	
2025-01-14 15:25:34.75	41.54	8.00	
2025-01-14 15:25:34.95	41.51	8.00	
2025-01-14 15:25:35.16	41.47	8.01	
2025-01-14 15:25:35.36	41.43	8.01	
2025-01-14 15:25:35.56	41.39	8.01	
2025-01-14 15:25:35.77	41.36	8.02	
2025-01-14 15:25:35.98	41.32	8.02	
2025-01-14 15:25:36.18	41.28	8.02	
2025-01-14 15:25:36.39	41.24	8.03	
2025-01-14 15:25:36.59	41.20	8.03	
2025-01-14 15:25:36.80	41.16	8.04	
2025-01-14 15:25:37.00	41.13	8.04	
2025-01-14 15:25:37.21	41.09	8.04	
2025-01-14 15:25:37.41	41.05	8.05	
2025-01-14 15:25:37.61	41.01	8.05	
2025-01-14 15:25:37.82	40.97	8.05	
2025-01-14 15:25:38.02	40.94	8.06	
2025-01-14 15:25:38.23	40.90	8.06	
2025-01-14 15:25:38.43	40.86	8.06	
2025-01-14 15:25:38.64	40.82	8.07	
2025-01-14 15:25:38.84	40.78	8.07	
2025-01-14 15:25:39.05	40.75	8.07	
2025-01-14 15:25:39.25	40.71	8.08	
2025-01-14 15:25:39.46	40.67	8.08	
2025-01-14 15:25:39.66	40.63	8.09	
2025-01-14 15:25:39.87	40.59	8.09	
2025-01-14 15:25:40.07	40.56	8.09	
2025-01-14 15:25:40.28	40.52	8.10	
2025-01-14 15:25:40.48	40.48	8.10	
2025-01-14 15:25:40.70	40.44	8.10	
2025-01-14 15:25:40.91	40.40	8.11	
2025-01-14 15:25:41.11	40.36	8.11	
2025-01-14 15:25:41.32	40.32	8.11	
2025-01-14 15:25:41.52	40.28	8.12	
2025-01-14 15:25:41.73	40.25	8.12	
2025-01-14 15:25:41.94	40.21	8.12	
2025-01-14 15:25:42.15	40.17	8.13	
2025-01-14 15:25:42.35	40.13	8.13	
2025-01-14 15:25:42.56	40.09	8.13	
2025-01-14 15:25:42.76	40.05	8.14	
2025-01-14 15:25:42.97	40.01	8.14	
2025-01-14 15:25:43.17	39.98	8.14	
2025-01-14 15:25:43.38	39.94	8.15	
2025-01-14 15:25:43.59	39.90	8.15	
2025-01-14 15:25:43.79	39.86	8.15	
2025-01-14 15:25:44.00	39.82	8.16	
2025-01-14 15:25:44.20	39.78	8.16	
2025-01-14 15:25:44.41	39.74	8.16	
2025-01-14 15:25:44.61	39.71	8.17	
2025-01-14 15:25:44.82	39.67	8.17	
2025-01-14 15:25:45.02	39.63	8.17	
2025-01-14 15:25:45.23	39.59	8.18	
2025-01-14 15:25:45.43	39.55	8.18	
2025-01-14 15:25:45.64	39.51	8.18	
2025-01-14 15:25:45.84	39.47	8.19	
2025-01-14 15:25:46.05	39.43	8.19	
2025-01-14 15:25:46.25	39.40	8.19	
2025-01-14 15:25:46.46	39.36	8.20	
2025-01-14 15:25:46.66	39.32	8.20	
2025-01-14 15:25:46.87	39.28	8.20	
2025-01-14 15:25:47.07	39.24	8.21	
2025-01-14 15:25:47.28	39.20	8.21	
2025-01-14 15:25:47.48	39.17	8.21	
2025-01-14 15:25:47.69	39.13	8.22	
2025-01-14 15:25:47.89	39.09	8.22	
2025-01-14 15:25:48.09	39.05	8.22	
2025-01-14 15:25:48.30	39.01	8.23	
2025-01-14 15:25:48.51	38.97	8.23	
2025-01-14 15:25:48.71	38.93	8.23	
2025-01-14 15:25:48.92	38.89	8.23	
2025-01-14 15:25:49.12	38.86	8.24	
2025-01-14 15:25:49.33	38.82	8.24	
2025-01-14 15:25:49.53	38.78	8.24	
2025-01-14 15:25:49.74	38.74	8.25	
2025-01-14 15:25:49.94	38.70	8.25	
2025-01-14 15:25:50.15	38.66	8.25	
2025-01-14 15:25:50.35	38.62	8.26	
2025-01-14 15:25:50.56	38.58	8.26	
2025-01-14 15:25:50.76	38.55	8.26	
2025-01-14 15:25:50.97	38.51	8.26	
2025-01-14 15:25:51.17	38.47	8.27	
2025-01-14 15:25:51.37	38.43	8.27	
2025-01-14 15:25:51.58	38.39	8.27	
2025-01-14 15:25:51.79	38.35	8.28	
2025-01-14 15:25:51.99	38.31	8.28	
2025-01-14 15:25:52.20	38.27	8.28	
2025-01-14 15:25:52.40	38.24	8.28	
2025-01-14 15:25:52.61	38.20	8.29	
2025-01-14 15:25:52.81	38.16	8.29	
2025-01-14 15:25:53.02	38.12	8.29	
2025-01-14 15:25:53.22	38.08	8.30	
2025-01-14 15:25:53.43	38.04	8.30	
2025-01-14 15:25:53.63	38.00	8.30	
2025-01-14 15:25:53.84	37.96	8.30	
2025-01-14 15:25:54.04	37.93	8.31	
2025-01-14 15:25:54.25	37.89	8.31	
2025-01-14 15:25:54.45	37.85	8.31	
2025-01-14 15:25:54.66	37.81	8.32	
2025-01-14 15:25:54.86	37.77	8.32	
2025-01-14 15:25:55.07	37.73	8.32	
2025-01-14 15:25:55.27	37.69	8.32	
2025-01-14 15:25:55.48	37.65	8.33	
2025-01-14 15:25:55.68	37.61	8.33	
2025-01-14 15:25:55.89	37.57	8.33	
2025-01-14 15:25:56.09	37.54	8.33	
2025-01-14 15:25:56.30	37.50	8.34	
2025-01-14 15:25:56.50	37.46	8.34	
2025-01-14 15:25:56.71	37.42	8.34	
2025-01-14 15:25:56.91	37.38	8.34	
2025-01-14 15:25:57.12	37.34	8.35	
2025-01-14 15:25:57.32	37.30	8.35	
2025-01-14 15:25:57.53	37.26	8.35	
2025-01-14 15:25:57.73	37.22	8.36	
2025-01-14 15:25:57.94	37.18	8.36	
2025-01-14 15:25:58.14	37.15	8.36	
2025-01-14 15:25:58.35	37.11	8.36	
2025-01-14 15:25:58.55	37.07	8.37	
2025-01-14 15:25:58.75	37.03	8.37	
2025-01-14 15:25:58.96	36.99	8.37	
2025-01-14 15:25:59.17	36.95	8.37	
2025-01-14 15:25:59.37	36.91	8.38	
2025-01-14 15:25:59.58	36.87	8.38	
2025-01-14 15:25:59.78	36.83	8.38	
2025-01-14 15:25:59.99	36.79	8.38	
2025-01-14 15:26:00.21	36.75	8.39	
2025-01-14 15:26:00.41	36.71	8.39	
2025-01-14 15:26:00.62	36.67	8.39	
2025-01-14 15:26:00.83	36.63	8.39	
2025-01-14 15:26:01.03	36.60	8.39	
2025-01-14 15:26:01.23	36.56	8.40	
2025-01-14 15:26:01.44	36.52	8.40	
2025-01-14 15:26:01.64	36.48	8.40	
2025-01-14 15:26:01.85	36.44	8.40	
2025-01-14 15:26:02.05	36.40	8.41	
2025-01-14 15:26:02.26	36.36	8.41	
2025-01-14 15:26:02.47	36.32	8.41	
2025-01-14 15:26:02.67	36.28	8.41	
2025-01-14 15:26:02.88	36.24	8.42	
2025-01-14 15:26:03.08	36.20	8.42	
2025-01-14 15:26:03.29	36.16	8.42	
2025-01-14 15:26:03.49	36.13	8.42	
2025-01-14 15:26:03.70	36.09	8.42	
2025-01-14 15:26:03.90	36.05	8.43	
2025-01-14 15:26:04.11	36.01	8.43	
2025-01-14 15:26:04.31	35.97	8.43	
2025-01-14 15:26:04.52	35.93	8.43	
2025-01-14 15:26:04.72	35.89	8.44	
2025-01-14 15:26:04.93	35.85	8.44	
2025-01-14 15:26:05.14	35.81	8.44	
2025-01-14 15:26:05.35	35.77	8.44	
2025-01-14 15:26:05.56	35.73	8.44	
2025-01-14 15:26:05.76	35.69	8.45	
2025-01-14 15:26:05.97	35.65	8.45	
2025-01-14 15:26:06.17	35.61	8.45	
2025-01-14 15:26:06.38	35.57	8.45	
2025-01-14 15:26:06.58	35.53	8.45	
2025-01-14 15:26:06.79	35.49	8.46	
2025-01-14 15:26:07.00	35.45	8.46	
2025-01-14 15:26:07.20	35.42	8.46	
2025-01-14 15:26:07.41	35.37	8.46	
2025-01-14 15:26:07.62	35.33	8.46	
2025-01-14 15:26:07.82	35.30	8.47	
2025-01-14 15:26:08.02	35.26	8.47	
2025-01-14 15:26:08.23	35.22	8.47	
2025-01-14 15:26:08.43	35.18	8.47	
2025-01-14 15:26:08.64	35.14	8.47	
2025-01-14 15:26:08.84	35.10	8.48	
2025-01-14 15:26:09.05	35.06	8.48	
2025-01-14 15:26:09.25	35.02	8.48	
2025-01-14 15:26:09.46	34.98	8.48	
2025-01-14 15:26:09.66	34.94	8.48	
2025-01-14 15:26:09.87	34.90	8.49	
2025-01-14 15:26:10.07	34.86	8.49	
2025-01-14 15:26:10.28	34.82	8.49	
2025-01-14 15:26:10.48	34.79	8.49	
2025-01-14 15:26:10.69	34.74	8.49	
2025-01-14 15:26:10.89	34.71	8.50	
2025-01-14 15:26:11.10	34.67	8.50	
2025-01-14 15:26:11.30	34.63	8.50	
2025-01-14 15:26:11.51	34.59	8.50	
2025-01-14 15:26:11.71	34.55	8.50	
2025-01-14 15:26:11.92	34.51	8.50	
2025-01-14 15:26:12.12	34.47	8.51	
2025-01-14 15:26:12.33	34.43	8.51	
2025-01-14 15:26:12.54	34.39	8.51	
2025-01-14 15:26:12.74	34.35	8.51	
2025-01-14 15:26:12.94	34.31	8.51	
2025-01-14 15:26:13.15	34.27	8.51	
2025-01-14 15:26:13.35	34.23	8.52	
2025-01-14 15:26:13.56	34.19	8.52	
2025-01-14 15:26:13.76	34.15	8.52	
2025-01-14 15:26:13.96	34.12	8.52	
2025-01-14 15:26:14.17	34.08	8.52	
2025-01-14 15:26:14.37	34.04	8.52	
2025-01-14 15:26:14.58	34.00	8.53	
2025-01-14 15:26:14.78	33.96	8.53	
2025-01-14 15:26:14.99	33.92	8.53	
2025-01-14 15:26:15.20	33.88	8.53	
2025-01-14 15:26:15.40	33.84	8.53	
2025-01-14 15:26:15.61	33.80	8.53	
2025-01-14 15:26:15.81	33.76	8.54	
2025-01-14 15:26:16.02	33.72	8.54	
2025-01-14 15:26:16.22	33.68	8.54	
2025-01-14 15:26:16.43	33.64	8.54	
2025-01-14 15:26:16.63	33.60	8.54	
2025-01-14 15:26:16.84	33.56	8.54	
2025-01-14 15:26:17.04	33.52	8.54	
2025-01-14 15:26:17.25	33.48	8.55	
2025-01-14 15:26:17.45	33.44	8.55	
2025-01-14 15:26:17.66	33.40	8.55	
2025-01-14 15:26:17.86	33.36	8.55	
2025-01-14 15:26:18.07	33.32	8.55	
2025-01-14 15:26:18.27	33.28	8.55	
2025-01-14 15:26:18.48	33.24	8.55	
2025-01-14 15:26:18.68	33.20	8.56	
2025-01-14 15:26:18.89	33.16	8.56	
2025-01-14 15:26:19.09	33.13	8.56	
2025-01-14 15:26:19.30	33.09	8.56	
2025-01-14 15:26:19.50	33.05	8.56	
2025-01-14 15:26:19.71	33.01	8.56	
2025-01-14 15:26:19.91	32.97	8.56	
2025-01-14 15:26:20.12	32.93	8.56	
2025-01-14 15:26:20.32	32.89	8.57	
2025-01-14 15:26:20.53	32.85	8.57	
2025-01-14 15:26:20.73	32.81	8.57	
2025-01-14 15:26:20.94	32.77	8.57	
2025-01-14 15:26:21.14	32.73	8.57	
2025-01-14 15:26:21.35	32.69	8.57	
2025-01-14 15:26:21.55	32.65	8.57	
2025-01-14 15:26:21.76	32.61	8.57	
2025-01-14 15:26:21.96	32.57	8.58	
2025-01-14 15:26:22.17	32.53	8.58	
2025-01-14 15:26:22.37	32.49	8.58	
2025-01-14 15:26:22.58	32.45	8.58	
2025-01-14 15:26:22.78	32.41	8.58	
2025-01-14 15:26:22.99	32.37	8.58	
2025-01-14 15:26:23.19	32.33	8.58	
2025-01-14 15:26:23.39	32.29	8.58	
2025-01-14 15:26:23.60	32.25	8.58	
2025-01-14 15:26:23.81	32.21	8.59	
2025-01-14 15:26:24.01	32.17	8.59	
2025-01-14 15:26:24.22	32.13	8.59	
2025-01-14 15:26:24.42	32.09	8.59	
2025-01-14 15:26:24.63	32.05	8.59	
2025-01-14 15:26:24.83	32.02	8.59	
2025-01-14 15:26:25.04	31.97	8.59	
2025-01-14 15:26:25.24	31.94	8.59	
2025-01-14 15:26:25.45	31.90	8.59	
2025-01-14 15:26:25.65	31.86	8.59	
2025-01-14 15:26:25.86	31.82	8.60	
2025-01-14 15:26:26.06	31.78	8.60	
2025-01-14 15:26:26.27	31.74	8.60	
2025-01-14 15:26:26.47	31.70	8.60	
2025-01-14 15:26:26.68	31.66	8.60	
2025-01-14 15:26:26.88	31.62	8.60	
2025-01-14 15:26:27.09	31.58	8.60	
2025-01-14 15:26:27.29	31.54	8.60	
2025-01-14 15:26:27.50	31.50	8.60	
2025-01-14 15:26:27.70	31.46	8.60	
2025-01-14 15:26:27.91	31.42	8.60	
2025-01-14 15:26:28.11	31.38	8.60	
2025-01-14 15:26:28.32	31.34	8.61	
2025-01-14 15:26:28.52	31.30	8.61	
2025-01-14 15:26:28.74	31.26	8.61	
2025-01-14 15:26:28.95	31.22	8.61	
2025-01-14 15:26:29.15	31.18	8.61	
2025-01-14 15:26:29.36	31.14	8.61	
2025-01-14 15:26:29.56	31.10	8.61	
2025-01-14 15:26:29.78	31.06	8.61	
2025-01-14 15:26:29.98	31.02	8.61	
2025-01-14 15:26:30.19	30.98	8.61	
2025-01-14 15:26:30.40	30.94	8.61	
2025-01-14 15:26:30.60	30.90	8.61	
2025-01-14 15:26:30.81	30.86	8.61	
2025-01-14 15:26:31.01	30.82	8.61	
2025-01-14 15:26:31.22	30.78	8.62	
2025-01-14 15:26:31.42	30.74	8.62	
2025-01-14 15:26:31.63	30.70	8.62	
2025-01-14 15:26:31.83	30.66	8.62	
2025-01-14 15:26:32.04	30.62	8.62	
2025-01-14 15:26:32.24	30.58	8.62	
2025-01-14 15:26:32.44	30.54	8.62	
2025-01-14 15:26:32.65	30.50	8.62	
2025-01-14 15:26:32.87	30.46	8.62	
2025-01-14 15:26:33.07	30.42	8.62	
2025-01-14 15:26:33.27	30.38	8.62	
2025-01-14 15:26:33.48	30.34	8.62	
2025-01-14 15:26:33.69	30.30	8.62	
2025-01-14 15:26:33.89	30.26	8.62	
2025-01-14 15:26:34.09	30.22	8.62	
2025-01-14 15:26:34.30	30.18	8.62	
2025-01-14 15:26:34.51	30.14	8.62	
2025-01-14 15:26:34.71	30.10	8.62	
2025-01-14 15:26:34.92	30.06	8.62	
2025-01-14 15:26:35.13	30.02	8.62	
2025-01-14 15:26:35.33	29.98	8.62	
2025-01-14 15:26:35.54	29.94	8.63	
2025-01-14 15:26:35.74	29.90	8.63	
2025-01-14 15:26:35.95	29.86	8.63	
2025-01-14 15:26:36.15	29.82	8.63	
2025-01-14 15:26:36.36	29.78	8.63	
2025-01-14 15:26:36.56	29.74	8.63	
2025-01-14 15:26:36.77	29.70	8.63	
2025-01-14 15:26:36.97	29.66	8.63	
2025-01-14 15:26:37.18	29.62	8.63	
2025-01-14 15:26:37.38	29.58	8.63	
2025-01-14 15:26:37.59	29.54	8.63	
2025-01-14 15:26:37.79	29.50	8.63	
2025-01-14 15:26:38.00	29.46	8.63	
2025-01-14 15:26:38.21	29.42	8.63	
2025-01-14 15:26:38.42	29.38	8.63	
2025-01-14 15:26:38.63	29.34	8.63	
2025-01-14 15:26:38.84	29.30	8.63	
2025-01-14 15:26:39.04	29.26	8.63	
2025-01-14 15:26:39.25	29.22	8.63	
2025-01-14 15:26:39.45	29.18	8.63	
2025-01-14 15:26:39.66	29.14	8.63	
2025-01-14 15:26:39.86	29.10	8.63	
2025-01-14 15:26:40.07	29.06	8.63	
2025-01-14 15:26:40.27	29.02	8.63	
2025-01-14 15:26:40.47	28.98	8.63	
2025-01-14 15:26:40.68	28.94	8.63	
2025-01-14 15:26:40.89	28.90	8.63	
2025-01-14 15:26:41.09	28.86	8.63	
2025-01-14 15:26:41.30	28.82	8.63	
2025-01-14 15:26:41.50	28.78	8.63	
2025-01-14 15:26:41.71	28.74	8.63	
2025-01-14 15:26:41.91	28.70	8.63	
2025-01-14 15:26:42.12	28.66	8.63	
2025-01-14 15:26:42.32	28.62	8.63	
2025-01-14 15:26:42.53	28.58	8.63	
2025-01-14 15:26:42.73	28.54	8.63	
2025-01-14 15:26:42.94	28.50	8.63	
2025-01-14 15:26:43.14	28.46	8.63	
2025-01-14 15:26:43.35	28.42	8.63	
2025-01-14 15:26:43.55	28.38	8.63	
2025-01-14 15:26:43.76	28.34	8.63	
2025-01-14 15:26:43.96	28.30	8.63	
2025-01-14 15:26:44.17	28.26	8.63	
2025-01-14 15:26:44.37	28.22	8.63	
2025-01-14 15:26:44.57	28.18	8.63	
2025-01-14 15:26:44.79	28.14	8.63	
2025-01-14 15:26:45.00	28.10	8.63	
2025-01-14 15:26:45.20	28.06	8.63	
2025-01-14 15:26:45.41	28.02	8.63	
2025-01-14 15:26:45.61	27.98	8.63	
2025-01-14 15:26:45.82	27.94	8.63	
2025-01-14 15:26:46.02	27.90	8.63	
2025-01-14 15:26:46.22	27.86	8.63	
2025-01-14 15:26:46.43	27.82	8.63	
2025-01-14 15:26:46.64	27.78	8.63	
2025-01-14 15:26:46.84	27.74	8.63	
2025-01-14 15:26:47.05	27.70	8.63	
2025-01-14 15:26:47.26	27.66	8.62	
2025-01-14 15:26:47.46	27.62	8.62	
2025-01-14 15:26:47.67	27.58	8.62	
2025-01-14 15:26:47.87	27.54	8.62	
2025-01-14 15:26:48.08	27.50	8.62	
2025-01-14 15:26:48.28	27.46	8.62	
2025-01-14 15:26:48.49	27.42	8.62	
2025-01-14 15:26:48.69	27.39	8.62	
2025-01-14 15:26:48.90	27.34	8.62	
2025-01-14 15:26:49.10	27.31	8.62	
2025-01-14 15:26:49.31	27.26	8.62	
2025-01-14 15:26:49.51	27.23	8.62	
2025-01-14 15:26:49.72	27.19	8.62	
2025-01-14 15:26:49.92	27.15	8.62	
2025-01-14 15:26:50.13	27.11	8.62	
2025-01-14 15:26:50.33	27.07	8.62	
2025-01-14 15:26:50.54	27.03	8.62	
2025-01-14 15:26:50.74	26.99	8.62	
2025-01-14 15:26:50.95	26.95	8.62	
2025-01-14 15:26:51.17	26.90	8.62	
2025-01-14 15:26:51.37	26.87	8.62	
2025-01-14 15:26:51.58	26.82	8.61	
2025-01-14 15:26:51.78	26.79	8.61	
2025-01-14 15:26:51.99	26.74	8.61	
2025-01-14 15:26:52.19	26.71	8.61	
2025-01-14 15:26:52.40	26.67	8.61	
2025-01-14 15:26:52.60	26.63	8.61	
2025-01-14 15:26:52.81	26.59	8.61	
2025-01-14 15:26:53.01	26.55	8.61	
2025-01-14 15:26:53.22	26.51	8.61	
2025-01-14 15:26:53.42	26.47	8.61	
2025-01-14 15:26:53.63	26.43	8.61	
2025-01-14 15:26:53.83	26.39	8.61	
2025-01-14 15:26:54.04	26.35	8.61	
2025-01-14 15:26:54.24	26.31	8.61	
2025-01-14 15:26:54.45	26.27	8.60	
2025-01-14 15:26:54.65	26.23	8.60	
2025-01-14 15:26:54.86	26.19	8.60	
2025-01-14 15:26:55.06	26.15	8.60	
2025-01-14 15:26:55.27	26.11	8.60	
2025-01-14 15:26:55.48	26.07	8.60	
2025-01-14 15:26:55.69	26.03	8.60	
2025-01-14 15:26:55.89	25.99	8.60	
2025-01-14 15:26:56.10	25.95	8.60	
2025-01-14 15:26:56.30	25.91	8.60	
2025-01-14 15:26:56.51	25.87	8.60	
2025-01-14 15:26:56.71	25.83	8.60	
2025-01-14 15:26:56.92	25.79	8.59	
2025-01-14 15:26:57.12	25.75	8.59	
2025-01-14 15:26:57.33	25.71	8.59	
2025-01-14 15:26:57.53	25.67	8.59	
2025-01-14 15:26:57.73	25.63	8.59	
2025-01-14 15:26:57.94	25.59	8.59	
2025-01-14 15:26:58.15	25.55	8.59	
2025-01-14 15:26:58.35	25.51	8.59	
2025-01-14 15:26:58.55	25.47	8.59	
2025-01-14 15:26:58.76	25.43	8.59	
2025-01-14 15:26:58.96	25.39	8.58	
2025-01-14 15:26:59.17	25.35	8.58	
2025-01-14 15:26:59.37	25.32	8.58	
2025-01-14 15:26:59.58	25.27	8.58	
2025-01-14 15:26:59.78	25.24	8.58	
2025-01-14 15:26:59.99	25.20	8.58	
2025-01-14 15:27:00.19	25.16	8.58	
2025-01-14 15:27:00.40	25.12	8.58	
2025-01-14 15:27:00.60	25.08	8.58	
2025-01-14 15:27:00.81	25.04	8.57	
2025-01-14 15:27:01.01	25.00	8.57	
2025-01-14 15:27:01.22	24.96	8.57	
2025-01-14 15:27:01.42	24.92	8.57	
2025-01-14 15:27:01.63	24.88	8.57	
2025-01-14 15:27:01.83	24.84	8.57	
2025-01-14 15:27:02.04	24.80	8.57	
2025-01-14 15:27:02.24	24.76	8.57	
2025-01-14 15:27:02.45	24.72	8.56	
2025-01-14 15:27:02.66	24.68	8.56	
2025-01-14 15:27:02.86	24.64	8.56	
2025-01-14 15:27:03.06	24.60	8.56	
2025-01-14 15:27:03.27	24.56	8.56	
2025-01-14 15:27:03.47	24.52	8.56	
2025-01-14 15:27:03.68	24.48	8.56	
2025-01-14 15:27:03.88	24.44	8.56	
2025-01-14 15:27:04.10	24.40	8.55	
2025-01-14 15:27:04.30	24.36	8.55	
2025-01-14 15:27:04.51	24.32	8.55	
2025-01-14 15:27:04.71	24.28	8.55	
2025-01-14 15:27:04.92	24.24	8.55	
2025-01-14 15:27:05.14	24.20	8.55	
2025-01-14 15:27:05.34	24.16	8.55	
2025-01-14 15:27:05.55	24.12	8.54	
2025-01-14 15:27:05.75	24.08	8.54	
2025-01-14 15:27:05.96	24.04	8.54	
2025-01-14 15:27:06.16	24.00	8.54	
2025-01-14 15:27:06.37	23.96	8.54	
2025-01-14 15:27:06.57	23.92	8.54	
2025-01-14 15:27:06.78	23.88	8.54	
2025-01-14 15:27:06.98	23.85	8.53	
2025-01-14 15:27:07.19	23.81	8.53	
2025-01-14 15:27:07.39	23.77	8.53	
2025-01-14 15:27:07.60	23.73	8.53	
2025-01-14 15:27:07.80	23.69	8.53	
2025-01-14 15:27:08.01	23.65	8.53	
2025-01-14 15:27:08.21	23.61	8.52	
2025-01-14 15:27:08.42	23.57	8.52	
2025-01-14 15:27:08.62	23.53	8.52	
2025-01-14 15:27:08.82	23.49	8.52	
2025-01-14 15:27:09.03	23.45	8.52	
2025-01-14 15:27:09.23	23.41	8.52	
2025-01-14 15:27:09.44	23.37	8.51	
2025-01-14 15:27:09.65	23.33	8.51	
2025-01-14 15:27:09.85	23.29	8.51	
2025-01-14 15:27:10.06	23.25	8.51	
2025-01-14 15:27:10.26	23.21	8.51	
2025-01-14 15:27:10.47	23.17	8.51	
2025-01-14 15:27:10.67	23.14	8.50	
2025-01-14 15:27:10.88	23.10	8.50	
2025-01-14 15:27:11.08	23.06	8.50	
2025-01-14 15:27:11.29	23.02	8.50	
2025-01-14 15:27:11.49	22.98	8.50	
2025-01-14 15:27:11.70	22.94	8.50	
2025-01-14 15:27:11.90	22.90	8.49	
2025-01-14 15:27:12.11	22.86	8.49	
2025-01-14 15:27:12.31	22.82	8.49	
2025-01-14 15:27:12.53	22.78	8.49	
2025-01-14 15:27:12.73	22.74	8.49	
2025-01-14 15:27:12.94	22.70	8.48	
2025-01-14 15:27:13.15	22.66	8.48	
2025-01-14 15:27:13.35	22.62	8.48	
2025-01-14 15:27:13.55	22.58	8.48	
2025-01-14 15:27:13.76	22.54	8.48	
2025-01-14 15:27:13.96	22.50	8.47	
2025-01-14 15:27:14.17	22.46	8.47	
2025-01-14 15:27:14.38	22.42	8.47	
2025-01-14 15:27:14.58	22.38	8.47	
2025-01-14 15:27:14.79	22.34	8.47	
2025-01-14 15:27:14.99	22.31	8.46	
2025-01-14 15:27:15.20	22.27	8.46	
2025-01-14 15:27:15.40	22.23	8.46	
2025-01-14 15:27:15.61	22.19	8.46	
2025-01-14 15:27:15.81	22.15	8.46	
2025-01-14 15:27:16.02	22.11	8.45	
2025-01-14 15:27:16.22	22.07	8.45	
2025-01-14 15:27:16.43	22.03	8.45	
2025-01-14 15:27:16.63	21.99	8.45	
2025-01-14 15:27:16.84	21.95	8.45	
2025-01-14 15:27:17.04	21.91	8.44	
2025-01-14 15:27:17.25	21.87	8.44	
2025-01-14 15:27:17.45	21.83	8.44	
2025-01-14 15:27:17.66	21.79	8.44	
2025-01-14 15:27:17.86	21.76	8.44	
2025-01-14 15:27:18.07	21.72	8.43	
2025-01-14 15:27:18.27	21.68	8.43	
2025-01-14 15:27:18.48	21.64	8.43	
2025-01-14 15:27:18.68	21.60	8.43	
2025-01-14 15:27:18.89	21.56	8.42	
2025-01-14 15:27:19.09	21.52	8.42	
2025-01-14 15:27:19.30	21.48	8.42	
2025-01-14 15:27:19.50	21.44	8.42	
2025-01-14 15:27:19.71	21.40	8.42	
2025-01-14 15:27:19.91	21.36	8.41	
2025-01-14 15:27:20.12	21.32	8.41	
2025-01-14 15:27:20.33	21.28	8.41	
2025-01-14 15:27:20.53	21.25	8.41	
2025-01-14 15:27:20.74	21.21	8.40	
2025-01-14 15:27:20.94	21.17	8.40	
2025-01-14 15:27:21.14	21.13	8.40	
2025-01-14 15:27:21.35	21.09	8.40	
2025-01-14 15:27:21.55	21.05	8.39	
2025-01-14 15:27:21.76	21.01	8.39	
2025-01-14 15:27:21.96	20.97	8.39	
2025-01-14 15:27:22.17	20.93	8.39	
2025-01-14 15:27:22.37	20.90	8.38	
2025-01-14 15:27:22.58	20.86	8.38	
2025-01-14 15:27:22.79	20.82	8.38	
2025-01-14 15:27:22.99	20.78	8.38	
2025-01-14 15:27:23.21	20.74	8.37	
2025-01-14 15:27:23.42	20.70	8.37	
2025-01-14 15:27:23.62	20.66	8.37	
2025-01-14 15:27:23.83	20.62	8.37	
2025-01-14 15:27:24.03	20.58	8.37	
2025-01-14 15:27:24.24	20.54	8.36	
2025-01-14 15:27:24.44	20.50	8.36	
2025-01-14 15:27:24.65	20.46	8.36	
2025-01-14 15:27:24.85	20.42	8.35	
2025-01-14 15:27:25.06	20.38	8.35	
2025-01-14 15:27:25.26	20.35	8.35	
2025-01-14 15:27:25.46	20.31	8.35	
2025-01-14 15:27:25.67	20.27	8.34	
2025-01-14 15:27:25.88	20.23	8.34	
2025-01-14 15:27:26.08	20.19	8.34	
2025-01-14 15:27:26.29	20.15	8.34	
2025-01-14 15:27:26.49	20.11	8.33	
2025-01-14 15:27:26.70	20.07	8.33	
2025-01-14 15:27:26.90	20.03	8.33	
2025-01-14 15:27:27.11	19.99	8.33	
2025-01-14 15:27:27.31	19.96	8.32	
2025-01-14 15:27:27.52	19.92	8.32	
2025-01-14 15:27:27.72	19.88	8.32	
2025-01-14 15:27:27.93	19.84	8.32	
2025-01-14 15:27:28.13	19.80	8.31	
2025-01-14 15:27:28.34	19.76	8.31	
2025-01-14 15:27:28.54	19.72	8.31	
2025-01-14 15:27:28.74	19.69	8.30	
2025-01-14 15:27:28.95	19.65	8.30	
2025-01-14 15:27:29.16	19.61	8.30	
2025-01-14 15:27:29.36	19.57	8.30	
2025-01-14 15:27:29.56	19.53	8.29	
2025-01-14 15:27:29.77	19.49	8.29	
2025-01-14 15:27:29.98	19.45	8.29	
2025-01-14 15:27:30.18	19.41	8.28	
2025-01-14 15:27:30.39	19.37	8.28	
2025-01-14 15:27:30.59	19.34	8.28	
2025-01-14 15:27:30.79	19.30	8.28	
2025-01-14 15:27:31.00	19.26	8.27	
2025-01-14 15:27:31.20	19.22	8.27	
2025-01-14 15:27:31.41	19.18	8.27	
2025-01-14 15:27:31.62	19.14	8.26	
2025-01-14 15:27:31.82	19.10	8.26	
2025-01-14 15:27:32.03	19.06	8.26	
2025-01-14 15:27:32.23	19.03	8.26	
2025-01-14 15:27:32.44	18.99	8.25	
2025-01-14 15:27:32.65	18.95	8.25	
2025-01-14 15:27:32.85	18.91	8.25	
2025-01-14 15:27:33.06	18.87	8.24	
2025-01-14 15:27:33.26	18.83	8.24	
2025-01-14 15:27:33.47	18.79	8.24	
2025-01-14 15:27:33.67	18.75	8.23	
2025-01-14 15:27:33.89	18.71	8.23	
2025-01-14 15:27:34.10	18.67	8.23	
2025-01-14 15:27:34.30	18.64	8.22	
2025-01-14 15:27:34.51	18.60	8.22	
2025-01-14 15:27:34.71	18.56	8.22	
2025-01-14 15:27:34.92	18.52	8.22	
2025-01-14 15:27:35.12	18.48	8.21	
2025-01-14 15:27:35.33	18.44	8.21	
2025-01-14 15:27:35.53	18.40	8.21	
2025-01-14 15:27:35.74	18.36	8.20	
2025-01-14 15:27:35.94	18.33	8.20	
2025-01-14 15:27:36.14	18.29	8.20	
2025-01-14 15:27:36.35	18.25	8.19	
2025-01-14 15:27:36.55	18.21	8.19	
2025-01-14 15:27:36.76	18.17	8.19	
2025-01-14 15:27:36.96	18.14	8.18	
2025-01-14 15:27:37.17	18.10	8.18	
2025-01-14 15:27:37.37	18.06	8.18	
2025-01-14 15:27:37.58	18.02	8.17	
2025-01-14 15:27:37.78	17.98	8.17	
2025-01-14 15:27:37.99	17.94	8.17	
2025-01-14 15:27:38.19	17.90	8.16	
2025-01-14 15:27:38.40	17.87	8.16	
2025-01-14 15:27:38.61	17.83	8.16	
2025-01-14 15:27:38.81	17.79	8.15	
2025-01-14 15:27:39.02	17.75	8.15	
2025-01-14 15:27:39.22	17.71	8.15	
2025-01-14 15:27:39.43	17.67	8.14	
2025-01-14 15:27:39.63	17.64	8.14	
2025-01-14 15:27:39.83	17.60	8.14	
2025-01-14 15:27:40.04	17.56	8.13	
2025-01-14 15:27:40.24	17.52	8.13	
2025-01-14 15:27:40.45	17.48	8.13	
2025-01-14 15:27:40.66	17.44	8.12	
2025-01-14 15:27:40.86	17.41	8.12	
2025-01-14 15:27:41.07	17.37	8.12	
2025-01-14 15:27:41.27	17.33	8.11	
2025-01-14 15:27:41.48	17.29	8.11	
2025-01-14 15:27:41.68	17.25	8.11	
2025-01-14 15:27:41.89	17.21	8.10	
2025-01-14 15:27:42.09	17.18	8.10	
2025-01-14 15:27:42.30	17.14	8.10	
2025-01-14 15:27:42.50	17.10	8.09	
2025-01-14 15:27:42.71	17.06	8.09	
2025-01-14 15:27:42.91	17.02	8.09	
2025-01-14 15:27:43.12	16.98	8.08	
2025-01-14 15:27:43.32	16.95	8.08	
2025-01-14 15:27:43.52	16.91	8.08	
2025-01-14 15:27:43.73	16.87	8.07	
2025-01-14 15:27:43.94	16.83	8.07	
2025-01-14 15:27:44.14	16.79	8.06	
2025-01-14 15:27:44.35	16.76	8.06	
2025-01-14 15:27:44.55	16.72	8.06	
2025-01-14 15:27:44.76	16.68	8.05	
2025-01-14 15:27:44.96	16.64	8.05	
2025-01-14 15:27:45.17	16.60	8.05	
2025-01-14 15:27:45.37	16.57	8.04	
2025-01-14 15:27:45.58	16.53	8.04	
2025-01-14 15:27:45.78	16.49	8.04	
2025-01-14 15:27:45.99	16.45	8.03	
2025-01-14 15:27:46.19	16.41	8.03	
2025-01-14 15:27:46.40	16.37	8.02	
2025-01-14 15:27:46.60	16.34	8.02	
2025-01-14 15:27:46.81	16.30	8.02	
2025-01-14 15:27:47.01	16.26	8.01	
2025-01-14 15:27:47.22	16.22	8.01	
2025-01-14 15:27:47.42	16.19	8.01	
2025-01-14 15:27:47.63	16.15	8.00	
2025-01-14 15:27:47.83	16.11	8.00	
2025-01-14 15:27:48.04	16.07	7.99	
2025-01-14 15:27:48.24	16.03	7.99	
2025-01-14 15:27:48.44	16.00	7.99	
2025-01-14 15:27:48.65	15.96	7.98	
2025-01-14 15:27:48.85	15.92	7.98	
2025-01-14 15:27:49.06	15.88	7.97	
2025-01-14 15:27:49.26	15.85	7.97	
2025-01-14 15:27:49.47	15.81	7.97	
2025-01-14 15:27:49.67	15.77	7.96	
2025-01-14 15:27:49.88	15.73	7.96	
2025-01-14 15:27:50.08	15.69	7.96	
2025-01-14 15:27:50.29	15.66	7.95	
2025-01-14 15:27:50.49	15.62	7.95	
2025-01-14 15:27:50.70	15.58	7.94	
2025-01-14 15:27:50.90	15.54	7.94	
2025-01-14 15:27:51.11	15.50	7.94	
2025-01-14 15:27:51.31	15.47	7.93	
2025-01-14 15:27:51.52	15.43	7.93	
2025-01-14 15:27:51.72	15.39	7.92	
2025-01-14 15:27:51.93	15.35	7.92	
2025-01-14 15:27:52.13	15.32	7.92	
2025-01-14 15:27:52.34	15.28	7.91	
2025-01-14 15:27:52.55	15.24	7.91	
2025-01-14 15:27:52.75	15.20	7.90	
2025-01-14 15:27:52.96	15.16	7.90	
2025-01-14 15:27:53.16	15.13	7.90	
2025-01-14 15:27:53.37	15.09	7.89	
2025-01-14 15:27:53.57	15.05	7.89	
2025-01-14 15:27:53.78	15.01	7.88	
2025-01-14 15:27:53.98	14.98	7.88	
2025-01-14 15:27:54.19	14.94	7.87	
2025-01-14 15:27:54.39	14.90	7.87	
2025-01-14 15:27:54.60	14.86	7.87	
2025-01-14 15:27:54.80	14.83	7.86	
2025-01-14 15:27:55.01	14.79	7.86	
2025-01-14 15:27:55.21	14.75	7.85	
2025-01-14 15:27:55.42	14.71	7.85	
2025-01-14 15:27:55.62	14.68	7.85	
2025-01-14 15:27:55.83	14.64	7.84	
2025-01-14 15:27:56.03	14.60	7.84	
2025-01-14 15:27:56.25	14.56	7.83	
2025-01-14 15:27:56.45	14.53	7.83	
2025-01-14 15:27:56.66	14.49	7.82	
2025-01-14 15:27:56.87	14.45	7.82	
2025-01-14 15:27:57.07	14.41	7.82	
2025-01-14 15:27:57.28	14.37	7.81	
2025-01-14 15:27:57.48	14.34	7.81	
2025-01-14 15:27:57.69	14.30	7.80	
2025-01-14 15:27:57.89	14.26	7.80	
2025-01-14 15:27:58.10	14.22	7.79	
2025-01-14 15:27:58.30	14.19	7.79	
2025-01-14 15:27:58.51	14.15	7.79	
2025-01-14 15:27:58.71	14.11	7.78	
2025-01-14 15:27:58.92	14.07	7.78	
2025-01-14 15:27:59.12	14.04	7.77	
2025-01-14 15:27:59.33	14.00	7.77	
2025-01-14 15:27:59.53	13.96	7.76	
2025-01-14 15:27:59.74	13.93	7.76	
2025-01-14 15:27:59.94	13.89	7.76	
2025-01-14 15:28:00.15	13.85	7.75	
2025-01-14 15:28:00.35	13.81	7.75	
2025-01-14 15:28:00.56	13.78	7.74	
2025-01-14 15:28:00.76	13.74	7.74	
2025-01-14 15:28:00.97	13.70	7.73	
2025-01-14 15:28:01.17	13.67	7.73	
2025-01-14 15:28:01.38	13.63	7.72	
2025-01-14 15:28:01.60	13.59	7.72	
2025-01-14 15:28:01.80	13.55	7.72	
2025-01-14 15:28:02.01	13.51	7.71	
2025-01-14 15:28:02.23	13.47	7.71	
2025-01-14 15:28:02.43	13.44	7.70	
2025-01-14 15:28:02.63	13.40	7.70	
2025-01-14 15:28:02.84	13.36	7.69	
2025-01-14 15:28:03.04	13.33	7.69	
2025-01-14 15:28:03.25	13.29	7.68	
2025-01-14 15:28:03.45	13.25	7.68	
2025-01-14 15:28:03.66	13.22	7.67	
2025-01-14 15:28:03.86	13.18	7.67	
2025-01-14 15:28:04.07	13.14	7.66	
2025-01-14 15:28:04.27	13.11	7.66	
2025-01-14 15:28:04.48	13.07	7.66	
2025-01-14 15:28:04.69	13.03	7.65	
2025-01-14 15:28:04.89	12.99	7.65	
2025-01-14 15:28:05.10	12.96	7.64	
2025-01-14 15:28:05.30	12.92	7.64	
2025-01-14 15:28:05.51	12.88	7.63	
2025-01-14 15:28:05.71	12.85	7.63	
2025-01-14 15:28:05.92	12.81	7.62	
2025-01-14 15:28:06.12	12.77	7.62	
2025-01-14 15:28:06.33	12.73	7.61	
2025-01-14 15:28:06.53	12.70	7.61	
2025-01-14 15:28:06.74	12.66	7.60	
2025-01-14 15:28:06.94	12.63	7.60	
2025-01-14 15:28:07.15	12.59	7.59	
2025-01-14 15:28:07.35	12.55	7.59	
2025-01-14 15:28:07.56	12.51	7.59	
2025-01-14 15:28:07.76	12.48	7.58	
2025-01-14 15:28:07.97	12.44	7.58	
2025-01-14 15:28:08.17	12.40	7.57	
2025-01-14 15:28:08.38	12.37	7.57	
2025-01-14 15:28:08.58	12.33	7.56	
2025-01-14 15:28:08.79	12.29	7.56	
2025-01-14 15:28:08.99	12.26	7.55	
2025-01-14 15:28:09.20	12.22	7.55	
2025-01-14 15:28:09.40	12.18	7.54	
2025-01-14 15:28:09.61	12.15	7.54	
2025-01-14 15:28:09.82	12.11	7.53	
2025-01-14 15:28:10.02	12.07	7.53	
2025-01-14 15:28:10.22	12.04	7.52	
2025-01-14 15:28:10.43	12.00	7.52	
2025-01-14 15:28:10.64	11.96	7.51	
2025-01-14 15:28:10.84	11.93	7.51	
2025-01-14 15:28:11.05	11.89	7.50	
2025-01-14 15:28:11.25	11.85	7.50	
2025-01-14 15:28:11.46	11.82	7.49	
2025-01-14 15:28:11.66	11.78	7.49	
2025-01-14 15:28:11.87	11.74	7.48	
2025-01-14 15:28:12.07	11.71	7.48	
2025-01-14 15:28:12.28	11.67	7.47	
2025-01-14 15:28:12.48	11.64	7.47	
2025-01-14 15:28:12.69	11.60	7.46	
2025-01-14 15:28:12.89	11.56	7.46	
2025-01-14 15:28:13.10	11.53	7.45	
2025-01-14 15:28:13.30	11.49	7.45	
2025-01-14 15:28:13.51	11.45	7.44	
2025-01-14 15:28:13.71	11.42	7.44	
2025-01-14 15:28:13.92	11.38	7.43	
2025-01-14 15:28:14.12	11.35	7.43	
2025-01-14 15:28:14.33	11.31	7.42	
2025-01-14 15:28:14.53	11.27	7.42	
2025-01-14 15:28:14.74	11.24	7.41	
2025-01-14 15:28:14.94	11.20	7.41	
2025-01-14 15:28:15.15	11.16	7.40	
2025-01-14 15:28:15.35	11.13	7.40	
2025-01-14 15:28:15.56	11.09	7.39	
2025-01-14 15:28:15.77	11.05	7.39	
2025-01-14 15:28:15.97	11.02	7.38	
2025-01-14 15:28:16.18	10.98	7.38	
2025-01-14 15:28:16.38	10.95	7.37	
2025-01-14 15:28:16.60	10.91	7.37	
2025-01-14 15:28:16.80	10.87	7.36	
2025-01-14 15:28:17.01	10.83	7.36	
2025-01-14 15:28:17.21	10.80	7.35	
2025-01-14 15:28:17.42	10.76	7.35	
2025-01-14 15:28:17.62	10.73	7.34	
2025-01-14 15:28:17.83	10.69	7.34	
2025-01-14 15:28:18.03	10.65	7.33	
2025-01-14 15:28:18.24	10.62	7.33	
2025-01-14 15:28:18.45	10.58	7.32	
2025-01-14 15:28:18.65	10.55	7.31	
2025-01-14 15:28:18.85	10.51	7.31	
2025-01-14 15:28:19.06	10.47	7.30	
2025-01-14 15:28:19.26	10.44	7.30	
2025-01-14 15:28:19.47	10.40	7.29	
2025-01-14 15:28:19.67	10.37	7.29	
2025-01-14 15:28:19.87	10.33	7.28	
2025-01-14 15:28:20.08	10.30	7.28	
2025-01-14 15:28:20.29	10.26	7.27	
2025-01-14 15:28:20.49	10.22	7.27	
2025-01-14 15:28:20.70	10.19	7.26	
2025-01-14 15:28:20.90	10.15	7.26	
2025-01-14 15:28:21.11	10.11	7.25	
2025-01-14 15:28:21.31	10.08	7.25	
2025-01-14 15:28:21.52	10.04	7.24	
2025-01-14 15:28:21.72	10.01	7.24	
2025-01-14 15:28:21.93	9.97	7.23	
2025-01-14 15:28:22.13	9.94	7.22	
2025-01-14 15:28:22.34	9.90	7.22	
2025-01-14 15:28:22.54	9.87	7.21	
2025-01-14 15:28:22.75	9.83	7.21	
2025-01-14 15:28:22.95	9.79	7.20	
2025-01-14 15:28:23.16	9.76	7.20	
2025-01-14 15:28:23.36	9.72	7.19	
2025-01-14 15:28:23.57	9.69	7.19	
2025-01-14 15:28:23.77	9.65	7.18	
2025-01-14 15:28:23.98	9.61	7.18	
2025-01-14 15:28:24.18	9.58	7.17	
2025-01-14 15:28:24.39	9.54	7.16	
2025-01-14 15:28:24.59	9.51	7.16	
2025-01-14 15:28:24.80	9.47	7.15	
2025-01-14 15:28:25.00	9.44	7.15	
2025-01-14 15:28:25.21	9.40	7.14	
2025-01-14 15:28:25.41	9.37	7.14	
2025-01-14 15:28:25.62	9.33	7.13	
2025-01-14 15:28:25.83	9.29	7.13	
2025-01-14 15:28:26.03	9.26	7.12	
2025-01-14 15:28:26.24	9.22	7.11	
2025-01-14 15:28:26.44	9.19	7.11	
2025-01-14 15:28:26.64	9.15	7.10	
2025-01-14 15:28:26.85	9.12	7.10	
2025-01-14 15:28:27.05	9.08	7.09	
2025-01-14 15:28:27.26	9.05	7.09	
2025-01-14 15:28:27.46	9.01	7.08	
2025-01-14 15:28:27.67	8.98	7.08	
2025-01-14 15:28:27.87	8.94	7.07	
2025-01-14 15:28:28.08	8.91	7.06	
2025-01-14 15:28:28.28	8.87	7.06	
2025-01-14 15:28:28.48	8.84	7.05	
2025-01-14 15:28:28.69	8.80	7.05	
2025-01-14 15:28:28.90	8.76	7.04	
2025-01-14 15:28:29.10	8.73	7.04	
2025-01-14 15:28:29.31	8.69	7.03	
2025-01-14 15:28:29.51	8.66	7.02	
2025-01-14 15:28:29.72	8.62	7.02	
2025-01-14 15:28:29.92	8.59	7.01	
2025-01-14 15:28:30.13	8.55	7.01	
2025-01-14 15:28:30.33	8.52	7.00	
2025-01-14 15:28:30.54	8.48	7.00	
2025-01-14 15:28:30.74	8.45	6.99	
2025-01-14 15:28:30.95	8.41	6.98	
2025-01-14 15:28:31.15	8.38	6.98	
2025-01-14 15:28:31.36	8.34	6.97	
2025-01-14 15:28:31.56	8.31	6.97	
2025-01-14 15:28:31.77	8.27	6.96	
2025-01-14 15:28:31.98	8.24	6.96	
2025-01-14 15:28:32.18	8.20	6.95	
2025-01-14 15:28:32.39	8.17	6.94	
2025-01-14 15:28:32.59	8.13	6.94	
2025-01-14 15:28:32.79	8.10	6.93	
2025-01-14 15:28:33.00	8.06	6.93	
2025-01-14 15:28:33.20	8.03	6.92	
2025-01-14 15:28:33.41	7.99	6.91	
2025-01-14 15:28:33.61	7.96	6.91	
2025-01-14 15:28:33.82	7.92	6.90	
2025-01-14 15:28:34.02	7.89	6.90	
2025-01-14 15:28:34.23	7.85	6.89	
2025-01-14 15:28:34.43	7.82	6.89	
2025-01-14 15:28:34.64	7.78	6.88	
2025-01-14 15:28:34.84	7.75	6.87	
2025-01-14 15:28:35.05	7.71	6.87	
2025-01-14 15:28:35.25	7.68	6.86	
2025-01-14 15:28:35.46	7.64	6.86	
2025-01-14 15:28:35.66	7.61	6.85	
2025-01-14 15:28:35.87	7.57	6.84	
2025-01-14 15:28:36.08	7.54	6.84	
2025-01-14 15:28:36.28	7.50	6.83	
2025-01-14 15:28:36.48	7.47	6.83	
2025-01-14 15:28:36.69	7.44	6.82	
2025-01-14 15:28:36.89	7.40	6.81	
2025-01-14 15:28:37.10	7.37	6.81	
2025-01-14 15:28:37.30	7.33	6.80	
2025-01-14 15:28:37.51	7.30	6.80	
2025-01-14 15:28:37.71	7.26	6.79	
2025-01-14 15:28:37.92	7.23	6.78	
2025-01-14 15:28:38.12	7.19	6.78	
2025-01-14 15:28:38.33	7.16	6.77	
2025-01-14 15:28:38.53	7.12	6.77	
2025-01-14 15:28:38.74	7.09	6.76	
2025-01-14 15:28:38.94	7.06	6.75	
2025-01-14 15:28:39.15	7.02	6.75	
2025-01-14 15:28:39.35	6.99	6.74	
2025-01-14 15:28:39.56	6.95	6.74	
2025-01-14 15:28:39.76	6.92	6.73	
2025-01-14 15:28:39.97	6.88	6.72	
2025-01-14 15:28:40.17	6.85	6.72	
2025-01-14 15:28:40.37	6.82	6.71	
2025-01-14 15:28:40.58	6.78	6.71	
2025-01-14 15:28:40.79	6.74	6.70	
2025-01-14 15:28:40.99	6.71	6.69	
2025-01-14 15:28:41.20	6.68	6.69	
2025-01-14 15:28:41.40	6.64	6.68	
2025-01-14 15:28:41.61	6.61	6.67	
2025-01-14 15:28:41.81	6.57	6.67	
2025-01-14 15:28:42.02	6.54	6.66	
2025-01-14 15:28:42.22	6.51	6.66	
2025-01-14 15:28:42.43	6.47	6.65	
2025-01-14 15:28:42.63	6.44	6.64	
2025-01-14 15:28:42.84	6.40	6.64	
2025-01-14 15:28:43.04	6.37	6.63	
2025-01-14 15:28:43.25	6.33	6.63	
2025-01-14 15:28:43.45	6.30	6.62	
2025-01-14 15:28:43.66	6.27	6.61	
2025-01-14 15:28:43.87	6.23	6.61	
2025-01-14 15:28:44.07	6.20	6.60	
2025-01-14 15:28:44.27	6.16	6.59	
2025-01-14 15:28:44.48	6.13	6.59	
2025-01-14 15:28:44.68	6.10	6.58	
2025-01-14 15:28:44.89	6.06	6.58	
2025-01-14 15:28:45.10	6.03	6.57	
2025-01-14 15:28:45.30	5.99	6.56	
2025-01-14 15:28:45.50	5.96	6.56	
2025-01-14 15:28:45.71	5.93	6.55	
2025-01-14 15:28:45.91	5.89	6.54	
2025-01-14 15:28:46.12	5.86	6.54	
2025-01-14 15:28:46.32	5.82	6.53	
2025-01-14 15:28:46.53	5.79	6.52	
2025-01-14 15:28:46.73	5.76	6.52	
2025-01-14 15:28:46.94	5.72	6.51	
2025-01-14 15:28:47.14	5.69	6.51	
2025-01-14 15:28:47.35	5.65	6.50	
2025-01-14 15:28:47.55	5.62	6.49	
2025-01-14 15:28:47.76	5.59	6.49	
2025-01-14 15:28:47.96	5.55	6.48	
2025-01-14 15:28:48.17	5.52	6.47	
2025-01-14 15:28:48.37	5.49	6.47	
2025-01-14 15:28:48.59	5.45	6.46	
2025-01-14 15:28:48.80	5.41	6.45	
2025-01-14 15:28:49.00	5.38	6.45	
2025-01-14 15:28:49.21	5.35	6.44	
2025-01-14 15:28:49.42	5.31	6.43	
2025-01-14 15:28:49.62	5.28	6.43	
2025-01-14 15:28:49.82	5.25	6.42	
2025-01-14 15:28:50.03	5.21	6.42	
2025-01-14 15:28:50.23	5.18	6.41	
2025-01-14 15:28:50.44	5.15	6.40	
2025-01-14 15:28:50.64	5.11	6.40	
2025-01-14 15:28:50.85	5.08	6.39	
2025-01-14 15:28:51.05	5.05	6.38	
2025-01-14 15:28:51.26	5.01	6.38	
2025-01-14 15:28:51.46	4.98	6.37	
2025-01-14 15:28:51.66	4.95	6.36	
2025-01-14 15:28:51.87	4.91	6.36	
2025-01-14 15:28:52.08	4.88	6.35	
2025-01-14 15:28:52.28	4.84	6.34	
2025-01-14 15:28:52.49	4.81	6.34	
2025-01-14 15:28:52.69	4.78	6.33	
2025-01-14 15:28:52.89	4.75	6.33	
2025-01-14 15:28:53.10	4.71	6.32	
2025-01-14 15:28:53.31	4.68	6.31	
2025-01-14 15:28:53.51	4.64	6.31	
2025-01-14 15:28:53.72	4.61	6.30	
2025-01-14 15:28:53.93	4.58	6.29	
2025-01-14 15:28:54.14	4.54	6.29	
2025-01-14 15:28:54.35	4.51	6.28	
2025-01-14 15:28:54.55	4.48	6.27	
2025-01-14 15:28:54.76	4.44	6.27	
2025-01-14 15:28:54.98	4.41	6.26	
2025-01-14 15:28:55.18	4.37	6.25	
2025-01-14 15:28:55.39	4.34	6.24	
2025-01-14 15:28:55.59	4.31	6.24	
2025-01-14 15:28:55.80	4.27	6.23	
2025-01-14 15:28:56.02	4.24	6.22	
2025-01-14 15:28:56.22	4.21	6.22	
2025-01-14 15:28:56.43	4.17	6.21	
2025-01-14 15:28:56.63	4.14	6.20	
2025-01-14 15:28:56.84	4.11	6.20	
2025-01-14 15:28:57.04	4.07	6.19	
2025-01-14 15:28:57.25	4.04	6.18	
2025-01-14 15:28:57.45	4.01	6.18	
2025-01-14 15:28:57.66	3.97	6.17	
2025-01-14 15:28:57.86	3.94	6.16	
2025-01-14 15:28:58.07	3.91	6.16	
2025-01-14 15:28:58.27	3.87	6.15	
2025-01-14 15:28:58.48	3.84	6.14	
2025-01-14 15:28:58.68	3.81	6.14	
2025-01-14 15:28:58.89	3.78	6.13	
2025-01-14 15:28:59.10	3.74	6.12	
2025-01-14 15:28:59.30	3.71	6.12	
2025-01-14 15:28:59.50	3.68	6.11	
2025-01-14 15:28:59.71	3.64	6.10	
2025-01-14 15:28:59.92	3.61	6.10	
2025-01-14 15:29:00.12	3.58	6.09	
2025-01-14 15:29:00.32	3.55	6.08	
2025-01-14 15:29:00.53	3.51	6.08	
2025-01-14 15:29:00.73	3.48	6.07	
2025-01-14 15:29:00.94	3.45	6.06	
2025-01-14 15:29:01.14	3.42	6.06	
2025-01-14 15:29:01.35	3.38	6.05	
2025-01-14 15:29:01.55	3.35	6.04	
2025-01-14 15:29:01.76	3.32	6.04	
2025-01-14 15:29:01.96	3.28	6.03	
2025-01-14 15:29:02.17	3.25	6.02	
2025-01-14 15:29:02.37	3.22	6.02	
2025-01-14 15:29:02.58	3.19	6.01	
2025-01-14 15:29:02.78	3.15	6.00	
2025-01-14 15:29:02.99	3.12	5.99	
2025-01-14 15:29:03.19	3.09	5.99	
2025-01-14 15:29:03.39	3.06	5.98	
2025-01-14 15:29:03.60	3.02	5.97	
2025-01-14 15:29:03.80	2.99	5.97	
2025-01-14 15:29:04.01	2.96	5.96	
2025-01-14 15:29:04.21	2.93	5.95	
2025-01-14 15:29:04.42	2.89	5.95	
2025-01-14 15:29:04.62	2.86	5.94	
2025-01-14 15:29:04.83	2.83	5.93	
2025-01-14 15:29:05.03	2.80	5.93	
2025-01-14 15:29:05.24	2.76	5.92	
2025-01-14 15:29:05.45	2.73	5.91	
2025-01-14 15:29:05.65	2.70	5.91	
2025-01-14 15:29:05.85	2.67	5.90	
2025-01-14 15:29:06.06	2.64	5.89	
2025-01-14 15:29:06.26	2.60	5.88	
2025-01-14 15:29:06.47	2.57	5.88	
2025-01-14 15:29:06.67	2.54	5.87	
2025-01-14 15:29:06.88	2.51	5.86	
2025-01-14 15:29:07.08	2.47	5.86	
2025-01-14 15:29:07.29	2.44	5.85	
2025-01-14 15:29:07.50	2.41	5.84	
2025-01-14 15:29:07.70	2.38	5.84	
2025-01-14 15:29:07.90	2.35	5.83	
2025-01-14 15:29:08.11	2.31	5.82	
2025-01-14 15:29:08.31	2.28	5.82	
2025-01-14 15:29:08.52	2.25	5.81	
2025-01-14 15:29:08.72	2.22	5.80	
2025-01-14 15:29:08.93	2.18	5.79	
2025-01-14 15:29:09.13	2.15	5.79	
2025-01-14 15:29:09.34	2.12	5.78	
2025-01-14 15:29:09.54	2.09	5.77	
2025-01-14 15:29:09.75	2.06	5.77	
2025-01-14 15:29:09.95	2.03	5.76	
2025-01-14 15:29:10.16	1.99	5.75	
2025-01-14 15:29:10.36	1.96	5.74	
2025-01-14 15:29:10.57	1.93	5.74	
2025-01-14 15:29:10.77	1.90	5.73	
2025-01-14 15:29:10.97	1.87	5.72	
2025-01-14 15:29:11.18	1.83	5.72	
2025-01-14 15:29:11.38	1.80	5.71	
2025-01-14 15:29:11.59	1.77	5.70	
2025-01-14 15:29:11.79	1.74	5.70	
2025-01-14 15:29:12.00	1.71	5.69	
2025-01-14 15:29:12.20	1.68	5.68	
2025-01-14 15:29:12.41	1.64	5.67	
2025-01-14 15:29:12.62	1.61	5.67	
2025-01-14 15:29:12.82	1.58	5.66	
2025-01-14 15:29:13.04	1.55	5.65	
2025-01-14 15:29:13.25	1.51	5.64	
2025-01-14 15:29:13.45	1.48	5.64	
2025-01-14 15:29:13.66	1.45	5.63	
2025-01-14 15:29:13.86	1.42	5.62	
2025-01-14 15:29:14.07	1.39	5.62	
2025-01-14 15:29:14.27	1.36	5.61	
2025-01-14 15:29:14.49	1.32	5.60	
2025-01-14 15:29:14.70	1.29	5.59	
2025-01-14 15:29:14.90	1.26	5.59	
2025-01-14 15:29:15.10	1.23	5.58	
2025-01-14 15:29:15.31	1.20	5.57	
2025-01-14 15:29:15.53	1.16	5.56	
2025-01-14 15:29:15.73	1.13	5.56	
2025-01-14 15:29:15.94	1.10	5.55	
2025-01-14 15:29:16.15	1.07	5.54	
2025-01-14 15:29:16.36	1.03	5.54	
2025-01-14 15:29:16.57	1.00	5.53	
2025-01-14 15:29:16.77	0.97	5.52	
2025-01-14 15:29:16.98	0.94	5.51	
2025-01-14 15:29:17.18	0.91	5.51	
2025-01-14 15:29:17.38	0.88	5.50	
2025-01-14 15:29:17.59	0.85	5.49	
2025-01-14 15:29:17.80	0.81	5.48	
2025-01-14 15:29:18.00	0.78	5.48	
2025-01-14 15:29:18.21	0.75	5.47	
2025-01-14 15:29:18.41	0.72	5.46	
2025-01-14 15:29:18.61	0.69	5.46	
2025-01-14 15:29:18.82	0.66	5.45	
2025-01-14 15:29:19.02	0.63	5.44	
2025-01-14 15:29:19.23	0.60	5.43	
2025-01-14 15:29:19.43	0.57	5.43	
