passes_logs/2025/01/14/SPB_Silybum_02/SPB_Silybum_02__20250114_085738_TERRA_rec.log

#Pass ID: 20250114_085738_TERRA
#Satellite: TERRA
#Configuration: TERRA
#Start time: 2025-01-14 08:57:39

#Version: 2.0.20230423
#Station: SPB_Silybum_02
#Location: 30.233357 lon 59.946436 lat
#TLE: 1 25994U 99068A   25013.82437757  .00000752  00000+0  16464-3 0  9992
#TLE: 2 25994  98.0218  76.8921 0003482  75.0849  16.5253 14.60392614333908

#Time	Az	El	Level	Level2	SNR	BER	Gain	Gain2
2025-01-14 08:57:41.34	13.81	4.20	
2025-01-14 08:57:41.55	13.81	4.22	
2025-01-14 08:57:41.76	13.80	4.23	
2025-01-14 08:57:41.97	13.79	4.25	
2025-01-14 08:57:42.18	13.79	4.26	
2025-01-14 08:57:42.39	13.78	4.28	
2025-01-14 08:57:42.59	13.78	4.29	
2025-01-14 08:57:42.80	13.77	4.30	
2025-01-14 08:57:43.00	13.77	4.32	
2025-01-14 08:57:43.21	13.76	4.33	
2025-01-14 08:57:43.41	13.75	4.35	
2025-01-14 08:57:43.61	13.75	4.36	
2025-01-14 08:57:43.82	13.74	4.38	
2025-01-14 08:57:44.02	13.74	4.39	
2025-01-14 08:57:44.23	13.73	4.41	
2025-01-14 08:57:44.43	13.72	4.42	
2025-01-14 08:57:44.64	13.72	4.44	
2025-01-14 08:57:44.84	13.71	4.45	
2025-01-14 08:57:45.05	13.71	4.47	
2025-01-14 08:57:45.27	13.70	4.48	
2025-01-14 08:57:45.47	13.70	4.50	
2025-01-14 08:57:45.68	13.69	4.51	
2025-01-14 08:57:45.89	13.68	4.53	
2025-01-14 08:57:46.09	13.68	4.54	
2025-01-14 08:57:46.31	13.67	4.56	
2025-01-14 08:57:46.51	13.67	4.57	
2025-01-14 08:57:46.72	13.66	4.59	
2025-01-14 08:57:46.93	13.65	4.60	
2025-01-14 08:57:47.13	13.65	4.62	
2025-01-14 08:57:47.34	13.64	4.63	
2025-01-14 08:57:47.54	13.64	4.64	
2025-01-14 08:57:47.75	13.63	4.66	
2025-01-14 08:57:47.95	13.62	4.67	
2025-01-14 08:57:48.16	13.62	4.69	
2025-01-14 08:57:48.38	13.61	4.71	
2025-01-14 08:57:48.58	13.61	4.72	
2025-01-14 08:57:48.79	13.60	4.74	
2025-01-14 08:57:48.99	13.59	4.75	
2025-01-14 08:57:49.20	13.59	4.77	
2025-01-14 08:57:49.40	13.58	4.78	
2025-01-14 08:57:49.61	13.58	4.79	
2025-01-14 08:57:49.82	13.57	4.81	
2025-01-14 08:57:50.02	13.56	4.82	
2025-01-14 08:57:50.23	13.56	4.84	
2025-01-14 08:57:50.43	13.55	4.85	
2025-01-14 08:57:50.63	13.55	4.87	
2025-01-14 08:57:50.84	13.54	4.88	
2025-01-14 08:57:51.05	13.53	4.90	
2025-01-14 08:57:51.25	13.53	4.91	
2025-01-14 08:57:51.46	13.52	4.93	
2025-01-14 08:57:51.66	13.52	4.94	
2025-01-14 08:57:51.87	13.51	4.96	
2025-01-14 08:57:52.07	13.50	4.97	
2025-01-14 08:57:52.28	13.50	4.99	
2025-01-14 08:57:52.48	13.49	5.00	
2025-01-14 08:57:52.69	13.48	5.02	
2025-01-14 08:57:52.89	13.48	5.03	
2025-01-14 08:57:53.10	13.47	5.05	
2025-01-14 08:57:53.30	13.47	5.06	
2025-01-14 08:57:53.51	13.46	5.08	
2025-01-14 08:57:53.71	13.45	5.09	
2025-01-14 08:57:53.92	13.45	5.11	
2025-01-14 08:57:54.12	13.44	5.13	
2025-01-14 08:57:54.33	13.44	5.14	
2025-01-14 08:57:54.53	13.43	5.16	
2025-01-14 08:57:54.74	13.42	5.17	
2025-01-14 08:57:54.94	13.42	5.19	
2025-01-14 08:57:55.15	13.41	5.20	
2025-01-14 08:57:55.36	13.40	5.22	
2025-01-14 08:57:55.56	13.40	5.23	
2025-01-14 08:57:55.76	13.39	5.25	
2025-01-14 08:57:55.97	13.39	5.26	
2025-01-14 08:57:56.17	13.38	5.28	
2025-01-14 08:57:56.38	13.37	5.29	
2025-01-14 08:57:56.58	13.37	5.31	
2025-01-14 08:57:56.79	13.36	5.32	
2025-01-14 08:57:57.01	13.35	5.34	
2025-01-14 08:57:57.21	13.35	5.35	
2025-01-14 08:57:57.42	13.34	5.37	
2025-01-14 08:57:57.62	13.34	5.38	
2025-01-14 08:57:57.83	13.33	5.40	
2025-01-14 08:57:58.04	13.32	5.42	
2025-01-14 08:57:58.25	13.32	5.43	
2025-01-14 08:57:58.46	13.31	5.45	
2025-01-14 08:57:58.66	13.30	5.46	
2025-01-14 08:57:58.87	13.30	5.48	
2025-01-14 08:57:59.07	13.29	5.49	
2025-01-14 08:57:59.28	13.28	5.51	
2025-01-14 08:57:59.48	13.28	5.52	
2025-01-14 08:57:59.68	13.27	5.54	
2025-01-14 08:57:59.89	13.27	5.55	
2025-01-14 08:58:00.09	13.26	5.57	
2025-01-14 08:58:00.30	13.25	5.58	
2025-01-14 08:58:00.50	13.25	5.60	
2025-01-14 08:58:00.71	13.24	5.62	
2025-01-14 08:58:00.92	13.23	5.63	
2025-01-14 08:58:01.12	13.23	5.65	
2025-01-14 08:58:01.33	13.22	5.66	
2025-01-14 08:58:01.54	13.21	5.68	
2025-01-14 08:58:01.75	13.21	5.69	
2025-01-14 08:58:01.95	13.20	5.71	
2025-01-14 08:58:02.16	13.19	5.72	
2025-01-14 08:58:02.38	13.19	5.74	
2025-01-14 08:58:02.58	13.18	5.76	
2025-01-14 08:58:02.79	13.17	5.77	
2025-01-14 08:58:02.99	13.17	5.79	
2025-01-14 08:58:03.20	13.16	5.80	
2025-01-14 08:58:03.40	13.15	5.82	
2025-01-14 08:58:03.61	13.15	5.83	
2025-01-14 08:58:03.81	13.14	5.85	
2025-01-14 08:58:04.02	13.13	5.87	
2025-01-14 08:58:04.22	13.13	5.88	
2025-01-14 08:58:04.43	13.12	5.90	
2025-01-14 08:58:04.63	13.12	5.91	
2025-01-14 08:58:04.84	13.11	5.93	
2025-01-14 08:58:05.05	13.10	5.94	
2025-01-14 08:58:05.25	13.10	5.96	
2025-01-14 08:58:05.46	13.09	5.98	
2025-01-14 08:58:05.66	13.08	5.99	
2025-01-14 08:58:05.87	13.08	6.01	
2025-01-14 08:58:06.07	13.07	6.02	
2025-01-14 08:58:06.28	13.06	6.04	
2025-01-14 08:58:06.48	13.06	6.05	
2025-01-14 08:58:06.69	13.05	6.07	
2025-01-14 08:58:06.90	13.04	6.09	
2025-01-14 08:58:07.10	13.04	6.10	
2025-01-14 08:58:07.31	13.03	6.12	
2025-01-14 08:58:07.52	13.02	6.13	
2025-01-14 08:58:07.73	13.01	6.15	
2025-01-14 08:58:07.94	13.01	6.17	
2025-01-14 08:58:08.14	13.00	6.18	
2025-01-14 08:58:08.35	12.99	6.20	
2025-01-14 08:58:08.55	12.99	6.21	
2025-01-14 08:58:08.76	12.98	6.23	
2025-01-14 08:58:08.96	12.97	6.24	
2025-01-14 08:58:09.17	12.97	6.26	
2025-01-14 08:58:09.37	12.96	6.28	
2025-01-14 08:58:09.58	12.95	6.29	
2025-01-14 08:58:09.78	12.95	6.31	
2025-01-14 08:58:09.99	12.94	6.32	
2025-01-14 08:58:10.19	12.93	6.34	
2025-01-14 08:58:10.40	12.93	6.35	
2025-01-14 08:58:10.61	12.92	6.37	
2025-01-14 08:58:10.81	12.91	6.39	
2025-01-14 08:58:11.01	12.91	6.40	
2025-01-14 08:58:11.22	12.90	6.42	
2025-01-14 08:58:11.43	12.89	6.43	
2025-01-14 08:58:11.63	12.88	6.45	
2025-01-14 08:58:11.84	12.88	6.47	
2025-01-14 08:58:12.04	12.87	6.48	
2025-01-14 08:58:12.25	12.86	6.50	
2025-01-14 08:58:12.45	12.86	6.51	
2025-01-14 08:58:12.66	12.85	6.53	
2025-01-14 08:58:12.86	12.84	6.55	
2025-01-14 08:58:13.07	12.84	6.56	
2025-01-14 08:58:13.28	12.83	6.58	
2025-01-14 08:58:13.48	12.82	6.59	
2025-01-14 08:58:13.69	12.82	6.61	
2025-01-14 08:58:13.89	12.81	6.63	
2025-01-14 08:58:14.10	12.80	6.64	
2025-01-14 08:58:14.30	12.79	6.66	
2025-01-14 08:58:14.52	12.79	6.68	
2025-01-14 08:58:14.72	12.78	6.69	
2025-01-14 08:58:14.93	12.77	6.71	
2025-01-14 08:58:15.14	12.77	6.72	
2025-01-14 08:58:15.34	12.76	6.74	
2025-01-14 08:58:15.54	12.75	6.76	
2025-01-14 08:58:15.75	12.74	6.77	
2025-01-14 08:58:15.96	12.74	6.79	
2025-01-14 08:58:16.16	12.73	6.81	
2025-01-14 08:58:16.36	12.72	6.82	
2025-01-14 08:58:16.57	12.72	6.84	
2025-01-14 08:58:16.77	12.71	6.85	
2025-01-14 08:58:16.98	12.70	6.87	
2025-01-14 08:58:17.18	12.69	6.89	
2025-01-14 08:58:17.39	12.69	6.90	
2025-01-14 08:58:17.59	12.68	6.92	
2025-01-14 08:58:17.80	12.67	6.94	
2025-01-14 08:58:18.00	12.67	6.95	
2025-01-14 08:58:18.21	12.66	6.97	
2025-01-14 08:58:18.42	12.65	6.98	
2025-01-14 08:58:18.62	12.64	7.00	
2025-01-14 08:58:18.83	12.64	7.02	
2025-01-14 08:58:19.03	12.63	7.03	
2025-01-14 08:58:19.24	12.62	7.05	
2025-01-14 08:58:19.46	12.61	7.07	
2025-01-14 08:58:19.66	12.61	7.08	
2025-01-14 08:58:19.87	12.60	7.10	
2025-01-14 08:58:20.07	12.59	7.12	
2025-01-14 08:58:20.28	12.59	7.13	
2025-01-14 08:58:20.48	12.58	7.15	
2025-01-14 08:58:20.69	12.57	7.17	
2025-01-14 08:58:20.89	12.56	7.18	
2025-01-14 08:58:21.10	12.56	7.20	
2025-01-14 08:58:21.30	12.55	7.21	
2025-01-14 08:58:21.51	12.54	7.23	
2025-01-14 08:58:21.71	12.53	7.25	
2025-01-14 08:58:21.92	12.53	7.26	
2025-01-14 08:58:22.12	12.52	7.28	
2025-01-14 08:58:22.33	12.51	7.30	
2025-01-14 08:58:22.53	12.50	7.31	
2025-01-14 08:58:22.74	12.50	7.33	
2025-01-14 08:58:22.94	12.49	7.35	
2025-01-14 08:58:23.15	12.48	7.36	
2025-01-14 08:58:23.35	12.48	7.38	
2025-01-14 08:58:23.56	12.47	7.40	
2025-01-14 08:58:23.76	12.46	7.41	
2025-01-14 08:58:23.97	12.45	7.43	
2025-01-14 08:58:24.18	12.44	7.45	
2025-01-14 08:58:24.39	12.44	7.46	
2025-01-14 08:58:24.60	12.43	7.48	
2025-01-14 08:58:24.80	12.42	7.50	
2025-01-14 08:58:25.01	12.41	7.51	
2025-01-14 08:58:25.21	12.41	7.53	
2025-01-14 08:58:25.42	12.40	7.55	
2025-01-14 08:58:25.63	12.39	7.56	
2025-01-14 08:58:25.83	12.38	7.58	
2025-01-14 08:58:26.03	12.38	7.60	
2025-01-14 08:58:26.23	12.37	7.61	
2025-01-14 08:58:26.44	12.36	7.63	
2025-01-14 08:58:26.65	12.35	7.65	
2025-01-14 08:58:26.85	12.35	7.66	
2025-01-14 08:58:27.06	12.34	7.68	
2025-01-14 08:58:27.26	12.33	7.70	
2025-01-14 08:58:27.47	12.32	7.71	
2025-01-14 08:58:27.67	12.32	7.73	
2025-01-14 08:58:27.88	12.31	7.75	
2025-01-14 08:58:28.08	12.30	7.77	
2025-01-14 08:58:28.29	12.29	7.78	
2025-01-14 08:58:28.49	12.29	7.80	
2025-01-14 08:58:28.70	12.28	7.82	
2025-01-14 08:58:28.90	12.27	7.83	
2025-01-14 08:58:29.11	12.26	7.85	
2025-01-14 08:58:29.31	12.25	7.87	
2025-01-14 08:58:29.52	12.25	7.88	
2025-01-14 08:58:29.73	12.24	7.90	
2025-01-14 08:58:29.93	12.23	7.92	
2025-01-14 08:58:30.14	12.22	7.93	
2025-01-14 08:58:30.34	12.21	7.95	
2025-01-14 08:58:30.55	12.21	7.97	
2025-01-14 08:58:30.75	12.20	7.99	
2025-01-14 08:58:30.96	12.19	8.00	
2025-01-14 08:58:31.18	12.18	8.02	
2025-01-14 08:58:31.38	12.18	8.04	
2025-01-14 08:58:31.59	12.17	8.06	
2025-01-14 08:58:31.79	12.16	8.07	
2025-01-14 08:58:32.00	12.15	8.09	
2025-01-14 08:58:32.21	12.14	8.11	
2025-01-14 08:58:32.41	12.14	8.12	
2025-01-14 08:58:32.61	12.13	8.14	
2025-01-14 08:58:32.82	12.12	8.16	
2025-01-14 08:58:33.02	12.11	8.17	
2025-01-14 08:58:33.23	12.10	8.19	
2025-01-14 08:58:33.43	12.10	8.21	
2025-01-14 08:58:33.64	12.09	8.23	
2025-01-14 08:58:33.85	12.08	8.24	
2025-01-14 08:58:34.06	12.07	8.26	
2025-01-14 08:58:34.27	12.06	8.28	
2025-01-14 08:58:34.47	12.06	8.30	
2025-01-14 08:58:34.68	12.05	8.31	
2025-01-14 08:58:34.88	12.04	8.33	
2025-01-14 08:58:35.09	12.03	8.35	
2025-01-14 08:58:35.29	12.02	8.36	
2025-01-14 08:58:35.49	12.02	8.38	
2025-01-14 08:58:35.70	12.01	8.40	
2025-01-14 08:58:35.91	12.00	8.42	
2025-01-14 08:58:36.11	11.99	8.43	
2025-01-14 08:58:36.32	11.98	8.45	
2025-01-14 08:58:36.52	11.97	8.47	
2025-01-14 08:58:36.73	11.97	8.49	
2025-01-14 08:58:36.93	11.96	8.50	
2025-01-14 08:58:37.14	11.95	8.52	
2025-01-14 08:58:37.34	11.94	8.54	
2025-01-14 08:58:37.55	11.93	8.56	
2025-01-14 08:58:37.75	11.93	8.57	
2025-01-14 08:58:37.96	11.92	8.59	
2025-01-14 08:58:38.17	11.91	8.61	
2025-01-14 08:58:38.37	11.90	8.63	
2025-01-14 08:58:38.58	11.89	8.64	
2025-01-14 08:58:38.78	11.88	8.66	
2025-01-14 08:58:38.99	11.88	8.68	
2025-01-14 08:58:39.19	11.87	8.70	
2025-01-14 08:58:39.40	11.86	8.71	
2025-01-14 08:58:39.60	11.85	8.73	
2025-01-14 08:58:39.81	11.84	8.75	
2025-01-14 08:58:40.01	11.83	8.77	
2025-01-14 08:58:40.22	11.83	8.78	
2025-01-14 08:58:40.42	11.82	8.80	
2025-01-14 08:58:40.63	11.81	8.82	
2025-01-14 08:58:40.83	11.80	8.84	
2025-01-14 08:58:41.04	11.79	8.85	
2025-01-14 08:58:41.24	11.78	8.87	
2025-01-14 08:58:41.45	11.78	8.89	
2025-01-14 08:58:41.65	11.77	8.91	
2025-01-14 08:58:41.86	11.76	8.93	
2025-01-14 08:58:42.06	11.75	8.94	
2025-01-14 08:58:42.27	11.74	8.96	
2025-01-14 08:58:42.48	11.73	8.98	
2025-01-14 08:58:42.68	11.72	9.00	
2025-01-14 08:58:42.88	11.72	9.01	
2025-01-14 08:58:43.09	11.71	9.03	
2025-01-14 08:58:43.30	11.70	9.05	
2025-01-14 08:58:43.50	11.69	9.07	
2025-01-14 08:58:43.71	11.68	9.09	
2025-01-14 08:58:43.91	11.67	9.10	
2025-01-14 08:58:44.12	11.66	9.12	
2025-01-14 08:58:44.32	11.66	9.14	
2025-01-14 08:58:44.53	11.65	9.16	
2025-01-14 08:58:44.73	11.64	9.17	
2025-01-14 08:58:44.95	11.63	9.19	
2025-01-14 08:58:45.15	11.62	9.21	
2025-01-14 08:58:45.36	11.61	9.23	
2025-01-14 08:58:45.57	11.60	9.25	
2025-01-14 08:58:45.77	11.59	9.26	
2025-01-14 08:58:45.97	11.59	9.28	
2025-01-14 08:58:46.18	11.58	9.30	
2025-01-14 08:58:46.39	11.57	9.32	
2025-01-14 08:58:46.59	11.56	9.34	
2025-01-14 08:58:46.80	11.55	9.36	
2025-01-14 08:58:47.00	11.54	9.37	
2025-01-14 08:58:47.21	11.53	9.39	
2025-01-14 08:58:47.41	11.52	9.41	
2025-01-14 08:58:47.62	11.52	9.43	
2025-01-14 08:58:47.83	11.51	9.45	
2025-01-14 08:58:48.03	11.50	9.46	
2025-01-14 08:58:48.24	11.49	9.48	
2025-01-14 08:58:48.44	11.48	9.50	
2025-01-14 08:58:48.65	11.47	9.52	
2025-01-14 08:58:48.85	11.46	9.54	
2025-01-14 08:58:49.06	11.45	9.55	
2025-01-14 08:58:49.28	11.44	9.57	
2025-01-14 08:58:49.48	11.44	9.59	
2025-01-14 08:58:49.69	11.43	9.61	
2025-01-14 08:58:49.90	11.42	9.63	
2025-01-14 08:58:50.10	11.41	9.65	
2025-01-14 08:58:50.31	11.40	9.67	
2025-01-14 08:58:50.51	11.39	9.68	
2025-01-14 08:58:50.72	11.38	9.70	
2025-01-14 08:58:50.93	11.37	9.72	
2025-01-14 08:58:51.13	11.36	9.74	
2025-01-14 08:58:51.35	11.35	9.76	
2025-01-14 08:58:51.56	11.34	9.78	
2025-01-14 08:58:51.76	11.33	9.80	
2025-01-14 08:58:51.97	11.33	9.81	
2025-01-14 08:58:52.18	11.32	9.83	
2025-01-14 08:58:52.38	11.31	9.85	
2025-01-14 08:58:52.59	11.30	9.87	
2025-01-14 08:58:52.79	11.29	9.89	
2025-01-14 08:58:53.00	11.28	9.91	
2025-01-14 08:58:53.21	11.27	9.93	
2025-01-14 08:58:53.41	11.26	9.94	
2025-01-14 08:58:53.61	11.25	9.96	
2025-01-14 08:58:53.82	11.24	9.98	
2025-01-14 08:58:54.02	11.23	10.00	
2025-01-14 08:58:54.23	11.22	10.02	
2025-01-14 08:58:54.43	11.22	10.04	
2025-01-14 08:58:54.64	11.21	10.05	
2025-01-14 08:58:54.84	11.20	10.07	
2025-01-14 08:58:55.05	11.19	10.09	
2025-01-14 08:58:55.27	11.18	10.11	
2025-01-14 08:58:55.47	11.17	10.13	
2025-01-14 08:58:55.68	11.16	10.15	
2025-01-14 08:58:55.88	11.15	10.17	
2025-01-14 08:58:56.09	11.14	10.19	
2025-01-14 08:58:56.30	11.13	10.21	
2025-01-14 08:58:56.50	11.12	10.22	
2025-01-14 08:58:56.70	11.11	10.24	
2025-01-14 08:58:56.91	11.10	10.26	
2025-01-14 08:58:57.11	11.09	10.28	
2025-01-14 08:58:57.32	11.08	10.30	
2025-01-14 08:58:57.52	11.07	10.32	
2025-01-14 08:58:57.73	11.06	10.34	
2025-01-14 08:58:57.93	11.06	10.35	
2025-01-14 08:58:58.14	11.05	10.37	
2025-01-14 08:58:58.35	11.04	10.39	
2025-01-14 08:58:58.55	11.03	10.41	
2025-01-14 08:58:58.76	11.02	10.43	
2025-01-14 08:58:58.96	11.01	10.45	
2025-01-14 08:58:59.17	11.00	10.47	
2025-01-14 08:58:59.37	10.99	10.49	
2025-01-14 08:58:59.58	10.98	10.51	
2025-01-14 08:58:59.78	10.97	10.52	
2025-01-14 08:58:59.98	10.96	10.54	
2025-01-14 08:59:00.19	10.95	10.56	
2025-01-14 08:59:00.39	10.94	10.58	
2025-01-14 08:59:00.60	10.93	10.60	
2025-01-14 08:59:00.80	10.92	10.62	
2025-01-14 08:59:01.01	10.91	10.64	
2025-01-14 08:59:01.21	10.90	10.66	
2025-01-14 08:59:01.42	10.89	10.68	
2025-01-14 08:59:01.62	10.88	10.70	
2025-01-14 08:59:01.83	10.87	10.71	
2025-01-14 08:59:02.03	10.86	10.73	
2025-01-14 08:59:02.24	10.85	10.75	
2025-01-14 08:59:02.44	10.84	10.77	
2025-01-14 08:59:02.65	10.83	10.79	
2025-01-14 08:59:02.85	10.82	10.81	
2025-01-14 08:59:03.06	10.81	10.83	
2025-01-14 08:59:03.26	10.80	10.85	
2025-01-14 08:59:03.47	10.79	10.87	
2025-01-14 08:59:03.67	10.78	10.89	
2025-01-14 08:59:03.88	10.77	10.91	
2025-01-14 08:59:04.08	10.76	10.93	
2025-01-14 08:59:04.28	10.75	10.94	
2025-01-14 08:59:04.49	10.74	10.96	
2025-01-14 08:59:04.70	10.73	10.98	
2025-01-14 08:59:04.90	10.72	11.00	
2025-01-14 08:59:05.11	10.71	11.02	
2025-01-14 08:59:05.32	10.70	11.04	
2025-01-14 08:59:05.53	10.69	11.06	
2025-01-14 08:59:05.74	10.68	11.08	
2025-01-14 08:59:05.94	10.67	11.10	
2025-01-14 08:59:06.14	10.66	11.12	
2025-01-14 08:59:06.35	10.65	11.14	
2025-01-14 08:59:06.55	10.64	11.16	
2025-01-14 08:59:06.76	10.63	11.18	
2025-01-14 08:59:06.97	10.62	11.20	
2025-01-14 08:59:07.17	10.61	11.22	
2025-01-14 08:59:07.38	10.60	11.24	
2025-01-14 08:59:07.58	10.59	11.26	
2025-01-14 08:59:07.79	10.58	11.28	
2025-01-14 08:59:08.00	10.57	11.30	
2025-01-14 08:59:08.20	10.56	11.32	
2025-01-14 08:59:08.40	10.55	11.33	
2025-01-14 08:59:08.61	10.54	11.35	
2025-01-14 08:59:08.81	10.53	11.37	
2025-01-14 08:59:09.02	10.52	11.39	
2025-01-14 08:59:09.22	10.51	11.41	
2025-01-14 08:59:09.43	10.50	11.43	
2025-01-14 08:59:09.63	10.49	11.45	
2025-01-14 08:59:09.84	10.48	11.47	
2025-01-14 08:59:10.04	10.47	11.49	
2025-01-14 08:59:10.25	10.46	11.51	
2025-01-14 08:59:10.46	10.45	11.53	
2025-01-14 08:59:10.66	10.44	11.55	
2025-01-14 08:59:10.87	10.43	11.57	
2025-01-14 08:59:11.07	10.42	11.59	
2025-01-14 08:59:11.28	10.41	11.61	
2025-01-14 08:59:11.48	10.40	11.63	
2025-01-14 08:59:11.69	10.38	11.65	
2025-01-14 08:59:11.89	10.37	11.67	
2025-01-14 08:59:12.10	10.36	11.69	
2025-01-14 08:59:12.30	10.35	11.71	
2025-01-14 08:59:12.51	10.34	11.73	
2025-01-14 08:59:12.71	10.33	11.75	
2025-01-14 08:59:12.92	10.32	11.77	
2025-01-14 08:59:13.13	10.31	11.79	
2025-01-14 08:59:13.33	10.30	11.81	
2025-01-14 08:59:13.54	10.29	11.83	
2025-01-14 08:59:13.74	10.28	11.85	
2025-01-14 08:59:13.95	10.27	11.87	
2025-01-14 08:59:14.15	10.26	11.89	
2025-01-14 08:59:14.36	10.25	11.91	
2025-01-14 08:59:14.56	10.24	11.93	
2025-01-14 08:59:14.77	10.22	11.95	
2025-01-14 08:59:14.97	10.21	11.97	
2025-01-14 08:59:15.18	10.20	11.99	
2025-01-14 08:59:15.38	10.19	12.01	
2025-01-14 08:59:15.59	10.18	12.03	
2025-01-14 08:59:15.79	10.17	12.05	
2025-01-14 08:59:16.01	10.16	12.07	
2025-01-14 08:59:16.21	10.15	12.09	
2025-01-14 08:59:16.42	10.14	12.11	
2025-01-14 08:59:16.63	10.13	12.14	
2025-01-14 08:59:16.83	10.12	12.16	
2025-01-14 08:59:17.04	10.10	12.18	
2025-01-14 08:59:17.24	10.09	12.20	
2025-01-14 08:59:17.45	10.08	12.22	
2025-01-14 08:59:17.66	10.07	12.24	
2025-01-14 08:59:17.86	10.06	12.26	
2025-01-14 08:59:18.07	10.05	12.28	
2025-01-14 08:59:18.27	10.04	12.30	
2025-01-14 08:59:18.48	10.03	12.32	
2025-01-14 08:59:18.68	10.02	12.34	
2025-01-14 08:59:18.89	10.00	12.36	
2025-01-14 08:59:19.09	9.99	12.38	
2025-01-14 08:59:19.31	9.98	12.40	
2025-01-14 08:59:19.51	9.97	12.42	
2025-01-14 08:59:19.72	9.96	12.44	
2025-01-14 08:59:19.93	9.95	12.46	
2025-01-14 08:59:20.13	9.94	12.48	
2025-01-14 08:59:20.33	9.93	12.50	
2025-01-14 08:59:20.54	9.91	12.53	
2025-01-14 08:59:20.75	9.90	12.55	
2025-01-14 08:59:20.95	9.89	12.57	
2025-01-14 08:59:21.16	9.88	12.59	
2025-01-14 08:59:21.36	9.87	12.61	
2025-01-14 08:59:21.57	9.86	12.63	
2025-01-14 08:59:21.77	9.85	12.65	
2025-01-14 08:59:21.98	9.83	12.67	
2025-01-14 08:59:22.18	9.82	12.69	
2025-01-14 08:59:22.39	9.81	12.71	
2025-01-14 08:59:22.59	9.80	12.73	
2025-01-14 08:59:22.80	9.79	12.75	
2025-01-14 08:59:23.00	9.78	12.77	
2025-01-14 08:59:23.21	9.77	12.80	
2025-01-14 08:59:23.41	9.75	12.82	
2025-01-14 08:59:23.62	9.74	12.84	
2025-01-14 08:59:23.82	9.73	12.86	
2025-01-14 08:59:24.03	9.72	12.88	
2025-01-14 08:59:24.23	9.71	12.90	
2025-01-14 08:59:24.44	9.70	12.92	
2025-01-14 08:59:24.64	9.69	12.94	
2025-01-14 08:59:24.85	9.67	12.96	
2025-01-14 08:59:25.05	9.66	12.98	
2025-01-14 08:59:25.26	9.65	13.01	
2025-01-14 08:59:25.47	9.64	13.03	
2025-01-14 08:59:25.68	9.63	13.05	
2025-01-14 08:59:25.89	9.61	13.07	
2025-01-14 08:59:26.10	9.60	13.09	
2025-01-14 08:59:26.30	9.59	13.11	
2025-01-14 08:59:26.51	9.58	13.13	
2025-01-14 08:59:26.71	9.57	13.15	
2025-01-14 08:59:26.92	9.55	13.18	
2025-01-14 08:59:27.12	9.54	13.20	
2025-01-14 08:59:27.33	9.53	13.22	
2025-01-14 08:59:27.53	9.52	13.24	
2025-01-14 08:59:27.74	9.51	13.26	
2025-01-14 08:59:27.94	9.50	13.28	
2025-01-14 08:59:28.15	9.48	13.30	
2025-01-14 08:59:28.36	9.47	13.33	
2025-01-14 08:59:28.56	9.46	13.35	
2025-01-14 08:59:28.76	9.45	13.37	
2025-01-14 08:59:28.97	9.44	13.39	
2025-01-14 08:59:29.17	9.42	13.41	
2025-01-14 08:59:29.38	9.41	13.43	
2025-01-14 08:59:29.59	9.40	13.45	
2025-01-14 08:59:29.79	9.39	13.48	
2025-01-14 08:59:30.00	9.37	13.50	
2025-01-14 08:59:30.20	9.36	13.52	
2025-01-14 08:59:30.41	9.35	13.54	
2025-01-14 08:59:30.61	9.34	13.56	
2025-01-14 08:59:30.82	9.33	13.58	
2025-01-14 08:59:31.02	9.31	13.60	
2025-01-14 08:59:31.23	9.30	13.63	
2025-01-14 08:59:31.43	9.29	13.65	
2025-01-14 08:59:31.64	9.28	13.67	
2025-01-14 08:59:31.85	9.26	13.69	
2025-01-14 08:59:32.05	9.25	13.71	
2025-01-14 08:59:32.25	9.24	13.73	
2025-01-14 08:59:32.46	9.23	13.76	
2025-01-14 08:59:32.66	9.22	13.78	
2025-01-14 08:59:32.87	9.20	13.80	
2025-01-14 08:59:33.07	9.19	13.82	
2025-01-14 08:59:33.28	9.18	13.84	
2025-01-14 08:59:33.48	9.17	13.87	
2025-01-14 08:59:33.69	9.15	13.89	
2025-01-14 08:59:33.89	9.14	13.91	
2025-01-14 08:59:34.09	9.13	13.93	
2025-01-14 08:59:34.30	9.12	13.95	
2025-01-14 08:59:34.51	9.10	13.98	
2025-01-14 08:59:34.71	9.09	14.00	
2025-01-14 08:59:34.92	9.08	14.02	
2025-01-14 08:59:35.12	9.06	14.04	
2025-01-14 08:59:35.33	9.05	14.06	
2025-01-14 08:59:35.54	9.04	14.09	
2025-01-14 08:59:35.74	9.03	14.11	
2025-01-14 08:59:35.95	9.01	14.13	
2025-01-14 08:59:36.15	9.00	14.15	
2025-01-14 08:59:36.36	8.99	14.17	
2025-01-14 08:59:36.56	8.98	14.20	
2025-01-14 08:59:36.77	8.96	14.22	
2025-01-14 08:59:36.97	8.95	14.24	
2025-01-14 08:59:37.18	8.94	14.26	
2025-01-14 08:59:37.38	8.92	14.28	
2025-01-14 08:59:37.59	8.91	14.31	
2025-01-14 08:59:37.79	8.90	14.33	
2025-01-14 08:59:38.00	8.88	14.35	
2025-01-14 08:59:38.20	8.87	14.37	
2025-01-14 08:59:38.40	8.86	14.40	
2025-01-14 08:59:38.61	8.85	14.42	
2025-01-14 08:59:38.82	8.83	14.44	
2025-01-14 08:59:39.02	8.82	14.46	
2025-01-14 08:59:39.23	8.81	14.49	
2025-01-14 08:59:39.43	8.79	14.51	
2025-01-14 08:59:39.63	8.78	14.53	
2025-01-14 08:59:39.84	8.77	14.55	
2025-01-14 08:59:40.05	8.75	14.58	
2025-01-14 08:59:40.25	8.74	14.60	
2025-01-14 08:59:40.46	8.73	14.62	
2025-01-14 08:59:40.66	8.71	14.64	
2025-01-14 08:59:40.86	8.70	14.67	
2025-01-14 08:59:41.07	8.69	14.69	
2025-01-14 08:59:41.27	8.67	14.71	
2025-01-14 08:59:41.48	8.66	14.73	
2025-01-14 08:59:41.68	8.65	14.76	
2025-01-14 08:59:41.89	8.63	14.78	
2025-01-14 08:59:42.10	8.62	14.80	
2025-01-14 08:59:42.30	8.61	14.82	
2025-01-14 08:59:42.51	8.59	14.85	
2025-01-14 08:59:42.71	8.58	14.87	
2025-01-14 08:59:42.92	8.57	14.89	
2025-01-14 08:59:43.12	8.55	14.92	
2025-01-14 08:59:43.33	8.54	14.94	
2025-01-14 08:59:43.53	8.53	14.96	
2025-01-14 08:59:43.74	8.51	14.99	
2025-01-14 08:59:43.94	8.50	15.01	
2025-01-14 08:59:44.15	8.49	15.03	
2025-01-14 08:59:44.35	8.47	15.05	
2025-01-14 08:59:44.56	8.46	15.08	
2025-01-14 08:59:44.76	8.44	15.10	
2025-01-14 08:59:44.97	8.43	15.12	
2025-01-14 08:59:45.17	8.42	15.15	
2025-01-14 08:59:45.38	8.40	15.17	
2025-01-14 08:59:45.59	8.39	15.19	
2025-01-14 08:59:45.79	8.38	15.22	
2025-01-14 08:59:46.00	8.36	15.24	
2025-01-14 08:59:46.20	8.35	15.26	
2025-01-14 08:59:46.41	8.33	15.29	
2025-01-14 08:59:46.62	8.32	15.31	
2025-01-14 08:59:46.82	8.31	15.33	
2025-01-14 08:59:47.03	8.29	15.36	
2025-01-14 08:59:47.23	8.28	15.38	
2025-01-14 08:59:47.43	8.26	15.40	
2025-01-14 08:59:47.64	8.25	15.43	
2025-01-14 08:59:47.85	8.23	15.45	
2025-01-14 08:59:48.05	8.22	15.47	
2025-01-14 08:59:48.26	8.21	15.50	
2025-01-14 08:59:48.46	8.19	15.52	
2025-01-14 08:59:48.67	8.18	15.54	
2025-01-14 08:59:48.87	8.16	15.57	
2025-01-14 08:59:49.08	8.15	15.59	
2025-01-14 08:59:49.28	8.14	15.61	
2025-01-14 08:59:49.49	8.12	15.64	
2025-01-14 08:59:49.69	8.11	15.66	
2025-01-14 08:59:49.90	8.09	15.68	
2025-01-14 08:59:50.10	8.08	15.71	
2025-01-14 08:59:50.31	8.06	15.73	
2025-01-14 08:59:50.52	8.05	15.76	
2025-01-14 08:59:50.72	8.04	15.78	
2025-01-14 08:59:50.93	8.02	15.80	
2025-01-14 08:59:51.13	8.01	15.83	
2025-01-14 08:59:51.34	7.99	15.85	
2025-01-14 08:59:51.54	7.98	15.87	
2025-01-14 08:59:51.75	7.96	15.90	
2025-01-14 08:59:51.95	7.95	15.92	
2025-01-14 08:59:52.16	7.93	15.95	
2025-01-14 08:59:52.38	7.92	15.97	
2025-01-14 08:59:52.58	7.90	15.99	
2025-01-14 08:59:52.79	7.89	16.02	
2025-01-14 08:59:52.99	7.87	16.04	
2025-01-14 08:59:53.20	7.86	16.07	
2025-01-14 08:59:53.40	7.84	16.09	
2025-01-14 08:59:53.61	7.83	16.11	
2025-01-14 08:59:53.81	7.81	16.14	
2025-01-14 08:59:54.02	7.80	16.16	
2025-01-14 08:59:54.22	7.78	16.19	
2025-01-14 08:59:54.43	7.77	16.21	
2025-01-14 08:59:54.63	7.75	16.23	
2025-01-14 08:59:54.84	7.74	16.26	
2025-01-14 08:59:55.04	7.72	16.28	
2025-01-14 08:59:55.25	7.71	16.31	
2025-01-14 08:59:55.45	7.69	16.33	
2025-01-14 08:59:55.66	7.68	16.36	
2025-01-14 08:59:55.86	7.66	16.38	
2025-01-14 08:59:56.07	7.65	16.40	
2025-01-14 08:59:56.27	7.63	16.43	
2025-01-14 08:59:56.48	7.62	16.45	
2025-01-14 08:59:56.68	7.60	16.48	
2025-01-14 08:59:56.89	7.59	16.50	
2025-01-14 08:59:57.09	7.57	16.53	
2025-01-14 08:59:57.30	7.56	16.55	
2025-01-14 08:59:57.50	7.54	16.57	
2025-01-14 08:59:57.71	7.53	16.60	
2025-01-14 08:59:57.91	7.51	16.62	
2025-01-14 08:59:58.12	7.50	16.65	
2025-01-14 08:59:58.32	7.48	16.67	
2025-01-14 08:59:58.53	7.47	16.70	
2025-01-14 08:59:58.73	7.45	16.72	
2025-01-14 08:59:58.94	7.43	16.75	
2025-01-14 08:59:59.15	7.42	16.77	
2025-01-14 08:59:59.35	7.40	16.80	
2025-01-14 08:59:59.56	7.39	16.82	
2025-01-14 08:59:59.76	7.37	16.85	
2025-01-14 08:59:59.97	7.36	16.87	
2025-01-14 09:00:00.18	7.34	16.90	
2025-01-14 09:00:00.39	7.32	16.92	
2025-01-14 09:00:00.59	7.31	16.95	
2025-01-14 09:00:00.80	7.29	16.97	
2025-01-14 09:00:01.01	7.28	17.00	
2025-01-14 09:00:01.22	7.26	17.02	
2025-01-14 09:00:01.42	7.24	17.05	
2025-01-14 09:00:01.63	7.23	17.07	
2025-01-14 09:00:01.83	7.21	17.10	
2025-01-14 09:00:02.04	7.20	17.12	
2025-01-14 09:00:02.24	7.18	17.15	
2025-01-14 09:00:02.45	7.16	17.17	
2025-01-14 09:00:02.65	7.15	17.20	
2025-01-14 09:00:02.86	7.13	17.22	
2025-01-14 09:00:03.06	7.12	17.25	
2025-01-14 09:00:03.27	7.10	17.27	
2025-01-14 09:00:03.48	7.08	17.30	
2025-01-14 09:00:03.68	7.07	17.32	
2025-01-14 09:00:03.89	7.05	17.35	
2025-01-14 09:00:04.09	7.04	17.38	
2025-01-14 09:00:04.30	7.02	17.40	
2025-01-14 09:00:04.50	7.00	17.43	
2025-01-14 09:00:04.71	6.99	17.45	
2025-01-14 09:00:04.91	6.97	17.48	
2025-01-14 09:00:05.12	6.95	17.50	
2025-01-14 09:00:05.32	6.94	17.53	
2025-01-14 09:00:05.53	6.92	17.55	
2025-01-14 09:00:05.73	6.90	17.58	
2025-01-14 09:00:05.94	6.89	17.60	
2025-01-14 09:00:06.14	6.87	17.63	
2025-01-14 09:00:06.35	6.85	17.66	
2025-01-14 09:00:06.55	6.84	17.68	
2025-01-14 09:00:06.76	6.82	17.71	
2025-01-14 09:00:06.96	6.80	17.73	
2025-01-14 09:00:07.17	6.79	17.76	
2025-01-14 09:00:07.39	6.77	17.79	
2025-01-14 09:00:07.59	6.75	17.81	
2025-01-14 09:00:07.80	6.74	17.84	
2025-01-14 09:00:08.01	6.72	17.86	
2025-01-14 09:00:08.21	6.70	17.89	
2025-01-14 09:00:08.41	6.69	17.91	
2025-01-14 09:00:08.62	6.67	17.94	
2025-01-14 09:00:08.82	6.65	17.97	
2025-01-14 09:00:09.03	6.63	17.99	
2025-01-14 09:00:09.24	6.62	18.02	
2025-01-14 09:00:09.45	6.60	18.05	
2025-01-14 09:00:09.66	6.58	18.07	
2025-01-14 09:00:09.86	6.57	18.10	
2025-01-14 09:00:10.07	6.55	18.13	
2025-01-14 09:00:10.27	6.53	18.15	
2025-01-14 09:00:10.48	6.51	18.18	
2025-01-14 09:00:10.68	6.50	18.20	
2025-01-14 09:00:10.88	6.48	18.23	
2025-01-14 09:00:11.09	6.46	18.26	
2025-01-14 09:00:11.29	6.45	18.28	
2025-01-14 09:00:11.50	6.43	18.31	
2025-01-14 09:00:11.70	6.41	18.33	
2025-01-14 09:00:11.91	6.39	18.36	
2025-01-14 09:00:12.12	6.37	18.39	
2025-01-14 09:00:12.32	6.36	18.41	
2025-01-14 09:00:12.53	6.34	18.44	
2025-01-14 09:00:12.73	6.32	18.47	
2025-01-14 09:00:12.94	6.30	18.49	
2025-01-14 09:00:13.14	6.29	18.52	
2025-01-14 09:00:13.35	6.27	18.55	
2025-01-14 09:00:13.56	6.25	18.57	
2025-01-14 09:00:13.76	6.23	18.60	
2025-01-14 09:00:13.96	6.22	18.63	
2025-01-14 09:00:14.17	6.20	18.65	
2025-01-14 09:00:14.38	6.18	18.68	
2025-01-14 09:00:14.58	6.16	18.71	
2025-01-14 09:00:14.79	6.14	18.73	
2025-01-14 09:00:14.99	6.13	18.76	
2025-01-14 09:00:15.20	6.11	18.79	
2025-01-14 09:00:15.40	6.09	18.81	
2025-01-14 09:00:15.61	6.07	18.84	
2025-01-14 09:00:15.81	6.05	18.87	
2025-01-14 09:00:16.02	6.04	18.89	
2025-01-14 09:00:16.22	6.02	18.92	
2025-01-14 09:00:16.43	6.00	18.95	
2025-01-14 09:00:16.63	5.98	18.98	
2025-01-14 09:00:16.84	5.96	19.00	
2025-01-14 09:00:17.04	5.94	19.03	
2025-01-14 09:00:17.25	5.93	19.06	
2025-01-14 09:00:17.45	5.91	19.08	
2025-01-14 09:00:17.66	5.89	19.11	
2025-01-14 09:00:17.87	5.87	19.14	
2025-01-14 09:00:18.07	5.85	19.17	
2025-01-14 09:00:18.27	5.83	19.19	
2025-01-14 09:00:18.48	5.81	19.22	
2025-01-14 09:00:18.68	5.80	19.25	
2025-01-14 09:00:18.89	5.78	19.27	
2025-01-14 09:00:19.09	5.76	19.30	
2025-01-14 09:00:19.29	5.74	19.33	
2025-01-14 09:00:19.50	5.72	19.36	
2025-01-14 09:00:19.71	5.70	19.38	
2025-01-14 09:00:19.91	5.68	19.41	
2025-01-14 09:00:20.13	5.66	19.44	
2025-01-14 09:00:20.34	5.64	19.47	
2025-01-14 09:00:20.54	5.63	19.50	
2025-01-14 09:00:20.75	5.61	19.52	
2025-01-14 09:00:20.95	5.59	19.55	
2025-01-14 09:00:21.16	5.57	19.58	
2025-01-14 09:00:21.36	5.55	19.61	
2025-01-14 09:00:21.57	5.53	19.63	
2025-01-14 09:00:21.77	5.51	19.66	
2025-01-14 09:00:21.98	5.49	19.69	
2025-01-14 09:00:22.18	5.47	19.72	
2025-01-14 09:00:22.39	5.45	19.75	
2025-01-14 09:00:22.60	5.43	19.77	
2025-01-14 09:00:22.80	5.41	19.80	
2025-01-14 09:00:23.01	5.39	19.83	
2025-01-14 09:00:23.21	5.38	19.86	
2025-01-14 09:00:23.42	5.36	19.89	
2025-01-14 09:00:23.63	5.34	19.92	
2025-01-14 09:00:23.83	5.32	19.94	
2025-01-14 09:00:24.03	5.30	19.97	
2025-01-14 09:00:24.24	5.28	20.00	
2025-01-14 09:00:24.44	5.26	20.03	
2025-01-14 09:00:24.65	5.24	20.06	
2025-01-14 09:00:24.86	5.22	20.08	
2025-01-14 09:00:25.06	5.20	20.11	
2025-01-14 09:00:25.27	5.18	20.14	
2025-01-14 09:00:25.48	5.16	20.17	
2025-01-14 09:00:25.69	5.14	20.20	
2025-01-14 09:00:25.89	5.12	20.23	
2025-01-14 09:00:26.10	5.10	20.26	
2025-01-14 09:00:26.30	5.08	20.28	
2025-01-14 09:00:26.52	5.06	20.31	
2025-01-14 09:00:26.73	5.04	20.34	
2025-01-14 09:00:26.93	5.02	20.37	
2025-01-14 09:00:27.14	5.00	20.40	
2025-01-14 09:00:27.34	4.98	20.43	
2025-01-14 09:00:27.55	4.95	20.46	
2025-01-14 09:00:27.75	4.93	20.49	
2025-01-14 09:00:27.96	4.91	20.51	
2025-01-14 09:00:28.17	4.89	20.54	
2025-01-14 09:00:28.37	4.87	20.57	
2025-01-14 09:00:28.57	4.85	20.60	
2025-01-14 09:00:28.78	4.83	20.63	
2025-01-14 09:00:28.98	4.81	20.66	
2025-01-14 09:00:29.19	4.79	20.69	
2025-01-14 09:00:29.40	4.77	20.72	
2025-01-14 09:00:29.60	4.75	20.75	
2025-01-14 09:00:29.80	4.73	20.77	
2025-01-14 09:00:30.01	4.71	20.80	
2025-01-14 09:00:30.21	4.69	20.83	
2025-01-14 09:00:30.42	4.67	20.86	
2025-01-14 09:00:30.62	4.65	20.89	
2025-01-14 09:00:30.83	4.62	20.92	
2025-01-14 09:00:31.03	4.60	20.95	
2025-01-14 09:00:31.24	4.58	20.98	
2025-01-14 09:00:31.44	4.56	21.01	
2025-01-14 09:00:31.65	4.54	21.04	
2025-01-14 09:00:31.85	4.52	21.07	
2025-01-14 09:00:32.06	4.50	21.10	
2025-01-14 09:00:32.26	4.48	21.12	
2025-01-14 09:00:32.47	4.46	21.15	
2025-01-14 09:00:32.68	4.43	21.18	
2025-01-14 09:00:32.88	4.41	21.21	
2025-01-14 09:00:33.09	4.39	21.24	
2025-01-14 09:00:33.29	4.37	21.27	
2025-01-14 09:00:33.50	4.35	21.30	
2025-01-14 09:00:33.71	4.33	21.33	
2025-01-14 09:00:33.91	4.30	21.36	
2025-01-14 09:00:34.11	4.28	21.39	
2025-01-14 09:00:34.32	4.26	21.42	
2025-01-14 09:00:34.52	4.24	21.45	
2025-01-14 09:00:34.73	4.22	21.48	
2025-01-14 09:00:34.93	4.20	21.51	
2025-01-14 09:00:35.13	4.17	21.54	
2025-01-14 09:00:35.34	4.15	21.57	
2025-01-14 09:00:35.55	4.13	21.60	
2025-01-14 09:00:35.75	4.11	21.63	
2025-01-14 09:00:35.96	4.09	21.66	
2025-01-14 09:00:36.18	4.06	21.69	
2025-01-14 09:00:36.38	4.04	21.72	
2025-01-14 09:00:36.59	4.02	21.75	
2025-01-14 09:00:36.79	4.00	21.78	
2025-01-14 09:00:37.00	3.97	21.81	
2025-01-14 09:00:37.20	3.95	21.84	
2025-01-14 09:00:37.41	3.93	21.87	
2025-01-14 09:00:37.61	3.91	21.90	
2025-01-14 09:00:37.82	3.88	21.93	
2025-01-14 09:00:38.02	3.86	21.96	
2025-01-14 09:00:38.23	3.84	21.99	
2025-01-14 09:00:38.43	3.82	22.02	
2025-01-14 09:00:38.64	3.79	22.06	
2025-01-14 09:00:38.85	3.77	22.09	
2025-01-14 09:00:39.05	3.75	22.12	
2025-01-14 09:00:39.26	3.72	22.15	
2025-01-14 09:00:39.46	3.70	22.18	
2025-01-14 09:00:39.67	3.68	22.21	
2025-01-14 09:00:39.87	3.66	22.24	
2025-01-14 09:00:40.08	3.63	22.27	
2025-01-14 09:00:40.28	3.61	22.30	
2025-01-14 09:00:40.49	3.59	22.33	
2025-01-14 09:00:40.69	3.56	22.36	
2025-01-14 09:00:40.90	3.54	22.39	
2025-01-14 09:00:41.10	3.52	22.42	
2025-01-14 09:00:41.31	3.49	22.46	
2025-01-14 09:00:41.53	3.47	22.49	
2025-01-14 09:00:41.73	3.44	22.52	
2025-01-14 09:00:41.94	3.42	22.55	
2025-01-14 09:00:42.15	3.40	22.58	
2025-01-14 09:00:42.35	3.37	22.61	
2025-01-14 09:00:42.57	3.35	22.65	
2025-01-14 09:00:42.78	3.32	22.68	
2025-01-14 09:00:42.98	3.30	22.71	
2025-01-14 09:00:43.19	3.28	22.74	
2025-01-14 09:00:43.39	3.25	22.77	
2025-01-14 09:00:43.60	3.23	22.80	
2025-01-14 09:00:43.80	3.20	22.83	
2025-01-14 09:00:44.01	3.18	22.87	
2025-01-14 09:00:44.21	3.16	22.90	
2025-01-14 09:00:44.42	3.13	22.93	
2025-01-14 09:00:44.62	3.11	22.96	
2025-01-14 09:00:44.83	3.08	22.99	
2025-01-14 09:00:45.03	3.06	23.02	
2025-01-14 09:00:45.24	3.03	23.05	
2025-01-14 09:00:45.44	3.01	23.09	
2025-01-14 09:00:45.65	2.99	23.12	
2025-01-14 09:00:45.85	2.96	23.15	
2025-01-14 09:00:46.06	2.94	23.18	
2025-01-14 09:00:46.26	2.91	23.21	
2025-01-14 09:00:46.47	2.89	23.24	
2025-01-14 09:00:46.67	2.86	23.28	
2025-01-14 09:00:46.89	2.84	23.31	
2025-01-14 09:00:47.10	2.81	23.34	
2025-01-14 09:00:47.30	2.79	23.37	
2025-01-14 09:00:47.51	2.76	23.41	
2025-01-14 09:00:47.71	2.74	23.44	
2025-01-14 09:00:47.92	2.71	23.47	
2025-01-14 09:00:48.12	2.69	23.50	
2025-01-14 09:00:48.33	2.66	23.54	
2025-01-14 09:00:48.54	2.64	23.57	
2025-01-14 09:00:48.74	2.61	23.60	
2025-01-14 09:00:48.96	2.58	23.63	
2025-01-14 09:00:49.17	2.56	23.67	
2025-01-14 09:00:49.37	2.53	23.70	
2025-01-14 09:00:49.58	2.51	23.73	
2025-01-14 09:00:49.78	2.48	23.76	
2025-01-14 09:00:49.99	2.46	23.80	
2025-01-14 09:00:50.19	2.43	23.83	
2025-01-14 09:00:50.40	2.40	23.86	
2025-01-14 09:00:50.60	2.38	23.89	
2025-01-14 09:00:50.81	2.35	23.93	
2025-01-14 09:00:51.01	2.33	23.96	
2025-01-14 09:00:51.22	2.30	23.99	
2025-01-14 09:00:51.43	2.27	24.03	
2025-01-14 09:00:51.63	2.25	24.06	
2025-01-14 09:00:51.84	2.22	24.09	
2025-01-14 09:00:52.04	2.20	24.12	
2025-01-14 09:00:52.24	2.17	24.16	
2025-01-14 09:00:52.45	2.14	24.19	
2025-01-14 09:00:52.67	2.12	24.22	
2025-01-14 09:00:52.88	2.09	24.26	
2025-01-14 09:00:53.08	2.06	24.29	
2025-01-14 09:00:53.28	2.04	24.32	
2025-01-14 09:00:53.49	2.01	24.36	
2025-01-14 09:00:53.70	1.98	24.39	
2025-01-14 09:00:53.90	1.96	24.42	
2025-01-14 09:00:54.11	1.93	24.46	
2025-01-14 09:00:54.31	1.90	24.49	
2025-01-14 09:00:54.52	1.88	24.52	
2025-01-14 09:00:54.72	1.85	24.56	
2025-01-14 09:00:54.93	1.82	24.59	
2025-01-14 09:00:55.13	1.80	24.62	
2025-01-14 09:00:55.34	1.77	24.66	
2025-01-14 09:00:55.54	1.74	24.69	
2025-01-14 09:00:55.75	1.71	24.72	
2025-01-14 09:00:55.95	1.69	24.76	
2025-01-14 09:00:56.16	1.66	24.79	
2025-01-14 09:00:56.36	1.63	24.82	
2025-01-14 09:00:56.56	1.60	24.86	
2025-01-14 09:00:56.77	1.58	24.89	
2025-01-14 09:00:56.98	1.55	24.93	
2025-01-14 09:00:57.18	1.52	24.96	
2025-01-14 09:00:57.39	1.49	24.99	
2025-01-14 09:00:57.59	1.47	25.03	
2025-01-14 09:00:57.80	1.44	25.06	
2025-01-14 09:00:58.01	1.41	25.10	
2025-01-14 09:00:58.21	1.38	25.13	
2025-01-14 09:00:58.42	1.35	25.17	
2025-01-14 09:00:58.62	1.32	25.20	
2025-01-14 09:00:58.83	1.30	25.23	
2025-01-14 09:00:59.03	1.27	25.27	
2025-01-14 09:00:59.24	1.24	25.30	
2025-01-14 09:00:59.44	1.21	25.34	
2025-01-14 09:00:59.65	1.18	25.37	
2025-01-14 09:00:59.86	1.15	25.41	
2025-01-14 09:01:00.06	1.12	25.44	
2025-01-14 09:01:00.27	1.10	25.47	
2025-01-14 09:01:00.47	1.07	25.51	
2025-01-14 09:01:00.68	1.04	25.54	
2025-01-14 09:01:00.88	1.01	25.58	
2025-01-14 09:01:01.09	0.98	25.61	
2025-01-14 09:01:01.29	0.95	25.65	
2025-01-14 09:01:01.50	0.92	25.68	
2025-01-14 09:01:01.70	0.89	25.72	
2025-01-14 09:01:01.91	0.86	25.75	
2025-01-14 09:01:02.11	0.83	25.78	
2025-01-14 09:01:02.32	0.80	25.82	
2025-01-14 09:01:02.52	0.78	25.85	
2025-01-14 09:01:02.73	0.75	25.89	
2025-01-14 09:01:02.93	0.72	25.92	
2025-01-14 09:01:03.14	0.69	25.96	
2025-01-14 09:01:03.34	0.66	25.99	
2025-01-14 09:01:03.55	0.63	26.03	
2025-01-14 09:01:03.76	0.60	26.07	
2025-01-14 09:01:03.96	0.57	26.10	
2025-01-14 09:01:04.16	0.54	26.14	
2025-01-14 09:01:04.37	0.51	26.17	
2025-01-14 09:01:04.58	0.48	26.21	
2025-01-14 09:01:04.78	0.45	26.24	
2025-01-14 09:01:04.99	0.42	26.28	
2025-01-14 09:01:05.19	0.39	26.31	
2025-01-14 09:01:05.40	0.36	26.35	
2025-01-14 09:01:05.60	0.33	26.38	
2025-01-14 09:01:05.81	0.29	26.42	
2025-01-14 09:01:06.01	0.26	26.45	
2025-01-14 09:01:06.22	0.23	26.49	
2025-01-14 09:01:06.43	0.20	26.53	
2025-01-14 09:01:06.63	0.17	26.56	
2025-01-14 09:01:06.84	0.14	26.60	
2025-01-14 09:01:07.04	0.11	26.63	
2025-01-14 09:01:07.25	0.08	26.67	
2025-01-14 09:01:07.46	0.05	26.71	
2025-01-14 09:01:07.66	0.01	26.74	
2025-01-14 09:01:07.87	359.98	26.78	
2025-01-14 09:01:08.07	359.95	26.81	
2025-01-14 09:01:08.28	359.92	26.85	
2025-01-14 09:01:08.48	359.89	26.89	
2025-01-14 09:01:08.69	359.86	26.92	
2025-01-14 09:01:08.89	359.83	26.96	
2025-01-14 09:01:09.10	359.79	27.00	
2025-01-14 09:01:09.31	359.76	27.03	
2025-01-14 09:01:09.52	359.73	27.07	
2025-01-14 09:01:09.73	359.70	27.11	
2025-01-14 09:01:09.93	359.66	27.14	
2025-01-14 09:01:10.13	359.63	27.18	
2025-01-14 09:01:10.35	359.60	27.22	
2025-01-14 09:01:10.56	359.56	27.25	
2025-01-14 09:01:10.76	359.53	27.29	
2025-01-14 09:01:10.97	359.50	27.33	
2025-01-14 09:01:11.18	359.47	27.37	
2025-01-14 09:01:11.38	359.43	27.40	
2025-01-14 09:01:11.59	359.40	27.44	
2025-01-14 09:01:11.79	359.37	27.47	
2025-01-14 09:01:12.00	359.34	27.51	
2025-01-14 09:01:12.20	359.30	27.55	
2025-01-14 09:01:12.41	359.27	27.59	
2025-01-14 09:01:12.61	359.24	27.62	
2025-01-14 09:01:12.82	359.20	27.66	
2025-01-14 09:01:13.02	359.17	27.70	
2025-01-14 09:01:13.23	359.14	27.73	
2025-01-14 09:01:13.43	359.10	27.77	
2025-01-14 09:01:13.64	359.07	27.81	
2025-01-14 09:01:13.84	359.04	27.84	
2025-01-14 09:01:14.05	359.00	27.88	
2025-01-14 09:01:14.25	358.97	27.92	
2025-01-14 09:01:14.46	358.93	27.96	
2025-01-14 09:01:14.66	358.90	27.99	
2025-01-14 09:01:14.87	358.87	28.03	
2025-01-14 09:01:15.08	358.83	28.07	
2025-01-14 09:01:15.28	358.80	28.11	
2025-01-14 09:01:15.49	358.76	28.15	
2025-01-14 09:01:15.69	358.73	28.18	
2025-01-14 09:01:15.90	358.69	28.22	
2025-01-14 09:01:16.11	358.66	28.26	
2025-01-14 09:01:16.31	358.63	28.30	
2025-01-14 09:01:16.52	358.59	28.34	
2025-01-14 09:01:16.74	358.55	28.38	
2025-01-14 09:01:16.94	358.52	28.41	
2025-01-14 09:01:17.15	358.48	28.45	
2025-01-14 09:01:17.35	358.45	28.49	
2025-01-14 09:01:17.56	358.41	28.53	
2025-01-14 09:01:17.76	358.38	28.56	
2025-01-14 09:01:17.97	358.34	28.60	
2025-01-14 09:01:18.17	358.31	28.64	
2025-01-14 09:01:18.38	358.27	28.68	
2025-01-14 09:01:18.58	358.24	28.72	
2025-01-14 09:01:18.78	358.20	28.75	
2025-01-14 09:01:18.99	358.16	28.79	
2025-01-14 09:01:19.20	358.13	28.83	
2025-01-14 09:01:19.40	358.09	28.87	
2025-01-14 09:01:19.61	358.06	28.91	
2025-01-14 09:01:19.82	358.02	28.95	
2025-01-14 09:01:20.03	357.98	28.99	
2025-01-14 09:01:20.23	357.95	29.03	
2025-01-14 09:01:20.44	357.91	29.07	
2025-01-14 09:01:20.64	357.87	29.10	
2025-01-14 09:01:20.85	357.84	29.14	
2025-01-14 09:01:21.05	357.80	29.18	
2025-01-14 09:01:21.26	357.76	29.22	
2025-01-14 09:01:21.47	357.72	29.26	
2025-01-14 09:01:21.67	357.69	29.30	
2025-01-14 09:01:21.88	357.65	29.34	
2025-01-14 09:01:22.09	357.61	29.38	
2025-01-14 09:01:22.30	357.57	29.42	
2025-01-14 09:01:22.51	357.54	29.46	
2025-01-14 09:01:22.71	357.50	29.50	
2025-01-14 09:01:22.92	357.46	29.54	
2025-01-14 09:01:23.12	357.42	29.57	
2025-01-14 09:01:23.32	357.39	29.61	
2025-01-14 09:01:23.53	357.35	29.65	
2025-01-14 09:01:23.74	357.31	29.69	
2025-01-14 09:01:23.95	357.27	29.73	
2025-01-14 09:01:24.15	357.23	29.77	
2025-01-14 09:01:24.35	357.20	29.81	
2025-01-14 09:01:24.56	357.16	29.85	
2025-01-14 09:01:24.77	357.12	29.89	
2025-01-14 09:01:24.97	357.08	29.93	
2025-01-14 09:01:25.18	357.04	29.97	
2025-01-14 09:01:25.38	357.00	30.01	
2025-01-14 09:01:25.59	356.96	30.05	
2025-01-14 09:01:25.79	356.93	30.09	
2025-01-14 09:01:26.00	356.89	30.13	
2025-01-14 09:01:26.20	356.85	30.17	
2025-01-14 09:01:26.41	356.81	30.21	
2025-01-14 09:01:26.61	356.77	30.25	
2025-01-14 09:01:26.82	356.73	30.29	
2025-01-14 09:01:27.02	356.69	30.33	
2025-01-14 09:01:27.23	356.65	30.37	
2025-01-14 09:01:27.44	356.61	30.41	
2025-01-14 09:01:27.64	356.57	30.45	
2025-01-14 09:01:27.85	356.53	30.49	
2025-01-14 09:01:28.05	356.49	30.53	
2025-01-14 09:01:28.26	356.45	30.57	
2025-01-14 09:01:28.47	356.41	30.61	
2025-01-14 09:01:28.68	356.37	30.65	
2025-01-14 09:01:28.89	356.32	30.70	
2025-01-14 09:01:29.09	356.28	30.73	
2025-01-14 09:01:29.29	356.24	30.77	
2025-01-14 09:01:29.50	356.20	30.82	
2025-01-14 09:01:29.71	356.16	30.86	
2025-01-14 09:01:29.91	356.12	30.90	
2025-01-14 09:01:30.12	356.08	30.94	
2025-01-14 09:01:30.32	356.04	30.98	
2025-01-14 09:01:30.52	356.00	31.02	
2025-01-14 09:01:30.73	355.96	31.06	
2025-01-14 09:01:30.94	355.91	31.10	
2025-01-14 09:01:31.14	355.87	31.14	
2025-01-14 09:01:31.34	355.83	31.18	
2025-01-14 09:01:31.55	355.79	31.22	
2025-01-14 09:01:31.75	355.75	31.26	
2025-01-14 09:01:31.96	355.70	31.31	
2025-01-14 09:01:32.17	355.66	31.35	
2025-01-14 09:01:32.37	355.62	31.39	
2025-01-14 09:01:32.58	355.58	31.43	
2025-01-14 09:01:32.79	355.53	31.47	
2025-01-14 09:01:33.00	355.49	31.52	
2025-01-14 09:01:33.21	355.45	31.56	
2025-01-14 09:01:33.41	355.40	31.60	
2025-01-14 09:01:33.62	355.36	31.64	
2025-01-14 09:01:33.82	355.32	31.68	
2025-01-14 09:01:34.03	355.27	31.72	
2025-01-14 09:01:34.23	355.23	31.76	
2025-01-14 09:01:34.44	355.19	31.81	
2025-01-14 09:01:34.64	355.14	31.85	
2025-01-14 09:01:34.85	355.10	31.89	
2025-01-14 09:01:35.05	355.06	31.93	
2025-01-14 09:01:35.26	355.01	31.97	
2025-01-14 09:01:35.47	354.97	32.02	
2025-01-14 09:01:35.67	354.92	32.06	
2025-01-14 09:01:35.88	354.88	32.10	
2025-01-14 09:01:36.08	354.83	32.14	
2025-01-14 09:01:36.29	354.79	32.18	
2025-01-14 09:01:36.49	354.74	32.23	
2025-01-14 09:01:36.70	354.70	32.27	
2025-01-14 09:01:36.90	354.65	32.31	
2025-01-14 09:01:37.11	354.61	32.35	
2025-01-14 09:01:37.31	354.56	32.39	
2025-01-14 09:01:37.52	354.52	32.44	
2025-01-14 09:01:37.72	354.47	32.48	
2025-01-14 09:01:37.93	354.43	32.52	
2025-01-14 09:01:38.13	354.38	32.56	
2025-01-14 09:01:38.34	354.34	32.61	
2025-01-14 09:01:38.54	354.29	32.65	
2025-01-14 09:01:38.75	354.24	32.69	
2025-01-14 09:01:38.95	354.20	32.73	
2025-01-14 09:01:39.16	354.15	32.78	
2025-01-14 09:01:39.36	354.11	32.82	
2025-01-14 09:01:39.57	354.06	32.86	
2025-01-14 09:01:39.78	354.01	32.91	
2025-01-14 09:01:39.98	353.96	32.95	
2025-01-14 09:01:40.19	353.92	32.99	
2025-01-14 09:01:40.39	353.87	33.03	
2025-01-14 09:01:40.60	353.82	33.08	
2025-01-14 09:01:40.80	353.78	33.12	
2025-01-14 09:01:41.01	353.73	33.16	
2025-01-14 09:01:41.21	353.68	33.21	
2025-01-14 09:01:41.42	353.63	33.25	
2025-01-14 09:01:41.62	353.58	33.29	
2025-01-14 09:01:41.83	353.54	33.34	
2025-01-14 09:01:42.03	353.49	33.38	
2025-01-14 09:01:42.24	353.44	33.42	
2025-01-14 09:01:42.44	353.39	33.47	
2025-01-14 09:01:42.65	353.34	33.51	
2025-01-14 09:01:42.86	353.29	33.55	
2025-01-14 09:01:43.06	353.24	33.60	
2025-01-14 09:01:43.27	353.19	33.64	
2025-01-14 09:01:43.47	353.15	33.68	
2025-01-14 09:01:43.68	353.10	33.73	
2025-01-14 09:01:43.88	353.05	33.77	
2025-01-14 09:01:44.09	353.00	33.82	
2025-01-14 09:01:44.29	352.95	33.86	
2025-01-14 09:01:44.50	352.90	33.90	
2025-01-14 09:01:44.70	352.85	33.95	
2025-01-14 09:01:44.91	352.80	33.99	
2025-01-14 09:01:45.12	352.75	34.04	
2025-01-14 09:01:45.32	352.70	34.08	
2025-01-14 09:01:45.52	352.65	34.12	
2025-01-14 09:01:45.73	352.60	34.17	
2025-01-14 09:01:45.94	352.54	34.21	
2025-01-14 09:01:46.14	352.49	34.26	
2025-01-14 09:01:46.35	352.44	34.30	
2025-01-14 09:01:46.55	352.39	34.34	
2025-01-14 09:01:46.76	352.34	34.39	
2025-01-14 09:01:46.96	352.29	34.43	
2025-01-14 09:01:47.17	352.24	34.48	
2025-01-14 09:01:47.37	352.19	34.52	
2025-01-14 09:01:47.57	352.14	34.56	
2025-01-14 09:01:47.78	352.08	34.61	
2025-01-14 09:01:47.99	352.03	34.66	
2025-01-14 09:01:48.19	351.98	34.70	
2025-01-14 09:01:48.40	351.92	34.74	
2025-01-14 09:01:48.60	351.87	34.79	
2025-01-14 09:01:48.80	351.82	34.83	
2025-01-14 09:01:49.01	351.77	34.88	
2025-01-14 09:01:49.22	351.71	34.92	
2025-01-14 09:01:49.42	351.66	34.97	
2025-01-14 09:01:49.63	351.61	35.01	
2025-01-14 09:01:49.85	351.55	35.06	
2025-01-14 09:01:50.05	351.50	35.10	
2025-01-14 09:01:50.26	351.44	35.15	
2025-01-14 09:01:50.46	351.39	35.19	
2025-01-14 09:01:50.67	351.33	35.24	
2025-01-14 09:01:50.89	351.27	35.29	
2025-01-14 09:01:51.09	351.22	35.33	
2025-01-14 09:01:51.30	351.16	35.38	
2025-01-14 09:01:51.50	351.11	35.42	
2025-01-14 09:01:51.71	351.06	35.47	
2025-01-14 09:01:51.93	351.00	35.52	
2025-01-14 09:01:52.13	350.94	35.56	
2025-01-14 09:01:52.34	350.89	35.61	
2025-01-14 09:01:52.55	350.83	35.65	
2025-01-14 09:01:52.75	350.77	35.70	
2025-01-14 09:01:52.97	350.71	35.75	
2025-01-14 09:01:53.18	350.66	35.79	
2025-01-14 09:01:53.38	350.60	35.84	
2025-01-14 09:01:53.59	350.54	35.89	
2025-01-14 09:01:53.79	350.49	35.93	
2025-01-14 09:01:54.00	350.43	35.98	
2025-01-14 09:01:54.20	350.37	36.02	
2025-01-14 09:01:54.41	350.32	36.07	
2025-01-14 09:01:54.62	350.26	36.11	
2025-01-14 09:01:54.82	350.20	36.16	
2025-01-14 09:01:55.03	350.14	36.21	
2025-01-14 09:01:55.23	350.09	36.25	
2025-01-14 09:01:55.45	350.02	36.30	
2025-01-14 09:01:55.66	349.96	36.35	
2025-01-14 09:01:55.86	349.91	36.39	
2025-01-14 09:01:56.07	349.85	36.44	
2025-01-14 09:01:56.29	349.78	36.49	
2025-01-14 09:01:56.49	349.73	36.53	
2025-01-14 09:01:56.70	349.67	36.58	
2025-01-14 09:01:56.90	349.61	36.63	
2025-01-14 09:01:57.11	349.55	36.67	
2025-01-14 09:01:57.31	349.49	36.72	
2025-01-14 09:01:57.52	349.43	36.76	
2025-01-14 09:01:57.72	349.37	36.81	
2025-01-14 09:01:57.93	349.31	36.86	
2025-01-14 09:01:58.14	349.25	36.90	
2025-01-14 09:01:58.34	349.19	36.95	
2025-01-14 09:01:58.54	349.13	37.00	
2025-01-14 09:01:58.75	349.07	37.04	
2025-01-14 09:01:58.96	349.00	37.09	
2025-01-14 09:01:59.16	348.94	37.14	
2025-01-14 09:01:59.37	348.88	37.18	
2025-01-14 09:01:59.57	348.82	37.23	
2025-01-14 09:01:59.78	348.76	37.28	
2025-01-14 09:01:59.98	348.70	37.32	
2025-01-14 09:02:00.19	348.63	37.37	
2025-01-14 09:02:00.39	348.57	37.42	
2025-01-14 09:02:00.60	348.51	37.46	
2025-01-14 09:02:00.80	348.45	37.51	
2025-01-14 09:02:01.01	348.38	37.56	
2025-01-14 09:02:01.21	348.32	37.60	
2025-01-14 09:02:01.42	348.26	37.65	
2025-01-14 09:02:01.62	348.20	37.70	
2025-01-14 09:02:01.83	348.13	37.74	
2025-01-14 09:02:02.03	348.07	37.79	
2025-01-14 09:02:02.24	348.00	37.84	
2025-01-14 09:02:02.44	347.94	37.88	
2025-01-14 09:02:02.65	347.88	37.93	
2025-01-14 09:02:02.85	347.81	37.98	
2025-01-14 09:02:03.06	347.75	38.03	
2025-01-14 09:02:03.26	347.68	38.07	
2025-01-14 09:02:03.47	347.62	38.12	
2025-01-14 09:02:03.69	347.55	38.17	
2025-01-14 09:02:03.89	347.48	38.22	
2025-01-14 09:02:04.10	347.42	38.27	
2025-01-14 09:02:04.30	347.35	38.31	
2025-01-14 09:02:04.51	347.28	38.36	
2025-01-14 09:02:04.71	347.22	38.41	
2025-01-14 09:02:04.92	347.15	38.45	
2025-01-14 09:02:05.12	347.09	38.50	
2025-01-14 09:02:05.33	347.02	38.55	
2025-01-14 09:02:05.54	346.95	38.60	
2025-01-14 09:02:05.74	346.88	38.64	
2025-01-14 09:02:05.95	346.81	38.69	
2025-01-14 09:02:06.15	346.75	38.74	
2025-01-14 09:02:06.36	346.68	38.79	
2025-01-14 09:02:06.57	346.61	38.84	
2025-01-14 09:02:06.77	346.54	38.88	
2025-01-14 09:02:06.98	346.47	38.93	
2025-01-14 09:02:07.18	346.40	38.98	
2025-01-14 09:02:07.39	346.33	39.03	
2025-01-14 09:02:07.60	346.26	39.08	
2025-01-14 09:02:07.80	346.20	39.12	
2025-01-14 09:02:08.01	346.12	39.17	
2025-01-14 09:02:08.21	346.06	39.22	
2025-01-14 09:02:08.42	345.98	39.27	
2025-01-14 09:02:08.63	345.91	39.32	
2025-01-14 09:02:08.83	345.84	39.36	
2025-01-14 09:02:09.05	345.77	39.41	
2025-01-14 09:02:09.25	345.70	39.46	
2025-01-14 09:02:09.46	345.63	39.51	
2025-01-14 09:02:09.66	345.56	39.56	
2025-01-14 09:02:09.87	345.48	39.60	
2025-01-14 09:02:10.07	345.41	39.65	
2025-01-14 09:02:10.28	345.34	39.70	
2025-01-14 09:02:10.49	345.27	39.75	
2025-01-14 09:02:10.69	345.20	39.80	
2025-01-14 09:02:10.90	345.12	39.85	
2025-01-14 09:02:11.10	345.05	39.89	
2025-01-14 09:02:11.31	344.98	39.94	
2025-01-14 09:02:11.51	344.90	39.99	
2025-01-14 09:02:11.72	344.83	40.04	
2025-01-14 09:02:11.92	344.76	40.08	
2025-01-14 09:02:12.13	344.68	40.13	
2025-01-14 09:02:12.33	344.61	40.18	
2025-01-14 09:02:12.54	344.53	40.23	
2025-01-14 09:02:12.74	344.46	40.28	
2025-01-14 09:02:12.95	344.38	40.33	
2025-01-14 09:02:13.15	344.31	40.37	
2025-01-14 09:02:13.36	344.23	40.42	
2025-01-14 09:02:13.56	344.16	40.47	
2025-01-14 09:02:13.77	344.08	40.52	
2025-01-14 09:02:13.97	344.01	40.57	
2025-01-14 09:02:14.18	343.93	40.61	
2025-01-14 09:02:14.38	343.85	40.66	
2025-01-14 09:02:14.58	343.78	40.71	
2025-01-14 09:02:14.79	343.70	40.76	
2025-01-14 09:02:15.00	343.62	40.81	
2025-01-14 09:02:15.20	343.55	40.85	
2025-01-14 09:02:15.41	343.47	40.90	
2025-01-14 09:02:15.61	343.39	40.95	
2025-01-14 09:02:15.82	343.31	41.00	
2025-01-14 09:02:16.02	343.23	41.05	
2025-01-14 09:02:16.23	343.15	41.10	
2025-01-14 09:02:16.44	343.07	41.15	
2025-01-14 09:02:16.64	343.00	41.19	
2025-01-14 09:02:16.85	342.92	41.24	
2025-01-14 09:02:17.05	342.84	41.29	
2025-01-14 09:02:17.26	342.76	41.34	
2025-01-14 09:02:17.46	342.68	41.39	
2025-01-14 09:02:17.67	342.60	41.44	
2025-01-14 09:02:17.88	342.51	41.49	
2025-01-14 09:02:18.08	342.43	41.53	
2025-01-14 09:02:18.29	342.35	41.58	
2025-01-14 09:02:18.50	342.27	41.63	
2025-01-14 09:02:18.70	342.19	41.68	
2025-01-14 09:02:18.91	342.10	41.73	
2025-01-14 09:02:19.11	342.02	41.78	
2025-01-14 09:02:19.32	341.94	41.83	
2025-01-14 09:02:19.52	341.86	41.87	
2025-01-14 09:02:19.72	341.78	41.92	
2025-01-14 09:02:19.93	341.69	41.97	
2025-01-14 09:02:20.13	341.61	42.02	
2025-01-14 09:02:20.34	341.53	42.07	
2025-01-14 09:02:20.54	341.45	42.11	
2025-01-14 09:02:20.75	341.36	42.16	
2025-01-14 09:02:20.96	341.27	42.21	
2025-01-14 09:02:21.17	341.19	42.26	
2025-01-14 09:02:21.37	341.10	42.31	
2025-01-14 09:02:21.58	341.02	42.36	
2025-01-14 09:02:21.78	340.93	42.41	
2025-01-14 09:02:22.00	340.84	42.46	
2025-01-14 09:02:22.20	340.76	42.51	
2025-01-14 09:02:22.41	340.67	42.56	
2025-01-14 09:02:22.62	340.58	42.60	
2025-01-14 09:02:22.82	340.50	42.65	
2025-01-14 09:02:23.03	340.41	42.70	
2025-01-14 09:02:23.23	340.32	42.75	
2025-01-14 09:02:23.44	340.23	42.80	
2025-01-14 09:02:23.64	340.15	42.85	
2025-01-14 09:02:23.84	340.06	42.89	
2025-01-14 09:02:24.05	339.97	42.94	
2025-01-14 09:02:24.26	339.88	42.99	
2025-01-14 09:02:24.46	339.79	43.04	
2025-01-14 09:02:24.67	339.70	43.09	
2025-01-14 09:02:24.88	339.61	43.14	
2025-01-14 09:02:25.09	339.52	43.19	
2025-01-14 09:02:25.29	339.43	43.23	
2025-01-14 09:02:25.50	339.34	43.28	
2025-01-14 09:02:25.70	339.25	43.33	
2025-01-14 09:02:25.91	339.16	43.38	
2025-01-14 09:02:26.11	339.07	43.43	
2025-01-14 09:02:26.32	338.97	43.48	
2025-01-14 09:02:26.53	338.88	43.52	
2025-01-14 09:02:26.73	338.79	43.57	
2025-01-14 09:02:26.94	338.69	43.62	
2025-01-14 09:02:27.14	338.60	43.67	
2025-01-14 09:02:27.34	338.51	43.71	
2025-01-14 09:02:27.55	338.42	43.76	
2025-01-14 09:02:27.76	338.32	43.81	
2025-01-14 09:02:27.96	338.23	43.86	
2025-01-14 09:02:28.17	338.14	43.91	
2025-01-14 09:02:28.39	338.03	43.96	
2025-01-14 09:02:28.59	337.94	44.01	
2025-01-14 09:02:28.80	337.84	44.06	
2025-01-14 09:02:29.00	337.75	44.10	
2025-01-14 09:02:29.21	337.65	44.15	
2025-01-14 09:02:29.41	337.56	44.20	
2025-01-14 09:02:29.61	337.47	44.24	
2025-01-14 09:02:29.82	337.37	44.29	
2025-01-14 09:02:30.02	337.27	44.34	
2025-01-14 09:02:30.23	337.17	44.39	
2025-01-14 09:02:30.43	337.08	44.44	
2025-01-14 09:02:30.64	336.98	44.48	
2025-01-14 09:02:30.84	336.88	44.53	
2025-01-14 09:02:31.05	336.78	44.58	
2025-01-14 09:02:31.26	336.68	44.63	
2025-01-14 09:02:31.46	336.59	44.67	
2025-01-14 09:02:31.66	336.49	44.72	
2025-01-14 09:02:31.87	336.39	44.77	
2025-01-14 09:02:32.08	336.29	44.82	
2025-01-14 09:02:32.28	336.19	44.86	
2025-01-14 09:02:32.49	336.09	44.91	
2025-01-14 09:02:32.69	335.99	44.96	
2025-01-14 09:02:32.90	335.89	45.01	
2025-01-14 09:02:33.10	335.79	45.05	
2025-01-14 09:02:33.31	335.68	45.10	
2025-01-14 09:02:33.52	335.58	45.15	
2025-01-14 09:02:33.72	335.48	45.20	
2025-01-14 09:02:33.93	335.37	45.24	
2025-01-14 09:02:34.13	335.27	45.29	
2025-01-14 09:02:34.34	335.17	45.34	
2025-01-14 09:02:34.55	335.06	45.39	
2025-01-14 09:02:34.77	334.95	45.44	
2025-01-14 09:02:34.98	334.84	45.48	
2025-01-14 09:02:35.18	334.74	45.53	
2025-01-14 09:02:35.39	334.64	45.58	
2025-01-14 09:02:35.59	334.53	45.62	
2025-01-14 09:02:35.80	334.43	45.67	
2025-01-14 09:02:36.00	334.32	45.72	
2025-01-14 09:02:36.21	334.21	45.76	
2025-01-14 09:02:36.41	334.11	45.81	
2025-01-14 09:02:36.62	334.00	45.86	
2025-01-14 09:02:36.82	333.90	45.90	
2025-01-14 09:02:37.03	333.79	45.95	
2025-01-14 09:02:37.23	333.68	45.99	
2025-01-14 09:02:37.44	333.57	46.04	
2025-01-14 09:02:37.65	333.46	46.09	
2025-01-14 09:02:37.85	333.36	46.13	
2025-01-14 09:02:38.05	333.25	46.18	
2025-01-14 09:02:38.26	333.14	46.23	
2025-01-14 09:02:38.47	333.03	46.27	
2025-01-14 09:02:38.67	332.92	46.32	
2025-01-14 09:02:38.88	332.81	46.36	
2025-01-14 09:02:39.10	332.69	46.41	
2025-01-14 09:02:39.30	332.58	46.46	
2025-01-14 09:02:39.51	332.47	46.50	
2025-01-14 09:02:39.72	332.35	46.55	
2025-01-14 09:02:39.92	332.24	46.59	
2025-01-14 09:02:40.13	332.13	46.64	
2025-01-14 09:02:40.33	332.02	46.69	
2025-01-14 09:02:40.54	331.90	46.73	
2025-01-14 09:02:40.74	331.79	46.78	
2025-01-14 09:02:40.95	331.68	46.82	
2025-01-14 09:02:41.15	331.56	46.87	
2025-01-14 09:02:41.36	331.45	46.91	
2025-01-14 09:02:41.56	331.34	46.96	
2025-01-14 09:02:41.77	331.22	47.00	
2025-01-14 09:02:41.98	331.10	47.05	
2025-01-14 09:02:42.18	330.99	47.09	
2025-01-14 09:02:42.39	330.87	47.14	
2025-01-14 09:02:42.59	330.76	47.18	
2025-01-14 09:02:42.80	330.64	47.23	
2025-01-14 09:02:43.00	330.52	47.27	
2025-01-14 09:02:43.21	330.40	47.31	
2025-01-14 09:02:43.41	330.29	47.36	
2025-01-14 09:02:43.62	330.17	47.40	
2025-01-14 09:02:43.83	330.05	47.45	
2025-01-14 09:02:44.03	329.93	47.49	
2025-01-14 09:02:44.24	329.81	47.54	
2025-01-14 09:02:44.44	329.69	47.58	
2025-01-14 09:02:44.64	329.58	47.62	
2025-01-14 09:02:44.85	329.45	47.67	
2025-01-14 09:02:45.06	329.33	47.71	
2025-01-14 09:02:45.26	329.21	47.75	
2025-01-14 09:02:45.46	329.10	47.79	
2025-01-14 09:02:45.67	328.97	47.84	
2025-01-14 09:02:45.88	328.85	47.88	
2025-01-14 09:02:46.08	328.73	47.92	
2025-01-14 09:02:46.29	328.60	47.97	
2025-01-14 09:02:46.51	328.47	48.01	
2025-01-14 09:02:46.71	328.35	48.06	
2025-01-14 09:02:46.92	328.22	48.10	
2025-01-14 09:02:47.12	328.10	48.14	
2025-01-14 09:02:47.33	327.98	48.19	
2025-01-14 09:02:47.55	327.84	48.23	
2025-01-14 09:02:47.75	327.72	48.27	
2025-01-14 09:02:47.96	327.59	48.31	
2025-01-14 09:02:48.16	327.47	48.36	
2025-01-14 09:02:48.37	327.34	48.40	
2025-01-14 09:02:48.57	327.22	48.44	
2025-01-14 09:02:48.78	327.09	48.48	
2025-01-14 09:02:48.98	326.97	48.52	
2025-01-14 09:02:49.19	326.84	48.57	
2025-01-14 09:02:49.39	326.71	48.61	
2025-01-14 09:02:49.60	326.58	48.65	
2025-01-14 09:02:49.80	326.46	48.69	
2025-01-14 09:02:50.01	326.32	48.73	
2025-01-14 09:02:50.22	326.19	48.77	
2025-01-14 09:02:50.42	326.07	48.81	
2025-01-14 09:02:50.63	325.93	48.85	
2025-01-14 09:02:50.83	325.81	48.89	
2025-01-14 09:02:51.04	325.67	48.93	
2025-01-14 09:02:51.24	325.54	48.97	
2025-01-14 09:02:51.45	325.41	49.02	
2025-01-14 09:02:51.65	325.28	49.05	
2025-01-14 09:02:51.87	325.14	49.10	
2025-01-14 09:02:52.08	325.01	49.14	
2025-01-14 09:02:52.28	324.88	49.18	
2025-01-14 09:02:52.49	324.74	49.22	
2025-01-14 09:02:52.69	324.61	49.26	
2025-01-14 09:02:52.91	324.47	49.30	
2025-01-14 09:02:53.12	324.33	49.34	
2025-01-14 09:02:53.32	324.20	49.38	
2025-01-14 09:02:53.53	324.06	49.42	
2025-01-14 09:02:53.73	323.93	49.45	
2025-01-14 09:02:53.94	323.79	49.49	
2025-01-14 09:02:54.14	323.66	49.53	
2025-01-14 09:02:54.36	323.51	49.57	
2025-01-14 09:02:54.57	323.37	49.61	
2025-01-14 09:02:54.77	323.24	49.65	
2025-01-14 09:02:54.97	323.11	49.69	
2025-01-14 09:02:55.18	322.97	49.72	
2025-01-14 09:02:55.39	322.83	49.76	
2025-01-14 09:02:55.59	322.69	49.80	
2025-01-14 09:02:55.80	322.55	49.84	
2025-01-14 09:02:56.00	322.41	49.87	
2025-01-14 09:02:56.21	322.27	49.91	
2025-01-14 09:02:56.41	322.14	49.95	
2025-01-14 09:02:56.62	321.99	49.99	
2025-01-14 09:02:56.82	321.86	50.02	
2025-01-14 09:02:57.03	321.71	50.06	
2025-01-14 09:02:57.23	321.57	50.09	
2025-01-14 09:02:57.44	321.43	50.13	
2025-01-14 09:02:57.64	321.29	50.17	
2025-01-14 09:02:57.85	321.15	50.20	
2025-01-14 09:02:58.05	321.01	50.24	
2025-01-14 09:02:58.26	320.86	50.27	
2025-01-14 09:02:58.46	320.72	50.31	
2025-01-14 09:02:58.67	320.58	50.35	
2025-01-14 09:02:58.88	320.43	50.38	
2025-01-14 09:02:59.08	320.29	50.42	
2025-01-14 09:02:59.29	320.14	50.45	
2025-01-14 09:02:59.49	320.00	50.48	
2025-01-14 09:02:59.70	319.85	50.52	
2025-01-14 09:02:59.90	319.71	50.55	
2025-01-14 09:03:00.11	319.56	50.59	
2025-01-14 09:03:00.31	319.42	50.62	
2025-01-14 09:03:00.51	319.28	50.65	
2025-01-14 09:03:00.72	319.13	50.69	
2025-01-14 09:03:00.92	318.98	50.72	
2025-01-14 09:03:01.13	318.83	50.76	
2025-01-14 09:03:01.33	318.69	50.79	
2025-01-14 09:03:01.53	318.54	50.82	
2025-01-14 09:03:01.74	318.39	50.85	
2025-01-14 09:03:01.95	318.24	50.89	
2025-01-14 09:03:02.15	318.09	50.92	
2025-01-14 09:03:02.36	317.94	50.95	
2025-01-14 09:03:02.56	317.80	50.98	
2025-01-14 09:03:02.76	317.65	51.01	
2025-01-14 09:03:02.97	317.50	51.05	
2025-01-14 09:03:03.17	317.35	51.08	
2025-01-14 09:03:03.38	317.19	51.11	
2025-01-14 09:03:03.60	317.03	51.14	
2025-01-14 09:03:03.80	316.88	51.17	
2025-01-14 09:03:04.01	316.73	51.20	
2025-01-14 09:03:04.21	316.58	51.23	
2025-01-14 09:03:04.42	316.42	51.26	
2025-01-14 09:03:04.62	316.28	51.29	
2025-01-14 09:03:04.83	316.12	51.32	
2025-01-14 09:03:05.03	315.97	51.35	
2025-01-14 09:03:05.24	315.81	51.38	
2025-01-14 09:03:05.44	315.66	51.41	
2025-01-14 09:03:05.65	315.50	51.44	
2025-01-14 09:03:05.85	315.35	51.47	
2025-01-14 09:03:06.06	315.19	51.50	
2025-01-14 09:03:06.26	315.04	51.53	
2025-01-14 09:03:06.47	314.88	51.56	
2025-01-14 09:03:06.67	314.73	51.58	
2025-01-14 09:03:06.88	314.57	51.61	
2025-01-14 09:03:07.08	314.42	51.64	
2025-01-14 09:03:07.29	314.26	51.67	
2025-01-14 09:03:07.50	314.10	51.70	
2025-01-14 09:03:07.70	313.95	51.72	
2025-01-14 09:03:07.91	313.78	51.75	
2025-01-14 09:03:08.11	313.63	51.78	
2025-01-14 09:03:08.32	313.47	51.80	
2025-01-14 09:03:08.53	313.31	51.83	
2025-01-14 09:03:08.73	313.15	51.86	
2025-01-14 09:03:08.93	313.00	51.88	
2025-01-14 09:03:09.14	312.83	51.91	
2025-01-14 09:03:09.35	312.67	51.93	
2025-01-14 09:03:09.55	312.51	51.96	
2025-01-14 09:03:09.76	312.35	51.98	
2025-01-14 09:03:09.98	312.18	52.01	
2025-01-14 09:03:10.18	312.02	52.03	
2025-01-14 09:03:10.39	311.86	52.06	
2025-01-14 09:03:10.59	311.70	52.08	
2025-01-14 09:03:10.80	311.53	52.11	
2025-01-14 09:03:11.00	311.38	52.13	
2025-01-14 09:03:11.20	311.22	52.15	
2025-01-14 09:03:11.41	311.05	52.18	
2025-01-14 09:03:11.61	310.89	52.20	
2025-01-14 09:03:11.82	310.73	52.22	
2025-01-14 09:03:12.02	310.57	52.25	
2025-01-14 09:03:12.23	310.40	52.27	
2025-01-14 09:03:12.43	310.24	52.29	
2025-01-14 09:03:12.64	310.07	52.31	
2025-01-14 09:03:12.84	309.91	52.33	
2025-01-14 09:03:13.05	309.74	52.36	
2025-01-14 09:03:13.25	309.58	52.38	
2025-01-14 09:03:13.46	309.42	52.40	
2025-01-14 09:03:13.66	309.25	52.42	
2025-01-14 09:03:13.87	309.09	52.44	
2025-01-14 09:03:14.08	308.92	52.46	
2025-01-14 09:03:14.29	308.75	52.48	
2025-01-14 09:03:14.49	308.58	52.50	
2025-01-14 09:03:14.70	308.41	52.52	
2025-01-14 09:03:14.90	308.25	52.54	
2025-01-14 09:03:15.11	308.08	52.56	
2025-01-14 09:03:15.31	307.92	52.58	
2025-01-14 09:03:15.52	307.75	52.59	
2025-01-14 09:03:15.72	307.58	52.61	
2025-01-14 09:03:15.93	307.41	52.63	
2025-01-14 09:03:16.14	307.24	52.65	
2025-01-14 09:03:16.34	307.08	52.67	
2025-01-14 09:03:16.54	306.91	52.68	
2025-01-14 09:03:16.75	306.74	52.70	
2025-01-14 09:03:16.96	306.57	52.72	
2025-01-14 09:03:17.16	306.40	52.73	
2025-01-14 09:03:17.37	306.23	52.75	
2025-01-14 09:03:17.57	306.07	52.77	
2025-01-14 09:03:17.77	305.90	52.78	
2025-01-14 09:03:17.98	305.73	52.80	
2025-01-14 09:03:18.19	305.56	52.81	
2025-01-14 09:03:18.39	305.39	52.83	
2025-01-14 09:03:18.59	305.22	52.84	
2025-01-14 09:03:18.80	305.05	52.86	
2025-01-14 09:03:19.01	304.88	52.87	
2025-01-14 09:03:19.21	304.71	52.89	
2025-01-14 09:03:19.42	304.53	52.90	
2025-01-14 09:03:19.62	304.37	52.91	
2025-01-14 09:03:19.83	304.19	52.93	
2025-01-14 09:03:20.03	304.03	52.94	
2025-01-14 09:03:20.24	303.85	52.95	
2025-01-14 09:03:20.45	303.67	52.97	
2025-01-14 09:03:20.65	303.51	52.98	
2025-01-14 09:03:20.85	303.34	52.99	
2025-01-14 09:03:21.06	303.16	53.00	
2025-01-14 09:03:21.26	303.00	53.01	
2025-01-14 09:03:21.47	302.82	53.03	
2025-01-14 09:03:21.67	302.65	53.04	
2025-01-14 09:03:21.88	302.48	53.05	
2025-01-14 09:03:22.09	302.30	53.06	
2025-01-14 09:03:22.29	302.13	53.07	
2025-01-14 09:03:22.50	301.95	53.08	
2025-01-14 09:03:22.70	301.79	53.09	
2025-01-14 09:03:22.90	301.62	53.10	
2025-01-14 09:03:23.11	301.44	53.11	
