passes_logs/2025/01/14/SPB_Silybum_02/SPB_Silybum_02__20250114_201313_TERRA_rec.log

#Pass ID: 20250114_201313_TERRA
#Satellite: TERRA
#Configuration: TERRA
#Start time: 2025-01-14 20:13:12

#Version: 2.0.20230423
#Station: SPB_Silybum_02
#Location: 30.233357 lon 59.946436 lat
#TLE: 1 25994U 99068A   25013.82437757  .00000752  00000+0  16464-3 0  9992
#TLE: 2 25994  98.0218  76.8921 0003482  75.0849  16.5253 14.60392614333908

#Time	Az	El	Level	Level2	SNR	BER	Gain	Gain2
2025-01-14 20:13:14.20	216.87	4.04	
2025-01-14 20:13:14.41	216.89	4.05	
2025-01-14 20:13:14.63	216.91	4.07	
2025-01-14 20:13:14.83	216.93	4.08	
2025-01-14 20:13:15.04	216.95	4.09	
2025-01-14 20:13:15.24	216.97	4.10	
2025-01-14 20:13:15.45	216.99	4.11	
2025-01-14 20:13:15.65	217.01	4.13	
2025-01-14 20:13:15.86	217.03	4.14	
2025-01-14 20:13:16.07	217.05	4.15	
2025-01-14 20:13:16.27	217.07	4.16	
2025-01-14 20:13:16.48	217.09	4.17	
2025-01-14 20:13:16.68	217.11	4.19	
2025-01-14 20:13:16.89	217.13	4.20	
2025-01-14 20:13:17.09	217.15	4.21	
2025-01-14 20:13:17.30	217.18	4.22	
2025-01-14 20:13:17.51	217.20	4.23	
2025-01-14 20:13:17.71	217.22	4.24	
2025-01-14 20:13:17.91	217.24	4.26	
2025-01-14 20:13:18.12	217.26	4.27	
2025-01-14 20:13:18.32	217.28	4.28	
2025-01-14 20:13:18.53	217.30	4.29	
2025-01-14 20:13:18.73	217.32	4.30	
2025-01-14 20:13:18.94	217.34	4.32	
2025-01-14 20:13:19.14	217.36	4.33	
2025-01-14 20:13:19.35	217.38	4.34	
2025-01-14 20:13:19.55	217.40	4.35	
2025-01-14 20:13:19.76	217.42	4.36	
2025-01-14 20:13:19.96	217.44	4.38	
2025-01-14 20:13:20.17	217.47	4.39	
2025-01-14 20:13:20.37	217.49	4.40	
2025-01-14 20:13:20.58	217.51	4.41	
2025-01-14 20:13:20.78	217.53	4.42	
2025-01-14 20:13:20.99	217.55	4.44	
2025-01-14 20:13:21.19	217.57	4.45	
2025-01-14 20:13:21.40	217.59	4.46	
2025-01-14 20:13:21.60	217.61	4.47	
2025-01-14 20:13:21.81	217.63	4.48	
2025-01-14 20:13:22.01	217.65	4.50	
2025-01-14 20:13:22.22	217.68	4.51	
2025-01-14 20:13:22.42	217.70	4.52	
2025-01-14 20:13:22.63	217.72	4.53	
2025-01-14 20:13:22.83	217.74	4.54	
2025-01-14 20:13:23.04	217.76	4.56	
2025-01-14 20:13:23.24	217.78	4.57	
2025-01-14 20:13:23.45	217.80	4.58	
2025-01-14 20:13:23.66	217.82	4.59	
2025-01-14 20:13:23.86	217.84	4.60	
2025-01-14 20:13:24.07	217.87	4.62	
2025-01-14 20:13:24.27	217.89	4.63	
2025-01-14 20:13:24.48	217.91	4.64	
2025-01-14 20:13:24.68	217.93	4.65	
2025-01-14 20:13:24.89	217.95	4.66	
2025-01-14 20:13:25.09	217.97	4.68	
2025-01-14 20:13:25.31	217.99	4.69	
2025-01-14 20:13:25.52	218.02	4.70	
2025-01-14 20:13:25.72	218.04	4.71	
2025-01-14 20:13:25.93	218.06	4.72	
2025-01-14 20:13:26.14	218.08	4.74	
2025-01-14 20:13:26.34	218.10	4.75	
2025-01-14 20:13:26.55	218.12	4.76	
2025-01-14 20:13:26.75	218.14	4.77	
2025-01-14 20:13:26.95	218.16	4.78	
2025-01-14 20:13:27.16	218.19	4.80	
2025-01-14 20:13:27.36	218.21	4.81	
2025-01-14 20:13:27.57	218.23	4.82	
2025-01-14 20:13:27.78	218.25	4.83	
2025-01-14 20:13:27.98	218.27	4.84	
2025-01-14 20:13:28.19	218.29	4.86	
2025-01-14 20:13:28.39	218.32	4.87	
2025-01-14 20:13:28.59	218.34	4.88	
2025-01-14 20:13:28.80	218.36	4.89	
2025-01-14 20:13:29.01	218.38	4.91	
2025-01-14 20:13:29.21	218.40	4.92	
2025-01-14 20:13:29.42	218.42	4.93	
2025-01-14 20:13:29.62	218.45	4.94	
2025-01-14 20:13:29.83	218.47	4.95	
2025-01-14 20:13:30.03	218.49	4.97	
2025-01-14 20:13:30.24	218.51	4.98	
2025-01-14 20:13:30.44	218.53	4.99	
2025-01-14 20:13:30.65	218.55	5.00	
2025-01-14 20:13:30.85	218.58	5.01	
2025-01-14 20:13:31.06	218.60	5.03	
2025-01-14 20:13:31.26	218.62	5.04	
2025-01-14 20:13:31.47	218.64	5.05	
2025-01-14 20:13:31.67	218.66	5.06	
2025-01-14 20:13:31.88	218.69	5.07	
2025-01-14 20:13:32.08	218.71	5.09	
2025-01-14 20:13:32.29	218.73	5.10	
2025-01-14 20:13:32.50	218.75	5.11	
2025-01-14 20:13:32.71	218.77	5.12	
2025-01-14 20:13:32.92	218.80	5.14	
2025-01-14 20:13:33.12	218.82	5.15	
2025-01-14 20:13:33.33	218.84	5.16	
2025-01-14 20:13:33.54	218.86	5.17	
2025-01-14 20:13:33.74	218.89	5.18	
2025-01-14 20:13:33.94	218.91	5.20	
2025-01-14 20:13:34.15	218.93	5.21	
2025-01-14 20:13:34.35	218.95	5.22	
2025-01-14 20:13:34.56	218.97	5.23	
2025-01-14 20:13:34.76	219.00	5.25	
2025-01-14 20:13:34.96	219.02	5.26	
2025-01-14 20:13:35.17	219.04	5.27	
2025-01-14 20:13:35.38	219.06	5.28	
2025-01-14 20:13:35.58	219.08	5.29	
2025-01-14 20:13:35.78	219.11	5.31	
2025-01-14 20:13:35.99	219.13	5.32	
2025-01-14 20:13:36.20	219.15	5.33	
2025-01-14 20:13:36.40	219.17	5.34	
2025-01-14 20:13:36.61	219.20	5.35	
2025-01-14 20:13:36.81	219.22	5.37	
2025-01-14 20:13:37.01	219.24	5.38	
2025-01-14 20:13:37.22	219.26	5.39	
2025-01-14 20:13:37.42	219.28	5.40	
2025-01-14 20:13:37.63	219.31	5.42	
2025-01-14 20:13:37.84	219.33	5.43	
2025-01-14 20:13:38.04	219.35	5.44	
2025-01-14 20:13:38.24	219.37	5.45	
2025-01-14 20:13:38.45	219.40	5.46	
2025-01-14 20:13:38.65	219.42	5.48	
2025-01-14 20:13:38.86	219.44	5.49	
2025-01-14 20:13:39.06	219.46	5.50	
2025-01-14 20:13:39.27	219.49	5.51	
2025-01-14 20:13:39.47	219.51	5.53	
2025-01-14 20:13:39.68	219.53	5.54	
2025-01-14 20:13:39.88	219.55	5.55	
2025-01-14 20:13:40.09	219.58	5.56	
2025-01-14 20:13:40.29	219.60	5.57	
2025-01-14 20:13:40.50	219.62	5.59	
2025-01-14 20:13:40.70	219.65	5.60	
2025-01-14 20:13:40.91	219.67	5.61	
2025-01-14 20:13:41.11	219.69	5.62	
2025-01-14 20:13:41.32	219.71	5.64	
2025-01-14 20:13:41.52	219.74	5.65	
2025-01-14 20:13:41.73	219.76	5.66	
2025-01-14 20:13:41.93	219.78	5.67	
2025-01-14 20:13:42.14	219.81	5.68	
2025-01-14 20:13:42.34	219.83	5.70	
2025-01-14 20:13:42.55	219.85	5.71	
2025-01-14 20:13:42.76	219.87	5.72	
2025-01-14 20:13:42.96	219.90	5.73	
2025-01-14 20:13:43.16	219.92	5.75	
2025-01-14 20:13:43.37	219.94	5.76	
2025-01-14 20:13:43.57	219.97	5.77	
2025-01-14 20:13:43.78	219.99	5.78	
2025-01-14 20:13:43.98	220.01	5.79	
2025-01-14 20:13:44.19	220.04	5.81	
2025-01-14 20:13:44.39	220.06	5.82	
2025-01-14 20:13:44.59	220.08	5.83	
2025-01-14 20:13:44.80	220.10	5.84	
2025-01-14 20:13:45.01	220.13	5.86	
2025-01-14 20:13:45.21	220.15	5.87	
2025-01-14 20:13:45.41	220.17	5.88	
2025-01-14 20:13:45.62	220.20	5.89	
2025-01-14 20:13:45.82	220.22	5.90	
2025-01-14 20:13:46.03	220.24	5.92	
2025-01-14 20:13:46.23	220.27	5.93	
2025-01-14 20:13:46.43	220.29	5.94	
2025-01-14 20:13:46.64	220.31	5.95	
2025-01-14 20:13:46.85	220.34	5.97	
2025-01-14 20:13:47.05	220.36	5.98	
2025-01-14 20:13:47.26	220.38	5.99	
2025-01-14 20:13:47.46	220.41	6.00	
2025-01-14 20:13:47.68	220.43	6.02	
2025-01-14 20:13:47.89	220.46	6.03	
2025-01-14 20:13:48.09	220.48	6.04	
2025-01-14 20:13:48.30	220.50	6.05	
2025-01-14 20:13:48.50	220.52	6.07	
2025-01-14 20:13:48.70	220.55	6.08	
2025-01-14 20:13:48.91	220.57	6.09	
2025-01-14 20:13:49.12	220.60	6.10	
2025-01-14 20:13:49.32	220.62	6.12	
2025-01-14 20:13:49.53	220.64	6.13	
2025-01-14 20:13:49.73	220.67	6.14	
2025-01-14 20:13:49.94	220.69	6.15	
2025-01-14 20:13:50.14	220.71	6.16	
2025-01-14 20:13:50.35	220.74	6.18	
2025-01-14 20:13:50.55	220.76	6.19	
2025-01-14 20:13:50.75	220.78	6.20	
2025-01-14 20:13:50.96	220.81	6.21	
2025-01-14 20:13:51.16	220.83	6.23	
2025-01-14 20:13:51.37	220.86	6.24	
2025-01-14 20:13:51.57	220.88	6.25	
2025-01-14 20:13:51.78	220.90	6.26	
2025-01-14 20:13:51.98	220.93	6.28	
2025-01-14 20:13:52.19	220.95	6.29	
2025-01-14 20:13:52.39	220.97	6.30	
2025-01-14 20:13:52.60	221.00	6.31	
2025-01-14 20:13:52.81	221.02	6.33	
2025-01-14 20:13:53.02	221.05	6.34	
2025-01-14 20:13:53.23	221.07	6.35	
2025-01-14 20:13:53.44	221.10	6.36	
2025-01-14 20:13:53.64	221.12	6.38	
2025-01-14 20:13:53.85	221.15	6.39	
2025-01-14 20:13:54.05	221.17	6.40	
2025-01-14 20:13:54.26	221.19	6.41	
2025-01-14 20:13:54.46	221.22	6.43	
2025-01-14 20:13:54.66	221.24	6.44	
2025-01-14 20:13:54.87	221.27	6.45	
2025-01-14 20:13:55.07	221.29	6.46	
2025-01-14 20:13:55.28	221.31	6.48	
2025-01-14 20:13:55.48	221.34	6.49	
2025-01-14 20:13:55.69	221.36	6.50	
2025-01-14 20:13:55.90	221.39	6.51	
2025-01-14 20:13:56.10	221.41	6.53	
2025-01-14 20:13:56.30	221.43	6.54	
2025-01-14 20:13:56.51	221.46	6.55	
2025-01-14 20:13:56.71	221.48	6.56	
2025-01-14 20:13:56.92	221.51	6.57	
2025-01-14 20:13:57.13	221.53	6.59	
2025-01-14 20:13:57.33	221.56	6.60	
2025-01-14 20:13:57.54	221.58	6.61	
2025-01-14 20:13:57.74	221.61	6.62	
2025-01-14 20:13:57.95	221.63	6.64	
2025-01-14 20:13:58.15	221.66	6.65	
2025-01-14 20:13:58.36	221.68	6.66	
2025-01-14 20:13:58.56	221.70	6.67	
2025-01-14 20:13:58.77	221.73	6.69	
2025-01-14 20:13:58.97	221.75	6.70	
2025-01-14 20:13:59.18	221.78	6.71	
2025-01-14 20:13:59.38	221.80	6.72	
2025-01-14 20:13:59.59	221.83	6.74	
2025-01-14 20:13:59.79	221.85	6.75	
2025-01-14 20:13:59.99	221.88	6.76	
2025-01-14 20:14:00.21	221.90	6.78	
2025-01-14 20:14:00.41	221.93	6.79	
2025-01-14 20:14:00.62	221.95	6.80	
2025-01-14 20:14:00.82	221.98	6.81	
2025-01-14 20:14:01.03	222.00	6.83	
2025-01-14 20:14:01.23	222.03	6.84	
2025-01-14 20:14:01.43	222.05	6.85	
2025-01-14 20:14:01.64	222.08	6.86	
2025-01-14 20:14:01.85	222.10	6.88	
2025-01-14 20:14:02.05	222.13	6.89	
2025-01-14 20:14:02.26	222.15	6.90	
2025-01-14 20:14:02.46	222.18	6.91	
2025-01-14 20:14:02.67	222.20	6.93	
2025-01-14 20:14:02.87	222.23	6.94	
2025-01-14 20:14:03.08	222.25	6.95	
2025-01-14 20:14:03.28	222.28	6.96	
2025-01-14 20:14:03.49	222.30	6.98	
2025-01-14 20:14:03.70	222.33	6.99	
2025-01-14 20:14:03.91	222.35	7.00	
2025-01-14 20:14:04.12	222.38	7.01	
2025-01-14 20:14:04.32	222.40	7.03	
2025-01-14 20:14:04.53	222.43	7.04	
2025-01-14 20:14:04.73	222.45	7.05	
2025-01-14 20:14:04.93	222.48	7.06	
2025-01-14 20:14:05.14	222.50	7.08	
2025-01-14 20:14:05.34	222.53	7.09	
2025-01-14 20:14:05.55	222.55	7.10	
2025-01-14 20:14:05.75	222.58	7.11	
2025-01-14 20:14:05.96	222.61	7.13	
2025-01-14 20:14:06.16	222.63	7.14	
2025-01-14 20:14:06.37	222.66	7.15	
2025-01-14 20:14:06.58	222.68	7.16	
2025-01-14 20:14:06.78	222.71	7.18	
2025-01-14 20:14:06.99	222.73	7.19	
2025-01-14 20:14:07.19	222.76	7.20	
2025-01-14 20:14:07.40	222.78	7.21	
2025-01-14 20:14:07.60	222.81	7.23	
2025-01-14 20:14:07.81	222.84	7.24	
2025-01-14 20:14:08.01	222.86	7.25	
2025-01-14 20:14:08.22	222.89	7.26	
2025-01-14 20:14:08.42	222.91	7.28	
2025-01-14 20:14:08.63	222.94	7.29	
2025-01-14 20:14:08.83	222.96	7.30	
2025-01-14 20:14:09.04	222.99	7.32	
2025-01-14 20:14:09.25	223.02	7.33	
2025-01-14 20:14:09.45	223.04	7.34	
2025-01-14 20:14:09.65	223.07	7.35	
2025-01-14 20:14:09.86	223.09	7.37	
2025-01-14 20:14:10.07	223.12	7.38	
2025-01-14 20:14:10.27	223.14	7.39	
2025-01-14 20:14:10.47	223.17	7.40	
2025-01-14 20:14:10.68	223.20	7.42	
2025-01-14 20:14:10.88	223.22	7.43	
2025-01-14 20:14:11.09	223.25	7.44	
2025-01-14 20:14:11.29	223.27	7.45	
2025-01-14 20:14:11.50	223.30	7.47	
2025-01-14 20:14:11.70	223.32	7.48	
2025-01-14 20:14:11.91	223.35	7.49	
2025-01-14 20:14:12.11	223.38	7.50	
2025-01-14 20:14:12.32	223.40	7.52	
2025-01-14 20:14:12.53	223.43	7.53	
2025-01-14 20:14:12.73	223.46	7.54	
2025-01-14 20:14:12.94	223.48	7.56	
2025-01-14 20:14:13.15	223.51	7.57	
2025-01-14 20:14:13.35	223.53	7.58	
2025-01-14 20:14:13.56	223.56	7.59	
2025-01-14 20:14:13.76	223.59	7.61	
2025-01-14 20:14:13.97	223.61	7.62	
2025-01-14 20:14:14.17	223.64	7.63	
2025-01-14 20:14:14.37	223.67	7.64	
2025-01-14 20:14:14.58	223.69	7.66	
2025-01-14 20:14:14.79	223.72	7.67	
2025-01-14 20:14:14.99	223.75	7.68	
2025-01-14 20:14:15.20	223.77	7.69	
2025-01-14 20:14:15.40	223.80	7.71	
2025-01-14 20:14:15.60	223.82	7.72	
2025-01-14 20:14:15.81	223.85	7.73	
2025-01-14 20:14:16.02	223.88	7.75	
2025-01-14 20:14:16.22	223.90	7.76	
2025-01-14 20:14:16.42	223.93	7.77	
2025-01-14 20:14:16.63	223.96	7.78	
2025-01-14 20:14:16.83	223.98	7.80	
2025-01-14 20:14:17.04	224.01	7.81	
2025-01-14 20:14:17.24	224.04	7.82	
2025-01-14 20:14:17.45	224.06	7.83	
2025-01-14 20:14:17.65	224.09	7.85	
2025-01-14 20:14:17.86	224.12	7.86	
2025-01-14 20:14:18.06	224.14	7.87	
2025-01-14 20:14:18.27	224.17	7.88	
2025-01-14 20:14:18.47	224.20	7.90	
2025-01-14 20:14:18.68	224.22	7.91	
2025-01-14 20:14:18.88	224.25	7.92	
2025-01-14 20:14:19.09	224.28	7.94	
2025-01-14 20:14:19.29	224.30	7.95	
2025-01-14 20:14:19.50	224.33	7.96	
2025-01-14 20:14:19.70	224.36	7.97	
2025-01-14 20:14:19.91	224.39	7.99	
2025-01-14 20:14:20.11	224.41	8.00	
2025-01-14 20:14:20.32	224.44	8.01	
2025-01-14 20:14:20.53	224.47	8.02	
2025-01-14 20:14:20.73	224.49	8.04	
2025-01-14 20:14:20.93	224.52	8.05	
2025-01-14 20:14:21.14	224.55	8.06	
2025-01-14 20:14:21.34	224.57	8.07	
2025-01-14 20:14:21.55	224.60	8.09	
2025-01-14 20:14:21.75	224.63	8.10	
2025-01-14 20:14:21.96	224.66	8.11	
2025-01-14 20:14:22.16	224.68	8.13	
2025-01-14 20:14:22.37	224.71	8.14	
2025-01-14 20:14:22.57	224.74	8.15	
2025-01-14 20:14:22.77	224.77	8.16	
2025-01-14 20:14:22.98	224.79	8.18	
2025-01-14 20:14:23.19	224.82	8.19	
2025-01-14 20:14:23.39	224.85	8.20	
2025-01-14 20:14:23.60	224.88	8.22	
2025-01-14 20:14:23.80	224.90	8.23	
2025-01-14 20:14:24.01	224.93	8.24	
2025-01-14 20:14:24.21	224.96	8.25	
2025-01-14 20:14:24.42	224.99	8.27	
2025-01-14 20:14:24.63	225.01	8.28	
2025-01-14 20:14:24.83	225.04	8.29	
2025-01-14 20:14:25.03	225.07	8.30	
2025-01-14 20:14:25.24	225.10	8.32	
2025-01-14 20:14:25.45	225.12	8.33	
2025-01-14 20:14:25.65	225.15	8.34	
2025-01-14 20:14:25.86	225.18	8.36	
2025-01-14 20:14:26.06	225.21	8.37	
2025-01-14 20:14:26.26	225.23	8.38	
2025-01-14 20:14:26.47	225.26	8.39	
2025-01-14 20:14:26.68	225.29	8.41	
2025-01-14 20:14:26.88	225.32	8.42	
2025-01-14 20:14:27.09	225.35	8.43	
2025-01-14 20:14:27.29	225.37	8.44	
2025-01-14 20:14:27.49	225.40	8.46	
2025-01-14 20:14:27.70	225.43	8.47	
2025-01-14 20:14:27.90	225.46	8.48	
2025-01-14 20:14:28.11	225.49	8.50	
2025-01-14 20:14:28.31	225.51	8.51	
2025-01-14 20:14:28.52	225.54	8.52	
2025-01-14 20:14:28.72	225.57	8.53	
2025-01-14 20:14:28.93	225.60	8.55	
2025-01-14 20:14:29.13	225.63	8.56	
2025-01-14 20:14:29.33	225.65	8.57	
2025-01-14 20:14:29.54	225.68	8.59	
2025-01-14 20:14:29.75	225.71	8.60	
2025-01-14 20:14:29.95	225.74	8.61	
2025-01-14 20:14:30.16	225.77	8.62	
2025-01-14 20:14:30.36	225.79	8.64	
2025-01-14 20:14:30.57	225.82	8.65	
2025-01-14 20:14:30.77	225.85	8.66	
2025-01-14 20:14:30.98	225.88	8.67	
2025-01-14 20:14:31.18	225.91	8.69	
2025-01-14 20:14:31.39	225.94	8.70	
2025-01-14 20:14:31.59	225.96	8.71	
2025-01-14 20:14:31.80	225.99	8.73	
2025-01-14 20:14:32.00	226.02	8.74	
2025-01-14 20:14:32.21	226.05	8.75	
2025-01-14 20:14:32.41	226.08	8.76	
2025-01-14 20:14:32.62	226.11	8.78	
2025-01-14 20:14:32.83	226.14	8.79	
2025-01-14 20:14:33.03	226.17	8.80	
2025-01-14 20:14:33.24	226.19	8.82	
2025-01-14 20:14:33.44	226.22	8.83	
2025-01-14 20:14:33.65	226.25	8.84	
2025-01-14 20:14:33.85	226.28	8.85	
2025-01-14 20:14:34.06	226.31	8.87	
2025-01-14 20:14:34.26	226.34	8.88	
2025-01-14 20:14:34.47	226.37	8.89	
2025-01-14 20:14:34.67	226.39	8.91	
2025-01-14 20:14:34.88	226.42	8.92	
2025-01-14 20:14:35.08	226.45	8.93	
2025-01-14 20:14:35.29	226.48	8.94	
2025-01-14 20:14:35.49	226.51	8.96	
2025-01-14 20:14:35.70	226.54	8.97	
2025-01-14 20:14:35.90	226.57	8.98	
2025-01-14 20:14:36.11	226.60	9.00	
2025-01-14 20:14:36.31	226.63	9.01	
2025-01-14 20:14:36.52	226.66	9.02	
2025-01-14 20:14:36.72	226.68	9.03	
2025-01-14 20:14:36.93	226.71	9.05	
2025-01-14 20:14:37.14	226.74	9.06	
2025-01-14 20:14:37.34	226.77	9.07	
2025-01-14 20:14:37.55	226.80	9.09	
2025-01-14 20:14:37.76	226.83	9.10	
2025-01-14 20:14:37.97	226.86	9.11	
2025-01-14 20:14:38.17	226.89	9.12	
2025-01-14 20:14:38.38	226.92	9.14	
2025-01-14 20:14:38.58	226.95	9.15	
2025-01-14 20:14:38.80	226.98	9.16	
2025-01-14 20:14:39.01	227.01	9.18	
2025-01-14 20:14:39.21	227.04	9.19	
2025-01-14 20:14:39.42	227.07	9.20	
2025-01-14 20:14:39.62	227.10	9.22	
2025-01-14 20:14:39.83	227.13	9.23	
2025-01-14 20:14:40.03	227.16	9.24	
2025-01-14 20:14:40.24	227.19	9.25	
2025-01-14 20:14:40.44	227.22	9.27	
2025-01-14 20:14:40.64	227.25	9.28	
2025-01-14 20:14:40.85	227.28	9.29	
2025-01-14 20:14:41.05	227.31	9.31	
2025-01-14 20:14:41.25	227.33	9.32	
2025-01-14 20:14:41.46	227.36	9.33	
2025-01-14 20:14:41.67	227.40	9.34	
2025-01-14 20:14:41.87	227.42	9.36	
2025-01-14 20:14:42.09	227.46	9.37	
2025-01-14 20:14:42.30	227.49	9.38	
2025-01-14 20:14:42.50	227.52	9.40	
2025-01-14 20:14:42.71	227.55	9.41	
2025-01-14 20:14:42.91	227.58	9.42	
2025-01-14 20:14:43.13	227.61	9.44	
2025-01-14 20:14:43.34	227.64	9.45	
2025-01-14 20:14:43.55	227.67	9.46	
2025-01-14 20:14:43.75	227.70	9.48	
2025-01-14 20:14:43.95	227.73	9.49	
2025-01-14 20:14:44.17	227.76	9.50	
2025-01-14 20:14:44.38	227.79	9.51	
2025-01-14 20:14:44.58	227.82	9.53	
2025-01-14 20:14:44.79	227.85	9.54	
2025-01-14 20:14:44.99	227.88	9.55	
2025-01-14 20:14:45.20	227.91	9.57	
2025-01-14 20:14:45.40	227.94	9.58	
2025-01-14 20:14:45.61	227.97	9.59	
2025-01-14 20:14:45.81	228.00	9.60	
2025-01-14 20:14:46.02	228.03	9.62	
2025-01-14 20:14:46.22	228.06	9.63	
2025-01-14 20:14:46.43	228.09	9.64	
2025-01-14 20:14:46.64	228.12	9.66	
2025-01-14 20:14:46.84	228.15	9.67	
2025-01-14 20:14:47.05	228.19	9.68	
2025-01-14 20:14:47.25	228.22	9.70	
2025-01-14 20:14:47.46	228.25	9.71	
2025-01-14 20:14:47.66	228.28	9.72	
2025-01-14 20:14:47.87	228.31	9.73	
2025-01-14 20:14:48.07	228.34	9.75	
2025-01-14 20:14:48.28	228.37	9.76	
2025-01-14 20:14:48.48	228.40	9.77	
2025-01-14 20:14:48.69	228.43	9.79	
2025-01-14 20:14:48.89	228.46	9.80	
2025-01-14 20:14:49.10	228.49	9.81	
2025-01-14 20:14:49.30	228.52	9.82	
2025-01-14 20:14:49.50	228.55	9.84	
2025-01-14 20:14:49.71	228.58	9.85	
2025-01-14 20:14:49.92	228.62	9.86	
2025-01-14 20:14:50.12	228.65	9.88	
2025-01-14 20:14:50.33	228.68	9.89	
2025-01-14 20:14:50.53	228.71	9.90	
2025-01-14 20:14:50.73	228.74	9.91	
2025-01-14 20:14:50.94	228.77	9.93	
2025-01-14 20:14:51.14	228.80	9.94	
2025-01-14 20:14:51.35	228.83	9.95	
2025-01-14 20:14:51.55	228.86	9.97	
2025-01-14 20:14:51.76	228.89	9.98	
2025-01-14 20:14:51.96	228.92	9.99	
2025-01-14 20:14:52.17	228.96	10.00	
2025-01-14 20:14:52.37	228.99	10.02	
2025-01-14 20:14:52.58	229.02	10.03	
2025-01-14 20:14:52.78	229.05	10.04	
2025-01-14 20:14:52.99	229.08	10.06	
2025-01-14 20:14:53.19	229.11	10.07	
2025-01-14 20:14:53.40	229.14	10.08	
2025-01-14 20:14:53.60	229.17	10.10	
2025-01-14 20:14:53.82	229.21	10.11	
2025-01-14 20:14:54.03	229.24	10.12	
2025-01-14 20:14:54.23	229.27	10.13	
2025-01-14 20:14:54.44	229.30	10.15	
2025-01-14 20:14:54.64	229.33	10.16	
2025-01-14 20:14:54.86	229.37	10.17	
2025-01-14 20:14:55.07	229.40	10.19	
2025-01-14 20:14:55.27	229.43	10.20	
2025-01-14 20:14:55.48	229.46	10.21	
2025-01-14 20:14:55.68	229.49	10.23	
2025-01-14 20:14:55.89	229.53	10.24	
2025-01-14 20:14:56.09	229.56	10.25	
2025-01-14 20:14:56.30	229.59	10.27	
2025-01-14 20:14:56.50	229.62	10.28	
2025-01-14 20:14:56.71	229.65	10.29	
2025-01-14 20:14:56.91	229.68	10.30	
2025-01-14 20:14:57.11	229.72	10.32	
2025-01-14 20:14:57.32	229.75	10.33	
2025-01-14 20:14:57.52	229.78	10.34	
2025-01-14 20:14:57.73	229.81	10.36	
2025-01-14 20:14:57.93	229.84	10.37	
2025-01-14 20:14:58.14	229.88	10.38	
2025-01-14 20:14:58.34	229.91	10.39	
2025-01-14 20:14:58.55	229.94	10.41	
2025-01-14 20:14:58.76	229.97	10.42	
2025-01-14 20:14:58.96	230.01	10.43	
2025-01-14 20:14:59.16	230.04	10.45	
2025-01-14 20:14:59.37	230.07	10.46	
2025-01-14 20:14:59.58	230.10	10.47	
2025-01-14 20:14:59.78	230.13	10.48	
2025-01-14 20:14:59.99	230.17	10.50	
2025-01-14 20:15:00.21	230.20	10.51	
2025-01-14 20:15:00.41	230.23	10.52	
2025-01-14 20:15:00.62	230.27	10.54	
2025-01-14 20:15:00.82	230.30	10.55	
2025-01-14 20:15:01.03	230.33	10.56	
2025-01-14 20:15:01.23	230.36	10.58	
2025-01-14 20:15:01.44	230.40	10.59	
2025-01-14 20:15:01.64	230.43	10.60	
2025-01-14 20:15:01.85	230.46	10.61	
2025-01-14 20:15:02.05	230.49	10.63	
2025-01-14 20:15:02.26	230.53	10.64	
2025-01-14 20:15:02.46	230.56	10.65	
2025-01-14 20:15:02.67	230.59	10.67	
2025-01-14 20:15:02.87	230.62	10.68	
2025-01-14 20:15:03.08	230.66	10.69	
2025-01-14 20:15:03.28	230.69	10.70	
2025-01-14 20:15:03.49	230.72	10.72	
2025-01-14 20:15:03.69	230.76	10.73	
2025-01-14 20:15:03.90	230.79	10.74	
2025-01-14 20:15:04.11	230.82	10.76	
2025-01-14 20:15:04.31	230.85	10.77	
2025-01-14 20:15:04.52	230.89	10.78	
2025-01-14 20:15:04.72	230.92	10.80	
2025-01-14 20:15:04.93	230.95	10.81	
2025-01-14 20:15:05.13	230.99	10.82	
2025-01-14 20:15:05.34	231.02	10.83	
2025-01-14 20:15:05.54	231.05	10.85	
2025-01-14 20:15:05.74	231.09	10.86	
2025-01-14 20:15:05.95	231.12	10.87	
2025-01-14 20:15:06.16	231.15	10.89	
2025-01-14 20:15:06.36	231.19	10.90	
2025-01-14 20:15:06.57	231.22	10.91	
2025-01-14 20:15:06.77	231.25	10.92	
2025-01-14 20:15:06.98	231.29	10.94	
2025-01-14 20:15:07.18	231.32	10.95	
2025-01-14 20:15:07.38	231.35	10.96	
2025-01-14 20:15:07.59	231.39	10.98	
2025-01-14 20:15:07.79	231.42	10.99	
2025-01-14 20:15:08.00	231.45	11.00	
2025-01-14 20:15:08.20	231.49	11.01	
2025-01-14 20:15:08.41	231.52	11.03	
2025-01-14 20:15:08.61	231.55	11.04	
2025-01-14 20:15:08.83	231.59	11.05	
2025-01-14 20:15:09.04	231.62	11.07	
2025-01-14 20:15:09.24	231.66	11.08	
2025-01-14 20:15:09.45	231.69	11.09	
2025-01-14 20:15:09.65	231.72	11.11	
2025-01-14 20:15:09.86	231.76	11.12	
2025-01-14 20:15:10.06	231.79	11.13	
2025-01-14 20:15:10.26	231.82	11.14	
2025-01-14 20:15:10.47	231.86	11.16	
2025-01-14 20:15:10.67	231.89	11.17	
2025-01-14 20:15:10.88	231.93	11.18	
2025-01-14 20:15:11.08	231.96	11.20	
2025-01-14 20:15:11.29	231.99	11.21	
2025-01-14 20:15:11.50	232.03	11.22	
2025-01-14 20:15:11.70	232.06	11.23	
2025-01-14 20:15:11.90	232.10	11.25	
2025-01-14 20:15:12.11	232.13	11.26	
2025-01-14 20:15:12.32	232.17	11.27	
2025-01-14 20:15:12.52	232.20	11.29	
2025-01-14 20:15:12.73	232.23	11.30	
2025-01-14 20:15:12.93	232.27	11.31	
2025-01-14 20:15:13.13	232.30	11.32	
2025-01-14 20:15:13.34	232.34	11.34	
2025-01-14 20:15:13.55	232.37	11.35	
2025-01-14 20:15:13.75	232.40	11.36	
2025-01-14 20:15:13.96	232.44	11.38	
2025-01-14 20:15:14.16	232.47	11.39	
2025-01-14 20:15:14.36	232.51	11.40	
2025-01-14 20:15:14.57	232.54	11.42	
2025-01-14 20:15:14.77	232.58	11.43	
2025-01-14 20:15:14.98	232.61	11.44	
2025-01-14 20:15:15.18	232.64	11.45	
2025-01-14 20:15:15.39	232.68	11.47	
2025-01-14 20:15:15.59	232.71	11.48	
2025-01-14 20:15:15.80	232.75	11.49	
2025-01-14 20:15:16.01	232.79	11.51	
2025-01-14 20:15:16.22	232.82	11.52	
2025-01-14 20:15:16.43	232.86	11.53	
2025-01-14 20:15:16.64	232.89	11.55	
2025-01-14 20:15:16.84	232.93	11.56	
2025-01-14 20:15:17.04	232.96	11.57	
2025-01-14 20:15:17.25	233.00	11.58	
2025-01-14 20:15:17.45	233.03	11.60	
2025-01-14 20:15:17.66	233.07	11.61	
2025-01-14 20:15:17.87	233.10	11.62	
2025-01-14 20:15:18.07	233.14	11.63	
2025-01-14 20:15:18.28	233.17	11.65	
2025-01-14 20:15:18.48	233.21	11.66	
2025-01-14 20:15:18.69	233.24	11.67	
2025-01-14 20:15:18.89	233.28	11.69	
2025-01-14 20:15:19.10	233.31	11.70	
2025-01-14 20:15:19.31	233.35	11.71	
2025-01-14 20:15:19.51	233.38	11.72	
2025-01-14 20:15:19.72	233.42	11.74	
2025-01-14 20:15:19.92	233.45	11.75	
2025-01-14 20:15:20.13	233.49	11.76	
2025-01-14 20:15:20.33	233.52	11.78	
2025-01-14 20:15:20.54	233.56	11.79	
2025-01-14 20:15:20.74	233.59	11.80	
2025-01-14 20:15:20.95	233.63	11.81	
2025-01-14 20:15:21.15	233.67	11.83	
2025-01-14 20:15:21.36	233.70	11.84	
2025-01-14 20:15:21.56	233.74	11.85	
2025-01-14 20:15:21.77	233.77	11.87	
2025-01-14 20:15:21.97	233.81	11.88	
2025-01-14 20:15:22.18	233.84	11.89	
2025-01-14 20:15:22.38	233.88	11.90	
2025-01-14 20:15:22.59	233.92	11.92	
2025-01-14 20:15:22.79	233.95	11.93	
2025-01-14 20:15:22.99	233.99	11.94	
2025-01-14 20:15:23.20	234.02	11.96	
2025-01-14 20:15:23.40	234.06	11.97	
2025-01-14 20:15:23.61	234.09	11.98	
2025-01-14 20:15:23.81	234.13	11.99	
2025-01-14 20:15:24.02	234.17	12.01	
2025-01-14 20:15:24.22	234.20	12.02	
2025-01-14 20:15:24.43	234.24	12.03	
2025-01-14 20:15:24.63	234.27	12.04	
2025-01-14 20:15:24.84	234.31	12.06	
2025-01-14 20:15:25.04	234.35	12.07	
2025-01-14 20:15:25.25	234.38	12.08	
2025-01-14 20:15:25.45	234.42	12.10	
2025-01-14 20:15:25.66	234.46	12.11	
2025-01-14 20:15:25.86	234.49	12.12	
2025-01-14 20:15:26.07	234.53	12.13	
2025-01-14 20:15:26.27	234.56	12.15	
2025-01-14 20:15:26.48	234.60	12.16	
2025-01-14 20:15:26.68	234.64	12.17	
2025-01-14 20:15:26.89	234.67	12.19	
2025-01-14 20:15:27.10	234.71	12.20	
2025-01-14 20:15:27.30	234.75	12.21	
2025-01-14 20:15:27.51	234.78	12.22	
2025-01-14 20:15:27.71	234.82	12.24	
2025-01-14 20:15:27.92	234.86	12.25	
2025-01-14 20:15:28.12	234.89	12.26	
2025-01-14 20:15:28.33	234.93	12.28	
2025-01-14 20:15:28.53	234.97	12.29	
2025-01-14 20:15:28.74	235.00	12.30	
2025-01-14 20:15:28.94	235.04	12.31	
2025-01-14 20:15:29.15	235.08	12.33	
2025-01-14 20:15:29.35	235.11	12.34	
2025-01-14 20:15:29.56	235.15	12.35	
2025-01-14 20:15:29.76	235.19	12.36	
2025-01-14 20:15:29.97	235.22	12.38	
2025-01-14 20:15:30.17	235.26	12.39	
2025-01-14 20:15:30.38	235.30	12.40	
2025-01-14 20:15:30.58	235.33	12.41	
2025-01-14 20:15:30.79	235.37	12.43	
2025-01-14 20:15:30.99	235.41	12.44	
2025-01-14 20:15:31.21	235.45	12.45	
2025-01-14 20:15:31.41	235.48	12.47	
2025-01-14 20:15:31.62	235.52	12.48	
2025-01-14 20:15:31.83	235.56	12.49	
2025-01-14 20:15:32.03	235.60	12.50	
2025-01-14 20:15:32.23	235.63	12.52	
2025-01-14 20:15:32.44	235.67	12.53	
2025-01-14 20:15:32.65	235.71	12.54	
2025-01-14 20:15:32.85	235.75	12.56	
2025-01-14 20:15:33.06	235.78	12.57	
2025-01-14 20:15:33.26	235.82	12.58	
2025-01-14 20:15:33.47	235.86	12.59	
2025-01-14 20:15:33.67	235.90	12.61	
2025-01-14 20:15:33.88	235.93	12.62	
2025-01-14 20:15:34.08	235.97	12.63	
2025-01-14 20:15:34.29	236.01	12.64	
2025-01-14 20:15:34.49	236.05	12.66	
2025-01-14 20:15:34.70	236.09	12.67	
2025-01-14 20:15:34.90	236.12	12.68	
2025-01-14 20:15:35.11	236.16	12.69	
2025-01-14 20:15:35.31	236.20	12.71	
2025-01-14 20:15:35.52	236.24	12.72	
2025-01-14 20:15:35.72	236.27	12.73	
2025-01-14 20:15:35.93	236.31	12.75	
2025-01-14 20:15:36.14	236.35	12.76	
2025-01-14 20:15:36.34	236.39	12.77	
2025-01-14 20:15:36.55	236.43	12.78	
2025-01-14 20:15:36.75	236.46	12.80	
2025-01-14 20:15:36.96	236.50	12.81	
2025-01-14 20:15:37.16	236.54	12.82	
2025-01-14 20:15:37.37	236.58	12.83	
2025-01-14 20:15:37.57	236.62	12.85	
2025-01-14 20:15:37.78	236.66	12.86	
2025-01-14 20:15:37.98	236.69	12.87	
2025-01-14 20:15:38.19	236.73	12.88	
2025-01-14 20:15:38.39	236.77	12.90	
2025-01-14 20:15:38.60	236.81	12.91	
2025-01-14 20:15:38.80	236.85	12.92	
2025-01-14 20:15:39.01	236.89	12.93	
2025-01-14 20:15:39.21	236.92	12.95	
2025-01-14 20:15:39.42	236.96	12.96	
2025-01-14 20:15:39.63	237.00	12.97	
2025-01-14 20:15:39.83	237.04	12.98	
2025-01-14 20:15:40.04	237.08	13.00	
2025-01-14 20:15:40.24	237.12	13.01	
2025-01-14 20:15:40.45	237.16	13.02	
2025-01-14 20:15:40.65	237.19	13.03	
2025-01-14 20:15:40.87	237.24	13.05	
2025-01-14 20:15:41.08	237.28	13.06	
2025-01-14 20:15:41.28	237.31	13.07	
2025-01-14 20:15:41.49	237.35	13.09	
2025-01-14 20:15:41.69	237.39	13.10	
2025-01-14 20:15:41.89	237.43	13.11	
2025-01-14 20:15:42.10	237.47	13.12	
2025-01-14 20:15:42.30	237.51	13.14	
2025-01-14 20:15:42.51	237.55	13.15	
2025-01-14 20:15:42.71	237.58	13.16	
2025-01-14 20:15:42.92	237.62	13.17	
2025-01-14 20:15:43.12	237.66	13.19	
2025-01-14 20:15:43.33	237.70	13.20	
2025-01-14 20:15:43.54	237.74	13.21	
2025-01-14 20:15:43.74	237.78	13.22	
2025-01-14 20:15:43.95	237.82	13.24	
2025-01-14 20:15:44.15	237.86	13.25	
2025-01-14 20:15:44.35	237.90	13.26	
2025-01-14 20:15:44.56	237.94	13.27	
2025-01-14 20:15:44.76	237.98	13.29	
2025-01-14 20:15:44.97	238.02	13.30	
2025-01-14 20:15:45.17	238.06	13.31	
2025-01-14 20:15:45.38	238.10	13.32	
2025-01-14 20:15:45.58	238.13	13.33	
2025-01-14 20:15:45.79	238.17	13.35	
2025-01-14 20:15:45.99	238.21	13.36	
2025-01-14 20:15:46.20	238.25	13.37	
2025-01-14 20:15:46.40	238.29	13.38	
2025-01-14 20:15:46.61	238.33	13.40	
2025-01-14 20:15:46.81	238.37	13.41	
2025-01-14 20:15:47.02	238.41	13.42	
2025-01-14 20:15:47.24	238.46	13.44	
2025-01-14 20:15:47.44	238.49	13.45	
2025-01-14 20:15:47.65	238.53	13.46	
2025-01-14 20:15:47.85	238.57	13.47	
2025-01-14 20:15:48.06	238.61	13.48	
2025-01-14 20:15:48.26	238.65	13.50	
2025-01-14 20:15:48.47	238.69	13.51	
2025-01-14 20:15:48.67	238.73	13.52	
2025-01-14 20:15:48.88	238.77	13.53	
2025-01-14 20:15:49.09	238.82	13.55	
2025-01-14 20:15:49.29	238.85	13.56	
2025-01-14 20:15:49.49	238.89	13.57	
2025-01-14 20:15:49.70	238.94	13.58	
2025-01-14 20:15:49.91	238.98	13.60	
2025-01-14 20:15:50.11	239.02	13.61	
2025-01-14 20:15:50.31	239.06	13.62	
2025-01-14 20:15:50.52	239.10	13.63	
2025-01-14 20:15:50.73	239.14	13.65	
2025-01-14 20:15:50.93	239.18	13.66	
2025-01-14 20:15:51.14	239.22	13.67	
2025-01-14 20:15:51.34	239.26	13.68	
2025-01-14 20:15:51.54	239.30	13.69	
2025-01-14 20:15:51.75	239.34	13.71	
2025-01-14 20:15:51.95	239.38	13.72	
2025-01-14 20:15:52.16	239.42	13.73	
2025-01-14 20:15:52.37	239.46	13.74	
2025-01-14 20:15:52.57	239.50	13.76	
2025-01-14 20:15:52.77	239.54	13.77	
2025-01-14 20:15:52.98	239.58	13.78	
2025-01-14 20:15:53.18	239.62	13.79	
2025-01-14 20:15:53.39	239.66	13.80	
2025-01-14 20:15:53.61	239.71	13.82	
2025-01-14 20:15:53.81	239.75	13.83	
2025-01-14 20:15:54.02	239.79	13.84	
2025-01-14 20:15:54.22	239.83	13.85	
2025-01-14 20:15:54.43	239.87	13.87	
2025-01-14 20:15:54.63	239.91	13.88	
2025-01-14 20:15:54.84	239.95	13.89	
2025-01-14 20:15:55.04	239.99	13.90	
2025-01-14 20:15:55.25	240.04	13.91	
2025-01-14 20:15:55.45	240.08	13.93	
2025-01-14 20:15:55.66	240.12	13.94	
2025-01-14 20:15:55.86	240.16	13.95	
2025-01-14 20:15:56.07	240.20	13.96	
2025-01-14 20:15:56.27	240.24	13.98	
2025-01-14 20:15:56.48	240.28	13.99	
2025-01-14 20:15:56.68	240.32	14.00	
2025-01-14 20:15:56.89	240.37	14.01	
2025-01-14 20:15:57.09	240.41	14.02	
2025-01-14 20:15:57.30	240.45	14.04	
2025-01-14 20:15:57.50	240.49	14.05	
2025-01-14 20:15:57.71	240.53	14.06	
2025-01-14 20:15:57.91	240.57	14.07	
2025-01-14 20:15:58.12	240.62	14.08	
2025-01-14 20:15:58.33	240.66	14.10	
2025-01-14 20:15:58.53	240.70	14.11	
2025-01-14 20:15:58.74	240.74	14.12	
2025-01-14 20:15:58.95	240.79	14.13	
2025-01-14 20:15:59.16	240.83	14.15	
2025-01-14 20:15:59.36	240.87	14.16	
2025-01-14 20:15:59.57	240.91	14.17	
2025-01-14 20:15:59.78	240.95	14.18	
2025-01-14 20:15:59.98	241.00	14.19	
2025-01-14 20:16:00.19	241.04	14.21	
2025-01-14 20:16:00.39	241.08	14.22	
2025-01-14 20:16:00.60	241.12	14.23	
2025-01-14 20:16:00.81	241.17	14.24	
2025-01-14 20:16:01.01	241.21	14.25	
2025-01-14 20:16:01.21	241.25	14.27	
2025-01-14 20:16:01.42	241.29	14.28	
2025-01-14 20:16:01.62	241.33	14.29	
2025-01-14 20:16:01.83	241.38	14.30	
2025-01-14 20:16:02.03	241.42	14.31	
2025-01-14 20:16:02.24	241.46	14.33	
2025-01-14 20:16:02.44	241.50	14.34	
2025-01-14 20:16:02.65	241.55	14.35	
2025-01-14 20:16:02.86	241.59	14.36	
2025-01-14 20:16:03.06	241.63	14.37	
2025-01-14 20:16:03.26	241.67	14.38	
2025-01-14 20:16:03.47	241.72	14.40	
2025-01-14 20:16:03.67	241.76	14.41	
2025-01-14 20:16:03.88	241.80	14.42	
2025-01-14 20:16:04.09	241.84	14.43	
2025-01-14 20:16:04.30	241.89	14.44	
2025-01-14 20:16:04.51	241.93	14.46	
2025-01-14 20:16:04.71	241.97	14.47	
2025-01-14 20:16:04.92	242.02	14.48	
2025-01-14 20:16:05.12	242.06	14.49	
2025-01-14 20:16:05.33	242.10	14.50	
2025-01-14 20:16:05.53	242.14	14.52	
2025-01-14 20:16:05.74	242.19	14.53	
2025-01-14 20:16:05.94	242.23	14.54	
2025-01-14 20:16:06.15	242.27	14.55	
2025-01-14 20:16:06.35	242.32	14.56	
2025-01-14 20:16:06.56	242.36	14.58	
2025-01-14 20:16:06.76	242.40	14.59	
2025-01-14 20:16:06.97	242.45	14.60	
2025-01-14 20:16:07.18	242.49	14.61	
2025-01-14 20:16:07.38	242.53	14.62	
2025-01-14 20:16:07.58	242.58	14.63	
2025-01-14 20:16:07.79	242.62	14.65	
2025-01-14 20:16:07.99	242.66	14.66	
2025-01-14 20:16:08.20	242.71	14.67	
2025-01-14 20:16:08.41	242.75	14.68	
2025-01-14 20:16:08.61	242.79	14.69	
2025-01-14 20:16:08.82	242.84	14.70	
2025-01-14 20:16:09.02	242.88	14.72	
2025-01-14 20:16:09.23	242.92	14.73	
2025-01-14 20:16:09.43	242.97	14.74	
2025-01-14 20:16:09.64	243.01	14.75	
2025-01-14 20:16:09.84	243.05	14.76	
2025-01-14 20:16:10.05	243.10	14.77	
2025-01-14 20:16:10.25	243.14	14.79	
2025-01-14 20:16:10.46	243.19	14.80	
2025-01-14 20:16:10.66	243.23	14.81	
2025-01-14 20:16:10.87	243.27	14.82	
2025-01-14 20:16:11.07	243.32	14.83	
2025-01-14 20:16:11.28	243.36	14.84	
2025-01-14 20:16:11.48	243.41	14.85	
2025-01-14 20:16:11.69	243.45	14.87	
2025-01-14 20:16:11.89	243.49	14.88	
2025-01-14 20:16:12.10	243.54	14.89	
2025-01-14 20:16:12.30	243.58	14.90	
2025-01-14 20:16:12.51	243.63	14.91	
2025-01-14 20:16:12.71	243.67	14.92	
2025-01-14 20:16:12.91	243.71	14.94	
2025-01-14 20:16:13.12	243.76	14.95	
2025-01-14 20:16:13.33	243.80	14.96	
2025-01-14 20:16:13.53	243.85	14.97	
2025-01-14 20:16:13.74	243.89	14.98	
2025-01-14 20:16:13.94	243.94	14.99	
2025-01-14 20:16:14.14	243.98	15.00	
2025-01-14 20:16:14.35	244.02	15.02	
2025-01-14 20:16:14.56	244.07	15.03	
2025-01-14 20:16:14.76	244.11	15.04	
2025-01-14 20:16:14.97	244.16	15.05	
2025-01-14 20:16:15.17	244.20	15.06	
2025-01-14 20:16:15.38	244.25	15.07	
2025-01-14 20:16:15.58	244.29	15.08	
2025-01-14 20:16:15.79	244.34	15.10	
2025-01-14 20:16:15.99	244.38	15.11	
2025-01-14 20:16:16.20	244.43	15.12	
2025-01-14 20:16:16.40	244.47	15.13	
2025-01-14 20:16:16.61	244.52	15.14	
2025-01-14 20:16:16.81	244.56	15.15	
2025-01-14 20:16:17.02	244.61	15.16	
2025-01-14 20:16:17.22	244.65	15.17	
2025-01-14 20:16:17.43	244.70	15.19	
2025-01-14 20:16:17.63	244.74	15.20	
2025-01-14 20:16:17.84	244.79	15.21	
2025-01-14 20:16:18.04	244.83	15.22	
2025-01-14 20:16:18.25	244.88	15.23	
2025-01-14 20:16:18.45	244.92	15.24	
2025-01-14 20:16:18.66	244.97	15.25	
2025-01-14 20:16:18.86	245.01	15.27	
2025-01-14 20:16:19.07	245.06	15.28	
2025-01-14 20:16:19.27	245.10	15.29	
2025-01-14 20:16:19.48	245.15	15.30	
2025-01-14 20:16:19.68	245.19	15.31	
2025-01-14 20:16:19.89	245.24	15.32	
2025-01-14 20:16:20.10	245.28	15.33	
2025-01-14 20:16:20.30	245.33	15.34	
2025-01-14 20:16:20.50	245.37	15.35	
2025-01-14 20:16:20.71	245.42	15.37	
2025-01-14 20:16:20.91	245.46	15.38	
2025-01-14 20:16:21.12	245.51	15.39	
2025-01-14 20:16:21.32	245.56	15.40	
2025-01-14 20:16:21.53	245.60	15.41	
2025-01-14 20:16:21.73	245.65	15.42	
2025-01-14 20:16:21.94	245.69	15.43	
2025-01-14 20:16:22.14	245.74	15.44	
2025-01-14 20:16:22.35	245.78	15.45	
2025-01-14 20:16:22.55	245.83	15.47	
2025-01-14 20:16:22.76	245.88	15.48	
2025-01-14 20:16:22.96	245.92	15.49	
2025-01-14 20:16:23.17	245.97	15.50	
2025-01-14 20:16:23.38	246.02	15.51	
2025-01-14 20:16:23.58	246.06	15.52	
2025-01-14 20:16:23.79	246.11	15.53	
2025-01-14 20:16:23.99	246.15	15.54	
2025-01-14 20:16:24.20	246.20	15.55	
2025-01-14 20:16:24.40	246.24	15.56	
2025-01-14 20:16:24.61	246.29	15.58	
2025-01-14 20:16:24.81	246.34	15.59	
2025-01-14 20:16:25.02	246.38	15.60	
2025-01-14 20:16:25.22	246.43	15.61	
2025-01-14 20:16:25.43	246.48	15.62	
2025-01-14 20:16:25.63	246.52	15.63	
2025-01-14 20:16:25.84	246.57	15.64	
2025-01-14 20:16:26.04	246.62	15.65	
2025-01-14 20:16:26.25	246.66	15.66	
2025-01-14 20:16:26.45	246.71	15.67	
2025-01-14 20:16:26.66	246.76	15.68	
2025-01-14 20:16:26.86	246.80	15.69	
2025-01-14 20:16:27.07	246.85	15.71	
2025-01-14 20:16:27.27	246.89	15.72	
2025-01-14 20:16:27.48	246.94	15.73	
2025-01-14 20:16:27.68	246.99	15.74	
2025-01-14 20:16:27.89	247.04	15.75	
2025-01-14 20:16:28.09	247.08	15.76	
2025-01-14 20:16:28.30	247.13	15.77	
2025-01-14 20:16:28.50	247.18	15.78	
2025-01-14 20:16:28.71	247.22	15.79	
2025-01-14 20:16:28.91	247.27	15.80	
2025-01-14 20:16:29.12	247.32	15.81	
2025-01-14 20:16:29.32	247.36	15.82	
2025-01-14 20:16:29.53	247.41	15.83	
2025-01-14 20:16:29.74	247.46	15.84	
2025-01-14 20:16:29.94	247.51	15.85	
2025-01-14 20:16:30.15	247.55	15.87	
2025-01-14 20:16:30.35	247.60	15.88	
2025-01-14 20:16:30.56	247.65	15.89	
2025-01-14 20:16:30.76	247.69	15.90	
2025-01-14 20:16:30.97	247.74	15.91	
2025-01-14 20:16:31.17	247.79	15.92	
2025-01-14 20:16:31.38	247.84	15.93	
2025-01-14 20:16:31.58	247.88	15.94	
2025-01-14 20:16:31.79	247.93	15.95	
2025-01-14 20:16:31.99	247.98	15.96	
2025-01-14 20:16:32.20	248.03	15.97	
2025-01-14 20:16:32.40	248.07	15.98	
2025-01-14 20:16:32.60	248.12	15.99	
2025-01-14 20:16:32.81	248.17	16.00	
2025-01-14 20:16:33.01	248.21	16.01	
2025-01-14 20:16:33.21	248.26	16.02	
2025-01-14 20:16:33.42	248.31	16.03	
2025-01-14 20:16:33.62	248.36	16.04	
2025-01-14 20:16:33.83	248.40	16.05	
2025-01-14 20:16:34.03	248.45	16.06	
2025-01-14 20:16:34.24	248.50	16.07	
2025-01-14 20:16:34.44	248.55	16.08	
2025-01-14 20:16:34.64	248.59	16.09	
2025-01-14 20:16:34.85	248.64	16.11	
2025-01-14 20:16:35.06	248.69	16.12	
2025-01-14 20:16:35.27	248.74	16.13	
2025-01-14 20:16:35.48	248.79	16.14	
2025-01-14 20:16:35.69	248.84	16.15	
2025-01-14 20:16:35.89	248.89	16.16	
2025-01-14 20:16:36.09	248.93	16.17	
2025-01-14 20:16:36.30	248.98	16.18	
2025-01-14 20:16:36.50	249.03	16.19	
2025-01-14 20:16:36.71	249.08	16.20	
2025-01-14 20:16:36.92	249.13	16.21	
2025-01-14 20:16:37.12	249.18	16.22	
2025-01-14 20:16:37.34	249.23	16.23	
2025-01-14 20:16:37.54	249.27	16.24	
2025-01-14 20:16:37.75	249.32	16.25	
2025-01-14 20:16:37.96	249.37	16.26	
2025-01-14 20:16:38.16	249.42	16.27	
2025-01-14 20:16:38.36	249.47	16.28	
2025-01-14 20:16:38.57	249.52	16.29	
2025-01-14 20:16:38.77	249.57	16.30	
2025-01-14 20:16:38.98	249.62	16.31	
2025-01-14 20:16:39.18	249.66	16.32	
2025-01-14 20:16:39.40	249.71	16.33	
2025-01-14 20:16:39.61	249.76	16.34	
2025-01-14 20:16:39.81	249.81	16.35	
2025-01-14 20:16:40.02	249.86	16.36	
2025-01-14 20:16:40.22	249.91	16.37	
2025-01-14 20:16:40.43	249.96	16.38	
2025-01-14 20:16:40.63	250.01	16.39	
2025-01-14 20:16:40.84	250.06	16.40	
2025-01-14 20:16:41.04	250.11	16.41	
2025-01-14 20:16:41.25	250.16	16.42	
2025-01-14 20:16:41.45	250.20	16.43	
2025-01-14 20:16:41.66	250.25	16.44	
2025-01-14 20:16:41.86	250.30	16.45	
2025-01-14 20:16:42.07	250.35	16.46	
2025-01-14 20:16:42.27	250.40	16.47	
2025-01-14 20:16:42.48	250.45	16.48	
2025-01-14 20:16:42.68	250.50	16.49	
2025-01-14 20:16:42.89	250.55	16.50	
2025-01-14 20:16:43.09	250.60	16.51	
2025-01-14 20:16:43.30	250.65	16.52	
2025-01-14 20:16:43.50	250.69	16.53	
2025-01-14 20:16:43.70	250.74	16.54	
2025-01-14 20:16:43.91	250.79	16.55	
2025-01-14 20:16:44.12	250.84	16.56	
2025-01-14 20:16:44.32	250.89	16.57	
2025-01-14 20:16:44.53	250.94	16.58	
2025-01-14 20:16:44.73	250.99	16.58	
2025-01-14 20:16:44.94	251.04	16.59	
2025-01-14 20:16:45.14	251.09	16.60	
2025-01-14 20:16:45.35	251.14	16.61	
2025-01-14 20:16:45.55	251.19	16.62	
2025-01-14 20:16:45.76	251.24	16.63	
2025-01-14 20:16:45.96	251.29	16.64	
2025-01-14 20:16:46.17	251.34	16.65	
2025-01-14 20:16:46.38	251.39	16.66	
2025-01-14 20:16:46.58	251.44	16.67	
2025-01-14 20:16:46.79	251.49	16.68	
2025-01-14 20:16:46.99	251.54	16.69	
2025-01-14 20:16:47.20	251.59	16.70	
2025-01-14 20:16:47.40	251.64	16.71	
2025-01-14 20:16:47.61	251.69	16.72	
2025-01-14 20:16:47.81	251.74	16.73	
2025-01-14 20:16:48.02	251.79	16.74	
2025-01-14 20:16:48.22	251.84	16.75	
2025-01-14 20:16:48.43	251.89	16.76	
2025-01-14 20:16:48.63	251.94	16.76	
2025-01-14 20:16:48.84	251.99	16.77	
2025-01-14 20:16:49.04	252.04	16.78	
2025-01-14 20:16:49.25	252.09	16.79	
2025-01-14 20:16:49.45	252.14	16.80	
2025-01-14 20:16:49.66	252.19	16.81	
2025-01-14 20:16:49.86	252.24	16.82	
2025-01-14 20:16:50.07	252.29	16.83	
2025-01-14 20:16:50.27	252.34	16.84	
2025-01-14 20:16:50.48	252.39	16.85	
2025-01-14 20:16:50.68	252.44	16.86	
2025-01-14 20:16:50.89	252.49	16.87	
2025-01-14 20:16:51.09	252.54	16.87	
2025-01-14 20:16:51.30	252.60	16.88	
2025-01-14 20:16:51.50	252.64	16.89	
2025-01-14 20:16:51.71	252.70	16.90	
2025-01-14 20:16:51.91	252.75	16.91	
2025-01-14 20:16:52.12	252.80	16.92	
2025-01-14 20:16:52.32	252.85	16.93	
2025-01-14 20:16:52.53	252.90	16.94	
2025-01-14 20:16:52.73	252.95	16.95	
2025-01-14 20:16:52.94	253.00	16.96	
2025-01-14 20:16:53.15	253.05	16.97	
2025-01-14 20:16:53.35	253.10	16.97	
2025-01-14 20:16:53.56	253.15	16.98	
2025-01-14 20:16:53.76	253.20	16.99	
2025-01-14 20:16:53.97	253.26	17.00	
2025-01-14 20:16:54.17	253.31	17.01	
2025-01-14 20:16:54.38	253.36	17.02	
2025-01-14 20:16:54.58	253.41	17.03	
2025-01-14 20:16:54.79	253.46	17.04	
2025-01-14 20:16:54.99	253.51	17.04	
2025-01-14 20:16:55.20	253.56	17.05	
2025-01-14 20:16:55.40	253.61	17.06	
2025-01-14 20:16:55.61	253.66	17.07	
2025-01-14 20:16:55.81	253.71	17.08	
2025-01-14 20:16:56.02	253.77	17.09	
2025-01-14 20:16:56.22	253.82	17.10	
2025-01-14 20:16:56.43	253.87	17.11	
2025-01-14 20:16:56.63	253.92	17.11	
2025-01-14 20:16:56.83	253.97	17.12	
2025-01-14 20:16:57.04	254.02	17.13	
2025-01-14 20:16:57.25	254.08	17.14	
2025-01-14 20:16:57.45	254.13	17.15	
2025-01-14 20:16:57.67	254.18	17.16	
2025-01-14 20:16:57.88	254.23	17.17	
2025-01-14 20:16:58.08	254.28	17.17	
2025-01-14 20:16:58.29	254.34	17.18	
2025-01-14 20:16:58.49	254.39	17.19	
2025-01-14 20:16:58.70	254.44	17.20	
2025-01-14 20:16:58.90	254.49	17.21	
2025-01-14 20:16:59.11	254.54	17.22	
2025-01-14 20:16:59.31	254.59	17.23	
2025-01-14 20:16:59.52	254.65	17.23	
2025-01-14 20:16:59.72	254.70	17.24	
2025-01-14 20:16:59.93	254.75	17.25	
2025-01-14 20:17:00.14	254.80	17.26	
2025-01-14 20:17:00.35	254.86	17.27	
2025-01-14 20:17:00.56	254.91	17.28	
2025-01-14 20:17:00.77	254.96	17.29	
2025-01-14 20:17:00.98	255.02	17.29	
2025-01-14 20:17:01.19	255.07	17.30	
2025-01-14 20:17:01.39	255.12	17.31	
2025-01-14 20:17:01.60	255.17	17.32	
2025-01-14 20:17:01.80	255.22	17.33	
2025-01-14 20:17:02.00	255.28	17.33	
2025-01-14 20:17:02.21	255.33	17.34	
2025-01-14 20:17:02.42	255.38	17.35	
2025-01-14 20:17:02.62	255.43	17.36	
2025-01-14 20:17:02.83	255.49	17.37	
2025-01-14 20:17:03.04	255.54	17.38	
2025-01-14 20:17:03.25	255.59	17.38	
2025-01-14 20:17:03.45	255.65	17.39	
2025-01-14 20:17:03.66	255.70	17.40	
2025-01-14 20:17:03.86	255.75	17.41	
2025-01-14 20:17:04.07	255.80	17.42	
2025-01-14 20:17:04.27	255.85	17.42	
2025-01-14 20:17:04.48	255.91	17.43	
2025-01-14 20:17:04.68	255.96	17.44	
2025-01-14 20:17:04.89	256.01	17.45	
2025-01-14 20:17:05.09	256.06	17.45	
2025-01-14 20:17:05.30	256.12	17.46	
2025-01-14 20:17:05.51	256.17	17.47	
2025-01-14 20:17:05.71	256.22	17.48	
2025-01-14 20:17:05.92	256.28	17.49	
2025-01-14 20:17:06.12	256.33	17.49	
2025-01-14 20:17:06.33	256.38	17.50	
2025-01-14 20:17:06.53	256.43	17.51	
2025-01-14 20:17:06.74	256.49	17.52	
2025-01-14 20:17:06.94	256.54	17.53	
2025-01-14 20:17:07.15	256.59	17.53	
2025-01-14 20:17:07.35	256.65	17.54	
2025-01-14 20:17:07.56	256.70	17.55	
2025-01-14 20:17:07.76	256.75	17.56	
2025-01-14 20:17:07.97	256.81	17.56	
2025-01-14 20:17:08.17	256.86	17.57	
2025-01-14 20:17:08.38	256.91	17.58	
2025-01-14 20:17:08.58	256.96	17.59	
2025-01-14 20:17:08.78	257.02	17.59	
2025-01-14 20:17:08.99	257.07	17.60	
2025-01-14 20:17:09.19	257.12	17.61	
2025-01-14 20:17:09.40	257.18	17.62	
2025-01-14 20:17:09.60	257.23	17.62	
2025-01-14 20:17:09.81	257.28	17.63	
2025-01-14 20:17:10.01	257.33	17.64	
2025-01-14 20:17:10.22	257.39	17.65	
2025-01-14 20:17:10.42	257.44	17.65	
2025-01-14 20:17:10.63	257.50	17.66	
2025-01-14 20:17:10.83	257.55	17.67	
2025-01-14 20:17:11.04	257.60	17.67	
2025-01-14 20:17:11.25	257.66	17.68	
2025-01-14 20:17:11.45	257.71	17.69	
2025-01-14 20:17:11.65	257.76	17.70	
2025-01-14 20:17:11.86	257.82	17.70	
2025-01-14 20:17:12.07	257.87	17.71	
2025-01-14 20:17:12.27	257.92	17.72	
2025-01-14 20:17:12.48	257.98	17.73	
2025-01-14 20:17:12.68	258.03	17.73	
2025-01-14 20:17:12.88	258.08	17.74	
2025-01-14 20:17:13.09	258.14	17.75	
2025-01-14 20:17:13.30	258.19	17.75	
2025-01-14 20:17:13.50	258.24	17.76	
2025-01-14 20:17:13.70	258.30	17.77	
2025-01-14 20:17:13.91	258.35	17.77	
2025-01-14 20:17:14.12	258.41	17.78	
2025-01-14 20:17:14.32	258.46	17.79	
2025-01-14 20:17:14.52	258.51	17.80	
2025-01-14 20:17:14.73	258.57	17.80	
2025-01-14 20:17:14.93	258.62	17.81	
2025-01-14 20:17:15.14	258.67	17.82	
2025-01-14 20:17:15.34	258.73	17.82	
2025-01-14 20:17:15.55	258.78	17.83	
2025-01-14 20:17:15.75	258.83	17.84	
2025-01-14 20:17:15.96	258.89	17.84	
2025-01-14 20:17:16.16	258.94	17.85	
2025-01-14 20:17:16.37	259.00	17.86	
2025-01-14 20:17:16.58	259.05	17.86	
2025-01-14 20:17:16.78	259.11	17.87	
2025-01-14 20:17:16.98	259.16	17.88	
2025-01-14 20:17:17.19	259.21	17.88	
2025-01-14 20:17:17.39	259.27	17.89	
2025-01-14 20:17:17.60	259.32	17.90	
2025-01-14 20:17:17.80	259.37	17.90	
2025-01-14 20:17:18.01	259.43	17.91	
2025-01-14 20:17:18.22	259.49	17.92	
2025-01-14 20:17:18.42	259.54	17.92	
2025-01-14 20:17:18.63	259.59	17.93	
2025-01-14 20:17:18.83	259.65	17.94	
2025-01-14 20:17:19.03	259.70	17.94	
2025-01-14 20:17:19.24	259.76	17.95	
2025-01-14 20:17:19.45	259.81	17.96	
2025-01-14 20:17:19.65	259.86	17.96	
2025-01-14 20:17:19.86	259.92	17.97	
2025-01-14 20:17:20.06	259.97	17.97	
2025-01-14 20:17:20.26	260.03	17.98	
2025-01-14 20:17:20.47	260.08	17.99	
2025-01-14 20:17:20.68	260.14	17.99	
2025-01-14 20:17:20.88	260.19	18.00	
2025-01-14 20:17:21.09	260.25	18.01	
2025-01-14 20:17:21.29	260.30	18.01	
2025-01-14 20:17:21.50	260.36	18.02	
2025-01-14 20:17:21.70	260.41	18.02	
2025-01-14 20:17:21.91	260.47	18.03	
2025-01-14 20:17:22.11	260.52	18.04	
2025-01-14 20:17:22.32	260.58	18.04	
2025-01-14 20:17:22.52	260.63	18.05	
2025-01-14 20:17:22.72	260.68	18.05	
2025-01-14 20:17:22.93	260.74	18.06	
2025-01-14 20:17:23.14	260.79	18.07	
2025-01-14 20:17:23.34	260.85	18.07	
2025-01-14 20:17:23.54	260.90	18.08	
2025-01-14 20:17:23.75	260.96	18.08	
2025-01-14 20:17:23.96	261.01	18.09	
2025-01-14 20:17:24.16	261.07	18.10	
2025-01-14 20:17:24.38	261.13	18.10	
2025-01-14 20:17:24.58	261.18	18.11	
2025-01-14 20:17:24.79	261.24	18.11	
2025-01-14 20:17:24.99	261.29	18.12	
2025-01-14 20:17:25.20	261.35	18.13	
2025-01-14 20:17:25.40	261.40	18.13	
2025-01-14 20:17:25.61	261.46	18.14	
2025-01-14 20:17:25.81	261.51	18.14	
2025-01-14 20:17:26.02	261.57	18.15	
2025-01-14 20:17:26.22	261.62	18.15	
2025-01-14 20:17:26.43	261.68	18.16	
2025-01-14 20:17:26.63	261.73	18.17	
2025-01-14 20:17:26.84	261.79	18.17	
2025-01-14 20:17:27.05	261.84	18.18	
2025-01-14 20:17:27.25	261.90	18.18	
2025-01-14 20:17:27.46	261.95	18.19	
2025-01-14 20:17:27.66	262.01	18.19	
2025-01-14 20:17:27.87	262.06	18.20	
2025-01-14 20:17:28.07	262.12	18.20	
2025-01-14 20:17:28.28	262.17	18.21	
2025-01-14 20:17:28.48	262.23	18.22	
2025-01-14 20:17:28.69	262.29	18.22	
2025-01-14 20:17:28.89	262.34	18.23	
2025-01-14 20:17:29.10	262.40	18.23	
2025-01-14 20:17:29.30	262.45	18.24	
2025-01-14 20:17:29.51	262.51	18.24	
2025-01-14 20:17:29.71	262.56	18.25	
2025-01-14 20:17:29.92	262.62	18.25	
2025-01-14 20:17:30.12	262.67	18.26	
2025-01-14 20:17:30.33	262.73	18.26	
2025-01-14 20:17:30.53	262.78	18.27	
2025-01-14 20:17:30.75	262.84	18.27	
2025-01-14 20:17:30.96	262.90	18.28	
2025-01-14 20:17:31.16	262.95	18.28	
2025-01-14 20:17:31.37	263.01	18.29	
2025-01-14 20:17:31.57	263.07	18.29	
2025-01-14 20:17:31.78	263.12	18.30	
2025-01-14 20:17:31.98	263.18	18.30	
2025-01-14 20:17:32.18	263.23	18.31	
2025-01-14 20:17:32.39	263.29	18.31	
2025-01-14 20:17:32.60	263.34	18.32	
2025-01-14 20:17:32.80	263.40	18.32	
2025-01-14 20:17:33.00	263.45	18.33	
2025-01-14 20:17:33.21	263.51	18.33	
2025-01-14 20:17:33.42	263.57	18.34	
2025-01-14 20:17:33.62	263.62	18.34	
2025-01-14 20:17:33.83	263.68	18.35	
2025-01-14 20:17:34.03	263.73	18.35	
2025-01-14 20:17:34.24	263.79	18.36	
2025-01-14 20:17:34.44	263.85	18.36	
2025-01-14 20:17:34.65	263.90	18.37	
2025-01-14 20:17:34.85	263.96	18.37	
2025-01-14 20:17:35.06	264.01	18.38	
2025-01-14 20:17:35.26	264.07	18.38	
2025-01-14 20:17:35.47	264.13	18.39	
2025-01-14 20:17:35.67	264.18	18.39	
2025-01-14 20:17:35.88	264.24	18.39	
2025-01-14 20:17:36.10	264.30	18.40	
2025-01-14 20:17:36.30	264.35	18.40	
2025-01-14 20:17:36.51	264.41	18.41	
2025-01-14 20:17:36.71	264.47	18.41	
2025-01-14 20:17:36.92	264.52	18.42	
2025-01-14 20:17:37.12	264.58	18.42	
2025-01-14 20:17:37.33	264.64	18.43	
2025-01-14 20:17:37.54	264.69	18.43	
2025-01-14 20:17:37.75	264.75	18.43	
2025-01-14 20:17:37.96	264.81	18.44	
2025-01-14 20:17:38.16	264.86	18.44	
2025-01-14 20:17:38.37	264.92	18.45	
2025-01-14 20:17:38.57	264.97	18.45	
2025-01-14 20:17:38.78	265.03	18.46	
2025-01-14 20:17:38.98	265.09	18.46	
2025-01-14 20:17:39.19	265.15	18.46	
2025-01-14 20:17:39.39	265.20	18.47	
2025-01-14 20:17:39.60	265.26	18.47	
2025-01-14 20:17:39.80	265.31	18.48	
2025-01-14 20:17:40.01	265.37	18.48	
2025-01-14 20:17:40.21	265.43	18.48	
2025-01-14 20:17:40.42	265.48	18.49	
2025-01-14 20:17:40.62	265.54	18.49	
2025-01-14 20:17:40.83	265.60	18.50	
2025-01-14 20:17:41.03	265.65	18.50	
2025-01-14 20:17:41.24	265.71	18.50	
2025-01-14 20:17:41.44	265.76	18.51	
2025-01-14 20:17:41.65	265.82	18.51	
2025-01-14 20:17:41.85	265.88	18.52	
2025-01-14 20:17:42.06	265.93	18.52	
2025-01-14 20:17:42.26	265.99	18.52	
2025-01-14 20:17:42.48	266.05	18.53	
2025-01-14 20:17:42.68	266.11	18.53	
2025-01-14 20:17:42.89	266.16	18.53	
2025-01-14 20:17:43.10	266.22	18.54	
2025-01-14 20:17:43.30	266.28	18.54	
2025-01-14 20:17:43.50	266.33	18.54	
2025-01-14 20:17:43.71	266.39	18.55	
2025-01-14 20:17:43.91	266.44	18.55	
2025-01-14 20:17:44.13	266.51	18.56	
2025-01-14 20:17:44.33	266.56	18.56	
2025-01-14 20:17:44.54	266.62	18.56	
2025-01-14 20:17:44.74	266.67	18.57	
2025-01-14 20:17:44.95	266.73	18.57	
2025-01-14 20:17:45.15	266.79	18.57	
2025-01-14 20:17:45.36	266.85	18.58	
2025-01-14 20:17:45.56	266.90	18.58	
2025-01-14 20:17:45.76	266.96	18.58	
2025-01-14 20:17:45.97	267.01	18.59	
2025-01-14 20:17:46.18	267.07	18.59	
2025-01-14 20:17:46.38	267.13	18.59	
2025-01-14 20:17:46.58	267.18	18.60	
2025-01-14 20:17:46.79	267.24	18.60	
2025-01-14 20:17:46.99	267.30	18.60	
2025-01-14 20:17:47.20	267.35	18.61	
2025-01-14 20:17:47.40	267.41	18.61	
2025-01-14 20:17:47.61	267.47	18.61	
2025-01-14 20:17:47.81	267.52	18.61	
2025-01-14 20:17:48.02	267.58	18.62	
2025-01-14 20:17:48.22	267.64	18.62	
2025-01-14 20:17:48.43	267.70	18.62	
2025-01-14 20:17:48.64	267.75	18.63	
2025-01-14 20:17:48.84	267.81	18.63	
2025-01-14 20:17:49.04	267.86	18.63	
2025-01-14 20:17:49.25	267.92	18.64	
2025-01-14 20:17:49.45	267.98	18.64	
2025-01-14 20:17:49.66	268.04	18.64	
2025-01-14 20:17:49.86	268.09	18.64	
2025-01-14 20:17:50.07	268.15	18.65	
2025-01-14 20:17:50.27	268.21	18.65	
2025-01-14 20:17:50.48	268.26	18.65	
2025-01-14 20:17:50.68	268.32	18.65	
2025-01-14 20:17:50.89	268.38	18.66	
2025-01-14 20:17:51.09	268.43	18.66	
2025-01-14 20:17:51.30	268.49	18.66	
2025-01-14 20:17:51.50	268.55	18.66	
2025-01-14 20:17:51.71	268.61	18.67	
2025-01-14 20:17:51.91	268.66	18.67	
2025-01-14 20:17:52.12	268.72	18.67	
2025-01-14 20:17:52.32	268.78	18.68	
2025-01-14 20:17:52.53	268.83	18.68	
2025-01-14 20:17:52.73	268.89	18.68	
2025-01-14 20:17:52.94	268.95	18.68	
2025-01-14 20:17:53.15	269.01	18.68	
2025-01-14 20:17:53.36	269.07	18.69	
2025-01-14 20:17:53.56	269.12	18.69	
2025-01-14 20:17:53.77	269.18	18.69	
2025-01-14 20:17:53.97	269.24	18.69	
2025-01-14 20:17:54.17	269.29	18.70	
2025-01-14 20:17:54.38	269.35	18.70	
2025-01-14 20:17:54.59	269.41	18.70	
2025-01-14 20:17:54.79	269.46	18.70	
2025-01-14 20:17:55.00	269.52	18.70	
2025-01-14 20:17:55.20	269.58	18.71	
2025-01-14 20:17:55.41	269.64	18.71	
2025-01-14 20:17:55.61	269.69	18.71	
2025-01-14 20:17:55.82	269.75	18.71	
2025-01-14 20:17:56.02	269.81	18.72	
2025-01-14 20:17:56.23	269.87	18.72	
2025-01-14 20:17:56.43	269.92	18.72	
2025-01-14 20:17:56.64	269.98	18.72	
2025-01-14 20:17:56.84	270.04	18.72	
2025-01-14 20:17:57.05	270.10	18.72	
2025-01-14 20:17:57.25	270.15	18.73	
2025-01-14 20:17:57.46	270.21	18.73	
2025-01-14 20:17:57.66	270.27	18.73	
2025-01-14 20:17:57.87	270.32	18.73	
2025-01-14 20:17:58.07	270.38	18.73	
2025-01-14 20:17:58.28	270.44	18.74	
2025-01-14 20:17:58.48	270.49	18.74	
2025-01-14 20:17:58.68	270.55	18.74	
2025-01-14 20:17:58.89	270.61	18.74	
2025-01-14 20:17:59.10	270.67	18.74	
2025-01-14 20:17:59.30	270.72	18.74	
2025-01-14 20:17:59.52	270.79	18.75	
2025-01-14 20:17:59.72	270.84	18.75	
2025-01-14 20:17:59.93	270.90	18.75	
2025-01-14 20:18:00.15	270.96	18.75	
2025-01-14 20:18:00.35	271.02	18.75	
2025-01-14 20:18:00.56	271.08	18.75	
2025-01-14 20:18:00.76	271.13	18.75	
2025-01-14 20:18:00.97	271.19	18.76	
2025-01-14 20:18:01.17	271.25	18.76	
2025-01-14 20:18:01.38	271.31	18.76	
2025-01-14 20:18:01.58	271.36	18.76	
2025-01-14 20:18:01.78	271.42	18.76	
2025-01-14 20:18:01.99	271.48	18.76	
2025-01-14 20:18:02.20	271.54	18.76	
2025-01-14 20:18:02.40	271.59	18.76	
2025-01-14 20:18:02.60	271.65	18.77	
2025-01-14 20:18:02.81	271.71	18.77	
2025-01-14 20:18:03.01	271.76	18.77	
2025-01-14 20:18:03.22	271.82	18.77	
2025-01-14 20:18:03.43	271.88	18.77	
2025-01-14 20:18:03.63	271.94	18.77	
2025-01-14 20:18:03.84	271.99	18.77	
2025-01-14 20:18:04.04	272.05	18.77	
2025-01-14 20:18:04.25	272.11	18.77	
2025-01-14 20:18:04.45	272.17	18.77	
2025-01-14 20:18:04.66	272.22	18.77	
2025-01-14 20:18:04.87	272.28	18.78	
2025-01-14 20:18:05.08	272.34	18.78	
2025-01-14 20:18:05.28	272.40	18.78	
2025-01-14 20:18:05.49	272.46	18.78	
2025-01-14 20:18:05.69	272.51	18.78	
2025-01-14 20:18:05.90	272.57	18.78	
2025-01-14 20:18:06.10	272.63	18.78	
2025-01-14 20:18:06.31	272.69	18.78	
2025-01-14 20:18:06.51	272.74	18.78	
2025-01-14 20:18:06.72	272.80	18.78	
2025-01-14 20:18:06.92	272.86	18.78	
2025-01-14 20:18:07.12	272.91	18.78	
2025-01-14 20:18:07.33	272.97	18.78	
2025-01-14 20:18:07.54	273.03	18.78	
2025-01-14 20:18:07.74	273.09	18.78	
2025-01-14 20:18:07.95	273.15	18.79	
2025-01-14 20:18:08.17	273.21	18.79	
2025-01-14 20:18:08.37	273.26	18.79	
2025-01-14 20:18:08.58	273.32	18.79	
2025-01-14 20:18:08.78	273.38	18.79	
2025-01-14 20:18:08.99	273.44	18.79	
2025-01-14 20:18:09.19	273.49	18.79	
2025-01-14 20:18:09.39	273.55	18.79	
2025-01-14 20:18:09.60	273.61	18.79	
2025-01-14 20:18:09.80	273.66	18.79	
2025-01-14 20:18:10.01	273.72	18.79	
2025-01-14 20:18:10.21	273.78	18.79	
2025-01-14 20:18:10.42	273.84	18.79	
2025-01-14 20:18:10.63	273.90	18.79	
2025-01-14 20:18:10.83	273.95	18.79	
2025-01-14 20:18:11.04	274.01	18.79	
2025-01-14 20:18:11.24	274.07	18.79	
2025-01-14 20:18:11.45	274.13	18.79	
2025-01-14 20:18:11.65	274.18	18.79	
2025-01-14 20:18:11.86	274.24	18.79	
2025-01-14 20:18:12.06	274.30	18.79	
2025-01-14 20:18:12.27	274.36	18.79	
2025-01-14 20:18:12.47	274.41	18.79	
2025-01-14 20:18:12.68	274.47	18.79	
2025-01-14 20:18:12.88	274.53	18.79	
2025-01-14 20:18:13.09	274.59	18.79	
2025-01-14 20:18:13.30	274.65	18.79	
2025-01-14 20:18:13.50	274.70	18.79	
2025-01-14 20:18:13.71	274.76	18.79	
2025-01-14 20:18:13.91	274.82	18.79	
2025-01-14 20:18:14.12	274.88	18.79	
2025-01-14 20:18:14.32	274.93	18.79	
2025-01-14 20:18:14.53	274.99	18.78	
2025-01-14 20:18:14.73	275.05	18.78	
2025-01-14 20:18:14.94	275.11	18.78	
2025-01-14 20:18:15.14	275.16	18.78	
2025-01-14 20:18:15.35	275.22	18.78	
2025-01-14 20:18:15.57	275.28	18.78	
2025-01-14 20:18:15.77	275.34	18.78	
2025-01-14 20:18:15.98	275.40	18.78	
2025-01-14 20:18:16.18	275.45	18.78	
2025-01-14 20:18:16.39	275.51	18.78	
2025-01-14 20:18:16.59	275.57	18.78	
2025-01-14 20:18:16.80	275.63	18.78	
2025-01-14 20:18:17.00	275.68	18.78	
2025-01-14 20:18:17.21	275.74	18.78	
2025-01-14 20:18:17.42	275.80	18.78	
2025-01-14 20:18:17.62	275.86	18.77	
2025-01-14 20:18:17.83	275.91	18.77	
2025-01-14 20:18:18.03	275.97	18.77	
2025-01-14 20:18:18.24	276.03	18.77	
2025-01-14 20:18:18.44	276.09	18.77	
2025-01-14 20:18:18.65	276.14	18.77	
2025-01-14 20:18:18.86	276.20	18.77	
2025-01-14 20:18:19.07	276.26	18.77	
2025-01-14 20:18:19.28	276.32	18.77	
2025-01-14 20:18:19.48	276.38	18.77	
2025-01-14 20:18:19.69	276.44	18.76	
2025-01-14 20:18:19.89	276.49	18.76	
2025-01-14 20:18:20.10	276.55	18.76	
2025-01-14 20:18:20.30	276.61	18.76	
2025-01-14 20:18:20.51	276.67	18.76	
2025-01-14 20:18:20.72	276.72	18.76	
2025-01-14 20:18:20.92	276.78	18.76	
2025-01-14 20:18:21.12	276.84	18.76	
2025-01-14 20:18:21.33	276.89	18.75	
2025-01-14 20:18:21.53	276.95	18.75	
2025-01-14 20:18:21.74	277.01	18.75	
2025-01-14 20:18:21.94	277.06	18.75	
2025-01-14 20:18:22.15	277.12	18.75	
2025-01-14 20:18:22.35	277.18	18.75	
2025-01-14 20:18:22.56	277.24	18.75	
2025-01-14 20:18:22.76	277.29	18.74	
2025-01-14 20:18:22.97	277.35	18.74	
2025-01-14 20:18:23.17	277.41	18.74	
2025-01-14 20:18:23.38	277.47	18.74	
2025-01-14 20:18:23.58	277.52	18.74	
2025-01-14 20:18:23.79	277.58	18.74	
2025-01-14 20:18:23.99	277.64	18.74	
2025-01-14 20:18:24.20	277.70	18.73	
2025-01-14 20:18:24.41	277.75	18.73	
2025-01-14 20:18:24.61	277.81	18.73	
2025-01-14 20:18:24.82	277.87	18.73	
2025-01-14 20:18:25.02	277.93	18.73	
2025-01-14 20:18:25.22	277.98	18.72	
2025-01-14 20:18:25.43	278.04	18.72	
2025-01-14 20:18:25.63	278.10	18.72	
2025-01-14 20:18:25.84	278.15	18.72	
2025-01-14 20:18:26.05	278.21	18.72	
2025-01-14 20:18:26.25	278.27	18.71	
2025-01-14 20:18:26.46	278.33	18.71	
2025-01-14 20:18:26.66	278.38	18.71	
2025-01-14 20:18:26.87	278.44	18.71	
2025-01-14 20:18:27.07	278.50	18.71	
2025-01-14 20:18:27.29	278.56	18.70	
2025-01-14 20:18:27.49	278.61	18.70	
2025-01-14 20:18:27.70	278.67	18.70	
2025-01-14 20:18:27.91	278.73	18.70	
2025-01-14 20:18:28.11	278.79	18.70	
2025-01-14 20:18:28.32	278.85	18.69	
2025-01-14 20:18:28.52	278.90	18.69	
2025-01-14 20:18:28.73	278.96	18.69	
2025-01-14 20:18:28.93	279.01	18.69	
2025-01-14 20:18:29.14	279.07	18.68	
2025-01-14 20:18:29.34	279.13	18.68	
2025-01-14 20:18:29.55	279.19	18.68	
2025-01-14 20:18:29.75	279.24	18.68	
2025-01-14 20:18:29.96	279.30	18.67	
2025-01-14 20:18:30.17	279.36	18.67	
2025-01-14 20:18:30.37	279.42	18.67	
2025-01-14 20:18:30.58	279.47	18.67	
2025-01-14 20:18:30.78	279.53	18.66	
2025-01-14 20:18:30.99	279.59	18.66	
2025-01-14 20:18:31.19	279.64	18.66	
2025-01-14 20:18:31.40	279.70	18.66	
2025-01-14 20:18:31.60	279.76	18.65	
2025-01-14 20:18:31.81	279.82	18.65	
2025-01-14 20:18:32.02	279.87	18.65	
2025-01-14 20:18:32.22	279.93	18.65	
2025-01-14 20:18:32.43	279.99	18.64	
2025-01-14 20:18:32.63	280.04	18.64	
2025-01-14 20:18:32.84	280.10	18.64	
2025-01-14 20:18:33.04	280.16	18.63	
2025-01-14 20:18:33.25	280.21	18.63	
2025-01-14 20:18:33.45	280.27	18.63	
2025-01-14 20:18:33.65	280.33	18.63	
2025-01-14 20:18:33.86	280.38	18.62	
2025-01-14 20:18:34.06	280.44	18.62	
2025-01-14 20:18:34.27	280.50	18.62	
2025-01-14 20:18:34.47	280.55	18.61	
2025-01-14 20:18:34.68	280.61	18.61	
2025-01-14 20:18:34.88	280.67	18.61	
2025-01-14 20:18:35.10	280.73	18.60	
2025-01-14 20:18:35.31	280.79	18.60	
2025-01-14 20:18:35.51	280.84	18.60	
2025-01-14 20:18:35.72	280.90	18.60	
2025-01-14 20:18:35.92	280.95	18.59	
2025-01-14 20:18:36.13	281.01	18.59	
2025-01-14 20:18:36.33	281.07	18.59	
2025-01-14 20:18:36.54	281.13	18.58	
2025-01-14 20:18:36.74	281.18	18.58	
2025-01-14 20:18:36.96	281.24	18.58	
2025-01-14 20:18:37.16	281.30	18.57	
2025-01-14 20:18:37.37	281.35	18.57	
2025-01-14 20:18:37.58	281.41	18.57	
2025-01-14 20:18:37.78	281.47	18.56	
2025-01-14 20:18:37.98	281.52	18.56	
2025-01-14 20:18:38.19	281.58	18.55	
2025-01-14 20:18:38.40	281.64	18.55	
2025-01-14 20:18:38.60	281.69	18.55	
2025-01-14 20:18:38.82	281.75	18.54	
2025-01-14 20:18:39.02	281.81	18.54	
2025-01-14 20:18:39.22	281.86	18.54	
2025-01-14 20:18:39.43	281.92	18.53	
2025-01-14 20:18:39.63	281.98	18.53	
2025-01-14 20:18:39.84	282.03	18.53	
2025-01-14 20:18:40.04	282.09	18.52	
2025-01-14 20:18:40.25	282.15	18.52	
2025-01-14 20:18:40.45	282.20	18.51	
2025-01-14 20:18:40.66	282.26	18.51	
2025-01-14 20:18:40.86	282.32	18.51	
2025-01-14 20:18:41.07	282.37	18.50	
2025-01-14 20:18:41.27	282.43	18.50	
2025-01-14 20:18:41.48	282.49	18.50	
2025-01-14 20:18:41.68	282.54	18.49	
2025-01-14 20:18:41.89	282.60	18.49	
2025-01-14 20:18:42.09	282.65	18.48	
2025-01-14 20:18:42.30	282.71	18.48	
2025-01-14 20:18:42.50	282.77	18.48	
2025-01-14 20:18:42.71	282.82	18.47	
2025-01-14 20:18:42.91	282.88	18.47	
2025-01-14 20:18:43.12	282.94	18.46	
2025-01-14 20:18:43.32	282.99	18.46	
2025-01-14 20:18:43.53	283.05	18.45	
2025-01-14 20:18:43.73	283.10	18.45	
2025-01-14 20:18:43.94	283.16	18.45	
2025-01-14 20:18:44.14	283.21	18.44	
2025-01-14 20:18:44.35	283.27	18.44	
2025-01-14 20:18:44.55	283.33	18.43	
2025-01-14 20:18:44.76	283.38	18.43	
2025-01-14 20:18:44.96	283.44	18.43	
2025-01-14 20:18:45.17	283.50	18.42	
2025-01-14 20:18:45.37	283.55	18.42	
2025-01-14 20:18:45.58	283.61	18.41	
2025-01-14 20:18:45.78	283.66	18.41	
2025-01-14 20:18:45.99	283.72	18.40	
2025-01-14 20:18:46.19	283.77	18.40	
2025-01-14 20:18:46.40	283.83	18.39	
2025-01-14 20:18:46.60	283.89	18.39	
2025-01-14 20:18:46.81	283.94	18.39	
2025-01-14 20:18:47.01	284.00	18.38	
2025-01-14 20:18:47.22	284.06	18.38	
2025-01-14 20:18:47.42	284.11	18.37	
