passes_logs/2025/01/14/SPB_Silybum_02/SPB_Silybum_02__20250114_003144_SUOMI_NPP_rec.log

#Pass ID: 20250114_003144_SUOMI NPP
#Satellite: SUOMI NPP
#Configuration: NPP
#Start time: 2025-01-14 00:31:44

#Version: 2.0.20230423
#Station: SPB_Silybum_02
#Location: 30.233357 lon 59.946436 lat
#TLE: 1 37849U 11061A   25013.15774042  .00000145  00000+0  89802-4 0  9991
#TLE: 2 37849  98.7444 314.1696 0001761  43.7896 316.3420 14.19537310684653

#Time	Az	El	Level	Level2	SNR	BER	Gain	Gain2
2025-01-14 00:31:46.19	17.28	4.13	
2025-01-14 00:31:46.40	17.28	4.14	
2025-01-14 00:31:46.60	17.28	4.16	
2025-01-14 00:31:46.80	17.28	4.17	
2025-01-14 00:31:47.01	17.28	4.18	
2025-01-14 00:31:47.21	17.28	4.20	
2025-01-14 00:31:47.42	17.27	4.21	
2025-01-14 00:31:47.62	17.27	4.23	
2025-01-14 00:31:47.83	17.27	4.24	
2025-01-14 00:31:48.04	17.27	4.26	
2025-01-14 00:31:48.24	17.27	4.27	
2025-01-14 00:31:48.45	17.27	4.28	
2025-01-14 00:31:48.65	17.27	4.30	
2025-01-14 00:31:48.86	17.27	4.31	
2025-01-14 00:31:49.06	17.27	4.33	
2025-01-14 00:31:49.27	17.26	4.34	
2025-01-14 00:31:49.48	17.26	4.36	
2025-01-14 00:31:49.68	17.26	4.37	
2025-01-14 00:31:49.89	17.26	4.38	
2025-01-14 00:31:50.09	17.26	4.40	
2025-01-14 00:31:50.30	17.26	4.41	
2025-01-14 00:31:50.50	17.26	4.43	
2025-01-14 00:31:50.71	17.26	4.44	
2025-01-14 00:31:50.91	17.25	4.45	
2025-01-14 00:31:51.12	17.25	4.47	
2025-01-14 00:31:51.32	17.25	4.48	
2025-01-14 00:31:51.53	17.25	4.50	
2025-01-14 00:31:51.73	17.25	4.51	
2025-01-14 00:31:51.93	17.25	4.53	
2025-01-14 00:31:52.14	17.25	4.54	
2025-01-14 00:31:52.35	17.25	4.56	
2025-01-14 00:31:52.55	17.25	4.57	
2025-01-14 00:31:52.76	17.24	4.58	
2025-01-14 00:31:52.96	17.24	4.60	
2025-01-14 00:31:53.17	17.24	4.61	
2025-01-14 00:31:53.37	17.24	4.63	
2025-01-14 00:31:53.58	17.24	4.64	
2025-01-14 00:31:53.79	17.24	4.66	
2025-01-14 00:31:53.99	17.24	4.67	
2025-01-14 00:31:54.19	17.24	4.68	
2025-01-14 00:31:54.40	17.23	4.70	
2025-01-14 00:31:54.61	17.23	4.71	
2025-01-14 00:31:54.81	17.23	4.73	
2025-01-14 00:31:55.02	17.23	4.74	
2025-01-14 00:31:55.22	17.23	4.76	
2025-01-14 00:31:55.43	17.23	4.77	
2025-01-14 00:31:55.63	17.23	4.79	
2025-01-14 00:31:55.84	17.23	4.80	
2025-01-14 00:31:56.04	17.23	4.81	
2025-01-14 00:31:56.25	17.22	4.83	
2025-01-14 00:31:56.45	17.22	4.84	
2025-01-14 00:31:56.66	17.22	4.86	
2025-01-14 00:31:56.86	17.22	4.87	
2025-01-14 00:31:57.07	17.22	4.89	
2025-01-14 00:31:57.27	17.22	4.90	
2025-01-14 00:31:57.48	17.22	4.92	
2025-01-14 00:31:57.69	17.22	4.93	
2025-01-14 00:31:57.89	17.21	4.95	
2025-01-14 00:31:58.10	17.21	4.96	
2025-01-14 00:31:58.30	17.21	4.97	
2025-01-14 00:31:58.50	17.21	4.99	
2025-01-14 00:31:58.71	17.21	5.00	
2025-01-14 00:31:58.92	17.21	5.02	
2025-01-14 00:31:59.12	17.21	5.03	
2025-01-14 00:31:59.33	17.21	5.05	
2025-01-14 00:31:59.53	17.20	5.06	
2025-01-14 00:31:59.74	17.20	5.08	
2025-01-14 00:31:59.94	17.20	5.09	
2025-01-14 00:32:00.16	17.20	5.11	
2025-01-14 00:32:00.36	17.20	5.12	
2025-01-14 00:32:00.58	17.20	5.14	
2025-01-14 00:32:00.79	17.20	5.15	
2025-01-14 00:32:00.99	17.20	5.17	
2025-01-14 00:32:01.20	17.19	5.18	
2025-01-14 00:32:01.40	17.19	5.20	
2025-01-14 00:32:01.61	17.19	5.21	
2025-01-14 00:32:01.81	17.19	5.22	
2025-01-14 00:32:02.02	17.19	5.24	
2025-01-14 00:32:02.22	17.19	5.25	
2025-01-14 00:32:02.43	17.19	5.27	
2025-01-14 00:32:02.63	17.19	5.28	
2025-01-14 00:32:02.84	17.18	5.30	
2025-01-14 00:32:03.04	17.18	5.31	
2025-01-14 00:32:03.25	17.18	5.33	
2025-01-14 00:32:03.46	17.18	5.34	
2025-01-14 00:32:03.66	17.18	5.36	
2025-01-14 00:32:03.87	17.18	5.37	
2025-01-14 00:32:04.07	17.18	5.39	
2025-01-14 00:32:04.28	17.17	5.40	
2025-01-14 00:32:04.48	17.17	5.42	
2025-01-14 00:32:04.68	17.17	5.43	
2025-01-14 00:32:04.89	17.17	5.45	
2025-01-14 00:32:05.09	17.17	5.46	
2025-01-14 00:32:05.30	17.17	5.48	
2025-01-14 00:32:05.50	17.17	5.49	
2025-01-14 00:32:05.71	17.17	5.51	
2025-01-14 00:32:05.91	17.16	5.52	
2025-01-14 00:32:06.12	17.16	5.54	
2025-01-14 00:32:06.32	17.16	5.55	
2025-01-14 00:32:06.53	17.16	5.57	
2025-01-14 00:32:06.74	17.16	5.58	
2025-01-14 00:32:06.95	17.16	5.60	
2025-01-14 00:32:07.16	17.16	5.61	
2025-01-14 00:32:07.37	17.15	5.63	
2025-01-14 00:32:07.57	17.15	5.64	
2025-01-14 00:32:07.78	17.15	5.66	
2025-01-14 00:32:07.99	17.15	5.67	
2025-01-14 00:32:08.20	17.15	5.69	
2025-01-14 00:32:08.40	17.15	5.70	
2025-01-14 00:32:08.61	17.15	5.72	
2025-01-14 00:32:08.82	17.15	5.73	
2025-01-14 00:32:09.02	17.14	5.75	
2025-01-14 00:32:09.23	17.14	5.76	
2025-01-14 00:32:09.43	17.14	5.78	
2025-01-14 00:32:09.64	17.14	5.79	
2025-01-14 00:32:09.84	17.14	5.81	
2025-01-14 00:32:10.04	17.14	5.82	
2025-01-14 00:32:10.25	17.14	5.84	
2025-01-14 00:32:10.45	17.13	5.85	
2025-01-14 00:32:10.66	17.13	5.87	
2025-01-14 00:32:10.87	17.13	5.88	
2025-01-14 00:32:11.07	17.13	5.90	
2025-01-14 00:32:11.28	17.13	5.91	
2025-01-14 00:32:11.48	17.13	5.93	
2025-01-14 00:32:11.69	17.13	5.94	
2025-01-14 00:32:11.90	17.13	5.96	
2025-01-14 00:32:12.10	17.12	5.97	
2025-01-14 00:32:12.32	17.12	5.99	
2025-01-14 00:32:12.52	17.12	6.00	
2025-01-14 00:32:12.73	17.12	6.02	
2025-01-14 00:32:12.93	17.12	6.03	
2025-01-14 00:32:13.14	17.12	6.05	
2025-01-14 00:32:13.36	17.12	6.07	
2025-01-14 00:32:13.56	17.11	6.08	
2025-01-14 00:32:13.77	17.11	6.10	
2025-01-14 00:32:13.97	17.11	6.11	
2025-01-14 00:32:14.18	17.11	6.13	
2025-01-14 00:32:14.40	17.11	6.14	
2025-01-14 00:32:14.60	17.11	6.16	
2025-01-14 00:32:14.81	17.11	6.17	
2025-01-14 00:32:15.01	17.10	6.19	
2025-01-14 00:32:15.22	17.10	6.20	
2025-01-14 00:32:15.44	17.10	6.22	
2025-01-14 00:32:15.64	17.10	6.24	
2025-01-14 00:32:15.85	17.10	6.25	
2025-01-14 00:32:16.06	17.10	6.27	
2025-01-14 00:32:16.26	17.10	6.28	
2025-01-14 00:32:16.46	17.09	6.30	
2025-01-14 00:32:16.67	17.09	6.31	
2025-01-14 00:32:16.87	17.09	6.33	
2025-01-14 00:32:17.08	17.09	6.34	
2025-01-14 00:32:17.29	17.09	6.36	
2025-01-14 00:32:17.49	17.09	6.37	
2025-01-14 00:32:17.69	17.09	6.39	
2025-01-14 00:32:17.90	17.08	6.40	
2025-01-14 00:32:18.11	17.08	6.42	
2025-01-14 00:32:18.31	17.08	6.43	
2025-01-14 00:32:18.52	17.08	6.45	
2025-01-14 00:32:18.72	17.08	6.47	
2025-01-14 00:32:18.92	17.08	6.48	
2025-01-14 00:32:19.13	17.07	6.50	
2025-01-14 00:32:19.34	17.07	6.51	
2025-01-14 00:32:19.54	17.07	6.53	
2025-01-14 00:32:19.75	17.07	6.54	
2025-01-14 00:32:19.95	17.07	6.56	
2025-01-14 00:32:20.16	17.07	6.57	
2025-01-14 00:32:20.36	17.07	6.59	
2025-01-14 00:32:20.56	17.06	6.60	
2025-01-14 00:32:20.78	17.06	6.62	
2025-01-14 00:32:20.99	17.06	6.64	
2025-01-14 00:32:21.19	17.06	6.65	
2025-01-14 00:32:21.40	17.06	6.67	
2025-01-14 00:32:21.61	17.06	6.68	
2025-01-14 00:32:21.81	17.06	6.70	
2025-01-14 00:32:22.01	17.05	6.71	
2025-01-14 00:32:22.22	17.05	6.73	
2025-01-14 00:32:22.42	17.05	6.74	
2025-01-14 00:32:22.63	17.05	6.76	
2025-01-14 00:32:22.83	17.05	6.78	
2025-01-14 00:32:23.04	17.05	6.79	
2025-01-14 00:32:23.24	17.04	6.81	
2025-01-14 00:32:23.46	17.04	6.82	
2025-01-14 00:32:23.67	17.04	6.84	
2025-01-14 00:32:23.87	17.04	6.86	
2025-01-14 00:32:24.08	17.04	6.87	
2025-01-14 00:32:24.28	17.04	6.89	
2025-01-14 00:32:24.49	17.04	6.90	
2025-01-14 00:32:24.69	17.03	6.92	
2025-01-14 00:32:24.90	17.03	6.93	
2025-01-14 00:32:25.11	17.03	6.95	
2025-01-14 00:32:25.31	17.03	6.97	
2025-01-14 00:32:25.51	17.03	6.98	
2025-01-14 00:32:25.72	17.03	7.00	
2025-01-14 00:32:25.93	17.02	7.01	
2025-01-14 00:32:26.14	17.02	7.03	
2025-01-14 00:32:26.35	17.02	7.05	
2025-01-14 00:32:26.56	17.02	7.06	
2025-01-14 00:32:26.76	17.02	7.08	
2025-01-14 00:32:26.97	17.02	7.09	
2025-01-14 00:32:27.17	17.02	7.11	
2025-01-14 00:32:27.38	17.01	7.12	
2025-01-14 00:32:27.58	17.01	7.14	
2025-01-14 00:32:27.79	17.01	7.16	
2025-01-14 00:32:27.99	17.01	7.17	
2025-01-14 00:32:28.20	17.01	7.19	
2025-01-14 00:32:28.40	17.01	7.20	
2025-01-14 00:32:28.61	17.00	7.22	
2025-01-14 00:32:28.81	17.00	7.23	
2025-01-14 00:32:29.02	17.00	7.25	
2025-01-14 00:32:29.22	17.00	7.27	
2025-01-14 00:32:29.43	17.00	7.28	
2025-01-14 00:32:29.63	17.00	7.30	
2025-01-14 00:32:29.84	16.99	7.31	
2025-01-14 00:32:30.05	16.99	7.33	
2025-01-14 00:32:30.25	16.99	7.35	
2025-01-14 00:32:30.46	16.99	7.36	
2025-01-14 00:32:30.66	16.99	7.38	
2025-01-14 00:32:30.87	16.99	7.39	
2025-01-14 00:32:31.07	16.99	7.41	
2025-01-14 00:32:31.28	16.98	7.43	
2025-01-14 00:32:31.50	16.98	7.44	
2025-01-14 00:32:31.70	16.98	7.46	
2025-01-14 00:32:31.91	16.98	7.48	
2025-01-14 00:32:32.11	16.98	7.49	
2025-01-14 00:32:32.32	16.98	7.51	
2025-01-14 00:32:32.52	16.97	7.52	
2025-01-14 00:32:32.73	16.97	7.54	
2025-01-14 00:32:32.93	16.97	7.56	
2025-01-14 00:32:33.14	16.97	7.57	
2025-01-14 00:32:33.35	16.97	7.59	
2025-01-14 00:32:33.55	16.97	7.60	
2025-01-14 00:32:33.76	16.96	7.62	
2025-01-14 00:32:33.96	16.96	7.64	
2025-01-14 00:32:34.17	16.96	7.65	
2025-01-14 00:32:34.37	16.96	7.67	
2025-01-14 00:32:34.58	16.96	7.69	
2025-01-14 00:32:34.78	16.96	7.70	
2025-01-14 00:32:34.99	16.95	7.72	
2025-01-14 00:32:35.19	16.95	7.73	
2025-01-14 00:32:35.40	16.95	7.75	
2025-01-14 00:32:35.60	16.95	7.77	
2025-01-14 00:32:35.81	16.95	7.78	
2025-01-14 00:32:36.01	16.95	7.80	
2025-01-14 00:32:36.22	16.94	7.81	
2025-01-14 00:32:36.42	16.94	7.83	
2025-01-14 00:32:36.63	16.94	7.85	
2025-01-14 00:32:36.83	16.94	7.86	
2025-01-14 00:32:37.04	16.94	7.88	
2025-01-14 00:32:37.25	16.93	7.90	
2025-01-14 00:32:37.45	16.93	7.91	
2025-01-14 00:32:37.66	16.93	7.93	
2025-01-14 00:32:37.86	16.93	7.95	
2025-01-14 00:32:38.07	16.93	7.96	
2025-01-14 00:32:38.27	16.93	7.98	
2025-01-14 00:32:38.48	16.92	7.99	
2025-01-14 00:32:38.68	16.92	8.01	
2025-01-14 00:32:38.88	16.92	8.03	
2025-01-14 00:32:39.09	16.92	8.04	
2025-01-14 00:32:39.30	16.92	8.06	
2025-01-14 00:32:39.50	16.92	8.08	
2025-01-14 00:32:39.71	16.91	8.09	
2025-01-14 00:32:39.91	16.91	8.11	
2025-01-14 00:32:40.12	16.91	8.13	
2025-01-14 00:32:40.32	16.91	8.14	
2025-01-14 00:32:40.53	16.91	8.16	
2025-01-14 00:32:40.74	16.91	8.18	
2025-01-14 00:32:40.94	16.90	8.19	
2025-01-14 00:32:41.15	16.90	8.21	
2025-01-14 00:32:41.35	16.90	8.22	
2025-01-14 00:32:41.56	16.90	8.24	
2025-01-14 00:32:41.77	16.90	8.26	
2025-01-14 00:32:41.97	16.89	8.27	
2025-01-14 00:32:42.17	16.89	8.29	
2025-01-14 00:32:42.38	16.89	8.31	
2025-01-14 00:32:42.58	16.89	8.32	
2025-01-14 00:32:42.79	16.89	8.34	
2025-01-14 00:32:42.99	16.89	8.36	
2025-01-14 00:32:43.20	16.88	8.37	
2025-01-14 00:32:43.40	16.88	8.39	
2025-01-14 00:32:43.60	16.88	8.41	
2025-01-14 00:32:43.81	16.88	8.42	
2025-01-14 00:32:44.02	16.88	8.44	
2025-01-14 00:32:44.22	16.88	8.46	
2025-01-14 00:32:44.43	16.87	8.47	
2025-01-14 00:32:44.63	16.87	8.49	
2025-01-14 00:32:44.84	16.87	8.51	
2025-01-14 00:32:45.04	16.87	8.52	
2025-01-14 00:32:45.24	16.87	8.54	
2025-01-14 00:32:45.45	16.86	8.56	
2025-01-14 00:32:45.66	16.86	8.57	
2025-01-14 00:32:45.86	16.86	8.59	
2025-01-14 00:32:46.07	16.86	8.61	
2025-01-14 00:32:46.27	16.86	8.62	
2025-01-14 00:32:46.48	16.86	8.64	
2025-01-14 00:32:46.68	16.85	8.66	
2025-01-14 00:32:46.89	16.85	8.67	
2025-01-14 00:32:47.09	16.85	8.69	
2025-01-14 00:32:47.30	16.85	8.71	
2025-01-14 00:32:47.50	16.85	8.72	
2025-01-14 00:32:47.71	16.84	8.74	
2025-01-14 00:32:47.91	16.84	8.76	
2025-01-14 00:32:48.12	16.84	8.78	
2025-01-14 00:32:48.33	16.84	8.79	
2025-01-14 00:32:48.54	16.84	8.81	
2025-01-14 00:32:48.75	16.83	8.83	
2025-01-14 00:32:48.95	16.83	8.84	
2025-01-14 00:32:49.16	16.83	8.86	
2025-01-14 00:32:49.36	16.83	8.88	
2025-01-14 00:32:49.57	16.83	8.89	
2025-01-14 00:32:49.77	16.83	8.91	
2025-01-14 00:32:49.98	16.82	8.93	
2025-01-14 00:32:50.18	16.82	8.95	
2025-01-14 00:32:50.39	16.82	8.96	
2025-01-14 00:32:50.61	16.82	8.98	
2025-01-14 00:32:50.81	16.82	9.00	
2025-01-14 00:32:51.02	16.81	9.01	
2025-01-14 00:32:51.22	16.81	9.03	
2025-01-14 00:32:51.43	16.81	9.05	
2025-01-14 00:32:51.63	16.81	9.07	
2025-01-14 00:32:51.84	16.81	9.08	
2025-01-14 00:32:52.04	16.80	9.10	
2025-01-14 00:32:52.25	16.80	9.12	
2025-01-14 00:32:52.45	16.80	9.13	
2025-01-14 00:32:52.66	16.80	9.15	
2025-01-14 00:32:52.86	16.80	9.17	
2025-01-14 00:32:53.07	16.79	9.19	
2025-01-14 00:32:53.27	16.79	9.20	
2025-01-14 00:32:53.48	16.79	9.22	
2025-01-14 00:32:53.68	16.79	9.24	
2025-01-14 00:32:53.90	16.79	9.26	
2025-01-14 00:32:54.11	16.78	9.27	
2025-01-14 00:32:54.31	16.78	9.29	
2025-01-14 00:32:54.52	16.78	9.31	
2025-01-14 00:32:54.72	16.78	9.32	
2025-01-14 00:32:54.93	16.78	9.34	
2025-01-14 00:32:55.13	16.77	9.36	
2025-01-14 00:32:55.34	16.77	9.38	
2025-01-14 00:32:55.54	16.77	9.39	
2025-01-14 00:32:55.75	16.77	9.41	
2025-01-14 00:32:55.95	16.77	9.43	
2025-01-14 00:32:56.16	16.76	9.45	
2025-01-14 00:32:56.36	16.76	9.46	
2025-01-14 00:32:56.57	16.76	9.48	
2025-01-14 00:32:56.78	16.76	9.50	
2025-01-14 00:32:56.98	16.76	9.51	
2025-01-14 00:32:57.18	16.75	9.53	
2025-01-14 00:32:57.39	16.75	9.55	
2025-01-14 00:32:57.59	16.75	9.57	
2025-01-14 00:32:57.80	16.75	9.58	
2025-01-14 00:32:58.00	16.75	9.60	
2025-01-14 00:32:58.21	16.74	9.62	
2025-01-14 00:32:58.41	16.74	9.64	
2025-01-14 00:32:58.62	16.74	9.65	
2025-01-14 00:32:58.82	16.74	9.67	
2025-01-14 00:32:59.03	16.74	9.69	
2025-01-14 00:32:59.23	16.73	9.71	
2025-01-14 00:32:59.44	16.73	9.72	
2025-01-14 00:32:59.64	16.73	9.74	
2025-01-14 00:32:59.85	16.73	9.76	
2025-01-14 00:33:00.05	16.73	9.78	
2025-01-14 00:33:00.27	16.72	9.80	
2025-01-14 00:33:00.48	16.72	9.81	
2025-01-14 00:33:00.68	16.72	9.83	
2025-01-14 00:33:00.89	16.72	9.85	
2025-01-14 00:33:01.09	16.72	9.87	
2025-01-14 00:33:01.30	16.71	9.88	
2025-01-14 00:33:01.50	16.71	9.90	
2025-01-14 00:33:01.71	16.71	9.92	
2025-01-14 00:33:01.91	16.71	9.94	
2025-01-14 00:33:02.12	16.71	9.95	
2025-01-14 00:33:02.32	16.70	9.97	
2025-01-14 00:33:02.53	16.70	9.99	
2025-01-14 00:33:02.73	16.70	10.01	
2025-01-14 00:33:02.94	16.70	10.02	
2025-01-14 00:33:03.14	16.70	10.04	
2025-01-14 00:33:03.35	16.69	10.06	
2025-01-14 00:33:03.55	16.69	10.08	
2025-01-14 00:33:03.76	16.69	10.10	
2025-01-14 00:33:03.97	16.69	10.11	
2025-01-14 00:33:04.17	16.68	10.13	
2025-01-14 00:33:04.38	16.68	10.15	
2025-01-14 00:33:04.58	16.68	10.17	
2025-01-14 00:33:04.79	16.68	10.19	
2025-01-14 00:33:04.99	16.68	10.20	
2025-01-14 00:33:05.20	16.67	10.22	
2025-01-14 00:33:05.40	16.67	10.24	
2025-01-14 00:33:05.61	16.67	10.26	
2025-01-14 00:33:05.81	16.67	10.27	
2025-01-14 00:33:06.02	16.67	10.29	
2025-01-14 00:33:06.22	16.66	10.31	
2025-01-14 00:33:06.43	16.66	10.33	
2025-01-14 00:33:06.63	16.66	10.35	
2025-01-14 00:33:06.84	16.66	10.36	
2025-01-14 00:33:07.04	16.65	10.38	
2025-01-14 00:33:07.25	16.65	10.40	
2025-01-14 00:33:07.46	16.65	10.42	
2025-01-14 00:33:07.67	16.65	10.44	
2025-01-14 00:33:07.88	16.65	10.46	
2025-01-14 00:33:08.09	16.64	10.47	
2025-01-14 00:33:08.29	16.64	10.49	
2025-01-14 00:33:08.50	16.64	10.51	
2025-01-14 00:33:08.70	16.64	10.53	
2025-01-14 00:33:08.91	16.63	10.55	
2025-01-14 00:33:09.11	16.63	10.56	
2025-01-14 00:33:09.32	16.63	10.58	
2025-01-14 00:33:09.53	16.63	10.60	
2025-01-14 00:33:09.73	16.63	10.62	
2025-01-14 00:33:09.93	16.62	10.64	
2025-01-14 00:33:10.14	16.62	10.66	
2025-01-14 00:33:10.35	16.62	10.67	
2025-01-14 00:33:10.55	16.62	10.69	
2025-01-14 00:33:10.76	16.61	10.71	
2025-01-14 00:33:10.96	16.61	10.73	
2025-01-14 00:33:11.17	16.61	10.75	
2025-01-14 00:33:11.37	16.61	10.76	
2025-01-14 00:33:11.58	16.61	10.78	
2025-01-14 00:33:11.78	16.60	10.80	
2025-01-14 00:33:11.99	16.60	10.82	
2025-01-14 00:33:12.19	16.60	10.84	
2025-01-14 00:33:12.40	16.60	10.86	
2025-01-14 00:33:12.61	16.59	10.88	
2025-01-14 00:33:12.81	16.59	10.89	
2025-01-14 00:33:13.02	16.59	10.91	
2025-01-14 00:33:13.22	16.59	10.93	
2025-01-14 00:33:13.43	16.58	10.95	
2025-01-14 00:33:13.63	16.58	10.97	
2025-01-14 00:33:13.84	16.58	10.99	
2025-01-14 00:33:14.04	16.58	11.00	
2025-01-14 00:33:14.25	16.58	11.02	
2025-01-14 00:33:14.46	16.57	11.04	
2025-01-14 00:33:14.66	16.57	11.06	
2025-01-14 00:33:14.87	16.57	11.08	
2025-01-14 00:33:15.07	16.57	11.10	
2025-01-14 00:33:15.28	16.56	11.12	
2025-01-14 00:33:15.48	16.56	11.13	
2025-01-14 00:33:15.69	16.56	11.15	
2025-01-14 00:33:15.89	16.56	11.17	
2025-01-14 00:33:16.10	16.55	11.19	
2025-01-14 00:33:16.30	16.55	11.21	
2025-01-14 00:33:16.50	16.55	11.23	
2025-01-14 00:33:16.71	16.55	11.25	
2025-01-14 00:33:16.92	16.54	11.26	
2025-01-14 00:33:17.12	16.54	11.28	
2025-01-14 00:33:17.32	16.54	11.30	
2025-01-14 00:33:17.53	16.54	11.32	
2025-01-14 00:33:17.73	16.54	11.34	
2025-01-14 00:33:17.94	16.53	11.36	
2025-01-14 00:33:18.14	16.53	11.38	
2025-01-14 00:33:18.35	16.53	11.39	
2025-01-14 00:33:18.56	16.53	11.41	
2025-01-14 00:33:18.76	16.52	11.43	
2025-01-14 00:33:18.97	16.52	11.45	
2025-01-14 00:33:19.17	16.52	11.47	
2025-01-14 00:33:19.38	16.52	11.49	
2025-01-14 00:33:19.58	16.51	11.51	
2025-01-14 00:33:19.79	16.51	11.53	
2025-01-14 00:33:19.99	16.51	11.54	
2025-01-14 00:33:20.20	16.51	11.56	
2025-01-14 00:33:20.40	16.50	11.58	
2025-01-14 00:33:20.61	16.50	11.60	
2025-01-14 00:33:20.81	16.50	11.62	
2025-01-14 00:33:21.02	16.50	11.64	
2025-01-14 00:33:21.23	16.49	11.66	
2025-01-14 00:33:21.43	16.49	11.68	
2025-01-14 00:33:21.65	16.49	11.70	
2025-01-14 00:33:21.85	16.49	11.72	
2025-01-14 00:33:22.06	16.48	11.74	
2025-01-14 00:33:22.27	16.48	11.76	
2025-01-14 00:33:22.47	16.48	11.77	
2025-01-14 00:33:22.68	16.48	11.79	
2025-01-14 00:33:22.88	16.47	11.81	
2025-01-14 00:33:23.09	16.47	11.83	
2025-01-14 00:33:23.29	16.47	11.85	
2025-01-14 00:33:23.50	16.47	11.87	
2025-01-14 00:33:23.70	16.46	11.89	
2025-01-14 00:33:23.91	16.46	11.91	
2025-01-14 00:33:24.11	16.46	11.93	
2025-01-14 00:33:24.32	16.46	11.95	
2025-01-14 00:33:24.52	16.45	11.97	
2025-01-14 00:33:24.73	16.45	11.98	
2025-01-14 00:33:24.93	16.45	12.00	
2025-01-14 00:33:25.14	16.45	12.02	
2025-01-14 00:33:25.35	16.44	12.04	
2025-01-14 00:33:25.55	16.44	12.06	
2025-01-14 00:33:25.76	16.44	12.08	
2025-01-14 00:33:25.96	16.44	12.10	
2025-01-14 00:33:26.17	16.43	12.12	
2025-01-14 00:33:26.37	16.43	12.14	
2025-01-14 00:33:26.58	16.43	12.16	
2025-01-14 00:33:26.78	16.43	12.18	
2025-01-14 00:33:26.99	16.42	12.20	
2025-01-14 00:33:27.19	16.42	12.22	
2025-01-14 00:33:27.40	16.42	12.24	
2025-01-14 00:33:27.60	16.42	12.25	
2025-01-14 00:33:27.81	16.41	12.27	
2025-01-14 00:33:28.01	16.41	12.29	
2025-01-14 00:33:28.22	16.41	12.31	
2025-01-14 00:33:28.42	16.40	12.33	
2025-01-14 00:33:28.63	16.40	12.35	
2025-01-14 00:33:28.84	16.40	12.37	
2025-01-14 00:33:29.04	16.40	12.39	
2025-01-14 00:33:29.25	16.39	12.41	
2025-01-14 00:33:29.45	16.39	12.43	
2025-01-14 00:33:29.66	16.39	12.45	
2025-01-14 00:33:29.86	16.39	12.47	
2025-01-14 00:33:30.06	16.38	12.49	
2025-01-14 00:33:30.27	16.38	12.51	
2025-01-14 00:33:30.48	16.38	12.53	
2025-01-14 00:33:30.68	16.38	12.55	
2025-01-14 00:33:30.89	16.37	12.57	
2025-01-14 00:33:31.09	16.37	12.59	
2025-01-14 00:33:31.30	16.37	12.61	
2025-01-14 00:33:31.50	16.37	12.63	
2025-01-14 00:33:31.71	16.36	12.65	
2025-01-14 00:33:31.91	16.36	12.67	
2025-01-14 00:33:32.12	16.36	12.69	
2025-01-14 00:33:32.32	16.35	12.71	
2025-01-14 00:33:32.53	16.35	12.73	
2025-01-14 00:33:32.73	16.35	12.75	
2025-01-14 00:33:32.94	16.35	12.77	
2025-01-14 00:33:33.14	16.34	12.79	
2025-01-14 00:33:33.35	16.34	12.81	
2025-01-14 00:33:33.55	16.34	12.82	
2025-01-14 00:33:33.76	16.34	12.85	
2025-01-14 00:33:33.96	16.33	12.86	
2025-01-14 00:33:34.17	16.33	12.88	
2025-01-14 00:33:34.37	16.33	12.90	
2025-01-14 00:33:34.58	16.32	12.92	
2025-01-14 00:33:34.79	16.32	12.95	
2025-01-14 00:33:34.99	16.32	12.96	
2025-01-14 00:33:35.20	16.32	12.99	
2025-01-14 00:33:35.40	16.31	13.00	
2025-01-14 00:33:35.60	16.31	13.02	
2025-01-14 00:33:35.81	16.31	13.04	
2025-01-14 00:33:36.01	16.31	13.06	
2025-01-14 00:33:36.22	16.30	13.08	
2025-01-14 00:33:36.42	16.30	13.10	
2025-01-14 00:33:36.62	16.30	13.12	
2025-01-14 00:33:36.83	16.29	13.14	
2025-01-14 00:33:37.03	16.29	13.16	
2025-01-14 00:33:37.24	16.29	13.19	
2025-01-14 00:33:37.44	16.29	13.20	
2025-01-14 00:33:37.65	16.28	13.23	
2025-01-14 00:33:37.85	16.28	13.25	
2025-01-14 00:33:38.06	16.28	13.27	
2025-01-14 00:33:38.27	16.27	13.29	
2025-01-14 00:33:38.47	16.27	13.31	
2025-01-14 00:33:38.69	16.27	13.33	
2025-01-14 00:33:38.89	16.27	13.35	
2025-01-14 00:33:39.10	16.26	13.37	
2025-01-14 00:33:39.30	16.26	13.39	
2025-01-14 00:33:39.51	16.26	13.41	
2025-01-14 00:33:39.71	16.25	13.43	
2025-01-14 00:33:39.92	16.25	13.45	
2025-01-14 00:33:40.12	16.25	13.47	
2025-01-14 00:33:40.33	16.25	13.49	
2025-01-14 00:33:40.54	16.24	13.51	
2025-01-14 00:33:40.74	16.24	13.53	
2025-01-14 00:33:40.94	16.24	13.55	
2025-01-14 00:33:41.15	16.23	13.57	
2025-01-14 00:33:41.36	16.23	13.59	
2025-01-14 00:33:41.56	16.23	13.61	
2025-01-14 00:33:41.77	16.22	13.63	
2025-01-14 00:33:41.97	16.22	13.65	
2025-01-14 00:33:42.18	16.22	13.68	
2025-01-14 00:33:42.39	16.22	13.70	
2025-01-14 00:33:42.59	16.21	13.72	
2025-01-14 00:33:42.80	16.21	13.74	
2025-01-14 00:33:43.00	16.21	13.76	
2025-01-14 00:33:43.21	16.20	13.78	
2025-01-14 00:33:43.41	16.20	13.80	
2025-01-14 00:33:43.61	16.20	13.82	
2025-01-14 00:33:43.82	16.20	13.84	
2025-01-14 00:33:44.02	16.19	13.86	
2025-01-14 00:33:44.23	16.19	13.88	
2025-01-14 00:33:44.44	16.19	13.90	
2025-01-14 00:33:44.64	16.18	13.92	
2025-01-14 00:33:44.85	16.18	13.94	
2025-01-14 00:33:45.05	16.18	13.97	
2025-01-14 00:33:45.26	16.17	13.99	
2025-01-14 00:33:45.46	16.17	14.01	
2025-01-14 00:33:45.67	16.17	14.03	
2025-01-14 00:33:45.88	16.16	14.05	
2025-01-14 00:33:46.08	16.16	14.07	
2025-01-14 00:33:46.29	16.16	14.09	
2025-01-14 00:33:46.49	16.16	14.11	
2025-01-14 00:33:46.70	16.15	14.13	
2025-01-14 00:33:46.91	16.15	14.15	
2025-01-14 00:33:47.11	16.15	14.18	
2025-01-14 00:33:47.31	16.14	14.20	
2025-01-14 00:33:47.52	16.14	14.22	
2025-01-14 00:33:47.73	16.14	14.24	
2025-01-14 00:33:47.93	16.13	14.26	
2025-01-14 00:33:48.14	16.13	14.28	
2025-01-14 00:33:48.34	16.13	14.30	
2025-01-14 00:33:48.55	16.12	14.32	
2025-01-14 00:33:48.76	16.12	14.34	
2025-01-14 00:33:48.96	16.12	14.37	
2025-01-14 00:33:49.17	16.12	14.39	
2025-01-14 00:33:49.37	16.11	14.41	
2025-01-14 00:33:49.58	16.11	14.43	
2025-01-14 00:33:49.78	16.11	14.45	
2025-01-14 00:33:49.99	16.10	14.47	
2025-01-14 00:33:50.19	16.10	14.49	
2025-01-14 00:33:50.40	16.10	14.51	
2025-01-14 00:33:50.60	16.09	14.54	
2025-01-14 00:33:50.81	16.09	14.56	
2025-01-14 00:33:51.01	16.09	14.58	
2025-01-14 00:33:51.22	16.08	14.60	
2025-01-14 00:33:51.42	16.08	14.62	
2025-01-14 00:33:51.63	16.08	14.64	
2025-01-14 00:33:51.83	16.07	14.66	
2025-01-14 00:33:52.04	16.07	14.69	
2025-01-14 00:33:52.24	16.07	14.71	
2025-01-14 00:33:52.45	16.06	14.73	
2025-01-14 00:33:52.65	16.06	14.75	
2025-01-14 00:33:52.86	16.06	14.77	
2025-01-14 00:33:53.07	16.05	14.79	
2025-01-14 00:33:53.27	16.05	14.81	
2025-01-14 00:33:53.48	16.05	14.84	
2025-01-14 00:33:53.68	16.05	14.86	
2025-01-14 00:33:53.89	16.04	14.88	
2025-01-14 00:33:54.09	16.04	14.90	
2025-01-14 00:33:54.30	16.04	14.92	
2025-01-14 00:33:54.50	16.03	14.94	
2025-01-14 00:33:54.71	16.03	14.97	
2025-01-14 00:33:54.92	16.03	14.99	
2025-01-14 00:33:55.12	16.02	15.01	
2025-01-14 00:33:55.33	16.02	15.03	
2025-01-14 00:33:55.53	16.02	15.05	
2025-01-14 00:33:55.73	16.01	15.07	
2025-01-14 00:33:55.94	16.01	15.10	
2025-01-14 00:33:56.15	16.01	15.12	
2025-01-14 00:33:56.35	16.00	15.14	
2025-01-14 00:33:56.56	16.00	15.16	
2025-01-14 00:33:56.76	16.00	15.18	
2025-01-14 00:33:56.97	15.99	15.21	
2025-01-14 00:33:57.17	15.99	15.23	
2025-01-14 00:33:57.38	15.99	15.25	
2025-01-14 00:33:57.58	15.98	15.27	
2025-01-14 00:33:57.79	15.98	15.29	
2025-01-14 00:33:57.99	15.98	15.32	
2025-01-14 00:33:58.20	15.97	15.34	
2025-01-14 00:33:58.41	15.97	15.36	
2025-01-14 00:33:58.61	15.97	15.38	
2025-01-14 00:33:58.82	15.96	15.40	
2025-01-14 00:33:59.02	15.96	15.43	
2025-01-14 00:33:59.23	15.95	15.45	
2025-01-14 00:33:59.43	15.95	15.47	
2025-01-14 00:33:59.64	15.95	15.49	
2025-01-14 00:33:59.84	15.94	15.51	
2025-01-14 00:34:00.06	15.94	15.54	
2025-01-14 00:34:00.26	15.94	15.56	
2025-01-14 00:34:00.47	15.93	15.58	
2025-01-14 00:34:00.67	15.93	15.60	
2025-01-14 00:34:00.88	15.93	15.63	
2025-01-14 00:34:01.08	15.92	15.65	
2025-01-14 00:34:01.29	15.92	15.67	
2025-01-14 00:34:01.50	15.92	15.70	
2025-01-14 00:34:01.70	15.91	15.72	
2025-01-14 00:34:01.91	15.91	15.74	
2025-01-14 00:34:02.11	15.91	15.76	
2025-01-14 00:34:02.32	15.90	15.78	
2025-01-14 00:34:02.52	15.90	15.81	
2025-01-14 00:34:02.73	15.90	15.83	
2025-01-14 00:34:02.93	15.89	15.85	
2025-01-14 00:34:03.14	15.89	15.87	
2025-01-14 00:34:03.34	15.88	15.90	
2025-01-14 00:34:03.55	15.88	15.92	
2025-01-14 00:34:03.75	15.88	15.94	
2025-01-14 00:34:03.96	15.87	15.96	
2025-01-14 00:34:04.16	15.87	15.99	
2025-01-14 00:34:04.36	15.87	16.01	
2025-01-14 00:34:04.57	15.86	16.03	
2025-01-14 00:34:04.78	15.86	16.06	
2025-01-14 00:34:04.98	15.86	16.08	
2025-01-14 00:34:05.19	15.85	16.10	
2025-01-14 00:34:05.39	15.85	16.12	
2025-01-14 00:34:05.60	15.85	16.15	
2025-01-14 00:34:05.81	15.84	16.17	
2025-01-14 00:34:06.01	15.84	16.19	
2025-01-14 00:34:06.22	15.83	16.22	
2025-01-14 00:34:06.42	15.83	16.24	
2025-01-14 00:34:06.63	15.83	16.26	
2025-01-14 00:34:06.83	15.82	16.28	
2025-01-14 00:34:07.04	15.82	16.31	
2025-01-14 00:34:07.24	15.82	16.33	
2025-01-14 00:34:07.45	15.81	16.35	
2025-01-14 00:34:07.65	15.81	16.37	
2025-01-14 00:34:07.86	15.80	16.40	
2025-01-14 00:34:08.07	15.80	16.42	
2025-01-14 00:34:08.27	15.80	16.44	
2025-01-14 00:34:08.47	15.79	16.47	
2025-01-14 00:34:08.68	15.79	16.49	
2025-01-14 00:34:08.88	15.79	16.51	
2025-01-14 00:34:09.09	15.78	16.54	
2025-01-14 00:34:09.29	15.78	16.56	
2025-01-14 00:34:09.50	15.78	16.58	
2025-01-14 00:34:09.71	15.77	16.61	
2025-01-14 00:34:09.91	15.77	16.63	
2025-01-14 00:34:10.12	15.76	16.65	
2025-01-14 00:34:10.32	15.76	16.68	
2025-01-14 00:34:10.53	15.76	16.70	
2025-01-14 00:34:10.73	15.75	16.72	
2025-01-14 00:34:10.94	15.75	16.75	
2025-01-14 00:34:11.14	15.74	16.77	
2025-01-14 00:34:11.35	15.74	16.79	
2025-01-14 00:34:11.55	15.74	16.82	
2025-01-14 00:34:11.76	15.73	16.84	
2025-01-14 00:34:11.96	15.73	16.86	
2025-01-14 00:34:12.17	15.73	16.89	
2025-01-14 00:34:12.38	15.72	16.91	
2025-01-14 00:34:12.58	15.72	16.93	
2025-01-14 00:34:12.79	15.71	16.96	
2025-01-14 00:34:12.99	15.71	16.98	
2025-01-14 00:34:13.20	15.71	17.00	
2025-01-14 00:34:13.40	15.70	17.03	
2025-01-14 00:34:13.61	15.70	17.05	
2025-01-14 00:34:13.81	15.69	17.07	
2025-01-14 00:34:14.02	15.69	17.10	
2025-01-14 00:34:14.23	15.69	17.12	
2025-01-14 00:34:14.43	15.68	17.15	
2025-01-14 00:34:14.64	15.68	17.17	
2025-01-14 00:34:14.84	15.67	17.19	
2025-01-14 00:34:15.05	15.67	17.22	
2025-01-14 00:34:15.25	15.67	17.24	
2025-01-14 00:34:15.46	15.66	17.27	
2025-01-14 00:34:15.66	15.66	17.29	
2025-01-14 00:34:15.87	15.65	17.31	
2025-01-14 00:34:16.07	15.65	17.34	
2025-01-14 00:34:16.28	15.65	17.36	
2025-01-14 00:34:16.48	15.64	17.38	
2025-01-14 00:34:16.69	15.64	17.41	
2025-01-14 00:34:16.89	15.64	17.43	
2025-01-14 00:34:17.09	15.63	17.46	
2025-01-14 00:34:17.30	15.63	17.48	
2025-01-14 00:34:17.50	15.62	17.50	
2025-01-14 00:34:17.71	15.62	17.53	
2025-01-14 00:34:17.91	15.61	17.55	
2025-01-14 00:34:18.12	15.61	17.58	
2025-01-14 00:34:18.32	15.61	17.60	
2025-01-14 00:34:18.53	15.60	17.62	
2025-01-14 00:34:18.73	15.60	17.65	
2025-01-14 00:34:18.94	15.59	17.67	
2025-01-14 00:34:19.14	15.59	17.70	
2025-01-14 00:34:19.35	15.59	17.72	
2025-01-14 00:34:19.55	15.58	17.75	
2025-01-14 00:34:19.76	15.58	17.77	
2025-01-14 00:34:19.98	15.57	17.80	
2025-01-14 00:34:20.18	15.57	17.82	
2025-01-14 00:34:20.39	15.57	17.85	
2025-01-14 00:34:20.59	15.56	17.87	
2025-01-14 00:34:20.80	15.56	17.89	
2025-01-14 00:34:21.00	15.55	17.92	
2025-01-14 00:34:21.21	15.55	17.94	
2025-01-14 00:34:21.41	15.54	17.97	
2025-01-14 00:34:21.62	15.54	17.99	
2025-01-14 00:34:21.82	15.54	18.02	
2025-01-14 00:34:22.03	15.53	18.04	
2025-01-14 00:34:22.23	15.53	18.06	
2025-01-14 00:34:22.44	15.52	18.09	
2025-01-14 00:34:22.64	15.52	18.11	
2025-01-14 00:34:22.85	15.51	18.14	
2025-01-14 00:34:23.05	15.51	18.16	
2025-01-14 00:34:23.26	15.51	18.19	
2025-01-14 00:34:23.46	15.50	18.21	
2025-01-14 00:34:23.67	15.50	18.24	
2025-01-14 00:34:23.87	15.49	18.26	
2025-01-14 00:34:24.08	15.49	18.29	
2025-01-14 00:34:24.28	15.48	18.31	
2025-01-14 00:34:24.50	15.48	18.34	
2025-01-14 00:34:24.70	15.48	18.36	
2025-01-14 00:34:24.91	15.47	18.39	
2025-01-14 00:34:25.12	15.47	18.41	
2025-01-14 00:34:25.32	15.46	18.44	
2025-01-14 00:34:25.52	15.46	18.46	
2025-01-14 00:34:25.73	15.45	18.49	
2025-01-14 00:34:25.94	15.45	18.51	
2025-01-14 00:34:26.14	15.45	18.54	
2025-01-14 00:34:26.35	15.44	18.56	
2025-01-14 00:34:26.55	15.44	18.59	
2025-01-14 00:34:26.76	15.43	18.61	
2025-01-14 00:34:26.96	15.43	18.64	
2025-01-14 00:34:27.17	15.42	18.66	
2025-01-14 00:34:27.37	15.42	18.69	
2025-01-14 00:34:27.57	15.41	18.71	
2025-01-14 00:34:27.78	15.41	18.74	
2025-01-14 00:34:27.99	15.41	18.77	
2025-01-14 00:34:28.19	15.40	18.79	
2025-01-14 00:34:28.40	15.40	18.82	
2025-01-14 00:34:28.61	15.39	18.84	
2025-01-14 00:34:28.81	15.39	18.87	
2025-01-14 00:34:29.01	15.38	18.89	
2025-01-14 00:34:29.22	15.38	18.92	
2025-01-14 00:34:29.43	15.37	18.94	
2025-01-14 00:34:29.63	15.37	18.97	
2025-01-14 00:34:29.83	15.37	18.99	
2025-01-14 00:34:30.04	15.36	19.02	
2025-01-14 00:34:30.25	15.36	19.05	
2025-01-14 00:34:30.45	15.35	19.07	
2025-01-14 00:34:30.66	15.35	19.10	
2025-01-14 00:34:30.86	15.34	19.12	
2025-01-14 00:34:31.07	15.34	19.15	
2025-01-14 00:34:31.27	15.33	19.17	
2025-01-14 00:34:31.48	15.33	19.20	
2025-01-14 00:34:31.68	15.32	19.23	
2025-01-14 00:34:31.88	15.32	19.25	
2025-01-14 00:34:32.09	15.31	19.28	
2025-01-14 00:34:32.29	15.31	19.30	
2025-01-14 00:34:32.50	15.31	19.33	
2025-01-14 00:34:32.71	15.30	19.36	
2025-01-14 00:34:32.91	15.30	19.38	
2025-01-14 00:34:33.11	15.29	19.41	
2025-01-14 00:34:33.32	15.29	19.43	
2025-01-14 00:34:33.53	15.28	19.46	
2025-01-14 00:34:33.73	15.28	19.48	
2025-01-14 00:34:33.94	15.27	19.51	
2025-01-14 00:34:34.14	15.27	19.54	
2025-01-14 00:34:34.34	15.26	19.56	
2025-01-14 00:34:34.55	15.26	19.59	
2025-01-14 00:34:34.76	15.25	19.62	
2025-01-14 00:34:34.96	15.25	19.64	
2025-01-14 00:34:35.18	15.24	19.67	
2025-01-14 00:34:35.38	15.24	19.70	
2025-01-14 00:34:35.59	15.23	19.72	
2025-01-14 00:34:35.79	15.23	19.75	
2025-01-14 00:34:36.00	15.22	19.77	
2025-01-14 00:34:36.20	15.22	19.80	
2025-01-14 00:34:36.41	15.21	19.83	
2025-01-14 00:34:36.62	15.21	19.85	
2025-01-14 00:34:36.82	15.20	19.88	
2025-01-14 00:34:37.03	15.20	19.91	
2025-01-14 00:34:37.23	15.19	19.93	
2025-01-14 00:34:37.44	15.19	19.96	
2025-01-14 00:34:37.64	15.19	19.99	
2025-01-14 00:34:37.85	15.18	20.01	
2025-01-14 00:34:38.06	15.18	20.04	
2025-01-14 00:34:38.26	15.17	20.07	
2025-01-14 00:34:38.46	15.17	20.09	
2025-01-14 00:34:38.67	15.16	20.12	
2025-01-14 00:34:38.88	15.16	20.15	
2025-01-14 00:34:39.08	15.15	20.17	
2025-01-14 00:34:39.29	15.15	20.20	
2025-01-14 00:34:39.49	15.14	20.23	
2025-01-14 00:34:39.70	15.14	20.25	
2025-01-14 00:34:39.90	15.13	20.28	
2025-01-14 00:34:40.11	15.13	20.31	
2025-01-14 00:34:40.31	15.12	20.33	
2025-01-14 00:34:40.51	15.12	20.36	
2025-01-14 00:34:40.72	15.11	20.39	
2025-01-14 00:34:40.92	15.11	20.42	
2025-01-14 00:34:41.13	15.10	20.44	
2025-01-14 00:34:41.34	15.09	20.47	
2025-01-14 00:34:41.54	15.09	20.50	
2025-01-14 00:34:41.74	15.09	20.52	
2025-01-14 00:34:41.95	15.08	20.55	
2025-01-14 00:34:42.16	15.07	20.58	
2025-01-14 00:34:42.36	15.07	20.61	
2025-01-14 00:34:42.57	15.06	20.63	
2025-01-14 00:34:42.77	15.06	20.66	
2025-01-14 00:34:42.98	15.05	20.69	
2025-01-14 00:34:43.19	15.05	20.72	
2025-01-14 00:34:43.39	15.04	20.74	
2025-01-14 00:34:43.60	15.04	20.77	
2025-01-14 00:34:43.80	15.03	20.80	
2025-01-14 00:34:44.00	15.03	20.82	
2025-01-14 00:34:44.21	15.02	20.85	
2025-01-14 00:34:44.41	15.02	20.88	
2025-01-14 00:34:44.62	15.01	20.91	
2025-01-14 00:34:44.84	15.01	20.94	
2025-01-14 00:34:45.04	15.00	20.96	
2025-01-14 00:34:45.25	15.00	20.99	
2025-01-14 00:34:45.46	14.99	21.02	
2025-01-14 00:34:45.66	14.99	21.05	
2025-01-14 00:34:45.86	14.98	21.08	
2025-01-14 00:34:46.07	14.97	21.10	
2025-01-14 00:34:46.28	14.97	21.13	
2025-01-14 00:34:46.48	14.96	21.16	
2025-01-14 00:34:46.70	14.96	21.19	
2025-01-14 00:34:46.90	14.95	21.22	
2025-01-14 00:34:47.11	14.95	21.24	
2025-01-14 00:34:47.31	14.94	21.27	
2025-01-14 00:34:47.52	14.94	21.30	
2025-01-14 00:34:47.72	14.93	21.33	
2025-01-14 00:34:47.93	14.93	21.36	
2025-01-14 00:34:48.13	14.92	21.38	
2025-01-14 00:34:48.34	14.91	21.41	
2025-01-14 00:34:48.55	14.91	21.44	
2025-01-14 00:34:48.75	14.90	21.47	
2025-01-14 00:34:48.95	14.90	21.50	
2025-01-14 00:34:49.16	14.89	21.53	
2025-01-14 00:34:49.36	14.89	21.55	
2025-01-14 00:34:49.57	14.88	21.58	
2025-01-14 00:34:49.78	14.88	21.61	
2025-01-14 00:34:49.98	14.87	21.64	
2025-01-14 00:34:50.20	14.86	21.67	
2025-01-14 00:34:50.40	14.86	21.70	
2025-01-14 00:34:50.61	14.85	21.73	
2025-01-14 00:34:50.81	14.85	21.75	
2025-01-14 00:34:51.02	14.84	21.78	
2025-01-14 00:34:51.22	14.84	21.81	
2025-01-14 00:34:51.43	14.83	21.84	
2025-01-14 00:34:51.63	14.83	21.87	
2025-01-14 00:34:51.84	14.82	21.90	
2025-01-14 00:34:52.04	14.81	21.93	
2025-01-14 00:34:52.25	14.81	21.95	
2025-01-14 00:34:52.45	14.80	21.98	
2025-01-14 00:34:52.66	14.80	22.01	
2025-01-14 00:34:52.86	14.79	22.04	
2025-01-14 00:34:53.07	14.79	22.07	
2025-01-14 00:34:53.27	14.78	22.10	
2025-01-14 00:34:53.48	14.77	22.13	
2025-01-14 00:34:53.68	14.77	22.16	
2025-01-14 00:34:53.89	14.76	22.19	
2025-01-14 00:34:54.09	14.76	22.21	
2025-01-14 00:34:54.30	14.75	22.24	
2025-01-14 00:34:54.50	14.75	22.27	
2025-01-14 00:34:54.71	14.74	22.30	
2025-01-14 00:34:54.91	14.73	22.33	
2025-01-14 00:34:55.12	14.73	22.36	
2025-01-14 00:34:55.33	14.72	22.39	
2025-01-14 00:34:55.53	14.72	22.42	
2025-01-14 00:34:55.74	14.71	22.45	
2025-01-14 00:34:55.94	14.70	22.48	
2025-01-14 00:34:56.15	14.70	22.51	
2025-01-14 00:34:56.35	14.69	22.54	
2025-01-14 00:34:56.55	14.69	22.56	
2025-01-14 00:34:56.76	14.68	22.59	
2025-01-14 00:34:56.96	14.67	22.62	
2025-01-14 00:34:57.17	14.67	22.65	
2025-01-14 00:34:57.37	14.66	22.68	
2025-01-14 00:34:57.58	14.66	22.71	
2025-01-14 00:34:57.78	14.65	22.74	
2025-01-14 00:34:57.99	14.64	22.77	
2025-01-14 00:34:58.19	14.64	22.80	
2025-01-14 00:34:58.40	14.63	22.83	
2025-01-14 00:34:58.60	14.63	22.86	
2025-01-14 00:34:58.81	14.62	22.89	
2025-01-14 00:34:59.01	14.61	22.92	
2025-01-14 00:34:59.22	14.61	22.95	
2025-01-14 00:34:59.42	14.60	22.98	
2025-01-14 00:34:59.63	14.60	23.01	
2025-01-14 00:34:59.83	14.59	23.04	
2025-01-14 00:35:00.04	14.58	23.07	
2025-01-14 00:35:00.24	14.58	23.10	
2025-01-14 00:35:00.45	14.57	23.13	
2025-01-14 00:35:00.65	14.57	23.16	
2025-01-14 00:35:00.86	14.56	23.19	
2025-01-14 00:35:01.07	14.55	23.22	
2025-01-14 00:35:01.27	14.55	23.25	
2025-01-14 00:35:01.47	14.54	23.28	
2025-01-14 00:35:01.68	14.53	23.31	
2025-01-14 00:35:01.88	14.53	23.34	
2025-01-14 00:35:02.08	14.52	23.37	
2025-01-14 00:35:02.29	14.52	23.40	
2025-01-14 00:35:02.49	14.51	23.43	
2025-01-14 00:35:02.70	14.50	23.46	
2025-01-14 00:35:02.91	14.50	23.49	
2025-01-14 00:35:03.11	14.49	23.52	
2025-01-14 00:35:03.32	14.48	23.55	
2025-01-14 00:35:03.52	14.48	23.58	
2025-01-14 00:35:03.73	14.47	23.62	
2025-01-14 00:35:03.93	14.46	23.65	
2025-01-14 00:35:04.14	14.46	23.68	
2025-01-14 00:35:04.34	14.45	23.71	
2025-01-14 00:35:04.55	14.44	23.74	
2025-01-14 00:35:04.75	14.44	23.77	
2025-01-14 00:35:04.96	14.43	23.80	
2025-01-14 00:35:05.18	14.42	23.83	
2025-01-14 00:35:05.38	14.42	23.86	
2025-01-14 00:35:05.59	14.41	23.89	
2025-01-14 00:35:05.79	14.41	23.92	
2025-01-14 00:35:06.00	14.40	23.96	
2025-01-14 00:35:06.20	14.39	23.99	
2025-01-14 00:35:06.41	14.39	24.02	
2025-01-14 00:35:06.61	14.38	24.05	
2025-01-14 00:35:06.82	14.37	24.08	
2025-01-14 00:35:07.02	14.37	24.11	
2025-01-14 00:35:07.23	14.36	24.14	
2025-01-14 00:35:07.43	14.35	24.17	
2025-01-14 00:35:07.64	14.35	24.21	
2025-01-14 00:35:07.85	14.34	24.24	
2025-01-14 00:35:08.05	14.33	24.27	
2025-01-14 00:35:08.25	14.33	24.30	
2025-01-14 00:35:08.46	14.32	24.33	
2025-01-14 00:35:08.66	14.31	24.36	
2025-01-14 00:35:08.87	14.31	24.39	
2025-01-14 00:35:09.07	14.30	24.43	
2025-01-14 00:35:09.28	14.29	24.46	
2025-01-14 00:35:09.48	14.29	24.49	
2025-01-14 00:35:09.69	14.28	24.52	
2025-01-14 00:35:09.89	14.27	24.55	
2025-01-14 00:35:10.10	14.26	24.58	
2025-01-14 00:35:10.30	14.26	24.62	
2025-01-14 00:35:10.51	14.25	24.65	
2025-01-14 00:35:10.71	14.24	24.68	
2025-01-14 00:35:10.92	14.24	24.71	
2025-01-14 00:35:11.12	14.23	24.74	
2025-01-14 00:35:11.33	14.22	24.78	
2025-01-14 00:35:11.53	14.22	24.81	
2025-01-14 00:35:11.74	14.21	24.84	
2025-01-14 00:35:11.94	14.20	24.87	
2025-01-14 00:35:12.15	14.19	24.90	
2025-01-14 00:35:12.35	14.19	24.94	
2025-01-14 00:35:12.56	14.18	24.97	
2025-01-14 00:35:12.76	14.17	25.00	
2025-01-14 00:35:12.97	14.17	25.03	
2025-01-14 00:35:13.17	14.16	25.06	
2025-01-14 00:35:13.38	14.15	25.10	
2025-01-14 00:35:13.58	14.15	25.13	
2025-01-14 00:35:13.79	14.14	25.16	
2025-01-14 00:35:13.99	14.13	25.19	
2025-01-14 00:35:14.20	14.12	25.23	
2025-01-14 00:35:14.40	14.12	25.26	
2025-01-14 00:35:14.61	14.11	25.29	
2025-01-14 00:35:14.81	14.10	25.32	
2025-01-14 00:35:15.02	14.09	25.36	
2025-01-14 00:35:15.22	14.09	25.39	
2025-01-14 00:35:15.43	14.08	25.42	
2025-01-14 00:35:15.63	14.07	25.46	
2025-01-14 00:35:15.84	14.07	25.49	
2025-01-14 00:35:16.05	14.06	25.52	
2025-01-14 00:35:16.25	14.05	25.55	
2025-01-14 00:35:16.46	14.04	25.59	
2025-01-14 00:35:16.66	14.04	25.62	
2025-01-14 00:35:16.88	14.03	25.66	
2025-01-14 00:35:17.09	14.02	25.69	
2025-01-14 00:35:17.29	14.01	25.72	
2025-01-14 00:35:17.50	14.01	25.76	
2025-01-14 00:35:17.70	14.00	25.79	
2025-01-14 00:35:17.91	13.99	25.82	
2025-01-14 00:35:18.11	13.98	25.85	
2025-01-14 00:35:18.31	13.98	25.89	
2025-01-14 00:35:18.52	13.97	25.92	
2025-01-14 00:35:18.73	13.96	25.96	
2025-01-14 00:35:18.93	13.95	25.99	
2025-01-14 00:35:19.14	13.95	26.02	
2025-01-14 00:35:19.34	13.94	26.06	
2025-01-14 00:35:19.55	13.93	26.09	
2025-01-14 00:35:19.75	13.92	26.12	
2025-01-14 00:35:19.96	13.92	26.16	
2025-01-14 00:35:20.16	13.91	26.19	
2025-01-14 00:35:20.37	13.90	26.22	
2025-01-14 00:35:20.57	13.89	26.26	
2025-01-14 00:35:20.78	13.88	26.29	
2025-01-14 00:35:20.98	13.88	26.33	
2025-01-14 00:35:21.19	13.87	26.36	
2025-01-14 00:35:21.39	13.86	26.39	
2025-01-14 00:35:21.60	13.85	26.43	
2025-01-14 00:35:21.81	13.85	26.46	
2025-01-14 00:35:22.01	13.84	26.50	
2025-01-14 00:35:22.22	13.83	26.53	
2025-01-14 00:35:22.42	13.82	26.56	
2025-01-14 00:35:22.63	13.81	26.60	
2025-01-14 00:35:22.83	13.81	26.63	
2025-01-14 00:35:23.04	13.80	26.67	
2025-01-14 00:35:23.24	13.79	26.70	
2025-01-14 00:35:23.45	13.78	26.74	
2025-01-14 00:35:23.65	13.77	26.77	
2025-01-14 00:35:23.86	13.77	26.81	
2025-01-14 00:35:24.06	13.76	26.84	
2025-01-14 00:35:24.27	13.75	26.87	
2025-01-14 00:35:24.47	13.74	26.91	
2025-01-14 00:35:24.68	13.73	26.94	
2025-01-14 00:35:24.88	13.73	26.98	
2025-01-14 00:35:25.09	13.72	27.01	
2025-01-14 00:35:25.29	13.71	27.05	
2025-01-14 00:35:25.50	13.70	27.08	
2025-01-14 00:35:25.70	13.69	27.12	
2025-01-14 00:35:25.91	13.68	27.15	
2025-01-14 00:35:26.12	13.68	27.19	
2025-01-14 00:35:26.32	13.67	27.22	
2025-01-14 00:35:26.53	13.66	27.26	
2025-01-14 00:35:26.73	13.65	27.29	
2025-01-14 00:35:26.94	13.64	27.33	
2025-01-14 00:35:27.14	13.64	27.36	
2025-01-14 00:35:27.35	13.63	27.40	
2025-01-14 00:35:27.55	13.62	27.43	
2025-01-14 00:35:27.76	13.61	27.47	
2025-01-14 00:35:27.96	13.60	27.50	
2025-01-14 00:35:28.17	13.59	27.54	
2025-01-14 00:35:28.37	13.58	27.57	
2025-01-14 00:35:28.58	13.58	27.61	
2025-01-14 00:35:28.78	13.57	27.65	
2025-01-14 00:35:28.99	13.56	27.68	
2025-01-14 00:35:29.20	13.55	27.72	
2025-01-14 00:35:29.40	13.54	27.75	
2025-01-14 00:35:29.61	13.53	27.79	
2025-01-14 00:35:29.81	13.52	27.83	
2025-01-14 00:35:30.02	13.52	27.86	
2025-01-14 00:35:30.22	13.51	27.90	
2025-01-14 00:35:30.43	13.50	27.93	
2025-01-14 00:35:30.64	13.49	27.97	
2025-01-14 00:35:30.84	13.48	28.01	
2025-01-14 00:35:31.05	13.47	28.04	
2025-01-14 00:35:31.25	13.46	28.08	
2025-01-14 00:35:31.46	13.45	28.11	
2025-01-14 00:35:31.66	13.45	28.15	
2025-01-14 00:35:31.87	13.44	28.19	
2025-01-14 00:35:32.07	13.43	28.22	
2025-01-14 00:35:32.28	13.42	28.26	
2025-01-14 00:35:32.48	13.41	28.30	
2025-01-14 00:35:32.69	13.40	28.33	
2025-01-14 00:35:32.89	13.39	28.37	
2025-01-14 00:35:33.10	13.38	28.41	
2025-01-14 00:35:33.30	13.38	28.44	
2025-01-14 00:35:33.51	13.37	28.48	
2025-01-14 00:35:33.71	13.36	28.51	
2025-01-14 00:35:33.92	13.35	28.55	
2025-01-14 00:35:34.12	13.34	28.59	
2025-01-14 00:35:34.33	13.33	28.63	
2025-01-14 00:35:34.53	13.32	28.66	
2025-01-14 00:35:34.74	13.31	28.70	
2025-01-14 00:35:34.94	13.30	28.74	
2025-01-14 00:35:35.15	13.29	28.77	
2025-01-14 00:35:35.35	13.28	28.81	
2025-01-14 00:35:35.56	13.27	28.85	
2025-01-14 00:35:35.76	13.27	28.88	
2025-01-14 00:35:35.97	13.26	28.92	
2025-01-14 00:35:36.17	13.25	28.96	
2025-01-14 00:35:36.38	13.24	29.00	
2025-01-14 00:35:36.58	13.23	29.03	
2025-01-14 00:35:36.79	13.22	29.07	
2025-01-14 00:35:36.99	13.21	29.11	
2025-01-14 00:35:37.20	13.20	29.15	
2025-01-14 00:35:37.40	13.19	29.18	
2025-01-14 00:35:37.61	13.18	29.22	
2025-01-14 00:35:37.81	13.17	29.26	
2025-01-14 00:35:38.02	13.16	29.30	
2025-01-14 00:35:38.22	13.15	29.33	
2025-01-14 00:35:38.43	13.14	29.37	
2025-01-14 00:35:38.64	13.13	29.41	
2025-01-14 00:35:38.84	13.12	29.45	
2025-01-14 00:35:39.05	13.11	29.49	
2025-01-14 00:35:39.25	13.10	29.52	
2025-01-14 00:35:39.46	13.10	29.56	
2025-01-14 00:35:39.66	13.09	29.60	
2025-01-14 00:35:39.87	13.08	29.64	
2025-01-14 00:35:40.08	13.07	29.68	
2025-01-14 00:35:40.28	13.06	29.71	
2025-01-14 00:35:40.49	13.05	29.75	
2025-01-14 00:35:40.69	13.04	29.79	
2025-01-14 00:35:40.90	13.03	29.83	
2025-01-14 00:35:41.10	13.02	29.87	
2025-01-14 00:35:41.31	13.01	29.91	
2025-01-14 00:35:41.51	13.00	29.94	
2025-01-14 00:35:41.71	12.99	29.98	
2025-01-14 00:35:41.92	12.98	30.02	
2025-01-14 00:35:42.13	12.97	30.06	
2025-01-14 00:35:42.33	12.96	30.10	
2025-01-14 00:35:42.54	12.95	30.14	
2025-01-14 00:35:42.74	12.94	30.18	
2025-01-14 00:35:42.95	12.93	30.22	
2025-01-14 00:35:43.15	12.92	30.25	
2025-01-14 00:35:43.36	12.91	30.29	
2025-01-14 00:35:43.56	12.90	30.33	
2025-01-14 00:35:43.77	12.89	30.37	
2025-01-14 00:35:43.97	12.88	30.41	
2025-01-14 00:35:44.18	12.87	30.45	
2025-01-14 00:35:44.39	12.86	30.49	
2025-01-14 00:35:44.60	12.84	30.53	
2025-01-14 00:35:44.81	12.83	30.57	
2025-01-14 00:35:45.01	12.82	30.61	
2025-01-14 00:35:45.22	12.81	30.65	
2025-01-14 00:35:45.42	12.80	30.69	
2025-01-14 00:35:45.63	12.79	30.73	
2025-01-14 00:35:45.83	12.78	30.77	
2025-01-14 00:35:46.03	12.77	30.81	
2025-01-14 00:35:46.24	12.76	30.85	
2025-01-14 00:35:46.45	12.75	30.89	
2025-01-14 00:35:46.65	12.74	30.93	
2025-01-14 00:35:46.87	12.73	30.97	
2025-01-14 00:35:47.08	12.72	31.01	
2025-01-14 00:35:47.28	12.71	31.05	
2025-01-14 00:35:47.49	12.70	31.09	
2025-01-14 00:35:47.69	12.69	31.13	
2025-01-14 00:35:47.91	12.67	31.17	
2025-01-14 00:35:48.11	12.66	31.21	
2025-01-14 00:35:48.32	12.65	31.25	
2025-01-14 00:35:48.52	12.64	31.29	
2025-01-14 00:35:48.73	12.63	31.33	
2025-01-14 00:35:48.93	12.62	31.37	
2025-01-14 00:35:49.14	12.61	31.42	
2025-01-14 00:35:49.34	12.60	31.45	
2025-01-14 00:35:49.55	12.59	31.50	
2025-01-14 00:35:49.75	12.58	31.54	
2025-01-14 00:35:49.96	12.56	31.58	
2025-01-14 00:35:50.16	12.55	31.62	
2025-01-14 00:35:50.37	12.54	31.66	
2025-01-14 00:35:50.57	12.53	31.70	
2025-01-14 00:35:50.78	12.52	31.74	
2025-01-14 00:35:50.98	12.51	31.78	
2025-01-14 00:35:51.19	12.50	31.82	
2025-01-14 00:35:51.39	12.49	31.86	
2025-01-14 00:35:51.60	12.48	31.91	
2025-01-14 00:35:51.81	12.46	31.95	
2025-01-14 00:35:52.01	12.45	31.99	
2025-01-14 00:35:52.21	12.44	32.03	
2025-01-14 00:35:52.42	12.43	32.07	
2025-01-14 00:35:52.63	12.42	32.11	
2025-01-14 00:35:52.83	12.41	32.15	
2025-01-14 00:35:53.04	12.40	32.20	
2025-01-14 00:35:53.24	12.38	32.24	
2025-01-14 00:35:53.45	12.37	32.28	
2025-01-14 00:35:53.65	12.36	32.32	
2025-01-14 00:35:53.86	12.35	32.36	
2025-01-14 00:35:54.07	12.34	32.41	
2025-01-14 00:35:54.28	12.32	32.45	
2025-01-14 00:35:54.49	12.31	32.49	
2025-01-14 00:35:54.69	12.30	32.53	
2025-01-14 00:35:54.90	12.29	32.58	
2025-01-14 00:35:55.10	12.28	32.62	
2025-01-14 00:35:55.31	12.27	32.66	
2025-01-14 00:35:55.51	12.25	32.70	
2025-01-14 00:35:55.72	12.24	32.74	
2025-01-14 00:35:55.93	12.23	32.79	
2025-01-14 00:35:56.13	12.22	32.83	
2025-01-14 00:35:56.33	12.21	32.87	
2025-01-14 00:35:56.54	12.19	32.91	
2025-01-14 00:35:56.75	12.18	32.96	
2025-01-14 00:35:56.95	12.17	33.00	
2025-01-14 00:35:57.16	12.16	33.04	
2025-01-14 00:35:57.36	12.15	33.08	
2025-01-14 00:35:57.57	12.13	33.13	
2025-01-14 00:35:57.77	12.12	33.17	
2025-01-14 00:35:57.98	12.11	33.21	
2025-01-14 00:35:58.19	12.10	33.26	
2025-01-14 00:35:58.39	12.08	33.30	
2025-01-14 00:35:58.61	12.07	33.35	
2025-01-14 00:35:58.81	12.06	33.39	
2025-01-14 00:35:59.02	12.05	33.43	
2025-01-14 00:35:59.23	12.03	33.48	
2025-01-14 00:35:59.43	12.02	33.52	
2025-01-14 00:35:59.65	12.01	33.57	
2025-01-14 00:35:59.85	11.99	33.61	
2025-01-14 00:36:00.06	11.98	33.65	
2025-01-14 00:36:00.27	11.97	33.70	
2025-01-14 00:36:00.47	11.96	33.74	
2025-01-14 00:36:00.67	11.94	33.78	
2025-01-14 00:36:00.88	11.93	33.83	
2025-01-14 00:36:01.09	11.92	33.87	
2025-01-14 00:36:01.29	11.90	33.92	
2025-01-14 00:36:01.50	11.89	33.96	
2025-01-14 00:36:01.70	11.88	34.00	
2025-01-14 00:36:01.91	11.87	34.05	
2025-01-14 00:36:02.11	11.85	34.09	
2025-01-14 00:36:02.32	11.84	34.14	
2025-01-14 00:36:02.52	11.83	34.18	
2025-01-14 00:36:02.73	11.81	34.23	
2025-01-14 00:36:02.93	11.80	34.27	
2025-01-14 00:36:03.14	11.79	34.32	
2025-01-14 00:36:03.34	11.77	34.36	
2025-01-14 00:36:03.55	11.76	34.40	
2025-01-14 00:36:03.76	11.75	34.45	
2025-01-14 00:36:03.96	11.73	34.49	
2025-01-14 00:36:04.17	11.72	34.54	
2025-01-14 00:36:04.37	11.71	34.58	
2025-01-14 00:36:04.58	11.69	34.63	
2025-01-14 00:36:04.78	11.68	34.67	
2025-01-14 00:36:04.99	11.67	34.72	
2025-01-14 00:36:05.19	11.65	34.76	
2025-01-14 00:36:05.40	11.64	34.81	
2025-01-14 00:36:05.60	11.63	34.85	
2025-01-14 00:36:05.81	11.61	34.90	
2025-01-14 00:36:06.03	11.60	34.95	
2025-01-14 00:36:06.23	11.58	34.99	
2025-01-14 00:36:06.44	11.57	35.04	
2025-01-14 00:36:06.65	11.55	35.09	
2025-01-14 00:36:06.85	11.54	35.13	
2025-01-14 00:36:07.07	11.53	35.18	
2025-01-14 00:36:07.27	11.51	35.22	
2025-01-14 00:36:07.48	11.50	35.27	
2025-01-14 00:36:07.68	11.48	35.32	
2025-01-14 00:36:07.89	11.47	35.36	
2025-01-14 00:36:08.09	11.46	35.41	
2025-01-14 00:36:08.29	11.44	35.45	
2025-01-14 00:36:08.50	11.43	35.50	
2025-01-14 00:36:08.71	11.41	35.55	
2025-01-14 00:36:08.91	11.40	35.59	
2025-01-14 00:36:09.11	11.38	35.64	
2025-01-14 00:36:09.32	11.37	35.69	
2025-01-14 00:36:09.53	11.35	35.73	
2025-01-14 00:36:09.73	11.34	35.78	
2025-01-14 00:36:09.94	11.33	35.83	
2025-01-14 00:36:10.14	11.31	35.87	
2025-01-14 00:36:10.35	11.30	35.92	
2025-01-14 00:36:10.55	11.28	35.97	
2025-01-14 00:36:10.76	11.27	36.01	
2025-01-14 00:36:10.96	11.25	36.06	
2025-01-14 00:36:11.17	11.24	36.11	
2025-01-14 00:36:11.37	11.22	36.15	
2025-01-14 00:36:11.58	11.21	36.20	
2025-01-14 00:36:11.78	11.19	36.25	
2025-01-14 00:36:11.99	11.18	36.30	
2025-01-14 00:36:12.19	11.16	36.34	
2025-01-14 00:36:12.40	11.15	36.39	
2025-01-14 00:36:12.60	11.13	36.44	
2025-01-14 00:36:12.81	11.12	36.49	
2025-01-14 00:36:13.01	11.10	36.53	
2025-01-14 00:36:13.22	11.09	36.58	
2025-01-14 00:36:13.42	11.07	36.63	
2025-01-14 00:36:13.63	11.06	36.68	
2025-01-14 00:36:13.83	11.04	36.72	
2025-01-14 00:36:14.04	11.02	36.77	
2025-01-14 00:36:14.25	11.01	36.82	
2025-01-14 00:36:14.45	10.99	36.87	
2025-01-14 00:36:14.66	10.98	36.92	
2025-01-14 00:36:14.86	10.96	36.96	
2025-01-14 00:36:15.07	10.95	37.01	
2025-01-14 00:36:15.27	10.93	37.06	
2025-01-14 00:36:15.48	10.91	37.11	
2025-01-14 00:36:15.68	10.90	37.16	
2025-01-14 00:36:15.89	10.88	37.21	
2025-01-14 00:36:16.09	10.87	37.25	
2025-01-14 00:36:16.30	10.85	37.30	
2025-01-14 00:36:16.50	10.83	37.35	
2025-01-14 00:36:16.71	10.82	37.40	
2025-01-14 00:36:16.91	10.80	37.45	
2025-01-14 00:36:17.12	10.79	37.50	
2025-01-14 00:36:17.32	10.77	37.55	
2025-01-14 00:36:17.53	10.75	37.60	
2025-01-14 00:36:17.73	10.74	37.65	
2025-01-14 00:36:17.94	10.72	37.70	
2025-01-14 00:36:18.15	10.70	37.75	
2025-01-14 00:36:18.35	10.69	37.80	
2025-01-14 00:36:18.56	10.67	37.85	
2025-01-14 00:36:18.76	10.65	37.89	
2025-01-14 00:36:18.97	10.64	37.94	
2025-01-14 00:36:19.17	10.62	37.99	
2025-01-14 00:36:19.38	10.60	38.04	
2025-01-14 00:36:19.59	10.59	38.10	
2025-01-14 00:36:19.79	10.57	38.14	
2025-01-14 00:36:19.99	10.55	38.19	
2025-01-14 00:36:20.20	10.54	38.24	
2025-01-14 00:36:20.41	10.52	38.30	
2025-01-14 00:36:20.61	10.50	38.34	
2025-01-14 00:36:20.82	10.48	38.40	
2025-01-14 00:36:21.02	10.47	38.44	
2025-01-14 00:36:21.23	10.45	38.50	
2025-01-14 00:36:21.43	10.43	38.55	
2025-01-14 00:36:21.64	10.41	38.60	
2025-01-14 00:36:21.84	10.40	38.65	
2025-01-14 00:36:22.04	10.38	38.70	
2025-01-14 00:36:22.25	10.36	38.75	
2025-01-14 00:36:22.46	10.34	38.80	
2025-01-14 00:36:22.66	10.33	38.85	
2025-01-14 00:36:22.87	10.31	38.90	
2025-01-14 00:36:23.08	10.29	38.95	
2025-01-14 00:36:23.29	10.27	39.01	
2025-01-14 00:36:23.49	10.26	39.06	
2025-01-14 00:36:23.70	10.24	39.11	
2025-01-14 00:36:23.91	10.22	39.16	
2025-01-14 00:36:24.11	10.20	39.21	
2025-01-14 00:36:24.32	10.18	39.26	
2025-01-14 00:36:24.52	10.16	39.31	
2025-01-14 00:36:24.73	10.15	39.37	
2025-01-14 00:36:24.93	10.13	39.42	
2025-01-14 00:36:25.14	10.11	39.47	
2025-01-14 00:36:25.34	10.09	39.52	
2025-01-14 00:36:25.55	10.07	39.57	
2025-01-14 00:36:25.75	10.05	39.63	
2025-01-14 00:36:25.96	10.03	39.68	
2025-01-14 00:36:26.16	10.02	39.73	
2025-01-14 00:36:26.37	10.00	39.78	
2025-01-14 00:36:26.57	9.98	39.83	
2025-01-14 00:36:26.78	9.96	39.89	
2025-01-14 00:36:26.98	9.94	39.94	
2025-01-14 00:36:27.19	9.92	39.99	
2025-01-14 00:36:27.39	9.90	40.04	
2025-01-14 00:36:27.60	9.88	40.10	
2025-01-14 00:36:27.80	9.86	40.15	
2025-01-14 00:36:28.01	9.84	40.20	
2025-01-14 00:36:28.21	9.83	40.25	
2025-01-14 00:36:28.42	9.81	40.31	
2025-01-14 00:36:28.62	9.79	40.36	
2025-01-14 00:36:28.83	9.77	40.42	
2025-01-14 00:36:29.04	9.75	40.47	
2025-01-14 00:36:29.24	9.73	40.52	
2025-01-14 00:36:29.44	9.71	40.57	
2025-01-14 00:36:29.65	9.69	40.63	
2025-01-14 00:36:29.86	9.67	40.68	
2025-01-14 00:36:30.06	9.65	40.74	
2025-01-14 00:36:30.27	9.63	40.79	
2025-01-14 00:36:30.47	9.61	40.84	
2025-01-14 00:36:30.68	9.59	40.90	
2025-01-14 00:36:30.88	9.57	40.95	
2025-01-14 00:36:31.09	9.55	41.01	
2025-01-14 00:36:31.30	9.53	41.06	
2025-01-14 00:36:31.50	9.51	41.11	
2025-01-14 00:36:31.71	9.48	41.17	
2025-01-14 00:36:31.91	9.46	41.22	
2025-01-14 00:36:32.12	9.44	41.28	
2025-01-14 00:36:32.32	9.42	41.33	
2025-01-14 00:36:32.53	9.40	41.39	
2025-01-14 00:36:32.73	9.38	41.44	
2025-01-14 00:36:32.94	9.36	41.50	
2025-01-14 00:36:33.14	9.34	41.55	
2025-01-14 00:36:33.35	9.32	41.61	
2025-01-14 00:36:33.55	9.30	41.66	
2025-01-14 00:36:33.76	9.28	41.72	
2025-01-14 00:36:33.96	9.25	41.77	
2025-01-14 00:36:34.17	9.23	41.83	
2025-01-14 00:36:34.37	9.21	41.88	
2025-01-14 00:36:34.58	9.19	41.94	
2025-01-14 00:36:34.78	9.17	41.99	
2025-01-14 00:36:34.99	9.15	42.05	
2025-01-14 00:36:35.19	9.12	42.10	
2025-01-14 00:36:35.40	9.10	42.16	
2025-01-14 00:36:35.60	9.08	42.21	
2025-01-14 00:36:35.81	9.06	42.27	
2025-01-14 00:36:36.01	9.04	42.32	
2025-01-14 00:36:36.22	9.01	42.38	
2025-01-14 00:36:36.42	8.99	42.44	
2025-01-14 00:36:36.63	8.97	42.49	
2025-01-14 00:36:36.84	8.95	42.55	
2025-01-14 00:36:37.04	8.92	42.61	
2025-01-14 00:36:37.25	8.90	42.66	
2025-01-14 00:36:37.45	8.88	42.72	
2025-01-14 00:36:37.66	8.86	42.78	
2025-01-14 00:36:37.86	8.83	42.83	
2025-01-14 00:36:38.07	8.81	42.89	
2025-01-14 00:36:38.27	8.79	42.94	
2025-01-14 00:36:38.48	8.76	43.00	
2025-01-14 00:36:38.68	8.74	43.06	
2025-01-14 00:36:38.89	8.72	43.12	
2025-01-14 00:36:39.10	8.69	43.17	
2025-01-14 00:36:39.30	8.67	43.23	
2025-01-14 00:36:39.51	8.65	43.29	
2025-01-14 00:36:39.71	8.62	43.34	
2025-01-14 00:36:39.92	8.60	43.40	
2025-01-14 00:36:40.13	8.57	43.46	
2025-01-14 00:36:40.34	8.55	43.52	
2025-01-14 00:36:40.55	8.53	43.58	
2025-01-14 00:36:40.76	8.50	43.64	
2025-01-14 00:36:40.97	8.48	43.70	
2025-01-14 00:36:41.17	8.45	43.75	
2025-01-14 00:36:41.37	8.43	43.81	
2025-01-14 00:36:41.58	8.40	43.87	
2025-01-14 00:36:41.79	8.38	43.93	
2025-01-14 00:36:41.99	8.36	43.99	
2025-01-14 00:36:42.20	8.33	44.05	
2025-01-14 00:36:42.40	8.31	44.10	
2025-01-14 00:36:42.61	8.28	44.16	
2025-01-14 00:36:42.81	8.26	44.22	
2025-01-14 00:36:43.02	8.23	44.28	
2025-01-14 00:36:43.23	8.20	44.34	
2025-01-14 00:36:43.43	8.18	44.40	
2025-01-14 00:36:43.63	8.15	44.46	
2025-01-14 00:36:43.84	8.13	44.52	
2025-01-14 00:36:44.05	8.10	44.58	
2025-01-14 00:36:44.25	8.08	44.63	
2025-01-14 00:36:44.45	8.05	44.69	
2025-01-14 00:36:44.66	8.03	44.75	
2025-01-14 00:36:44.86	8.00	44.81	
2025-01-14 00:36:45.07	7.97	44.87	
2025-01-14 00:36:45.28	7.95	44.93	
2025-01-14 00:36:45.48	7.92	44.99	
2025-01-14 00:36:45.68	7.90	45.05	
2025-01-14 00:36:45.89	7.87	45.11	
2025-01-14 00:36:46.10	7.84	45.17	
2025-01-14 00:36:46.30	7.82	45.23	
2025-01-14 00:36:46.51	7.79	45.29	
2025-01-14 00:36:46.71	7.76	45.35	
2025-01-14 00:36:46.92	7.73	45.41	
2025-01-14 00:36:47.12	7.71	45.47	
2025-01-14 00:36:47.33	7.68	45.53	
2025-01-14 00:36:47.53	7.65	45.59	
2025-01-14 00:36:47.74	7.63	45.65	
2025-01-14 00:36:47.94	7.60	45.71	
2025-01-14 00:36:48.15	7.57	45.77	
2025-01-14 00:36:48.35	7.54	45.83	
2025-01-14 00:36:48.56	7.51	45.89	
2025-01-14 00:36:48.76	7.49	45.95	
2025-01-14 00:36:48.97	7.46	46.02	
2025-01-14 00:36:49.17	7.43	46.08	
2025-01-14 00:36:49.38	7.40	46.14	
2025-01-14 00:36:49.58	7.37	46.20	
2025-01-14 00:36:49.80	7.34	46.26	
2025-01-14 00:36:50.01	7.31	46.33	
2025-01-14 00:36:50.21	7.29	46.39	
2025-01-14 00:36:50.42	7.26	46.45	
2025-01-14 00:36:50.62	7.23	46.51	
2025-01-14 00:36:50.83	7.20	46.57	
2025-01-14 00:36:51.03	7.17	46.63	
2025-01-14 00:36:51.24	7.14	46.70	
2025-01-14 00:36:51.45	7.11	46.76	
2025-01-14 00:36:51.65	7.08	46.82	
2025-01-14 00:36:51.85	7.05	46.88	
2025-01-14 00:36:52.06	7.02	46.95	
2025-01-14 00:36:52.26	6.99	47.01	
2025-01-14 00:36:52.47	6.96	47.07	
2025-01-14 00:36:52.67	6.93	47.13	
2025-01-14 00:36:52.88	6.90	47.20	
2025-01-14 00:36:53.08	6.87	47.26	
2025-01-14 00:36:53.29	6.84	47.32	
2025-01-14 00:36:53.49	6.81	47.38	
2025-01-14 00:36:53.70	6.78	47.45	
2025-01-14 00:36:53.90	6.75	47.51	
2025-01-14 00:36:54.11	6.72	47.57	
2025-01-14 00:36:54.31	6.69	47.63	
2025-01-14 00:36:54.52	6.65	47.70	
2025-01-14 00:36:54.72	6.62	47.76	
2025-01-14 00:36:54.93	6.59	47.83	
2025-01-14 00:36:55.13	6.56	47.89	
2025-01-14 00:36:55.34	6.53	47.95	
2025-01-14 00:36:55.54	6.50	48.01	
2025-01-14 00:36:55.75	6.46	48.08	
2025-01-14 00:36:55.95	6.43	48.14	
2025-01-14 00:36:56.16	6.40	48.21	
2025-01-14 00:36:56.36	6.37	48.27	
2025-01-14 00:36:56.57	6.33	48.34	
2025-01-14 00:36:56.77	6.30	48.40	
2025-01-14 00:36:56.98	6.27	48.46	
2025-01-14 00:36:57.19	6.23	48.53	
2025-01-14 00:36:57.40	6.20	48.60	
2025-01-14 00:36:57.61	6.17	48.66	
2025-01-14 00:36:57.81	6.13	48.73	
2025-01-14 00:36:58.01	6.10	48.79	
2025-01-14 00:36:58.22	6.07	48.85	
2025-01-14 00:36:58.42	6.03	48.92	
2025-01-14 00:36:58.63	6.00	48.98	
2025-01-14 00:36:58.83	5.96	49.05	
2025-01-14 00:36:59.03	5.93	49.11	
2025-01-14 00:36:59.24	5.90	49.18	
2025-01-14 00:36:59.45	5.86	49.25	
2025-01-14 00:36:59.66	5.82	49.31	
2025-01-14 00:36:59.87	5.79	49.38	
2025-01-14 00:37:00.07	5.75	49.44	
2025-01-14 00:37:00.27	5.72	49.51	
2025-01-14 00:37:00.48	5.68	49.57	
2025-01-14 00:37:00.68	5.65	49.64	
2025-01-14 00:37:00.89	5.61	49.71	
2025-01-14 00:37:01.09	5.58	49.77	
2025-01-14 00:37:01.30	5.54	49.84	
2025-01-14 00:37:01.50	5.50	49.90	
2025-01-14 00:37:01.71	5.47	49.97	
2025-01-14 00:37:01.91	5.43	50.04	
2025-01-14 00:37:02.12	5.39	50.10	
2025-01-14 00:37:02.32	5.36	50.17	
2025-01-14 00:37:02.54	5.32	50.24	
2025-01-14 00:37:02.75	5.28	50.31	
2025-01-14 00:37:02.95	5.24	50.37	
2025-01-14 00:37:03.16	5.20	50.44	
2025-01-14 00:37:03.36	5.17	50.51	
2025-01-14 00:37:03.57	5.13	50.57	
2025-01-14 00:37:03.77	5.09	50.64	
2025-01-14 00:37:03.98	5.05	50.71	
2025-01-14 00:37:04.18	5.01	50.77	
2025-01-14 00:37:04.39	4.98	50.84	
2025-01-14 00:37:04.59	4.94	50.91	
2025-01-14 00:37:04.80	4.90	50.98	
2025-01-14 00:37:05.00	4.86	51.04	
2025-01-14 00:37:05.21	4.82	51.11	
2025-01-14 00:37:05.41	4.78	51.18	
2025-01-14 00:37:05.62	4.74	51.25	
2025-01-14 00:37:05.82	4.70	51.32	
2025-01-14 00:37:06.03	4.66	51.38	
2025-01-14 00:37:06.23	4.62	51.45	
2025-01-14 00:37:06.44	4.58	51.52	
2025-01-14 00:37:06.65	4.54	51.59	
2025-01-14 00:37:06.85	4.50	51.66	
2025-01-14 00:37:07.05	4.46	51.72	
2025-01-14 00:37:07.26	4.42	51.79	
2025-01-14 00:37:07.47	4.37	51.86	
2025-01-14 00:37:07.67	4.33	51.93	
2025-01-14 00:37:07.88	4.29	52.00	
2025-01-14 00:37:08.08	4.25	52.07	
2025-01-14 00:37:08.29	4.21	52.14	
2025-01-14 00:37:08.49	4.16	52.21	
2025-01-14 00:37:08.70	4.12	52.28	
2025-01-14 00:37:08.90	4.08	52.34	
2025-01-14 00:37:09.12	4.03	52.42	
2025-01-14 00:37:09.32	3.99	52.49	
2025-01-14 00:37:09.53	3.95	52.56	
2025-01-14 00:37:09.74	3.90	52.63	
2025-01-14 00:37:09.94	3.86	52.70	
2025-01-14 00:37:10.14	3.82	52.76	
2025-01-14 00:37:10.35	3.77	52.84	
2025-01-14 00:37:10.55	3.73	52.90	
2025-01-14 00:37:10.76	3.68	52.98	
2025-01-14 00:37:10.96	3.64	53.04	
2025-01-14 00:37:11.17	3.59	53.12	
2025-01-14 00:37:11.37	3.55	53.18	
2025-01-14 00:37:11.58	3.50	53.26	
2025-01-14 00:37:11.78	3.45	53.32	
2025-01-14 00:37:11.99	3.41	53.40	
2025-01-14 00:37:12.19	3.36	53.47	
2025-01-14 00:37:12.40	3.32	53.54	
2025-01-14 00:37:12.60	3.27	53.61	
2025-01-14 00:37:12.81	3.22	53.68	
2025-01-14 00:37:13.02	3.17	53.75	
2025-01-14 00:37:13.22	3.13	53.82	
2025-01-14 00:37:13.43	3.08	53.89	
2025-01-14 00:37:13.63	3.03	53.96	
2025-01-14 00:37:13.84	2.98	54.03	
2025-01-14 00:37:14.04	2.93	54.10	
2025-01-14 00:37:14.25	2.88	54.18	
2025-01-14 00:37:14.45	2.84	54.25	
2025-01-14 00:37:14.66	2.79	54.32	
2025-01-14 00:37:14.86	2.74	54.39	
2025-01-14 00:37:15.07	2.69	54.46	
2025-01-14 00:37:15.27	2.64	54.53	
2025-01-14 00:37:15.48	2.59	54.61	
2025-01-14 00:37:15.68	2.54	54.68	
2025-01-14 00:37:15.89	2.49	54.75	
2025-01-14 00:37:16.09	2.44	54.82	
2025-01-14 00:37:16.30	2.38	54.89	
2025-01-14 00:37:16.51	2.33	54.97	
2025-01-14 00:37:16.71	2.28	55.04	
2025-01-14 00:37:16.92	2.23	55.11	
2025-01-14 00:37:17.12	2.18	55.18	
2025-01-14 00:37:17.33	2.12	55.26	
2025-01-14 00:37:17.53	2.07	55.33	
2025-01-14 00:37:17.74	2.02	55.40	
2025-01-14 00:37:17.94	1.97	55.47	
2025-01-14 00:37:18.15	1.91	55.55	
2025-01-14 00:37:18.35	1.86	55.62	
2025-01-14 00:37:18.56	1.80	55.69	
2025-01-14 00:37:18.76	1.75	55.76	
2025-01-14 00:37:18.97	1.69	55.84	
2025-01-14 00:37:19.18	1.64	55.91	
2025-01-14 00:37:19.38	1.58	55.98	
2025-01-14 00:37:19.59	1.53	56.06	
2025-01-14 00:37:19.79	1.47	56.13	
2025-01-14 00:37:20.00	1.41	56.20	
2025-01-14 00:37:20.20	1.36	56.28	
2025-01-14 00:37:20.41	1.30	56.35	
2025-01-14 00:37:20.61	1.24	56.42	
2025-01-14 00:37:20.82	1.19	56.50	
2025-01-14 00:37:21.02	1.13	56.57	
2025-01-14 00:37:21.23	1.07	56.65	
2025-01-14 00:37:21.43	1.01	56.72	
2025-01-14 00:37:21.63	0.96	56.79	
2025-01-14 00:37:21.84	0.90	56.86	
2025-01-14 00:37:22.05	0.83	56.94	
2025-01-14 00:37:22.25	0.78	57.01	
2025-01-14 00:37:22.46	0.72	57.09	
2025-01-14 00:37:22.66	0.66	57.16	
2025-01-14 00:37:22.87	0.59	57.24	
2025-01-14 00:37:23.07	0.53	57.31	
2025-01-14 00:37:23.28	0.47	57.39	
2025-01-14 00:37:23.48	0.41	57.46	
2025-01-14 00:37:23.69	0.35	57.53	
2025-01-14 00:37:23.89	0.29	57.61	
2025-01-14 00:37:24.10	0.22	57.68	
2025-01-14 00:37:24.30	0.16	57.76	
2025-01-14 00:37:24.51	0.10	57.83	
2025-01-14 00:37:24.72	0.03	57.91	
2025-01-14 00:37:24.92	359.97	57.98	
2025-01-14 00:37:25.12	359.91	58.06	
2025-01-14 00:37:25.33	359.84	58.13	
2025-01-14 00:37:25.54	359.77	58.21	
2025-01-14 00:37:25.74	359.71	58.28	
2025-01-14 00:37:25.95	359.64	58.36	
2025-01-14 00:37:26.15	359.58	58.43	
2025-01-14 00:37:26.36	359.51	58.51	
2025-01-14 00:37:26.56	359.44	58.58	
2025-01-14 00:37:26.77	359.37	58.66	
2025-01-14 00:37:26.97	359.31	58.73	
2025-01-14 00:37:27.18	359.24	58.81	
2025-01-14 00:37:27.38	359.17	58.89	
2025-01-14 00:37:27.59	359.10	58.96	
2025-01-14 00:37:27.79	359.03	59.04	
2025-01-14 00:37:28.00	358.96	59.11	
2025-01-14 00:37:28.20	358.89	59.19	
2025-01-14 00:37:28.41	358.82	59.27	
2025-01-14 00:37:28.61	358.75	59.34	
2025-01-14 00:37:28.82	358.68	59.42	
2025-01-14 00:37:29.02	358.61	59.49	
2025-01-14 00:37:29.23	358.53	59.57	
2025-01-14 00:37:29.43	358.46	59.64	
2025-01-14 00:37:29.64	358.39	59.72	
2025-01-14 00:37:29.84	358.31	59.80	
