passes_logs/2025/01/14/SPB_Silybum_02/SPB_Silybum_02__20250114_123206_AQUA_rec.log

#Pass ID: 20250114_123206_AQUA
#Satellite: AQUA
#Configuration: AQUA
#Start time: 2025-01-14 12:32:06

#Version: 2.0.20230423
#Station: SPB_Silybum_02
#Location: 30.233357 lon 59.946436 lat
#TLE: 1 27424U 02022A   25013.83544817  .00001692  00000+0  35728-3 0  9991
#TLE: 2 27424  98.3586 330.4889 0001664 112.6336 276.7792 14.60677575207450

#Time	Az	El	Level	Level2	SNR	BER	Gain	Gain2
2025-01-14 12:32:08.71	197.13	4.15	
2025-01-14 12:32:08.92	197.15	4.16	
2025-01-14 12:32:09.12	197.16	4.18	
2025-01-14 12:32:09.33	197.17	4.19	
2025-01-14 12:32:09.53	197.19	4.20	
2025-01-14 12:32:09.74	197.20	4.22	
2025-01-14 12:32:09.94	197.22	4.23	
2025-01-14 12:32:10.15	197.23	4.24	
2025-01-14 12:32:10.37	197.25	4.26	
2025-01-14 12:32:10.57	197.26	4.27	
2025-01-14 12:32:10.77	197.27	4.29	
2025-01-14 12:32:10.98	197.29	4.30	
2025-01-14 12:32:11.19	197.30	4.31	
2025-01-14 12:32:11.39	197.32	4.33	
2025-01-14 12:32:11.60	197.33	4.34	
2025-01-14 12:32:11.80	197.35	4.35	
2025-01-14 12:32:12.01	197.36	4.37	
2025-01-14 12:32:12.21	197.38	4.38	
2025-01-14 12:32:12.42	197.39	4.40	
2025-01-14 12:32:12.62	197.40	4.41	
2025-01-14 12:32:12.83	197.42	4.42	
2025-01-14 12:32:13.03	197.43	4.44	
2025-01-14 12:32:13.24	197.45	4.45	
2025-01-14 12:32:13.44	197.46	4.46	
2025-01-14 12:32:13.65	197.48	4.48	
2025-01-14 12:32:13.85	197.49	4.49	
2025-01-14 12:32:14.06	197.51	4.50	
2025-01-14 12:32:14.26	197.52	4.52	
2025-01-14 12:32:14.47	197.53	4.53	
2025-01-14 12:32:14.67	197.55	4.55	
2025-01-14 12:32:14.88	197.56	4.56	
2025-01-14 12:32:15.08	197.58	4.57	
2025-01-14 12:32:15.29	197.59	4.59	
2025-01-14 12:32:15.49	197.61	4.60	
2025-01-14 12:32:15.70	197.62	4.61	
2025-01-14 12:32:15.91	197.64	4.63	
2025-01-14 12:32:16.11	197.65	4.64	
2025-01-14 12:32:16.31	197.67	4.66	
2025-01-14 12:32:16.52	197.68	4.67	
2025-01-14 12:32:16.72	197.69	4.68	
2025-01-14 12:32:16.93	197.71	4.70	
2025-01-14 12:32:17.13	197.72	4.71	
2025-01-14 12:32:17.34	197.74	4.72	
2025-01-14 12:32:17.54	197.75	4.74	
2025-01-14 12:32:17.75	197.77	4.75	
2025-01-14 12:32:17.95	197.78	4.77	
2025-01-14 12:32:18.16	197.80	4.78	
2025-01-14 12:32:18.36	197.81	4.79	
2025-01-14 12:32:18.57	197.83	4.81	
2025-01-14 12:32:18.77	197.84	4.82	
2025-01-14 12:32:18.98	197.86	4.84	
2025-01-14 12:32:19.19	197.87	4.85	
2025-01-14 12:32:19.39	197.89	4.86	
2025-01-14 12:32:19.59	197.90	4.88	
2025-01-14 12:32:19.80	197.92	4.89	
2025-01-14 12:32:20.01	197.93	4.90	
2025-01-14 12:32:20.21	197.95	4.92	
2025-01-14 12:32:20.42	197.96	4.93	
2025-01-14 12:32:20.62	197.98	4.95	
2025-01-14 12:32:20.83	197.99	4.96	
2025-01-14 12:32:21.03	198.01	4.97	
2025-01-14 12:32:21.24	198.02	4.99	
2025-01-14 12:32:21.44	198.04	5.00	
2025-01-14 12:32:21.64	198.05	5.02	
2025-01-14 12:32:21.85	198.07	5.03	
2025-01-14 12:32:22.05	198.08	5.04	
2025-01-14 12:32:22.26	198.10	5.06	
2025-01-14 12:32:22.47	198.11	5.07	
2025-01-14 12:32:22.67	198.13	5.09	
2025-01-14 12:32:22.87	198.14	5.10	
2025-01-14 12:32:23.08	198.16	5.11	
2025-01-14 12:32:23.28	198.17	5.13	
2025-01-14 12:32:23.49	198.19	5.14	
2025-01-14 12:32:23.69	198.20	5.16	
2025-01-14 12:32:23.89	198.22	5.17	
2025-01-14 12:32:24.10	198.23	5.18	
2025-01-14 12:32:24.31	198.25	5.20	
2025-01-14 12:32:24.51	198.26	5.21	
2025-01-14 12:32:24.72	198.28	5.23	
2025-01-14 12:32:24.92	198.29	5.24	
2025-01-14 12:32:25.13	198.31	5.25	
2025-01-14 12:32:25.33	198.33	5.27	
2025-01-14 12:32:25.54	198.34	5.28	
2025-01-14 12:32:25.74	198.36	5.30	
2025-01-14 12:32:25.95	198.37	5.31	
2025-01-14 12:32:26.15	198.39	5.32	
2025-01-14 12:32:26.36	198.40	5.34	
2025-01-14 12:32:26.57	198.42	5.35	
2025-01-14 12:32:26.77	198.43	5.37	
2025-01-14 12:32:26.97	198.45	5.38	
2025-01-14 12:32:27.18	198.46	5.39	
2025-01-14 12:32:27.39	198.48	5.41	
2025-01-14 12:32:27.59	198.50	5.42	
2025-01-14 12:32:27.80	198.51	5.44	
2025-01-14 12:32:28.00	198.53	5.45	
2025-01-14 12:32:28.21	198.54	5.47	
2025-01-14 12:32:28.42	198.56	5.48	
2025-01-14 12:32:28.62	198.57	5.49	
2025-01-14 12:32:28.83	198.59	5.51	
2025-01-14 12:32:29.03	198.60	5.52	
2025-01-14 12:32:29.24	198.62	5.54	
2025-01-14 12:32:29.44	198.64	5.55	
2025-01-14 12:32:29.65	198.65	5.57	
2025-01-14 12:32:29.86	198.67	5.58	
2025-01-14 12:32:30.06	198.68	5.59	
2025-01-14 12:32:30.27	198.70	5.61	
2025-01-14 12:32:30.47	198.71	5.62	
2025-01-14 12:32:30.68	198.73	5.64	
2025-01-14 12:32:30.88	198.75	5.65	
2025-01-14 12:32:31.09	198.76	5.67	
2025-01-14 12:32:31.29	198.78	5.68	
2025-01-14 12:32:31.50	198.79	5.69	
2025-01-14 12:32:31.71	198.81	5.71	
2025-01-14 12:32:31.91	198.83	5.72	
2025-01-14 12:32:32.12	198.84	5.74	
2025-01-14 12:32:32.32	198.86	5.75	
2025-01-14 12:32:32.53	198.87	5.77	
2025-01-14 12:32:32.73	198.89	5.78	
2025-01-14 12:32:32.94	198.90	5.79	
2025-01-14 12:32:33.14	198.92	5.81	
2025-01-14 12:32:33.35	198.94	5.82	
2025-01-14 12:32:33.55	198.95	5.84	
2025-01-14 12:32:33.76	198.97	5.85	
2025-01-14 12:32:33.96	198.98	5.87	
2025-01-14 12:32:34.17	199.00	5.88	
2025-01-14 12:32:34.37	199.02	5.89	
2025-01-14 12:32:34.58	199.03	5.91	
2025-01-14 12:32:34.79	199.05	5.92	
2025-01-14 12:32:34.99	199.06	5.94	
2025-01-14 12:32:35.20	199.08	5.95	
2025-01-14 12:32:35.40	199.10	5.97	
2025-01-14 12:32:35.61	199.11	5.98	
2025-01-14 12:32:35.81	199.13	6.00	
2025-01-14 12:32:36.02	199.15	6.01	
2025-01-14 12:32:36.22	199.16	6.02	
2025-01-14 12:32:36.43	199.18	6.04	
2025-01-14 12:32:36.63	199.19	6.05	
2025-01-14 12:32:36.84	199.21	6.07	
2025-01-14 12:32:37.05	199.23	6.08	
2025-01-14 12:32:37.25	199.24	6.10	
2025-01-14 12:32:37.45	199.26	6.11	
2025-01-14 12:32:37.66	199.28	6.13	
2025-01-14 12:32:37.86	199.29	6.14	
2025-01-14 12:32:38.07	199.31	6.15	
2025-01-14 12:32:38.27	199.32	6.17	
2025-01-14 12:32:38.48	199.34	6.18	
2025-01-14 12:32:38.68	199.36	6.20	
2025-01-14 12:32:38.89	199.37	6.21	
2025-01-14 12:32:39.10	199.39	6.23	
2025-01-14 12:32:39.30	199.41	6.24	
2025-01-14 12:32:39.51	199.42	6.26	
2025-01-14 12:32:39.71	199.44	6.27	
2025-01-14 12:32:39.91	199.46	6.29	
2025-01-14 12:32:40.12	199.47	6.30	
2025-01-14 12:32:40.33	199.49	6.31	
2025-01-14 12:32:40.53	199.51	6.33	
2025-01-14 12:32:40.74	199.52	6.34	
2025-01-14 12:32:40.94	199.54	6.36	
2025-01-14 12:32:41.15	199.56	6.37	
2025-01-14 12:32:41.35	199.57	6.39	
2025-01-14 12:32:41.56	199.59	6.40	
2025-01-14 12:32:41.76	199.60	6.42	
2025-01-14 12:32:41.97	199.62	6.43	
2025-01-14 12:32:42.17	199.64	6.45	
2025-01-14 12:32:42.38	199.66	6.46	
2025-01-14 12:32:42.59	199.67	6.48	
2025-01-14 12:32:42.79	199.69	6.49	
2025-01-14 12:32:43.00	199.71	6.51	
2025-01-14 12:32:43.20	199.72	6.52	
2025-01-14 12:32:43.41	199.74	6.53	
2025-01-14 12:32:43.61	199.76	6.55	
2025-01-14 12:32:43.82	199.77	6.56	
2025-01-14 12:32:44.02	199.79	6.58	
2025-01-14 12:32:44.23	199.81	6.59	
2025-01-14 12:32:44.43	199.82	6.61	
2025-01-14 12:32:44.64	199.84	6.62	
2025-01-14 12:32:44.84	199.86	6.64	
2025-01-14 12:32:45.05	199.87	6.65	
2025-01-14 12:32:45.25	199.89	6.67	
2025-01-14 12:32:45.46	199.91	6.68	
2025-01-14 12:32:45.67	199.93	6.70	
2025-01-14 12:32:45.87	199.94	6.71	
2025-01-14 12:32:46.08	199.96	6.73	
2025-01-14 12:32:46.28	199.98	6.74	
2025-01-14 12:32:46.49	199.99	6.76	
2025-01-14 12:32:46.69	200.01	6.77	
2025-01-14 12:32:46.90	200.03	6.79	
2025-01-14 12:32:47.10	200.04	6.80	
2025-01-14 12:32:47.31	200.06	6.82	
2025-01-14 12:32:47.51	200.08	6.83	
2025-01-14 12:32:47.72	200.10	6.85	
2025-01-14 12:32:47.92	200.11	6.86	
2025-01-14 12:32:48.13	200.13	6.87	
2025-01-14 12:32:48.33	200.15	6.89	
2025-01-14 12:32:48.54	200.16	6.90	
2025-01-14 12:32:48.74	200.18	6.92	
2025-01-14 12:32:48.95	200.20	6.93	
2025-01-14 12:32:49.15	200.22	6.95	
2025-01-14 12:32:49.36	200.23	6.96	
2025-01-14 12:32:49.56	200.25	6.98	
2025-01-14 12:32:49.77	200.27	6.99	
2025-01-14 12:32:49.97	200.29	7.01	
2025-01-14 12:32:50.18	200.30	7.02	
2025-01-14 12:32:50.38	200.32	7.04	
2025-01-14 12:32:50.59	200.34	7.05	
2025-01-14 12:32:50.80	200.36	7.07	
2025-01-14 12:32:51.00	200.37	7.08	
2025-01-14 12:32:51.21	200.39	7.10	
2025-01-14 12:32:51.41	200.41	7.11	
2025-01-14 12:32:51.62	200.43	7.13	
2025-01-14 12:32:51.82	200.44	7.14	
2025-01-14 12:32:52.03	200.46	7.16	
2025-01-14 12:32:52.23	200.48	7.17	
2025-01-14 12:32:52.44	200.50	7.19	
2025-01-14 12:32:52.64	200.51	7.20	
2025-01-14 12:32:52.85	200.53	7.22	
2025-01-14 12:32:53.05	200.55	7.23	
2025-01-14 12:32:53.26	200.57	7.25	
2025-01-14 12:32:53.46	200.58	7.26	
2025-01-14 12:32:53.67	200.60	7.28	
2025-01-14 12:32:53.87	200.62	7.29	
2025-01-14 12:32:54.08	200.64	7.31	
2025-01-14 12:32:54.28	200.65	7.32	
2025-01-14 12:32:54.49	200.67	7.34	
2025-01-14 12:32:54.69	200.69	7.35	
2025-01-14 12:32:54.90	200.71	7.37	
2025-01-14 12:32:55.10	200.73	7.38	
2025-01-14 12:32:55.31	200.74	7.40	
2025-01-14 12:32:55.51	200.76	7.41	
2025-01-14 12:32:55.72	200.78	7.43	
2025-01-14 12:32:55.92	200.80	7.45	
2025-01-14 12:32:56.13	200.81	7.46	
2025-01-14 12:32:56.33	200.83	7.48	
2025-01-14 12:32:56.54	200.85	7.49	
2025-01-14 12:32:56.74	200.87	7.51	
2025-01-14 12:32:56.95	200.89	7.52	
2025-01-14 12:32:57.15	200.90	7.54	
2025-01-14 12:32:57.36	200.92	7.55	
2025-01-14 12:32:57.56	200.94	7.57	
2025-01-14 12:32:57.77	200.96	7.58	
2025-01-14 12:32:57.97	200.98	7.60	
2025-01-14 12:32:58.18	200.99	7.61	
2025-01-14 12:32:58.38	201.01	7.63	
2025-01-14 12:32:58.59	201.03	7.64	
2025-01-14 12:32:58.80	201.05	7.66	
2025-01-14 12:32:59.01	201.07	7.67	
2025-01-14 12:32:59.22	201.09	7.69	
2025-01-14 12:32:59.43	201.11	7.71	
2025-01-14 12:32:59.63	201.12	7.72	
2025-01-14 12:32:59.84	201.14	7.74	
2025-01-14 12:33:00.04	201.16	7.75	
2025-01-14 12:33:00.26	201.18	7.77	
2025-01-14 12:33:00.46	201.20	7.78	
2025-01-14 12:33:00.67	201.22	7.80	
2025-01-14 12:33:00.88	201.24	7.81	
2025-01-14 12:33:01.09	201.25	7.83	
2025-01-14 12:33:01.30	201.27	7.85	
2025-01-14 12:33:01.50	201.29	7.86	
2025-01-14 12:33:01.71	201.31	7.88	
2025-01-14 12:33:01.92	201.33	7.89	
2025-01-14 12:33:02.12	201.35	7.91	
2025-01-14 12:33:02.33	201.37	7.92	
2025-01-14 12:33:02.53	201.38	7.94	
2025-01-14 12:33:02.74	201.40	7.95	
2025-01-14 12:33:02.95	201.42	7.97	
2025-01-14 12:33:03.15	201.44	7.98	
2025-01-14 12:33:03.35	201.46	8.00	
2025-01-14 12:33:03.56	201.48	8.02	
2025-01-14 12:33:03.77	201.50	8.03	
2025-01-14 12:33:03.97	201.51	8.05	
2025-01-14 12:33:04.17	201.53	8.06	
2025-01-14 12:33:04.38	201.55	8.08	
2025-01-14 12:33:04.58	201.57	8.09	
2025-01-14 12:33:04.79	201.59	8.11	
2025-01-14 12:33:05.00	201.61	8.12	
2025-01-14 12:33:05.20	201.63	8.14	
2025-01-14 12:33:05.41	201.65	8.15	
2025-01-14 12:33:05.61	201.66	8.17	
2025-01-14 12:33:05.82	201.68	8.19	
2025-01-14 12:33:06.02	201.70	8.20	
2025-01-14 12:33:06.23	201.72	8.22	
2025-01-14 12:33:06.44	201.74	8.23	
2025-01-14 12:33:06.64	201.76	8.25	
2025-01-14 12:33:06.85	201.78	8.26	
2025-01-14 12:33:07.05	201.80	8.28	
2025-01-14 12:33:07.26	201.82	8.30	
2025-01-14 12:33:07.46	201.84	8.31	
2025-01-14 12:33:07.67	201.86	8.33	
2025-01-14 12:33:07.87	201.87	8.34	
2025-01-14 12:33:08.07	201.89	8.36	
2025-01-14 12:33:08.28	201.91	8.37	
2025-01-14 12:33:08.49	201.93	8.39	
2025-01-14 12:33:08.69	201.95	8.40	
2025-01-14 12:33:08.90	201.97	8.42	
2025-01-14 12:33:09.10	201.99	8.44	
2025-01-14 12:33:09.31	202.01	8.45	
2025-01-14 12:33:09.51	202.03	8.47	
2025-01-14 12:33:09.72	202.05	8.48	
2025-01-14 12:33:09.92	202.07	8.50	
2025-01-14 12:33:10.13	202.09	8.51	
2025-01-14 12:33:10.33	202.10	8.53	
2025-01-14 12:33:10.54	202.12	8.55	
2025-01-14 12:33:10.74	202.14	8.56	
2025-01-14 12:33:10.95	202.16	8.58	
2025-01-14 12:33:11.15	202.18	8.59	
2025-01-14 12:33:11.36	202.20	8.61	
2025-01-14 12:33:11.56	202.22	8.62	
2025-01-14 12:33:11.77	202.24	8.64	
2025-01-14 12:33:11.97	202.26	8.66	
2025-01-14 12:33:12.18	202.28	8.67	
2025-01-14 12:33:12.38	202.30	8.69	
2025-01-14 12:33:12.59	202.32	8.70	
2025-01-14 12:33:12.80	202.34	8.72	
2025-01-14 12:33:13.00	202.36	8.74	
2025-01-14 12:33:13.21	202.38	8.75	
2025-01-14 12:33:13.41	202.40	8.77	
2025-01-14 12:33:13.62	202.42	8.78	
2025-01-14 12:33:13.83	202.44	8.80	
2025-01-14 12:33:14.04	202.46	8.82	
2025-01-14 12:33:14.25	202.48	8.83	
2025-01-14 12:33:14.46	202.50	8.85	
2025-01-14 12:33:14.66	202.52	8.86	
2025-01-14 12:33:14.87	202.54	8.88	
2025-01-14 12:33:15.07	202.56	8.90	
2025-01-14 12:33:15.28	202.58	8.91	
2025-01-14 12:33:15.48	202.60	8.93	
2025-01-14 12:33:15.69	202.62	8.94	
2025-01-14 12:33:15.89	202.64	8.96	
2025-01-14 12:33:16.10	202.66	8.98	
2025-01-14 12:33:16.31	202.68	8.99	
2025-01-14 12:33:16.51	202.70	9.01	
2025-01-14 12:33:16.72	202.72	9.02	
2025-01-14 12:33:16.93	202.74	9.04	
2025-01-14 12:33:17.13	202.76	9.06	
2025-01-14 12:33:17.33	202.78	9.07	
2025-01-14 12:33:17.54	202.80	9.09	
2025-01-14 12:33:17.75	202.82	9.10	
2025-01-14 12:33:17.95	202.84	9.12	
2025-01-14 12:33:18.15	202.86	9.14	
2025-01-14 12:33:18.36	202.88	9.15	
2025-01-14 12:33:18.57	202.90	9.17	
2025-01-14 12:33:18.77	202.92	9.18	
2025-01-14 12:33:18.98	202.94	9.20	
2025-01-14 12:33:19.18	202.96	9.22	
2025-01-14 12:33:19.39	202.98	9.23	
2025-01-14 12:33:19.59	203.00	9.25	
2025-01-14 12:33:19.80	203.02	9.27	
2025-01-14 12:33:20.00	203.04	9.28	
2025-01-14 12:33:20.21	203.06	9.30	
2025-01-14 12:33:20.41	203.08	9.31	
2025-01-14 12:33:20.62	203.10	9.33	
2025-01-14 12:33:20.83	203.12	9.35	
2025-01-14 12:33:21.03	203.14	9.36	
2025-01-14 12:33:21.23	203.16	9.38	
2025-01-14 12:33:21.44	203.18	9.39	
2025-01-14 12:33:21.64	203.20	9.41	
2025-01-14 12:33:21.85	203.23	9.43	
2025-01-14 12:33:22.05	203.25	9.44	
2025-01-14 12:33:22.26	203.27	9.46	
2025-01-14 12:33:22.46	203.29	9.47	
2025-01-14 12:33:22.67	203.31	9.49	
2025-01-14 12:33:22.88	203.33	9.51	
2025-01-14 12:33:23.08	203.35	9.52	
2025-01-14 12:33:23.29	203.37	9.54	
2025-01-14 12:33:23.49	203.39	9.56	
2025-01-14 12:33:23.70	203.41	9.57	
2025-01-14 12:33:23.90	203.43	9.59	
2025-01-14 12:33:24.11	203.45	9.61	
2025-01-14 12:33:24.31	203.48	9.62	
2025-01-14 12:33:24.52	203.50	9.64	
2025-01-14 12:33:24.72	203.52	9.65	
2025-01-14 12:33:24.93	203.54	9.67	
2025-01-14 12:33:25.14	203.56	9.69	
2025-01-14 12:33:25.34	203.58	9.70	
2025-01-14 12:33:25.55	203.60	9.72	
2025-01-14 12:33:25.75	203.62	9.74	
2025-01-14 12:33:25.95	203.64	9.75	
2025-01-14 12:33:26.16	203.66	9.77	
2025-01-14 12:33:26.36	203.69	9.79	
2025-01-14 12:33:26.57	203.71	9.80	
2025-01-14 12:33:26.79	203.73	9.82	
2025-01-14 12:33:26.99	203.75	9.84	
2025-01-14 12:33:27.20	203.77	9.85	
2025-01-14 12:33:27.41	203.79	9.87	
2025-01-14 12:33:27.61	203.81	9.89	
2025-01-14 12:33:27.81	203.84	9.90	
2025-01-14 12:33:28.02	203.86	9.92	
2025-01-14 12:33:28.22	203.88	9.93	
2025-01-14 12:33:28.43	203.90	9.95	
2025-01-14 12:33:28.64	203.92	9.97	
2025-01-14 12:33:28.84	203.94	9.98	
2025-01-14 12:33:29.06	203.97	10.00	
2025-01-14 12:33:29.27	203.99	10.02	
2025-01-14 12:33:29.47	204.01	10.03	
2025-01-14 12:33:29.68	204.03	10.05	
2025-01-14 12:33:29.88	204.05	10.07	
2025-01-14 12:33:30.10	204.08	10.09	
2025-01-14 12:33:30.31	204.10	10.10	
2025-01-14 12:33:30.51	204.12	10.12	
2025-01-14 12:33:30.72	204.14	10.14	
2025-01-14 12:33:30.93	204.16	10.15	
2025-01-14 12:33:31.13	204.18	10.17	
2025-01-14 12:33:31.34	204.21	10.19	
2025-01-14 12:33:31.54	204.23	10.20	
2025-01-14 12:33:31.75	204.25	10.22	
2025-01-14 12:33:31.95	204.27	10.24	
2025-01-14 12:33:32.16	204.29	10.25	
2025-01-14 12:33:32.36	204.31	10.27	
2025-01-14 12:33:32.56	204.34	10.29	
2025-01-14 12:33:32.77	204.36	10.30	
2025-01-14 12:33:32.98	204.38	10.32	
2025-01-14 12:33:33.18	204.40	10.34	
2025-01-14 12:33:33.38	204.42	10.35	
2025-01-14 12:33:33.59	204.45	10.37	
2025-01-14 12:33:33.80	204.47	10.39	
2025-01-14 12:33:34.00	204.49	10.40	
2025-01-14 12:33:34.20	204.51	10.42	
2025-01-14 12:33:34.41	204.54	10.44	
2025-01-14 12:33:34.62	204.56	10.45	
2025-01-14 12:33:34.82	204.58	10.47	
2025-01-14 12:33:35.03	204.60	10.49	
2025-01-14 12:33:35.24	204.62	10.50	
2025-01-14 12:33:35.44	204.65	10.52	
2025-01-14 12:33:35.65	204.67	10.54	
2025-01-14 12:33:35.85	204.69	10.55	
2025-01-14 12:33:36.06	204.71	10.57	
2025-01-14 12:33:36.26	204.74	10.59	
2025-01-14 12:33:36.47	204.76	10.60	
2025-01-14 12:33:36.67	204.78	10.62	
2025-01-14 12:33:36.88	204.80	10.64	
2025-01-14 12:33:37.08	204.83	10.65	
2025-01-14 12:33:37.29	204.85	10.67	
2025-01-14 12:33:37.49	204.87	10.69	
2025-01-14 12:33:37.70	204.89	10.71	
2025-01-14 12:33:37.90	204.92	10.72	
2025-01-14 12:33:38.11	204.94	10.74	
2025-01-14 12:33:38.32	204.96	10.76	
2025-01-14 12:33:38.52	204.98	10.77	
2025-01-14 12:33:38.73	205.01	10.79	
2025-01-14 12:33:38.93	205.03	10.81	
2025-01-14 12:33:39.14	205.05	10.82	
2025-01-14 12:33:39.34	205.08	10.84	
2025-01-14 12:33:39.55	205.10	10.86	
2025-01-14 12:33:39.77	205.12	10.88	
2025-01-14 12:33:39.97	205.15	10.89	
2025-01-14 12:33:40.18	205.17	10.91	
2025-01-14 12:33:40.38	205.19	10.93	
2025-01-14 12:33:40.59	205.21	10.94	
2025-01-14 12:33:40.79	205.24	10.96	
2025-01-14 12:33:41.00	205.26	10.98	
2025-01-14 12:33:41.20	205.28	11.00	
2025-01-14 12:33:41.41	205.31	11.01	
2025-01-14 12:33:41.61	205.33	11.03	
2025-01-14 12:33:41.83	205.35	11.05	
2025-01-14 12:33:42.03	205.38	11.06	
2025-01-14 12:33:42.24	205.40	11.08	
2025-01-14 12:33:42.44	205.42	11.10	
2025-01-14 12:33:42.65	205.45	11.12	
2025-01-14 12:33:42.85	205.47	11.13	
2025-01-14 12:33:43.06	205.49	11.15	
2025-01-14 12:33:43.26	205.52	11.17	
2025-01-14 12:33:43.47	205.54	11.18	
2025-01-14 12:33:43.67	205.56	11.20	
2025-01-14 12:33:43.88	205.59	11.22	
2025-01-14 12:33:44.08	205.61	11.24	
2025-01-14 12:33:44.29	205.63	11.25	
2025-01-14 12:33:44.49	205.66	11.27	
2025-01-14 12:33:44.70	205.68	11.29	
2025-01-14 12:33:44.90	205.70	11.30	
2025-01-14 12:33:45.11	205.73	11.32	
2025-01-14 12:33:45.31	205.75	11.34	
2025-01-14 12:33:45.52	205.78	11.36	
2025-01-14 12:33:45.72	205.80	11.37	
2025-01-14 12:33:45.93	205.82	11.39	
2025-01-14 12:33:46.14	205.85	11.41	
2025-01-14 12:33:46.34	205.87	11.43	
2025-01-14 12:33:46.55	205.89	11.44	
2025-01-14 12:33:46.75	205.92	11.46	
2025-01-14 12:33:46.96	205.94	11.48	
2025-01-14 12:33:47.16	205.97	11.50	
2025-01-14 12:33:47.37	205.99	11.51	
2025-01-14 12:33:47.58	206.01	11.53	
2025-01-14 12:33:47.78	206.04	11.55	
2025-01-14 12:33:47.99	206.06	11.57	
2025-01-14 12:33:48.19	206.09	11.58	
2025-01-14 12:33:48.40	206.11	11.60	
2025-01-14 12:33:48.60	206.13	11.62	
2025-01-14 12:33:48.81	206.16	11.64	
2025-01-14 12:33:49.01	206.18	11.65	
2025-01-14 12:33:49.22	206.21	11.67	
2025-01-14 12:33:49.42	206.23	11.69	
2025-01-14 12:33:49.63	206.25	11.70	
2025-01-14 12:33:49.83	206.28	11.72	
2025-01-14 12:33:50.04	206.30	11.74	
2025-01-14 12:33:50.24	206.33	11.76	
2025-01-14 12:33:50.45	206.35	11.77	
2025-01-14 12:33:50.65	206.38	11.79	
2025-01-14 12:33:50.86	206.40	11.81	
2025-01-14 12:33:51.07	206.43	11.83	
2025-01-14 12:33:51.27	206.45	11.84	
2025-01-14 12:33:51.47	206.47	11.86	
2025-01-14 12:33:51.68	206.50	11.88	
2025-01-14 12:33:51.89	206.52	11.90	
2025-01-14 12:33:52.09	206.55	11.91	
2025-01-14 12:33:52.30	206.57	11.93	
2025-01-14 12:33:52.50	206.60	11.95	
2025-01-14 12:33:52.71	206.62	11.97	
2025-01-14 12:33:52.91	206.65	11.99	
2025-01-14 12:33:53.12	206.67	12.00	
2025-01-14 12:33:53.32	206.70	12.02	
2025-01-14 12:33:53.53	206.72	12.04	
2025-01-14 12:33:53.73	206.75	12.06	
2025-01-14 12:33:53.94	206.77	12.07	
2025-01-14 12:33:54.14	206.80	12.09	
2025-01-14 12:33:54.35	206.82	12.11	
2025-01-14 12:33:54.55	206.84	12.13	
2025-01-14 12:33:54.77	206.87	12.15	
2025-01-14 12:33:54.98	206.90	12.16	
2025-01-14 12:33:55.18	206.92	12.18	
2025-01-14 12:33:55.39	206.95	12.20	
2025-01-14 12:33:55.59	206.97	12.22	
2025-01-14 12:33:55.80	207.00	12.23	
2025-01-14 12:33:56.01	207.02	12.25	
2025-01-14 12:33:56.21	207.05	12.27	
2025-01-14 12:33:56.42	207.07	12.29	
2025-01-14 12:33:56.62	207.10	12.30	
2025-01-14 12:33:56.82	207.12	12.32	
2025-01-14 12:33:57.03	207.15	12.34	
2025-01-14 12:33:57.24	207.18	12.36	
2025-01-14 12:33:57.44	207.20	12.38	
2025-01-14 12:33:57.65	207.23	12.39	
2025-01-14 12:33:57.85	207.25	12.41	
2025-01-14 12:33:58.05	207.28	12.43	
2025-01-14 12:33:58.26	207.30	12.45	
2025-01-14 12:33:58.47	207.33	12.47	
2025-01-14 12:33:58.67	207.35	12.48	
2025-01-14 12:33:58.88	207.38	12.50	
2025-01-14 12:33:59.08	207.40	12.52	
2025-01-14 12:33:59.29	207.43	12.54	
2025-01-14 12:33:59.49	207.46	12.55	
2025-01-14 12:33:59.70	207.48	12.57	
2025-01-14 12:33:59.90	207.51	12.59	
2025-01-14 12:34:00.12	207.53	12.61	
2025-01-14 12:34:00.33	207.56	12.63	
2025-01-14 12:34:00.53	207.59	12.65	
2025-01-14 12:34:00.74	207.61	12.66	
2025-01-14 12:34:00.94	207.64	12.68	
2025-01-14 12:34:01.15	207.66	12.70	
2025-01-14 12:34:01.35	207.69	12.72	
2025-01-14 12:34:01.56	207.72	12.74	
2025-01-14 12:34:01.76	207.74	12.75	
2025-01-14 12:34:01.97	207.77	12.77	
2025-01-14 12:34:02.17	207.79	12.79	
2025-01-14 12:34:02.38	207.82	12.81	
2025-01-14 12:34:02.58	207.85	12.83	
2025-01-14 12:34:02.79	207.87	12.84	
2025-01-14 12:34:02.99	207.90	12.86	
2025-01-14 12:34:03.21	207.93	12.88	
2025-01-14 12:34:03.41	207.95	12.90	
2025-01-14 12:34:03.62	207.98	12.92	
2025-01-14 12:34:03.82	208.01	12.93	
2025-01-14 12:34:04.03	208.03	12.95	
2025-01-14 12:34:04.24	208.06	12.97	
2025-01-14 12:34:04.44	208.09	12.99	
2025-01-14 12:34:04.65	208.11	13.01	
2025-01-14 12:34:04.85	208.14	13.03	
2025-01-14 12:34:05.06	208.17	13.04	
2025-01-14 12:34:05.26	208.19	13.06	
2025-01-14 12:34:05.47	208.22	13.08	
2025-01-14 12:34:05.67	208.25	13.10	
2025-01-14 12:34:05.88	208.27	13.12	
2025-01-14 12:34:06.08	208.30	13.14	
2025-01-14 12:34:06.29	208.33	13.15	
2025-01-14 12:34:06.49	208.35	13.17	
2025-01-14 12:34:06.70	208.38	13.19	
2025-01-14 12:34:06.90	208.41	13.21	
2025-01-14 12:34:07.11	208.43	13.23	
2025-01-14 12:34:07.31	208.46	13.24	
2025-01-14 12:34:07.52	208.49	13.26	
2025-01-14 12:34:07.72	208.51	13.28	
2025-01-14 12:34:07.93	208.54	13.30	
2025-01-14 12:34:08.15	208.57	13.32	
2025-01-14 12:34:08.35	208.60	13.34	
2025-01-14 12:34:08.56	208.63	13.36	
2025-01-14 12:34:08.76	208.65	13.37	
2025-01-14 12:34:08.97	208.68	13.39	
2025-01-14 12:34:09.17	208.71	13.41	
2025-01-14 12:34:09.38	208.74	13.43	
2025-01-14 12:34:09.58	208.76	13.45	
2025-01-14 12:34:09.79	208.79	13.47	
2025-01-14 12:34:10.00	208.82	13.49	
2025-01-14 12:34:10.20	208.84	13.50	
2025-01-14 12:34:10.41	208.87	13.52	
2025-01-14 12:34:10.61	208.90	13.54	
2025-01-14 12:34:10.82	208.93	13.56	
2025-01-14 12:34:11.02	208.96	13.58	
2025-01-14 12:34:11.23	208.98	13.60	
2025-01-14 12:34:11.44	209.01	13.61	
2025-01-14 12:34:11.64	209.04	13.63	
2025-01-14 12:34:11.85	209.07	13.65	
2025-01-14 12:34:12.05	209.09	13.67	
2025-01-14 12:34:12.26	209.12	13.69	
2025-01-14 12:34:12.46	209.15	13.71	
2025-01-14 12:34:12.67	209.18	13.73	
2025-01-14 12:34:12.89	209.21	13.75	
2025-01-14 12:34:13.10	209.24	13.76	
2025-01-14 12:34:13.30	209.26	13.78	
2025-01-14 12:34:13.51	209.29	13.80	
2025-01-14 12:34:13.71	209.32	13.82	
2025-01-14 12:34:13.91	209.35	13.84	
2025-01-14 12:34:14.12	209.38	13.86	
2025-01-14 12:34:14.32	209.40	13.88	
2025-01-14 12:34:14.53	209.43	13.89	
2025-01-14 12:34:14.74	209.46	13.91	
2025-01-14 12:34:14.94	209.49	13.93	
2025-01-14 12:34:15.15	209.52	13.95	
2025-01-14 12:34:15.35	209.55	13.97	
2025-01-14 12:34:15.56	209.58	13.99	
2025-01-14 12:34:15.77	209.60	14.01	
2025-01-14 12:34:15.97	209.63	14.03	
2025-01-14 12:34:16.17	209.66	14.04	
2025-01-14 12:34:16.38	209.69	14.06	
2025-01-14 12:34:16.59	209.72	14.08	
2025-01-14 12:34:16.79	209.75	14.10	
2025-01-14 12:34:17.00	209.78	14.12	
2025-01-14 12:34:17.20	209.80	14.14	
2025-01-14 12:34:17.41	209.83	14.16	
2025-01-14 12:34:17.62	209.86	14.18	
2025-01-14 12:34:17.82	209.89	14.19	
2025-01-14 12:34:18.03	209.92	14.21	
2025-01-14 12:34:18.23	209.95	14.23	
2025-01-14 12:34:18.44	209.98	14.25	
2025-01-14 12:34:18.64	210.01	14.27	
2025-01-14 12:34:18.84	210.04	14.29	
2025-01-14 12:34:19.05	210.07	14.31	
2025-01-14 12:34:19.26	210.10	14.33	
2025-01-14 12:34:19.46	210.12	14.34	
2025-01-14 12:34:19.67	210.15	14.36	
2025-01-14 12:34:19.87	210.18	14.38	
2025-01-14 12:34:20.08	210.21	14.40	
2025-01-14 12:34:20.28	210.24	14.42	
2025-01-14 12:34:20.49	210.27	14.44	
2025-01-14 12:34:20.70	210.30	14.46	
2025-01-14 12:34:20.90	210.33	14.48	
2025-01-14 12:34:21.11	210.36	14.50	
2025-01-14 12:34:21.31	210.39	14.52	
2025-01-14 12:34:21.52	210.42	14.53	
2025-01-14 12:34:21.72	210.45	14.55	
2025-01-14 12:34:21.93	210.48	14.57	
2025-01-14 12:34:22.13	210.51	14.59	
2025-01-14 12:34:22.34	210.54	14.61	
2025-01-14 12:34:22.54	210.57	14.63	
2025-01-14 12:34:22.75	210.60	14.65	
2025-01-14 12:34:22.95	210.63	14.67	
2025-01-14 12:34:23.16	210.66	14.69	
2025-01-14 12:34:23.36	210.69	14.70	
2025-01-14 12:34:23.57	210.72	14.72	
2025-01-14 12:34:23.77	210.75	14.74	
2025-01-14 12:34:23.98	210.78	14.76	
2025-01-14 12:34:24.19	210.81	14.78	
2025-01-14 12:34:24.39	210.84	14.80	
2025-01-14 12:34:24.61	210.87	14.82	
2025-01-14 12:34:24.81	210.90	14.84	
2025-01-14 12:34:25.02	210.93	14.86	
2025-01-14 12:34:25.23	210.96	14.88	
2025-01-14 12:34:25.43	210.99	14.90	
2025-01-14 12:34:25.63	211.02	14.92	
2025-01-14 12:34:25.84	211.05	14.94	
2025-01-14 12:34:26.04	211.08	14.95	
2025-01-14 12:34:26.25	211.11	14.97	
2025-01-14 12:34:26.46	211.14	14.99	
2025-01-14 12:34:26.66	211.17	15.01	
2025-01-14 12:34:26.87	211.20	15.03	
2025-01-14 12:34:27.07	211.23	15.05	
2025-01-14 12:34:27.28	211.26	15.07	
2025-01-14 12:34:27.48	211.29	15.09	
2025-01-14 12:34:27.69	211.33	15.11	
2025-01-14 12:34:27.89	211.36	15.13	
2025-01-14 12:34:28.10	211.39	15.15	
2025-01-14 12:34:28.30	211.42	15.17	
2025-01-14 12:34:28.51	211.45	15.19	
2025-01-14 12:34:28.71	211.48	15.20	
2025-01-14 12:34:28.92	211.51	15.22	
2025-01-14 12:34:29.12	211.54	15.24	
2025-01-14 12:34:29.33	211.57	15.26	
2025-01-14 12:34:29.53	211.60	15.28	
2025-01-14 12:34:29.74	211.63	15.30	
2025-01-14 12:34:29.96	211.67	15.32	
2025-01-14 12:34:30.16	211.70	15.34	
2025-01-14 12:34:30.37	211.73	15.36	
2025-01-14 12:34:30.58	211.76	15.38	
2025-01-14 12:34:30.78	211.79	15.40	
2025-01-14 12:34:30.98	211.82	15.42	
2025-01-14 12:34:31.19	211.86	15.44	
2025-01-14 12:34:31.40	211.89	15.46	
2025-01-14 12:34:31.60	211.92	15.48	
2025-01-14 12:34:31.81	211.95	15.50	
2025-01-14 12:34:32.01	211.98	15.52	
2025-01-14 12:34:32.22	212.01	15.54	
2025-01-14 12:34:32.42	212.05	15.56	
2025-01-14 12:34:32.63	212.08	15.58	
2025-01-14 12:34:32.83	212.11	15.59	
2025-01-14 12:34:33.04	212.14	15.61	
2025-01-14 12:34:33.24	212.17	15.63	
2025-01-14 12:34:33.44	212.20	15.65	
2025-01-14 12:34:33.65	212.24	15.67	
2025-01-14 12:34:33.86	212.27	15.69	
2025-01-14 12:34:34.06	212.30	15.71	
2025-01-14 12:34:34.27	212.33	15.73	
2025-01-14 12:34:34.47	212.36	15.75	
2025-01-14 12:34:34.68	212.40	15.77	
2025-01-14 12:34:34.88	212.43	15.79	
2025-01-14 12:34:35.09	212.46	15.81	
2025-01-14 12:34:35.31	212.50	15.83	
2025-01-14 12:34:35.51	212.53	15.85	
2025-01-14 12:34:35.72	212.56	15.87	
2025-01-14 12:34:35.92	212.59	15.89	
2025-01-14 12:34:36.13	212.63	15.91	
2025-01-14 12:34:36.34	212.66	15.93	
2025-01-14 12:34:36.54	212.69	15.95	
2025-01-14 12:34:36.75	212.73	15.97	
2025-01-14 12:34:36.95	212.76	15.99	
2025-01-14 12:34:37.16	212.79	16.01	
2025-01-14 12:34:37.36	212.82	16.03	
2025-01-14 12:34:37.57	212.86	16.05	
2025-01-14 12:34:37.78	212.89	16.07	
2025-01-14 12:34:37.98	212.92	16.09	
2025-01-14 12:34:38.18	212.95	16.11	
2025-01-14 12:34:38.39	212.99	16.13	
2025-01-14 12:34:38.60	213.02	16.15	
2025-01-14 12:34:38.80	213.05	16.16	
2025-01-14 12:34:39.01	213.09	16.19	
2025-01-14 12:34:39.21	213.12	16.20	
2025-01-14 12:34:39.41	213.15	16.22	
2025-01-14 12:34:39.62	213.19	16.24	
2025-01-14 12:34:39.82	213.22	16.26	
2025-01-14 12:34:40.03	213.25	16.28	
2025-01-14 12:34:40.24	213.29	16.30	
2025-01-14 12:34:40.44	213.32	16.32	
2025-01-14 12:34:40.66	213.36	16.34	
2025-01-14 12:34:40.86	213.39	16.36	
2025-01-14 12:34:41.07	213.42	16.38	
2025-01-14 12:34:41.27	213.46	16.40	
2025-01-14 12:34:41.48	213.49	16.42	
2025-01-14 12:34:41.68	213.52	16.44	
2025-01-14 12:34:41.89	213.56	16.46	
2025-01-14 12:34:42.09	213.59	16.48	
2025-01-14 12:34:42.30	213.62	16.50	
2025-01-14 12:34:42.50	213.66	16.52	
2025-01-14 12:34:42.71	213.69	16.54	
2025-01-14 12:34:42.91	213.73	16.56	
2025-01-14 12:34:43.12	213.76	16.58	
2025-01-14 12:34:43.33	213.80	16.60	
2025-01-14 12:34:43.53	213.83	16.62	
2025-01-14 12:34:43.74	213.86	16.64	
2025-01-14 12:34:43.94	213.90	16.66	
2025-01-14 12:34:44.15	213.93	16.68	
2025-01-14 12:34:44.35	213.97	16.70	
2025-01-14 12:34:44.56	214.00	16.72	
2025-01-14 12:34:44.76	214.03	16.74	
2025-01-14 12:34:44.98	214.07	16.76	
2025-01-14 12:34:45.19	214.11	16.78	
2025-01-14 12:34:45.39	214.14	16.80	
2025-01-14 12:34:45.60	214.18	16.82	
2025-01-14 12:34:45.81	214.21	16.84	
2025-01-14 12:34:46.01	214.24	16.86	
2025-01-14 12:34:46.21	214.28	16.88	
2025-01-14 12:34:46.42	214.31	16.90	
2025-01-14 12:34:46.62	214.35	16.92	
2025-01-14 12:34:46.83	214.38	16.94	
2025-01-14 12:34:47.03	214.42	16.96	
2025-01-14 12:34:47.24	214.45	16.98	
2025-01-14 12:34:47.44	214.49	17.00	
2025-01-14 12:34:47.65	214.52	17.03	
2025-01-14 12:34:47.85	214.56	17.04	
2025-01-14 12:34:48.06	214.59	17.07	
2025-01-14 12:34:48.26	214.63	17.08	
2025-01-14 12:34:48.47	214.66	17.11	
2025-01-14 12:34:48.67	214.70	17.13	
2025-01-14 12:34:48.88	214.74	17.15	
2025-01-14 12:34:49.09	214.77	17.17	
2025-01-14 12:34:49.29	214.81	17.19	
2025-01-14 12:34:49.50	214.84	17.21	
2025-01-14 12:34:49.70	214.88	17.23	
2025-01-14 12:34:49.91	214.91	17.25	
2025-01-14 12:34:50.11	214.95	17.27	
2025-01-14 12:34:50.33	214.99	17.29	
2025-01-14 12:34:50.54	215.02	17.31	
2025-01-14 12:34:50.75	215.06	17.33	
2025-01-14 12:34:50.95	215.09	17.35	
2025-01-14 12:34:51.16	215.13	17.37	
2025-01-14 12:34:51.36	215.17	17.39	
2025-01-14 12:34:51.56	215.20	17.41	
2025-01-14 12:34:51.77	215.24	17.43	
2025-01-14 12:34:51.98	215.28	17.45	
2025-01-14 12:34:52.18	215.31	17.47	
2025-01-14 12:34:52.39	215.35	17.49	
2025-01-14 12:34:52.59	215.38	17.51	
2025-01-14 12:34:52.80	215.42	17.53	
2025-01-14 12:34:53.00	215.46	17.55	
2025-01-14 12:34:53.21	215.49	17.57	
2025-01-14 12:34:53.41	215.53	17.59	
2025-01-14 12:34:53.62	215.57	17.61	
2025-01-14 12:34:53.83	215.60	17.64	
2025-01-14 12:34:54.03	215.64	17.65	
2025-01-14 12:34:54.24	215.68	17.68	
2025-01-14 12:34:54.44	215.71	17.70	
2025-01-14 12:34:54.64	215.75	17.72	
2025-01-14 12:34:54.85	215.79	17.74	
2025-01-14 12:34:55.06	215.82	17.76	
2025-01-14 12:34:55.26	215.86	17.78	
2025-01-14 12:34:55.47	215.90	17.80	
2025-01-14 12:34:55.67	215.93	17.82	
2025-01-14 12:34:55.87	215.97	17.84	
2025-01-14 12:34:56.08	216.01	17.86	
2025-01-14 12:34:56.29	216.05	17.88	
2025-01-14 12:34:56.49	216.08	17.90	
2025-01-14 12:34:56.70	216.12	17.92	
2025-01-14 12:34:56.90	216.16	17.94	
2025-01-14 12:34:57.11	216.20	17.96	
2025-01-14 12:34:57.31	216.23	17.98	
2025-01-14 12:34:57.52	216.27	18.00	
2025-01-14 12:34:57.72	216.31	18.02	
2025-01-14 12:34:57.93	216.35	18.04	
2025-01-14 12:34:58.13	216.38	18.06	
2025-01-14 12:34:58.34	216.42	18.08	
2025-01-14 12:34:58.55	216.46	18.11	
2025-01-14 12:34:58.77	216.50	18.13	
2025-01-14 12:34:58.97	216.54	18.15	
2025-01-14 12:34:59.18	216.58	18.17	
2025-01-14 12:34:59.38	216.61	18.19	
2025-01-14 12:34:59.59	216.65	18.21	
2025-01-14 12:34:59.79	216.69	18.23	
2025-01-14 12:34:59.99	216.73	18.25	
2025-01-14 12:35:00.20	216.76	18.27	
2025-01-14 12:35:00.40	216.80	18.29	
2025-01-14 12:35:00.61	216.84	18.31	
2025-01-14 12:35:00.81	216.88	18.33	
2025-01-14 12:35:01.02	216.92	18.35	
2025-01-14 12:35:01.23	216.96	18.37	
2025-01-14 12:35:01.43	216.99	18.39	
2025-01-14 12:35:01.64	217.03	18.42	
2025-01-14 12:35:01.84	217.07	18.44	
2025-01-14 12:35:02.05	217.11	18.46	
2025-01-14 12:35:02.25	217.15	18.48	
2025-01-14 12:35:02.46	217.19	18.50	
2025-01-14 12:35:02.66	217.23	18.52	
2025-01-14 12:35:02.87	217.27	18.54	
2025-01-14 12:35:03.07	217.30	18.56	
2025-01-14 12:35:03.28	217.34	18.58	
2025-01-14 12:35:03.48	217.38	18.60	
2025-01-14 12:35:03.69	217.42	18.62	
2025-01-14 12:35:03.89	217.46	18.64	
2025-01-14 12:35:04.09	217.50	18.66	
2025-01-14 12:35:04.30	217.54	18.68	
2025-01-14 12:35:04.51	217.58	18.71	
2025-01-14 12:35:04.71	217.62	18.73	
2025-01-14 12:35:04.92	217.66	18.75	
2025-01-14 12:35:05.12	217.70	18.77	
2025-01-14 12:35:05.33	217.74	18.79	
2025-01-14 12:35:05.53	217.78	18.81	
2025-01-14 12:35:05.74	217.82	18.83	
2025-01-14 12:35:05.94	217.86	18.85	
2025-01-14 12:35:06.15	217.90	18.87	
2025-01-14 12:35:06.36	217.94	18.89	
2025-01-14 12:35:06.56	217.98	18.91	
2025-01-14 12:35:06.77	218.02	18.93	
2025-01-14 12:35:06.97	218.06	18.95	
2025-01-14 12:35:07.18	218.10	18.98	
2025-01-14 12:35:07.38	218.14	19.00	
2025-01-14 12:35:07.59	218.18	19.02	
2025-01-14 12:35:07.79	218.22	19.04	
2025-01-14 12:35:08.00	218.26	19.06	
2025-01-14 12:35:08.20	218.30	19.08	
2025-01-14 12:35:08.40	218.34	19.10	
2025-01-14 12:35:08.61	218.38	19.12	
2025-01-14 12:35:08.82	218.42	19.14	
2025-01-14 12:35:09.02	218.46	19.16	
2025-01-14 12:35:09.23	218.50	19.18	
2025-01-14 12:35:09.43	218.54	19.20	
2025-01-14 12:35:09.64	218.58	19.23	
2025-01-14 12:35:09.84	218.62	19.25	
2025-01-14 12:35:10.05	218.66	19.27	
2025-01-14 12:35:10.26	218.70	19.29	
2025-01-14 12:35:10.46	218.74	19.31	
2025-01-14 12:35:10.68	218.79	19.33	
2025-01-14 12:35:10.88	218.83	19.35	
2025-01-14 12:35:11.09	218.87	19.37	
2025-01-14 12:35:11.29	218.91	19.39	
2025-01-14 12:35:11.50	218.95	19.42	
2025-01-14 12:35:11.70	218.99	19.44	
2025-01-14 12:35:11.91	219.04	19.46	
2025-01-14 12:35:12.12	219.08	19.48	
2025-01-14 12:35:12.32	219.12	19.50	
2025-01-14 12:35:12.53	219.16	19.52	
2025-01-14 12:35:12.73	219.20	19.54	
2025-01-14 12:35:12.93	219.24	19.56	
2025-01-14 12:35:13.14	219.28	19.58	
2025-01-14 12:35:13.34	219.33	19.60	
2025-01-14 12:35:13.55	219.37	19.63	
2025-01-14 12:35:13.75	219.41	19.65	
2025-01-14 12:35:13.96	219.45	19.67	
2025-01-14 12:35:14.16	219.49	19.69	
2025-01-14 12:35:14.37	219.54	19.71	
2025-01-14 12:35:14.57	219.58	19.73	
2025-01-14 12:35:14.78	219.62	19.75	
2025-01-14 12:35:14.98	219.66	19.77	
2025-01-14 12:35:15.19	219.70	19.79	
2025-01-14 12:35:15.39	219.75	19.81	
2025-01-14 12:35:15.60	219.79	19.84	
2025-01-14 12:35:15.80	219.83	19.86	
2025-01-14 12:35:16.00	219.87	19.88	
2025-01-14 12:35:16.21	219.92	19.90	
2025-01-14 12:35:16.42	219.96	19.92	
2025-01-14 12:35:16.62	220.00	19.94	
2025-01-14 12:35:16.83	220.05	19.96	
2025-01-14 12:35:17.03	220.09	19.98	
2025-01-14 12:35:17.24	220.13	20.00	
2025-01-14 12:35:17.44	220.17	20.02	
2025-01-14 12:35:17.65	220.22	20.05	
2025-01-14 12:35:17.85	220.26	20.07	
2025-01-14 12:35:18.06	220.30	20.09	
2025-01-14 12:35:18.26	220.35	20.11	
2025-01-14 12:35:18.47	220.39	20.13	
2025-01-14 12:35:18.67	220.43	20.15	
2025-01-14 12:35:18.88	220.48	20.17	
2025-01-14 12:35:19.08	220.52	20.19	
2025-01-14 12:35:19.28	220.56	20.21	
2025-01-14 12:35:19.49	220.61	20.24	
2025-01-14 12:35:19.69	220.65	20.26	
2025-01-14 12:35:19.90	220.69	20.28	
2025-01-14 12:35:20.10	220.74	20.30	
2025-01-14 12:35:20.30	220.78	20.32	
2025-01-14 12:35:20.51	220.82	20.34	
2025-01-14 12:35:20.72	220.87	20.36	
2025-01-14 12:35:20.92	220.91	20.38	
2025-01-14 12:35:21.13	220.96	20.40	
2025-01-14 12:35:21.33	221.00	20.42	
2025-01-14 12:35:21.54	221.04	20.45	
2025-01-14 12:35:21.74	221.09	20.47	
2025-01-14 12:35:21.95	221.13	20.49	
2025-01-14 12:35:22.16	221.18	20.51	
2025-01-14 12:35:22.36	221.22	20.53	
2025-01-14 12:35:22.56	221.27	20.55	
2025-01-14 12:35:22.77	221.31	20.57	
2025-01-14 12:35:22.98	221.36	20.60	
2025-01-14 12:35:23.18	221.40	20.62	
2025-01-14 12:35:23.38	221.44	20.64	
2025-01-14 12:35:23.59	221.49	20.66	
2025-01-14 12:35:23.79	221.53	20.68	
2025-01-14 12:35:24.00	221.58	20.70	
2025-01-14 12:35:24.21	221.63	20.72	
2025-01-14 12:35:24.41	221.67	20.74	
2025-01-14 12:35:24.62	221.72	20.76	
2025-01-14 12:35:24.82	221.76	20.79	
2025-01-14 12:35:25.03	221.81	20.81	
2025-01-14 12:35:25.23	221.85	20.83	
2025-01-14 12:35:25.44	221.90	20.85	
2025-01-14 12:35:25.66	221.95	20.87	
2025-01-14 12:35:25.86	221.99	20.89	
2025-01-14 12:35:26.07	222.04	20.91	
2025-01-14 12:35:26.27	222.08	20.94	
2025-01-14 12:35:26.48	222.13	20.96	
2025-01-14 12:35:26.70	222.18	20.98	
2025-01-14 12:35:26.90	222.22	21.00	
2025-01-14 12:35:27.11	222.27	21.02	
2025-01-14 12:35:27.32	222.32	21.04	
2025-01-14 12:35:27.52	222.36	21.06	
2025-01-14 12:35:27.72	222.41	21.09	
2025-01-14 12:35:27.93	222.45	21.11	
2025-01-14 12:35:28.13	222.50	21.13	
2025-01-14 12:35:28.34	222.55	21.15	
2025-01-14 12:35:28.54	222.59	21.17	
2025-01-14 12:35:28.75	222.64	21.19	
2025-01-14 12:35:28.95	222.68	21.21	
2025-01-14 12:35:29.16	222.73	21.23	
2025-01-14 12:35:29.37	222.78	21.26	
2025-01-14 12:35:29.57	222.82	21.28	
2025-01-14 12:35:29.77	222.87	21.30	
2025-01-14 12:35:29.98	222.92	21.32	
2025-01-14 12:35:30.19	222.97	21.34	
2025-01-14 12:35:30.39	223.01	21.36	
2025-01-14 12:35:30.60	223.06	21.38	
2025-01-14 12:35:30.80	223.11	21.40	
2025-01-14 12:35:31.01	223.15	21.43	
2025-01-14 12:35:31.21	223.20	21.45	
2025-01-14 12:35:31.42	223.25	21.47	
2025-01-14 12:35:31.63	223.30	21.49	
2025-01-14 12:35:31.83	223.34	21.51	
2025-01-14 12:35:32.04	223.39	21.53	
2025-01-14 12:35:32.24	223.44	21.55	
2025-01-14 12:35:32.45	223.49	21.57	
2025-01-14 12:35:32.65	223.53	21.60	
2025-01-14 12:35:32.86	223.58	21.62	
2025-01-14 12:35:33.06	223.63	21.64	
2025-01-14 12:35:33.27	223.68	21.66	
2025-01-14 12:35:33.47	223.73	21.68	
2025-01-14 12:35:33.69	223.78	21.70	
2025-01-14 12:35:33.90	223.83	21.73	
2025-01-14 12:35:34.10	223.87	21.75	
2025-01-14 12:35:34.30	223.92	21.77	
2025-01-14 12:35:34.51	223.97	21.79	
2025-01-14 12:35:34.71	224.02	21.81	
2025-01-14 12:35:34.92	224.07	21.83	
2025-01-14 12:35:35.12	224.11	21.85	
2025-01-14 12:35:35.33	224.16	21.87	
2025-01-14 12:35:35.53	224.21	21.89	
2025-01-14 12:35:35.74	224.26	21.92	
2025-01-14 12:35:35.94	224.31	21.94	
2025-01-14 12:35:36.15	224.36	21.96	
2025-01-14 12:35:36.35	224.41	21.98	
2025-01-14 12:35:36.56	224.46	22.00	
2025-01-14 12:35:36.77	224.51	22.02	
2025-01-14 12:35:36.97	224.55	22.04	
2025-01-14 12:35:37.17	224.60	22.06	
2025-01-14 12:35:37.38	224.65	22.09	
2025-01-14 12:35:37.58	224.70	22.11	
2025-01-14 12:35:37.79	224.75	22.13	
2025-01-14 12:35:37.99	224.80	22.15	
2025-01-14 12:35:38.20	224.85	22.17	
2025-01-14 12:35:38.40	224.90	22.19	
2025-01-14 12:35:38.61	224.95	22.21	
2025-01-14 12:35:38.81	225.00	22.23	
2025-01-14 12:35:39.02	225.05	22.26	
2025-01-14 12:35:39.23	225.10	22.28	
2025-01-14 12:35:39.43	225.15	22.30	
2025-01-14 12:35:39.64	225.20	22.32	
2025-01-14 12:35:39.84	225.25	22.34	
2025-01-14 12:35:40.05	225.30	22.36	
2025-01-14 12:35:40.25	225.35	22.38	
2025-01-14 12:35:40.46	225.40	22.40	
2025-01-14 12:35:40.66	225.45	22.42	
2025-01-14 12:35:40.87	225.50	22.45	
2025-01-14 12:35:41.07	225.55	22.47	
2025-01-14 12:35:41.28	225.60	22.49	
2025-01-14 12:35:41.48	225.65	22.51	
2025-01-14 12:35:41.69	225.70	22.53	
2025-01-14 12:35:41.89	225.75	22.55	
2025-01-14 12:35:42.10	225.81	22.57	
2025-01-14 12:35:42.30	225.86	22.59	
2025-01-14 12:35:42.51	225.91	22.62	
2025-01-14 12:35:42.72	225.96	22.64	
2025-01-14 12:35:42.93	226.01	22.66	
2025-01-14 12:35:43.14	226.06	22.68	
2025-01-14 12:35:43.34	226.11	22.70	
2025-01-14 12:35:43.55	226.17	22.72	
2025-01-14 12:35:43.77	226.22	22.75	
2025-01-14 12:35:43.97	226.27	22.77	
2025-01-14 12:35:44.18	226.33	22.79	
2025-01-14 12:35:44.38	226.38	22.81	
2025-01-14 12:35:44.59	226.43	22.83	
2025-01-14 12:35:44.79	226.48	22.85	
2025-01-14 12:35:45.00	226.53	22.87	
2025-01-14 12:35:45.20	226.58	22.89	
2025-01-14 12:35:45.41	226.64	22.92	
2025-01-14 12:35:45.61	226.69	22.94	
2025-01-14 12:35:45.82	226.74	22.96	
2025-01-14 12:35:46.02	226.79	22.98	
2025-01-14 12:35:46.23	226.84	23.00	
2025-01-14 12:35:46.43	226.90	23.02	
2025-01-14 12:35:46.65	226.95	23.04	
2025-01-14 12:35:46.85	227.00	23.06	
2025-01-14 12:35:47.06	227.06	23.08	
2025-01-14 12:35:47.27	227.11	23.11	
2025-01-14 12:35:47.47	227.16	23.13	
2025-01-14 12:35:47.68	227.22	23.15	
2025-01-14 12:35:47.88	227.27	23.17	
2025-01-14 12:35:48.09	227.32	23.19	
2025-01-14 12:35:48.29	227.37	23.21	
2025-01-14 12:35:48.50	227.43	23.23	
2025-01-14 12:35:48.71	227.48	23.25	
2025-01-14 12:35:48.91	227.54	23.27	
2025-01-14 12:35:49.13	227.59	23.30	
2025-01-14 12:35:49.34	227.65	23.32	
2025-01-14 12:35:49.54	227.70	23.34	
2025-01-14 12:35:49.75	227.75	23.36	
2025-01-14 12:35:49.95	227.81	23.38	
2025-01-14 12:35:50.16	227.86	23.40	
2025-01-14 12:35:50.36	227.91	23.42	
2025-01-14 12:35:50.57	227.97	23.44	
2025-01-14 12:35:50.77	228.02	23.47	
2025-01-14 12:35:50.98	228.08	23.49	
2025-01-14 12:35:51.18	228.13	23.51	
2025-01-14 12:35:51.39	228.19	23.53	
2025-01-14 12:35:51.59	228.24	23.55	
2025-01-14 12:35:51.80	228.29	23.57	
2025-01-14 12:35:52.00	228.35	23.59	
2025-01-14 12:35:52.21	228.40	23.61	
2025-01-14 12:35:52.41	228.46	23.63	
2025-01-14 12:35:52.62	228.51	23.65	
2025-01-14 12:35:52.82	228.56	23.67	
2025-01-14 12:35:53.03	228.62	23.70	
2025-01-14 12:35:53.23	228.67	23.72	
2025-01-14 12:35:53.44	228.73	23.74	
2025-01-14 12:35:53.64	228.78	23.76	
2025-01-14 12:35:53.85	228.84	23.78	
2025-01-14 12:35:54.05	228.89	23.80	
2025-01-14 12:35:54.26	228.95	23.82	
2025-01-14 12:35:54.47	229.01	23.84	
2025-01-14 12:35:54.67	229.06	23.86	
2025-01-14 12:35:54.88	229.12	23.88	
2025-01-14 12:35:55.08	229.17	23.90	
2025-01-14 12:35:55.29	229.23	23.93	
2025-01-14 12:35:55.49	229.28	23.95	
2025-01-14 12:35:55.70	229.34	23.97	
2025-01-14 12:35:55.91	229.40	23.99	
2025-01-14 12:35:56.11	229.45	24.01	
2025-01-14 12:35:56.32	229.51	24.03	
2025-01-14 12:35:56.52	229.56	24.05	
2025-01-14 12:35:56.73	229.62	24.07	
2025-01-14 12:35:56.93	229.68	24.09	
2025-01-14 12:35:57.14	229.73	24.11	
2025-01-14 12:35:57.34	229.79	24.13	
2025-01-14 12:35:57.55	229.85	24.15	
2025-01-14 12:35:57.75	229.90	24.17	
2025-01-14 12:35:57.96	229.96	24.20	
2025-01-14 12:35:58.17	230.02	24.22	
2025-01-14 12:35:58.37	230.07	24.24	
2025-01-14 12:35:58.57	230.13	24.26	
2025-01-14 12:35:58.78	230.19	24.28	
2025-01-14 12:35:58.98	230.24	24.30	
2025-01-14 12:35:59.19	230.30	24.32	
2025-01-14 12:35:59.39	230.36	24.34	
2025-01-14 12:35:59.60	230.41	24.36	
2025-01-14 12:35:59.80	230.47	24.38	
2025-01-14 12:36:00.01	230.53	24.40	
2025-01-14 12:36:00.21	230.58	24.42	
2025-01-14 12:36:00.42	230.64	24.44	
2025-01-14 12:36:00.62	230.70	24.46	
2025-01-14 12:36:00.83	230.76	24.48	
2025-01-14 12:36:01.03	230.82	24.50	
2025-01-14 12:36:01.24	230.87	24.52	
2025-01-14 12:36:01.44	230.93	24.54	
2025-01-14 12:36:01.65	230.99	24.57	
2025-01-14 12:36:01.85	231.05	24.59	
2025-01-14 12:36:02.06	231.11	24.61	
2025-01-14 12:36:02.26	231.16	24.63	
2025-01-14 12:36:02.47	231.22	24.65	
2025-01-14 12:36:02.67	231.28	24.67	
2025-01-14 12:36:02.88	231.34	24.69	
2025-01-14 12:36:03.08	231.40	24.71	
2025-01-14 12:36:03.29	231.46	24.73	
2025-01-14 12:36:03.50	231.52	24.75	
2025-01-14 12:36:03.71	231.58	24.77	
2025-01-14 12:36:03.91	231.63	24.79	
2025-01-14 12:36:04.13	231.70	24.81	
2025-01-14 12:36:04.33	231.75	24.83	
2025-01-14 12:36:04.54	231.81	24.85	
2025-01-14 12:36:04.74	231.87	24.87	
2025-01-14 12:36:04.95	231.93	24.89	
2025-01-14 12:36:05.15	231.99	24.91	
2025-01-14 12:36:05.35	232.05	24.93	
2025-01-14 12:36:05.56	232.11	24.95	
2025-01-14 12:36:05.76	232.17	24.97	
2025-01-14 12:36:05.97	232.23	24.99	
2025-01-14 12:36:06.17	232.29	25.01	
2025-01-14 12:36:06.38	232.35	25.03	
2025-01-14 12:36:06.58	232.41	25.05	
2025-01-14 12:36:06.79	232.47	25.07	
2025-01-14 12:36:07.00	232.53	25.10	
2025-01-14 12:36:07.20	232.59	25.11	
2025-01-14 12:36:07.41	232.65	25.14	
2025-01-14 12:36:07.61	232.71	25.16	
2025-01-14 12:36:07.82	232.77	25.18	
2025-01-14 12:36:08.02	232.83	25.20	
2025-01-14 12:36:08.22	232.89	25.21	
2025-01-14 12:36:08.43	232.95	25.24	
2025-01-14 12:36:08.63	233.01	25.25	
2025-01-14 12:36:08.84	233.07	25.28	
2025-01-14 12:36:09.05	233.13	25.30	
2025-01-14 12:36:09.25	233.19	25.32	
2025-01-14 12:36:09.46	233.25	25.34	
2025-01-14 12:36:09.66	233.31	25.35	
2025-01-14 12:36:09.87	233.38	25.38	
2025-01-14 12:36:10.07	233.44	25.39	
2025-01-14 12:36:10.28	233.50	25.42	
2025-01-14 12:36:10.49	233.56	25.44	
2025-01-14 12:36:10.69	233.62	25.45	
2025-01-14 12:36:10.90	233.68	25.48	
2025-01-14 12:36:11.10	233.74	25.49	
2025-01-14 12:36:11.31	233.81	25.51	
2025-01-14 12:36:11.51	233.87	25.53	
2025-01-14 12:36:11.72	233.93	25.55	
2025-01-14 12:36:11.92	233.99	25.57	
2025-01-14 12:36:12.13	234.05	25.59	
2025-01-14 12:36:12.33	234.11	25.61	
2025-01-14 12:36:12.54	234.18	25.63	
2025-01-14 12:36:12.75	234.24	25.65	
2025-01-14 12:36:12.95	234.30	25.67	
2025-01-14 12:36:13.16	234.37	25.69	
2025-01-14 12:36:13.36	234.43	25.71	
2025-01-14 12:36:13.57	234.49	25.73	
2025-01-14 12:36:13.77	234.55	25.75	
2025-01-14 12:36:13.98	234.62	25.77	
2025-01-14 12:36:14.18	234.68	25.79	
2025-01-14 12:36:14.39	234.74	25.81	
2025-01-14 12:36:14.59	234.80	25.83	
2025-01-14 12:36:14.80	234.87	25.85	
2025-01-14 12:36:15.00	234.93	25.87	
2025-01-14 12:36:15.21	234.99	25.89	
2025-01-14 12:36:15.41	235.05	25.91	
2025-01-14 12:36:15.62	235.12	25.93	
2025-01-14 12:36:15.82	235.18	25.94	
2025-01-14 12:36:16.03	235.25	25.96	
2025-01-14 12:36:16.23	235.31	25.98	
2025-01-14 12:36:16.44	235.37	26.00	
2025-01-14 12:36:16.64	235.44	26.02	
2025-01-14 12:36:16.85	235.50	26.04	
2025-01-14 12:36:17.06	235.57	26.06	
2025-01-14 12:36:17.26	235.63	26.08	
2025-01-14 12:36:17.47	235.69	26.10	
2025-01-14 12:36:17.67	235.76	26.12	
2025-01-14 12:36:17.88	235.82	26.14	
2025-01-14 12:36:18.08	235.88	26.16	
2025-01-14 12:36:18.29	235.95	26.18	
2025-01-14 12:36:18.49	236.01	26.20	
2025-01-14 12:36:18.70	236.08	26.21	
2025-01-14 12:36:18.90	236.14	26.23	
2025-01-14 12:36:19.11	236.21	26.25	
2025-01-14 12:36:19.31	236.27	26.27	
2025-01-14 12:36:19.52	236.34	26.29	
2025-01-14 12:36:19.73	236.40	26.31	
2025-01-14 12:36:19.93	236.47	26.33	
2025-01-14 12:36:20.13	236.53	26.35	
2025-01-14 12:36:20.34	236.60	26.37	
2025-01-14 12:36:20.55	236.66	26.39	
2025-01-14 12:36:20.75	236.73	26.40	
2025-01-14 12:36:20.96	236.79	26.42	
2025-01-14 12:36:21.16	236.86	26.44	
2025-01-14 12:36:21.37	236.92	26.46	
2025-01-14 12:36:21.58	236.99	26.48	
2025-01-14 12:36:21.78	237.06	26.50	
2025-01-14 12:36:21.99	237.12	26.52	
2025-01-14 12:36:22.19	237.19	26.54	
2025-01-14 12:36:22.40	237.25	26.55	
2025-01-14 12:36:22.60	237.32	26.57	
2025-01-14 12:36:22.81	237.39	26.59	
2025-01-14 12:36:23.01	237.45	26.61	
2025-01-14 12:36:23.22	237.52	26.63	
2025-01-14 12:36:23.42	237.58	26.65	
2025-01-14 12:36:23.63	237.65	26.67	
2025-01-14 12:36:23.83	237.72	26.68	
2025-01-14 12:36:24.04	237.78	26.70	
2025-01-14 12:36:24.24	237.85	26.72	
2025-01-14 12:36:24.45	237.92	26.74	
2025-01-14 12:36:24.65	237.98	26.76	
2025-01-14 12:36:24.86	238.05	26.78	
2025-01-14 12:36:25.06	238.12	26.79	
2025-01-14 12:36:25.26	238.18	26.81	
2025-01-14 12:36:25.47	238.25	26.83	
2025-01-14 12:36:25.67	238.32	26.85	
2025-01-14 12:36:25.88	238.38	26.87	
2025-01-14 12:36:26.09	238.45	26.89	
2025-01-14 12:36:26.29	238.52	26.90	
2025-01-14 12:36:26.50	238.59	26.92	
2025-01-14 12:36:26.70	238.65	26.94	
2025-01-14 12:36:26.91	238.72	26.96	
2025-01-14 12:36:27.11	238.79	26.98	
2025-01-14 12:36:27.32	238.86	26.99	
2025-01-14 12:36:27.52	238.92	27.01	
2025-01-14 12:36:27.73	238.99	27.03	
2025-01-14 12:36:27.93	239.06	27.05	
2025-01-14 12:36:28.14	239.13	27.07	
2025-01-14 12:36:28.34	239.20	27.08	
2025-01-14 12:36:28.55	239.27	27.10	
2025-01-14 12:36:28.75	239.33	27.12	
2025-01-14 12:36:28.96	239.40	27.14	
2025-01-14 12:36:29.16	239.47	27.15	
2025-01-14 12:36:29.37	239.54	27.17	
2025-01-14 12:36:29.58	239.61	27.19	
2025-01-14 12:36:29.78	239.68	27.21	
2025-01-14 12:36:29.99	239.75	27.23	
2025-01-14 12:36:30.19	239.81	27.24	
2025-01-14 12:36:30.40	239.88	27.26	
2025-01-14 12:36:30.60	239.95	27.28	
2025-01-14 12:36:30.82	240.03	27.30	
2025-01-14 12:36:31.03	240.10	27.31	
2025-01-14 12:36:31.23	240.16	27.33	
2025-01-14 12:36:31.44	240.23	27.35	
2025-01-14 12:36:31.64	240.30	27.37	
2025-01-14 12:36:31.85	240.37	27.38	
2025-01-14 12:36:32.05	240.44	27.40	
2025-01-14 12:36:32.26	240.51	27.42	
2025-01-14 12:36:32.48	240.59	27.44	
2025-01-14 12:36:32.68	240.66	27.45	
2025-01-14 12:36:32.89	240.73	27.47	
2025-01-14 12:36:33.09	240.79	27.49	
2025-01-14 12:36:33.29	240.86	27.50	
2025-01-14 12:36:33.50	240.93	27.52	
2025-01-14 12:36:33.71	241.01	27.54	
2025-01-14 12:36:33.91	241.08	27.56	
2025-01-14 12:36:34.12	241.15	27.57	
2025-01-14 12:36:34.32	241.22	27.59	
2025-01-14 12:36:34.53	241.29	27.61	
2025-01-14 12:36:34.73	241.36	27.62	
2025-01-14 12:36:34.94	241.43	27.64	
2025-01-14 12:36:35.14	241.50	27.66	
2025-01-14 12:36:35.35	241.57	27.67	
2025-01-14 12:36:35.55	241.64	27.69	
2025-01-14 12:36:35.76	241.71	27.71	
2025-01-14 12:36:35.97	241.78	27.73	
2025-01-14 12:36:36.17	241.85	27.74	
2025-01-14 12:36:36.38	241.93	27.76	
2025-01-14 12:36:36.58	242.00	27.77	
2025-01-14 12:36:36.79	242.07	27.79	
2025-01-14 12:36:36.99	242.14	27.81	
2025-01-14 12:36:37.20	242.21	27.82	
2025-01-14 12:36:37.40	242.28	27.84	
2025-01-14 12:36:37.61	242.35	27.86	
2025-01-14 12:36:37.81	242.42	27.87	
2025-01-14 12:36:38.02	242.50	27.89	
2025-01-14 12:36:38.22	242.57	27.91	
2025-01-14 12:36:38.42	242.64	27.92	
2025-01-14 12:36:38.63	242.71	27.94	
2025-01-14 12:36:38.84	242.79	27.95	
2025-01-14 12:36:39.04	242.86	27.97	
2025-01-14 12:36:39.25	242.93	27.99	
2025-01-14 12:36:39.45	243.00	28.00	
2025-01-14 12:36:39.66	243.07	28.02	
2025-01-14 12:36:39.86	243.14	28.03	
2025-01-14 12:36:40.07	243.22	28.05	
2025-01-14 12:36:40.27	243.29	28.07	
2025-01-14 12:36:40.48	243.36	28.08	
2025-01-14 12:36:40.68	243.43	28.10	
2025-01-14 12:36:40.89	243.51	28.11	
2025-01-14 12:36:41.09	243.58	28.13	
2025-01-14 12:36:41.30	243.65	28.15	
2025-01-14 12:36:41.50	243.73	28.16	
2025-01-14 12:36:41.71	243.80	28.18	
2025-01-14 12:36:41.91	243.87	28.19	
2025-01-14 12:36:42.12	243.95	28.21	
2025-01-14 12:36:42.32	244.02	28.22	
2025-01-14 12:36:42.53	244.09	28.24	
2025-01-14 12:36:42.73	244.16	28.25	
2025-01-14 12:36:42.94	244.24	28.27	
2025-01-14 12:36:43.14	244.31	28.29	
2025-01-14 12:36:43.35	244.39	28.30	
2025-01-14 12:36:43.55	244.46	28.32	
2025-01-14 12:36:43.76	244.53	28.33	
2025-01-14 12:36:43.96	244.61	28.35	
2025-01-14 12:36:44.17	244.68	28.36	
2025-01-14 12:36:44.37	244.75	28.38	
2025-01-14 12:36:44.58	244.83	28.39	
2025-01-14 12:36:44.78	244.90	28.41	
2025-01-14 12:36:44.99	244.98	28.42	
2025-01-14 12:36:45.19	245.05	28.44	
2025-01-14 12:36:45.40	245.13	28.45	
2025-01-14 12:36:45.60	245.20	28.47	
2025-01-14 12:36:45.81	245.28	28.48	
2025-01-14 12:36:46.02	245.35	28.50	
2025-01-14 12:36:46.22	245.42	28.51	
2025-01-14 12:36:46.43	245.50	28.53	
2025-01-14 12:36:46.63	245.57	28.54	
2025-01-14 12:36:46.84	245.65	28.56	
2025-01-14 12:36:47.05	245.73	28.57	
2025-01-14 12:36:47.26	245.80	28.59	
2025-01-14 12:36:47.46	245.88	28.60	
2025-01-14 12:36:47.67	245.95	28.61	
2025-01-14 12:36:47.87	246.03	28.63	
2025-01-14 12:36:48.08	246.10	28.64	
2025-01-14 12:36:48.28	246.18	28.66	
2025-01-14 12:36:48.49	246.25	28.67	
2025-01-14 12:36:48.69	246.33	28.69	
2025-01-14 12:36:48.90	246.41	28.70	
2025-01-14 12:36:49.11	246.48	28.71	
2025-01-14 12:36:49.31	246.56	28.73	
2025-01-14 12:36:49.52	246.63	28.74	
2025-01-14 12:36:49.72	246.71	28.76	
2025-01-14 12:36:49.93	246.79	28.77	
2025-01-14 12:36:50.13	246.86	28.78	
2025-01-14 12:36:50.34	246.94	28.80	
2025-01-14 12:36:50.55	247.01	28.81	
2025-01-14 12:36:50.75	247.09	28.83	
2025-01-14 12:36:50.96	247.17	28.84	
2025-01-14 12:36:51.16	247.24	28.85	
2025-01-14 12:36:51.37	247.32	28.87	
2025-01-14 12:36:51.57	247.39	28.88	
2025-01-14 12:36:51.78	247.47	28.89	
2025-01-14 12:36:51.98	247.55	28.91	
2025-01-14 12:36:52.19	247.62	28.92	
2025-01-14 12:36:52.39	247.70	28.93	
2025-01-14 12:36:52.60	247.78	28.95	
2025-01-14 12:36:52.80	247.85	28.96	
2025-01-14 12:36:53.01	247.93	28.98	
2025-01-14 12:36:53.21	248.01	28.99	
2025-01-14 12:36:53.42	248.09	29.00	
2025-01-14 12:36:53.62	248.16	29.01	
2025-01-14 12:36:53.83	248.24	29.03	
2025-01-14 12:36:54.04	248.32	29.04	
2025-01-14 12:36:54.24	248.39	29.05	
2025-01-14 12:36:54.44	248.47	29.07	
2025-01-14 12:36:54.65	248.55	29.08	
2025-01-14 12:36:54.86	248.63	29.09	
2025-01-14 12:36:55.06	248.70	29.11	
2025-01-14 12:36:55.27	248.78	29.12	
2025-01-14 12:36:55.47	248.86	29.13	
2025-01-14 12:36:55.68	248.94	29.14	
2025-01-14 12:36:55.88	249.01	29.16	
2025-01-14 12:36:56.09	249.09	29.17	
2025-01-14 12:36:56.29	249.17	29.18	
2025-01-14 12:36:56.50	249.25	29.19	
2025-01-14 12:36:56.71	249.33	29.21	
2025-01-14 12:36:56.91	249.40	29.22	
2025-01-14 12:36:57.12	249.48	29.23	
2025-01-14 12:36:57.32	249.56	29.24	
2025-01-14 12:36:57.52	249.64	29.25	
2025-01-14 12:36:57.73	249.72	29.27	
2025-01-14 12:36:57.94	249.80	29.28	
2025-01-14 12:36:58.14	249.87	29.29	
2025-01-14 12:36:58.35	249.95	29.30	
2025-01-14 12:36:58.55	250.03	29.32	
2025-01-14 12:36:58.76	250.11	29.33	
2025-01-14 12:36:58.96	250.19	29.34	
2025-01-14 12:36:59.17	250.27	29.35	
2025-01-14 12:36:59.38	250.35	29.36	
2025-01-14 12:36:59.58	250.42	29.37	
2025-01-14 12:36:59.79	250.51	29.39	
2025-01-14 12:36:59.99	250.58	29.40	
2025-01-14 12:37:00.20	250.66	29.41	
2025-01-14 12:37:00.40	250.74	29.42	
2025-01-14 12:37:00.60	250.82	29.43	
2025-01-14 12:37:00.81	250.90	29.44	
2025-01-14 12:37:01.01	250.98	29.45	
2025-01-14 12:37:01.22	251.06	29.47	
2025-01-14 12:37:01.43	251.14	29.48	
2025-01-14 12:37:01.63	251.22	29.49	
2025-01-14 12:37:01.84	251.30	29.50	
2025-01-14 12:37:02.04	251.37	29.51	
2025-01-14 12:37:02.25	251.46	29.52	
2025-01-14 12:37:02.46	251.54	29.53	
2025-01-14 12:37:02.66	251.61	29.54	
2025-01-14 12:37:02.87	251.70	29.56	
2025-01-14 12:37:03.07	251.77	29.57	
2025-01-14 12:37:03.28	251.86	29.58	
2025-01-14 12:37:03.48	251.93	29.59	
2025-01-14 12:37:03.69	252.01	29.60	
2025-01-14 12:37:03.89	252.09	29.61	
2025-01-14 12:37:04.10	252.17	29.62	
2025-01-14 12:37:04.30	252.25	29.63	
2025-01-14 12:37:04.51	252.33	29.64	
2025-01-14 12:37:04.72	252.42	29.65	
2025-01-14 12:37:04.92	252.50	29.66	
2025-01-14 12:37:05.12	252.57	29.67	
2025-01-14 12:37:05.33	252.66	29.68	
2025-01-14 12:37:05.54	252.74	29.69	
2025-01-14 12:37:05.74	252.82	29.70	
2025-01-14 12:37:05.95	252.90	29.71	
2025-01-14 12:37:06.15	252.98	29.72	
2025-01-14 12:37:06.36	253.06	29.73	
2025-01-14 12:37:06.57	253.14	29.74	
2025-01-14 12:37:06.77	253.22	29.75	
2025-01-14 12:37:06.98	253.30	29.76	
2025-01-14 12:37:07.19	253.39	29.77	
2025-01-14 12:37:07.40	253.47	29.78	
2025-01-14 12:37:07.61	253.55	29.79	
2025-01-14 12:37:07.81	253.63	29.80	
2025-01-14 12:37:08.02	253.71	29.81	
2025-01-14 12:37:08.22	253.79	29.82	
2025-01-14 12:37:08.43	253.88	29.83	
2025-01-14 12:37:08.63	253.95	29.84	
2025-01-14 12:37:08.84	254.04	29.85	
2025-01-14 12:37:09.04	254.12	29.86	
2025-01-14 12:37:09.24	254.20	29.87	
2025-01-14 12:37:09.45	254.28	29.87	
2025-01-14 12:37:09.65	254.36	29.88	
2025-01-14 12:37:09.86	254.44	29.89	
2025-01-14 12:37:10.07	254.52	29.90	
2025-01-14 12:37:10.27	254.60	29.91	
2025-01-14 12:37:10.48	254.69	29.92	
2025-01-14 12:37:10.68	254.77	29.93	
2025-01-14 12:37:10.89	254.85	29.94	
2025-01-14 12:37:11.09	254.93	29.94	
2025-01-14 12:37:11.30	255.01	29.95	
2025-01-14 12:37:11.50	255.09	29.96	
2025-01-14 12:37:11.71	255.18	29.97	
2025-01-14 12:37:11.91	255.26	29.98	
2025-01-14 12:37:12.12	255.34	29.99	
2025-01-14 12:37:12.32	255.42	30.00	
2025-01-14 12:37:12.53	255.50	30.00	
2025-01-14 12:37:12.74	255.59	30.01	
2025-01-14 12:37:12.94	255.67	30.02	
2025-01-14 12:37:13.15	255.75	30.03	
2025-01-14 12:37:13.36	255.84	30.04	
2025-01-14 12:37:13.56	255.92	30.04	
2025-01-14 12:37:13.76	256.00	30.05	
2025-01-14 12:37:13.97	256.08	30.06	
2025-01-14 12:37:14.17	256.16	30.07	
2025-01-14 12:37:14.38	256.25	30.07	
2025-01-14 12:37:14.58	256.33	30.08	
2025-01-14 12:37:14.79	256.41	30.09	
2025-01-14 12:37:14.99	256.49	30.10	
2025-01-14 12:37:15.20	256.58	30.10	
2025-01-14 12:37:15.40	256.66	30.11	
2025-01-14 12:37:15.61	256.74	30.12	
2025-01-14 12:37:15.81	256.82	30.13	
2025-01-14 12:37:16.02	256.91	30.13	
2025-01-14 12:37:16.22	256.99	30.14	
2025-01-14 12:37:16.43	257.07	30.15	
2025-01-14 12:37:16.64	257.16	30.16	
2025-01-14 12:37:16.84	257.24	30.16	
2025-01-14 12:37:17.05	257.32	30.17	
2025-01-14 12:37:17.25	257.40	30.18	
2025-01-14 12:37:17.46	257.49	30.18	
2025-01-14 12:37:17.66	257.57	30.19	
2025-01-14 12:37:17.87	257.65	30.20	
2025-01-14 12:37:18.07	257.73	30.20	
2025-01-14 12:37:18.28	257.82	30.21	
2025-01-14 12:37:18.48	257.90	30.22	
2025-01-14 12:37:18.69	257.98	30.22	
2025-01-14 12:37:18.90	258.07	30.23	
2025-01-14 12:37:19.10	258.15	30.23	
2025-01-14 12:37:19.31	258.23	30.24	
2025-01-14 12:37:19.52	258.32	30.25	
2025-01-14 12:37:19.72	258.40	30.25	
2025-01-14 12:37:19.93	258.49	30.26	
2025-01-14 12:37:20.13	258.57	30.26	
2025-01-14 12:37:20.34	258.65	30.27	
2025-01-14 12:37:20.54	258.73	30.28	
2025-01-14 12:37:20.75	258.82	30.28	
2025-01-14 12:37:20.97	258.91	30.29	
2025-01-14 12:37:21.17	258.99	30.29	
2025-01-14 12:37:21.38	259.08	30.30	
2025-01-14 12:37:21.59	259.16	30.31	
2025-01-14 12:37:21.79	259.24	30.31	
2025-01-14 12:37:22.00	259.33	30.32	
2025-01-14 12:37:22.20	259.41	30.32	
2025-01-14 12:37:22.41	259.50	30.33	
2025-01-14 12:37:22.61	259.58	30.33	
2025-01-14 12:37:22.82	259.66	30.34	
2025-01-14 12:37:23.02	259.74	30.34	
2025-01-14 12:37:23.23	259.83	30.35	
2025-01-14 12:37:23.43	259.91	30.35	
2025-01-14 12:37:23.64	260.00	30.36	
2025-01-14 12:37:23.84	260.08	30.36	
2025-01-14 12:37:24.05	260.16	30.37	
2025-01-14 12:37:24.25	260.25	30.37	
2025-01-14 12:37:24.46	260.33	30.38	
2025-01-14 12:37:24.66	260.41	30.38	
2025-01-14 12:37:24.87	260.50	30.38	
2025-01-14 12:37:25.07	260.58	30.39	
2025-01-14 12:37:25.28	260.67	30.39	
2025-01-14 12:37:25.48	260.75	30.40	
2025-01-14 12:37:25.69	260.84	30.40	
2025-01-14 12:37:25.89	260.92	30.41	
2025-01-14 12:37:26.10	261.00	30.41	
2025-01-14 12:37:26.30	261.09	30.41	
2025-01-14 12:37:26.51	261.17	30.42	
2025-01-14 12:37:26.71	261.25	30.42	
2025-01-14 12:37:26.92	261.34	30.43	
2025-01-14 12:37:27.12	261.42	30.43	
2025-01-14 12:37:27.33	261.51	30.43	
2025-01-14 12:37:27.53	261.59	30.44	
2025-01-14 12:37:27.74	261.68	30.44	
2025-01-14 12:37:27.95	261.76	30.44	
2025-01-14 12:37:28.15	261.84	30.45	
2025-01-14 12:37:28.36	261.93	30.45	
2025-01-14 12:37:28.56	262.01	30.45	
2025-01-14 12:37:28.77	262.10	30.46	
2025-01-14 12:37:28.97	262.18	30.46	
2025-01-14 12:37:29.18	262.27	30.46	
2025-01-14 12:37:29.39	262.35	30.47	
2025-01-14 12:37:29.59	262.44	30.47	
2025-01-14 12:37:29.79	262.52	30.47	
2025-01-14 12:37:30.00	262.61	30.48	
2025-01-14 12:37:30.21	262.69	30.48	
2025-01-14 12:37:30.41	262.77	30.48	
2025-01-14 12:37:30.62	262.86	30.48	
2025-01-14 12:37:30.82	262.94	30.49	
2025-01-14 12:37:31.02	263.03	30.49	
2025-01-14 12:37:31.23	263.11	30.49	
2025-01-14 12:37:31.43	263.19	30.49	
2025-01-14 12:37:31.65	263.28	30.50	
2025-01-14 12:37:31.86	263.37	30.50	
2025-01-14 12:37:32.06	263.45	30.50	
2025-01-14 12:37:32.27	263.54	30.50	
2025-01-14 12:37:32.47	263.62	30.50	
2025-01-14 12:37:32.68	263.71	30.51	
2025-01-14 12:37:32.88	263.79	30.51	
2025-01-14 12:37:33.09	263.88	30.51	
2025-01-14 12:37:33.29	263.96	30.51	
2025-01-14 12:37:33.50	264.05	30.51	
2025-01-14 12:37:33.70	264.13	30.52	
2025-01-14 12:37:33.91	264.22	30.52	
2025-01-14 12:37:34.12	264.30	30.52	
2025-01-14 12:37:34.32	264.39	30.52	
2025-01-14 12:37:34.53	264.47	30.52	
2025-01-14 12:37:34.73	264.55	30.52	
2025-01-14 12:37:34.94	264.64	30.52	
2025-01-14 12:37:35.14	264.72	30.53	
2025-01-14 12:37:35.35	264.81	30.53	
2025-01-14 12:37:35.55	264.89	30.53	
2025-01-14 12:37:35.76	264.98	30.53	
2025-01-14 12:37:35.96	265.06	30.53	
2025-01-14 12:37:36.17	265.15	30.53	
2025-01-14 12:37:36.38	265.24	30.53	
2025-01-14 12:37:36.58	265.32	30.53	
2025-01-14 12:37:36.79	265.40	30.53	
2025-01-14 12:37:36.99	265.49	30.53	
2025-01-14 12:37:37.20	265.57	30.53	
2025-01-14 12:37:37.40	265.66	30.53	
2025-01-14 12:37:37.61	265.74	30.53	
2025-01-14 12:37:37.82	265.83	30.54	
2025-01-14 12:37:38.02	265.91	30.54	
2025-01-14 12:37:38.23	266.00	30.54	
2025-01-14 12:37:38.43	266.08	30.54	
2025-01-14 12:37:38.64	266.17	30.54	
2025-01-14 12:37:38.84	266.25	30.54	
2025-01-14 12:37:39.05	266.34	30.54	
2025-01-14 12:37:39.25	266.42	30.54	
2025-01-14 12:37:39.46	266.51	30.54	
2025-01-14 12:37:39.66	266.59	30.54	
2025-01-14 12:37:39.87	266.68	30.54	
2025-01-14 12:37:40.07	266.76	30.53	
2025-01-14 12:37:40.29	266.85	30.53	
2025-01-14 12:37:40.49	266.93	30.53	
2025-01-14 12:37:40.70	267.02	30.53	
2025-01-14 12:37:40.90	267.10	30.53	
2025-01-14 12:37:41.11	267.19	30.53	
2025-01-14 12:37:41.31	267.27	30.53	
2025-01-14 12:37:41.52	267.36	30.53	
2025-01-14 12:37:41.72	267.44	30.53	
