passes_logs/2025/01/14/SPB_Silybum_02/SPB_Silybum_02__20250114_183358_TERRA_rec.log

#Pass ID: 20250114_183358_TERRA
#Satellite: TERRA
#Configuration: TERRA
#Start time: 2025-01-14 18:33:57

#Version: 2.0.20230423
#Station: SPB_Silybum_02
#Location: 30.233357 lon 59.946436 lat
#TLE: 1 25994U 99068A   25013.82437757  .00000752  00000+0  16464-3 0  9992
#TLE: 2 25994  98.0218  76.8921 0003482  75.0849  16.5253 14.60392614333908

#Time	Az	El	Level	Level2	SNR	BER	Gain	Gain2
2025-01-14 18:33:59.40	162.67	4.09	
2025-01-14 18:33:59.61	162.67	4.11	
2025-01-14 18:33:59.81	162.67	4.12	
2025-01-14 18:34:00.02	162.67	4.14	
2025-01-14 18:34:00.22	162.67	4.15	
2025-01-14 18:34:00.42	162.67	4.17	
2025-01-14 18:34:00.63	162.68	4.18	
2025-01-14 18:34:00.83	162.68	4.20	
2025-01-14 18:34:01.04	162.68	4.21	
2025-01-14 18:34:01.24	162.68	4.23	
2025-01-14 18:34:01.45	162.68	4.24	
2025-01-14 18:34:01.65	162.68	4.26	
2025-01-14 18:34:01.86	162.68	4.27	
2025-01-14 18:34:02.06	162.68	4.29	
2025-01-14 18:34:02.27	162.69	4.30	
2025-01-14 18:34:02.48	162.69	4.32	
2025-01-14 18:34:02.68	162.69	4.33	
2025-01-14 18:34:02.88	162.69	4.34	
2025-01-14 18:34:03.09	162.69	4.36	
2025-01-14 18:34:03.29	162.69	4.37	
2025-01-14 18:34:03.50	162.69	4.39	
2025-01-14 18:34:03.70	162.70	4.40	
2025-01-14 18:34:03.91	162.70	4.42	
2025-01-14 18:34:04.12	162.70	4.44	
2025-01-14 18:34:04.32	162.70	4.45	
2025-01-14 18:34:04.53	162.70	4.47	
2025-01-14 18:34:04.73	162.70	4.48	
2025-01-14 18:34:04.93	162.70	4.50	
2025-01-14 18:34:05.14	162.70	4.51	
2025-01-14 18:34:05.34	162.71	4.53	
2025-01-14 18:34:05.55	162.71	4.54	
2025-01-14 18:34:05.75	162.71	4.56	
2025-01-14 18:34:05.96	162.71	4.57	
2025-01-14 18:34:06.16	162.71	4.59	
2025-01-14 18:34:06.37	162.71	4.60	
2025-01-14 18:34:06.57	162.71	4.62	
2025-01-14 18:34:06.78	162.72	4.63	
2025-01-14 18:34:07.00	162.72	4.65	
2025-01-14 18:34:07.20	162.72	4.66	
2025-01-14 18:34:07.41	162.72	4.68	
2025-01-14 18:34:07.61	162.72	4.69	
2025-01-14 18:34:07.82	162.72	4.71	
2025-01-14 18:34:08.02	162.72	4.72	
2025-01-14 18:34:08.22	162.72	4.74	
2025-01-14 18:34:08.43	162.73	4.75	
2025-01-14 18:34:08.64	162.73	4.77	
2025-01-14 18:34:08.84	162.73	4.78	
2025-01-14 18:34:09.04	162.73	4.80	
2025-01-14 18:34:09.25	162.73	4.82	
2025-01-14 18:34:09.45	162.73	4.83	
2025-01-14 18:34:09.66	162.73	4.85	
2025-01-14 18:34:09.86	162.74	4.86	
2025-01-14 18:34:10.07	162.74	4.88	
2025-01-14 18:34:10.27	162.74	4.89	
2025-01-14 18:34:10.47	162.74	4.91	
2025-01-14 18:34:10.68	162.74	4.92	
2025-01-14 18:34:10.89	162.74	4.94	
2025-01-14 18:34:11.09	162.74	4.95	
2025-01-14 18:34:11.30	162.75	4.97	
2025-01-14 18:34:11.50	162.75	4.98	
2025-01-14 18:34:11.71	162.75	5.00	
2025-01-14 18:34:11.91	162.75	5.01	
2025-01-14 18:34:12.12	162.75	5.03	
2025-01-14 18:34:12.34	162.75	5.05	
2025-01-14 18:34:12.54	162.75	5.06	
2025-01-14 18:34:12.75	162.76	5.08	
2025-01-14 18:34:12.95	162.76	5.09	
2025-01-14 18:34:13.16	162.76	5.11	
2025-01-14 18:34:13.36	162.76	5.12	
2025-01-14 18:34:13.57	162.76	5.14	
2025-01-14 18:34:13.77	162.76	5.15	
2025-01-14 18:34:13.98	162.76	5.17	
2025-01-14 18:34:14.18	162.76	5.19	
2025-01-14 18:34:14.39	162.77	5.20	
2025-01-14 18:34:14.59	162.77	5.22	
2025-01-14 18:34:14.80	162.77	5.23	
2025-01-14 18:34:15.00	162.77	5.25	
2025-01-14 18:34:15.21	162.77	5.26	
2025-01-14 18:34:15.41	162.77	5.28	
2025-01-14 18:34:15.62	162.77	5.29	
2025-01-14 18:34:15.82	162.78	5.31	
2025-01-14 18:34:16.03	162.78	5.33	
2025-01-14 18:34:16.24	162.78	5.34	
2025-01-14 18:34:16.44	162.78	5.36	
2025-01-14 18:34:16.66	162.78	5.37	
2025-01-14 18:34:16.86	162.78	5.39	
2025-01-14 18:34:17.07	162.78	5.41	
2025-01-14 18:34:17.27	162.79	5.42	
2025-01-14 18:34:17.48	162.79	5.44	
2025-01-14 18:34:17.68	162.79	5.45	
2025-01-14 18:34:17.88	162.79	5.47	
2025-01-14 18:34:18.09	162.79	5.48	
2025-01-14 18:34:18.30	162.79	5.50	
2025-01-14 18:34:18.50	162.79	5.51	
2025-01-14 18:34:18.71	162.80	5.53	
2025-01-14 18:34:18.91	162.80	5.55	
2025-01-14 18:34:19.12	162.80	5.56	
2025-01-14 18:34:19.33	162.80	5.58	
2025-01-14 18:34:19.53	162.80	5.59	
2025-01-14 18:34:19.74	162.80	5.61	
2025-01-14 18:34:19.94	162.80	5.63	
2025-01-14 18:34:20.15	162.81	5.64	
2025-01-14 18:34:20.35	162.81	5.66	
2025-01-14 18:34:20.55	162.81	5.67	
2025-01-14 18:34:20.76	162.81	5.69	
2025-01-14 18:34:20.98	162.81	5.71	
2025-01-14 18:34:21.18	162.81	5.72	
2025-01-14 18:34:21.39	162.81	5.74	
2025-01-14 18:34:21.59	162.82	5.75	
2025-01-14 18:34:21.80	162.82	5.77	
2025-01-14 18:34:22.00	162.82	5.79	
2025-01-14 18:34:22.21	162.82	5.80	
2025-01-14 18:34:22.41	162.82	5.82	
2025-01-14 18:34:22.62	162.82	5.83	
2025-01-14 18:34:22.82	162.82	5.85	
2025-01-14 18:34:23.02	162.83	5.86	
2025-01-14 18:34:23.23	162.83	5.88	
2025-01-14 18:34:23.44	162.83	5.90	
2025-01-14 18:34:23.64	162.83	5.91	
2025-01-14 18:34:23.85	162.83	5.93	
2025-01-14 18:34:24.05	162.83	5.94	
2025-01-14 18:34:24.25	162.83	5.96	
2025-01-14 18:34:24.46	162.84	5.98	
2025-01-14 18:34:24.67	162.84	5.99	
2025-01-14 18:34:24.87	162.84	6.01	
2025-01-14 18:34:25.08	162.84	6.03	
2025-01-14 18:34:25.28	162.84	6.04	
2025-01-14 18:34:25.49	162.84	6.06	
2025-01-14 18:34:25.69	162.84	6.07	
2025-01-14 18:34:25.90	162.85	6.09	
2025-01-14 18:34:26.11	162.85	6.11	
2025-01-14 18:34:26.31	162.85	6.12	
2025-01-14 18:34:26.52	162.85	6.14	
2025-01-14 18:34:26.72	162.85	6.15	
2025-01-14 18:34:26.93	162.85	6.17	
2025-01-14 18:34:27.13	162.85	6.19	
2025-01-14 18:34:27.34	162.86	6.20	
2025-01-14 18:34:27.54	162.86	6.22	
2025-01-14 18:34:27.75	162.86	6.24	
2025-01-14 18:34:27.95	162.86	6.25	
2025-01-14 18:34:28.16	162.86	6.27	
2025-01-14 18:34:28.36	162.86	6.28	
2025-01-14 18:34:28.57	162.86	6.30	
2025-01-14 18:34:28.77	162.87	6.32	
2025-01-14 18:34:28.98	162.87	6.33	
2025-01-14 18:34:29.18	162.87	6.35	
2025-01-14 18:34:29.39	162.87	6.37	
2025-01-14 18:34:29.59	162.87	6.38	
2025-01-14 18:34:29.80	162.87	6.40	
2025-01-14 18:34:30.00	162.87	6.41	
2025-01-14 18:34:30.21	162.88	6.43	
2025-01-14 18:34:30.41	162.88	6.45	
2025-01-14 18:34:30.62	162.88	6.46	
2025-01-14 18:34:30.82	162.88	6.48	
2025-01-14 18:34:31.03	162.88	6.50	
2025-01-14 18:34:31.24	162.88	6.51	
2025-01-14 18:34:31.44	162.88	6.53	
2025-01-14 18:34:31.66	162.89	6.55	
2025-01-14 18:34:31.87	162.89	6.56	
2025-01-14 18:34:32.07	162.89	6.58	
2025-01-14 18:34:32.28	162.89	6.60	
2025-01-14 18:34:32.48	162.89	6.61	
2025-01-14 18:34:32.69	162.89	6.63	
2025-01-14 18:34:32.89	162.90	6.65	
2025-01-14 18:34:33.09	162.90	6.66	
2025-01-14 18:34:33.30	162.90	6.68	
2025-01-14 18:34:33.50	162.90	6.70	
2025-01-14 18:34:33.71	162.90	6.71	
2025-01-14 18:34:33.91	162.90	6.73	
2025-01-14 18:34:34.12	162.90	6.75	
2025-01-14 18:34:34.33	162.91	6.76	
2025-01-14 18:34:34.53	162.91	6.78	
2025-01-14 18:34:34.73	162.91	6.80	
2025-01-14 18:34:34.94	162.91	6.81	
2025-01-14 18:34:35.14	162.91	6.83	
2025-01-14 18:34:35.35	162.91	6.85	
2025-01-14 18:34:35.56	162.91	6.86	
2025-01-14 18:34:35.76	162.92	6.88	
2025-01-14 18:34:35.97	162.92	6.90	
2025-01-14 18:34:36.18	162.92	6.91	
2025-01-14 18:34:36.38	162.92	6.93	
2025-01-14 18:34:36.59	162.92	6.95	
2025-01-14 18:34:36.79	162.92	6.96	
2025-01-14 18:34:37.00	162.93	6.98	
2025-01-14 18:34:37.20	162.93	7.00	
2025-01-14 18:34:37.41	162.93	7.01	
2025-01-14 18:34:37.61	162.93	7.03	
2025-01-14 18:34:37.82	162.93	7.05	
2025-01-14 18:34:38.02	162.93	7.06	
2025-01-14 18:34:38.23	162.93	7.08	
2025-01-14 18:34:38.43	162.94	7.10	
2025-01-14 18:34:38.64	162.94	7.11	
2025-01-14 18:34:38.84	162.94	7.13	
2025-01-14 18:34:39.05	162.94	7.15	
2025-01-14 18:34:39.25	162.94	7.16	
2025-01-14 18:34:39.46	162.94	7.18	
2025-01-14 18:34:39.67	162.94	7.20	
2025-01-14 18:34:39.87	162.95	7.22	
2025-01-14 18:34:40.08	162.95	7.23	
2025-01-14 18:34:40.28	162.95	7.25	
2025-01-14 18:34:40.49	162.95	7.27	
2025-01-14 18:34:40.70	162.95	7.28	
2025-01-14 18:34:40.90	162.95	7.30	
2025-01-14 18:34:41.11	162.96	7.32	
2025-01-14 18:34:41.31	162.96	7.34	
2025-01-14 18:34:41.52	162.96	7.35	
2025-01-14 18:34:41.72	162.96	7.37	
2025-01-14 18:34:41.93	162.96	7.39	
2025-01-14 18:34:42.13	162.96	7.40	
2025-01-14 18:34:42.34	162.96	7.42	
2025-01-14 18:34:42.54	162.97	7.44	
2025-01-14 18:34:42.74	162.97	7.45	
2025-01-14 18:34:42.95	162.97	7.47	
2025-01-14 18:34:43.16	162.97	7.49	
2025-01-14 18:34:43.36	162.97	7.51	
2025-01-14 18:34:43.57	162.97	7.52	
2025-01-14 18:34:43.77	162.98	7.54	
2025-01-14 18:34:43.98	162.98	7.56	
2025-01-14 18:34:44.18	162.98	7.57	
2025-01-14 18:34:44.39	162.98	7.59	
2025-01-14 18:34:44.59	162.98	7.61	
2025-01-14 18:34:44.80	162.98	7.63	
2025-01-14 18:34:45.00	162.98	7.64	
2025-01-14 18:34:45.21	162.99	7.66	
2025-01-14 18:34:45.41	162.99	7.68	
2025-01-14 18:34:45.62	162.99	7.70	
2025-01-14 18:34:45.82	162.99	7.71	
2025-01-14 18:34:46.03	162.99	7.73	
2025-01-14 18:34:46.24	162.99	7.75	
2025-01-14 18:34:46.44	163.00	7.77	
2025-01-14 18:34:46.65	163.00	7.78	
2025-01-14 18:34:46.85	163.00	7.80	
2025-01-14 18:34:47.06	163.00	7.82	
2025-01-14 18:34:47.26	163.00	7.83	
2025-01-14 18:34:47.47	163.00	7.85	
2025-01-14 18:34:47.67	163.00	7.87	
2025-01-14 18:34:47.88	163.01	7.89	
2025-01-14 18:34:48.08	163.01	7.90	
2025-01-14 18:34:48.29	163.01	7.92	
2025-01-14 18:34:48.49	163.01	7.94	
2025-01-14 18:34:48.70	163.01	7.96	
2025-01-14 18:34:48.90	163.01	7.97	
2025-01-14 18:34:49.11	163.02	7.99	
2025-01-14 18:34:49.32	163.02	8.01	
2025-01-14 18:34:49.52	163.02	8.03	
2025-01-14 18:34:49.73	163.02	8.05	
2025-01-14 18:34:49.93	163.02	8.06	
2025-01-14 18:34:50.14	163.02	8.08	
2025-01-14 18:34:50.34	163.03	8.10	
2025-01-14 18:34:50.55	163.03	8.12	
2025-01-14 18:34:50.75	163.03	8.13	
2025-01-14 18:34:50.96	163.03	8.15	
2025-01-14 18:34:51.16	163.03	8.17	
2025-01-14 18:34:51.37	163.03	8.19	
2025-01-14 18:34:51.57	163.03	8.20	
2025-01-14 18:34:51.78	163.04	8.22	
2025-01-14 18:34:51.98	163.04	8.24	
2025-01-14 18:34:52.19	163.04	8.26	
2025-01-14 18:34:52.39	163.04	8.27	
2025-01-14 18:34:52.60	163.04	8.29	
2025-01-14 18:34:52.80	163.04	8.31	
2025-01-14 18:34:53.01	163.05	8.33	
2025-01-14 18:34:53.21	163.05	8.35	
2025-01-14 18:34:53.42	163.05	8.36	
2025-01-14 18:34:53.63	163.05	8.38	
2025-01-14 18:34:53.83	163.05	8.40	
2025-01-14 18:34:54.03	163.05	8.42	
2025-01-14 18:34:54.24	163.06	8.44	
2025-01-14 18:34:54.45	163.06	8.45	
2025-01-14 18:34:54.65	163.06	8.47	
2025-01-14 18:34:54.86	163.06	8.49	
2025-01-14 18:34:55.06	163.06	8.51	
2025-01-14 18:34:55.27	163.06	8.53	
2025-01-14 18:34:55.48	163.06	8.54	
2025-01-14 18:34:55.68	163.07	8.56	
2025-01-14 18:34:55.89	163.07	8.58	
2025-01-14 18:34:56.09	163.07	8.60	
2025-01-14 18:34:56.29	163.07	8.61	
2025-01-14 18:34:56.50	163.07	8.63	
2025-01-14 18:34:56.71	163.07	8.65	
2025-01-14 18:34:56.91	163.08	8.67	
2025-01-14 18:34:57.11	163.08	8.69	
2025-01-14 18:34:57.32	163.08	8.71	
2025-01-14 18:34:57.52	163.08	8.72	
2025-01-14 18:34:57.73	163.08	8.74	
2025-01-14 18:34:57.93	163.08	8.76	
2025-01-14 18:34:58.14	163.09	8.78	
2025-01-14 18:34:58.34	163.09	8.80	
2025-01-14 18:34:58.55	163.09	8.81	
2025-01-14 18:34:58.75	163.09	8.83	
2025-01-14 18:34:58.96	163.09	8.85	
2025-01-14 18:34:59.16	163.09	8.87	
2025-01-14 18:34:59.37	163.10	8.89	
2025-01-14 18:34:59.57	163.10	8.90	
2025-01-14 18:34:59.77	163.10	8.92	
2025-01-14 18:34:59.98	163.10	8.94	
2025-01-14 18:35:00.18	163.10	8.96	
2025-01-14 18:35:00.40	163.10	8.98	
2025-01-14 18:35:00.61	163.11	9.00	
2025-01-14 18:35:00.81	163.11	9.02	
2025-01-14 18:35:01.02	163.11	9.03	
2025-01-14 18:35:01.22	163.11	9.05	
2025-01-14 18:35:01.43	163.11	9.07	
2025-01-14 18:35:01.63	163.11	9.09	
2025-01-14 18:35:01.84	163.12	9.11	
2025-01-14 18:35:02.04	163.12	9.13	
2025-01-14 18:35:02.25	163.12	9.14	
2025-01-14 18:35:02.45	163.12	9.16	
2025-01-14 18:35:02.66	163.12	9.18	
2025-01-14 18:35:02.86	163.12	9.20	
2025-01-14 18:35:03.07	163.13	9.22	
2025-01-14 18:35:03.27	163.13	9.24	
2025-01-14 18:35:03.48	163.13	9.26	
2025-01-14 18:35:03.68	163.13	9.27	
2025-01-14 18:35:03.89	163.13	9.29	
2025-01-14 18:35:04.09	163.13	9.31	
2025-01-14 18:35:04.30	163.14	9.33	
2025-01-14 18:35:04.50	163.14	9.35	
2025-01-14 18:35:04.72	163.14	9.37	
2025-01-14 18:35:04.93	163.14	9.39	
2025-01-14 18:35:05.13	163.14	9.40	
2025-01-14 18:35:05.34	163.14	9.42	
2025-01-14 18:35:05.54	163.15	9.44	
2025-01-14 18:35:05.76	163.15	9.46	
2025-01-14 18:35:05.97	163.15	9.48	
2025-01-14 18:35:06.17	163.15	9.50	
2025-01-14 18:35:06.38	163.15	9.52	
2025-01-14 18:35:06.58	163.15	9.54	
2025-01-14 18:35:06.78	163.16	9.56	
2025-01-14 18:35:06.99	163.16	9.57	
2025-01-14 18:35:07.20	163.16	9.59	
2025-01-14 18:35:07.40	163.16	9.61	
2025-01-14 18:35:07.61	163.16	9.63	
2025-01-14 18:35:07.82	163.16	9.65	
2025-01-14 18:35:08.03	163.17	9.67	
2025-01-14 18:35:08.24	163.17	9.69	
2025-01-14 18:35:08.44	163.17	9.71	
2025-01-14 18:35:08.65	163.17	9.73	
2025-01-14 18:35:08.85	163.17	9.75	
2025-01-14 18:35:09.06	163.17	9.77	
2025-01-14 18:35:09.27	163.18	9.78	
2025-01-14 18:35:09.47	163.18	9.80	
2025-01-14 18:35:09.68	163.18	9.82	
2025-01-14 18:35:09.88	163.18	9.84	
2025-01-14 18:35:10.08	163.18	9.86	
2025-01-14 18:35:10.29	163.18	9.88	
2025-01-14 18:35:10.50	163.19	9.90	
2025-01-14 18:35:10.70	163.19	9.92	
2025-01-14 18:35:10.91	163.19	9.94	
2025-01-14 18:35:11.11	163.19	9.96	
2025-01-14 18:35:11.31	163.19	9.97	
2025-01-14 18:35:11.52	163.20	9.99	
2025-01-14 18:35:11.72	163.20	10.01	
2025-01-14 18:35:11.93	163.20	10.03	
2025-01-14 18:35:12.13	163.20	10.05	
2025-01-14 18:35:12.34	163.20	10.07	
2025-01-14 18:35:12.55	163.20	10.09	
2025-01-14 18:35:12.75	163.21	10.11	
2025-01-14 18:35:12.96	163.21	10.13	
2025-01-14 18:35:13.16	163.21	10.15	
2025-01-14 18:35:13.37	163.21	10.17	
2025-01-14 18:35:13.58	163.21	10.19	
2025-01-14 18:35:13.78	163.21	10.21	
2025-01-14 18:35:13.99	163.22	10.23	
2025-01-14 18:35:14.19	163.22	10.24	
2025-01-14 18:35:14.40	163.22	10.26	
2025-01-14 18:35:14.60	163.22	10.28	
2025-01-14 18:35:14.81	163.22	10.30	
2025-01-14 18:35:15.02	163.22	10.32	
2025-01-14 18:35:15.22	163.23	10.34	
2025-01-14 18:35:15.43	163.23	10.36	
2025-01-14 18:35:15.63	163.23	10.38	
2025-01-14 18:35:15.84	163.23	10.40	
2025-01-14 18:35:16.04	163.23	10.42	
2025-01-14 18:35:16.25	163.24	10.44	
2025-01-14 18:35:16.45	163.24	10.46	
2025-01-14 18:35:16.66	163.24	10.48	
2025-01-14 18:35:16.86	163.24	10.50	
2025-01-14 18:35:17.07	163.24	10.52	
2025-01-14 18:35:17.28	163.24	10.54	
2025-01-14 18:35:17.48	163.25	10.56	
2025-01-14 18:35:17.68	163.25	10.58	
2025-01-14 18:35:17.89	163.25	10.60	
2025-01-14 18:35:18.10	163.25	10.62	
2025-01-14 18:35:18.30	163.25	10.64	
2025-01-14 18:35:18.50	163.25	10.66	
2025-01-14 18:35:18.71	163.26	10.68	
2025-01-14 18:35:18.91	163.26	10.70	
2025-01-14 18:35:19.12	163.26	10.72	
2025-01-14 18:35:19.33	163.26	10.74	
2025-01-14 18:35:19.53	163.26	10.76	
2025-01-14 18:35:19.74	163.27	10.78	
2025-01-14 18:35:19.94	163.27	10.80	
2025-01-14 18:35:20.15	163.27	10.82	
2025-01-14 18:35:20.35	163.27	10.83	
2025-01-14 18:35:20.56	163.27	10.86	
2025-01-14 18:35:20.77	163.27	10.88	
2025-01-14 18:35:20.97	163.28	10.90	
2025-01-14 18:35:21.18	163.28	10.92	
2025-01-14 18:35:21.38	163.28	10.94	
2025-01-14 18:35:21.58	163.28	10.95	
2025-01-14 18:35:21.79	163.28	10.98	
2025-01-14 18:35:21.99	163.29	10.99	
2025-01-14 18:35:22.20	163.29	11.02	
2025-01-14 18:35:22.41	163.29	11.04	
2025-01-14 18:35:22.61	163.29	11.06	
2025-01-14 18:35:22.81	163.29	11.07	
2025-01-14 18:35:23.02	163.29	11.10	
2025-01-14 18:35:23.23	163.30	11.12	
2025-01-14 18:35:23.43	163.30	11.14	
2025-01-14 18:35:23.64	163.30	11.16	
2025-01-14 18:35:23.84	163.30	11.18	
2025-01-14 18:35:24.05	163.30	11.20	
2025-01-14 18:35:24.26	163.31	11.22	
2025-01-14 18:35:24.46	163.31	11.24	
2025-01-14 18:35:24.67	163.31	11.26	
2025-01-14 18:35:24.87	163.31	11.28	
2025-01-14 18:35:25.07	163.31	11.30	
2025-01-14 18:35:25.28	163.31	11.32	
2025-01-14 18:35:25.49	163.32	11.34	
2025-01-14 18:35:25.69	163.32	11.36	
2025-01-14 18:35:25.90	163.32	11.38	
2025-01-14 18:35:26.12	163.32	11.40	
2025-01-14 18:35:26.32	163.32	11.42	
2025-01-14 18:35:26.53	163.33	11.44	
2025-01-14 18:35:26.73	163.33	11.46	
2025-01-14 18:35:26.94	163.33	11.48	
2025-01-14 18:35:27.14	163.33	11.50	
2025-01-14 18:35:27.35	163.33	11.52	
2025-01-14 18:35:27.55	163.33	11.54	
2025-01-14 18:35:27.76	163.34	11.57	
2025-01-14 18:35:27.96	163.34	11.59	
2025-01-14 18:35:28.17	163.34	11.61	
2025-01-14 18:35:28.37	163.34	11.63	
2025-01-14 18:35:28.58	163.34	11.65	
2025-01-14 18:35:28.78	163.35	11.67	
2025-01-14 18:35:28.99	163.35	11.69	
2025-01-14 18:35:29.19	163.35	11.71	
2025-01-14 18:35:29.40	163.35	11.73	
2025-01-14 18:35:29.60	163.35	11.75	
2025-01-14 18:35:29.81	163.36	11.77	
2025-01-14 18:35:30.01	163.36	11.79	
2025-01-14 18:35:30.22	163.36	11.81	
2025-01-14 18:35:30.42	163.36	11.83	
2025-01-14 18:35:30.63	163.36	11.86	
2025-01-14 18:35:30.83	163.36	11.88	
2025-01-14 18:35:31.04	163.37	11.90	
2025-01-14 18:35:31.25	163.37	11.92	
2025-01-14 18:35:31.45	163.37	11.94	
2025-01-14 18:35:31.66	163.37	11.96	
2025-01-14 18:35:31.87	163.37	11.98	
2025-01-14 18:35:32.07	163.38	12.00	
2025-01-14 18:35:32.28	163.38	12.02	
2025-01-14 18:35:32.49	163.38	12.05	
2025-01-14 18:35:32.70	163.38	12.07	
2025-01-14 18:35:32.91	163.38	12.09	
2025-01-14 18:35:33.11	163.39	12.11	
2025-01-14 18:35:33.32	163.39	12.13	
2025-01-14 18:35:33.52	163.39	12.15	
2025-01-14 18:35:33.73	163.39	12.17	
2025-01-14 18:35:33.93	163.39	12.19	
2025-01-14 18:35:34.14	163.40	12.22	
2025-01-14 18:35:34.34	163.40	12.24	
2025-01-14 18:35:34.54	163.40	12.26	
2025-01-14 18:35:34.75	163.40	12.28	
2025-01-14 18:35:34.95	163.40	12.30	
2025-01-14 18:35:35.16	163.40	12.32	
2025-01-14 18:35:35.37	163.41	12.34	
2025-01-14 18:35:35.57	163.41	12.36	
2025-01-14 18:35:35.78	163.41	12.39	
2025-01-14 18:35:35.98	163.41	12.41	
2025-01-14 18:35:36.19	163.41	12.43	
2025-01-14 18:35:36.39	163.42	12.45	
2025-01-14 18:35:36.60	163.42	12.47	
2025-01-14 18:35:36.80	163.42	12.49	
2025-01-14 18:35:37.01	163.42	12.51	
2025-01-14 18:35:37.21	163.42	12.54	
2025-01-14 18:35:37.41	163.43	12.56	
2025-01-14 18:35:37.62	163.43	12.58	
2025-01-14 18:35:37.82	163.43	12.60	
2025-01-14 18:35:38.03	163.43	12.62	
2025-01-14 18:35:38.23	163.43	12.64	
2025-01-14 18:35:38.44	163.44	12.66	
2025-01-14 18:35:38.64	163.44	12.69	
2025-01-14 18:35:38.85	163.44	12.71	
2025-01-14 18:35:39.05	163.44	12.73	
2025-01-14 18:35:39.26	163.44	12.75	
2025-01-14 18:35:39.47	163.45	12.77	
2025-01-14 18:35:39.67	163.45	12.79	
2025-01-14 18:35:39.87	163.45	12.82	
2025-01-14 18:35:40.08	163.45	12.84	
2025-01-14 18:35:40.28	163.45	12.86	
2025-01-14 18:35:40.49	163.46	12.88	
2025-01-14 18:35:40.70	163.46	12.90	
2025-01-14 18:35:40.90	163.46	12.93	
2025-01-14 18:35:41.11	163.46	12.95	
2025-01-14 18:35:41.31	163.46	12.97	
2025-01-14 18:35:41.52	163.47	12.99	
2025-01-14 18:35:41.72	163.47	13.01	
2025-01-14 18:35:41.93	163.47	13.04	
2025-01-14 18:35:42.14	163.47	13.06	
2025-01-14 18:35:42.35	163.47	13.08	
2025-01-14 18:35:42.56	163.48	13.10	
2025-01-14 18:35:42.76	163.48	13.12	
2025-01-14 18:35:42.96	163.48	13.15	
2025-01-14 18:35:43.17	163.48	13.17	
2025-01-14 18:35:43.37	163.48	13.19	
2025-01-14 18:35:43.58	163.49	13.21	
2025-01-14 18:35:43.78	163.49	13.23	
2025-01-14 18:35:43.99	163.49	13.26	
2025-01-14 18:35:44.19	163.49	13.28	
2025-01-14 18:35:44.40	163.49	13.30	
2025-01-14 18:35:44.60	163.50	13.32	
2025-01-14 18:35:44.81	163.50	13.35	
2025-01-14 18:35:45.01	163.50	13.37	
2025-01-14 18:35:45.22	163.50	13.39	
2025-01-14 18:35:45.42	163.50	13.41	
2025-01-14 18:35:45.63	163.51	13.44	
2025-01-14 18:35:45.83	163.51	13.46	
2025-01-14 18:35:46.03	163.51	13.48	
2025-01-14 18:35:46.24	163.51	13.50	
2025-01-14 18:35:46.44	163.51	13.52	
2025-01-14 18:35:46.65	163.52	13.55	
2025-01-14 18:35:46.85	163.52	13.57	
2025-01-14 18:35:47.06	163.52	13.59	
2025-01-14 18:35:47.26	163.52	13.61	
2025-01-14 18:35:47.48	163.52	13.64	
2025-01-14 18:35:47.68	163.53	13.66	
2025-01-14 18:35:47.89	163.53	13.68	
2025-01-14 18:35:48.10	163.53	13.71	
2025-01-14 18:35:48.30	163.53	13.73	
2025-01-14 18:35:48.51	163.53	13.75	
2025-01-14 18:35:48.71	163.54	13.78	
2025-01-14 18:35:48.92	163.54	13.80	
2025-01-14 18:35:49.12	163.54	13.82	
2025-01-14 18:35:49.33	163.54	13.84	
2025-01-14 18:35:49.53	163.54	13.87	
2025-01-14 18:35:49.74	163.55	13.89	
2025-01-14 18:35:49.94	163.55	13.91	
2025-01-14 18:35:50.15	163.55	13.94	
2025-01-14 18:35:50.36	163.55	13.96	
2025-01-14 18:35:50.56	163.56	13.98	
2025-01-14 18:35:50.77	163.56	14.00	
2025-01-14 18:35:50.97	163.56	14.03	
2025-01-14 18:35:51.18	163.56	14.05	
2025-01-14 18:35:51.38	163.56	14.07	
2025-01-14 18:35:51.59	163.57	14.10	
2025-01-14 18:35:51.79	163.57	14.12	
2025-01-14 18:35:52.00	163.57	14.14	
2025-01-14 18:35:52.20	163.57	14.17	
2025-01-14 18:35:52.41	163.57	14.19	
2025-01-14 18:35:52.62	163.58	14.21	
2025-01-14 18:35:52.82	163.58	14.24	
2025-01-14 18:35:53.03	163.58	14.26	
2025-01-14 18:35:53.23	163.58	14.28	
2025-01-14 18:35:53.44	163.58	14.31	
2025-01-14 18:35:53.64	163.59	14.33	
2025-01-14 18:35:53.85	163.59	14.35	
2025-01-14 18:35:54.05	163.59	14.38	
2025-01-14 18:35:54.26	163.59	14.40	
2025-01-14 18:35:54.46	163.60	14.42	
2025-01-14 18:35:54.67	163.60	14.45	
2025-01-14 18:35:54.87	163.60	14.47	
2025-01-14 18:35:55.08	163.60	14.49	
2025-01-14 18:35:55.28	163.60	14.52	
2025-01-14 18:35:55.49	163.61	14.54	
2025-01-14 18:35:55.69	163.61	14.56	
2025-01-14 18:35:55.90	163.61	14.59	
2025-01-14 18:35:56.10	163.61	14.61	
2025-01-14 18:35:56.31	163.61	14.63	
2025-01-14 18:35:56.52	163.62	14.66	
2025-01-14 18:35:56.72	163.62	14.68	
2025-01-14 18:35:56.93	163.62	14.71	
2025-01-14 18:35:57.14	163.62	14.73	
2025-01-14 18:35:57.35	163.63	14.75	
2025-01-14 18:35:57.55	163.63	14.78	
2025-01-14 18:35:57.76	163.63	14.80	
2025-01-14 18:35:57.97	163.63	14.83	
2025-01-14 18:35:58.17	163.63	14.85	
2025-01-14 18:35:58.37	163.64	14.87	
2025-01-14 18:35:58.58	163.64	14.90	
2025-01-14 18:35:58.78	163.64	14.92	
2025-01-14 18:35:58.99	163.64	14.95	
2025-01-14 18:35:59.19	163.65	14.97	
2025-01-14 18:35:59.40	163.65	14.99	
2025-01-14 18:35:59.60	163.65	15.02	
2025-01-14 18:35:59.81	163.65	15.04	
2025-01-14 18:36:00.01	163.65	15.07	
2025-01-14 18:36:00.23	163.66	15.09	
2025-01-14 18:36:00.43	163.66	15.12	
2025-01-14 18:36:00.64	163.66	15.14	
2025-01-14 18:36:00.84	163.66	15.16	
2025-01-14 18:36:01.04	163.67	15.19	
2025-01-14 18:36:01.25	163.67	15.21	
2025-01-14 18:36:01.45	163.67	15.24	
2025-01-14 18:36:01.66	163.67	15.26	
2025-01-14 18:36:01.86	163.67	15.28	
2025-01-14 18:36:02.07	163.68	15.31	
2025-01-14 18:36:02.27	163.68	15.33	
2025-01-14 18:36:02.49	163.68	15.36	
2025-01-14 18:36:02.70	163.68	15.38	
2025-01-14 18:36:02.90	163.69	15.41	
2025-01-14 18:36:03.11	163.69	15.43	
2025-01-14 18:36:03.31	163.69	15.46	
2025-01-14 18:36:03.52	163.69	15.48	
2025-01-14 18:36:03.72	163.69	15.51	
2025-01-14 18:36:03.92	163.70	15.53	
2025-01-14 18:36:04.13	163.70	15.56	
2025-01-14 18:36:04.33	163.70	15.58	
2025-01-14 18:36:04.54	163.70	15.61	
2025-01-14 18:36:04.74	163.71	15.63	
2025-01-14 18:36:04.95	163.71	15.65	
2025-01-14 18:36:05.16	163.71	15.68	
2025-01-14 18:36:05.36	163.71	15.70	
2025-01-14 18:36:05.57	163.72	15.73	
2025-01-14 18:36:05.77	163.72	15.75	
2025-01-14 18:36:05.98	163.72	15.78	
2025-01-14 18:36:06.18	163.72	15.80	
2025-01-14 18:36:06.39	163.72	15.83	
2025-01-14 18:36:06.59	163.73	15.85	
2025-01-14 18:36:06.81	163.73	15.88	
2025-01-14 18:36:07.02	163.73	15.91	
2025-01-14 18:36:07.22	163.73	15.93	
2025-01-14 18:36:07.43	163.74	15.96	
2025-01-14 18:36:07.63	163.74	15.98	
2025-01-14 18:36:07.84	163.74	16.01	
2025-01-14 18:36:08.04	163.74	16.03	
2025-01-14 18:36:08.24	163.75	16.06	
2025-01-14 18:36:08.45	163.75	16.08	
2025-01-14 18:36:08.66	163.75	16.11	
2025-01-14 18:36:08.86	163.75	16.13	
2025-01-14 18:36:09.07	163.75	16.16	
2025-01-14 18:36:09.27	163.76	16.18	
2025-01-14 18:36:09.48	163.76	16.21	
2025-01-14 18:36:09.68	163.76	16.23	
2025-01-14 18:36:09.89	163.76	16.26	
2025-01-14 18:36:10.09	163.77	16.28	
2025-01-14 18:36:10.30	163.77	16.31	
2025-01-14 18:36:10.51	163.77	16.34	
2025-01-14 18:36:10.71	163.77	16.36	
2025-01-14 18:36:10.91	163.78	16.39	
2025-01-14 18:36:11.12	163.78	16.41	
2025-01-14 18:36:11.32	163.78	16.44	
2025-01-14 18:36:11.53	163.78	16.46	
2025-01-14 18:36:11.74	163.79	16.49	
2025-01-14 18:36:11.94	163.79	16.52	
2025-01-14 18:36:12.15	163.79	16.54	
2025-01-14 18:36:12.35	163.79	16.57	
2025-01-14 18:36:12.56	163.79	16.59	
2025-01-14 18:36:12.76	163.80	16.62	
2025-01-14 18:36:12.97	163.80	16.65	
2025-01-14 18:36:13.17	163.80	16.67	
2025-01-14 18:36:13.38	163.80	16.70	
2025-01-14 18:36:13.58	163.81	16.72	
2025-01-14 18:36:13.79	163.81	16.75	
2025-01-14 18:36:13.99	163.81	16.77	
2025-01-14 18:36:14.20	163.81	16.80	
2025-01-14 18:36:14.40	163.82	16.83	
2025-01-14 18:36:14.60	163.82	16.85	
2025-01-14 18:36:14.81	163.82	16.88	
2025-01-14 18:36:15.02	163.82	16.91	
2025-01-14 18:36:15.22	163.83	16.93	
2025-01-14 18:36:15.42	163.83	16.96	
2025-01-14 18:36:15.63	163.83	16.98	
2025-01-14 18:36:15.84	163.83	17.01	
2025-01-14 18:36:16.04	163.84	17.04	
2025-01-14 18:36:16.25	163.84	17.06	
2025-01-14 18:36:16.45	163.84	17.09	
2025-01-14 18:36:16.66	163.84	17.12	
2025-01-14 18:36:16.86	163.85	17.14	
2025-01-14 18:36:17.07	163.85	17.17	
2025-01-14 18:36:17.27	163.85	17.20	
2025-01-14 18:36:17.48	163.85	17.22	
2025-01-14 18:36:17.68	163.86	17.25	
2025-01-14 18:36:17.89	163.86	17.28	
2025-01-14 18:36:18.09	163.86	17.30	
2025-01-14 18:36:18.30	163.86	17.33	
2025-01-14 18:36:18.52	163.87	17.36	
2025-01-14 18:36:18.72	163.87	17.38	
2025-01-14 18:36:18.93	163.87	17.41	
2025-01-14 18:36:19.13	163.87	17.44	
2025-01-14 18:36:19.34	163.88	17.47	
2025-01-14 18:36:19.54	163.88	17.49	
2025-01-14 18:36:19.75	163.88	17.52	
2025-01-14 18:36:19.95	163.88	17.55	
2025-01-14 18:36:20.16	163.89	17.57	
2025-01-14 18:36:20.36	163.89	17.60	
2025-01-14 18:36:20.58	163.89	17.63	
2025-01-14 18:36:20.79	163.89	17.66	
2025-01-14 18:36:20.99	163.90	17.68	
2025-01-14 18:36:21.20	163.90	17.71	
2025-01-14 18:36:21.40	163.90	17.74	
2025-01-14 18:36:21.61	163.90	17.76	
2025-01-14 18:36:21.81	163.91	17.79	
2025-01-14 18:36:22.02	163.91	17.82	
2025-01-14 18:36:22.22	163.91	17.85	
2025-01-14 18:36:22.43	163.91	17.87	
2025-01-14 18:36:22.63	163.92	17.90	
2025-01-14 18:36:22.84	163.92	17.93	
2025-01-14 18:36:23.04	163.92	17.96	
2025-01-14 18:36:23.25	163.92	17.98	
2025-01-14 18:36:23.45	163.93	18.01	
2025-01-14 18:36:23.66	163.93	18.04	
2025-01-14 18:36:23.87	163.93	18.07	
2025-01-14 18:36:24.08	163.93	18.10	
2025-01-14 18:36:24.28	163.94	18.12	
2025-01-14 18:36:24.49	163.94	18.15	
2025-01-14 18:36:24.69	163.94	18.18	
2025-01-14 18:36:24.90	163.94	18.21	
2025-01-14 18:36:25.10	163.95	18.23	
2025-01-14 18:36:25.31	163.95	18.26	
2025-01-14 18:36:25.51	163.95	18.29	
2025-01-14 18:36:25.72	163.95	18.32	
2025-01-14 18:36:25.94	163.96	18.35	
2025-01-14 18:36:26.14	163.96	18.37	
2025-01-14 18:36:26.35	163.96	18.40	
2025-01-14 18:36:26.55	163.97	18.43	
2025-01-14 18:36:26.76	163.97	18.46	
2025-01-14 18:36:26.98	163.97	18.49	
2025-01-14 18:36:27.18	163.97	18.52	
2025-01-14 18:36:27.39	163.98	18.55	
2025-01-14 18:36:27.59	163.98	18.57	
2025-01-14 18:36:27.80	163.98	18.60	
2025-01-14 18:36:28.00	163.98	18.63	
2025-01-14 18:36:28.21	163.99	18.66	
2025-01-14 18:36:28.41	163.99	18.69	
2025-01-14 18:36:28.62	163.99	18.72	
2025-01-14 18:36:28.82	163.99	18.74	
2025-01-14 18:36:29.03	164.00	18.77	
2025-01-14 18:36:29.23	164.00	18.80	
2025-01-14 18:36:29.44	164.00	18.83	
2025-01-14 18:36:29.64	164.01	18.86	
2025-01-14 18:36:29.85	164.01	18.89	
2025-01-14 18:36:30.05	164.01	18.91	
2025-01-14 18:36:30.26	164.01	18.94	
2025-01-14 18:36:30.46	164.02	18.97	
2025-01-14 18:36:30.67	164.02	19.00	
2025-01-14 18:36:30.87	164.02	19.03	
2025-01-14 18:36:31.08	164.02	19.06	
2025-01-14 18:36:31.30	164.03	19.09	
2025-01-14 18:36:31.50	164.03	19.12	
2025-01-14 18:36:31.71	164.03	19.15	
2025-01-14 18:36:31.91	164.03	19.18	
2025-01-14 18:36:32.12	164.04	19.21	
2025-01-14 18:36:32.32	164.04	19.23	
2025-01-14 18:36:32.53	164.04	19.26	
2025-01-14 18:36:32.73	164.05	19.29	
2025-01-14 18:36:32.94	164.05	19.32	
2025-01-14 18:36:33.14	164.05	19.35	
2025-01-14 18:36:33.35	164.05	19.38	
2025-01-14 18:36:33.55	164.06	19.41	
2025-01-14 18:36:33.76	164.06	19.44	
2025-01-14 18:36:33.96	164.06	19.47	
2025-01-14 18:36:34.17	164.07	19.50	
2025-01-14 18:36:34.37	164.07	19.53	
2025-01-14 18:36:34.58	164.07	19.56	
2025-01-14 18:36:34.78	164.07	19.59	
2025-01-14 18:36:34.99	164.08	19.62	
2025-01-14 18:36:35.19	164.08	19.65	
2025-01-14 18:36:35.40	164.08	19.68	
2025-01-14 18:36:35.60	164.08	19.70	
2025-01-14 18:36:35.81	164.09	19.74	
2025-01-14 18:36:36.01	164.09	19.76	
2025-01-14 18:36:36.22	164.09	19.79	
2025-01-14 18:36:36.42	164.10	19.82	
2025-01-14 18:36:36.62	164.10	19.85	
2025-01-14 18:36:36.83	164.10	19.88	
2025-01-14 18:36:37.04	164.10	19.91	
2025-01-14 18:36:37.24	164.11	19.94	
2025-01-14 18:36:37.45	164.11	19.97	
2025-01-14 18:36:37.65	164.11	20.00	
2025-01-14 18:36:37.86	164.12	20.03	
2025-01-14 18:36:38.06	164.12	20.06	
2025-01-14 18:36:38.27	164.12	20.09	
2025-01-14 18:36:38.48	164.12	20.13	
2025-01-14 18:36:38.68	164.13	20.15	
2025-01-14 18:36:38.88	164.13	20.18	
2025-01-14 18:36:39.09	164.13	20.22	
2025-01-14 18:36:39.29	164.14	20.25	
2025-01-14 18:36:39.50	164.14	20.28	
2025-01-14 18:36:39.70	164.14	20.31	
2025-01-14 18:36:39.91	164.14	20.34	
2025-01-14 18:36:40.11	164.15	20.37	
2025-01-14 18:36:40.32	164.15	20.40	
2025-01-14 18:36:40.52	164.15	20.43	
2025-01-14 18:36:40.73	164.16	20.46	
2025-01-14 18:36:40.93	164.16	20.49	
2025-01-14 18:36:41.14	164.16	20.52	
2025-01-14 18:36:41.34	164.16	20.55	
2025-01-14 18:36:41.55	164.17	20.58	
2025-01-14 18:36:41.76	164.17	20.61	
2025-01-14 18:36:41.96	164.17	20.64	
2025-01-14 18:36:42.17	164.18	20.68	
2025-01-14 18:36:42.37	164.18	20.71	
2025-01-14 18:36:42.58	164.18	20.74	
2025-01-14 18:36:42.78	164.19	20.77	
2025-01-14 18:36:43.00	164.19	20.80	
2025-01-14 18:36:43.21	164.19	20.83	
2025-01-14 18:36:43.41	164.19	20.86	
2025-01-14 18:36:43.62	164.20	20.90	
2025-01-14 18:36:43.82	164.20	20.93	
2025-01-14 18:36:44.03	164.20	20.96	
2025-01-14 18:36:44.23	164.21	20.99	
2025-01-14 18:36:44.44	164.21	21.02	
2025-01-14 18:36:44.65	164.21	21.05	
2025-01-14 18:36:44.85	164.22	21.08	
2025-01-14 18:36:45.07	164.22	21.12	
2025-01-14 18:36:45.27	164.22	21.15	
2025-01-14 18:36:45.48	164.23	21.18	
2025-01-14 18:36:45.69	164.23	21.21	
2025-01-14 18:36:45.89	164.23	21.25	
2025-01-14 18:36:46.11	164.23	21.28	
2025-01-14 18:36:46.32	164.24	21.31	
2025-01-14 18:36:46.52	164.24	21.34	
2025-01-14 18:36:46.73	164.24	21.38	
2025-01-14 18:36:46.93	164.25	21.41	
2025-01-14 18:36:47.13	164.25	21.44	
2025-01-14 18:36:47.34	164.25	21.47	
2025-01-14 18:36:47.55	164.26	21.50	
2025-01-14 18:36:47.75	164.26	21.53	
2025-01-14 18:36:47.96	164.26	21.57	
2025-01-14 18:36:48.16	164.27	21.60	
2025-01-14 18:36:48.37	164.27	21.63	
2025-01-14 18:36:48.57	164.27	21.66	
2025-01-14 18:36:48.78	164.27	21.70	
2025-01-14 18:36:48.98	164.28	21.73	
2025-01-14 18:36:49.19	164.28	21.76	
2025-01-14 18:36:49.39	164.28	21.79	
2025-01-14 18:36:49.60	164.29	21.83	
2025-01-14 18:36:49.80	164.29	21.86	
2025-01-14 18:36:50.01	164.29	21.89	
2025-01-14 18:36:50.21	164.30	21.92	
2025-01-14 18:36:50.42	164.30	21.96	
2025-01-14 18:36:50.62	164.30	21.99	
2025-01-14 18:36:50.83	164.31	22.02	
2025-01-14 18:36:51.03	164.31	22.05	
2025-01-14 18:36:51.24	164.31	22.09	
2025-01-14 18:36:51.46	164.32	22.12	
2025-01-14 18:36:51.66	164.32	22.16	
2025-01-14 18:36:51.87	164.32	22.19	
2025-01-14 18:36:52.07	164.33	22.22	
2025-01-14 18:36:52.28	164.33	22.26	
2025-01-14 18:36:52.48	164.33	22.29	
2025-01-14 18:36:52.69	164.33	22.32	
2025-01-14 18:36:52.89	164.34	22.35	
2025-01-14 18:36:53.10	164.34	22.39	
2025-01-14 18:36:53.30	164.34	22.42	
2025-01-14 18:36:53.51	164.35	22.46	
2025-01-14 18:36:53.71	164.35	22.49	
2025-01-14 18:36:53.92	164.35	22.52	
2025-01-14 18:36:54.12	164.36	22.56	
2025-01-14 18:36:54.33	164.36	22.59	
2025-01-14 18:36:54.53	164.36	22.62	
2025-01-14 18:36:54.74	164.37	22.66	
2025-01-14 18:36:54.94	164.37	22.69	
2025-01-14 18:36:55.15	164.37	22.72	
2025-01-14 18:36:55.36	164.38	22.76	
2025-01-14 18:36:55.56	164.38	22.79	
2025-01-14 18:36:55.76	164.38	22.83	
2025-01-14 18:36:55.97	164.39	22.86	
2025-01-14 18:36:56.17	164.39	22.89	
2025-01-14 18:36:56.37	164.39	22.93	
2025-01-14 18:36:56.58	164.40	22.96	
2025-01-14 18:36:56.78	164.40	22.99	
2025-01-14 18:36:56.98	164.40	23.03	
2025-01-14 18:36:57.19	164.41	23.06	
2025-01-14 18:36:57.39	164.41	23.10	
2025-01-14 18:36:57.60	164.41	23.13	
2025-01-14 18:36:57.80	164.42	23.17	
2025-01-14 18:36:58.00	164.42	23.20	
2025-01-14 18:36:58.21	164.42	23.23	
2025-01-14 18:36:58.42	164.43	23.27	
2025-01-14 18:36:58.62	164.43	23.30	
2025-01-14 18:36:58.83	164.43	23.34	
2025-01-14 18:36:59.03	164.44	23.37	
2025-01-14 18:36:59.24	164.44	23.41	
2025-01-14 18:36:59.44	164.44	23.44	
2025-01-14 18:36:59.65	164.45	23.48	
2025-01-14 18:36:59.85	164.45	23.51	
2025-01-14 18:37:00.07	164.45	23.55	
2025-01-14 18:37:00.28	164.46	23.59	
2025-01-14 18:37:00.48	164.46	23.62	
2025-01-14 18:37:00.69	164.46	23.66	
2025-01-14 18:37:00.89	164.47	23.69	
2025-01-14 18:37:01.10	164.47	23.73	
2025-01-14 18:37:01.30	164.48	23.76	
2025-01-14 18:37:01.51	164.48	23.80	
2025-01-14 18:37:01.71	164.48	23.83	
2025-01-14 18:37:01.92	164.49	23.87	
2025-01-14 18:37:02.12	164.49	23.90	
2025-01-14 18:37:02.32	164.49	23.94	
2025-01-14 18:37:02.53	164.50	23.97	
2025-01-14 18:37:02.74	164.50	24.01	
2025-01-14 18:37:02.94	164.50	24.05	
2025-01-14 18:37:03.14	164.51	24.08	
2025-01-14 18:37:03.35	164.51	24.12	
2025-01-14 18:37:03.56	164.51	24.15	
2025-01-14 18:37:03.76	164.52	24.19	
2025-01-14 18:37:03.97	164.52	24.23	
2025-01-14 18:37:04.17	164.52	24.26	
2025-01-14 18:37:04.38	164.53	24.30	
2025-01-14 18:37:04.58	164.53	24.33	
2025-01-14 18:37:04.79	164.54	24.37	
2025-01-14 18:37:05.00	164.54	24.41	
2025-01-14 18:37:05.20	164.54	24.44	
2025-01-14 18:37:05.40	164.55	24.48	
2025-01-14 18:37:05.61	164.55	24.52	
2025-01-14 18:37:05.81	164.55	24.55	
2025-01-14 18:37:06.02	164.56	24.59	
2025-01-14 18:37:06.22	164.56	24.62	
2025-01-14 18:37:06.43	164.56	24.66	
2025-01-14 18:37:06.63	164.57	24.70	
2025-01-14 18:37:06.84	164.57	24.73	
2025-01-14 18:37:07.04	164.58	24.77	
2025-01-14 18:37:07.25	164.58	24.81	
2025-01-14 18:37:07.47	164.58	24.85	
2025-01-14 18:37:07.67	164.59	24.88	
2025-01-14 18:37:07.88	164.59	24.92	
2025-01-14 18:37:08.08	164.59	24.96	
2025-01-14 18:37:08.29	164.60	25.00	
2025-01-14 18:37:08.49	164.60	25.03	
2025-01-14 18:37:08.70	164.61	25.07	
2025-01-14 18:37:08.90	164.61	25.11	
2025-01-14 18:37:09.11	164.61	25.15	
2025-01-14 18:37:09.31	164.62	25.18	
2025-01-14 18:37:09.52	164.62	25.22	
2025-01-14 18:37:09.72	164.62	25.26	
2025-01-14 18:37:09.93	164.63	25.30	
2025-01-14 18:37:10.13	164.63	25.33	
2025-01-14 18:37:10.33	164.63	25.37	
2025-01-14 18:37:10.54	164.64	25.41	
2025-01-14 18:37:10.74	164.64	25.44	
2025-01-14 18:37:10.95	164.65	25.48	
2025-01-14 18:37:11.15	164.65	25.52	
2025-01-14 18:37:11.36	164.65	25.56	
2025-01-14 18:37:11.56	164.66	25.60	
2025-01-14 18:37:11.77	164.66	25.64	
2025-01-14 18:37:11.97	164.67	25.67	
2025-01-14 18:37:12.18	164.67	25.71	
2025-01-14 18:37:12.39	164.67	25.75	
2025-01-14 18:37:12.59	164.68	25.79	
2025-01-14 18:37:12.79	164.68	25.83	
2025-01-14 18:37:13.00	164.68	25.87	
2025-01-14 18:37:13.20	164.69	25.90	
2025-01-14 18:37:13.41	164.69	25.94	
2025-01-14 18:37:13.61	164.70	25.98	
2025-01-14 18:37:13.81	164.70	26.02	
2025-01-14 18:37:14.02	164.70	26.06	
2025-01-14 18:37:14.22	164.71	26.10	
2025-01-14 18:37:14.43	164.71	26.14	
2025-01-14 18:37:14.63	164.72	26.17	
2025-01-14 18:37:14.84	164.72	26.21	
2025-01-14 18:37:15.04	164.72	26.25	
2025-01-14 18:37:15.25	164.73	26.29	
2025-01-14 18:37:15.46	164.73	26.33	
2025-01-14 18:37:15.66	164.74	26.37	
2025-01-14 18:37:15.87	164.74	26.41	
2025-01-14 18:37:16.07	164.74	26.45	
2025-01-14 18:37:16.27	164.75	26.49	
2025-01-14 18:37:16.48	164.75	26.53	
2025-01-14 18:37:16.68	164.76	26.57	
2025-01-14 18:37:16.89	164.76	26.61	
2025-01-14 18:37:17.11	164.76	26.65	
2025-01-14 18:37:17.31	164.77	26.69	
2025-01-14 18:37:17.52	164.77	26.73	
2025-01-14 18:37:17.72	164.78	26.77	
2025-01-14 18:37:17.93	164.78	26.81	
2025-01-14 18:37:18.13	164.78	26.85	
2025-01-14 18:37:18.34	164.79	26.89	
2025-01-14 18:37:18.54	164.79	26.93	
2025-01-14 18:37:18.75	164.80	26.97	
2025-01-14 18:37:18.95	164.80	27.01	
2025-01-14 18:37:19.16	164.81	27.05	
2025-01-14 18:37:19.36	164.81	27.09	
2025-01-14 18:37:19.57	164.81	27.13	
2025-01-14 18:37:19.77	164.82	27.17	
2025-01-14 18:37:19.98	164.82	27.21	
2025-01-14 18:37:20.18	164.83	27.25	
2025-01-14 18:37:20.39	164.83	27.29	
2025-01-14 18:37:20.59	164.83	27.33	
2025-01-14 18:37:20.80	164.84	27.37	
2025-01-14 18:37:21.01	164.84	27.42	
2025-01-14 18:37:21.21	164.85	27.46	
2025-01-14 18:37:21.41	164.85	27.50	
2025-01-14 18:37:21.62	164.86	27.54	
2025-01-14 18:37:21.83	164.86	27.58	
2025-01-14 18:37:22.03	164.86	27.62	
2025-01-14 18:37:22.24	164.87	27.66	
2025-01-14 18:37:22.44	164.87	27.70	
2025-01-14 18:37:22.65	164.88	27.75	
2025-01-14 18:37:22.85	164.88	27.79	
2025-01-14 18:37:23.06	164.89	27.83	
2025-01-14 18:37:23.26	164.89	27.87	
2025-01-14 18:37:23.47	164.89	27.91	
2025-01-14 18:37:23.67	164.90	27.95	
2025-01-14 18:37:23.88	164.90	28.00	
2025-01-14 18:37:24.08	164.91	28.04	
2025-01-14 18:37:24.29	164.91	28.08	
2025-01-14 18:37:24.49	164.92	28.12	
2025-01-14 18:37:24.70	164.92	28.16	
2025-01-14 18:37:24.91	164.93	28.21	
2025-01-14 18:37:25.11	164.93	28.25	
2025-01-14 18:37:25.32	164.93	28.29	
2025-01-14 18:37:25.52	164.94	28.33	
2025-01-14 18:37:25.73	164.94	28.38	
2025-01-14 18:37:25.93	164.95	28.42	
2025-01-14 18:37:26.14	164.95	28.46	
2025-01-14 18:37:26.34	164.96	28.50	
2025-01-14 18:37:26.55	164.96	28.55	
2025-01-14 18:37:26.77	164.97	28.59	
2025-01-14 18:37:26.97	164.97	28.63	
2025-01-14 18:37:27.18	164.98	28.68	
2025-01-14 18:37:27.38	164.98	28.72	
2025-01-14 18:37:27.59	164.98	28.77	
2025-01-14 18:37:27.79	164.99	28.81	
2025-01-14 18:37:28.00	164.99	28.85	
2025-01-14 18:37:28.21	165.00	28.90	
2025-01-14 18:37:28.41	165.00	28.94	
2025-01-14 18:37:28.62	165.01	28.98	
2025-01-14 18:37:28.84	165.01	29.03	
2025-01-14 18:37:29.04	165.02	29.07	
2025-01-14 18:37:29.24	165.02	29.11	
2025-01-14 18:37:29.45	165.03	29.16	
2025-01-14 18:37:29.65	165.03	29.20	
2025-01-14 18:37:29.86	165.04	29.25	
2025-01-14 18:37:30.06	165.04	29.29	
2025-01-14 18:37:30.27	165.04	29.34	
2025-01-14 18:37:30.47	165.05	29.38	
2025-01-14 18:37:30.68	165.05	29.42	
2025-01-14 18:37:30.88	165.06	29.47	
2025-01-14 18:37:31.09	165.06	29.51	
2025-01-14 18:37:31.29	165.07	29.56	
2025-01-14 18:37:31.50	165.07	29.60	
2025-01-14 18:37:31.70	165.08	29.64	
2025-01-14 18:37:31.91	165.08	29.69	
2025-01-14 18:37:32.11	165.09	29.73	
2025-01-14 18:37:32.32	165.09	29.78	
2025-01-14 18:37:32.52	165.10	29.82	
2025-01-14 18:37:32.73	165.10	29.87	
2025-01-14 18:37:32.93	165.11	29.91	
2025-01-14 18:37:33.13	165.11	29.96	
2025-01-14 18:37:33.34	165.12	30.00	
2025-01-14 18:37:33.54	165.12	30.05	
2025-01-14 18:37:33.75	165.13	30.09	
2025-01-14 18:37:33.96	165.13	30.14	
2025-01-14 18:37:34.16	165.14	30.18	
2025-01-14 18:37:34.36	165.14	30.23	
2025-01-14 18:37:34.57	165.15	30.28	
2025-01-14 18:37:34.77	165.15	30.32	
2025-01-14 18:37:34.98	165.16	30.37	
2025-01-14 18:37:35.18	165.16	30.41	
2025-01-14 18:37:35.39	165.17	30.46	
2025-01-14 18:37:35.59	165.17	30.50	
2025-01-14 18:37:35.80	165.18	30.55	
2025-01-14 18:37:36.00	165.18	30.60	
2025-01-14 18:37:36.21	165.19	30.64	
2025-01-14 18:37:36.41	165.19	30.69	
2025-01-14 18:37:36.62	165.20	30.74	
2025-01-14 18:37:36.83	165.20	30.78	
2025-01-14 18:37:37.03	165.21	30.83	
2025-01-14 18:37:37.24	165.21	30.88	
2025-01-14 18:37:37.44	165.22	30.92	
2025-01-14 18:37:37.65	165.22	30.97	
2025-01-14 18:37:37.85	165.23	31.02	
2025-01-14 18:37:38.06	165.23	31.06	
2025-01-14 18:37:38.26	165.24	31.11	
2025-01-14 18:37:38.46	165.24	31.16	
2025-01-14 18:37:38.67	165.25	31.21	
2025-01-14 18:37:38.87	165.25	31.25	
2025-01-14 18:37:39.08	165.26	31.30	
2025-01-14 18:37:39.29	165.26	31.35	
2025-01-14 18:37:39.49	165.27	31.39	
2025-01-14 18:37:39.70	165.27	31.44	
2025-01-14 18:37:39.90	165.28	31.49	
2025-01-14 18:37:40.11	165.28	31.54	
2025-01-14 18:37:40.31	165.29	31.59	
2025-01-14 18:37:40.52	165.29	31.63	
2025-01-14 18:37:40.72	165.30	31.68	
2025-01-14 18:37:40.93	165.31	31.73	
2025-01-14 18:37:41.13	165.31	31.78	
2025-01-14 18:37:41.34	165.32	31.83	
2025-01-14 18:37:41.54	165.32	31.87	
2025-01-14 18:37:41.75	165.33	31.92	
2025-01-14 18:37:41.95	165.33	31.97	
2025-01-14 18:37:42.16	165.34	32.02	
2025-01-14 18:37:42.37	165.34	32.07	
2025-01-14 18:37:42.57	165.35	32.12	
2025-01-14 18:37:42.78	165.35	32.17	
2025-01-14 18:37:42.98	165.36	32.22	
2025-01-14 18:37:43.19	165.37	32.27	
2025-01-14 18:37:43.39	165.37	32.31	
2025-01-14 18:37:43.60	165.38	32.37	
2025-01-14 18:37:43.80	165.38	32.41	
2025-01-14 18:37:44.01	165.39	32.46	
2025-01-14 18:37:44.22	165.39	32.51	
2025-01-14 18:37:44.42	165.40	32.56	
2025-01-14 18:37:44.63	165.40	32.61	
2025-01-14 18:37:44.83	165.41	32.66	
2025-01-14 18:37:45.04	165.42	32.71	
2025-01-14 18:37:45.24	165.42	32.76	
2025-01-14 18:37:45.45	165.43	32.81	
2025-01-14 18:37:45.65	165.43	32.86	
2025-01-14 18:37:45.86	165.44	32.91	
2025-01-14 18:37:46.06	165.44	32.96	
2025-01-14 18:37:46.27	165.45	33.01	
2025-01-14 18:37:46.47	165.46	33.06	
2025-01-14 18:37:46.68	165.46	33.12	
2025-01-14 18:37:46.88	165.47	33.16	
2025-01-14 18:37:47.08	165.47	33.21	
2025-01-14 18:37:47.29	165.48	33.27	
2025-01-14 18:37:47.49	165.48	33.32	
2025-01-14 18:37:47.70	165.49	33.37	
2025-01-14 18:37:47.90	165.50	33.42	
2025-01-14 18:37:48.11	165.50	33.47	
2025-01-14 18:37:48.31	165.51	33.52	
2025-01-14 18:37:48.52	165.51	33.57	
2025-01-14 18:37:48.72	165.52	33.62	
2025-01-14 18:37:48.93	165.53	33.68	
2025-01-14 18:37:49.13	165.53	33.73	
2025-01-14 18:37:49.34	165.54	33.78	
2025-01-14 18:37:49.54	165.54	33.83	
2025-01-14 18:37:49.75	165.55	33.88	
2025-01-14 18:37:49.95	165.56	33.93	
2025-01-14 18:37:50.16	165.56	33.99	
2025-01-14 18:37:50.36	165.57	34.04	
2025-01-14 18:37:50.57	165.57	34.09	
2025-01-14 18:37:50.77	165.58	34.14	
2025-01-14 18:37:50.98	165.59	34.20	
2025-01-14 18:37:51.18	165.59	34.25	
2025-01-14 18:37:51.40	165.60	34.30	
2025-01-14 18:37:51.61	165.61	34.36	
2025-01-14 18:37:51.81	165.61	34.41	
2025-01-14 18:37:52.02	165.62	34.46	
2025-01-14 18:37:52.22	165.62	34.52	
2025-01-14 18:37:52.43	165.63	34.57	
2025-01-14 18:37:52.63	165.64	34.62	
2025-01-14 18:37:52.84	165.64	34.68	
2025-01-14 18:37:53.04	165.65	34.73	
2025-01-14 18:37:53.25	165.66	34.78	
2025-01-14 18:37:53.45	165.66	34.84	
2025-01-14 18:37:53.66	165.67	34.89	
2025-01-14 18:37:53.86	165.67	34.94	
2025-01-14 18:37:54.07	165.68	35.00	
2025-01-14 18:37:54.28	165.69	35.05	
2025-01-14 18:37:54.48	165.69	35.11	
2025-01-14 18:37:54.68	165.70	35.16	
2025-01-14 18:37:54.89	165.71	35.21	
2025-01-14 18:37:55.10	165.71	35.27	
2025-01-14 18:37:55.30	165.72	35.32	
2025-01-14 18:37:55.50	165.73	35.38	
2025-01-14 18:37:55.71	165.73	35.43	
2025-01-14 18:37:55.92	165.74	35.49	
2025-01-14 18:37:56.12	165.75	35.54	
2025-01-14 18:37:56.33	165.75	35.60	
2025-01-14 18:37:56.53	165.76	35.65	
2025-01-14 18:37:56.73	165.77	35.71	
2025-01-14 18:37:56.94	165.77	35.76	
2025-01-14 18:37:57.15	165.78	35.82	
2025-01-14 18:37:57.35	165.79	35.87	
2025-01-14 18:37:57.56	165.79	35.93	
2025-01-14 18:37:57.76	165.80	35.99	
2025-01-14 18:37:57.96	165.81	36.04	
2025-01-14 18:37:58.17	165.81	36.10	
2025-01-14 18:37:58.37	165.82	36.15	
2025-01-14 18:37:58.58	165.83	36.21	
2025-01-14 18:37:58.78	165.83	36.26	
2025-01-14 18:37:58.99	165.84	36.32	
2025-01-14 18:37:59.20	165.85	36.38	
2025-01-14 18:37:59.40	165.85	36.43	
2025-01-14 18:37:59.61	165.86	36.49	
2025-01-14 18:37:59.81	165.87	36.55	
2025-01-14 18:38:00.02	165.88	36.61	
2025-01-14 18:38:00.22	165.88	36.66	
2025-01-14 18:38:00.43	165.89	36.72	
2025-01-14 18:38:00.63	165.90	36.78	
2025-01-14 18:38:00.84	165.90	36.83	
2025-01-14 18:38:01.04	165.91	36.89	
2025-01-14 18:38:01.24	165.92	36.95	
2025-01-14 18:38:01.45	165.93	37.01	
2025-01-14 18:38:01.66	165.93	37.06	
2025-01-14 18:38:01.86	165.94	37.12	
2025-01-14 18:38:02.06	165.95	37.18	
2025-01-14 18:38:02.27	165.95	37.24	
2025-01-14 18:38:02.48	165.96	37.30	
2025-01-14 18:38:02.68	165.97	37.35	
2025-01-14 18:38:02.89	165.98	37.41	
2025-01-14 18:38:03.09	165.98	37.47	
2025-01-14 18:38:03.30	165.99	37.53	
2025-01-14 18:38:03.50	166.00	37.59	
2025-01-14 18:38:03.71	166.01	37.65	
2025-01-14 18:38:03.91	166.01	37.70	
2025-01-14 18:38:04.12	166.02	37.77	
2025-01-14 18:38:04.32	166.03	37.82	
2025-01-14 18:38:04.53	166.04	37.88	
2025-01-14 18:38:04.73	166.04	37.94	
2025-01-14 18:38:04.94	166.05	38.00	
2025-01-14 18:38:05.14	166.06	38.06	
2025-01-14 18:38:05.35	166.07	38.12	
2025-01-14 18:38:05.55	166.07	38.18	
2025-01-14 18:38:05.76	166.08	38.24	
2025-01-14 18:38:05.97	166.09	38.30	
2025-01-14 18:38:06.17	166.10	38.36	
2025-01-14 18:38:06.38	166.11	38.42	
2025-01-14 18:38:06.58	166.11	38.48	
2025-01-14 18:38:06.79	166.12	38.54	
2025-01-14 18:38:06.99	166.13	38.60	
2025-01-14 18:38:07.20	166.14	38.66	
2025-01-14 18:38:07.42	166.15	38.73	
2025-01-14 18:38:07.62	166.15	38.79	
2025-01-14 18:38:07.83	166.16	38.85	
2025-01-14 18:38:08.03	166.17	38.91	
2025-01-14 18:38:08.24	166.18	38.97	
2025-01-14 18:38:08.44	166.18	39.03	
2025-01-14 18:38:08.65	166.19	39.10	
2025-01-14 18:38:08.85	166.20	39.16	
2025-01-14 18:38:09.06	166.21	39.22	
2025-01-14 18:38:09.26	166.22	39.28	
2025-01-14 18:38:09.48	166.23	39.35	
2025-01-14 18:38:09.69	166.23	39.41	
2025-01-14 18:38:09.89	166.24	39.47	
2025-01-14 18:38:10.10	166.25	39.53	
2025-01-14 18:38:10.30	166.26	39.60	
2025-01-14 18:38:10.51	166.27	39.66	
2025-01-14 18:38:10.71	166.28	39.72	
2025-01-14 18:38:10.92	166.28	39.78	
2025-01-14 18:38:11.12	166.29	39.85	
2025-01-14 18:38:11.33	166.30	39.91	
2025-01-14 18:38:11.53	166.31	39.97	
2025-01-14 18:38:11.74	166.32	40.04	
2025-01-14 18:38:11.95	166.33	40.10	
2025-01-14 18:38:12.15	166.34	40.16	
2025-01-14 18:38:12.36	166.34	40.23	
2025-01-14 18:38:12.56	166.35	40.29	
2025-01-14 18:38:12.77	166.36	40.36	
2025-01-14 18:38:12.97	166.37	40.42	
2025-01-14 18:38:13.18	166.38	40.48	
2025-01-14 18:38:13.38	166.39	40.55	
2025-01-14 18:38:13.59	166.40	40.61	
2025-01-14 18:38:13.79	166.41	40.68	
2025-01-14 18:38:14.00	166.41	40.74	
2025-01-14 18:38:14.21	166.42	40.81	
2025-01-14 18:38:14.41	166.43	40.87	
2025-01-14 18:38:14.62	166.44	40.94	
2025-01-14 18:38:14.82	166.45	41.00	
2025-01-14 18:38:15.03	166.46	41.07	
2025-01-14 18:38:15.23	166.47	41.13	
2025-01-14 18:38:15.44	166.48	41.20	
2025-01-14 18:38:15.64	166.49	41.26	
2025-01-14 18:38:15.85	166.50	41.33	
2025-01-14 18:38:16.05	166.51	41.39	
2025-01-14 18:38:16.26	166.51	41.46	
2025-01-14 18:38:16.46	166.52	41.53	
2025-01-14 18:38:16.67	166.53	41.59	
2025-01-14 18:38:16.87	166.54	41.66	
2025-01-14 18:38:17.09	166.55	41.73	
2025-01-14 18:38:17.29	166.56	41.79	
2025-01-14 18:38:17.50	166.57	41.86	
2025-01-14 18:38:17.70	166.58	41.93	
2025-01-14 18:38:17.91	166.59	42.00	
2025-01-14 18:38:18.11	166.60	42.06	
2025-01-14 18:38:18.32	166.61	42.13	
2025-01-14 18:38:18.52	166.62	42.20	
2025-01-14 18:38:18.73	166.63	42.26	
2025-01-14 18:38:18.94	166.64	42.33	
2025-01-14 18:38:19.14	166.65	42.40	
2025-01-14 18:38:19.34	166.66	42.47	
2025-01-14 18:38:19.55	166.67	42.54	
2025-01-14 18:38:19.76	166.68	42.61	
2025-01-14 18:38:19.96	166.69	42.67	
2025-01-14 18:38:20.17	166.70	42.74	
2025-01-14 18:38:20.37	166.71	42.81	
2025-01-14 18:38:20.58	166.72	42.88	
2025-01-14 18:38:20.78	166.73	42.95	
2025-01-14 18:38:20.98	166.74	43.01	
2025-01-14 18:38:21.19	166.75	43.08	
2025-01-14 18:38:21.39	166.76	43.15	
2025-01-14 18:38:21.60	166.77	43.22	
2025-01-14 18:38:21.81	166.78	43.29	
2025-01-14 18:38:22.01	166.79	43.36	
2025-01-14 18:38:22.22	166.80	43.43	
2025-01-14 18:38:22.42	166.81	43.50	
2025-01-14 18:38:22.62	166.82	43.57	
2025-01-14 18:38:22.83	166.83	43.64	
2025-01-14 18:38:23.04	166.84	43.71	
2025-01-14 18:38:23.24	166.85	43.78	
2025-01-14 18:38:23.45	166.86	43.85	
2025-01-14 18:38:23.65	166.87	43.92	
2025-01-14 18:38:23.86	166.88	43.99	
2025-01-14 18:38:24.07	166.90	44.07	
2025-01-14 18:38:24.27	166.91	44.14	
2025-01-14 18:38:24.47	166.92	44.21	
2025-01-14 18:38:24.68	166.93	44.28	
2025-01-14 18:38:24.88	166.94	44.35	
2025-01-14 18:38:25.09	166.95	44.42	
2025-01-14 18:38:25.29	166.96	44.49	
2025-01-14 18:38:25.50	166.97	44.56	
2025-01-14 18:38:25.71	166.98	44.64	
2025-01-14 18:38:25.91	166.99	44.71	
2025-01-14 18:38:26.12	167.01	44.78	
2025-01-14 18:38:26.32	167.02	44.85	
2025-01-14 18:38:26.53	167.03	44.93	
2025-01-14 18:38:26.73	167.04	45.00	
2025-01-14 18:38:26.94	167.05	45.07	
2025-01-14 18:38:27.14	167.06	45.14	
2025-01-14 18:38:27.35	167.07	45.22	
2025-01-14 18:38:27.56	167.09	45.29	
2025-01-14 18:38:27.76	167.10	45.36	
2025-01-14 18:38:27.97	167.11	45.44	
2025-01-14 18:38:28.17	167.12	45.51	
2025-01-14 18:38:28.38	167.13	45.59	
2025-01-14 18:38:28.58	167.14	45.66	
2025-01-14 18:38:28.79	167.16	45.74	
2025-01-14 18:38:28.99	167.17	45.81	
2025-01-14 18:38:29.20	167.18	45.88	
2025-01-14 18:38:29.41	167.19	45.96	
2025-01-14 18:38:29.61	167.21	46.03	
2025-01-14 18:38:29.81	167.22	46.11	
2025-01-14 18:38:30.02	167.23	46.18	
2025-01-14 18:38:30.22	167.24	46.26	
2025-01-14 18:38:30.42	167.25	46.33	
2025-01-14 18:38:30.63	167.27	46.41	
2025-01-14 18:38:30.83	167.28	46.48	
2025-01-14 18:38:31.04	167.29	46.56	
2025-01-14 18:38:31.24	167.30	46.63	
2025-01-14 18:38:31.45	167.32	46.71	
2025-01-14 18:38:31.65	167.33	46.78	
2025-01-14 18:38:31.86	167.34	46.86	
2025-01-14 18:38:32.06	167.35	46.93	
2025-01-14 18:38:32.27	167.37	47.01	
2025-01-14 18:38:32.48	167.38	47.09	
2025-01-14 18:38:32.68	167.39	47.17	
2025-01-14 18:38:32.88	167.41	47.24	
2025-01-14 18:38:33.09	167.42	47.32	
2025-01-14 18:38:33.30	167.43	47.40	
2025-01-14 18:38:33.50	167.45	47.47	
2025-01-14 18:38:33.71	167.46	47.55	
2025-01-14 18:38:33.91	167.47	47.63	
2025-01-14 18:38:34.11	167.49	47.70	
2025-01-14 18:38:34.32	167.50	47.78	
2025-01-14 18:38:34.52	167.51	47.86	
2025-01-14 18:38:34.73	167.53	47.94	
2025-01-14 18:38:34.93	167.54	48.02	
2025-01-14 18:38:35.14	167.55	48.10	
2025-01-14 18:38:35.34	167.57	48.17	
2025-01-14 18:38:35.55	167.58	48.25	
2025-01-14 18:38:35.75	167.60	48.33	
2025-01-14 18:38:35.96	167.61	48.41	
2025-01-14 18:38:36.16	167.62	48.49	
2025-01-14 18:38:36.37	167.64	48.57	
2025-01-14 18:38:36.58	167.65	48.65	
2025-01-14 18:38:36.78	167.67	48.73	
2025-01-14 18:38:36.99	167.68	48.81	
2025-01-14 18:38:37.19	167.70	48.89	
2025-01-14 18:38:37.39	167.71	48.97	
2025-01-14 18:38:37.60	167.72	49.05	
2025-01-14 18:38:37.80	167.74	49.13	
2025-01-14 18:38:38.01	167.75	49.21	
2025-01-14 18:38:38.21	167.77	49.29	
2025-01-14 18:38:38.42	167.78	49.37	
2025-01-14 18:38:38.62	167.80	49.45	
2025-01-14 18:38:38.83	167.81	49.53	
2025-01-14 18:38:39.03	167.83	49.61	
2025-01-14 18:38:39.24	167.84	49.70	
2025-01-14 18:38:39.44	167.86	49.78	
2025-01-14 18:38:39.65	167.87	49.86	
2025-01-14 18:38:39.85	167.89	49.94	
2025-01-14 18:38:40.06	167.91	50.02	
2025-01-14 18:38:40.26	167.92	50.10	
2025-01-14 18:38:40.47	167.94	50.19	
2025-01-14 18:38:40.67	167.95	50.27	
2025-01-14 18:38:40.88	167.97	50.35	
2025-01-14 18:38:41.08	167.98	50.43	
2025-01-14 18:38:41.29	168.00	50.52	
2025-01-14 18:38:41.49	168.02	50.60	
2025-01-14 18:38:41.70	168.03	50.69	
2025-01-14 18:38:41.90	168.05	50.77	
2025-01-14 18:38:42.11	168.06	50.85	
2025-01-14 18:38:42.31	168.08	50.93	
2025-01-14 18:38:42.52	168.10	51.02	
2025-01-14 18:38:42.72	168.11	51.10	
2025-01-14 18:38:42.93	168.13	51.19	
2025-01-14 18:38:43.13	168.15	51.27	
2025-01-14 18:38:43.34	168.16	51.36	
2025-01-14 18:38:43.54	168.18	51.44	
2025-01-14 18:38:43.75	168.20	51.53	
2025-01-14 18:38:43.95	168.22	51.61	
2025-01-14 18:38:44.16	168.23	51.70	
2025-01-14 18:38:44.36	168.25	51.78	
2025-01-14 18:38:44.57	168.27	51.87	
2025-01-14 18:38:44.77	168.29	51.95	
2025-01-14 18:38:44.98	168.30	52.04	
2025-01-14 18:38:45.18	168.32	52.12	
2025-01-14 18:38:45.39	168.34	52.21	
2025-01-14 18:38:45.60	168.36	52.30	
2025-01-14 18:38:45.80	168.37	52.38	
2025-01-14 18:38:46.00	168.39	52.47	
2025-01-14 18:38:46.21	168.41	52.56	
2025-01-14 18:38:46.41	168.43	52.64	
2025-01-14 18:38:46.62	168.45	52.73	
2025-01-14 18:38:46.82	168.47	52.81	
2025-01-14 18:38:47.03	168.49	52.90	
2025-01-14 18:38:47.23	168.50	52.99	
2025-01-14 18:38:47.44	168.52	53.08	
2025-01-14 18:38:47.65	168.54	53.17	
2025-01-14 18:38:47.85	168.56	53.25	
2025-01-14 18:38:48.05	168.58	53.34	
2025-01-14 18:38:48.26	168.60	53.43	
2025-01-14 18:38:48.46	168.62	53.52	
2025-01-14 18:38:48.67	168.64	53.61	
2025-01-14 18:38:48.87	168.66	53.69	
2025-01-14 18:38:49.08	168.68	53.79	
2025-01-14 18:38:49.28	168.70	53.87	
2025-01-14 18:38:49.49	168.72	53.96	
2025-01-14 18:38:49.69	168.74	54.05	
2025-01-14 18:38:49.90	168.76	54.14	
2025-01-14 18:38:50.12	168.78	54.24	
2025-01-14 18:38:50.32	168.80	54.33	
2025-01-14 18:38:50.53	168.82	54.42	
2025-01-14 18:38:50.74	168.84	54.51	
2025-01-14 18:38:50.94	168.86	54.60	
2025-01-14 18:38:51.15	168.88	54.69	
2025-01-14 18:38:51.35	168.91	54.78	
2025-01-14 18:38:51.56	168.93	54.87	
2025-01-14 18:38:51.76	168.95	54.96	
2025-01-14 18:38:51.97	168.97	55.05	
2025-01-14 18:38:52.17	168.99	55.14	
2025-01-14 18:38:52.38	169.01	55.24	
2025-01-14 18:38:52.58	169.04	55.33	
2025-01-14 18:38:52.79	169.06	55.42	
2025-01-14 18:38:53.00	169.08	55.51	
2025-01-14 18:38:53.20	169.10	55.60	
2025-01-14 18:38:53.40	169.12	55.69	
2025-01-14 18:38:53.61	169.15	55.79	
2025-01-14 18:38:53.81	169.17	55.88	
2025-01-14 18:38:54.02	169.19	55.97	
2025-01-14 18:38:54.22	169.22	56.06	
2025-01-14 18:38:54.43	169.24	56.16	
2025-01-14 18:38:54.64	169.26	56.25	
2025-01-14 18:38:54.84	169.29	56.35	
2025-01-14 18:38:55.05	169.31	56.44	
2025-01-14 18:38:55.25	169.33	56.53	
2025-01-14 18:38:55.45	169.36	56.62	
2025-01-14 18:38:55.66	169.38	56.72	
2025-01-14 18:38:55.86	169.41	56.81	
2025-01-14 18:38:56.07	169.43	56.91	
2025-01-14 18:38:56.27	169.46	57.00	
2025-01-14 18:38:56.48	169.48	57.10	
2025-01-14 18:38:56.68	169.51	57.19	
2025-01-14 18:38:56.89	169.53	57.29	
2025-01-14 18:38:57.09	169.56	57.38	
2025-01-14 18:38:57.30	169.58	57.48	
2025-01-14 18:38:57.50	169.61	57.57	
2025-01-14 18:38:57.71	169.63	57.67	
2025-01-14 18:38:57.91	169.66	57.76	
2025-01-14 18:38:58.12	169.69	57.86	
2025-01-14 18:38:58.32	169.71	57.95	
2025-01-14 18:38:58.53	169.74	58.05	
2025-01-14 18:38:58.73	169.77	58.15	
2025-01-14 18:38:58.94	169.79	58.24	
2025-01-14 18:38:59.15	169.82	58.34	
2025-01-14 18:38:59.35	169.85	58.44	
2025-01-14 18:38:59.55	169.88	58.53	
2025-01-14 18:38:59.76	169.90	58.63	
2025-01-14 18:38:59.96	169.93	58.73	
2025-01-14 18:39:00.17	169.96	58.83	
2025-01-14 18:39:00.37	169.99	58.92	
2025-01-14 18:39:00.58	170.02	59.02	
2025-01-14 18:39:00.78	170.04	59.12	
2025-01-14 18:39:00.99	170.07	59.22	
2025-01-14 18:39:01.19	170.10	59.31	
2025-01-14 18:39:01.40	170.13	59.41	
2025-01-14 18:39:01.60	170.16	59.51	
2025-01-14 18:39:01.81	170.19	59.61	
2025-01-14 18:39:02.01	170.22	59.71	
2025-01-14 18:39:02.22	170.25	59.81	
2025-01-14 18:39:02.42	170.28	59.91	
2025-01-14 18:39:02.63	170.31	60.01	
2025-01-14 18:39:02.83	170.35	60.10	
2025-01-14 18:39:03.04	170.38	60.21	
2025-01-14 18:39:03.24	170.41	60.30	
2025-01-14 18:39:03.45	170.44	60.41	
2025-01-14 18:39:03.66	170.47	60.51	
2025-01-14 18:39:03.86	170.50	60.61	
2025-01-14 18:39:04.07	170.54	60.71	
2025-01-14 18:39:04.27	170.57	60.81	
2025-01-14 18:39:04.48	170.60	60.91	
2025-01-14 18:39:04.68	170.64	61.01	
2025-01-14 18:39:04.89	170.67	61.11	
2025-01-14 18:39:05.09	170.70	61.21	
2025-01-14 18:39:05.29	170.74	61.31	
2025-01-14 18:39:05.50	170.77	61.41	
2025-01-14 18:39:05.72	170.81	61.52	
2025-01-14 18:39:05.92	170.84	61.62	
2025-01-14 18:39:06.13	170.88	61.73	
2025-01-14 18:39:06.33	170.91	61.82	
2025-01-14 18:39:06.54	170.95	61.93	
2025-01-14 18:39:06.74	170.99	62.03	
2025-01-14 18:39:06.95	171.02	62.13	
2025-01-14 18:39:07.15	171.06	62.23	
2025-01-14 18:39:07.36	171.10	62.34	
2025-01-14 18:39:07.57	171.14	62.45	
2025-01-14 18:39:07.77	171.17	62.55	
2025-01-14 18:39:07.98	171.21	62.65	
2025-01-14 18:39:08.18	171.25	62.75	
2025-01-14 18:39:08.38	171.29	62.85	
2025-01-14 18:39:08.59	171.33	62.96	
2025-01-14 18:39:08.80	171.37	63.07	
2025-01-14 18:39:09.00	171.40	63.17	
2025-01-14 18:39:09.20	171.44	63.27	
2025-01-14 18:39:09.41	171.48	63.38	
2025-01-14 18:39:09.61	171.52	63.48	
2025-01-14 18:39:09.82	171.57	63.58	
2025-01-14 18:39:10.03	171.61	63.69	
2025-01-14 18:39:10.23	171.65	63.79	
2025-01-14 18:39:10.44	171.69	63.90	
2025-01-14 18:39:10.64	171.73	64.00	
2025-01-14 18:39:10.84	171.78	64.11	
2025-01-14 18:39:11.05	171.82	64.21	
2025-01-14 18:39:11.26	171.86	64.32	
2025-01-14 18:39:11.46	171.91	64.43	
2025-01-14 18:39:11.66	171.95	64.53	
2025-01-14 18:39:11.87	172.00	64.64	
2025-01-14 18:39:12.07	172.04	64.74	
2025-01-14 18:39:12.28	172.09	64.85	
2025-01-14 18:39:12.48	172.13	64.95	
2025-01-14 18:39:12.69	172.18	65.06	
2025-01-14 18:39:12.89	172.23	65.17	
2025-01-14 18:39:13.10	172.27	65.28	
2025-01-14 18:39:13.30	172.32	65.38	
2025-01-14 18:39:13.51	172.37	65.49	
2025-01-14 18:39:13.71	172.42	65.60	
2025-01-14 18:39:13.92	172.47	65.71	
2025-01-14 18:39:14.12	172.52	65.81	
2025-01-14 18:39:14.33	172.57	65.92	
2025-01-14 18:39:14.53	172.62	66.03	
2025-01-14 18:39:14.74	172.67	66.14	
2025-01-14 18:39:14.94	172.72	66.24	
2025-01-14 18:39:15.15	172.77	66.35	
2025-01-14 18:39:15.35	172.83	66.46	
2025-01-14 18:39:15.56	172.88	66.57	
2025-01-14 18:39:15.76	172.93	66.67	
2025-01-14 18:39:15.97	172.99	66.79	
2025-01-14 18:39:16.17	173.04	66.89	
2025-01-14 18:39:16.38	173.10	67.00	
2025-01-14 18:39:16.58	173.15	67.11	
2025-01-14 18:39:16.79	173.21	67.22	
2025-01-14 18:39:16.99	173.27	67.33	
2025-01-14 18:39:17.20	173.33	67.44	
2025-01-14 18:39:17.41	173.39	67.55	
2025-01-14 18:39:17.61	173.44	67.66	
2025-01-14 18:39:17.81	173.50	67.77	
2025-01-14 18:39:18.02	173.56	67.88	
2025-01-14 18:39:18.23	173.63	67.99	
2025-01-14 18:39:18.43	173.69	68.10	
2025-01-14 18:39:18.63	173.75	68.21	
2025-01-14 18:39:18.84	173.81	68.32	
2025-01-14 18:39:19.04	173.87	68.43	
2025-01-14 18:39:19.25	173.94	68.54	
2025-01-14 18:39:19.45	174.00	68.65	
2025-01-14 18:39:19.66	174.07	68.76	
2025-01-14 18:39:19.86	174.14	68.87	
2025-01-14 18:39:20.07	174.21	68.99	
2025-01-14 18:39:20.28	174.28	69.10	
2025-01-14 18:39:20.48	174.34	69.21	
2025-01-14 18:39:20.69	174.41	69.32	
2025-01-14 18:39:20.89	174.48	69.43	
2025-01-14 18:39:21.11	174.56	69.55	
2025-01-14 18:39:21.32	174.63	69.67	
2025-01-14 18:39:21.52	174.70	69.77	
2025-01-14 18:39:21.74	174.78	69.89	
2025-01-14 18:39:21.95	174.86	70.01	
2025-01-14 18:39:22.15	174.93	70.12	
2025-01-14 18:39:22.35	175.01	70.23	
2025-01-14 18:39:22.56	175.09	70.34	
2025-01-14 18:39:22.77	175.17	70.46	
2025-01-14 18:39:22.97	175.25	70.57	
2025-01-14 18:39:23.18	175.33	70.68	
2025-01-14 18:39:23.38	175.41	70.79	
2025-01-14 18:39:23.59	175.49	70.91	
2025-01-14 18:39:23.79	175.57	71.02	
2025-01-14 18:39:24.00	175.66	71.14	
2025-01-14 18:39:24.22	175.75	71.26	
2025-01-14 18:39:24.42	175.84	71.37	
2025-01-14 18:39:24.63	175.93	71.48	
2025-01-14 18:39:24.83	176.01	71.59	
2025-01-14 18:39:25.04	176.11	71.71	
2025-01-14 18:39:25.24	176.20	71.82	
2025-01-14 18:39:25.45	176.29	71.94	
2025-01-14 18:39:25.65	176.38	72.05	
2025-01-14 18:39:25.86	176.48	72.17	
2025-01-14 18:39:26.06	176.57	72.28	
2025-01-14 18:39:26.27	176.67	72.39	
2025-01-14 18:39:26.47	176.77	72.50	
2025-01-14 18:39:26.67	176.87	72.62	
2025-01-14 18:39:26.88	176.97	72.73	
2025-01-14 18:39:27.08	177.07	72.84	
2025-01-14 18:39:27.29	177.18	72.96	
2025-01-14 18:39:27.51	177.29	73.08	
2025-01-14 18:39:27.71	177.40	73.20	
2025-01-14 18:39:27.92	177.51	73.31	
2025-01-14 18:39:28.13	177.62	73.43	
2025-01-14 18:39:28.33	177.73	73.54	
2025-01-14 18:39:28.53	177.85	73.65	
2025-01-14 18:39:28.74	177.96	73.77	
2025-01-14 18:39:28.94	178.08	73.88	
2025-01-14 18:39:29.15	178.20	74.00	
2025-01-14 18:39:29.35	178.32	74.11	
2025-01-14 18:39:29.56	178.45	74.23	
2025-01-14 18:39:29.76	178.57	74.34	
2025-01-14 18:39:29.97	178.70	74.46	
2025-01-14 18:39:30.17	178.82	74.57	
2025-01-14 18:39:30.38	178.96	74.69	
2025-01-14 18:39:30.58	179.09	74.80	
2025-01-14 18:39:30.79	179.22	74.92	
2025-01-14 18:39:30.99	179.36	75.03	
2025-01-14 18:39:31.20	179.50	75.15	
2025-01-14 18:39:31.40	179.64	75.26	
2025-01-14 18:39:31.61	179.78	75.38	
2025-01-14 18:39:31.81	179.93	75.49	
2025-01-14 18:39:32.02	180.08	75.61	
