passes_logs/2025/01/14/SPB_Silybum_02/SPB_Silybum_02__20250114_105358_AQUA_rec.log

#Pass ID: 20250114_105358_AQUA
#Satellite: AQUA
#Configuration: AQUA
#Start time: 2025-01-14 10:53:57

#Version: 2.0.20230423
#Station: SPB_Silybum_02
#Location: 30.233357 lon 59.946436 lat
#TLE: 1 27424U 02022A   25013.83544817  .00001692  00000+0  35728-3 0  9991
#TLE: 2 27424  98.3586 330.4889 0001664 112.6336 276.7792 14.60677575207450

#Time	Az	El	Level	Level2	SNR	BER	Gain	Gain2
2025-01-14 10:53:59.84	145.55	4.11	
2025-01-14 10:54:00.04	145.55	4.12	
2025-01-14 10:54:00.25	145.54	4.14	
2025-01-14 10:54:00.45	145.54	4.15	
2025-01-14 10:54:00.66	145.53	4.17	
2025-01-14 10:54:00.86	145.53	4.18	
2025-01-14 10:54:01.06	145.53	4.20	
2025-01-14 10:54:01.27	145.52	4.21	
2025-01-14 10:54:01.47	145.52	4.23	
2025-01-14 10:54:01.68	145.51	4.24	
2025-01-14 10:54:01.88	145.51	4.26	
2025-01-14 10:54:02.09	145.50	4.27	
2025-01-14 10:54:02.29	145.50	4.29	
2025-01-14 10:54:02.50	145.49	4.30	
2025-01-14 10:54:02.70	145.49	4.32	
2025-01-14 10:54:02.90	145.48	4.33	
2025-01-14 10:54:03.11	145.48	4.35	
2025-01-14 10:54:03.31	145.47	4.36	
2025-01-14 10:54:03.51	145.47	4.37	
2025-01-14 10:54:03.71	145.46	4.39	
2025-01-14 10:54:03.92	145.46	4.40	
2025-01-14 10:54:04.12	145.45	4.42	
2025-01-14 10:54:04.32	145.45	4.43	
2025-01-14 10:54:04.53	145.44	4.45	
2025-01-14 10:54:04.74	145.44	4.46	
2025-01-14 10:54:04.94	145.43	4.48	
2025-01-14 10:54:05.15	145.43	4.49	
2025-01-14 10:54:05.35	145.42	4.51	
2025-01-14 10:54:05.56	145.42	4.52	
2025-01-14 10:54:05.76	145.41	4.54	
2025-01-14 10:54:05.97	145.41	4.55	
2025-01-14 10:54:06.17	145.40	4.57	
2025-01-14 10:54:06.38	145.40	4.58	
2025-01-14 10:54:06.58	145.39	4.60	
2025-01-14 10:54:06.79	145.39	4.61	
2025-01-14 10:54:06.99	145.39	4.63	
2025-01-14 10:54:07.20	145.38	4.64	
2025-01-14 10:54:07.40	145.38	4.66	
2025-01-14 10:54:07.61	145.37	4.67	
2025-01-14 10:54:07.81	145.37	4.69	
2025-01-14 10:54:08.02	145.36	4.70	
2025-01-14 10:54:08.22	145.36	4.72	
2025-01-14 10:54:08.43	145.35	4.73	
2025-01-14 10:54:08.63	145.35	4.75	
2025-01-14 10:54:08.84	145.34	4.76	
2025-01-14 10:54:09.04	145.34	4.78	
2025-01-14 10:54:09.25	145.33	4.79	
2025-01-14 10:54:09.45	145.33	4.81	
2025-01-14 10:54:09.66	145.32	4.82	
2025-01-14 10:54:09.86	145.32	4.84	
2025-01-14 10:54:10.07	145.31	4.85	
2025-01-14 10:54:10.28	145.31	4.87	
2025-01-14 10:54:10.48	145.30	4.89	
2025-01-14 10:54:10.68	145.30	4.90	
2025-01-14 10:54:10.89	145.29	4.92	
2025-01-14 10:54:11.09	145.29	4.93	
2025-01-14 10:54:11.30	145.28	4.95	
2025-01-14 10:54:11.50	145.28	4.96	
2025-01-14 10:54:11.71	145.27	4.98	
2025-01-14 10:54:11.91	145.27	4.99	
2025-01-14 10:54:12.12	145.26	5.01	
2025-01-14 10:54:12.32	145.25	5.02	
2025-01-14 10:54:12.52	145.25	5.04	
2025-01-14 10:54:12.73	145.24	5.05	
2025-01-14 10:54:12.93	145.24	5.07	
2025-01-14 10:54:13.14	145.23	5.08	
2025-01-14 10:54:13.35	145.23	5.10	
2025-01-14 10:54:13.55	145.22	5.11	
2025-01-14 10:54:13.75	145.22	5.13	
2025-01-14 10:54:13.96	145.21	5.14	
2025-01-14 10:54:14.16	145.21	5.16	
2025-01-14 10:54:14.37	145.20	5.17	
2025-01-14 10:54:14.58	145.20	5.19	
2025-01-14 10:54:14.80	145.19	5.21	
2025-01-14 10:54:15.00	145.19	5.22	
2025-01-14 10:54:15.21	145.18	5.24	
2025-01-14 10:54:15.41	145.18	5.25	
2025-01-14 10:54:15.62	145.17	5.27	
2025-01-14 10:54:15.82	145.17	5.28	
2025-01-14 10:54:16.03	145.16	5.30	
2025-01-14 10:54:16.23	145.16	5.31	
2025-01-14 10:54:16.44	145.15	5.33	
2025-01-14 10:54:16.64	145.15	5.35	
2025-01-14 10:54:16.85	145.14	5.36	
2025-01-14 10:54:17.05	145.14	5.38	
2025-01-14 10:54:17.26	145.13	5.39	
2025-01-14 10:54:17.47	145.13	5.41	
2025-01-14 10:54:17.67	145.12	5.42	
2025-01-14 10:54:17.87	145.11	5.44	
2025-01-14 10:54:18.08	145.11	5.45	
2025-01-14 10:54:18.29	145.10	5.47	
2025-01-14 10:54:18.49	145.10	5.49	
2025-01-14 10:54:18.70	145.09	5.50	
2025-01-14 10:54:18.90	145.09	5.52	
2025-01-14 10:54:19.11	145.08	5.53	
2025-01-14 10:54:19.31	145.08	5.55	
2025-01-14 10:54:19.52	145.07	5.56	
2025-01-14 10:54:19.72	145.07	5.58	
2025-01-14 10:54:19.93	145.06	5.59	
2025-01-14 10:54:20.13	145.06	5.61	
2025-01-14 10:54:20.34	145.05	5.63	
2025-01-14 10:54:20.54	145.05	5.64	
2025-01-14 10:54:20.75	145.04	5.66	
2025-01-14 10:54:20.96	145.03	5.67	
2025-01-14 10:54:21.16	145.03	5.69	
2025-01-14 10:54:21.36	145.02	5.70	
2025-01-14 10:54:21.57	145.02	5.72	
2025-01-14 10:54:21.78	145.01	5.74	
2025-01-14 10:54:21.98	145.01	5.75	
2025-01-14 10:54:22.19	145.00	5.77	
2025-01-14 10:54:22.39	145.00	5.78	
2025-01-14 10:54:22.60	144.99	5.80	
2025-01-14 10:54:22.80	144.99	5.81	
2025-01-14 10:54:23.01	144.98	5.83	
2025-01-14 10:54:23.21	144.98	5.85	
2025-01-14 10:54:23.42	144.97	5.86	
2025-01-14 10:54:23.62	144.96	5.88	
2025-01-14 10:54:23.83	144.96	5.89	
2025-01-14 10:54:24.03	144.95	5.91	
2025-01-14 10:54:24.24	144.95	5.93	
2025-01-14 10:54:24.44	144.94	5.94	
2025-01-14 10:54:24.65	144.94	5.96	
2025-01-14 10:54:24.85	144.93	5.97	
2025-01-14 10:54:25.06	144.93	5.99	
2025-01-14 10:54:25.26	144.92	6.00	
2025-01-14 10:54:25.47	144.91	6.02	
2025-01-14 10:54:25.68	144.91	6.04	
2025-01-14 10:54:25.88	144.90	6.05	
2025-01-14 10:54:26.09	144.90	6.07	
2025-01-14 10:54:26.29	144.89	6.08	
2025-01-14 10:54:26.49	144.89	6.10	
2025-01-14 10:54:26.70	144.88	6.12	
2025-01-14 10:54:26.91	144.88	6.13	
2025-01-14 10:54:27.11	144.87	6.15	
2025-01-14 10:54:27.32	144.86	6.16	
2025-01-14 10:54:27.52	144.86	6.18	
2025-01-14 10:54:27.73	144.85	6.20	
2025-01-14 10:54:27.93	144.85	6.21	
2025-01-14 10:54:28.14	144.84	6.23	
2025-01-14 10:54:28.34	144.84	6.24	
2025-01-14 10:54:28.55	144.83	6.26	
2025-01-14 10:54:28.75	144.83	6.28	
2025-01-14 10:54:28.96	144.82	6.29	
2025-01-14 10:54:29.16	144.81	6.31	
2025-01-14 10:54:29.37	144.81	6.33	
2025-01-14 10:54:29.57	144.80	6.34	
2025-01-14 10:54:29.78	144.80	6.36	
2025-01-14 10:54:29.98	144.79	6.37	
2025-01-14 10:54:30.19	144.79	6.39	
2025-01-14 10:54:30.40	144.78	6.41	
2025-01-14 10:54:30.60	144.77	6.42	
2025-01-14 10:54:30.81	144.77	6.44	
2025-01-14 10:54:31.01	144.76	6.45	
2025-01-14 10:54:31.22	144.76	6.47	
2025-01-14 10:54:31.42	144.75	6.49	
2025-01-14 10:54:31.63	144.75	6.50	
2025-01-14 10:54:31.83	144.74	6.52	
2025-01-14 10:54:32.04	144.73	6.54	
2025-01-14 10:54:32.24	144.73	6.55	
2025-01-14 10:54:32.45	144.72	6.57	
2025-01-14 10:54:32.65	144.72	6.58	
2025-01-14 10:54:32.85	144.71	6.60	
2025-01-14 10:54:33.06	144.71	6.62	
2025-01-14 10:54:33.27	144.70	6.63	
2025-01-14 10:54:33.47	144.69	6.65	
2025-01-14 10:54:33.68	144.69	6.67	
2025-01-14 10:54:33.88	144.68	6.68	
2025-01-14 10:54:34.09	144.68	6.70	
2025-01-14 10:54:34.29	144.67	6.71	
2025-01-14 10:54:34.50	144.66	6.73	
2025-01-14 10:54:34.70	144.66	6.75	
2025-01-14 10:54:34.90	144.65	6.76	
2025-01-14 10:54:35.11	144.65	6.78	
2025-01-14 10:54:35.32	144.64	6.80	
2025-01-14 10:54:35.52	144.64	6.81	
2025-01-14 10:54:35.73	144.63	6.83	
2025-01-14 10:54:35.93	144.62	6.85	
2025-01-14 10:54:36.14	144.62	6.86	
2025-01-14 10:54:36.35	144.61	6.88	
2025-01-14 10:54:36.55	144.61	6.90	
2025-01-14 10:54:36.75	144.60	6.91	
2025-01-14 10:54:36.96	144.59	6.93	
2025-01-14 10:54:37.16	144.59	6.95	
2025-01-14 10:54:37.37	144.58	6.96	
2025-01-14 10:54:37.57	144.58	6.98	
2025-01-14 10:54:37.78	144.57	7.00	
2025-01-14 10:54:37.98	144.56	7.01	
2025-01-14 10:54:38.19	144.56	7.03	
2025-01-14 10:54:38.39	144.55	7.04	
2025-01-14 10:54:38.60	144.55	7.06	
2025-01-14 10:54:38.80	144.54	7.08	
2025-01-14 10:54:39.01	144.53	7.09	
2025-01-14 10:54:39.21	144.53	7.11	
2025-01-14 10:54:39.42	144.52	7.13	
2025-01-14 10:54:39.63	144.52	7.15	
2025-01-14 10:54:39.83	144.51	7.16	
2025-01-14 10:54:40.04	144.50	7.18	
2025-01-14 10:54:40.24	144.50	7.19	
2025-01-14 10:54:40.44	144.49	7.21	
2025-01-14 10:54:40.65	144.48	7.23	
2025-01-14 10:54:40.86	144.48	7.25	
2025-01-14 10:54:41.06	144.47	7.26	
2025-01-14 10:54:41.26	144.47	7.28	
2025-01-14 10:54:41.47	144.46	7.30	
2025-01-14 10:54:41.68	144.45	7.31	
2025-01-14 10:54:41.88	144.45	7.33	
2025-01-14 10:54:42.08	144.44	7.35	
2025-01-14 10:54:42.29	144.44	7.36	
2025-01-14 10:54:42.50	144.43	7.38	
2025-01-14 10:54:42.70	144.42	7.40	
2025-01-14 10:54:42.91	144.42	7.41	
2025-01-14 10:54:43.11	144.41	7.43	
2025-01-14 10:54:43.32	144.40	7.45	
2025-01-14 10:54:43.52	144.40	7.46	
2025-01-14 10:54:43.73	144.39	7.48	
2025-01-14 10:54:43.94	144.39	7.50	
2025-01-14 10:54:44.14	144.38	7.51	
2025-01-14 10:54:44.35	144.37	7.53	
2025-01-14 10:54:44.55	144.37	7.55	
2025-01-14 10:54:44.75	144.36	7.57	
2025-01-14 10:54:44.96	144.35	7.58	
2025-01-14 10:54:45.17	144.35	7.60	
2025-01-14 10:54:45.37	144.34	7.62	
2025-01-14 10:54:45.57	144.34	7.63	
2025-01-14 10:54:45.78	144.33	7.65	
2025-01-14 10:54:45.99	144.32	7.67	
2025-01-14 10:54:46.19	144.32	7.68	
2025-01-14 10:54:46.40	144.31	7.70	
2025-01-14 10:54:46.60	144.30	7.72	
2025-01-14 10:54:46.80	144.30	7.74	
2025-01-14 10:54:47.01	144.29	7.75	
2025-01-14 10:54:47.22	144.29	7.77	
2025-01-14 10:54:47.42	144.28	7.79	
2025-01-14 10:54:47.63	144.27	7.80	
2025-01-14 10:54:47.83	144.27	7.82	
2025-01-14 10:54:48.04	144.26	7.84	
2025-01-14 10:54:48.24	144.25	7.86	
2025-01-14 10:54:48.45	144.25	7.87	
2025-01-14 10:54:48.65	144.24	7.89	
2025-01-14 10:54:48.86	144.23	7.91	
2025-01-14 10:54:49.06	144.23	7.92	
2025-01-14 10:54:49.27	144.22	7.94	
2025-01-14 10:54:49.47	144.21	7.96	
2025-01-14 10:54:49.68	144.21	7.98	
2025-01-14 10:54:49.88	144.20	7.99	
2025-01-14 10:54:50.09	144.20	8.01	
2025-01-14 10:54:50.29	144.19	8.03	
2025-01-14 10:54:50.50	144.18	8.05	
2025-01-14 10:54:50.71	144.18	8.06	
2025-01-14 10:54:50.91	144.17	8.08	
2025-01-14 10:54:51.12	144.16	8.10	
2025-01-14 10:54:51.32	144.16	8.12	
2025-01-14 10:54:51.53	144.15	8.13	
2025-01-14 10:54:51.73	144.14	8.15	
2025-01-14 10:54:51.94	144.14	8.17	
2025-01-14 10:54:52.14	144.13	8.19	
2025-01-14 10:54:52.35	144.12	8.20	
2025-01-14 10:54:52.56	144.12	8.22	
2025-01-14 10:54:52.76	144.11	8.24	
2025-01-14 10:54:52.97	144.10	8.26	
2025-01-14 10:54:53.17	144.10	8.27	
2025-01-14 10:54:53.38	144.09	8.29	
2025-01-14 10:54:53.58	144.08	8.31	
2025-01-14 10:54:53.79	144.08	8.33	
2025-01-14 10:54:54.00	144.07	8.34	
2025-01-14 10:54:54.20	144.06	8.36	
2025-01-14 10:54:54.41	144.06	8.38	
2025-01-14 10:54:54.61	144.05	8.40	
2025-01-14 10:54:54.82	144.04	8.41	
2025-01-14 10:54:55.02	144.04	8.43	
2025-01-14 10:54:55.23	144.03	8.45	
2025-01-14 10:54:55.43	144.02	8.47	
2025-01-14 10:54:55.64	144.02	8.48	
2025-01-14 10:54:55.84	144.01	8.50	
2025-01-14 10:54:56.05	144.00	8.52	
2025-01-14 10:54:56.25	144.00	8.54	
2025-01-14 10:54:56.46	143.99	8.56	
2025-01-14 10:54:56.66	143.98	8.57	
2025-01-14 10:54:56.87	143.97	8.59	
2025-01-14 10:54:57.07	143.97	8.61	
2025-01-14 10:54:57.28	143.96	8.63	
2025-01-14 10:54:57.48	143.95	8.64	
2025-01-14 10:54:57.69	143.95	8.66	
2025-01-14 10:54:57.89	143.94	8.68	
2025-01-14 10:54:58.10	143.93	8.70	
2025-01-14 10:54:58.30	143.93	8.71	
2025-01-14 10:54:58.52	143.92	8.73	
2025-01-14 10:54:58.73	143.91	8.75	
2025-01-14 10:54:58.93	143.91	8.77	
2025-01-14 10:54:59.14	143.90	8.79	
2025-01-14 10:54:59.34	143.89	8.81	
2025-01-14 10:54:59.55	143.89	8.82	
2025-01-14 10:54:59.75	143.88	8.84	
2025-01-14 10:54:59.96	143.87	8.86	
2025-01-14 10:55:00.16	143.86	8.88	
2025-01-14 10:55:00.37	143.86	8.90	
2025-01-14 10:55:00.57	143.85	8.91	
2025-01-14 10:55:00.78	143.84	8.93	
2025-01-14 10:55:00.99	143.84	8.95	
2025-01-14 10:55:01.19	143.83	8.97	
2025-01-14 10:55:01.40	143.82	8.99	
2025-01-14 10:55:01.60	143.82	9.00	
2025-01-14 10:55:01.81	143.81	9.02	
2025-01-14 10:55:02.01	143.80	9.04	
2025-01-14 10:55:02.22	143.79	9.06	
2025-01-14 10:55:02.43	143.79	9.08	
2025-01-14 10:55:02.63	143.78	9.09	
2025-01-14 10:55:02.83	143.77	9.11	
2025-01-14 10:55:03.04	143.77	9.13	
2025-01-14 10:55:03.24	143.76	9.15	
2025-01-14 10:55:03.45	143.75	9.17	
2025-01-14 10:55:03.65	143.74	9.18	
2025-01-14 10:55:03.86	143.74	9.20	
2025-01-14 10:55:04.06	143.73	9.22	
2025-01-14 10:55:04.27	143.72	9.24	
2025-01-14 10:55:04.47	143.72	9.26	
2025-01-14 10:55:04.68	143.71	9.28	
2025-01-14 10:55:04.88	143.70	9.29	
2025-01-14 10:55:05.09	143.69	9.31	
2025-01-14 10:55:05.29	143.69	9.33	
2025-01-14 10:55:05.50	143.68	9.35	
2025-01-14 10:55:05.70	143.67	9.37	
2025-01-14 10:55:05.91	143.66	9.39	
2025-01-14 10:55:06.11	143.66	9.40	
2025-01-14 10:55:06.32	143.65	9.42	
2025-01-14 10:55:06.52	143.64	9.44	
2025-01-14 10:55:06.73	143.64	9.46	
2025-01-14 10:55:06.94	143.63	9.48	
2025-01-14 10:55:07.14	143.62	9.50	
2025-01-14 10:55:07.35	143.61	9.52	
2025-01-14 10:55:07.55	143.61	9.53	
2025-01-14 10:55:07.76	143.60	9.55	
2025-01-14 10:55:07.97	143.59	9.57	
2025-01-14 10:55:08.17	143.58	9.59	
2025-01-14 10:55:08.37	143.58	9.61	
2025-01-14 10:55:08.58	143.57	9.63	
2025-01-14 10:55:08.78	143.56	9.64	
2025-01-14 10:55:08.99	143.55	9.66	
2025-01-14 10:55:09.19	143.55	9.68	
2025-01-14 10:55:09.40	143.54	9.70	
2025-01-14 10:55:09.61	143.53	9.72	
2025-01-14 10:55:09.81	143.52	9.74	
2025-01-14 10:55:10.02	143.52	9.76	
2025-01-14 10:55:10.22	143.51	9.78	
2025-01-14 10:55:10.43	143.50	9.79	
2025-01-14 10:55:10.63	143.50	9.81	
2025-01-14 10:55:10.84	143.49	9.83	
2025-01-14 10:55:11.04	143.48	9.85	
2025-01-14 10:55:11.25	143.47	9.87	
2025-01-14 10:55:11.45	143.46	9.89	
2025-01-14 10:55:11.66	143.46	9.91	
2025-01-14 10:55:11.86	143.45	9.93	
2025-01-14 10:55:12.07	143.44	9.94	
2025-01-14 10:55:12.27	143.43	9.96	
2025-01-14 10:55:12.48	143.43	9.98	
2025-01-14 10:55:12.68	143.42	10.00	
2025-01-14 10:55:12.89	143.41	10.02	
2025-01-14 10:55:13.10	143.40	10.04	
2025-01-14 10:55:13.30	143.40	10.06	
2025-01-14 10:55:13.51	143.39	10.08	
2025-01-14 10:55:13.71	143.38	10.10	
2025-01-14 10:55:13.92	143.37	10.11	
2025-01-14 10:55:14.13	143.37	10.13	
2025-01-14 10:55:14.33	143.36	10.15	
2025-01-14 10:55:14.54	143.35	10.17	
2025-01-14 10:55:14.74	143.34	10.19	
2025-01-14 10:55:14.95	143.33	10.21	
2025-01-14 10:55:15.15	143.33	10.23	
2025-01-14 10:55:15.36	143.32	10.25	
2025-01-14 10:55:15.56	143.31	10.27	
2025-01-14 10:55:15.77	143.30	10.29	
2025-01-14 10:55:15.97	143.30	10.31	
2025-01-14 10:55:16.18	143.29	10.32	
2025-01-14 10:55:16.38	143.28	10.34	
2025-01-14 10:55:16.59	143.27	10.36	
2025-01-14 10:55:16.79	143.26	10.38	
2025-01-14 10:55:17.00	143.26	10.40	
2025-01-14 10:55:17.20	143.25	10.42	
2025-01-14 10:55:17.41	143.24	10.44	
2025-01-14 10:55:17.61	143.23	10.46	
2025-01-14 10:55:17.82	143.22	10.48	
2025-01-14 10:55:18.03	143.22	10.50	
2025-01-14 10:55:18.23	143.21	10.52	
2025-01-14 10:55:18.44	143.20	10.54	
2025-01-14 10:55:18.64	143.19	10.56	
2025-01-14 10:55:18.85	143.18	10.57	
2025-01-14 10:55:19.05	143.18	10.59	
2025-01-14 10:55:19.26	143.17	10.61	
2025-01-14 10:55:19.46	143.16	10.63	
2025-01-14 10:55:19.67	143.15	10.65	
2025-01-14 10:55:19.87	143.14	10.67	
2025-01-14 10:55:20.08	143.14	10.69	
2025-01-14 10:55:20.29	143.13	10.71	
2025-01-14 10:55:20.49	143.12	10.73	
2025-01-14 10:55:20.70	143.11	10.75	
2025-01-14 10:55:20.90	143.10	10.77	
2025-01-14 10:55:21.11	143.10	10.79	
2025-01-14 10:55:21.31	143.09	10.81	
2025-01-14 10:55:21.52	143.08	10.83	
2025-01-14 10:55:21.72	143.07	10.85	
2025-01-14 10:55:21.93	143.06	10.87	
2025-01-14 10:55:22.13	143.06	10.89	
2025-01-14 10:55:22.34	143.05	10.91	
2025-01-14 10:55:22.55	143.04	10.93	
2025-01-14 10:55:22.75	143.03	10.95	
2025-01-14 10:55:22.95	143.02	10.96	
2025-01-14 10:55:23.16	143.01	10.98	
2025-01-14 10:55:23.37	143.01	11.01	
2025-01-14 10:55:23.57	143.00	11.02	
2025-01-14 10:55:23.78	142.99	11.04	
2025-01-14 10:55:23.98	142.98	11.06	
2025-01-14 10:55:24.19	142.97	11.08	
2025-01-14 10:55:24.39	142.96	11.10	
2025-01-14 10:55:24.60	142.96	11.12	
2025-01-14 10:55:24.81	142.95	11.14	
2025-01-14 10:55:25.01	142.94	11.16	
2025-01-14 10:55:25.21	142.93	11.18	
2025-01-14 10:55:25.42	142.92	11.20	
2025-01-14 10:55:25.62	142.91	11.22	
2025-01-14 10:55:25.83	142.91	11.24	
2025-01-14 10:55:26.03	142.90	11.26	
2025-01-14 10:55:26.24	142.89	11.28	
2025-01-14 10:55:26.44	142.88	11.30	
2025-01-14 10:55:26.65	142.87	11.32	
2025-01-14 10:55:26.85	142.86	11.34	
2025-01-14 10:55:27.06	142.86	11.36	
2025-01-14 10:55:27.27	142.85	11.38	
2025-01-14 10:55:27.47	142.84	11.40	
2025-01-14 10:55:27.67	142.83	11.42	
2025-01-14 10:55:27.88	142.82	11.44	
2025-01-14 10:55:28.08	142.81	11.46	
2025-01-14 10:55:28.29	142.80	11.48	
2025-01-14 10:55:28.49	142.80	11.50	
2025-01-14 10:55:28.70	142.79	11.52	
2025-01-14 10:55:28.90	142.78	11.54	
2025-01-14 10:55:29.11	142.77	11.56	
2025-01-14 10:55:29.32	142.76	11.58	
2025-01-14 10:55:29.53	142.75	11.60	
2025-01-14 10:55:29.74	142.74	11.63	
2025-01-14 10:55:29.95	142.73	11.65	
2025-01-14 10:55:30.15	142.73	11.67	
2025-01-14 10:55:30.36	142.72	11.69	
2025-01-14 10:55:30.56	142.71	11.71	
2025-01-14 10:55:30.77	142.70	11.73	
2025-01-14 10:55:30.97	142.69	11.75	
2025-01-14 10:55:31.18	142.68	11.77	
2025-01-14 10:55:31.39	142.67	11.79	
2025-01-14 10:55:31.59	142.66	11.81	
2025-01-14 10:55:31.79	142.66	11.83	
2025-01-14 10:55:32.00	142.65	11.85	
2025-01-14 10:55:32.22	142.64	11.87	
2025-01-14 10:55:32.42	142.63	11.89	
2025-01-14 10:55:32.63	142.62	11.91	
2025-01-14 10:55:32.83	142.61	11.93	
2025-01-14 10:55:33.04	142.60	11.95	
2025-01-14 10:55:33.24	142.59	11.97	
2025-01-14 10:55:33.45	142.58	11.99	
2025-01-14 10:55:33.65	142.58	12.01	
2025-01-14 10:55:33.86	142.57	12.04	
2025-01-14 10:55:34.07	142.56	12.06	
2025-01-14 10:55:34.27	142.55	12.08	
2025-01-14 10:55:34.48	142.54	12.10	
2025-01-14 10:55:34.68	142.53	12.12	
2025-01-14 10:55:34.90	142.52	12.14	
2025-01-14 10:55:35.11	142.51	12.16	
2025-01-14 10:55:35.31	142.50	12.18	
2025-01-14 10:55:35.52	142.49	12.20	
2025-01-14 10:55:35.72	142.48	12.22	
2025-01-14 10:55:35.94	142.47	12.25	
2025-01-14 10:55:36.15	142.47	12.27	
2025-01-14 10:55:36.35	142.46	12.29	
2025-01-14 10:55:36.56	142.45	12.31	
2025-01-14 10:55:36.76	142.44	12.33	
2025-01-14 10:55:36.97	142.43	12.35	
2025-01-14 10:55:37.17	142.42	12.37	
2025-01-14 10:55:37.38	142.41	12.39	
2025-01-14 10:55:37.59	142.40	12.41	
2025-01-14 10:55:37.79	142.39	12.43	
2025-01-14 10:55:38.00	142.38	12.46	
2025-01-14 10:55:38.20	142.37	12.48	
2025-01-14 10:55:38.41	142.36	12.50	
2025-01-14 10:55:38.62	142.35	12.52	
2025-01-14 10:55:38.82	142.35	12.54	
2025-01-14 10:55:39.03	142.34	12.56	
2025-01-14 10:55:39.23	142.33	12.58	
2025-01-14 10:55:39.44	142.32	12.60	
2025-01-14 10:55:39.65	142.31	12.63	
2025-01-14 10:55:39.85	142.30	12.65	
2025-01-14 10:55:40.05	142.29	12.67	
2025-01-14 10:55:40.26	142.28	12.69	
2025-01-14 10:55:40.46	142.27	12.71	
2025-01-14 10:55:40.67	142.26	12.73	
2025-01-14 10:55:40.87	142.25	12.75	
2025-01-14 10:55:41.08	142.24	12.77	
2025-01-14 10:55:41.28	142.23	12.79	
2025-01-14 10:55:41.49	142.22	12.82	
2025-01-14 10:55:41.69	142.21	12.84	
2025-01-14 10:55:41.90	142.20	12.86	
2025-01-14 10:55:42.10	142.20	12.88	
2025-01-14 10:55:42.32	142.18	12.90	
2025-01-14 10:55:42.53	142.18	12.92	
2025-01-14 10:55:42.73	142.17	12.94	
2025-01-14 10:55:42.94	142.16	12.97	
2025-01-14 10:55:43.15	142.15	12.99	
2025-01-14 10:55:43.35	142.14	13.01	
2025-01-14 10:55:43.56	142.13	13.03	
2025-01-14 10:55:43.76	142.12	13.05	
2025-01-14 10:55:43.97	142.11	13.08	
2025-01-14 10:55:44.17	142.10	13.10	
2025-01-14 10:55:44.39	142.09	13.12	
2025-01-14 10:55:44.60	142.08	13.14	
2025-01-14 10:55:44.80	142.07	13.16	
2025-01-14 10:55:45.01	142.06	13.18	
2025-01-14 10:55:45.21	142.05	13.21	
2025-01-14 10:55:45.41	142.04	13.23	
2025-01-14 10:55:45.62	142.03	13.25	
2025-01-14 10:55:45.82	142.02	13.27	
2025-01-14 10:55:46.03	142.01	13.29	
2025-01-14 10:55:46.24	142.00	13.31	
2025-01-14 10:55:46.44	141.99	13.34	
2025-01-14 10:55:46.65	141.98	13.36	
2025-01-14 10:55:46.85	141.97	13.38	
2025-01-14 10:55:47.06	141.96	13.40	
2025-01-14 10:55:47.26	141.95	13.42	
2025-01-14 10:55:47.47	141.94	13.45	
2025-01-14 10:55:47.67	141.93	13.47	
2025-01-14 10:55:47.88	141.92	13.49	
2025-01-14 10:55:48.08	141.91	13.51	
2025-01-14 10:55:48.29	141.90	13.53	
2025-01-14 10:55:48.49	141.89	13.56	
2025-01-14 10:55:48.70	141.88	13.58	
2025-01-14 10:55:48.90	141.87	13.60	
2025-01-14 10:55:49.11	141.86	13.62	
2025-01-14 10:55:49.32	141.85	13.64	
2025-01-14 10:55:49.52	141.84	13.67	
2025-01-14 10:55:49.72	141.83	13.69	
2025-01-14 10:55:49.93	141.82	13.71	
2025-01-14 10:55:50.14	141.81	13.73	
2025-01-14 10:55:50.34	141.80	13.75	
2025-01-14 10:55:50.55	141.79	13.78	
2025-01-14 10:55:50.75	141.78	13.80	
2025-01-14 10:55:50.95	141.77	13.82	
2025-01-14 10:55:51.16	141.76	13.84	
2025-01-14 10:55:51.37	141.75	13.87	
2025-01-14 10:55:51.57	141.74	13.89	
2025-01-14 10:55:51.77	141.73	13.91	
2025-01-14 10:55:51.98	141.72	13.93	
2025-01-14 10:55:52.19	141.71	13.96	
2025-01-14 10:55:52.39	141.70	13.98	
2025-01-14 10:55:52.60	141.69	14.00	
2025-01-14 10:55:52.80	141.67	14.02	
2025-01-14 10:55:53.01	141.66	14.05	
2025-01-14 10:55:53.22	141.65	14.07	
2025-01-14 10:55:53.42	141.64	14.09	
2025-01-14 10:55:53.63	141.63	14.11	
2025-01-14 10:55:53.83	141.62	14.14	
2025-01-14 10:55:54.04	141.61	14.16	
2025-01-14 10:55:54.24	141.60	14.18	
2025-01-14 10:55:54.45	141.59	14.20	
2025-01-14 10:55:54.65	141.58	14.23	
2025-01-14 10:55:54.86	141.57	14.25	
2025-01-14 10:55:55.06	141.56	14.27	
2025-01-14 10:55:55.27	141.55	14.30	
2025-01-14 10:55:55.47	141.54	14.32	
2025-01-14 10:55:55.68	141.53	14.34	
2025-01-14 10:55:55.88	141.52	14.36	
2025-01-14 10:55:56.10	141.50	14.39	
2025-01-14 10:55:56.31	141.49	14.41	
2025-01-14 10:55:56.52	141.48	14.43	
2025-01-14 10:55:56.72	141.47	14.46	
2025-01-14 10:55:56.93	141.46	14.48	
2025-01-14 10:55:57.13	141.45	14.50	
2025-01-14 10:55:57.34	141.44	14.53	
2025-01-14 10:55:57.54	141.43	14.55	
2025-01-14 10:55:57.75	141.42	14.57	
2025-01-14 10:55:57.95	141.41	14.59	
2025-01-14 10:55:58.16	141.40	14.62	
2025-01-14 10:55:58.36	141.39	14.64	
2025-01-14 10:55:58.57	141.37	14.66	
2025-01-14 10:55:58.77	141.36	14.69	
2025-01-14 10:55:58.98	141.35	14.71	
2025-01-14 10:55:59.19	141.34	14.73	
2025-01-14 10:55:59.39	141.33	14.76	
2025-01-14 10:55:59.60	141.32	14.78	
2025-01-14 10:55:59.80	141.31	14.80	
2025-01-14 10:56:00.01	141.30	14.83	
2025-01-14 10:56:00.21	141.29	14.85	
2025-01-14 10:56:00.42	141.28	14.87	
2025-01-14 10:56:00.62	141.26	14.90	
2025-01-14 10:56:00.83	141.25	14.92	
2025-01-14 10:56:01.03	141.24	14.94	
2025-01-14 10:56:01.24	141.23	14.97	
2025-01-14 10:56:01.44	141.22	14.99	
2025-01-14 10:56:01.64	141.21	15.01	
2025-01-14 10:56:01.85	141.20	15.04	
2025-01-14 10:56:02.06	141.19	15.06	
2025-01-14 10:56:02.26	141.17	15.08	
2025-01-14 10:56:02.47	141.16	15.11	
2025-01-14 10:56:02.67	141.15	15.13	
2025-01-14 10:56:02.88	141.14	15.16	
2025-01-14 10:56:03.09	141.13	15.18	
2025-01-14 10:56:03.29	141.12	15.20	
2025-01-14 10:56:03.49	141.11	15.23	
2025-01-14 10:56:03.70	141.10	15.25	
2025-01-14 10:56:03.91	141.08	15.27	
2025-01-14 10:56:04.11	141.07	15.30	
2025-01-14 10:56:04.32	141.06	15.32	
2025-01-14 10:56:04.52	141.05	15.34	
2025-01-14 10:56:04.73	141.04	15.37	
2025-01-14 10:56:04.93	141.03	15.39	
2025-01-14 10:56:05.14	141.01	15.42	
2025-01-14 10:56:05.35	141.00	15.44	
2025-01-14 10:56:05.55	140.99	15.46	
2025-01-14 10:56:05.75	140.98	15.49	
2025-01-14 10:56:05.96	140.97	15.51	
2025-01-14 10:56:06.17	140.96	15.54	
2025-01-14 10:56:06.37	140.94	15.56	
2025-01-14 10:56:06.58	140.93	15.59	
2025-01-14 10:56:06.78	140.92	15.61	
2025-01-14 10:56:06.98	140.91	15.63	
2025-01-14 10:56:07.19	140.90	15.66	
2025-01-14 10:56:07.40	140.89	15.68	
2025-01-14 10:56:07.60	140.87	15.71	
2025-01-14 10:56:07.80	140.86	15.73	
2025-01-14 10:56:08.01	140.85	15.75	
2025-01-14 10:56:08.22	140.84	15.78	
2025-01-14 10:56:08.42	140.83	15.80	
2025-01-14 10:56:08.63	140.81	15.83	
2025-01-14 10:56:08.83	140.80	15.85	
2025-01-14 10:56:09.04	140.79	15.88	
2025-01-14 10:56:09.24	140.78	15.90	
2025-01-14 10:56:09.44	140.77	15.92	
2025-01-14 10:56:09.65	140.75	15.95	
2025-01-14 10:56:09.86	140.74	15.97	
2025-01-14 10:56:10.07	140.73	16.00	
2025-01-14 10:56:10.28	140.72	16.02	
2025-01-14 10:56:10.49	140.71	16.05	
2025-01-14 10:56:10.69	140.69	16.07	
2025-01-14 10:56:10.90	140.68	16.10	
2025-01-14 10:56:11.10	140.67	16.12	
2025-01-14 10:56:11.31	140.66	16.15	
2025-01-14 10:56:11.51	140.64	16.17	
2025-01-14 10:56:11.72	140.63	16.20	
2025-01-14 10:56:11.92	140.62	16.22	
2025-01-14 10:56:12.13	140.61	16.25	
2025-01-14 10:56:12.33	140.60	16.27	
2025-01-14 10:56:12.54	140.58	16.30	
2025-01-14 10:56:12.74	140.57	16.32	
2025-01-14 10:56:12.95	140.56	16.34	
2025-01-14 10:56:13.15	140.55	16.37	
2025-01-14 10:56:13.36	140.53	16.39	
2025-01-14 10:56:13.56	140.52	16.42	
2025-01-14 10:56:13.77	140.51	16.44	
2025-01-14 10:56:13.97	140.50	16.47	
2025-01-14 10:56:14.18	140.48	16.49	
2025-01-14 10:56:14.38	140.47	16.52	
2025-01-14 10:56:14.59	140.46	16.54	
2025-01-14 10:56:14.79	140.45	16.57	
2025-01-14 10:56:15.00	140.43	16.59	
2025-01-14 10:56:15.20	140.42	16.62	
2025-01-14 10:56:15.41	140.41	16.64	
2025-01-14 10:56:15.62	140.39	16.67	
2025-01-14 10:56:15.82	140.38	16.70	
2025-01-14 10:56:16.03	140.37	16.72	
2025-01-14 10:56:16.23	140.36	16.75	
2025-01-14 10:56:16.44	140.34	16.77	
2025-01-14 10:56:16.64	140.33	16.80	
2025-01-14 10:56:16.85	140.32	16.82	
2025-01-14 10:56:17.06	140.31	16.85	
2025-01-14 10:56:17.26	140.29	16.87	
2025-01-14 10:56:17.47	140.28	16.90	
2025-01-14 10:56:17.67	140.27	16.92	
2025-01-14 10:56:17.88	140.25	16.95	
2025-01-14 10:56:18.08	140.24	16.97	
2025-01-14 10:56:18.29	140.23	17.00	
2025-01-14 10:56:18.49	140.21	17.03	
2025-01-14 10:56:18.70	140.20	17.05	
2025-01-14 10:56:18.90	140.19	17.08	
2025-01-14 10:56:19.11	140.18	17.10	
2025-01-14 10:56:19.31	140.16	17.13	
2025-01-14 10:56:19.52	140.15	17.15	
2025-01-14 10:56:19.72	140.14	17.18	
2025-01-14 10:56:19.93	140.12	17.21	
2025-01-14 10:56:20.13	140.11	17.23	
2025-01-14 10:56:20.34	140.10	17.26	
2025-01-14 10:56:20.55	140.08	17.28	
2025-01-14 10:56:20.75	140.07	17.31	
2025-01-14 10:56:20.96	140.06	17.34	
2025-01-14 10:56:21.16	140.04	17.36	
2025-01-14 10:56:21.37	140.03	17.39	
2025-01-14 10:56:21.57	140.02	17.41	
2025-01-14 10:56:21.78	140.00	17.44	
2025-01-14 10:56:21.98	139.99	17.47	
2025-01-14 10:56:22.19	139.98	17.49	
2025-01-14 10:56:22.39	139.96	17.52	
2025-01-14 10:56:22.60	139.95	17.54	
2025-01-14 10:56:22.82	139.93	17.57	
2025-01-14 10:56:23.02	139.92	17.60	
2025-01-14 10:56:23.23	139.91	17.62	
2025-01-14 10:56:23.43	139.89	17.65	
2025-01-14 10:56:23.64	139.88	17.68	
2025-01-14 10:56:23.84	139.87	17.70	
2025-01-14 10:56:24.05	139.85	17.73	
2025-01-14 10:56:24.25	139.84	17.76	
2025-01-14 10:56:24.46	139.82	17.78	
2025-01-14 10:56:24.67	139.81	17.81	
2025-01-14 10:56:24.87	139.80	17.84	
2025-01-14 10:56:25.07	139.78	17.86	
2025-01-14 10:56:25.28	139.77	17.89	
2025-01-14 10:56:25.49	139.76	17.92	
2025-01-14 10:56:25.69	139.74	17.94	
2025-01-14 10:56:25.90	139.73	17.97	
2025-01-14 10:56:26.10	139.71	18.00	
2025-01-14 10:56:26.31	139.70	18.02	
2025-01-14 10:56:26.51	139.69	18.05	
2025-01-14 10:56:26.72	139.67	18.08	
2025-01-14 10:56:26.92	139.66	18.10	
2025-01-14 10:56:27.13	139.64	18.13	
2025-01-14 10:56:27.33	139.63	18.16	
2025-01-14 10:56:27.54	139.62	18.18	
2025-01-14 10:56:27.74	139.60	18.21	
2025-01-14 10:56:27.95	139.59	18.24	
2025-01-14 10:56:28.16	139.57	18.26	
2025-01-14 10:56:28.36	139.56	18.29	
2025-01-14 10:56:28.57	139.54	18.32	
2025-01-14 10:56:28.77	139.53	18.34	
2025-01-14 10:56:28.98	139.51	18.37	
2025-01-14 10:56:29.18	139.50	18.40	
2025-01-14 10:56:29.39	139.49	18.43	
2025-01-14 10:56:29.60	139.47	18.45	
2025-01-14 10:56:29.80	139.46	18.48	
2025-01-14 10:56:30.01	139.44	18.51	
2025-01-14 10:56:30.21	139.43	18.54	
2025-01-14 10:56:30.42	139.41	18.56	
2025-01-14 10:56:30.62	139.40	18.59	
2025-01-14 10:56:30.83	139.38	18.62	
2025-01-14 10:56:31.04	139.37	18.65	
2025-01-14 10:56:31.24	139.35	18.67	
2025-01-14 10:56:31.44	139.34	18.70	
2025-01-14 10:56:31.65	139.33	18.73	
2025-01-14 10:56:31.85	139.31	18.75	
2025-01-14 10:56:32.06	139.30	18.78	
2025-01-14 10:56:32.26	139.28	18.81	
2025-01-14 10:56:32.47	139.27	18.84	
2025-01-14 10:56:32.67	139.25	18.86	
2025-01-14 10:56:32.88	139.24	18.89	
2025-01-14 10:56:33.08	139.22	18.92	
2025-01-14 10:56:33.29	139.21	18.95	
2025-01-14 10:56:33.49	139.19	18.98	
2025-01-14 10:56:33.69	139.18	19.00	
2025-01-14 10:56:33.90	139.16	19.03	
2025-01-14 10:56:34.11	139.15	19.06	
2025-01-14 10:56:34.31	139.13	19.09	
2025-01-14 10:56:34.52	139.12	19.12	
2025-01-14 10:56:34.72	139.10	19.14	
2025-01-14 10:56:34.93	139.09	19.17	
2025-01-14 10:56:35.13	139.07	19.20	
2025-01-14 10:56:35.34	139.06	19.23	
2025-01-14 10:56:35.54	139.04	19.26	
2025-01-14 10:56:35.75	139.02	19.28	
2025-01-14 10:56:35.96	139.01	19.31	
2025-01-14 10:56:36.16	138.99	19.34	
2025-01-14 10:56:36.37	138.98	19.37	
2025-01-14 10:56:36.57	138.96	19.40	
2025-01-14 10:56:36.78	138.95	19.43	
2025-01-14 10:56:36.98	138.93	19.45	
2025-01-14 10:56:37.19	138.92	19.48	
2025-01-14 10:56:37.39	138.90	19.51	
2025-01-14 10:56:37.60	138.88	19.54	
2025-01-14 10:56:37.80	138.87	19.57	
2025-01-14 10:56:38.01	138.85	19.60	
2025-01-14 10:56:38.21	138.84	19.62	
2025-01-14 10:56:38.42	138.82	19.65	
2025-01-14 10:56:38.62	138.81	19.68	
2025-01-14 10:56:38.84	138.79	19.71	
2025-01-14 10:56:39.05	138.77	19.74	
2025-01-14 10:56:39.25	138.76	19.77	
2025-01-14 10:56:39.46	138.74	19.80	
2025-01-14 10:56:39.67	138.73	19.83	
2025-01-14 10:56:39.88	138.71	19.86	
2025-01-14 10:56:40.09	138.69	19.89	
2025-01-14 10:56:40.30	138.68	19.92	
2025-01-14 10:56:40.50	138.66	19.94	
2025-01-14 10:56:40.71	138.64	19.97	
2025-01-14 10:56:40.91	138.63	20.00	
2025-01-14 10:56:41.12	138.61	20.03	
2025-01-14 10:56:41.32	138.60	20.06	
2025-01-14 10:56:41.53	138.58	20.09	
2025-01-14 10:56:41.73	138.56	20.12	
2025-01-14 10:56:41.93	138.55	20.15	
2025-01-14 10:56:42.14	138.53	20.18	
2025-01-14 10:56:42.35	138.51	20.21	
2025-01-14 10:56:42.55	138.50	20.24	
2025-01-14 10:56:42.76	138.48	20.26	
2025-01-14 10:56:42.96	138.47	20.29	
2025-01-14 10:56:43.17	138.45	20.32	
2025-01-14 10:56:43.37	138.43	20.35	
2025-01-14 10:56:43.58	138.42	20.38	
2025-01-14 10:56:43.78	138.40	20.41	
2025-01-14 10:56:43.99	138.38	20.44	
2025-01-14 10:56:44.19	138.37	20.47	
2025-01-14 10:56:44.40	138.35	20.50	
2025-01-14 10:56:44.60	138.33	20.53	
2025-01-14 10:56:44.81	138.32	20.56	
2025-01-14 10:56:45.01	138.30	20.59	
2025-01-14 10:56:45.22	138.28	20.62	
2025-01-14 10:56:45.42	138.26	20.65	
2025-01-14 10:56:45.63	138.25	20.68	
2025-01-14 10:56:45.84	138.23	20.71	
2025-01-14 10:56:46.04	138.21	20.74	
2025-01-14 10:56:46.24	138.20	20.77	
2025-01-14 10:56:46.45	138.18	20.80	
2025-01-14 10:56:46.66	138.16	20.83	
2025-01-14 10:56:46.86	138.15	20.86	
2025-01-14 10:56:47.07	138.13	20.89	
2025-01-14 10:56:47.27	138.11	20.92	
2025-01-14 10:56:47.48	138.09	20.95	
2025-01-14 10:56:47.69	138.08	20.98	
2025-01-14 10:56:47.89	138.06	21.01	
2025-01-14 10:56:48.10	138.04	21.04	
2025-01-14 10:56:48.30	138.02	21.07	
2025-01-14 10:56:48.51	138.01	21.10	
2025-01-14 10:56:48.71	137.99	21.13	
2025-01-14 10:56:48.92	137.97	21.16	
2025-01-14 10:56:49.13	137.95	21.19	
2025-01-14 10:56:49.33	137.94	21.22	
2025-01-14 10:56:49.55	137.92	21.25	
2025-01-14 10:56:49.75	137.90	21.28	
2025-01-14 10:56:49.96	137.88	21.32	
2025-01-14 10:56:50.17	137.86	21.35	
2025-01-14 10:56:50.37	137.85	21.38	
2025-01-14 10:56:50.58	137.83	21.41	
2025-01-14 10:56:50.78	137.81	21.44	
2025-01-14 10:56:50.99	137.79	21.47	
2025-01-14 10:56:51.19	137.77	21.50	
2025-01-14 10:56:51.40	137.76	21.53	
2025-01-14 10:56:51.62	137.74	21.56	
2025-01-14 10:56:51.82	137.72	21.59	
2025-01-14 10:56:52.03	137.70	21.63	
2025-01-14 10:56:52.23	137.68	21.66	
2025-01-14 10:56:52.44	137.66	21.69	
2025-01-14 10:56:52.64	137.65	21.72	
2025-01-14 10:56:52.84	137.63	21.75	
2025-01-14 10:56:53.05	137.61	21.78	
2025-01-14 10:56:53.25	137.59	21.81	
2025-01-14 10:56:53.46	137.57	21.84	
2025-01-14 10:56:53.66	137.56	21.87	
2025-01-14 10:56:53.87	137.54	21.90	
2025-01-14 10:56:54.08	137.52	21.94	
2025-01-14 10:56:54.28	137.50	21.97	
2025-01-14 10:56:54.49	137.48	22.00	
2025-01-14 10:56:54.70	137.46	22.03	
2025-01-14 10:56:54.90	137.44	22.06	
2025-01-14 10:56:55.11	137.42	22.09	
2025-01-14 10:56:55.31	137.41	22.13	
2025-01-14 10:56:55.52	137.39	22.16	
2025-01-14 10:56:55.72	137.37	22.19	
2025-01-14 10:56:55.93	137.35	22.22	
2025-01-14 10:56:56.13	137.33	22.25	
2025-01-14 10:56:56.34	137.31	22.28	
2025-01-14 10:56:56.54	137.29	22.32	
2025-01-14 10:56:56.75	137.27	22.35	
2025-01-14 10:56:56.95	137.26	22.38	
2025-01-14 10:56:57.16	137.24	22.41	
2025-01-14 10:56:57.37	137.22	22.44	
2025-01-14 10:56:57.57	137.20	22.48	
2025-01-14 10:56:57.78	137.18	22.51	
2025-01-14 10:56:57.98	137.16	22.54	
2025-01-14 10:56:58.19	137.14	22.57	
2025-01-14 10:56:58.39	137.12	22.60	
2025-01-14 10:56:58.60	137.10	22.64	
2025-01-14 10:56:58.80	137.08	22.67	
2025-01-14 10:56:59.01	137.06	22.70	
2025-01-14 10:56:59.21	137.04	22.73	
2025-01-14 10:56:59.42	137.02	22.77	
2025-01-14 10:56:59.62	137.00	22.80	
2025-01-14 10:56:59.83	136.98	22.83	
2025-01-14 10:57:00.04	136.96	22.86	
2025-01-14 10:57:00.25	136.94	22.90	
2025-01-14 10:57:00.46	136.92	22.93	
2025-01-14 10:57:00.67	136.90	22.96	
2025-01-14 10:57:00.87	136.88	23.00	
2025-01-14 10:57:01.08	136.86	23.03	
2025-01-14 10:57:01.28	136.84	23.06	
2025-01-14 10:57:01.49	136.82	23.09	
2025-01-14 10:57:01.69	136.80	23.13	
2025-01-14 10:57:01.90	136.78	23.16	
2025-01-14 10:57:02.10	136.76	23.19	
2025-01-14 10:57:02.31	136.74	23.23	
2025-01-14 10:57:02.51	136.72	23.26	
2025-01-14 10:57:02.72	136.70	23.29	
2025-01-14 10:57:02.92	136.68	23.32	
2025-01-14 10:57:03.13	136.66	23.36	
2025-01-14 10:57:03.33	136.64	23.39	
2025-01-14 10:57:03.54	136.62	23.42	
2025-01-14 10:57:03.74	136.60	23.46	
2025-01-14 10:57:03.95	136.58	23.49	
2025-01-14 10:57:04.15	136.56	23.52	
2025-01-14 10:57:04.36	136.54	23.56	
2025-01-14 10:57:04.56	136.52	23.59	
2025-01-14 10:57:04.77	136.50	23.62	
2025-01-14 10:57:04.97	136.48	23.66	
2025-01-14 10:57:05.18	136.45	23.69	
2025-01-14 10:57:05.38	136.43	23.72	
2025-01-14 10:57:05.60	136.41	23.76	
2025-01-14 10:57:05.81	136.39	23.79	
2025-01-14 10:57:06.01	136.37	23.83	
2025-01-14 10:57:06.22	136.35	23.86	
2025-01-14 10:57:06.42	136.33	23.89	
2025-01-14 10:57:06.63	136.31	23.93	
2025-01-14 10:57:06.83	136.28	23.96	
2025-01-14 10:57:07.04	136.26	24.00	
2025-01-14 10:57:07.24	136.24	24.03	
2025-01-14 10:57:07.45	136.22	24.06	
2025-01-14 10:57:07.67	136.20	24.10	
2025-01-14 10:57:07.88	136.18	24.14	
2025-01-14 10:57:08.08	136.15	24.17	
2025-01-14 10:57:08.29	136.13	24.20	
2025-01-14 10:57:08.49	136.11	24.24	
2025-01-14 10:57:08.71	136.09	24.27	
2025-01-14 10:57:08.91	136.07	24.31	
2025-01-14 10:57:09.12	136.04	24.34	
2025-01-14 10:57:09.33	136.02	24.38	
2025-01-14 10:57:09.53	136.00	24.41	
2025-01-14 10:57:09.73	135.98	24.45	
2025-01-14 10:57:09.94	135.96	24.48	
2025-01-14 10:57:10.15	135.93	24.52	
2025-01-14 10:57:10.35	135.91	24.55	
2025-01-14 10:57:10.56	135.89	24.59	
2025-01-14 10:57:10.76	135.87	24.62	
2025-01-14 10:57:10.96	135.85	24.65	
2025-01-14 10:57:11.17	135.82	24.69	
2025-01-14 10:57:11.37	135.80	24.72	
2025-01-14 10:57:11.58	135.78	24.76	
2025-01-14 10:57:11.78	135.76	24.79	
2025-01-14 10:57:11.99	135.73	24.83	
2025-01-14 10:57:12.20	135.71	24.86	
2025-01-14 10:57:12.40	135.69	24.90	
2025-01-14 10:57:12.61	135.67	24.93	
2025-01-14 10:57:12.81	135.64	24.97	
2025-01-14 10:57:13.02	135.62	25.00	
2025-01-14 10:57:13.22	135.60	25.04	
2025-01-14 10:57:13.43	135.57	25.07	
2025-01-14 10:57:13.64	135.55	25.11	
2025-01-14 10:57:13.84	135.53	25.15	
2025-01-14 10:57:14.04	135.51	25.18	
2025-01-14 10:57:14.25	135.48	25.22	
2025-01-14 10:57:14.46	135.46	25.25	
2025-01-14 10:57:14.66	135.44	25.29	
2025-01-14 10:57:14.87	135.41	25.32	
2025-01-14 10:57:15.07	135.39	25.36	
2025-01-14 10:57:15.27	135.37	25.39	
2025-01-14 10:57:15.48	135.34	25.43	
2025-01-14 10:57:15.68	135.32	25.47	
2025-01-14 10:57:15.89	135.29	25.50	
2025-01-14 10:57:16.09	135.27	25.54	
2025-01-14 10:57:16.30	135.25	25.57	
2025-01-14 10:57:16.51	135.22	25.61	
2025-01-14 10:57:16.71	135.20	25.65	
2025-01-14 10:57:16.92	135.18	25.68	
2025-01-14 10:57:17.13	135.15	25.72	
2025-01-14 10:57:17.33	135.13	25.75	
2025-01-14 10:57:17.53	135.10	25.79	
2025-01-14 10:57:17.74	135.08	25.83	
2025-01-14 10:57:17.95	135.05	25.86	
2025-01-14 10:57:18.15	135.03	25.90	
2025-01-14 10:57:18.36	135.01	25.94	
2025-01-14 10:57:18.56	134.98	25.97	
2025-01-14 10:57:18.77	134.96	26.01	
2025-01-14 10:57:18.97	134.93	26.05	
2025-01-14 10:57:19.18	134.91	26.08	
2025-01-14 10:57:19.38	134.88	26.12	
2025-01-14 10:57:19.59	134.86	26.16	
2025-01-14 10:57:19.79	134.84	26.19	
2025-01-14 10:57:20.00	134.81	26.23	
2025-01-14 10:57:20.21	134.78	26.27	
2025-01-14 10:57:20.41	134.76	26.30	
2025-01-14 10:57:20.62	134.73	26.34	
2025-01-14 10:57:20.82	134.71	26.38	
2025-01-14 10:57:21.03	134.68	26.42	
2025-01-14 10:57:21.23	134.66	26.45	
2025-01-14 10:57:21.44	134.63	26.49	
2025-01-14 10:57:21.65	134.61	26.53	
2025-01-14 10:57:21.85	134.58	26.56	
2025-01-14 10:57:22.06	134.56	26.60	
2025-01-14 10:57:22.27	134.53	26.64	
2025-01-14 10:57:22.47	134.51	26.68	
2025-01-14 10:57:22.68	134.48	26.72	
2025-01-14 10:57:22.88	134.46	26.75	
2025-01-14 10:57:23.09	134.43	26.79	
2025-01-14 10:57:23.29	134.40	26.83	
2025-01-14 10:57:23.50	134.38	26.87	
2025-01-14 10:57:23.70	134.35	26.90	
2025-01-14 10:57:23.91	134.33	26.94	
2025-01-14 10:57:24.12	134.30	26.98	
2025-01-14 10:57:24.32	134.27	27.02	
2025-01-14 10:57:24.53	134.25	27.06	
2025-01-14 10:57:24.73	134.22	27.09	
2025-01-14 10:57:24.93	134.20	27.13	
2025-01-14 10:57:25.14	134.17	27.17	
2025-01-14 10:57:25.35	134.14	27.21	
2025-01-14 10:57:25.55	134.12	27.24	
2025-01-14 10:57:25.76	134.09	27.28	
2025-01-14 10:57:25.96	134.06	27.32	
2025-01-14 10:57:26.17	134.04	27.36	
2025-01-14 10:57:26.37	134.01	27.40	
2025-01-14 10:57:26.58	133.98	27.44	
2025-01-14 10:57:26.78	133.96	27.47	
2025-01-14 10:57:26.99	133.93	27.51	
2025-01-14 10:57:27.19	133.90	27.55	
2025-01-14 10:57:27.40	133.87	27.59	
2025-01-14 10:57:27.60	133.85	27.63	
2025-01-14 10:57:27.81	133.82	27.67	
2025-01-14 10:57:28.01	133.79	27.71	
2025-01-14 10:57:28.22	133.77	27.75	
2025-01-14 10:57:28.42	133.74	27.78	
2025-01-14 10:57:28.63	133.71	27.82	
2025-01-14 10:57:28.83	133.68	27.86	
2025-01-14 10:57:29.05	133.65	27.90	
2025-01-14 10:57:29.26	133.63	27.94	
2025-01-14 10:57:29.46	133.60	27.98	
2025-01-14 10:57:29.67	133.57	28.02	
2025-01-14 10:57:29.87	133.54	28.06	
2025-01-14 10:57:30.08	133.51	28.10	
2025-01-14 10:57:30.28	133.49	28.14	
2025-01-14 10:57:30.49	133.46	28.18	
2025-01-14 10:57:30.69	133.43	28.22	
2025-01-14 10:57:30.90	133.40	28.26	
2025-01-14 10:57:31.10	133.37	28.30	
2025-01-14 10:57:31.31	133.34	28.34	
2025-01-14 10:57:31.51	133.32	28.38	
2025-01-14 10:57:31.72	133.29	28.42	
2025-01-14 10:57:31.92	133.26	28.45	
2025-01-14 10:57:32.12	133.23	28.49	
2025-01-14 10:57:32.33	133.20	28.53	
2025-01-14 10:57:32.54	133.17	28.58	
2025-01-14 10:57:32.74	133.14	28.61	
2025-01-14 10:57:32.95	133.11	28.66	
2025-01-14 10:57:33.15	133.09	28.69	
2025-01-14 10:57:33.36	133.06	28.74	
2025-01-14 10:57:33.56	133.03	28.77	
2025-01-14 10:57:33.77	133.00	28.82	
2025-01-14 10:57:33.97	132.97	28.85	
2025-01-14 10:57:34.18	132.94	28.90	
2025-01-14 10:57:34.40	132.91	28.94	
2025-01-14 10:57:34.60	132.88	28.98	
2025-01-14 10:57:34.81	132.85	29.02	
2025-01-14 10:57:35.01	132.82	29.06	
2025-01-14 10:57:35.22	132.79	29.10	
2025-01-14 10:57:35.43	132.76	29.14	
2025-01-14 10:57:35.63	132.73	29.18	
2025-01-14 10:57:35.84	132.70	29.22	
2025-01-14 10:57:36.04	132.67	29.26	
2025-01-14 10:57:36.25	132.64	29.31	
2025-01-14 10:57:36.47	132.60	29.35	
2025-01-14 10:57:36.67	132.57	29.39	
2025-01-14 10:57:36.88	132.54	29.43	
2025-01-14 10:57:37.08	132.51	29.47	
2025-01-14 10:57:37.29	132.48	29.51	
2025-01-14 10:57:37.49	132.45	29.55	
2025-01-14 10:57:37.70	132.42	29.60	
2025-01-14 10:57:37.90	132.39	29.64	
2025-01-14 10:57:38.11	132.36	29.68	
2025-01-14 10:57:38.31	132.33	29.72	
2025-01-14 10:57:38.52	132.29	29.76	
2025-01-14 10:57:38.72	132.26	29.80	
2025-01-14 10:57:38.93	132.23	29.85	
2025-01-14 10:57:39.13	132.20	29.89	
2025-01-14 10:57:39.34	132.17	29.93	
2025-01-14 10:57:39.54	132.14	29.97	
2025-01-14 10:57:39.75	132.11	30.01	
2025-01-14 10:57:39.96	132.07	30.05	
2025-01-14 10:57:40.16	132.04	30.10	
2025-01-14 10:57:40.37	132.01	30.14	
2025-01-14 10:57:40.57	131.98	30.18	
2025-01-14 10:57:40.78	131.94	30.22	
2025-01-14 10:57:40.98	131.91	30.26	
2025-01-14 10:57:41.19	131.88	30.31	
2025-01-14 10:57:41.39	131.85	30.35	
2025-01-14 10:57:41.60	131.82	30.39	
2025-01-14 10:57:41.81	131.78	30.44	
2025-01-14 10:57:42.01	131.75	30.48	
2025-01-14 10:57:42.22	131.72	30.52	
2025-01-14 10:57:42.42	131.68	30.56	
2025-01-14 10:57:42.63	131.65	30.61	
2025-01-14 10:57:42.83	131.62	30.65	
2025-01-14 10:57:43.04	131.58	30.69	
2025-01-14 10:57:43.24	131.55	30.73	
2025-01-14 10:57:43.45	131.52	30.78	
2025-01-14 10:57:43.66	131.48	30.82	
2025-01-14 10:57:43.86	131.45	30.86	
2025-01-14 10:57:44.06	131.42	30.90	
2025-01-14 10:57:44.27	131.38	30.95	
2025-01-14 10:57:44.48	131.35	30.99	
2025-01-14 10:57:44.68	131.32	31.03	
2025-01-14 10:57:44.89	131.28	31.08	
2025-01-14 10:57:45.09	131.25	31.12	
2025-01-14 10:57:45.30	131.21	31.16	
2025-01-14 10:57:45.50	131.18	31.21	
2025-01-14 10:57:45.71	131.14	31.25	
2025-01-14 10:57:45.92	131.11	31.30	
2025-01-14 10:57:46.13	131.07	31.34	
2025-01-14 10:57:46.34	131.04	31.39	
2025-01-14 10:57:46.55	131.00	31.43	
2025-01-14 10:57:46.75	130.97	31.47	
2025-01-14 10:57:46.96	130.93	31.52	
2025-01-14 10:57:47.18	130.89	31.56	
2025-01-14 10:57:47.38	130.86	31.61	
2025-01-14 10:57:47.59	130.82	31.65	
2025-01-14 10:57:47.79	130.79	31.70	
2025-01-14 10:57:48.00	130.75	31.74	
2025-01-14 10:57:48.20	130.72	31.78	
2025-01-14 10:57:48.41	130.68	31.83	
2025-01-14 10:57:48.62	130.65	31.87	
2025-01-14 10:57:48.82	130.61	31.92	
2025-01-14 10:57:49.03	130.57	31.96	
2025-01-14 10:57:49.23	130.54	32.01	
2025-01-14 10:57:49.44	130.50	32.05	
2025-01-14 10:57:49.64	130.47	32.10	
2025-01-14 10:57:49.85	130.43	32.14	
2025-01-14 10:57:50.05	130.39	32.18	
2025-01-14 10:57:50.26	130.36	32.23	
2025-01-14 10:57:50.46	130.32	32.27	
2025-01-14 10:57:50.67	130.28	32.32	
2025-01-14 10:57:50.87	130.25	32.36	
2025-01-14 10:57:51.08	130.21	32.41	
2025-01-14 10:57:51.29	130.17	32.46	
2025-01-14 10:57:51.49	130.13	32.50	
2025-01-14 10:57:51.69	130.10	32.54	
2025-01-14 10:57:51.90	130.06	32.59	
2025-01-14 10:57:52.10	130.02	32.63	
2025-01-14 10:57:52.31	129.98	32.68	
2025-01-14 10:57:52.53	129.94	32.73	
2025-01-14 10:57:52.73	129.91	32.77	
2025-01-14 10:57:52.94	129.87	32.82	
2025-01-14 10:57:53.14	129.83	32.86	
2025-01-14 10:57:53.35	129.79	32.91	
2025-01-14 10:57:53.55	129.75	32.96	
2025-01-14 10:57:53.76	129.71	33.00	
2025-01-14 10:57:53.97	129.67	33.05	
2025-01-14 10:57:54.17	129.64	33.09	
2025-01-14 10:57:54.38	129.60	33.14	
2025-01-14 10:57:54.58	129.56	33.19	
2025-01-14 10:57:54.79	129.52	33.23	
2025-01-14 10:57:54.99	129.48	33.28	
2025-01-14 10:57:55.20	129.44	33.33	
2025-01-14 10:57:55.40	129.40	33.37	
2025-01-14 10:57:55.61	129.36	33.42	
2025-01-14 10:57:55.81	129.32	33.46	
2025-01-14 10:57:56.02	129.28	33.51	
2025-01-14 10:57:56.23	129.24	33.56	
2025-01-14 10:57:56.43	129.20	33.60	
2025-01-14 10:57:56.64	129.16	33.65	
2025-01-14 10:57:56.84	129.12	33.70	
2025-01-14 10:57:57.05	129.08	33.74	
2025-01-14 10:57:57.25	129.04	33.79	
2025-01-14 10:57:57.46	129.00	33.84	
2025-01-14 10:57:57.67	128.96	33.89	
2025-01-14 10:57:57.87	128.92	33.93	
2025-01-14 10:57:58.08	128.88	33.98	
2025-01-14 10:57:58.28	128.84	34.03	
2025-01-14 10:57:58.49	128.79	34.07	
2025-01-14 10:57:58.69	128.75	34.12	
2025-01-14 10:57:58.91	128.71	34.17	
2025-01-14 10:57:59.12	128.67	34.22	
2025-01-14 10:57:59.33	128.62	34.27	
2025-01-14 10:57:59.53	128.58	34.31	
2025-01-14 10:57:59.74	128.54	34.36	
2025-01-14 10:57:59.94	128.50	34.41	
2025-01-14 10:58:00.16	128.45	34.46	
2025-01-14 10:58:00.36	128.41	34.51	
2025-01-14 10:58:00.57	128.37	34.55	
2025-01-14 10:58:00.77	128.33	34.60	
2025-01-14 10:58:00.99	128.28	34.65	
2025-01-14 10:58:01.19	128.24	34.70	
2025-01-14 10:58:01.40	128.20	34.75	
2025-01-14 10:58:01.61	128.15	34.80	
2025-01-14 10:58:01.81	128.11	34.84	
2025-01-14 10:58:02.02	128.06	34.89	
2025-01-14 10:58:02.22	128.02	34.94	
2025-01-14 10:58:02.43	127.98	34.99	
2025-01-14 10:58:02.63	127.93	35.04	
2025-01-14 10:58:02.84	127.89	35.09	
2025-01-14 10:58:03.04	127.85	35.13	
2025-01-14 10:58:03.25	127.80	35.18	
2025-01-14 10:58:03.45	127.76	35.23	
2025-01-14 10:58:03.66	127.71	35.28	
2025-01-14 10:58:03.86	127.67	35.33	
2025-01-14 10:58:04.07	127.62	35.38	
2025-01-14 10:58:04.29	127.57	35.43	
2025-01-14 10:58:04.49	127.53	35.48	
2025-01-14 10:58:04.70	127.48	35.53	
2025-01-14 10:58:04.90	127.44	35.58	
2025-01-14 10:58:05.11	127.39	35.63	
2025-01-14 10:58:05.31	127.35	35.67	
2025-01-14 10:58:05.52	127.30	35.72	
2025-01-14 10:58:05.72	127.26	35.77	
2025-01-14 10:58:05.93	127.21	35.82	
2025-01-14 10:58:06.14	127.16	35.87	
2025-01-14 10:58:06.34	127.12	35.92	
2025-01-14 10:58:06.55	127.07	35.97	
2025-01-14 10:58:06.75	127.02	36.02	
2025-01-14 10:58:06.96	126.98	36.07	
2025-01-14 10:58:07.17	126.93	36.12	
2025-01-14 10:58:07.37	126.88	36.17	
2025-01-14 10:58:07.58	126.83	36.22	
2025-01-14 10:58:07.78	126.79	36.27	
2025-01-14 10:58:07.99	126.74	36.32	
2025-01-14 10:58:08.19	126.69	36.37	
2025-01-14 10:58:08.40	126.64	36.42	
2025-01-14 10:58:08.60	126.60	36.47	
2025-01-14 10:58:08.81	126.55	36.52	
2025-01-14 10:58:09.01	126.50	36.57	
2025-01-14 10:58:09.22	126.45	36.62	
2025-01-14 10:58:09.43	126.40	36.67	
2025-01-14 10:58:09.64	126.35	36.72	
2025-01-14 10:58:09.85	126.30	36.78	
2025-01-14 10:58:10.06	126.25	36.83	
2025-01-14 10:58:10.26	126.20	36.88	
2025-01-14 10:58:10.47	126.15	36.93	
2025-01-14 10:58:10.67	126.10	36.98	
2025-01-14 10:58:10.88	126.05	37.03	
2025-01-14 10:58:11.08	126.01	37.08	
2025-01-14 10:58:11.29	125.95	37.13	
2025-01-14 10:58:11.49	125.90	37.18	
2025-01-14 10:58:11.70	125.85	37.23	
2025-01-14 10:58:11.91	125.80	37.28	
2025-01-14 10:58:12.11	125.75	37.33	
2025-01-14 10:58:12.32	125.70	37.39	
2025-01-14 10:58:12.53	125.65	37.44	
2025-01-14 10:58:12.73	125.60	37.49	
2025-01-14 10:58:12.94	125.55	37.54	
2025-01-14 10:58:13.14	125.50	37.59	
2025-01-14 10:58:13.35	125.44	37.64	
2025-01-14 10:58:13.55	125.39	37.69	
2025-01-14 10:58:13.76	125.34	37.75	
2025-01-14 10:58:13.96	125.29	37.80	
2025-01-14 10:58:14.17	125.23	37.85	
2025-01-14 10:58:14.37	125.18	37.90	
2025-01-14 10:58:14.58	125.13	37.95	
2025-01-14 10:58:14.79	125.07	38.01	
2025-01-14 10:58:14.99	125.02	38.06	
2025-01-14 10:58:15.20	124.97	38.11	
2025-01-14 10:58:15.40	124.92	38.16	
2025-01-14 10:58:15.61	124.86	38.21	
2025-01-14 10:58:15.81	124.81	38.26	
2025-01-14 10:58:16.01	124.76	38.32	
2025-01-14 10:58:16.22	124.70	38.37	
2025-01-14 10:58:16.43	124.65	38.42	
2025-01-14 10:58:16.63	124.59	38.47	
2025-01-14 10:58:16.84	124.54	38.53	
2025-01-14 10:58:17.05	124.48	38.58	
2025-01-14 10:58:17.26	124.42	38.63	
2025-01-14 10:58:17.46	124.37	38.69	
2025-01-14 10:58:17.67	124.31	38.74	
2025-01-14 10:58:17.88	124.26	38.79	
2025-01-14 10:58:18.08	124.20	38.84	
2025-01-14 10:58:18.29	124.15	38.90	
2025-01-14 10:58:18.49	124.09	38.95	
2025-01-14 10:58:18.70	124.03	39.00	
2025-01-14 10:58:18.90	123.98	39.06	
2025-01-14 10:58:19.11	123.92	39.11	
2025-01-14 10:58:19.31	123.86	39.16	
2025-01-14 10:58:19.52	123.81	39.22	
2025-01-14 10:58:19.72	123.75	39.27	
2025-01-14 10:58:19.93	123.69	39.32	
2025-01-14 10:58:20.13	123.63	39.37	
2025-01-14 10:58:20.34	123.58	39.43	
2025-01-14 10:58:20.55	123.52	39.48	
2025-01-14 10:58:20.75	123.46	39.53	
2025-01-14 10:58:20.96	123.40	39.59	
2025-01-14 10:58:21.16	123.34	39.64	
2025-01-14 10:58:21.36	123.28	39.69	
2025-01-14 10:58:21.57	123.22	39.75	
2025-01-14 10:58:21.78	123.16	39.80	
2025-01-14 10:58:21.98	123.11	39.86	
2025-01-14 10:58:22.19	123.04	39.91	
2025-01-14 10:58:22.39	122.99	39.96	
2025-01-14 10:58:22.60	122.93	40.02	
2025-01-14 10:58:22.80	122.87	40.07	
2025-01-14 10:58:23.01	122.80	40.13	
2025-01-14 10:58:23.22	122.74	40.18	
2025-01-14 10:58:23.42	122.68	40.23	
2025-01-14 10:58:23.62	122.62	40.29	
2025-01-14 10:58:23.83	122.56	40.34	
2025-01-14 10:58:24.04	122.50	40.40	
2025-01-14 10:58:24.24	122.44	40.45	
2025-01-14 10:58:24.45	122.37	40.51	
2025-01-14 10:58:24.65	122.31	40.56	
2025-01-14 10:58:24.86	122.25	40.61	
2025-01-14 10:58:25.06	122.19	40.67	
2025-01-14 10:58:25.27	122.12	40.72	
2025-01-14 10:58:25.48	122.06	40.78	
2025-01-14 10:58:25.68	122.00	40.83	
2025-01-14 10:58:25.88	121.94	40.89	
2025-01-14 10:58:26.09	121.87	40.94	
2025-01-14 10:58:26.30	121.81	41.00	
2025-01-14 10:58:26.50	121.74	41.05	
2025-01-14 10:58:26.72	121.67	41.11	
2025-01-14 10:58:26.93	121.61	41.17	
2025-01-14 10:58:27.13	121.55	41.22	
2025-01-14 10:58:27.34	121.48	41.28	
2025-01-14 10:58:27.54	121.41	41.33	
2025-01-14 10:58:27.75	121.35	41.39	
2025-01-14 10:58:27.95	121.28	41.44	
2025-01-14 10:58:28.16	121.22	41.50	
2025-01-14 10:58:28.37	121.15	41.55	
2025-01-14 10:58:28.57	121.08	41.61	
2025-01-14 10:58:28.78	121.02	41.66	
2025-01-14 10:58:28.98	120.95	41.72	
2025-01-14 10:58:29.19	120.88	41.77	
2025-01-14 10:58:29.39	120.82	41.83	
2025-01-14 10:58:29.60	120.75	41.88	
2025-01-14 10:58:29.80	120.68	41.94	
2025-01-14 10:58:30.01	120.61	41.99	
2025-01-14 10:58:30.21	120.54	42.05	
2025-01-14 10:58:30.42	120.47	42.11	
2025-01-14 10:58:30.63	120.40	42.16	
2025-01-14 10:58:30.83	120.34	42.22	
2025-01-14 10:58:31.03	120.27	42.27	
2025-01-14 10:58:31.24	120.20	42.33	
2025-01-14 10:58:31.44	120.13	42.38	
2025-01-14 10:58:31.65	120.06	42.44	
2025-01-14 10:58:31.85	119.99	42.49	
2025-01-14 10:58:32.06	119.92	42.55	
2025-01-14 10:58:32.26	119.85	42.61	
2025-01-14 10:58:32.47	119.78	42.66	
2025-01-14 10:58:32.67	119.71	42.72	
2025-01-14 10:58:32.88	119.63	42.78	
2025-01-14 10:58:33.08	119.56	42.83	
2025-01-14 10:58:33.29	119.49	42.89	
2025-01-14 10:58:33.49	119.42	42.94	
2025-01-14 10:58:33.70	119.35	43.00	
2025-01-14 10:58:33.90	119.27	43.06	
2025-01-14 10:58:34.11	119.20	43.11	
2025-01-14 10:58:34.31	119.13	43.17	
2025-01-14 10:58:34.52	119.05	43.23	
2025-01-14 10:58:34.72	118.98	43.28	
2025-01-14 10:58:34.93	118.90	43.34	
2025-01-14 10:58:35.13	118.83	43.39	
2025-01-14 10:58:35.34	118.76	43.45	
2025-01-14 10:58:35.54	118.68	43.51	
2025-01-14 10:58:35.75	118.61	43.56	
2025-01-14 10:58:35.95	118.53	43.62	
2025-01-14 10:58:36.16	118.45	43.68	
2025-01-14 10:58:36.36	118.38	43.73	
2025-01-14 10:58:36.57	118.30	43.79	
2025-01-14 10:58:36.77	118.23	43.85	
2025-01-14 10:58:36.98	118.15	43.90	
2025-01-14 10:58:37.19	118.07	43.96	
2025-01-14 10:58:37.41	117.99	44.02	
2025-01-14 10:58:37.61	117.91	44.08	
2025-01-14 10:58:37.82	117.83	44.14	
2025-01-14 10:58:38.03	117.75	44.20	
2025-01-14 10:58:38.23	117.67	44.25	
2025-01-14 10:58:38.44	117.59	44.31	
2025-01-14 10:58:38.64	117.52	44.36	
2025-01-14 10:58:38.84	117.44	44.42	
2025-01-14 10:58:39.05	117.36	44.48	
2025-01-14 10:58:39.26	117.28	44.54	
2025-01-14 10:58:39.46	117.20	44.59	
2025-01-14 10:58:39.67	117.12	44.65	
2025-01-14 10:58:39.87	117.04	44.71	
2025-01-14 10:58:40.08	116.95	44.77	
2025-01-14 10:58:40.29	116.87	44.82	
2025-01-14 10:58:40.49	116.79	44.88	
2025-01-14 10:58:40.70	116.71	44.94	
2025-01-14 10:58:40.90	116.63	44.99	
2025-01-14 10:58:41.11	116.54	45.05	
2025-01-14 10:58:41.32	116.46	45.11	
2025-01-14 10:58:41.52	116.37	45.17	
2025-01-14 10:58:41.72	116.29	45.22	
2025-01-14 10:58:41.93	116.21	45.28	
2025-01-14 10:58:42.14	116.12	45.34	
2025-01-14 10:58:42.34	116.04	45.40	
2025-01-14 10:58:42.54	115.96	45.45	
2025-01-14 10:58:42.75	115.87	45.51	
2025-01-14 10:58:42.96	115.78	45.57	
2025-01-14 10:58:43.16	115.70	45.63	
2025-01-14 10:58:43.37	115.61	45.69	
2025-01-14 10:58:43.57	115.52	45.74	
2025-01-14 10:58:43.78	115.44	45.80	
2025-01-14 10:58:43.98	115.35	45.86	
2025-01-14 10:58:44.19	115.26	45.91	
2025-01-14 10:58:44.39	115.18	45.97	
2025-01-14 10:58:44.60	115.09	46.03	
2025-01-14 10:58:44.82	114.99	46.09	
2025-01-14 10:58:45.02	114.90	46.15	
2025-01-14 10:58:45.23	114.81	46.21	
2025-01-14 10:58:45.43	114.73	46.26	
2025-01-14 10:58:45.64	114.63	46.32	
2025-01-14 10:58:45.84	114.55	46.38	
2025-01-14 10:58:46.05	114.45	46.44	
2025-01-14 10:58:46.25	114.37	46.49	
2025-01-14 10:58:46.46	114.27	46.55	
2025-01-14 10:58:46.66	114.18	46.61	
2025-01-14 10:58:46.87	114.09	46.67	
2025-01-14 10:58:47.08	113.99	46.73	
2025-01-14 10:58:47.29	113.90	46.79	
2025-01-14 10:58:47.49	113.81	46.84	
2025-01-14 10:58:47.70	113.71	46.90	
2025-01-14 10:58:47.91	113.62	46.96	
2025-01-14 10:58:48.11	113.53	47.02	
2025-01-14 10:58:48.31	113.44	47.07	
2025-01-14 10:58:48.52	113.34	47.13	
2025-01-14 10:58:48.73	113.24	47.19	
2025-01-14 10:58:48.93	113.15	47.25	
2025-01-14 10:58:49.15	113.05	47.31	
2025-01-14 10:58:49.35	112.95	47.36	
2025-01-14 10:58:49.56	112.85	47.42	
2025-01-14 10:58:49.77	112.75	47.48	
2025-01-14 10:58:49.97	112.66	47.54	
2025-01-14 10:58:50.18	112.56	47.60	
2025-01-14 10:58:50.38	112.46	47.65	
2025-01-14 10:58:50.59	112.36	47.71	
2025-01-14 10:58:50.79	112.27	47.77	
2025-01-14 10:58:51.00	112.17	47.83	
2025-01-14 10:58:51.20	112.07	47.88	
2025-01-14 10:58:51.40	111.97	47.94	
2025-01-14 10:58:51.61	111.87	48.00	
2025-01-14 10:58:51.82	111.77	48.06	
2025-01-14 10:58:52.02	111.67	48.11	
2025-01-14 10:58:52.23	111.56	48.17	
2025-01-14 10:58:52.43	111.47	48.23	
2025-01-14 10:58:52.64	111.36	48.29	
2025-01-14 10:58:52.85	111.26	48.34	
2025-01-14 10:58:53.05	111.16	48.40	
2025-01-14 10:58:53.26	111.05	48.46	
2025-01-14 10:58:53.46	110.95	48.52	
2025-01-14 10:58:53.67	110.84	48.57	
2025-01-14 10:58:53.87	110.74	48.63	
2025-01-14 10:58:54.08	110.63	48.69	
2025-01-14 10:58:54.28	110.53	48.74	
2025-01-14 10:58:54.49	110.42	48.80	
2025-01-14 10:58:54.69	110.32	48.86	
2025-01-14 10:58:54.90	110.21	48.92	
2025-01-14 10:58:55.11	110.10	48.98	
2025-01-14 10:58:55.31	110.00	49.03	
2025-01-14 10:58:55.51	109.89	49.09	
2025-01-14 10:58:55.72	109.78	49.15	
2025-01-14 10:58:55.92	109.68	49.20	
2025-01-14 10:58:56.13	109.57	49.26	
2025-01-14 10:58:56.34	109.45	49.32	
2025-01-14 10:58:56.54	109.35	49.37	
2025-01-14 10:58:56.75	109.23	49.43	
2025-01-14 10:58:56.95	109.13	49.49	
2025-01-14 10:58:57.16	109.01	49.54	
2025-01-14 10:58:57.37	108.90	49.60	
2025-01-14 10:58:57.57	108.79	49.66	
2025-01-14 10:58:57.78	108.68	49.72	
2025-01-14 10:58:57.98	108.57	49.77	
2025-01-14 10:58:58.19	108.45	49.83	
2025-01-14 10:58:58.39	108.34	49.88	
2025-01-14 10:58:58.60	108.22	49.94	
2025-01-14 10:58:58.80	108.11	50.00	
2025-01-14 10:58:59.01	107.99	50.05	
2025-01-14 10:58:59.21	107.88	50.11	
2025-01-14 10:58:59.42	107.76	50.17	
2025-01-14 10:58:59.63	107.65	50.22	
2025-01-14 10:58:59.83	107.53	50.28	
2025-01-14 10:59:00.04	107.41	50.34	
2025-01-14 10:59:00.26	107.29	50.40	
2025-01-14 10:59:00.46	107.17	50.45	
2025-01-14 10:59:00.67	107.05	50.51	
2025-01-14 10:59:00.87	106.93	50.56	
2025-01-14 10:59:01.07	106.82	50.62	
2025-01-14 10:59:01.28	106.70	50.67	
2025-01-14 10:59:01.49	106.57	50.73	
2025-01-14 10:59:01.69	106.46	50.79	
2025-01-14 10:59:01.91	106.33	50.85	
2025-01-14 10:59:02.11	106.21	50.90	
2025-01-14 10:59:02.32	106.08	50.96	
2025-01-14 10:59:02.53	105.96	51.01	
2025-01-14 10:59:02.73	105.84	51.07	
2025-01-14 10:59:02.93	105.72	51.12	
2025-01-14 10:59:03.14	105.59	51.18	
2025-01-14 10:59:03.34	105.47	51.23	
2025-01-14 10:59:03.55	105.34	51.29	
2025-01-14 10:59:03.75	105.22	51.34	
2025-01-14 10:59:03.96	105.09	51.40	
2025-01-14 10:59:04.16	104.97	51.45	
2025-01-14 10:59:04.37	104.84	51.51	
2025-01-14 10:59:04.58	104.71	51.56	
2025-01-14 10:59:04.78	104.59	51.62	
2025-01-14 10:59:04.99	104.46	51.67	
2025-01-14 10:59:05.20	104.32	51.73	
2025-01-14 10:59:05.41	104.19	51.78	
2025-01-14 10:59:05.62	104.06	51.84	
2025-01-14 10:59:05.82	103.93	51.89	
2025-01-14 10:59:06.03	103.80	51.95	
2025-01-14 10:59:06.23	103.67	52.00	
2025-01-14 10:59:06.44	103.54	52.05	
2025-01-14 10:59:06.65	103.40	52.11	
2025-01-14 10:59:06.85	103.27	52.16	
2025-01-14 10:59:07.06	103.14	52.22	
2025-01-14 10:59:07.27	103.00	52.27	
2025-01-14 10:59:07.48	102.87	52.32	
2025-01-14 10:59:07.69	102.73	52.38	
2025-01-14 10:59:07.89	102.60	52.43	
2025-01-14 10:59:08.10	102.46	52.49	
2025-01-14 10:59:08.30	102.33	52.54	
2025-01-14 10:59:08.51	102.19	52.59	
2025-01-14 10:59:08.71	102.05	52.64	
2025-01-14 10:59:08.92	101.91	52.70	
2025-01-14 10:59:09.12	101.78	52.75	
2025-01-14 10:59:09.32	101.64	52.80	
2025-01-14 10:59:09.53	101.50	52.85	
2025-01-14 10:59:09.74	101.36	52.91	
2025-01-14 10:59:09.94	101.22	52.96	
2025-01-14 10:59:10.15	101.08	53.01	
2025-01-14 10:59:10.35	100.94	53.06	
2025-01-14 10:59:10.56	100.80	53.11	
2025-01-14 10:59:10.76	100.66	53.16	
2025-01-14 10:59:10.97	100.52	53.22	
2025-01-14 10:59:11.17	100.38	53.27	
2025-01-14 10:59:11.38	100.23	53.32	
2025-01-14 10:59:11.58	100.09	53.37	
2025-01-14 10:59:11.79	99.94	53.42	
2025-01-14 10:59:11.99	99.80	53.47	
2025-01-14 10:59:12.20	99.65	53.52	
2025-01-14 10:59:12.40	99.51	53.57	
2025-01-14 10:59:12.61	99.36	53.62	
2025-01-14 10:59:12.81	99.22	53.67	
2025-01-14 10:59:13.02	99.07	53.72	
2025-01-14 10:59:13.22	98.92	53.77	
2025-01-14 10:59:13.43	98.77	53.82	
2025-01-14 10:59:13.63	98.63	53.87	
2025-01-14 10:59:13.84	98.47	53.92	
2025-01-14 10:59:14.04	98.33	53.97	
2025-01-14 10:59:14.26	98.17	54.02	
2025-01-14 10:59:14.46	98.02	54.07	
2025-01-14 10:59:14.67	97.86	54.12	
2025-01-14 10:59:14.87	97.71	54.17	
2025-01-14 10:59:15.08	97.56	54.22	
2025-01-14 10:59:15.28	97.41	54.26	
2025-01-14 10:59:15.49	97.25	54.31	
2025-01-14 10:59:15.69	97.10	54.36	
2025-01-14 10:59:15.90	96.94	54.41	
2025-01-14 10:59:16.10	96.79	54.46	
2025-01-14 10:59:16.31	96.63	54.51	
2025-01-14 10:59:16.52	96.47	54.55	
2025-01-14 10:59:16.72	96.32	54.60	
2025-01-14 10:59:16.94	96.15	54.65	
2025-01-14 10:59:17.15	95.99	54.70	
2025-01-14 10:59:17.35	95.84	54.74	
2025-01-14 10:59:17.56	95.67	54.79	
2025-01-14 10:59:17.76	95.52	54.84	
2025-01-14 10:59:17.97	95.36	54.89	
2025-01-14 10:59:18.17	95.20	54.93	
2025-01-14 10:59:18.38	95.03	54.98	
2025-01-14 10:59:18.58	94.88	55.02	
2025-01-14 10:59:18.79	94.71	55.07	
2025-01-14 10:59:18.99	94.55	55.11	
2025-01-14 10:59:19.20	94.39	55.16	
2025-01-14 10:59:19.40	94.23	55.20	
2025-01-14 10:59:19.61	94.06	55.25	
2025-01-14 10:59:19.81	93.90	55.29	
2025-01-14 10:59:20.01	93.74	55.34	
2025-01-14 10:59:20.22	93.57	55.38	
2025-01-14 10:59:20.42	93.41	55.42	
2025-01-14 10:59:20.63	93.24	55.47	
2025-01-14 10:59:20.84	93.06	55.51	
2025-01-14 10:59:21.04	92.90	55.56	
2025-01-14 10:59:21.24	92.74	55.60	
2025-01-14 10:59:21.45	92.56	55.64	
2025-01-14 10:59:21.66	92.39	55.68	
2025-01-14 10:59:21.86	92.23	55.73	
2025-01-14 10:59:22.07	92.05	55.77	
2025-01-14 10:59:22.27	91.88	55.81	
2025-01-14 10:59:22.48	91.71	55.85	
2025-01-14 10:59:22.68	91.54	55.89	
2025-01-14 10:59:22.89	91.36	55.94	
2025-01-14 10:59:23.10	91.19	55.98	
2025-01-14 10:59:23.31	91.01	56.02	
2025-01-14 10:59:23.52	90.83	56.06	
2025-01-14 10:59:23.72	90.66	56.10	
2025-01-14 10:59:23.93	90.48	56.14	
2025-01-14 10:59:24.14	90.30	56.18	
2025-01-14 10:59:24.34	90.13	56.22	
2025-01-14 10:59:24.54	89.96	56.26	
2025-01-14 10:59:24.75	89.78	56.30	
2025-01-14 10:59:24.96	89.60	56.34	
2025-01-14 10:59:25.16	89.42	56.38	
2025-01-14 10:59:25.36	89.25	56.42	
2025-01-14 10:59:25.57	89.07	56.46	
2025-01-14 10:59:25.78	88.88	56.50	
2025-01-14 10:59:25.98	88.71	56.53	
2025-01-14 10:59:26.19	88.52	56.57	
2025-01-14 10:59:26.39	88.35	56.61	
2025-01-14 10:59:26.60	88.16	56.65	
2025-01-14 10:59:26.80	87.98	56.68	
2025-01-14 10:59:27.01	87.80	56.72	
2025-01-14 10:59:27.21	87.62	56.76	
2025-01-14 10:59:27.42	87.43	56.79	
2025-01-14 10:59:27.62	87.25	56.83	
2025-01-14 10:59:27.83	87.06	56.87	
2025-01-14 10:59:28.04	86.87	56.90	
2025-01-14 10:59:28.24	86.69	56.94	
2025-01-14 10:59:28.45	86.50	56.97	
2025-01-14 10:59:28.65	86.32	57.01	
2025-01-14 10:59:28.86	86.13	57.04	
2025-01-14 10:59:29.07	85.94	57.08	
2025-01-14 10:59:29.27	85.75	57.11	
2025-01-14 10:59:29.48	85.56	57.14	
2025-01-14 10:59:29.68	85.38	57.17	
2025-01-14 10:59:29.89	85.18	57.21	
2025-01-14 10:59:30.09	85.00	57.24	
2025-01-14 10:59:30.29	84.81	57.27	
2025-01-14 10:59:30.50	84.62	57.31	
2025-01-14 10:59:30.70	84.43	57.34	
2025-01-14 10:59:30.91	84.24	57.37	
2025-01-14 10:59:31.12	84.04	57.40	
2025-01-14 10:59:31.32	83.85	57.43	
2025-01-14 10:59:31.53	83.65	57.46	
2025-01-14 10:59:31.73	83.47	57.49	
2025-01-14 10:59:31.93	83.28	57.52	
2025-01-14 10:59:32.14	83.08	57.55	
2025-01-14 10:59:32.35	82.88	57.58	
2025-01-14 10:59:32.55	82.69	57.61	
2025-01-14 10:59:32.76	82.49	57.64	
2025-01-14 10:59:32.96	82.30	57.67	
2025-01-14 10:59:33.17	82.10	57.70	
2025-01-14 10:59:33.38	81.90	57.73	
