passes_logs/2025/01/14/SPB_Silybum_02/SPB_Silybum_02__20250114_070810_SUOMI_NPP_rec.log

#Pass ID: 20250114_070810_SUOMI NPP
#Satellite: SUOMI NPP
#Configuration: NPP
#Start time: 2025-01-14 07:08:10

#Version: 2.0.20230423
#Station: SPB_Silybum_02
#Location: 30.233357 lon 59.946436 lat
#TLE: 1 37849U 11061A   25013.79210654  .00000158  00000+0  95823-4 0  9999
#TLE: 2 37849  98.7445 314.7959 0001726  42.6053 317.5257 14.19537607684746

#Time	Az	El	Level	Level2	SNR	BER	Gain	Gain2
2025-01-14 07:08:12.91	69.14	4.11	
2025-01-14 07:08:13.12	69.12	4.12	
2025-01-14 07:08:13.33	69.09	4.13	
2025-01-14 07:08:13.53	69.07	4.14	
2025-01-14 07:08:13.74	69.05	4.15	
2025-01-14 07:08:13.94	69.03	4.16	
2025-01-14 07:08:14.15	69.00	4.17	
2025-01-14 07:08:14.35	68.98	4.18	
2025-01-14 07:08:14.56	68.96	4.19	
2025-01-14 07:08:14.77	68.94	4.20	
2025-01-14 07:08:14.97	68.91	4.21	
2025-01-14 07:08:15.18	68.89	4.22	
2025-01-14 07:08:15.38	68.87	4.22	
2025-01-14 07:08:15.59	68.84	4.23	
2025-01-14 07:08:15.79	68.82	4.24	
2025-01-14 07:08:16.00	68.80	4.25	
2025-01-14 07:08:16.20	68.78	4.26	
2025-01-14 07:08:16.41	68.75	4.27	
2025-01-14 07:08:16.61	68.73	4.28	
2025-01-14 07:08:16.82	68.71	4.29	
2025-01-14 07:08:17.02	68.69	4.30	
2025-01-14 07:08:17.23	68.66	4.31	
2025-01-14 07:08:17.44	68.64	4.32	
2025-01-14 07:08:17.64	68.62	4.33	
2025-01-14 07:08:17.85	68.59	4.34	
2025-01-14 07:08:18.05	68.57	4.35	
2025-01-14 07:08:18.26	68.55	4.36	
2025-01-14 07:08:18.46	68.52	4.37	
2025-01-14 07:08:18.67	68.50	4.37	
2025-01-14 07:08:18.88	68.48	4.38	
2025-01-14 07:08:19.08	68.46	4.39	
2025-01-14 07:08:19.28	68.43	4.40	
2025-01-14 07:08:19.49	68.41	4.41	
2025-01-14 07:08:19.70	68.39	4.42	
2025-01-14 07:08:19.90	68.36	4.43	
2025-01-14 07:08:20.11	68.34	4.44	
2025-01-14 07:08:20.31	68.32	4.45	
2025-01-14 07:08:20.52	68.29	4.46	
2025-01-14 07:08:20.72	68.27	4.47	
2025-01-14 07:08:20.93	68.25	4.48	
2025-01-14 07:08:21.13	68.22	4.49	
2025-01-14 07:08:21.34	68.20	4.50	
2025-01-14 07:08:21.54	68.18	4.51	
2025-01-14 07:08:21.75	68.15	4.52	
2025-01-14 07:08:21.96	68.13	4.52	
2025-01-14 07:08:22.16	68.11	4.53	
2025-01-14 07:08:22.37	68.08	4.54	
2025-01-14 07:08:22.57	68.06	4.55	
2025-01-14 07:08:22.78	68.04	4.56	
2025-01-14 07:08:22.99	68.01	4.57	
2025-01-14 07:08:23.19	67.99	4.58	
2025-01-14 07:08:23.39	67.97	4.59	
2025-01-14 07:08:23.60	67.94	4.60	
2025-01-14 07:08:23.80	67.92	4.61	
2025-01-14 07:08:24.01	67.90	4.62	
2025-01-14 07:08:24.21	67.87	4.63	
2025-01-14 07:08:24.43	67.85	4.64	
2025-01-14 07:08:24.64	67.83	4.65	
2025-01-14 07:08:24.84	67.80	4.66	
2025-01-14 07:08:25.05	67.78	4.67	
2025-01-14 07:08:25.25	67.76	4.67	
2025-01-14 07:08:25.46	67.73	4.68	
2025-01-14 07:08:25.66	67.71	4.69	
2025-01-14 07:08:25.87	67.68	4.70	
2025-01-14 07:08:26.08	67.66	4.71	
2025-01-14 07:08:26.28	67.64	4.72	
2025-01-14 07:08:26.48	67.61	4.73	
2025-01-14 07:08:26.69	67.59	4.74	
2025-01-14 07:08:26.89	67.57	4.75	
2025-01-14 07:08:27.10	67.54	4.76	
2025-01-14 07:08:27.31	67.52	4.77	
2025-01-14 07:08:27.51	67.50	4.78	
2025-01-14 07:08:27.71	67.47	4.79	
2025-01-14 07:08:27.92	67.45	4.80	
2025-01-14 07:08:28.12	67.43	4.81	
2025-01-14 07:08:28.33	67.40	4.81	
2025-01-14 07:08:28.53	67.38	4.82	
2025-01-14 07:08:28.74	67.35	4.83	
2025-01-14 07:08:28.95	67.33	4.84	
2025-01-14 07:08:29.15	67.31	4.85	
2025-01-14 07:08:29.36	67.28	4.86	
2025-01-14 07:08:29.56	67.26	4.87	
2025-01-14 07:08:29.77	67.23	4.88	
2025-01-14 07:08:29.97	67.21	4.89	
2025-01-14 07:08:30.18	67.19	4.90	
2025-01-14 07:08:30.39	67.16	4.91	
2025-01-14 07:08:30.59	67.14	4.92	
2025-01-14 07:08:30.81	67.11	4.93	
2025-01-14 07:08:31.02	67.09	4.94	
2025-01-14 07:08:31.22	67.07	4.95	
2025-01-14 07:08:31.43	67.04	4.96	
2025-01-14 07:08:31.63	67.02	4.96	
2025-01-14 07:08:31.84	66.99	4.97	
2025-01-14 07:08:32.04	66.97	4.98	
2025-01-14 07:08:32.25	66.95	4.99	
2025-01-14 07:08:32.45	66.92	5.00	
2025-01-14 07:08:32.66	66.90	5.01	
2025-01-14 07:08:32.86	66.87	5.02	
2025-01-14 07:08:33.07	66.85	5.03	
2025-01-14 07:08:33.27	66.83	5.04	
2025-01-14 07:08:33.48	66.80	5.05	
2025-01-14 07:08:33.69	66.78	5.06	
2025-01-14 07:08:33.89	66.75	5.07	
2025-01-14 07:08:34.09	66.73	5.08	
2025-01-14 07:08:34.30	66.70	5.08	
2025-01-14 07:08:34.51	66.68	5.09	
2025-01-14 07:08:34.71	66.66	5.10	
2025-01-14 07:08:34.92	66.63	5.11	
2025-01-14 07:08:35.12	66.61	5.12	
2025-01-14 07:08:35.33	66.58	5.13	
2025-01-14 07:08:35.53	66.56	5.14	
2025-01-14 07:08:35.74	66.53	5.15	
2025-01-14 07:08:35.94	66.51	5.16	
2025-01-14 07:08:36.15	66.49	5.17	
2025-01-14 07:08:36.36	66.46	5.18	
2025-01-14 07:08:36.56	66.44	5.19	
2025-01-14 07:08:36.77	66.41	5.20	
2025-01-14 07:08:36.97	66.39	5.21	
2025-01-14 07:08:37.17	66.37	5.21	
2025-01-14 07:08:37.38	66.34	5.22	
2025-01-14 07:08:37.58	66.32	5.23	
2025-01-14 07:08:37.79	66.29	5.24	
2025-01-14 07:08:38.00	66.27	5.25	
2025-01-14 07:08:38.20	66.24	5.26	
2025-01-14 07:08:38.41	66.22	5.27	
2025-01-14 07:08:38.61	66.19	5.28	
2025-01-14 07:08:38.82	66.17	5.29	
2025-01-14 07:08:39.03	66.14	5.30	
2025-01-14 07:08:39.24	66.12	5.31	
2025-01-14 07:08:39.45	66.09	5.32	
2025-01-14 07:08:39.65	66.07	5.33	
2025-01-14 07:08:39.86	66.04	5.34	
2025-01-14 07:08:40.07	66.02	5.35	
2025-01-14 07:08:40.27	65.99	5.35	
2025-01-14 07:08:40.48	65.97	5.36	
2025-01-14 07:08:40.68	65.95	5.37	
2025-01-14 07:08:40.89	65.92	5.38	
2025-01-14 07:08:41.09	65.90	5.39	
2025-01-14 07:08:41.30	65.87	5.40	
2025-01-14 07:08:41.50	65.85	5.41	
2025-01-14 07:08:41.71	65.82	5.42	
2025-01-14 07:08:41.91	65.80	5.43	
2025-01-14 07:08:42.12	65.77	5.44	
2025-01-14 07:08:42.32	65.75	5.45	
2025-01-14 07:08:42.53	65.72	5.46	
2025-01-14 07:08:42.74	65.70	5.46	
2025-01-14 07:08:42.94	65.67	5.47	
2025-01-14 07:08:43.15	65.65	5.48	
2025-01-14 07:08:43.35	65.62	5.49	
2025-01-14 07:08:43.57	65.60	5.50	
2025-01-14 07:08:43.78	65.57	5.51	
2025-01-14 07:08:43.98	65.55	5.52	
2025-01-14 07:08:44.19	65.52	5.53	
2025-01-14 07:08:44.39	65.50	5.54	
2025-01-14 07:08:44.60	65.47	5.55	
2025-01-14 07:08:44.80	65.45	5.56	
2025-01-14 07:08:45.01	65.42	5.57	
2025-01-14 07:08:45.22	65.40	5.58	
2025-01-14 07:08:45.42	65.37	5.58	
2025-01-14 07:08:45.63	65.35	5.59	
2025-01-14 07:08:45.83	65.32	5.60	
2025-01-14 07:08:46.04	65.30	5.61	
2025-01-14 07:08:46.25	65.27	5.62	
2025-01-14 07:08:46.45	65.25	5.63	
2025-01-14 07:08:46.65	65.22	5.64	
2025-01-14 07:08:46.86	65.20	5.65	
2025-01-14 07:08:47.06	65.17	5.66	
2025-01-14 07:08:47.27	65.15	5.67	
2025-01-14 07:08:47.48	65.12	5.68	
2025-01-14 07:08:47.68	65.09	5.69	
2025-01-14 07:08:47.88	65.07	5.69	
2025-01-14 07:08:48.09	65.04	5.70	
2025-01-14 07:08:48.30	65.02	5.71	
2025-01-14 07:08:48.50	64.99	5.72	
2025-01-14 07:08:48.71	64.97	5.73	
2025-01-14 07:08:48.91	64.94	5.74	
2025-01-14 07:08:49.12	64.92	5.75	
2025-01-14 07:08:49.32	64.89	5.76	
2025-01-14 07:08:49.53	64.87	5.77	
2025-01-14 07:08:49.74	64.84	5.78	
2025-01-14 07:08:49.94	64.82	5.79	
2025-01-14 07:08:50.15	64.79	5.80	
2025-01-14 07:08:50.35	64.77	5.80	
2025-01-14 07:08:50.56	64.74	5.81	
2025-01-14 07:08:50.76	64.71	5.82	
2025-01-14 07:08:50.97	64.69	5.83	
2025-01-14 07:08:51.17	64.66	5.84	
2025-01-14 07:08:51.38	64.64	5.85	
2025-01-14 07:08:51.58	64.61	5.86	
2025-01-14 07:08:51.79	64.59	5.87	
2025-01-14 07:08:52.00	64.56	5.88	
2025-01-14 07:08:52.20	64.54	5.89	
2025-01-14 07:08:52.40	64.51	5.90	
2025-01-14 07:08:52.61	64.48	5.91	
2025-01-14 07:08:52.81	64.46	5.91	
2025-01-14 07:08:53.02	64.43	5.92	
2025-01-14 07:08:53.22	64.41	5.93	
2025-01-14 07:08:53.43	64.38	5.94	
2025-01-14 07:08:53.64	64.36	5.95	
2025-01-14 07:08:53.84	64.33	5.96	
2025-01-14 07:08:54.05	64.30	5.97	
2025-01-14 07:08:54.25	64.28	5.98	
2025-01-14 07:08:54.46	64.25	5.99	
2025-01-14 07:08:54.66	64.23	6.00	
2025-01-14 07:08:54.87	64.20	6.01	
2025-01-14 07:08:55.08	64.18	6.01	
2025-01-14 07:08:55.28	64.15	6.02	
2025-01-14 07:08:55.49	64.12	6.03	
2025-01-14 07:08:55.69	64.10	6.04	
2025-01-14 07:08:55.89	64.07	6.05	
2025-01-14 07:08:56.10	64.05	6.06	
2025-01-14 07:08:56.30	64.02	6.07	
2025-01-14 07:08:56.51	63.99	6.08	
2025-01-14 07:08:56.71	63.97	6.09	
2025-01-14 07:08:56.92	63.94	6.10	
2025-01-14 07:08:57.12	63.92	6.11	
2025-01-14 07:08:57.33	63.89	6.11	
2025-01-14 07:08:57.55	63.86	6.12	
2025-01-14 07:08:57.75	63.84	6.13	
2025-01-14 07:08:57.96	63.81	6.14	
2025-01-14 07:08:58.16	63.79	6.15	
2025-01-14 07:08:58.37	63.76	6.16	
2025-01-14 07:08:58.57	63.73	6.17	
2025-01-14 07:08:58.78	63.71	6.18	
2025-01-14 07:08:58.98	63.68	6.19	
2025-01-14 07:08:59.19	63.66	6.20	
2025-01-14 07:08:59.39	63.63	6.21	
2025-01-14 07:08:59.60	63.60	6.21	
2025-01-14 07:08:59.80	63.58	6.22	
2025-01-14 07:09:00.01	63.55	6.23	
2025-01-14 07:09:00.21	63.53	6.24	
2025-01-14 07:09:00.42	63.50	6.25	
2025-01-14 07:09:00.62	63.47	6.26	
2025-01-14 07:09:00.82	63.45	6.27	
2025-01-14 07:09:01.03	63.42	6.28	
2025-01-14 07:09:01.24	63.39	6.29	
2025-01-14 07:09:01.44	63.37	6.30	
2025-01-14 07:09:01.65	63.34	6.30	
2025-01-14 07:09:01.85	63.32	6.31	
2025-01-14 07:09:02.06	63.29	6.32	
2025-01-14 07:09:02.27	63.26	6.33	
2025-01-14 07:09:02.47	63.24	6.34	
2025-01-14 07:09:02.67	63.21	6.35	
2025-01-14 07:09:02.88	63.18	6.36	
2025-01-14 07:09:03.09	63.16	6.37	
2025-01-14 07:09:03.29	63.13	6.38	
2025-01-14 07:09:03.50	63.10	6.39	
2025-01-14 07:09:03.70	63.08	6.39	
2025-01-14 07:09:03.91	63.05	6.40	
2025-01-14 07:09:04.11	63.02	6.41	
2025-01-14 07:09:04.32	63.00	6.42	
2025-01-14 07:09:04.52	62.97	6.43	
2025-01-14 07:09:04.73	62.94	6.44	
2025-01-14 07:09:04.93	62.92	6.45	
2025-01-14 07:09:05.14	62.89	6.46	
2025-01-14 07:09:05.35	62.86	6.47	
2025-01-14 07:09:05.55	62.84	6.48	
2025-01-14 07:09:05.76	62.81	6.48	
2025-01-14 07:09:05.96	62.78	6.49	
2025-01-14 07:09:06.17	62.76	6.50	
2025-01-14 07:09:06.37	62.73	6.51	
2025-01-14 07:09:06.58	62.70	6.52	
2025-01-14 07:09:06.78	62.68	6.53	
2025-01-14 07:09:06.99	62.65	6.54	
2025-01-14 07:09:07.19	62.62	6.55	
2025-01-14 07:09:07.40	62.60	6.56	
2025-01-14 07:09:07.61	62.57	6.56	
2025-01-14 07:09:07.81	62.54	6.57	
2025-01-14 07:09:08.02	62.52	6.58	
2025-01-14 07:09:08.22	62.49	6.59	
2025-01-14 07:09:08.43	62.46	6.60	
2025-01-14 07:09:08.63	62.44	6.61	
2025-01-14 07:09:08.83	62.41	6.62	
2025-01-14 07:09:09.04	62.38	6.63	
2025-01-14 07:09:09.26	62.35	6.64	
2025-01-14 07:09:09.46	62.33	6.65	
2025-01-14 07:09:09.67	62.30	6.65	
2025-01-14 07:09:09.87	62.27	6.66	
2025-01-14 07:09:10.08	62.25	6.67	
2025-01-14 07:09:10.28	62.22	6.68	
2025-01-14 07:09:10.49	62.19	6.69	
2025-01-14 07:09:10.69	62.16	6.70	
2025-01-14 07:09:10.90	62.14	6.71	
2025-01-14 07:09:11.11	62.11	6.72	
2025-01-14 07:09:11.31	62.08	6.73	
2025-01-14 07:09:11.52	62.06	6.73	
2025-01-14 07:09:11.72	62.03	6.74	
2025-01-14 07:09:11.92	62.00	6.75	
2025-01-14 07:09:12.14	61.97	6.76	
2025-01-14 07:09:12.34	61.95	6.77	
2025-01-14 07:09:12.54	61.92	6.78	
2025-01-14 07:09:12.75	61.89	6.79	
2025-01-14 07:09:12.96	61.86	6.80	
2025-01-14 07:09:13.16	61.84	6.81	
2025-01-14 07:09:13.37	61.81	6.81	
2025-01-14 07:09:13.57	61.78	6.82	
2025-01-14 07:09:13.78	61.76	6.83	
2025-01-14 07:09:13.98	61.73	6.84	
2025-01-14 07:09:14.19	61.70	6.85	
2025-01-14 07:09:14.39	61.67	6.86	
2025-01-14 07:09:14.60	61.65	6.87	
2025-01-14 07:09:14.80	61.62	6.88	
2025-01-14 07:09:15.01	61.59	6.89	
2025-01-14 07:09:15.21	61.56	6.89	
2025-01-14 07:09:15.42	61.54	6.90	
2025-01-14 07:09:15.64	61.51	6.91	
2025-01-14 07:09:15.84	61.48	6.92	
2025-01-14 07:09:16.05	61.45	6.93	
2025-01-14 07:09:16.26	61.42	6.94	
2025-01-14 07:09:16.46	61.40	6.95	
2025-01-14 07:09:16.66	61.37	6.96	
2025-01-14 07:09:16.87	61.34	6.96	
2025-01-14 07:09:17.08	61.31	6.97	
2025-01-14 07:09:17.28	61.29	6.98	
2025-01-14 07:09:17.49	61.26	6.99	
2025-01-14 07:09:17.69	61.23	7.00	
2025-01-14 07:09:17.90	61.20	7.01	
2025-01-14 07:09:18.10	61.18	7.02	
2025-01-14 07:09:18.31	61.15	7.03	
2025-01-14 07:09:18.51	61.12	7.04	
2025-01-14 07:09:18.72	61.09	7.04	
2025-01-14 07:09:18.92	61.07	7.05	
2025-01-14 07:09:19.13	61.04	7.06	
2025-01-14 07:09:19.34	61.01	7.07	
2025-01-14 07:09:19.54	60.98	7.08	
2025-01-14 07:09:19.75	60.95	7.09	
2025-01-14 07:09:19.95	60.93	7.10	
2025-01-14 07:09:20.16	60.90	7.11	
2025-01-14 07:09:20.36	60.87	7.11	
2025-01-14 07:09:20.57	60.84	7.12	
2025-01-14 07:09:20.77	60.82	7.13	
2025-01-14 07:09:20.98	60.79	7.14	
2025-01-14 07:09:21.18	60.76	7.15	
2025-01-14 07:09:21.39	60.73	7.16	
2025-01-14 07:09:21.59	60.70	7.17	
2025-01-14 07:09:21.80	60.67	7.18	
2025-01-14 07:09:22.00	60.65	7.18	
2025-01-14 07:09:22.21	60.62	7.19	
2025-01-14 07:09:22.42	60.59	7.20	
2025-01-14 07:09:22.62	60.56	7.21	
2025-01-14 07:09:22.83	60.53	7.22	
2025-01-14 07:09:23.03	60.51	7.23	
2025-01-14 07:09:23.24	60.48	7.24	
2025-01-14 07:09:23.44	60.45	7.24	
2025-01-14 07:09:23.65	60.42	7.25	
2025-01-14 07:09:23.85	60.39	7.26	
2025-01-14 07:09:24.06	60.37	7.27	
2025-01-14 07:09:24.26	60.34	7.28	
2025-01-14 07:09:24.47	60.31	7.29	
2025-01-14 07:09:24.68	60.28	7.30	
2025-01-14 07:09:24.88	60.25	7.31	
2025-01-14 07:09:25.09	60.22	7.31	
2025-01-14 07:09:25.29	60.20	7.32	
2025-01-14 07:09:25.50	60.17	7.33	
2025-01-14 07:09:25.70	60.14	7.34	
2025-01-14 07:09:25.91	60.11	7.35	
2025-01-14 07:09:26.11	60.08	7.36	
2025-01-14 07:09:26.31	60.06	7.37	
2025-01-14 07:09:26.52	60.03	7.37	
2025-01-14 07:09:26.73	60.00	7.38	
2025-01-14 07:09:26.93	59.97	7.39	
2025-01-14 07:09:27.14	59.94	7.40	
2025-01-14 07:09:27.34	59.91	7.41	
2025-01-14 07:09:27.55	59.88	7.42	
2025-01-14 07:09:27.75	59.86	7.43	
2025-01-14 07:09:27.96	59.83	7.44	
2025-01-14 07:09:28.16	59.80	7.44	
2025-01-14 07:09:28.37	59.77	7.45	
2025-01-14 07:09:28.57	59.74	7.46	
2025-01-14 07:09:28.78	59.71	7.47	
2025-01-14 07:09:28.98	59.69	7.48	
2025-01-14 07:09:29.19	59.66	7.49	
2025-01-14 07:09:29.39	59.63	7.49	
2025-01-14 07:09:29.60	59.60	7.50	
2025-01-14 07:09:29.80	59.57	7.51	
2025-01-14 07:09:30.01	59.54	7.52	
2025-01-14 07:09:30.21	59.51	7.53	
2025-01-14 07:09:30.42	59.48	7.54	
2025-01-14 07:09:30.64	59.45	7.55	
2025-01-14 07:09:30.84	59.43	7.56	
2025-01-14 07:09:31.05	59.40	7.56	
2025-01-14 07:09:31.25	59.37	7.57	
2025-01-14 07:09:31.46	59.34	7.58	
2025-01-14 07:09:31.66	59.31	7.59	
2025-01-14 07:09:31.87	59.28	7.60	
2025-01-14 07:09:32.07	59.25	7.61	
2025-01-14 07:09:32.28	59.22	7.62	
2025-01-14 07:09:32.48	59.20	7.62	
2025-01-14 07:09:32.69	59.17	7.63	
2025-01-14 07:09:32.89	59.14	7.64	
2025-01-14 07:09:33.10	59.11	7.65	
2025-01-14 07:09:33.30	59.08	7.66	
2025-01-14 07:09:33.51	59.05	7.67	
2025-01-14 07:09:33.71	59.02	7.67	
2025-01-14 07:09:33.92	58.99	7.68	
2025-01-14 07:09:34.12	58.96	7.69	
2025-01-14 07:09:34.33	58.93	7.70	
2025-01-14 07:09:34.54	58.90	7.71	
2025-01-14 07:09:34.74	58.88	7.72	
2025-01-14 07:09:34.95	58.85	7.73	
2025-01-14 07:09:35.15	58.82	7.73	
2025-01-14 07:09:35.36	58.79	7.74	
2025-01-14 07:09:35.56	58.76	7.75	
2025-01-14 07:09:35.77	58.73	7.76	
2025-01-14 07:09:35.97	58.70	7.77	
2025-01-14 07:09:36.18	58.67	7.78	
2025-01-14 07:09:36.38	58.64	7.78	
2025-01-14 07:09:36.58	58.62	7.79	
2025-01-14 07:09:36.79	58.59	7.80	
2025-01-14 07:09:36.99	58.56	7.81	
2025-01-14 07:09:37.20	58.53	7.82	
2025-01-14 07:09:37.41	58.50	7.83	
2025-01-14 07:09:37.61	58.47	7.84	
2025-01-14 07:09:37.82	58.44	7.84	
2025-01-14 07:09:38.02	58.41	7.85	
2025-01-14 07:09:38.23	58.38	7.86	
2025-01-14 07:09:38.43	58.35	7.87	
2025-01-14 07:09:38.64	58.32	7.88	
2025-01-14 07:09:38.85	58.29	7.89	
2025-01-14 07:09:39.05	58.26	7.89	
2025-01-14 07:09:39.26	58.23	7.90	
2025-01-14 07:09:39.46	58.20	7.91	
2025-01-14 07:09:39.67	58.17	7.92	
2025-01-14 07:09:39.88	58.14	7.93	
2025-01-14 07:09:40.09	58.11	7.94	
2025-01-14 07:09:40.30	58.08	7.95	
2025-01-14 07:09:40.50	58.05	7.95	
2025-01-14 07:09:40.71	58.02	7.96	
2025-01-14 07:09:40.91	58.00	7.97	
2025-01-14 07:09:41.12	57.96	7.98	
2025-01-14 07:09:41.33	57.93	7.99	
2025-01-14 07:09:41.53	57.91	8.00	
2025-01-14 07:09:41.74	57.88	8.00	
2025-01-14 07:09:41.94	57.85	8.01	
2025-01-14 07:09:42.15	57.82	8.02	
2025-01-14 07:09:42.37	57.78	8.03	
2025-01-14 07:09:42.57	57.76	8.04	
2025-01-14 07:09:42.78	57.72	8.05	
2025-01-14 07:09:42.99	57.69	8.05	
2025-01-14 07:09:43.19	57.67	8.06	
2025-01-14 07:09:43.40	57.64	8.07	
2025-01-14 07:09:43.60	57.61	8.08	
2025-01-14 07:09:43.81	57.58	8.09	
2025-01-14 07:09:44.01	57.55	8.10	
2025-01-14 07:09:44.22	57.52	8.10	
2025-01-14 07:09:44.42	57.49	8.11	
2025-01-14 07:09:44.63	57.46	8.12	
2025-01-14 07:09:44.83	57.43	8.13	
2025-01-14 07:09:45.04	57.40	8.14	
2025-01-14 07:09:45.24	57.37	8.15	
2025-01-14 07:09:45.45	57.34	8.15	
2025-01-14 07:09:45.65	57.31	8.16	
2025-01-14 07:09:45.86	57.28	8.17	
2025-01-14 07:09:46.07	57.25	8.18	
2025-01-14 07:09:46.27	57.22	8.19	
2025-01-14 07:09:46.48	57.19	8.19	
2025-01-14 07:09:46.68	57.16	8.20	
2025-01-14 07:09:46.89	57.13	8.21	
2025-01-14 07:09:47.10	57.10	8.22	
2025-01-14 07:09:47.30	57.07	8.23	
2025-01-14 07:09:47.51	57.04	8.24	
2025-01-14 07:09:47.71	57.01	8.24	
2025-01-14 07:09:47.92	56.97	8.25	
2025-01-14 07:09:48.12	56.95	8.26	
2025-01-14 07:09:48.33	56.91	8.27	
2025-01-14 07:09:48.53	56.89	8.28	
2025-01-14 07:09:48.74	56.85	8.29	
2025-01-14 07:09:48.94	56.82	8.29	
2025-01-14 07:09:49.15	56.79	8.30	
2025-01-14 07:09:49.35	56.76	8.31	
2025-01-14 07:09:49.56	56.73	8.32	
2025-01-14 07:09:49.76	56.70	8.33	
2025-01-14 07:09:49.97	56.67	8.33	
2025-01-14 07:09:50.17	56.64	8.34	
2025-01-14 07:09:50.38	56.61	8.35	
2025-01-14 07:09:50.58	56.58	8.36	
2025-01-14 07:09:50.80	56.55	8.37	
2025-01-14 07:09:51.00	56.52	8.37	
2025-01-14 07:09:51.21	56.49	8.38	
2025-01-14 07:09:51.41	56.46	8.39	
2025-01-14 07:09:51.62	56.43	8.40	
2025-01-14 07:09:51.83	56.40	8.41	
2025-01-14 07:09:52.03	56.37	8.42	
2025-01-14 07:09:52.24	56.34	8.42	
2025-01-14 07:09:52.44	56.31	8.43	
2025-01-14 07:09:52.65	56.28	8.44	
2025-01-14 07:09:52.86	56.24	8.45	
2025-01-14 07:09:53.06	56.21	8.46	
2025-01-14 07:09:53.26	56.18	8.46	
2025-01-14 07:09:53.47	56.15	8.47	
2025-01-14 07:09:53.68	56.12	8.48	
2025-01-14 07:09:53.88	56.09	8.49	
2025-01-14 07:09:54.09	56.06	8.50	
2025-01-14 07:09:54.29	56.03	8.50	
2025-01-14 07:09:54.50	56.00	8.51	
2025-01-14 07:09:54.70	55.97	8.52	
2025-01-14 07:09:54.91	55.94	8.53	
2025-01-14 07:09:55.12	55.91	8.54	
2025-01-14 07:09:55.32	55.88	8.54	
2025-01-14 07:09:55.53	55.84	8.55	
2025-01-14 07:09:55.73	55.81	8.56	
2025-01-14 07:09:55.94	55.78	8.57	
2025-01-14 07:09:56.14	55.75	8.58	
2025-01-14 07:09:56.35	55.72	8.58	
2025-01-14 07:09:56.55	55.69	8.59	
2025-01-14 07:09:56.76	55.66	8.60	
2025-01-14 07:09:56.96	55.63	8.61	
2025-01-14 07:09:57.17	55.60	8.62	
2025-01-14 07:09:57.38	55.57	8.62	
2025-01-14 07:09:57.59	55.53	8.63	
2025-01-14 07:09:57.79	55.50	8.64	
2025-01-14 07:09:57.99	55.47	8.65	
2025-01-14 07:09:58.19	55.44	8.66	
2025-01-14 07:09:58.40	55.41	8.66	
2025-01-14 07:09:58.60	55.38	8.67	
2025-01-14 07:09:58.81	55.35	8.68	
2025-01-14 07:09:59.01	55.32	8.69	
2025-01-14 07:09:59.22	55.29	8.70	
2025-01-14 07:09:59.42	55.26	8.70	
2025-01-14 07:09:59.63	55.23	8.71	
2025-01-14 07:09:59.84	55.19	8.72	
2025-01-14 07:10:00.04	55.16	8.73	
2025-01-14 07:10:00.25	55.13	8.74	
2025-01-14 07:10:00.45	55.10	8.74	
2025-01-14 07:10:00.66	55.07	8.75	
2025-01-14 07:10:00.86	55.04	8.76	
2025-01-14 07:10:01.07	55.01	8.77	
2025-01-14 07:10:01.28	54.97	8.77	
2025-01-14 07:10:01.48	54.94	8.78	
2025-01-14 07:10:01.69	54.91	8.79	
2025-01-14 07:10:01.89	54.88	8.80	
2025-01-14 07:10:02.10	54.85	8.81	
2025-01-14 07:10:02.30	54.82	8.81	
2025-01-14 07:10:02.51	54.79	8.82	
2025-01-14 07:10:02.71	54.76	8.83	
2025-01-14 07:10:02.92	54.72	8.84	
2025-01-14 07:10:03.13	54.69	8.85	
2025-01-14 07:10:03.33	54.66	8.85	
2025-01-14 07:10:03.54	54.63	8.86	
2025-01-14 07:10:03.74	54.60	8.87	
2025-01-14 07:10:03.95	54.57	8.88	
2025-01-14 07:10:04.15	54.54	8.88	
2025-01-14 07:10:04.36	54.50	8.89	
2025-01-14 07:10:04.57	54.47	8.90	
2025-01-14 07:10:04.77	54.44	8.91	
2025-01-14 07:10:04.97	54.41	8.91	
2025-01-14 07:10:05.18	54.38	8.92	
2025-01-14 07:10:05.38	54.35	8.93	
2025-01-14 07:10:05.59	54.31	8.94	
2025-01-14 07:10:05.79	54.28	8.95	
2025-01-14 07:10:06.00	54.25	8.95	
2025-01-14 07:10:06.21	54.22	8.96	
2025-01-14 07:10:06.41	54.19	8.97	
2025-01-14 07:10:06.62	54.16	8.98	
2025-01-14 07:10:06.82	54.12	8.98	
2025-01-14 07:10:07.03	54.09	8.99	
2025-01-14 07:10:07.23	54.06	9.00	
2025-01-14 07:10:07.44	54.03	9.01	
2025-01-14 07:10:07.65	54.00	9.02	
2025-01-14 07:10:07.85	53.96	9.02	
2025-01-14 07:10:08.05	53.93	9.03	
2025-01-14 07:10:08.27	53.90	9.04	
2025-01-14 07:10:08.48	53.87	9.05	
2025-01-14 07:10:08.68	53.84	9.05	
2025-01-14 07:10:08.88	53.80	9.06	
2025-01-14 07:10:09.09	53.77	9.07	
2025-01-14 07:10:09.29	53.74	9.08	
2025-01-14 07:10:09.50	53.71	9.08	
2025-01-14 07:10:09.70	53.68	9.09	
2025-01-14 07:10:09.91	53.64	9.10	
2025-01-14 07:10:10.11	53.61	9.11	
2025-01-14 07:10:10.32	53.58	9.11	
2025-01-14 07:10:10.52	53.55	9.12	
2025-01-14 07:10:10.73	53.52	9.13	
2025-01-14 07:10:10.94	53.48	9.14	
2025-01-14 07:10:11.14	53.45	9.14	
2025-01-14 07:10:11.35	53.42	9.15	
2025-01-14 07:10:11.55	53.39	9.16	
2025-01-14 07:10:11.76	53.36	9.17	
2025-01-14 07:10:11.96	53.32	9.17	
2025-01-14 07:10:12.17	53.29	9.18	
2025-01-14 07:10:12.37	53.26	9.19	
2025-01-14 07:10:12.57	53.23	9.20	
2025-01-14 07:10:12.78	53.20	9.20	
2025-01-14 07:10:12.99	53.16	9.21	
2025-01-14 07:10:13.19	53.13	9.22	
2025-01-14 07:10:13.40	53.10	9.23	
2025-01-14 07:10:13.60	53.07	9.23	
2025-01-14 07:10:13.81	53.03	9.24	
2025-01-14 07:10:14.01	53.00	9.25	
2025-01-14 07:10:14.22	52.97	9.26	
2025-01-14 07:10:14.43	52.94	9.26	
2025-01-14 07:10:14.63	52.90	9.27	
2025-01-14 07:10:14.84	52.87	9.28	
2025-01-14 07:10:15.05	52.84	9.29	
2025-01-14 07:10:15.25	52.81	9.29	
2025-01-14 07:10:15.47	52.77	9.30	
2025-01-14 07:10:15.68	52.74	9.31	
2025-01-14 07:10:15.88	52.71	9.32	
2025-01-14 07:10:16.09	52.67	9.33	
2025-01-14 07:10:16.29	52.64	9.33	
2025-01-14 07:10:16.51	52.61	9.34	
2025-01-14 07:10:16.72	52.57	9.35	
2025-01-14 07:10:16.92	52.54	9.35	
2025-01-14 07:10:17.13	52.51	9.36	
2025-01-14 07:10:17.33	52.48	9.37	
2025-01-14 07:10:17.54	52.44	9.38	
2025-01-14 07:10:17.75	52.41	9.38	
2025-01-14 07:10:17.95	52.38	9.39	
2025-01-14 07:10:18.16	52.35	9.40	
2025-01-14 07:10:18.36	52.31	9.41	
2025-01-14 07:10:18.57	52.28	9.41	
2025-01-14 07:10:18.77	52.25	9.42	
2025-01-14 07:10:18.98	52.21	9.43	
2025-01-14 07:10:19.18	52.18	9.44	
2025-01-14 07:10:19.39	52.15	9.44	
2025-01-14 07:10:19.59	52.12	9.45	
2025-01-14 07:10:19.80	52.08	9.46	
2025-01-14 07:10:20.00	52.05	9.46	
2025-01-14 07:10:20.21	52.02	9.47	
2025-01-14 07:10:20.42	51.98	9.48	
2025-01-14 07:10:20.62	51.95	9.49	
2025-01-14 07:10:20.82	51.92	9.49	
2025-01-14 07:10:21.03	51.89	9.50	
2025-01-14 07:10:21.25	51.85	9.51	
2025-01-14 07:10:21.45	51.82	9.52	
2025-01-14 07:10:21.66	51.79	9.52	
2025-01-14 07:10:21.88	51.75	9.53	
2025-01-14 07:10:22.08	51.72	9.54	
2025-01-14 07:10:22.28	51.69	9.55	
2025-01-14 07:10:22.49	51.65	9.55	
2025-01-14 07:10:22.70	51.62	9.56	
2025-01-14 07:10:22.90	51.59	9.57	
2025-01-14 07:10:23.11	51.55	9.57	
2025-01-14 07:10:23.31	51.52	9.58	
2025-01-14 07:10:23.52	51.49	9.59	
2025-01-14 07:10:23.72	51.45	9.60	
2025-01-14 07:10:23.93	51.42	9.60	
2025-01-14 07:10:24.13	51.39	9.61	
2025-01-14 07:10:24.34	51.35	9.62	
2025-01-14 07:10:24.55	51.32	9.62	
2025-01-14 07:10:24.75	51.29	9.63	
2025-01-14 07:10:24.95	51.26	9.64	
2025-01-14 07:10:25.16	51.22	9.65	
2025-01-14 07:10:25.36	51.19	9.65	
2025-01-14 07:10:25.57	51.15	9.66	
2025-01-14 07:10:25.78	51.12	9.67	
2025-01-14 07:10:25.98	51.09	9.67	
2025-01-14 07:10:26.19	51.05	9.68	
2025-01-14 07:10:26.39	51.02	9.69	
2025-01-14 07:10:26.60	50.99	9.70	
2025-01-14 07:10:26.80	50.96	9.70	
2025-01-14 07:10:27.01	50.92	9.71	
2025-01-14 07:10:27.23	50.89	9.72	
2025-01-14 07:10:27.43	50.85	9.72	
2025-01-14 07:10:27.64	50.82	9.73	
2025-01-14 07:10:27.84	50.79	9.74	
2025-01-14 07:10:28.05	50.75	9.74	
2025-01-14 07:10:28.25	50.72	9.75	
2025-01-14 07:10:28.46	50.68	9.76	
2025-01-14 07:10:28.66	50.65	9.77	
2025-01-14 07:10:28.87	50.62	9.77	
2025-01-14 07:10:29.07	50.59	9.78	
2025-01-14 07:10:29.28	50.55	9.79	
2025-01-14 07:10:29.48	50.52	9.79	
2025-01-14 07:10:29.69	50.48	9.80	
2025-01-14 07:10:29.89	50.45	9.81	
2025-01-14 07:10:30.10	50.42	9.81	
2025-01-14 07:10:30.30	50.38	9.82	
2025-01-14 07:10:30.51	50.35	9.83	
2025-01-14 07:10:30.71	50.32	9.83	
2025-01-14 07:10:30.92	50.28	9.84	
2025-01-14 07:10:31.12	50.25	9.85	
2025-01-14 07:10:31.33	50.21	9.86	
2025-01-14 07:10:31.53	50.18	9.86	
2025-01-14 07:10:31.73	50.15	9.87	
2025-01-14 07:10:31.94	50.11	9.88	
2025-01-14 07:10:32.15	50.08	9.88	
2025-01-14 07:10:32.35	50.05	9.89	
2025-01-14 07:10:32.55	50.01	9.90	
2025-01-14 07:10:32.76	49.98	9.90	
2025-01-14 07:10:32.97	49.95	9.91	
2025-01-14 07:10:33.17	49.91	9.92	
2025-01-14 07:10:33.38	49.88	9.92	
2025-01-14 07:10:33.58	49.84	9.93	
2025-01-14 07:10:33.79	49.81	9.94	
2025-01-14 07:10:33.99	49.78	9.94	
2025-01-14 07:10:34.20	49.74	9.95	
2025-01-14 07:10:34.41	49.71	9.96	
2025-01-14 07:10:34.61	49.67	9.96	
2025-01-14 07:10:34.82	49.64	9.97	
2025-01-14 07:10:35.02	49.61	9.98	
2025-01-14 07:10:35.23	49.57	9.98	
2025-01-14 07:10:35.43	49.54	9.99	
2025-01-14 07:10:35.64	49.50	10.00	
2025-01-14 07:10:35.84	49.47	10.00	
2025-01-14 07:10:36.05	49.44	10.01	
2025-01-14 07:10:36.25	49.40	10.02	
2025-01-14 07:10:36.46	49.37	10.02	
2025-01-14 07:10:36.67	49.33	10.03	
2025-01-14 07:10:36.87	49.30	10.04	
2025-01-14 07:10:37.08	49.26	10.05	
2025-01-14 07:10:37.28	49.23	10.05	
2025-01-14 07:10:37.49	49.20	10.06	
2025-01-14 07:10:37.69	49.16	10.06	
2025-01-14 07:10:37.89	49.13	10.07	
2025-01-14 07:10:38.10	49.09	10.08	
2025-01-14 07:10:38.30	49.06	10.08	
2025-01-14 07:10:38.51	49.03	10.09	
2025-01-14 07:10:38.71	48.99	10.10	
2025-01-14 07:10:38.92	48.96	10.10	
2025-01-14 07:10:39.12	48.92	10.11	
2025-01-14 07:10:39.33	48.89	10.12	
2025-01-14 07:10:39.53	48.86	10.12	
2025-01-14 07:10:39.74	48.82	10.13	
2025-01-14 07:10:39.94	48.79	10.14	
2025-01-14 07:10:40.15	48.75	10.14	
2025-01-14 07:10:40.35	48.72	10.15	
2025-01-14 07:10:40.56	48.68	10.16	
2025-01-14 07:10:40.76	48.65	10.16	
2025-01-14 07:10:40.97	48.61	10.17	
2025-01-14 07:10:41.18	48.58	10.18	
2025-01-14 07:10:41.38	48.54	10.18	
2025-01-14 07:10:41.58	48.51	10.19	
2025-01-14 07:10:41.79	48.48	10.20	
2025-01-14 07:10:42.00	48.44	10.20	
2025-01-14 07:10:42.20	48.41	10.21	
2025-01-14 07:10:42.41	48.37	10.22	
2025-01-14 07:10:42.61	48.34	10.22	
2025-01-14 07:10:42.82	48.30	10.23	
2025-01-14 07:10:43.02	48.27	10.23	
2025-01-14 07:10:43.23	48.23	10.24	
2025-01-14 07:10:43.43	48.20	10.25	
2025-01-14 07:10:43.64	48.16	10.25	
2025-01-14 07:10:43.84	48.13	10.26	
2025-01-14 07:10:44.05	48.10	10.27	
2025-01-14 07:10:44.25	48.06	10.27	
2025-01-14 07:10:44.45	48.03	10.28	
2025-01-14 07:10:44.66	47.99	10.29	
2025-01-14 07:10:44.86	47.96	10.29	
2025-01-14 07:10:45.07	47.92	10.30	
2025-01-14 07:10:45.27	47.89	10.30	
2025-01-14 07:10:45.48	47.85	10.31	
2025-01-14 07:10:45.69	47.82	10.32	
2025-01-14 07:10:45.89	47.78	10.32	
2025-01-14 07:10:46.10	47.75	10.33	
2025-01-14 07:10:46.30	47.71	10.34	
2025-01-14 07:10:46.51	47.68	10.34	
2025-01-14 07:10:46.71	47.64	10.35	
2025-01-14 07:10:46.92	47.61	10.35	
2025-01-14 07:10:47.12	47.57	10.36	
2025-01-14 07:10:47.33	47.54	10.37	
2025-01-14 07:10:47.53	47.50	10.37	
2025-01-14 07:10:47.74	47.47	10.38	
2025-01-14 07:10:47.94	47.43	10.39	
2025-01-14 07:10:48.15	47.40	10.39	
2025-01-14 07:10:48.35	47.36	10.40	
2025-01-14 07:10:48.56	47.33	10.40	
2025-01-14 07:10:48.76	47.29	10.41	
2025-01-14 07:10:48.97	47.26	10.42	
2025-01-14 07:10:49.17	47.22	10.42	
2025-01-14 07:10:49.38	47.19	10.43	
2025-01-14 07:10:49.59	47.15	10.44	
2025-01-14 07:10:49.79	47.12	10.44	
2025-01-14 07:10:50.00	47.08	10.45	
2025-01-14 07:10:50.20	47.05	10.45	
2025-01-14 07:10:50.41	47.01	10.46	
2025-01-14 07:10:50.61	46.98	10.47	
2025-01-14 07:10:50.81	46.94	10.47	
2025-01-14 07:10:51.02	46.91	10.48	
2025-01-14 07:10:51.22	46.87	10.48	
2025-01-14 07:10:51.43	46.84	10.49	
2025-01-14 07:10:51.63	46.80	10.50	
2025-01-14 07:10:51.84	46.77	10.50	
2025-01-14 07:10:52.04	46.73	10.51	
2025-01-14 07:10:52.25	46.70	10.51	
2025-01-14 07:10:52.46	46.66	10.52	
2025-01-14 07:10:52.66	46.63	10.53	
2025-01-14 07:10:52.87	46.59	10.53	
2025-01-14 07:10:53.07	46.56	10.54	
2025-01-14 07:10:53.28	46.52	10.54	
2025-01-14 07:10:53.48	46.49	10.55	
2025-01-14 07:10:53.69	46.45	10.56	
2025-01-14 07:10:53.89	46.41	10.56	
2025-01-14 07:10:54.10	46.38	10.57	
2025-01-14 07:10:54.31	46.34	10.57	
2025-01-14 07:10:54.51	46.31	10.58	
2025-01-14 07:10:54.72	46.27	10.59	
2025-01-14 07:10:54.92	46.24	10.59	
2025-01-14 07:10:55.13	46.20	10.60	
2025-01-14 07:10:55.33	46.17	10.60	
2025-01-14 07:10:55.54	46.13	10.61	
2025-01-14 07:10:55.74	46.09	10.62	
2025-01-14 07:10:55.95	46.06	10.62	
2025-01-14 07:10:56.15	46.02	10.63	
2025-01-14 07:10:56.36	45.99	10.63	
2025-01-14 07:10:56.56	45.95	10.64	
2025-01-14 07:10:56.77	45.92	10.64	
2025-01-14 07:10:56.97	45.88	10.65	
2025-01-14 07:10:57.18	45.85	10.66	
2025-01-14 07:10:57.38	45.81	10.66	
2025-01-14 07:10:57.59	45.77	10.67	
2025-01-14 07:10:57.80	45.74	10.67	
2025-01-14 07:10:58.00	45.70	10.68	
2025-01-14 07:10:58.22	45.66	10.69	
2025-01-14 07:10:58.42	45.63	10.69	
2025-01-14 07:10:58.63	45.59	10.70	
2025-01-14 07:10:58.83	45.56	10.70	
2025-01-14 07:10:59.04	45.52	10.71	
2025-01-14 07:10:59.26	45.48	10.71	
2025-01-14 07:10:59.46	45.45	10.72	
2025-01-14 07:10:59.67	45.41	10.73	
2025-01-14 07:10:59.87	45.38	10.73	
2025-01-14 07:11:00.08	45.34	10.74	
2025-01-14 07:11:00.28	45.31	10.74	
2025-01-14 07:11:00.48	45.27	10.75	
2025-01-14 07:11:00.69	45.23	10.75	
2025-01-14 07:11:00.89	45.20	10.76	
2025-01-14 07:11:01.10	45.16	10.77	
2025-01-14 07:11:01.31	45.13	10.77	
2025-01-14 07:11:01.52	45.09	10.78	
2025-01-14 07:11:01.72	45.05	10.78	
2025-01-14 07:11:01.93	45.02	10.79	
2025-01-14 07:11:02.14	44.98	10.79	
2025-01-14 07:11:02.34	44.95	10.80	
2025-01-14 07:11:02.54	44.91	10.80	
2025-01-14 07:11:02.75	44.87	10.81	
2025-01-14 07:11:02.95	44.84	10.82	
2025-01-14 07:11:03.16	44.80	10.82	
2025-01-14 07:11:03.36	44.77	10.83	
2025-01-14 07:11:03.56	44.73	10.83	
2025-01-14 07:11:03.76	44.70	10.84	
2025-01-14 07:11:03.96	44.66	10.84	
2025-01-14 07:11:04.17	44.62	10.85	
2025-01-14 07:11:04.37	44.59	10.85	
2025-01-14 07:11:04.58	44.55	10.86	
2025-01-14 07:11:04.78	44.52	10.86	
2025-01-14 07:11:04.99	44.48	10.87	
2025-01-14 07:11:05.19	44.44	10.88	
2025-01-14 07:11:05.40	44.41	10.88	
2025-01-14 07:11:05.60	44.37	10.89	
2025-01-14 07:11:05.81	44.33	10.89	
2025-01-14 07:11:06.01	44.30	10.90	
2025-01-14 07:11:06.22	44.26	10.90	
2025-01-14 07:11:06.42	44.23	10.91	
2025-01-14 07:11:06.63	44.19	10.91	
2025-01-14 07:11:06.83	44.15	10.92	
2025-01-14 07:11:07.04	44.12	10.92	
2025-01-14 07:11:07.24	44.08	10.93	
2025-01-14 07:11:07.45	44.04	10.93	
2025-01-14 07:11:07.65	44.01	10.94	
2025-01-14 07:11:07.86	43.97	10.95	
2025-01-14 07:11:08.07	43.94	10.95	
2025-01-14 07:11:08.27	43.90	10.96	
2025-01-14 07:11:08.48	43.86	10.96	
2025-01-14 07:11:08.68	43.83	10.97	
2025-01-14 07:11:08.89	43.79	10.97	
2025-01-14 07:11:09.09	43.75	10.98	
2025-01-14 07:11:09.30	43.72	10.98	
2025-01-14 07:11:09.51	43.68	10.99	
2025-01-14 07:11:09.71	43.64	10.99	
2025-01-14 07:11:09.93	43.60	11.00	
2025-01-14 07:11:10.14	43.57	11.00	
2025-01-14 07:11:10.34	43.53	11.01	
2025-01-14 07:11:10.55	43.49	11.01	
2025-01-14 07:11:10.75	43.46	11.02	
2025-01-14 07:11:10.97	43.42	11.02	
2025-01-14 07:11:11.17	43.38	11.03	
2025-01-14 07:11:11.38	43.35	11.03	
2025-01-14 07:11:11.59	43.31	11.04	
2025-01-14 07:11:11.79	43.27	11.05	
2025-01-14 07:11:12.00	43.24	11.05	
2025-01-14 07:11:12.20	43.20	11.06	
2025-01-14 07:11:12.41	43.16	11.06	
2025-01-14 07:11:12.62	43.13	11.07	
2025-01-14 07:11:12.82	43.09	11.07	
2025-01-14 07:11:13.03	43.05	11.08	
2025-01-14 07:11:13.23	43.02	11.08	
2025-01-14 07:11:13.44	42.98	11.09	
2025-01-14 07:11:13.64	42.94	11.09	
2025-01-14 07:11:13.85	42.91	11.10	
2025-01-14 07:11:14.05	42.87	11.10	
2025-01-14 07:11:14.26	42.83	11.11	
2025-01-14 07:11:14.46	42.80	11.11	
2025-01-14 07:11:14.67	42.76	11.12	
2025-01-14 07:11:14.88	42.72	11.12	
2025-01-14 07:11:15.08	42.69	11.13	
2025-01-14 07:11:15.29	42.65	11.13	
2025-01-14 07:11:15.49	42.61	11.14	
2025-01-14 07:11:15.70	42.57	11.14	
2025-01-14 07:11:15.90	42.54	11.15	
2025-01-14 07:11:16.11	42.50	11.15	
2025-01-14 07:11:16.31	42.46	11.16	
2025-01-14 07:11:16.52	42.43	11.16	
2025-01-14 07:11:16.72	42.39	11.16	
2025-01-14 07:11:16.93	42.35	11.17	
2025-01-14 07:11:17.13	42.32	11.17	
2025-01-14 07:11:17.34	42.28	11.18	
2025-01-14 07:11:17.54	42.24	11.18	
2025-01-14 07:11:17.75	42.21	11.19	
2025-01-14 07:11:17.95	42.17	11.19	
2025-01-14 07:11:18.16	42.13	11.20	
2025-01-14 07:11:18.36	42.10	11.20	
2025-01-14 07:11:18.57	42.06	11.21	
2025-01-14 07:11:18.77	42.02	11.21	
2025-01-14 07:11:18.98	41.98	11.22	
2025-01-14 07:11:19.18	41.95	11.22	
2025-01-14 07:11:19.39	41.91	11.23	
2025-01-14 07:11:19.59	41.87	11.23	
2025-01-14 07:11:19.80	41.84	11.24	
2025-01-14 07:11:20.01	41.80	11.24	
2025-01-14 07:11:20.21	41.76	11.25	
2025-01-14 07:11:20.42	41.72	11.25	
2025-01-14 07:11:20.62	41.69	11.26	
2025-01-14 07:11:20.83	41.65	11.26	
2025-01-14 07:11:21.03	41.61	11.26	
2025-01-14 07:11:21.24	41.58	11.27	
2025-01-14 07:11:21.44	41.54	11.27	
2025-01-14 07:11:21.65	41.50	11.28	
2025-01-14 07:11:21.85	41.46	11.28	
2025-01-14 07:11:22.06	41.43	11.29	
2025-01-14 07:11:22.26	41.39	11.29	
2025-01-14 07:11:22.47	41.35	11.30	
2025-01-14 07:11:22.67	41.32	11.30	
2025-01-14 07:11:22.88	41.28	11.31	
2025-01-14 07:11:23.08	41.24	11.31	
2025-01-14 07:11:23.29	41.20	11.32	
2025-01-14 07:11:23.50	41.17	11.32	
2025-01-14 07:11:23.70	41.13	11.32	
2025-01-14 07:11:23.91	41.09	11.33	
2025-01-14 07:11:24.11	41.05	11.33	
2025-01-14 07:11:24.32	41.02	11.34	
2025-01-14 07:11:24.53	40.98	11.34	
2025-01-14 07:11:24.73	40.94	11.35	
2025-01-14 07:11:24.93	40.91	11.35	
2025-01-14 07:11:25.14	40.87	11.36	
2025-01-14 07:11:25.35	40.83	11.36	
2025-01-14 07:11:25.55	40.79	11.36	
2025-01-14 07:11:25.76	40.75	11.37	
2025-01-14 07:11:25.96	40.72	11.37	
2025-01-14 07:11:26.17	40.68	11.38	
2025-01-14 07:11:26.37	40.64	11.38	
2025-01-14 07:11:26.58	40.60	11.39	
2025-01-14 07:11:26.78	40.57	11.39	
2025-01-14 07:11:26.99	40.53	11.39	
2025-01-14 07:11:27.19	40.49	11.40	
2025-01-14 07:11:27.40	40.45	11.40	
2025-01-14 07:11:27.60	40.42	11.41	
2025-01-14 07:11:27.81	40.38	11.41	
2025-01-14 07:11:28.01	40.34	11.42	
2025-01-14 07:11:28.22	40.30	11.42	
2025-01-14 07:11:28.42	40.27	11.42	
2025-01-14 07:11:28.63	40.23	11.43	
2025-01-14 07:11:28.83	40.19	11.43	
2025-01-14 07:11:29.03	40.16	11.44	
2025-01-14 07:11:29.24	40.12	11.44	
2025-01-14 07:11:29.44	40.08	11.45	
2025-01-14 07:11:29.65	40.04	11.45	
2025-01-14 07:11:29.85	40.01	11.45	
2025-01-14 07:11:30.06	39.97	11.46	
2025-01-14 07:11:30.26	39.93	11.46	
2025-01-14 07:11:30.47	39.89	11.47	
2025-01-14 07:11:30.67	39.86	11.47	
2025-01-14 07:11:30.88	39.82	11.47	
2025-01-14 07:11:31.08	39.78	11.48	
2025-01-14 07:11:31.29	39.74	11.48	
2025-01-14 07:11:31.49	39.70	11.49	
2025-01-14 07:11:31.70	39.67	11.49	
2025-01-14 07:11:31.90	39.63	11.49	
2025-01-14 07:11:32.11	39.59	11.50	
2025-01-14 07:11:32.31	39.55	11.50	
2025-01-14 07:11:32.52	39.52	11.51	
2025-01-14 07:11:32.73	39.48	11.51	
2025-01-14 07:11:32.93	39.44	11.51	
2025-01-14 07:11:33.14	39.40	11.52	
2025-01-14 07:11:33.34	39.36	11.52	
2025-01-14 07:11:33.55	39.33	11.53	
2025-01-14 07:11:33.75	39.29	11.53	
2025-01-14 07:11:33.96	39.25	11.53	
2025-01-14 07:11:34.17	39.21	11.54	
2025-01-14 07:11:34.37	39.17	11.54	
2025-01-14 07:11:34.58	39.14	11.55	
2025-01-14 07:11:34.78	39.10	11.55	
2025-01-14 07:11:34.99	39.06	11.55	
2025-01-14 07:11:35.19	39.02	11.56	
2025-01-14 07:11:35.40	38.98	11.56	
2025-01-14 07:11:35.62	38.94	11.57	
2025-01-14 07:11:35.82	38.91	11.57	
2025-01-14 07:11:36.03	38.87	11.57	
2025-01-14 07:11:36.24	38.83	11.58	
2025-01-14 07:11:36.44	38.79	11.58	
2025-01-14 07:11:36.64	38.76	11.59	
2025-01-14 07:11:36.85	38.72	11.59	
2025-01-14 07:11:37.06	38.68	11.59	
2025-01-14 07:11:37.26	38.64	11.60	
2025-01-14 07:11:37.47	38.60	11.60	
2025-01-14 07:11:37.69	38.56	11.60	
2025-01-14 07:11:37.89	38.52	11.61	
2025-01-14 07:11:38.10	38.48	11.61	
2025-01-14 07:11:38.32	38.44	11.62	
2025-01-14 07:11:38.52	38.41	11.62	
2025-01-14 07:11:38.73	38.37	11.62	
2025-01-14 07:11:38.93	38.33	11.63	
2025-01-14 07:11:39.14	38.29	11.63	
2025-01-14 07:11:39.35	38.25	11.63	
2025-01-14 07:11:39.55	38.22	11.64	
2025-01-14 07:11:39.75	38.18	11.64	
2025-01-14 07:11:39.96	38.14	11.64	
2025-01-14 07:11:40.17	38.10	11.65	
2025-01-14 07:11:40.37	38.06	11.65	
2025-01-14 07:11:40.58	38.02	11.66	
2025-01-14 07:11:40.78	37.99	11.66	
2025-01-14 07:11:40.99	37.95	11.66	
2025-01-14 07:11:41.20	37.91	11.67	
2025-01-14 07:11:41.40	37.87	11.67	
2025-01-14 07:11:41.60	37.83	11.67	
2025-01-14 07:11:41.81	37.80	11.68	
2025-01-14 07:11:42.01	37.76	11.68	
2025-01-14 07:11:42.22	37.72	11.68	
2025-01-14 07:11:42.43	37.68	11.69	
2025-01-14 07:11:42.63	37.64	11.69	
2025-01-14 07:11:42.84	37.60	11.69	
2025-01-14 07:11:43.04	37.57	11.70	
2025-01-14 07:11:43.25	37.53	11.70	
2025-01-14 07:11:43.45	37.49	11.70	
2025-01-14 07:11:43.66	37.45	11.71	
2025-01-14 07:11:43.86	37.41	11.71	
2025-01-14 07:11:44.07	37.37	11.71	
2025-01-14 07:11:44.27	37.34	11.72	
2025-01-14 07:11:44.48	37.30	11.72	
2025-01-14 07:11:44.69	37.26	11.72	
2025-01-14 07:11:44.89	37.22	11.73	
2025-01-14 07:11:45.10	37.18	11.73	
2025-01-14 07:11:45.30	37.14	11.73	
2025-01-14 07:11:45.51	37.10	11.74	
2025-01-14 07:11:45.71	37.07	11.74	
2025-01-14 07:11:45.92	37.03	11.74	
2025-01-14 07:11:46.12	36.99	11.75	
2025-01-14 07:11:46.33	36.95	11.75	
2025-01-14 07:11:46.54	36.91	11.75	
2025-01-14 07:11:46.74	36.87	11.76	
2025-01-14 07:11:46.95	36.84	11.76	
2025-01-14 07:11:47.15	36.80	11.76	
2025-01-14 07:11:47.36	36.76	11.77	
2025-01-14 07:11:47.56	36.72	11.77	
2025-01-14 07:11:47.77	36.68	11.77	
2025-01-14 07:11:47.98	36.64	11.78	
2025-01-14 07:11:48.18	36.61	11.78	
2025-01-14 07:11:48.39	36.57	11.78	
2025-01-14 07:11:48.59	36.53	11.78	
2025-01-14 07:11:48.80	36.49	11.79	
2025-01-14 07:11:49.00	36.45	11.79	
2025-01-14 07:11:49.21	36.41	11.79	
2025-01-14 07:11:49.41	36.37	11.80	
2025-01-14 07:11:49.62	36.33	11.80	
2025-01-14 07:11:49.82	36.30	11.80	
2025-01-14 07:11:50.03	36.26	11.81	
2025-01-14 07:11:50.23	36.22	11.81	
2025-01-14 07:11:50.44	36.18	11.81	
2025-01-14 07:11:50.64	36.14	11.82	
2025-01-14 07:11:50.85	36.10	11.82	
2025-01-14 07:11:51.05	36.07	11.82	
2025-01-14 07:11:51.26	36.03	11.82	
2025-01-14 07:11:51.46	35.99	11.83	
2025-01-14 07:11:51.67	35.95	11.83	
2025-01-14 07:11:51.87	35.91	11.83	
2025-01-14 07:11:52.08	35.87	11.84	
2025-01-14 07:11:52.29	35.83	11.84	
2025-01-14 07:11:52.49	35.80	11.84	
2025-01-14 07:11:52.70	35.76	11.84	
2025-01-14 07:11:52.90	35.72	11.85	
2025-01-14 07:11:53.11	35.68	11.85	
2025-01-14 07:11:53.31	35.64	11.85	
2025-01-14 07:11:53.52	35.60	11.86	
2025-01-14 07:11:53.72	35.56	11.86	
2025-01-14 07:11:53.93	35.52	11.86	
2025-01-14 07:11:54.13	35.49	11.86	
2025-01-14 07:11:54.34	35.45	11.87	
2025-01-14 07:11:54.54	35.41	11.87	
2025-01-14 07:11:54.75	35.37	11.87	
2025-01-14 07:11:54.95	35.33	11.87	
2025-01-14 07:11:55.16	35.29	11.88	
2025-01-14 07:11:55.36	35.25	11.88	
2025-01-14 07:11:55.57	35.21	11.88	
2025-01-14 07:11:55.77	35.18	11.89	
2025-01-14 07:11:55.98	35.14	11.89	
2025-01-14 07:11:56.19	35.10	11.89	
2025-01-14 07:11:56.39	35.06	11.89	
2025-01-14 07:11:56.60	35.02	11.90	
2025-01-14 07:11:56.80	34.98	11.90	
2025-01-14 07:11:57.01	34.94	11.90	
2025-01-14 07:11:57.21	34.90	11.90	
2025-01-14 07:11:57.42	34.86	11.91	
2025-01-14 07:11:57.62	34.83	11.91	
2025-01-14 07:11:57.83	34.79	11.91	
2025-01-14 07:11:58.03	34.75	11.91	
2025-01-14 07:11:58.24	34.71	11.92	
2025-01-14 07:11:58.44	34.67	11.92	
2025-01-14 07:11:58.65	34.63	11.92	
2025-01-14 07:11:58.85	34.59	11.92	
2025-01-14 07:11:59.06	34.55	11.93	
2025-01-14 07:11:59.26	34.52	11.93	
2025-01-14 07:11:59.47	34.48	11.93	
2025-01-14 07:11:59.68	34.44	11.93	
2025-01-14 07:11:59.88	34.40	11.94	
2025-01-14 07:12:00.10	34.36	11.94	
2025-01-14 07:12:00.31	34.32	11.94	
2025-01-14 07:12:00.51	34.28	11.94	
2025-01-14 07:12:00.72	34.24	11.95	
2025-01-14 07:12:00.92	34.20	11.95	
2025-01-14 07:12:01.13	34.16	11.95	
2025-01-14 07:12:01.33	34.12	11.95	
2025-01-14 07:12:01.54	34.08	11.95	
2025-01-14 07:12:01.74	34.05	11.96	
2025-01-14 07:12:01.95	34.01	11.96	
2025-01-14 07:12:02.15	33.97	11.96	
2025-01-14 07:12:02.36	33.93	11.96	
2025-01-14 07:12:02.56	33.89	11.97	
2025-01-14 07:12:02.77	33.85	11.97	
2025-01-14 07:12:02.97	33.81	11.97	
2025-01-14 07:12:03.18	33.77	11.97	
2025-01-14 07:12:03.38	33.73	11.97	
2025-01-14 07:12:03.59	33.69	11.98	
2025-01-14 07:12:03.79	33.66	11.98	
2025-01-14 07:12:04.00	33.62	11.98	
2025-01-14 07:12:04.21	33.58	11.98	
2025-01-14 07:12:04.41	33.54	11.99	
2025-01-14 07:12:04.61	33.50	11.99	
2025-01-14 07:12:04.82	33.46	11.99	
2025-01-14 07:12:05.02	33.42	11.99	
2025-01-14 07:12:05.23	33.38	11.99	
2025-01-14 07:12:05.43	33.34	12.00	
2025-01-14 07:12:05.64	33.30	12.00	
2025-01-14 07:12:05.85	33.26	12.00	
2025-01-14 07:12:06.05	33.23	12.00	
2025-01-14 07:12:06.26	33.19	12.00	
2025-01-14 07:12:06.46	33.15	12.01	
2025-01-14 07:12:06.67	33.11	12.01	
2025-01-14 07:12:06.87	33.07	12.01	
2025-01-14 07:12:07.08	33.03	12.01	
2025-01-14 07:12:07.29	32.99	12.01	
2025-01-14 07:12:07.49	32.95	12.02	
2025-01-14 07:12:07.69	32.91	12.02	
2025-01-14 07:12:07.90	32.87	12.02	
2025-01-14 07:12:08.10	32.84	12.02	
2025-01-14 07:12:08.31	32.80	12.02	
2025-01-14 07:12:08.51	32.76	12.03	
2025-01-14 07:12:08.72	32.72	12.03	
2025-01-14 07:12:08.92	32.68	12.03	
2025-01-14 07:12:09.13	32.64	12.03	
2025-01-14 07:12:09.34	32.60	12.03	
2025-01-14 07:12:09.54	32.56	12.03	
2025-01-14 07:12:09.74	32.52	12.04	
2025-01-14 07:12:09.95	32.48	12.04	
2025-01-14 07:12:10.16	32.44	12.04	
2025-01-14 07:12:10.36	32.41	12.04	
2025-01-14 07:12:10.57	32.36	12.04	
2025-01-14 07:12:10.77	32.33	12.05	
2025-01-14 07:12:10.98	32.29	12.05	
2025-01-14 07:12:11.18	32.25	12.05	
2025-01-14 07:12:11.39	32.21	12.05	
2025-01-14 07:12:11.59	32.17	12.05	
2025-01-14 07:12:11.80	32.13	12.05	
2025-01-14 07:12:12.00	32.09	12.06	
2025-01-14 07:12:12.21	32.05	12.06	
2025-01-14 07:12:12.41	32.01	12.06	
2025-01-14 07:12:12.62	31.97	12.06	
2025-01-14 07:12:12.82	31.94	12.06	
2025-01-14 07:12:13.03	31.89	12.06	
2025-01-14 07:12:13.24	31.85	12.06	
2025-01-14 07:12:13.44	31.82	12.07	
2025-01-14 07:12:13.65	31.78	12.07	
2025-01-14 07:12:13.85	31.74	12.07	
2025-01-14 07:12:14.05	31.70	12.07	
2025-01-14 07:12:14.26	31.66	12.07	
2025-01-14 07:12:14.47	31.62	12.07	
2025-01-14 07:12:14.67	31.58	12.08	
2025-01-14 07:12:14.88	31.54	12.08	
2025-01-14 07:12:15.08	31.50	12.08	
2025-01-14 07:12:15.29	31.46	12.08	
2025-01-14 07:12:15.49	31.42	12.08	
2025-01-14 07:12:15.70	31.38	12.08	
2025-01-14 07:12:15.90	31.35	12.08	
2025-01-14 07:12:16.11	31.31	12.09	
2025-01-14 07:12:16.31	31.27	12.09	
2025-01-14 07:12:16.52	31.23	12.09	
2025-01-14 07:12:16.72	31.19	12.09	
2025-01-14 07:12:16.92	31.15	12.09	
2025-01-14 07:12:17.13	31.11	12.09	
2025-01-14 07:12:17.33	31.07	12.09	
2025-01-14 07:12:17.54	31.03	12.09	
2025-01-14 07:12:17.75	30.99	12.10	
2025-01-14 07:12:17.95	30.95	12.10	
2025-01-14 07:12:18.16	30.91	12.10	
2025-01-14 07:12:18.36	30.87	12.10	
2025-01-14 07:12:18.57	30.83	12.10	
2025-01-14 07:12:18.77	30.80	12.10	
2025-01-14 07:12:18.98	30.76	12.10	
2025-01-14 07:12:19.19	30.72	12.10	
2025-01-14 07:12:19.39	30.68	12.11	
2025-01-14 07:12:19.61	30.64	12.11	
2025-01-14 07:12:19.81	30.60	12.11	
2025-01-14 07:12:20.02	30.56	12.11	
2025-01-14 07:12:20.23	30.52	12.11	
2025-01-14 07:12:20.44	30.48	12.11	
2025-01-14 07:12:20.65	30.44	12.11	
2025-01-14 07:12:20.85	30.40	12.11	
2025-01-14 07:12:21.06	30.36	12.11	
2025-01-14 07:12:21.26	30.32	12.12	
2025-01-14 07:12:21.48	30.28	12.12	
2025-01-14 07:12:21.69	30.24	12.12	
2025-01-14 07:12:21.89	30.20	12.12	
2025-01-14 07:12:22.10	30.16	12.12	
2025-01-14 07:12:22.30	30.12	12.12	
2025-01-14 07:12:22.51	30.08	12.12	
2025-01-14 07:12:22.71	30.04	12.12	
2025-01-14 07:12:22.92	30.00	12.12	
2025-01-14 07:12:23.12	29.96	12.12	
2025-01-14 07:12:23.33	29.92	12.13	
2025-01-14 07:12:23.53	29.88	12.13	
2025-01-14 07:12:23.74	29.84	12.13	
2025-01-14 07:12:23.95	29.80	12.13	
2025-01-14 07:12:24.15	29.76	12.13	
2025-01-14 07:12:24.36	29.72	12.13	
2025-01-14 07:12:24.56	29.69	12.13	
2025-01-14 07:12:24.76	29.65	12.13	
2025-01-14 07:12:24.97	29.61	12.13	
2025-01-14 07:12:25.18	29.57	12.13	
2025-01-14 07:12:25.38	29.53	12.13	
2025-01-14 07:12:25.59	29.49	12.14	
2025-01-14 07:12:25.79	29.45	12.14	
2025-01-14 07:12:25.99	29.41	12.14	
2025-01-14 07:12:26.20	29.37	12.14	
2025-01-14 07:12:26.41	29.33	12.14	
2025-01-14 07:12:26.61	29.29	12.14	
2025-01-14 07:12:26.82	29.25	12.14	
2025-01-14 07:12:27.02	29.21	12.14	
2025-01-14 07:12:27.23	29.17	12.14	
2025-01-14 07:12:27.43	29.13	12.14	
2025-01-14 07:12:27.64	29.09	12.14	
2025-01-14 07:12:27.84	29.06	12.14	
2025-01-14 07:12:28.05	29.01	12.14	
2025-01-14 07:12:28.25	28.98	12.14	
2025-01-14 07:12:28.46	28.94	12.14	
2025-01-14 07:12:28.66	28.90	12.15	
2025-01-14 07:12:28.87	28.86	12.15	
2025-01-14 07:12:29.07	28.82	12.15	
2025-01-14 07:12:29.28	28.78	12.15	
2025-01-14 07:12:29.48	28.74	12.15	
2025-01-14 07:12:29.68	28.70	12.15	
2025-01-14 07:12:29.89	28.66	12.15	
2025-01-14 07:12:30.09	28.62	12.15	
2025-01-14 07:12:30.30	28.58	12.15	
2025-01-14 07:12:30.50	28.54	12.15	
2025-01-14 07:12:30.71	28.50	12.15	
2025-01-14 07:12:30.92	28.46	12.15	
2025-01-14 07:12:31.12	28.42	12.15	
2025-01-14 07:12:31.33	28.38	12.15	
2025-01-14 07:12:31.53	28.35	12.15	
2025-01-14 07:12:31.74	28.31	12.15	
2025-01-14 07:12:31.94	28.27	12.15	
2025-01-14 07:12:32.15	28.23	12.15	
2025-01-14 07:12:32.35	28.19	12.15	
2025-01-14 07:12:32.56	28.15	12.15	
2025-01-14 07:12:32.77	28.11	12.15	
2025-01-14 07:12:32.97	28.07	12.15	
2025-01-14 07:12:33.18	28.03	12.15	
2025-01-14 07:12:33.38	27.99	12.15	
2025-01-14 07:12:33.59	27.95	12.16	
2025-01-14 07:12:33.79	27.91	12.16	
2025-01-14 07:12:34.00	27.87	12.16	
2025-01-14 07:12:34.20	27.83	12.16	
2025-01-14 07:12:34.41	27.79	12.16	
2025-01-14 07:12:34.61	27.75	12.16	
2025-01-14 07:12:34.82	27.71	12.16	
2025-01-14 07:12:35.03	27.67	12.16	
2025-01-14 07:12:35.23	27.63	12.16	
2025-01-14 07:12:35.44	27.59	12.16	
2025-01-14 07:12:35.64	27.56	12.16	
2025-01-14 07:12:35.85	27.51	12.16	
2025-01-14 07:12:36.05	27.48	12.16	
2025-01-14 07:12:36.26	27.44	12.16	
2025-01-14 07:12:36.46	27.40	12.16	
2025-01-14 07:12:36.67	27.36	12.16	
2025-01-14 07:12:36.87	27.32	12.16	
2025-01-14 07:12:37.08	27.28	12.16	
2025-01-14 07:12:37.28	27.24	12.16	
2025-01-14 07:12:37.49	27.20	12.16	
2025-01-14 07:12:37.69	27.16	12.16	
2025-01-14 07:12:37.90	27.12	12.16	
2025-01-14 07:12:38.10	27.08	12.16	
2025-01-14 07:12:38.30	27.04	12.16	
2025-01-14 07:12:38.51	27.00	12.16	
2025-01-14 07:12:38.71	26.96	12.16	
2025-01-14 07:12:38.92	26.92	12.16	
2025-01-14 07:12:39.13	26.88	12.16	
2025-01-14 07:12:39.33	26.85	12.16	
2025-01-14 07:12:39.54	26.80	12.16	
2025-01-14 07:12:39.74	26.77	12.16	
2025-01-14 07:12:39.95	26.73	12.16	
2025-01-14 07:12:40.15	26.69	12.16	
2025-01-14 07:12:40.36	26.65	12.16	
2025-01-14 07:12:40.56	26.61	12.16	
2025-01-14 07:12:40.77	26.57	12.16	
2025-01-14 07:12:40.97	26.53	12.16	
2025-01-14 07:12:41.18	26.49	12.16	
2025-01-14 07:12:41.39	26.45	12.16	
2025-01-14 07:12:41.59	26.41	12.16	
2025-01-14 07:12:41.80	26.37	12.15	
2025-01-14 07:12:42.00	26.33	12.15	
2025-01-14 07:12:42.21	26.29	12.15	
2025-01-14 07:12:42.41	26.25	12.15	
2025-01-14 07:12:42.62	26.21	12.15	
2025-01-14 07:12:42.82	26.17	12.15	
2025-01-14 07:12:43.03	26.13	12.15	
2025-01-14 07:12:43.23	26.10	12.15	
2025-01-14 07:12:43.44	26.05	12.15	
2025-01-14 07:12:43.65	26.01	12.15	
2025-01-14 07:12:43.85	25.98	12.15	
2025-01-14 07:12:44.06	25.94	12.15	
2025-01-14 07:12:44.26	25.90	12.15	
2025-01-14 07:12:44.47	25.86	12.15	
2025-01-14 07:12:44.67	25.82	12.15	
2025-01-14 07:12:44.88	25.78	12.15	
2025-01-14 07:12:45.08	25.74	12.15	
2025-01-14 07:12:45.29	25.70	12.15	
2025-01-14 07:12:45.50	25.66	12.15	
2025-01-14 07:12:45.70	25.62	12.15	
2025-01-14 07:12:45.90	25.58	12.15	
2025-01-14 07:12:46.11	25.54	12.15	
2025-01-14 07:12:46.32	25.50	12.15	
2025-01-14 07:12:46.52	25.46	12.14	
2025-01-14 07:12:46.73	25.42	12.14	
2025-01-14 07:12:46.93	25.38	12.14	
2025-01-14 07:12:47.13	25.35	12.14	
2025-01-14 07:12:47.34	25.31	12.14	
2025-01-14 07:12:47.55	25.26	12.14	
2025-01-14 07:12:47.75	25.23	12.14	
2025-01-14 07:12:47.96	25.19	12.14	
2025-01-14 07:12:48.16	25.15	12.14	
2025-01-14 07:12:48.37	25.11	12.14	
2025-01-14 07:12:48.57	25.07	12.14	
2025-01-14 07:12:48.78	25.03	12.14	
2025-01-14 07:12:48.99	24.99	12.14	
2025-01-14 07:12:49.19	24.95	12.14	
2025-01-14 07:12:49.39	24.91	12.14	
2025-01-14 07:12:49.60	24.87	12.13	
2025-01-14 07:12:49.81	24.83	12.13	
2025-01-14 07:12:50.01	24.79	12.13	
2025-01-14 07:12:50.21	24.75	12.13	
2025-01-14 07:12:50.42	24.71	12.13	
2025-01-14 07:12:50.63	24.67	12.13	
2025-01-14 07:12:50.83	24.63	12.13	
2025-01-14 07:12:51.03	24.60	12.13	
2025-01-14 07:12:51.24	24.56	12.13	
2025-01-14 07:12:51.44	24.52	12.13	
2025-01-14 07:12:51.65	24.48	12.13	
2025-01-14 07:12:51.86	24.44	12.13	
2025-01-14 07:12:52.06	24.40	12.12	
2025-01-14 07:12:52.27	24.36	12.12	
2025-01-14 07:12:52.47	24.32	12.12	
2025-01-14 07:12:52.68	24.28	12.12	
2025-01-14 07:12:52.88	24.24	12.12	
2025-01-14 07:12:53.09	24.20	12.12	
2025-01-14 07:12:53.29	24.16	12.12	
2025-01-14 07:12:53.50	24.12	12.12	
2025-01-14 07:12:53.70	24.08	12.12	
2025-01-14 07:12:53.91	24.04	12.12	
2025-01-14 07:12:54.11	24.01	12.11	
2025-01-14 07:12:54.32	23.97	12.11	
2025-01-14 07:12:54.54	23.92	12.11	
2025-01-14 07:12:54.74	23.88	12.11	
2025-01-14 07:12:54.95	23.84	12.11	
2025-01-14 07:12:55.15	23.81	12.11	
2025-01-14 07:12:55.36	23.77	12.11	
2025-01-14 07:12:55.56	23.73	12.11	
2025-01-14 07:12:55.77	23.69	12.11	
2025-01-14 07:12:55.98	23.65	12.10	
2025-01-14 07:12:56.18	23.61	12.10	
2025-01-14 07:12:56.39	23.57	12.10	
2025-01-14 07:12:56.59	23.53	12.10	
2025-01-14 07:12:56.80	23.49	12.10	
2025-01-14 07:12:57.00	23.45	12.10	
2025-01-14 07:12:57.21	23.41	12.10	
2025-01-14 07:12:57.42	23.37	12.10	
2025-01-14 07:12:57.62	23.33	12.09	
2025-01-14 07:12:57.83	23.29	12.09	
2025-01-14 07:12:58.03	23.25	12.09	
2025-01-14 07:12:58.24	23.21	12.09	
2025-01-14 07:12:58.44	23.18	12.09	
2025-01-14 07:12:58.65	23.14	12.09	
2025-01-14 07:12:58.85	23.10	12.09	
2025-01-14 07:12:59.06	23.06	12.08	
2025-01-14 07:12:59.26	23.02	12.08	
2025-01-14 07:12:59.47	22.98	12.08	
2025-01-14 07:12:59.67	22.94	12.08	
2025-01-14 07:12:59.88	22.90	12.08	
2025-01-14 07:13:00.08	22.86	12.08	
2025-01-14 07:13:00.29	22.82	12.08	
2025-01-14 07:13:00.49	22.78	12.07	
2025-01-14 07:13:00.70	22.74	12.07	
2025-01-14 07:13:00.90	22.71	12.07	
2025-01-14 07:13:01.11	22.67	12.07	
2025-01-14 07:13:01.31	22.63	12.07	
2025-01-14 07:13:01.51	22.59	12.07	
2025-01-14 07:13:01.72	22.55	12.07	
2025-01-14 07:13:01.93	22.51	12.06	
2025-01-14 07:13:02.13	22.47	12.06	
2025-01-14 07:13:02.34	22.43	12.06	
2025-01-14 07:13:02.54	22.39	12.06	
2025-01-14 07:13:02.75	22.35	12.06	
2025-01-14 07:13:02.96	22.31	12.06	
2025-01-14 07:13:03.16	22.27	12.05	
2025-01-14 07:13:03.37	22.23	12.05	
2025-01-14 07:13:03.57	22.20	12.05	
2025-01-14 07:13:03.78	22.16	12.05	
2025-01-14 07:13:03.98	22.12	12.05	
2025-01-14 07:13:04.20	22.08	12.05	
2025-01-14 07:13:04.41	22.04	12.04	
2025-01-14 07:13:04.61	22.00	12.04	
2025-01-14 07:13:04.82	21.96	12.04	
2025-01-14 07:13:05.03	21.92	12.04	
2025-01-14 07:13:05.23	21.88	12.04	
2025-01-14 07:13:05.44	21.84	12.04	
2025-01-14 07:13:05.64	21.80	12.03	
2025-01-14 07:13:05.85	21.76	12.03	
2025-01-14 07:13:06.05	21.72	12.03	
2025-01-14 07:13:06.27	21.68	12.03	
2025-01-14 07:13:06.48	21.64	12.03	
2025-01-14 07:13:06.68	21.60	12.02	
2025-01-14 07:13:06.89	21.56	12.02	
2025-01-14 07:13:07.09	21.52	12.02	
2025-01-14 07:13:07.30	21.48	12.02	
2025-01-14 07:13:07.51	21.44	12.02	
2025-01-14 07:13:07.71	21.41	12.01	
2025-01-14 07:13:07.92	21.37	12.01	
2025-01-14 07:13:08.12	21.33	12.01	
2025-01-14 07:13:08.33	21.29	12.01	
2025-01-14 07:13:08.53	21.25	12.01	
2025-01-14 07:13:08.74	21.21	12.00	
2025-01-14 07:13:08.94	21.17	12.00	
2025-01-14 07:13:09.15	21.13	12.00	
2025-01-14 07:13:09.35	21.09	12.00	
2025-01-14 07:13:09.57	21.05	12.00	
2025-01-14 07:13:09.77	21.01	11.99	
2025-01-14 07:13:09.98	20.97	11.99	
2025-01-14 07:13:10.19	20.93	11.99	
2025-01-14 07:13:10.39	20.90	11.99	
2025-01-14 07:13:10.60	20.86	11.99	
2025-01-14 07:13:10.80	20.82	11.98	
2025-01-14 07:13:11.01	20.78	11.98	
2025-01-14 07:13:11.21	20.74	11.98	
2025-01-14 07:13:11.42	20.70	11.98	
2025-01-14 07:13:11.63	20.66	11.98	
2025-01-14 07:13:11.83	20.62	11.97	
2025-01-14 07:13:12.04	20.58	11.97	
2025-01-14 07:13:12.24	20.54	11.97	
2025-01-14 07:13:12.45	20.51	11.97	
2025-01-14 07:13:12.65	20.47	11.96	
2025-01-14 07:13:12.86	20.43	11.96	
2025-01-14 07:13:13.07	20.39	11.96	
2025-01-14 07:13:13.27	20.35	11.96	
2025-01-14 07:13:13.48	20.31	11.96	
2025-01-14 07:13:13.68	20.27	11.95	
2025-01-14 07:13:13.88	20.23	11.95	
2025-01-14 07:13:14.09	20.19	11.95	
2025-01-14 07:13:14.30	20.15	11.95	
2025-01-14 07:13:14.50	20.12	11.94	
2025-01-14 07:13:14.71	20.08	11.94	
2025-01-14 07:13:14.91	20.04	11.94	
2025-01-14 07:13:15.12	20.00	11.94	
2025-01-14 07:13:15.32	19.96	11.93	
2025-01-14 07:13:15.53	19.92	11.93	
2025-01-14 07:13:15.73	19.88	11.93	
2025-01-14 07:13:15.94	19.84	11.93	
2025-01-14 07:13:16.14	19.81	11.92	
2025-01-14 07:13:16.35	19.77	11.92	
2025-01-14 07:13:16.56	19.73	11.92	
2025-01-14 07:13:16.76	19.69	11.92	
2025-01-14 07:13:16.97	19.65	11.91	
2025-01-14 07:13:17.17	19.61	11.91	
2025-01-14 07:13:17.38	19.57	11.91	
2025-01-14 07:13:17.59	19.53	11.91	
2025-01-14 07:13:17.79	19.49	11.90	
2025-01-14 07:13:18.00	19.45	11.90	
2025-01-14 07:13:18.20	19.42	11.90	
2025-01-14 07:13:18.41	19.38	11.90	
2025-01-14 07:13:18.61	19.34	11.89	
2025-01-14 07:13:18.82	19.30	11.89	
2025-01-14 07:13:19.02	19.26	11.89	
2025-01-14 07:13:19.23	19.22	11.89	
2025-01-14 07:13:19.44	19.18	11.88	
2025-01-14 07:13:19.64	19.14	11.88	
2025-01-14 07:13:19.85	19.10	11.88	
2025-01-14 07:13:20.05	19.07	11.88	
2025-01-14 07:13:20.26	19.03	11.87	
2025-01-14 07:13:20.47	18.99	11.87	
2025-01-14 07:13:20.67	18.95	11.87	
2025-01-14 07:13:20.88	18.91	11.86	
2025-01-14 07:13:21.08	18.87	11.86	
2025-01-14 07:13:21.30	18.83	11.86	
2025-01-14 07:13:21.51	18.79	11.86	
2025-01-14 07:13:21.71	18.75	11.85	
2025-01-14 07:13:21.92	18.71	11.85	
2025-01-14 07:13:22.12	18.68	11.85	
2025-01-14 07:13:22.33	18.64	11.84	
2025-01-14 07:13:22.53	18.60	11.84	
2025-01-14 07:13:22.74	18.56	11.84	
2025-01-14 07:13:22.94	18.52	11.84	
2025-01-14 07:13:23.15	18.48	11.83	
2025-01-14 07:13:23.35	18.45	11.83	
2025-01-14 07:13:23.56	18.41	11.83	
2025-01-14 07:13:23.76	18.37	11.82	
2025-01-14 07:13:23.97	18.33	11.82	
2025-01-14 07:13:24.18	18.29	11.82	
2025-01-14 07:13:24.38	18.25	11.82	
2025-01-14 07:13:24.59	18.21	11.81	
2025-01-14 07:13:24.79	18.18	11.81	
2025-01-14 07:13:25.00	18.14	11.81	
2025-01-14 07:13:25.20	18.10	11.80	
2025-01-14 07:13:25.40	18.06	11.80	
2025-01-14 07:13:25.61	18.02	11.80	
2025-01-14 07:13:25.81	17.98	11.79	
2025-01-14 07:13:26.02	17.94	11.79	
2025-01-14 07:13:26.23	17.91	11.79	
2025-01-14 07:13:26.43	17.87	11.79	
2025-01-14 07:13:26.65	17.83	11.78	
2025-01-14 07:13:26.85	17.79	11.78	
2025-01-14 07:13:27.06	17.75	11.78	
2025-01-14 07:13:27.27	17.71	11.77	
2025-01-14 07:13:27.47	17.67	11.77	
2025-01-14 07:13:27.69	17.63	11.77	
2025-01-14 07:13:27.89	17.59	11.76	
2025-01-14 07:13:28.10	17.56	11.76	
2025-01-14 07:13:28.30	17.52	11.76	
2025-01-14 07:13:28.51	17.48	11.75	
2025-01-14 07:13:28.73	17.44	11.75	
2025-01-14 07:13:28.93	17.40	11.75	
2025-01-14 07:13:29.14	17.36	11.74	
2025-01-14 07:13:29.34	17.32	11.74	
2025-01-14 07:13:29.55	17.28	11.74	
2025-01-14 07:13:29.75	17.25	11.73	
2025-01-14 07:13:29.96	17.21	11.73	
2025-01-14 07:13:30.16	17.17	11.73	
2025-01-14 07:13:30.37	17.13	11.72	
2025-01-14 07:13:30.57	17.09	11.72	
2025-01-14 07:13:30.78	17.05	11.72	
2025-01-14 07:13:30.98	17.02	11.71	
2025-01-14 07:13:31.19	16.98	11.71	
2025-01-14 07:13:31.40	16.94	11.71	
2025-01-14 07:13:31.60	16.90	11.70	
2025-01-14 07:13:31.81	16.86	11.70	
2025-01-14 07:13:32.01	16.83	11.70	
2025-01-14 07:13:32.22	16.79	11.69	
2025-01-14 07:13:32.43	16.75	11.69	
2025-01-14 07:13:32.63	16.71	11.69	
2025-01-14 07:13:32.83	16.67	11.68	
2025-01-14 07:13:33.05	16.63	11.68	
2025-01-14 07:13:33.26	16.59	11.68	
2025-01-14 07:13:33.46	16.56	11.67	
2025-01-14 07:13:33.67	16.52	11.67	
2025-01-14 07:13:33.87	16.48	11.67	
2025-01-14 07:13:34.09	16.44	11.66	
2025-01-14 07:13:34.30	16.40	11.66	
2025-01-14 07:13:34.50	16.36	11.66	
2025-01-14 07:13:34.71	16.32	11.65	
2025-01-14 07:13:34.91	16.29	11.65	
2025-01-14 07:13:35.12	16.25	11.64	
2025-01-14 07:13:35.32	16.21	11.64	
2025-01-14 07:13:35.53	16.17	11.64	
2025-01-14 07:13:35.74	16.13	11.63	
2025-01-14 07:13:35.94	16.10	11.63	
2025-01-14 07:13:36.15	16.06	11.63	
2025-01-14 07:13:36.35	16.02	11.62	
2025-01-14 07:13:36.56	15.98	11.62	
2025-01-14 07:13:36.76	15.94	11.62	
2025-01-14 07:13:36.97	15.90	11.61	
2025-01-14 07:13:37.17	15.87	11.61	
2025-01-14 07:13:37.38	15.83	11.60	
2025-01-14 07:13:37.59	15.79	11.60	
2025-01-14 07:13:37.79	15.75	11.60	
2025-01-14 07:13:38.00	15.71	11.59	
2025-01-14 07:13:38.20	15.68	11.59	
2025-01-14 07:13:38.42	15.64	11.59	
2025-01-14 07:13:38.63	15.60	11.58	
2025-01-14 07:13:38.83	15.56	11.58	
2025-01-14 07:13:39.04	15.52	11.57	
2025-01-14 07:13:39.24	15.48	11.57	
2025-01-14 07:13:39.46	15.44	11.57	
2025-01-14 07:13:39.67	15.41	11.56	
2025-01-14 07:13:39.87	15.37	11.56	
2025-01-14 07:13:40.08	15.33	11.55	
2025-01-14 07:13:40.29	15.29	11.55	
2025-01-14 07:13:40.49	15.25	11.55	
2025-01-14 07:13:40.71	15.21	11.54	
2025-01-14 07:13:40.91	15.18	11.54	
2025-01-14 07:13:41.11	15.14	11.53	
2025-01-14 07:13:41.32	15.10	11.53	
2025-01-14 07:13:41.52	15.06	11.53	
2025-01-14 07:13:41.73	15.03	11.52	
2025-01-14 07:13:41.94	14.99	11.52	
2025-01-14 07:13:42.14	14.95	11.51	
2025-01-14 07:13:42.35	14.91	11.51	
2025-01-14 07:13:42.55	14.88	11.51	
2025-01-14 07:13:42.76	14.84	11.50	
2025-01-14 07:13:42.96	14.80	11.50	
2025-01-14 07:13:43.17	14.76	11.49	
2025-01-14 07:13:43.38	14.72	11.49	
2025-01-14 07:13:43.58	14.69	11.49	
2025-01-14 07:13:43.78	14.65	11.48	
2025-01-14 07:13:43.99	14.61	11.48	
2025-01-14 07:13:44.20	14.57	11.47	
2025-01-14 07:13:44.40	14.54	11.47	
2025-01-14 07:13:44.61	14.50	11.47	
2025-01-14 07:13:44.81	14.46	11.46	
2025-01-14 07:13:45.02	14.42	11.46	
2025-01-14 07:13:45.22	14.39	11.45	
2025-01-14 07:13:45.43	14.35	11.45	
2025-01-14 07:13:45.63	14.31	11.45	
2025-01-14 07:13:45.83	14.27	11.44	
2025-01-14 07:13:46.04	14.24	11.44	
2025-01-14 07:13:46.25	14.20	11.43	
2025-01-14 07:13:46.45	14.16	11.43	
2025-01-14 07:13:46.66	14.12	11.42	
2025-01-14 07:13:46.86	14.09	11.42	
2025-01-14 07:13:47.07	14.05	11.42	
2025-01-14 07:13:47.28	14.01	11.41	
2025-01-14 07:13:47.48	13.97	11.41	
2025-01-14 07:13:47.69	13.93	11.40	
2025-01-14 07:13:47.89	13.90	11.40	
2025-01-14 07:13:48.10	13.86	11.39	
2025-01-14 07:13:48.30	13.82	11.39	
2025-01-14 07:13:48.51	13.78	11.39	
2025-01-14 07:13:48.72	13.75	11.38	
2025-01-14 07:13:48.92	13.71	11.38	
2025-01-14 07:13:49.13	13.67	11.37	
2025-01-14 07:13:49.33	13.64	11.37	
2025-01-14 07:13:49.54	13.60	11.36	
2025-01-14 07:13:49.74	13.56	11.36	
2025-01-14 07:13:49.95	13.52	11.35	
2025-01-14 07:13:50.15	13.49	11.35	
2025-01-14 07:13:50.36	13.45	11.35	
2025-01-14 07:13:50.56	13.41	11.34	
2025-01-14 07:13:50.77	13.37	11.34	
2025-01-14 07:13:50.97	13.34	11.33	
2025-01-14 07:13:51.18	13.30	11.33	
2025-01-14 07:13:51.38	13.26	11.32	
2025-01-14 07:13:51.59	13.22	11.32	
2025-01-14 07:13:51.80	13.19	11.31	
2025-01-14 07:13:52.00	13.15	11.31	
2025-01-14 07:13:52.21	13.11	11.31	
2025-01-14 07:13:52.41	13.08	11.30	
2025-01-14 07:13:52.62	13.04	11.30	
2025-01-14 07:13:52.82	13.00	11.29	
2025-01-14 07:13:53.03	12.96	11.29	
2025-01-14 07:13:53.23	12.93	11.28	
2025-01-14 07:13:53.44	12.89	11.28	
2025-01-14 07:13:53.65	12.85	11.27	
2025-01-14 07:13:53.85	12.82	11.27	
2025-01-14 07:13:54.06	12.78	11.26	
2025-01-14 07:13:54.26	12.74	11.26	
2025-01-14 07:13:54.47	12.70	11.26	
2025-01-14 07:13:54.67	12.67	11.25	
2025-01-14 07:13:54.88	12.63	11.25	
2025-01-14 07:13:55.08	12.59	11.24	
2025-01-14 07:13:55.29	12.56	11.24	
2025-01-14 07:13:55.51	12.52	11.23	
2025-01-14 07:13:55.71	12.48	11.23	
2025-01-14 07:13:55.92	12.44	11.22	
2025-01-14 07:13:56.13	12.40	11.22	
2025-01-14 07:13:56.33	12.37	11.21	
2025-01-14 07:13:56.54	12.33	11.21	
2025-01-14 07:13:56.74	12.29	11.20	
2025-01-14 07:13:56.95	12.26	11.20	
