passes_logs/2025/01/14/SPB_Silybum_02/SPB_Silybum_02__20250114_011734_AQUA_rec.log

#Pass ID: 20250114_011734_AQUA
#Satellite: AQUA
#Configuration: AQUA
#Start time: 2025-01-14 01:17:35

#Version: 2.0.20230423
#Station: SPB_Silybum_02
#Location: 30.233357 lon 59.946436 lat
#TLE: 1 27424U 02022A   25013.15568498  .00001660  00000+0  35066-3 0  9997
#TLE: 2 27424  98.3585 329.8030 0001646 113.3422 303.6913 14.60674931207350

#Time	Az	El	Level	Level2	SNR	BER	Gain	Gain2
2025-01-14 01:17:37.24	17.45	4.20	
2025-01-14 01:17:37.44	17.45	4.21	
2025-01-14 01:17:37.65	17.45	4.23	
2025-01-14 01:17:37.85	17.45	4.24	
2025-01-14 01:17:38.06	17.46	4.26	
2025-01-14 01:17:38.26	17.46	4.27	
2025-01-14 01:17:38.47	17.46	4.29	
2025-01-14 01:17:38.67	17.46	4.30	
2025-01-14 01:17:38.88	17.46	4.32	
2025-01-14 01:17:39.08	17.46	4.33	
2025-01-14 01:17:39.29	17.46	4.35	
2025-01-14 01:17:39.49	17.46	4.36	
2025-01-14 01:17:39.70	17.47	4.37	
2025-01-14 01:17:39.90	17.47	4.39	
2025-01-14 01:17:40.11	17.47	4.40	
2025-01-14 01:17:40.31	17.47	4.42	
2025-01-14 01:17:40.52	17.47	4.43	
2025-01-14 01:17:40.72	17.47	4.45	
2025-01-14 01:17:40.93	17.47	4.46	
2025-01-14 01:17:41.13	17.47	4.48	
2025-01-14 01:17:41.34	17.48	4.49	
2025-01-14 01:17:41.55	17.48	4.51	
2025-01-14 01:17:41.75	17.48	4.52	
2025-01-14 01:17:41.95	17.48	4.54	
2025-01-14 01:17:42.16	17.48	4.55	
2025-01-14 01:17:42.37	17.48	4.57	
2025-01-14 01:17:42.57	17.48	4.58	
2025-01-14 01:17:42.78	17.48	4.60	
2025-01-14 01:17:42.98	17.48	4.61	
2025-01-14 01:17:43.19	17.49	4.63	
2025-01-14 01:17:43.40	17.49	4.64	
2025-01-14 01:17:43.60	17.49	4.66	
2025-01-14 01:17:43.81	17.49	4.67	
2025-01-14 01:17:44.01	17.49	4.69	
2025-01-14 01:17:44.22	17.49	4.70	
2025-01-14 01:17:44.42	17.49	4.72	
2025-01-14 01:17:44.63	17.49	4.73	
2025-01-14 01:17:44.83	17.50	4.75	
2025-01-14 01:17:45.04	17.50	4.77	
2025-01-14 01:17:45.24	17.50	4.78	
2025-01-14 01:17:45.45	17.50	4.80	
2025-01-14 01:17:45.65	17.50	4.81	
2025-01-14 01:17:45.86	17.50	4.83	
2025-01-14 01:17:46.06	17.50	4.84	
2025-01-14 01:17:46.27	17.50	4.86	
2025-01-14 01:17:46.47	17.51	4.87	
2025-01-14 01:17:46.68	17.51	4.89	
2025-01-14 01:17:46.88	17.51	4.90	
2025-01-14 01:17:47.09	17.51	4.92	
2025-01-14 01:17:47.29	17.51	4.93	
2025-01-14 01:17:47.50	17.51	4.95	
2025-01-14 01:17:47.70	17.51	4.96	
2025-01-14 01:17:47.91	17.51	4.98	
2025-01-14 01:17:48.11	17.51	4.99	
2025-01-14 01:17:48.32	17.52	5.01	
2025-01-14 01:17:48.52	17.52	5.02	
2025-01-14 01:17:48.73	17.52	5.04	
2025-01-14 01:17:48.93	17.52	5.05	
2025-01-14 01:17:49.14	17.52	5.07	
2025-01-14 01:17:49.34	17.52	5.08	
2025-01-14 01:17:49.55	17.52	5.10	
2025-01-14 01:17:49.75	17.52	5.11	
2025-01-14 01:17:49.96	17.53	5.13	
2025-01-14 01:17:50.17	17.53	5.15	
2025-01-14 01:17:50.38	17.53	5.16	
2025-01-14 01:17:50.59	17.53	5.18	
2025-01-14 01:17:50.80	17.53	5.19	
2025-01-14 01:17:51.00	17.53	5.21	
2025-01-14 01:17:51.21	17.53	5.22	
2025-01-14 01:17:51.41	17.53	5.24	
2025-01-14 01:17:51.62	17.54	5.25	
2025-01-14 01:17:51.82	17.54	5.27	
2025-01-14 01:17:52.03	17.54	5.29	
2025-01-14 01:17:52.24	17.54	5.30	
2025-01-14 01:17:52.45	17.54	5.32	
2025-01-14 01:17:52.66	17.54	5.33	
2025-01-14 01:17:52.87	17.54	5.35	
2025-01-14 01:17:53.07	17.54	5.36	
2025-01-14 01:17:53.28	17.55	5.38	
2025-01-14 01:17:53.48	17.55	5.40	
2025-01-14 01:17:53.69	17.55	5.41	
2025-01-14 01:17:53.89	17.55	5.43	
2025-01-14 01:17:54.10	17.55	5.44	
2025-01-14 01:17:54.30	17.55	5.46	
2025-01-14 01:17:54.50	17.55	5.47	
2025-01-14 01:17:54.71	17.55	5.49	
2025-01-14 01:17:54.91	17.55	5.50	
2025-01-14 01:17:55.12	17.56	5.52	
2025-01-14 01:17:55.32	17.56	5.53	
2025-01-14 01:17:55.53	17.56	5.55	
2025-01-14 01:17:55.73	17.56	5.57	
2025-01-14 01:17:55.94	17.56	5.58	
2025-01-14 01:17:56.14	17.56	5.60	
2025-01-14 01:17:56.35	17.56	5.61	
2025-01-14 01:17:56.55	17.56	5.63	
2025-01-14 01:17:56.77	17.57	5.65	
2025-01-14 01:17:56.98	17.57	5.66	
2025-01-14 01:17:57.18	17.57	5.68	
2025-01-14 01:17:57.39	17.57	5.69	
2025-01-14 01:17:57.60	17.57	5.71	
2025-01-14 01:17:57.80	17.57	5.72	
2025-01-14 01:17:58.00	17.57	5.74	
2025-01-14 01:17:58.21	17.57	5.76	
2025-01-14 01:17:58.42	17.58	5.77	
2025-01-14 01:17:58.62	17.58	5.79	
2025-01-14 01:17:58.82	17.58	5.80	
2025-01-14 01:17:59.03	17.58	5.82	
2025-01-14 01:17:59.24	17.58	5.83	
2025-01-14 01:17:59.44	17.58	5.85	
2025-01-14 01:17:59.65	17.58	5.87	
2025-01-14 01:17:59.85	17.58	5.88	
2025-01-14 01:18:00.05	17.59	5.90	
2025-01-14 01:18:00.26	17.59	5.91	
2025-01-14 01:18:00.46	17.59	5.93	
2025-01-14 01:18:00.67	17.59	5.95	
2025-01-14 01:18:00.87	17.59	5.96	
2025-01-14 01:18:01.09	17.59	5.98	
2025-01-14 01:18:01.30	17.59	5.99	
2025-01-14 01:18:01.50	17.59	6.01	
2025-01-14 01:18:01.71	17.60	6.03	
2025-01-14 01:18:01.91	17.60	6.04	
2025-01-14 01:18:02.13	17.60	6.06	
2025-01-14 01:18:02.34	17.60	6.08	
2025-01-14 01:18:02.54	17.60	6.09	
2025-01-14 01:18:02.75	17.60	6.11	
2025-01-14 01:18:02.95	17.60	6.12	
2025-01-14 01:18:03.16	17.60	6.14	
2025-01-14 01:18:03.36	17.61	6.15	
2025-01-14 01:18:03.57	17.61	6.17	
2025-01-14 01:18:03.77	17.61	6.19	
2025-01-14 01:18:03.98	17.61	6.20	
2025-01-14 01:18:04.18	17.61	6.22	
2025-01-14 01:18:04.39	17.61	6.24	
2025-01-14 01:18:04.59	17.61	6.25	
2025-01-14 01:18:04.80	17.61	6.27	
2025-01-14 01:18:05.00	17.62	6.28	
2025-01-14 01:18:05.21	17.62	6.30	
2025-01-14 01:18:05.41	17.62	6.32	
2025-01-14 01:18:05.62	17.62	6.33	
2025-01-14 01:18:05.82	17.62	6.35	
2025-01-14 01:18:06.03	17.62	6.36	
2025-01-14 01:18:06.23	17.62	6.38	
2025-01-14 01:18:06.44	17.62	6.40	
2025-01-14 01:18:06.64	17.63	6.41	
2025-01-14 01:18:06.85	17.63	6.43	
2025-01-14 01:18:07.05	17.63	6.44	
2025-01-14 01:18:07.26	17.63	6.46	
2025-01-14 01:18:07.46	17.63	6.48	
2025-01-14 01:18:07.67	17.63	6.49	
2025-01-14 01:18:07.88	17.63	6.51	
2025-01-14 01:18:08.08	17.63	6.53	
2025-01-14 01:18:08.29	17.64	6.54	
2025-01-14 01:18:08.49	17.64	6.56	
2025-01-14 01:18:08.70	17.64	6.58	
2025-01-14 01:18:08.90	17.64	6.59	
2025-01-14 01:18:09.11	17.64	6.61	
2025-01-14 01:18:09.31	17.64	6.62	
2025-01-14 01:18:09.53	17.64	6.64	
2025-01-14 01:18:09.74	17.64	6.66	
2025-01-14 01:18:09.94	17.65	6.67	
2025-01-14 01:18:10.15	17.65	6.69	
2025-01-14 01:18:10.35	17.65	6.71	
2025-01-14 01:18:10.56	17.65	6.72	
2025-01-14 01:18:10.76	17.65	6.74	
2025-01-14 01:18:10.97	17.65	6.76	
2025-01-14 01:18:11.17	17.65	6.77	
2025-01-14 01:18:11.38	17.65	6.79	
2025-01-14 01:18:11.58	17.66	6.81	
2025-01-14 01:18:11.79	17.66	6.82	
2025-01-14 01:18:11.99	17.66	6.84	
2025-01-14 01:18:12.20	17.66	6.86	
2025-01-14 01:18:12.40	17.66	6.87	
2025-01-14 01:18:12.60	17.66	6.89	
2025-01-14 01:18:12.82	17.66	6.91	
2025-01-14 01:18:13.03	17.66	6.92	
2025-01-14 01:18:13.23	17.67	6.94	
2025-01-14 01:18:13.44	17.67	6.96	
2025-01-14 01:18:13.65	17.67	6.97	
2025-01-14 01:18:13.85	17.67	6.99	
2025-01-14 01:18:14.06	17.67	7.01	
2025-01-14 01:18:14.26	17.67	7.02	
2025-01-14 01:18:14.47	17.67	7.04	
2025-01-14 01:18:14.67	17.67	7.06	
2025-01-14 01:18:14.89	17.68	7.07	
2025-01-14 01:18:15.09	17.68	7.09	
2025-01-14 01:18:15.30	17.68	7.11	
2025-01-14 01:18:15.50	17.68	7.12	
2025-01-14 01:18:15.71	17.68	7.14	
2025-01-14 01:18:15.91	17.68	7.16	
2025-01-14 01:18:16.12	17.68	7.17	
2025-01-14 01:18:16.32	17.68	7.19	
2025-01-14 01:18:16.53	17.69	7.21	
2025-01-14 01:18:16.74	17.69	7.22	
2025-01-14 01:18:16.94	17.69	7.24	
2025-01-14 01:18:17.14	17.69	7.26	
2025-01-14 01:18:17.35	17.69	7.27	
2025-01-14 01:18:17.56	17.69	7.29	
2025-01-14 01:18:17.76	17.69	7.31	
2025-01-14 01:18:17.97	17.69	7.33	
2025-01-14 01:18:18.17	17.70	7.34	
2025-01-14 01:18:18.38	17.70	7.36	
2025-01-14 01:18:18.58	17.70	7.38	
2025-01-14 01:18:18.79	17.70	7.39	
2025-01-14 01:18:19.00	17.70	7.41	
2025-01-14 01:18:19.20	17.70	7.43	
2025-01-14 01:18:19.41	17.70	7.44	
2025-01-14 01:18:19.61	17.70	7.46	
2025-01-14 01:18:19.82	17.71	7.48	
2025-01-14 01:18:20.02	17.71	7.49	
2025-01-14 01:18:20.23	17.71	7.51	
2025-01-14 01:18:20.43	17.71	7.53	
2025-01-14 01:18:20.64	17.71	7.55	
2025-01-14 01:18:20.84	17.71	7.56	
2025-01-14 01:18:21.05	17.71	7.58	
2025-01-14 01:18:21.25	17.71	7.60	
2025-01-14 01:18:21.46	17.72	7.61	
2025-01-14 01:18:21.66	17.72	7.63	
2025-01-14 01:18:21.87	17.72	7.65	
2025-01-14 01:18:22.07	17.72	7.66	
2025-01-14 01:18:22.28	17.72	7.68	
2025-01-14 01:18:22.48	17.72	7.70	
2025-01-14 01:18:22.69	17.72	7.72	
2025-01-14 01:18:22.89	17.72	7.73	
2025-01-14 01:18:23.10	17.73	7.75	
2025-01-14 01:18:23.31	17.73	7.77	
2025-01-14 01:18:23.51	17.73	7.79	
2025-01-14 01:18:23.71	17.73	7.80	
2025-01-14 01:18:23.92	17.73	7.82	
2025-01-14 01:18:24.12	17.73	7.84	
2025-01-14 01:18:24.33	17.73	7.85	
2025-01-14 01:18:24.53	17.73	7.87	
2025-01-14 01:18:24.74	17.74	7.89	
2025-01-14 01:18:24.95	17.74	7.91	
2025-01-14 01:18:25.15	17.74	7.92	
2025-01-14 01:18:25.36	17.74	7.94	
2025-01-14 01:18:25.56	17.74	7.96	
2025-01-14 01:18:25.77	17.74	7.98	
2025-01-14 01:18:25.97	17.74	7.99	
2025-01-14 01:18:26.18	17.75	8.01	
2025-01-14 01:18:26.38	17.75	8.03	
2025-01-14 01:18:26.59	17.75	8.04	
2025-01-14 01:18:26.79	17.75	8.06	
2025-01-14 01:18:27.00	17.75	8.08	
2025-01-14 01:18:27.20	17.75	8.10	
2025-01-14 01:18:27.41	17.75	8.11	
2025-01-14 01:18:27.61	17.75	8.13	
2025-01-14 01:18:27.82	17.76	8.15	
2025-01-14 01:18:28.02	17.76	8.17	
2025-01-14 01:18:28.23	17.76	8.18	
2025-01-14 01:18:28.44	17.76	8.20	
2025-01-14 01:18:28.64	17.76	8.22	
2025-01-14 01:18:28.84	17.76	8.24	
2025-01-14 01:18:29.05	17.76	8.25	
2025-01-14 01:18:29.25	17.76	8.27	
2025-01-14 01:18:29.46	17.77	8.29	
2025-01-14 01:18:29.66	17.77	8.31	
2025-01-14 01:18:29.87	17.77	8.32	
2025-01-14 01:18:30.07	17.77	8.34	
2025-01-14 01:18:30.28	17.77	8.36	
2025-01-14 01:18:30.48	17.77	8.38	
2025-01-14 01:18:30.69	17.77	8.40	
2025-01-14 01:18:30.89	17.77	8.41	
2025-01-14 01:18:31.10	17.78	8.43	
2025-01-14 01:18:31.30	17.78	8.45	
2025-01-14 01:18:31.51	17.78	8.47	
2025-01-14 01:18:31.72	17.78	8.48	
2025-01-14 01:18:31.92	17.78	8.50	
2025-01-14 01:18:32.12	17.78	8.52	
2025-01-14 01:18:32.33	17.78	8.54	
2025-01-14 01:18:32.53	17.79	8.55	
2025-01-14 01:18:32.74	17.79	8.57	
2025-01-14 01:18:32.94	17.79	8.59	
2025-01-14 01:18:33.15	17.79	8.61	
2025-01-14 01:18:33.36	17.79	8.63	
2025-01-14 01:18:33.56	17.79	8.64	
2025-01-14 01:18:33.77	17.79	8.66	
2025-01-14 01:18:33.97	17.79	8.68	
2025-01-14 01:18:34.17	17.80	8.70	
2025-01-14 01:18:34.38	17.80	8.72	
2025-01-14 01:18:34.59	17.80	8.73	
2025-01-14 01:18:34.79	17.80	8.75	
2025-01-14 01:18:35.00	17.80	8.77	
2025-01-14 01:18:35.20	17.80	8.79	
2025-01-14 01:18:35.41	17.80	8.81	
2025-01-14 01:18:35.61	17.80	8.82	
2025-01-14 01:18:35.82	17.81	8.84	
2025-01-14 01:18:36.02	17.81	8.86	
2025-01-14 01:18:36.22	17.81	8.88	
2025-01-14 01:18:36.43	17.81	8.90	
2025-01-14 01:18:36.64	17.81	8.91	
2025-01-14 01:18:36.84	17.81	8.93	
2025-01-14 01:18:37.05	17.81	8.95	
2025-01-14 01:18:37.26	17.82	8.97	
2025-01-14 01:18:37.47	17.82	8.99	
2025-01-14 01:18:37.68	17.82	9.01	
2025-01-14 01:18:37.88	17.82	9.02	
2025-01-14 01:18:38.09	17.82	9.04	
2025-01-14 01:18:38.29	17.82	9.06	
2025-01-14 01:18:38.50	17.82	9.08	
2025-01-14 01:18:38.70	17.82	9.10	
2025-01-14 01:18:38.91	17.83	9.11	
2025-01-14 01:18:39.11	17.83	9.13	
2025-01-14 01:18:39.32	17.83	9.15	
2025-01-14 01:18:39.52	17.83	9.17	
2025-01-14 01:18:39.73	17.83	9.19	
2025-01-14 01:18:39.93	17.83	9.21	
2025-01-14 01:18:40.14	17.83	9.22	
2025-01-14 01:18:40.34	17.84	9.24	
2025-01-14 01:18:40.55	17.84	9.26	
2025-01-14 01:18:40.75	17.84	9.28	
2025-01-14 01:18:40.96	17.84	9.30	
2025-01-14 01:18:41.17	17.84	9.32	
2025-01-14 01:18:41.37	17.84	9.33	
2025-01-14 01:18:41.57	17.84	9.35	
2025-01-14 01:18:41.78	17.84	9.37	
2025-01-14 01:18:41.99	17.85	9.39	
2025-01-14 01:18:42.19	17.85	9.41	
2025-01-14 01:18:42.40	17.85	9.43	
2025-01-14 01:18:42.60	17.85	9.45	
2025-01-14 01:18:42.81	17.85	9.46	
2025-01-14 01:18:43.01	17.85	9.48	
2025-01-14 01:18:43.22	17.85	9.50	
2025-01-14 01:18:43.42	17.86	9.52	
2025-01-14 01:18:43.63	17.86	9.54	
2025-01-14 01:18:43.83	17.86	9.56	
2025-01-14 01:18:44.04	17.86	9.58	
2025-01-14 01:18:44.24	17.86	9.59	
2025-01-14 01:18:44.45	17.86	9.61	
2025-01-14 01:18:44.66	17.86	9.63	
2025-01-14 01:18:44.86	17.86	9.65	
2025-01-14 01:18:45.06	17.87	9.67	
2025-01-14 01:18:45.27	17.87	9.69	
2025-01-14 01:18:45.47	17.87	9.71	
2025-01-14 01:18:45.68	17.87	9.73	
2025-01-14 01:18:45.88	17.87	9.74	
2025-01-14 01:18:46.09	17.87	9.76	
2025-01-14 01:18:46.29	17.87	9.78	
2025-01-14 01:18:46.50	17.88	9.80	
2025-01-14 01:18:46.71	17.88	9.82	
2025-01-14 01:18:46.91	17.88	9.84	
2025-01-14 01:18:47.11	17.88	9.86	
2025-01-14 01:18:47.32	17.88	9.88	
2025-01-14 01:18:47.52	17.88	9.89	
2025-01-14 01:18:47.73	17.88	9.91	
2025-01-14 01:18:47.93	17.88	9.93	
2025-01-14 01:18:48.14	17.89	9.95	
2025-01-14 01:18:48.34	17.89	9.97	
2025-01-14 01:18:48.55	17.89	9.99	
2025-01-14 01:18:48.75	17.89	10.01	
2025-01-14 01:18:48.96	17.89	10.03	
2025-01-14 01:18:49.16	17.89	10.05	
2025-01-14 01:18:49.37	17.89	10.07	
2025-01-14 01:18:49.57	17.90	10.08	
2025-01-14 01:18:49.78	17.90	10.10	
2025-01-14 01:18:49.98	17.90	10.12	
2025-01-14 01:18:50.19	17.90	10.14	
2025-01-14 01:18:50.39	17.90	10.16	
2025-01-14 01:18:50.60	17.90	10.18	
2025-01-14 01:18:50.80	17.90	10.20	
2025-01-14 01:18:51.01	17.90	10.22	
2025-01-14 01:18:51.21	17.91	10.24	
2025-01-14 01:18:51.42	17.91	10.26	
2025-01-14 01:18:51.62	17.91	10.28	
2025-01-14 01:18:51.83	17.91	10.29	
2025-01-14 01:18:52.03	17.91	10.31	
2025-01-14 01:18:52.24	17.91	10.33	
2025-01-14 01:18:52.44	17.91	10.35	
2025-01-14 01:18:52.65	17.92	10.37	
2025-01-14 01:18:52.86	17.92	10.39	
2025-01-14 01:18:53.06	17.92	10.41	
2025-01-14 01:18:53.27	17.92	10.43	
2025-01-14 01:18:53.47	17.92	10.45	
2025-01-14 01:18:53.68	17.92	10.47	
2025-01-14 01:18:53.89	17.92	10.49	
2025-01-14 01:18:54.09	17.93	10.51	
2025-01-14 01:18:54.29	17.93	10.53	
2025-01-14 01:18:54.51	17.93	10.55	
2025-01-14 01:18:54.72	17.93	10.57	
2025-01-14 01:18:54.92	17.93	10.59	
2025-01-14 01:18:55.13	17.93	10.61	
2025-01-14 01:18:55.34	17.93	10.63	
2025-01-14 01:18:55.55	17.94	10.65	
2025-01-14 01:18:55.76	17.94	10.67	
2025-01-14 01:18:55.97	17.94	10.69	
2025-01-14 01:18:56.17	17.94	10.71	
2025-01-14 01:18:56.38	17.94	10.73	
2025-01-14 01:18:56.59	17.94	10.75	
2025-01-14 01:18:56.80	17.94	10.77	
2025-01-14 01:18:57.01	17.94	10.79	
2025-01-14 01:18:57.21	17.95	10.81	
2025-01-14 01:18:57.42	17.95	10.83	
2025-01-14 01:18:57.63	17.95	10.85	
2025-01-14 01:18:57.84	17.95	10.87	
2025-01-14 01:18:58.04	17.95	10.88	
2025-01-14 01:18:58.25	17.95	10.91	
2025-01-14 01:18:58.46	17.95	10.93	
2025-01-14 01:18:58.66	17.96	10.94	
2025-01-14 01:18:58.86	17.96	10.96	
2025-01-14 01:18:59.07	17.96	10.98	
2025-01-14 01:18:59.27	17.96	11.00	
2025-01-14 01:18:59.48	17.96	11.02	
2025-01-14 01:18:59.68	17.96	11.04	
2025-01-14 01:18:59.89	17.96	11.06	
2025-01-14 01:19:00.09	17.97	11.08	
2025-01-14 01:19:00.30	17.97	11.10	
2025-01-14 01:19:00.50	17.97	11.12	
2025-01-14 01:19:00.71	17.97	11.14	
2025-01-14 01:19:00.93	17.97	11.16	
2025-01-14 01:19:01.13	17.97	11.18	
2025-01-14 01:19:01.34	17.97	11.21	
2025-01-14 01:19:01.54	17.98	11.22	
2025-01-14 01:19:01.75	17.98	11.25	
2025-01-14 01:19:01.96	17.98	11.27	
2025-01-14 01:19:02.17	17.98	11.29	
2025-01-14 01:19:02.37	17.98	11.31	
2025-01-14 01:19:02.58	17.98	11.33	
2025-01-14 01:19:02.79	17.98	11.35	
2025-01-14 01:19:02.99	17.99	11.37	
2025-01-14 01:19:03.20	17.99	11.39	
2025-01-14 01:19:03.40	17.99	11.41	
2025-01-14 01:19:03.61	17.99	11.43	
2025-01-14 01:19:03.81	17.99	11.45	
2025-01-14 01:19:04.03	17.99	11.47	
2025-01-14 01:19:04.24	17.99	11.49	
2025-01-14 01:19:04.44	18.00	11.51	
2025-01-14 01:19:04.65	18.00	11.53	
2025-01-14 01:19:04.85	18.00	11.55	
2025-01-14 01:19:05.06	18.00	11.57	
2025-01-14 01:19:05.26	18.00	11.59	
2025-01-14 01:19:05.47	18.00	11.61	
2025-01-14 01:19:05.68	18.00	11.63	
2025-01-14 01:19:05.88	18.01	11.65	
2025-01-14 01:19:06.09	18.01	11.67	
2025-01-14 01:19:06.29	18.01	11.69	
2025-01-14 01:19:06.50	18.01	11.72	
2025-01-14 01:19:06.70	18.01	11.74	
2025-01-14 01:19:06.91	18.01	11.76	
2025-01-14 01:19:07.11	18.01	11.78	
2025-01-14 01:19:07.32	18.01	11.80	
2025-01-14 01:19:07.52	18.02	11.82	
2025-01-14 01:19:07.73	18.02	11.84	
2025-01-14 01:19:07.93	18.02	11.86	
2025-01-14 01:19:08.14	18.02	11.88	
2025-01-14 01:19:08.34	18.02	11.90	
2025-01-14 01:19:08.55	18.02	11.92	
2025-01-14 01:19:08.75	18.02	11.94	
2025-01-14 01:19:08.96	18.03	11.96	
2025-01-14 01:19:09.16	18.03	11.98	
2025-01-14 01:19:09.38	18.03	12.01	
2025-01-14 01:19:09.58	18.03	12.03	
2025-01-14 01:19:09.79	18.03	12.05	
2025-01-14 01:19:10.00	18.03	12.07	
2025-01-14 01:19:10.21	18.04	12.09	
2025-01-14 01:19:10.41	18.04	12.11	
2025-01-14 01:19:10.62	18.04	12.13	
2025-01-14 01:19:10.82	18.04	12.15	
2025-01-14 01:19:11.03	18.04	12.17	
2025-01-14 01:19:11.23	18.04	12.19	
2025-01-14 01:19:11.44	18.04	12.21	
2025-01-14 01:19:11.64	18.05	12.24	
2025-01-14 01:19:11.85	18.05	12.26	
2025-01-14 01:19:12.05	18.05	12.28	
2025-01-14 01:19:12.26	18.05	12.30	
2025-01-14 01:19:12.46	18.05	12.32	
2025-01-14 01:19:12.67	18.05	12.34	
2025-01-14 01:19:12.87	18.05	12.36	
2025-01-14 01:19:13.08	18.06	12.38	
2025-01-14 01:19:13.28	18.06	12.40	
2025-01-14 01:19:13.49	18.06	12.43	
2025-01-14 01:19:13.69	18.06	12.45	
2025-01-14 01:19:13.90	18.06	12.47	
2025-01-14 01:19:14.10	18.06	12.49	
2025-01-14 01:19:14.31	18.06	12.51	
2025-01-14 01:19:14.52	18.07	12.53	
2025-01-14 01:19:14.72	18.07	12.55	
2025-01-14 01:19:14.93	18.07	12.57	
2025-01-14 01:19:15.13	18.07	12.60	
2025-01-14 01:19:15.34	18.07	12.62	
2025-01-14 01:19:15.54	18.07	12.64	
2025-01-14 01:19:15.75	18.07	12.66	
2025-01-14 01:19:15.95	18.08	12.68	
2025-01-14 01:19:16.16	18.08	12.70	
2025-01-14 01:19:16.36	18.08	12.72	
2025-01-14 01:19:16.57	18.08	12.75	
2025-01-14 01:19:16.77	18.08	12.77	
2025-01-14 01:19:16.98	18.08	12.79	
2025-01-14 01:19:17.18	18.08	12.81	
2025-01-14 01:19:17.39	18.09	12.83	
2025-01-14 01:19:17.60	18.09	12.85	
2025-01-14 01:19:17.80	18.09	12.88	
2025-01-14 01:19:18.01	18.09	12.90	
2025-01-14 01:19:18.21	18.09	12.92	
2025-01-14 01:19:18.42	18.09	12.94	
2025-01-14 01:19:18.62	18.09	12.96	
2025-01-14 01:19:18.83	18.10	12.98	
2025-01-14 01:19:19.03	18.10	13.01	
2025-01-14 01:19:19.24	18.10	13.03	
2025-01-14 01:19:19.44	18.10	13.05	
2025-01-14 01:19:19.65	18.10	13.07	
2025-01-14 01:19:19.85	18.10	13.09	
2025-01-14 01:19:20.07	18.10	13.12	
2025-01-14 01:19:20.28	18.11	13.14	
2025-01-14 01:19:20.48	18.11	13.16	
2025-01-14 01:19:20.68	18.11	13.18	
2025-01-14 01:19:20.89	18.11	13.20	
2025-01-14 01:19:21.09	18.11	13.22	
2025-01-14 01:19:21.30	18.11	13.25	
2025-01-14 01:19:21.50	18.12	13.27	
2025-01-14 01:19:21.71	18.12	13.29	
2025-01-14 01:19:21.91	18.12	13.31	
2025-01-14 01:19:22.11	18.12	13.33	
2025-01-14 01:19:22.32	18.12	13.36	
2025-01-14 01:19:22.53	18.12	13.38	
2025-01-14 01:19:22.73	18.12	13.40	
2025-01-14 01:19:22.94	18.13	13.42	
2025-01-14 01:19:23.14	18.13	13.45	
2025-01-14 01:19:23.35	18.13	13.47	
2025-01-14 01:19:23.55	18.13	13.49	
2025-01-14 01:19:23.76	18.13	13.51	
2025-01-14 01:19:23.96	18.13	13.53	
2025-01-14 01:19:24.17	18.13	13.56	
2025-01-14 01:19:24.37	18.14	13.58	
2025-01-14 01:19:24.58	18.14	13.60	
2025-01-14 01:19:24.78	18.14	13.62	
2025-01-14 01:19:24.99	18.14	13.65	
2025-01-14 01:19:25.20	18.14	13.67	
2025-01-14 01:19:25.40	18.14	13.69	
2025-01-14 01:19:25.60	18.14	13.71	
2025-01-14 01:19:25.81	18.15	13.74	
2025-01-14 01:19:26.01	18.15	13.76	
2025-01-14 01:19:26.22	18.15	13.78	
2025-01-14 01:19:26.42	18.15	13.80	
2025-01-14 01:19:26.63	18.15	13.83	
2025-01-14 01:19:26.83	18.15	13.85	
2025-01-14 01:19:27.04	18.16	13.87	
2025-01-14 01:19:27.24	18.16	13.89	
2025-01-14 01:19:27.45	18.16	13.92	
2025-01-14 01:19:27.65	18.16	13.94	
2025-01-14 01:19:27.86	18.16	13.96	
2025-01-14 01:19:28.06	18.16	13.98	
2025-01-14 01:19:28.27	18.16	14.01	
2025-01-14 01:19:28.48	18.17	14.03	
2025-01-14 01:19:28.68	18.17	14.05	
2025-01-14 01:19:28.89	18.17	14.08	
2025-01-14 01:19:29.09	18.17	14.10	
2025-01-14 01:19:29.30	18.17	14.12	
2025-01-14 01:19:29.51	18.17	14.15	
2025-01-14 01:19:29.71	18.18	14.17	
2025-01-14 01:19:29.92	18.18	14.19	
2025-01-14 01:19:30.12	18.18	14.21	
2025-01-14 01:19:30.33	18.18	14.24	
2025-01-14 01:19:30.53	18.18	14.26	
2025-01-14 01:19:30.74	18.18	14.28	
2025-01-14 01:19:30.94	18.18	14.31	
2025-01-14 01:19:31.15	18.19	14.33	
2025-01-14 01:19:31.35	18.19	14.35	
2025-01-14 01:19:31.56	18.19	14.38	
2025-01-14 01:19:31.76	18.19	14.40	
2025-01-14 01:19:31.97	18.19	14.42	
2025-01-14 01:19:32.17	18.19	14.45	
2025-01-14 01:19:32.38	18.20	14.47	
2025-01-14 01:19:32.59	18.20	14.49	
2025-01-14 01:19:32.79	18.20	14.52	
2025-01-14 01:19:32.99	18.20	14.54	
2025-01-14 01:19:33.20	18.20	14.56	
2025-01-14 01:19:33.42	18.20	14.59	
2025-01-14 01:19:33.62	18.20	14.61	
2025-01-14 01:19:33.83	18.21	14.63	
2025-01-14 01:19:34.03	18.21	14.66	
2025-01-14 01:19:34.24	18.21	14.68	
2025-01-14 01:19:34.44	18.21	14.70	
2025-01-14 01:19:34.65	18.21	14.73	
2025-01-14 01:19:34.86	18.21	14.75	
2025-01-14 01:19:35.06	18.22	14.78	
2025-01-14 01:19:35.27	18.22	14.80	
2025-01-14 01:19:35.47	18.22	14.82	
2025-01-14 01:19:35.68	18.22	14.85	
2025-01-14 01:19:35.88	18.22	14.87	
2025-01-14 01:19:36.09	18.22	14.89	
2025-01-14 01:19:36.29	18.22	14.92	
2025-01-14 01:19:36.50	18.23	14.94	
2025-01-14 01:19:36.70	18.23	14.96	
2025-01-14 01:19:36.91	18.23	14.99	
2025-01-14 01:19:37.12	18.23	15.01	
2025-01-14 01:19:37.32	18.23	15.04	
2025-01-14 01:19:37.53	18.23	15.06	
2025-01-14 01:19:37.74	18.24	15.09	
2025-01-14 01:19:37.94	18.24	15.11	
2025-01-14 01:19:38.15	18.24	15.13	
2025-01-14 01:19:38.35	18.24	15.16	
2025-01-14 01:19:38.56	18.24	15.18	
2025-01-14 01:19:38.76	18.24	15.20	
2025-01-14 01:19:38.97	18.25	15.23	
2025-01-14 01:19:39.18	18.25	15.25	
2025-01-14 01:19:39.38	18.25	15.28	
2025-01-14 01:19:39.58	18.25	15.30	
2025-01-14 01:19:39.79	18.25	15.33	
2025-01-14 01:19:40.00	18.25	15.35	
2025-01-14 01:19:40.20	18.25	15.37	
2025-01-14 01:19:40.42	18.26	15.40	
2025-01-14 01:19:40.62	18.26	15.42	
2025-01-14 01:19:40.83	18.26	15.45	
2025-01-14 01:19:41.04	18.26	15.47	
2025-01-14 01:19:41.24	18.26	15.50	
2025-01-14 01:19:41.45	18.26	15.52	
2025-01-14 01:19:41.65	18.27	15.55	
2025-01-14 01:19:41.85	18.27	15.57	
2025-01-14 01:19:42.06	18.27	15.59	
2025-01-14 01:19:42.27	18.27	15.62	
2025-01-14 01:19:42.47	18.27	15.64	
2025-01-14 01:19:42.68	18.27	15.67	
2025-01-14 01:19:42.88	18.28	15.69	
2025-01-14 01:19:43.09	18.28	15.72	
2025-01-14 01:19:43.29	18.28	15.74	
2025-01-14 01:19:43.50	18.28	15.77	
2025-01-14 01:19:43.70	18.28	15.79	
2025-01-14 01:19:43.91	18.28	15.82	
2025-01-14 01:19:44.12	18.28	15.84	
2025-01-14 01:19:44.32	18.29	15.87	
2025-01-14 01:19:44.53	18.29	15.89	
2025-01-14 01:19:44.73	18.29	15.92	
2025-01-14 01:19:44.94	18.29	15.94	
2025-01-14 01:19:45.14	18.29	15.97	
2025-01-14 01:19:45.35	18.29	15.99	
2025-01-14 01:19:45.56	18.30	16.02	
2025-01-14 01:19:45.76	18.30	16.04	
2025-01-14 01:19:45.97	18.30	16.07	
2025-01-14 01:19:46.17	18.30	16.09	
2025-01-14 01:19:46.38	18.30	16.12	
2025-01-14 01:19:46.58	18.30	16.14	
2025-01-14 01:19:46.78	18.31	16.17	
2025-01-14 01:19:46.99	18.31	16.19	
2025-01-14 01:19:47.20	18.31	16.22	
2025-01-14 01:19:47.40	18.31	16.24	
2025-01-14 01:19:47.61	18.31	16.27	
2025-01-14 01:19:47.81	18.31	16.29	
2025-01-14 01:19:48.01	18.32	16.32	
2025-01-14 01:19:48.22	18.32	16.34	
2025-01-14 01:19:48.42	18.32	16.37	
2025-01-14 01:19:48.63	18.32	16.39	
2025-01-14 01:19:48.84	18.32	16.42	
2025-01-14 01:19:49.04	18.32	16.44	
2025-01-14 01:19:49.25	18.33	16.47	
2025-01-14 01:19:49.45	18.33	16.49	
2025-01-14 01:19:49.66	18.33	16.52	
2025-01-14 01:19:49.86	18.33	16.55	
2025-01-14 01:19:50.06	18.33	16.57	
2025-01-14 01:19:50.27	18.33	16.60	
2025-01-14 01:19:50.48	18.34	16.62	
2025-01-14 01:19:50.68	18.34	16.65	
2025-01-14 01:19:50.89	18.34	16.67	
2025-01-14 01:19:51.09	18.34	16.70	
2025-01-14 01:19:51.30	18.34	16.73	
2025-01-14 01:19:51.50	18.34	16.75	
2025-01-14 01:19:51.71	18.35	16.78	
2025-01-14 01:19:51.91	18.35	16.80	
2025-01-14 01:19:52.12	18.35	16.83	
2025-01-14 01:19:52.32	18.35	16.85	
2025-01-14 01:19:52.53	18.35	16.88	
2025-01-14 01:19:52.73	18.35	16.91	
2025-01-14 01:19:52.94	18.36	16.93	
2025-01-14 01:19:53.14	18.36	16.96	
2025-01-14 01:19:53.35	18.36	16.98	
2025-01-14 01:19:53.55	18.36	17.01	
2025-01-14 01:19:53.76	18.36	17.04	
2025-01-14 01:19:53.96	18.36	17.06	
2025-01-14 01:19:54.17	18.37	17.09	
2025-01-14 01:19:54.38	18.37	17.12	
2025-01-14 01:19:54.58	18.37	17.14	
2025-01-14 01:19:54.79	18.37	17.17	
2025-01-14 01:19:54.99	18.37	17.19	
2025-01-14 01:19:55.20	18.37	17.22	
2025-01-14 01:19:55.40	18.38	17.25	
2025-01-14 01:19:55.61	18.38	17.27	
2025-01-14 01:19:55.81	18.38	17.30	
2025-01-14 01:19:56.02	18.38	17.33	
2025-01-14 01:19:56.23	18.38	17.35	
2025-01-14 01:19:56.44	18.38	17.38	
2025-01-14 01:19:56.65	18.39	17.41	
2025-01-14 01:19:56.85	18.39	17.43	
2025-01-14 01:19:57.06	18.39	17.46	
2025-01-14 01:19:57.26	18.39	17.49	
2025-01-14 01:19:57.48	18.39	17.52	
2025-01-14 01:19:57.69	18.39	17.54	
2025-01-14 01:19:57.90	18.40	17.57	
2025-01-14 01:19:58.10	18.40	17.60	
2025-01-14 01:19:58.31	18.40	17.62	
2025-01-14 01:19:58.51	18.40	17.65	
2025-01-14 01:19:58.72	18.40	17.68	
2025-01-14 01:19:58.92	18.40	17.70	
2025-01-14 01:19:59.13	18.41	17.73	
2025-01-14 01:19:59.33	18.41	17.76	
2025-01-14 01:19:59.54	18.41	17.79	
2025-01-14 01:19:59.74	18.41	17.81	
2025-01-14 01:19:59.94	18.41	17.84	
2025-01-14 01:20:00.16	18.42	17.87	
2025-01-14 01:20:00.37	18.42	17.90	
2025-01-14 01:20:00.57	18.42	17.92	
2025-01-14 01:20:00.77	18.42	17.95	
2025-01-14 01:20:00.98	18.42	17.98	
2025-01-14 01:20:01.19	18.42	18.00	
2025-01-14 01:20:01.39	18.43	18.03	
2025-01-14 01:20:01.60	18.43	18.06	
2025-01-14 01:20:01.80	18.43	18.09	
2025-01-14 01:20:02.01	18.43	18.11	
2025-01-14 01:20:02.21	18.43	18.14	
2025-01-14 01:20:02.42	18.43	18.17	
2025-01-14 01:20:02.63	18.44	18.20	
2025-01-14 01:20:02.83	18.44	18.22	
2025-01-14 01:20:03.03	18.44	18.25	
2025-01-14 01:20:03.24	18.44	18.28	
2025-01-14 01:20:03.44	18.44	18.31	
2025-01-14 01:20:03.65	18.44	18.33	
2025-01-14 01:20:03.85	18.45	18.36	
2025-01-14 01:20:04.06	18.45	18.39	
2025-01-14 01:20:04.26	18.45	18.42	
2025-01-14 01:20:04.47	18.45	18.44	
2025-01-14 01:20:04.68	18.45	18.47	
2025-01-14 01:20:04.88	18.46	18.50	
2025-01-14 01:20:05.08	18.46	18.53	
2025-01-14 01:20:05.29	18.46	18.56	
2025-01-14 01:20:05.50	18.46	18.59	
2025-01-14 01:20:05.70	18.46	18.61	
2025-01-14 01:20:05.90	18.46	18.64	
2025-01-14 01:20:06.11	18.47	18.67	
2025-01-14 01:20:06.32	18.47	18.70	
2025-01-14 01:20:06.52	18.47	18.72	
2025-01-14 01:20:06.73	18.47	18.75	
2025-01-14 01:20:06.93	18.47	18.78	
2025-01-14 01:20:07.14	18.47	18.81	
2025-01-14 01:20:07.34	18.48	18.84	
2025-01-14 01:20:07.55	18.48	18.87	
2025-01-14 01:20:07.76	18.48	18.90	
2025-01-14 01:20:07.96	18.48	18.92	
2025-01-14 01:20:08.16	18.48	18.95	
2025-01-14 01:20:08.37	18.49	18.98	
2025-01-14 01:20:08.57	18.49	19.01	
2025-01-14 01:20:08.78	18.49	19.04	
2025-01-14 01:20:08.99	18.49	19.07	
2025-01-14 01:20:09.19	18.49	19.09	
2025-01-14 01:20:09.40	18.49	19.12	
2025-01-14 01:20:09.60	18.50	19.15	
2025-01-14 01:20:09.81	18.50	19.18	
2025-01-14 01:20:10.01	18.50	19.21	
2025-01-14 01:20:10.21	18.50	19.24	
2025-01-14 01:20:10.42	18.50	19.27	
2025-01-14 01:20:10.63	18.51	19.30	
2025-01-14 01:20:10.83	18.51	19.32	
2025-01-14 01:20:11.04	18.51	19.35	
2025-01-14 01:20:11.24	18.51	19.38	
2025-01-14 01:20:11.45	18.51	19.41	
2025-01-14 01:20:11.65	18.51	19.44	
2025-01-14 01:20:11.86	18.52	19.47	
2025-01-14 01:20:12.07	18.52	19.50	
2025-01-14 01:20:12.27	18.52	19.53	
2025-01-14 01:20:12.48	18.52	19.56	
2025-01-14 01:20:12.68	18.52	19.59	
2025-01-14 01:20:12.89	18.53	19.62	
2025-01-14 01:20:13.09	18.53	19.65	
2025-01-14 01:20:13.30	18.53	19.68	
2025-01-14 01:20:13.50	18.53	19.70	
2025-01-14 01:20:13.71	18.53	19.73	
2025-01-14 01:20:13.91	18.53	19.76	
2025-01-14 01:20:14.12	18.54	19.79	
2025-01-14 01:20:14.32	18.54	19.82	
2025-01-14 01:20:14.53	18.54	19.85	
2025-01-14 01:20:14.73	18.54	19.88	
2025-01-14 01:20:14.94	18.54	19.91	
2025-01-14 01:20:15.14	18.55	19.94	
2025-01-14 01:20:15.35	18.55	19.97	
2025-01-14 01:20:15.55	18.55	20.00	
2025-01-14 01:20:15.76	18.55	20.03	
2025-01-14 01:20:15.96	18.55	20.06	
2025-01-14 01:20:16.17	18.56	20.09	
2025-01-14 01:20:16.37	18.56	20.12	
2025-01-14 01:20:16.58	18.56	20.15	
2025-01-14 01:20:16.78	18.56	20.18	
2025-01-14 01:20:16.99	18.56	20.21	
2025-01-14 01:20:17.19	18.56	20.24	
2025-01-14 01:20:17.40	18.57	20.27	
2025-01-14 01:20:17.61	18.57	20.30	
2025-01-14 01:20:17.81	18.57	20.33	
2025-01-14 01:20:18.01	18.57	20.36	
2025-01-14 01:20:18.22	18.57	20.39	
2025-01-14 01:20:18.42	18.58	20.42	
2025-01-14 01:20:18.63	18.58	20.45	
2025-01-14 01:20:18.83	18.58	20.48	
2025-01-14 01:20:19.04	18.58	20.51	
2025-01-14 01:20:19.24	18.58	20.54	
2025-01-14 01:20:19.45	18.59	20.57	
2025-01-14 01:20:19.65	18.59	20.60	
2025-01-14 01:20:19.86	18.59	20.64	
2025-01-14 01:20:20.06	18.59	20.67	
2025-01-14 01:20:20.27	18.59	20.70	
2025-01-14 01:20:20.47	18.60	20.73	
2025-01-14 01:20:20.68	18.60	20.76	
2025-01-14 01:20:20.89	18.60	20.79	
2025-01-14 01:20:21.10	18.60	20.82	
2025-01-14 01:20:21.30	18.60	20.85	
2025-01-14 01:20:21.51	18.60	20.88	
2025-01-14 01:20:21.72	18.61	20.92	
2025-01-14 01:20:21.93	18.61	20.95	
2025-01-14 01:20:22.14	18.61	20.98	
2025-01-14 01:20:22.35	18.61	21.01	
2025-01-14 01:20:22.55	18.61	21.04	
2025-01-14 01:20:22.76	18.62	21.07	
2025-01-14 01:20:22.96	18.62	21.10	
2025-01-14 01:20:23.16	18.62	21.13	
2025-01-14 01:20:23.37	18.62	21.17	
2025-01-14 01:20:23.57	18.62	21.20	
2025-01-14 01:20:23.78	18.63	21.23	
2025-01-14 01:20:23.98	18.63	21.26	
2025-01-14 01:20:24.19	18.63	21.29	
2025-01-14 01:20:24.39	18.63	21.32	
2025-01-14 01:20:24.60	18.63	21.36	
2025-01-14 01:20:24.80	18.64	21.39	
2025-01-14 01:20:25.01	18.64	21.42	
2025-01-14 01:20:25.21	18.64	21.45	
2025-01-14 01:20:25.42	18.64	21.48	
2025-01-14 01:20:25.62	18.64	21.51	
2025-01-14 01:20:25.83	18.65	21.55	
2025-01-14 01:20:26.04	18.65	21.58	
2025-01-14 01:20:26.24	18.65	21.61	
2025-01-14 01:20:26.44	18.65	21.64	
2025-01-14 01:20:26.65	18.65	21.67	
2025-01-14 01:20:26.85	18.66	21.70	
2025-01-14 01:20:27.06	18.66	21.74	
2025-01-14 01:20:27.26	18.66	21.77	
2025-01-14 01:20:27.47	18.66	21.80	
2025-01-14 01:20:27.67	18.66	21.83	
2025-01-14 01:20:27.88	18.67	21.87	
2025-01-14 01:20:28.08	18.67	21.90	
2025-01-14 01:20:28.29	18.67	21.93	
2025-01-14 01:20:28.49	18.67	21.96	
2025-01-14 01:20:28.70	18.67	22.00	
2025-01-14 01:20:28.90	18.68	22.03	
2025-01-14 01:20:29.11	18.68	22.06	
2025-01-14 01:20:29.31	18.68	22.09	
2025-01-14 01:20:29.52	18.68	22.13	
2025-01-14 01:20:29.72	18.68	22.16	
2025-01-14 01:20:29.93	18.69	22.19	
2025-01-14 01:20:30.14	18.69	22.23	
2025-01-14 01:20:30.34	18.69	22.26	
2025-01-14 01:20:30.54	18.69	22.29	
2025-01-14 01:20:30.75	18.69	22.32	
2025-01-14 01:20:30.96	18.70	22.36	
2025-01-14 01:20:31.16	18.70	22.39	
2025-01-14 01:20:31.37	18.70	22.42	
2025-01-14 01:20:31.57	18.70	22.46	
2025-01-14 01:20:31.78	18.70	22.49	
2025-01-14 01:20:31.99	18.71	22.52	
2025-01-14 01:20:32.19	18.71	22.56	
2025-01-14 01:20:32.40	18.71	22.59	
2025-01-14 01:20:32.61	18.71	22.62	
2025-01-14 01:20:32.82	18.72	22.66	
2025-01-14 01:20:33.02	18.72	22.69	
2025-01-14 01:20:33.23	18.72	22.73	
2025-01-14 01:20:33.43	18.72	22.76	
2025-01-14 01:20:33.64	18.72	22.79	
2025-01-14 01:20:33.85	18.73	22.83	
2025-01-14 01:20:34.05	18.73	22.86	
2025-01-14 01:20:34.26	18.73	22.89	
2025-01-14 01:20:34.46	18.73	22.93	
2025-01-14 01:20:34.67	18.73	22.96	
2025-01-14 01:20:34.87	18.74	23.00	
2025-01-14 01:20:35.08	18.74	23.03	
2025-01-14 01:20:35.28	18.74	23.06	
2025-01-14 01:20:35.49	18.74	23.10	
2025-01-14 01:20:35.69	18.74	23.13	
2025-01-14 01:20:35.91	18.75	23.17	
2025-01-14 01:20:36.12	18.75	23.20	
2025-01-14 01:20:36.32	18.75	23.24	
2025-01-14 01:20:36.52	18.75	23.27	
2025-01-14 01:20:36.73	18.76	23.30	
2025-01-14 01:20:36.94	18.76	23.34	
2025-01-14 01:20:37.14	18.76	23.37	
2025-01-14 01:20:37.35	18.76	23.41	
2025-01-14 01:20:37.55	18.76	23.44	
2025-01-14 01:20:37.76	18.77	23.48	
2025-01-14 01:20:37.98	18.77	23.52	
2025-01-14 01:20:38.18	18.77	23.55	
2025-01-14 01:20:38.39	18.77	23.58	
2025-01-14 01:20:38.59	18.77	23.62	
2025-01-14 01:20:38.80	18.78	23.65	
2025-01-14 01:20:39.02	18.78	23.69	
2025-01-14 01:20:39.22	18.78	23.73	
2025-01-14 01:20:39.43	18.78	23.76	
2025-01-14 01:20:39.63	18.79	23.80	
2025-01-14 01:20:39.84	18.79	23.83	
2025-01-14 01:20:40.04	18.79	23.87	
2025-01-14 01:20:40.25	18.79	23.90	
2025-01-14 01:20:40.45	18.79	23.94	
2025-01-14 01:20:40.66	18.80	23.97	
2025-01-14 01:20:40.86	18.80	24.01	
2025-01-14 01:20:41.07	18.80	24.04	
2025-01-14 01:20:41.27	18.80	24.08	
2025-01-14 01:20:41.48	18.81	24.11	
2025-01-14 01:20:41.68	18.81	24.15	
2025-01-14 01:20:41.89	18.81	24.19	
2025-01-14 01:20:42.10	18.81	24.22	
2025-01-14 01:20:42.32	18.81	24.26	
2025-01-14 01:20:42.52	18.82	24.30	
2025-01-14 01:20:42.73	18.82	24.33	
2025-01-14 01:20:42.93	18.82	24.37	
2025-01-14 01:20:43.14	18.82	24.40	
2025-01-14 01:20:43.36	18.83	24.44	
2025-01-14 01:20:43.56	18.83	24.48	
2025-01-14 01:20:43.77	18.83	24.51	
2025-01-14 01:20:43.97	18.83	24.55	
2025-01-14 01:20:44.18	18.83	24.59	
2025-01-14 01:20:44.38	18.84	24.62	
2025-01-14 01:20:44.59	18.84	24.66	
2025-01-14 01:20:44.79	18.84	24.70	
2025-01-14 01:20:45.00	18.84	24.73	
2025-01-14 01:20:45.20	18.85	24.77	
2025-01-14 01:20:45.41	18.85	24.81	
2025-01-14 01:20:45.61	18.85	24.84	
2025-01-14 01:20:45.82	18.85	24.88	
2025-01-14 01:20:46.02	18.85	24.91	
2025-01-14 01:20:46.23	18.86	24.95	
2025-01-14 01:20:46.45	18.86	24.99	
2025-01-14 01:20:46.65	18.86	25.03	
2025-01-14 01:20:46.86	18.86	25.07	
2025-01-14 01:20:47.07	18.87	25.10	
2025-01-14 01:20:47.27	18.87	25.14	
2025-01-14 01:20:47.48	18.87	25.18	
2025-01-14 01:20:47.68	18.87	25.21	
2025-01-14 01:20:47.89	18.88	25.25	
2025-01-14 01:20:48.09	18.88	25.29	
2025-01-14 01:20:48.30	18.88	25.33	
2025-01-14 01:20:48.50	18.88	25.36	
2025-01-14 01:20:48.71	18.88	25.40	
2025-01-14 01:20:48.91	18.89	25.44	
2025-01-14 01:20:49.12	18.89	25.48	
2025-01-14 01:20:49.32	18.89	25.51	
2025-01-14 01:20:49.53	18.89	25.55	
2025-01-14 01:20:49.73	18.90	25.59	
2025-01-14 01:20:49.94	18.90	25.63	
2025-01-14 01:20:50.15	18.90	25.67	
2025-01-14 01:20:50.35	18.90	25.70	
2025-01-14 01:20:50.56	18.91	25.74	
2025-01-14 01:20:50.76	18.91	25.78	
2025-01-14 01:20:50.97	18.91	25.82	
2025-01-14 01:20:51.18	18.91	25.86	
2025-01-14 01:20:51.38	18.92	25.89	
2025-01-14 01:20:51.59	18.92	25.93	
2025-01-14 01:20:51.79	18.92	25.97	
2025-01-14 01:20:51.99	18.92	26.01	
2025-01-14 01:20:52.20	18.93	26.05	
2025-01-14 01:20:52.41	18.93	26.09	
2025-01-14 01:20:52.61	18.93	26.12	
2025-01-14 01:20:52.82	18.93	26.16	
2025-01-14 01:20:53.02	18.93	26.20	
2025-01-14 01:20:53.23	18.94	26.24	
2025-01-14 01:20:53.43	18.94	26.28	
2025-01-14 01:20:53.64	18.94	26.32	
2025-01-14 01:20:53.85	18.94	26.36	
2025-01-14 01:20:54.05	18.95	26.40	
2025-01-14 01:20:54.26	18.95	26.44	
2025-01-14 01:20:54.46	18.95	26.48	
2025-01-14 01:20:54.67	18.95	26.52	
2025-01-14 01:20:54.87	18.96	26.55	
2025-01-14 01:20:55.08	18.96	26.59	
2025-01-14 01:20:55.28	18.96	26.63	
2025-01-14 01:20:55.49	18.96	26.67	
2025-01-14 01:20:55.69	18.97	26.71	
2025-01-14 01:20:55.90	18.97	26.75	
2025-01-14 01:20:56.10	18.97	26.79	
2025-01-14 01:20:56.31	18.97	26.83	
2025-01-14 01:20:56.51	18.98	26.87	
2025-01-14 01:20:56.72	18.98	26.91	
2025-01-14 01:20:56.92	18.98	26.95	
2025-01-14 01:20:57.12	18.98	26.99	
2025-01-14 01:20:57.33	18.99	27.03	
2025-01-14 01:20:57.53	18.99	27.07	
2025-01-14 01:20:57.74	18.99	27.11	
2025-01-14 01:20:57.94	18.99	27.15	
2025-01-14 01:20:58.15	19.00	27.19	
2025-01-14 01:20:58.35	19.00	27.23	
2025-01-14 01:20:58.56	19.00	27.27	
2025-01-14 01:20:58.76	19.00	27.31	
2025-01-14 01:20:58.97	19.01	27.35	
2025-01-14 01:20:59.17	19.01	27.39	
2025-01-14 01:20:59.38	19.01	27.43	
2025-01-14 01:20:59.58	19.01	27.47	
2025-01-14 01:20:59.79	19.02	27.51	
2025-01-14 01:20:59.99	19.02	27.55	
2025-01-14 01:21:00.21	19.02	27.60	
2025-01-14 01:21:00.42	19.02	27.64	
2025-01-14 01:21:00.62	19.03	27.68	
2025-01-14 01:21:00.83	19.03	27.72	
2025-01-14 01:21:01.03	19.03	27.76	
2025-01-14 01:21:01.24	19.03	27.80	
2025-01-14 01:21:01.44	19.04	27.84	
2025-01-14 01:21:01.65	19.04	27.89	
2025-01-14 01:21:01.85	19.04	27.93	
2025-01-14 01:21:02.06	19.04	27.97	
2025-01-14 01:21:02.27	19.05	28.01	
2025-01-14 01:21:02.47	19.05	28.05	
2025-01-14 01:21:02.67	19.05	28.09	
2025-01-14 01:21:02.88	19.06	28.14	
2025-01-14 01:21:03.09	19.06	28.18	
2025-01-14 01:21:03.29	19.06	28.22	
2025-01-14 01:21:03.50	19.06	28.26	
2025-01-14 01:21:03.70	19.07	28.30	
2025-01-14 01:21:03.91	19.07	28.35	
2025-01-14 01:21:04.11	19.07	28.39	
2025-01-14 01:21:04.32	19.07	28.43	
2025-01-14 01:21:04.53	19.08	28.47	
2025-01-14 01:21:04.74	19.08	28.52	
2025-01-14 01:21:04.95	19.08	28.56	
2025-01-14 01:21:05.15	19.08	28.60	
2025-01-14 01:21:05.36	19.09	28.65	
2025-01-14 01:21:05.56	19.09	28.69	
2025-01-14 01:21:05.77	19.09	28.73	
2025-01-14 01:21:05.97	19.10	28.77	
2025-01-14 01:21:06.18	19.10	28.82	
2025-01-14 01:21:06.39	19.10	28.86	
2025-01-14 01:21:06.59	19.10	28.90	
2025-01-14 01:21:06.79	19.11	28.95	
2025-01-14 01:21:07.00	19.11	28.99	
2025-01-14 01:21:07.21	19.11	29.03	
2025-01-14 01:21:07.41	19.11	29.08	
2025-01-14 01:21:07.62	19.12	29.12	
2025-01-14 01:21:07.82	19.12	29.16	
2025-01-14 01:21:08.03	19.12	29.21	
2025-01-14 01:21:08.23	19.13	29.25	
2025-01-14 01:21:08.44	19.13	29.30	
2025-01-14 01:21:08.64	19.13	29.34	
2025-01-14 01:21:08.85	19.13	29.38	
2025-01-14 01:21:09.05	19.14	29.43	
2025-01-14 01:21:09.26	19.14	29.47	
2025-01-14 01:21:09.46	19.14	29.51	
2025-01-14 01:21:09.67	19.14	29.56	
2025-01-14 01:21:09.88	19.15	29.60	
2025-01-14 01:21:10.08	19.15	29.65	
2025-01-14 01:21:10.28	19.15	29.69	
2025-01-14 01:21:10.49	19.16	29.74	
2025-01-14 01:21:10.70	19.16	29.78	
2025-01-14 01:21:10.90	19.16	29.82	
2025-01-14 01:21:11.11	19.16	29.87	
2025-01-14 01:21:11.31	19.17	29.91	
2025-01-14 01:21:11.52	19.17	29.96	
2025-01-14 01:21:11.72	19.17	30.00	
2025-01-14 01:21:11.93	19.18	30.05	
2025-01-14 01:21:12.13	19.18	30.09	
2025-01-14 01:21:12.34	19.18	30.14	
2025-01-14 01:21:12.54	19.18	30.18	
2025-01-14 01:21:12.75	19.19	30.23	
2025-01-14 01:21:12.95	19.19	30.27	
2025-01-14 01:21:13.16	19.19	30.32	
2025-01-14 01:21:13.36	19.20	30.37	
2025-01-14 01:21:13.57	19.20	30.41	
2025-01-14 01:21:13.77	19.20	30.46	
2025-01-14 01:21:13.98	19.20	30.50	
2025-01-14 01:21:14.18	19.21	30.55	
2025-01-14 01:21:14.39	19.21	30.59	
2025-01-14 01:21:14.59	19.21	30.64	
2025-01-14 01:21:14.80	19.22	30.69	
2025-01-14 01:21:15.00	19.22	30.73	
2025-01-14 01:21:15.21	19.22	30.78	
2025-01-14 01:21:15.41	19.22	30.82	
2025-01-14 01:21:15.62	19.23	30.87	
2025-01-14 01:21:15.82	19.23	30.92	
2025-01-14 01:21:16.03	19.23	30.96	
2025-01-14 01:21:16.23	19.24	31.01	
2025-01-14 01:21:16.44	19.24	31.06	
2025-01-14 01:21:16.64	19.24	31.10	
2025-01-14 01:21:16.85	19.25	31.15	
2025-01-14 01:21:17.05	19.25	31.20	
2025-01-14 01:21:17.26	19.25	31.24	
2025-01-14 01:21:17.46	19.25	31.29	
2025-01-14 01:21:17.67	19.26	31.34	
2025-01-14 01:21:17.87	19.26	31.39	
2025-01-14 01:21:18.08	19.26	31.43	
2025-01-14 01:21:18.28	19.27	31.48	
2025-01-14 01:21:18.48	19.27	31.53	
2025-01-14 01:21:18.69	19.27	31.57	
2025-01-14 01:21:18.90	19.28	31.62	
2025-01-14 01:21:19.10	19.28	31.67	
2025-01-14 01:21:19.31	19.28	31.72	
2025-01-14 01:21:19.51	19.29	31.77	
2025-01-14 01:21:19.72	19.29	31.81	
2025-01-14 01:21:19.92	19.29	31.86	
2025-01-14 01:21:20.13	19.29	31.91	
2025-01-14 01:21:20.33	19.30	31.96	
2025-01-14 01:21:20.54	19.30	32.01	
2025-01-14 01:21:20.74	19.30	32.05	
2025-01-14 01:21:20.95	19.31	32.10	
2025-01-14 01:21:21.15	19.31	32.15	
2025-01-14 01:21:21.36	19.31	32.20	
2025-01-14 01:21:21.56	19.32	32.25	
2025-01-14 01:21:21.77	19.32	32.30	
2025-01-14 01:21:21.97	19.32	32.35	
2025-01-14 01:21:22.18	19.33	32.40	
2025-01-14 01:21:22.39	19.33	32.45	
2025-01-14 01:21:22.59	19.33	32.49	
2025-01-14 01:21:22.81	19.34	32.55	
2025-01-14 01:21:23.01	19.34	32.60	
2025-01-14 01:21:23.22	19.34	32.65	
2025-01-14 01:21:23.43	19.35	32.70	
2025-01-14 01:21:23.63	19.35	32.75	
2025-01-14 01:21:23.84	19.35	32.80	
2025-01-14 01:21:24.04	19.36	32.84	
2025-01-14 01:21:24.25	19.36	32.90	
2025-01-14 01:21:24.45	19.36	32.94	
2025-01-14 01:21:24.66	19.37	33.00	
2025-01-14 01:21:24.86	19.37	33.04	
2025-01-14 01:21:25.07	19.37	33.10	
2025-01-14 01:21:25.27	19.38	33.14	
2025-01-14 01:21:25.48	19.38	33.20	
2025-01-14 01:21:25.68	19.38	33.25	
2025-01-14 01:21:25.89	19.39	33.30	
2025-01-14 01:21:26.09	19.39	33.35	
2025-01-14 01:21:26.30	19.39	33.40	
2025-01-14 01:21:26.50	19.40	33.45	
2025-01-14 01:21:26.71	19.40	33.50	
2025-01-14 01:21:26.91	19.40	33.55	
2025-01-14 01:21:27.12	19.41	33.60	
2025-01-14 01:21:27.32	19.41	33.65	
2025-01-14 01:21:27.53	19.41	33.70	
2025-01-14 01:21:27.73	19.42	33.75	
2025-01-14 01:21:27.94	19.42	33.81	
2025-01-14 01:21:28.14	19.42	33.86	
2025-01-14 01:21:28.35	19.43	33.91	
2025-01-14 01:21:28.55	19.43	33.96	
2025-01-14 01:21:28.76	19.43	34.01	
2025-01-14 01:21:28.96	19.44	34.06	
2025-01-14 01:21:29.17	19.44	34.12	
2025-01-14 01:21:29.37	19.44	34.17	
2025-01-14 01:21:29.58	19.45	34.22	
2025-01-14 01:21:29.78	19.45	34.27	
2025-01-14 01:21:29.99	19.45	34.33	
2025-01-14 01:21:30.20	19.46	34.38	
2025-01-14 01:21:30.40	19.46	34.43	
2025-01-14 01:21:30.61	19.46	34.49	
2025-01-14 01:21:30.81	19.47	34.54	
2025-01-14 01:21:31.02	19.47	34.59	
2025-01-14 01:21:31.22	19.47	34.64	
2025-01-14 01:21:31.43	19.48	34.70	
2025-01-14 01:21:31.63	19.48	34.75	
2025-01-14 01:21:31.84	19.49	34.80	
2025-01-14 01:21:32.04	19.49	34.86	
2025-01-14 01:21:32.25	19.49	34.91	
2025-01-14 01:21:32.45	19.50	34.96	
2025-01-14 01:21:32.65	19.50	35.02	
2025-01-14 01:21:32.86	19.50	35.07	
2025-01-14 01:21:33.06	19.51	35.12	
2025-01-14 01:21:33.27	19.51	35.18	
2025-01-14 01:21:33.47	19.51	35.23	
2025-01-14 01:21:33.68	19.52	35.29	
2025-01-14 01:21:33.88	19.52	35.34	
2025-01-14 01:21:34.09	19.52	35.39	
2025-01-14 01:21:34.29	19.53	35.45	
2025-01-14 01:21:34.50	19.53	35.50	
2025-01-14 01:21:34.70	19.54	35.56	
2025-01-14 01:21:34.91	19.54	35.61	
2025-01-14 01:21:35.11	19.54	35.67	
2025-01-14 01:21:35.32	19.55	35.72	
2025-01-14 01:21:35.52	19.55	35.78	
2025-01-14 01:21:35.73	19.55	35.83	
2025-01-14 01:21:35.93	19.56	35.89	
2025-01-14 01:21:36.13	19.56	35.94	
2025-01-14 01:21:36.35	19.57	36.00	
2025-01-14 01:21:36.56	19.57	36.06	
2025-01-14 01:21:36.76	19.57	36.11	
2025-01-14 01:21:36.97	19.58	36.17	
2025-01-14 01:21:37.17	19.58	36.22	
2025-01-14 01:21:37.38	19.59	36.28	
2025-01-14 01:21:37.59	19.59	36.34	
2025-01-14 01:21:37.79	19.59	36.39	
2025-01-14 01:21:37.99	19.60	36.45	
2025-01-14 01:21:38.20	19.60	36.50	
2025-01-14 01:21:38.41	19.60	36.56	
2025-01-14 01:21:38.61	19.61	36.62	
2025-01-14 01:21:38.82	19.61	36.68	
2025-01-14 01:21:39.02	19.62	36.73	
2025-01-14 01:21:39.23	19.62	36.79	
2025-01-14 01:21:39.43	19.62	36.84	
2025-01-14 01:21:39.64	19.63	36.90	
2025-01-14 01:21:39.84	19.63	36.96	
2025-01-14 01:21:40.05	19.64	37.02	
2025-01-14 01:21:40.25	19.64	37.07	
2025-01-14 01:21:40.46	19.64	37.13	
2025-01-14 01:21:40.66	19.65	37.19	
2025-01-14 01:21:40.87	19.65	37.25	
2025-01-14 01:21:41.07	19.66	37.30	
2025-01-14 01:21:41.28	19.66	37.36	
2025-01-14 01:21:41.48	19.66	37.42	
2025-01-14 01:21:41.69	19.67	37.48	
2025-01-14 01:21:41.90	19.67	37.54	
2025-01-14 01:21:42.10	19.68	37.60	
2025-01-14 01:21:42.30	19.68	37.65	
2025-01-14 01:21:42.51	19.68	37.71	
2025-01-14 01:21:42.71	19.69	37.77	
2025-01-14 01:21:42.92	19.69	37.83	
2025-01-14 01:21:43.12	19.70	37.89	
2025-01-14 01:21:43.33	19.70	37.95	
2025-01-14 01:21:43.54	19.71	38.01	
2025-01-14 01:21:43.74	19.71	38.07	
2025-01-14 01:21:43.95	19.71	38.13	
2025-01-14 01:21:44.15	19.72	38.19	
2025-01-14 01:21:44.36	19.72	38.25	
2025-01-14 01:21:44.56	19.73	38.30	
2025-01-14 01:21:44.77	19.73	38.37	
2025-01-14 01:21:44.98	19.74	38.43	
2025-01-14 01:21:45.19	19.74	38.49	
2025-01-14 01:21:45.40	19.74	38.55	
2025-01-14 01:21:45.60	19.75	38.61	
2025-01-14 01:21:45.81	19.75	38.67	
2025-01-14 01:21:46.01	19.76	38.73	
2025-01-14 01:21:46.22	19.76	38.79	
2025-01-14 01:21:46.42	19.77	38.85	
2025-01-14 01:21:46.63	19.77	38.91	
2025-01-14 01:21:46.83	19.77	38.97	
2025-01-14 01:21:47.04	19.78	39.04	
2025-01-14 01:21:47.25	19.78	39.10	
2025-01-14 01:21:47.45	19.79	39.16	
2025-01-14 01:21:47.66	19.79	39.22	
2025-01-14 01:21:47.86	19.80	39.28	
2025-01-14 01:21:48.07	19.80	39.34	
2025-01-14 01:21:48.27	19.81	39.40	
2025-01-14 01:21:48.49	19.81	39.47	
2025-01-14 01:21:48.69	19.82	39.53	
2025-01-14 01:21:48.90	19.82	39.59	
2025-01-14 01:21:49.10	19.82	39.65	
2025-01-14 01:21:49.31	19.83	39.72	
2025-01-14 01:21:49.51	19.83	39.78	
2025-01-14 01:21:49.72	19.84	39.84	
2025-01-14 01:21:49.93	19.84	39.91	
2025-01-14 01:21:50.13	19.85	39.97	
2025-01-14 01:21:50.34	19.85	40.03	
2025-01-14 01:21:50.54	19.86	40.10	
2025-01-14 01:21:50.75	19.86	40.16	
2025-01-14 01:21:50.95	19.87	40.22	
2025-01-14 01:21:51.15	19.87	40.28	
2025-01-14 01:21:51.36	19.88	40.35	
2025-01-14 01:21:51.56	19.88	40.41	
2025-01-14 01:21:51.77	19.89	40.48	
2025-01-14 01:21:51.97	19.89	40.54	
2025-01-14 01:21:52.18	19.89	40.60	
2025-01-14 01:21:52.38	19.90	40.67	
2025-01-14 01:21:52.59	19.90	40.73	
2025-01-14 01:21:52.79	19.91	40.79	
2025-01-14 01:21:52.99	19.91	40.86	
2025-01-14 01:21:53.20	19.92	40.92	
2025-01-14 01:21:53.40	19.92	40.99	
2025-01-14 01:21:53.61	19.93	41.05	
2025-01-14 01:21:53.81	19.93	41.12	
2025-01-14 01:21:54.02	19.94	41.18	
2025-01-14 01:21:54.22	19.94	41.25	
2025-01-14 01:21:54.43	19.95	41.31	
2025-01-14 01:21:54.63	19.95	41.38	
2025-01-14 01:21:54.84	19.96	41.44	
2025-01-14 01:21:55.04	19.96	41.51	
2025-01-14 01:21:55.25	19.97	41.58	
2025-01-14 01:21:55.45	19.97	41.64	
2025-01-14 01:21:55.65	19.98	41.71	
2025-01-14 01:21:55.86	19.98	41.77	
2025-01-14 01:21:56.06	19.99	41.84	
2025-01-14 01:21:56.27	19.99	41.91	
2025-01-14 01:21:56.47	20.00	41.97	
2025-01-14 01:21:56.68	20.00	42.04	
2025-01-14 01:21:56.88	20.01	42.10	
2025-01-14 01:21:57.09	20.01	42.17	
2025-01-14 01:21:57.29	20.02	42.24	
2025-01-14 01:21:57.50	20.02	42.31	
2025-01-14 01:21:57.70	20.03	42.37	
2025-01-14 01:21:57.91	20.04	42.44	
2025-01-14 01:21:58.11	20.04	42.51	
2025-01-14 01:21:58.32	20.05	42.58	
2025-01-14 01:21:58.52	20.05	42.64	
2025-01-14 01:21:58.73	20.06	42.71	
2025-01-14 01:21:58.93	20.06	42.78	
2025-01-14 01:21:59.13	20.07	42.85	
2025-01-14 01:21:59.34	20.07	42.92	
2025-01-14 01:21:59.55	20.08	42.99	
2025-01-14 01:21:59.75	20.08	43.05	
2025-01-14 01:21:59.96	20.09	43.12	
2025-01-14 01:22:00.18	20.10	43.20	
2025-01-14 01:22:00.38	20.10	43.27	
2025-01-14 01:22:00.59	20.11	43.34	
2025-01-14 01:22:00.79	20.11	43.40	
2025-01-14 01:22:01.00	20.12	43.47	
2025-01-14 01:22:01.20	20.12	43.54	
2025-01-14 01:22:01.40	20.13	43.61	
2025-01-14 01:22:01.61	20.13	43.68	
2025-01-14 01:22:01.81	20.14	43.75	
2025-01-14 01:22:02.02	20.15	43.82	
2025-01-14 01:22:02.22	20.15	43.89	
2025-01-14 01:22:02.43	20.16	43.96	
2025-01-14 01:22:02.63	20.16	44.03	
2025-01-14 01:22:02.84	20.17	44.10	
2025-01-14 01:22:03.05	20.17	44.18	
2025-01-14 01:22:03.25	20.18	44.25	
2025-01-14 01:22:03.47	20.19	44.32	
2025-01-14 01:22:03.68	20.19	44.40	
2025-01-14 01:22:03.88	20.20	44.46	
2025-01-14 01:22:04.09	20.20	44.54	
2025-01-14 01:22:04.29	20.21	44.61	
2025-01-14 01:22:04.51	20.22	44.68	
2025-01-14 01:22:04.71	20.22	44.75	
2025-01-14 01:22:04.92	20.23	44.83	
2025-01-14 01:22:05.13	20.23	44.90	
2025-01-14 01:22:05.33	20.24	44.97	
2025-01-14 01:22:05.54	20.25	45.05	
2025-01-14 01:22:05.74	20.25	45.12	
2025-01-14 01:22:05.95	20.26	45.19	
2025-01-14 01:22:06.15	20.26	45.26	
2025-01-14 01:22:06.36	20.27	45.34	
2025-01-14 01:22:06.56	20.28	45.41	
2025-01-14 01:22:06.76	20.28	45.48	
2025-01-14 01:22:06.97	20.29	45.56	
2025-01-14 01:22:07.18	20.30	45.63	
2025-01-14 01:22:07.38	20.30	45.70	
2025-01-14 01:22:07.59	20.31	45.78	
2025-01-14 01:22:07.79	20.31	45.85	
2025-01-14 01:22:08.00	20.32	45.93	
2025-01-14 01:22:08.20	20.33	46.00	
2025-01-14 01:22:08.41	20.33	46.08	
2025-01-14 01:22:08.61	20.34	46.15	
2025-01-14 01:22:08.82	20.35	46.23	
2025-01-14 01:22:09.02	20.35	46.30	
2025-01-14 01:22:09.23	20.36	46.38	
2025-01-14 01:22:09.43	20.37	46.45	
2025-01-14 01:22:09.64	20.37	46.53	
2025-01-14 01:22:09.84	20.38	46.60	
2025-01-14 01:22:10.05	20.39	46.68	
2025-01-14 01:22:10.25	20.39	46.75	
2025-01-14 01:22:10.46	20.40	46.83	
2025-01-14 01:22:10.66	20.41	46.90	
2025-01-14 01:22:10.87	20.41	46.98	
2025-01-14 01:22:11.07	20.42	47.05	
2025-01-14 01:22:11.28	20.43	47.13	
2025-01-14 01:22:11.48	20.43	47.21	
2025-01-14 01:22:11.69	20.44	47.29	
2025-01-14 01:22:11.89	20.45	47.36	
2025-01-14 01:22:12.10	20.46	47.44	
2025-01-14 01:22:12.30	20.46	47.52	
2025-01-14 01:22:12.51	20.47	47.59	
2025-01-14 01:22:12.72	20.48	47.67	
2025-01-14 01:22:12.92	20.48	47.75	
2025-01-14 01:22:13.12	20.49	47.83	
2025-01-14 01:22:13.33	20.50	47.91	
2025-01-14 01:22:13.54	20.51	47.99	
2025-01-14 01:22:13.74	20.51	48.06	
2025-01-14 01:22:13.95	20.52	48.14	
2025-01-14 01:22:14.15	20.53	48.22	
2025-01-14 01:22:14.36	20.53	48.30	
2025-01-14 01:22:14.56	20.54	48.38	
2025-01-14 01:22:14.77	20.55	48.46	
2025-01-14 01:22:14.97	20.56	48.53	
2025-01-14 01:22:15.18	20.56	48.61	
2025-01-14 01:22:15.38	20.57	48.69	
2025-01-14 01:22:15.59	20.58	48.77	
2025-01-14 01:22:15.79	20.59	48.85	
2025-01-14 01:22:16.00	20.59	48.93	
2025-01-14 01:22:16.20	20.60	49.01	
2025-01-14 01:22:16.41	20.61	49.09	
2025-01-14 01:22:16.61	20.62	49.17	
2025-01-14 01:22:16.82	20.62	49.25	
2025-01-14 01:22:17.02	20.63	49.33	
2025-01-14 01:22:17.23	20.64	49.42	
2025-01-14 01:22:17.43	20.65	49.49	
2025-01-14 01:22:17.64	20.66	49.58	
2025-01-14 01:22:17.84	20.66	49.66	
2025-01-14 01:22:18.05	20.67	49.74	
2025-01-14 01:22:18.25	20.68	49.82	
2025-01-14 01:22:18.46	20.69	49.90	
2025-01-14 01:22:18.66	20.70	49.98	
2025-01-14 01:22:18.86	20.70	50.06	
2025-01-14 01:22:19.07	20.71	50.15	
2025-01-14 01:22:19.28	20.72	50.23	
2025-01-14 01:22:19.48	20.73	50.31	
2025-01-14 01:22:19.68	20.74	50.39	
2025-01-14 01:22:19.89	20.75	50.48	
2025-01-14 01:22:20.09	20.75	50.56	
2025-01-14 01:22:20.30	20.76	50.64	
2025-01-14 01:22:20.50	20.77	50.72	
2025-01-14 01:22:20.71	20.78	50.81	
2025-01-14 01:22:20.91	20.79	50.89	
2025-01-14 01:22:21.12	20.80	50.98	
2025-01-14 01:22:21.33	20.81	51.06	
2025-01-14 01:22:21.53	20.81	51.14	
2025-01-14 01:22:21.74	20.82	51.23	
2025-01-14 01:22:21.94	20.83	51.31	
2025-01-14 01:22:22.15	20.84	51.40	
2025-01-14 01:22:22.35	20.85	51.48	
2025-01-14 01:22:22.56	20.86	51.57	
2025-01-14 01:22:22.76	20.87	51.65	
2025-01-14 01:22:22.97	20.88	51.74	
2025-01-14 01:22:23.17	20.88	51.82	
2025-01-14 01:22:23.38	20.89	51.91	
2025-01-14 01:22:23.59	20.90	52.00	
2025-01-14 01:22:23.79	20.91	52.08	
2025-01-14 01:22:24.00	20.92	52.17	
2025-01-14 01:22:24.20	20.93	52.25	
2025-01-14 01:22:24.41	20.94	52.34	
2025-01-14 01:22:24.61	20.95	52.42	
2025-01-14 01:22:24.82	20.96	52.51	
2025-01-14 01:22:25.02	20.97	52.60	
2025-01-14 01:22:25.23	20.98	52.69	
2025-01-14 01:22:25.43	20.99	52.77	
2025-01-14 01:22:25.64	21.00	52.86	
2025-01-14 01:22:25.85	21.01	52.95	
2025-01-14 01:22:26.06	21.02	53.04	
2025-01-14 01:22:26.26	21.03	53.13	
2025-01-14 01:22:26.47	21.04	53.22	
2025-01-14 01:22:26.67	21.05	53.30	
2025-01-14 01:22:26.88	21.06	53.39	
2025-01-14 01:22:27.08	21.07	53.48	
2025-01-14 01:22:27.29	21.08	53.57	
2025-01-14 01:22:27.50	21.09	53.66	
2025-01-14 01:22:27.70	21.10	53.75	
2025-01-14 01:22:27.90	21.11	53.83	
2025-01-14 01:22:28.11	21.12	53.92	
2025-01-14 01:22:28.32	21.13	54.02	
2025-01-14 01:22:28.52	21.14	54.10	
2025-01-14 01:22:28.73	21.15	54.19	
2025-01-14 01:22:28.93	21.16	54.28	
2025-01-14 01:22:29.14	21.17	54.37	
2025-01-14 01:22:29.34	21.18	54.46	
2025-01-14 01:22:29.55	21.19	54.55	
2025-01-14 01:22:29.75	21.20	54.64	
2025-01-14 01:22:29.96	21.21	54.73	
2025-01-14 01:22:30.16	21.23	54.82	
2025-01-14 01:22:30.37	21.24	54.92	
2025-01-14 01:22:30.57	21.25	55.01	
2025-01-14 01:22:30.78	21.26	55.10	
2025-01-14 01:22:30.98	21.27	55.19	
2025-01-14 01:22:31.19	21.28	55.28	
2025-01-14 01:22:31.39	21.29	55.37	
2025-01-14 01:22:31.60	21.30	55.46	
2025-01-14 01:22:31.80	21.32	55.55	
2025-01-14 01:22:32.01	21.33	55.65	
2025-01-14 01:22:32.21	21.34	55.74	
2025-01-14 01:22:32.42	21.35	55.83	
2025-01-14 01:22:32.62	21.36	55.92	
2025-01-14 01:22:32.83	21.37	56.02	
2025-01-14 01:22:33.03	21.39	56.11	
2025-01-14 01:22:33.23	21.40	56.20	
2025-01-14 01:22:33.44	21.41	56.30	
2025-01-14 01:22:33.64	21.42	56.39	
2025-01-14 01:22:33.85	21.43	56.48	
2025-01-14 01:22:34.05	21.45	56.58	
2025-01-14 01:22:34.26	21.46	56.67	
2025-01-14 01:22:34.46	21.47	56.76	
2025-01-14 01:22:34.67	21.48	56.86	
2025-01-14 01:22:34.87	21.50	56.95	
2025-01-14 01:22:35.08	21.51	57.05	
2025-01-14 01:22:35.29	21.52	57.15	
2025-01-14 01:22:35.49	21.54	57.24	
2025-01-14 01:22:35.70	21.55	57.34	
2025-01-14 01:22:35.90	21.56	57.43	
2025-01-14 01:22:36.11	21.57	57.53	
2025-01-14 01:22:36.31	21.59	57.62	
2025-01-14 01:22:36.51	21.60	57.71	
2025-01-14 01:22:36.72	21.61	57.81	
2025-01-14 01:22:36.93	21.63	57.91	
2025-01-14 01:22:37.13	21.64	58.00	
2025-01-14 01:22:37.34	21.66	58.10	
2025-01-14 01:22:37.54	21.67	58.20	
2025-01-14 01:22:37.75	21.68	58.30	
2025-01-14 01:22:37.95	21.70	58.39	
2025-01-14 01:22:38.16	21.71	58.49	
2025-01-14 01:22:38.36	21.73	58.58	
2025-01-14 01:22:38.58	21.74	58.69	
2025-01-14 01:22:38.78	21.75	58.78	
2025-01-14 01:22:38.99	21.77	58.88	
2025-01-14 01:22:39.19	21.78	58.98	
2025-01-14 01:22:39.40	21.80	59.08	
2025-01-14 01:22:39.61	21.81	59.18	
2025-01-14 01:22:39.81	21.83	59.28	
2025-01-14 01:22:40.02	21.84	59.38	
2025-01-14 01:22:40.22	21.86	59.47	
2025-01-14 01:22:40.43	21.87	59.58	
2025-01-14 01:22:40.64	21.89	59.68	
2025-01-14 01:22:40.84	21.91	59.77	
2025-01-14 01:22:41.04	21.92	59.87	
2025-01-14 01:22:41.25	21.94	59.97	
2025-01-14 01:22:41.45	21.95	60.07	
2025-01-14 01:22:41.66	21.97	60.17	
2025-01-14 01:22:41.86	21.98	60.27	
2025-01-14 01:22:42.07	22.00	60.37	
2025-01-14 01:22:42.27	22.02	60.47	
2025-01-14 01:22:42.48	22.03	60.57	
2025-01-14 01:22:42.68	22.05	60.67	
2025-01-14 01:22:42.89	22.07	60.77	
2025-01-14 01:22:43.09	22.08	60.87	
2025-01-14 01:22:43.30	22.10	60.98	
2025-01-14 01:22:43.50	22.12	61.08	
2025-01-14 01:22:43.70	22.13	61.17	
2025-01-14 01:22:43.91	22.15	61.28	
2025-01-14 01:22:44.11	22.17	61.38	
2025-01-14 01:22:44.32	22.19	61.48	
2025-01-14 01:22:44.53	22.20	61.59	
2025-01-14 01:22:44.73	22.22	61.69	
2025-01-14 01:22:44.93	22.24	61.79	
2025-01-14 01:22:45.14	22.26	61.89	
2025-01-14 01:22:45.34	22.28	61.99	
2025-01-14 01:22:45.55	22.29	62.10	
2025-01-14 01:22:45.75	22.31	62.20	
2025-01-14 01:22:45.96	22.33	62.30	
2025-01-14 01:22:46.16	22.35	62.41	
2025-01-14 01:22:46.37	22.37	62.51	
2025-01-14 01:22:46.57	22.39	62.61	
2025-01-14 01:22:46.78	22.41	62.72	
2025-01-14 01:22:46.98	22.43	62.82	
2025-01-14 01:22:47.18	22.45	62.92	
2025-01-14 01:22:47.39	22.47	63.03	
2025-01-14 01:22:47.59	22.49	63.13	
2025-01-14 01:22:47.80	22.51	63.24	
2025-01-14 01:22:48.00	22.53	63.34	
2025-01-14 01:22:48.21	22.55	63.45	
2025-01-14 01:22:48.41	22.57	63.55	
2025-01-14 01:22:48.62	22.59	63.66	
2025-01-14 01:22:48.82	22.61	63.76	
2025-01-14 01:22:49.03	22.63	63.87	
2025-01-14 01:22:49.23	22.65	63.97	
2025-01-14 01:22:49.44	22.68	64.08	
2025-01-14 01:22:49.64	22.70	64.18	
2025-01-14 01:22:49.85	22.72	64.29	
2025-01-14 01:22:50.05	22.74	64.40	
2025-01-14 01:22:50.26	22.76	64.51	
2025-01-14 01:22:50.46	22.79	64.61	
2025-01-14 01:22:50.67	22.81	64.72	
2025-01-14 01:22:50.87	22.83	64.82	
2025-01-14 01:22:51.08	22.86	64.93	
2025-01-14 01:22:51.28	22.88	65.04	
2025-01-14 01:22:51.50	22.90	65.15	
2025-01-14 01:22:51.71	22.93	65.26	
2025-01-14 01:22:51.91	22.95	65.37	
2025-01-14 01:22:52.12	22.98	65.48	
2025-01-14 01:22:52.32	23.00	65.59	
2025-01-14 01:22:52.53	23.03	65.70	
2025-01-14 01:22:52.73	23.05	65.80	
2025-01-14 01:22:52.94	23.08	65.91	
2025-01-14 01:22:53.15	23.10	66.02	
2025-01-14 01:22:53.35	23.13	66.13	
2025-01-14 01:22:53.55	23.16	66.24	
2025-01-14 01:22:53.76	23.18	66.35	
2025-01-14 01:22:53.96	23.21	66.46	
2025-01-14 01:22:54.17	23.24	66.57	
2025-01-14 01:22:54.37	23.26	66.67	
2025-01-14 01:22:54.58	23.29	66.79	
2025-01-14 01:22:54.78	23.32	66.89	
2025-01-14 01:22:54.99	23.35	67.01	
2025-01-14 01:22:55.19	23.37	67.11	
2025-01-14 01:22:55.40	23.40	67.23	
2025-01-14 01:22:55.60	23.43	67.33	
2025-01-14 01:22:55.81	23.46	67.45	
2025-01-14 01:22:56.01	23.49	67.56	
2025-01-14 01:22:56.22	23.52	67.67	
2025-01-14 01:22:56.42	23.55	67.78	
2025-01-14 01:22:56.63	23.58	67.89	
2025-01-14 01:22:56.83	23.61	68.00	
2025-01-14 01:22:57.04	23.64	68.11	
2025-01-14 01:22:57.25	23.68	68.23	
2025-01-14 01:22:57.45	23.71	68.34	
2025-01-14 01:22:57.66	23.74	68.45	
2025-01-14 01:22:57.86	23.77	68.56	
2025-01-14 01:22:58.07	23.81	68.68	
2025-01-14 01:22:58.27	23.84	68.79	
2025-01-14 01:22:58.48	23.87	68.90	
2025-01-14 01:22:58.68	23.91	69.01	
2025-01-14 01:22:58.89	23.94	69.13	
2025-01-14 01:22:59.09	23.97	69.24	
2025-01-14 01:22:59.30	24.01	69.35	
2025-01-14 01:22:59.50	24.05	69.46	
2025-01-14 01:22:59.71	24.08	69.58	
2025-01-14 01:22:59.91	24.12	69.69	
2025-01-14 01:23:00.13	24.16	69.81	
2025-01-14 01:23:00.33	24.19	69.92	
2025-01-14 01:23:00.54	24.23	70.04	
2025-01-14 01:23:00.74	24.27	70.15	
2025-01-14 01:23:00.95	24.31	70.27	
2025-01-14 01:23:01.15	24.35	70.38	
2025-01-14 01:23:01.36	24.39	70.50	
2025-01-14 01:23:01.56	24.43	70.61	
2025-01-14 01:23:01.77	24.47	70.72	
2025-01-14 01:23:01.98	24.51	70.84	
2025-01-14 01:23:02.18	24.55	70.95	
2025-01-14 01:23:02.38	24.59	71.07	
2025-01-14 01:23:02.59	24.64	71.18	
2025-01-14 01:23:02.79	24.68	71.30	
2025-01-14 01:23:03.00	24.72	71.41	
2025-01-14 01:23:03.20	24.77	71.53	
2025-01-14 01:23:03.41	24.81	71.65	
2025-01-14 01:23:03.61	24.86	71.76	
2025-01-14 01:23:03.82	24.91	71.88	
2025-01-14 01:23:04.02	24.95	71.99	
2025-01-14 01:23:04.24	25.00	72.11	
2025-01-14 01:23:04.44	25.05	72.23	
2025-01-14 01:23:04.65	25.10	72.35	
2025-01-14 01:23:04.85	25.15	72.46	
2025-01-14 01:23:05.06	25.20	72.58	
2025-01-14 01:23:05.26	25.25	72.69	
2025-01-14 01:23:05.46	25.30	72.81	
2025-01-14 01:23:05.67	25.35	72.93	
2025-01-14 01:23:05.87	25.40	73.04	
2025-01-14 01:23:06.08	25.46	73.16	
2025-01-14 01:23:06.29	25.52	73.28	
2025-01-14 01:23:06.49	25.57	73.40	
2025-01-14 01:23:06.69	25.62	73.51	
2025-01-14 01:23:06.90	25.68	73.63	
2025-01-14 01:23:07.10	25.74	73.75	
2025-01-14 01:23:07.31	25.80	73.87	
2025-01-14 01:23:07.51	25.86	73.98	
2025-01-14 01:23:07.72	25.92	74.10	
2025-01-14 01:23:07.92	25.98	74.22	
2025-01-14 01:23:08.13	26.04	74.34	
2025-01-14 01:23:08.33	26.11	74.45	
2025-01-14 01:23:08.54	26.17	74.57	
2025-01-14 01:23:08.74	26.24	74.69	
2025-01-14 01:23:08.95	26.30	74.81	
2025-01-14 01:23:09.15	26.37	74.93	
2025-01-14 01:23:09.36	26.44	75.05	
2025-01-14 01:23:09.56	26.51	75.16	
2025-01-14 01:23:09.76	26.58	75.28	
2025-01-14 01:23:09.97	26.65	75.40	
2025-01-14 01:23:10.18	26.73	75.52	
2025-01-14 01:23:10.38	26.80	75.64	
2025-01-14 01:23:10.59	26.88	75.76	
2025-01-14 01:23:10.79	26.95	75.88	
2025-01-14 01:23:11.00	27.03	76.00	
2025-01-14 01:23:11.20	27.11	76.12	
2025-01-14 01:23:11.41	27.20	76.24	
2025-01-14 01:23:11.62	27.28	76.36	
2025-01-14 01:23:11.82	27.36	76.48	
2025-01-14 01:23:12.03	27.45	76.60	
2025-01-14 01:23:12.23	27.54	76.72	
2025-01-14 01:23:12.44	27.63	76.84	
2025-01-14 01:23:12.64	27.72	76.96	
2025-01-14 01:23:12.86	27.82	77.09	
2025-01-14 01:23:13.07	27.91	77.21	
2025-01-14 01:23:13.27	28.01	77.33	
2025-01-14 01:23:13.48	28.11	77.45	
2025-01-14 01:23:13.68	28.21	77.57	
2025-01-14 01:23:13.88	28.30	77.69	
2025-01-14 01:23:14.09	28.41	77.81	
2025-01-14 01:23:14.30	28.52	77.93	
2025-01-14 01:23:14.50	28.63	78.05	
2025-01-14 01:23:14.72	28.75	78.18	
2025-01-14 01:23:14.94	28.87	78.31	
2025-01-14 01:23:15.14	28.98	78.43	
2025-01-14 01:23:15.35	29.10	78.55	
2025-01-14 01:23:15.56	29.23	78.68	
2025-01-14 01:23:15.76	29.35	78.79	
2025-01-14 01:23:15.97	29.48	78.92	
2025-01-14 01:23:16.17	29.60	79.04	
2025-01-14 01:23:16.38	29.74	79.16	
2025-01-14 01:23:16.58	29.87	79.28	
2025-01-14 01:23:16.79	30.01	79.40	
2025-01-14 01:23:16.99	30.15	79.52	
2025-01-14 01:23:17.19	30.29	79.64	
2025-01-14 01:23:17.40	30.44	79.76	
2025-01-14 01:23:17.60	30.59	79.88	
2025-01-14 01:23:17.81	30.75	80.00	
2025-01-14 01:23:18.01	30.90	80.12	
2025-01-14 01:23:18.22	31.07	80.25	
2025-01-14 01:23:18.42	31.24	80.36	
2025-01-14 01:23:18.63	31.41	80.49	
2025-01-14 01:23:18.84	31.59	80.61	
2025-01-14 01:23:19.04	31.77	80.73	
2025-01-14 01:23:19.26	31.97	80.86	
