passes_logs/2025/01/14/SPB_Silybum_02/SPB_Silybum_02__20250114_091824_AQUA_rec.log

#Pass ID: 20250114_091824_AQUA
#Satellite: AQUA
#Configuration: AQUA
#Start time: 2025-01-14 09:18:24

#Version: 2.0.20230423
#Station: SPB_Silybum_02
#Location: 30.233357 lon 59.946436 lat
#TLE: 1 27424U 02022A   25013.83544817  .00001692  00000+0  35728-3 0  9991
#TLE: 2 27424  98.3586 330.4889 0001664 112.6336 276.7792 14.60677575207450

#Time	Az	El	Level	Level2	SNR	BER	Gain	Gain2
2025-01-14 09:18:26.83	96.17	4.13	
2025-01-14 09:18:27.03	96.15	4.14	
2025-01-14 09:18:27.23	96.13	4.16	
2025-01-14 09:18:27.44	96.11	4.17	
2025-01-14 09:18:27.64	96.09	4.18	
2025-01-14 09:18:27.85	96.07	4.19	
2025-01-14 09:18:28.05	96.05	4.20	
2025-01-14 09:18:28.26	96.03	4.21	
2025-01-14 09:18:28.47	96.00	4.23	
2025-01-14 09:18:28.67	95.98	4.24	
2025-01-14 09:18:28.88	95.96	4.25	
2025-01-14 09:18:29.08	95.94	4.26	
2025-01-14 09:18:29.30	95.92	4.27	
2025-01-14 09:18:29.51	95.90	4.29	
2025-01-14 09:18:29.71	95.88	4.30	
2025-01-14 09:18:29.92	95.86	4.31	
2025-01-14 09:18:30.12	95.84	4.32	
2025-01-14 09:18:30.33	95.82	4.33	
2025-01-14 09:18:30.53	95.80	4.35	
2025-01-14 09:18:30.74	95.77	4.36	
2025-01-14 09:18:30.95	95.75	4.37	
2025-01-14 09:18:31.15	95.73	4.38	
2025-01-14 09:18:31.36	95.71	4.39	
2025-01-14 09:18:31.56	95.69	4.40	
2025-01-14 09:18:31.77	95.67	4.42	
2025-01-14 09:18:31.97	95.65	4.43	
2025-01-14 09:18:32.18	95.63	4.44	
2025-01-14 09:18:32.38	95.61	4.45	
2025-01-14 09:18:32.59	95.58	4.46	
2025-01-14 09:18:32.80	95.56	4.48	
2025-01-14 09:18:33.00	95.54	4.49	
2025-01-14 09:18:33.21	95.52	4.50	
2025-01-14 09:18:33.41	95.50	4.51	
2025-01-14 09:18:33.62	95.48	4.52	
2025-01-14 09:18:33.82	95.46	4.54	
2025-01-14 09:18:34.03	95.44	4.55	
2025-01-14 09:18:34.23	95.42	4.56	
2025-01-14 09:18:34.44	95.39	4.57	
2025-01-14 09:18:34.64	95.37	4.58	
2025-01-14 09:18:34.84	95.35	4.59	
2025-01-14 09:18:35.05	95.33	4.61	
2025-01-14 09:18:35.25	95.31	4.62	
2025-01-14 09:18:35.46	95.29	4.63	
2025-01-14 09:18:35.66	95.27	4.64	
2025-01-14 09:18:35.87	95.24	4.65	
2025-01-14 09:18:36.07	95.22	4.67	
2025-01-14 09:18:36.28	95.20	4.68	
2025-01-14 09:18:36.49	95.18	4.69	
2025-01-14 09:18:36.69	95.16	4.70	
2025-01-14 09:18:36.90	95.14	4.71	
2025-01-14 09:18:37.10	95.12	4.73	
2025-01-14 09:18:37.31	95.09	4.74	
2025-01-14 09:18:37.51	95.07	4.75	
2025-01-14 09:18:37.72	95.05	4.76	
2025-01-14 09:18:37.92	95.03	4.77	
2025-01-14 09:18:38.13	95.01	4.79	
2025-01-14 09:18:38.34	94.99	4.80	
2025-01-14 09:18:38.54	94.96	4.81	
2025-01-14 09:18:38.75	94.94	4.82	
2025-01-14 09:18:38.95	94.92	4.83	
2025-01-14 09:18:39.16	94.90	4.85	
2025-01-14 09:18:39.37	94.88	4.86	
2025-01-14 09:18:39.57	94.86	4.87	
2025-01-14 09:18:39.78	94.83	4.88	
2025-01-14 09:18:39.98	94.81	4.89	
2025-01-14 09:18:40.19	94.79	4.91	
2025-01-14 09:18:40.39	94.77	4.92	
2025-01-14 09:18:40.60	94.75	4.93	
2025-01-14 09:18:40.80	94.72	4.94	
2025-01-14 09:18:41.01	94.70	4.95	
2025-01-14 09:18:41.21	94.68	4.96	
2025-01-14 09:18:41.42	94.66	4.98	
2025-01-14 09:18:41.62	94.64	4.99	
2025-01-14 09:18:41.83	94.61	5.00	
2025-01-14 09:18:42.03	94.59	5.01	
2025-01-14 09:18:42.24	94.57	5.03	
2025-01-14 09:18:42.45	94.55	5.04	
2025-01-14 09:18:42.65	94.53	5.05	
2025-01-14 09:18:42.86	94.50	5.06	
2025-01-14 09:18:43.06	94.48	5.07	
2025-01-14 09:18:43.27	94.46	5.09	
2025-01-14 09:18:43.47	94.44	5.10	
2025-01-14 09:18:43.68	94.42	5.11	
2025-01-14 09:18:43.88	94.39	5.12	
2025-01-14 09:18:44.09	94.37	5.13	
2025-01-14 09:18:44.29	94.35	5.14	
2025-01-14 09:18:44.50	94.33	5.16	
2025-01-14 09:18:44.70	94.30	5.17	
2025-01-14 09:18:44.91	94.28	5.18	
2025-01-14 09:18:45.11	94.26	5.19	
2025-01-14 09:18:45.32	94.24	5.21	
2025-01-14 09:18:45.52	94.22	5.22	
2025-01-14 09:18:45.73	94.19	5.23	
2025-01-14 09:18:45.93	94.17	5.24	
2025-01-14 09:18:46.14	94.15	5.25	
2025-01-14 09:18:46.36	94.12	5.27	
2025-01-14 09:18:46.56	94.10	5.28	
2025-01-14 09:18:46.77	94.08	5.29	
2025-01-14 09:18:46.98	94.06	5.30	
2025-01-14 09:18:47.18	94.03	5.31	
2025-01-14 09:18:47.39	94.01	5.33	
2025-01-14 09:18:47.59	93.99	5.34	
2025-01-14 09:18:47.80	93.97	5.35	
2025-01-14 09:18:48.00	93.94	5.36	
2025-01-14 09:18:48.21	93.92	5.37	
2025-01-14 09:18:48.41	93.90	5.39	
2025-01-14 09:18:48.62	93.88	5.40	
2025-01-14 09:18:48.82	93.85	5.41	
2025-01-14 09:18:49.03	93.83	5.42	
2025-01-14 09:18:49.24	93.81	5.43	
2025-01-14 09:18:49.44	93.78	5.45	
2025-01-14 09:18:49.64	93.76	5.46	
2025-01-14 09:18:49.85	93.74	5.47	
2025-01-14 09:18:50.05	93.72	5.48	
2025-01-14 09:18:50.26	93.69	5.49	
2025-01-14 09:18:50.46	93.67	5.51	
2025-01-14 09:18:50.67	93.65	5.52	
2025-01-14 09:18:50.87	93.63	5.53	
2025-01-14 09:18:51.08	93.60	5.54	
2025-01-14 09:18:51.29	93.58	5.56	
2025-01-14 09:18:51.49	93.56	5.57	
2025-01-14 09:18:51.71	93.53	5.58	
2025-01-14 09:18:51.91	93.51	5.59	
2025-01-14 09:18:52.12	93.49	5.60	
2025-01-14 09:18:52.32	93.46	5.62	
2025-01-14 09:18:52.53	93.44	5.63	
2025-01-14 09:18:52.73	93.42	5.64	
2025-01-14 09:18:52.94	93.39	5.65	
2025-01-14 09:18:53.15	93.37	5.66	
2025-01-14 09:18:53.35	93.35	5.68	
2025-01-14 09:18:53.56	93.32	5.69	
2025-01-14 09:18:53.77	93.30	5.70	
2025-01-14 09:18:53.97	93.28	5.71	
2025-01-14 09:18:54.18	93.25	5.73	
2025-01-14 09:18:54.39	93.23	5.74	
2025-01-14 09:18:54.59	93.21	5.75	
2025-01-14 09:18:54.79	93.18	5.76	
2025-01-14 09:18:55.00	93.16	5.77	
2025-01-14 09:18:55.21	93.14	5.79	
2025-01-14 09:18:55.41	93.11	5.80	
2025-01-14 09:18:55.62	93.09	5.81	
2025-01-14 09:18:55.82	93.07	5.82	
2025-01-14 09:18:56.03	93.04	5.83	
2025-01-14 09:18:56.23	93.02	5.85	
2025-01-14 09:18:56.44	93.00	5.86	
2025-01-14 09:18:56.65	92.97	5.87	
2025-01-14 09:18:56.85	92.95	5.88	
2025-01-14 09:18:57.05	92.93	5.90	
2025-01-14 09:18:57.26	92.90	5.91	
2025-01-14 09:18:57.47	92.88	5.92	
2025-01-14 09:18:57.67	92.85	5.93	
2025-01-14 09:18:57.88	92.83	5.94	
2025-01-14 09:18:58.08	92.81	5.96	
2025-01-14 09:18:58.28	92.78	5.97	
2025-01-14 09:18:58.49	92.76	5.98	
2025-01-14 09:18:58.69	92.74	5.99	
2025-01-14 09:18:58.90	92.71	6.00	
2025-01-14 09:18:59.10	92.69	6.02	
2025-01-14 09:18:59.31	92.67	6.03	
2025-01-14 09:18:59.52	92.64	6.04	
2025-01-14 09:18:59.72	92.62	6.05	
2025-01-14 09:18:59.93	92.59	6.07	
2025-01-14 09:19:00.13	92.57	6.08	
2025-01-14 09:19:00.34	92.55	6.09	
2025-01-14 09:19:00.54	92.52	6.10	
2025-01-14 09:19:00.75	92.50	6.11	
2025-01-14 09:19:00.96	92.47	6.13	
2025-01-14 09:19:01.16	92.45	6.14	
2025-01-14 09:19:01.36	92.43	6.15	
2025-01-14 09:19:01.57	92.40	6.16	
2025-01-14 09:19:01.78	92.38	6.18	
2025-01-14 09:19:01.98	92.35	6.19	
2025-01-14 09:19:02.19	92.33	6.20	
2025-01-14 09:19:02.39	92.31	6.21	
2025-01-14 09:19:02.59	92.28	6.22	
2025-01-14 09:19:02.80	92.26	6.24	
2025-01-14 09:19:03.01	92.23	6.25	
2025-01-14 09:19:03.21	92.21	6.26	
2025-01-14 09:19:03.43	92.18	6.27	
2025-01-14 09:19:03.64	92.16	6.29	
2025-01-14 09:19:03.84	92.14	6.30	
2025-01-14 09:19:04.05	92.11	6.31	
2025-01-14 09:19:04.26	92.09	6.32	
2025-01-14 09:19:04.47	92.06	6.34	
2025-01-14 09:19:04.68	92.04	6.35	
2025-01-14 09:19:04.89	92.01	6.36	
2025-01-14 09:19:05.09	91.99	6.37	
2025-01-14 09:19:05.30	91.96	6.38	
2025-01-14 09:19:05.50	91.94	6.40	
2025-01-14 09:19:05.70	91.91	6.41	
2025-01-14 09:19:05.91	91.89	6.42	
2025-01-14 09:19:06.11	91.87	6.43	
2025-01-14 09:19:06.32	91.84	6.45	
2025-01-14 09:19:06.52	91.82	6.46	
2025-01-14 09:19:06.73	91.79	6.47	
2025-01-14 09:19:06.93	91.77	6.48	
2025-01-14 09:19:07.14	91.74	6.49	
2025-01-14 09:19:07.35	91.72	6.51	
2025-01-14 09:19:07.55	91.69	6.52	
2025-01-14 09:19:07.75	91.67	6.53	
2025-01-14 09:19:07.96	91.64	6.54	
2025-01-14 09:19:08.17	91.62	6.56	
2025-01-14 09:19:08.37	91.59	6.57	
2025-01-14 09:19:08.58	91.57	6.58	
2025-01-14 09:19:08.80	91.54	6.59	
2025-01-14 09:19:09.00	91.52	6.61	
2025-01-14 09:19:09.21	91.49	6.62	
2025-01-14 09:19:09.41	91.47	6.63	
2025-01-14 09:19:09.62	91.44	6.64	
2025-01-14 09:19:09.82	91.42	6.65	
2025-01-14 09:19:10.03	91.39	6.67	
2025-01-14 09:19:10.23	91.37	6.68	
2025-01-14 09:19:10.44	91.34	6.69	
2025-01-14 09:19:10.65	91.32	6.70	
2025-01-14 09:19:10.85	91.29	6.72	
2025-01-14 09:19:11.05	91.27	6.73	
2025-01-14 09:19:11.26	91.24	6.74	
2025-01-14 09:19:11.46	91.22	6.75	
2025-01-14 09:19:11.67	91.19	6.76	
2025-01-14 09:19:11.87	91.17	6.78	
2025-01-14 09:19:12.08	91.14	6.79	
2025-01-14 09:19:12.29	91.12	6.80	
2025-01-14 09:19:12.49	91.09	6.81	
2025-01-14 09:19:12.70	91.07	6.83	
2025-01-14 09:19:12.90	91.04	6.84	
2025-01-14 09:19:13.11	91.01	6.85	
2025-01-14 09:19:13.31	90.99	6.86	
2025-01-14 09:19:13.52	90.96	6.88	
2025-01-14 09:19:13.73	90.94	6.89	
2025-01-14 09:19:13.93	90.91	6.90	
2025-01-14 09:19:14.13	90.89	6.91	
2025-01-14 09:19:14.34	90.86	6.92	
2025-01-14 09:19:14.55	90.84	6.94	
2025-01-14 09:19:14.75	90.81	6.95	
2025-01-14 09:19:14.96	90.79	6.96	
2025-01-14 09:19:15.16	90.76	6.97	
2025-01-14 09:19:15.37	90.73	6.99	
2025-01-14 09:19:15.57	90.71	7.00	
2025-01-14 09:19:15.78	90.68	7.01	
2025-01-14 09:19:15.99	90.66	7.02	
2025-01-14 09:19:16.20	90.63	7.04	
2025-01-14 09:19:16.41	90.60	7.05	
2025-01-14 09:19:16.62	90.58	7.06	
2025-01-14 09:19:16.82	90.55	7.07	
2025-01-14 09:19:17.03	90.53	7.09	
2025-01-14 09:19:17.23	90.50	7.10	
2025-01-14 09:19:17.44	90.48	7.11	
2025-01-14 09:19:17.64	90.45	7.12	
2025-01-14 09:19:17.85	90.42	7.13	
2025-01-14 09:19:18.05	90.40	7.15	
2025-01-14 09:19:18.26	90.37	7.16	
2025-01-14 09:19:18.46	90.35	7.17	
2025-01-14 09:19:18.67	90.32	7.18	
2025-01-14 09:19:18.88	90.29	7.20	
2025-01-14 09:19:19.08	90.27	7.21	
2025-01-14 09:19:19.28	90.24	7.22	
2025-01-14 09:19:19.49	90.22	7.23	
2025-01-14 09:19:19.70	90.19	7.25	
2025-01-14 09:19:19.90	90.16	7.26	
2025-01-14 09:19:20.11	90.14	7.27	
2025-01-14 09:19:20.31	90.11	7.28	
2025-01-14 09:19:20.51	90.09	7.29	
2025-01-14 09:19:20.72	90.06	7.31	
2025-01-14 09:19:20.92	90.03	7.32	
2025-01-14 09:19:21.13	90.01	7.33	
2025-01-14 09:19:21.33	89.98	7.34	
2025-01-14 09:19:21.54	89.95	7.36	
2025-01-14 09:19:21.74	89.93	7.37	
2025-01-14 09:19:21.95	89.90	7.38	
2025-01-14 09:19:22.15	89.88	7.39	
2025-01-14 09:19:22.36	89.85	7.41	
2025-01-14 09:19:22.58	89.82	7.42	
2025-01-14 09:19:22.78	89.80	7.43	
2025-01-14 09:19:22.99	89.77	7.44	
2025-01-14 09:19:23.19	89.74	7.46	
2025-01-14 09:19:23.40	89.72	7.47	
2025-01-14 09:19:23.60	89.69	7.48	
2025-01-14 09:19:23.81	89.66	7.49	
2025-01-14 09:19:24.01	89.64	7.50	
2025-01-14 09:19:24.22	89.61	7.52	
2025-01-14 09:19:24.42	89.58	7.53	
2025-01-14 09:19:24.63	89.56	7.54	
2025-01-14 09:19:24.83	89.53	7.55	
2025-01-14 09:19:25.04	89.50	7.57	
2025-01-14 09:19:25.25	89.47	7.58	
2025-01-14 09:19:25.45	89.45	7.59	
2025-01-14 09:19:25.66	89.42	7.60	
2025-01-14 09:19:25.86	89.40	7.62	
2025-01-14 09:19:26.07	89.37	7.63	
2025-01-14 09:19:26.28	89.34	7.64	
2025-01-14 09:19:26.48	89.31	7.65	
2025-01-14 09:19:26.69	89.29	7.67	
2025-01-14 09:19:26.89	89.26	7.68	
2025-01-14 09:19:27.10	89.23	7.69	
2025-01-14 09:19:27.30	89.21	7.70	
2025-01-14 09:19:27.51	89.18	7.72	
2025-01-14 09:19:27.71	89.15	7.73	
2025-01-14 09:19:27.92	89.12	7.74	
2025-01-14 09:19:28.12	89.10	7.75	
2025-01-14 09:19:28.33	89.07	7.76	
2025-01-14 09:19:28.53	89.04	7.78	
2025-01-14 09:19:28.74	89.02	7.79	
2025-01-14 09:19:28.96	88.99	7.80	
2025-01-14 09:19:29.16	88.96	7.81	
2025-01-14 09:19:29.37	88.93	7.83	
2025-01-14 09:19:29.57	88.91	7.84	
2025-01-14 09:19:29.78	88.88	7.85	
2025-01-14 09:19:29.98	88.85	7.86	
2025-01-14 09:19:30.19	88.82	7.88	
2025-01-14 09:19:30.39	88.80	7.89	
2025-01-14 09:19:30.60	88.77	7.90	
2025-01-14 09:19:30.80	88.74	7.91	
2025-01-14 09:19:31.01	88.71	7.93	
2025-01-14 09:19:31.21	88.69	7.94	
2025-01-14 09:19:31.42	88.66	7.95	
2025-01-14 09:19:31.62	88.63	7.96	
2025-01-14 09:19:31.83	88.60	7.98	
2025-01-14 09:19:32.04	88.58	7.99	
2025-01-14 09:19:32.24	88.55	8.00	
2025-01-14 09:19:32.45	88.52	8.01	
2025-01-14 09:19:32.65	88.49	8.03	
2025-01-14 09:19:32.86	88.47	8.04	
2025-01-14 09:19:33.07	88.44	8.05	
2025-01-14 09:19:33.27	88.41	8.06	
2025-01-14 09:19:33.48	88.38	8.08	
2025-01-14 09:19:33.68	88.35	8.09	
2025-01-14 09:19:33.89	88.33	8.10	
2025-01-14 09:19:34.09	88.30	8.11	
2025-01-14 09:19:34.29	88.27	8.12	
2025-01-14 09:19:34.50	88.24	8.14	
2025-01-14 09:19:34.71	88.21	8.15	
2025-01-14 09:19:34.91	88.19	8.16	
2025-01-14 09:19:35.12	88.16	8.17	
2025-01-14 09:19:35.32	88.13	8.19	
2025-01-14 09:19:35.52	88.10	8.20	
2025-01-14 09:19:35.73	88.08	8.21	
2025-01-14 09:19:35.94	88.05	8.22	
2025-01-14 09:19:36.14	88.02	8.24	
2025-01-14 09:19:36.35	87.99	8.25	
2025-01-14 09:19:36.55	87.96	8.26	
2025-01-14 09:19:36.76	87.93	8.27	
2025-01-14 09:19:36.96	87.91	8.29	
2025-01-14 09:19:37.17	87.88	8.30	
2025-01-14 09:19:37.38	87.85	8.31	
2025-01-14 09:19:37.59	87.82	8.32	
2025-01-14 09:19:37.80	87.79	8.34	
2025-01-14 09:19:38.01	87.76	8.35	
2025-01-14 09:19:38.21	87.73	8.36	
2025-01-14 09:19:38.42	87.70	8.37	
2025-01-14 09:19:38.62	87.68	8.39	
2025-01-14 09:19:38.84	87.65	8.40	
2025-01-14 09:19:39.04	87.62	8.41	
2025-01-14 09:19:39.25	87.59	8.42	
2025-01-14 09:19:39.46	87.56	8.44	
2025-01-14 09:19:39.66	87.53	8.45	
2025-01-14 09:19:39.87	87.50	8.46	
2025-01-14 09:19:40.07	87.48	8.47	
2025-01-14 09:19:40.28	87.45	8.49	
2025-01-14 09:19:40.48	87.42	8.50	
2025-01-14 09:19:40.69	87.39	8.51	
2025-01-14 09:19:40.89	87.36	8.52	
2025-01-14 09:19:41.10	87.33	8.54	
2025-01-14 09:19:41.31	87.30	8.55	
2025-01-14 09:19:41.51	87.27	8.56	
2025-01-14 09:19:41.71	87.25	8.57	
2025-01-14 09:19:41.92	87.22	8.59	
2025-01-14 09:19:42.13	87.19	8.60	
2025-01-14 09:19:42.33	87.16	8.61	
2025-01-14 09:19:42.54	87.13	8.62	
2025-01-14 09:19:42.74	87.10	8.64	
2025-01-14 09:19:42.95	87.07	8.65	
2025-01-14 09:19:43.15	87.04	8.66	
2025-01-14 09:19:43.36	87.01	8.67	
2025-01-14 09:19:43.56	86.98	8.68	
2025-01-14 09:19:43.77	86.95	8.70	
2025-01-14 09:19:43.97	86.93	8.71	
2025-01-14 09:19:44.18	86.90	8.72	
2025-01-14 09:19:44.38	86.87	8.73	
2025-01-14 09:19:44.59	86.84	8.75	
2025-01-14 09:19:44.79	86.81	8.76	
2025-01-14 09:19:44.99	86.78	8.77	
2025-01-14 09:19:45.20	86.75	8.78	
2025-01-14 09:19:45.41	86.72	8.80	
2025-01-14 09:19:45.61	86.69	8.81	
2025-01-14 09:19:45.82	86.66	8.82	
2025-01-14 09:19:46.02	86.63	8.83	
2025-01-14 09:19:46.22	86.61	8.85	
2025-01-14 09:19:46.43	86.58	8.86	
2025-01-14 09:19:46.63	86.55	8.87	
2025-01-14 09:19:46.84	86.52	8.88	
2025-01-14 09:19:47.04	86.49	8.90	
2025-01-14 09:19:47.25	86.46	8.91	
2025-01-14 09:19:47.45	86.43	8.92	
2025-01-14 09:19:47.66	86.40	8.93	
2025-01-14 09:19:47.87	86.37	8.95	
2025-01-14 09:19:48.07	86.34	8.96	
2025-01-14 09:19:48.27	86.31	8.97	
2025-01-14 09:19:48.48	86.28	8.98	
2025-01-14 09:19:48.68	86.25	8.99	
2025-01-14 09:19:48.89	86.22	9.01	
2025-01-14 09:19:49.10	86.19	9.02	
2025-01-14 09:19:49.31	86.16	9.03	
2025-01-14 09:19:49.52	86.13	9.05	
2025-01-14 09:19:49.72	86.10	9.06	
2025-01-14 09:19:49.93	86.07	9.07	
2025-01-14 09:19:50.14	86.04	9.08	
2025-01-14 09:19:50.34	86.01	9.10	
2025-01-14 09:19:50.55	85.98	9.11	
2025-01-14 09:19:50.75	85.95	9.12	
2025-01-14 09:19:50.96	85.92	9.13	
2025-01-14 09:19:51.17	85.89	9.15	
2025-01-14 09:19:51.38	85.86	9.16	
2025-01-14 09:19:51.59	85.83	9.17	
2025-01-14 09:19:51.80	85.79	9.18	
2025-01-14 09:19:52.00	85.77	9.20	
2025-01-14 09:19:52.21	85.73	9.21	
2025-01-14 09:19:52.41	85.70	9.22	
2025-01-14 09:19:52.62	85.67	9.23	
2025-01-14 09:19:52.82	85.64	9.25	
2025-01-14 09:19:53.03	85.61	9.26	
2025-01-14 09:19:53.24	85.58	9.27	
2025-01-14 09:19:53.44	85.55	9.28	
2025-01-14 09:19:53.65	85.52	9.30	
2025-01-14 09:19:53.85	85.49	9.31	
2025-01-14 09:19:54.06	85.46	9.32	
2025-01-14 09:19:54.26	85.43	9.33	
2025-01-14 09:19:54.47	85.40	9.34	
2025-01-14 09:19:54.67	85.37	9.36	
2025-01-14 09:19:54.88	85.34	9.37	
2025-01-14 09:19:55.08	85.31	9.38	
2025-01-14 09:19:55.29	85.28	9.39	
2025-01-14 09:19:55.50	85.25	9.41	
2025-01-14 09:19:55.70	85.22	9.42	
2025-01-14 09:19:55.91	85.18	9.43	
2025-01-14 09:19:56.11	85.15	9.44	
2025-01-14 09:19:56.32	85.12	9.46	
2025-01-14 09:19:56.52	85.09	9.47	
2025-01-14 09:19:56.72	85.06	9.48	
2025-01-14 09:19:56.93	85.03	9.49	
2025-01-14 09:19:57.14	85.00	9.51	
2025-01-14 09:19:57.34	84.97	9.52	
2025-01-14 09:19:57.55	84.94	9.53	
2025-01-14 09:19:57.75	84.91	9.54	
2025-01-14 09:19:57.96	84.88	9.56	
2025-01-14 09:19:58.16	84.84	9.57	
2025-01-14 09:19:58.37	84.81	9.58	
2025-01-14 09:19:58.57	84.78	9.59	
2025-01-14 09:19:58.78	84.75	9.61	
2025-01-14 09:19:58.99	84.72	9.62	
2025-01-14 09:19:59.19	84.69	9.63	
2025-01-14 09:19:59.40	84.66	9.64	
2025-01-14 09:19:59.60	84.63	9.65	
2025-01-14 09:19:59.81	84.59	9.67	
2025-01-14 09:20:00.01	84.56	9.68	
2025-01-14 09:20:00.23	84.53	9.69	
2025-01-14 09:20:00.44	84.50	9.71	
2025-01-14 09:20:00.64	84.47	9.72	
2025-01-14 09:20:00.84	84.44	9.73	
2025-01-14 09:20:01.05	84.40	9.74	
2025-01-14 09:20:01.26	84.37	9.75	
2025-01-14 09:20:01.46	84.34	9.77	
2025-01-14 09:20:01.66	84.31	9.78	
2025-01-14 09:20:01.87	84.28	9.79	
2025-01-14 09:20:02.07	84.25	9.80	
2025-01-14 09:20:02.28	84.21	9.82	
2025-01-14 09:20:02.48	84.18	9.83	
2025-01-14 09:20:02.69	84.15	9.84	
2025-01-14 09:20:02.89	84.12	9.85	
2025-01-14 09:20:03.09	84.09	9.87	
2025-01-14 09:20:03.30	84.06	9.88	
2025-01-14 09:20:03.51	84.02	9.89	
2025-01-14 09:20:03.71	83.99	9.90	
2025-01-14 09:20:03.92	83.96	9.92	
2025-01-14 09:20:04.13	83.93	9.93	
2025-01-14 09:20:04.34	83.90	9.94	
2025-01-14 09:20:04.54	83.86	9.95	
2025-01-14 09:20:04.75	83.83	9.97	
2025-01-14 09:20:04.95	83.80	9.98	
2025-01-14 09:20:05.16	83.77	9.99	
2025-01-14 09:20:05.36	83.74	10.00	
2025-01-14 09:20:05.57	83.70	10.01	
2025-01-14 09:20:05.78	83.67	10.03	
2025-01-14 09:20:05.98	83.64	10.04	
2025-01-14 09:20:06.19	83.61	10.05	
2025-01-14 09:20:06.39	83.57	10.06	
2025-01-14 09:20:06.60	83.54	10.08	
2025-01-14 09:20:06.80	83.51	10.09	
2025-01-14 09:20:07.01	83.48	10.10	
2025-01-14 09:20:07.21	83.45	10.11	
2025-01-14 09:20:07.41	83.41	10.13	
2025-01-14 09:20:07.62	83.38	10.14	
2025-01-14 09:20:07.83	83.35	10.15	
2025-01-14 09:20:08.03	83.32	10.16	
2025-01-14 09:20:08.24	83.28	10.18	
2025-01-14 09:20:08.44	83.25	10.19	
2025-01-14 09:20:08.64	83.22	10.20	
2025-01-14 09:20:08.85	83.19	10.21	
2025-01-14 09:20:09.06	83.15	10.22	
2025-01-14 09:20:09.26	83.12	10.24	
2025-01-14 09:20:04.90	83.81	9.97	
2025-01-14 09:20:05.10	83.78	9.99	
2025-01-14 09:20:05.31	83.74	10.00	
2025-01-14 09:20:05.52	83.71	10.01	
2025-01-14 09:20:05.72	83.68	10.02	
2025-01-14 09:20:05.92	83.65	10.04	
2025-01-14 09:20:06.13	83.62	10.05	
2025-01-14 09:20:06.33	83.58	10.06	
2025-01-14 09:20:06.54	83.55	10.07	
2025-01-14 09:20:06.74	83.52	10.09	
2025-01-14 09:20:06.95	83.49	10.10	
2025-01-14 09:20:07.17	83.45	10.11	
2025-01-14 09:20:07.37	83.42	10.12	
2025-01-14 09:20:07.58	83.39	10.14	
2025-01-14 09:20:07.78	83.36	10.15	
2025-01-14 09:20:07.99	83.32	10.16	
2025-01-14 09:20:08.19	83.29	10.17	
2025-01-14 09:20:08.40	83.26	10.19	
2025-01-14 09:20:08.60	83.23	10.20	
2025-01-14 09:20:08.80	83.19	10.21	
2025-01-14 09:20:09.01	83.16	10.22	
2025-01-14 09:20:09.22	83.13	10.23	
2025-01-14 09:20:09.42	83.10	10.25	
2025-01-14 09:20:09.63	83.06	10.26	
2025-01-14 09:20:09.83	83.03	10.27	
2025-01-14 09:20:10.04	83.00	10.28	
2025-01-14 09:20:10.24	82.96	10.30	
2025-01-14 09:20:10.45	82.93	10.31	
2025-01-14 09:20:10.65	82.90	10.32	
2025-01-14 09:20:10.86	82.86	10.33	
2025-01-14 09:20:11.06	82.83	10.34	
2025-01-14 09:20:11.27	82.80	10.36	
2025-01-14 09:20:11.47	82.77	10.37	
2025-01-14 09:20:11.68	82.73	10.38	
2025-01-14 09:20:11.89	82.70	10.39	
2025-01-14 09:20:12.09	82.67	10.41	
2025-01-14 09:20:12.29	82.63	10.42	
2025-01-14 09:20:12.50	82.60	10.43	
2025-01-14 09:20:12.71	82.57	10.44	
2025-01-14 09:20:12.91	82.53	10.46	
2025-01-14 09:20:13.12	82.50	10.47	
2025-01-14 09:20:13.32	82.47	10.48	
2025-01-14 09:20:13.52	82.44	10.49	
2025-01-14 09:20:13.73	82.40	10.50	
2025-01-14 09:20:13.94	82.37	10.52	
2025-01-14 09:20:14.14	82.33	10.53	
2025-01-14 09:20:14.35	82.30	10.54	
2025-01-14 09:20:14.55	82.27	10.55	
2025-01-14 09:20:14.76	82.23	10.57	
2025-01-14 09:20:14.96	82.20	10.58	
2025-01-14 09:20:15.17	82.17	10.59	
2025-01-14 09:20:15.37	82.13	10.60	
2025-01-14 09:20:15.59	82.10	10.62	
2025-01-14 09:20:15.80	82.06	10.63	
2025-01-14 09:20:16.00	82.03	10.64	
2025-01-14 09:20:16.21	82.00	10.65	
2025-01-14 09:20:16.42	81.96	10.67	
2025-01-14 09:20:16.62	81.93	10.68	
2025-01-14 09:20:16.83	81.89	10.69	
2025-01-14 09:20:17.03	81.86	10.70	
2025-01-14 09:20:17.24	81.83	10.71	
2025-01-14 09:20:17.44	81.79	10.73	
2025-01-14 09:20:17.64	81.76	10.74	
2025-01-14 09:20:17.85	81.73	10.75	
2025-01-14 09:20:18.06	81.69	10.76	
2025-01-14 09:20:18.26	81.66	10.78	
2025-01-14 09:20:18.47	81.62	10.79	
2025-01-14 09:20:18.67	81.59	10.80	
2025-01-14 09:20:18.88	81.56	10.81	
2025-01-14 09:20:19.08	81.52	10.82	
2025-01-14 09:20:19.29	81.49	10.84	
2025-01-14 09:20:19.49	81.45	10.85	
2025-01-14 09:20:19.70	81.42	10.86	
2025-01-14 09:20:19.91	81.38	10.87	
2025-01-14 09:20:20.12	81.35	10.89	
2025-01-14 09:20:20.33	81.31	10.90	
2025-01-14 09:20:20.53	81.28	10.91	
2025-01-14 09:20:20.74	81.24	10.92	
2025-01-14 09:20:20.96	81.21	10.94	
2025-01-14 09:20:21.16	81.17	10.95	
2025-01-14 09:20:21.37	81.14	10.96	
2025-01-14 09:20:21.58	81.10	10.97	
2025-01-14 09:20:21.78	81.07	10.99	
2025-01-14 09:20:21.98	81.04	11.00	
2025-01-14 09:20:22.19	81.00	11.01	
2025-01-14 09:20:22.40	80.97	11.02	
2025-01-14 09:20:22.60	80.93	11.03	
2025-01-14 09:20:22.81	80.90	11.05	
2025-01-14 09:20:23.01	80.86	11.06	
2025-01-14 09:20:23.22	80.83	11.07	
2025-01-14 09:20:23.42	80.79	11.08	
2025-01-14 09:20:23.63	80.76	11.10	
2025-01-14 09:20:23.83	80.72	11.11	
2025-01-14 09:20:24.04	80.69	11.12	
2025-01-14 09:20:24.24	80.65	11.13	
2025-01-14 09:20:24.45	80.62	11.14	
2025-01-14 09:20:24.65	80.58	11.16	
2025-01-14 09:20:24.86	80.55	11.17	
2025-01-14 09:20:25.06	80.51	11.18	
2025-01-14 09:20:25.26	80.48	11.19	
2025-01-14 09:20:25.47	80.44	11.20	
2025-01-14 09:20:25.68	80.41	11.22	
2025-01-14 09:20:25.88	80.37	11.23	
2025-01-14 09:20:26.09	80.34	11.24	
2025-01-14 09:20:26.29	80.30	11.25	
2025-01-14 09:20:26.50	80.27	11.26	
2025-01-14 09:20:26.70	80.23	11.28	
2025-01-14 09:20:26.91	80.20	11.29	
2025-01-14 09:20:27.12	80.16	11.30	
2025-01-14 09:20:27.32	80.13	11.31	
2025-01-14 09:20:27.52	80.09	11.33	
2025-01-14 09:20:27.73	80.06	11.34	
2025-01-14 09:20:27.93	80.02	11.35	
2025-01-14 09:20:28.14	79.98	11.36	
2025-01-14 09:20:28.34	79.95	11.37	
2025-01-14 09:20:28.55	79.91	11.39	
2025-01-14 09:20:28.75	79.88	11.40	
2025-01-14 09:20:28.96	79.84	11.41	
2025-01-14 09:20:29.16	79.81	11.42	
2025-01-14 09:20:29.37	79.77	11.43	
2025-01-14 09:20:29.57	79.74	11.45	
2025-01-14 09:20:29.78	79.70	11.46	
2025-01-14 09:20:29.98	79.66	11.47	
2025-01-14 09:20:30.19	79.63	11.48	
2025-01-14 09:20:30.40	79.59	11.49	
2025-01-14 09:20:30.60	79.56	11.51	
2025-01-14 09:20:30.81	79.52	11.52	
2025-01-14 09:20:31.01	79.48	11.53	
2025-01-14 09:20:31.22	79.45	11.54	
2025-01-14 09:20:31.42	79.41	11.55	
2025-01-14 09:20:31.63	79.38	11.57	
2025-01-14 09:20:31.84	79.34	11.58	
2025-01-14 09:20:32.04	79.30	11.59	
2025-01-14 09:20:32.25	79.27	11.60	
2025-01-14 09:20:32.45	79.23	11.61	
2025-01-14 09:20:32.65	79.20	11.63	
2025-01-14 09:20:32.86	79.16	11.64	
2025-01-14 09:20:33.07	79.12	11.65	
2025-01-14 09:20:33.27	79.09	11.66	
2025-01-14 09:20:33.48	79.05	11.68	
2025-01-14 09:20:33.68	79.01	11.69	
2025-01-14 09:20:33.89	78.98	11.70	
2025-01-14 09:20:34.09	78.94	11.71	
2025-01-14 09:20:34.30	78.90	11.72	
2025-01-14 09:20:34.51	78.87	11.74	
2025-01-14 09:20:34.71	78.83	11.75	
2025-01-14 09:20:34.93	78.79	11.76	
2025-01-14 09:20:35.14	78.75	11.77	
2025-01-14 09:20:35.34	78.72	11.78	
2025-01-14 09:20:35.55	78.68	11.80	
2025-01-14 09:20:35.75	78.64	11.81	
2025-01-14 09:20:35.96	78.61	11.82	
2025-01-14 09:20:36.17	78.57	11.83	
2025-01-14 09:20:36.37	78.53	11.84	
2025-01-14 09:20:36.58	78.50	11.86	
2025-01-14 09:20:36.78	78.46	11.87	
2025-01-14 09:20:36.99	78.42	11.88	
2025-01-14 09:20:37.19	78.39	11.89	
2025-01-14 09:20:37.40	78.35	11.90	
2025-01-14 09:20:37.61	78.31	11.92	
2025-01-14 09:20:37.81	78.27	11.93	
2025-01-14 09:20:38.01	78.24	11.94	
2025-01-14 09:20:38.22	78.20	11.95	
2025-01-14 09:20:38.42	78.16	11.96	
2025-01-14 09:20:38.63	78.13	11.97	
2025-01-14 09:20:38.84	78.09	11.99	
2025-01-14 09:20:39.04	78.05	12.00	
2025-01-14 09:20:39.25	78.01	12.01	
2025-01-14 09:20:39.45	77.98	12.02	
2025-01-14 09:20:39.66	77.94	12.03	
2025-01-14 09:20:39.86	77.90	12.05	
2025-01-14 09:20:40.07	77.86	12.06	
2025-01-14 09:20:40.29	77.82	12.07	
2025-01-14 09:20:40.49	77.79	12.08	
2025-01-14 09:20:40.70	77.75	12.09	
2025-01-14 09:20:40.90	77.71	12.11	
2025-01-14 09:20:41.11	77.67	12.12	
2025-01-14 09:20:41.32	77.64	12.13	
2025-01-14 09:20:41.52	77.60	12.14	
2025-01-14 09:20:41.73	77.56	12.15	
2025-01-14 09:20:41.94	77.52	12.17	
2025-01-14 09:20:42.14	77.49	12.18	
2025-01-14 09:20:42.34	77.45	12.19	
2025-01-14 09:20:42.55	77.41	12.20	
2025-01-14 09:20:42.76	77.37	12.21	
2025-01-14 09:20:42.96	77.33	12.22	
2025-01-14 09:20:43.17	77.30	12.24	
2025-01-14 09:20:43.37	77.26	12.25	
2025-01-14 09:20:43.58	77.22	12.26	
2025-01-14 09:20:43.78	77.18	12.27	
2025-01-14 09:20:43.99	77.14	12.28	
2025-01-14 09:20:44.19	77.11	12.30	
2025-01-14 09:20:44.40	77.07	12.31	
2025-01-14 09:20:44.60	77.03	12.32	
2025-01-14 09:20:44.81	76.99	12.33	
2025-01-14 09:20:45.01	76.95	12.34	
2025-01-14 09:20:45.22	76.92	12.35	
2025-01-14 09:20:45.43	76.88	12.37	
2025-01-14 09:20:45.63	76.84	12.38	
2025-01-14 09:20:45.84	76.80	12.39	
2025-01-14 09:20:46.04	76.76	12.40	
2025-01-14 09:20:46.25	76.72	12.41	
2025-01-14 09:20:46.45	76.69	12.42	
2025-01-14 09:20:46.67	76.64	12.44	
2025-01-14 09:20:46.88	76.60	12.45	
2025-01-14 09:20:47.08	76.57	12.46	
2025-01-14 09:20:47.29	76.53	12.47	
2025-01-14 09:20:47.49	76.49	12.48	
2025-01-14 09:20:47.70	76.45	12.50	
2025-01-14 09:20:47.90	76.41	12.51	
2025-01-14 09:20:48.11	76.37	12.52	
2025-01-14 09:20:48.32	76.33	12.53	
2025-01-14 09:20:48.52	76.30	12.54	
2025-01-14 09:20:48.72	76.26	12.55	
2025-01-14 09:20:48.93	76.22	12.56	
2025-01-14 09:20:49.14	76.18	12.58	
2025-01-14 09:20:49.34	76.14	12.59	
2025-01-14 09:20:49.55	76.10	12.60	
2025-01-14 09:20:49.76	76.06	12.61	
2025-01-14 09:20:49.97	76.02	12.62	
2025-01-14 09:20:50.18	75.98	12.64	
2025-01-14 09:20:50.38	75.94	12.65	
2025-01-14 09:20:50.59	75.90	12.66	
2025-01-14 09:20:50.79	75.87	12.67	
2025-01-14 09:20:51.01	75.82	12.68	
2025-01-14 09:20:51.22	75.78	12.69	
2025-01-14 09:20:51.42	75.75	12.71	
2025-01-14 09:20:51.63	75.71	12.72	
2025-01-14 09:20:51.84	75.66	12.73	
2025-01-14 09:20:52.04	75.63	12.74	
2025-01-14 09:20:52.24	75.59	12.75	
2025-01-14 09:20:52.45	75.55	12.76	
2025-01-14 09:20:52.66	75.51	12.78	
2025-01-14 09:20:52.86	75.47	12.79	
2025-01-14 09:20:53.06	75.43	12.80	
2025-01-14 09:20:53.27	75.39	12.81	
2025-01-14 09:20:53.48	75.35	12.82	
2025-01-14 09:20:53.68	75.31	12.83	
2025-01-14 09:20:53.89	75.27	12.84	
2025-01-14 09:20:54.09	75.23	12.85	
2025-01-14 09:20:54.30	75.19	12.87	
2025-01-14 09:20:54.50	75.15	12.88	
2025-01-14 09:20:54.71	75.11	12.89	
2025-01-14 09:20:54.91	75.07	12.90	
2025-01-14 09:20:55.12	75.03	12.91	
2025-01-14 09:20:55.32	74.99	12.92	
2025-01-14 09:20:55.52	74.95	12.93	
2025-01-14 09:20:55.73	74.91	12.95	
2025-01-14 09:20:55.95	74.87	12.96	
2025-01-14 09:20:56.15	74.83	12.97	
2025-01-14 09:20:56.35	74.79	12.98	
2025-01-14 09:20:56.56	74.75	12.99	
2025-01-14 09:20:56.77	74.71	13.00	
2025-01-14 09:20:56.97	74.67	13.01	
2025-01-14 09:20:57.18	74.63	13.03	
2025-01-14 09:20:57.38	74.59	13.04	
2025-01-14 09:20:57.59	74.55	13.05	
2025-01-14 09:20:57.79	74.51	13.06	
2025-01-14 09:20:57.99	74.47	13.07	
2025-01-14 09:20:58.20	74.43	13.08	
2025-01-14 09:20:58.40	74.39	13.09	
2025-01-14 09:20:58.61	74.35	13.11	
2025-01-14 09:20:58.81	74.31	13.12	
2025-01-14 09:20:59.02	74.27	13.13	
2025-01-14 09:20:59.22	74.23	13.14	
2025-01-14 09:20:59.43	74.19	13.15	
2025-01-14 09:20:59.63	74.15	13.16	
2025-01-14 09:20:59.84	74.11	13.17	
2025-01-14 09:21:00.04	74.07	13.18	
2025-01-14 09:21:00.25	74.03	13.20	
2025-01-14 09:21:00.45	73.99	13.21	
2025-01-14 09:21:00.66	73.95	13.22	
2025-01-14 09:21:00.86	73.91	13.23	
2025-01-14 09:21:01.07	73.86	13.24	
2025-01-14 09:21:01.27	73.82	13.25	
2025-01-14 09:21:01.48	73.78	13.26	
2025-01-14 09:21:01.68	73.74	13.27	
2025-01-14 09:21:01.89	73.70	13.28	
2025-01-14 09:21:02.10	73.66	13.30	
2025-01-14 09:21:02.30	73.62	13.31	
2025-01-14 09:21:02.51	73.58	13.32	
2025-01-14 09:21:02.71	73.54	13.33	
2025-01-14 09:21:02.92	73.49	13.34	
2025-01-14 09:21:03.12	73.45	13.35	
2025-01-14 09:21:03.33	73.41	13.36	
2025-01-14 09:21:03.54	73.37	13.37	
2025-01-14 09:21:03.74	73.33	13.39	
2025-01-14 09:21:03.95	73.29	13.40	
2025-01-14 09:21:04.15	73.25	13.41	
2025-01-14 09:21:04.36	73.21	13.42	
2025-01-14 09:21:04.56	73.17	13.43	
2025-01-14 09:21:04.77	73.12	13.44	
2025-01-14 09:21:04.97	73.08	13.45	
2025-01-14 09:21:05.18	73.04	13.46	
2025-01-14 09:21:05.39	73.00	13.47	
2025-01-14 09:21:05.59	72.96	13.48	
2025-01-14 09:21:05.80	72.91	13.50	
2025-01-14 09:21:06.00	72.87	13.51	
2025-01-14 09:21:06.21	72.83	13.52	
2025-01-14 09:21:06.41	72.79	13.53	
2025-01-14 09:21:06.62	72.75	13.54	
2025-01-14 09:21:06.83	72.71	13.55	
2025-01-14 09:21:07.03	72.67	13.56	
2025-01-14 09:21:07.23	72.62	13.57	
2025-01-14 09:21:07.44	72.58	13.58	
2025-01-14 09:21:07.64	72.54	13.59	
2025-01-14 09:21:07.85	72.50	13.61	
2025-01-14 09:21:08.05	72.46	13.62	
2025-01-14 09:21:08.26	72.41	13.63	
2025-01-14 09:21:08.46	72.37	13.64	
2025-01-14 09:21:08.67	72.33	13.65	
2025-01-14 09:21:08.87	72.29	13.66	
2025-01-14 09:21:09.08	72.25	13.67	
2025-01-14 09:21:09.28	72.21	13.68	
2025-01-14 09:21:09.49	72.16	13.69	
2025-01-14 09:21:09.69	72.12	13.70	
2025-01-14 09:21:09.90	72.08	13.71	
2025-01-14 09:21:10.10	72.04	13.72	
2025-01-14 09:21:10.31	71.99	13.74	
2025-01-14 09:21:10.52	71.95	13.75	
2025-01-14 09:21:10.72	71.91	13.76	
2025-01-14 09:21:10.93	71.87	13.77	
2025-01-14 09:21:11.13	71.82	13.78	
2025-01-14 09:21:11.34	71.78	13.79	
2025-01-14 09:21:11.54	71.74	13.80	
2025-01-14 09:21:11.75	71.70	13.81	
2025-01-14 09:21:11.95	71.65	13.82	
2025-01-14 09:21:12.16	71.61	13.83	
2025-01-14 09:21:12.36	71.57	13.84	
2025-01-14 09:21:12.57	71.53	13.85	
2025-01-14 09:21:12.77	71.48	13.86	
2025-01-14 09:21:12.98	71.44	13.88	
2025-01-14 09:21:13.19	71.40	13.89	
2025-01-14 09:21:13.41	71.35	13.90	
2025-01-14 09:21:13.61	71.31	13.91	
2025-01-14 09:21:13.82	71.27	13.92	
2025-01-14 09:21:14.02	71.22	13.93	
2025-01-14 09:21:14.23	71.18	13.94	
2025-01-14 09:21:14.45	71.13	13.95	
2025-01-14 09:21:14.65	71.09	13.96	
2025-01-14 09:21:14.86	71.05	13.97	
2025-01-14 09:21:15.07	71.00	13.98	
2025-01-14 09:21:15.27	70.96	13.99	
2025-01-14 09:21:15.47	70.92	14.00	
2025-01-14 09:21:15.68	70.88	14.02	
2025-01-14 09:21:15.89	70.83	14.03	
2025-01-14 09:21:16.09	70.79	14.04	
2025-01-14 09:21:16.30	70.75	14.05	
2025-01-14 09:21:16.50	70.70	14.06	
2025-01-14 09:21:16.71	70.66	14.07	
2025-01-14 09:21:16.91	70.62	14.08	
2025-01-14 09:21:17.12	70.57	14.09	
2025-01-14 09:21:17.33	70.53	14.10	
2025-01-14 09:21:17.53	70.49	14.11	
2025-01-14 09:21:17.73	70.44	14.12	
2025-01-14 09:21:17.94	70.40	14.13	
2025-01-14 09:21:18.14	70.36	14.14	
2025-01-14 09:21:18.35	70.31	14.15	
2025-01-14 09:21:18.56	70.27	14.16	
2025-01-14 09:21:18.76	70.22	14.17	
2025-01-14 09:21:18.97	70.18	14.18	
2025-01-14 09:21:19.17	70.14	14.19	
2025-01-14 09:21:19.38	70.09	14.20	
2025-01-14 09:21:19.58	70.05	14.21	
2025-01-14 09:21:19.79	70.00	14.22	
2025-01-14 09:21:19.99	69.96	14.23	
2025-01-14 09:21:20.20	69.92	14.25	
2025-01-14 09:21:20.40	69.87	14.26	
2025-01-14 09:21:20.61	69.83	14.27	
2025-01-14 09:21:20.81	69.79	14.28	
2025-01-14 09:21:21.02	69.74	14.29	
2025-01-14 09:21:21.22	69.70	14.30	
2025-01-14 09:21:21.43	69.65	14.31	
2025-01-14 09:21:21.64	69.61	14.32	
2025-01-14 09:21:21.84	69.57	14.33	
2025-01-14 09:21:22.05	69.52	14.34	
2025-01-14 09:21:22.25	69.48	14.35	
2025-01-14 09:21:22.46	69.43	14.36	
2025-01-14 09:21:22.67	69.39	14.37	
2025-01-14 09:21:22.87	69.34	14.38	
2025-01-14 09:21:23.08	69.30	14.39	
2025-01-14 09:21:23.28	69.25	14.40	
2025-01-14 09:21:23.49	69.21	14.41	
2025-01-14 09:21:23.69	69.17	14.42	
2025-01-14 09:21:23.90	69.12	14.43	
2025-01-14 09:21:24.10	69.08	14.44	
2025-01-14 09:21:24.31	69.03	14.45	
2025-01-14 09:21:24.52	68.99	14.46	
2025-01-14 09:21:24.72	68.94	14.47	
2025-01-14 09:21:24.93	68.90	14.48	
2025-01-14 09:21:25.15	68.85	14.49	
2025-01-14 09:21:25.35	68.81	14.50	
2025-01-14 09:21:25.56	68.76	14.51	
2025-01-14 09:21:25.77	68.71	14.52	
2025-01-14 09:21:25.97	68.67	14.53	
2025-01-14 09:21:26.18	68.62	14.54	
2025-01-14 09:21:26.38	68.58	14.55	
2025-01-14 09:21:26.59	68.54	14.56	
2025-01-14 09:21:26.79	68.49	14.57	
2025-01-14 09:21:27.00	68.45	14.58	
2025-01-14 09:21:27.20	68.40	14.59	
2025-01-14 09:21:27.41	68.36	14.60	
2025-01-14 09:21:27.62	68.31	14.61	
2025-01-14 09:21:27.82	68.27	14.62	
2025-01-14 09:21:28.03	68.22	14.63	
2025-01-14 09:21:28.23	68.18	14.64	
2025-01-14 09:21:28.44	68.13	14.65	
2025-01-14 09:21:28.64	68.08	14.66	
2025-01-14 09:21:28.85	68.04	14.67	
2025-01-14 09:21:29.06	67.99	14.68	
2025-01-14 09:21:29.26	67.95	14.69	
2025-01-14 09:21:29.46	67.90	14.70	
2025-01-14 09:21:29.67	67.86	14.71	
2025-01-14 09:21:29.88	67.81	14.72	
2025-01-14 09:21:30.08	67.77	14.73	
2025-01-14 09:21:30.29	67.72	14.74	
2025-01-14 09:21:30.49	67.68	14.75	
2025-01-14 09:21:30.70	67.63	14.76	
2025-01-14 09:21:30.91	67.58	14.77	
2025-01-14 09:21:31.11	67.54	14.78	
2025-01-14 09:21:31.32	67.49	14.79	
2025-01-14 09:21:31.52	67.45	14.80	
2025-01-14 09:21:31.73	67.40	14.81	
2025-01-14 09:21:31.93	67.36	14.82	
2025-01-14 09:21:32.14	67.31	14.83	
2025-01-14 09:21:32.34	67.26	14.84	
2025-01-14 09:21:32.55	67.22	14.84	
2025-01-14 09:21:32.75	67.17	14.85	
2025-01-14 09:21:32.96	67.13	14.86	
2025-01-14 09:21:33.16	67.08	14.87	
2025-01-14 09:21:33.37	67.03	14.88	
2025-01-14 09:21:33.57	66.99	14.89	
2025-01-14 09:21:33.78	66.94	14.90	
2025-01-14 09:21:33.98	66.90	14.91	
2025-01-14 09:21:34.18	66.85	14.92	
2025-01-14 09:21:34.39	66.81	14.93	
2025-01-14 09:21:34.60	66.76	14.94	
2025-01-14 09:21:34.81	66.71	14.95	
2025-01-14 09:21:35.02	66.66	14.96	
2025-01-14 09:21:35.22	66.62	14.97	
2025-01-14 09:21:35.43	66.57	14.98	
2025-01-14 09:21:35.63	66.53	14.99	
2025-01-14 09:21:35.84	66.48	15.00	
2025-01-14 09:21:36.04	66.43	15.01	
2025-01-14 09:21:36.25	66.39	15.02	
2025-01-14 09:21:36.45	66.34	15.02	
2025-01-14 09:21:36.66	66.29	15.03	
2025-01-14 09:21:36.86	66.25	15.04	
2025-01-14 09:21:37.07	66.20	15.05	
2025-01-14 09:21:37.27	66.16	15.06	
2025-01-14 09:21:37.48	66.11	15.07	
2025-01-14 09:21:37.69	66.06	15.08	
2025-01-14 09:21:37.91	66.01	15.09	
2025-01-14 09:21:38.11	65.96	15.10	
2025-01-14 09:21:38.32	65.92	15.11	
2025-01-14 09:21:38.53	65.87	15.12	
2025-01-14 09:21:38.73	65.82	15.13	
2025-01-14 09:21:38.93	65.78	15.14	
2025-01-14 09:21:39.14	65.73	15.15	
2025-01-14 09:21:39.35	65.68	15.16	
2025-01-14 09:21:39.55	65.64	15.16	
2025-01-14 09:21:39.76	65.59	15.17	
2025-01-14 09:21:39.96	65.54	15.18	
2025-01-14 09:21:40.17	65.49	15.19	
2025-01-14 09:21:40.37	65.45	15.20	
2025-01-14 09:21:40.58	65.40	15.21	
2025-01-14 09:21:40.79	65.35	15.22	
2025-01-14 09:21:40.99	65.31	15.23	
2025-01-14 09:21:41.19	65.26	15.24	
2025-01-14 09:21:41.40	65.21	15.25	
2025-01-14 09:21:41.61	65.16	15.25	
2025-01-14 09:21:41.81	65.12	15.26	
2025-01-14 09:21:42.02	65.07	15.27	
2025-01-14 09:21:42.22	65.02	15.28	
2025-01-14 09:21:42.43	64.98	15.29	
2025-01-14 09:21:42.64	64.93	15.30	
2025-01-14 09:21:42.84	64.88	15.31	
2025-01-14 09:21:43.05	64.83	15.32	
2025-01-14 09:21:43.25	64.79	15.33	
2025-01-14 09:21:43.46	64.74	15.33	
2025-01-14 09:21:43.66	64.69	15.34	
2025-01-14 09:21:43.87	64.64	15.35	
2025-01-14 09:21:44.08	64.59	15.36	
2025-01-14 09:21:44.28	64.55	15.37	
2025-01-14 09:21:44.49	64.50	15.38	
2025-01-14 09:21:44.69	64.45	15.39	
2025-01-14 09:21:44.90	64.40	15.40	
2025-01-14 09:21:45.10	64.36	15.40	
2025-01-14 09:21:45.31	64.31	15.41	
2025-01-14 09:21:45.53	64.26	15.42	
2025-01-14 09:21:45.73	64.21	15.43	
2025-01-14 09:21:45.94	64.16	15.44	
2025-01-14 09:21:46.15	64.11	15.45	
2025-01-14 09:21:46.35	64.07	15.46	
2025-01-14 09:21:46.57	64.02	15.47	
2025-01-14 09:21:46.77	63.97	15.48	
2025-01-14 09:21:46.98	63.92	15.48	
2025-01-14 09:21:47.18	63.87	15.49	
2025-01-14 09:21:47.39	63.82	15.50	
2025-01-14 09:21:47.61	63.77	15.51	
2025-01-14 09:21:47.82	63.72	15.52	
2025-01-14 09:21:48.03	63.67	15.53	
2025-01-14 09:21:48.24	63.62	15.54	
2025-01-14 09:21:48.44	63.58	15.54	
2025-01-14 09:21:48.64	63.53	15.55	
2025-01-14 09:21:48.85	63.48	15.56	
2025-01-14 09:21:49.06	63.43	15.57	
2025-01-14 09:21:49.26	63.39	15.58	
2025-01-14 09:21:49.47	63.34	15.59	
2025-01-14 09:21:49.67	63.29	15.59	
2025-01-14 09:21:49.88	63.24	15.60	
2025-01-14 09:21:50.08	63.19	15.61	
2025-01-14 09:21:50.29	63.14	15.62	
2025-01-14 09:21:50.49	63.10	15.63	
2025-01-14 09:21:50.69	63.05	15.64	
2025-01-14 09:21:50.90	63.00	15.64	
2025-01-14 09:21:51.11	62.95	15.65	
2025-01-14 09:21:51.31	62.90	15.66	
2025-01-14 09:21:51.52	62.85	15.67	
2025-01-14 09:21:51.72	62.80	15.68	
2025-01-14 09:21:51.93	62.75	15.69	
2025-01-14 09:21:52.13	62.71	15.69	
2025-01-14 09:21:52.34	62.66	15.70	
2025-01-14 09:21:52.54	62.61	15.71	
2025-01-14 09:21:52.75	62.56	15.72	
2025-01-14 09:21:52.95	62.51	15.73	
2025-01-14 09:21:53.16	62.46	15.73	
2025-01-14 09:21:53.36	62.41	15.74	
2025-01-14 09:21:53.57	62.36	15.75	
2025-01-14 09:21:53.78	62.31	15.76	
2025-01-14 09:21:53.98	62.27	15.77	
2025-01-14 09:21:54.18	62.22	15.77	
2025-01-14 09:21:54.39	62.17	15.78	
2025-01-14 09:21:54.60	62.12	15.79	
2025-01-14 09:21:54.80	62.07	15.80	
2025-01-14 09:21:55.00	62.02	15.81	
2025-01-14 09:21:55.21	61.97	15.81	
2025-01-14 09:21:55.41	61.93	15.82	
2025-01-14 09:21:55.62	61.87	15.83	
2025-01-14 09:21:55.83	61.82	15.84	
2025-01-14 09:21:56.03	61.78	15.85	
2025-01-14 09:21:56.23	61.73	15.85	
2025-01-14 09:21:56.44	61.68	15.86	
2025-01-14 09:21:56.65	61.63	15.87	
2025-01-14 09:21:56.85	61.58	15.88	
2025-01-14 09:21:57.05	61.53	15.88	
2025-01-14 09:21:57.26	61.48	15.89	
2025-01-14 09:21:57.46	61.43	15.90	
2025-01-14 09:21:57.67	61.38	15.91	
2025-01-14 09:21:57.87	61.33	15.91	
2025-01-14 09:21:58.08	61.28	15.92	
2025-01-14 09:21:58.28	61.24	15.93	
2025-01-14 09:21:58.49	61.18	15.94	
2025-01-14 09:21:58.69	61.14	15.95	
2025-01-14 09:21:58.90	61.09	15.95	
2025-01-14 09:21:59.11	61.03	15.96	
2025-01-14 09:21:59.31	60.99	15.97	
2025-01-14 09:21:59.52	60.94	15.98	
2025-01-14 09:21:59.72	60.89	15.98	
2025-01-14 09:21:59.93	60.84	15.99	
2025-01-14 09:22:00.13	60.79	16.00	
2025-01-14 09:22:00.33	60.74	16.01	
2025-01-14 09:22:00.54	60.69	16.01	
2025-01-14 09:22:00.74	60.64	16.02	
2025-01-14 09:22:00.95	60.59	16.03	
2025-01-14 09:22:01.15	60.54	16.03	
2025-01-14 09:22:01.36	60.49	16.04	
2025-01-14 09:22:01.56	60.44	16.05	
2025-01-14 09:22:01.77	60.39	16.06	
2025-01-14 09:22:01.97	60.34	16.06	
2025-01-14 09:22:02.18	60.29	16.07	
2025-01-14 09:22:02.39	60.24	16.08	
2025-01-14 09:22:02.59	60.19	16.09	
2025-01-14 09:22:02.79	60.14	16.09	
2025-01-14 09:22:03.00	60.09	16.10	
2025-01-14 09:22:03.20	60.04	16.11	
2025-01-14 09:22:03.41	59.99	16.11	
2025-01-14 09:22:03.61	59.94	16.12	
2025-01-14 09:22:03.82	59.89	16.13	
2025-01-14 09:22:04.03	59.84	16.14	
2025-01-14 09:22:04.23	59.79	16.14	
2025-01-14 09:22:04.43	59.74	16.15	
2025-01-14 09:22:04.64	59.69	16.16	
2025-01-14 09:22:04.84	59.64	16.16	
2025-01-14 09:22:05.05	59.59	16.17	
2025-01-14 09:22:05.25	59.54	16.18	
2025-01-14 09:22:05.46	59.49	16.19	
2025-01-14 09:22:05.67	59.44	16.19	
2025-01-14 09:22:05.87	59.39	16.20	
2025-01-14 09:22:06.07	59.34	16.21	
2025-01-14 09:22:06.28	59.29	16.21	
2025-01-14 09:22:06.49	59.23	16.22	
2025-01-14 09:22:06.70	59.18	16.23	
2025-01-14 09:22:06.90	59.13	16.23	
2025-01-14 09:22:07.11	59.08	16.24	
2025-01-14 09:22:07.31	59.03	16.25	
2025-01-14 09:22:07.52	58.98	16.25	
2025-01-14 09:22:07.73	58.93	16.26	
2025-01-14 09:22:07.95	58.87	16.27	
2025-01-14 09:22:08.15	58.82	16.28	
2025-01-14 09:22:08.36	58.77	16.28	
2025-01-14 09:22:08.56	58.72	16.29	
2025-01-14 09:22:08.77	58.67	16.30	
2025-01-14 09:22:08.97	58.62	16.30	
2025-01-14 09:22:09.18	58.57	16.31	
2025-01-14 09:22:09.38	58.52	16.32	
2025-01-14 09:22:09.59	58.47	16.32	
2025-01-14 09:22:09.79	58.42	16.33	
2025-01-14 09:22:10.00	58.37	16.33	
2025-01-14 09:22:10.20	58.32	16.34	
2025-01-14 09:22:10.41	58.26	16.35	
2025-01-14 09:22:10.61	58.21	16.35	
2025-01-14 09:22:10.82	58.16	16.36	
2025-01-14 09:22:11.02	58.11	16.37	
2025-01-14 09:22:11.22	58.06	16.37	
2025-01-14 09:22:11.43	58.01	16.38	
2025-01-14 09:22:11.64	57.96	16.39	
2025-01-14 09:22:11.84	57.91	16.39	
2025-01-14 09:22:12.05	57.86	16.40	
2025-01-14 09:22:12.25	57.81	16.41	
2025-01-14 09:22:12.46	57.75	16.41	
2025-01-14 09:22:12.66	57.70	16.42	
2025-01-14 09:22:12.87	57.65	16.42	
2025-01-14 09:22:13.08	57.60	16.43	
2025-01-14 09:22:13.28	57.55	16.44	
2025-01-14 09:22:13.49	57.50	16.44	
2025-01-14 09:22:13.69	57.45	16.45	
2025-01-14 09:22:13.90	57.39	16.46	
2025-01-14 09:22:14.11	57.34	16.46	
2025-01-14 09:22:14.32	57.29	16.47	
2025-01-14 09:22:14.53	57.24	16.47	
2025-01-14 09:22:14.74	57.18	16.48	
2025-01-14 09:22:14.94	57.13	16.49	
2025-01-14 09:22:15.15	57.08	16.49	
2025-01-14 09:22:15.35	57.03	16.50	
2025-01-14 09:22:15.56	56.98	16.50	
2025-01-14 09:22:15.76	56.93	16.51	
2025-01-14 09:22:15.97	56.87	16.52	
2025-01-14 09:22:16.17	56.82	16.52	
2025-01-14 09:22:16.38	56.77	16.53	
2025-01-14 09:22:16.58	56.72	16.53	
2025-01-14 09:22:16.79	56.67	16.54	
2025-01-14 09:22:17.00	56.61	16.55	
2025-01-14 09:22:17.20	56.56	16.55	
2025-01-14 09:22:17.40	56.51	16.56	
2025-01-14 09:22:17.61	56.46	16.56	
2025-01-14 09:22:17.82	56.41	16.57	
2025-01-14 09:22:18.02	56.36	16.57	
2025-01-14 09:22:18.23	56.30	16.58	
2025-01-14 09:22:18.43	56.25	16.59	
2025-01-14 09:22:18.64	56.20	16.59	
2025-01-14 09:22:18.84	56.15	16.60	
2025-01-14 09:22:19.05	56.10	16.60	
2025-01-14 09:22:19.26	56.04	16.61	
2025-01-14 09:22:19.47	55.99	16.61	
2025-01-14 09:22:19.68	55.94	16.62	
2025-01-14 09:22:19.88	55.89	16.63	
2025-01-14 09:22:20.09	55.83	16.63	
2025-01-14 09:22:20.29	55.78	16.64	
2025-01-14 09:22:20.50	55.73	16.64	
2025-01-14 09:22:20.72	55.67	16.65	
2025-01-14 09:22:20.93	55.62	16.65	
2025-01-14 09:22:21.13	55.57	16.66	
2025-01-14 09:22:21.34	55.52	16.66	
2025-01-14 09:22:21.54	55.46	16.67	
2025-01-14 09:22:21.75	55.41	16.68	
2025-01-14 09:22:21.96	55.36	16.68	
2025-01-14 09:22:22.16	55.31	16.69	
2025-01-14 09:22:22.37	55.25	16.69	
2025-01-14 09:22:22.57	55.20	16.70	
2025-01-14 09:22:22.78	55.15	16.70	
2025-01-14 09:22:22.98	55.10	16.71	
2025-01-14 09:22:23.19	55.04	16.71	
2025-01-14 09:22:23.39	54.99	16.72	
2025-01-14 09:22:23.60	54.94	16.72	
2025-01-14 09:22:23.80	54.89	16.73	
2025-01-14 09:22:24.01	54.84	16.73	
2025-01-14 09:22:24.21	54.78	16.74	
2025-01-14 09:22:24.42	54.73	16.74	
2025-01-14 09:22:24.62	54.68	16.75	
2025-01-14 09:22:24.83	54.63	16.75	
2025-01-14 09:22:25.03	54.57	16.76	
2025-01-14 09:22:25.24	54.52	16.76	
2025-01-14 09:22:25.44	54.47	16.77	
2025-01-14 09:22:25.65	54.42	16.77	
2025-01-14 09:22:25.86	54.36	16.78	
2025-01-14 09:22:26.07	54.31	16.78	
2025-01-14 09:22:26.28	54.25	16.79	
2025-01-14 09:22:26.48	54.20	16.79	
2025-01-14 09:22:26.69	54.15	16.80	
2025-01-14 09:22:26.89	54.10	16.80	
2025-01-14 09:22:27.10	54.04	16.81	
2025-01-14 09:22:27.30	53.99	16.81	
2025-01-14 09:22:27.51	53.94	16.82	
2025-01-14 09:22:27.72	53.88	16.82	
2025-01-14 09:22:27.92	53.83	16.83	
2025-01-14 09:22:28.12	53.78	16.83	
2025-01-14 09:22:28.33	53.73	16.84	
2025-01-14 09:22:28.53	53.68	16.84	
2025-01-14 09:22:28.74	53.62	16.84	
2025-01-14 09:22:28.95	53.57	16.85	
2025-01-14 09:22:29.15	53.52	16.85	
2025-01-14 09:22:29.36	53.46	16.86	
2025-01-14 09:22:29.56	53.41	16.86	
2025-01-14 09:22:29.77	53.36	16.87	
2025-01-14 09:22:29.97	53.31	16.87	
2025-01-14 09:22:30.18	53.25	16.88	
2025-01-14 09:22:30.38	53.20	16.88	
2025-01-14 09:22:30.59	53.15	16.89	
2025-01-14 09:22:30.80	53.09	16.89	
2025-01-14 09:22:31.00	53.04	16.89	
2025-01-14 09:22:31.21	52.99	16.90	
2025-01-14 09:22:31.41	52.93	16.90	
2025-01-14 09:22:31.61	52.88	16.91	
2025-01-14 09:22:31.82	52.83	16.91	
2025-01-14 09:22:32.03	52.77	16.92	
2025-01-14 09:22:32.23	52.72	16.92	
2025-01-14 09:22:32.45	52.66	16.92	
2025-01-14 09:22:32.66	52.61	16.93	
2025-01-14 09:22:32.86	52.56	16.93	
2025-01-14 09:22:33.07	52.50	16.94	
2025-01-14 09:22:33.27	52.45	16.94	
2025-01-14 09:22:33.48	52.40	16.94	
2025-01-14 09:22:33.68	52.35	16.95	
2025-01-14 09:22:33.89	52.29	16.95	
2025-01-14 09:22:34.10	52.24	16.96	
2025-01-14 09:22:34.30	52.19	16.96	
2025-01-14 09:22:34.51	52.13	16.96	
2025-01-14 09:22:34.71	52.08	16.97	
2025-01-14 09:22:34.92	52.02	16.97	
2025-01-14 09:22:35.12	51.97	16.98	
2025-01-14 09:22:35.33	51.92	16.98	
2025-01-14 09:22:35.53	51.87	16.98	
2025-01-14 09:22:35.75	51.81	16.99	
2025-01-14 09:22:35.96	51.75	16.99	
2025-01-14 09:22:36.16	51.70	17.00	
2025-01-14 09:22:36.37	51.65	17.00	
2025-01-14 09:22:36.57	51.60	17.00	
2025-01-14 09:22:36.79	51.54	17.01	
2025-01-14 09:22:37.00	51.48	17.01	
2025-01-14 09:22:37.20	51.43	17.01	
2025-01-14 09:22:37.41	51.38	17.02	
2025-01-14 09:22:37.62	51.32	17.02	
2025-01-14 09:22:37.82	51.27	17.03	
2025-01-14 09:22:38.03	51.22	17.03	
2025-01-14 09:22:38.23	51.16	17.03	
2025-01-14 09:22:38.44	51.11	17.04	
2025-01-14 09:22:38.65	51.05	17.04	
2025-01-14 09:22:38.85	51.00	17.04	
2025-01-14 09:22:39.06	50.95	17.05	
2025-01-14 09:22:39.26	50.89	17.05	
2025-01-14 09:22:39.46	50.84	17.05	
2025-01-14 09:22:39.67	50.79	17.06	
2025-01-14 09:22:39.87	50.73	17.06	
2025-01-14 09:22:40.08	50.68	17.06	
2025-01-14 09:22:40.29	50.63	17.07	
2025-01-14 09:22:40.49	50.57	17.07	
2025-01-14 09:22:40.70	50.52	17.07	
2025-01-14 09:22:40.90	50.47	17.08	
2025-01-14 09:22:41.10	50.41	17.08	
2025-01-14 09:22:41.31	50.36	17.08	
2025-01-14 09:22:41.52	50.30	17.09	
2025-01-14 09:22:41.72	50.25	17.09	
2025-01-14 09:22:41.93	50.20	17.09	
2025-01-14 09:22:42.14	50.14	17.09	
2025-01-14 09:22:42.35	50.09	17.10	
2025-01-14 09:22:42.56	50.03	17.10	
2025-01-14 09:22:42.76	49.98	17.10	
2025-01-14 09:22:42.96	49.93	17.11	
2025-01-14 09:22:43.17	49.87	17.11	
2025-01-14 09:22:43.37	49.82	17.11	
2025-01-14 09:22:43.58	49.76	17.12	
2025-01-14 09:22:43.78	49.71	17.12	
2025-01-14 09:22:43.99	49.66	17.12	
2025-01-14 09:22:44.19	49.60	17.12	
2025-01-14 09:22:44.40	49.55	17.13	
2025-01-14 09:22:44.60	49.50	17.13	
2025-01-14 09:22:44.81	49.44	17.13	
2025-01-14 09:22:45.01	49.39	17.13	
2025-01-14 09:22:45.22	49.33	17.14	
2025-01-14 09:22:45.42	49.28	17.14	
2025-01-14 09:22:45.63	49.23	17.14	
2025-01-14 09:22:45.83	49.17	17.15	
2025-01-14 09:22:46.04	49.12	17.15	
2025-01-14 09:22:46.24	49.07	17.15	
2025-01-14 09:22:46.45	49.01	17.15	
2025-01-14 09:22:46.65	48.96	17.16	
2025-01-14 09:22:46.86	48.90	17.16	
2025-01-14 09:22:47.06	48.85	17.16	
2025-01-14 09:22:47.27	48.79	17.16	
2025-01-14 09:22:47.47	48.74	17.17	
2025-01-14 09:22:47.68	48.69	17.17	
2025-01-14 09:22:47.88	48.63	17.17	
2025-01-14 09:22:48.09	48.58	17.17	
2025-01-14 09:22:48.30	48.52	17.18	
2025-01-14 09:22:48.51	48.47	17.18	
2025-01-14 09:22:48.72	48.41	17.18	
2025-01-14 09:22:48.92	48.36	17.18	
2025-01-14 09:22:49.13	48.30	17.18	
2025-01-14 09:22:49.34	48.25	17.19	
2025-01-14 09:22:49.54	48.20	17.19	
2025-01-14 09:22:49.75	48.14	17.19	
2025-01-14 09:22:49.95	48.09	17.19	
2025-01-14 09:22:50.16	48.03	17.20	
2025-01-14 09:22:50.36	47.98	17.20	
2025-01-14 09:22:50.57	47.92	17.20	
2025-01-14 09:22:50.77	47.87	17.20	
2025-01-14 09:22:50.98	47.82	17.20	
2025-01-14 09:22:51.18	47.76	17.21	
2025-01-14 09:22:51.39	47.71	17.21	
2025-01-14 09:22:51.59	47.66	17.21	
2025-01-14 09:22:51.80	47.60	17.21	
2025-01-14 09:22:52.00	47.55	17.21	
2025-01-14 09:22:52.21	47.49	17.21	
2025-01-14 09:22:52.42	47.44	17.22	
2025-01-14 09:22:52.62	47.38	17.22	
2025-01-14 09:22:52.82	47.33	17.22	
2025-01-14 09:22:53.03	47.27	17.22	
2025-01-14 09:22:53.24	47.22	17.22	
2025-01-14 09:22:53.44	47.17	17.23	
2025-01-14 09:22:53.65	47.11	17.23	
2025-01-14 09:22:53.85	47.06	17.23	
2025-01-14 09:22:54.06	47.00	17.23	
2025-01-14 09:22:54.26	46.95	17.23	
2025-01-14 09:22:54.47	46.89	17.23	
2025-01-14 09:22:54.67	46.84	17.24	
2025-01-14 09:22:54.88	46.79	17.24	
2025-01-14 09:22:55.08	46.73	17.24	
2025-01-14 09:22:55.29	46.68	17.24	
2025-01-14 09:22:55.50	46.62	17.24	
2025-01-14 09:22:55.70	46.57	17.24	
2025-01-14 09:22:55.91	46.51	17.24	
2025-01-14 09:22:56.11	46.46	17.25	
2025-01-14 09:22:56.32	46.40	17.25	
2025-01-14 09:22:56.52	46.35	17.25	
2025-01-14 09:22:56.73	46.30	17.25	
2025-01-14 09:22:56.93	46.24	17.25	
2025-01-14 09:22:57.13	46.19	17.25	
2025-01-14 09:22:57.34	46.13	17.25	
2025-01-14 09:22:57.54	46.08	17.25	
2025-01-14 09:22:57.75	46.03	17.26	
2025-01-14 09:22:57.95	45.97	17.26	
2025-01-14 09:22:58.16	45.92	17.26	
2025-01-14 09:22:58.36	45.86	17.26	
2025-01-14 09:22:58.57	45.81	17.26	
2025-01-14 09:22:58.78	45.75	17.26	
2025-01-14 09:22:58.98	45.70	17.26	
2025-01-14 09:22:59.20	45.64	17.26	
2025-01-14 09:22:59.41	45.59	17.26	
2025-01-14 09:22:59.61	45.53	17.27	
2025-01-14 09:22:59.82	45.48	17.27	
2025-01-14 09:23:00.03	45.42	17.27	
2025-01-14 09:23:00.24	45.37	17.27	
2025-01-14 09:23:00.45	45.31	17.27	
2025-01-14 09:23:00.65	45.26	17.27	
2025-01-14 09:23:00.86	45.20	17.27	
2025-01-14 09:23:01.07	45.15	17.27	
2025-01-14 09:23:01.27	45.09	17.27	
2025-01-14 09:23:01.48	45.04	17.27	
2025-01-14 09:23:01.68	44.98	17.27	
2025-01-14 09:23:01.89	44.93	17.27	
2025-01-14 09:23:02.10	44.87	17.27	
2025-01-14 09:23:02.30	44.82	17.28	
2025-01-14 09:23:02.51	44.76	17.28	
2025-01-14 09:23:02.71	44.71	17.28	
2025-01-14 09:23:02.92	44.66	17.28	
2025-01-14 09:23:03.12	44.60	17.28	
2025-01-14 09:23:03.32	44.55	17.28	
2025-01-14 09:23:03.53	44.49	17.28	
2025-01-14 09:23:03.74	44.44	17.28	
2025-01-14 09:23:03.96	44.38	17.28	
2025-01-14 09:23:04.16	44.33	17.28	
2025-01-14 09:23:04.37	44.27	17.28	
2025-01-14 09:23:04.57	44.22	17.28	
2025-01-14 09:23:04.78	44.16	17.28	
2025-01-14 09:23:04.98	44.11	17.28	
2025-01-14 09:23:05.19	44.05	17.28	
2025-01-14 09:23:05.40	44.00	17.28	
2025-01-14 09:23:05.61	43.94	17.28	
2025-01-14 09:23:05.82	43.89	17.28	
2025-01-14 09:23:06.03	43.83	17.28	
2025-01-14 09:23:06.23	43.78	17.28	
2025-01-14 09:23:06.44	43.72	17.28	
2025-01-14 09:23:06.64	43.67	17.28	
2025-01-14 09:23:06.85	43.61	17.28	
2025-01-14 09:23:07.05	43.56	17.28	
2025-01-14 09:23:07.26	43.50	17.28	
2025-01-14 09:23:07.47	43.45	17.28	
2025-01-14 09:23:07.68	43.39	17.28	
2025-01-14 09:23:07.89	43.34	17.28	
2025-01-14 09:23:08.09	43.28	17.28	
2025-01-14 09:23:08.30	43.23	17.28	
2025-01-14 09:23:08.50	43.18	17.28	
2025-01-14 09:23:08.71	43.12	17.28	
2025-01-14 09:23:08.91	43.07	17.28	
2025-01-14 09:23:09.12	43.01	17.28	
2025-01-14 09:23:09.33	42.96	17.28	
2025-01-14 09:23:09.53	42.90	17.28	
2025-01-14 09:23:09.73	42.85	17.28	
2025-01-14 09:23:09.94	42.79	17.28	
2025-01-14 09:23:10.14	42.74	17.28	
2025-01-14 09:23:10.35	42.68	17.28	
2025-01-14 09:23:10.55	42.63	17.28	
2025-01-14 09:23:10.76	42.58	17.28	
2025-01-14 09:23:10.96	42.52	17.28	
2025-01-14 09:23:11.17	42.47	17.28	
2025-01-14 09:23:11.37	42.41	17.28	
2025-01-14 09:23:11.58	42.36	17.28	
2025-01-14 09:23:11.78	42.31	17.28	
2025-01-14 09:23:11.99	42.25	17.28	
2025-01-14 09:23:12.19	42.20	17.28	
2025-01-14 09:23:12.40	42.14	17.28	
2025-01-14 09:23:12.60	42.09	17.27	
2025-01-14 09:23:12.81	42.03	17.27	
2025-01-14 09:23:13.03	41.97	17.27	
2025-01-14 09:23:13.23	41.92	17.27	
2025-01-14 09:23:13.44	41.87	17.27	
2025-01-14 09:23:13.64	41.81	17.27	
2025-01-14 09:23:13.85	41.76	17.27	
2025-01-14 09:23:14.05	41.70	17.27	
2025-01-14 09:23:14.26	41.65	17.27	
2025-01-14 09:23:14.46	41.59	17.27	
2025-01-14 09:23:14.67	41.54	17.27	
2025-01-14 09:23:14.88	41.48	17.27	
2025-01-14 09:23:15.08	41.43	17.26	
2025-01-14 09:23:15.29	41.37	17.26	
2025-01-14 09:23:15.49	41.32	17.26	
2025-01-14 09:23:15.70	41.27	17.26	
2025-01-14 09:23:15.90	41.21	17.26	
2025-01-14 09:23:16.11	41.16	17.26	
2025-01-14 09:23:16.31	41.10	17.26	
2025-01-14 09:23:16.52	41.05	17.26	
2025-01-14 09:23:16.73	40.99	17.26	
2025-01-14 09:23:16.93	40.94	17.26	
2025-01-14 09:23:17.13	40.89	17.25	
2025-01-14 09:23:17.34	40.83	17.25	
2025-01-14 09:23:17.54	40.78	17.25	
2025-01-14 09:23:17.75	40.72	17.25	
2025-01-14 09:23:17.96	40.67	17.25	
2025-01-14 09:23:18.16	40.62	17.25	
2025-01-14 09:23:18.37	40.56	17.25	
2025-01-14 09:23:18.57	40.51	17.25	
2025-01-14 09:23:18.78	40.45	17.24	
2025-01-14 09:23:18.98	40.40	17.24	
2025-01-14 09:23:19.19	40.34	17.24	
2025-01-14 09:23:19.39	40.29	17.24	
2025-01-14 09:23:19.60	40.23	17.24	
2025-01-14 09:23:19.80	40.18	17.24	
2025-01-14 09:23:20.01	40.13	17.23	
2025-01-14 09:23:20.22	40.07	17.23	
2025-01-14 09:23:20.42	40.02	17.23	
2025-01-14 09:23:20.63	39.96	17.23	
2025-01-14 09:23:20.83	39.91	17.23	
2025-01-14 09:23:21.04	39.85	17.23	
2025-01-14 09:23:21.24	39.80	17.22	
2025-01-14 09:23:21.45	39.75	17.22	
2025-01-14 09:23:21.65	39.69	17.22	
2025-01-14 09:23:21.86	39.64	17.22	
2025-01-14 09:23:22.07	39.58	17.22	
2025-01-14 09:23:22.27	39.53	17.22	
2025-01-14 09:23:22.48	39.47	17.21	
2025-01-14 09:23:22.68	39.42	17.21	
2025-01-14 09:23:22.89	39.37	17.21	
2025-01-14 09:23:23.09	39.31	17.21	
2025-01-14 09:23:23.30	39.26	17.21	
2025-01-14 09:23:23.50	39.20	17.20	
2025-01-14 09:23:23.71	39.15	17.20	
2025-01-14 09:23:23.91	39.10	17.20	
2025-01-14 09:23:24.12	39.04	17.20	
2025-01-14 09:23:24.33	38.99	17.20	
2025-01-14 09:23:24.53	38.93	17.19	
2025-01-14 09:23:24.75	38.87	17.19	
2025-01-14 09:23:24.96	38.82	17.19	
2025-01-14 09:23:25.17	38.76	17.19	
2025-01-14 09:23:25.37	38.71	17.19	
2025-01-14 09:23:25.58	38.66	17.18	
2025-01-14 09:23:25.78	38.60	17.18	
2025-01-14 09:23:25.99	38.55	17.18	
2025-01-14 09:23:26.19	38.50	17.18	
2025-01-14 09:23:26.40	38.44	17.17	
2025-01-14 09:23:26.60	38.39	17.17	
2025-01-14 09:23:26.81	38.33	17.17	
2025-01-14 09:23:27.01	38.28	17.17	
2025-01-14 09:23:27.22	38.22	17.16	
2025-01-14 09:23:27.42	38.17	17.16	
2025-01-14 09:23:27.63	38.12	17.16	
2025-01-14 09:23:27.83	38.06	17.16	
2025-01-14 09:23:28.04	38.01	17.15	
2025-01-14 09:23:28.24	37.96	17.15	
2025-01-14 09:23:28.45	37.90	17.15	
2025-01-14 09:23:28.65	37.85	17.15	
2025-01-14 09:23:28.86	37.79	17.14	
2025-01-14 09:23:29.06	37.74	17.14	
2025-01-14 09:23:29.27	37.69	17.14	
2025-01-14 09:23:29.48	37.63	17.14	
2025-01-14 09:23:29.68	37.58	17.13	
2025-01-14 09:23:29.89	37.52	17.13	
2025-01-14 09:23:30.09	37.47	17.13	
2025-01-14 09:23:30.30	37.42	17.13	
2025-01-14 09:23:30.51	37.36	17.12	
2025-01-14 09:23:30.71	37.31	17.12	
2025-01-14 09:23:30.92	37.25	17.12	
2025-01-14 09:23:31.12	37.20	17.11	
2025-01-14 09:23:31.32	37.15	17.11	
2025-01-14 09:23:31.53	37.09	17.11	
2025-01-14 09:23:31.73	37.04	17.11	
2025-01-14 09:23:31.94	36.99	17.10	
2025-01-14 09:23:32.14	36.93	17.10	
2025-01-14 09:23:32.35	36.88	17.10	
2025-01-14 09:23:32.55	36.83	17.09	
2025-01-14 09:23:32.76	36.77	17.09	
2025-01-14 09:23:32.96	36.72	17.09	
2025-01-14 09:23:33.17	36.66	17.08	
2025-01-14 09:23:33.37	36.61	17.08	
2025-01-14 09:23:33.58	36.56	17.08	
2025-01-14 09:23:33.79	36.50	17.07	
2025-01-14 09:23:33.99	36.45	17.07	
2025-01-14 09:23:34.19	36.40	17.07	
2025-01-14 09:23:34.40	36.34	17.06	
2025-01-14 09:23:34.60	36.29	17.06	
2025-01-14 09:23:34.81	36.24	17.06	
2025-01-14 09:23:35.01	36.18	17.05	
2025-01-14 09:23:35.22	36.13	17.05	
2025-01-14 09:23:35.42	36.08	17.05	
2025-01-14 09:23:35.63	36.02	17.04	
2025-01-14 09:23:35.83	35.97	17.04	
2025-01-14 09:23:36.04	35.91	17.04	
2025-01-14 09:23:36.25	35.86	17.03	
2025-01-14 09:23:36.45	35.81	17.03	
2025-01-14 09:23:36.66	35.75	17.03	
2025-01-14 09:23:36.86	35.70	17.02	
2025-01-14 09:23:37.07	35.65	17.02	
2025-01-14 09:23:37.28	35.59	17.02	
2025-01-14 09:23:37.49	35.54	17.01	
2025-01-14 09:23:37.69	35.48	17.01	
2025-01-14 09:23:37.90	35.43	17.01	
2025-01-14 09:23:38.11	35.38	17.00	
2025-01-14 09:23:38.31	35.32	17.00	
2025-01-14 09:23:38.52	35.27	16.99	
2025-01-14 09:23:38.72	35.22	16.99	
2025-01-14 09:23:38.93	35.16	16.99	
2025-01-14 09:23:39.13	35.11	16.98	
2025-01-14 09:23:39.34	35.06	16.98	
2025-01-14 09:23:39.55	35.00	16.98	
2025-01-14 09:23:39.75	34.95	16.97	
2025-01-14 09:23:39.96	34.90	16.97	
2025-01-14 09:23:40.16	34.84	16.96	
2025-01-14 09:23:40.37	34.79	16.96	
2025-01-14 09:23:40.57	34.74	16.96	
2025-01-14 09:23:40.78	34.68	16.95	
2025-01-14 09:23:40.98	34.63	16.95	
2025-01-14 09:23:41.19	34.58	16.94	
2025-01-14 09:23:41.40	34.52	16.94	
2025-01-14 09:23:41.60	34.47	16.94	
2025-01-14 09:23:41.81	34.42	16.93	
2025-01-14 09:23:42.01	34.36	16.93	
2025-01-14 09:23:42.21	34.31	16.92	
2025-01-14 09:23:42.42	34.26	16.92	
2025-01-14 09:23:42.63	34.20	16.91	
2025-01-14 09:23:42.83	34.15	16.91	
2025-01-14 09:23:43.04	34.10	16.91	
2025-01-14 09:23:43.24	34.05	16.90	
2025-01-14 09:23:43.45	33.99	16.90	
2025-01-14 09:23:43.65	33.94	16.89	
2025-01-14 09:23:43.86	33.89	16.89	
2025-01-14 09:23:44.06	33.84	16.88	
2025-01-14 09:23:44.27	33.78	16.88	
2025-01-14 09:23:44.47	33.73	16.88	
2025-01-14 09:23:44.68	33.68	16.87	
2025-01-14 09:23:44.88	33.62	16.87	
2025-01-14 09:23:45.09	33.57	16.86	
2025-01-14 09:23:45.30	33.52	16.86	
2025-01-14 09:23:45.50	33.46	16.85	
2025-01-14 09:23:45.71	33.41	16.85	
2025-01-14 09:23:45.91	33.36	16.84	
2025-01-14 09:23:46.12	33.31	16.84	
2025-01-14 09:23:46.32	33.25	16.83	
2025-01-14 09:23:46.53	33.20	16.83	
2025-01-14 09:23:46.74	33.15	16.83	
2025-01-14 09:23:46.94	33.09	16.82	
2025-01-14 09:23:47.14	33.04	16.82	
2025-01-14 09:23:47.35	32.99	16.81	
2025-01-14 09:23:47.56	32.94	16.81	
2025-01-14 09:23:47.76	32.88	16.80	
2025-01-14 09:23:47.97	32.83	16.80	
2025-01-14 09:23:48.17	32.78	16.79	
2025-01-14 09:23:48.38	32.73	16.79	
2025-01-14 09:23:48.58	32.67	16.78	
2025-01-14 09:23:48.79	32.62	16.78	
2025-01-14 09:23:48.99	32.57	16.77	
2025-01-14 09:23:49.20	32.52	16.77	
2025-01-14 09:23:49.40	32.47	16.76	
2025-01-14 09:23:49.61	32.41	16.76	
2025-01-14 09:23:49.82	32.36	16.75	
2025-01-14 09:23:50.02	32.31	16.75	
2025-01-14 09:23:50.23	32.25	16.74	
2025-01-14 09:23:50.43	32.20	16.74	
2025-01-14 09:23:50.64	32.15	16.73	
2025-01-14 09:23:50.84	32.10	16.73	
2025-01-14 09:23:51.05	32.04	16.72	
2025-01-14 09:23:51.26	31.99	16.72	
2025-01-14 09:23:51.46	31.94	16.71	
2025-01-14 09:23:51.67	31.89	16.71	
2025-01-14 09:23:51.87	31.84	16.70	
2025-01-14 09:23:52.08	31.78	16.70	
2025-01-14 09:23:52.29	31.73	16.69	
2025-01-14 09:23:52.49	31.68	16.69	
2025-01-14 09:23:52.70	31.62	16.68	
2025-01-14 09:23:52.90	31.57	16.67	
2025-01-14 09:23:53.11	31.52	16.67	
2025-01-14 09:23:53.31	31.47	16.66	
2025-01-14 09:23:53.52	31.42	16.66	
2025-01-14 09:23:53.72	31.37	16.65	
2025-01-14 09:23:53.93	31.31	16.65	
2025-01-14 09:23:54.13	31.26	16.64	
2025-01-14 09:23:54.34	31.21	16.64	
2025-01-14 09:23:54.54	31.16	16.63	
2025-01-14 09:23:54.75	31.10	16.63	
2025-01-14 09:23:54.95	31.05	16.62	
2025-01-14 09:23:55.16	31.00	16.61	
2025-01-14 09:23:55.37	30.95	16.61	
2025-01-14 09:23:55.57	30.90	16.60	
2025-01-14 09:23:55.77	30.85	16.60	
2025-01-14 09:23:55.98	30.79	16.59	
2025-01-14 09:23:56.18	30.74	16.59	
2025-01-14 09:23:56.39	30.69	16.58	
2025-01-14 09:23:56.59	30.64	16.58	
2025-01-14 09:23:56.80	30.59	16.57	
2025-01-14 09:23:57.00	30.54	16.56	
2025-01-14 09:23:57.21	30.48	16.56	
2025-01-14 09:23:57.42	30.43	16.55	
2025-01-14 09:23:57.62	30.38	16.55	
2025-01-14 09:23:57.83	30.33	16.54	
2025-01-14 09:23:58.03	30.28	16.53	
2025-01-14 09:23:58.24	30.22	16.53	
2025-01-14 09:23:58.45	30.17	16.52	
2025-01-14 09:23:58.65	30.12	16.52	
2025-01-14 09:23:58.85	30.07	16.51	
2025-01-14 09:23:59.06	30.02	16.51	
2025-01-14 09:23:59.27	29.97	16.50	
2025-01-14 09:23:59.47	29.92	16.49	
2025-01-14 09:23:59.68	29.86	16.49	
2025-01-14 09:23:59.88	29.81	16.48	
2025-01-14 09:24:00.09	29.76	16.47	
2025-01-14 09:24:00.29	29.71	16.47	
2025-01-14 09:24:00.50	29.66	16.46	
2025-01-14 09:24:00.70	29.61	16.46	
2025-01-14 09:24:00.91	29.56	16.45	
2025-01-14 09:24:01.11	29.51	16.44	
2025-01-14 09:24:01.32	29.45	16.44	
2025-01-14 09:24:01.52	29.40	16.43	
2025-01-14 09:24:01.73	29.35	16.43	
2025-01-14 09:24:01.93	29.30	16.42	
2025-01-14 09:24:02.14	29.25	16.41	
2025-01-14 09:24:02.34	29.20	16.41	
2025-01-14 09:24:02.55	29.15	16.40	
2025-01-14 09:24:02.75	29.10	16.39	
2025-01-14 09:24:02.96	29.04	16.39	
2025-01-14 09:24:03.18	28.99	16.38	
2025-01-14 09:24:03.38	28.94	16.37	
2025-01-14 09:24:03.59	28.89	16.37	
2025-01-14 09:24:03.79	28.84	16.36	
2025-01-14 09:24:04.00	28.79	16.36	
2025-01-14 09:24:04.21	28.73	16.35	
2025-01-14 09:24:04.41	28.68	16.34	
2025-01-14 09:24:04.62	28.63	16.34	
2025-01-14 09:24:04.82	28.58	16.33	
2025-01-14 09:24:05.03	28.53	16.32	
2025-01-14 09:24:05.23	28.48	16.32	
2025-01-14 09:24:05.44	28.43	16.31	
