passes_logs/2025/01/14/SPB_Silybum_02/SPB_Silybum_02__20250114_084518_SUOMI_NPP_rec.log

#Pass ID: 20250114_084518_SUOMI NPP
#Satellite: SUOMI NPP
#Configuration: NPP
#Start time: 2025-01-14 08:45:19

#Version: 2.0.20230423
#Station: SPB_Silybum_02
#Location: 30.233357 lon 59.946436 lat
#TLE: 1 37849U 11061A   25013.79210654  .00000158  00000+0  95823-4 0  9999
#TLE: 2 37849  98.7445 314.7959 0001726  42.6053 317.5257 14.19537607684746

#Time	Az	El	Level	Level2	SNR	BER	Gain	Gain2
2025-01-14 08:45:21.70	115.44	4.17	
2025-01-14 08:45:21.90	115.43	4.19	
2025-01-14 08:45:22.11	115.42	4.20	
2025-01-14 08:45:22.31	115.40	4.21	
2025-01-14 08:45:22.52	115.39	4.23	
2025-01-14 08:45:22.72	115.38	4.24	
2025-01-14 08:45:22.93	115.37	4.25	
2025-01-14 08:45:23.13	115.35	4.27	
2025-01-14 08:45:23.34	115.34	4.28	
2025-01-14 08:45:23.54	115.33	4.29	
2025-01-14 08:45:23.75	115.32	4.30	
2025-01-14 08:45:23.96	115.30	4.32	
2025-01-14 08:45:24.16	115.29	4.33	
2025-01-14 08:45:24.37	115.28	4.34	
2025-01-14 08:45:24.57	115.27	4.36	
2025-01-14 08:45:24.78	115.25	4.37	
2025-01-14 08:45:24.98	115.24	4.38	
2025-01-14 08:45:25.19	115.23	4.40	
2025-01-14 08:45:25.40	115.21	4.41	
2025-01-14 08:45:25.60	115.20	4.42	
2025-01-14 08:45:25.80	115.19	4.44	
2025-01-14 08:45:26.01	115.18	4.45	
2025-01-14 08:45:26.22	115.16	4.46	
2025-01-14 08:45:26.42	115.15	4.47	
2025-01-14 08:45:26.63	115.14	4.49	
2025-01-14 08:45:26.83	115.12	4.50	
2025-01-14 08:45:27.04	115.11	4.51	
2025-01-14 08:45:27.24	115.10	4.53	
2025-01-14 08:45:27.45	115.09	4.54	
2025-01-14 08:45:27.65	115.07	4.55	
2025-01-14 08:45:27.87	115.06	4.57	
2025-01-14 08:45:28.07	115.05	4.58	
2025-01-14 08:45:28.28	115.03	4.59	
2025-01-14 08:45:28.49	115.02	4.61	
2025-01-14 08:45:28.69	115.01	4.62	
2025-01-14 08:45:28.90	114.99	4.63	
2025-01-14 08:45:29.10	114.98	4.65	
2025-01-14 08:45:29.31	114.97	4.66	
2025-01-14 08:45:29.52	114.96	4.67	
2025-01-14 08:45:29.72	114.94	4.69	
2025-01-14 08:45:29.92	114.93	4.70	
2025-01-14 08:45:30.13	114.92	4.71	
2025-01-14 08:45:30.33	114.90	4.73	
2025-01-14 08:45:30.54	114.89	4.74	
2025-01-14 08:45:30.74	114.88	4.75	
2025-01-14 08:45:30.95	114.86	4.77	
2025-01-14 08:45:31.15	114.85	4.78	
2025-01-14 08:45:31.36	114.84	4.79	
2025-01-14 08:45:31.56	114.83	4.80	
2025-01-14 08:45:31.77	114.81	4.82	
2025-01-14 08:45:31.97	114.80	4.83	
2025-01-14 08:45:32.19	114.79	4.84	
2025-01-14 08:45:32.40	114.77	4.86	
2025-01-14 08:45:32.60	114.76	4.87	
2025-01-14 08:45:32.81	114.75	4.88	
2025-01-14 08:45:33.02	114.73	4.90	
2025-01-14 08:45:33.22	114.72	4.91	
2025-01-14 08:45:33.42	114.71	4.92	
2025-01-14 08:45:33.63	114.69	4.94	
2025-01-14 08:45:33.83	114.68	4.95	
2025-01-14 08:45:34.04	114.67	4.96	
2025-01-14 08:45:34.24	114.65	4.98	
2025-01-14 08:45:34.45	114.64	4.99	
2025-01-14 08:45:34.67	114.63	5.01	
2025-01-14 08:45:34.87	114.61	5.02	
2025-01-14 08:45:35.07	114.60	5.03	
2025-01-14 08:45:35.28	114.59	5.04	
2025-01-14 08:45:35.48	114.57	5.06	
2025-01-14 08:45:35.69	114.56	5.07	
2025-01-14 08:45:35.89	114.55	5.08	
2025-01-14 08:45:36.10	114.53	5.10	
2025-01-14 08:45:36.30	114.52	5.11	
2025-01-14 08:45:36.51	114.51	5.12	
2025-01-14 08:45:36.71	114.49	5.14	
2025-01-14 08:45:36.93	114.48	5.15	
2025-01-14 08:45:37.13	114.46	5.17	
2025-01-14 08:45:37.34	114.45	5.18	
2025-01-14 08:45:37.54	114.44	5.19	
2025-01-14 08:45:37.75	114.42	5.21	
2025-01-14 08:45:37.95	114.41	5.22	
2025-01-14 08:45:38.16	114.40	5.23	
2025-01-14 08:45:38.38	114.38	5.25	
2025-01-14 08:45:38.58	114.37	5.26	
2025-01-14 08:45:38.79	114.36	5.27	
2025-01-14 08:45:38.99	114.34	5.29	
2025-01-14 08:45:39.20	114.33	5.30	
2025-01-14 08:45:39.40	114.32	5.31	
2025-01-14 08:45:39.60	114.30	5.33	
2025-01-14 08:45:39.81	114.29	5.34	
2025-01-14 08:45:40.02	114.27	5.35	
2025-01-14 08:45:40.22	114.26	5.37	
2025-01-14 08:45:40.43	114.25	5.38	
2025-01-14 08:45:40.64	114.23	5.39	
2025-01-14 08:45:40.85	114.22	5.41	
2025-01-14 08:45:41.05	114.21	5.42	
2025-01-14 08:45:41.26	114.19	5.44	
2025-01-14 08:45:41.47	114.18	5.45	
2025-01-14 08:45:41.67	114.16	5.46	
2025-01-14 08:45:41.87	114.15	5.48	
2025-01-14 08:45:42.08	114.14	5.49	
2025-01-14 08:45:42.29	114.12	5.50	
2025-01-14 08:45:42.49	114.11	5.52	
2025-01-14 08:45:42.70	114.09	5.53	
2025-01-14 08:45:42.90	114.08	5.54	
2025-01-14 08:45:43.11	114.07	5.56	
2025-01-14 08:45:43.31	114.05	5.57	
2025-01-14 08:45:43.52	114.04	5.58	
2025-01-14 08:45:43.73	114.03	5.60	
2025-01-14 08:45:43.94	114.01	5.61	
2025-01-14 08:45:44.15	114.00	5.63	
2025-01-14 08:45:44.36	113.98	5.64	
2025-01-14 08:45:44.56	113.97	5.65	
2025-01-14 08:45:44.77	113.95	5.67	
2025-01-14 08:45:44.97	113.94	5.68	
2025-01-14 08:45:45.18	113.93	5.69	
2025-01-14 08:45:45.38	113.91	5.71	
2025-01-14 08:45:45.59	113.90	5.72	
2025-01-14 08:45:45.80	113.88	5.73	
2025-01-14 08:45:46.00	113.87	5.75	
2025-01-14 08:45:46.20	113.86	5.76	
2025-01-14 08:45:46.41	113.84	5.78	
2025-01-14 08:45:46.61	113.83	5.79	
2025-01-14 08:45:46.82	113.81	5.80	
2025-01-14 08:45:47.02	113.80	5.82	
2025-01-14 08:45:47.23	113.79	5.83	
2025-01-14 08:45:47.43	113.77	5.84	
2025-01-14 08:45:47.64	113.76	5.86	
2025-01-14 08:45:47.85	113.74	5.87	
2025-01-14 08:45:48.05	113.73	5.88	
2025-01-14 08:45:48.26	113.72	5.90	
2025-01-14 08:45:48.46	113.70	5.91	
2025-01-14 08:45:48.67	113.69	5.93	
2025-01-14 08:45:48.87	113.67	5.94	
2025-01-14 08:45:49.08	113.66	5.95	
2025-01-14 08:45:49.28	113.65	5.97	
2025-01-14 08:45:49.49	113.63	5.98	
2025-01-14 08:45:49.69	113.62	5.99	
2025-01-14 08:45:49.90	113.60	6.01	
2025-01-14 08:45:50.11	113.59	6.02	
2025-01-14 08:45:50.31	113.57	6.03	
2025-01-14 08:45:50.52	113.56	6.05	
2025-01-14 08:45:50.72	113.54	6.06	
2025-01-14 08:45:50.93	113.53	6.08	
2025-01-14 08:45:51.13	113.52	6.09	
2025-01-14 08:45:51.34	113.50	6.10	
2025-01-14 08:45:51.54	113.49	6.12	
2025-01-14 08:45:51.75	113.47	6.13	
2025-01-14 08:45:51.95	113.46	6.14	
2025-01-14 08:45:52.16	113.44	6.16	
2025-01-14 08:45:52.36	113.43	6.17	
2025-01-14 08:45:52.57	113.41	6.19	
2025-01-14 08:45:52.77	113.40	6.20	
2025-01-14 08:45:52.98	113.39	6.21	
2025-01-14 08:45:53.19	113.37	6.23	
2025-01-14 08:45:53.39	113.36	6.24	
2025-01-14 08:45:53.60	113.34	6.26	
2025-01-14 08:45:53.80	113.33	6.27	
2025-01-14 08:45:54.01	113.31	6.28	
2025-01-14 08:45:54.21	113.30	6.30	
2025-01-14 08:45:54.42	113.28	6.31	
2025-01-14 08:45:54.62	113.27	6.32	
2025-01-14 08:45:54.83	113.25	6.34	
2025-01-14 08:45:55.03	113.24	6.35	
2025-01-14 08:45:55.24	113.23	6.37	
2025-01-14 08:45:55.44	113.21	6.38	
2025-01-14 08:45:55.65	113.20	6.39	
2025-01-14 08:45:55.85	113.18	6.41	
2025-01-14 08:45:56.06	113.17	6.42	
2025-01-14 08:45:56.26	113.15	6.43	
2025-01-14 08:45:56.47	113.14	6.45	
2025-01-14 08:45:56.67	113.12	6.46	
2025-01-14 08:45:56.88	113.11	6.48	
2025-01-14 08:45:57.08	113.09	6.49	
2025-01-14 08:45:57.29	113.08	6.50	
2025-01-14 08:45:57.49	113.06	6.52	
2025-01-14 08:45:57.70	113.05	6.53	
2025-01-14 08:45:57.90	113.03	6.55	
2025-01-14 08:45:58.11	113.02	6.56	
2025-01-14 08:45:58.32	113.00	6.57	
2025-01-14 08:45:58.52	112.99	6.59	
2025-01-14 08:45:58.73	112.97	6.60	
2025-01-14 08:45:58.93	112.96	6.62	
2025-01-14 08:45:59.14	112.94	6.63	
2025-01-14 08:45:59.35	112.93	6.64	
2025-01-14 08:45:59.55	112.91	6.66	
2025-01-14 08:45:59.76	112.90	6.67	
2025-01-14 08:45:59.96	112.88	6.69	
2025-01-14 08:46:00.16	112.87	6.70	
2025-01-14 08:46:00.37	112.85	6.71	
2025-01-14 08:46:00.57	112.84	6.73	
2025-01-14 08:46:00.78	112.82	6.74	
2025-01-14 08:46:01.00	112.81	6.76	
2025-01-14 08:46:01.20	112.79	6.77	
2025-01-14 08:46:01.41	112.78	6.79	
2025-01-14 08:46:01.61	112.76	6.80	
2025-01-14 08:46:01.82	112.75	6.81	
2025-01-14 08:46:02.02	112.73	6.83	
2025-01-14 08:46:02.23	112.72	6.84	
2025-01-14 08:46:02.43	112.70	6.85	
2025-01-14 08:46:02.64	112.69	6.87	
2025-01-14 08:46:02.85	112.67	6.88	
2025-01-14 08:46:03.07	112.66	6.90	
2025-01-14 08:46:03.27	112.64	6.91	
2025-01-14 08:46:03.48	112.62	6.93	
2025-01-14 08:46:03.68	112.61	6.94	
2025-01-14 08:46:03.89	112.59	6.95	
2025-01-14 08:46:04.09	112.58	6.97	
2025-01-14 08:46:04.30	112.56	6.98	
2025-01-14 08:46:04.51	112.55	7.00	
2025-01-14 08:46:04.71	112.53	7.01	
2025-01-14 08:46:04.92	112.52	7.03	
2025-01-14 08:46:05.12	112.50	7.04	
2025-01-14 08:46:05.32	112.49	7.05	
2025-01-14 08:46:05.53	112.47	7.07	
2025-01-14 08:46:05.73	112.46	7.08	
2025-01-14 08:46:05.94	112.44	7.10	
2025-01-14 08:46:06.15	112.43	7.11	
2025-01-14 08:46:06.37	112.41	7.13	
2025-01-14 08:46:06.57	112.39	7.14	
2025-01-14 08:46:06.78	112.38	7.15	
2025-01-14 08:46:06.98	112.36	7.17	
2025-01-14 08:46:07.19	112.35	7.18	
2025-01-14 08:46:07.39	112.33	7.20	
2025-01-14 08:46:07.60	112.32	7.21	
2025-01-14 08:46:07.80	112.30	7.22	
2025-01-14 08:46:08.01	112.28	7.24	
2025-01-14 08:46:08.21	112.27	7.25	
2025-01-14 08:46:08.42	112.25	7.27	
2025-01-14 08:46:08.62	112.24	7.28	
2025-01-14 08:46:08.83	112.22	7.30	
2025-01-14 08:46:09.03	112.21	7.31	
2025-01-14 08:46:09.24	112.19	7.32	
2025-01-14 08:46:09.44	112.18	7.34	
2025-01-14 08:46:09.65	112.16	7.35	
2025-01-14 08:46:09.86	112.14	7.37	
2025-01-14 08:46:10.06	112.13	7.38	
2025-01-14 08:46:10.27	112.11	7.40	
2025-01-14 08:46:10.47	112.10	7.41	
2025-01-14 08:46:10.68	112.08	7.42	
2025-01-14 08:46:10.88	112.06	7.44	
2025-01-14 08:46:11.09	112.05	7.45	
2025-01-14 08:46:11.29	112.03	7.47	
2025-01-14 08:46:11.50	112.02	7.48	
2025-01-14 08:46:11.70	112.00	7.50	
2025-01-14 08:46:11.91	111.99	7.51	
2025-01-14 08:46:12.11	111.97	7.52	
2025-01-14 08:46:12.32	111.95	7.54	
2025-01-14 08:46:12.52	111.94	7.55	
2025-01-14 08:46:12.74	111.92	7.57	
2025-01-14 08:46:12.95	111.90	7.58	
2025-01-14 08:46:13.15	111.89	7.60	
2025-01-14 08:46:13.36	111.87	7.61	
2025-01-14 08:46:13.56	111.86	7.63	
2025-01-14 08:46:13.78	111.84	7.64	
2025-01-14 08:46:13.99	111.82	7.66	
2025-01-14 08:46:14.19	111.81	7.67	
2025-01-14 08:46:14.40	111.79	7.68	
2025-01-14 08:46:14.60	111.78	7.70	
2025-01-14 08:46:14.81	111.76	7.71	
2025-01-14 08:46:15.01	111.74	7.73	
2025-01-14 08:46:15.22	111.73	7.74	
2025-01-14 08:46:15.43	111.71	7.76	
2025-01-14 08:46:15.63	111.69	7.77	
2025-01-14 08:46:15.84	111.68	7.79	
2025-01-14 08:46:16.04	111.66	7.80	
2025-01-14 08:46:16.25	111.65	7.81	
2025-01-14 08:46:16.45	111.63	7.83	
2025-01-14 08:46:16.66	111.61	7.84	
2025-01-14 08:46:16.87	111.60	7.86	
2025-01-14 08:46:17.07	111.58	7.87	
2025-01-14 08:46:17.28	111.56	7.89	
2025-01-14 08:46:17.48	111.55	7.90	
2025-01-14 08:46:17.69	111.53	7.92	
2025-01-14 08:46:17.90	111.51	7.93	
2025-01-14 08:46:18.10	111.50	7.94	
2025-01-14 08:46:18.30	111.48	7.96	
2025-01-14 08:46:18.51	111.47	7.97	
2025-01-14 08:46:18.71	111.45	7.99	
2025-01-14 08:46:18.92	111.43	8.00	
2025-01-14 08:46:19.12	111.42	8.02	
2025-01-14 08:46:19.33	111.40	8.03	
2025-01-14 08:46:19.54	111.38	8.05	
2025-01-14 08:46:19.74	111.37	8.06	
2025-01-14 08:46:19.95	111.35	8.08	
2025-01-14 08:46:20.15	111.33	8.09	
2025-01-14 08:46:20.36	111.32	8.10	
2025-01-14 08:46:20.56	111.30	8.12	
2025-01-14 08:46:20.77	111.28	8.13	
2025-01-14 08:46:20.98	111.27	8.15	
2025-01-14 08:46:21.18	111.25	8.16	
2025-01-14 08:46:21.38	111.23	8.18	
2025-01-14 08:46:21.59	111.22	8.19	
2025-01-14 08:46:21.80	111.20	8.21	
2025-01-14 08:46:22.00	111.18	8.22	
2025-01-14 08:46:22.21	111.17	8.24	
2025-01-14 08:46:22.41	111.15	8.25	
2025-01-14 08:46:22.62	111.13	8.27	
2025-01-14 08:46:22.82	111.12	8.28	
2025-01-14 08:46:23.03	111.10	8.29	
2025-01-14 08:46:23.23	111.08	8.31	
2025-01-14 08:46:23.44	111.07	8.32	
2025-01-14 08:46:23.64	111.05	8.34	
2025-01-14 08:46:23.85	111.03	8.35	
2025-01-14 08:46:24.06	111.01	8.37	
2025-01-14 08:46:24.26	111.00	8.38	
2025-01-14 08:46:24.47	110.98	8.40	
2025-01-14 08:46:24.67	110.96	8.41	
2025-01-14 08:46:24.88	110.95	8.43	
2025-01-14 08:46:25.08	110.93	8.44	
2025-01-14 08:46:25.29	110.91	8.46	
2025-01-14 08:46:25.51	110.89	8.47	
2025-01-14 08:46:25.71	110.88	8.49	
2025-01-14 08:46:25.92	110.86	8.50	
2025-01-14 08:46:26.12	110.84	8.52	
2025-01-14 08:46:26.33	110.83	8.53	
2025-01-14 08:46:26.53	110.81	8.55	
2025-01-14 08:46:26.74	110.79	8.56	
2025-01-14 08:46:26.94	110.78	8.57	
2025-01-14 08:46:27.15	110.76	8.59	
2025-01-14 08:46:27.36	110.74	8.60	
2025-01-14 08:46:27.56	110.72	8.62	
2025-01-14 08:46:27.77	110.71	8.63	
2025-01-14 08:46:27.97	110.69	8.65	
2025-01-14 08:46:28.18	110.67	8.66	
2025-01-14 08:46:28.38	110.66	8.68	
2025-01-14 08:46:28.59	110.64	8.69	
2025-01-14 08:46:28.79	110.62	8.71	
2025-01-14 08:46:29.00	110.60	8.72	
2025-01-14 08:46:29.20	110.59	8.74	
2025-01-14 08:46:29.41	110.57	8.75	
2025-01-14 08:46:29.62	110.55	8.77	
2025-01-14 08:46:29.82	110.53	8.78	
2025-01-14 08:46:30.02	110.52	8.80	
2025-01-14 08:46:30.23	110.50	8.81	
2025-01-14 08:46:30.44	110.48	8.83	
2025-01-14 08:46:30.64	110.46	8.84	
2025-01-14 08:46:30.85	110.45	8.86	
2025-01-14 08:46:31.05	110.43	8.87	
2025-01-14 08:46:31.26	110.41	8.89	
2025-01-14 08:46:31.46	110.39	8.90	
2025-01-14 08:46:31.67	110.38	8.92	
2025-01-14 08:46:31.88	110.36	8.93	
2025-01-14 08:46:32.08	110.34	8.95	
2025-01-14 08:46:32.29	110.32	8.96	
2025-01-14 08:46:32.49	110.31	8.98	
2025-01-14 08:46:32.70	110.29	8.99	
2025-01-14 08:46:32.90	110.27	9.01	
2025-01-14 08:46:33.11	110.25	9.02	
2025-01-14 08:46:33.31	110.23	9.04	
2025-01-14 08:46:33.52	110.22	9.05	
2025-01-14 08:46:33.72	110.20	9.07	
2025-01-14 08:46:33.93	110.18	9.08	
2025-01-14 08:46:34.14	110.16	9.10	
2025-01-14 08:46:34.34	110.15	9.11	
2025-01-14 08:46:34.55	110.13	9.13	
2025-01-14 08:46:34.75	110.11	9.14	
2025-01-14 08:46:34.96	110.09	9.16	
2025-01-14 08:46:35.17	110.07	9.17	
2025-01-14 08:46:35.38	110.06	9.19	
2025-01-14 08:46:35.58	110.04	9.20	
2025-01-14 08:46:35.79	110.02	9.22	
2025-01-14 08:46:36.00	110.00	9.23	
2025-01-14 08:46:36.21	109.98	9.25	
2025-01-14 08:46:36.42	109.96	9.26	
2025-01-14 08:46:36.62	109.95	9.28	
2025-01-14 08:46:36.83	109.93	9.29	
2025-01-14 08:46:37.04	109.91	9.31	
2025-01-14 08:46:37.24	109.89	9.32	
2025-01-14 08:46:37.44	109.87	9.34	
2025-01-14 08:46:37.65	109.86	9.35	
2025-01-14 08:46:37.85	109.84	9.37	
2025-01-14 08:46:38.06	109.82	9.38	
2025-01-14 08:46:38.26	109.80	9.40	
2025-01-14 08:46:38.47	109.78	9.41	
2025-01-14 08:46:38.67	109.77	9.43	
2025-01-14 08:46:38.88	109.75	9.44	
2025-01-14 08:46:39.08	109.73	9.46	
2025-01-14 08:46:39.29	109.71	9.47	
2025-01-14 08:46:39.49	109.69	9.49	
2025-01-14 08:46:39.70	109.67	9.50	
2025-01-14 08:46:39.90	109.66	9.52	
2025-01-14 08:46:40.11	109.64	9.54	
2025-01-14 08:46:40.31	109.62	9.55	
2025-01-14 08:46:40.52	109.60	9.57	
2025-01-14 08:46:40.72	109.58	9.58	
2025-01-14 08:46:40.93	109.56	9.60	
2025-01-14 08:46:41.14	109.55	9.61	
2025-01-14 08:46:41.34	109.53	9.63	
2025-01-14 08:46:41.55	109.51	9.64	
2025-01-14 08:46:41.75	109.49	9.66	
2025-01-14 08:46:41.96	109.47	9.67	
2025-01-14 08:46:42.16	109.45	9.69	
2025-01-14 08:46:42.37	109.43	9.70	
2025-01-14 08:46:42.58	109.42	9.72	
2025-01-14 08:46:42.78	109.40	9.73	
2025-01-14 08:46:42.99	109.38	9.75	
2025-01-14 08:46:43.19	109.36	9.76	
2025-01-14 08:46:43.40	109.34	9.78	
2025-01-14 08:46:43.60	109.32	9.79	
2025-01-14 08:46:43.81	109.30	9.81	
2025-01-14 08:46:44.02	109.28	9.83	
2025-01-14 08:46:44.22	109.27	9.84	
2025-01-14 08:46:44.43	109.25	9.86	
2025-01-14 08:46:44.63	109.23	9.87	
2025-01-14 08:46:44.84	109.21	9.89	
2025-01-14 08:46:45.04	109.19	9.90	
2025-01-14 08:46:45.24	109.17	9.92	
2025-01-14 08:46:45.45	109.15	9.93	
2025-01-14 08:46:45.65	109.14	9.95	
2025-01-14 08:46:45.86	109.12	9.96	
2025-01-14 08:46:46.06	109.10	9.98	
2025-01-14 08:46:46.27	109.08	9.99	
2025-01-14 08:46:46.47	109.06	10.01	
2025-01-14 08:46:46.68	109.04	10.02	
2025-01-14 08:46:46.90	109.02	10.04	
2025-01-14 08:46:47.10	109.00	10.06	
2025-01-14 08:46:47.31	108.98	10.07	
2025-01-14 08:46:47.52	108.96	10.09	
2025-01-14 08:46:47.72	108.94	10.10	
2025-01-14 08:46:47.93	108.92	10.12	
2025-01-14 08:46:48.13	108.91	10.13	
2025-01-14 08:46:48.34	108.89	10.15	
2025-01-14 08:46:48.54	108.87	10.16	
2025-01-14 08:46:48.75	108.85	10.18	
2025-01-14 08:46:48.95	108.83	10.19	
2025-01-14 08:46:49.16	108.81	10.21	
2025-01-14 08:46:49.36	108.79	10.23	
2025-01-14 08:46:49.57	108.77	10.24	
2025-01-14 08:46:49.78	108.75	10.26	
2025-01-14 08:46:49.98	108.73	10.27	
2025-01-14 08:46:50.18	108.71	10.29	
2025-01-14 08:46:50.39	108.69	10.30	
2025-01-14 08:46:50.60	108.67	10.32	
2025-01-14 08:46:50.80	108.65	10.33	
2025-01-14 08:46:51.01	108.64	10.35	
2025-01-14 08:46:51.21	108.62	10.36	
2025-01-14 08:46:51.42	108.60	10.38	
2025-01-14 08:46:51.62	108.58	10.40	
2025-01-14 08:46:51.83	108.56	10.41	
2025-01-14 08:46:52.04	108.54	10.43	
2025-01-14 08:46:52.25	108.52	10.44	
2025-01-14 08:46:52.46	108.50	10.46	
2025-01-14 08:46:52.66	108.48	10.47	
2025-01-14 08:46:52.87	108.46	10.49	
2025-01-14 08:46:53.08	108.44	10.51	
2025-01-14 08:46:53.28	108.42	10.52	
2025-01-14 08:46:53.49	108.40	10.54	
2025-01-14 08:46:53.69	108.38	10.55	
2025-01-14 08:46:53.90	108.36	10.57	
2025-01-14 08:46:54.10	108.34	10.58	
2025-01-14 08:46:54.31	108.32	10.60	
2025-01-14 08:46:54.51	108.30	10.62	
2025-01-14 08:46:54.72	108.28	10.63	
2025-01-14 08:46:54.92	108.26	10.65	
2025-01-14 08:46:55.13	108.24	10.66	
2025-01-14 08:46:55.35	108.22	10.68	
2025-01-14 08:46:55.55	108.20	10.69	
2025-01-14 08:46:55.76	108.18	10.71	
2025-01-14 08:46:55.96	108.16	10.73	
2025-01-14 08:46:56.17	108.14	10.74	
2025-01-14 08:46:56.37	108.12	10.76	
2025-01-14 08:46:56.58	108.10	10.77	
2025-01-14 08:46:56.79	108.08	10.79	
2025-01-14 08:46:56.99	108.06	10.80	
2025-01-14 08:46:57.20	108.04	10.82	
2025-01-14 08:46:57.40	108.02	10.84	
2025-01-14 08:46:57.60	108.00	10.85	
2025-01-14 08:46:57.81	107.98	10.87	
2025-01-14 08:46:58.02	107.96	10.88	
2025-01-14 08:46:58.23	107.94	10.90	
2025-01-14 08:46:58.43	107.92	10.91	
2025-01-14 08:46:58.63	107.90	10.93	
2025-01-14 08:46:58.84	107.88	10.95	
2025-01-14 08:46:59.05	107.86	10.96	
2025-01-14 08:46:59.25	107.84	10.98	
2025-01-14 08:46:59.46	107.82	10.99	
2025-01-14 08:46:59.66	107.80	11.01	
2025-01-14 08:46:59.87	107.78	11.03	
2025-01-14 08:47:00.07	107.76	11.04	
2025-01-14 08:47:00.28	107.74	11.06	
2025-01-14 08:47:00.48	107.72	11.07	
2025-01-14 08:47:00.68	107.70	11.09	
2025-01-14 08:47:00.89	107.67	11.10	
2025-01-14 08:47:01.09	107.65	11.12	
2025-01-14 08:47:01.30	107.63	11.14	
2025-01-14 08:47:01.50	107.61	11.15	
2025-01-14 08:47:01.71	107.59	11.17	
2025-01-14 08:47:01.93	107.57	11.18	
2025-01-14 08:47:02.13	107.55	11.20	
2025-01-14 08:47:02.34	107.53	11.22	
2025-01-14 08:47:02.54	107.51	11.23	
2025-01-14 08:47:02.75	107.49	11.25	
2025-01-14 08:47:02.95	107.47	11.26	
2025-01-14 08:47:03.16	107.45	11.28	
2025-01-14 08:47:03.37	107.43	11.30	
2025-01-14 08:47:03.57	107.41	11.31	
2025-01-14 08:47:03.78	107.38	11.33	
2025-01-14 08:47:04.00	107.36	11.34	
2025-01-14 08:47:04.20	107.34	11.36	
2025-01-14 08:47:04.41	107.32	11.38	
2025-01-14 08:47:04.61	107.30	11.39	
2025-01-14 08:47:04.82	107.28	11.41	
2025-01-14 08:47:05.02	107.26	11.42	
2025-01-14 08:47:05.23	107.24	11.44	
2025-01-14 08:47:05.43	107.22	11.46	
2025-01-14 08:47:05.64	107.19	11.47	
2025-01-14 08:47:05.84	107.17	11.49	
2025-01-14 08:47:06.05	107.15	11.50	
2025-01-14 08:47:06.25	107.13	11.52	
2025-01-14 08:47:06.46	107.11	11.54	
2025-01-14 08:47:06.66	107.09	11.55	
2025-01-14 08:47:06.87	107.07	11.57	
2025-01-14 08:47:07.07	107.05	11.58	
2025-01-14 08:47:07.28	107.03	11.60	
2025-01-14 08:47:07.48	107.01	11.62	
2025-01-14 08:47:07.69	106.98	11.63	
2025-01-14 08:47:07.89	106.96	11.65	
2025-01-14 08:47:08.10	106.94	11.66	
2025-01-14 08:47:08.30	106.92	11.68	
2025-01-14 08:47:08.51	106.90	11.70	
2025-01-14 08:47:08.71	106.88	11.71	
2025-01-14 08:47:08.92	106.86	11.73	
2025-01-14 08:47:09.13	106.83	11.74	
2025-01-14 08:47:09.33	106.81	11.76	
2025-01-14 08:47:09.54	106.79	11.78	
2025-01-14 08:47:09.74	106.77	11.79	
2025-01-14 08:47:09.95	106.75	11.81	
2025-01-14 08:47:10.15	106.73	11.83	
2025-01-14 08:47:10.37	106.70	11.84	
2025-01-14 08:47:10.58	106.68	11.86	
2025-01-14 08:47:10.78	106.66	11.87	
2025-01-14 08:47:10.99	106.64	11.89	
2025-01-14 08:47:11.20	106.62	11.91	
2025-01-14 08:47:11.40	106.60	11.92	
2025-01-14 08:47:11.61	106.57	11.94	
2025-01-14 08:47:11.81	106.55	11.96	
2025-01-14 08:47:12.02	106.53	11.97	
2025-01-14 08:47:12.23	106.51	11.99	
2025-01-14 08:47:12.44	106.49	12.01	
2025-01-14 08:47:12.65	106.46	12.02	
2025-01-14 08:47:12.85	106.44	12.04	
2025-01-14 08:47:13.06	106.42	12.05	
2025-01-14 08:47:13.27	106.40	12.07	
2025-01-14 08:47:13.47	106.38	12.09	
2025-01-14 08:47:13.67	106.35	12.10	
2025-01-14 08:47:13.88	106.33	12.12	
2025-01-14 08:47:14.08	106.31	12.14	
2025-01-14 08:47:14.29	106.29	12.15	
2025-01-14 08:47:14.49	106.27	12.17	
2025-01-14 08:47:14.70	106.24	12.18	
2025-01-14 08:47:14.90	106.22	12.20	
2025-01-14 08:47:15.11	106.20	12.22	
2025-01-14 08:47:15.31	106.18	12.23	
2025-01-14 08:47:15.52	106.16	12.25	
2025-01-14 08:47:15.72	106.13	12.27	
2025-01-14 08:47:15.93	106.11	12.28	
2025-01-14 08:47:16.13	106.09	12.30	
2025-01-14 08:47:16.34	106.07	12.31	
2025-01-14 08:47:16.54	106.04	12.33	
2025-01-14 08:47:16.75	106.02	12.35	
2025-01-14 08:47:16.95	106.00	12.36	
2025-01-14 08:47:17.16	105.98	12.38	
2025-01-14 08:47:17.37	105.95	12.40	
2025-01-14 08:47:17.57	105.93	12.41	
2025-01-14 08:47:17.77	105.91	12.43	
2025-01-14 08:47:17.98	105.89	12.45	
2025-01-14 08:47:18.18	105.87	12.46	
2025-01-14 08:47:18.39	105.84	12.48	
2025-01-14 08:47:18.59	105.82	12.49	
2025-01-14 08:47:18.80	105.80	12.51	
2025-01-14 08:47:19.00	105.78	12.53	
2025-01-14 08:47:19.21	105.75	12.54	
2025-01-14 08:47:19.41	105.73	12.56	
2025-01-14 08:47:19.62	105.71	12.58	
2025-01-14 08:47:19.82	105.69	12.59	
2025-01-14 08:47:20.03	105.66	12.61	
2025-01-14 08:47:20.23	105.64	12.63	
2025-01-14 08:47:20.44	105.62	12.64	
2025-01-14 08:47:20.65	105.59	12.66	
2025-01-14 08:47:20.85	105.57	12.67	
2025-01-14 08:47:21.07	105.55	12.69	
2025-01-14 08:47:21.27	105.52	12.71	
2025-01-14 08:47:21.48	105.50	12.73	
2025-01-14 08:47:21.69	105.48	12.74	
2025-01-14 08:47:21.89	105.45	12.76	
2025-01-14 08:47:22.11	105.43	12.78	
2025-01-14 08:47:22.31	105.41	12.79	
2025-01-14 08:47:22.52	105.38	12.81	
2025-01-14 08:47:22.73	105.36	12.83	
2025-01-14 08:47:22.93	105.34	12.84	
2025-01-14 08:47:23.14	105.31	12.86	
2025-01-14 08:47:23.34	105.29	12.88	
2025-01-14 08:47:23.55	105.27	12.89	
2025-01-14 08:47:23.75	105.25	12.91	
2025-01-14 08:47:23.96	105.22	12.93	
2025-01-14 08:47:24.16	105.20	12.94	
2025-01-14 08:47:24.37	105.18	12.96	
2025-01-14 08:47:24.57	105.15	12.97	
2025-01-14 08:47:24.78	105.13	12.99	
2025-01-14 08:47:24.98	105.11	13.01	
2025-01-14 08:47:25.19	105.08	13.02	
2025-01-14 08:47:25.39	105.06	13.04	
2025-01-14 08:47:25.60	105.04	13.06	
2025-01-14 08:47:25.80	105.01	13.07	
2025-01-14 08:47:26.01	104.99	13.09	
2025-01-14 08:47:26.21	104.97	13.11	
2025-01-14 08:47:26.42	104.94	13.12	
2025-01-14 08:47:26.62	104.92	13.14	
2025-01-14 08:47:26.83	104.89	13.16	
2025-01-14 08:47:27.04	104.87	13.17	
2025-01-14 08:47:27.24	104.85	13.19	
2025-01-14 08:47:27.45	104.82	13.21	
2025-01-14 08:47:27.65	104.80	13.22	
2025-01-14 08:47:27.86	104.78	13.24	
2025-01-14 08:47:28.06	104.75	13.26	
2025-01-14 08:47:28.27	104.73	13.27	
2025-01-14 08:47:28.47	104.70	13.29	
2025-01-14 08:47:28.68	104.68	13.31	
2025-01-14 08:47:28.89	104.66	13.33	
2025-01-14 08:47:29.09	104.63	13.34	
2025-01-14 08:47:29.30	104.61	13.36	
2025-01-14 08:47:29.50	104.58	13.37	
2025-01-14 08:47:29.71	104.56	13.39	
2025-01-14 08:47:29.91	104.54	13.41	
2025-01-14 08:47:30.12	104.51	13.43	
2025-01-14 08:47:30.33	104.49	13.44	
2025-01-14 08:47:30.53	104.46	13.46	
2025-01-14 08:47:30.73	104.44	13.48	
2025-01-14 08:47:30.94	104.42	13.49	
2025-01-14 08:47:31.15	104.39	13.51	
2025-01-14 08:47:31.35	104.37	13.53	
2025-01-14 08:47:31.56	104.34	13.54	
2025-01-14 08:47:31.76	104.32	13.56	
2025-01-14 08:47:31.97	104.29	13.58	
2025-01-14 08:47:32.17	104.27	13.59	
2025-01-14 08:47:32.38	104.25	13.61	
2025-01-14 08:47:32.58	104.22	13.63	
2025-01-14 08:47:32.78	104.20	13.64	
2025-01-14 08:47:32.99	104.17	13.66	
2025-01-14 08:47:33.19	104.15	13.68	
2025-01-14 08:47:33.40	104.12	13.69	
2025-01-14 08:47:33.61	104.10	13.71	
2025-01-14 08:47:33.82	104.07	13.73	
2025-01-14 08:47:34.03	104.05	13.75	
2025-01-14 08:47:34.23	104.02	13.76	
2025-01-14 08:47:34.44	104.00	13.78	
2025-01-14 08:47:34.65	103.97	13.80	
2025-01-14 08:47:34.85	103.95	13.81	
2025-01-14 08:47:35.06	103.92	13.83	
2025-01-14 08:47:35.26	103.90	13.85	
2025-01-14 08:47:35.47	103.88	13.86	
2025-01-14 08:47:35.67	103.85	13.88	
2025-01-14 08:47:35.88	103.83	13.90	
2025-01-14 08:47:36.08	103.80	13.92	
2025-01-14 08:47:36.29	103.78	13.93	
2025-01-14 08:47:36.49	103.75	13.95	
2025-01-14 08:47:36.70	103.73	13.97	
2025-01-14 08:47:36.91	103.70	13.98	
2025-01-14 08:47:37.12	103.67	14.00	
2025-01-14 08:47:37.33	103.65	14.02	
2025-01-14 08:47:37.55	103.62	14.04	
2025-01-14 08:47:37.75	103.60	14.05	
2025-01-14 08:47:37.96	103.57	14.07	
2025-01-14 08:47:38.17	103.55	14.09	
2025-01-14 08:47:38.38	103.52	14.11	
2025-01-14 08:47:38.59	103.49	14.12	
2025-01-14 08:47:38.79	103.47	14.14	
2025-01-14 08:47:39.00	103.44	14.16	
2025-01-14 08:47:39.20	103.42	14.17	
2025-01-14 08:47:39.41	103.39	14.19	
2025-01-14 08:47:39.61	103.37	14.21	
2025-01-14 08:47:39.82	103.34	14.23	
2025-01-14 08:47:40.02	103.32	14.24	
2025-01-14 08:47:40.23	103.29	14.26	
2025-01-14 08:47:40.43	103.27	14.28	
2025-01-14 08:47:40.64	103.24	14.29	
2025-01-14 08:47:40.85	103.22	14.31	
2025-01-14 08:47:41.05	103.19	14.33	
2025-01-14 08:47:41.26	103.16	14.35	
2025-01-14 08:47:41.46	103.14	14.36	
2025-01-14 08:47:41.67	103.11	14.38	
2025-01-14 08:47:41.87	103.09	14.40	
2025-01-14 08:47:42.08	103.06	14.41	
2025-01-14 08:47:42.28	103.04	14.43	
2025-01-14 08:47:42.49	103.01	14.45	
2025-01-14 08:47:42.69	102.98	14.46	
2025-01-14 08:47:42.90	102.96	14.48	
2025-01-14 08:47:43.10	102.93	14.50	
2025-01-14 08:47:43.31	102.91	14.52	
2025-01-14 08:47:43.53	102.88	14.53	
2025-01-14 08:47:43.73	102.85	14.55	
2025-01-14 08:47:43.94	102.83	14.57	
2025-01-14 08:47:44.14	102.80	14.59	
2025-01-14 08:47:44.35	102.77	14.60	
2025-01-14 08:47:44.55	102.75	14.62	
2025-01-14 08:47:44.76	102.72	14.64	
2025-01-14 08:47:44.96	102.70	14.65	
2025-01-14 08:47:45.17	102.67	14.67	
2025-01-14 08:47:45.37	102.64	14.69	
2025-01-14 08:47:45.58	102.62	14.71	
2025-01-14 08:47:45.79	102.59	14.72	
2025-01-14 08:47:45.99	102.57	14.74	
2025-01-14 08:47:46.20	102.54	14.76	
2025-01-14 08:47:46.40	102.51	14.78	
2025-01-14 08:47:46.60	102.49	14.79	
2025-01-14 08:47:46.81	102.46	14.81	
2025-01-14 08:47:47.02	102.43	14.83	
2025-01-14 08:47:47.22	102.41	14.84	
2025-01-14 08:47:47.43	102.38	14.86	
2025-01-14 08:47:47.63	102.35	14.88	
2025-01-14 08:47:47.84	102.33	14.90	
2025-01-14 08:47:48.04	102.30	14.91	
2025-01-14 08:47:48.25	102.27	14.93	
2025-01-14 08:47:48.46	102.25	14.95	
2025-01-14 08:47:48.66	102.22	14.97	
2025-01-14 08:47:48.86	102.19	14.98	
2025-01-14 08:47:49.07	102.17	15.00	
2025-01-14 08:47:49.28	102.14	15.02	
2025-01-14 08:47:49.48	102.11	15.04	
2025-01-14 08:47:49.69	102.09	15.05	
2025-01-14 08:47:49.89	102.06	15.07	
2025-01-14 08:47:50.10	102.03	15.09	
2025-01-14 08:47:50.30	102.01	15.10	
2025-01-14 08:47:50.51	101.98	15.12	
2025-01-14 08:47:50.71	101.95	15.14	
2025-01-14 08:47:50.91	101.93	15.16	
2025-01-14 08:47:51.12	101.90	15.17	
2025-01-14 08:47:51.33	101.87	15.19	
2025-01-14 08:47:51.53	101.84	15.21	
2025-01-14 08:47:51.74	101.82	15.23	
2025-01-14 08:47:51.94	101.79	15.24	
2025-01-14 08:47:52.15	101.76	15.26	
2025-01-14 08:47:52.35	101.73	15.28	
2025-01-14 08:47:52.56	101.71	15.30	
2025-01-14 08:47:52.77	101.68	15.31	
2025-01-14 08:47:52.97	101.65	15.33	
2025-01-14 08:47:53.18	101.62	15.35	
2025-01-14 08:47:53.38	101.60	15.37	
2025-01-14 08:47:53.59	101.57	15.38	
2025-01-14 08:47:53.79	101.54	15.40	
2025-01-14 08:47:54.00	101.51	15.42	
2025-01-14 08:47:54.21	101.49	15.44	
2025-01-14 08:47:54.42	101.46	15.45	
2025-01-14 08:47:54.63	101.43	15.47	
2025-01-14 08:47:54.83	101.40	15.49	
2025-01-14 08:47:55.04	101.37	15.51	
2025-01-14 08:47:55.24	101.35	15.52	
2025-01-14 08:47:55.45	101.32	15.54	
2025-01-14 08:47:55.65	101.29	15.56	
2025-01-14 08:47:55.86	101.26	15.58	
2025-01-14 08:47:56.06	101.24	15.59	
2025-01-14 08:47:56.27	101.21	15.61	
2025-01-14 08:47:56.47	101.18	15.63	
2025-01-14 08:47:56.68	101.15	15.65	
2025-01-14 08:47:56.88	101.12	15.67	
2025-01-14 08:47:57.09	101.09	15.68	
2025-01-14 08:47:57.30	101.07	15.70	
2025-01-14 08:47:57.50	101.04	15.72	
2025-01-14 08:47:57.71	101.01	15.74	
2025-01-14 08:47:57.91	100.98	15.75	
2025-01-14 08:47:58.12	100.95	15.77	
2025-01-14 08:47:58.33	100.92	15.79	
2025-01-14 08:47:58.53	100.90	15.81	
2025-01-14 08:47:58.74	100.87	15.82	
2025-01-14 08:47:58.94	100.84	15.84	
2025-01-14 08:47:59.15	100.81	15.86	
2025-01-14 08:47:59.35	100.78	15.88	
2025-01-14 08:47:59.56	100.75	15.89	
2025-01-14 08:47:59.77	100.73	15.91	
2025-01-14 08:47:59.97	100.70	15.93	
2025-01-14 08:48:00.17	100.67	15.95	
2025-01-14 08:48:00.38	100.64	15.97	
2025-01-14 08:48:00.59	100.61	15.98	
2025-01-14 08:48:00.80	100.58	16.00	
2025-01-14 08:48:01.00	100.55	16.02	
2025-01-14 08:48:01.21	100.52	16.04	
2025-01-14 08:48:01.41	100.50	16.05	
2025-01-14 08:48:01.61	100.47	16.07	
2025-01-14 08:48:01.82	100.44	16.09	
2025-01-14 08:48:02.02	100.41	16.11	
2025-01-14 08:48:02.23	100.38	16.12	
2025-01-14 08:48:02.44	100.35	16.14	
2025-01-14 08:48:02.64	100.32	16.16	
2025-01-14 08:48:02.85	100.29	16.18	
2025-01-14 08:48:03.05	100.27	16.20	
2025-01-14 08:48:03.26	100.24	16.21	
2025-01-14 08:48:03.46	100.21	16.23	
2025-01-14 08:48:03.67	100.18	16.25	
2025-01-14 08:48:03.87	100.15	16.27	
2025-01-14 08:48:04.08	100.12	16.28	
2025-01-14 08:48:04.28	100.09	16.30	
2025-01-14 08:48:04.49	100.06	16.32	
2025-01-14 08:48:04.70	100.03	16.34	
2025-01-14 08:48:04.90	100.00	16.36	
2025-01-14 08:48:05.10	99.97	16.37	
2025-01-14 08:48:05.31	99.94	16.39	
2025-01-14 08:48:05.51	99.91	16.41	
2025-01-14 08:48:05.72	99.88	16.43	
2025-01-14 08:48:05.92	99.86	16.44	
2025-01-14 08:48:06.13	99.82	16.46	
2025-01-14 08:48:06.34	99.79	16.48	
2025-01-14 08:48:06.54	99.77	16.50	
2025-01-14 08:48:06.75	99.74	16.52	
2025-01-14 08:48:06.95	99.71	16.53	
2025-01-14 08:48:07.16	99.68	16.55	
2025-01-14 08:48:07.36	99.65	16.57	
2025-01-14 08:48:07.57	99.62	16.59	
2025-01-14 08:48:07.77	99.59	16.61	
2025-01-14 08:48:07.98	99.56	16.62	
2025-01-14 08:48:08.18	99.53	16.64	
2025-01-14 08:48:08.39	99.50	16.66	
2025-01-14 08:48:08.60	99.47	16.68	
2025-01-14 08:48:08.80	99.44	16.69	
2025-01-14 08:48:09.01	99.41	16.71	
2025-01-14 08:48:09.21	99.38	16.73	
2025-01-14 08:48:09.42	99.35	16.75	
2025-01-14 08:48:09.62	99.32	16.77	
2025-01-14 08:48:09.83	99.29	16.78	
2025-01-14 08:48:10.03	99.26	16.80	
2025-01-14 08:48:10.25	99.22	16.82	
2025-01-14 08:48:10.46	99.19	16.84	
2025-01-14 08:48:10.66	99.16	16.86	
2025-01-14 08:48:10.87	99.13	16.88	
2025-01-14 08:48:11.07	99.10	16.89	
2025-01-14 08:48:11.28	99.07	16.91	
2025-01-14 08:48:11.48	99.04	16.93	
2025-01-14 08:48:11.69	99.01	16.95	
2025-01-14 08:48:11.90	98.98	16.97	
2025-01-14 08:48:12.10	98.95	16.98	
2025-01-14 08:48:12.31	98.92	17.00	
2025-01-14 08:48:12.51	98.89	17.02	
2025-01-14 08:48:12.72	98.86	17.04	
2025-01-14 08:48:12.92	98.83	17.05	
2025-01-14 08:48:13.13	98.79	17.07	
2025-01-14 08:48:13.34	98.76	17.09	
2025-01-14 08:48:13.54	98.73	17.11	
2025-01-14 08:48:13.75	98.70	17.13	
2025-01-14 08:48:13.95	98.67	17.14	
2025-01-14 08:48:14.16	98.64	17.16	
2025-01-14 08:48:14.36	98.61	17.18	
2025-01-14 08:48:14.58	98.58	17.20	
2025-01-14 08:48:14.79	98.54	17.22	
2025-01-14 08:48:14.99	98.51	17.24	
2025-01-14 08:48:15.20	98.48	17.25	
2025-01-14 08:48:15.41	98.45	17.27	
2025-01-14 08:48:15.61	98.42	17.29	
2025-01-14 08:48:15.82	98.39	17.31	
2025-01-14 08:48:16.02	98.36	17.33	
2025-01-14 08:48:16.23	98.32	17.35	
2025-01-14 08:48:16.43	98.29	17.36	
2025-01-14 08:48:16.65	98.26	17.38	
2025-01-14 08:48:16.86	98.23	17.40	
2025-01-14 08:48:17.06	98.20	17.42	
2025-01-14 08:48:17.27	98.16	17.44	
2025-01-14 08:48:17.47	98.13	17.45	
2025-01-14 08:48:17.68	98.10	17.47	
2025-01-14 08:48:17.88	98.07	17.49	
2025-01-14 08:48:18.09	98.04	17.51	
2025-01-14 08:48:18.29	98.01	17.53	
2025-01-14 08:48:18.50	97.97	17.54	
2025-01-14 08:48:18.70	97.94	17.56	
2025-01-14 08:48:18.90	97.91	17.58	
2025-01-14 08:48:19.11	97.88	17.60	
2025-01-14 08:48:19.31	97.85	17.62	
2025-01-14 08:48:19.52	97.82	17.63	
2025-01-14 08:48:19.72	97.78	17.65	
2025-01-14 08:48:19.93	97.75	17.67	
2025-01-14 08:48:20.14	97.72	17.69	
2025-01-14 08:48:20.34	97.69	17.71	
2025-01-14 08:48:20.55	97.65	17.73	
2025-01-14 08:48:20.75	97.62	17.74	
2025-01-14 08:48:20.95	97.59	17.76	
2025-01-14 08:48:21.16	97.56	17.78	
2025-01-14 08:48:21.37	97.53	17.80	
2025-01-14 08:48:21.57	97.49	17.82	
2025-01-14 08:48:21.78	97.46	17.83	
2025-01-14 08:48:21.99	97.43	17.85	
2025-01-14 08:48:22.20	97.39	17.87	
2025-01-14 08:48:22.40	97.36	17.89	
2025-01-14 08:48:22.61	97.33	17.91	
2025-01-14 08:48:22.82	97.30	17.93	
2025-01-14 08:48:23.02	97.26	17.94	
2025-01-14 08:48:23.22	97.23	17.96	
2025-01-14 08:48:23.43	97.20	17.98	
2025-01-14 08:48:23.64	97.17	18.00	
2025-01-14 08:48:23.84	97.13	18.02	
2025-01-14 08:48:24.05	97.10	18.04	
2025-01-14 08:48:24.25	97.07	18.05	
2025-01-14 08:48:24.46	97.03	18.07	
2025-01-14 08:48:24.66	97.00	18.09	
2025-01-14 08:48:24.87	96.97	18.11	
2025-01-14 08:48:25.07	96.94	18.13	
2025-01-14 08:48:25.28	96.90	18.14	
2025-01-14 08:48:25.48	96.87	18.16	
2025-01-14 08:48:25.69	96.84	18.18	
2025-01-14 08:48:25.89	96.80	18.20	
2025-01-14 08:48:26.10	96.77	18.22	
2025-01-14 08:48:26.32	96.73	18.24	
2025-01-14 08:48:26.52	96.70	18.26	
2025-01-14 08:48:26.73	96.67	18.27	
2025-01-14 08:48:26.93	96.63	18.29	
2025-01-14 08:48:27.14	96.60	18.31	
2025-01-14 08:48:27.34	96.57	18.33	
2025-01-14 08:48:27.55	96.53	18.35	
2025-01-14 08:48:27.75	96.50	18.36	
2025-01-14 08:48:27.96	96.47	18.38	
2025-01-14 08:48:28.17	96.43	18.40	
2025-01-14 08:48:28.37	96.40	18.42	
2025-01-14 08:48:28.58	96.36	18.44	
2025-01-14 08:48:28.78	96.33	18.46	
2025-01-14 08:48:28.99	96.30	18.47	
2025-01-14 08:48:29.19	96.26	18.49	
2025-01-14 08:48:29.41	96.23	18.51	
2025-01-14 08:48:29.61	96.19	18.53	
2025-01-14 08:48:29.82	96.16	18.55	
2025-01-14 08:48:30.03	96.12	18.57	
2025-01-14 08:48:30.23	96.09	18.59	
2025-01-14 08:48:30.44	96.06	18.60	
2025-01-14 08:48:30.64	96.02	18.62	
2025-01-14 08:48:30.85	95.99	18.64	
2025-01-14 08:48:31.06	95.95	18.66	
2025-01-14 08:48:31.26	95.92	18.68	
2025-01-14 08:48:31.46	95.89	18.70	
2025-01-14 08:48:31.67	95.85	18.71	
2025-01-14 08:48:31.88	95.81	18.73	
2025-01-14 08:48:32.08	95.78	18.75	
2025-01-14 08:48:32.29	95.75	18.77	
2025-01-14 08:48:32.50	95.71	18.79	
2025-01-14 08:48:32.72	95.67	18.81	
2025-01-14 08:48:32.92	95.64	18.83	
2025-01-14 08:48:33.13	95.60	18.84	
2025-01-14 08:48:33.33	95.57	18.86	
2025-01-14 08:48:33.54	95.53	18.88	
2025-01-14 08:48:33.75	95.50	18.90	
2025-01-14 08:48:33.95	95.47	18.92	
2025-01-14 08:48:34.16	95.43	18.94	
2025-01-14 08:48:34.36	95.40	18.95	
2025-01-14 08:48:34.57	95.36	18.97	
2025-01-14 08:48:34.77	95.33	18.99	
2025-01-14 08:48:34.98	95.29	19.01	
2025-01-14 08:48:35.18	95.26	19.03	
2025-01-14 08:48:35.39	95.22	19.05	
2025-01-14 08:48:35.60	95.18	19.07	
2025-01-14 08:48:35.80	95.15	19.08	
2025-01-14 08:48:36.01	95.11	19.10	
2025-01-14 08:48:36.21	95.08	19.12	
2025-01-14 08:48:36.42	95.04	19.14	
2025-01-14 08:48:36.62	95.01	19.16	
2025-01-14 08:48:36.83	94.97	19.18	
2025-01-14 08:48:37.03	94.94	19.19	
2025-01-14 08:48:37.25	94.90	19.21	
2025-01-14 08:48:37.45	94.86	19.23	
2025-01-14 08:48:37.66	94.83	19.25	
2025-01-14 08:48:37.86	94.79	19.27	
2025-01-14 08:48:38.07	94.76	19.29	
2025-01-14 08:48:38.27	94.72	19.30	
2025-01-14 08:48:38.48	94.68	19.32	
2025-01-14 08:48:38.68	94.65	19.34	
2025-01-14 08:48:38.89	94.61	19.36	
2025-01-14 08:48:39.10	94.58	19.38	
2025-01-14 08:48:39.31	94.54	19.40	
2025-01-14 08:48:39.52	94.50	19.42	
2025-01-14 08:48:39.72	94.47	19.43	
2025-01-14 08:48:39.93	94.43	19.45	
2025-01-14 08:48:40.13	94.40	19.47	
2025-01-14 08:48:40.34	94.36	19.49	
2025-01-14 08:48:40.55	94.32	19.51	
2025-01-14 08:48:40.75	94.29	19.53	
2025-01-14 08:48:40.96	94.25	19.55	
2025-01-14 08:48:41.16	94.21	19.56	
2025-01-14 08:48:41.37	94.18	19.58	
2025-01-14 08:48:41.57	94.14	19.60	
2025-01-14 08:48:41.78	94.10	19.62	
2025-01-14 08:48:41.99	94.07	19.64	
2025-01-14 08:48:42.19	94.03	19.66	
2025-01-14 08:48:42.40	93.99	19.67	
2025-01-14 08:48:42.60	93.96	19.69	
2025-01-14 08:48:42.81	93.92	19.71	
2025-01-14 08:48:43.02	93.88	19.73	
2025-01-14 08:48:43.22	93.85	19.75	
2025-01-14 08:48:43.43	93.81	19.77	
2025-01-14 08:48:43.63	93.77	19.79	
2025-01-14 08:48:43.84	93.73	19.80	
2025-01-14 08:48:44.04	93.70	19.82	
2025-01-14 08:48:44.25	93.66	19.84	
2025-01-14 08:48:44.45	93.62	19.86	
2025-01-14 08:48:44.66	93.59	19.88	
2025-01-14 08:48:44.86	93.55	19.90	
2025-01-14 08:48:45.07	93.51	19.91	
2025-01-14 08:48:45.27	93.48	19.93	
2025-01-14 08:48:45.47	93.44	19.95	
2025-01-14 08:48:45.68	93.40	19.97	
2025-01-14 08:48:45.89	93.36	19.99	
2025-01-14 08:48:46.09	93.33	20.01	
2025-01-14 08:48:46.30	93.29	20.03	
2025-01-14 08:48:46.50	93.25	20.04	
2025-01-14 08:48:46.71	93.21	20.06	
2025-01-14 08:48:46.92	93.17	20.08	
2025-01-14 08:48:47.12	93.14	20.10	
2025-01-14 08:48:47.33	93.10	20.12	
2025-01-14 08:48:47.53	93.06	20.14	
2025-01-14 08:48:47.74	93.02	20.15	
2025-01-14 08:48:47.94	92.99	20.17	
2025-01-14 08:48:48.15	92.95	20.19	
2025-01-14 08:48:48.36	92.91	20.21	
2025-01-14 08:48:48.56	92.87	20.23	
2025-01-14 08:48:48.76	92.83	20.25	
2025-01-14 08:48:48.97	92.80	20.27	
2025-01-14 08:48:49.18	92.76	20.28	
2025-01-14 08:48:49.38	92.72	20.30	
2025-01-14 08:48:49.59	92.68	20.32	
2025-01-14 08:48:49.81	92.64	20.34	
2025-01-14 08:48:50.01	92.60	20.36	
2025-01-14 08:48:50.22	92.56	20.38	
2025-01-14 08:48:50.42	92.52	20.40	
2025-01-14 08:48:50.63	92.49	20.41	
2025-01-14 08:48:50.83	92.45	20.43	
2025-01-14 08:48:51.05	92.41	20.45	
2025-01-14 08:48:51.25	92.37	20.47	
2025-01-14 08:48:51.46	92.33	20.49	
2025-01-14 08:48:51.67	92.29	20.51	
2025-01-14 08:48:51.87	92.25	20.53	
2025-01-14 08:48:52.07	92.21	20.54	
2025-01-14 08:48:52.28	92.17	20.56	
2025-01-14 08:48:52.49	92.13	20.58	
2025-01-14 08:48:52.69	92.10	20.60	
2025-01-14 08:48:52.90	92.06	20.62	
2025-01-14 08:48:53.10	92.02	20.64	
2025-01-14 08:48:53.31	91.98	20.66	
2025-01-14 08:48:53.51	91.94	20.67	
2025-01-14 08:48:53.72	91.90	20.69	
2025-01-14 08:48:53.92	91.86	20.71	
2025-01-14 08:48:54.13	91.82	20.73	
2025-01-14 08:48:54.33	91.78	20.75	
2025-01-14 08:48:54.54	91.74	20.77	
2025-01-14 08:48:54.74	91.70	20.78	
2025-01-14 08:48:54.95	91.66	20.80	
2025-01-14 08:48:55.17	91.62	20.82	
2025-01-14 08:48:55.38	91.58	20.84	
2025-01-14 08:48:55.58	91.54	20.86	
2025-01-14 08:48:55.78	91.50	20.88	
2025-01-14 08:48:55.99	91.46	20.90	
2025-01-14 08:48:56.20	91.42	20.92	
2025-01-14 08:48:56.40	91.38	20.93	
2025-01-14 08:48:56.61	91.34	20.95	
2025-01-14 08:48:56.81	91.30	20.97	
2025-01-14 08:48:57.02	91.26	20.99	
2025-01-14 08:48:57.22	91.22	21.01	
2025-01-14 08:48:57.43	91.18	21.03	
2025-01-14 08:48:57.63	91.14	21.04	
2025-01-14 08:48:57.84	91.10	21.06	
2025-01-14 08:48:58.05	91.06	21.08	
2025-01-14 08:48:58.25	91.02	21.10	
2025-01-14 08:48:58.45	90.98	21.12	
2025-01-14 08:48:58.66	90.94	21.14	
2025-01-14 08:48:58.86	90.90	21.15	
2025-01-14 08:48:59.07	90.86	21.17	
2025-01-14 08:48:59.28	90.82	21.19	
2025-01-14 08:48:59.48	90.78	21.21	
2025-01-14 08:48:59.69	90.74	21.23	
2025-01-14 08:48:59.89	90.70	21.25	
2025-01-14 08:49:00.09	90.66	21.26	
2025-01-14 08:49:00.30	90.62	21.28	
2025-01-14 08:49:00.50	90.58	21.30	
2025-01-14 08:49:00.71	90.54	21.32	
2025-01-14 08:49:00.91	90.50	21.34	
2025-01-14 08:49:01.12	90.46	21.36	
2025-01-14 08:49:01.32	90.42	21.37	
2025-01-14 08:49:01.54	90.37	21.39	
2025-01-14 08:49:01.75	90.33	21.41	
2025-01-14 08:49:01.95	90.29	21.43	
2025-01-14 08:49:02.16	90.25	21.45	
2025-01-14 08:49:02.36	90.21	21.47	
2025-01-14 08:49:02.57	90.16	21.49	
2025-01-14 08:49:02.77	90.12	21.50	
2025-01-14 08:49:02.98	90.08	21.52	
2025-01-14 08:49:03.18	90.04	21.54	
2025-01-14 08:49:03.39	90.00	21.56	
2025-01-14 08:49:03.59	89.96	21.58	
2025-01-14 08:49:03.80	89.92	21.60	
2025-01-14 08:49:04.00	89.88	21.61	
2025-01-14 08:49:04.21	89.83	21.63	
2025-01-14 08:49:04.42	89.79	21.65	
2025-01-14 08:49:04.62	89.75	21.67	
2025-01-14 08:49:04.83	89.71	21.69	
2025-01-14 08:49:05.03	89.67	21.71	
2025-01-14 08:49:05.23	89.63	21.72	
2025-01-14 08:49:05.44	89.58	21.74	
2025-01-14 08:49:05.64	89.54	21.76	
2025-01-14 08:49:05.85	89.50	21.78	
2025-01-14 08:49:06.05	89.46	21.80	
2025-01-14 08:49:06.26	89.41	21.82	
2025-01-14 08:49:06.47	89.37	21.84	
2025-01-14 08:49:06.67	89.33	21.85	
2025-01-14 08:49:06.87	89.29	21.87	
2025-01-14 08:49:07.08	89.25	21.89	
2025-01-14 08:49:07.29	89.20	21.91	
2025-01-14 08:49:07.49	89.16	21.93	
2025-01-14 08:49:07.70	89.12	21.94	
2025-01-14 08:49:07.90	89.08	21.96	
2025-01-14 08:49:08.11	89.03	21.98	
2025-01-14 08:49:08.31	88.99	22.00	
2025-01-14 08:49:08.52	88.95	22.02	
2025-01-14 08:49:08.72	88.90	22.04	
2025-01-14 08:49:08.93	88.86	22.05	
2025-01-14 08:49:09.13	88.82	22.07	
2025-01-14 08:49:09.34	88.78	22.09	
2025-01-14 08:49:09.54	88.73	22.11	
2025-01-14 08:49:09.75	88.69	22.13	
2025-01-14 08:49:09.95	88.65	22.15	
2025-01-14 08:49:10.16	88.60	22.16	
2025-01-14 08:49:10.36	88.56	22.18	
2025-01-14 08:49:10.57	88.52	22.20	
2025-01-14 08:49:10.77	88.47	22.22	
2025-01-14 08:49:10.98	88.43	22.24	
2025-01-14 08:49:11.18	88.39	22.25	
2025-01-14 08:49:11.39	88.34	22.27	
2025-01-14 08:49:11.59	88.30	22.29	
2025-01-14 08:49:11.80	88.26	22.31	
2025-01-14 08:49:12.00	88.21	22.33	
2025-01-14 08:49:12.22	88.17	22.35	
2025-01-14 08:49:12.42	88.12	22.36	
2025-01-14 08:49:12.63	88.08	22.38	
2025-01-14 08:49:12.83	88.04	22.40	
2025-01-14 08:49:13.04	87.99	22.42	
2025-01-14 08:49:13.25	87.95	22.44	
2025-01-14 08:49:13.46	87.90	22.46	
2025-01-14 08:49:13.67	87.86	22.48	
2025-01-14 08:49:13.87	87.81	22.49	
2025-01-14 08:49:14.08	87.77	22.51	
2025-01-14 08:49:14.28	87.73	22.53	
2025-01-14 08:49:14.49	87.68	22.55	
2025-01-14 08:49:14.69	87.64	22.57	
2025-01-14 08:49:14.90	87.59	22.58	
2025-01-14 08:49:15.11	87.55	22.60	
2025-01-14 08:49:15.31	87.50	22.62	
2025-01-14 08:49:15.51	87.46	22.64	
2025-01-14 08:49:15.72	87.42	22.66	
2025-01-14 08:49:15.92	87.37	22.67	
2025-01-14 08:49:16.13	87.33	22.69	
2025-01-14 08:49:16.33	87.28	22.71	
2025-01-14 08:49:16.54	87.24	22.73	
2025-01-14 08:49:16.74	87.19	22.75	
2025-01-14 08:49:16.95	87.15	22.76	
2025-01-14 08:49:17.15	87.10	22.78	
2025-01-14 08:49:17.36	87.06	22.80	
2025-01-14 08:49:17.56	87.01	22.82	
2025-01-14 08:49:17.77	86.97	22.84	
2025-01-14 08:49:17.98	86.92	22.86	
2025-01-14 08:49:18.18	86.88	22.87	
2025-01-14 08:49:18.39	86.83	22.89	
2025-01-14 08:49:18.59	86.79	22.91	
2025-01-14 08:49:18.80	86.74	22.93	
2025-01-14 08:49:19.00	86.70	22.95	
2025-01-14 08:49:19.21	86.65	22.96	
2025-01-14 08:49:19.41	86.61	22.98	
2025-01-14 08:49:19.62	86.56	23.00	
2025-01-14 08:49:19.82	86.51	23.02	
2025-01-14 08:49:20.03	86.47	23.04	
2025-01-14 08:49:20.23	86.42	23.05	
2025-01-14 08:49:20.44	86.38	23.07	
2025-01-14 08:49:20.64	86.33	23.09	
2025-01-14 08:49:20.85	86.28	23.11	
2025-01-14 08:49:21.06	86.24	23.13	
2025-01-14 08:49:21.26	86.19	23.14	
2025-01-14 08:49:21.47	86.15	23.16	
2025-01-14 08:49:21.67	86.10	23.18	
2025-01-14 08:49:21.88	86.05	23.20	
2025-01-14 08:49:22.08	86.01	23.21	
2025-01-14 08:49:22.29	85.96	23.23	
2025-01-14 08:49:22.49	85.92	23.25	
2025-01-14 08:49:22.70	85.87	23.27	
2025-01-14 08:49:22.92	85.82	23.29	
2025-01-14 08:49:23.12	85.77	23.31	
2025-01-14 08:49:23.33	85.73	23.32	
2025-01-14 08:49:23.53	85.68	23.34	
2025-01-14 08:49:23.74	85.63	23.36	
2025-01-14 08:49:23.94	85.59	23.38	
2025-01-14 08:49:24.15	85.54	23.39	
2025-01-14 08:49:24.35	85.49	23.41	
2025-01-14 08:49:24.56	85.45	23.43	
2025-01-14 08:49:24.76	85.40	23.45	
2025-01-14 08:49:24.97	85.35	23.47	
2025-01-14 08:49:25.17	85.31	23.48	
2025-01-14 08:49:25.38	85.26	23.50	
2025-01-14 08:49:25.59	85.21	23.52	
2025-01-14 08:49:25.79	85.17	23.54	
2025-01-14 08:49:26.00	85.12	23.55	
2025-01-14 08:49:26.20	85.07	23.57	
2025-01-14 08:49:26.41	85.02	23.59	
2025-01-14 08:49:26.61	84.98	23.61	
2025-01-14 08:49:26.82	84.93	23.63	
2025-01-14 08:49:27.02	84.88	23.64	
2025-01-14 08:49:27.24	84.83	23.66	
2025-01-14 08:49:27.44	84.78	23.68	
2025-01-14 08:49:27.65	84.74	23.70	
2025-01-14 08:49:27.86	84.69	23.72	
2025-01-14 08:49:28.06	84.64	23.73	
2025-01-14 08:49:28.27	84.59	23.75	
2025-01-14 08:49:28.47	84.54	23.77	
2025-01-14 08:49:28.68	84.50	23.79	
2025-01-14 08:49:28.88	84.45	23.80	
2025-01-14 08:49:29.09	84.40	23.82	
2025-01-14 08:49:29.29	84.35	23.84	
2025-01-14 08:49:29.50	84.30	23.86	
2025-01-14 08:49:29.70	84.26	23.87	
2025-01-14 08:49:29.91	84.21	23.89	
2025-01-14 08:49:30.11	84.16	23.91	
2025-01-14 08:49:30.32	84.11	23.93	
2025-01-14 08:49:30.53	84.06	23.94	
2025-01-14 08:49:30.73	84.01	23.96	
2025-01-14 08:49:30.94	83.96	23.98	
2025-01-14 08:49:31.14	83.92	24.00	
2025-01-14 08:49:31.35	83.87	24.01	
2025-01-14 08:49:31.55	83.82	24.03	
2025-01-14 08:49:31.76	83.77	24.05	
2025-01-14 08:49:31.96	83.72	24.07	
2025-01-14 08:49:32.17	83.67	24.08	
2025-01-14 08:49:32.37	83.63	24.10	
2025-01-14 08:49:32.58	83.58	24.12	
2025-01-14 08:49:32.78	83.53	24.14	
2025-01-14 08:49:32.99	83.48	24.15	
2025-01-14 08:49:33.20	83.43	24.17	
2025-01-14 08:49:33.40	83.38	24.19	
2025-01-14 08:49:33.62	83.33	24.21	
2025-01-14 08:49:33.83	83.28	24.22	
2025-01-14 08:49:34.03	83.23	24.24	
2025-01-14 08:49:34.23	83.18	24.26	
2025-01-14 08:49:34.44	83.13	24.28	
2025-01-14 08:49:34.64	83.08	24.29	
2025-01-14 08:49:34.85	83.03	24.31	
2025-01-14 08:49:35.05	82.98	24.33	
2025-01-14 08:49:35.26	82.93	24.35	
2025-01-14 08:49:35.47	82.88	24.36	
2025-01-14 08:49:35.68	82.83	24.38	
2025-01-14 08:49:35.89	82.78	24.40	
2025-01-14 08:49:36.09	82.73	24.41	
2025-01-14 08:49:36.30	82.68	24.43	
2025-01-14 08:49:36.51	82.63	24.45	
2025-01-14 08:49:36.71	82.58	24.47	
2025-01-14 08:49:36.92	82.53	24.48	
2025-01-14 08:49:37.12	82.48	24.50	
2025-01-14 08:49:37.33	82.43	24.52	
2025-01-14 08:49:37.53	82.38	24.54	
2025-01-14 08:49:37.73	82.33	24.55	
2025-01-14 08:49:37.94	82.28	24.57	
2025-01-14 08:49:38.14	82.23	24.59	
2025-01-14 08:49:38.35	82.18	24.60	
2025-01-14 08:49:38.56	82.13	24.62	
2025-01-14 08:49:38.76	82.08	24.64	
2025-01-14 08:49:38.98	82.02	24.66	
2025-01-14 08:49:39.18	81.97	24.67	
2025-01-14 08:49:39.39	81.92	24.69	
2025-01-14 08:49:39.60	81.87	24.71	
2025-01-14 08:49:39.80	81.82	24.72	
2025-01-14 08:49:40.02	81.76	24.74	
2025-01-14 08:49:40.23	81.71	24.76	
2025-01-14 08:49:40.43	81.66	24.78	
2025-01-14 08:49:40.64	81.61	24.79	
2025-01-14 08:49:40.84	81.56	24.81	
2025-01-14 08:49:41.04	81.51	24.83	
2025-01-14 08:49:41.25	81.46	24.84	
2025-01-14 08:49:41.46	81.41	24.86	
2025-01-14 08:49:41.66	81.36	24.88	
2025-01-14 08:49:41.87	81.30	24.89	
2025-01-14 08:49:42.07	81.25	24.91	
2025-01-14 08:49:42.29	81.20	24.93	
2025-01-14 08:49:42.49	81.15	24.95	
2025-01-14 08:49:42.70	81.09	24.96	
2025-01-14 08:49:42.91	81.04	24.98	
2025-01-14 08:49:43.11	80.99	25.00	
2025-01-14 08:49:43.32	80.94	25.01	
2025-01-14 08:49:43.52	80.89	25.03	
2025-01-14 08:49:43.73	80.83	25.05	
2025-01-14 08:49:43.93	80.78	25.06	
2025-01-14 08:49:44.14	80.73	25.08	
2025-01-14 08:49:44.34	80.68	25.10	
2025-01-14 08:49:44.55	80.63	25.11	
2025-01-14 08:49:44.75	80.58	25.13	
2025-01-14 08:49:44.96	80.52	25.15	
2025-01-14 08:49:45.16	80.47	25.16	
2025-01-14 08:49:45.37	80.42	25.18	
2025-01-14 08:49:45.58	80.36	25.20	
2025-01-14 08:49:45.78	80.31	25.21	
2025-01-14 08:49:45.99	80.26	25.23	
2025-01-14 08:49:46.19	80.21	25.25	
2025-01-14 08:49:46.40	80.15	25.26	
2025-01-14 08:49:46.60	80.10	25.28	
2025-01-14 08:49:46.81	80.05	25.30	
2025-01-14 08:49:47.01	80.00	25.31	
2025-01-14 08:49:47.22	79.94	25.33	
2025-01-14 08:49:47.44	79.89	25.35	
2025-01-14 08:49:47.64	79.84	25.36	
2025-01-14 08:49:47.85	79.78	25.38	
2025-01-14 08:49:48.05	79.73	25.39	
2025-01-14 08:49:48.26	79.68	25.41	
2025-01-14 08:49:48.46	79.62	25.43	
2025-01-14 08:49:48.67	79.57	25.44	
2025-01-14 08:49:48.87	79.52	25.46	
2025-01-14 08:49:49.08	79.46	25.48	
2025-01-14 08:49:49.29	79.41	25.49	
2025-01-14 08:49:49.49	79.36	25.51	
2025-01-14 08:49:49.70	79.30	25.53	
2025-01-14 08:49:49.90	79.25	25.54	
2025-01-14 08:49:50.11	79.19	25.56	
2025-01-14 08:49:50.31	79.14	25.57	
2025-01-14 08:49:50.52	79.09	25.59	
2025-01-14 08:49:50.72	79.03	25.61	
2025-01-14 08:49:50.93	78.98	25.62	
2025-01-14 08:49:51.13	78.93	25.64	
2025-01-14 08:49:51.34	78.87	25.65	
2025-01-14 08:49:51.54	78.82	25.67	
2025-01-14 08:49:51.76	78.76	25.69	
2025-01-14 08:49:51.97	78.71	25.70	
2025-01-14 08:49:52.17	78.65	25.72	
2025-01-14 08:49:52.38	78.60	25.74	
2025-01-14 08:49:52.59	78.54	25.75	
2025-01-14 08:49:52.79	78.49	25.77	
2025-01-14 08:49:52.99	78.44	25.78	
2025-01-14 08:49:53.20	78.38	25.80	
2025-01-14 08:49:53.41	78.32	25.82	
2025-01-14 08:49:53.61	78.27	25.83	
2025-01-14 08:49:53.83	78.21	25.85	
2025-01-14 08:49:54.04	78.16	25.86	
2025-01-14 08:49:54.24	78.10	25.88	
2025-01-14 08:49:54.45	78.05	25.90	
2025-01-14 08:49:54.65	77.99	25.91	
2025-01-14 08:49:54.86	77.94	25.93	
2025-01-14 08:49:55.06	77.88	25.94	
2025-01-14 08:49:55.27	77.83	25.96	
2025-01-14 08:49:55.47	77.77	25.97	
2025-01-14 08:49:55.68	77.72	25.99	
2025-01-14 08:49:55.88	77.66	26.01	
2025-01-14 08:49:56.09	77.61	26.02	
2025-01-14 08:49:56.29	77.55	26.04	
2025-01-14 08:49:56.50	77.50	26.05	
2025-01-14 08:49:56.70	77.44	26.07	
2025-01-14 08:49:56.91	77.39	26.08	
2025-01-14 08:49:57.11	77.33	26.10	
2025-01-14 08:49:57.32	77.27	26.12	
2025-01-14 08:49:57.52	77.22	26.13	
2025-01-14 08:49:57.73	77.16	26.15	
2025-01-14 08:49:57.93	77.11	26.16	
2025-01-14 08:49:58.15	77.05	26.18	
2025-01-14 08:49:58.36	76.99	26.19	
2025-01-14 08:49:58.57	76.94	26.21	
2025-01-14 08:49:58.77	76.88	26.22	
2025-01-14 08:49:58.98	76.82	26.24	
2025-01-14 08:49:59.18	76.77	26.26	
2025-01-14 08:49:59.39	76.71	26.27	
2025-01-14 08:49:59.59	76.66	26.29	
2025-01-14 08:49:59.80	76.60	26.30	
2025-01-14 08:50:00.00	76.54	26.32	
2025-01-14 08:50:00.21	76.49	26.33	
2025-01-14 08:50:00.41	76.43	26.35	
2025-01-14 08:50:00.62	76.37	26.36	
2025-01-14 08:50:00.82	76.32	26.38	
2025-01-14 08:50:01.03	76.26	26.39	
2025-01-14 08:50:01.23	76.21	26.41	
2025-01-14 08:50:01.44	76.15	26.42	
2025-01-14 08:50:01.65	76.09	26.44	
2025-01-14 08:50:01.85	76.03	26.45	
2025-01-14 08:50:02.06	75.98	26.47	
2025-01-14 08:50:02.26	75.92	26.48	
2025-01-14 08:50:02.47	75.86	26.50	
2025-01-14 08:50:02.67	75.81	26.51	
2025-01-14 08:50:02.88	75.75	26.53	
2025-01-14 08:50:03.08	75.69	26.54	
2025-01-14 08:50:03.29	75.64	26.56	
2025-01-14 08:50:03.50	75.58	26.57	
2025-01-14 08:50:03.70	75.52	26.59	
2025-01-14 08:50:03.91	75.46	26.60	
2025-01-14 08:50:04.11	75.41	26.62	
2025-01-14 08:50:04.32	75.35	26.63	
2025-01-14 08:50:04.52	75.29	26.65	
2025-01-14 08:50:04.73	75.23	26.66	
2025-01-14 08:50:04.94	75.17	26.68	
2025-01-14 08:50:05.14	75.12	26.69	
2025-01-14 08:50:05.35	75.06	26.71	
2025-01-14 08:50:05.55	75.00	26.72	
2025-01-14 08:50:05.76	74.94	26.74	
2025-01-14 08:50:05.96	74.89	26.75	
2025-01-14 08:50:06.17	74.83	26.76	
2025-01-14 08:50:06.37	74.77	26.78	
2025-01-14 08:50:06.57	74.71	26.79	
2025-01-14 08:50:06.78	74.66	26.81	
2025-01-14 08:50:06.99	74.60	26.82	
2025-01-14 08:50:07.19	74.54	26.84	
2025-01-14 08:50:07.40	74.48	26.85	
2025-01-14 08:50:07.60	74.42	26.86	
2025-01-14 08:50:07.81	74.36	26.88	
2025-01-14 08:50:08.01	74.31	26.89	
2025-01-14 08:50:08.21	74.25	26.91	
2025-01-14 08:50:08.42	74.19	26.92	
2025-01-14 08:50:08.62	74.13	26.94	
2025-01-14 08:50:08.83	74.07	26.95	
2025-01-14 08:50:09.04	74.01	26.97	
2025-01-14 08:50:09.24	73.96	26.98	
2025-01-14 08:50:09.44	73.90	26.99	
2025-01-14 08:50:09.65	73.84	27.01	
2025-01-14 08:50:09.85	73.78	27.02	
2025-01-14 08:50:10.05	73.72	27.03	
2025-01-14 08:50:10.26	73.66	27.05	
2025-01-14 08:50:10.46	73.61	27.06	
2025-01-14 08:50:10.67	73.55	27.08	
2025-01-14 08:50:10.88	73.48	27.09	
2025-01-14 08:50:11.08	73.43	27.10	
2025-01-14 08:50:11.29	73.37	27.12	
2025-01-14 08:50:11.49	73.31	27.13	
2025-01-14 08:50:11.70	73.25	27.15	
2025-01-14 08:50:11.90	73.19	27.16	
2025-01-14 08:50:12.11	73.13	27.17	
2025-01-14 08:50:12.32	73.07	27.19	
2025-01-14 08:50:12.52	73.01	27.20	
2025-01-14 08:50:12.73	72.95	27.22	
2025-01-14 08:50:12.93	72.89	27.23	
2025-01-14 08:50:13.14	72.83	27.24	
2025-01-14 08:50:13.34	72.77	27.26	
2025-01-14 08:50:13.54	72.71	27.27	
2025-01-14 08:50:13.75	72.65	27.28	
2025-01-14 08:50:13.95	72.59	27.30	
2025-01-14 08:50:14.16	72.53	27.31	
2025-01-14 08:50:14.36	72.48	27.32	
2025-01-14 08:50:14.57	72.41	27.34	
2025-01-14 08:50:14.78	72.35	27.35	
2025-01-14 08:50:14.98	72.29	27.36	
2025-01-14 08:50:15.18	72.24	27.38	
2025-01-14 08:50:15.39	72.17	27.39	
2025-01-14 08:50:15.60	72.11	27.40	
2025-01-14 08:50:15.80	72.05	27.42	
2025-01-14 08:50:16.01	71.99	27.43	
2025-01-14 08:50:16.21	71.93	27.44	
2025-01-14 08:50:16.42	71.87	27.46	
2025-01-14 08:50:16.62	71.81	27.47	
2025-01-14 08:50:16.83	71.75	27.48	
2025-01-14 08:50:17.04	71.69	27.50	
2025-01-14 08:50:17.24	71.63	27.51	
2025-01-14 08:50:17.45	71.57	27.52	
2025-01-14 08:50:17.65	71.51	27.54	
2025-01-14 08:50:17.86	71.45	27.55	
2025-01-14 08:50:18.06	71.39	27.56	
2025-01-14 08:50:18.28	71.32	27.58	
2025-01-14 08:50:18.49	71.26	27.59	
2025-01-14 08:50:18.69	71.20	27.60	
2025-01-14 08:50:18.90	71.14	27.62	
2025-01-14 08:50:19.10	71.08	27.63	
2025-01-14 08:50:19.31	71.01	27.64	
2025-01-14 08:50:19.51	70.95	27.65	
2025-01-14 08:50:19.72	70.89	27.67	
2025-01-14 08:50:19.92	70.83	27.68	
2025-01-14 08:50:20.13	70.77	27.69	
2025-01-14 08:50:20.34	70.71	27.70	
2025-01-14 08:50:20.54	70.65	27.72	
2025-01-14 08:50:20.75	70.58	27.73	
2025-01-14 08:50:20.95	70.52	27.74	
2025-01-14 08:50:21.16	70.46	27.75	
2025-01-14 08:50:21.36	70.40	27.77	
2025-01-14 08:50:21.56	70.34	27.78	
2025-01-14 08:50:21.77	70.28	27.79	
2025-01-14 08:50:21.98	70.21	27.80	
2025-01-14 08:50:22.18	70.15	27.82	
2025-01-14 08:50:22.39	70.09	27.83	
2025-01-14 08:50:22.59	70.03	27.84	
2025-01-14 08:50:22.79	69.97	27.85	
2025-01-14 08:50:23.00	69.91	27.87	
2025-01-14 08:50:23.21	69.84	27.88	
2025-01-14 08:50:23.41	69.78	27.89	
2025-01-14 08:50:23.62	69.72	27.90	
2025-01-14 08:50:23.82	69.66	27.91	
2025-01-14 08:50:24.03	69.59	27.93	
2025-01-14 08:50:24.23	69.53	27.94	
2025-01-14 08:50:24.44	69.47	27.95	
2025-01-14 08:50:24.66	69.40	27.96	
2025-01-14 08:50:24.86	69.34	27.98	
2025-01-14 08:50:25.07	69.28	27.99	
2025-01-14 08:50:25.27	69.22	28.00	
2025-01-14 08:50:25.48	69.15	28.01	
2025-01-14 08:50:25.68	69.09	28.02	
2025-01-14 08:50:25.89	69.03	28.03	
2025-01-14 08:50:26.10	68.96	28.05	
2025-01-14 08:50:26.30	68.90	28.06	
2025-01-14 08:50:26.51	68.84	28.07	
2025-01-14 08:50:26.71	68.78	28.08	
2025-01-14 08:50:26.91	68.72	28.09	
2025-01-14 08:50:27.12	68.65	28.10	
2025-01-14 08:50:27.32	68.59	28.12	
2025-01-14 08:50:27.53	68.53	28.13	
2025-01-14 08:50:27.74	68.46	28.14	
2025-01-14 08:50:27.94	68.40	28.15	
2025-01-14 08:50:28.14	68.34	28.16	
2025-01-14 08:50:28.35	68.27	28.17	
2025-01-14 08:50:28.56	68.21	28.18	
2025-01-14 08:50:28.76	68.15	28.20	
2025-01-14 08:50:28.98	68.08	28.21	
2025-01-14 08:50:29.19	68.01	28.22	
2025-01-14 08:50:29.39	67.95	28.23	
2025-01-14 08:50:29.60	67.89	28.24	
2025-01-14 08:50:29.80	67.82	28.25	
2025-01-14 08:50:30.01	67.76	28.26	
2025-01-14 08:50:30.21	67.70	28.27	
2025-01-14 08:50:30.42	67.63	28.29	
2025-01-14 08:50:30.62	67.57	28.30	
2025-01-14 08:50:30.83	67.51	28.31	
2025-01-14 08:50:31.03	67.44	28.32	
2025-01-14 08:50:31.24	67.38	28.33	
2025-01-14 08:50:31.44	67.32	28.34	
2025-01-14 08:50:31.65	67.25	28.35	
2025-01-14 08:50:31.85	67.19	28.36	
2025-01-14 08:50:32.06	67.12	28.37	
2025-01-14 08:50:32.26	67.06	28.38	
2025-01-14 08:50:32.47	66.99	28.39	
2025-01-14 08:50:32.68	66.93	28.41	
2025-01-14 08:50:32.88	66.87	28.42	
2025-01-14 08:50:33.09	66.80	28.43	
2025-01-14 08:50:33.29	66.74	28.44	
2025-01-14 08:50:33.50	66.67	28.45	
2025-01-14 08:50:33.70	66.61	28.46	
2025-01-14 08:50:33.91	66.54	28.47	
2025-01-14 08:50:34.12	66.48	28.48	
2025-01-14 08:50:34.32	66.41	28.49	
2025-01-14 08:50:34.53	66.35	28.50	
2025-01-14 08:50:34.73	66.29	28.51	
2025-01-14 08:50:34.94	66.22	28.52	
2025-01-14 08:50:35.14	66.16	28.53	
2025-01-14 08:50:35.34	66.09	28.54	
2025-01-14 08:50:35.55	66.03	28.55	
2025-01-14 08:50:35.76	65.96	28.56	
2025-01-14 08:50:35.96	65.90	28.57	
2025-01-14 08:50:36.17	65.83	28.58	
2025-01-14 08:50:36.37	65.77	28.59	
2025-01-14 08:50:36.58	65.70	28.60	
2025-01-14 08:50:36.78	65.64	28.61	
2025-01-14 08:50:36.99	65.57	28.62	
2025-01-14 08:50:37.19	65.51	28.63	
2025-01-14 08:50:37.40	65.44	28.64	
2025-01-14 08:50:37.60	65.38	28.65	
2025-01-14 08:50:37.81	65.31	28.66	
2025-01-14 08:50:38.02	65.24	28.67	
2025-01-14 08:50:38.22	65.18	28.68	
2025-01-14 08:50:38.43	65.11	28.69	
2025-01-14 08:50:38.63	65.05	28.70	
2025-01-14 08:50:38.84	64.98	28.71	
2025-01-14 08:50:39.04	64.92	28.72	
2025-01-14 08:50:39.25	64.85	28.73	
2025-01-14 08:50:39.45	64.79	28.74	
2025-01-14 08:50:39.66	64.72	28.75	
2025-01-14 08:50:39.86	64.66	28.75	
2025-01-14 08:50:40.07	64.59	28.76	
2025-01-14 08:50:40.27	64.53	28.77	
2025-01-14 08:50:40.48	64.46	28.78	
2025-01-14 08:50:40.68	64.40	28.79	
2025-01-14 08:50:40.89	64.33	28.80	
2025-01-14 08:50:41.09	64.26	28.81	
2025-01-14 08:50:41.30	64.20	28.82	
2025-01-14 08:50:41.50	64.13	28.83	
2025-01-14 08:50:41.71	64.07	28.84	
2025-01-14 08:50:41.91	64.00	28.85	
2025-01-14 08:50:42.12	63.93	28.85	
2025-01-14 08:50:42.32	63.87	28.86	
2025-01-14 08:50:42.53	63.80	28.87	
2025-01-14 08:50:42.73	63.74	28.88	
2025-01-14 08:50:42.95	63.67	28.89	
2025-01-14 08:50:43.16	63.60	28.90	
2025-01-14 08:50:43.36	63.53	28.91	
2025-01-14 08:50:43.57	63.47	28.92	
2025-01-14 08:50:43.77	63.40	28.92	
2025-01-14 08:50:43.99	63.33	28.93	
2025-01-14 08:50:44.20	63.26	28.94	
2025-01-14 08:50:44.40	63.20	28.95	
2025-01-14 08:50:44.61	63.13	28.96	
2025-01-14 08:50:44.81	63.07	28.97	
2025-01-14 08:50:45.02	63.00	28.98	
2025-01-14 08:50:45.22	62.93	28.98	
2025-01-14 08:50:45.43	62.86	28.99	
2025-01-14 08:50:45.64	62.80	29.00	
2025-01-14 08:50:45.84	62.73	29.01	
2025-01-14 08:50:46.04	62.67	29.02	
2025-01-14 08:50:46.25	62.60	29.03	
2025-01-14 08:50:46.45	62.53	29.03	
2025-01-14 08:50:46.66	62.46	29.04	
2025-01-14 08:50:46.87	62.40	29.05	
2025-01-14 08:50:47.07	62.33	29.06	
2025-01-14 08:50:47.27	62.27	29.06	
2025-01-14 08:50:47.48	62.20	29.07	
2025-01-14 08:50:47.69	62.13	29.08	
2025-01-14 08:50:47.89	62.06	29.09	
2025-01-14 08:50:48.10	62.00	29.10	
2025-01-14 08:50:48.30	61.93	29.10	
2025-01-14 08:50:48.51	61.86	29.11	
2025-01-14 08:50:48.71	61.80	29.12	
2025-01-14 08:50:48.92	61.73	29.13	
2025-01-14 08:50:49.12	61.66	29.13	
2025-01-14 08:50:49.33	61.59	29.14	
2025-01-14 08:50:49.53	61.53	29.15	
2025-01-14 08:50:49.74	61.46	29.16	
2025-01-14 08:50:49.94	61.39	29.16	
2025-01-14 08:50:50.15	61.32	29.17	
2025-01-14 08:50:50.37	61.25	29.18	
2025-01-14 08:50:50.57	61.19	29.19	
2025-01-14 08:50:50.78	61.12	29.19	
2025-01-14 08:50:50.98	61.05	29.20	
2025-01-14 08:50:51.19	60.98	29.21	
2025-01-14 08:50:51.39	60.92	29.21	
2025-01-14 08:50:51.59	60.85	29.22	
2025-01-14 08:50:51.80	60.78	29.23	
2025-01-14 08:50:52.00	60.72	29.23	
2025-01-14 08:50:52.21	60.65	29.24	
2025-01-14 08:50:52.41	60.58	29.25	
2025-01-14 08:50:52.62	60.51	29.26	
2025-01-14 08:50:52.82	60.45	29.26	
2025-01-14 08:50:53.03	60.38	29.27	
2025-01-14 08:50:53.23	60.31	29.28	
2025-01-14 08:50:53.44	60.24	29.28	
2025-01-14 08:50:53.64	60.18	29.29	
2025-01-14 08:50:53.85	60.11	29.30	
2025-01-14 08:50:54.05	60.04	29.30	
2025-01-14 08:50:54.26	59.97	29.31	
2025-01-14 08:50:54.47	59.90	29.31	
2025-01-14 08:50:54.68	59.83	29.32	
2025-01-14 08:50:54.89	59.76	29.33	
2025-01-14 08:50:55.10	59.69	29.33	
2025-01-14 08:50:55.30	59.63	29.34	
2025-01-14 08:50:55.51	59.56	29.35	
2025-01-14 08:50:55.71	59.49	29.35	
2025-01-14 08:50:55.92	59.42	29.36	
2025-01-14 08:50:56.12	59.35	29.36	
2025-01-14 08:50:56.33	59.29	29.37	
2025-01-14 08:50:56.54	59.22	29.38	
2025-01-14 08:50:56.74	59.15	29.38	
2025-01-14 08:50:56.95	59.08	29.39	
2025-01-14 08:50:57.15	59.01	29.39	
2025-01-14 08:50:57.36	58.94	29.40	
2025-01-14 08:50:57.56	58.88	29.41	
2025-01-14 08:50:57.77	58.81	29.41	
2025-01-14 08:50:57.97	58.74	29.42	
2025-01-14 08:50:58.18	58.67	29.42	
2025-01-14 08:50:58.38	58.60	29.43	
2025-01-14 08:50:58.59	58.53	29.43	
2025-01-14 08:50:58.79	58.47	29.44	
2025-01-14 08:50:59.00	58.40	29.44	
2025-01-14 08:50:59.20	58.33	29.45	
2025-01-14 08:50:59.41	58.26	29.46	
2025-01-14 08:50:59.61	58.19	29.46	
2025-01-14 08:50:59.82	58.12	29.47	
2025-01-14 08:51:00.04	58.05	29.47	
