passes_logs/2025/01/14/SPB_Silybum_02/SPB_Silybum_02__20250114_165735_TERRA_rec.log

#Pass ID: 20250114_165735_TERRA
#Satellite: TERRA
#Configuration: TERRA
#Start time: 2025-01-14 16:57:34

#Version: 2.0.20230423
#Station: SPB_Silybum_02
#Location: 30.233357 lon 59.946436 lat
#TLE: 1 25994U 99068A   25013.82437757  .00000752  00000+0  16464-3 0  9992
#TLE: 2 25994  98.0218  76.8921 0003482  75.0849  16.5253 14.60392614333908

#Time	Az	El	Level	Level2	SNR	BER	Gain	Gain2
2025-01-14 16:57:36.08	113.05	4.05	
2025-01-14 16:57:36.28	113.04	4.07	
2025-01-14 16:57:36.48	113.02	4.08	
2025-01-14 16:57:36.69	113.01	4.09	
2025-01-14 16:57:36.90	112.99	4.11	
2025-01-14 16:57:37.10	112.97	4.12	
2025-01-14 16:57:37.31	112.96	4.13	
2025-01-14 16:57:37.51	112.94	4.15	
2025-01-14 16:57:37.72	112.93	4.16	
2025-01-14 16:57:37.92	112.91	4.17	
2025-01-14 16:57:38.13	112.89	4.19	
2025-01-14 16:57:38.33	112.88	4.20	
2025-01-14 16:57:38.54	112.86	4.21	
2025-01-14 16:57:38.74	112.85	4.22	
2025-01-14 16:57:38.95	112.83	4.24	
2025-01-14 16:57:39.15	112.81	4.25	
2025-01-14 16:57:39.36	112.80	4.26	
2025-01-14 16:57:39.56	112.78	4.28	
2025-01-14 16:57:39.76	112.77	4.29	
2025-01-14 16:57:39.97	112.75	4.30	
2025-01-14 16:57:40.18	112.73	4.32	
2025-01-14 16:57:40.38	112.72	4.33	
2025-01-14 16:57:40.59	112.70	4.34	
2025-01-14 16:57:40.79	112.68	4.36	
2025-01-14 16:57:41.00	112.67	4.37	
2025-01-14 16:57:41.20	112.65	4.38	
2025-01-14 16:57:41.41	112.63	4.40	
2025-01-14 16:57:41.61	112.62	4.41	
2025-01-14 16:57:41.82	112.60	4.42	
2025-01-14 16:57:42.04	112.58	4.44	
2025-01-14 16:57:42.24	112.57	4.45	
2025-01-14 16:57:42.45	112.55	4.46	
2025-01-14 16:57:42.65	112.54	4.48	
2025-01-14 16:57:42.86	112.52	4.49	
2025-01-14 16:57:43.06	112.50	4.50	
2025-01-14 16:57:43.27	112.49	4.52	
2025-01-14 16:57:43.47	112.47	4.53	
2025-01-14 16:57:43.68	112.45	4.54	
2025-01-14 16:57:43.88	112.44	4.55	
2025-01-14 16:57:44.09	112.42	4.57	
2025-01-14 16:57:44.29	112.40	4.58	
2025-01-14 16:57:44.50	112.39	4.60	
2025-01-14 16:57:44.70	112.37	4.61	
2025-01-14 16:57:44.91	112.35	4.62	
2025-01-14 16:57:45.11	112.34	4.63	
2025-01-14 16:57:45.32	112.32	4.65	
2025-01-14 16:57:45.52	112.30	4.66	
2025-01-14 16:57:45.73	112.29	4.67	
2025-01-14 16:57:45.93	112.27	4.69	
2025-01-14 16:57:46.14	112.25	4.70	
2025-01-14 16:57:46.34	112.24	4.71	
2025-01-14 16:57:46.55	112.22	4.73	
2025-01-14 16:57:46.76	112.20	4.74	
2025-01-14 16:57:46.96	112.19	4.75	
2025-01-14 16:57:47.17	112.17	4.77	
2025-01-14 16:57:47.37	112.15	4.78	
2025-01-14 16:57:47.58	112.14	4.80	
2025-01-14 16:57:47.78	112.12	4.81	
2025-01-14 16:57:47.99	112.10	4.82	
2025-01-14 16:57:48.20	112.08	4.84	
2025-01-14 16:57:48.42	112.07	4.85	
2025-01-14 16:57:48.62	112.05	4.86	
2025-01-14 16:57:48.82	112.03	4.88	
2025-01-14 16:57:49.03	112.02	4.89	
2025-01-14 16:57:49.24	112.00	4.90	
2025-01-14 16:57:49.44	111.98	4.92	
2025-01-14 16:57:49.65	111.96	4.93	
2025-01-14 16:57:49.85	111.95	4.94	
2025-01-14 16:57:50.06	111.93	4.96	
2025-01-14 16:57:50.26	111.91	4.97	
2025-01-14 16:57:50.46	111.90	4.98	
2025-01-14 16:57:50.67	111.88	5.00	
2025-01-14 16:57:50.87	111.86	5.01	
2025-01-14 16:57:51.08	111.85	5.02	
2025-01-14 16:57:51.28	111.83	5.04	
2025-01-14 16:57:51.49	111.81	5.05	
2025-01-14 16:57:51.69	111.79	5.06	
2025-01-14 16:57:51.90	111.78	5.08	
2025-01-14 16:57:52.10	111.76	5.09	
2025-01-14 16:57:52.30	111.74	5.10	
2025-01-14 16:57:52.51	111.73	5.12	
2025-01-14 16:57:52.71	111.71	5.13	
2025-01-14 16:57:52.92	111.69	5.14	
2025-01-14 16:57:53.12	111.67	5.16	
2025-01-14 16:57:53.33	111.66	5.17	
2025-01-14 16:57:53.54	111.64	5.19	
2025-01-14 16:57:53.74	111.62	5.20	
2025-01-14 16:57:53.95	111.60	5.21	
2025-01-14 16:57:54.15	111.59	5.23	
2025-01-14 16:57:54.36	111.57	5.24	
2025-01-14 16:57:54.56	111.55	5.25	
2025-01-14 16:57:54.77	111.53	5.27	
2025-01-14 16:57:54.97	111.52	5.28	
2025-01-14 16:57:55.18	111.50	5.29	
2025-01-14 16:57:55.38	111.48	5.31	
2025-01-14 16:57:55.59	111.46	5.32	
2025-01-14 16:57:55.79	111.45	5.33	
2025-01-14 16:57:55.99	111.43	5.35	
2025-01-14 16:57:56.20	111.41	5.36	
2025-01-14 16:57:56.41	111.39	5.37	
2025-01-14 16:57:56.61	111.38	5.39	
2025-01-14 16:57:56.81	111.36	5.40	
2025-01-14 16:57:57.02	111.34	5.42	
2025-01-14 16:57:57.23	111.32	5.43	
2025-01-14 16:57:57.43	111.31	5.44	
2025-01-14 16:57:57.64	111.29	5.46	
2025-01-14 16:57:57.84	111.27	5.47	
2025-01-14 16:57:58.06	111.25	5.48	
2025-01-14 16:57:58.26	111.23	5.50	
2025-01-14 16:57:58.47	111.22	5.51	
2025-01-14 16:57:58.68	111.20	5.53	
2025-01-14 16:57:58.88	111.18	5.54	
2025-01-14 16:57:59.08	111.16	5.55	
2025-01-14 16:57:59.29	111.14	5.57	
2025-01-14 16:57:59.50	111.13	5.58	
2025-01-14 16:57:59.70	111.11	5.59	
2025-01-14 16:57:59.91	111.09	5.61	
2025-01-14 16:58:00.11	111.07	5.62	
2025-01-14 16:58:00.32	111.05	5.63	
2025-01-14 16:58:00.52	111.04	5.65	
2025-01-14 16:58:00.73	111.02	5.66	
2025-01-14 16:58:00.94	111.00	5.68	
2025-01-14 16:58:01.14	110.98	5.69	
2025-01-14 16:58:01.34	110.97	5.70	
2025-01-14 16:58:01.55	110.95	5.72	
2025-01-14 16:58:01.76	110.93	5.73	
2025-01-14 16:58:01.96	110.91	5.74	
2025-01-14 16:58:02.17	110.89	5.76	
2025-01-14 16:58:02.37	110.87	5.77	
2025-01-14 16:58:02.58	110.86	5.79	
2025-01-14 16:58:02.78	110.84	5.80	
2025-01-14 16:58:02.99	110.82	5.81	
2025-01-14 16:58:03.20	110.80	5.83	
2025-01-14 16:58:03.40	110.78	5.84	
2025-01-14 16:58:03.60	110.77	5.85	
2025-01-14 16:58:03.81	110.75	5.87	
2025-01-14 16:58:04.02	110.73	5.88	
2025-01-14 16:58:04.22	110.71	5.90	
2025-01-14 16:58:04.43	110.69	5.91	
2025-01-14 16:58:04.63	110.67	5.92	
2025-01-14 16:58:04.84	110.65	5.94	
2025-01-14 16:58:05.04	110.64	5.95	
2025-01-14 16:58:05.25	110.62	5.97	
2025-01-14 16:58:05.46	110.60	5.98	
2025-01-14 16:58:05.67	110.58	5.99	
2025-01-14 16:58:05.87	110.56	6.01	
2025-01-14 16:58:06.08	110.54	6.02	
2025-01-14 16:58:06.29	110.52	6.04	
2025-01-14 16:58:06.49	110.51	6.05	
2025-01-14 16:58:06.69	110.49	6.06	
2025-01-14 16:58:06.90	110.47	6.08	
2025-01-14 16:58:07.11	110.45	6.09	
2025-01-14 16:58:07.31	110.43	6.10	
2025-01-14 16:58:07.51	110.41	6.12	
2025-01-14 16:58:07.72	110.39	6.13	
2025-01-14 16:58:07.93	110.38	6.15	
2025-01-14 16:58:08.13	110.36	6.16	
2025-01-14 16:58:08.34	110.34	6.17	
2025-01-14 16:58:08.54	110.32	6.19	
2025-01-14 16:58:08.75	110.30	6.20	
2025-01-14 16:58:08.95	110.28	6.22	
2025-01-14 16:58:09.16	110.26	6.23	
2025-01-14 16:58:09.36	110.24	6.24	
2025-01-14 16:58:09.57	110.22	6.26	
2025-01-14 16:58:09.77	110.21	6.27	
2025-01-14 16:58:09.98	110.19	6.29	
2025-01-14 16:58:10.18	110.17	6.30	
2025-01-14 16:58:10.39	110.15	6.31	
2025-01-14 16:58:10.59	110.13	6.33	
2025-01-14 16:58:10.80	110.11	6.34	
2025-01-14 16:58:11.00	110.09	6.36	
2025-01-14 16:58:11.21	110.07	6.37	
2025-01-14 16:58:11.41	110.06	6.38	
2025-01-14 16:58:11.62	110.04	6.40	
2025-01-14 16:58:11.82	110.02	6.41	
2025-01-14 16:58:12.03	110.00	6.43	
2025-01-14 16:58:12.24	109.98	6.44	
2025-01-14 16:58:12.44	109.96	6.45	
2025-01-14 16:58:12.65	109.94	6.47	
2025-01-14 16:58:12.85	109.92	6.48	
2025-01-14 16:58:13.06	109.90	6.50	
2025-01-14 16:58:13.26	109.88	6.51	
2025-01-14 16:58:13.47	109.86	6.52	
2025-01-14 16:58:13.67	109.84	6.54	
2025-01-14 16:58:13.88	109.82	6.55	
2025-01-14 16:58:14.08	109.81	6.57	
2025-01-14 16:58:14.29	109.79	6.58	
2025-01-14 16:58:14.50	109.77	6.59	
2025-01-14 16:58:14.70	109.75	6.61	
2025-01-14 16:58:14.91	109.73	6.62	
2025-01-14 16:58:15.11	109.71	6.64	
2025-01-14 16:58:15.32	109.69	6.65	
2025-01-14 16:58:15.52	109.67	6.66	
2025-01-14 16:58:15.73	109.65	6.68	
2025-01-14 16:58:15.93	109.63	6.69	
2025-01-14 16:58:16.14	109.61	6.71	
2025-01-14 16:58:16.34	109.59	6.72	
2025-01-14 16:58:16.55	109.57	6.74	
2025-01-14 16:58:16.75	109.55	6.75	
2025-01-14 16:58:16.96	109.53	6.76	
2025-01-14 16:58:17.16	109.51	6.78	
2025-01-14 16:58:17.37	109.49	6.79	
2025-01-14 16:58:17.57	109.47	6.81	
2025-01-14 16:58:17.78	109.45	6.82	
2025-01-14 16:58:17.99	109.43	6.83	
2025-01-14 16:58:18.19	109.41	6.85	
2025-01-14 16:58:18.40	109.39	6.86	
2025-01-14 16:58:18.60	109.38	6.88	
2025-01-14 16:58:18.81	109.36	6.89	
2025-01-14 16:58:19.01	109.34	6.91	
2025-01-14 16:58:19.22	109.32	6.92	
2025-01-14 16:58:19.42	109.30	6.93	
2025-01-14 16:58:19.63	109.28	6.95	
2025-01-14 16:58:19.83	109.26	6.96	
2025-01-14 16:58:20.04	109.24	6.98	
2025-01-14 16:58:20.24	109.22	6.99	
2025-01-14 16:58:20.45	109.20	7.01	
2025-01-14 16:58:20.65	109.18	7.02	
2025-01-14 16:58:20.86	109.16	7.03	
2025-01-14 16:58:21.06	109.14	7.05	
2025-01-14 16:58:21.27	109.12	7.06	
2025-01-14 16:58:21.47	109.10	7.08	
2025-01-14 16:58:21.68	109.08	7.09	
2025-01-14 16:58:21.89	109.06	7.11	
2025-01-14 16:58:22.09	109.04	7.12	
2025-01-14 16:58:22.30	109.02	7.13	
2025-01-14 16:58:22.50	109.00	7.15	
2025-01-14 16:58:22.71	108.97	7.16	
2025-01-14 16:58:22.91	108.96	7.18	
2025-01-14 16:58:23.12	108.93	7.19	
2025-01-14 16:58:23.32	108.91	7.20	
2025-01-14 16:58:23.54	108.89	7.22	
2025-01-14 16:58:23.75	108.87	7.23	
2025-01-14 16:58:23.95	108.85	7.25	
2025-01-14 16:58:24.16	108.83	7.26	
2025-01-14 16:58:24.37	108.81	7.28	
2025-01-14 16:58:24.57	108.79	7.29	
2025-01-14 16:58:24.77	108.77	7.31	
2025-01-14 16:58:24.98	108.75	7.32	
2025-01-14 16:58:25.18	108.73	7.33	
2025-01-14 16:58:25.39	108.71	7.35	
2025-01-14 16:58:25.60	108.69	7.36	
2025-01-14 16:58:25.81	108.67	7.38	
2025-01-14 16:58:26.02	108.65	7.39	
2025-01-14 16:58:26.22	108.63	7.41	
2025-01-14 16:58:26.43	108.60	7.42	
2025-01-14 16:58:26.64	108.58	7.44	
2025-01-14 16:58:26.85	108.56	7.45	
2025-01-14 16:58:27.06	108.54	7.47	
2025-01-14 16:58:27.26	108.52	7.48	
2025-01-14 16:58:27.47	108.50	7.50	
2025-01-14 16:58:27.67	108.48	7.51	
2025-01-14 16:58:27.88	108.46	7.52	
2025-01-14 16:58:28.08	108.44	7.54	
2025-01-14 16:58:28.29	108.42	7.55	
2025-01-14 16:58:28.49	108.40	7.57	
2025-01-14 16:58:28.70	108.38	7.58	
2025-01-14 16:58:28.90	108.36	7.60	
2025-01-14 16:58:29.11	108.33	7.61	
2025-01-14 16:58:29.31	108.31	7.63	
2025-01-14 16:58:29.52	108.29	7.64	
2025-01-14 16:58:29.72	108.27	7.65	
2025-01-14 16:58:29.93	108.25	7.67	
2025-01-14 16:58:30.13	108.23	7.68	
2025-01-14 16:58:30.34	108.21	7.70	
2025-01-14 16:58:30.54	108.19	7.71	
2025-01-14 16:58:30.75	108.17	7.73	
2025-01-14 16:58:30.96	108.14	7.74	
2025-01-14 16:58:31.16	108.12	7.76	
2025-01-14 16:58:31.36	108.10	7.77	
2025-01-14 16:58:31.57	108.08	7.79	
2025-01-14 16:58:31.78	108.06	7.80	
2025-01-14 16:58:31.98	108.04	7.81	
2025-01-14 16:58:32.18	108.02	7.83	
2025-01-14 16:58:32.39	108.00	7.84	
2025-01-14 16:58:32.59	107.98	7.86	
2025-01-14 16:58:32.80	107.95	7.87	
2025-01-14 16:58:33.00	107.93	7.89	
2025-01-14 16:58:33.21	107.91	7.90	
2025-01-14 16:58:33.41	107.89	7.92	
2025-01-14 16:58:33.62	107.87	7.93	
2025-01-14 16:58:33.82	107.85	7.95	
2025-01-14 16:58:34.04	107.82	7.96	
2025-01-14 16:58:34.25	107.80	7.98	
2025-01-14 16:58:34.45	107.78	7.99	
2025-01-14 16:58:34.66	107.76	8.01	
2025-01-14 16:58:34.87	107.74	8.02	
2025-01-14 16:58:35.07	107.72	8.03	
2025-01-14 16:58:35.27	107.70	8.05	
2025-01-14 16:58:35.48	107.67	8.06	
2025-01-14 16:58:35.69	107.65	8.08	
2025-01-14 16:58:35.89	107.63	8.09	
2025-01-14 16:58:36.10	107.61	8.11	
2025-01-14 16:58:36.30	107.59	8.12	
2025-01-14 16:58:36.51	107.56	8.14	
2025-01-14 16:58:36.71	107.54	8.15	
2025-01-14 16:58:36.92	107.52	8.17	
2025-01-14 16:58:37.12	107.50	8.18	
2025-01-14 16:58:37.33	107.48	8.20	
2025-01-14 16:58:37.53	107.46	8.21	
2025-01-14 16:58:37.74	107.43	8.23	
2025-01-14 16:58:37.94	107.41	8.24	
2025-01-14 16:58:38.15	107.39	8.25	
2025-01-14 16:58:38.35	107.37	8.27	
2025-01-14 16:58:38.56	107.35	8.28	
2025-01-14 16:58:38.76	107.32	8.30	
2025-01-14 16:58:38.97	107.30	8.31	
2025-01-14 16:58:39.18	107.28	8.33	
2025-01-14 16:58:39.38	107.26	8.34	
2025-01-14 16:58:39.59	107.23	8.36	
2025-01-14 16:58:39.79	107.21	8.37	
2025-01-14 16:58:40.00	107.19	8.39	
2025-01-14 16:58:40.20	107.17	8.40	
2025-01-14 16:58:40.41	107.15	8.42	
2025-01-14 16:58:40.61	107.12	8.43	
2025-01-14 16:58:40.82	107.10	8.45	
2025-01-14 16:58:41.02	107.08	8.46	
2025-01-14 16:58:41.23	107.06	8.48	
2025-01-14 16:58:41.43	107.04	8.49	
2025-01-14 16:58:41.64	107.01	8.51	
2025-01-14 16:58:41.84	106.99	8.52	
2025-01-14 16:58:42.05	106.97	8.54	
2025-01-14 16:58:42.25	106.95	8.55	
2025-01-14 16:58:42.46	106.92	8.57	
2025-01-14 16:58:42.66	106.90	8.58	
2025-01-14 16:58:42.87	106.88	8.60	
2025-01-14 16:58:43.07	106.86	8.61	
2025-01-14 16:58:43.28	106.83	8.63	
2025-01-14 16:58:43.48	106.81	8.64	
2025-01-14 16:58:43.69	106.79	8.65	
2025-01-14 16:58:43.89	106.77	8.67	
2025-01-14 16:58:44.10	106.74	8.68	
2025-01-14 16:58:44.30	106.72	8.70	
2025-01-14 16:58:44.51	106.70	8.71	
2025-01-14 16:58:44.72	106.67	8.73	
2025-01-14 16:58:44.92	106.65	8.74	
2025-01-14 16:58:45.12	106.63	8.76	
2025-01-14 16:58:45.33	106.61	8.77	
2025-01-14 16:58:45.54	106.58	8.79	
2025-01-14 16:58:45.74	106.56	8.80	
2025-01-14 16:58:45.94	106.54	8.82	
2025-01-14 16:58:46.15	106.51	8.83	
2025-01-14 16:58:46.35	106.49	8.85	
2025-01-14 16:58:46.56	106.47	8.86	
2025-01-14 16:58:46.77	106.44	8.88	
2025-01-14 16:58:46.97	106.42	8.89	
2025-01-14 16:58:47.17	106.40	8.91	
2025-01-14 16:58:47.38	106.38	8.92	
2025-01-14 16:58:47.59	106.35	8.94	
2025-01-14 16:58:47.79	106.33	8.95	
2025-01-14 16:58:48.00	106.31	8.97	
2025-01-14 16:58:48.20	106.28	8.98	
2025-01-14 16:58:48.41	106.26	9.00	
2025-01-14 16:58:48.62	106.24	9.01	
2025-01-14 16:58:48.82	106.21	9.03	
2025-01-14 16:58:49.03	106.19	9.04	
2025-01-14 16:58:49.23	106.17	9.06	
2025-01-14 16:58:49.44	106.14	9.07	
2025-01-14 16:58:49.64	106.12	9.09	
2025-01-14 16:58:49.85	106.10	9.10	
2025-01-14 16:58:50.06	106.07	9.12	
2025-01-14 16:58:50.26	106.05	9.13	
2025-01-14 16:58:50.47	106.03	9.15	
2025-01-14 16:58:50.67	106.00	9.16	
2025-01-14 16:58:50.88	105.98	9.18	
2025-01-14 16:58:51.08	105.96	9.20	
2025-01-14 16:58:51.29	105.93	9.21	
2025-01-14 16:58:51.49	105.91	9.23	
2025-01-14 16:58:51.70	105.88	9.24	
2025-01-14 16:58:51.91	105.86	9.26	
2025-01-14 16:58:52.11	105.84	9.27	
2025-01-14 16:58:52.31	105.81	9.29	
2025-01-14 16:58:52.52	105.79	9.30	
2025-01-14 16:58:52.72	105.77	9.32	
2025-01-14 16:58:52.93	105.74	9.33	
2025-01-14 16:58:53.13	105.72	9.35	
2025-01-14 16:58:53.34	105.69	9.36	
2025-01-14 16:58:53.54	105.67	9.38	
2025-01-14 16:58:53.75	105.65	9.39	
2025-01-14 16:58:53.95	105.62	9.41	
2025-01-14 16:58:54.16	105.60	9.42	
2025-01-14 16:58:54.37	105.57	9.44	
2025-01-14 16:58:54.57	105.55	9.45	
2025-01-14 16:58:54.78	105.53	9.47	
2025-01-14 16:58:54.98	105.50	9.48	
2025-01-14 16:58:55.19	105.48	9.50	
2025-01-14 16:58:55.39	105.45	9.51	
2025-01-14 16:58:55.61	105.43	9.53	
2025-01-14 16:58:55.82	105.40	9.55	
2025-01-14 16:58:56.02	105.38	9.56	
2025-01-14 16:58:56.23	105.35	9.58	
2025-01-14 16:58:56.43	105.33	9.59	
2025-01-14 16:58:56.64	105.31	9.61	
2025-01-14 16:58:56.84	105.28	9.62	
2025-01-14 16:58:57.05	105.26	9.64	
2025-01-14 16:58:57.25	105.23	9.65	
2025-01-14 16:58:57.46	105.21	9.67	
2025-01-14 16:58:57.66	105.19	9.68	
2025-01-14 16:58:57.87	105.16	9.70	
2025-01-14 16:58:58.07	105.14	9.71	
2025-01-14 16:58:58.28	105.11	9.73	
2025-01-14 16:58:58.48	105.09	9.74	
2025-01-14 16:58:58.69	105.06	9.76	
2025-01-14 16:58:58.89	105.04	9.77	
2025-01-14 16:58:59.10	105.01	9.79	
2025-01-14 16:58:59.30	104.99	9.80	
2025-01-14 16:58:59.51	104.96	9.82	
2025-01-14 16:58:59.71	104.94	9.84	
2025-01-14 16:58:59.92	104.91	9.85	
2025-01-14 16:59:00.13	104.89	9.87	
2025-01-14 16:59:00.34	104.86	9.88	
2025-01-14 16:59:00.54	104.84	9.90	
2025-01-14 16:59:00.75	104.81	9.91	
2025-01-14 16:59:00.95	104.79	9.93	
2025-01-14 16:59:01.16	104.76	9.94	
2025-01-14 16:59:01.36	104.74	9.96	
2025-01-14 16:59:01.57	104.71	9.97	
2025-01-14 16:59:01.77	104.69	9.99	
2025-01-14 16:59:01.97	104.66	10.00	
2025-01-14 16:59:02.18	104.64	10.02	
2025-01-14 16:59:02.39	104.61	10.04	
2025-01-14 16:59:02.59	104.59	10.05	
2025-01-14 16:59:02.80	104.56	10.07	
2025-01-14 16:59:03.00	104.54	10.08	
2025-01-14 16:59:03.21	104.51	10.10	
2025-01-14 16:59:03.41	104.49	10.11	
2025-01-14 16:59:03.62	104.46	10.13	
2025-01-14 16:59:03.83	104.44	10.14	
2025-01-14 16:59:04.03	104.41	10.16	
2025-01-14 16:59:04.24	104.39	10.18	
2025-01-14 16:59:04.45	104.36	10.19	
2025-01-14 16:59:04.66	104.33	10.21	
2025-01-14 16:59:04.86	104.31	10.22	
2025-01-14 16:59:05.06	104.28	10.24	
2025-01-14 16:59:05.27	104.26	10.25	
2025-01-14 16:59:05.47	104.23	10.27	
2025-01-14 16:59:05.68	104.21	10.28	
2025-01-14 16:59:05.88	104.18	10.30	
2025-01-14 16:59:06.09	104.16	10.32	
2025-01-14 16:59:06.29	104.13	10.33	
2025-01-14 16:59:06.50	104.10	10.35	
2025-01-14 16:59:06.70	104.08	10.36	
2025-01-14 16:59:06.91	104.05	10.38	
2025-01-14 16:59:07.12	104.03	10.39	
2025-01-14 16:59:07.32	104.00	10.41	
2025-01-14 16:59:07.53	103.97	10.42	
2025-01-14 16:59:07.73	103.95	10.44	
2025-01-14 16:59:07.94	103.92	10.46	
2025-01-14 16:59:08.14	103.90	10.47	
2025-01-14 16:59:08.34	103.87	10.49	
2025-01-14 16:59:08.55	103.85	10.50	
2025-01-14 16:59:08.75	103.82	10.52	
2025-01-14 16:59:08.96	103.79	10.53	
2025-01-14 16:59:09.16	103.77	10.55	
2025-01-14 16:59:09.37	103.74	10.56	
2025-01-14 16:59:09.57	103.72	10.58	
2025-01-14 16:59:09.78	103.69	10.59	
2025-01-14 16:59:09.98	103.66	10.61	
2025-01-14 16:59:10.19	103.64	10.63	
2025-01-14 16:59:10.39	103.61	10.64	
2025-01-14 16:59:10.60	103.58	10.66	
2025-01-14 16:59:10.80	103.56	10.67	
2025-01-14 16:59:11.01	103.53	10.69	
2025-01-14 16:59:11.22	103.50	10.70	
2025-01-14 16:59:11.42	103.48	10.72	
2025-01-14 16:59:11.62	103.45	10.74	
2025-01-14 16:59:11.83	103.43	10.75	
2025-01-14 16:59:12.04	103.40	10.77	
2025-01-14 16:59:12.24	103.37	10.78	
2025-01-14 16:59:12.45	103.35	10.80	
2025-01-14 16:59:12.65	103.32	10.81	
2025-01-14 16:59:12.86	103.29	10.83	
2025-01-14 16:59:13.06	103.27	10.85	
2025-01-14 16:59:13.27	103.24	10.86	
2025-01-14 16:59:13.47	103.21	10.88	
2025-01-14 16:59:13.68	103.19	10.89	
2025-01-14 16:59:13.88	103.16	10.91	
2025-01-14 16:59:14.09	103.13	10.92	
2025-01-14 16:59:14.30	103.10	10.94	
2025-01-14 16:59:14.50	103.08	10.96	
2025-01-14 16:59:14.71	103.05	10.97	
2025-01-14 16:59:14.91	103.02	10.99	
2025-01-14 16:59:15.12	103.00	11.00	
2025-01-14 16:59:15.32	102.97	11.02	
2025-01-14 16:59:15.53	102.94	11.03	
2025-01-14 16:59:15.73	102.92	11.05	
2025-01-14 16:59:15.94	102.89	11.07	
2025-01-14 16:59:16.14	102.86	11.08	
2025-01-14 16:59:16.35	102.83	11.10	
2025-01-14 16:59:16.56	102.81	11.11	
2025-01-14 16:59:16.76	102.78	11.13	
2025-01-14 16:59:16.97	102.75	11.15	
2025-01-14 16:59:17.17	102.73	11.16	
2025-01-14 16:59:17.38	102.70	11.18	
2025-01-14 16:59:17.58	102.67	11.19	
2025-01-14 16:59:17.79	102.64	11.21	
2025-01-14 16:59:17.99	102.62	11.22	
2025-01-14 16:59:18.20	102.59	11.24	
2025-01-14 16:59:18.40	102.56	11.26	
2025-01-14 16:59:18.61	102.53	11.27	
2025-01-14 16:59:18.81	102.51	11.29	
2025-01-14 16:59:19.03	102.48	11.30	
2025-01-14 16:59:19.24	102.45	11.32	
2025-01-14 16:59:19.44	102.42	11.34	
2025-01-14 16:59:19.65	102.39	11.35	
2025-01-14 16:59:19.85	102.37	11.37	
2025-01-14 16:59:20.06	102.34	11.38	
2025-01-14 16:59:20.26	102.31	11.40	
2025-01-14 16:59:20.47	102.28	11.42	
2025-01-14 16:59:20.67	102.25	11.43	
2025-01-14 16:59:20.88	102.23	11.45	
2025-01-14 16:59:21.08	102.20	11.46	
2025-01-14 16:59:21.29	102.17	11.48	
2025-01-14 16:59:21.49	102.14	11.49	
2025-01-14 16:59:21.70	102.11	11.51	
2025-01-14 16:59:21.90	102.09	11.53	
2025-01-14 16:59:22.11	102.06	11.54	
2025-01-14 16:59:22.33	102.03	11.56	
2025-01-14 16:59:22.53	102.00	11.58	
2025-01-14 16:59:22.74	101.97	11.59	
2025-01-14 16:59:22.94	101.94	11.61	
2025-01-14 16:59:23.14	101.92	11.62	
2025-01-14 16:59:23.35	101.89	11.64	
2025-01-14 16:59:23.55	101.86	11.66	
2025-01-14 16:59:23.76	101.83	11.67	
2025-01-14 16:59:23.97	101.80	11.69	
2025-01-14 16:59:24.17	101.77	11.70	
2025-01-14 16:59:24.38	101.74	11.72	
2025-01-14 16:59:24.58	101.72	11.74	
2025-01-14 16:59:24.79	101.69	11.75	
2025-01-14 16:59:24.99	101.66	11.77	
2025-01-14 16:59:25.20	101.63	11.78	
2025-01-14 16:59:25.40	101.60	11.80	
2025-01-14 16:59:25.61	101.57	11.82	
2025-01-14 16:59:25.81	101.55	11.83	
2025-01-14 16:59:26.02	101.52	11.85	
2025-01-14 16:59:26.22	101.49	11.86	
2025-01-14 16:59:26.43	101.46	11.88	
2025-01-14 16:59:26.63	101.43	11.90	
2025-01-14 16:59:26.84	101.40	11.91	
2025-01-14 16:59:27.04	101.37	11.93	
2025-01-14 16:59:27.25	101.34	11.94	
2025-01-14 16:59:27.46	101.31	11.96	
2025-01-14 16:59:27.66	101.29	11.98	
2025-01-14 16:59:27.86	101.26	11.99	
2025-01-14 16:59:28.07	101.23	12.01	
2025-01-14 16:59:28.28	101.20	12.02	
2025-01-14 16:59:28.48	101.17	12.04	
2025-01-14 16:59:28.68	101.14	12.06	
2025-01-14 16:59:28.89	101.11	12.07	
2025-01-14 16:59:29.10	101.08	12.09	
2025-01-14 16:59:29.30	101.05	12.10	
2025-01-14 16:59:29.51	101.02	12.12	
2025-01-14 16:59:29.72	100.99	12.14	
2025-01-14 16:59:29.93	100.96	12.15	
2025-01-14 16:59:30.14	100.93	12.17	
2025-01-14 16:59:30.34	100.90	12.19	
2025-01-14 16:59:30.54	100.87	12.20	
2025-01-14 16:59:30.75	100.84	12.22	
2025-01-14 16:59:30.95	100.82	12.23	
2025-01-14 16:59:31.16	100.78	12.25	
2025-01-14 16:59:31.37	100.75	12.27	
2025-01-14 16:59:31.57	100.73	12.28	
2025-01-14 16:59:31.78	100.69	12.30	
2025-01-14 16:59:31.98	100.67	12.32	
2025-01-14 16:59:32.19	100.64	12.33	
2025-01-14 16:59:32.39	100.61	12.35	
2025-01-14 16:59:32.60	100.58	12.36	
2025-01-14 16:59:32.81	100.55	12.38	
2025-01-14 16:59:33.01	100.52	12.40	
2025-01-14 16:59:33.21	100.49	12.41	
2025-01-14 16:59:33.42	100.46	12.43	
2025-01-14 16:59:33.62	100.43	12.44	
2025-01-14 16:59:33.83	100.40	12.46	
2025-01-14 16:59:34.03	100.37	12.48	
2025-01-14 16:59:34.24	100.34	12.49	
2025-01-14 16:59:34.44	100.31	12.51	
2025-01-14 16:59:34.65	100.28	12.53	
2025-01-14 16:59:34.85	100.25	12.54	
2025-01-14 16:59:35.06	100.21	12.56	
2025-01-14 16:59:35.26	100.19	12.57	
2025-01-14 16:59:35.46	100.16	12.59	
2025-01-14 16:59:35.67	100.12	12.61	
2025-01-14 16:59:35.87	100.09	12.62	
2025-01-14 16:59:36.08	100.06	12.64	
2025-01-14 16:59:36.28	100.03	12.66	
2025-01-14 16:59:36.48	100.00	12.67	
2025-01-14 16:59:36.69	99.97	12.69	
2025-01-14 16:59:36.90	99.94	12.70	
2025-01-14 16:59:37.10	99.91	12.72	
2025-01-14 16:59:37.31	99.88	12.74	
2025-01-14 16:59:37.51	99.85	12.75	
2025-01-14 16:59:37.72	99.82	12.77	
2025-01-14 16:59:37.93	99.79	12.79	
2025-01-14 16:59:38.13	99.76	12.80	
2025-01-14 16:59:38.34	99.73	12.82	
2025-01-14 16:59:38.54	99.70	12.83	
2025-01-14 16:59:38.75	99.66	12.85	
2025-01-14 16:59:38.95	99.63	12.87	
2025-01-14 16:59:39.16	99.60	12.88	
2025-01-14 16:59:39.38	99.57	12.90	
2025-01-14 16:59:39.58	99.54	12.92	
2025-01-14 16:59:39.79	99.51	12.93	
2025-01-14 16:59:39.99	99.48	12.95	
2025-01-14 16:59:40.20	99.44	12.97	
2025-01-14 16:59:40.40	99.41	12.98	
2025-01-14 16:59:40.61	99.38	13.00	
2025-01-14 16:59:40.81	99.35	13.02	
2025-01-14 16:59:41.02	99.32	13.03	
2025-01-14 16:59:41.22	99.29	13.05	
2025-01-14 16:59:41.43	99.26	13.06	
2025-01-14 16:59:41.64	99.22	13.08	
2025-01-14 16:59:41.84	99.19	13.10	
2025-01-14 16:59:42.05	99.16	13.11	
2025-01-14 16:59:42.25	99.13	13.13	
2025-01-14 16:59:42.46	99.10	13.15	
2025-01-14 16:59:42.66	99.07	13.16	
2025-01-14 16:59:42.87	99.03	13.18	
2025-01-14 16:59:43.08	99.00	13.20	
2025-01-14 16:59:43.28	98.97	13.21	
2025-01-14 16:59:43.49	98.94	13.23	
2025-01-14 16:59:43.69	98.91	13.25	
2025-01-14 16:59:43.90	98.87	13.26	
2025-01-14 16:59:44.10	98.84	13.28	
2025-01-14 16:59:44.31	98.81	13.30	
2025-01-14 16:59:44.51	98.78	13.31	
2025-01-14 16:59:44.72	98.75	13.33	
2025-01-14 16:59:44.92	98.72	13.34	
2025-01-14 16:59:45.13	98.68	13.36	
2025-01-14 16:59:45.33	98.65	13.38	
2025-01-14 16:59:45.54	98.62	13.39	
2025-01-14 16:59:45.74	98.59	13.41	
2025-01-14 16:59:45.95	98.55	13.43	
2025-01-14 16:59:46.15	98.52	13.44	
2025-01-14 16:59:46.36	98.49	13.46	
2025-01-14 16:59:46.56	98.46	13.48	
2025-01-14 16:59:46.77	98.42	13.49	
2025-01-14 16:59:46.97	98.39	13.51	
2025-01-14 16:59:47.18	98.36	13.53	
2025-01-14 16:59:47.38	98.33	13.54	
2025-01-14 16:59:47.59	98.29	13.56	
2025-01-14 16:59:47.79	98.26	13.57	
2025-01-14 16:59:47.99	98.23	13.59	
2025-01-14 16:59:48.20	98.20	13.61	
2025-01-14 16:59:48.40	98.16	13.62	
2025-01-14 16:59:48.61	98.13	13.64	
2025-01-14 16:59:48.81	98.10	13.66	
2025-01-14 16:59:49.02	98.07	13.67	
2025-01-14 16:59:49.23	98.03	13.69	
2025-01-14 16:59:49.43	98.00	13.71	
2025-01-14 16:59:49.64	97.97	13.72	
2025-01-14 16:59:49.84	97.93	13.74	
2025-01-14 16:59:50.06	97.90	13.76	
2025-01-14 16:59:50.27	97.86	13.77	
2025-01-14 16:59:50.47	97.83	13.79	
2025-01-14 16:59:50.68	97.80	13.81	
2025-01-14 16:59:50.88	97.77	13.82	
2025-01-14 16:59:51.10	97.73	13.84	
2025-01-14 16:59:51.31	97.70	13.86	
2025-01-14 16:59:51.51	97.66	13.87	
2025-01-14 16:59:51.72	97.63	13.89	
2025-01-14 16:59:51.93	97.59	13.91	
2025-01-14 16:59:52.14	97.56	13.92	
2025-01-14 16:59:52.35	97.53	13.94	
2025-01-14 16:59:52.55	97.49	13.96	
2025-01-14 16:59:52.76	97.46	13.97	
2025-01-14 16:59:52.97	97.42	13.99	
2025-01-14 16:59:53.17	97.39	14.01	
2025-01-14 16:59:53.38	97.36	14.02	
2025-01-14 16:59:53.58	97.32	14.04	
2025-01-14 16:59:53.79	97.29	14.06	
2025-01-14 16:59:53.99	97.26	14.07	
2025-01-14 16:59:54.20	97.22	14.09	
2025-01-14 16:59:54.40	97.19	14.11	
2025-01-14 16:59:54.61	97.15	14.12	
2025-01-14 16:59:54.81	97.12	14.14	
2025-01-14 16:59:55.03	97.08	14.16	
2025-01-14 16:59:55.23	97.05	14.17	
2025-01-14 16:59:55.44	97.02	14.19	
2025-01-14 16:59:55.65	96.98	14.21	
2025-01-14 16:59:55.86	96.95	14.23	
2025-01-14 16:59:56.07	96.91	14.24	
2025-01-14 16:59:56.27	96.88	14.26	
2025-01-14 16:59:56.47	96.84	14.27	
2025-01-14 16:59:56.68	96.81	14.29	
2025-01-14 16:59:56.89	96.77	14.31	
2025-01-14 16:59:57.09	96.74	14.32	
2025-01-14 16:59:57.30	96.70	14.34	
2025-01-14 16:59:57.50	96.67	14.36	
2025-01-14 16:59:57.71	96.64	14.38	
2025-01-14 16:59:57.92	96.60	14.39	
2025-01-14 16:59:58.12	96.57	14.41	
2025-01-14 16:59:58.32	96.53	14.42	
2025-01-14 16:59:58.53	96.50	14.44	
2025-01-14 16:59:58.73	96.46	14.46	
2025-01-14 16:59:58.94	96.43	14.47	
2025-01-14 16:59:59.14	96.39	14.49	
2025-01-14 16:59:59.35	96.36	14.51	
2025-01-14 16:59:59.55	96.32	14.52	
2025-01-14 16:59:59.76	96.29	14.54	
2025-01-14 16:59:59.96	96.25	14.56	
2025-01-14 17:00:00.18	96.22	14.58	
2025-01-14 17:00:00.39	96.18	14.59	
2025-01-14 17:00:00.59	96.15	14.61	
2025-01-14 17:00:00.80	96.11	14.63	
2025-01-14 17:00:01.00	96.08	14.64	
2025-01-14 17:00:01.22	96.04	14.66	
2025-01-14 17:00:01.42	96.00	14.68	
2025-01-14 17:00:01.63	95.97	14.69	
2025-01-14 17:00:01.83	95.93	14.71	
2025-01-14 17:00:02.03	95.90	14.73	
2025-01-14 17:00:02.24	95.86	14.74	
2025-01-14 17:00:02.44	95.83	14.76	
2025-01-14 17:00:02.65	95.79	14.78	
2025-01-14 17:00:02.85	95.75	14.79	
2025-01-14 17:00:03.06	95.72	14.81	
2025-01-14 17:00:03.26	95.68	14.83	
2025-01-14 17:00:03.47	95.65	14.84	
2025-01-14 17:00:03.67	95.61	14.86	
2025-01-14 17:00:03.88	95.58	14.88	
2025-01-14 17:00:04.08	95.54	14.89	
2025-01-14 17:00:04.29	95.50	14.91	
2025-01-14 17:00:04.49	95.47	14.93	
2025-01-14 17:00:04.70	95.43	14.94	
2025-01-14 17:00:04.90	95.40	14.96	
2025-01-14 17:00:05.11	95.36	14.98	
2025-01-14 17:00:05.31	95.32	14.99	
2025-01-14 17:00:05.52	95.29	15.01	
2025-01-14 17:00:05.72	95.25	15.03	
2025-01-14 17:00:05.92	95.22	15.04	
2025-01-14 17:00:06.13	95.18	15.06	
2025-01-14 17:00:06.34	95.14	15.08	
2025-01-14 17:00:06.54	95.11	15.09	
2025-01-14 17:00:06.75	95.07	15.11	
2025-01-14 17:00:06.95	95.03	15.13	
2025-01-14 17:00:07.17	94.99	15.14	
2025-01-14 17:00:07.38	94.96	15.16	
2025-01-14 17:00:07.58	94.92	15.18	
2025-01-14 17:00:07.79	94.88	15.20	
2025-01-14 17:00:08.00	94.85	15.21	
2025-01-14 17:00:08.21	94.81	15.23	
2025-01-14 17:00:08.42	94.77	15.25	
2025-01-14 17:00:08.63	94.73	15.26	
2025-01-14 17:00:08.83	94.70	15.28	
2025-01-14 17:00:09.04	94.66	15.30	
2025-01-14 17:00:09.24	94.62	15.31	
2025-01-14 17:00:09.45	94.58	15.33	
2025-01-14 17:00:09.66	94.55	15.35	
2025-01-14 17:00:09.86	94.51	15.36	
2025-01-14 17:00:10.07	94.47	15.38	
2025-01-14 17:00:10.27	94.44	15.40	
2025-01-14 17:00:10.48	94.40	15.41	
2025-01-14 17:00:10.68	94.36	15.43	
2025-01-14 17:00:10.89	94.32	15.45	
2025-01-14 17:00:11.09	94.29	15.46	
2025-01-14 17:00:11.30	94.25	15.48	
2025-01-14 17:00:11.50	94.21	15.50	
2025-01-14 17:00:11.71	94.17	15.52	
2025-01-14 17:00:11.91	94.14	15.53	
2025-01-14 17:00:12.12	94.10	15.55	
2025-01-14 17:00:12.32	94.06	15.57	
2025-01-14 17:00:12.53	94.02	15.58	
2025-01-14 17:00:12.74	93.98	15.60	
2025-01-14 17:00:12.94	93.95	15.62	
2025-01-14 17:00:13.15	93.91	15.63	
2025-01-14 17:00:13.35	93.87	15.65	
2025-01-14 17:00:13.56	93.83	15.67	
2025-01-14 17:00:13.76	93.79	15.68	
2025-01-14 17:00:13.97	93.76	15.70	
2025-01-14 17:00:14.17	93.72	15.72	
2025-01-14 17:00:14.38	93.68	15.73	
2025-01-14 17:00:14.58	93.64	15.75	
2025-01-14 17:00:14.79	93.60	15.77	
2025-01-14 17:00:14.99	93.57	15.78	
2025-01-14 17:00:15.20	93.53	15.80	
2025-01-14 17:00:15.41	93.49	15.82	
2025-01-14 17:00:15.61	93.45	15.83	
2025-01-14 17:00:15.82	93.41	15.85	
2025-01-14 17:00:16.02	93.37	15.87	
2025-01-14 17:00:16.23	93.33	15.88	
2025-01-14 17:00:16.43	93.30	15.90	
2025-01-14 17:00:16.64	93.26	15.92	
2025-01-14 17:00:16.84	93.22	15.93	
2025-01-14 17:00:17.05	93.18	15.95	
2025-01-14 17:00:17.25	93.14	15.97	
2025-01-14 17:00:17.46	93.10	15.99	
2025-01-14 17:00:17.66	93.06	16.00	
2025-01-14 17:00:17.86	93.03	16.02	
2025-01-14 17:00:18.07	92.99	16.03	
2025-01-14 17:00:18.27	92.95	16.05	
2025-01-14 17:00:18.48	92.91	16.07	
2025-01-14 17:00:18.68	92.87	16.08	
2025-01-14 17:00:18.90	92.83	16.10	
2025-01-14 17:00:19.11	92.79	16.12	
2025-01-14 17:00:19.31	92.75	16.14	
2025-01-14 17:00:19.52	92.71	16.15	
2025-01-14 17:00:19.72	92.67	16.17	
2025-01-14 17:00:19.93	92.63	16.19	
2025-01-14 17:00:20.13	92.59	16.20	
2025-01-14 17:00:20.34	92.55	16.22	
2025-01-14 17:00:20.54	92.51	16.24	
2025-01-14 17:00:20.75	92.47	16.25	
2025-01-14 17:00:20.95	92.43	16.27	
2025-01-14 17:00:21.16	92.39	16.29	
2025-01-14 17:00:21.36	92.35	16.30	
2025-01-14 17:00:21.57	92.31	16.32	
2025-01-14 17:00:21.77	92.27	16.34	
2025-01-14 17:00:21.98	92.23	16.35	
2025-01-14 17:00:22.18	92.19	16.37	
2025-01-14 17:00:22.39	92.15	16.39	
2025-01-14 17:00:22.59	92.11	16.40	
2025-01-14 17:00:22.80	92.07	16.42	
2025-01-14 17:00:23.00	92.03	16.44	
2025-01-14 17:00:23.21	91.99	16.45	
2025-01-14 17:00:23.41	91.95	16.47	
2025-01-14 17:00:23.62	91.91	16.49	
2025-01-14 17:00:23.83	91.87	16.51	
2025-01-14 17:00:24.03	91.83	16.52	
2025-01-14 17:00:24.23	91.79	16.54	
2025-01-14 17:00:24.44	91.75	16.56	
2025-01-14 17:00:24.64	91.71	16.57	
2025-01-14 17:00:24.85	91.67	16.59	
2025-01-14 17:00:25.06	91.63	16.61	
2025-01-14 17:00:25.27	91.59	16.62	
2025-01-14 17:00:25.48	91.54	16.64	
2025-01-14 17:00:25.69	91.50	16.66	
2025-01-14 17:00:25.89	91.46	16.67	
2025-01-14 17:00:26.10	91.42	16.69	
2025-01-14 17:00:26.30	91.38	16.71	
2025-01-14 17:00:26.50	91.34	16.72	
2025-01-14 17:00:26.71	91.30	16.74	
2025-01-14 17:00:26.92	91.26	16.76	
2025-01-14 17:00:27.12	91.22	16.77	
2025-01-14 17:00:27.34	91.17	16.79	
2025-01-14 17:00:27.55	91.13	16.81	
2025-01-14 17:00:27.75	91.09	16.83	
2025-01-14 17:00:27.96	91.05	16.84	
2025-01-14 17:00:28.16	91.01	16.86	
2025-01-14 17:00:28.37	90.97	16.88	
2025-01-14 17:00:28.57	90.93	16.89	
2025-01-14 17:00:28.78	90.88	16.91	
2025-01-14 17:00:28.98	90.84	16.93	
2025-01-14 17:00:29.19	90.80	16.94	
2025-01-14 17:00:29.39	90.76	16.96	
2025-01-14 17:00:29.60	90.72	16.98	
2025-01-14 17:00:29.80	90.68	16.99	
2025-01-14 17:00:30.01	90.63	17.01	
2025-01-14 17:00:30.21	90.59	17.03	
2025-01-14 17:00:30.42	90.55	17.04	
2025-01-14 17:00:30.62	90.51	17.06	
2025-01-14 17:00:30.83	90.47	17.08	
2025-01-14 17:00:31.03	90.42	17.09	
2025-01-14 17:00:31.24	90.38	17.11	
2025-01-14 17:00:31.44	90.34	17.13	
2025-01-14 17:00:31.65	90.30	17.14	
2025-01-14 17:00:31.85	90.26	17.16	
2025-01-14 17:00:32.06	90.21	17.18	
2025-01-14 17:00:32.26	90.17	17.19	
2025-01-14 17:00:32.47	90.13	17.21	
2025-01-14 17:00:32.67	90.09	17.23	
2025-01-14 17:00:32.88	90.04	17.24	
2025-01-14 17:00:33.08	90.00	17.26	
2025-01-14 17:00:33.29	89.96	17.28	
2025-01-14 17:00:33.50	89.91	17.29	
2025-01-14 17:00:33.70	89.87	17.31	
2025-01-14 17:00:33.90	89.83	17.33	
2025-01-14 17:00:34.11	89.79	17.34	
2025-01-14 17:00:34.32	89.74	17.36	
2025-01-14 17:00:34.52	89.70	17.38	
2025-01-14 17:00:34.73	89.66	17.39	
2025-01-14 17:00:34.93	89.62	17.41	
2025-01-14 17:00:35.14	89.57	17.43	
2025-01-14 17:00:35.34	89.53	17.44	
2025-01-14 17:00:35.55	89.49	17.46	
2025-01-14 17:00:35.75	89.44	17.48	
2025-01-14 17:00:35.96	89.40	17.49	
2025-01-14 17:00:36.16	89.36	17.51	
2025-01-14 17:00:36.37	89.31	17.53	
2025-01-14 17:00:36.57	89.27	17.54	
2025-01-14 17:00:36.78	89.23	17.56	
2025-01-14 17:00:36.98	89.18	17.57	
2025-01-14 17:00:37.19	89.14	17.59	
2025-01-14 17:00:37.39	89.10	17.61	
2025-01-14 17:00:37.60	89.05	17.62	
2025-01-14 17:00:37.80	89.01	17.64	
2025-01-14 17:00:38.01	88.96	17.66	
2025-01-14 17:00:38.21	88.92	17.67	
2025-01-14 17:00:38.42	88.88	17.69	
2025-01-14 17:00:38.62	88.83	17.71	
2025-01-14 17:00:38.83	88.79	17.72	
2025-01-14 17:00:39.03	88.75	17.74	
2025-01-14 17:00:39.24	88.70	17.76	
2025-01-14 17:00:39.45	88.66	17.77	
2025-01-14 17:00:39.65	88.61	17.79	
2025-01-14 17:00:39.86	88.57	17.81	
2025-01-14 17:00:40.06	88.52	17.82	
2025-01-14 17:00:40.27	88.48	17.84	
2025-01-14 17:00:40.47	88.43	17.86	
2025-01-14 17:00:40.68	88.39	17.87	
2025-01-14 17:00:40.89	88.34	17.89	
2025-01-14 17:00:41.09	88.30	17.91	
2025-01-14 17:00:41.30	88.25	17.92	
2025-01-14 17:00:41.50	88.21	17.94	
2025-01-14 17:00:41.71	88.17	17.96	
2025-01-14 17:00:41.91	88.12	17.97	
2025-01-14 17:00:42.12	88.08	17.99	
2025-01-14 17:00:42.33	88.03	18.01	
2025-01-14 17:00:42.53	87.99	18.02	
2025-01-14 17:00:42.73	87.94	18.04	
2025-01-14 17:00:42.94	87.90	18.05	
2025-01-14 17:00:43.14	87.85	18.07	
2025-01-14 17:00:43.35	87.81	18.09	
2025-01-14 17:00:43.55	87.76	18.10	
2025-01-14 17:00:43.76	87.72	18.12	
2025-01-14 17:00:43.97	87.67	18.14	
2025-01-14 17:00:44.17	87.63	18.15	
2025-01-14 17:00:44.38	87.58	18.17	
2025-01-14 17:00:44.58	87.53	18.19	
2025-01-14 17:00:44.79	87.49	18.20	
2025-01-14 17:00:44.99	87.44	18.22	
2025-01-14 17:00:45.20	87.40	18.24	
2025-01-14 17:00:45.40	87.35	18.25	
2025-01-14 17:00:45.61	87.31	18.27	
2025-01-14 17:00:45.82	87.26	18.28	
2025-01-14 17:00:46.02	87.21	18.30	
2025-01-14 17:00:46.22	87.17	18.32	
2025-01-14 17:00:46.43	87.12	18.33	
2025-01-14 17:00:46.63	87.08	18.35	
2025-01-14 17:00:46.84	87.03	18.37	
2025-01-14 17:00:47.04	86.99	18.38	
2025-01-14 17:00:47.25	86.94	18.40	
2025-01-14 17:00:47.45	86.89	18.41	
2025-01-14 17:00:47.67	86.84	18.43	
2025-01-14 17:00:47.88	86.80	18.45	
2025-01-14 17:00:48.08	86.75	18.46	
2025-01-14 17:00:48.29	86.70	18.48	
2025-01-14 17:00:48.49	86.66	18.50	
2025-01-14 17:00:48.70	86.61	18.51	
2025-01-14 17:00:48.90	86.57	18.53	
2025-01-14 17:00:49.11	86.52	18.55	
2025-01-14 17:00:49.31	86.47	18.56	
2025-01-14 17:00:49.52	86.43	18.58	
2025-01-14 17:00:49.72	86.38	18.59	
2025-01-14 17:00:49.93	86.33	18.61	
2025-01-14 17:00:50.13	86.29	18.63	
2025-01-14 17:00:50.34	86.24	18.64	
2025-01-14 17:00:50.55	86.19	18.66	
2025-01-14 17:00:50.75	86.14	18.68	
2025-01-14 17:00:50.96	86.10	18.69	
2025-01-14 17:00:51.16	86.05	18.71	
2025-01-14 17:00:51.37	86.00	18.73	
2025-01-14 17:00:51.57	85.96	18.74	
2025-01-14 17:00:51.78	85.91	18.76	
2025-01-14 17:00:51.98	85.86	18.77	
2025-01-14 17:00:52.19	85.81	18.79	
2025-01-14 17:00:52.40	85.76	18.81	
2025-01-14 17:00:52.60	85.72	18.82	
2025-01-14 17:00:52.80	85.67	18.84	
2025-01-14 17:00:53.01	85.62	18.85	
2025-01-14 17:00:53.21	85.58	18.87	
2025-01-14 17:00:53.42	85.53	18.89	
2025-01-14 17:00:53.63	85.48	18.90	
2025-01-14 17:00:53.83	85.43	18.92	
2025-01-14 17:00:54.04	85.38	18.94	
2025-01-14 17:00:54.24	85.34	18.95	
2025-01-14 17:00:54.44	85.29	18.97	
2025-01-14 17:00:54.65	85.24	18.98	
2025-01-14 17:00:54.85	85.19	19.00	
2025-01-14 17:00:55.06	85.14	19.01	
2025-01-14 17:00:55.26	85.10	19.03	
2025-01-14 17:00:55.48	85.05	19.05	
2025-01-14 17:00:55.69	85.00	19.06	
2025-01-14 17:00:55.89	84.95	19.08	
2025-01-14 17:00:56.09	84.90	19.10	
2025-01-14 17:00:56.30	84.85	19.11	
2025-01-14 17:00:56.50	84.80	19.13	
2025-01-14 17:00:56.71	84.76	19.14	
2025-01-14 17:00:56.91	84.71	19.16	
2025-01-14 17:00:57.12	84.66	19.18	
2025-01-14 17:00:57.32	84.61	19.19	
2025-01-14 17:00:57.53	84.56	19.21	
2025-01-14 17:00:57.73	84.51	19.22	
2025-01-14 17:00:57.94	84.46	19.24	
2025-01-14 17:00:58.14	84.42	19.25	
2025-01-14 17:00:58.35	84.36	19.27	
2025-01-14 17:00:58.55	84.32	19.29	
2025-01-14 17:00:58.76	84.27	19.30	
2025-01-14 17:00:58.97	84.22	19.32	
2025-01-14 17:00:59.17	84.17	19.33	
2025-01-14 17:00:59.38	84.12	19.35	
2025-01-14 17:00:59.58	84.07	19.37	
2025-01-14 17:00:59.79	84.02	19.38	
2025-01-14 17:00:59.99	83.97	19.40	
2025-01-14 17:01:00.20	83.92	19.41	
2025-01-14 17:01:00.40	83.87	19.43	
2025-01-14 17:01:00.61	83.82	19.45	
2025-01-14 17:01:00.81	83.77	19.46	
2025-01-14 17:01:01.02	83.72	19.48	
2025-01-14 17:01:01.22	83.67	19.49	
2025-01-14 17:01:01.43	83.62	19.51	
2025-01-14 17:01:01.63	83.57	19.52	
2025-01-14 17:01:01.84	83.52	19.54	
2025-01-14 17:01:02.05	83.47	19.56	
2025-01-14 17:01:02.25	83.42	19.57	
2025-01-14 17:01:02.46	83.37	19.59	
2025-01-14 17:01:02.66	83.32	19.60	
2025-01-14 17:01:02.87	83.27	19.62	
2025-01-14 17:01:03.07	83.22	19.63	
2025-01-14 17:01:03.28	83.17	19.65	
2025-01-14 17:01:03.48	83.12	19.66	
2025-01-14 17:01:03.69	83.07	19.68	
2025-01-14 17:01:03.89	83.02	19.70	
2025-01-14 17:01:04.10	82.97	19.71	
2025-01-14 17:01:04.30	82.92	19.73	
2025-01-14 17:01:04.51	82.87	19.74	
2025-01-14 17:01:04.71	82.82	19.76	
2025-01-14 17:01:04.92	82.77	19.77	
2025-01-14 17:01:05.12	82.72	19.79	
2025-01-14 17:01:05.33	82.67	19.80	
2025-01-14 17:01:05.53	82.62	19.82	
2025-01-14 17:01:05.74	82.56	19.84	
2025-01-14 17:01:05.94	82.51	19.85	
2025-01-14 17:01:06.15	82.46	19.87	
2025-01-14 17:01:06.35	82.41	19.88	
2025-01-14 17:01:06.56	82.36	19.90	
2025-01-14 17:01:06.76	82.31	19.91	
2025-01-14 17:01:06.97	82.26	19.93	
2025-01-14 17:01:07.17	82.21	19.94	
2025-01-14 17:01:07.38	82.15	19.96	
2025-01-14 17:01:07.58	82.10	19.97	
2025-01-14 17:01:07.78	82.05	19.99	
2025-01-14 17:01:07.99	82.00	20.00	
2025-01-14 17:01:08.19	81.95	20.02	
2025-01-14 17:01:08.39	81.90	20.03	
2025-01-14 17:01:08.60	81.85	20.05	
2025-01-14 17:01:08.80	81.80	20.07	
2025-01-14 17:01:09.01	81.74	20.08	
2025-01-14 17:01:09.21	81.69	20.10	
2025-01-14 17:01:09.42	81.64	20.11	
2025-01-14 17:01:09.62	81.59	20.13	
2025-01-14 17:01:09.83	81.54	20.14	
2025-01-14 17:01:10.04	81.48	20.16	
2025-01-14 17:01:10.24	81.43	20.17	
2025-01-14 17:01:10.45	81.38	20.19	
2025-01-14 17:01:10.65	81.33	20.20	
2025-01-14 17:01:10.86	81.27	20.22	
2025-01-14 17:01:11.06	81.22	20.23	
2025-01-14 17:01:11.27	81.17	20.25	
2025-01-14 17:01:11.48	81.12	20.26	
2025-01-14 17:01:11.68	81.07	20.28	
2025-01-14 17:01:11.89	81.01	20.29	
2025-01-14 17:01:12.09	80.96	20.31	
2025-01-14 17:01:12.30	80.91	20.32	
2025-01-14 17:01:12.50	80.85	20.34	
2025-01-14 17:01:12.71	80.80	20.35	
2025-01-14 17:01:12.91	80.75	20.37	
2025-01-14 17:01:13.12	80.69	20.38	
2025-01-14 17:01:13.32	80.64	20.40	
2025-01-14 17:01:13.53	80.59	20.41	
2025-01-14 17:01:13.73	80.54	20.43	
2025-01-14 17:01:13.94	80.48	20.44	
2025-01-14 17:01:14.14	80.43	20.46	
2025-01-14 17:01:14.35	80.38	20.47	
2025-01-14 17:01:14.55	80.32	20.49	
2025-01-14 17:01:14.76	80.27	20.50	
2025-01-14 17:01:14.96	80.22	20.52	
2025-01-14 17:01:15.17	80.16	20.53	
2025-01-14 17:01:15.37	80.11	20.55	
2025-01-14 17:01:15.58	80.06	20.56	
2025-01-14 17:01:15.78	80.00	20.58	
2025-01-14 17:01:15.99	79.95	20.59	
2025-01-14 17:01:16.19	79.90	20.61	
2025-01-14 17:01:16.40	79.84	20.62	
2025-01-14 17:01:16.60	79.79	20.64	
2025-01-14 17:01:16.81	79.73	20.65	
2025-01-14 17:01:17.01	79.68	20.67	
2025-01-14 17:01:17.23	79.62	20.68	
2025-01-14 17:01:17.43	79.57	20.70	
2025-01-14 17:01:17.64	79.52	20.71	
2025-01-14 17:01:17.84	79.46	20.72	
2025-01-14 17:01:18.05	79.41	20.74	
2025-01-14 17:01:18.25	79.35	20.75	
2025-01-14 17:01:18.46	79.30	20.77	
2025-01-14 17:01:18.68	79.24	20.78	
2025-01-14 17:01:18.88	79.19	20.80	
2025-01-14 17:01:19.09	79.13	20.81	
2025-01-14 17:01:19.29	79.08	20.83	
2025-01-14 17:01:19.50	79.02	20.84	
2025-01-14 17:01:19.72	78.96	20.86	
2025-01-14 17:01:19.92	78.91	20.87	
2025-01-14 17:01:20.13	78.85	20.89	
2025-01-14 17:01:20.33	78.80	20.90	
2025-01-14 17:01:20.54	78.74	20.92	
2025-01-14 17:01:20.76	78.69	20.93	
2025-01-14 17:01:20.96	78.63	20.95	
2025-01-14 17:01:21.17	78.58	20.96	
2025-01-14 17:01:21.37	78.52	20.97	
2025-01-14 17:01:21.58	78.47	20.99	
2025-01-14 17:01:21.78	78.41	21.00	
2025-01-14 17:01:21.99	78.36	21.02	
2025-01-14 17:01:22.19	78.30	21.03	
2025-01-14 17:01:22.40	78.24	21.05	
2025-01-14 17:01:22.60	78.19	21.06	
2025-01-14 17:01:22.81	78.13	21.07	
2025-01-14 17:01:23.01	78.08	21.09	
2025-01-14 17:01:23.22	78.02	21.10	
2025-01-14 17:01:23.42	77.97	21.12	
2025-01-14 17:01:23.63	77.91	21.13	
2025-01-14 17:01:23.84	77.85	21.15	
2025-01-14 17:01:24.04	77.80	21.16	
2025-01-14 17:01:24.25	77.74	21.17	
2025-01-14 17:01:24.45	77.69	21.19	
2025-01-14 17:01:24.66	77.63	21.20	
2025-01-14 17:01:24.86	77.58	21.22	
2025-01-14 17:01:25.07	77.52	21.23	
2025-01-14 17:01:25.27	77.46	21.24	
2025-01-14 17:01:25.48	77.41	21.26	
2025-01-14 17:01:25.68	77.35	21.27	
2025-01-14 17:01:25.89	77.29	21.29	
2025-01-14 17:01:26.11	77.23	21.30	
2025-01-14 17:01:26.31	77.18	21.31	
2025-01-14 17:01:26.52	77.12	21.33	
2025-01-14 17:01:26.72	77.07	21.34	
2025-01-14 17:01:26.93	77.01	21.36	
2025-01-14 17:01:27.13	76.95	21.37	
2025-01-14 17:01:27.34	76.90	21.38	
2025-01-14 17:01:27.54	76.84	21.40	
2025-01-14 17:01:27.75	76.78	21.41	
2025-01-14 17:01:27.96	76.72	21.42	
2025-01-14 17:01:28.16	76.67	21.44	
2025-01-14 17:01:28.36	76.61	21.45	
2025-01-14 17:01:28.57	76.55	21.47	
2025-01-14 17:01:28.77	76.50	21.48	
2025-01-14 17:01:28.98	76.44	21.49	
2025-01-14 17:01:29.18	76.38	21.51	
2025-01-14 17:01:29.38	76.33	21.52	
2025-01-14 17:01:29.59	76.27	21.53	
2025-01-14 17:01:29.80	76.21	21.55	
2025-01-14 17:01:30.00	76.16	21.56	
2025-01-14 17:01:30.21	76.10	21.57	
2025-01-14 17:01:30.41	76.04	21.59	
2025-01-14 17:01:30.62	75.98	21.60	
2025-01-14 17:01:30.82	75.93	21.61	
2025-01-14 17:01:31.03	75.87	21.63	
2025-01-14 17:01:31.24	75.81	21.64	
2025-01-14 17:01:31.45	75.75	21.65	
2025-01-14 17:01:31.66	75.69	21.67	
2025-01-14 17:01:31.86	75.63	21.68	
2025-01-14 17:01:32.07	75.57	21.69	
2025-01-14 17:01:32.27	75.52	21.71	
2025-01-14 17:01:32.48	75.46	21.72	
2025-01-14 17:01:32.68	75.40	21.73	
2025-01-14 17:01:32.89	75.34	21.75	
2025-01-14 17:01:33.10	75.28	21.76	
2025-01-14 17:01:33.30	75.23	21.77	
2025-01-14 17:01:33.51	75.17	21.79	
2025-01-14 17:01:33.71	75.11	21.80	
2025-01-14 17:01:33.92	75.05	21.81	
2025-01-14 17:01:34.13	74.99	21.83	
2025-01-14 17:01:34.33	74.93	21.84	
2025-01-14 17:01:34.54	74.87	21.85	
2025-01-14 17:01:34.74	74.82	21.87	
2025-01-14 17:01:34.95	74.76	21.88	
2025-01-14 17:01:35.15	74.70	21.89	
2025-01-14 17:01:35.36	74.64	21.90	
2025-01-14 17:01:35.57	74.58	21.92	
2025-01-14 17:01:35.77	74.52	21.93	
2025-01-14 17:01:35.98	74.46	21.94	
2025-01-14 17:01:36.18	74.40	21.96	
2025-01-14 17:01:36.39	74.34	21.97	
2025-01-14 17:01:36.59	74.29	21.98	
2025-01-14 17:01:36.80	74.23	21.99	
2025-01-14 17:01:37.00	74.17	22.01	
2025-01-14 17:01:37.21	74.11	22.02	
2025-01-14 17:01:37.41	74.05	22.03	
2025-01-14 17:01:37.62	73.99	22.05	
2025-01-14 17:01:37.82	73.93	22.06	
2025-01-14 17:01:38.02	73.87	22.07	
2025-01-14 17:01:38.23	73.81	22.08	
2025-01-14 17:01:38.44	73.75	22.10	
2025-01-14 17:01:38.64	73.69	22.11	
2025-01-14 17:01:38.84	73.64	22.12	
2025-01-14 17:01:39.05	73.57	22.13	
2025-01-14 17:01:39.25	73.52	22.15	
2025-01-14 17:01:39.46	73.46	22.16	
2025-01-14 17:01:39.67	73.39	22.17	
2025-01-14 17:01:39.87	73.34	22.18	
2025-01-14 17:01:40.08	73.27	22.20	
2025-01-14 17:01:40.28	73.22	22.21	
2025-01-14 17:01:40.49	73.15	22.22	
2025-01-14 17:01:40.69	73.10	22.23	
2025-01-14 17:01:40.90	73.03	22.24	
2025-01-14 17:01:41.10	72.98	22.26	
2025-01-14 17:01:41.31	72.91	22.27	
2025-01-14 17:01:41.52	72.85	22.28	
2025-01-14 17:01:41.72	72.79	22.29	
2025-01-14 17:01:41.93	72.73	22.31	
2025-01-14 17:01:42.13	72.67	22.32	
2025-01-14 17:01:42.34	72.61	22.33	
2025-01-14 17:01:42.54	72.55	22.34	
2025-01-14 17:01:42.75	72.49	22.35	
2025-01-14 17:01:42.95	72.43	22.37	
2025-01-14 17:01:43.16	72.37	22.38	
2025-01-14 17:01:43.36	72.31	22.39	
2025-01-14 17:01:43.57	72.25	22.40	
2025-01-14 17:01:43.78	72.19	22.41	
2025-01-14 17:01:43.98	72.13	22.42	
2025-01-14 17:01:44.18	72.07	22.44	
2025-01-14 17:01:44.39	72.01	22.45	
2025-01-14 17:01:44.60	71.94	22.46	
2025-01-14 17:01:44.80	71.88	22.47	
2025-01-14 17:01:45.01	71.82	22.48	
2025-01-14 17:01:45.21	71.76	22.50	
2025-01-14 17:01:45.42	71.70	22.51	
2025-01-14 17:01:45.63	71.64	22.52	
2025-01-14 17:01:45.83	71.58	22.53	
2025-01-14 17:01:46.04	71.51	22.54	
2025-01-14 17:01:46.24	71.45	22.55	
2025-01-14 17:01:46.45	71.39	22.57	
2025-01-14 17:01:46.65	71.33	22.58	
2025-01-14 17:01:46.86	71.27	22.59	
2025-01-14 17:01:47.06	71.21	22.60	
2025-01-14 17:01:47.27	71.15	22.61	
2025-01-14 17:01:47.47	71.09	22.62	
2025-01-14 17:01:47.68	71.02	22.63	
2025-01-14 17:01:47.88	70.96	22.64	
2025-01-14 17:01:48.09	70.90	22.66	
2025-01-14 17:01:48.30	70.84	22.67	
2025-01-14 17:01:48.51	70.77	22.68	
2025-01-14 17:01:48.72	70.71	22.69	
2025-01-14 17:01:48.92	70.65	22.70	
2025-01-14 17:01:49.13	70.59	22.71	
2025-01-14 17:01:49.33	70.52	22.72	
2025-01-14 17:01:49.54	70.46	22.74	
2025-01-14 17:01:49.74	70.40	22.75	
2025-01-14 17:01:49.95	70.34	22.76	
2025-01-14 17:01:50.15	70.28	22.77	
2025-01-14 17:01:50.36	70.21	22.78	
2025-01-14 17:01:50.56	70.15	22.79	
2025-01-14 17:01:50.77	70.09	22.80	
2025-01-14 17:01:50.97	70.03	22.81	
2025-01-14 17:01:51.18	69.96	22.82	
2025-01-14 17:01:51.38	69.90	22.83	
2025-01-14 17:01:51.59	69.84	22.84	
2025-01-14 17:01:51.81	69.77	22.86	
2025-01-14 17:01:52.01	69.71	22.87	
2025-01-14 17:01:52.22	69.65	22.88	
2025-01-14 17:01:52.42	69.58	22.89	
2025-01-14 17:01:52.63	69.52	22.90	
2025-01-14 17:01:52.83	69.46	22.91	
2025-01-14 17:01:53.04	69.40	22.92	
2025-01-14 17:01:53.24	69.33	22.93	
2025-01-14 17:01:53.45	69.27	22.94	
2025-01-14 17:01:53.66	69.20	22.95	
2025-01-14 17:01:53.86	69.14	22.96	
2025-01-14 17:01:54.06	69.08	22.97	
2025-01-14 17:01:54.27	69.02	22.98	
2025-01-14 17:01:54.48	68.95	22.99	
2025-01-14 17:01:54.68	68.89	23.00	
2025-01-14 17:01:54.89	68.83	23.01	
2025-01-14 17:01:55.09	68.76	23.02	
2025-01-14 17:01:55.30	68.70	23.03	
2025-01-14 17:01:55.50	68.64	23.04	
2025-01-14 17:01:55.71	68.57	23.05	
2025-01-14 17:01:55.91	68.51	23.06	
2025-01-14 17:01:56.12	68.45	23.07	
2025-01-14 17:01:56.32	68.38	23.08	
2025-01-14 17:01:56.53	68.32	23.09	
2025-01-14 17:01:56.74	68.25	23.10	
2025-01-14 17:01:56.94	68.19	23.11	
2025-01-14 17:01:57.14	68.13	23.12	
2025-01-14 17:01:57.35	68.06	23.13	
2025-01-14 17:01:57.56	68.00	23.14	
2025-01-14 17:01:57.77	67.93	23.15	
2025-01-14 17:01:57.97	67.87	23.16	
2025-01-14 17:01:58.19	67.80	23.17	
2025-01-14 17:01:58.40	67.74	23.18	
2025-01-14 17:01:58.60	67.67	23.19	
2025-01-14 17:01:58.81	67.61	23.20	
2025-01-14 17:01:59.01	67.55	23.21	
2025-01-14 17:01:59.22	67.48	23.22	
2025-01-14 17:01:59.42	67.42	23.23	
2025-01-14 17:01:59.63	67.35	23.24	
2025-01-14 17:01:59.83	67.29	23.25	
2025-01-14 17:02:00.04	67.22	23.26	
2025-01-14 17:02:00.24	67.16	23.27	
2025-01-14 17:02:00.45	67.10	23.28	
2025-01-14 17:02:00.65	67.03	23.29	
2025-01-14 17:02:00.86	66.97	23.30	
2025-01-14 17:02:01.06	66.90	23.31	
2025-01-14 17:02:01.27	66.84	23.32	
2025-01-14 17:02:01.47	66.78	23.33	
2025-01-14 17:02:01.68	66.71	23.34	
2025-01-14 17:02:01.88	66.65	23.34	
2025-01-14 17:02:02.09	66.58	23.35	
2025-01-14 17:02:02.29	66.52	23.36	
2025-01-14 17:02:02.50	66.45	23.37	
2025-01-14 17:02:02.70	66.39	23.38	
2025-01-14 17:02:02.91	66.32	23.39	
2025-01-14 17:02:03.12	66.25	23.40	
2025-01-14 17:02:03.32	66.19	23.41	
2025-01-14 17:02:03.53	66.12	23.42	
2025-01-14 17:02:03.73	66.06	23.42	
2025-01-14 17:02:03.94	65.99	23.43	
2025-01-14 17:02:04.14	65.93	23.44	
2025-01-14 17:02:04.35	65.86	23.45	
2025-01-14 17:02:04.55	65.80	23.46	
2025-01-14 17:02:04.76	65.73	23.47	
2025-01-14 17:02:04.96	65.67	23.48	
2025-01-14 17:02:05.17	65.60	23.49	
2025-01-14 17:02:05.37	65.54	23.49	
2025-01-14 17:02:05.57	65.48	23.50	
2025-01-14 17:02:05.78	65.41	23.51	
2025-01-14 17:02:05.99	65.34	23.52	
2025-01-14 17:02:06.19	65.28	23.53	
2025-01-14 17:02:06.40	65.21	23.54	
2025-01-14 17:02:06.60	65.15	23.54	
2025-01-14 17:02:06.81	65.08	23.55	
2025-01-14 17:02:07.01	65.02	23.56	
2025-01-14 17:02:07.22	64.95	23.57	
2025-01-14 17:02:07.43	64.88	23.58	
2025-01-14 17:02:07.63	64.82	23.59	
2025-01-14 17:02:07.83	64.75	23.59	
2025-01-14 17:02:08.04	64.69	23.60	
2025-01-14 17:02:08.24	64.62	23.61	
2025-01-14 17:02:08.45	64.55	23.62	
2025-01-14 17:02:08.66	64.49	23.63	
2025-01-14 17:02:08.87	64.42	23.63	
2025-01-14 17:02:09.08	64.35	23.64	
2025-01-14 17:02:09.28	64.29	23.65	
2025-01-14 17:02:09.49	64.22	23.66	
2025-01-14 17:02:09.69	64.16	23.67	
2025-01-14 17:02:09.90	64.09	23.67	
2025-01-14 17:02:10.10	64.02	23.68	
2025-01-14 17:02:10.31	63.96	23.69	
2025-01-14 17:02:10.51	63.89	23.70	
2025-01-14 17:02:10.72	63.82	23.70	
2025-01-14 17:02:10.92	63.76	23.71	
2025-01-14 17:02:11.13	63.69	23.72	
2025-01-14 17:02:11.33	63.63	23.73	
2025-01-14 17:02:11.54	63.56	23.73	
2025-01-14 17:02:11.74	63.49	23.74	
2025-01-14 17:02:11.95	63.43	23.75	
2025-01-14 17:02:12.15	63.36	23.76	
2025-01-14 17:02:12.36	63.29	23.76	
2025-01-14 17:02:12.56	63.23	23.77	
2025-01-14 17:02:12.78	63.16	23.78	
2025-01-14 17:02:12.99	63.09	23.79	
2025-01-14 17:02:13.20	63.02	23.79	
2025-01-14 17:02:13.41	62.95	23.80	
2025-01-14 17:02:13.61	62.89	23.81	
2025-01-14 17:02:13.82	62.82	23.81	
2025-01-14 17:02:14.02	62.75	23.82	
2025-01-14 17:02:14.23	62.69	23.83	
2025-01-14 17:02:14.43	62.62	23.84	
2025-01-14 17:02:14.64	62.55	23.84	
2025-01-14 17:02:14.85	62.48	23.85	
2025-01-14 17:02:15.05	62.42	23.86	
2025-01-14 17:02:15.25	62.35	23.86	
2025-01-14 17:02:15.46	62.28	23.87	
2025-01-14 17:02:15.67	62.22	23.88	
2025-01-14 17:02:15.87	62.15	23.88	
2025-01-14 17:02:16.08	62.08	23.89	
2025-01-14 17:02:16.28	62.02	23.90	
2025-01-14 17:02:16.48	61.95	23.90	
2025-01-14 17:02:16.69	61.88	23.91	
2025-01-14 17:02:16.90	61.81	23.92	
2025-01-14 17:02:17.10	61.75	23.92	
2025-01-14 17:02:17.30	61.68	23.93	
2025-01-14 17:02:17.51	61.61	23.93	
2025-01-14 17:02:17.71	61.55	23.94	
2025-01-14 17:02:17.92	61.48	23.95	
2025-01-14 17:02:18.13	61.41	23.95	
2025-01-14 17:02:18.33	61.34	23.96	
2025-01-14 17:02:18.54	61.28	23.97	
2025-01-14 17:02:18.74	61.21	23.97	
2025-01-14 17:02:18.95	61.14	23.98	
2025-01-14 17:02:19.15	61.07	23.98	
2025-01-14 17:02:19.36	61.01	23.99	
2025-01-14 17:02:19.56	60.94	24.00	
2025-01-14 17:02:19.78	60.87	24.00	
2025-01-14 17:02:19.98	60.80	24.01	
2025-01-14 17:02:20.19	60.73	24.01	
2025-01-14 17:02:20.40	60.66	24.02	
2025-01-14 17:02:20.60	60.60	24.02	
2025-01-14 17:02:20.81	60.53	24.03	
2025-01-14 17:02:21.01	60.46	24.04	
2025-01-14 17:02:21.22	60.39	24.04	
2025-01-14 17:02:21.42	60.33	24.05	
2025-01-14 17:02:21.63	60.26	24.05	
2025-01-14 17:02:21.83	60.19	24.06	
2025-01-14 17:02:22.04	60.12	24.06	
2025-01-14 17:02:22.24	60.06	24.07	
2025-01-14 17:02:22.45	59.99	24.07	
2025-01-14 17:02:22.65	59.92	24.08	
2025-01-14 17:02:22.86	59.85	24.09	
2025-01-14 17:02:23.07	59.78	24.09	
2025-01-14 17:02:23.27	59.71	24.10	
2025-01-14 17:02:23.48	59.64	24.10	
2025-01-14 17:02:23.68	59.58	24.11	
2025-01-14 17:02:23.89	59.51	24.11	
2025-01-14 17:02:24.09	59.44	24.12	
2025-01-14 17:02:24.30	59.37	24.12	
2025-01-14 17:02:24.50	59.31	24.13	
2025-01-14 17:02:24.71	59.24	24.13	
2025-01-14 17:02:24.91	59.17	24.14	
2025-01-14 17:02:25.12	59.10	24.14	
2025-01-14 17:02:25.32	59.03	24.15	
2025-01-14 17:02:25.53	58.96	24.15	
2025-01-14 17:02:25.74	58.89	24.16	
2025-01-14 17:02:25.94	58.83	24.16	
2025-01-14 17:02:26.15	58.76	24.16	
2025-01-14 17:02:26.35	58.69	24.17	
2025-01-14 17:02:26.56	58.62	24.17	
2025-01-14 17:02:26.76	58.55	24.18	
2025-01-14 17:02:26.97	58.48	24.18	
2025-01-14 17:02:27.17	58.42	24.19	
2025-01-14 17:02:27.38	58.35	24.19	
2025-01-14 17:02:27.58	58.28	24.20	
2025-01-14 17:02:27.79	58.21	24.20	
2025-01-14 17:02:27.99	58.14	24.20	
2025-01-14 17:02:28.20	58.07	24.21	
2025-01-14 17:02:28.40	58.01	24.21	
2025-01-14 17:02:28.61	57.94	24.22	
2025-01-14 17:02:28.81	57.87	24.22	
2025-01-14 17:02:29.02	57.80	24.22	
2025-01-14 17:02:29.22	57.73	24.23	
2025-01-14 17:02:29.43	57.66	24.23	
2025-01-14 17:02:29.64	57.59	24.24	
2025-01-14 17:02:29.84	57.53	24.24	
2025-01-14 17:02:30.05	57.46	24.24	
2025-01-14 17:02:30.25	57.39	24.25	
2025-01-14 17:02:30.46	57.32	24.25	
2025-01-14 17:02:30.66	57.25	24.26	
2025-01-14 17:02:30.87	57.18	24.26	
2025-01-14 17:02:31.07	57.11	24.26	
2025-01-14 17:02:31.28	57.04	24.27	
2025-01-14 17:02:31.48	56.98	24.27	
2025-01-14 17:02:31.69	56.91	24.27	
2025-01-14 17:02:31.89	56.84	24.28	
2025-01-14 17:02:32.10	56.77	24.28	
2025-01-14 17:02:32.30	56.70	24.28	
2025-01-14 17:02:32.51	56.63	24.29	
2025-01-14 17:02:32.72	56.56	24.29	
2025-01-14 17:02:32.92	56.49	24.29	
2025-01-14 17:02:33.13	56.42	24.30	
2025-01-14 17:02:33.33	56.36	24.30	
2025-01-14 17:02:33.54	56.29	24.30	
2025-01-14 17:02:33.74	56.22	24.31	
2025-01-14 17:02:33.95	56.15	24.31	
2025-01-14 17:02:34.15	56.08	24.31	
2025-01-14 17:02:34.36	56.01	24.31	
2025-01-14 17:02:34.56	55.94	24.32	
2025-01-14 17:02:34.77	55.87	24.32	
2025-01-14 17:02:34.97	55.80	24.32	
2025-01-14 17:02:35.18	55.73	24.33	
2025-01-14 17:02:35.38	55.67	24.33	
2025-01-14 17:02:35.59	55.60	24.33	
2025-01-14 17:02:35.79	55.53	24.33	
2025-01-14 17:02:36.00	55.46	24.34	
2025-01-14 17:02:36.20	55.39	24.34	
2025-01-14 17:02:36.41	55.32	24.34	
2025-01-14 17:02:36.61	55.25	24.34	
2025-01-14 17:02:36.82	55.18	24.35	
2025-01-14 17:02:37.03	55.11	24.35	
2025-01-14 17:02:37.23	55.04	24.35	
2025-01-14 17:02:37.44	54.97	24.35	
2025-01-14 17:02:37.66	54.90	24.36	
2025-01-14 17:02:37.86	54.83	24.36	
2025-01-14 17:02:38.07	54.76	24.36	
2025-01-14 17:02:38.27	54.69	24.36	
2025-01-14 17:02:38.48	54.62	24.36	
2025-01-14 17:02:38.68	54.55	24.37	
2025-01-14 17:02:38.88	54.49	24.37	
2025-01-14 17:02:39.09	54.42	24.37	
2025-01-14 17:02:39.29	54.35	24.37	
2025-01-14 17:02:39.50	54.28	24.37	
2025-01-14 17:02:39.70	54.21	24.37	
2025-01-14 17:02:39.91	54.14	24.38	
2025-01-14 17:02:40.11	54.07	24.38	
2025-01-14 17:02:40.32	54.00	24.38	
2025-01-14 17:02:40.52	53.93	24.38	
2025-01-14 17:02:40.73	53.86	24.38	
2025-01-14 17:02:40.93	53.79	24.38	
2025-01-14 17:02:41.14	53.72	24.39	
2025-01-14 17:02:41.35	53.65	24.39	
2025-01-14 17:02:41.55	53.59	24.39	
2025-01-14 17:02:41.76	53.51	24.39	
2025-01-14 17:02:41.96	53.45	24.39	
2025-01-14 17:02:42.17	53.38	24.39	
2025-01-14 17:02:42.37	53.31	24.39	
2025-01-14 17:02:42.58	53.24	24.40	
2025-01-14 17:02:42.78	53.17	24.40	
2025-01-14 17:02:42.99	53.10	24.40	
2025-01-14 17:02:43.19	53.03	24.40	
2025-01-14 17:02:43.40	52.96	24.40	
2025-01-14 17:02:43.60	52.89	24.40	
2025-01-14 17:02:43.81	52.82	24.40	
2025-01-14 17:02:44.01	52.75	24.40	
2025-01-14 17:02:44.22	52.68	24.40	
2025-01-14 17:02:44.43	52.61	24.40	
2025-01-14 17:02:44.63	52.54	24.40	
2025-01-14 17:02:44.84	52.47	24.41	
2025-01-14 17:02:45.04	52.41	24.41	
2025-01-14 17:02:45.24	52.34	24.41	
2025-01-14 17:02:45.45	52.27	24.41	
2025-01-14 17:02:45.65	52.20	24.41	
2025-01-14 17:02:45.86	52.13	24.41	
2025-01-14 17:02:46.07	52.06	24.41	
2025-01-14 17:02:46.27	51.99	24.41	
2025-01-14 17:02:46.48	51.92	24.41	
2025-01-14 17:02:46.68	51.85	24.41	
2025-01-14 17:02:46.89	51.78	24.41	
2025-01-14 17:02:47.09	51.71	24.41	
2025-01-14 17:02:47.31	51.64	24.41	
2025-01-14 17:02:47.51	51.57	24.41	
2025-01-14 17:02:47.72	51.50	24.41	
2025-01-14 17:02:47.92	51.43	24.41	
2025-01-14 17:02:48.13	51.36	24.41	
2025-01-14 17:02:48.33	51.29	24.41	
2025-01-14 17:02:48.54	51.22	24.41	
2025-01-14 17:02:48.75	51.15	24.41	
2025-01-14 17:02:48.95	51.08	24.41	
2025-01-14 17:02:49.16	51.01	24.41	
2025-01-14 17:02:49.36	50.94	24.41	
2025-01-14 17:02:49.57	50.87	24.41	
2025-01-14 17:02:49.77	50.81	24.41	
2025-01-14 17:02:49.98	50.73	24.41	
2025-01-14 17:02:50.19	50.66	24.41	
2025-01-14 17:02:50.39	50.60	24.41	
2025-01-14 17:02:50.60	50.53	24.41	
2025-01-14 17:02:50.80	50.46	24.41	
2025-01-14 17:02:51.01	50.39	24.41	
2025-01-14 17:02:51.21	50.32	24.40	
2025-01-14 17:02:51.42	50.25	24.40	
2025-01-14 17:02:51.62	50.18	24.40	
2025-01-14 17:02:51.83	50.11	24.40	
2025-01-14 17:02:52.04	50.04	24.40	
2025-01-14 17:02:52.24	49.97	24.40	
2025-01-14 17:02:52.45	49.90	24.40	
2025-01-14 17:02:52.65	49.83	24.40	
2025-01-14 17:02:52.86	49.76	24.40	
2025-01-14 17:02:53.06	49.69	24.40	
2025-01-14 17:02:53.27	49.62	24.40	
2025-01-14 17:02:53.48	49.55	24.39	
2025-01-14 17:02:53.68	49.48	24.39	
2025-01-14 17:02:53.88	49.42	24.39	
2025-01-14 17:02:54.09	49.35	24.39	
2025-01-14 17:02:54.30	49.27	24.39	
2025-01-14 17:02:54.50	49.21	24.39	
2025-01-14 17:02:54.71	49.14	24.39	
2025-01-14 17:02:54.91	49.07	24.38	
2025-01-14 17:02:55.12	49.00	24.38	
2025-01-14 17:02:55.32	48.93	24.38	
2025-01-14 17:02:55.53	48.86	24.38	
2025-01-14 17:02:55.73	48.79	24.38	
2025-01-14 17:02:55.94	48.72	24.38	
2025-01-14 17:02:56.15	48.65	24.38	
2025-01-14 17:02:56.35	48.58	24.37	
2025-01-14 17:02:56.57	48.51	24.37	
2025-01-14 17:02:56.77	48.44	24.37	
2025-01-14 17:02:56.98	48.37	24.37	
2025-01-14 17:02:57.18	48.30	24.37	
2025-01-14 17:02:57.39	48.23	24.36	
2025-01-14 17:02:57.59	48.16	24.36	
2025-01-14 17:02:57.80	48.09	24.36	
2025-01-14 17:02:58.00	48.03	24.36	
2025-01-14 17:02:58.21	47.96	24.36	
2025-01-14 17:02:58.41	47.89	24.35	
2025-01-14 17:02:58.62	47.82	24.35	
2025-01-14 17:02:58.82	47.75	24.35	
2025-01-14 17:02:59.03	47.68	24.35	
2025-01-14 17:02:59.23	47.61	24.34	
2025-01-14 17:02:59.44	47.54	24.34	
2025-01-14 17:02:59.64	47.47	24.34	
2025-01-14 17:02:59.85	47.40	24.34	
2025-01-14 17:03:00.05	47.34	24.33	
2025-01-14 17:03:00.26	47.27	24.33	
2025-01-14 17:03:00.46	47.20	24.33	
2025-01-14 17:03:00.67	47.13	24.33	
2025-01-14 17:03:00.88	47.06	24.32	
2025-01-14 17:03:01.08	46.99	24.32	
2025-01-14 17:03:01.29	46.92	24.32	
2025-01-14 17:03:01.49	46.85	24.31	
2025-01-14 17:03:01.70	46.78	24.31	
2025-01-14 17:03:01.90	46.71	24.31	
2025-01-14 17:03:02.10	46.65	24.31	
2025-01-14 17:03:02.31	46.58	24.30	
2025-01-14 17:03:02.52	46.51	24.30	
2025-01-14 17:03:02.72	46.44	24.30	
2025-01-14 17:03:02.93	46.37	24.29	
2025-01-14 17:03:03.13	46.30	24.29	
2025-01-14 17:03:03.34	46.23	24.29	
2025-01-14 17:03:03.54	46.16	24.28	
2025-01-14 17:03:03.75	46.09	24.28	
2025-01-14 17:03:03.96	46.02	24.28	
2025-01-14 17:03:04.16	45.96	24.27	
2025-01-14 17:03:04.36	45.89	24.27	
2025-01-14 17:03:04.57	45.82	24.27	
2025-01-14 17:03:04.78	45.75	24.26	
2025-01-14 17:03:04.98	45.68	24.26	
2025-01-14 17:03:05.19	45.61	24.26	
2025-01-14 17:03:05.39	45.54	24.25	
2025-01-14 17:03:05.59	45.48	24.25	
2025-01-14 17:03:05.80	45.41	24.24	
2025-01-14 17:03:06.01	45.34	24.24	
2025-01-14 17:03:06.21	45.27	24.24	
2025-01-14 17:03:06.42	45.20	24.23	
2025-01-14 17:03:06.62	45.13	24.23	
2025-01-14 17:03:06.83	45.06	24.22	
2025-01-14 17:03:07.03	45.00	24.22	
2025-01-14 17:03:07.24	44.93	24.22	
2025-01-14 17:03:07.44	44.86	24.21	
2025-01-14 17:03:07.65	44.79	24.21	
2025-01-14 17:03:07.85	44.72	24.20	
2025-01-14 17:03:08.06	44.65	24.20	
2025-01-14 17:03:08.26	44.59	24.20	
2025-01-14 17:03:08.47	44.52	24.19	
2025-01-14 17:03:08.69	44.44	24.19	
2025-01-14 17:03:08.89	44.38	24.18	
2025-01-14 17:03:09.10	44.31	24.18	
2025-01-14 17:03:09.30	44.24	24.17	
2025-01-14 17:03:09.51	44.17	24.17	
2025-01-14 17:03:09.73	44.10	24.16	
2025-01-14 17:03:09.93	44.03	24.16	
2025-01-14 17:03:10.14	43.96	24.16	
2025-01-14 17:03:10.35	43.89	24.15	
2025-01-14 17:03:10.55	43.82	24.15	
2025-01-14 17:03:10.75	43.76	24.14	
2025-01-14 17:03:10.96	43.69	24.14	
2025-01-14 17:03:11.16	43.62	24.13	
2025-01-14 17:03:11.37	43.55	24.13	
2025-01-14 17:03:11.58	43.48	24.12	
2025-01-14 17:03:11.78	43.42	24.12	
2025-01-14 17:03:11.99	43.35	24.11	
2025-01-14 17:03:12.19	43.28	24.11	
2025-01-14 17:03:12.40	43.21	24.10	
2025-01-14 17:03:12.60	43.14	24.10	
2025-01-14 17:03:12.80	43.08	24.09	
2025-01-14 17:03:13.01	43.01	24.09	
2025-01-14 17:03:13.22	42.94	24.08	
2025-01-14 17:03:13.42	42.87	24.08	
2025-01-14 17:03:13.63	42.80	24.07	
2025-01-14 17:03:13.83	42.74	24.06	
2025-01-14 17:03:14.03	42.67	24.06	
2025-01-14 17:03:14.24	42.60	24.05	
2025-01-14 17:03:14.45	42.53	24.05	
2025-01-14 17:03:14.65	42.47	24.04	
2025-01-14 17:03:14.86	42.40	24.04	
2025-01-14 17:03:15.06	42.33	24.03	
2025-01-14 17:03:15.27	42.26	24.03	
