passes_logs/2025/01/14/SPB_Silybum_02/SPB_Silybum_02__20250114_021214_SUOMI_NPP_rec.log

#Pass ID: 20250114_021214_SUOMI NPP
#Satellite: SUOMI NPP
#Configuration: NPP
#Start time: 2025-01-14 02:12:13

#Version: 2.0.20230423
#Station: SPB_Silybum_02
#Location: 30.233357 lon 59.946436 lat
#TLE: 1 37849U 11061A   25013.15774042  .00000145  00000+0  89802-4 0  9991
#TLE: 2 37849  98.7444 314.1696 0001761  43.7896 316.3420 14.19537310684653

#Time	Az	El	Level	Level2	SNR	BER	Gain	Gain2
2025-01-14 02:12:15.18	14.24	4.05	
2025-01-14 02:12:15.38	14.22	4.06	
2025-01-14 02:12:15.59	14.21	4.07	
2025-01-14 02:12:15.80	14.19	4.08	
2025-01-14 02:12:16.00	14.18	4.10	
2025-01-14 02:12:16.20	14.16	4.11	
2025-01-14 02:12:16.41	14.15	4.12	
2025-01-14 02:12:16.61	14.13	4.13	
2025-01-14 02:12:16.82	14.12	4.15	
2025-01-14 02:12:17.03	14.10	4.16	
2025-01-14 02:12:17.23	14.09	4.17	
2025-01-14 02:12:17.44	14.07	4.18	
2025-01-14 02:12:17.64	14.06	4.19	
2025-01-14 02:12:17.84	14.04	4.21	
2025-01-14 02:12:18.05	14.03	4.22	
2025-01-14 02:12:18.26	14.01	4.23	
2025-01-14 02:12:18.46	14.00	4.24	
2025-01-14 02:12:18.66	13.98	4.26	
2025-01-14 02:12:18.87	13.97	4.27	
2025-01-14 02:12:19.08	13.95	4.28	
2025-01-14 02:12:19.28	13.94	4.29	
2025-01-14 02:12:19.50	13.92	4.31	
2025-01-14 02:12:19.70	13.91	4.32	
2025-01-14 02:12:19.91	13.89	4.33	
2025-01-14 02:12:20.11	13.88	4.34	
2025-01-14 02:12:20.32	13.86	4.36	
2025-01-14 02:12:20.52	13.85	4.37	
2025-01-14 02:12:20.73	13.83	4.38	
2025-01-14 02:12:20.93	13.82	4.39	
2025-01-14 02:12:21.14	13.80	4.40	
2025-01-14 02:12:21.35	13.79	4.42	
2025-01-14 02:12:21.55	13.77	4.43	
2025-01-14 02:12:21.75	13.76	4.44	
2025-01-14 02:12:21.96	13.74	4.45	
2025-01-14 02:12:22.17	13.73	4.47	
2025-01-14 02:12:22.37	13.71	4.48	
2025-01-14 02:12:22.58	13.70	4.49	
2025-01-14 02:12:22.78	13.68	4.50	
2025-01-14 02:12:22.99	13.67	4.52	
2025-01-14 02:12:23.19	13.65	4.53	
2025-01-14 02:12:23.40	13.64	4.54	
2025-01-14 02:12:23.60	13.62	4.55	
2025-01-14 02:12:23.81	13.60	4.57	
2025-01-14 02:12:24.01	13.59	4.58	
2025-01-14 02:12:24.22	13.57	4.59	
2025-01-14 02:12:24.42	13.56	4.60	
2025-01-14 02:12:24.63	13.54	4.62	
2025-01-14 02:12:24.83	13.53	4.63	
2025-01-14 02:12:25.04	13.51	4.64	
2025-01-14 02:12:25.25	13.50	4.65	
2025-01-14 02:12:25.45	13.48	4.67	
2025-01-14 02:12:25.66	13.47	4.68	
2025-01-14 02:12:25.86	13.45	4.69	
2025-01-14 02:12:26.07	13.44	4.70	
2025-01-14 02:12:26.27	13.42	4.72	
2025-01-14 02:12:26.48	13.40	4.73	
2025-01-14 02:12:26.68	13.39	4.74	
2025-01-14 02:12:26.89	13.37	4.75	
2025-01-14 02:12:27.09	13.36	4.77	
2025-01-14 02:12:27.30	13.34	4.78	
2025-01-14 02:12:27.50	13.33	4.79	
2025-01-14 02:12:27.71	13.31	4.80	
2025-01-14 02:12:27.91	13.30	4.82	
2025-01-14 02:12:28.12	13.28	4.83	
2025-01-14 02:12:28.33	13.26	4.84	
2025-01-14 02:12:28.53	13.25	4.85	
2025-01-14 02:12:28.74	13.23	4.87	
2025-01-14 02:12:28.94	13.22	4.88	
2025-01-14 02:12:29.15	13.20	4.89	
2025-01-14 02:12:29.35	13.19	4.90	
2025-01-14 02:12:29.55	13.17	4.92	
2025-01-14 02:12:29.76	13.16	4.93	
2025-01-14 02:12:29.97	13.14	4.94	
2025-01-14 02:12:30.17	13.12	4.95	
2025-01-14 02:12:30.38	13.11	4.97	
2025-01-14 02:12:30.58	13.09	4.98	
2025-01-14 02:12:30.78	13.08	4.99	
2025-01-14 02:12:30.99	13.06	5.00	
2025-01-14 02:12:31.19	13.05	5.02	
2025-01-14 02:12:31.40	13.03	5.03	
2025-01-14 02:12:31.61	13.01	5.04	
2025-01-14 02:12:31.81	13.00	5.05	
2025-01-14 02:12:32.02	12.98	5.07	
2025-01-14 02:12:32.22	12.97	5.08	
2025-01-14 02:12:32.42	12.95	5.09	
2025-01-14 02:12:32.63	12.93	5.10	
2025-01-14 02:12:32.84	12.92	5.12	
2025-01-14 02:12:33.04	12.90	5.13	
2025-01-14 02:12:33.25	12.89	5.14	
2025-01-14 02:12:33.45	12.87	5.15	
2025-01-14 02:12:33.66	12.85	5.17	
2025-01-14 02:12:33.86	12.84	5.18	
2025-01-14 02:12:34.07	12.82	5.19	
2025-01-14 02:12:34.28	12.81	5.21	
2025-01-14 02:12:34.48	12.79	5.22	
2025-01-14 02:12:34.69	12.77	5.23	
2025-01-14 02:12:34.89	12.76	5.24	
2025-01-14 02:12:35.10	12.74	5.26	
2025-01-14 02:12:35.30	12.73	5.27	
2025-01-14 02:12:35.51	12.71	5.28	
2025-01-14 02:12:35.71	12.69	5.29	
2025-01-14 02:12:35.92	12.68	5.31	
2025-01-14 02:12:36.12	12.66	5.32	
2025-01-14 02:12:36.33	12.65	5.33	
2025-01-14 02:12:36.54	12.63	5.34	
2025-01-14 02:12:36.75	12.61	5.36	
2025-01-14 02:12:36.95	12.60	5.37	
2025-01-14 02:12:37.16	12.58	5.38	
2025-01-14 02:12:37.36	12.56	5.39	
2025-01-14 02:12:37.57	12.55	5.41	
2025-01-14 02:12:37.77	12.53	5.42	
2025-01-14 02:12:37.98	12.52	5.43	
2025-01-14 02:12:38.19	12.50	5.45	
2025-01-14 02:12:38.39	12.48	5.46	
2025-01-14 02:12:38.60	12.47	5.47	
2025-01-14 02:12:38.80	12.45	5.48	
2025-01-14 02:12:39.01	12.43	5.50	
2025-01-14 02:12:39.21	12.42	5.51	
2025-01-14 02:12:39.42	12.40	5.52	
2025-01-14 02:12:39.62	12.39	5.53	
2025-01-14 02:12:39.84	12.37	5.55	
2025-01-14 02:12:40.05	12.35	5.56	
2025-01-14 02:12:40.25	12.33	5.57	
2025-01-14 02:12:40.46	12.32	5.59	
2025-01-14 02:12:40.66	12.30	5.60	
2025-01-14 02:12:40.87	12.29	5.61	
2025-01-14 02:12:41.07	12.27	5.62	
2025-01-14 02:12:41.28	12.25	5.64	
2025-01-14 02:12:41.48	12.24	5.65	
2025-01-14 02:12:41.69	12.22	5.66	
2025-01-14 02:12:41.91	12.20	5.68	
2025-01-14 02:12:42.11	12.19	5.69	
2025-01-14 02:12:42.31	12.17	5.70	
2025-01-14 02:12:42.52	12.15	5.72	
2025-01-14 02:12:42.73	12.14	5.73	
2025-01-14 02:12:42.94	12.12	5.74	
2025-01-14 02:12:43.15	12.10	5.75	
2025-01-14 02:12:43.35	12.08	5.77	
2025-01-14 02:12:43.56	12.07	5.78	
2025-01-14 02:12:43.76	12.05	5.79	
2025-01-14 02:12:43.97	12.03	5.81	
2025-01-14 02:12:44.17	12.02	5.82	
2025-01-14 02:12:44.38	12.00	5.83	
2025-01-14 02:12:44.59	11.98	5.84	
2025-01-14 02:12:44.79	11.97	5.86	
2025-01-14 02:12:44.99	11.95	5.87	
2025-01-14 02:12:45.20	11.93	5.88	
2025-01-14 02:12:45.40	11.92	5.89	
2025-01-14 02:12:45.61	11.90	5.91	
2025-01-14 02:12:45.82	11.88	5.92	
2025-01-14 02:12:46.02	11.87	5.93	
2025-01-14 02:12:46.23	11.85	5.95	
2025-01-14 02:12:46.43	11.83	5.96	
2025-01-14 02:12:46.64	11.82	5.97	
2025-01-14 02:12:46.84	11.80	5.98	
2025-01-14 02:12:47.05	11.78	6.00	
2025-01-14 02:12:47.25	11.77	6.01	
2025-01-14 02:12:47.46	11.75	6.02	
2025-01-14 02:12:47.66	11.73	6.04	
2025-01-14 02:12:47.87	11.71	6.05	
2025-01-14 02:12:48.07	11.70	6.06	
2025-01-14 02:12:48.28	11.68	6.08	
2025-01-14 02:12:48.48	11.66	6.09	
2025-01-14 02:12:48.69	11.65	6.10	
2025-01-14 02:12:48.89	11.63	6.11	
2025-01-14 02:12:49.10	11.61	6.13	
2025-01-14 02:12:49.30	11.60	6.14	
2025-01-14 02:12:49.50	11.58	6.15	
2025-01-14 02:12:49.71	11.56	6.17	
2025-01-14 02:12:49.92	11.54	6.18	
2025-01-14 02:12:50.12	11.53	6.19	
2025-01-14 02:12:50.33	11.51	6.20	
2025-01-14 02:12:50.53	11.49	6.22	
2025-01-14 02:12:50.74	11.47	6.23	
2025-01-14 02:12:50.94	11.46	6.24	
2025-01-14 02:12:51.15	11.44	6.26	
2025-01-14 02:12:51.35	11.42	6.27	
2025-01-14 02:12:51.56	11.41	6.28	
2025-01-14 02:12:51.76	11.39	6.29	
2025-01-14 02:12:51.97	11.37	6.31	
2025-01-14 02:12:52.17	11.35	6.32	
2025-01-14 02:12:52.38	11.34	6.33	
2025-01-14 02:12:52.58	11.32	6.35	
2025-01-14 02:12:52.79	11.30	6.36	
2025-01-14 02:12:52.99	11.29	6.37	
2025-01-14 02:12:53.20	11.27	6.39	
2025-01-14 02:12:53.40	11.25	6.40	
2025-01-14 02:12:53.61	11.23	6.41	
2025-01-14 02:12:53.81	11.22	6.42	
2025-01-14 02:12:54.02	11.20	6.44	
2025-01-14 02:12:54.22	11.18	6.45	
2025-01-14 02:12:54.43	11.16	6.46	
2025-01-14 02:12:54.63	11.15	6.48	
2025-01-14 02:12:54.84	11.13	6.49	
2025-01-14 02:12:55.04	11.11	6.50	
2025-01-14 02:12:55.25	11.09	6.52	
2025-01-14 02:12:55.45	11.08	6.53	
2025-01-14 02:12:55.66	11.06	6.54	
2025-01-14 02:12:55.86	11.04	6.55	
2025-01-14 02:12:56.07	11.02	6.57	
2025-01-14 02:12:56.27	11.00	6.58	
2025-01-14 02:12:56.48	10.99	6.59	
2025-01-14 02:12:56.69	10.97	6.61	
2025-01-14 02:12:56.89	10.95	6.62	
2025-01-14 02:12:57.10	10.93	6.63	
2025-01-14 02:12:57.30	10.92	6.65	
2025-01-14 02:12:57.51	10.90	6.66	
2025-01-14 02:12:57.71	10.88	6.67	
2025-01-14 02:12:57.92	10.86	6.68	
2025-01-14 02:12:58.12	10.85	6.70	
2025-01-14 02:12:58.33	10.83	6.71	
2025-01-14 02:12:58.54	10.81	6.72	
2025-01-14 02:12:58.74	10.79	6.74	
2025-01-14 02:12:58.95	10.77	6.75	
2025-01-14 02:12:59.15	10.76	6.76	
2025-01-14 02:12:59.36	10.74	6.78	
2025-01-14 02:12:59.56	10.72	6.79	
2025-01-14 02:12:59.77	10.70	6.80	
2025-01-14 02:12:59.97	10.68	6.82	
2025-01-14 02:13:00.18	10.67	6.83	
2025-01-14 02:13:00.39	10.65	6.84	
2025-01-14 02:13:00.59	10.63	6.86	
2025-01-14 02:13:00.80	10.61	6.87	
2025-01-14 02:13:01.00	10.59	6.88	
2025-01-14 02:13:01.22	10.57	6.90	
2025-01-14 02:13:01.42	10.56	6.91	
2025-01-14 02:13:01.63	10.54	6.92	
2025-01-14 02:13:01.83	10.52	6.93	
2025-01-14 02:13:02.04	10.50	6.95	
2025-01-14 02:13:02.24	10.48	6.96	
2025-01-14 02:13:02.45	10.47	6.97	
2025-01-14 02:13:02.65	10.45	6.99	
2025-01-14 02:13:02.86	10.43	7.00	
2025-01-14 02:13:03.07	10.41	7.01	
2025-01-14 02:13:03.27	10.39	7.03	
2025-01-14 02:13:03.48	10.37	7.04	
2025-01-14 02:13:03.68	10.36	7.05	
2025-01-14 02:13:03.89	10.34	7.07	
2025-01-14 02:13:04.09	10.32	7.08	
2025-01-14 02:13:04.30	10.30	7.09	
2025-01-14 02:13:04.50	10.28	7.11	
2025-01-14 02:13:04.71	10.26	7.12	
2025-01-14 02:13:04.92	10.25	7.13	
2025-01-14 02:13:05.12	10.23	7.15	
2025-01-14 02:13:05.32	10.21	7.16	
2025-01-14 02:13:05.53	10.19	7.17	
2025-01-14 02:13:05.74	10.17	7.19	
2025-01-14 02:13:05.94	10.15	7.20	
2025-01-14 02:13:06.15	10.14	7.21	
2025-01-14 02:13:06.35	10.12	7.23	
2025-01-14 02:13:06.56	10.10	7.24	
2025-01-14 02:13:06.76	10.08	7.25	
2025-01-14 02:13:06.97	10.06	7.27	
2025-01-14 02:13:07.17	10.04	7.28	
2025-01-14 02:13:07.37	10.03	7.29	
2025-01-14 02:13:07.58	10.01	7.30	
2025-01-14 02:13:07.79	9.99	7.32	
2025-01-14 02:13:07.99	9.97	7.33	
2025-01-14 02:13:08.20	9.95	7.34	
2025-01-14 02:13:08.40	9.93	7.36	
2025-01-14 02:13:08.61	9.91	7.37	
2025-01-14 02:13:08.81	9.89	7.38	
2025-01-14 02:13:09.02	9.88	7.40	
2025-01-14 02:13:09.22	9.86	7.41	
2025-01-14 02:13:09.43	9.84	7.42	
2025-01-14 02:13:09.63	9.82	7.44	
2025-01-14 02:13:09.84	9.80	7.45	
2025-01-14 02:13:10.04	9.78	7.46	
2025-01-14 02:13:10.25	9.76	7.48	
2025-01-14 02:13:10.45	9.74	7.49	
2025-01-14 02:13:10.66	9.72	7.50	
2025-01-14 02:13:10.86	9.71	7.52	
2025-01-14 02:13:11.07	9.69	7.53	
2025-01-14 02:13:11.27	9.67	7.54	
2025-01-14 02:13:11.48	9.65	7.56	
2025-01-14 02:13:11.69	9.63	7.57	
2025-01-14 02:13:11.89	9.61	7.58	
2025-01-14 02:13:12.10	9.59	7.60	
2025-01-14 02:13:12.30	9.57	7.61	
2025-01-14 02:13:12.51	9.55	7.62	
2025-01-14 02:13:12.71	9.54	7.64	
2025-01-14 02:13:12.92	9.52	7.65	
2025-01-14 02:13:13.12	9.50	7.66	
2025-01-14 02:13:13.33	9.48	7.68	
2025-01-14 02:13:13.53	9.46	7.69	
2025-01-14 02:13:13.74	9.44	7.70	
2025-01-14 02:13:13.94	9.42	7.72	
2025-01-14 02:13:14.14	9.40	7.73	
2025-01-14 02:13:14.35	9.38	7.74	
2025-01-14 02:13:14.56	9.36	7.76	
2025-01-14 02:13:14.76	9.34	7.77	
2025-01-14 02:13:14.96	9.33	7.78	
2025-01-14 02:13:15.17	9.31	7.80	
2025-01-14 02:13:15.38	9.29	7.81	
2025-01-14 02:13:15.58	9.27	7.82	
2025-01-14 02:13:15.79	9.25	7.84	
2025-01-14 02:13:15.99	9.23	7.85	
2025-01-14 02:13:16.20	9.21	7.86	
2025-01-14 02:13:16.40	9.19	7.88	
2025-01-14 02:13:16.61	9.17	7.89	
2025-01-14 02:13:16.81	9.15	7.90	
2025-01-14 02:13:17.02	9.13	7.92	
2025-01-14 02:13:17.22	9.11	7.93	
2025-01-14 02:13:17.43	9.09	7.95	
2025-01-14 02:13:17.63	9.07	7.96	
2025-01-14 02:13:17.84	9.05	7.97	
2025-01-14 02:13:18.04	9.03	7.99	
2025-01-14 02:13:18.24	9.02	8.00	
2025-01-14 02:13:18.45	9.00	8.01	
2025-01-14 02:13:18.66	8.98	8.03	
2025-01-14 02:13:18.86	8.96	8.04	
2025-01-14 02:13:19.07	8.94	8.05	
2025-01-14 02:13:19.27	8.92	8.07	
2025-01-14 02:13:19.48	8.90	8.08	
2025-01-14 02:13:19.68	8.88	8.09	
2025-01-14 02:13:19.89	8.86	8.11	
2025-01-14 02:13:20.10	8.84	8.12	
2025-01-14 02:13:20.30	8.82	8.13	
2025-01-14 02:13:20.51	8.80	8.15	
2025-01-14 02:13:20.71	8.78	8.16	
2025-01-14 02:13:20.92	8.76	8.17	
2025-01-14 02:13:21.12	8.74	8.19	
2025-01-14 02:13:21.33	8.72	8.20	
2025-01-14 02:13:21.53	8.70	8.21	
2025-01-14 02:13:21.74	8.68	8.23	
2025-01-14 02:13:21.94	8.66	8.24	
2025-01-14 02:13:22.15	8.64	8.26	
2025-01-14 02:13:22.36	8.62	8.27	
2025-01-14 02:13:22.57	8.60	8.28	
2025-01-14 02:13:22.78	8.58	8.30	
2025-01-14 02:13:22.98	8.56	8.31	
2025-01-14 02:13:23.19	8.54	8.32	
2025-01-14 02:13:23.40	8.52	8.34	
2025-01-14 02:13:23.61	8.50	8.35	
2025-01-14 02:13:23.82	8.48	8.37	
2025-01-14 02:13:24.03	8.46	8.38	
2025-01-14 02:13:24.23	8.44	8.39	
2025-01-14 02:13:24.44	8.42	8.41	
2025-01-14 02:13:24.64	8.40	8.42	
2025-01-14 02:13:24.85	8.38	8.43	
2025-01-14 02:13:25.06	8.36	8.45	
2025-01-14 02:13:25.26	8.34	8.46	
2025-01-14 02:13:25.47	8.32	8.48	
2025-01-14 02:13:25.67	8.30	8.49	
2025-01-14 02:13:25.88	8.27	8.50	
2025-01-14 02:13:26.08	8.25	8.52	
2025-01-14 02:13:26.30	8.23	8.53	
2025-01-14 02:13:26.50	8.21	8.54	
2025-01-14 02:13:26.71	8.19	8.56	
2025-01-14 02:13:26.91	8.17	8.57	
2025-01-14 02:13:27.12	8.15	8.58	
2025-01-14 02:13:27.32	8.13	8.60	
2025-01-14 02:13:27.53	8.11	8.61	
2025-01-14 02:13:27.73	8.09	8.63	
2025-01-14 02:13:27.94	8.07	8.64	
2025-01-14 02:13:28.14	8.05	8.65	
2025-01-14 02:13:28.35	8.03	8.67	
2025-01-14 02:13:28.55	8.01	8.68	
2025-01-14 02:13:28.76	7.99	8.69	
2025-01-14 02:13:28.96	7.97	8.71	
2025-01-14 02:13:29.17	7.95	8.72	
2025-01-14 02:13:29.38	7.93	8.73	
2025-01-14 02:13:29.58	7.91	8.75	
2025-01-14 02:13:29.79	7.89	8.76	
2025-01-14 02:13:29.99	7.86	8.78	
2025-01-14 02:13:30.20	7.84	8.79	
2025-01-14 02:13:30.40	7.82	8.80	
2025-01-14 02:13:30.61	7.80	8.82	
2025-01-14 02:13:30.82	7.78	8.83	
2025-01-14 02:13:31.02	7.76	8.84	
2025-01-14 02:13:31.23	7.74	8.86	
2025-01-14 02:13:31.43	7.72	8.87	
2025-01-14 02:13:31.63	7.70	8.88	
2025-01-14 02:13:31.84	7.68	8.90	
2025-01-14 02:13:32.04	7.66	8.91	
2025-01-14 02:13:32.25	7.64	8.93	
2025-01-14 02:13:32.46	7.61	8.94	
2025-01-14 02:13:32.66	7.59	8.95	
2025-01-14 02:13:32.87	7.57	8.97	
2025-01-14 02:13:33.07	7.55	8.98	
2025-01-14 02:13:33.29	7.53	9.00	
2025-01-14 02:13:33.49	7.51	9.01	
2025-01-14 02:13:33.71	7.49	9.02	
2025-01-14 02:13:33.92	7.47	9.04	
2025-01-14 02:13:34.12	7.45	9.05	
2025-01-14 02:13:34.33	7.42	9.07	
2025-01-14 02:13:34.53	7.40	9.08	
2025-01-14 02:13:34.74	7.38	9.09	
2025-01-14 02:13:34.95	7.36	9.11	
2025-01-14 02:13:35.15	7.34	9.12	
2025-01-14 02:13:35.35	7.32	9.13	
2025-01-14 02:13:35.56	7.30	9.15	
2025-01-14 02:13:35.77	7.28	9.16	
2025-01-14 02:13:35.98	7.25	9.18	
2025-01-14 02:13:36.19	7.23	9.19	
2025-01-14 02:13:36.39	7.21	9.20	
2025-01-14 02:13:36.60	7.19	9.22	
2025-01-14 02:13:36.80	7.17	9.23	
2025-01-14 02:13:37.02	7.15	9.25	
2025-01-14 02:13:37.23	7.12	9.26	
2025-01-14 02:13:37.44	7.10	9.27	
2025-01-14 02:13:37.64	7.08	9.29	
2025-01-14 02:13:37.85	7.06	9.30	
2025-01-14 02:13:38.05	7.04	9.32	
2025-01-14 02:13:38.26	7.02	9.33	
2025-01-14 02:13:38.48	6.99	9.34	
2025-01-14 02:13:38.68	6.97	9.36	
2025-01-14 02:13:38.89	6.95	9.37	
2025-01-14 02:13:39.09	6.93	9.39	
2025-01-14 02:13:39.30	6.91	9.40	
2025-01-14 02:13:39.51	6.88	9.41	
2025-01-14 02:13:39.72	6.86	9.43	
2025-01-14 02:13:39.93	6.84	9.44	
2025-01-14 02:13:40.13	6.82	9.46	
2025-01-14 02:13:40.34	6.80	9.47	
2025-01-14 02:13:40.54	6.78	9.48	
2025-01-14 02:13:40.75	6.75	9.50	
2025-01-14 02:13:40.95	6.73	9.51	
2025-01-14 02:13:41.16	6.71	9.53	
2025-01-14 02:13:41.36	6.69	9.54	
2025-01-14 02:13:41.57	6.67	9.55	
2025-01-14 02:13:41.78	6.64	9.57	
2025-01-14 02:13:41.99	6.62	9.58	
2025-01-14 02:13:42.20	6.60	9.60	
2025-01-14 02:13:42.40	6.58	9.61	
2025-01-14 02:13:42.61	6.56	9.62	
2025-01-14 02:13:42.81	6.53	9.64	
2025-01-14 02:13:43.01	6.51	9.65	
2025-01-14 02:13:43.22	6.49	9.67	
2025-01-14 02:13:43.42	6.47	9.68	
2025-01-14 02:13:43.63	6.45	9.69	
2025-01-14 02:13:43.85	6.42	9.71	
2025-01-14 02:13:44.05	6.40	9.72	
2025-01-14 02:13:44.26	6.38	9.74	
2025-01-14 02:13:44.46	6.36	9.75	
2025-01-14 02:13:44.67	6.33	9.76	
2025-01-14 02:13:44.87	6.31	9.78	
2025-01-14 02:13:45.08	6.29	9.79	
2025-01-14 02:13:45.28	6.27	9.81	
2025-01-14 02:13:45.49	6.25	9.82	
2025-01-14 02:13:45.70	6.22	9.83	
2025-01-14 02:13:45.90	6.20	9.85	
2025-01-14 02:13:46.10	6.18	9.86	
2025-01-14 02:13:46.31	6.16	9.88	
2025-01-14 02:13:46.51	6.13	9.89	
2025-01-14 02:13:46.72	6.11	9.90	
2025-01-14 02:13:46.92	6.09	9.92	
2025-01-14 02:13:47.13	6.07	9.93	
2025-01-14 02:13:47.33	6.05	9.94	
2025-01-14 02:13:47.54	6.02	9.96	
2025-01-14 02:13:47.74	6.00	9.97	
2025-01-14 02:13:47.95	5.98	9.99	
2025-01-14 02:13:48.17	5.95	10.00	
2025-01-14 02:13:48.37	5.93	10.02	
2025-01-14 02:13:48.58	5.91	10.03	
2025-01-14 02:13:48.78	5.89	10.04	
2025-01-14 02:13:48.99	5.86	10.06	
2025-01-14 02:13:49.19	5.84	10.07	
2025-01-14 02:13:49.40	5.82	10.09	
2025-01-14 02:13:49.60	5.80	10.10	
2025-01-14 02:13:49.81	5.77	10.11	
2025-01-14 02:13:50.01	5.75	10.13	
2025-01-14 02:13:50.22	5.73	10.14	
2025-01-14 02:13:50.42	5.70	10.16	
2025-01-14 02:13:50.63	5.68	10.17	
2025-01-14 02:13:50.84	5.66	10.18	
2025-01-14 02:13:51.04	5.64	10.20	
2025-01-14 02:13:51.24	5.61	10.21	
2025-01-14 02:13:51.45	5.59	10.23	
2025-01-14 02:13:51.66	5.57	10.24	
2025-01-14 02:13:51.86	5.54	10.25	
2025-01-14 02:13:52.07	5.52	10.27	
2025-01-14 02:13:52.27	5.50	10.28	
2025-01-14 02:13:52.49	5.47	10.30	
2025-01-14 02:13:52.70	5.45	10.31	
2025-01-14 02:13:52.90	5.43	10.33	
2025-01-14 02:13:53.11	5.40	10.34	
2025-01-14 02:13:53.31	5.38	10.35	
2025-01-14 02:13:53.51	5.36	10.37	
2025-01-14 02:13:53.72	5.34	10.38	
2025-01-14 02:13:53.93	5.31	10.40	
2025-01-14 02:13:54.13	5.29	10.41	
2025-01-14 02:13:54.34	5.27	10.43	
2025-01-14 02:13:54.54	5.24	10.44	
2025-01-14 02:13:54.74	5.22	10.45	
2025-01-14 02:13:54.95	5.20	10.47	
2025-01-14 02:13:55.16	5.17	10.48	
2025-01-14 02:13:55.36	5.15	10.50	
2025-01-14 02:13:55.57	5.13	10.51	
2025-01-14 02:13:55.77	5.10	10.52	
2025-01-14 02:13:55.98	5.08	10.54	
2025-01-14 02:13:56.18	5.06	10.55	
2025-01-14 02:13:56.39	5.03	10.57	
2025-01-14 02:13:56.59	5.01	10.58	
2025-01-14 02:13:56.80	4.99	10.59	
2025-01-14 02:13:57.00	4.96	10.61	
2025-01-14 02:13:57.21	4.94	10.62	
2025-01-14 02:13:57.41	4.92	10.64	
2025-01-14 02:13:57.62	4.89	10.65	
2025-01-14 02:13:57.82	4.87	10.67	
2025-01-14 02:13:58.03	4.84	10.68	
2025-01-14 02:13:58.23	4.82	10.69	
2025-01-14 02:13:58.44	4.80	10.71	
2025-01-14 02:13:58.64	4.77	10.72	
2025-01-14 02:13:58.85	4.75	10.74	
2025-01-14 02:13:59.05	4.73	10.75	
2025-01-14 02:13:59.26	4.70	10.76	
2025-01-14 02:13:59.46	4.68	10.78	
2025-01-14 02:13:59.67	4.65	10.79	
2025-01-14 02:13:59.87	4.63	10.81	
2025-01-14 02:14:00.08	4.61	10.82	
2025-01-14 02:14:00.28	4.58	10.84	
2025-01-14 02:14:00.49	4.56	10.85	
2025-01-14 02:14:00.69	4.54	10.86	
2025-01-14 02:14:00.90	4.51	10.88	
2025-01-14 02:14:01.10	4.49	10.89	
2025-01-14 02:14:01.31	4.46	10.91	
2025-01-14 02:14:01.51	4.44	10.92	
2025-01-14 02:14:01.72	4.42	10.93	
2025-01-14 02:14:01.93	4.39	10.95	
2025-01-14 02:14:02.13	4.37	10.96	
2025-01-14 02:14:02.34	4.34	10.98	
2025-01-14 02:14:02.54	4.32	10.99	
2025-01-14 02:14:02.75	4.29	11.01	
2025-01-14 02:14:02.95	4.27	11.02	
2025-01-14 02:14:03.16	4.25	11.03	
2025-01-14 02:14:03.36	4.22	11.05	
2025-01-14 02:14:03.57	4.20	11.06	
2025-01-14 02:14:03.78	4.17	11.08	
2025-01-14 02:14:03.98	4.15	11.09	
2025-01-14 02:14:04.19	4.12	11.11	
2025-01-14 02:14:04.39	4.10	11.12	
2025-01-14 02:14:04.60	4.08	11.14	
2025-01-14 02:14:04.80	4.05	11.15	
2025-01-14 02:14:05.01	4.03	11.16	
2025-01-14 02:14:05.21	4.00	11.18	
2025-01-14 02:14:05.42	3.98	11.19	
2025-01-14 02:14:05.62	3.95	11.21	
2025-01-14 02:14:05.83	3.93	11.22	
2025-01-14 02:14:06.04	3.90	11.24	
2025-01-14 02:14:06.24	3.88	11.25	
2025-01-14 02:14:06.45	3.85	11.26	
2025-01-14 02:14:06.65	3.83	11.28	
2025-01-14 02:14:06.86	3.81	11.29	
2025-01-14 02:14:07.06	3.78	11.31	
2025-01-14 02:14:07.26	3.76	11.32	
2025-01-14 02:14:07.47	3.73	11.34	
2025-01-14 02:14:07.67	3.71	11.35	
2025-01-14 02:14:07.88	3.68	11.36	
2025-01-14 02:14:08.09	3.66	11.38	
2025-01-14 02:14:08.29	3.63	11.39	
2025-01-14 02:14:08.49	3.61	11.41	
2025-01-14 02:14:08.70	3.58	11.42	
2025-01-14 02:14:08.90	3.56	11.44	
2025-01-14 02:14:09.11	3.53	11.45	
2025-01-14 02:14:09.32	3.51	11.46	
2025-01-14 02:14:09.52	3.48	11.48	
2025-01-14 02:14:09.72	3.46	11.49	
2025-01-14 02:14:09.93	3.43	11.51	
2025-01-14 02:14:10.13	3.41	11.52	
2025-01-14 02:14:10.34	3.38	11.54	
2025-01-14 02:14:10.54	3.36	11.55	
2025-01-14 02:14:10.75	3.33	11.56	
2025-01-14 02:14:10.96	3.31	11.58	
2025-01-14 02:14:11.16	3.28	11.59	
2025-01-14 02:14:11.36	3.26	11.61	
2025-01-14 02:14:11.57	3.23	11.62	
2025-01-14 02:14:11.77	3.21	11.64	
2025-01-14 02:14:11.98	3.18	11.65	
2025-01-14 02:14:12.19	3.16	11.67	
2025-01-14 02:14:12.39	3.13	11.68	
2025-01-14 02:14:12.60	3.11	11.69	
2025-01-14 02:14:12.80	3.08	11.71	
2025-01-14 02:14:13.01	3.05	11.72	
2025-01-14 02:14:13.21	3.03	11.74	
2025-01-14 02:14:13.42	3.00	11.75	
2025-01-14 02:14:13.62	2.98	11.77	
2025-01-14 02:14:13.84	2.95	11.78	
2025-01-14 02:14:14.05	2.93	11.80	
2025-01-14 02:14:14.25	2.90	11.81	
2025-01-14 02:14:14.46	2.87	11.82	
2025-01-14 02:14:14.66	2.85	11.84	
2025-01-14 02:14:14.87	2.82	11.85	
2025-01-14 02:14:15.07	2.80	11.87	
2025-01-14 02:14:15.28	2.77	11.88	
2025-01-14 02:14:15.49	2.75	11.90	
2025-01-14 02:14:15.69	2.72	11.91	
2025-01-14 02:14:15.90	2.69	11.93	
2025-01-14 02:14:16.10	2.67	11.94	
2025-01-14 02:14:16.31	2.64	11.95	
2025-01-14 02:14:16.51	2.62	11.97	
2025-01-14 02:14:16.72	2.59	11.98	
2025-01-14 02:14:16.92	2.57	12.00	
2025-01-14 02:14:17.13	2.54	12.01	
2025-01-14 02:14:17.33	2.51	12.03	
2025-01-14 02:14:17.53	2.49	12.04	
2025-01-14 02:14:17.73	2.46	12.06	
2025-01-14 02:14:17.94	2.44	12.07	
2025-01-14 02:14:18.15	2.41	12.08	
2025-01-14 02:14:18.35	2.38	12.10	
2025-01-14 02:14:18.56	2.36	12.11	
2025-01-14 02:14:18.76	2.33	12.13	
2025-01-14 02:14:18.97	2.31	12.14	
2025-01-14 02:14:19.17	2.28	12.16	
2025-01-14 02:14:19.38	2.25	12.17	
2025-01-14 02:14:19.58	2.23	12.19	
2025-01-14 02:14:19.79	2.20	12.20	
2025-01-14 02:14:19.99	2.17	12.21	
2025-01-14 02:14:20.20	2.15	12.23	
2025-01-14 02:14:20.40	2.12	12.24	
2025-01-14 02:14:20.61	2.10	12.26	
2025-01-14 02:14:20.81	2.07	12.27	
2025-01-14 02:14:21.02	2.04	12.29	
2025-01-14 02:14:21.22	2.02	12.30	
2025-01-14 02:14:21.43	1.99	12.32	
2025-01-14 02:14:21.63	1.96	12.33	
2025-01-14 02:14:21.84	1.94	12.35	
2025-01-14 02:14:22.04	1.91	12.36	
2025-01-14 02:14:22.25	1.88	12.37	
2025-01-14 02:14:22.45	1.86	12.39	
2025-01-14 02:14:22.65	1.83	12.40	
2025-01-14 02:14:22.86	1.80	12.42	
2025-01-14 02:14:23.07	1.78	12.43	
2025-01-14 02:14:23.27	1.75	12.45	
2025-01-14 02:14:23.47	1.72	12.46	
2025-01-14 02:14:23.68	1.70	12.48	
2025-01-14 02:14:23.88	1.67	12.49	
2025-01-14 02:14:24.09	1.64	12.50	
2025-01-14 02:14:24.29	1.62	12.52	
2025-01-14 02:14:24.50	1.59	12.53	
2025-01-14 02:14:24.70	1.56	12.55	
2025-01-14 02:14:24.91	1.54	12.56	
2025-01-14 02:14:25.11	1.51	12.58	
2025-01-14 02:14:25.32	1.48	12.59	
2025-01-14 02:14:25.52	1.46	12.61	
2025-01-14 02:14:25.73	1.43	12.62	
2025-01-14 02:14:25.93	1.40	12.64	
2025-01-14 02:14:26.14	1.37	12.65	
2025-01-14 02:14:26.35	1.35	12.67	
2025-01-14 02:14:26.55	1.32	12.68	
2025-01-14 02:14:26.76	1.29	12.69	
2025-01-14 02:14:26.96	1.27	12.71	
2025-01-14 02:14:27.17	1.24	12.72	
2025-01-14 02:14:27.37	1.21	12.74	
2025-01-14 02:14:27.58	1.18	12.75	
2025-01-14 02:14:27.79	1.15	12.77	
2025-01-14 02:14:27.99	1.13	12.78	
2025-01-14 02:14:28.20	1.10	12.80	
2025-01-14 02:14:28.40	1.07	12.81	
2025-01-14 02:14:28.61	1.05	12.83	
2025-01-14 02:14:28.81	1.02	12.84	
2025-01-14 02:14:29.02	0.99	12.85	
2025-01-14 02:14:29.22	0.96	12.87	
2025-01-14 02:14:29.43	0.94	12.88	
2025-01-14 02:14:29.63	0.91	12.90	
2025-01-14 02:14:29.85	0.88	12.91	
2025-01-14 02:14:30.05	0.85	12.93	
2025-01-14 02:14:30.26	0.82	12.94	
2025-01-14 02:14:30.47	0.80	12.96	
2025-01-14 02:14:30.67	0.77	12.97	
2025-01-14 02:14:30.88	0.74	12.99	
2025-01-14 02:14:31.08	0.71	13.00	
2025-01-14 02:14:31.29	0.68	13.02	
2025-01-14 02:14:31.49	0.66	13.03	
2025-01-14 02:14:31.70	0.63	13.05	
2025-01-14 02:14:31.91	0.60	13.06	
2025-01-14 02:14:32.11	0.57	13.07	
2025-01-14 02:14:32.32	0.54	13.09	
2025-01-14 02:14:32.52	0.52	13.10	
2025-01-14 02:14:32.73	0.49	13.12	
2025-01-14 02:14:32.93	0.46	13.13	
2025-01-14 02:14:33.14	0.43	13.15	
2025-01-14 02:14:33.34	0.40	13.16	
2025-01-14 02:14:33.55	0.38	13.18	
2025-01-14 02:14:33.75	0.35	13.19	
2025-01-14 02:14:33.96	0.32	13.21	
2025-01-14 02:14:34.16	0.29	13.22	
2025-01-14 02:14:34.37	0.26	13.24	
2025-01-14 02:14:34.57	0.24	13.25	
2025-01-14 02:14:34.78	0.21	13.27	
2025-01-14 02:14:34.98	0.18	13.28	
2025-01-14 02:14:35.19	0.15	13.29	
2025-01-14 02:14:35.39	0.12	13.31	
2025-01-14 02:14:35.60	0.09	13.32	
2025-01-14 02:14:35.81	0.06	13.34	
2025-01-14 02:14:36.01	0.04	13.35	
2025-01-14 02:14:36.23	0.01	13.37	
2025-01-14 02:14:36.44	359.98	13.38	
2025-01-14 02:14:36.64	359.95	13.40	
2025-01-14 02:14:36.85	359.92	13.41	
2025-01-14 02:14:37.05	359.89	13.43	
2025-01-14 02:14:37.27	359.86	13.44	
2025-01-14 02:14:37.48	359.83	13.46	
2025-01-14 02:14:37.68	359.80	13.47	
2025-01-14 02:14:37.89	359.77	13.49	
2025-01-14 02:14:38.09	359.75	13.50	
2025-01-14 02:14:38.30	359.72	13.52	
2025-01-14 02:14:38.50	359.69	13.53	
2025-01-14 02:14:38.71	359.66	13.55	
2025-01-14 02:14:38.91	359.63	13.56	
2025-01-14 02:14:39.12	359.60	13.58	
2025-01-14 02:14:39.32	359.57	13.59	
2025-01-14 02:14:39.53	359.54	13.61	
2025-01-14 02:14:39.73	359.52	13.62	
2025-01-14 02:14:39.94	359.49	13.63	
2025-01-14 02:14:40.15	359.46	13.65	
2025-01-14 02:14:40.35	359.43	13.66	
2025-01-14 02:14:40.56	359.40	13.68	
2025-01-14 02:14:40.76	359.37	13.69	
2025-01-14 02:14:40.97	359.34	13.71	
2025-01-14 02:14:41.17	359.31	13.72	
2025-01-14 02:14:41.38	359.28	13.74	
2025-01-14 02:14:41.59	359.25	13.75	
2025-01-14 02:14:41.80	359.22	13.77	
2025-01-14 02:14:42.01	359.19	13.78	
2025-01-14 02:14:42.21	359.16	13.80	
2025-01-14 02:14:42.42	359.13	13.81	
2025-01-14 02:14:42.62	359.10	13.83	
2025-01-14 02:14:42.82	359.08	13.84	
2025-01-14 02:14:43.03	359.04	13.86	
2025-01-14 02:14:43.24	359.01	13.87	
2025-01-14 02:14:43.44	358.99	13.89	
2025-01-14 02:14:43.64	358.96	13.90	
2025-01-14 02:14:43.85	358.93	13.91	
2025-01-14 02:14:44.06	358.90	13.93	
2025-01-14 02:14:44.26	358.87	13.94	
2025-01-14 02:14:44.47	358.84	13.96	
2025-01-14 02:14:44.67	358.81	13.97	
2025-01-14 02:14:44.88	358.78	13.99	
2025-01-14 02:14:45.08	358.75	14.00	
2025-01-14 02:14:45.29	358.72	14.02	
2025-01-14 02:14:45.49	358.69	14.03	
2025-01-14 02:14:45.70	358.66	14.05	
2025-01-14 02:14:45.90	358.63	14.06	
2025-01-14 02:14:46.11	358.60	14.08	
2025-01-14 02:14:46.32	358.57	14.09	
2025-01-14 02:14:46.52	358.54	14.11	
2025-01-14 02:14:46.73	358.51	14.12	
2025-01-14 02:14:46.93	358.48	14.14	
2025-01-14 02:14:47.14	358.45	14.15	
2025-01-14 02:14:47.34	358.42	14.17	
2025-01-14 02:14:47.55	358.39	14.18	
2025-01-14 02:14:47.75	358.36	14.19	
2025-01-14 02:14:47.96	358.33	14.21	
2025-01-14 02:14:48.16	358.30	14.22	
2025-01-14 02:14:48.37	358.27	14.24	
2025-01-14 02:14:48.58	358.24	14.25	
2025-01-14 02:14:48.78	358.21	14.27	
2025-01-14 02:14:48.99	358.18	14.28	
2025-01-14 02:14:49.19	358.15	14.30	
2025-01-14 02:14:49.40	358.11	14.31	
2025-01-14 02:14:49.60	358.09	14.33	
2025-01-14 02:14:49.81	358.05	14.34	
2025-01-14 02:14:50.01	358.02	14.36	
2025-01-14 02:14:50.21	357.99	14.37	
2025-01-14 02:14:50.42	357.96	14.39	
2025-01-14 02:14:50.62	357.93	14.40	
2025-01-14 02:14:50.83	357.90	14.42	
2025-01-14 02:14:51.04	357.87	14.43	
2025-01-14 02:14:51.24	357.84	14.45	
2025-01-14 02:14:51.45	357.81	14.46	
2025-01-14 02:14:51.65	357.78	14.48	
2025-01-14 02:14:51.86	357.75	14.49	
2025-01-14 02:14:52.07	357.72	14.51	
2025-01-14 02:14:52.27	357.69	14.52	
2025-01-14 02:14:52.48	357.65	14.54	
2025-01-14 02:14:52.68	357.62	14.55	
2025-01-14 02:14:52.89	357.59	14.56	
2025-01-14 02:14:53.09	357.56	14.58	
2025-01-14 02:14:53.31	357.53	14.59	
2025-01-14 02:14:53.52	357.50	14.61	
2025-01-14 02:14:53.72	357.47	14.62	
2025-01-14 02:14:53.93	357.44	14.64	
2025-01-14 02:14:54.14	357.40	14.65	
2025-01-14 02:14:54.34	357.37	14.67	
2025-01-14 02:14:54.55	357.34	14.68	
2025-01-14 02:14:54.75	357.31	14.70	
2025-01-14 02:14:54.96	357.28	14.71	
2025-01-14 02:14:55.17	357.25	14.73	
2025-01-14 02:14:55.37	357.22	14.74	
2025-01-14 02:14:55.58	357.18	14.76	
2025-01-14 02:14:55.78	357.15	14.77	
2025-01-14 02:14:55.99	357.12	14.79	
2025-01-14 02:14:56.19	357.09	14.80	
2025-01-14 02:14:56.40	357.06	14.82	
2025-01-14 02:14:56.60	357.03	14.83	
2025-01-14 02:14:56.81	357.00	14.85	
2025-01-14 02:14:57.01	356.96	14.86	
2025-01-14 02:14:57.22	356.93	14.88	
2025-01-14 02:14:57.43	356.90	14.89	
2025-01-14 02:14:57.63	356.87	14.91	
2025-01-14 02:14:57.84	356.84	14.92	
2025-01-14 02:14:58.04	356.81	14.94	
2025-01-14 02:14:58.25	356.77	14.95	
2025-01-14 02:14:58.45	356.74	14.96	
2025-01-14 02:14:58.66	356.71	14.98	
2025-01-14 02:14:58.86	356.68	14.99	
2025-01-14 02:14:59.07	356.65	15.01	
2025-01-14 02:14:59.27	356.61	15.02	
2025-01-14 02:14:59.48	356.58	15.04	
2025-01-14 02:14:59.68	356.55	15.05	
2025-01-14 02:14:59.89	356.52	15.07	
2025-01-14 02:15:00.09	356.49	15.08	
2025-01-14 02:15:00.30	356.45	15.10	
2025-01-14 02:15:00.50	356.42	15.11	
2025-01-14 02:15:00.72	356.39	15.13	
2025-01-14 02:15:00.93	356.35	15.14	
2025-01-14 02:15:01.13	356.32	15.16	
2025-01-14 02:15:01.34	356.29	15.17	
2025-01-14 02:15:01.54	356.26	15.19	
2025-01-14 02:15:01.75	356.23	15.20	
2025-01-14 02:15:01.96	356.19	15.22	
2025-01-14 02:15:02.16	356.16	15.23	
2025-01-14 02:15:02.37	356.13	15.25	
2025-01-14 02:15:02.57	356.10	15.26	
2025-01-14 02:15:02.78	356.06	15.28	
2025-01-14 02:15:02.98	356.03	15.29	
2025-01-14 02:15:03.19	356.00	15.31	
2025-01-14 02:15:03.39	355.97	15.32	
2025-01-14 02:15:03.60	355.93	15.34	
2025-01-14 02:15:03.80	355.90	15.35	
2025-01-14 02:15:04.01	355.87	15.36	
2025-01-14 02:15:04.21	355.84	15.38	
2025-01-14 02:15:04.42	355.80	15.39	
2025-01-14 02:15:04.62	355.77	15.41	
2025-01-14 02:15:04.83	355.74	15.42	
2025-01-14 02:15:05.03	355.70	15.44	
2025-01-14 02:15:05.24	355.67	15.45	
2025-01-14 02:15:05.44	355.64	15.47	
2025-01-14 02:15:05.65	355.60	15.48	
2025-01-14 02:15:05.85	355.57	15.50	
2025-01-14 02:15:06.06	355.54	15.51	
2025-01-14 02:15:06.26	355.51	15.53	
2025-01-14 02:15:06.47	355.47	15.54	
2025-01-14 02:15:06.68	355.44	15.56	
2025-01-14 02:15:06.88	355.41	15.57	
2025-01-14 02:15:07.09	355.37	15.59	
2025-01-14 02:15:07.29	355.34	15.60	
2025-01-14 02:15:07.50	355.31	15.62	
2025-01-14 02:15:07.71	355.27	15.63	
2025-01-14 02:15:07.92	355.24	15.65	
2025-01-14 02:15:08.12	355.21	15.66	
2025-01-14 02:15:08.33	355.17	15.68	
2025-01-14 02:15:08.53	355.14	15.69	
2025-01-14 02:15:08.74	355.10	15.70	
2025-01-14 02:15:08.94	355.07	15.72	
2025-01-14 02:15:09.15	355.04	15.73	
2025-01-14 02:15:09.35	355.00	15.75	
2025-01-14 02:15:09.55	354.97	15.76	
2025-01-14 02:15:09.76	354.94	15.78	
2025-01-14 02:15:09.96	354.90	15.79	
2025-01-14 02:15:10.17	354.87	15.81	
2025-01-14 02:15:10.37	354.84	15.82	
2025-01-14 02:15:10.58	354.80	15.84	
2025-01-14 02:15:10.78	354.77	15.85	
2025-01-14 02:15:10.99	354.74	15.87	
2025-01-14 02:15:11.19	354.70	15.88	
2025-01-14 02:15:11.40	354.67	15.90	
2025-01-14 02:15:11.60	354.63	15.91	
2025-01-14 02:15:11.81	354.60	15.93	
2025-01-14 02:15:12.01	354.57	15.94	
2025-01-14 02:15:12.22	354.53	15.95	
2025-01-14 02:15:12.42	354.50	15.97	
2025-01-14 02:15:12.63	354.46	15.98	
2025-01-14 02:15:12.83	354.43	16.00	
2025-01-14 02:15:13.04	354.40	16.01	
2025-01-14 02:15:13.24	354.36	16.03	
2025-01-14 02:15:13.45	354.33	16.04	
2025-01-14 02:15:13.65	354.29	16.06	
2025-01-14 02:15:13.86	354.26	16.07	
2025-01-14 02:15:14.06	354.23	16.09	
2025-01-14 02:15:14.27	354.19	16.10	
2025-01-14 02:15:14.47	354.16	16.12	
2025-01-14 02:15:14.67	354.12	16.13	
2025-01-14 02:15:14.88	354.09	16.15	
2025-01-14 02:15:15.08	354.05	16.16	
2025-01-14 02:15:15.29	354.02	16.17	
2025-01-14 02:15:15.50	353.98	16.19	
2025-01-14 02:15:15.70	353.95	16.20	
2025-01-14 02:15:15.91	353.91	16.22	
2025-01-14 02:15:16.11	353.88	16.23	
2025-01-14 02:15:16.32	353.84	16.25	
2025-01-14 02:15:16.52	353.81	16.26	
2025-01-14 02:15:16.73	353.78	16.28	
2025-01-14 02:15:16.93	353.74	16.29	
2025-01-14 02:15:17.14	353.71	16.31	
2025-01-14 02:15:17.34	353.67	16.32	
2025-01-14 02:15:17.55	353.64	16.34	
2025-01-14 02:15:17.75	353.60	16.35	
2025-01-14 02:15:17.96	353.57	16.37	
2025-01-14 02:15:18.16	353.53	16.38	
2025-01-14 02:15:18.37	353.50	16.39	
2025-01-14 02:15:18.58	353.46	16.41	
2025-01-14 02:15:18.78	353.43	16.42	
2025-01-14 02:15:18.99	353.39	16.44	
2025-01-14 02:15:19.19	353.36	16.45	
2025-01-14 02:15:19.40	353.32	16.47	
2025-01-14 02:15:19.60	353.28	16.48	
2025-01-14 02:15:19.81	353.25	16.50	
2025-01-14 02:15:20.01	353.21	16.51	
2025-01-14 02:15:20.22	353.18	16.53	
2025-01-14 02:15:20.42	353.14	16.54	
2025-01-14 02:15:20.63	353.11	16.56	
2025-01-14 02:15:20.83	353.07	16.57	
2025-01-14 02:15:21.04	353.04	16.59	
2025-01-14 02:15:21.24	353.00	16.60	
2025-01-14 02:15:21.45	352.96	16.61	
2025-01-14 02:15:21.65	352.93	16.63	
2025-01-14 02:15:21.86	352.89	16.64	
2025-01-14 02:15:22.06	352.86	16.66	
2025-01-14 02:15:22.27	352.82	16.67	
2025-01-14 02:15:22.47	352.79	16.69	
2025-01-14 02:15:22.68	352.75	16.70	
2025-01-14 02:15:22.88	352.72	16.72	
2025-01-14 02:15:23.08	352.68	16.73	
2025-01-14 02:15:23.29	352.64	16.75	
2025-01-14 02:15:23.51	352.61	16.76	
2025-01-14 02:15:23.71	352.57	16.78	
2025-01-14 02:15:23.92	352.53	16.79	
2025-01-14 02:15:24.12	352.50	16.80	
2025-01-14 02:15:24.32	352.46	16.82	
2025-01-14 02:15:24.53	352.43	16.83	
2025-01-14 02:15:24.73	352.39	16.85	
2025-01-14 02:15:24.94	352.35	16.86	
2025-01-14 02:15:25.14	352.32	16.88	
2025-01-14 02:15:25.34	352.28	16.89	
2025-01-14 02:15:25.55	352.25	16.91	
2025-01-14 02:15:25.75	352.21	16.92	
2025-01-14 02:15:25.96	352.17	16.94	
2025-01-14 02:15:26.17	352.14	16.95	
2025-01-14 02:15:26.37	352.10	16.96	
2025-01-14 02:15:26.58	352.06	16.98	
2025-01-14 02:15:26.78	352.03	16.99	
2025-01-14 02:15:26.99	351.99	17.01	
2025-01-14 02:15:27.19	351.95	17.02	
2025-01-14 02:15:27.40	351.92	17.04	
2025-01-14 02:15:27.60	351.88	17.05	
2025-01-14 02:15:27.81	351.84	17.07	
2025-01-14 02:15:28.01	351.81	17.08	
2025-01-14 02:15:28.22	351.77	17.10	
2025-01-14 02:15:28.42	351.73	17.11	
2025-01-14 02:15:28.63	351.70	17.12	
2025-01-14 02:15:28.84	351.66	17.14	
2025-01-14 02:15:29.04	351.62	17.15	
2025-01-14 02:15:29.25	351.59	17.17	
2025-01-14 02:15:29.45	351.55	17.18	
2025-01-14 02:15:29.65	351.51	17.20	
2025-01-14 02:15:29.86	351.48	17.21	
2025-01-14 02:15:30.07	351.44	17.23	
2025-01-14 02:15:30.27	351.40	17.24	
2025-01-14 02:15:30.48	351.36	17.26	
2025-01-14 02:15:30.69	351.32	17.27	
2025-01-14 02:15:30.90	351.29	17.29	
2025-01-14 02:15:31.11	351.25	17.30	
2025-01-14 02:15:31.31	351.21	17.31	
2025-01-14 02:15:31.52	351.17	17.33	
2025-01-14 02:15:31.72	351.14	17.34	
2025-01-14 02:15:31.93	351.10	17.36	
2025-01-14 02:15:32.13	351.06	17.37	
2025-01-14 02:15:32.34	351.02	17.39	
2025-01-14 02:15:32.54	350.99	17.40	
2025-01-14 02:15:32.75	350.95	17.42	
2025-01-14 02:15:32.95	350.91	17.43	
2025-01-14 02:15:33.16	350.87	17.44	
2025-01-14 02:15:33.36	350.84	17.46	
2025-01-14 02:15:33.57	350.80	17.47	
2025-01-14 02:15:33.79	350.76	17.49	
2025-01-14 02:15:33.99	350.72	17.50	
2025-01-14 02:15:34.20	350.68	17.52	
2025-01-14 02:15:34.41	350.64	17.53	
2025-01-14 02:15:34.61	350.61	17.55	
2025-01-14 02:15:34.81	350.57	17.56	
2025-01-14 02:15:35.02	350.53	17.58	
2025-01-14 02:15:35.22	350.49	17.59	
2025-01-14 02:15:35.43	350.46	17.60	
2025-01-14 02:15:35.63	350.42	17.62	
2025-01-14 02:15:35.84	350.38	17.63	
2025-01-14 02:15:36.04	350.34	17.65	
2025-01-14 02:15:36.25	350.30	17.66	
2025-01-14 02:15:36.45	350.27	17.68	
2025-01-14 02:15:36.66	350.23	17.69	
2025-01-14 02:15:36.86	350.19	17.70	
2025-01-14 02:15:37.07	350.15	17.72	
2025-01-14 02:15:37.27	350.11	17.73	
2025-01-14 02:15:37.48	350.07	17.75	
2025-01-14 02:15:37.68	350.04	17.76	
2025-01-14 02:15:37.89	350.00	17.78	
2025-01-14 02:15:38.11	349.95	17.79	
2025-01-14 02:15:38.31	349.92	17.81	
2025-01-14 02:15:38.52	349.88	17.82	
2025-01-14 02:15:38.73	349.84	17.83	
2025-01-14 02:15:38.93	349.80	17.85	
2025-01-14 02:15:39.14	349.76	17.86	
2025-01-14 02:15:39.34	349.72	17.88	
2025-01-14 02:15:39.55	349.68	17.89	
2025-01-14 02:15:39.75	349.65	17.91	
2025-01-14 02:15:39.96	349.61	17.92	
2025-01-14 02:15:40.16	349.57	17.93	
2025-01-14 02:15:40.36	349.53	17.95	
2025-01-14 02:15:40.57	349.49	17.96	
2025-01-14 02:15:40.78	349.45	17.98	
2025-01-14 02:15:40.98	349.41	17.99	
2025-01-14 02:15:41.19	349.37	18.01	
2025-01-14 02:15:41.39	349.33	18.02	
2025-01-14 02:15:41.60	349.29	18.03	
2025-01-14 02:15:41.80	349.26	18.05	
2025-01-14 02:15:42.01	349.21	18.06	
2025-01-14 02:15:42.22	349.17	18.08	
2025-01-14 02:15:42.42	349.14	18.09	
2025-01-14 02:15:42.62	349.10	18.10	
2025-01-14 02:15:42.83	349.06	18.12	
2025-01-14 02:15:43.04	349.02	18.13	
2025-01-14 02:15:43.24	348.98	18.15	
2025-01-14 02:15:43.44	348.94	18.16	
2025-01-14 02:15:43.65	348.90	18.18	
2025-01-14 02:15:43.86	348.86	18.19	
2025-01-14 02:15:44.06	348.82	18.20	
2025-01-14 02:15:44.27	348.78	18.22	
2025-01-14 02:15:44.47	348.74	18.23	
2025-01-14 02:15:44.68	348.70	18.25	
2025-01-14 02:15:44.88	348.66	18.26	
2025-01-14 02:15:45.09	348.62	18.28	
2025-01-14 02:15:45.30	348.58	18.29	
2025-01-14 02:15:45.50	348.54	18.30	
2025-01-14 02:15:45.70	348.50	18.32	
2025-01-14 02:15:45.91	348.46	18.33	
2025-01-14 02:15:46.11	348.42	18.35	
2025-01-14 02:15:46.32	348.38	18.36	
2025-01-14 02:15:46.52	348.34	18.37	
2025-01-14 02:15:46.73	348.30	18.39	
2025-01-14 02:15:46.93	348.26	18.40	
2025-01-14 02:15:47.14	348.22	18.42	
2025-01-14 02:15:47.35	348.18	18.43	
2025-01-14 02:15:47.55	348.14	18.44	
2025-01-14 02:15:47.77	348.10	18.46	
2025-01-14 02:15:47.97	348.06	18.47	
2025-01-14 02:15:48.18	348.02	18.49	
2025-01-14 02:15:48.39	347.98	18.50	
2025-01-14 02:15:48.59	347.94	18.52	
2025-01-14 02:15:48.79	347.90	18.53	
2025-01-14 02:15:49.00	347.86	18.54	
2025-01-14 02:15:49.20	347.82	18.56	
2025-01-14 02:15:49.41	347.77	18.57	
2025-01-14 02:15:49.62	347.73	18.59	
2025-01-14 02:15:49.82	347.69	18.60	
2025-01-14 02:15:50.02	347.65	18.61	
2025-01-14 02:15:50.23	347.61	18.63	
2025-01-14 02:15:50.44	347.57	18.64	
2025-01-14 02:15:50.64	347.53	18.65	
2025-01-14 02:15:50.84	347.49	18.67	
2025-01-14 02:15:51.05	347.45	18.68	
2025-01-14 02:15:51.26	347.41	18.70	
2025-01-14 02:15:51.46	347.37	18.71	
2025-01-14 02:15:51.67	347.32	18.72	
2025-01-14 02:15:51.87	347.28	18.74	
2025-01-14 02:15:52.08	347.24	18.75	
2025-01-14 02:15:52.28	347.20	18.77	
2025-01-14 02:15:52.49	347.16	18.78	
2025-01-14 02:15:52.69	347.12	18.79	
2025-01-14 02:15:52.90	347.08	18.81	
2025-01-14 02:15:53.12	347.03	18.82	
2025-01-14 02:15:53.32	346.99	18.84	
2025-01-14 02:15:53.53	346.95	18.85	
2025-01-14 02:15:53.73	346.91	18.86	
2025-01-14 02:15:53.94	346.87	18.88	
2025-01-14 02:15:54.14	346.83	18.89	
2025-01-14 02:15:54.34	346.79	18.91	
2025-01-14 02:15:54.55	346.74	18.92	
2025-01-14 02:15:54.75	346.70	18.93	
2025-01-14 02:15:54.96	346.66	18.95	
2025-01-14 02:15:55.16	346.62	18.96	
2025-01-14 02:15:55.37	346.58	18.97	
2025-01-14 02:15:55.57	346.54	18.99	
2025-01-14 02:15:55.78	346.49	19.00	
2025-01-14 02:15:55.99	346.45	19.02	
2025-01-14 02:15:56.19	346.41	19.03	
2025-01-14 02:15:56.40	346.37	19.04	
2025-01-14 02:15:56.60	346.33	19.06	
2025-01-14 02:15:56.81	346.28	19.07	
2025-01-14 02:15:57.01	346.24	19.08	
2025-01-14 02:15:57.22	346.20	19.10	
2025-01-14 02:15:57.42	346.16	19.11	
2025-01-14 02:15:57.63	346.12	19.13	
2025-01-14 02:15:57.84	346.07	19.14	
2025-01-14 02:15:58.04	346.03	19.15	
2025-01-14 02:15:58.25	345.99	19.17	
2025-01-14 02:15:58.45	345.95	19.18	
2025-01-14 02:15:58.66	345.90	19.19	
2025-01-14 02:15:58.86	345.86	19.21	
2025-01-14 02:15:59.07	345.82	19.22	
2025-01-14 02:15:59.27	345.78	19.23	
2025-01-14 02:15:59.48	345.73	19.25	
2025-01-14 02:15:59.68	345.69	19.26	
2025-01-14 02:15:59.89	345.65	19.28	
2025-01-14 02:16:00.09	345.61	19.29	
2025-01-14 02:16:00.29	345.57	19.30	
2025-01-14 02:16:00.51	345.52	19.32	
2025-01-14 02:16:00.71	345.48	19.33	
2025-01-14 02:16:00.92	345.44	19.34	
2025-01-14 02:16:01.12	345.39	19.36	
2025-01-14 02:16:01.33	345.35	19.37	
2025-01-14 02:16:01.53	345.31	19.38	
2025-01-14 02:16:01.74	345.26	19.40	
2025-01-14 02:16:01.94	345.22	19.41	
2025-01-14 02:16:02.15	345.18	19.42	
2025-01-14 02:16:02.35	345.14	19.44	
2025-01-14 02:16:02.55	345.09	19.45	
2025-01-14 02:16:02.76	345.05	19.46	
2025-01-14 02:16:02.96	345.01	19.48	
2025-01-14 02:16:03.17	344.96	19.49	
2025-01-14 02:16:03.37	344.92	19.50	
2025-01-14 02:16:03.58	344.88	19.52	
2025-01-14 02:16:03.78	344.84	19.53	
2025-01-14 02:16:03.99	344.79	19.54	
2025-01-14 02:16:04.20	344.75	19.56	
2025-01-14 02:16:04.40	344.70	19.57	
2025-01-14 02:16:04.61	344.66	19.58	
2025-01-14 02:16:04.81	344.62	19.60	
2025-01-14 02:16:05.01	344.57	19.61	
2025-01-14 02:16:05.22	344.53	19.62	
2025-01-14 02:16:05.43	344.49	19.64	
2025-01-14 02:16:05.63	344.44	19.65	
2025-01-14 02:16:05.83	344.40	19.66	
2025-01-14 02:16:06.04	344.36	19.68	
2025-01-14 02:16:06.24	344.31	19.69	
2025-01-14 02:16:06.45	344.27	19.70	
2025-01-14 02:16:06.66	344.22	19.72	
2025-01-14 02:16:06.86	344.18	19.73	
2025-01-14 02:16:07.06	344.14	19.74	
2025-01-14 02:16:07.27	344.09	19.76	
2025-01-14 02:16:07.48	344.05	19.77	
2025-01-14 02:16:07.68	344.00	19.78	
2025-01-14 02:16:07.89	343.96	19.80	
2025-01-14 02:16:08.09	343.92	19.81	
2025-01-14 02:16:08.30	343.87	19.82	
2025-01-14 02:16:08.50	343.83	19.84	
2025-01-14 02:16:08.71	343.78	19.85	
2025-01-14 02:16:08.91	343.74	19.86	
2025-01-14 02:16:09.11	343.70	19.88	
2025-01-14 02:16:09.32	343.65	19.89	
2025-01-14 02:16:09.53	343.61	19.90	
2025-01-14 02:16:09.73	343.56	19.91	
2025-01-14 02:16:09.94	343.52	19.93	
2025-01-14 02:16:10.14	343.47	19.94	
2025-01-14 02:16:10.35	343.43	19.95	
2025-01-14 02:16:10.55	343.39	19.97	
2025-01-14 02:16:10.76	343.34	19.98	
2025-01-14 02:16:10.96	343.30	19.99	
2025-01-14 02:16:11.18	343.25	20.01	
2025-01-14 02:16:11.39	343.20	20.02	
2025-01-14 02:16:11.59	343.16	20.03	
2025-01-14 02:16:11.80	343.11	20.05	
2025-01-14 02:16:12.00	343.07	20.06	
2025-01-14 02:16:12.21	343.02	20.07	
2025-01-14 02:16:12.41	342.98	20.08	
2025-01-14 02:16:12.62	342.93	20.10	
2025-01-14 02:16:12.83	342.89	20.11	
2025-01-14 02:16:13.03	342.84	20.12	
2025-01-14 02:16:13.23	342.80	20.14	
2025-01-14 02:16:13.44	342.75	20.15	
2025-01-14 02:16:13.65	342.71	20.16	
2025-01-14 02:16:13.85	342.66	20.18	
2025-01-14 02:16:14.06	342.62	20.19	
2025-01-14 02:16:14.26	342.57	20.20	
2025-01-14 02:16:14.47	342.53	20.21	
2025-01-14 02:16:14.67	342.48	20.23	
2025-01-14 02:16:14.88	342.44	20.24	
2025-01-14 02:16:15.08	342.39	20.25	
2025-01-14 02:16:15.29	342.34	20.26	
2025-01-14 02:16:15.49	342.30	20.28	
2025-01-14 02:16:15.70	342.25	20.29	
2025-01-14 02:16:15.90	342.21	20.30	
2025-01-14 02:16:16.11	342.16	20.32	
2025-01-14 02:16:16.31	342.12	20.33	
2025-01-14 02:16:16.53	342.07	20.34	
2025-01-14 02:16:16.74	342.02	20.35	
2025-01-14 02:16:16.94	341.98	20.37	
2025-01-14 02:16:17.15	341.93	20.38	
2025-01-14 02:16:17.35	341.89	20.39	
2025-01-14 02:16:17.56	341.84	20.41	
2025-01-14 02:16:17.76	341.79	20.42	
2025-01-14 02:16:17.97	341.75	20.43	
2025-01-14 02:16:18.18	341.70	20.44	
2025-01-14 02:16:18.38	341.66	20.46	
2025-01-14 02:16:18.58	341.61	20.47	
2025-01-14 02:16:18.79	341.56	20.48	
2025-01-14 02:16:19.00	341.52	20.49	
2025-01-14 02:16:19.20	341.47	20.51	
2025-01-14 02:16:19.41	341.42	20.52	
2025-01-14 02:16:19.61	341.38	20.53	
2025-01-14 02:16:19.82	341.33	20.54	
2025-01-14 02:16:20.02	341.29	20.56	
2025-01-14 02:16:20.23	341.24	20.57	
2025-01-14 02:16:20.43	341.19	20.58	
2025-01-14 02:16:20.64	341.15	20.59	
2025-01-14 02:16:20.84	341.10	20.61	
2025-01-14 02:16:21.05	341.05	20.62	
2025-01-14 02:16:21.25	341.01	20.63	
2025-01-14 02:16:21.46	340.96	20.64	
2025-01-14 02:16:21.67	340.91	20.66	
2025-01-14 02:16:21.87	340.87	20.67	
2025-01-14 02:16:22.07	340.82	20.68	
2025-01-14 02:16:22.28	340.77	20.69	
2025-01-14 02:16:22.49	340.73	20.70	
2025-01-14 02:16:22.69	340.68	20.72	
2025-01-14 02:16:22.89	340.63	20.73	
2025-01-14 02:16:23.10	340.59	20.74	
2025-01-14 02:16:23.30	340.54	20.75	
2025-01-14 02:16:23.51	340.49	20.77	
2025-01-14 02:16:23.72	340.44	20.78	
2025-01-14 02:16:23.92	340.40	20.79	
2025-01-14 02:16:24.13	340.35	20.80	
2025-01-14 02:16:24.33	340.30	20.81	
2025-01-14 02:16:24.54	340.26	20.83	
2025-01-14 02:16:24.74	340.21	20.84	
2025-01-14 02:16:24.95	340.16	20.85	
2025-01-14 02:16:25.15	340.12	20.86	
2025-01-14 02:16:25.36	340.07	20.88	
2025-01-14 02:16:25.57	340.02	20.89	
2025-01-14 02:16:25.77	339.97	20.90	
2025-01-14 02:16:25.98	339.92	20.91	
2025-01-14 02:16:26.18	339.88	20.92	
2025-01-14 02:16:26.39	339.83	20.94	
2025-01-14 02:16:26.59	339.78	20.95	
2025-01-14 02:16:26.80	339.73	20.96	
2025-01-14 02:16:27.01	339.69	20.97	
2025-01-14 02:16:27.21	339.64	20.98	
2025-01-14 02:16:27.42	339.59	21.00	
2025-01-14 02:16:27.62	339.54	21.01	
2025-01-14 02:16:27.83	339.50	21.02	
2025-01-14 02:16:28.03	339.45	21.03	
2025-01-14 02:16:28.24	339.40	21.04	
2025-01-14 02:16:28.44	339.35	21.05	
2025-01-14 02:16:28.65	339.30	21.07	
2025-01-14 02:16:28.85	339.26	21.08	
2025-01-14 02:16:29.06	339.21	21.09	
2025-01-14 02:16:29.26	339.16	21.10	
2025-01-14 02:16:29.47	339.11	21.11	
2025-01-14 02:16:29.67	339.06	21.13	
2025-01-14 02:16:29.88	339.02	21.14	
2025-01-14 02:16:30.09	338.97	21.15	
2025-01-14 02:16:30.29	338.92	21.16	
2025-01-14 02:16:30.50	338.87	21.17	
2025-01-14 02:16:30.70	338.82	21.18	
2025-01-14 02:16:30.91	338.77	21.20	
2025-01-14 02:16:31.11	338.73	21.21	
2025-01-14 02:16:31.32	338.68	21.22	
2025-01-14 02:16:31.52	338.63	21.23	
2025-01-14 02:16:31.73	338.58	21.24	
2025-01-14 02:16:31.93	338.53	21.25	
2025-01-14 02:16:32.14	338.48	21.27	
2025-01-14 02:16:32.35	338.43	21.28	
2025-01-14 02:16:32.57	338.38	21.29	
2025-01-14 02:16:32.78	338.33	21.30	
2025-01-14 02:16:32.98	338.28	21.31	
2025-01-14 02:16:33.19	338.23	21.32	
2025-01-14 02:16:33.39	338.19	21.34	
2025-01-14 02:16:33.61	338.13	21.35	
2025-01-14 02:16:33.82	338.08	21.36	
2025-01-14 02:16:34.02	338.04	21.37	
2025-01-14 02:16:34.23	337.99	21.38	
2025-01-14 02:16:34.43	337.94	21.39	
2025-01-14 02:16:34.65	337.89	21.41	
2025-01-14 02:16:34.86	337.84	21.42	
2025-01-14 02:16:35.06	337.79	21.43	
2025-01-14 02:16:35.27	337.74	21.44	
2025-01-14 02:16:35.47	337.69	21.45	
2025-01-14 02:16:35.68	337.64	21.46	
2025-01-14 02:16:35.88	337.59	21.47	
2025-01-14 02:16:36.09	337.54	21.49	
2025-01-14 02:16:36.30	337.49	21.50	
2025-01-14 02:16:36.50	337.44	21.51	
2025-01-14 02:16:36.71	337.39	21.52	
2025-01-14 02:16:36.91	337.34	21.53	
2025-01-14 02:16:37.12	337.29	21.54	
2025-01-14 02:16:37.32	337.25	21.55	
2025-01-14 02:16:37.53	337.19	21.56	
2025-01-14 02:16:37.74	337.14	21.58	
2025-01-14 02:16:37.94	337.10	21.59	
2025-01-14 02:16:38.14	337.05	21.60	
2025-01-14 02:16:38.35	337.00	21.61	
2025-01-14 02:16:38.56	336.95	21.62	
2025-01-14 02:16:38.76	336.90	21.63	
2025-01-14 02:16:38.96	336.85	21.64	
2025-01-14 02:16:39.17	336.80	21.65	
2025-01-14 02:16:39.38	336.75	21.66	
2025-01-14 02:16:39.58	336.70	21.67	
2025-01-14 02:16:39.79	336.65	21.69	
2025-01-14 02:16:39.99	336.60	21.70	
2025-01-14 02:16:40.19	336.55	21.71	
2025-01-14 02:16:40.40	336.50	21.72	
2025-01-14 02:16:40.61	336.45	21.73	
2025-01-14 02:16:40.81	336.40	21.74	
2025-01-14 02:16:41.02	336.35	21.75	
2025-01-14 02:16:41.22	336.30	21.76	
2025-01-14 02:16:41.43	336.25	21.77	
2025-01-14 02:16:41.63	336.20	21.78	
2025-01-14 02:16:41.84	336.15	21.79	
2025-01-14 02:16:42.04	336.10	21.80	
2025-01-14 02:16:42.25	336.05	21.81	
2025-01-14 02:16:42.45	336.00	21.83	
2025-01-14 02:16:42.66	335.95	21.84	
2025-01-14 02:16:42.87	335.89	21.85	
2025-01-14 02:16:43.07	335.84	21.86	
2025-01-14 02:16:43.28	335.79	21.87	
2025-01-14 02:16:43.48	335.74	21.88	
2025-01-14 02:16:43.69	335.69	21.89	
2025-01-14 02:16:43.89	335.64	21.90	
2025-01-14 02:16:44.10	335.59	21.91	
2025-01-14 02:16:44.32	335.54	21.92	
2025-01-14 02:16:44.52	335.49	21.93	
2025-01-14 02:16:44.73	335.43	21.94	
2025-01-14 02:16:44.94	335.38	21.95	
2025-01-14 02:16:45.14	335.33	21.96	
2025-01-14 02:16:45.36	335.28	21.97	
2025-01-14 02:16:45.56	335.23	21.98	
2025-01-14 02:16:45.77	335.18	22.00	
2025-01-14 02:16:45.98	335.12	22.01	
2025-01-14 02:16:46.18	335.08	22.02	
2025-01-14 02:16:46.39	335.02	22.03	
2025-01-14 02:16:46.59	334.97	22.04	
2025-01-14 02:16:46.80	334.92	22.05	
2025-01-14 02:16:47.00	334.87	22.06	
2025-01-14 02:16:47.21	334.82	22.07	
2025-01-14 02:16:47.43	334.76	22.08	
2025-01-14 02:16:47.63	334.71	22.09	
2025-01-14 02:16:47.84	334.66	22.10	
2025-01-14 02:16:48.04	334.61	22.11	
2025-01-14 02:16:48.25	334.56	22.12	
2025-01-14 02:16:48.45	334.51	22.13	
2025-01-14 02:16:48.65	334.46	22.14	
2025-01-14 02:16:48.86	334.41	22.15	
2025-01-14 02:16:49.07	334.35	22.16	
2025-01-14 02:16:49.27	334.30	22.17	
2025-01-14 02:16:49.48	334.25	22.18	
2025-01-14 02:16:49.68	334.20	22.19	
2025-01-14 02:16:49.89	334.15	22.20	
2025-01-14 02:16:50.09	334.10	22.21	
2025-01-14 02:16:50.30	334.04	22.22	
2025-01-14 02:16:50.50	333.99	22.23	
2025-01-14 02:16:50.70	333.94	22.24	
2025-01-14 02:16:50.91	333.89	22.25	
2025-01-14 02:16:51.11	333.84	22.26	
2025-01-14 02:16:51.32	333.79	22.27	
2025-01-14 02:16:51.53	333.73	22.28	
2025-01-14 02:16:51.73	333.68	22.29	
2025-01-14 02:16:51.94	333.63	22.30	
2025-01-14 02:16:52.14	333.58	22.31	
2025-01-14 02:16:52.35	333.53	22.32	
2025-01-14 02:16:52.55	333.48	22.33	
2025-01-14 02:16:52.76	333.42	22.34	
2025-01-14 02:16:52.96	333.37	22.35	
2025-01-14 02:16:53.17	333.32	22.35	
2025-01-14 02:16:53.37	333.27	22.36	
2025-01-14 02:16:53.58	333.21	22.37	
2025-01-14 02:16:53.78	333.16	22.38	
2025-01-14 02:16:53.98	333.11	22.39	
2025-01-14 02:16:54.19	333.06	22.40	
2025-01-14 02:16:54.40	333.00	22.41	
2025-01-14 02:16:54.60	332.95	22.42	
2025-01-14 02:16:54.81	332.90	22.43	
2025-01-14 02:16:55.01	332.85	22.44	
2025-01-14 02:16:55.22	332.80	22.45	
2025-01-14 02:16:55.42	332.74	22.46	
2025-01-14 02:16:55.63	332.69	22.47	
2025-01-14 02:16:55.83	332.64	22.48	
2025-01-14 02:16:56.03	332.59	22.49	
2025-01-14 02:16:56.24	332.53	22.50	
2025-01-14 02:16:56.44	332.48	22.51	
2025-01-14 02:16:56.65	332.43	22.51	
2025-01-14 02:16:56.86	332.37	22.52	
2025-01-14 02:16:57.07	332.32	22.53	
2025-01-14 02:16:57.28	332.27	22.54	
2025-01-14 02:16:57.49	332.21	22.55	
2025-01-14 02:16:57.69	332.16	22.56	
2025-01-14 02:16:57.90	332.11	22.57	
2025-01-14 02:16:58.10	332.06	22.58	
2025-01-14 02:16:58.31	332.00	22.59	
2025-01-14 02:16:58.51	331.95	22.60	
2025-01-14 02:16:58.72	331.90	22.61	
2025-01-14 02:16:58.92	331.84	22.62	
2025-01-14 02:16:59.13	331.79	22.62	
2025-01-14 02:16:59.33	331.74	22.63	
2025-01-14 02:16:59.54	331.68	22.64	
2025-01-14 02:16:59.74	331.63	22.65	
2025-01-14 02:16:59.95	331.58	22.66	
2025-01-14 02:17:00.15	331.53	22.67	
2025-01-14 02:17:00.36	331.47	22.68	
2025-01-14 02:17:00.56	331.42	22.69	
2025-01-14 02:17:00.77	331.36	22.70	
2025-01-14 02:17:00.97	331.31	22.70	
2025-01-14 02:17:01.18	331.26	22.71	
2025-01-14 02:17:01.38	331.21	22.72	
2025-01-14 02:17:01.59	331.15	22.73	
2025-01-14 02:17:01.79	331.10	22.74	
2025-01-14 02:17:02.00	331.04	22.75	
2025-01-14 02:17:02.21	330.99	22.76	
2025-01-14 02:17:02.41	330.94	22.76	
2025-01-14 02:17:02.62	330.88	22.77	
2025-01-14 02:17:02.82	330.83	22.78	
2025-01-14 02:17:03.02	330.78	22.79	
2025-01-14 02:17:03.23	330.72	22.80	
2025-01-14 02:17:03.43	330.67	22.81	
2025-01-14 02:17:03.64	330.62	22.82	
2025-01-14 02:17:03.85	330.56	22.82	
2025-01-14 02:17:04.05	330.51	22.83	
2025-01-14 02:17:04.26	330.45	22.84	
2025-01-14 02:17:04.46	330.40	22.85	
2025-01-14 02:17:04.67	330.35	22.86	
2025-01-14 02:17:04.87	330.29	22.87	
2025-01-14 02:17:05.08	330.24	22.87	
2025-01-14 02:17:05.28	330.18	22.88	
2025-01-14 02:17:05.49	330.13	22.89	
2025-01-14 02:17:05.69	330.08	22.90	
2025-01-14 02:17:05.90	330.02	22.91	
2025-01-14 02:17:06.10	329.97	22.91	
2025-01-14 02:17:06.31	329.91	22.92	
2025-01-14 02:17:06.51	329.86	22.93	
2025-01-14 02:17:06.73	329.80	22.94	
2025-01-14 02:17:06.94	329.75	22.95	
2025-01-14 02:17:07.14	329.69	22.96	
2025-01-14 02:17:07.35	329.64	22.96	
2025-01-14 02:17:07.55	329.59	22.97	
2025-01-14 02:17:07.76	329.53	22.98	
2025-01-14 02:17:07.96	329.48	22.99	
2025-01-14 02:17:08.17	329.42	22.99	
2025-01-14 02:17:08.37	329.37	23.00	
2025-01-14 02:17:08.58	329.31	23.01	
2025-01-14 02:17:08.78	329.26	23.02	
2025-01-14 02:17:08.99	329.20	23.03	
2025-01-14 02:17:09.19	329.15	23.03	
2025-01-14 02:17:09.40	329.10	23.04	
2025-01-14 02:17:09.60	329.04	23.05	
2025-01-14 02:17:09.81	328.99	23.06	
2025-01-14 02:17:10.01	328.93	23.06	
2025-01-14 02:17:10.22	328.88	23.07	
2025-01-14 02:17:10.42	328.82	23.08	
2025-01-14 02:17:10.63	328.77	23.09	
2025-01-14 02:17:10.83	328.71	23.09	
2025-01-14 02:17:11.04	328.66	23.10	
2025-01-14 02:17:11.24	328.61	23.11	
2025-01-14 02:17:11.45	328.55	23.12	
2025-01-14 02:17:11.65	328.50	23.12	
2025-01-14 02:17:11.86	328.44	23.13	
2025-01-14 02:17:12.06	328.39	23.14	
2025-01-14 02:17:12.26	328.33	23.15	
2025-01-14 02:17:12.47	328.28	23.15	
2025-01-14 02:17:12.67	328.22	23.16	
2025-01-14 02:17:12.88	328.17	23.17	
2025-01-14 02:17:13.09	328.11	23.18	
2025-01-14 02:17:13.29	328.06	23.18	
2025-01-14 02:17:13.50	328.00	23.19	
2025-01-14 02:17:13.70	327.95	23.20	
2025-01-14 02:17:13.91	327.89	23.21	
2025-01-14 02:17:14.12	327.83	23.21	
2025-01-14 02:17:14.32	327.78	23.22	
2025-01-14 02:17:14.53	327.72	23.23	
2025-01-14 02:17:14.73	327.67	23.23	
2025-01-14 02:17:14.94	327.61	23.24	
2025-01-14 02:17:15.15	327.56	23.25	
2025-01-14 02:17:15.35	327.50	23.25	
2025-01-14 02:17:15.55	327.45	23.26	
2025-01-14 02:17:15.76	327.39	23.27	
2025-01-14 02:17:15.96	327.34	23.28	
2025-01-14 02:17:16.17	327.28	23.28	
2025-01-14 02:17:16.37	327.23	23.29	
2025-01-14 02:17:16.58	327.17	23.30	
2025-01-14 02:17:16.79	327.11	23.30	
2025-01-14 02:17:16.99	327.06	23.31	
2025-01-14 02:17:17.20	327.00	23.32	
2025-01-14 02:17:17.40	326.95	23.32	
2025-01-14 02:17:17.61	326.89	23.33	
2025-01-14 02:17:17.81	326.84	23.34	
2025-01-14 02:17:18.02	326.78	23.34	
2025-01-14 02:17:18.22	326.73	23.35	
2025-01-14 02:17:18.43	326.67	23.36	
2025-01-14 02:17:18.63	326.62	23.36	
2025-01-14 02:17:18.84	326.56	23.37	
2025-01-14 02:17:19.04	326.50	23.38	
2025-01-14 02:17:19.25	326.45	23.38	
2025-01-14 02:17:19.47	326.39	23.39	
2025-01-14 02:17:19.67	326.33	23.39	
2025-01-14 02:17:19.88	326.28	23.40	
2025-01-14 02:17:20.08	326.22	23.41	
2025-01-14 02:17:20.29	326.16	23.41	
2025-01-14 02:17:20.50	326.11	23.42	
2025-01-14 02:17:20.70	326.05	23.43	
2025-01-14 02:17:20.90	326.00	23.43	
2025-01-14 02:17:21.11	325.94	23.44	
2025-01-14 02:17:21.32	325.88	23.45	
2025-01-14 02:17:21.52	325.83	23.45	
2025-01-14 02:17:21.73	325.77	23.46	
2025-01-14 02:17:21.93	325.72	23.46	
2025-01-14 02:17:22.14	325.66	23.47	
2025-01-14 02:17:22.34	325.61	23.48	
2025-01-14 02:17:22.55	325.55	23.48	
2025-01-14 02:17:22.75	325.49	23.49	
2025-01-14 02:17:22.96	325.44	23.49	
2025-01-14 02:17:23.16	325.38	23.50	
2025-01-14 02:17:23.37	325.32	23.51	
2025-01-14 02:17:23.58	325.27	23.51	
2025-01-14 02:17:23.78	325.21	23.52	
2025-01-14 02:17:23.99	325.15	23.52	
2025-01-14 02:17:24.19	325.10	23.53	
2025-01-14 02:17:24.40	325.04	23.53	
2025-01-14 02:17:24.61	324.98	23.54	
2025-01-14 02:17:24.81	324.93	23.55	
2025-01-14 02:17:25.01	324.87	23.55	
2025-01-14 02:17:25.22	324.82	23.56	
2025-01-14 02:17:25.43	324.76	23.56	
2025-01-14 02:17:25.63	324.70	23.57	
2025-01-14 02:17:25.84	324.65	23.57	
2025-01-14 02:17:26.04	324.59	23.58	
2025-01-14 02:17:26.25	324.53	23.58	
2025-01-14 02:17:26.45	324.48	23.59	
2025-01-14 02:17:26.66	324.42	23.60	
2025-01-14 02:17:26.86	324.36	23.60	
2025-01-14 02:17:27.07	324.31	23.61	
2025-01-14 02:17:27.27	324.25	23.61	
2025-01-14 02:17:27.47	324.20	23.62	
2025-01-14 02:17:27.68	324.14	23.62	
2025-01-14 02:17:27.88	324.08	23.63	
2025-01-14 02:17:28.09	324.02	23.63	
2025-01-14 02:17:28.30	323.97	23.64	
2025-01-14 02:17:28.50	323.91	23.64	
2025-01-14 02:17:28.71	323.85	23.65	
2025-01-14 02:17:28.91	323.80	23.65	
2025-01-14 02:17:29.13	323.74	23.66	
2025-01-14 02:17:29.34	323.68	23.66	
2025-01-14 02:17:29.54	323.62	23.67	
2025-01-14 02:17:29.75	323.57	23.67	
2025-01-14 02:17:29.96	323.51	23.68	
2025-01-14 02:17:30.16	323.45	23.68	
2025-01-14 02:17:30.36	323.40	23.69	
2025-01-14 02:17:30.57	323.34	23.69	
2025-01-14 02:17:30.77	323.28	23.70	
2025-01-14 02:17:30.98	323.22	23.70	
2025-01-14 02:17:31.18	323.17	23.71	
2025-01-14 02:17:31.39	323.11	23.71	
2025-01-14 02:17:31.59	323.06	23.72	
2025-01-14 02:17:31.80	323.00	23.72	
2025-01-14 02:17:32.00	322.94	23.73	
2025-01-14 02:17:32.21	322.88	23.73	
2025-01-14 02:17:32.41	322.83	23.74	
2025-01-14 02:17:32.62	322.77	23.74	
2025-01-14 02:17:32.82	322.71	23.75	
2025-01-14 02:17:33.03	322.65	23.75	
2025-01-14 02:17:33.23	322.60	23.75	
2025-01-14 02:17:33.45	322.54	23.76	
2025-01-14 02:17:33.65	322.48	23.76	
2025-01-14 02:17:33.86	322.42	23.77	
2025-01-14 02:17:34.07	322.37	23.77	
2025-01-14 02:17:34.27	322.31	23.78	
2025-01-14 02:17:34.48	322.25	23.78	
2025-01-14 02:17:34.68	322.20	23.78	
2025-01-14 02:17:34.89	322.14	23.79	
2025-01-14 02:17:35.09	322.08	23.79	
2025-01-14 02:17:35.30	322.02	23.80	
2025-01-14 02:17:35.50	321.97	23.80	
2025-01-14 02:17:35.71	321.91	23.81	
2025-01-14 02:17:35.91	321.85	23.81	
2025-01-14 02:17:36.12	321.79	23.81	
2025-01-14 02:17:36.32	321.74	23.82	
2025-01-14 02:17:36.53	321.68	23.82	
2025-01-14 02:17:36.73	321.62	23.83	
2025-01-14 02:17:36.94	321.56	23.83	
2025-01-14 02:17:37.14	321.51	23.83	
2025-01-14 02:17:37.35	321.45	23.84	
2025-01-14 02:17:37.55	321.39	23.84	
2025-01-14 02:17:37.76	321.33	23.85	
2025-01-14 02:17:37.96	321.28	23.85	
2025-01-14 02:17:38.17	321.22	23.85	
2025-01-14 02:17:38.37	321.16	23.86	
2025-01-14 02:17:38.58	321.10	23.86	
2025-01-14 02:17:38.78	321.05	23.86	
2025-01-14 02:17:38.99	320.99	23.87	
2025-01-14 02:17:39.19	320.93	23.87	
2025-01-14 02:17:39.40	320.87	23.87	
2025-01-14 02:17:39.60	320.82	23.88	
2025-01-14 02:17:39.81	320.76	23.88	
2025-01-14 02:17:40.01	320.70	23.89	
2025-01-14 02:17:40.22	320.64	23.89	
2025-01-14 02:17:40.43	320.59	23.89	
2025-01-14 02:17:40.63	320.53	23.90	
2025-01-14 02:17:40.83	320.47	23.90	
2025-01-14 02:17:41.04	320.41	23.90	
2025-01-14 02:17:41.24	320.36	23.91	
2025-01-14 02:17:41.45	320.30	23.91	
2025-01-14 02:17:41.66	320.24	23.91	
2025-01-14 02:17:41.86	320.18	23.92	
2025-01-14 02:17:42.06	320.13	23.92	
2025-01-14 02:17:42.27	320.07	23.92	
2025-01-14 02:17:42.48	320.01	23.92	
2025-01-14 02:17:42.68	319.95	23.93	
2025-01-14 02:17:42.89	319.89	23.93	
2025-01-14 02:17:43.09	319.84	23.93	
2025-01-14 02:17:43.30	319.78	23.94	
2025-01-14 02:17:43.50	319.72	23.94	
2025-01-14 02:17:43.71	319.66	23.94	
2025-01-14 02:17:43.91	319.61	23.95	
2025-01-14 02:17:44.13	319.54	23.95	
2025-01-14 02:17:44.33	319.49	23.95	
2025-01-14 02:17:44.54	319.43	23.95	
2025-01-14 02:17:44.74	319.37	23.96	
2025-01-14 02:17:44.95	319.31	23.96	
2025-01-14 02:17:45.17	319.25	23.96	
2025-01-14 02:17:45.37	319.19	23.96	
2025-01-14 02:17:45.58	319.14	23.97	
2025-01-14 02:17:45.78	319.08	23.97	
2025-01-14 02:17:45.99	319.02	23.97	
2025-01-14 02:17:46.21	318.96	23.98	
2025-01-14 02:17:46.41	318.90	23.98	
2025-01-14 02:17:46.62	318.84	23.98	
2025-01-14 02:17:46.82	318.78	23.98	
2025-01-14 02:17:47.03	318.73	23.99	
2025-01-14 02:17:47.23	318.67	23.99	
2025-01-14 02:17:47.44	318.61	23.99	
2025-01-14 02:17:47.64	318.55	23.99	
2025-01-14 02:17:47.85	318.49	23.99	
2025-01-14 02:17:48.05	318.44	24.00	
2025-01-14 02:17:48.26	318.38	24.00	
2025-01-14 02:17:48.46	318.32	24.00	
2025-01-14 02:17:48.67	318.26	24.00	
2025-01-14 02:17:48.88	318.20	24.01	
2025-01-14 02:17:49.08	318.15	24.01	
2025-01-14 02:17:49.29	318.09	24.01	
2025-01-14 02:17:49.49	318.03	24.01	
2025-01-14 02:17:49.70	317.97	24.01	
2025-01-14 02:17:49.90	317.91	24.02	
2025-01-14 02:17:50.11	317.85	24.02	
2025-01-14 02:17:50.32	317.79	24.02	
2025-01-14 02:17:50.53	317.74	24.02	
2025-01-14 02:17:50.74	317.68	24.02	
2025-01-14 02:17:50.94	317.62	24.03	
2025-01-14 02:17:51.15	317.56	24.03	
2025-01-14 02:17:51.36	317.50	24.03	
2025-01-14 02:17:51.56	317.44	24.03	
2025-01-14 02:17:51.76	317.39	24.03	
2025-01-14 02:17:51.97	317.33	24.03	
2025-01-14 02:17:52.18	317.27	24.04	
2025-01-14 02:17:52.38	317.21	24.04	
2025-01-14 02:17:52.58	317.15	24.04	
2025-01-14 02:17:52.79	317.09	24.04	
2025-01-14 02:17:53.00	317.03	24.04	
2025-01-14 02:17:53.20	316.98	24.04	
2025-01-14 02:17:53.41	316.92	24.04	
2025-01-14 02:17:53.61	316.86	24.05	
2025-01-14 02:17:53.82	316.80	24.05	
2025-01-14 02:17:54.02	316.75	24.05	
2025-01-14 02:17:54.23	316.69	24.05	
2025-01-14 02:17:54.43	316.63	24.05	
2025-01-14 02:17:54.63	316.57	24.05	
2025-01-14 02:17:54.84	316.51	24.05	
