passes_logs/2026/01/07/R3.2S_Murmansk/R3.2S_Murmansk__20260107_132723_AQUA_rec.log

#Pass ID: 20260107_132723_AQUA
#Satellite: AQUA
#Configuration: AQUA
#almurnet v.1.7.20251203
#Start time: 2026-01-07 13:27:26

#Version: 2.2.20231116
#Station: R3.2S_Murmansk
#Location: 33.079688 lon 68.888172 lat
#TLE: 1 27424U 02022A   26004.96787593  .00001598  00000+0  32997-3 0  9996
#TLE: 2 27424  98.4069 331.2279 0002002  90.2377   0.6092 14.61798176259425

#Time	Az	El	Level	Level2	SNR	BER	BlckErr	Temp	State	Recorded	gain1	gain2
2026-01-07 13:27:26.02	210.51	2.14	-57.6	-76.9	3.8	7.46e-01	0	23	0	0	84	32485
2026-01-07 13:27:27.03	210.59	2.20	-57.3	-76.5	3.8	7.44e-01	0	23	104	0	82	34685
2026-01-07 13:27:28.04	210.67	2.25	-57.3	-76.5	3.8	7.44e-01	0	23	104	0	82	34623
2026-01-07 13:27:29.05	210.75	2.31	-57.4	-76.5	3.8	7.46e-01	0	23	104	0	82	34732
2026-01-07 13:27:30.06	210.83	2.37	-57.4	-76.5	3.8	7.45e-01	0	23	104	0	82	34667
2026-01-07 13:27:31.07	210.91	2.43	-57.4	-76.4	3.8	7.44e-01	0	23	104	0	82	34294
2026-01-07 13:27:32.07	210.99	2.49	-57.4	-76.4	3.8	7.46e-01	0	23	104	0	82	34193
2026-01-07 13:27:33.08	211.07	2.55	-57.4	-76.5	3.8	7.46e-01	0	23	104	0	82	34724
2026-01-07 13:27:34.09	211.15	2.61	-57.4	-76.6	3.8	7.44e-01	0	23	104	0	82	34918
2026-01-07 13:27:35.09	211.23	2.66	-57.4	-76.6	3.8	7.44e-01	0	23	104	0	82	35253
2026-01-07 13:27:36.10	211.32	2.72	-57.4	-76.7	3.8	7.46e-01	0	23	104	0	82	35575
2026-01-07 13:27:37.10	211.40	2.78	-57.4	-76.7	3.8	7.44e-01	0	23	104	0	82	35416
2026-01-07 13:27:38.11	211.48	2.84	-57.4	-76.5	3.8	7.43e-01	0	23	104	0	82	34728
2026-01-07 13:27:39.12	211.56	2.90	-57.3	-76.2	3.8	7.46e-01	0	23	104	0	82	33663
2026-01-07 13:27:40.13	211.65	2.96	-57.3	-76.0	3.8	7.45e-01	0	23	104	0	82	32639
2026-01-07 13:27:41.14	211.73	3.02	-57.3	-75.8	3.8	7.45e-01	0	23	104	0	82	32108
2026-01-07 13:27:42.15	211.81	3.08	-57.3	-75.9	3.8	7.47e-01	0	23	104	0	82	32411
2026-01-07 13:27:43.16	211.90	3.14	-57.3	-76.0	3.8	7.43e-01	0	23	104	0	82	32672
2026-01-07 13:27:44.17	211.98	3.20	-57.4	-76.2	3.8	7.45e-01	0	24	104	0	82	33409
2026-01-07 13:27:45.18	212.07	3.26	-57.4	-76.5	3.8	7.46e-01	0	24	104	0	82	34500
2026-01-07 13:27:46.18	212.15	3.32	-57.4	-76.6	3.8	7.47e-01	0	23	104	0	82	35155
2026-01-07 13:27:47.19	212.24	3.38	-57.4	-76.7	3.8	7.45e-01	0	24	104	0	82	35459
2026-01-07 13:27:48.20	212.33	3.44	-57.4	-76.7	3.8	7.47e-01	0	24	104	0	82	35456
2026-01-07 13:27:49.21	212.41	3.50	-57.4	-76.5	3.8	7.47e-01	0	24	104	0	82	34760
2026-01-07 13:27:50.21	212.50	3.56	-57.4	-76.5	3.8	7.47e-01	0	24	104	0	82	34495
2026-01-07 13:27:51.22	212.59	3.62	-57.3	-76.0	3.8	7.47e-01	0	24	104	0	82	32641
2026-01-07 13:27:52.23	212.68	3.68	-57.3	-75.9	3.8	7.49e-01	0	24	104	0	82	32487
2026-01-07 13:27:53.24	212.76	3.74	-57.3	-75.8	3.8	7.46e-01	0	24	104	0	82	31819
2026-01-07 13:27:54.25	212.85	3.80	-57.3	-75.5	3.8	7.47e-01	0	24	104	0	82	30937
2026-01-07 13:27:55.26	212.94	3.87	-57.3	-75.6	3.8	7.43e-01	0	23	104	0	82	31203
2026-01-07 13:27:56.26	213.03	3.93	-57.3	-74.9	3.9	7.45e-01	0	24	104	0	82	28704
2026-01-07 13:27:57.27	213.12	3.99	-57.3	-74.8	3.8	7.45e-01	0	24	104	0	82	28413
2026-01-07 13:27:58.28	213.21	4.05	-57.3	-73.5	4.1	7.35e-01	0	24	104	0	82	24631
2026-01-07 13:27:59.28	213.30	4.11	-57.3	-73.7	3.9	7.42e-01	0	24	104	0	82	25256
2026-01-07 13:28:00.29	213.39	4.17	-57.3	-73.9	4.1	7.38e-01	0	24	104	0	82	25800
2026-01-07 13:28:01.30	213.48	4.23	-57.3	-75.4	3.8	7.44e-01	0	24	104	0	82	30439
2026-01-07 13:28:02.31	213.57	4.29	-57.4	-76.3	3.8	7.46e-01	0	24	104	0	82	34028
2026-01-07 13:28:03.32	213.67	4.36	-57.3	-76.3	3.8	7.47e-01	0	24	104	0	82	33870
2026-01-07 13:28:04.33	213.76	4.42	-57.3	-74.5	3.9	7.47e-01	0	24	104	0	82	27596
2026-01-07 13:28:05.34	213.85	4.48	-57.2	-71.0	5.0	7.08e-01	0	24	104	0	82	18462
2026-01-07 13:28:06.35	213.95	4.54	-57.1	-69.2	6.1	6.78e-01	92	24	0	524288	82	14916
2026-01-07 13:28:07.35	214.04	4.60	-57.0	-68.1	6.9	6.59e-01	92	24	0	2621440	82	13194
2026-01-07 13:28:08.36	214.13	4.67	-57.0	-67.7	7.3	6.53e-01	92	24	0	4194304	82	12626
2026-01-07 13:28:09.37	214.23	4.73	-57.1	-68.4	6.7	6.64e-01	92	24	0	6291456	82	13653
2026-01-07 13:28:10.37	214.32	4.79	-57.0	-68.1	6.8	6.61e-01	92	24	0	8388608	82	13242
2026-01-07 13:28:11.38	214.42	4.85	-57.0	-67.5	7.4	6.50e-01	85	24	0	9961472	82	12256
2026-01-07 13:28:12.39	214.51	4.92	-56.8	-66.4	8.3	6.34e-01	0	24	0	12058624	82	10808
2026-01-07 13:28:13.40	214.61	4.98	-56.6	-64.6	9.9	6.19e-01	0	24	0	13631488	82	8810
2026-01-07 13:28:14.41	214.71	5.04	-56.3	-63.3	10.9	6.11e-01	0	24	0	15728640	81	8046
2026-01-07 13:28:15.41	214.80	5.10	-56.9	-67.6	7.9	6.45e-01	37	24	0	17825792	81	13153
2026-01-07 13:28:16.42	214.90	5.17	-57.0	-68.3	5.4	6.79e-01	26	24	104	17825792	82	13428
2026-01-07 13:28:17.43	215.00	5.23	-54.3	-58.1	14.1	6.06e-01	0	24	0	19398656	76	5876
2026-01-07 13:28:18.44	215.10	5.29	-54.0	-57.5	14.3	6.07e-01	0	24	0	20971520	77	5164
2026-01-07 13:28:19.44	215.20	5.36	-51.5	-53.7	15.5	6.07e-01	0	24	0	23068672	72	4474
2026-01-07 13:28:20.45	215.30	5.42	-51.5	-53.7	15.5	6.07e-01	0	24	0	25165824	72	4482
2026-01-07 13:28:21.46	215.40	5.48	-51.6	-53.9	15.4	6.06e-01	0	24	0	26738688	72	4593
2026-01-07 13:28:22.47	215.50	5.55	-51.5	-53.8	15.4	6.06e-01	0	24	0	28835840	72	4509
2026-01-07 13:28:23.47	215.60	5.61	-51.4	-53.7	15.3	6.05e-01	0	24	0	30932992	71	4737
2026-01-07 13:28:24.49	215.70	5.68	-51.2	-53.4	15.4	6.06e-01	0	24	0	32505856	71	4564
2026-01-07 13:28:25.49	215.80	5.74	-51.2	-53.3	15.4	6.06e-01	0	24	0	34603008	71	4532
2026-01-07 13:28:26.50	215.90	5.80	-51.2	-53.4	15.4	6.08e-01	0	24	0	36175872	71	4563
2026-01-07 13:28:27.51	216.00	5.87	-51.4	-53.7	15.3	6.06e-01	0	24	0	38273024	71	4726
2026-01-07 13:28:28.52	216.11	5.93	-51.3	-53.6	15.4	6.08e-01	0	24	0	39845888	71	4661
2026-01-07 13:28:29.53	216.21	6.00	-51.3	-53.6	15.4	6.06e-01	0	24	0	41943040	71	4668
2026-01-07 13:28:30.54	216.32	6.06	-51.2	-53.3	15.5	6.05e-01	0	24	0	44040192	71	4521
2026-01-07 13:28:31.54	216.42	6.13	-51.1	-53.2	15.5	6.07e-01	0	24	0	45613056	71	4462
2026-01-07 13:28:32.55	216.52	6.19	-51.1	-53.3	15.5	6.08e-01	0	24	0	47710208	71	4513
2026-01-07 13:28:33.56	216.63	6.26	-51.0	-53.0	15.5	6.07e-01	0	24	0	49283072	71	4388
2026-01-07 13:28:34.56	216.74	6.32	-51.0	-53.1	15.5	6.07e-01	0	24	0	51380224	71	4437
2026-01-07 13:28:35.57	216.84	6.39	-51.1	-53.2	15.5	6.07e-01	0	24	0	53477376	71	4451
2026-01-07 13:28:36.58	216.95	6.45	-51.1	-53.2	15.5	6.06e-01	0	24	0	55050240	71	4493
2026-01-07 13:28:37.58	217.06	6.52	-51.1	-53.2	15.5	6.08e-01	0	24	0	57147392	71	4480
2026-01-07 13:28:38.59	217.16	6.58	-51.0	-53.0	15.6	6.05e-01	0	24	0	59244544	71	4387
2026-01-07 13:28:39.60	217.27	6.65	-51.0	-53.1	15.5	6.07e-01	0	24	0	60817408	71	4433
2026-01-07 13:28:40.61	217.38	6.71	-51.1	-53.2	15.5	6.06e-01	0	24	0	62914560	71	4476
2026-01-07 13:28:41.62	217.49	6.78	-51.0	-53.1	15.6	6.06e-01	0	24	0	64487424	71	4431
2026-01-07 13:28:42.63	217.60	6.84	-51.0	-53.1	15.6	6.06e-01	0	24	0	66584576	71	4399
2026-01-07 13:28:43.64	217.71	6.91	-50.8	-52.9	15.4	6.06e-01	0	24	0	68681728	70	4571
2026-01-07 13:28:44.65	217.82	6.98	-50.8	-52.9	15.5	6.06e-01	0	24	0	70254592	70	4567
2026-01-07 13:28:45.65	217.93	7.04	-50.9	-52.9	15.4	6.05e-01	0	24	0	72351744	70	4596
2026-01-07 13:28:46.66	218.05	7.11	-51.0	-53.1	15.4	6.08e-01	0	24	0	73924608	70	4681
2026-01-07 13:28:47.67	218.16	7.17	-51.1	-53.2	15.3	6.07e-01	0	24	0	76021760	70	4743
2026-01-07 13:28:48.68	218.27	7.24	-50.9	-52.9	15.5	6.05e-01	0	24	0	78118912	70	4571
2026-01-07 13:28:49.68	218.39	7.31	-50.8	-52.8	15.5	6.05e-01	0	24	0	79691776	70	4535
2026-01-07 13:28:50.69	218.50	7.37	-50.9	-52.9	15.4	6.07e-01	0	25	0	81788928	70	4583
2026-01-07 13:28:51.70	218.62	7.44	-50.8	-52.9	15.5	6.07e-01	0	24	0	83361792	70	4566
2026-01-07 13:28:52.71	218.73	7.51	-50.8	-52.8	15.5	6.07e-01	0	24	0	85458944	70	4536
2026-01-07 13:28:53.71	218.85	7.57	-50.7	-52.6	15.5	6.05e-01	0	25	0	87556096	70	4435
2026-01-07 13:28:54.72	218.96	7.64	-50.7	-52.7	15.5	6.06e-01	0	24	0	89128960	70	4489
2026-01-07 13:28:55.73	219.08	7.71	-50.7	-52.7	15.5	6.05e-01	0	25	0	91226112	70	4474
2026-01-07 13:28:56.74	219.20	7.78	-50.7	-52.7	15.6	6.05e-01	0	24	0	92798976	70	4445
2026-01-07 13:28:57.75	219.32	7.84	-50.7	-52.7	15.5	6.07e-01	0	24	0	94896128	70	4466
2026-01-07 13:28:58.76	219.43	7.91	-50.7	-52.7	15.5	6.05e-01	0	24	0	96993280	70	4457
2026-01-07 13:28:59.76	219.55	7.98	-50.6	-52.6	15.6	6.05e-01	0	25	0	98566144	70	4417
2026-01-07 13:29:00.76	219.67	8.05	-50.6	-52.6	15.6	6.07e-01	0	25	0	100663296	70	4395
2026-01-07 13:29:01.76	219.79	8.11	-50.6	-52.6	15.6	6.07e-01	0	25	0	102236160	70	4400
2026-01-07 13:29:02.77	219.91	8.18	-50.6	-52.6	15.6	6.05e-01	0	25	0	104333312	70	4415
2026-01-07 13:29:03.78	220.03	8.25	-50.5	-52.4	15.6	6.09e-01	0	24	0	106430464	70	4340
2026-01-07 13:29:04.79	220.16	8.32	-50.5	-52.4	15.6	6.08e-01	0	25	0	108003328	70	4332
2026-01-07 13:29:05.79	220.28	8.39	-50.5	-52.4	15.6	6.06e-01	0	25	0	110100480	70	4322
2026-01-07 13:29:06.80	220.40	8.45	-50.5	-52.4	15.6	6.08e-01	0	24	0	111673344	70	4322
2026-01-07 13:29:07.81	220.53	8.52	-50.5	-52.5	15.6	6.05e-01	0	25	0	113770496	70	4363
2026-01-07 13:29:08.82	220.65	8.59	-50.6	-52.5	15.6	6.08e-01	0	24	0	115867648	70	4389
2026-01-07 13:29:09.82	220.78	8.66	-50.5	-52.4	15.6	6.06e-01	0	25	0	117440512	70	4322
2026-01-07 13:29:10.83	220.90	8.73	-50.6	-52.5	15.6	6.05e-01	0	25	0	119537664	70	4372
2026-01-07 13:29:11.84	221.03	8.80	-50.4	-52.4	15.7	6.08e-01	0	25	0	121110528	70	4294
2026-01-07 13:29:12.85	221.16	8.87	-50.4	-52.3	15.7	6.07e-01	0	25	0	123207680	70	4288
2026-01-07 13:29:13.86	221.28	8.93	-50.4	-52.3	15.7	6.07e-01	0	25	0	125304832	70	4282
2026-01-07 13:29:14.85	221.41	9.00	-50.3	-52.2	15.5	6.08e-01	0	25	0	126877696	69	4473
2026-01-07 13:29:15.86	221.54	9.07	-50.4	-52.3	15.5	6.07e-01	0	25	0	128974848	69	4498
2026-01-07 13:29:16.86	221.67	9.14	-50.4	-52.4	15.5	6.07e-01	0	24	0	130547712	69	4549
2026-01-07 13:29:17.87	221.80	9.21	-50.4	-52.3	15.5	6.06e-01	0	25	0	132644864	69	4527
2026-01-07 13:29:18.88	221.93	9.28	-50.3	-52.3	15.5	6.06e-01	0	25	0	134742016	69	4497
2026-01-07 13:29:19.89	222.06	9.35	-50.2	-52.1	15.6	6.05e-01	0	25	0	136314880	69	4427
2026-01-07 13:29:20.89	222.19	9.42	-50.2	-52.1	15.6	6.05e-01	0	25	0	138412032	69	4413
2026-01-07 13:29:21.90	222.33	9.49	-50.3	-52.1	15.6	6.06e-01	0	25	0	139984896	69	4424
2026-01-07 13:29:22.91	222.46	9.56	-50.3	-52.2	15.5	6.07e-01	0	25	0	142082048	69	4483
2026-01-07 13:29:23.91	222.59	9.63	-50.3	-52.1	15.6	6.06e-01	0	24	0	144179200	69	4431
2026-01-07 13:29:24.92	222.73	9.70	-50.3	-52.1	15.6	6.07e-01	0	25	0	145752064	69	4438
2026-01-07 13:29:25.93	222.86	9.77	-50.4	-52.3	15.5	6.07e-01	0	24	0	147849216	69	4526
2026-01-07 13:29:26.93	223.00	9.84	-50.4	-52.3	15.5	6.06e-01	0	25	0	149422080	69	4511
2026-01-07 13:29:27.95	223.14	9.91	-50.4	-52.3	15.5	6.07e-01	0	25	0	151519232	69	4504
2026-01-07 13:29:28.96	223.28	9.98	-50.3	-52.2	15.5	6.06e-01	0	25	0	153616384	69	4487
2026-01-07 13:29:29.96	223.41	10.05	-50.3	-52.2	15.5	6.07e-01	0	25	0	155189248	69	4487
2026-01-07 13:29:30.98	223.55	10.12	-50.1	-52.0	15.6	6.06e-01	0	25	0	157286400	69	4344
2026-01-07 13:29:31.98	223.69	10.19	-50.2	-52.0	15.6	6.05e-01	0	25	0	158859264	69	4379
2026-01-07 13:29:32.98	223.83	10.26	-50.1	-52.0	15.6	6.07e-01	0	25	0	160956416	69	4364
2026-01-07 13:29:33.99	223.97	10.33	-50.1	-52.0	15.6	6.05e-01	0	25	0	163053568	69	4350
2026-01-07 13:29:35.00	224.12	10.40	-50.2	-52.0	15.6	6.06e-01	0	25	0	164626432	69	4366
2026-01-07 13:29:36.01	224.26	10.47	-50.1	-52.0	15.6	6.07e-01	0	25	0	166723584	69	4356
2026-01-07 13:29:37.01	224.40	10.54	-50.1	-51.9	15.6	6.07e-01	0	25	0	168296448	69	4340
2026-01-07 13:29:38.02	224.55	10.62	-50.1	-51.9	15.7	6.06e-01	0	24	0	170393600	69	4318
2026-01-07 13:29:39.03	224.69	10.69	-50.1	-51.9	15.7	6.07e-01	0	25	0	172490752	69	4300
2026-01-07 13:29:40.03	224.83	10.76	-50.0	-51.8	15.7	6.04e-01	0	25	0	174063616	69	4244
2026-01-07 13:29:41.04	224.98	10.83	-50.1	-51.9	15.7	6.06e-01	0	25	0	176160768	69	4333
2026-01-07 13:29:42.04	225.13	10.90	-50.0	-51.8	15.7	6.06e-01	0	25	0	177733632	69	4289
2026-01-07 13:29:43.05	225.27	10.97	-49.9	-51.7	15.8	6.06e-01	0	25	0	179830784	69	4199
2026-01-07 13:29:44.06	225.42	11.04	-50.0	-51.8	15.7	6.07e-01	0	25	0	181927936	69	4244
2026-01-07 13:29:45.06	225.57	11.11	-49.9	-51.7	15.8	6.07e-01	0	25	0	183500800	69	4208
2026-01-07 13:29:46.07	225.72	11.19	-49.9	-51.7	15.7	6.07e-01	0	25	0	185597952	69	4219
2026-01-07 13:29:47.08	225.87	11.26	-50.1	-51.9	15.7	6.06e-01	0	25	0	187170816	69	4312
2026-01-07 13:29:48.09	226.02	11.33	-50.0	-51.7	15.7	6.04e-01	0	25	0	189267968	69	4239
2026-01-07 13:29:49.10	226.18	11.40	-49.9	-51.7	15.6	6.05e-01	0	25	0	191365120	68	4457
2026-01-07 13:29:50.11	226.33	11.47	-49.8	-51.6	15.6	6.06e-01	0	25	0	192937984	68	4404
2026-01-07 13:29:51.11	226.48	11.55	-49.9	-51.7	15.6	6.06e-01	0	25	0	195035136	68	4443
2026-01-07 13:29:52.11	226.64	11.62	-49.8	-51.6	15.6	6.08e-01	0	25	0	196608000	68	4430
2026-01-07 13:29:53.12	226.79	11.69	-49.9	-51.7	15.6	6.05e-01	0	25	0	198705152	68	4447
2026-01-07 13:29:54.13	226.95	11.76	-49.9	-51.7	15.6	6.06e-01	0	25	0	200802304	68	4479
2026-01-07 13:29:55.14	227.11	11.83	-49.9	-51.6	15.6	6.06e-01	0	25	0	202375168	68	4431
2026-01-07 13:29:56.15	227.26	11.91	-49.8	-51.5	15.6	6.08e-01	0	25	0	204472320	68	4382
2026-01-07 13:29:57.16	227.42	11.98	-49.6	-51.3	15.7	6.06e-01	0	25	0	206045184	68	4282
2026-01-07 13:29:58.17	227.58	12.05	-49.7	-51.4	15.6	6.06e-01	0	25	0	208142336	68	4329
2026-01-07 13:29:59.17	227.74	12.12	-49.7	-51.4	15.7	6.07e-01	0	25	0	210239488	68	4329
2026-01-07 13:30:00.18	227.90	12.20	-49.7	-51.4	15.7	6.08e-01	0	25	0	211812352	68	4339
2026-01-07 13:30:01.19	228.07	12.27	-49.7	-51.4	15.7	6.07e-01	0	25	0	213909504	68	4338
2026-01-07 13:30:02.19	228.23	12.34	-49.7	-51.5	15.7	6.07e-01	0	25	0	215482368	68	4342
2026-01-07 13:30:03.20	228.39	12.41	-49.6	-51.4	15.7	6.05e-01	0	25	0	217579520	68	4293
2026-01-07 13:30:04.21	228.56	12.49	-49.5	-51.2	15.7	6.07e-01	0	25	0	219676672	68	4232
2026-01-07 13:30:05.22	228.72	12.56	-49.6	-51.3	15.7	6.06e-01	0	25	0	221249536	68	4291
2026-01-07 13:30:06.22	228.89	12.63	-49.5	-51.3	15.7	6.06e-01	0	25	0	223346688	68	4245
2026-01-07 13:30:07.23	229.05	12.70	-49.5	-51.2	15.7	6.08e-01	0	25	0	225443840	68	4229
2026-01-07 13:30:08.24	229.22	12.78	-49.6	-51.3	15.7	6.07e-01	0	25	0	227016704	68	4271
2026-01-07 13:30:09.25	229.39	12.85	-49.7	-51.4	15.7	6.07e-01	0	25	0	229113856	68	4322
2026-01-07 13:30:10.25	229.56	12.92	-49.5	-51.1	15.8	6.07e-01	0	25	0	230686720	68	4192
2026-01-07 13:30:11.26	229.73	13.00	-49.4	-51.1	15.8	6.05e-01	0	25	0	232783872	68	4154
2026-01-07 13:30:12.27	229.90	13.07	-49.4	-51.1	15.6	6.05e-01	0	25	0	234356736	67	4392
2026-01-07 13:30:13.27	230.07	13.14	-49.4	-51.1	15.6	6.06e-01	0	25	0	236453888	67	4399
2026-01-07 13:30:14.28	230.25	13.21	-49.5	-51.2	15.6	6.06e-01	0	25	0	238551040	67	4458
2026-01-07 13:30:15.29	230.42	13.29	-49.4	-51.1	15.6	6.06e-01	0	24	0	240123904	67	4438
2026-01-07 13:30:16.30	230.60	13.36	-49.4	-51.1	15.6	6.04e-01	0	25	0	242221056	67	4404
2026-01-07 13:30:17.31	230.77	13.43	-49.3	-51.0	15.6	6.05e-01	0	25	0	243793920	67	4360
2026-01-07 13:30:18.31	230.95	13.51	-49.3	-51.0	15.6	6.05e-01	0	25	0	245891072	67	4365
2026-01-07 13:30:19.32	231.13	13.58	-49.3	-51.0	15.6	6.05e-01	0	25	0	247988224	67	4378
2026-01-07 13:30:20.33	231.30	13.65	-49.4	-51.1	15.6	6.07e-01	0	25	0	249561088	67	4433
2026-01-07 13:30:21.33	231.48	13.73	-49.4	-51.1	15.6	6.05e-01	0	25	0	251658240	67	4435
2026-01-07 13:30:22.34	231.66	13.80	-49.5	-51.2	15.6	6.05e-01	0	25	0	253755392	67	4471
2026-01-07 13:30:23.35	231.84	13.87	-49.4	-51.1	15.6	6.08e-01	0	25	0	255328256	67	4430
2026-01-07 13:30:24.36	232.03	13.94	-49.4	-51.2	15.6	6.05e-01	0	25	0	257425408	67	4446
2026-01-07 13:30:25.37	232.21	14.02	-49.3	-51.0	15.6	6.05e-01	0	25	0	258998272	67	4359
2026-01-07 13:30:26.37	232.39	14.09	-49.3	-51.0	15.6	6.05e-01	0	25	0	261095424	67	4363
2026-01-07 13:30:27.38	232.58	14.16	-49.3	-50.9	15.6	6.05e-01	0	25	0	263192576	67	4339
2026-01-07 13:30:28.39	232.76	14.24	-49.3	-51.0	15.6	6.06e-01	0	25	0	264765440	67	4359
2026-01-07 13:30:29.40	232.95	14.31	-49.4	-51.2	15.6	6.07e-01	0	25	0	266862592	67	4444
2026-01-07 13:30:30.41	233.14	14.38	-49.3	-51.0	15.6	6.06e-01	0	25	0	268435456	67	4355
2026-01-07 13:30:31.41	233.33	14.46	-49.3	-51.0	15.6	6.09e-01	0	25	0	270532608	67	4386
2026-01-07 13:30:32.42	233.52	14.53	-49.3	-51.0	15.6	6.07e-01	0	25	0	272629760	67	4357
2026-01-07 13:30:33.43	233.71	14.60	-49.4	-51.1	15.6	6.07e-01	0	25	0	274202624	67	4402
2026-01-07 13:30:34.44	233.90	14.67	-49.3	-51.0	15.6	6.06e-01	0	25	0	276299776	67	4348
2026-01-07 13:30:35.45	234.09	14.75	-49.2	-50.9	15.7	6.06e-01	0	25	0	277872640	67	4308
2026-01-07 13:30:36.46	234.29	14.82	-49.4	-51.0	15.6	6.05e-01	0	25	0	279969792	67	4387
2026-01-07 13:30:37.47	234.48	14.89	-49.2	-50.9	15.7	6.08e-01	0	25	0	282066944	67	4295
2026-01-07 13:30:38.47	234.68	14.96	-49.2	-50.8	15.7	6.08e-01	0	25	0	283639808	67	4271
2026-01-07 13:30:39.48	234.87	15.04	-49.2	-50.9	15.7	6.07e-01	0	25	0	285736960	67	4312
2026-01-07 13:30:40.49	235.07	15.11	-49.2	-50.9	15.7	6.07e-01	0	25	0	287309824	67	4321
2026-01-07 13:30:41.50	235.27	15.18	-49.3	-50.9	15.6	6.06e-01	0	25	0	289406976	67	4333
2026-01-07 13:30:42.50	235.47	15.25	-49.2	-50.9	15.7	6.08e-01	0	25	0	291504128	67	4299
2026-01-07 13:30:43.51	235.67	15.33	-49.2	-50.8	15.7	6.05e-01	0	25	0	293076992	67	4289
2026-01-07 13:30:44.52	235.87	15.40	-49.2	-50.9	15.7	6.07e-01	0	25	0	295174144	67	4301
2026-01-07 13:30:45.53	236.08	15.47	-49.2	-50.9	15.7	6.07e-01	0	25	0	297271296	67	4320
2026-01-07 13:30:46.53	236.28	15.54	-49.2	-50.8	15.7	6.05e-01	0	25	0	298844160	67	4277
2026-01-07 13:30:47.54	236.48	15.61	-49.2	-50.9	15.7	6.06e-01	0	25	0	300941312	67	4297
2026-01-07 13:30:48.55	236.69	15.69	-49.0	-50.6	15.8	6.07e-01	0	25	0	302514176	67	4190
2026-01-07 13:30:49.56	236.90	15.76	-49.1	-50.8	15.7	6.06e-01	0	25	0	304611328	67	4248
2026-01-07 13:30:50.56	237.10	15.83	-49.1	-50.7	15.7	6.06e-01	0	25	0	306184192	67	4242
2026-01-07 13:30:51.57	237.31	15.90	-49.1	-50.8	15.7	6.06e-01	0	25	0	308281344	67	4252
2026-01-07 13:30:52.58	237.52	15.97	-49.1	-50.8	15.7	6.06e-01	0	25	0	310378496	67	4267
2026-01-07 13:30:53.58	237.73	16.04	-49.3	-51.0	15.7	6.05e-01	0	25	0	311951360	67	4356
2026-01-07 13:30:54.59	237.94	16.11	-49.1	-50.7	15.7	6.06e-01	0	25	0	314048512	67	4237
2026-01-07 13:30:55.60	238.16	16.19	-49.2	-50.8	15.7	6.05e-01	0	25	0	315621376	67	4273
2026-01-07 13:30:56.60	238.37	16.26	-49.2	-50.9	15.7	6.06e-01	0	25	0	317718528	67	4293
2026-01-07 13:30:57.61	238.58	16.33	-49.1	-50.8	15.7	6.06e-01	0	25	0	319815680	67	4261
2026-01-07 13:30:58.61	238.80	16.40	-49.2	-50.8	15.7	6.03e-01	0	25	0	321388544	67	4288
2026-01-07 13:30:59.62	239.02	16.47	-49.0	-50.6	15.8	6.06e-01	0	25	0	323485696	67	4181
2026-01-07 13:31:00.63	239.23	16.54	-49.0	-50.7	15.7	6.08e-01	0	25	0	325582848	67	4194
2026-01-07 13:31:01.64	239.45	16.61	-49.1	-50.8	15.7	6.08e-01	0	25	0	327155712	67	4244
2026-01-07 13:31:02.65	239.67	16.68	-49.1	-50.7	15.7	6.04e-01	0	25	0	329252864	67	4219
2026-01-07 13:31:03.66	239.90	16.75	-49.1	-50.7	15.7	6.06e-01	0	25	0	330825728	67	4232
2026-01-07 13:31:04.67	240.12	16.82	-49.1	-50.7	15.8	6.06e-01	0	25	0	332922880	67	4213
2026-01-07 13:31:05.68	240.34	16.89	-49.2	-50.8	15.7	6.08e-01	0	25	0	335020032	67	4277
2026-01-07 13:31:06.68	240.57	16.96	-49.2	-50.8	15.7	6.06e-01	0	25	0	336592896	67	4264
2026-01-07 13:31:07.69	240.79	17.03	-49.2	-50.9	15.7	6.06e-01	0	25	0	338690048	67	4294
2026-01-07 13:31:08.69	241.02	17.09	-49.1	-50.7	15.7	6.07e-01	0	25	0	340262912	67	4224
2026-01-07 13:31:09.70	241.24	17.16	-49.0	-50.6	15.8	6.06e-01	0	25	0	342360064	67	4191
2026-01-07 13:31:10.71	241.47	17.23	-49.0	-50.6	15.8	6.03e-01	0	25	0	343932928	67	4161
2026-01-07 13:31:11.72	241.70	17.30	-49.0	-50.6	15.8	6.06e-01	0	25	0	346030080	67	4185
2026-01-07 13:31:12.73	241.94	17.37	-49.1	-50.8	15.7	6.06e-01	0	25	0	348127232	67	4243
2026-01-07 13:31:13.74	242.17	17.44	-49.1	-50.7	15.7	6.06e-01	0	25	0	349700096	67	4226
2026-01-07 13:31:14.75	242.40	17.50	-49.1	-50.8	15.7	6.07e-01	0	25	0	351797248	67	4243
2026-01-07 13:31:15.75	242.63	17.57	-49.1	-50.7	15.7	6.07e-01	0	25	0	353894400	67	4219
2026-01-07 13:31:16.76	242.87	17.64	-49.1	-50.7	15.7	6.07e-01	0	25	0	355467264	67	4217
2026-01-07 13:31:17.76	243.10	17.70	-49.0	-50.6	15.7	6.06e-01	0	25	0	357564416	67	4180
2026-01-07 13:31:18.77	243.34	17.77	-49.1	-50.7	15.7	6.07e-01	0	25	0	359137280	67	4207
2026-01-07 13:31:19.78	243.58	17.84	-49.0	-50.7	15.7	6.08e-01	0	25	0	361234432	67	4199
2026-01-07 13:31:20.79	243.82	17.90	-49.1	-50.7	15.7	6.05e-01	0	25	0	363331584	67	4236
2026-01-07 13:31:21.79	244.06	17.97	-49.1	-50.7	15.7	6.06e-01	0	25	0	364904448	67	4218
2026-01-07 13:31:22.80	244.30	18.04	-49.1	-50.7	15.7	6.07e-01	0	25	0	367001600	67	4241
2026-01-07 13:31:23.81	244.55	18.10	-49.2	-50.8	15.7	6.06e-01	0	25	0	368574464	67	4271
2026-01-07 13:31:24.81	244.79	18.17	-49.2	-50.9	15.7	6.07e-01	0	25	0	370671616	67	4298
2026-01-07 13:31:25.82	245.03	18.23	-49.3	-51.0	15.6	6.09e-01	0	25	0	372768768	67	4353
2026-01-07 13:31:26.83	245.28	18.30	-49.3	-50.9	15.7	6.05e-01	0	25	0	374341632	67	4318
2026-01-07 13:31:27.84	245.53	18.36	-49.3	-50.9	15.7	6.08e-01	0	25	0	376438784	67	4333
2026-01-07 13:31:28.85	245.78	18.42	-49.2	-50.8	15.7	6.05e-01	0	25	0	378011648	67	4275
2026-01-07 13:31:29.86	246.03	18.49	-49.1	-50.8	15.7	6.06e-01	0	25	0	380108800	67	4251
2026-01-07 13:31:30.87	246.28	18.55	-49.3	-51.0	15.6	6.07e-01	0	25	0	382205952	67	4344
2026-01-07 13:31:31.87	246.53	18.61	-49.2	-50.9	15.7	6.06e-01	0	25	0	383778816	67	4302
2026-01-07 13:31:32.88	246.78	18.68	-49.2	-50.8	15.7	6.07e-01	0	25	0	385875968	67	4281
2026-01-07 13:31:33.89	247.03	18.74	-49.2	-50.9	15.7	6.05e-01	0	25	0	387448832	67	4302
2026-01-07 13:31:34.90	247.29	18.80	-49.3	-50.9	15.7	6.07e-01	0	25	0	389545984	67	4330
2026-01-07 13:31:35.91	247.54	18.86	-49.1	-50.7	15.7	6.07e-01	0	25	0	391643136	67	4225
2026-01-07 13:31:36.91	247.80	18.92	-49.1	-50.7	15.7	6.05e-01	0	25	0	393216000	67	4240
2026-01-07 13:31:37.92	248.06	18.98	-49.1	-50.8	15.7	6.07e-01	0	25	0	395313152	67	4243
2026-01-07 13:31:38.92	248.31	19.04	-49.2	-50.8	15.7	6.07e-01	0	25	0	396886016	67	4284
2026-01-07 13:31:39.93	248.57	19.10	-49.2	-50.9	15.7	6.07e-01	0	25	0	398983168	67	4305
2026-01-07 13:31:40.94	248.84	19.16	-49.3	-50.9	15.6	6.05e-01	0	25	0	401080320	67	4333
2026-01-07 13:31:41.95	249.10	19.22	-49.4	-51.0	15.6	6.06e-01	0	25	0	402653184	67	4388
2026-01-07 13:31:42.96	249.36	19.28	-49.2	-50.8	15.7	6.07e-01	0	25	0	404750336	67	4289
2026-01-07 13:31:43.96	249.62	19.34	-49.1	-50.7	15.7	6.06e-01	0	25	0	406323200	67	4233
2026-01-07 13:31:44.97	249.89	19.40	-49.1	-50.8	15.7	6.06e-01	0	25	0	408420352	67	4248
2026-01-07 13:31:45.98	250.16	19.45	-49.1	-50.8	15.7	6.08e-01	0	25	0	410517504	67	4244
2026-01-07 13:31:46.99	250.42	19.51	-49.2	-50.9	15.7	6.06e-01	0	25	0	412090368	67	4297
2026-01-07 13:31:47.99	250.69	19.57	-49.2	-50.8	15.7	6.06e-01	0	25	0	414187520	67	4271
2026-01-07 13:31:49.00	250.96	19.62	-49.2	-50.8	15.7	6.07e-01	0	25	0	415760384	67	4278
2026-01-07 13:31:50.01	251.23	19.68	-49.2	-50.8	15.7	6.08e-01	0	25	0	417857536	67	4285
2026-01-07 13:31:51.01	251.50	19.73	-49.2	-50.8	15.7	6.09e-01	0	25	0	419954688	67	4253
2026-01-07 13:31:52.02	251.77	19.79	-49.2	-50.8	15.7	6.07e-01	0	25	0	421527552	67	4261
2026-01-07 13:31:53.03	252.05	19.84	-49.3	-51.0	15.6	6.06e-01	0	25	0	423624704	67	4343
2026-01-07 13:31:54.04	252.32	19.90	-49.3	-50.9	15.6	6.06e-01	0	25	0	425197568	67	4318
2026-01-07 13:31:55.05	252.60	19.95	-49.2	-50.8	15.7	6.07e-01	0	25	0	427294720	67	4282
2026-01-07 13:31:56.05	252.87	20.00	-49.4	-51.0	15.6	6.05e-01	0	25	0	429391872	67	4370
2026-01-07 13:31:57.06	253.15	20.05	-49.5	-51.2	15.6	6.06e-01	0	25	0	430964736	67	4448
2026-01-07 13:31:58.07	253.43	20.10	-49.4	-51.0	15.6	6.06e-01	0	25	0	433061888	67	4381
2026-01-07 13:31:59.08	253.71	20.16	-49.3	-51.0	15.6	6.05e-01	0	25	0	435159040	67	4356
2026-01-07 13:32:00.09	253.99	20.21	-49.4	-51.0	15.6	6.07e-01	0	25	0	436731904	67	4382
2026-01-07 13:32:01.10	254.27	20.26	-49.3	-50.9	15.7	6.06e-01	0	25	0	438829056	67	4324
2026-01-07 13:32:02.10	254.55	20.31	-49.2	-50.9	15.7	6.06e-01	0	25	0	440401920	67	4303
2026-01-07 13:32:03.11	254.83	20.35	-49.4	-51.0	15.6	6.07e-01	0	25	0	442499072	67	4381
2026-01-07 13:32:04.12	255.12	20.40	-49.3	-51.0	15.6	6.05e-01	0	25	0	444071936	67	4367
2026-01-07 13:32:05.12	255.40	20.45	-49.4	-51.0	15.6	6.08e-01	0	25	0	446169088	67	4372
2026-01-07 13:32:06.13	255.68	20.50	-49.3	-51.0	15.6	6.07e-01	0	25	0	448266240	67	4364
2026-01-07 13:32:07.14	255.97	20.54	-49.4	-51.0	15.6	6.05e-01	0	25	0	449839104	67	4383
2026-01-07 13:32:08.15	256.26	20.59	-49.3	-50.9	15.7	6.05e-01	0	25	0	451936256	67	4325
2026-01-07 13:32:09.16	256.55	20.64	-49.3	-50.9	15.7	6.09e-01	0	25	0	453509120	67	4332
2026-01-07 13:32:10.17	256.84	20.68	-49.4	-51.1	15.6	6.08e-01	0	25	0	455606272	67	4403
2026-01-07 13:32:11.18	257.13	20.73	-49.5	-51.2	15.6	6.07e-01	0	25	0	457703424	67	4449
2026-01-07 13:32:12.18	257.42	20.77	-49.4	-51.0	15.6	6.07e-01	0	25	0	459276288	67	4384
2026-01-07 13:32:13.19	257.71	20.81	-49.4	-51.1	15.6	6.06e-01	0	25	0	461373440	67	4394
2026-01-07 13:32:14.20	258.00	20.85	-49.5	-51.1	15.6	6.07e-01	0	25	0	463470592	67	4436
2026-01-07 13:32:15.20	258.29	20.90	-49.3	-51.0	15.6	6.06e-01	0	25	0	465043456	67	4350
2026-01-07 13:32:16.21	258.59	20.94	-49.3	-50.9	15.6	6.06e-01	0	25	0	467140608	67	4337
2026-01-07 13:32:17.22	258.88	20.98	-49.4	-51.1	15.6	6.06e-01	0	25	0	468713472	67	4404
2026-01-07 13:32:18.23	259.18	21.02	-49.5	-51.1	15.6	6.06e-01	0	25	0	470810624	67	4429
2026-01-07 13:32:19.24	259.48	21.06	-49.3	-50.9	15.7	6.05e-01	0	25	0	472907776	67	4315
2026-01-07 13:32:20.25	259.77	21.09	-49.4	-51.0	15.6	6.08e-01	0	25	0	474480640	67	4387
2026-01-07 13:32:21.25	260.07	21.13	-49.3	-51.0	15.6	6.06e-01	0	25	0	476577792	67	4370
2026-01-07 13:32:22.25	260.36	21.17	-49.4	-51.1	15.6	6.06e-01	0	25	0	478150656	67	4398
2026-01-07 13:32:23.26	260.66	21.20	-49.4	-51.0	15.6	6.05e-01	0	25	0	480247808	67	4385
2026-01-07 13:32:24.27	260.97	21.24	-49.5	-51.2	15.6	6.08e-01	0	25	0	481820672	67	4455
2026-01-07 13:32:25.28	261.27	21.28	-49.5	-51.2	15.6	6.05e-01	0	25	0	483917824	67	4463
2026-01-07 13:32:26.28	261.57	21.31	-49.6	-51.2	15.6	6.04e-01	0	25	0	486014976	67	4487
2026-01-07 13:32:27.29	261.87	21.34	-49.7	-51.4	15.5	6.06e-01	0	25	0	487587840	67	4581
2026-01-07 13:32:28.30	262.17	21.38	-49.4	-51.1	15.6	6.06e-01	0	25	0	489684992	67	4431
2026-01-07 13:32:29.31	262.48	21.41	-49.5	-51.2	15.6	6.07e-01	0	25	0	491782144	67	4443
2026-01-07 13:32:30.32	262.78	21.44	-49.6	-51.3	15.6	6.05e-01	0	25	0	493355008	67	4509
2026-01-07 13:32:31.33	263.09	21.47	-49.5	-51.2	15.6	6.06e-01	0	25	0	495452160	67	4450
2026-01-07 13:32:32.33	263.39	21.50	-49.4	-51.1	15.6	6.06e-01	0	25	0	497025024	67	4418
2026-01-07 13:32:33.34	263.69	21.53	-49.4	-51.0	15.6	6.07e-01	0	25	0	499122176	67	4375
2026-01-07 13:32:34.35	264.00	21.56	-49.4	-51.0	15.6	6.06e-01	0	25	0	501219328	67	4377
2026-01-07 13:32:35.35	264.31	21.58	-49.4	-51.1	15.6	6.07e-01	0	25	0	502792192	67	4395
2026-01-07 13:32:36.36	264.61	21.61	-49.5	-51.2	15.6	6.06e-01	0	25	0	504889344	67	4449
2026-01-07 13:32:37.36	264.92	21.64	-49.5	-51.2	15.6	6.08e-01	0	25	0	506462208	67	4458
2026-01-07 13:32:38.37	265.23	21.66	-49.5	-51.2	15.6	6.07e-01	0	25	0	508559360	67	4449
2026-01-07 13:32:39.38	265.54	21.69	-49.4	-51.1	15.6	6.06e-01	0	25	0	510656512	67	4407
2026-01-07 13:32:40.39	265.85	21.71	-49.4	-51.0	15.6	6.05e-01	0	25	0	512229376	67	4382
2026-01-07 13:32:41.40	266.16	21.73	-49.4	-51.0	15.6	6.05e-01	0	25	0	514326528	67	4389
2026-01-07 13:32:42.40	266.47	21.75	-49.4	-51.0	15.6	6.07e-01	0	25	0	515899392	67	4369
2026-01-07 13:32:43.41	266.78	21.78	-49.5	-51.2	15.6	6.07e-01	0	25	0	517996544	67	4467
2026-01-07 13:32:44.42	267.09	21.80	-49.4	-51.1	15.6	6.06e-01	0	25	0	520093696	67	4419
2026-01-07 13:32:45.43	267.40	21.82	-49.5	-51.2	15.6	6.05e-01	0	25	0	521666560	67	4443
2026-01-07 13:32:46.44	267.72	21.83	-49.4	-51.0	15.6	6.03e-01	0	25	0	523763712	67	4375
2026-01-07 13:32:47.44	268.03	21.85	-49.4	-51.1	15.6	6.05e-01	0	25	0	525336576	67	4406
2026-01-07 13:32:48.45	268.34	21.87	-49.5	-51.2	15.6	6.04e-01	0	25	0	527433728	67	4452
2026-01-07 13:32:49.46	268.65	21.89	-49.5	-51.1	15.6	6.04e-01	0	25	0	529530880	67	4426
2026-01-07 13:32:50.47	268.97	21.90	-49.5	-51.2	15.6	6.02e-01	0	25	0	531103744	67	4482
2026-01-07 13:32:51.47	269.28	21.92	-49.6	-51.2	15.6	6.04e-01	0	25	0	533200896	67	4485
2026-01-07 13:32:52.48	269.59	21.93	-49.5	-51.2	15.6	6.03e-01	0	25	0	535298048	67	4457
2026-01-07 13:32:53.49	269.91	21.94	-49.4	-51.1	15.6	6.03e-01	0	25	0	536870912	67	4401
2026-01-07 13:32:54.50	270.22	21.96	-49.4	-51.1	15.6	6.03e-01	0	25	0	538968064	67	4395
2026-01-07 13:32:55.51	270.54	21.97	-49.5	-51.1	15.6	6.03e-01	0	25	0	540540928	67	4432
2026-01-07 13:32:56.52	270.86	21.98	-49.6	-51.3	15.5	6.03e-01	0	25	0	542638080	67	4508
2026-01-07 13:32:57.52	271.17	21.99	-49.5	-51.2	15.6	6.03e-01	0	25	0	544735232	67	4469
2026-01-07 13:32:58.53	271.49	22.00	-49.5	-51.2	15.6	6.03e-01	0	25	0	546308096	67	4449
2026-01-07 13:32:59.54	271.80	22.00	-49.6	-51.3	15.5	6.03e-01	0	25	0	548405248	67	4506
2026-01-07 13:33:00.55	272.12	22.01	-49.6	-51.3	15.5	6.02e-01	0	25	0	549978112	67	4522
2026-01-07 13:33:01.56	272.43	22.02	-49.4	-51.1	15.6	6.02e-01	0	25	0	552075264	67	4401
2026-01-07 13:33:02.57	272.75	22.02	-49.5	-51.2	15.5	6.01e-01	0	25	0	553648128	67	4446
2026-01-07 13:33:03.57	273.07	22.03	-49.6	-51.3	15.5	6.03e-01	0	25	0	555745280	67	4537
2026-01-07 13:33:04.58	273.38	22.03	-49.6	-51.3	15.5	6.05e-01	0	25	0	557842432	67	4527
2026-01-07 13:33:05.59	273.70	22.03	-49.5	-51.1	15.6	6.04e-01	0	25	0	559415296	67	4420
2026-01-07 13:33:06.60	274.02	22.04	-49.4	-51.1	15.6	6.02e-01	0	25	0	561512448	67	4394
2026-01-07 13:33:07.60	274.33	22.04	-49.7	-51.4	15.5	6.01e-01	0	25	0	563609600	67	4550
2026-01-07 13:33:08.61	274.65	22.04	-49.6	-51.2	15.6	6.03e-01	0	25	0	565182464	67	4484
2026-01-07 13:33:09.62	274.96	22.04	-49.5	-51.2	15.6	6.04e-01	0	25	0	567279616	67	4451
2026-01-07 13:33:10.63	275.28	22.04	-49.4	-51.0	15.6	6.05e-01	0	25	0	568852480	67	4373
2026-01-07 13:33:11.64	275.60	22.03	-49.5	-51.1	15.6	6.05e-01	0	25	0	570949632	67	4425
2026-01-07 13:33:12.64	275.91	22.03	-49.5	-51.2	15.6	6.05e-01	0	25	0	573046784	67	4465
2026-01-07 13:33:13.65	276.23	22.03	-49.5	-51.2	15.6	6.01e-01	0	25	0	574619648	67	4448
2026-01-07 13:33:14.66	276.55	22.02	-49.4	-51.1	15.6	6.04e-01	0	25	0	576716800	67	4415
2026-01-07 13:33:15.67	276.86	22.02	-49.5	-51.2	15.6	6.02e-01	0	25	0	578289664	67	4471
2026-01-07 13:33:16.68	277.18	22.01	-49.5	-51.2	15.6	6.03e-01	0	25	0	580386816	67	4460
2026-01-07 13:33:17.69	277.49	22.00	-49.4	-51.1	15.6	6.04e-01	0	25	0	582483968	67	4405
2026-01-07 13:33:18.70	277.81	21.99	-49.4	-51.1	15.6	6.02e-01	0	25	0	584056832	67	4395
2026-01-07 13:33:19.71	278.13	21.99	-49.5	-51.1	15.6	6.04e-01	0	25	0	586153984	67	4439
2026-01-07 13:33:20.71	278.44	21.98	-49.4	-51.1	15.6	6.02e-01	0	25	0	587726848	67	4401
2026-01-07 13:33:21.72	278.76	21.97	-49.4	-51.1	15.6	6.02e-01	0	25	0	589824000	67	4411
2026-01-07 13:33:22.72	279.07	21.95	-49.5	-51.1	15.6	6.04e-01	0	25	0	591921152	67	4439
2026-01-07 13:33:23.73	279.38	21.94	-49.4	-51.1	15.6	6.04e-01	0	25	0	593494016	67	4405
2026-01-07 13:33:24.74	279.70	21.93	-49.4	-51.1	15.6	6.03e-01	0	25	0	595591168	67	4416
2026-01-07 13:33:25.75	280.01	21.91	-49.5	-51.2	15.6	6.04e-01	0	25	0	597164032	67	4449
2026-01-07 13:33:26.76	280.33	21.90	-49.4	-51.1	15.6	6.01e-01	0	25	0	599261184	67	4404
2026-01-07 13:33:27.77	280.64	21.88	-49.5	-51.2	15.6	6.04e-01	0	25	0	601358336	67	4460
2026-01-07 13:33:28.77	280.95	21.87	-49.5	-51.2	15.6	6.05e-01	0	25	0	602931200	67	4462
2026-01-07 13:33:29.78	281.26	21.85	-49.5	-51.2	15.6	6.01e-01	0	25	0	605028352	67	4460
2026-01-07 13:33:30.79	281.58	21.83	-49.5	-51.2	15.6	6.02e-01	0	25	0	606601216	67	4470
2026-01-07 13:33:31.80	281.89	21.81	-49.5	-51.1	15.6	6.01e-01	0	25	0	608698368	67	4441
2026-01-07 13:33:32.81	282.20	21.79	-49.4	-51.1	15.6	6.02e-01	0	25	0	610795520	67	4406
2026-01-07 13:33:33.81	282.51	21.77	-49.5	-51.2	15.6	6.06e-01	0	25	0	612368384	67	4457
2026-01-07 13:33:34.83	282.82	21.75	-49.5	-51.1	15.6	6.03e-01	0	25	0	614465536	67	4424
2026-01-07 13:33:35.83	283.13	21.73	-49.4	-51.1	15.6	6.04e-01	0	25	0	616562688	67	4406
2026-01-07 13:33:36.84	283.44	21.71	-49.3	-51.0	15.6	6.03e-01	0	25	0	618135552	67	4343
2026-01-07 13:33:37.84	283.75	21.68	-49.3	-51.0	15.6	6.03e-01	0	25	0	620232704	67	4352
2026-01-07 13:33:38.85	284.06	21.66	-49.4	-51.1	15.6	6.05e-01	0	25	0	621805568	67	4403
2026-01-07 13:33:39.86	284.37	21.63	-49.5	-51.2	15.6	6.02e-01	0	25	0	623902720	67	4445
2026-01-07 13:33:40.87	284.67	21.61	-49.5	-51.1	15.6	6.03e-01	0	25	0	625475584	67	4419
2026-01-07 13:33:41.88	284.98	21.58	-49.4	-51.0	15.6	6.04e-01	0	25	0	627572736	67	4379
2026-01-07 13:33:42.88	285.29	21.55	-49.4	-51.0	15.6	6.04e-01	0	25	0	629669888	67	4378
2026-01-07 13:33:43.88	285.59	21.53	-49.3	-51.0	15.6	6.03e-01	0	25	0	631242752	67	4353
2026-01-07 13:33:44.89	285.89	21.50	-49.4	-51.1	15.6	6.03e-01	0	25	0	633339904	67	4409
2026-01-07 13:33:45.90	286.20	21.47	-49.4	-51.0	15.6	6.03e-01	0	25	0	634912768	67	4370
2026-01-07 13:33:46.90	286.50	21.44	-49.4	-51.1	15.6	6.04e-01	0	25	0	637009920	67	4403
2026-01-07 13:33:47.90	286.80	21.41	-49.5	-51.1	15.6	6.05e-01	0	25	0	639107072	67	4435
2026-01-07 13:33:48.91	287.11	21.37	-49.4	-51.1	15.6	6.06e-01	0	25	0	640679936	67	4403
2026-01-07 13:33:49.92	287.41	21.34	-49.6	-51.2	15.5	6.01e-01	0	25	0	642777088	67	4493
2026-01-07 13:33:50.92	287.71	21.31	-49.5	-51.1	15.6	6.04e-01	0	25	0	644874240	67	4417
2026-01-07 13:33:51.93	288.01	21.27	-49.4	-51.0	15.6	6.01e-01	0	25	0	646447104	67	4352
2026-01-07 13:33:52.93	288.31	21.24	-49.3	-50.9	15.6	6.04e-01	0	25	0	648544256	67	4330
2026-01-07 13:33:53.94	288.61	21.20	-49.5	-51.2	15.5	6.03e-01	0	25	0	650117120	67	4470
2026-01-07 13:33:54.95	288.91	21.17	-49.5	-51.1	15.5	6.04e-01	0	25	0	652214272	67	4428
2026-01-07 13:33:55.95	289.20	21.13	-49.3	-51.0	15.6	6.01e-01	0	25	0	653787136	67	4348
2026-01-07 13:33:56.96	289.50	21.09	-49.5	-51.1	15.6	6.03e-01	0	25	0	655884288	67	4429
2026-01-07 13:33:57.97	289.80	21.05	-49.4	-51.0	15.6	6.04e-01	0	25	0	657981440	67	4375
2026-01-07 13:33:58.97	290.09	21.02	-49.3	-51.0	15.6	6.03e-01	0	25	0	659554304	67	4351
2026-01-07 13:33:59.98	290.38	20.98	-49.5	-51.1	15.6	6.02e-01	0	25	0	661651456	67	4419
2026-01-07 13:34:00.99	290.68	20.94	-49.4	-51.0	15.6	6.03e-01	0	25	0	663748608	67	4370
2026-01-07 13:34:01.99	290.97	20.89	-49.3	-51.0	15.6	6.03e-01	0	25	0	665321472	67	4350
2026-01-07 13:34:03.00	291.26	20.85	-49.5	-51.1	15.6	6.05e-01	0	25	0	667418624	67	4435
2026-01-07 13:34:04.01	291.56	20.81	-49.4	-51.1	15.6	6.05e-01	0	25	0	668991488	67	4412
2026-01-07 13:34:05.02	291.85	20.77	-49.5	-51.1	15.6	6.04e-01	0	25	0	671088640	67	4438
2026-01-07 13:34:06.02	292.13	20.72	-49.4	-51.0	15.6	6.00e-01	0	25	0	673185792	67	4373
2026-01-07 13:34:07.03	292.42	20.68	-49.3	-50.9	15.7	6.01e-01	0	25	0	674758656	67	4304
2026-01-07 13:34:08.03	292.71	20.64	-49.4	-51.1	15.6	6.04e-01	0	25	0	676855808	67	4393
2026-01-07 13:34:09.04	293.00	20.59	-49.3	-50.9	15.6	6.04e-01	0	25	0	678428672	67	4336
2026-01-07 13:34:10.05	293.29	20.54	-49.3	-50.9	15.6	6.07e-01	0	25	0	680525824	67	4325
2026-01-07 13:34:11.06	293.57	20.50	-49.3	-50.9	15.6	6.02e-01	0	25	0	682098688	67	4339
2026-01-07 13:34:12.07	293.86	20.45	-49.3	-50.9	15.6	6.02e-01	0	25	0	684195840	67	4312
2026-01-07 13:34:13.08	294.14	20.40	-49.3	-50.9	15.6	6.01e-01	0	25	0	686292992	67	4330
2026-01-07 13:34:14.09	294.42	20.36	-49.3	-51.0	15.6	6.02e-01	0	25	0	687865856	67	4343
2026-01-07 13:34:15.09	294.70	20.31	-49.3	-50.9	15.7	6.03e-01	0	25	0	689963008	67	4297
2026-01-07 13:34:16.10	294.99	20.26	-49.3	-50.9	15.6	6.03e-01	0	25	0	691535872	67	4312
2026-01-07 13:34:17.11	295.27	20.21	-49.4	-51.0	15.6	6.04e-01	0	25	0	693633024	67	4361
2026-01-07 13:34:18.12	295.55	20.16	-49.4	-51.0	15.6	6.05e-01	0	25	0	695730176	67	4368
2026-01-07 13:34:19.12	295.82	20.11	-49.4	-51.0	15.6	6.03e-01	0	25	0	697303040	67	4369
2026-01-07 13:34:20.13	296.10	20.06	-49.3	-50.9	15.6	6.02e-01	0	25	0	699400192	67	4337
2026-01-07 13:34:21.14	296.38	20.00	-49.3	-51.0	15.6	6.06e-01	0	25	0	701497344	67	4349
2026-01-07 13:34:22.15	296.65	19.95	-49.4	-51.0	15.6	6.02e-01	0	25	0	703070208	67	4366
2026-01-07 13:34:23.16	296.93	19.90	-49.3	-50.9	15.6	6.04e-01	0	25	0	705167360	67	4324
2026-01-07 13:34:24.16	297.20	19.84	-49.3	-50.9	15.7	6.04e-01	0	25	0	706740224	67	4305
2026-01-07 13:34:25.17	297.47	19.79	-49.3	-50.9	15.6	6.03e-01	0	25	0	708837376	67	4318
2026-01-07 13:34:26.18	297.74	19.74	-49.3	-50.9	15.7	6.05e-01	0	25	0	710934528	67	4303
2026-01-07 13:34:27.18	298.01	19.68	-49.3	-51.0	15.6	6.03e-01	0	25	0	712507392	67	4357
2026-01-07 13:34:28.18	298.28	19.63	-49.3	-51.0	15.6	6.03e-01	0	25	0	714604544	67	4344
2026-01-07 13:34:29.19	298.55	19.57	-49.2	-50.8	15.6	6.04e-01	0	25	0	716177408	67	4290
2026-01-07 13:34:30.20	298.81	19.51	-49.2	-50.8	15.7	6.02e-01	0	25	0	718274560	67	4263
2026-01-07 13:34:31.21	299.08	19.46	-49.2	-50.8	15.7	6.05e-01	0	25	0	720371712	67	4268
2026-01-07 13:34:32.21	299.34	19.40	-49.2	-50.9	15.7	6.04e-01	0	25	0	721944576	67	4300
2026-01-07 13:34:33.22	299.61	19.34	-49.2	-50.8	15.7	6.03e-01	0	25	0	724041728	67	4278
2026-01-07 13:34:34.23	299.87	19.28	-49.2	-50.8	15.7	6.02e-01	0	25	0	725614592	67	4245
2026-01-07 13:34:35.24	300.14	19.23	-49.3	-50.9	15.7	6.03e-01	0	25	0	727711744	67	4305
2026-01-07 13:34:36.25	300.40	19.17	-49.1	-50.7	15.7	6.05e-01	0	25	0	729808896	67	4229
2026-01-07 13:34:37.25	300.65	19.11	-49.1	-50.7	15.7	6.02e-01	0	25	0	731381760	67	4217
2026-01-07 13:34:38.26	300.91	19.05	-49.2	-50.8	15.7	6.03e-01	0	25	0	733478912	67	4279
2026-01-07 13:34:39.27	301.17	18.99	-49.2	-50.8	15.7	6.05e-01	0	25	0	735051776	67	4261
2026-01-07 13:34:40.28	301.43	18.93	-49.2	-50.8	15.7	6.03e-01	0	25	0	737148928	67	4278
2026-01-07 13:34:41.29	301.69	18.87	-49.1	-50.7	15.7	6.02e-01	0	25	0	739246080	67	4236
2026-01-07 13:34:42.29	301.94	18.81	-49.1	-50.7	15.7	6.02e-01	0	25	0	740818944	67	4225
2026-01-07 13:34:43.30	302.19	18.75	-49.2	-50.8	15.7	6.04e-01	0	25	0	742916096	67	4248
2026-01-07 13:34:44.31	302.45	18.68	-49.1	-50.7	15.7	6.03e-01	0	25	0	744488960	67	4230
2026-01-07 13:34:45.31	302.70	18.62	-49.1	-50.7	15.7	6.05e-01	0	25	0	746586112	67	4210
2026-01-07 13:34:46.32	302.95	18.56	-49.2	-50.8	15.7	6.02e-01	0	25	0	748683264	67	4268
2026-01-07 13:34:47.33	303.20	18.50	-49.2	-50.9	15.7	6.01e-01	0	25	0	750256128	67	4301
2026-01-07 13:34:48.33	303.44	18.43	-49.3	-50.9	15.7	6.02e-01	0	25	0	752353280	67	4331
2026-01-07 13:34:49.34	303.69	18.37	-49.3	-50.9	15.6	6.02e-01	0	25	0	753926144	67	4330
2026-01-07 13:34:50.35	303.94	18.31	-49.2	-50.8	15.7	6.02e-01	0	25	0	756023296	67	4268
2026-01-07 13:34:51.36	304.18	18.24	-49.0	-50.6	15.7	6.04e-01	0	25	0	758120448	67	4174
2026-01-07 13:34:52.36	304.43	18.18	-48.9	-50.5	15.8	6.03e-01	0	25	0	759693312	67	4115
2026-01-07 13:34:53.37	304.67	18.11	-49.0	-50.6	15.8	6.05e-01	0	25	0	761790464	67	4152
2026-01-07 13:34:54.37	304.91	18.05	-49.0	-50.5	15.8	6.03e-01	0	25	0	763363328	67	4142
2026-01-07 13:34:55.38	305.15	17.98	-49.0	-50.6	15.8	6.05e-01	0	25	0	765460480	67	4153
2026-01-07 13:34:56.39	305.39	17.92	-49.1	-50.7	15.7	6.05e-01	0	25	0	767557632	67	4237
2026-01-07 13:34:57.40	305.63	17.85	-49.1	-50.8	15.7	6.03e-01	0	25	0	769130496	67	4243
2026-01-07 13:34:58.41	305.87	17.79	-49.0	-50.6	15.8	6.03e-01	0	25	0	771227648	67	4162
2026-01-07 13:34:59.42	306.10	17.72	-49.1	-50.7	15.7	6.04e-01	0	25	0	772800512	67	4196
2026-01-07 13:35:00.43	306.34	17.65	-49.1	-50.7	15.7	6.03e-01	0	25	0	774897664	67	4236
2026-01-07 13:35:01.43	306.57	17.59	-49.0	-50.6	15.7	6.02e-01	0	25	0	776994816	67	4156
2026-01-07 13:35:02.43	306.80	17.52	-49.1	-50.6	15.7	6.04e-01	0	25	0	778567680	67	4192
2026-01-07 13:35:03.44	307.04	17.45	-49.0	-50.5	15.7	6.03e-01	0	25	0	780664832	67	4138
2026-01-07 13:35:04.45	307.27	17.38	-48.9	-50.5	15.8	6.03e-01	0	25	0	782237696	67	4126
2026-01-07 13:35:05.46	307.50	17.32	-49.0	-50.6	15.8	6.04e-01	0	25	0	784334848	67	4148
2026-01-07 13:35:06.47	307.73	17.25	-49.0	-50.6	15.8	6.05e-01	0	25	0	786432000	67	4158
2026-01-07 13:35:07.47	307.95	17.18	-49.0	-50.6	15.7	6.04e-01	0	25	0	788004864	67	4192
2026-01-07 13:35:08.48	308.18	17.11	-49.0	-50.6	15.7	6.00e-01	0	25	0	790102016	67	4189
2026-01-07 13:35:09.48	308.41	17.05	-49.0	-50.6	15.7	6.04e-01	0	25	0	791674880	67	4184
2026-01-07 13:35:10.49	308.63	16.98	-49.0	-50.6	15.7	6.04e-01	0	25	0	793772032	67	4159
2026-01-07 13:35:11.50	308.86	16.91	-49.0	-50.6	15.8	6.04e-01	0	25	0	795869184	67	4177
2026-01-07 13:35:12.51	309.08	16.84	-49.1	-50.7	15.7	6.03e-01	0	25	0	797442048	67	4199
2026-01-07 13:35:13.52	309.30	16.77	-49.0	-50.6	15.8	6.02e-01	0	25	0	799539200	67	4156
2026-01-07 13:35:14.53	309.52	16.70	-49.0	-50.6	15.7	6.04e-01	0	25	0	801636352	67	4171
2026-01-07 13:35:15.54	309.74	16.63	-49.0	-50.6	15.7	6.04e-01	0	25	0	803209216	67	4177
2026-01-07 13:35:16.55	309.96	16.56	-49.0	-50.6	15.7	6.03e-01	0	25	0	805306368	67	4188
2026-01-07 13:35:17.55	310.18	16.49	-49.1	-50.7	15.7	6.04e-01	0	25	0	806879232	67	4199
2026-01-07 13:35:18.56	310.39	16.42	-49.0	-50.6	15.7	6.01e-01	0	25	0	808976384	67	4179
2026-01-07 13:35:19.57	310.61	16.35	-49.1	-50.7	15.7	6.05e-01	0	25	0	811073536	67	4208
2026-01-07 13:35:20.58	310.82	16.28	-49.0	-50.6	15.7	6.02e-01	0	25	0	812646400	67	4180
2026-01-07 13:35:21.59	311.04	16.21	-49.0	-50.6	15.8	6.04e-01	0	25	0	814743552	67	4156
2026-01-07 13:35:22.60	311.25	16.14	-49.0	-50.6	15.7	6.05e-01	0	25	0	816316416	67	4192
2026-01-07 13:35:23.60	311.46	16.07	-49.0	-50.6	15.7	6.03e-01	0	25	0	818413568	67	4185
2026-01-07 13:35:24.61	311.67	16.00	-49.0	-50.6	15.7	6.02e-01	0	25	0	819986432	67	4165
2026-01-07 13:35:25.62	311.88	15.93	-49.0	-50.7	15.7	6.03e-01	0	25	0	822083584	67	4195
2026-01-07 13:35:26.62	312.08	15.86	-48.9	-50.5	15.8	6.03e-01	0	25	0	824180736	67	4130
2026-01-07 13:35:27.63	312.29	15.78	-48.9	-50.5	15.8	6.04e-01	0	25	0	825753600	67	4138
2026-01-07 13:35:28.64	312.50	15.71	-49.1	-50.7	15.7	6.04e-01	0	25	0	827850752	67	4210
2026-01-07 13:35:29.64	312.70	15.64	-49.0	-50.6	15.7	6.03e-01	0	25	0	829947904	67	4176
2026-01-07 13:35:30.65	312.91	15.57	-49.0	-50.6	15.7	6.04e-01	0	25	0	831520768	67	4185
2026-01-07 13:35:31.65	313.11	15.50	-49.1	-50.7	15.7	6.03e-01	0	25	0	833617920	67	4203
2026-01-07 13:35:32.66	313.31	15.43	-49.0	-50.6	15.7	6.05e-01	0	25	0	835190784	67	4167
2026-01-07 13:35:33.67	313.51	15.36	-49.0	-50.6	15.7	6.01e-01	0	25	0	837287936	67	4184
2026-01-07 13:35:34.67	313.71	15.28	-49.0	-50.6	15.7	6.04e-01	0	25	0	839385088	67	4173
2026-01-07 13:35:35.68	313.91	15.21	-49.0	-50.6	15.7	6.04e-01	0	25	0	840957952	67	4165
2026-01-07 13:35:36.69	314.11	15.14	-49.0	-50.7	15.7	6.01e-01	0	25	0	843055104	67	4205
2026-01-07 13:35:37.70	314.30	15.07	-48.8	-50.4	15.7	6.03e-01	0	25	0	844627968	66	4328
2026-01-07 13:35:38.70	314.50	15.00	-48.9	-50.6	15.6	6.04e-01	0	25	0	846725120	66	4393
2026-01-07 13:35:39.71	314.69	14.93	-48.9	-50.5	15.6	6.03e-01	0	25	0	848297984	66	4384
2026-01-07 13:35:40.72	314.89	14.85	-48.9	-50.6	15.6	6.03e-01	0	25	0	850395136	66	4397
2026-01-07 13:35:41.72	315.08	14.78	-49.0	-50.7	15.5	6.02e-01	0	25	0	852492288	66	4451
2026-01-07 13:35:42.73	315.27	14.71	-49.1	-50.7	15.5	6.01e-01	0	25	0	854065152	66	4466
2026-01-07 13:35:43.73	315.46	14.64	-49.1	-50.7	15.5	6.03e-01	0	25	0	856162304	66	4487
2026-01-07 13:35:44.74	315.65	14.56	-49.0	-50.7	15.5	6.06e-01	0	25	0	858259456	66	4451
2026-01-07 13:35:45.75	315.84	14.49	-49.0	-50.6	15.6	6.03e-01	0	25	0	859832320	66	4424
2026-01-07 13:35:46.76	316.03	14.42	-49.0	-50.6	15.6	6.03e-01	0	25	0	861929472	66	4439
2026-01-07 13:35:47.76	316.21	14.35	-49.0	-50.7	15.6	6.01e-01	0	25	0	863502336	66	4453
2026-01-07 13:35:48.77	316.40	14.28	-49.1	-50.8	15.5	6.05e-01	0	25	0	865599488	66	4509
2026-01-07 13:35:49.78	316.59	14.20	-49.1	-50.7	15.5	6.04e-01	0	25	0	867696640	66	4467
2026-01-07 13:35:50.79	316.77	14.13	-49.1	-50.7	15.5	6.02e-01	0	25	0	869269504	66	4466
2026-01-07 13:35:51.79	316.95	14.06	-49.1	-50.7	15.6	6.05e-01	0	25	0	871366656	66	4467
2026-01-07 13:35:52.80	317.14	13.99	-49.0	-50.7	15.6	6.02e-01	0	25	0	872939520	66	4447
2026-01-07 13:35:53.81	317.32	13.91	-49.1	-50.7	15.5	6.04e-01	0	25	0	875036672	66	4481
2026-01-07 13:35:54.82	317.50	13.84	-48.9	-50.6	15.6	6.03e-01	0	25	0	876609536	66	4394
2026-01-07 13:35:55.83	317.68	13.77	-49.0	-50.7	15.5	6.01e-01	0	25	0	878706688	66	4452
2026-01-07 13:35:56.83	317.86	13.70	-49.0	-50.7	15.6	6.04e-01	0	25	0	880803840	66	4453
2026-01-07 13:35:57.84	318.04	13.62	-49.1	-50.7	15.6	6.06e-01	0	25	0	882376704	66	4477
2026-01-07 13:35:58.85	318.21	13.55	-49.1	-50.7	15.5	6.04e-01	0	25	0	884473856	66	4489
2026-01-07 13:35:59.86	318.39	13.48	-49.0	-50.7	15.5	6.03e-01	0	25	0	886571008	66	4458
2026-01-07 13:36:00.87	318.56	13.40	-49.1	-50.8	15.5	6.03e-01	0	25	0	888143872	66	4503
2026-01-07 13:36:01.87	318.74	13.33	-49.1	-50.7	15.5	6.02e-01	0	25	0	890241024	66	4490
2026-01-07 13:36:02.88	318.91	13.26	-49.0	-50.7	15.6	6.03e-01	0	25	0	891813888	66	4452
2026-01-07 13:36:03.88	319.08	13.19	-49.1	-50.7	15.5	6.01e-01	0	25	0	893911040	66	4471
2026-01-07 13:36:04.89	319.25	13.12	-49.1	-50.7	15.6	6.02e-01	0	25	0	896008192	66	4480
2026-01-07 13:36:05.90	319.43	13.04	-49.0	-50.7	15.5	6.03e-01	0	25	0	897581056	66	4470
2026-01-07 13:36:06.91	319.60	12.97	-49.2	-50.8	15.5	6.04e-01	0	25	0	899678208	66	4528
2026-01-07 13:36:07.92	319.77	12.90	-49.1	-50.8	15.5	6.04e-01	0	25	0	901251072	66	4521
2026-01-07 13:36:08.92	319.93	12.83	-49.1	-50.8	15.5	6.03e-01	0	25	0	903348224	66	4521
2026-01-07 13:36:09.93	320.10	12.75	-49.2	-50.8	15.5	6.06e-01	0	25	0	905445376	66	4537
2026-01-07 13:36:10.94	320.27	12.68	-49.1	-50.8	15.5	6.03e-01	0	25	0	907018240	66	4508
2026-01-07 13:36:11.95	320.43	12.61	-49.2	-50.9	15.5	6.04e-01	0	25	0	909115392	66	4582
2026-01-07 13:36:12.95	320.60	12.54	-49.3	-51.0	15.5	6.04e-01	0	25	0	910688256	66	4622
2026-01-07 13:36:13.95	320.76	12.47	-49.3	-51.0	15.5	6.02e-01	0	25	0	912785408	66	4607
2026-01-07 13:36:14.96	320.92	12.39	-49.2	-50.9	15.5	6.04e-01	0	25	0	914882560	66	4576
2026-01-07 13:36:15.97	321.08	12.32	-49.3	-50.9	15.5	6.02e-01	0	25	0	916455424	66	4593
2026-01-07 13:36:16.97	321.25	12.25	-49.2	-50.9	15.5	6.03e-01	0	25	0	918552576	66	4595
2026-01-07 13:36:17.98	321.41	12.18	-49.2	-50.9	15.5	6.04e-01	0	25	0	920125440	66	4562
2026-01-07 13:36:18.99	321.57	12.11	-49.3	-51.0	15.5	6.04e-01	0	25	0	922222592	66	4603
2026-01-07 13:36:19.99	321.72	12.03	-49.3	-51.0	15.5	6.02e-01	0	25	0	924319744	66	4601
2026-01-07 13:36:21.00	321.88	11.96	-49.2	-50.9	15.5	6.05e-01	0	25	0	925892608	66	4578
2026-01-07 13:36:22.00	322.04	11.89	-49.2	-50.9	15.5	6.06e-01	0	25	0	927989760	66	4591
2026-01-07 13:36:23.01	322.20	11.82	-49.2	-50.9	15.5	6.05e-01	0	25	0	929562624	66	4580
2026-01-07 13:36:24.01	322.35	11.75	-49.2	-50.9	15.5	6.01e-01	0	25	0	931659776	66	4554
2026-01-07 13:36:25.02	322.51	11.68	-49.2	-50.9	15.5	6.04e-01	0	25	0	933232640	66	4557
2026-01-07 13:36:26.03	322.66	11.60	-49.3	-51.0	15.5	6.02e-01	0	25	0	935329792	66	4607
2026-01-07 13:36:27.04	322.81	11.53	-49.3	-51.0	15.5	6.03e-01	0	25	0	937426944	66	4615
2026-01-07 13:36:28.05	322.97	11.46	-49.3	-51.0	15.5	6.03e-01	0	25	0	938999808	66	4621
2026-01-07 13:36:29.05	323.12	11.39	-49.3	-51.1	15.4	6.05e-01	0	25	0	941096960	66	4655
2026-01-07 13:36:30.06	323.27	11.32	-49.3	-51.0	15.5	6.02e-01	0	25	0	943194112	66	4604
2026-01-07 13:36:31.07	323.42	11.25	-49.3	-51.0	15.5	6.03e-01	0	25	0	944766976	66	4643
2026-01-07 13:36:32.07	323.57	11.18	-49.4	-51.2	15.4	6.05e-01	0	25	0	946864128	66	4713
2026-01-07 13:36:33.08	323.72	11.11	-49.3	-51.0	15.5	6.04e-01	0	25	0	948436992	66	4612
2026-01-07 13:36:34.08	323.86	11.04	-49.4	-51.1	15.4	6.04e-01	0	25	0	950534144	66	4679
2026-01-07 13:36:35.08	324.01	10.96	-49.4	-51.1	15.4	6.03e-01	0	25	0	952631296	66	4690
2026-01-07 13:36:36.09	324.16	10.89	-49.4	-51.1	15.4	6.02e-01	0	25	0	954204160	66	4684
2026-01-07 13:36:37.10	324.30	10.82	-49.3	-51.1	15.4	6.03e-01	0	25	0	956301312	66	4655
2026-01-07 13:36:38.10	324.45	10.75	-49.3	-51.0	15.4	6.04e-01	0	25	0	957874176	66	4635
2026-01-07 13:36:39.10	324.59	10.68	-49.3	-51.0	15.5	6.03e-01	0	25	0	959971328	66	4611
2026-01-07 13:36:40.11	324.74	10.61	-49.2	-50.9	15.5	6.03e-01	0	25	0	961544192	66	4567
2026-01-07 13:36:41.12	324.88	10.54	-49.3	-51.0	15.4	6.03e-01	0	25	0	963641344	66	4636
2026-01-07 13:36:42.13	325.02	10.47	-49.4	-51.1	15.4	6.04e-01	0	25	0	965738496	66	4687
2026-01-07 13:36:43.13	325.16	10.40	-49.5	-51.2	15.4	6.05e-01	0	25	0	967311360	66	4754
2026-01-07 13:36:44.14	325.30	10.33	-49.5	-51.3	15.4	6.05e-01	0	25	0	969408512	66	4767
2026-01-07 13:36:45.14	325.44	10.26	-49.5	-51.3	15.4	6.02e-01	0	25	0	971505664	66	4760
2026-01-07 13:36:46.14	325.58	10.19	-49.6	-51.4	15.3	6.04e-01	0	25	0	973078528	66	4816
2026-01-07 13:36:47.15	325.72	10.12	-49.5	-51.3	15.4	6.04e-01	0	25	0	975175680	66	4787
2026-01-07 13:36:48.15	325.86	10.05	-49.5	-51.3	15.4	6.03e-01	0	25	0	976748544	66	4792
2026-01-07 13:36:49.16	325.99	9.98	-49.6	-51.4	15.3	6.02e-01	0	25	0	978845696	67	4580
2026-01-07 13:36:50.17	326.13	9.91	-49.6	-51.4	15.5	6.05e-01	0	25	0	980418560	67	4559
2026-01-07 13:36:51.18	326.27	9.84	-49.6	-51.3	15.5	6.03e-01	0	25	0	982515712	67	4545
2026-01-07 13:36:52.18	326.40	9.77	-49.7	-51.5	15.4	6.03e-01	0	25	0	984612864	67	4651
2026-01-07 13:36:53.19	326.54	9.70	-49.7	-51.6	15.4	6.02e-01	0	25	0	986185728	67	4656
2026-01-07 13:36:54.20	326.67	9.63	-49.7	-51.6	15.4	6.00e-01	0	25	0	988282880	67	4652
2026-01-07 13:36:55.21	326.80	9.56	-49.7	-51.5	15.4	6.04e-01	0	25	0	989855744	67	4618
2026-01-07 13:36:56.21	326.94	9.50	-49.6	-51.4	15.5	6.05e-01	0	25	0	991952896	67	4576
2026-01-07 13:36:57.22	327.07	9.43	-49.7	-51.5	15.5	6.02e-01	0	25	0	994050048	67	4610
2026-01-07 13:36:58.23	327.20	9.36	-49.6	-51.4	15.4	6.04e-01	0	25	0	995622912	67	4592
2026-01-07 13:36:59.24	327.33	9.29	-49.8	-51.6	15.4	6.03e-01	0	25	0	997720064	67	4669
2026-01-07 13:37:00.24	327.46	9.22	-49.7	-51.5	15.4	6.03e-01	0	25	0	999817216	67	4645
2026-01-07 13:37:01.25	327.59	9.15	-49.8	-51.7	15.4	6.05e-01	0	25	0	1001390080	67	4710
2026-01-07 13:37:02.25	327.72	9.08	-49.9	-51.8	15.3	6.02e-01	0	25	0	1003487232	67	4774
2026-01-07 13:37:03.26	327.85	9.01	-49.9	-51.8	15.3	6.04e-01	0	25	0	1005060096	67	4770
2026-01-07 13:37:04.27	327.97	8.94	-49.8	-51.7	15.4	6.03e-01	0	25	0	1007157248	67	4712
2026-01-07 13:37:05.28	328.10	8.88	-49.9	-51.8	15.3	6.02e-01	0	25	0	1009254400	67	4784
2026-01-07 13:37:06.29	328.23	8.81	-49.8	-51.7	15.3	6.04e-01	0	25	0	1010827264	67	4720
2026-01-07 13:37:07.29	328.35	8.74	-49.8	-51.6	15.4	6.03e-01	0	25	0	1012924416	67	4667
2026-01-07 13:37:08.29	328.48	8.67	-49.7	-51.4	15.4	6.03e-01	0	25	0	1014497280	67	4594
2026-01-07 13:37:09.30	328.60	8.60	-49.7	-51.5	15.4	6.04e-01	0	25	0	1016594432	67	4619
2026-01-07 13:37:10.31	328.73	8.54	-49.8	-51.6	15.4	6.06e-01	0	25	0	1018167296	67	4655
2026-01-07 13:37:11.32	328.85	8.47	-49.8	-51.6	15.4	6.04e-01	0	25	0	1020264448	67	4691
2026-01-07 13:37:12.33	328.97	8.40	-49.8	-51.6	15.4	6.04e-01	0	25	0	1022361600	67	4681
2026-01-07 13:37:13.33	329.09	8.33	-49.8	-51.6	15.4	6.03e-01	0	25	0	1023934464	67	4680
2026-01-07 13:37:14.34	329.22	8.27	-49.9	-51.7	15.4	6.01e-01	0	25	0	1026031616	67	4744
2026-01-07 13:37:15.35	329.34	8.20	-49.8	-51.7	15.3	6.02e-01	0	25	0	1028128768	67	4735
2026-01-07 13:37:16.36	329.46	8.13	-49.9	-51.8	15.3	6.03e-01	0	25	0	1029701632	67	4790
2026-01-07 13:37:17.37	329.58	8.06	-49.9	-51.7	15.3	6.04e-01	0	25	0	1031798784	67	4751
2026-01-07 13:37:18.38	329.70	8.00	-49.9	-51.8	15.3	6.02e-01	0	25	0	1033371648	67	4792
2026-01-07 13:37:19.38	329.82	7.93	-49.9	-51.8	15.3	6.03e-01	0	25	0	1035468800	67	4806
2026-01-07 13:37:20.39	329.93	7.86	-50.1	-52.0	15.3	6.03e-01	0	25	0	1037565952	67	4902
2026-01-07 13:37:21.40	330.05	7.80	-50.1	-52.0	15.3	6.04e-01	0	25	0	1039138816	67	4887
2026-01-07 13:37:22.41	330.17	7.73	-50.1	-52.0	15.4	6.02e-01	0	25	0	1041235968	68	4610
2026-01-07 13:37:23.41	330.28	7.66	-50.1	-52.0	15.4	6.03e-01	0	25	0	1042808832	68	4646
2026-01-07 13:37:24.42	330.40	7.60	-50.1	-52.0	15.4	6.03e-01	0	25	0	1044905984	68	4648
2026-01-07 13:37:25.43	330.52	7.53	-50.2	-52.1	15.4	6.01e-01	0	25	0	1047003136	68	4686
2026-01-07 13:37:26.44	330.63	7.46	-50.3	-52.3	15.3	6.02e-01	0	25	0	1048576000	68	4787
2026-01-07 13:37:27.44	330.74	7.40	-50.2	-52.2	15.3	6.03e-01	0	25	0	1050673152	68	4715
2026-01-07 13:37:28.45	330.86	7.33	-50.3	-52.2	15.3	6.02e-01	0	25	0	1052246016	68	4746
2026-01-07 13:37:29.46	330.97	7.27	-50.3	-52.2	15.3	6.02e-01	0	25	0	1054343168	68	4755
2026-01-07 13:37:30.47	331.09	7.20	-50.4	-52.3	15.3	6.04e-01	0	25	0	1056440320	68	4802
2026-01-07 13:37:31.47	331.20	7.13	-50.4	-52.4	15.3	6.01e-01	0	25	0	1058013184	68	4857
2026-01-07 13:37:32.48	331.31	7.07	-50.4	-52.4	15.2	6.04e-01	0	25	0	1060110336	68	4832
2026-01-07 13:37:33.49	331.42	7.00	-50.3	-52.3	15.3	6.04e-01	0	25	0	1061683200	68	4764
2026-01-07 13:37:34.50	331.53	6.94	-50.3	-52.3	15.3	6.02e-01	0	25	0	1063780352	68	4788
2026-01-07 13:37:35.51	331.64	6.87	-50.3	-52.3	15.3	6.01e-01	0	25	0	1065877504	68	4761
2026-01-07 13:37:36.51	331.75	6.81	-50.3	-52.3	15.3	6.02e-01	0	25	0	1067450368	68	4778
2026-01-07 13:37:37.52	331.86	6.74	-50.4	-52.4	15.3	6.03e-01	0	25	0	1069547520	68	4821
2026-01-07 13:37:38.52	331.97	6.68	-50.4	-52.4	15.2	6.05e-01	0	25	0	1071120384	68	4838
2026-01-07 13:37:39.53	332.07	6.61	-50.3	-52.3	15.3	6.03e-01	0	25	0	1073217536	68	4788
2026-01-07 13:37:40.53	332.18	6.55	-50.3	-52.3	15.3	6.03e-01	0	25	0	1075314688	68	4807
2026-01-07 13:37:41.54	332.29	6.48	-50.2	-52.1	15.3	6.02e-01	0	25	0	1076887552	68	4698
2026-01-07 13:37:42.55	332.40	6.42	-50.2	-52.2	15.3	6.01e-01	0	25	0	1078984704	68	4714
2026-01-07 13:37:43.56	332.50	6.35	-50.3	-52.3	15.3	6.03e-01	0	25	0	1080557568	68	4785
2026-01-07 13:37:44.57	332.61	6.29	-50.4	-52.4	15.2	6.03e-01	0	25	0	1082654720	68	4843
2026-01-07 13:37:45.58	332.71	6.22	-50.3	-52.3	15.3	6.02e-01	0	25	0	1084751872	68	4799
2026-01-07 13:37:46.59	332.82	6.16	-50.5	-52.6	15.2	6.03e-01	0	25	0	1086324736	68	4943
2026-01-07 13:37:47.61	332.92	6.10	-50.5	-52.5	15.2	6.02e-01	0	25	0	1088421888	68	4880
2026-01-07 13:37:48.61	333.03	6.03	-50.4	-52.4	15.4	6.03e-01	0	25	0	1089994752	69	4598
2026-01-07 13:37:49.62	333.13	5.97	-50.5	-52.5	15.4	6.05e-01	0	25	0	1092091904	69	4647
2026-01-07 13:37:50.63	333.23	5.90	-50.6	-52.7	15.3	6.02e-01	0	25	0	1094189056	69	4714
2026-01-07 13:37:51.64	333.33	5.84	-50.6	-52.6	15.3	6.04e-01	0	25	0	1095761920	69	4689
2026-01-07 13:37:52.64	333.44	5.78	-50.6	-52.7	15.3	6.03e-01	0	25	0	1097859072	69	4721
2026-01-07 13:37:53.65	333.54	5.71	-50.7	-52.8	15.2	6.02e-01	0	25	0	1099956224	69	4787
2026-01-07 13:37:54.65	333.64	5.65	-50.6	-52.6	15.3	6.02e-01	0	25	0	1101529088	69	4704
2026-01-07 13:37:55.66	333.74	5.59	-50.5	-52.5	15.4	6.03e-01	0	25	0	1103626240	69	4639
2026-01-07 13:37:56.67	333.84	5.52	-50.6	-52.7	15.3	6.05e-01	0	25	0	1105199104	69	4706
2026-01-07 13:37:57.68	333.94	5.46	-50.8	-52.9	15.2	6.03e-01	0	25	0	1107296256	69	4852
2026-01-07 13:37:58.69	334.04	5.40	-50.7	-52.8	15.2	6.03e-01	0	25	0	1109393408	69	4787
2026-01-07 13:37:59.70	334.14	5.33	-50.8	-53.0	15.2	6.04e-01	0	25	0	1110966272	69	4906
2026-01-07 13:38:00.70	334.23	5.27	-50.9	-53.2	15.1	6.04e-01	0	25	0	1113063424	69	5009
2026-01-07 13:38:01.71	334.33	5.21	-50.3	-52.5	15.4	6.07e-01	0	25	0	1114636288	69	4608
2026-01-07 13:38:02.72	334.43	5.15	-50.7	-53.0	15.2	6.02e-01	0	25	0	1116733440	69	4876
2026-01-07 13:38:03.73	334.53	5.08	-51.2	-53.7	15.0	6.04e-01	0	25	0	1118830592	70	4994
2026-01-07 13:38:04.73	334.62	5.02	-51.4	-54.0	15.0	6.03e-01	0	25	0	1120403456	71	4875
2026-01-07 13:38:05.74	334.72	4.96	-56.2	-63.4	11.1	6.08e-01	0	25	0	1122500608	80	8598
2026-01-07 13:38:06.75	334.81	4.90	-58.0	-77.0	3.8	7.47e-01	0	25	104	1123024896	83	34787
2026-01-07 13:38:07.76	334.91	4.84	-58.4	-77.4	3.8	7.48e-01	0	25	104	1123024896	84	34429
2026-01-07 13:38:08.77	335.00	4.77	-58.9	-78.3	3.8	7.47e-01	0	25	104	1123024896	85	35740
2026-01-07 13:38:09.78	335.10	4.71	-59.1	-78.5	3.8	7.43e-01	0	25	104	1123024896	85	36713
2026-01-07 13:38:10.78	335.19	4.65	-59.3	-78.6	3.8	7.48e-01	0	25	104	1123024896	86	35277
2026-01-07 13:38:11.79	335.28	4.59	-59.4	-78.8	3.8	7.43e-01	0	25	104	1123024896	86	35844
2026-01-07 13:38:12.80	335.38	4.53	-59.5	-78.9	3.8	7.45e-01	0	25	104	1123024896	86	36227
2026-01-07 13:38:13.80	335.47	4.47	-59.6	-79.0	3.8	7.46e-01	0	25	104	1123024896	86	36617
2026-01-07 13:38:14.82	335.56	4.40	-59.7	-79.0	3.8	7.46e-01	0	25	104	1123024896	87	34843
2026-01-07 13:38:15.82	335.65	4.34	-59.7	-79.1	3.8	7.44e-01	0	25	104	1123024896	87	35013
2026-01-07 13:38:16.83	335.75	4.28	-59.8	-79.1	3.8	7.46e-01	0	25	104	1123024896	87	35107
2026-01-07 13:38:17.84	335.84	4.22	-59.8	-79.2	3.8	7.45e-01	0	25	104	1123024896	87	35328
2026-01-07 13:38:18.85	335.93	4.16	-59.8	-79.2	3.8	7.47e-01	0	25	104	1123024896	87	35358
2026-01-07 13:38:19.85	336.02	4.10	-59.8	-79.2	3.8	7.44e-01	0	25	104	1123024896	87	35423
2026-01-07 13:38:20.86	336.11	4.04	-59.8	-79.2	3.8	7.46e-01	0	25	104	1123024896	87	35539
2026-01-07 13:38:21.88	336.20	3.98	-59.8	-79.2	3.8	7.48e-01	0	25	104	1123024896	87	35576
2026-01-07 13:38:22.88	336.29	3.92	-59.9	-79.2	3.8	7.46e-01	0	25	104	1123024896	87	35609
2026-01-07 13:38:23.89	336.38	3.86	-59.9	-79.3	3.8	7.47e-01	0	25	104	1123024896	87	35751
2026-01-07 13:38:24.89	336.46	3.80	-59.9	-79.3	3.8	7.48e-01	0	25	104	1123024896	87	35712
2026-01-07 13:38:25.90	336.55	3.74	-59.9	-79.3	3.8	7.44e-01	0	25	104	1123024896	87	35725
2026-01-07 13:38:26.91	336.64	3.68	-59.9	-79.3	3.8	7.46e-01	0	25	104	1123024896	87	35754
2026-01-07 13:38:27.92	336.73	3.62	-59.9	-79.2	3.8	7.42e-01	0	25	104	1123024896	87	35624
2026-01-07 13:38:28.93	336.82	3.56	-59.8	-79.2	3.8	7.47e-01	0	25	104	1123024896	87	35621
2026-01-07 13:38:29.94	336.90	3.50	-59.8	-79.2	3.8	7.46e-01	0	25	104	1123024896	87	35471
2026-01-07 13:38:30.95	336.99	3.44	-59.8	-79.2	3.8	7.43e-01	0	25	104	1123024896	87	35334
2026-01-07 13:38:31.95	337.07	3.38	-59.8	-79.2	3.8	7.44e-01	0	25	104	1123024896	87	35293
2026-01-07 13:38:32.95	337.16	3.32	-59.8	-79.1	3.9	7.47e-01	0	25	104	1123024896	87	35268
2026-01-07 13:38:33.96	337.24	3.26	-59.7	-79.1	3.8	7.48e-01	0	25	104	1123024896	87	35208
2026-01-07 13:38:34.97	337.33	3.20	-59.7	-79.1	3.8	7.47e-01	0	25	104	1123024896	87	35215
2026-01-07 13:38:35.98	337.41	3.14	-59.7	-79.1	3.8	7.44e-01	0	25	104	1123024896	87	35014
2026-01-07 13:38:36.98	337.50	3.08	-59.7	-79.1	3.8	7.45e-01	0	25	104	1123024896	87	35191
2026-01-07 13:38:37.99	337.58	3.02	-59.7	-79.1	3.8	7.46e-01	0	25	104	1123024896	87	35010
2026-01-07 13:38:39.00	337.66	2.96	-59.7	-79.1	3.8	7.43e-01	0	26	104	1123024896	87	35020
2026-01-07 13:38:40.01	337.75	2.90	-59.7	-79.1	3.8	7.48e-01	0	26	104	1123024896	87	35063
2026-01-07 13:38:41.01	337.83	2.85	-59.7	-79.1	3.8	7.45e-01	0	25	104	1123024896	87	34901
2026-01-07 13:38:42.02	337.91	2.79	-59.7	-79.1	3.8	7.44e-01	0	25	104	1123024896	87	34922
2026-01-07 13:38:43.03	337.99	2.73	-59.7	-79.0	3.8	7.47e-01	0	25	104	1123024896	87	34840
2026-01-07 13:38:44.04	338.08	2.67	-59.7	-79.0	3.8	7.46e-01	0	25	104	1123024896	87	34859
2026-01-07 13:38:45.05	338.16	2.61	-59.7	-79.0	3.8	7.43e-01	0	25	104	1123024896	87	34836
2026-01-07 13:38:46.06	338.24	2.55	-59.7	-79.1	3.8	7.47e-01	0	25	104	1123024896	87	34892
2026-01-07 13:38:47.06	338.32	2.49	-59.7	-79.0	3.8	7.48e-01	0	25	104	1123024896	87	34785
2026-01-07 13:38:48.07	338.40	2.44	-59.6	-79.0	3.8	7.46e-01	0	25	104	1123024896	87	34795
2026-01-07 13:38:49.07	338.48	2.38	-59.6	-79.0	3.8	7.46e-01	0	25	104	1123024896	87	34781
2026-01-07 13:38:50.08	338.56	2.32	-59.6	-79.0	3.8	7.43e-01	0	25	104	1123024896	87	34735
2026-01-07 13:38:51.09	338.64	2.26	-59.6	-79.0	3.8	7.46e-01	0	25	104	1123024896	87	34820
2026-01-07 13:38:52.10	338.72	2.20	-59.6	-79.0	3.8	7.47e-01	0	25	104	1123024896	87	34787
2026-01-07 13:38:53.11	338.80	2.15	-59.6	-79.0	3.8	7.46e-01	0	25	104	1123024896	87	34706
2026-01-07 13:38:54.12	338.88	2.09	-59.6	-79.0	3.8	7.44e-01	0	25	104	1123024896	87	34684
2026-01-07 13:38:55.12	338.95	2.03	-59.6	-79.0	3.8	7.47e-01	0	26	104	1123024896	87	34669
2026-01-07 13:38:56.13	339.03	1.97	-59.6	-79.0	3.8	7.45e-01	0	25	104	1123024896	87	34706
2026-01-07 13:38:57.14	339.11	1.92	-59.6	-79.0	3.8	7.42e-01	0	25	104	1123024896	87	34660

#Closed at: 2026-01-07 13:38:58
#Recorded file [1123 MB]: D:/lorett/data/31004_260107_162725.dat