passes_logs/2026/01/07/R3.2S_Murmansk/R3.2S_Murmansk__20260107_044205_FENGYUN_3D_rec.log

#Pass ID: 20260107_044205_FENGYUN 3D
#Satellite: FENGYUN 3D
#Configuration: FENGYUN 3D
#almurnet v.1.7.20251203
#Start time: 2026-01-07 04:42:05

#Version: 2.2.20231116
#Station: R3.2S_Murmansk
#Location: 33.079688 lon 68.888172 lat
#TLE: 1 43010U 17072A   26006.26440730  .00000376  00000+0  19957-3 0  9994
#TLE: 2 43010  98.9925 337.9455 0002045 123.9195 236.2175 14.19693586422016

#Time	Az	El	Level	Level2	SNR	BER	BlckErr	Temp	State	Recorded	gain1	gain2
2026-01-07 04:42:05.44	35.56	2.00	-57.4	-70.4	3.8	8.46e-01	0	23	0	0	81	15726
2026-01-07 04:42:06.45	35.52	2.06	-57.4	-70.4	3.8	8.45e-01	0	23	104	0	79	17527
2026-01-07 04:42:07.45	35.48	2.13	-57.4	-70.4	3.8	8.46e-01	0	23	104	0	79	17526
2026-01-07 04:42:08.44	35.44	2.19	-57.4	-70.4	3.8	8.46e-01	0	23	104	0	79	17559
2026-01-07 04:42:09.45	35.40	2.25	-57.4	-70.4	3.8	8.45e-01	0	23	104	0	79	17516
2026-01-07 04:42:10.45	35.36	2.31	-57.4	-70.3	3.8	8.45e-01	0	23	104	0	79	17479
2026-01-07 04:42:11.46	35.32	2.37	-57.4	-70.3	3.8	8.45e-01	0	23	104	0	79	17380
2026-01-07 04:42:12.46	35.28	2.43	-57.4	-70.3	3.8	8.45e-01	0	23	104	0	79	17337
2026-01-07 04:42:13.47	35.24	2.50	-57.4	-70.3	3.8	8.44e-01	0	23	104	0	79	17430
2026-01-07 04:42:14.47	35.19	2.56	-57.4	-70.3	3.8	8.46e-01	0	23	104	0	79	17476
2026-01-07 04:42:15.47	35.15	2.62	-57.4	-70.3	3.8	8.47e-01	0	24	104	0	79	17393
2026-01-07 04:42:16.48	35.11	2.68	-57.4	-70.3	3.8	8.45e-01	0	24	104	0	79	17381
2026-01-07 04:42:17.47	35.07	2.75	-57.4	-70.3	3.8	8.46e-01	0	24	104	0	79	17374
2026-01-07 04:42:18.46	35.03	2.81	-57.4	-70.3	3.8	8.45e-01	0	23	104	0	79	17389
2026-01-07 04:42:19.46	34.99	2.87	-57.4	-70.3	3.8	8.46e-01	0	23	104	0	79	17297
2026-01-07 04:42:20.46	34.94	2.93	-57.4	-70.2	3.8	8.45e-01	0	24	104	0	79	17230
2026-01-07 04:42:21.45	34.90	3.00	-57.4	-70.3	3.8	8.44e-01	0	24	104	0	79	17396
2026-01-07 04:42:22.45	34.86	3.06	-57.4	-70.4	3.8	8.46e-01	0	23	104	0	79	17558
2026-01-07 04:42:23.44	34.81	3.12	-57.4	-70.4	3.8	8.46e-01	0	24	104	0	79	17577
2026-01-07 04:42:24.44	34.77	3.19	-57.4	-70.4	3.8	8.45e-01	0	24	104	0	79	17631
2026-01-07 04:42:25.44	34.73	3.25	-57.4	-70.4	3.8	8.46e-01	0	24	104	0	79	17615
2026-01-07 04:42:26.44	34.68	3.31	-57.4	-70.4	3.8	8.47e-01	0	24	104	0	79	17519
2026-01-07 04:42:27.44	34.64	3.38	-57.4	-70.4	3.8	8.45e-01	0	24	104	0	79	17487
2026-01-07 04:42:28.44	34.60	3.44	-57.4	-70.3	3.8	8.46e-01	0	24	104	0	79	17334
2026-01-07 04:42:29.44	34.55	3.50	-57.4	-70.2	3.8	8.47e-01	0	24	104	0	79	17227
2026-01-07 04:42:30.44	34.51	3.57	-57.4	-70.2	3.8	8.45e-01	0	24	104	0	79	17094
2026-01-07 04:42:31.44	34.46	3.63	-57.4	-70.0	3.8	8.46e-01	0	24	104	0	79	16743
2026-01-07 04:42:32.43	34.42	3.70	-57.3	-69.7	3.8	8.45e-01	0	24	104	0	79	16178
2026-01-07 04:42:33.44	34.37	3.76	-57.3	-69.2	3.8	8.45e-01	0	24	104	0	79	15309
2026-01-07 04:42:34.44	34.33	3.83	-57.3	-68.9	3.8	8.46e-01	0	24	104	0	79	14714
2026-01-07 04:42:35.44	34.28	3.89	-57.3	-68.6	3.8	8.46e-01	0	24	104	0	79	14318
2026-01-07 04:42:36.45	34.24	3.96	-57.2	-68.5	3.8	8.44e-01	0	24	104	0	79	14055
2026-01-07 04:42:37.44	34.19	4.02	-57.2	-68.2	4.0	8.45e-01	0	24	104	0	79	13690
2026-01-07 04:42:38.44	34.14	4.09	-57.2	-68.0	4.0	8.43e-01	0	24	0	0	79	13280
2026-01-07 04:42:39.44	34.10	4.15	-57.2	-68.1	3.8	8.44e-01	0	24	104	0	79	13516
2026-01-07 04:42:40.43	34.05	4.22	-57.2	-67.9	3.9	8.45e-01	0	24	104	0	79	13139
2026-01-07 04:42:41.43	34.00	4.28	-57.2	-67.5	4.0	8.43e-01	0	24	104	0	79	12632
2026-01-07 04:42:42.43	33.96	4.35	-57.1	-66.5	4.3	8.36e-01	0	24	0	0	79	11280
2026-01-07 04:42:43.42	33.91	4.41	-56.8	-64.8	4.9	7.91e-01	0	24	0	0	79	9222
2026-01-07 04:42:44.42	33.86	4.48	-56.5	-63.3	5.9	6.19e-01	0	24	0	1048576	79	7730
2026-01-07 04:42:45.42	33.81	4.55	-56.2	-62.0	6.8	1.79e-01	0	24	0	6291456	79	6698
2026-01-07 04:42:46.42	33.77	4.61	-55.7	-60.6	8.0	7.29e-02	0	24	0	12582912	78	6046
2026-01-07 04:42:47.42	33.72	4.68	-55.3	-59.7	8.7	2.62e-02	0	24	0	17825792	77	5786
2026-01-07 04:42:48.43	33.67	4.75	-54.9	-58.7	9.6	8.88e-03	0	24	0	23068672	76	5463
2026-01-07 04:42:49.42	33.62	4.81	-54.5	-58.1	10.0	3.18e-03	0	24	0	29360128	75	5360
2026-01-07 04:42:50.42	33.57	4.88	-54.4	-57.8	10.3	1.54e-03	0	24	0	34603008	75	5206
2026-01-07 04:42:51.42	33.52	4.95	-54.0	-57.2	10.8	7.36e-04	0	24	0	40894464	74	5104
2026-01-07 04:42:52.41	33.47	5.01	-54.4	-57.8	10.2	1.47e-03	0	24	0	46137344	74	5524
2026-01-07 04:42:53.41	33.42	5.08	-53.3	-56.0	11.7	1.01e-03	0	24	0	51380224	73	4751
2026-01-07 04:42:54.42	33.37	5.15	-52.7	-55.0	12.5	8.31e-04	0	24	0	57671680	72	4444
2026-01-07 04:42:55.42	33.32	5.22	-52.9	-55.4	12.1	0.00e+00	0	24	0	62914560	70	5268
2026-01-07 04:42:56.42	33.27	5.28	-55.1	-59.1	9.2	3.43e-01	0	24	0	68157440	76	5690
2026-01-07 04:42:57.42	33.22	5.35	-51.0	-52.8	13.6	8.00e-06	0	24	0	74448896	68	4352
2026-01-07 04:42:58.42	33.17	5.42	-52.4	-54.7	12.6	2.00e-04	0	24	0	79691776	71	4550
2026-01-07 04:42:59.42	33.12	5.49	-50.4	-52.1	13.9	0.00e+00	0	24	0	84934656	67	4262
2026-01-07 04:43:00.43	33.07	5.56	-50.5	-52.3	13.7	0.00e+00	0	24	0	91226112	67	4349
2026-01-07 04:43:01.43	33.01	5.63	-50.7	-52.5	13.6	0.00e+00	0	24	0	96468992	67	4455
2026-01-07 04:43:02.43	32.96	5.69	-50.4	-52.1	13.9	0.00e+00	0	24	0	102760448	67	4284
2026-01-07 04:43:03.43	32.91	5.76	-50.4	-52.1	13.9	0.00e+00	0	24	0	108003328	67	4282
2026-01-07 04:43:04.42	32.86	5.83	-50.7	-52.4	13.7	0.00e+00	0	25	0	113246208	67	4430
2026-01-07 04:43:05.43	32.80	5.90	-50.0	-51.6	14.1	0.00e+00	0	24	0	119537664	66	4264
2026-01-07 04:43:06.43	32.75	5.97	-49.8	-51.4	14.2	0.00e+00	0	24	0	124780544	66	4172
2026-01-07 04:43:07.43	32.70	6.04	-49.3	-50.8	14.4	0.00e+00	0	24	0	130023424	65	4119
2026-01-07 04:43:08.44	32.64	6.11	-49.5	-51.0	14.3	0.00e+00	0	25	0	136314880	65	4208
2026-01-07 04:43:09.44	32.59	6.18	-49.4	-51.0	14.3	0.00e+00	0	24	0	141557760	65	4202
2026-01-07 04:43:10.44	32.54	6.25	-49.5	-51.1	14.3	0.00e+00	0	24	0	146800640	65	4250
2026-01-07 04:43:11.43	32.48	6.32	-49.5	-51.0	14.3	0.00e+00	0	25	0	153092096	65	4220
2026-01-07 04:43:12.43	32.43	6.39	-49.4	-50.8	14.4	0.00e+00	0	25	0	158334976	65	4140
2026-01-07 04:43:13.42	32.37	6.46	-49.5	-51.0	14.3	0.00e+00	0	25	0	164626432	65	4238
2026-01-07 04:43:14.41	32.32	6.53	-49.3	-50.8	14.5	0.00e+00	0	25	0	169869312	65	4108
2026-01-07 04:43:15.42	32.26	6.60	-49.3	-50.7	14.5	0.00e+00	0	24	0	175112192	65	4081
2026-01-07 04:43:16.41	32.21	6.67	-49.4	-50.8	14.5	0.00e+00	0	24	0	181403648	65	4128
2026-01-07 04:43:17.42	32.15	6.74	-49.0	-50.4	14.5	0.00e+00	0	25	0	186646528	64	4189
2026-01-07 04:43:18.41	32.09	6.81	-49.1	-50.5	14.5	0.00e+00	0	25	0	191889408	64	4226
2026-01-07 04:43:19.41	32.04	6.89	-49.1	-50.6	14.5	0.00e+00	0	25	0	198180864	64	4248
2026-01-07 04:43:20.41	31.98	6.96	-49.2	-50.6	14.4	0.00e+00	0	24	0	203423744	64	4280
2026-01-07 04:43:21.41	31.92	7.03	-49.2	-50.6	14.4	0.00e+00	0	25	0	208666624	64	4259
2026-01-07 04:43:22.41	31.86	7.10	-49.1	-50.6	14.4	0.00e+00	0	25	0	214958080	64	4246
2026-01-07 04:43:23.42	31.80	7.17	-49.3	-50.7	14.4	0.00e+00	0	25	0	220200960	64	4324
2026-01-07 04:43:24.41	31.75	7.25	-49.1	-50.5	14.5	0.00e+00	0	25	0	226492416	64	4227
2026-01-07 04:43:25.42	31.69	7.32	-49.0	-50.4	14.6	0.00e+00	0	25	0	231735296	64	4167
2026-01-07 04:43:26.42	31.63	7.39	-49.0	-50.4	14.5	0.00e+00	0	25	0	236978176	64	4193
2026-01-07 04:43:27.41	31.57	7.46	-48.9	-50.3	14.6	0.00e+00	0	25	0	243269632	64	4133
2026-01-07 04:43:28.41	31.51	7.54	-49.0	-50.4	14.6	0.00e+00	0	25	0	248512512	64	4173
2026-01-07 04:43:29.41	31.45	7.61	-48.9	-50.3	14.7	0.00e+00	0	25	0	253755392	64	4104
2026-01-07 04:43:30.41	31.39	7.68	-48.9	-50.3	14.6	0.00e+00	0	25	0	260046848	64	4120
2026-01-07 04:43:31.40	31.33	7.76	-48.8	-50.2	14.7	0.00e+00	0	25	0	265289728	64	4060
2026-01-07 04:43:32.40	31.27	7.83	-48.9	-50.3	14.6	0.00e+00	0	25	0	270532608	64	4109
2026-01-07 04:43:33.41	31.21	7.90	-48.8	-50.2	14.7	0.00e+00	0	25	0	276824064	64	4068
2026-01-07 04:43:34.41	31.15	7.98	-48.9	-50.3	14.6	0.00e+00	0	25	0	282066944	64	4121
2026-01-07 04:43:35.41	31.08	8.05	-48.9	-50.2	14.7	0.00e+00	0	25	0	288358400	64	4086
2026-01-07 04:43:36.42	31.02	8.13	-48.8	-50.2	14.7	0.00e+00	0	25	0	293601280	64	4052
2026-01-07 04:43:37.42	30.96	8.20	-48.7	-50.0	14.8	0.00e+00	0	25	0	298844160	64	3998
2026-01-07 04:43:38.41	30.90	8.28	-48.8	-50.1	14.7	0.00e+00	0	25	0	305135616	64	4043
2026-01-07 04:43:39.42	30.83	8.35	-48.7	-50.1	14.8	0.00e+00	0	25	0	310378496	64	4014
2026-01-07 04:43:40.42	30.77	8.43	-48.7	-50.1	14.7	0.00e+00	0	25	0	315621376	64	4032
2026-01-07 04:43:41.42	30.70	8.50	-48.7	-50.0	14.6	0.00e+00	0	25	0	321912832	63	4217
2026-01-07 04:43:42.42	30.64	8.58	-48.7	-50.1	14.6	0.00e+00	0	25	0	327155712	63	4272
2026-01-07 04:43:43.42	30.57	8.66	-48.7	-50.1	14.6	0.00e+00	0	25	0	332398592	63	4253
2026-01-07 04:43:44.43	30.51	8.73	-48.7	-50.0	14.6	0.00e+00	0	25	0	338690048	63	4234
2026-01-07 04:43:45.43	30.44	8.81	-48.6	-50.0	14.6	0.00e+00	0	25	0	343932928	63	4201
2026-01-07 04:43:46.43	30.38	8.88	-48.7	-50.1	14.5	0.00e+00	0	25	0	350224384	63	4262
2026-01-07 04:43:47.44	30.31	8.96	-48.6	-50.0	14.6	0.00e+00	0	25	0	355467264	63	4221
2026-01-07 04:43:48.45	30.24	9.04	-48.7	-50.1	14.6	0.00e+00	0	25	0	361758720	63	4253
2026-01-07 04:43:49.44	30.18	9.12	-48.6	-50.0	14.6	0.00e+00	0	25	0	367001600	63	4209
2026-01-07 04:43:50.44	30.11	9.19	-48.7	-50.0	14.6	0.00e+00	0	25	0	372244480	63	4224
2026-01-07 04:43:51.44	30.04	9.27	-48.7	-50.1	14.6	0.00e+00	0	25	0	377487360	63	4243
2026-01-07 04:43:52.45	29.97	9.35	-48.6	-50.0	14.6	0.00e+00	0	25	0	383778816	63	4216
2026-01-07 04:43:53.45	29.91	9.43	-48.6	-50.0	14.6	0.00e+00	0	25	0	389021696	63	4200
2026-01-07 04:43:54.45	29.84	9.50	-48.7	-50.0	14.6	0.00e+00	0	25	0	395313152	63	4242
2026-01-07 04:43:55.44	29.77	9.58	-48.7	-50.0	14.6	0.00e+00	0	25	0	400556032	63	4230
2026-01-07 04:43:56.43	29.70	9.66	-48.6	-49.9	14.7	0.00e+00	0	25	0	405798912	63	4180
2026-01-07 04:43:57.43	29.63	9.74	-48.6	-50.0	14.6	0.00e+00	0	25	0	412090368	63	4221
2026-01-07 04:43:58.43	29.56	9.82	-48.6	-50.0	14.7	0.00e+00	0	25	0	417333248	63	4205
2026-01-07 04:43:59.42	29.49	9.90	-48.6	-49.9	14.7	0.00e+00	0	25	0	422576128	63	4181
2026-01-07 04:44:00.40	29.42	9.97	-48.5	-49.9	14.7	0.00e+00	0	25	0	428867584	63	4150
2026-01-07 04:44:01.39	29.35	10.05	-48.5	-49.8	14.8	0.00e+00	0	25	0	434110464	63	4107
2026-01-07 04:44:02.39	29.28	10.13	-48.5	-49.8	14.8	0.00e+00	0	25	0	439353344	63	4116
2026-01-07 04:44:03.40	29.20	10.21	-48.5	-49.8	14.8	0.00e+00	0	25	0	445644800	63	4110
2026-01-07 04:44:04.40	29.13	10.29	-48.3	-49.6	14.9	0.00e+00	0	25	0	450887680	63	4023
2026-01-07 04:44:05.40	29.06	10.37	-48.4	-49.7	14.8	0.00e+00	0	25	0	457179136	63	4059
2026-01-07 04:44:06.40	28.98	10.45	-48.3	-49.5	14.9	0.00e+00	0	25	0	462422016	63	3995
2026-01-07 04:44:07.41	28.91	10.53	-48.3	-49.5	14.9	0.00e+00	0	25	0	467664896	63	3998
2026-01-07 04:44:08.41	28.83	10.62	-48.2	-49.5	15.0	0.00e+00	0	25	0	473956352	63	3967
2026-01-07 04:44:09.41	28.76	10.70	-48.1	-49.4	14.9	0.00e+00	0	25	0	479199232	62	4151
2026-01-07 04:44:10.40	28.68	10.78	-48.1	-49.3	14.9	0.00e+00	0	25	0	484442112	62	4128
2026-01-07 04:44:11.39	28.61	10.86	-48.2	-49.4	14.8	0.00e+00	0	25	0	490733568	62	4188
2026-01-07 04:44:12.40	28.53	10.94	-48.0	-49.3	14.9	0.00e+00	0	25	0	495976448	62	4128
2026-01-07 04:44:13.41	28.45	11.02	-48.1	-49.4	14.9	0.00e+00	0	25	0	501219328	62	4155
2026-01-07 04:44:14.41	28.38	11.11	-48.1	-49.4	14.9	0.00e+00	0	25	0	507510784	62	4156
2026-01-07 04:44:15.41	28.30	11.19	-48.1	-49.4	14.9	0.00e+00	0	25	0	512753664	62	4150
2026-01-07 04:44:16.41	28.22	11.27	-48.0	-49.3	14.9	0.00e+00	0	25	0	519045120	62	4104
2026-01-07 04:44:17.41	28.14	11.35	-48.0	-49.3	14.9	0.00e+00	0	25	0	524288000	62	4120
2026-01-07 04:44:18.41	28.06	11.44	-48.0	-49.2	14.9	0.00e+00	0	25	0	529530880	62	4084
2026-01-07 04:44:19.41	27.98	11.52	-47.9	-49.1	15.0	0.00e+00	0	25	0	535822336	62	4031
2026-01-07 04:44:20.41	27.90	11.60	-47.9	-49.2	15.0	0.00e+00	0	25	0	541065216	62	4052
2026-01-07 04:44:21.40	27.82	11.69	-47.8	-49.1	15.0	0.00e+00	0	25	0	546308096	62	4012
2026-01-07 04:44:22.40	27.74	11.77	-47.8	-49.1	15.0	0.00e+00	0	25	0	552599552	62	4007
2026-01-07 04:44:23.40	27.66	11.86	-47.8	-49.0	15.0	0.00e+00	0	25	0	557842432	62	3989
2026-01-07 04:44:24.40	27.58	11.94	-47.9	-49.1	15.0	0.00e+00	0	25	0	563085312	62	4035
2026-01-07 04:44:25.40	27.50	12.02	-47.9	-49.2	15.0	0.00e+00	0	25	0	569376768	62	4068
2026-01-07 04:44:26.40	27.41	12.11	-47.8	-49.0	15.0	0.00e+00	0	25	0	574619648	62	3998
2026-01-07 04:44:27.40	27.33	12.19	-47.8	-49.0	15.1	0.00e+00	0	25	0	580911104	62	3978
2026-01-07 04:44:28.40	27.25	12.28	-47.9	-49.1	15.0	0.00e+00	0	25	0	586153984	62	4026
2026-01-07 04:44:29.40	27.16	12.37	-47.7	-49.0	15.1	0.00e+00	0	25	0	591396864	62	3968
2026-01-07 04:44:30.40	27.08	12.45	-47.7	-49.0	15.1	0.00e+00	0	25	0	597688320	62	3966
2026-01-07 04:44:31.40	26.99	12.54	-47.9	-49.1	15.0	0.00e+00	0	25	0	602931200	62	4027
2026-01-07 04:44:32.40	26.91	12.62	-47.8	-49.1	15.0	0.00e+00	0	25	0	608174080	62	4012
2026-01-07 04:44:33.41	26.82	12.71	-47.9	-49.2	15.0	0.00e+00	0	25	0	614465536	62	4058
2026-01-07 04:44:34.40	26.73	12.80	-48.0	-49.2	14.9	0.00e+00	0	25	0	619708416	62	4092
2026-01-07 04:44:35.40	26.65	12.88	-47.9	-49.2	15.0	0.00e+00	0	25	0	624951296	62	4069
2026-01-07 04:44:36.40	26.56	12.97	-48.0	-49.2	14.9	0.00e+00	0	25	0	631242752	62	4091
2026-01-07 04:44:37.40	26.47	13.06	-47.8	-49.1	15.0	0.00e+00	0	25	0	636485632	62	4010
2026-01-07 04:44:38.39	26.38	13.15	-47.8	-49.0	15.1	0.00e+00	0	25	0	641728512	62	3984
2026-01-07 04:44:39.39	26.29	13.24	-47.8	-49.0	15.1	0.00e+00	0	25	0	648019968	62	3970
2026-01-07 04:44:40.40	26.20	13.32	-47.8	-49.0	15.0	0.00e+00	0	25	0	653262848	62	3998
2026-01-07 04:44:41.40	26.11	13.41	-47.6	-48.8	15.0	0.00e+00	0	25	0	659554304	61	4104
2026-01-07 04:44:42.41	26.02	13.50	-47.6	-48.8	15.0	0.00e+00	0	25	0	664797184	61	4136
2026-01-07 04:44:43.40	25.92	13.59	-47.7	-48.9	15.0	0.00e+00	0	25	0	670040064	61	4174
2026-01-07 04:44:44.41	25.83	13.68	-47.6	-48.8	15.0	0.00e+00	0	25	0	676331520	61	4144
2026-01-07 04:44:45.41	25.74	13.77	-47.6	-48.8	15.0	0.00e+00	0	25	0	681574400	61	4130
2026-01-07 04:44:46.41	25.64	13.86	-47.6	-48.8	15.0	0.00e+00	0	25	0	686817280	61	4140
2026-01-07 04:44:47.41	25.55	13.95	-47.5	-48.8	15.0	0.00e+00	0	25	0	693108736	61	4099
2026-01-07 04:44:48.40	25.46	14.04	-47.5	-48.7	15.1	0.00e+00	0	25	0	698351616	61	4078
2026-01-07 04:44:49.40	25.36	14.13	-47.5	-48.7	15.0	0.00e+00	0	25	0	704643072	61	4088
2026-01-07 04:44:50.40	25.26	14.22	-47.6	-48.8	15.0	0.00e+00	0	25	0	709885952	61	4143
2026-01-07 04:44:51.41	25.17	14.31	-47.6	-48.9	15.0	0.00e+00	0	25	0	715128832	61	4157
2026-01-07 04:44:52.41	25.07	14.41	-47.6	-48.8	15.0	0.00e+00	0	25	0	721420288	61	4110
2026-01-07 04:44:53.41	24.97	14.50	-47.5	-48.7	15.0	0.00e+00	0	25	0	726663168	61	4085
2026-01-07 04:44:54.40	24.87	14.59	-47.5	-48.7	15.1	0.00e+00	0	25	0	731906048	61	4073
2026-01-07 04:44:55.40	24.77	14.68	-47.4	-48.6	15.1	0.00e+00	0	25	0	738197504	61	4040
2026-01-07 04:44:56.40	24.67	14.77	-47.4	-48.6	15.1	0.00e+00	0	25	0	743440384	61	4050
2026-01-07 04:44:57.40	24.57	14.87	-47.5	-48.7	15.1	0.00e+00	0	25	0	748683264	61	4063
2026-01-07 04:44:58.39	24.47	14.96	-47.4	-48.6	15.1	0.00e+00	0	25	0	754974720	61	4034
2026-01-07 04:44:59.39	24.37	15.05	-47.2	-48.4	15.2	0.00e+00	0	25	0	760217600	61	3925
2026-01-07 04:45:00.39	24.27	15.14	-47.1	-48.3	15.1	0.00e+00	0	25	0	765460480	60	4134
2026-01-07 04:45:01.39	24.16	15.24	-47.1	-48.3	15.1	0.00e+00	0	25	0	771751936	60	4137
2026-01-07 04:45:02.38	24.06	15.33	-47.1	-48.3	15.1	0.00e+00	0	25	0	776994816	60	4112
2026-01-07 04:45:03.38	23.96	15.42	-47.1	-48.3	15.1	0.00e+00	0	25	0	782237696	60	4113
2026-01-07 04:45:04.37	23.85	15.52	-47.2	-48.3	15.1	0.00e+00	0	25	0	788529152	60	4139
2026-01-07 04:45:05.36	23.75	15.61	-47.1	-48.3	15.1	0.00e+00	0	25	0	793772032	60	4100
2026-01-07 04:45:06.35	23.64	15.71	-47.1	-48.3	15.1	0.00e+00	0	25	0	799014912	60	4108
2026-01-07 04:45:07.35	23.53	15.80	-47.1	-48.3	15.1	0.00e+00	0	25	0	805306368	60	4108
2026-01-07 04:45:08.35	23.43	15.90	-47.1	-48.3	15.1	0.00e+00	0	25	0	810549248	60	4109
2026-01-07 04:45:09.34	23.32	15.99	-47.1	-48.3	15.1	0.00e+00	0	25	0	815792128	60	4130
2026-01-07 04:45:10.28	23.22	16.08	-47.0	-48.1	15.1	0.00e+00	0	25	0	822083584	60	4049
2026-01-07 04:45:11.28	23.11	16.18	-47.0	-48.2	15.1	0.00e+00	0	25	0	827326464	60	4066
2026-01-07 04:45:12.28	23.00	16.28	-47.0	-48.2	15.1	0.00e+00	0	25	0	832569344	60	4086
2026-01-07 04:45:13.28	22.88	16.37	-47.2	-48.4	15.0	0.00e+00	0	25	0	838860800	60	4155
2026-01-07 04:45:14.28	22.77	16.47	-47.0	-48.2	15.1	0.00e+00	0	25	0	844103680	60	4076
2026-01-07 04:45:15.28	22.66	16.57	-47.1	-48.3	15.1	0.00e+00	0	25	0	849346560	60	4105
2026-01-07 04:45:16.27	22.55	16.66	-47.1	-48.2	15.1	0.00e+00	0	25	0	855638016	60	4081
2026-01-07 04:45:17.27	22.43	16.76	-46.9	-48.0	15.2	0.00e+00	0	25	0	860880896	60	3997
2026-01-07 04:45:18.28	22.31	16.86	-46.8	-48.0	15.2	0.00e+00	0	25	0	867172352	60	3963
2026-01-07 04:45:19.27	22.20	16.96	-46.7	-47.9	15.3	0.00e+00	0	25	0	872415232	60	3919
2026-01-07 04:45:20.27	22.08	17.06	-47.0	-48.2	15.1	0.00e+00	0	25	0	877658112	59	4313
2026-01-07 04:45:21.27	21.96	17.16	-47.1	-48.3	15.0	0.00e+00	0	25	0	883949568	59	4342
2026-01-07 04:45:22.28	21.84	17.26	-46.9	-48.1	15.1	0.00e+00	0	25	0	889192448	59	4269
2026-01-07 04:45:23.27	21.73	17.36	-47.0	-48.2	15.1	0.00e+00	0	25	0	894435328	59	4294
2026-01-07 04:45:24.26	21.61	17.45	-46.9	-48.1	15.1	0.00e+00	0	25	0	900726784	59	4258
2026-01-07 04:45:25.27	21.48	17.56	-47.0	-48.2	15.1	0.00e+00	0	25	0	905969664	59	4305
2026-01-07 04:45:26.27	21.36	17.66	-46.9	-48.1	15.1	0.00e+00	0	25	0	911212544	59	4246
2026-01-07 04:45:27.28	21.24	17.76	-46.9	-48.1	15.1	0.00e+00	0	25	0	917504000	59	4272
2026-01-07 04:45:28.29	21.11	17.86	-46.9	-48.1	15.1	0.00e+00	0	25	0	922746880	59	4247
2026-01-07 04:45:29.29	20.99	17.96	-46.9	-48.1	15.1	0.00e+00	0	25	0	929038336	59	4260
2026-01-07 04:45:30.29	20.86	18.06	-47.0	-48.2	15.1	0.00e+00	0	25	0	934281216	59	4301
2026-01-07 04:45:31.30	20.74	18.17	-46.9	-48.1	15.1	0.00e+00	0	25	0	940572672	59	4266
2026-01-07 04:45:32.29	20.61	18.27	-46.9	-48.0	15.1	0.00e+00	0	25	0	945815552	59	4234
2026-01-07 04:45:33.29	20.48	18.37	-46.9	-48.0	15.1	0.00e+00	0	25	0	951058432	59	4237
2026-01-07 04:45:34.29	20.35	18.47	-46.9	-48.0	15.1	0.00e+00	0	25	0	957349888	59	4228
2026-01-07 04:45:35.29	20.22	18.58	-47.0	-48.1	15.1	0.00e+00	0	25	0	962592768	59	4289
2026-01-07 04:45:36.29	20.09	18.68	-46.8	-48.0	15.1	0.00e+00	0	25	0	967835648	59	4196
2026-01-07 04:45:37.30	19.96	18.78	-46.7	-47.9	15.2	0.00e+00	0	25	0	974127104	59	4152
2026-01-07 04:45:38.30	19.83	18.89	-46.8	-48.0	15.1	0.00e+00	0	25	0	979369984	59	4198
2026-01-07 04:45:39.30	19.70	18.99	-46.5	-47.6	15.3	0.00e+00	0	25	0	985661440	59	4042
2026-01-07 04:45:40.30	19.56	19.09	-46.5	-47.6	15.3	0.00e+00	0	25	0	990904320	59	4037
2026-01-07 04:45:41.30	19.43	19.20	-46.6	-47.8	15.2	0.00e+00	0	25	0	996147200	59	4105
2026-01-07 04:45:42.29	19.29	19.30	-46.5	-47.6	15.3	0.00e+00	0	25	0	1002438656	59	4018
2026-01-07 04:45:43.30	19.15	19.41	-46.3	-47.5	15.3	0.00e+00	0	25	0	1007681536	59	3964
2026-01-07 04:45:44.29	19.02	19.51	-46.4	-47.6	15.3	0.00e+00	0	25	0	1012924416	59	4009
2026-01-07 04:45:45.29	18.88	19.62	-46.5	-47.6	15.3	0.00e+00	0	25	0	1019215872	59	4048
2026-01-07 04:45:46.30	18.73	19.73	-46.5	-47.7	15.2	0.00e+00	0	25	0	1024458752	59	4059
2026-01-07 04:45:47.30	18.59	19.83	-46.6	-47.7	15.2	0.00e+00	0	25	0	1029701632	59	4090
2026-01-07 04:45:48.30	18.45	19.94	-46.7	-47.8	15.2	0.00e+00	0	25	0	1035993088	59	4136
2026-01-07 04:45:49.31	18.31	20.05	-46.6	-47.7	15.2	0.00e+00	0	25	0	1041235968	59	4082
2026-01-07 04:45:50.32	18.16	20.16	-46.6	-47.8	15.2	0.00e+00	0	25	0	1047527424	59	4114
2026-01-07 04:45:51.32	18.02	20.26	-46.6	-47.8	15.2	0.00e+00	0	25	0	1052770304	59	4101
2026-01-07 04:45:52.31	17.87	20.37	-46.5	-47.6	15.3	0.00e+00	0	25	0	1058013184	59	4032
2026-01-07 04:45:53.31	17.72	20.48	-46.4	-47.6	15.3	0.00e+00	0	25	0	1064304640	59	4024
2026-01-07 04:45:54.30	17.58	20.58	-46.3	-47.4	15.4	0.00e+00	0	25	0	1069547520	59	3957
2026-01-07 04:45:55.30	17.43	20.69	-46.3	-47.5	15.3	0.00e+00	0	25	0	1074790400	59	3960
2026-01-07 04:45:56.31	17.28	20.80	-46.2	-47.4	15.4	0.00e+00	0	25	0	1081081856	59	3919
2026-01-07 04:45:57.31	17.12	20.91	-46.2	-47.4	15.4	0.00e+00	0	25	0	1086324736	59	3916
2026-01-07 04:45:58.31	16.97	21.02	-46.2	-47.3	15.4	0.00e+00	0	25	0	1091567616	59	3895
2026-01-07 04:45:59.31	16.82	21.13	-46.2	-47.3	15.4	0.00e+00	0	25	0	1097859072	59	3880
2026-01-07 04:46:00.31	16.66	21.24	-46.2	-47.3	15.4	0.00e+00	0	25	0	1103101952	59	3897
2026-01-07 04:46:01.30	16.51	21.35	-46.2	-47.3	15.4	0.00e+00	0	25	0	1109393408	59	3884
2026-01-07 04:46:02.29	16.35	21.46	-46.0	-47.1	15.3	0.00e+00	0	25	0	1114636288	58	4038
2026-01-07 04:46:03.29	16.19	21.57	-46.2	-47.3	15.2	0.00e+00	0	25	0	1119879168	58	4106
2026-01-07 04:46:04.29	16.03	21.68	-46.0	-47.1	15.3	0.00e+00	0	25	0	1126170624	58	4016
2026-01-07 04:46:05.30	15.87	21.79	-46.0	-47.1	15.3	0.00e+00	0	25	0	1131413504	58	4026
2026-01-07 04:46:06.30	15.71	21.90	-46.2	-47.3	15.2	0.00e+00	0	25	0	1136656384	58	4122
2026-01-07 04:46:07.31	15.55	22.01	-46.0	-47.1	15.3	0.00e+00	0	25	0	1142947840	58	4044
2026-01-07 04:46:08.30	15.38	22.12	-45.9	-47.0	15.3	0.00e+00	0	25	0	1148190720	58	4003
2026-01-07 04:46:09.30	15.22	22.23	-46.0	-47.1	15.3	0.00e+00	0	25	0	1153433600	58	4024
2026-01-07 04:46:10.30	15.05	22.35	-46.1	-47.2	15.3	0.00e+00	0	25	0	1159725056	58	4068
2026-01-07 04:46:11.31	14.88	22.46	-46.0	-47.1	15.3	0.00e+00	0	25	0	1164967936	58	4048
2026-01-07 04:46:12.30	14.71	22.57	-45.8	-46.9	15.4	0.00e+00	0	25	0	1171259392	58	3956
2026-01-07 04:46:13.31	14.54	22.68	-45.8	-46.9	15.4	0.00e+00	0	25	0	1176502272	58	3930
2026-01-07 04:46:14.31	14.37	22.80	-45.8	-46.9	15.4	0.00e+00	0	25	0	1181745152	58	3938
2026-01-07 04:46:15.31	14.20	22.91	-45.8	-46.9	15.4	0.00e+00	0	25	0	1188036608	58	3937
2026-01-07 04:46:16.31	14.02	23.02	-45.7	-46.8	15.4	0.00e+00	0	25	0	1193279488	58	3904
2026-01-07 04:46:17.31	13.85	23.14	-45.8	-46.9	15.4	0.00e+00	0	25	0	1198522368	58	3930
2026-01-07 04:46:18.31	13.67	23.25	-45.9	-47.0	15.4	0.00e+00	0	25	0	1204813824	58	3964
2026-01-07 04:46:19.32	13.49	23.37	-45.9	-47.0	15.3	0.00e+00	0	25	0	1210056704	58	4003
2026-01-07 04:46:20.32	13.31	23.48	-46.0	-47.1	15.3	0.00e+00	0	25	0	1215299584	58	4024
2026-01-07 04:46:21.32	13.13	23.59	-46.0	-47.1	15.3	0.00e+00	0	25	0	1221591040	58	4019
2026-01-07 04:46:22.32	12.95	23.71	-46.0	-47.1	15.3	0.00e+00	0	25	0	1226833920	58	4045
2026-01-07 04:46:23.32	12.76	23.82	-45.8	-46.9	15.4	0.00e+00	0	25	0	1233125376	58	3958
2026-01-07 04:46:24.32	12.58	23.94	-45.7	-46.8	15.4	0.00e+00	0	25	0	1238368256	58	3891
2026-01-07 04:46:25.32	12.39	24.05	-45.7	-46.8	15.4	0.00e+00	0	25	0	1243611136	58	3888
2026-01-07 04:46:26.32	12.21	24.17	-45.6	-46.7	15.3	0.00e+00	0	25	0	1249902592	57	4089
2026-01-07 04:46:27.32	12.02	24.28	-45.5	-46.6	15.3	0.00e+00	0	25	0	1255145472	57	4033
2026-01-07 04:46:28.33	11.82	24.40	-45.4	-46.5	15.4	0.00e+00	0	25	0	1260388352	57	3982
2026-01-07 04:46:29.33	11.63	24.52	-45.5	-46.6	15.4	0.00e+00	0	25	0	1266679808	57	4007
2026-01-07 04:46:30.33	11.44	24.63	-45.5	-46.6	15.4	0.00e+00	0	25	0	1271922688	57	4006
2026-01-07 04:46:31.33	11.24	24.75	-45.6	-46.7	15.3	0.00e+00	0	25	0	1278214144	57	4087
2026-01-07 04:46:32.33	11.05	24.87	-45.6	-46.7	15.3	0.00e+00	0	25	0	1283457024	57	4072
2026-01-07 04:46:33.34	10.85	24.98	-45.7	-46.9	15.3	0.00e+00	0	25	0	1288699904	57	4146
2026-01-07 04:46:34.33	10.65	25.10	-45.7	-46.8	15.3	0.00e+00	0	25	0	1294991360	57	4100
2026-01-07 04:46:35.32	10.45	25.21	-45.8	-46.9	15.3	0.00e+00	0	25	0	1300234240	57	4154
2026-01-07 04:46:36.32	10.25	25.33	-45.7	-46.8	15.3	0.00e+00	0	25	0	1305477120	57	4107
2026-01-07 04:46:37.32	10.05	25.45	-45.7	-46.8	15.3	0.00e+00	0	25	0	1311768576	57	4134
2026-01-07 04:46:38.32	9.84	25.56	-45.5	-46.6	15.4	0.00e+00	0	25	0	1317011456	57	4007
2026-01-07 04:46:39.32	9.63	25.68	-45.5	-46.5	15.4	0.00e+00	0	25	0	1322254336	57	4003
2026-01-07 04:46:40.31	9.43	25.80	-45.3	-46.4	15.4	0.00e+00	0	25	0	1328545792	57	3930
2026-01-07 04:46:41.32	9.21	25.91	-45.3	-46.4	15.4	0.00e+00	0	25	0	1333788672	57	3935
2026-01-07 04:46:42.32	9.00	26.03	-45.2	-46.3	15.5	0.00e+00	0	25	0	1339031552	57	3889
2026-01-07 04:46:43.32	8.79	26.15	-45.3	-46.3	15.5	0.00e+00	0	25	0	1345323008	57	3900
2026-01-07 04:46:44.32	8.58	26.27	-45.3	-46.4	15.4	0.00e+00	0	25	0	1350565888	57	3920
2026-01-07 04:46:45.32	8.36	26.38	-45.1	-46.1	15.4	0.00e+00	0	25	0	1356857344	56	4033
2026-01-07 04:46:46.32	8.14	26.50	-45.1	-46.1	15.4	0.00e+00	0	25	0	1362100224	56	4034
2026-01-07 04:46:47.32	7.92	26.62	-45.1	-46.1	15.4	0.00e+00	0	25	0	1367343104	56	4048
2026-01-07 04:46:48.32	7.70	26.74	-45.2	-46.3	15.3	0.00e+00	0	25	0	1373634560	56	4111
2026-01-07 04:46:49.31	7.48	26.85	-45.1	-46.2	15.3	0.00e+00	0	25	0	1378877440	56	4080
2026-01-07 04:46:50.31	7.25	26.97	-45.2	-46.3	15.3	0.00e+00	0	25	0	1384120320	56	4132
2026-01-07 04:46:51.32	7.03	27.09	-45.3	-46.4	15.3	0.00e+00	0	25	0	1390411776	56	4161
2026-01-07 04:46:52.32	6.80	27.21	-45.2	-46.3	15.3	0.00e+00	0	25	0	1395654656	56	4106
2026-01-07 04:46:53.32	6.57	27.33	-45.1	-46.2	15.4	0.00e+00	0	25	0	1400897536	56	4085
2026-01-07 04:46:54.32	6.34	27.44	-45.2	-46.2	15.3	0.00e+00	0	25	0	1407188992	56	4084
2026-01-07 04:46:55.32	6.10	27.56	-45.1	-46.2	15.4	0.00e+00	0	25	0	1412431872	56	4058
2026-01-07 04:46:56.31	5.87	27.68	-45.1	-46.1	15.4	0.00e+00	0	25	0	1418723328	56	4039
2026-01-07 04:46:57.31	5.63	27.80	-45.0	-46.1	15.4	0.00e+00	0	25	0	1423966208	56	4016
2026-01-07 04:46:58.30	5.40	27.91	-45.0	-46.0	15.4	0.00e+00	0	25	0	1429209088	56	3991
2026-01-07 04:46:59.30	5.16	28.03	-45.0	-46.0	15.4	0.00e+00	0	25	0	1435500544	56	4004
2026-01-07 04:47:00.29	4.92	28.15	-45.0	-46.0	15.4	0.00e+00	0	25	0	1440743424	56	3995
2026-01-07 04:47:01.28	4.68	28.26	-45.0	-46.0	15.4	0.00e+00	0	25	0	1445986304	56	4002
2026-01-07 04:47:02.28	4.43	28.38	-45.0	-46.0	15.4	0.00e+00	0	25	0	1451229184	56	4002
2026-01-07 04:47:03.27	4.19	28.49	-44.9	-46.0	15.4	0.00e+00	0	25	0	1457520640	56	3981
2026-01-07 04:47:04.28	3.93	28.61	-44.9	-46.0	15.4	0.00e+00	0	26	0	1462763520	56	3969
2026-01-07 04:47:05.26	3.69	28.73	-45.0	-46.1	15.4	0.00e+00	0	25	0	1469054976	56	4007
2026-01-07 04:47:06.25	3.44	28.84	-45.0	-46.1	15.4	0.00e+00	0	25	0	1474297856	56	4034
2026-01-07 04:47:07.25	3.18	28.96	-45.0	-46.0	15.4	0.00e+00	0	26	0	1479540736	56	3997
2026-01-07 04:47:08.25	2.93	29.08	-45.1	-46.1	15.4	0.00e+00	0	25	0	1485832192	56	4039
2026-01-07 04:47:09.25	2.67	29.19	-45.2	-46.2	15.3	0.00e+00	0	25	0	1491075072	56	4096
2026-01-07 04:47:10.25	2.41	29.31	-45.2	-46.2	15.3	0.00e+00	0	25	0	1496317952	56	4080
2026-01-07 04:47:11.25	2.14	29.42	-45.1	-46.2	15.4	0.00e+00	0	25	0	1502609408	56	4070
2026-01-07 04:47:12.25	1.88	29.54	-45.1	-46.1	15.4	0.00e+00	0	25	0	1507852288	56	4046
2026-01-07 04:47:13.25	1.61	29.66	-45.0	-46.1	15.4	0.00e+00	0	25	0	1513095168	56	4025
2026-01-07 04:47:14.25	1.35	29.77	-45.0	-46.1	15.4	0.00e+00	0	25	0	1519386624	56	4034
2026-01-07 04:47:15.25	1.08	29.89	-45.0	-46.1	15.4	0.00e+00	0	26	0	1524629504	56	4033
2026-01-07 04:47:16.25	0.80	30.00	-45.0	-46.1	15.4	0.00e+00	0	25	0	1530920960	56	4013
2026-01-07 04:47:17.25	0.53	30.12	-45.1	-46.1	15.4	0.00e+00	0	25	0	1536163840	56	4045
2026-01-07 04:47:18.25	0.25	30.23	-45.0	-46.0	15.4	0.00e+00	0	25	0	1541406720	56	3997
2026-01-07 04:47:19.25	359.97	30.34	-44.8	-45.9	15.5	0.00e+00	0	25	0	1547698176	56	3928
2026-01-07 04:47:20.25	359.69	30.46	-44.8	-45.9	15.5	0.00e+00	0	25	0	1552941056	56	3918
2026-01-07 04:47:21.26	359.41	30.57	-44.8	-45.8	15.5	0.00e+00	0	25	0	1558183936	56	3899
2026-01-07 04:47:22.27	359.12	30.69	-44.8	-45.8	15.5	0.00e+00	0	25	0	1564475392	56	3903
2026-01-07 04:47:23.27	358.84	30.80	-44.7	-45.8	15.5	0.00e+00	0	25	0	1569718272	56	3874
2026-01-07 04:47:24.27	358.55	30.91	-44.8	-45.8	15.5	0.00e+00	0	25	0	1576009728	56	3911
2026-01-07 04:47:25.27	358.26	31.02	-44.8	-45.8	15.5	0.00e+00	0	25	0	1581252608	56	3911
2026-01-07 04:47:26.27	357.97	31.13	-44.8	-45.9	15.5	0.00e+00	0	25	0	1586495488	56	3915
2026-01-07 04:47:27.26	357.68	31.24	-44.9	-46.0	15.4	0.00e+00	0	25	0	1592786944	56	3965
2026-01-07 04:47:28.26	357.38	31.35	-44.9	-46.0	15.4	0.00e+00	0	25	0	1598029824	56	3986
2026-01-07 04:47:29.26	357.08	31.46	-44.8	-45.9	15.5	0.00e+00	0	25	0	1603272704	56	3933
2026-01-07 04:47:30.26	356.78	31.57	-44.9	-45.9	15.5	0.00e+00	0	25	0	1609564160	56	3938
2026-01-07 04:47:31.26	356.48	31.68	-44.8	-45.9	15.5	0.00e+00	0	25	0	1614807040	56	3935
2026-01-07 04:47:32.25	356.18	31.79	-44.8	-45.9	15.5	0.00e+00	0	25	0	1620049920	56	3919
2026-01-07 04:47:33.25	355.87	31.90	-44.8	-45.8	15.5	0.00e+00	0	25	0	1626341376	56	3909
2026-01-07 04:47:34.26	355.56	32.01	-44.7	-45.7	15.5	0.00e+00	0	25	0	1631584256	56	3868
2026-01-07 04:47:35.25	355.25	32.11	-44.5	-45.5	15.4	0.00e+00	0	25	0	1637875712	55	3995
2026-01-07 04:47:36.25	354.94	32.22	-44.5	-45.5	15.4	0.00e+00	0	25	0	1643118592	55	3968
2026-01-07 04:47:37.25	354.62	32.32	-44.4	-45.5	15.4	0.00e+00	0	25	0	1648361472	55	3974
2026-01-07 04:47:38.25	354.31	32.43	-44.5	-45.6	15.4	0.00e+00	0	25	0	1654652928	55	4008
2026-01-07 04:47:39.25	353.99	32.53	-44.6	-45.7	15.4	0.00e+00	0	25	0	1659895808	55	4065
2026-01-07 04:47:40.24	353.67	32.64	-44.4	-45.5	15.4	0.00e+00	0	25	0	1665138688	55	3969
2026-01-07 04:47:41.24	353.35	32.74	-44.5	-45.5	15.4	0.00e+00	0	25	0	1671430144	55	3981
2026-01-07 04:47:42.25	353.02	32.84	-44.4	-45.5	15.4	0.00e+00	0	25	0	1676673024	55	3978
2026-01-07 04:47:43.25	352.69	32.95	-44.5	-45.5	15.4	0.00e+00	0	25	0	1681915904	55	3992
2026-01-07 04:47:44.24	352.37	33.05	-44.5	-45.5	15.4	0.00e+00	0	25	0	1688207360	55	3988
2026-01-07 04:47:45.24	352.04	33.15	-44.4	-45.4	15.4	0.00e+00	0	25	0	1693450240	55	3954
2026-01-07 04:47:46.23	351.71	33.24	-44.4	-45.4	15.5	0.00e+00	0	25	0	1698693120	55	3948
2026-01-07 04:47:47.24	351.37	33.34	-44.4	-45.5	15.5	0.00e+00	0	25	0	1704984576	55	3962
2026-01-07 04:47:48.24	351.03	33.44	-44.7	-45.7	15.4	0.00e+00	0	25	0	1710227456	55	4081
2026-01-07 04:47:49.24	350.69	33.54	-44.8	-45.9	15.3	0.00e+00	0	25	0	1716518912	55	4160
2026-01-07 04:47:50.25	350.35	33.64	-44.6	-45.7	15.4	0.00e+00	0	25	0	1721761792	55	4067
2026-01-07 04:47:51.25	350.00	33.73	-44.6	-45.6	15.4	0.00e+00	0	25	0	1727004672	55	4039
2026-01-07 04:47:52.25	349.66	33.83	-44.6	-45.6	15.4	0.00e+00	0	25	0	1733296128	55	4047
2026-01-07 04:47:53.25	349.31	33.92	-44.5	-45.5	15.4	0.00e+00	0	25	0	1738539008	55	3989
2026-01-07 04:47:54.25	348.96	34.01	-44.6	-45.6	15.4	0.00e+00	0	25	0	1743781888	55	4029
2026-01-07 04:47:55.25	348.61	34.10	-44.6	-45.7	15.4	0.00e+00	0	25	0	1750073344	55	4061
2026-01-07 04:47:56.24	348.26	34.19	-44.6	-45.7	15.4	0.00e+00	0	25	0	1755316224	55	4055
2026-01-07 04:47:57.24	347.90	34.28	-44.5	-45.5	15.4	0.00e+00	0	25	0	1761607680	55	3980
2026-01-07 04:47:58.24	347.54	34.37	-44.4	-45.5	15.5	0.00e+00	0	25	0	1766850560	55	3962
2026-01-07 04:47:59.24	347.19	34.46	-44.4	-45.4	15.5	0.00e+00	0	25	0	1772093440	55	3944
2026-01-07 04:48:00.24	346.82	34.55	-44.4	-45.4	15.5	0.00e+00	0	25	0	1778384896	55	3956
2026-01-07 04:48:01.24	346.46	34.63	-44.4	-45.5	15.5	0.00e+00	0	25	0	1783627776	55	3963
2026-01-07 04:48:02.24	346.10	34.72	-44.3	-45.4	15.5	0.00e+00	0	25	0	1788870656	55	3920
2026-01-07 04:48:03.25	345.72	34.80	-44.3	-45.4	15.5	0.00e+00	0	25	0	1795162112	55	3914
2026-01-07 04:48:04.24	345.36	34.88	-44.4	-45.5	15.5	0.00e+00	0	25	0	1800404992	55	3964
2026-01-07 04:48:05.25	344.98	34.96	-44.4	-45.5	15.5	0.00e+00	0	25	0	1805647872	55	3959
2026-01-07 04:48:06.25	344.61	35.04	-44.5	-45.6	15.4	0.00e+00	0	25	0	1811939328	55	4008
2026-01-07 04:48:07.25	344.24	35.12	-44.5	-45.6	15.4	0.00e+00	0	25	0	1817182208	55	4016
2026-01-07 04:48:08.24	343.86	35.20	-44.6	-45.6	15.4	0.00e+00	0	25	0	1823473664	55	4035
2026-01-07 04:48:09.24	343.49	35.28	-44.5	-45.6	15.4	0.00e+00	0	25	0	1828716544	55	4019
2026-01-07 04:48:10.25	343.10	35.35	-44.7	-45.7	15.4	0.00e+00	0	25	0	1833959424	55	4086
2026-01-07 04:48:11.24	342.72	35.43	-44.7	-45.8	15.4	0.00e+00	0	25	0	1840250880	55	4101
2026-01-07 04:48:12.24	342.34	35.50	-44.8	-45.8	15.4	0.00e+00	0	25	0	1845493760	55	4136
2026-01-07 04:48:13.25	341.95	35.57	-44.7	-45.8	15.4	0.00e+00	0	25	0	1850736640	55	4100
2026-01-07 04:48:14.24	341.57	35.64	-44.6	-45.6	15.4	0.00e+00	0	25	0	1857028096	55	4028
2026-01-07 04:48:15.24	341.18	35.71	-44.5	-45.5	15.4	0.00e+00	0	25	0	1862270976	55	3976
2026-01-07 04:48:16.24	340.79	35.77	-44.5	-45.5	15.4	0.00e+00	0	25	0	1867513856	55	3989
2026-01-07 04:48:17.23	340.40	35.84	-44.4	-45.5	15.5	0.00e+00	0	25	0	1873805312	55	3968
2026-01-07 04:48:18.23	340.01	35.90	-44.4	-45.4	15.5	0.00e+00	0	25	0	1879048192	55	3952
2026-01-07 04:48:19.23	339.61	35.97	-44.4	-45.5	15.5	0.00e+00	0	25	0	1884291072	55	3961
2026-01-07 04:48:20.23	339.22	36.03	-44.5	-45.5	15.4	0.00e+00	0	25	0	1890582528	55	3981
2026-01-07 04:48:21.23	338.82	36.09	-44.5	-45.5	15.4	0.00e+00	0	25	0	1895825408	55	3986
2026-01-07 04:48:22.22	338.42	36.15	-44.5	-45.5	15.4	0.00e+00	0	25	0	1901068288	55	3983
2026-01-07 04:48:23.22	338.02	36.20	-44.4	-45.5	15.4	0.00e+00	0	25	0	1907359744	55	3969
2026-01-07 04:48:24.22	337.62	36.26	-44.5	-45.5	15.4	0.00e+00	0	25	0	1912602624	55	3987
2026-01-07 04:48:25.22	337.22	36.31	-44.4	-45.5	15.5	0.00e+00	0	25	0	1917845504	55	3973
2026-01-07 04:48:26.23	336.81	36.37	-44.5	-45.5	15.4	0.00e+00	0	25	0	1924136960	55	3988
2026-01-07 04:48:27.23	336.40	36.42	-44.5	-45.5	15.4	0.00e+00	0	25	0	1929379840	55	3983
2026-01-07 04:48:28.23	335.99	36.47	-44.5	-45.5	15.4	0.00e+00	0	25	0	1935671296	55	4002
2026-01-07 04:48:29.23	335.58	36.52	-44.6	-45.6	15.4	0.00e+00	0	25	0	1940914176	55	4034
2026-01-07 04:48:30.23	335.17	36.56	-44.5	-45.6	15.4	0.00e+00	0	25	0	1946157056	55	4019
2026-01-07 04:48:31.23	334.76	36.61	-44.5	-45.6	15.4	0.00e+00	0	25	0	1952448512	55	4007
2026-01-07 04:48:32.23	334.35	36.65	-44.6	-45.7	15.4	0.00e+00	0	25	0	1957691392	55	4064
2026-01-07 04:48:33.23	333.94	36.69	-44.7	-45.8	15.4	0.00e+00	0	25	0	1962934272	55	4099
2026-01-07 04:48:34.23	333.52	36.73	-44.4	-45.5	15.4	0.00e+00	0	25	0	1969225728	55	3961
2026-01-07 04:48:35.23	333.11	36.77	-44.1	-45.1	15.4	0.00e+00	0	25	0	1974468608	54	4026
2026-01-07 04:48:36.23	332.69	36.80	-44.2	-45.2	15.4	0.00e+00	0	25	0	1979711488	54	4090
2026-01-07 04:48:37.23	332.27	36.84	-44.5	-45.5	15.3	0.00e+00	0	25	0	1986002944	54	4229
2026-01-07 04:48:38.23	331.86	36.87	-44.6	-45.6	15.3	0.00e+00	0	25	0	1991245824	54	4281
2026-01-07 04:48:39.23	331.44	36.90	-44.7	-45.8	15.3	0.00e+00	0	25	0	1997537280	54	4344
2026-01-07 04:48:40.23	331.02	36.93	-44.7	-45.8	15.3	0.00e+00	0	25	0	2002780160	54	4375
2026-01-07 04:48:41.23	330.60	36.96	-44.9	-45.9	15.3	0.00e+00	0	25	0	2008023040	54	4435
2026-01-07 04:48:42.23	330.18	36.99	-44.7	-45.8	15.3	0.00e+00	0	25	0	2014314496	54	4356
2026-01-07 04:48:43.23	329.75	37.01	-44.6	-45.7	15.3	0.00e+00	0	25	0	2019557376	54	4303
2026-01-07 04:48:44.23	329.33	37.03	-44.7	-45.8	15.3	0.00e+00	0	25	0	2024800256	54	4341
2026-01-07 04:48:45.23	328.91	37.05	-44.7	-45.8	15.3	0.00e+00	0	25	0	2031091712	54	4355
2026-01-07 04:48:46.23	328.49	37.07	-44.8	-45.8	15.3	0.00e+00	0	25	0	2036334592	54	4386
2026-01-07 04:48:47.24	328.06	37.09	-44.6	-45.7	15.3	0.00e+00	0	25	0	2042626048	54	4310
2026-01-07 04:48:48.24	327.63	37.11	-44.5	-45.6	15.3	0.00e+00	0	25	0	2047868928	54	4262
2026-01-07 04:48:49.25	327.20	37.12	-44.4	-45.5	15.4	0.00e+00	0	25	0	2053111808	54	4207
2026-01-07 04:48:50.25	326.78	37.13	-44.5	-45.5	15.3	0.00e+00	0	25	0	2059403264	54	4225
2026-01-07 04:48:51.25	326.35	37.14	-44.5	-45.5	15.3	0.00e+00	0	25	0	2064646144	54	4225
2026-01-07 04:48:52.26	325.92	37.15	-44.6	-45.6	15.3	0.00e+00	0	25	0	2070937600	54	4274
2026-01-07 04:48:53.25	325.50	37.16	-44.4	-45.5	15.4	0.00e+00	0	25	0	2076180480	54	4211
2026-01-07 04:48:54.25	325.07	37.16	-44.5	-45.5	15.3	0.00e+00	0	25	0	2081423360	54	4218
2026-01-07 04:48:55.26	324.64	37.16	-44.5	-45.6	15.3	0.00e+00	0	25	0	2087714816	54	4247
2026-01-07 04:48:56.26	324.22	37.16	-44.7	-45.8	15.3	0.00e+00	0	25	0	2092957696	54	4362
2026-01-07 04:48:57.26	323.79	37.16	-44.7	-45.8	15.3	0.00e+00	0	26	0	2098200576	54	4362
2026-01-07 04:48:58.26	323.37	37.16	-44.7	-45.8	15.3	0.00e+00	0	25	0	2104492032	54	4358
2026-01-07 04:48:59.26	322.94	37.16	-44.5	-45.6	15.4	0.00e+00	0	25	0	2109734912	54	4246
2026-01-07 04:49:00.26	322.51	37.15	-44.5	-45.6	15.3	0.00e+00	0	25	0	2114977792	54	4244
2026-01-07 04:49:01.25	322.09	37.14	-44.6	-45.6	15.3	0.00e+00	0	25	0	2121269248	54	4284
2026-01-07 04:49:02.25	321.67	37.13	-44.6	-45.6	15.3	0.00e+00	0	25	0	2126512128	54	4275
2026-01-07 04:49:03.25	321.24	37.12	-44.5	-45.5	15.3	0.00e+00	0	26	0	2132803584	54	4232
2026-01-07 04:49:04.25	320.82	37.11	-44.5	-45.5	15.3	0.00e+00	0	25	0	2138046464	54	4238
2026-01-07 04:49:05.25	320.39	37.09	-44.6	-45.7	15.3	0.00e+00	0	25	0	2143289344	54	4301
2026-01-07 04:49:06.25	319.97	37.07	-44.6	-45.7	15.3	0.00e+00	0	25	0	2149580800	54	4317
2026-01-07 04:49:07.26	319.54	37.05	-44.7	-45.7	15.3	0.00e+00	0	25	0	2154823680	54	4321
2026-01-07 04:49:08.26	319.12	37.03	-44.4	-45.4	15.3	0.00e+00	0	25	0	2160066560	54	4189
2026-01-07 04:49:09.25	318.70	37.01	-44.4	-45.4	15.3	0.00e+00	0	25	0	2166358016	54	4180
2026-01-07 04:49:10.25	318.28	36.99	-44.4	-45.4	15.4	0.00e+00	0	25	0	2171600896	54	4186
2026-01-07 04:49:11.24	317.86	36.96	-44.4	-45.5	15.3	0.00e+00	0	25	0	2176843776	54	4209
2026-01-07 04:49:12.23	317.44	36.93	-44.5	-45.5	15.3	0.00e+00	0	25	0	2183135232	54	4227
2026-01-07 04:49:13.24	317.02	36.91	-44.5	-45.5	15.3	0.00e+00	0	25	0	2188378112	54	4233
2026-01-07 04:49:14.23	316.60	36.87	-44.4	-45.4	15.4	0.00e+00	0	25	0	2194669568	54	4187
2026-01-07 04:49:15.23	316.18	36.84	-44.5	-45.5	15.3	0.00e+00	0	25	0	2199912448	54	4219
2026-01-07 04:49:16.23	315.77	36.81	-44.6	-45.7	15.3	0.00e+00	0	25	0	2205155328	54	4307
2026-01-07 04:49:17.23	315.35	36.77	-44.6	-45.6	15.3	0.00e+00	0	25	0	2211446784	54	4274
2026-01-07 04:49:18.23	314.93	36.73	-44.5	-45.5	15.3	0.00e+00	0	25	0	2216689664	54	4224
2026-01-07 04:49:19.23	314.52	36.69	-44.5	-45.5	15.3	0.00e+00	0	25	0	2221932544	54	4229
2026-01-07 04:49:20.22	314.11	36.65	-44.5	-45.5	15.3	0.00e+00	0	25	0	2228224000	54	4216
2026-01-07 04:49:21.22	313.70	36.61	-44.5	-45.5	15.3	0.00e+00	0	25	0	2233466880	54	4234
2026-01-07 04:49:22.22	313.29	36.57	-44.4	-45.4	15.4	0.00e+00	0	25	0	2238709760	54	4175
2026-01-07 04:49:23.22	312.88	36.52	-44.4	-45.4	15.4	0.00e+00	0	25	0	2245001216	54	4164
2026-01-07 04:49:24.22	312.47	36.47	-44.4	-45.4	15.4	0.00e+00	0	25	0	2250244096	54	4171
2026-01-07 04:49:25.22	312.06	36.42	-44.3	-45.4	15.4	0.00e+00	0	25	0	2255486976	54	4151
2026-01-07 04:49:26.22	311.65	36.37	-44.4	-45.5	15.4	0.00e+00	0	25	0	2261778432	54	4196
2026-01-07 04:49:27.22	311.25	36.32	-44.3	-45.3	15.4	0.00e+00	0	25	0	2267021312	54	4113
2026-01-07 04:49:28.22	310.84	36.26	-44.3	-45.3	15.4	0.00e+00	0	25	0	2272264192	54	4129
2026-01-07 04:49:29.22	310.44	36.21	-44.4	-45.4	15.4	0.00e+00	0	25	0	2278555648	54	4184
2026-01-07 04:49:30.22	310.04	36.15	-44.5	-45.6	15.3	0.00e+00	0	25	0	2283798528	54	4261
2026-01-07 04:49:31.21	309.64	36.09	-44.7	-45.8	15.3	0.00e+00	0	25	0	2290089984	54	4359
2026-01-07 04:49:32.21	309.24	36.03	-44.7	-45.8	15.3	0.00e+00	0	25	0	2295332864	54	4372
2026-01-07 04:49:33.21	308.85	35.97	-44.7	-45.7	15.3	0.00e+00	0	25	0	2300575744	54	4331
2026-01-07 04:49:34.21	308.45	35.91	-44.7	-45.8	15.3	0.00e+00	0	25	0	2306867200	54	4351
2026-01-07 04:49:35.22	308.05	35.84	-44.6	-45.6	15.3	0.00e+00	0	25	0	2312110080	54	4271
2026-01-07 04:49:36.22	307.66	35.78	-44.7	-45.8	15.3	0.00e+00	0	25	0	2317352960	54	4359
2026-01-07 04:49:37.22	307.27	35.71	-44.9	-46.0	15.3	0.00e+00	0	25	0	2323644416	54	4443
2026-01-07 04:49:38.22	306.88	35.64	-44.9	-46.0	15.3	0.00e+00	0	26	0	2328887296	55	4200
2026-01-07 04:49:39.22	306.49	35.57	-44.3	-45.4	15.5	0.00e+00	0	25	0	2334130176	55	3924
2026-01-07 04:49:40.22	306.11	35.50	-44.1	-45.2	15.4	0.00e+00	0	25	0	2340421632	54	4058
2026-01-07 04:49:41.22	305.72	35.43	-44.1	-45.1	15.4	0.00e+00	0	25	0	2345664512	54	4042
2026-01-07 04:49:42.22	305.34	35.36	-44.3	-45.3	15.4	0.00e+00	0	26	0	2351955968	54	4134
2026-01-07 04:49:43.22	304.96	35.28	-44.4	-45.5	15.4	0.00e+00	0	25	0	2357198848	54	4197
2026-01-07 04:49:44.22	304.58	35.20	-44.5	-45.5	15.4	0.00e+00	0	26	0	2362441728	54	4233
2026-01-07 04:49:45.23	304.20	35.13	-44.4	-45.5	15.4	0.00e+00	0	26	0	2368733184	54	4196
2026-01-07 04:49:46.23	303.83	35.05	-44.4	-45.4	15.4	0.00e+00	0	25	0	2373976064	54	4174
2026-01-07 04:49:47.24	303.45	34.97	-44.4	-45.4	15.4	0.00e+00	0	25	0	2380267520	54	4160
2026-01-07 04:49:48.24	303.08	34.89	-44.5	-45.6	15.3	0.00e+00	0	25	0	2385510400	54	4249
2026-01-07 04:49:49.25	302.70	34.80	-44.6	-45.7	15.3	0.00e+00	0	25	0	2390753280	54	4303
2026-01-07 04:49:50.25	302.34	34.72	-44.6	-45.7	15.3	0.00e+00	0	25	0	2397044736	54	4309
2026-01-07 04:49:51.25	301.97	34.63	-44.8	-45.8	15.3	0.00e+00	0	26	0	2402287616	54	4373
2026-01-07 04:49:52.25	301.61	34.55	-44.7	-45.8	15.3	0.00e+00	0	25	0	2407530496	54	4349
2026-01-07 04:49:53.25	301.24	34.46	-44.6	-45.7	15.3	0.00e+00	0	26	0	2413821952	54	4301
2026-01-07 04:49:54.26	300.88	34.37	-44.7	-45.7	15.3	0.00e+00	0	25	0	2419064832	54	4339
2026-01-07 04:49:55.26	300.52	34.28	-44.6	-45.7	15.3	0.00e+00	0	26	0	2425356288	54	4315
2026-01-07 04:49:56.25	300.17	34.19	-44.6	-45.6	15.3	0.00e+00	0	25	0	2430599168	54	4259
2026-01-07 04:49:57.25	299.81	34.10	-44.2	-45.2	15.4	0.00e+00	0	25	0	2435842048	54	4087
2026-01-07 04:49:58.25	299.46	34.01	-44.2	-45.2	15.4	0.00e+00	0	25	0	2442133504	54	4088
2026-01-07 04:49:59.26	299.11	33.92	-44.4	-45.4	15.4	0.00e+00	0	25	0	2447376384	54	4181
2026-01-07 04:50:00.25	298.76	33.83	-44.4	-45.4	15.4	0.00e+00	0	25	0	2452619264	54	4185
2026-01-07 04:50:01.25	298.42	33.73	-44.4	-45.4	15.4	0.00e+00	0	25	0	2458910720	54	4167
2026-01-07 04:50:02.25	298.07	33.64	-44.3	-45.3	15.4	0.00e+00	0	25	0	2464153600	54	4139
2026-01-07 04:50:03.25	297.73	33.54	-44.2	-45.3	15.4	0.00e+00	0	25	0	2469396480	54	4105
2026-01-07 04:50:04.25	297.39	33.44	-44.3	-45.3	15.4	0.00e+00	0	25	0	2475687936	54	4145
2026-01-07 04:50:05.25	297.05	33.34	-44.4	-45.4	15.4	0.00e+00	0	25	0	2480930816	54	4189
2026-01-07 04:50:06.24	296.72	33.25	-44.4	-45.5	15.4	0.00e+00	0	25	0	2487222272	54	4214
2026-01-07 04:50:07.24	296.39	33.15	-44.5	-45.6	15.3	0.00e+00	0	25	0	2492465152	54	4259
2026-01-07 04:50:08.24	296.05	33.05	-44.5	-45.5	15.3	0.00e+00	0	25	0	2497708032	54	4228
2026-01-07 04:50:09.23	295.73	32.95	-44.7	-45.7	15.3	0.00e+00	0	25	0	2503999488	54	4316
2026-01-07 04:50:10.24	295.40	32.84	-44.6	-45.6	15.3	0.00e+00	0	25	0	2509242368	54	4288
2026-01-07 04:50:11.25	295.07	32.74	-44.5	-45.6	15.3	0.00e+00	0	25	0	2514485248	54	4259
2026-01-07 04:50:12.25	294.74	32.64	-44.5	-45.6	15.3	0.00e+00	0	25	0	2520776704	54	4260
2026-01-07 04:50:13.25	294.42	32.53	-44.6	-45.6	15.3	0.00e+00	0	25	0	2526019584	54	4288
2026-01-07 04:50:14.25	294.10	32.43	-44.6	-45.7	15.3	0.00e+00	0	25	0	2531262464	54	4298
2026-01-07 04:50:15.25	293.79	32.32	-44.7	-45.7	15.3	0.00e+00	0	25	0	2537553920	54	4319
2026-01-07 04:50:16.25	293.47	32.21	-44.6	-45.7	15.3	0.00e+00	0	25	0	2542796800	54	4292
2026-01-07 04:50:17.24	293.16	32.11	-44.7	-45.7	15.3	0.00e+00	0	25	0	2549088256	54	4313
2026-01-07 04:50:18.24	292.85	32.00	-44.7	-45.7	15.3	0.00e+00	0	25	0	2554331136	54	4331
2026-01-07 04:50:19.25	292.54	31.89	-44.7	-45.8	15.3	0.00e+00	0	25	0	2559574016	54	4358
2026-01-07 04:50:20.24	292.23	31.79	-44.7	-45.7	15.3	0.00e+00	0	25	0	2565865472	54	4322
2026-01-07 04:50:21.24	291.93	31.68	-44.7	-45.7	15.3	0.00e+00	0	26	0	2571108352	54	4325
2026-01-07 04:50:22.24	291.63	31.57	-44.7	-45.7	15.3	0.00e+00	0	25	0	2576351232	54	4315
2026-01-07 04:50:23.24	291.32	31.46	-44.7	-45.7	15.3	0.00e+00	0	25	0	2582642688	54	4331
2026-01-07 04:50:24.24	291.03	31.35	-44.8	-45.9	15.3	0.00e+00	0	25	0	2587885568	54	4402
2026-01-07 04:50:25.25	290.73	31.24	-44.9	-45.9	15.3	0.00e+00	0	26	0	2593128448	54	4427
2026-01-07 04:50:26.25	290.43	31.13	-44.8	-45.9	15.3	0.00e+00	0	26	0	2599419904	54	4392
2026-01-07 04:50:27.25	290.14	31.01	-44.6	-45.6	15.3	0.00e+00	0	25	0	2604662784	54	4274
2026-01-07 04:50:28.26	289.84	30.90	-44.7	-45.7	15.3	0.00e+00	0	25	0	2610954240	54	4312
2026-01-07 04:50:29.26	289.56	30.79	-44.7	-45.7	15.3	0.00e+00	0	25	0	2616197120	54	4339
2026-01-07 04:50:30.26	289.27	30.68	-44.7	-45.8	15.3	0.00e+00	0	25	0	2621440000	54	4346
2026-01-07 04:50:31.26	288.98	30.56	-44.7	-45.7	15.3	0.00e+00	0	25	0	2627731456	54	4335
2026-01-07 04:50:32.26	288.70	30.45	-44.5	-45.6	15.3	0.00e+00	0	25	0	2632974336	54	4255
2026-01-07 04:50:33.25	288.42	30.34	-44.5	-45.5	15.3	0.00e+00	0	25	0	2638217216	54	4210
2026-01-07 04:50:34.26	288.14	30.22	-44.6	-45.7	15.3	0.00e+00	0	25	0	2644508672	54	4294
2026-01-07 04:50:35.26	287.87	30.11	-44.7	-45.8	15.3	0.00e+00	0	25	0	2649751552	54	4362
2026-01-07 04:50:36.26	287.59	29.99	-44.9	-46.0	15.3	0.00e+00	0	25	0	2654994432	54	4443
2026-01-07 04:50:37.26	287.32	29.88	-45.0	-46.1	15.3	0.00e+00	0	26	0	2661285888	55	4245
2026-01-07 04:50:38.26	287.05	29.76	-44.9	-46.0	15.3	0.00e+00	0	26	0	2666528768	55	4212
2026-01-07 04:50:39.25	286.78	29.65	-45.0	-46.0	15.3	0.00e+00	0	25	0	2672820224	55	4217
2026-01-07 04:50:40.25	286.51	29.53	-44.9	-45.9	15.3	0.00e+00	0	25	0	2678063104	55	4170
2026-01-07 04:50:41.24	286.25	29.42	-44.7	-45.8	15.3	0.00e+00	0	25	0	2683305984	55	4105
2026-01-07 04:50:42.24	285.99	29.30	-44.7	-45.8	15.3	0.00e+00	0	25	0	2689597440	55	4099
2026-01-07 04:50:43.24	285.73	29.18	-44.7	-45.7	15.3	0.00e+00	0	25	0	2694840320	55	4084
2026-01-07 04:50:44.23	285.47	29.07	-44.6	-45.6	15.4	0.00e+00	0	25	0	2700083200	55	4049
2026-01-07 04:50:45.23	285.21	28.95	-44.5	-45.6	15.4	0.00e+00	0	25	0	2705326080	55	4006
2026-01-07 04:50:46.23	284.96	28.83	-44.7	-45.8	15.4	0.00e+00	0	25	0	2711617536	55	4104
2026-01-07 04:50:47.22	284.71	28.72	-44.8	-45.8	15.3	0.00e+00	0	25	0	2716860416	55	4140
2026-01-07 04:50:48.23	284.45	28.60	-44.9	-46.0	15.3	0.00e+00	0	25	0	2723151872	55	4198
2026-01-07 04:50:49.23	284.20	28.48	-45.0	-46.1	15.3	0.00e+00	0	25	0	2728394752	55	4253
2026-01-07 04:50:50.23	283.95	28.36	-45.0	-46.0	15.3	0.00e+00	0	25	0	2733637632	55	4239
2026-01-07 04:50:51.23	283.71	28.25	-44.9	-46.0	15.3	0.00e+00	0	25	0	2739929088	55	4212
2026-01-07 04:50:52.23	283.46	28.13	-44.9	-46.0	15.3	0.00e+00	0	25	0	2745171968	55	4196
2026-01-07 04:50:53.23	283.22	28.01	-44.9	-45.9	15.3	0.00e+00	0	25	0	2750414848	55	4192
2026-01-07 04:50:54.23	282.98	27.89	-45.0	-46.1	15.3	0.00e+00	0	25	0	2756706304	55	4250
2026-01-07 04:50:55.24	282.74	27.77	-45.1	-46.2	15.3	0.00e+00	0	26	0	2761949184	55	4302
2026-01-07 04:50:56.24	282.50	27.66	-45.0	-46.1	15.3	0.00e+00	0	25	0	2768240640	55	4260
2026-01-07 04:50:57.24	282.27	27.54	-45.1	-46.2	15.3	0.00e+00	0	25	0	2773483520	55	4313
2026-01-07 04:50:58.24	282.03	27.42	-45.1	-46.2	15.2	0.00e+00	0	25	0	2778726400	55	4314
2026-01-07 04:50:59.24	281.80	27.30	-45.2	-46.2	15.3	0.00e+00	0	25	0	2785017856	55	4336
2026-01-07 04:51:00.24	281.57	27.18	-45.1	-46.2	15.3	0.00e+00	0	26	0	2790260736	55	4320
2026-01-07 04:51:01.24	281.34	27.07	-45.3	-46.4	15.2	0.00e+00	0	25	0	2796552192	55	4406
2026-01-07 04:51:02.24	281.11	26.95	-45.3	-46.4	15.2	0.00e+00	0	25	0	2801795072	55	4419
2026-01-07 04:51:03.24	280.89	26.83	-45.3	-46.4	15.2	0.00e+00	0	25	0	2807037952	55	4422
2026-01-07 04:51:04.24	280.67	26.71	-45.3	-46.4	15.2	0.00e+00	0	25	0	2813329408	55	4398
2026-01-07 04:51:05.24	280.44	26.59	-45.2	-46.3	15.2	0.00e+00	0	25	0	2818572288	55	4367
2026-01-07 04:51:06.24	280.22	26.48	-45.4	-46.4	15.2	0.00e+00	0	25	0	2823815168	55	4439
2026-01-07 04:51:07.24	280.01	26.36	-45.4	-46.4	15.2	0.00e+00	0	25	0	2830106624	55	4431
2026-01-07 04:51:08.24	279.79	26.24	-45.4	-46.4	15.2	0.00e+00	0	25	0	2835349504	55	4438
2026-01-07 04:51:09.24	279.57	26.12	-45.4	-46.5	15.2	0.00e+00	0	25	0	2840592384	55	4453
2026-01-07 04:51:10.24	279.36	26.01	-45.3	-46.4	15.2	0.00e+00	0	25	0	2846883840	55	4407
2026-01-07 04:51:11.23	279.15	25.89	-45.4	-46.5	15.2	0.00e+00	0	26	0	2852126720	55	4443
2026-01-07 04:51:12.23	278.94	25.77	-45.3	-46.4	15.2	0.00e+00	0	26	0	2857369600	55	4398
2026-01-07 04:51:13.24	278.73	25.65	-45.6	-46.7	15.2	0.00e+00	0	25	0	2863661056	56	4319
2026-01-07 04:51:14.23	278.52	25.54	-45.7	-46.8	15.2	0.00e+00	0	25	0	2868903936	56	4372
2026-01-07 04:51:15.24	278.31	25.42	-45.8	-46.9	15.2	0.00e+00	0	25	0	2875195392	56	4425
2026-01-07 04:51:16.24	278.11	25.30	-45.8	-46.9	15.2	0.00e+00	0	25	0	2880438272	56	4409
2026-01-07 04:51:17.24	277.91	25.18	-45.8	-46.9	15.2	0.00e+00	0	25	0	2885681152	56	4411
2026-01-07 04:51:18.23	277.71	25.07	-45.7	-46.8	15.2	0.00e+00	0	25	0	2891972608	56	4348
2026-01-07 04:51:19.23	277.51	24.95	-45.8	-46.9	15.2	0.00e+00	0	25	0	2897215488	56	4402
2026-01-07 04:51:20.23	277.31	24.84	-45.8	-46.9	15.2	0.00e+00	0	25	0	2902458368	56	4394
2026-01-07 04:51:21.24	277.11	24.72	-45.5	-46.6	15.2	0.00e+00	0	25	0	2908749824	56	4264
2026-01-07 04:51:22.24	276.92	24.60	-45.5	-46.6	15.2	0.00e+00	0	25	0	2913992704	56	4265
2026-01-07 04:51:23.24	276.72	24.49	-45.6	-46.7	15.2	0.00e+00	0	25	0	2920284160	56	4312
2026-01-07 04:51:24.24	276.53	24.37	-45.5	-46.6	15.2	0.00e+00	0	25	0	2925527040	56	4254
2026-01-07 04:51:25.23	276.34	24.25	-45.6	-46.7	15.2	0.00e+00	0	25	0	2930769920	56	4294
2026-01-07 04:51:26.24	276.15	24.14	-45.5	-46.6	15.2	0.00e+00	0	25	0	2937061376	56	4259
2026-01-07 04:51:27.23	275.96	24.02	-45.6	-46.7	15.2	0.00e+00	0	25	0	2942304256	56	4314
2026-01-07 04:51:28.23	275.78	23.91	-45.7	-46.8	15.2	0.00e+00	0	25	0	2947547136	56	4375
2026-01-07 04:51:29.24	275.59	23.79	-45.9	-47.0	15.2	0.00e+00	0	25	0	2953838592	56	4456
2026-01-07 04:51:30.23	275.41	23.68	-45.9	-47.0	15.2	0.00e+00	0	25	0	2959081472	56	4484
2026-01-07 04:51:31.24	275.22	23.56	-46.0	-47.1	15.2	0.00e+00	0	25	0	2965372928	57	4263
2026-01-07 04:51:32.24	275.04	23.45	-46.0	-47.1	15.2	0.00e+00	0	25	0	2970615808	57	4253
2026-01-07 04:51:33.24	274.86	23.33	-45.9	-47.0	15.2	0.00e+00	0	25	0	2975858688	57	4194
2026-01-07 04:51:34.23	274.68	23.22	-45.9	-47.0	15.2	0.00e+00	0	26	0	2981101568	57	4222
2026-01-07 04:51:35.23	274.51	23.11	-45.8	-46.9	15.2	0.00e+00	0	25	0	2987393024	57	4177
2026-01-07 04:51:36.23	274.33	22.99	-45.7	-46.8	15.3	0.00e+00	0	25	0	2992635904	57	4136
2026-01-07 04:51:37.23	274.16	22.88	-45.8	-46.8	15.3	0.00e+00	0	26	0	2997878784	57	4143
2026-01-07 04:51:38.23	273.98	22.77	-45.8	-46.8	15.3	0.00e+00	0	25	0	3004170240	57	4134
2026-01-07 04:51:39.23	273.81	22.65	-45.8	-46.8	15.3	0.00e+00	0	25	0	3009413120	57	4143
2026-01-07 04:51:40.23	273.64	22.54	-45.8	-46.9	15.3	0.00e+00	0	25	0	3015704576	57	4149
2026-01-07 04:51:41.23	273.47	22.43	-45.6	-46.7	15.3	0.00e+00	0	25	0	3020947456	57	4076
2026-01-07 04:51:42.23	273.30	22.31	-45.6	-46.7	15.3	0.00e+00	0	25	0	3026190336	57	4074
2026-01-07 04:51:43.23	273.13	22.20	-45.6	-46.7	15.3	0.00e+00	0	25	0	3032481792	57	4083
2026-01-07 04:51:44.23	272.97	22.09	-45.6	-46.7	15.3	0.00e+00	0	25	0	3037724672	57	4078
2026-01-07 04:51:45.23	272.80	21.98	-45.7	-46.7	15.3	0.00e+00	0	25	0	3044016128	57	4087
2026-01-07 04:51:46.24	272.64	21.86	-45.8	-46.8	15.3	0.00e+00	0	25	0	3049259008	57	4143
2026-01-07 04:51:47.24	272.48	21.75	-45.7	-46.8	15.3	0.00e+00	0	26	0	3054501888	57	4134
2026-01-07 04:51:48.23	272.32	21.64	-45.7	-46.8	15.3	0.00e+00	0	25	0	3059744768	57	4108
2026-01-07 04:51:49.22	272.16	21.53	-45.7	-46.8	15.3	0.00e+00	0	25	0	3066036224	57	4129
2026-01-07 04:51:50.22	272.00	21.42	-45.8	-46.9	15.2	0.00e+00	0	25	0	3071279104	57	4180
2026-01-07 04:51:51.22	271.84	21.31	-45.8	-46.9	15.2	0.00e+00	0	25	0	3077570560	57	4180
2026-01-07 04:51:52.22	271.69	21.20	-45.8	-46.9	15.2	0.00e+00	0	26	0	3082813440	57	4185
2026-01-07 04:51:53.21	271.53	21.09	-45.9	-47.0	15.2	0.00e+00	0	25	0	3088056320	57	4230
2026-01-07 04:51:54.21	271.38	20.98	-45.9	-47.0	15.2	0.00e+00	0	25	0	3094347776	57	4226
2026-01-07 04:51:55.22	271.22	20.87	-46.0	-47.1	15.2	0.00e+00	0	25	0	3099590656	57	4251
2026-01-07 04:51:56.22	271.07	20.76	-46.1	-47.2	15.2	0.00e+00	0	25	0	3104833536	57	4306
2026-01-07 04:51:57.22	270.92	20.66	-46.1	-47.2	15.2	0.00e+00	0	26	0	3111124992	57	4328
2026-01-07 04:51:58.22	270.77	20.55	-46.1	-47.2	15.2	0.00e+00	0	25	0	3116367872	57	4331
2026-01-07 04:51:59.22	270.62	20.44	-46.2	-47.3	15.2	0.00e+00	0	25	0	3121610752	57	4359
2026-01-07 04:52:00.22	270.47	20.33	-46.2	-47.4	15.1	0.00e+00	0	25	0	3127902208	57	4403
2026-01-07 04:52:01.22	270.33	20.22	-46.2	-47.4	15.1	0.00e+00	0	26	0	3133145088	57	4398
2026-01-07 04:52:02.22	270.18	20.12	-46.2	-47.3	15.1	0.00e+00	0	25	0	3139436544	57	4372
2026-01-07 04:52:03.22	270.04	20.01	-46.2	-47.3	15.1	0.00e+00	0	25	0	3144679424	57	4353
2026-01-07 04:52:04.22	269.89	19.90	-46.1	-47.2	15.2	0.00e+00	0	25	0	3149922304	57	4314
2026-01-07 04:52:05.23	269.75	19.79	-46.1	-47.3	15.1	0.00e+00	0	25	0	3156213760	57	4348
2026-01-07 04:52:06.23	269.61	19.69	-46.0	-47.1	15.2	0.00e+00	0	25	0	3161456640	57	4289
2026-01-07 04:52:07.22	269.47	19.58	-46.1	-47.3	15.2	0.00e+00	0	25	0	3166699520	57	4356
2026-01-07 04:52:08.22	269.33	19.48	-46.1	-47.3	15.2	0.00e+00	0	25	0	3172990976	57	4344
2026-01-07 04:52:09.22	269.19	19.37	-46.1	-47.3	15.2	0.00e+00	0	26	0	3178233856	57	4341
2026-01-07 04:52:10.22	269.05	19.26	-46.2	-47.3	15.2	0.00e+00	0	25	0	3183476736	57	4368
2026-01-07 04:52:11.21	268.92	19.16	-46.3	-47.4	15.1	0.00e+00	0	25	0	3189768192	57	4430
2026-01-07 04:52:12.21	268.78	19.06	-46.4	-47.5	15.1	0.00e+00	0	26	0	3195011072	57	4463
2026-01-07 04:52:13.21	268.64	18.95	-46.4	-47.5	15.2	0.00e+00	0	25	0	3201302528	58	4241
2026-01-07 04:52:14.21	268.51	18.85	-46.4	-47.5	15.2	0.00e+00	0	25	0	3206545408	58	4229
2026-01-07 04:52:15.21	268.38	18.74	-46.5	-47.6	15.1	0.00e+00	0	25	0	3211788288	58	4289
2026-01-07 04:52:16.21	268.25	18.64	-46.5	-47.6	15.1	0.00e+00	0	25	0	3218079744	58	4290
2026-01-07 04:52:17.20	268.12	18.54	-46.6	-47.7	15.1	0.00e+00	0	26	0	3223322624	58	4334
2026-01-07 04:52:18.20	267.99	18.43	-46.7	-47.8	15.1	0.00e+00	0	25	0	3228565504	58	4380
2026-01-07 04:52:19.18	267.86	18.33	-46.6	-47.7	15.1	0.00e+00	0	26	0	3234856960	58	4325
2026-01-07 04:52:20.18	267.73	18.23	-46.6	-47.8	15.1	0.00e+00	0	25	0	3240099840	58	4357
2026-01-07 04:52:21.18	267.60	18.13	-46.7	-47.9	15.1	0.00e+00	0	25	0	3245342720	58	4405
2026-01-07 04:52:22.18	267.48	18.03	-46.8	-47.9	15.0	0.00e+00	0	26	0	3251634176	58	4434
2026-01-07 04:52:23.18	267.35	17.92	-46.8	-48.0	15.0	0.00e+00	0	25	0	3256877056	58	4456
2026-01-07 04:52:24.18	267.23	17.82	-46.8	-47.9	15.1	0.00e+00	0	25	0	3262119936	58	4433
2026-01-07 04:52:25.18	267.10	17.72	-46.8	-48.0	15.1	0.00e+00	0	25	0	3268411392	58	4444
2026-01-07 04:52:26.18	266.98	17.62	-46.9	-48.1	15.0	0.00e+00	0	25	0	3273654272	59	4264
2026-01-07 04:52:27.19	266.85	17.52	-47.0	-48.1	15.1	0.00e+00	0	25	0	3279945728	59	4289
2026-01-07 04:52:28.19	266.73	17.42	-46.9	-48.0	15.1	0.00e+00	0	25	0	3285188608	59	4227
2026-01-07 04:52:29.19	266.61	17.32	-46.9	-48.1	15.1	0.00e+00	0	25	0	3290431488	59	4244
2026-01-07 04:52:30.20	266.49	17.22	-46.9	-48.0	15.1	0.00e+00	0	25	0	3296722944	59	4222
2026-01-07 04:52:31.21	266.37	17.12	-46.9	-48.0	15.1	0.00e+00	0	25	0	3301965824	59	4239
2026-01-07 04:52:32.21	266.25	17.02	-46.9	-48.1	15.1	0.00e+00	0	25	0	3307208704	59	4246
2026-01-07 04:52:33.21	266.13	16.92	-47.0	-48.2	15.1	0.00e+00	0	26	0	3313500160	59	4313
2026-01-07 04:52:34.22	266.02	16.82	-46.9	-48.1	15.1	0.00e+00	0	25	0	3318743040	59	4250
2026-01-07 04:52:35.22	265.90	16.72	-47.0	-48.2	15.0	0.00e+00	0	26	0	3325034496	59	4325
2026-01-07 04:52:36.23	265.78	16.62	-47.0	-48.2	15.1	0.00e+00	0	25	0	3330277376	59	4313
2026-01-07 04:52:37.23	265.67	16.52	-47.0	-48.2	15.1	0.00e+00	0	26	0	3335520256	59	4314
2026-01-07 04:52:38.23	265.56	16.42	-47.1	-48.3	15.0	0.00e+00	0	25	0	3341811712	59	4361
2026-01-07 04:52:39.22	265.44	16.33	-47.1	-48.2	15.0	0.00e+00	0	26	0	3347054592	59	4339
2026-01-07 04:52:40.22	265.33	16.23	-47.1	-48.3	15.0	0.00e+00	0	25	0	3352297472	59	4351
2026-01-07 04:52:41.22	265.22	16.13	-47.2	-48.4	15.0	0.00e+00	0	25	0	3358588928	59	4402
2026-01-07 04:52:42.23	265.11	16.04	-47.2	-48.4	15.0	0.00e+00	0	26	0	3363831808	59	4406
2026-01-07 04:52:43.22	265.00	15.94	-47.3	-48.4	15.0	0.00e+00	0	25	0	3369074688	59	4436
2026-01-07 04:52:44.23	264.89	15.84	-47.3	-48.5	15.0	0.00e+00	0	26	0	3375366144	59	4442
2026-01-07 04:52:45.23	264.78	15.75	-47.2	-48.4	15.0	0.00e+00	0	25	0	3380609024	59	4395
2026-01-07 04:52:46.22	264.68	15.65	-47.3	-48.5	15.0	0.00e+00	0	26	0	3386900480	59	4444
2026-01-07 04:52:47.23	264.57	15.56	-47.3	-48.5	14.9	0.00e+00	0	25	0	3392143360	59	4465
2026-01-07 04:52:48.23	264.46	15.46	-47.3	-48.5	15.0	0.00e+00	0	26	0	3397386240	59	4482
2026-01-07 04:52:49.23	264.35	15.37	-47.2	-48.4	15.0	0.00e+00	0	26	0	3403677696	59	4430
2026-01-07 04:52:50.23	264.25	15.27	-47.4	-48.5	14.9	0.00e+00	0	25	0	3408920576	59	4491
2026-01-07 04:52:51.23	264.15	15.18	-47.3	-48.5	14.9	0.00e+00	0	25	0	3414163456	59	4472
2026-01-07 04:52:52.24	264.04	15.08	-47.4	-48.6	14.9	0.00e+00	0	26	0	3420454912	59	4497
2026-01-07 04:52:53.24	263.94	14.99	-47.3	-48.5	14.9	0.00e+00	0	25	0	3425697792	59	4478
2026-01-07 04:52:54.24	263.84	14.90	-47.4	-48.6	14.9	0.00e+00	0	26	0	3431989248	59	4520
2026-01-07 04:52:55.24	263.73	14.80	-47.2	-48.4	15.1	0.00e+00	0	26	0	3437232128	60	4159
2026-01-07 04:52:56.25	263.63	14.71	-47.1	-48.3	15.1	0.00e+00	0	25	0	3442475008	60	4105
2026-01-07 04:52:57.25	263.53	14.62	-47.1	-48.3	15.1	0.00e+00	0	26	0	3448766464	60	4122
2026-01-07 04:52:58.25	263.43	14.52	-47.2	-48.4	15.1	0.00e+00	0	26	0	3454009344	60	4159
2026-01-07 04:52:59.26	263.33	14.43	-47.2	-48.4	15.1	0.00e+00	0	26	0	3460300800	60	4146
2026-01-07 04:53:00.26	263.23	14.34	-47.3	-48.5	15.0	0.00e+00	0	25	0	3465543680	60	4203
2026-01-07 04:53:01.25	263.14	14.25	-47.3	-48.5	15.0	0.00e+00	0	26	0	3470786560	60	4209
2026-01-07 04:53:02.25	263.04	14.16	-47.4	-48.6	15.0	0.00e+00	0	26	0	3477078016	60	4259
2026-01-07 04:53:03.25	262.94	14.07	-47.4	-48.5	15.0	0.00e+00	0	26	0	3482320896	60	4235
2026-01-07 04:53:04.25	262.85	13.98	-47.4	-48.6	15.0	0.00e+00	0	26	0	3487563776	60	4277
2026-01-07 04:53:05.26	262.75	13.88	-47.4	-48.6	15.0	0.00e+00	0	26	0	3493855232	60	4278
2026-01-07 04:53:06.26	262.66	13.79	-47.4	-48.6	14.9	0.00e+00	0	26	0	3499098112	60	4284
2026-01-07 04:53:07.27	262.56	13.70	-47.4	-48.6	15.0	0.00e+00	0	25	0	3504340992	60	4262
2026-01-07 04:53:08.27	262.47	13.61	-47.5	-48.7	14.9	0.00e+00	0	26	0	3510632448	60	4300
2026-01-07 04:53:09.27	262.37	13.52	-47.4	-48.6	15.0	0.00e+00	0	25	0	3515875328	60	4263
2026-01-07 04:53:10.27	262.28	13.43	-47.5	-48.7	14.9	0.00e+00	0	25	0	3522166784	60	4292
2026-01-07 04:53:11.27	262.19	13.35	-47.4	-48.6	15.0	0.00e+00	0	26	0	3527409664	60	4249
2026-01-07 04:53:12.27	262.10	13.26	-47.5	-48.7	14.9	0.00e+00	0	26	0	3532652544	60	4302
2026-01-07 04:53:13.27	262.01	13.17	-47.4	-48.5	15.0	0.00e+00	0	25	0	3538944000	60	4236
2026-01-07 04:53:14.27	261.92	13.08	-47.4	-48.6	15.0	0.00e+00	0	26	0	3544186880	60	4266
2026-01-07 04:53:15.28	261.83	12.99	-47.4	-48.6	14.9	0.00e+00	0	26	0	3549429760	60	4268
2026-01-07 04:53:16.28	261.74	12.90	-47.5	-48.6	14.9	0.00e+00	0	25	0	3555721216	60	4287
2026-01-07 04:53:17.28	261.65	12.82	-47.4	-48.6	15.0	0.00e+00	0	26	0	3560964096	60	4258
2026-01-07 04:53:18.28	261.56	12.73	-47.5	-48.6	14.9	0.00e+00	0	26	0	3566206976	60	4283
2026-01-07 04:53:19.29	261.47	12.64	-47.5	-48.8	14.9	0.00e+00	0	26	0	3572498432	60	4341
2026-01-07 04:53:20.28	261.39	12.55	-47.5	-48.7	14.9	0.00e+00	0	26	0	3577741312	60	4326
2026-01-07 04:53:21.28	261.30	12.47	-47.5	-48.7	14.9	0.00e+00	0	25	0	3584032768	60	4297
2026-01-07 04:53:22.28	261.21	12.38	-47.5	-48.7	14.9	0.00e+00	0	26	0	3589275648	60	4330
2026-01-07 04:53:23.28	261.13	12.30	-47.6	-48.8	14.9	0.00e+00	0	25	0	3594518528	60	4360
2026-01-07 04:53:24.28	261.04	12.21	-47.5	-48.8	14.9	0.00e+00	0	26	0	3600809984	60	4341
2026-01-07 04:53:25.28	260.96	12.12	-47.6	-48.8	14.9	0.00e+00	0	26	0	3606052864	60	4354
2026-01-07 04:53:26.28	260.88	12.04	-47.6	-48.9	14.8	0.00e+00	0	26	0	3611295744	60	4408
2026-01-07 04:53:27.28	260.79	11.95	-47.7	-49.0	14.8	0.00e+00	0	25	0	3617587200	60	4458
2026-01-07 04:53:28.28	260.71	11.87	-47.7	-48.9	14.8	0.00e+00	0	26	0	3622830080	60	4441
2026-01-07 04:53:29.28	260.63	11.78	-47.7	-49.0	14.8	0.00e+00	0	26	0	3628072960	60	4445
2026-01-07 04:53:30.28	260.55	11.70	-47.8	-49.0	14.8	0.00e+00	0	26	0	3634364416	60	4471
2026-01-07 04:53:31.29	260.46	11.61	-47.8	-49.1	14.8	0.00e+00	0	26	0	3639607296	60	4509
