passes_logs/2026/01/07/R3.2S_Murmansk/R3.2S_Murmansk__20260107_222143_SUOMI_NPP_rec.log

#Pass ID: 20260107_222143_SUOMI NPP
#Satellite: SUOMI NPP
#Configuration: NPP
#almurnet v.1.7.20251203
#Start time: 2026-01-07 22:21:44

#Version: 2.2.20231116
#Station: R3.2S_Murmansk
#Location: 33.079688 lon 68.888172 lat
#TLE: 1 37849U 11061A   26005.94084933  .00000134  00000+0  84554-4 0  9990
#TLE: 2 37849  98.7803 308.0679 0002567  79.1029 281.0436 14.19522657735426

#Time	Az	El	Level	Level2	SNR	BER	BlckErr	Temp	State	Recorded	gain1	gain2
2026-01-07 22:21:44.53	18.91	2.07	-57.7	-73.7	3.8	1.49e+00	0	23	0	0	82	21599
2026-01-07 22:21:45.53	18.98	2.13	-57.7	-73.5	3.8	1.49e+00	0	23	104	0	80	23800
2026-01-07 22:21:46.53	19.05	2.18	-57.6	-73.5	3.8	1.49e+00	0	23	104	0	80	23659
2026-01-07 22:21:47.53	19.13	2.24	-57.6	-73.5	3.8	1.49e+00	0	23	104	0	80	23749
2026-01-07 22:21:48.52	19.20	2.29	-57.6	-73.4	3.8	1.49e+00	0	23	104	0	80	23507
2026-01-07 22:21:49.53	19.27	2.34	-57.6	-73.5	3.8	1.49e+00	0	23	104	0	80	23815
2026-01-07 22:21:50.52	19.34	2.40	-57.6	-73.6	3.8	1.49e+00	0	23	104	0	80	23977
2026-01-07 22:21:51.52	19.42	2.45	-57.6	-73.6	3.8	1.49e+00	0	23	104	0	80	24100
2026-01-07 22:21:52.52	19.49	2.51	-57.7	-73.7	3.8	1.49e+00	0	23	104	0	80	24259
2026-01-07 22:21:53.52	19.56	2.56	-57.7	-73.7	3.8	1.49e+00	0	23	104	0	80	24168
2026-01-07 22:21:54.52	19.64	2.62	-57.6	-73.6	3.8	1.49e+00	0	23	104	0	80	24111
2026-01-07 22:21:55.52	19.71	2.67	-57.6	-73.6	3.8	1.49e+00	0	24	104	0	80	23943
2026-01-07 22:21:56.51	19.79	2.73	-57.6	-73.5	3.8	1.49e+00	0	23	104	0	80	23731
2026-01-07 22:21:57.51	19.86	2.78	-57.6	-73.6	3.8	1.49e+00	0	24	104	0	80	23872
2026-01-07 22:21:58.52	19.94	2.84	-57.6	-73.6	3.8	1.49e+00	0	24	104	0	80	23974
2026-01-07 22:21:59.52	20.01	2.90	-57.6	-73.6	3.8	1.49e+00	0	23	104	0	80	24002
2026-01-07 22:22:00.52	20.09	2.95	-57.6	-73.5	3.8	1.49e+00	0	24	104	0	80	23820
2026-01-07 22:22:01.52	20.16	3.01	-57.6	-73.3	3.8	1.49e+00	0	24	104	0	80	23189
2026-01-07 22:22:02.53	20.24	3.06	-57.6	-72.9	3.8	1.49e+00	0	24	104	0	80	22222
2026-01-07 22:22:03.53	20.32	3.12	-57.6	-72.7	3.8	1.49e+00	0	24	104	0	80	21679
2026-01-07 22:22:04.53	20.39	3.17	-57.6	-72.1	3.8	1.49e+00	0	24	104	0	80	20283
2026-01-07 22:22:05.53	20.47	3.23	-57.6	-72.1	3.8	1.49e+00	0	24	104	0	80	20108
2026-01-07 22:22:06.53	20.55	3.29	-57.6	-71.9	3.8	1.49e+00	0	24	104	0	80	19700
2026-01-07 22:22:07.53	20.62	3.34	-57.6	-71.8	3.8	1.49e+00	0	24	104	0	80	19585
2026-01-07 22:22:08.53	20.70	3.40	-57.6	-72.0	3.8	1.49e+00	0	24	104	0	80	20011
2026-01-07 22:22:09.53	20.78	3.46	-57.6	-71.7	3.8	1.49e+00	0	24	104	0	80	19263
2026-01-07 22:22:10.53	20.86	3.51	-57.5	-71.3	4.0	1.49e+00	0	24	104	0	80	18403
2026-01-07 22:22:11.53	20.94	3.57	-57.5	-70.7	4.1	1.45e+00	0	24	0	0	80	17167
2026-01-07 22:22:12.53	21.02	3.62	-57.4	-69.5	4.4	1.40e+00	92	24	0	0	80	15027
2026-01-07 22:22:13.53	21.09	3.68	-57.4	-68.8	4.6	9.57e-01	0	24	0	1048576	80	13762
2026-01-07 22:22:14.53	21.17	3.74	-57.3	-68.1	4.9	7.64e-01	0	24	0	3145728	80	12778
2026-01-07 22:22:15.53	21.25	3.79	-57.2	-67.1	5.5	5.57e-01	0	24	0	5242880	80	11346
2026-01-07 22:22:16.54	21.33	3.85	-57.2	-67.0	5.6	4.28e-01	0	24	0	7340032	80	11162
2026-01-07 22:22:17.53	21.41	3.91	-57.2	-66.8	5.7	3.70e-01	0	24	0	9437184	80	10908
2026-01-07 22:22:18.54	21.50	3.97	-57.1	-66.1	6.1	3.47e-01	0	24	0	10485760	80	10119
2026-01-07 22:22:19.52	21.57	4.02	-57.1	-66.3	6.1	2.78e-01	0	24	0	12582912	80	10338
2026-01-07 22:22:20.51	21.66	4.08	-56.9	-65.0	7.0	2.27e-01	0	24	0	14680064	80	8894
2026-01-07 22:22:21.51	21.74	4.13	-56.6	-63.7	8.0	6.27e-02	0	24	0	16777216	79	8139
2026-01-07 22:22:22.50	21.82	4.19	-56.1	-61.8	9.7	1.53e-02	0	24	0	17825792	78	6896
2026-01-07 22:22:23.50	21.90	4.25	-55.5	-60.3	10.9	1.63e-03	0	24	0	19922944	77	6138
2026-01-07 22:22:24.49	21.98	4.31	-54.8	-58.8	12.0	2.13e-05	0	24	0	22020096	76	5494
2026-01-07 22:22:25.49	22.06	4.36	-54.2	-57.7	12.6	5.30e-06	0	24	0	24117248	75	5139
2026-01-07 22:22:26.50	22.15	4.42	-53.9	-57.2	12.9	0.00e+00	0	24	0	26214400	74	5118
2026-01-07 22:22:27.49	22.23	4.48	-53.5	-56.6	13.2	0.00e+00	0	24	0	27262976	73	5085
2026-01-07 22:22:28.49	22.31	4.54	-53.4	-56.4	13.3	0.00e+00	0	24	0	29360128	73	4935
2026-01-07 22:22:29.49	22.40	4.59	-53.5	-56.6	13.2	0.00e+00	0	24	0	31457280	73	5054
2026-01-07 22:22:30.50	22.48	4.65	-53.5	-56.5	13.2	0.00e+00	0	24	0	33554432	73	5033
2026-01-07 22:22:31.50	22.57	4.71	-54.0	-57.4	12.7	0.00e+00	0	24	0	35651584	73	5537
2026-01-07 22:22:32.50	22.65	4.77	-54.6	-58.5	12.0	0.00e+00	0	24	0	36700160	74	5971
2026-01-07 22:22:33.50	22.74	4.83	-55.3	-59.9	11.0	1.44e-05	0	24	0	38797312	75	6639
2026-01-07 22:22:34.50	22.82	4.88	-55.7	-60.9	10.4	1.90e-04	0	24	0	40894464	76	6962
2026-01-07 22:22:35.49	22.91	4.94	-56.3	-62.6	8.9	6.17e-03	0	24	0	42991616	77	8034
2026-01-07 22:22:36.49	22.99	5.00	-56.6	-63.8	8.0	2.65e-02	0	24	0	45088768	78	8749
2026-01-07 22:22:37.49	23.08	5.06	-56.7	-63.9	7.8	7.55e-02	0	24	0	46137344	78	8848
2026-01-07 22:22:38.49	23.17	5.12	-56.7	-64.0	7.8	2.71e-02	0	24	0	48234496	78	8951
2026-01-07 22:22:39.49	23.25	5.18	-56.8	-64.5	7.4	3.18e-01	0	24	0	50331648	79	8947
2026-01-07 22:22:40.49	23.34	5.23	-56.5	-62.8	8.6	1.07e+00	0	24	0	51380224	79	7370
2026-01-07 22:22:41.49	23.43	5.29	-56.7	-64.0	8.1	5.22e-03	0	24	0	53477376	78	8933
2026-01-07 22:22:42.50	23.52	5.35	-56.8	-64.6	6.9	7.47e-01	0	24	0	55574528	79	9016
2026-01-07 22:22:43.51	23.61	5.41	-54.6	-58.3	12.3	1.52e-05	0	24	0	57671680	75	5507
2026-01-07 22:22:44.50	23.70	5.47	-53.5	-56.6	13.2	0.00e+00	0	24	0	59768832	73	5070
2026-01-07 22:22:45.50	23.78	5.53	-53.4	-56.4	13.4	0.00e+00	0	24	0	60817408	73	4931
2026-01-07 22:22:46.51	23.88	5.59	-53.2	-56.0	13.4	0.00e+00	0	24	0	62914560	72	5039
2026-01-07 22:22:47.51	23.96	5.65	-53.2	-56.1	13.5	0.00e+00	0	24	0	65011712	72	5046
2026-01-07 22:22:48.51	24.06	5.71	-53.0	-55.8	13.6	0.00e+00	0	24	0	67108864	72	4910
2026-01-07 22:22:49.50	24.14	5.77	-53.1	-55.9	13.6	0.00e+00	0	25	0	69206016	72	4954
2026-01-07 22:22:50.51	24.24	5.83	-52.9	-55.6	13.7	0.00e+00	0	24	0	70254592	72	4801
2026-01-07 22:22:51.51	24.33	5.88	-53.0	-55.7	13.7	0.00e+00	0	24	0	72351744	72	4859
2026-01-07 22:22:52.51	24.42	5.94	-53.0	-55.7	13.7	0.00e+00	0	24	0	74448896	72	4825
2026-01-07 22:22:53.51	24.51	6.00	-52.8	-55.5	13.8	0.00e+00	0	24	0	76546048	72	4716
2026-01-07 22:22:54.51	24.60	6.06	-53.0	-55.7	13.7	0.00e+00	0	24	0	78643200	72	4820
2026-01-07 22:22:55.51	24.70	6.12	-53.0	-55.7	13.7	0.00e+00	0	24	0	79691776	72	4847
2026-01-07 22:22:56.50	24.79	6.18	-52.9	-55.6	13.8	0.00e+00	0	24	0	81788928	72	4791
2026-01-07 22:22:57.50	24.88	6.24	-53.0	-55.6	13.7	0.00e+00	0	24	0	83886080	72	4797
2026-01-07 22:22:58.51	24.98	6.30	-52.8	-55.5	13.8	0.00e+00	0	24	0	85983232	72	4709
2026-01-07 22:22:59.51	25.07	6.36	-53.0	-55.7	13.7	0.00e+00	0	24	0	87031808	72	4833
2026-01-07 22:23:00.51	25.16	6.42	-53.0	-55.7	13.7	0.00e+00	0	24	0	89128960	72	4829
2026-01-07 22:23:01.51	25.26	6.48	-53.1	-55.9	13.6	0.00e+00	0	24	0	91226112	72	4941
2026-01-07 22:23:02.51	25.35	6.54	-53.3	-56.1	13.5	0.00e+00	0	24	0	93323264	72	5049
2026-01-07 22:23:03.50	25.45	6.60	-53.1	-55.9	13.6	0.00e+00	0	24	0	95420416	72	4961
2026-01-07 22:23:04.50	25.54	6.66	-53.1	-55.9	13.5	0.00e+00	0	24	0	96468992	72	4975
2026-01-07 22:23:05.50	25.64	6.72	-53.0	-55.7	13.7	0.00e+00	0	24	0	98566144	72	4856
2026-01-07 22:23:06.50	25.74	6.79	-53.1	-55.9	13.6	0.00e+00	0	25	0	100663296	72	4934
2026-01-07 22:23:07.49	25.83	6.85	-53.3	-56.2	13.4	0.00e+00	0	24	0	102760448	72	5140
2026-01-07 22:23:08.49	25.93	6.91	-53.3	-56.1	13.4	0.00e+00	0	25	0	104857600	72	5066
2026-01-07 22:23:09.49	26.03	6.97	-53.4	-56.3	13.3	0.00e+00	0	25	0	105906176	72	5213
2026-01-07 22:23:10.49	26.13	7.03	-53.4	-56.4	13.3	0.00e+00	0	25	0	108003328	72	5272
2026-01-07 22:23:11.49	26.23	7.09	-53.4	-56.4	13.3	0.00e+00	0	24	0	110100480	72	5238
2026-01-07 22:23:12.48	26.32	7.15	-53.4	-56.4	13.3	0.00e+00	0	25	0	112197632	72	5244
2026-01-07 22:23:13.48	26.42	7.21	-53.5	-56.6	13.2	0.00e+00	0	25	0	113246208	72	5344
2026-01-07 22:23:14.48	26.52	7.27	-53.6	-56.6	13.2	0.00e+00	0	25	0	115343360	72	5385
2026-01-07 22:23:15.48	26.62	7.33	-53.5	-56.6	13.2	0.00e+00	0	25	0	117440512	72	5351
2026-01-07 22:23:16.48	26.72	7.39	-53.5	-56.5	13.2	0.00e+00	0	25	0	119537664	72	5328
2026-01-07 22:23:17.47	26.82	7.46	-53.5	-56.6	13.2	0.00e+00	0	25	0	121634816	72	5373
2026-01-07 22:23:18.47	26.93	7.52	-53.6	-56.6	13.2	0.00e+00	0	25	0	122683392	72	5396
2026-01-07 22:23:19.46	27.03	7.58	-53.7	-56.8	13.1	0.00e+00	0	25	0	124780544	72	5471
2026-01-07 22:23:20.46	27.13	7.64	-53.3	-56.3	13.4	0.00e+00	0	24	0	126877696	72	5160
2026-01-07 22:23:21.46	27.23	7.70	-53.2	-56.1	13.5	0.00e+00	0	25	0	128974848	72	5043
2026-01-07 22:23:22.45	27.33	7.76	-53.2	-56.1	13.5	0.00e+00	0	25	0	130023424	72	5053
2026-01-07 22:23:23.45	27.44	7.82	-53.2	-56.0	13.6	0.00e+00	0	24	0	132120576	72	5000
2026-01-07 22:23:24.44	27.54	7.89	-53.1	-55.9	13.7	0.00e+00	0	24	0	134217728	72	4935
2026-01-07 22:23:25.44	27.64	7.95	-53.1	-55.8	13.7	0.00e+00	0	24	0	136314880	72	4900
2026-01-07 22:23:26.43	27.75	8.01	-53.0	-55.7	13.8	0.00e+00	0	25	0	138412032	72	4821
2026-01-07 22:23:27.43	27.85	8.07	-53.0	-55.7	13.8	0.00e+00	0	25	0	139460608	72	4841
2026-01-07 22:23:28.42	27.96	8.13	-53.0	-55.8	13.7	0.00e+00	0	25	0	141557760	72	4873
2026-01-07 22:23:29.42	28.06	8.20	-52.9	-55.6	13.9	0.00e+00	0	25	0	143654912	72	4765
2026-01-07 22:23:30.41	28.17	8.26	-52.9	-55.6	13.9	0.00e+00	0	25	0	145752064	72	4763
2026-01-07 22:23:31.41	28.28	8.32	-52.8	-55.4	14.0	0.00e+00	0	25	0	146800640	72	4675
2026-01-07 22:23:32.41	28.38	8.38	-52.9	-55.5	13.9	0.00e+00	0	24	0	148897792	72	4752
2026-01-07 22:23:33.40	28.49	8.45	-52.8	-55.4	14.0	0.00e+00	0	25	0	150994944	72	4668
2026-01-07 22:23:34.40	28.60	8.51	-52.8	-55.3	14.0	0.00e+00	0	25	0	153092096	72	4628
2026-01-07 22:23:35.38	28.70	8.57	-52.8	-55.3	14.0	0.00e+00	0	25	0	155189248	72	4630
2026-01-07 22:23:36.38	28.81	8.63	-52.7	-55.2	14.0	0.00e+00	0	25	0	156237824	72	4580
2026-01-07 22:23:37.38	28.92	8.70	-52.6	-55.1	14.0	0.00e+00	0	24	0	158334976	71	4793
2026-01-07 22:23:38.38	29.03	8.76	-52.5	-54.9	14.1	0.00e+00	0	25	0	160432128	71	4701
2026-01-07 22:23:39.38	29.14	8.82	-52.5	-54.9	14.1	0.00e+00	0	25	0	162529280	71	4688
2026-01-07 22:23:40.37	29.25	8.88	-52.5	-54.9	14.1	0.00e+00	0	25	0	163577856	71	4680
2026-01-07 22:23:41.37	29.36	8.95	-52.4	-54.9	14.1	0.00e+00	0	25	0	165675008	71	4659
2026-01-07 22:23:42.37	29.48	9.01	-52.4	-54.7	14.2	0.00e+00	0	25	0	167772160	71	4597
2026-01-07 22:23:43.37	29.59	9.07	-52.2	-54.5	14.3	0.00e+00	0	25	0	169869312	71	4464
2026-01-07 22:23:44.37	29.70	9.14	-52.2	-54.5	14.4	0.00e+00	0	25	0	171966464	71	4480
2026-01-07 22:23:45.37	29.81	9.20	-52.4	-54.7	14.2	0.00e+00	0	25	0	173015040	71	4589
2026-01-07 22:23:46.36	29.93	9.26	-52.3	-54.7	14.2	0.00e+00	0	25	0	175112192	71	4563
2026-01-07 22:23:47.36	30.04	9.33	-52.2	-54.6	14.3	0.00e+00	0	25	0	177209344	71	4502
2026-01-07 22:23:48.37	30.16	9.39	-52.3	-54.7	14.2	0.00e+00	0	25	0	179306496	71	4550
2026-01-07 22:23:49.36	30.27	9.45	-52.3	-54.6	14.3	0.00e+00	0	25	0	181403648	71	4524
2026-01-07 22:23:50.35	30.38	9.52	-52.1	-54.4	14.3	0.00e+00	0	25	0	182452224	70	4687
2026-01-07 22:23:51.36	30.50	9.58	-52.2	-54.6	14.2	0.00e+00	0	25	0	184549376	70	4769
2026-01-07 22:23:52.36	30.62	9.65	-52.3	-54.7	14.1	0.00e+00	0	25	0	186646528	70	4845
2026-01-07 22:23:53.36	30.73	9.71	-52.2	-54.5	14.2	0.00e+00	0	25	0	188743680	70	4751
2026-01-07 22:23:54.36	30.85	9.77	-52.3	-54.7	14.1	0.00e+00	0	25	0	190840832	70	4848
2026-01-07 22:23:55.36	30.97	9.84	-52.3	-54.6	14.1	0.00e+00	0	25	0	191889408	70	4807
2026-01-07 22:23:56.36	31.09	9.90	-52.3	-54.7	14.1	0.00e+00	0	25	0	193986560	70	4818
2026-01-07 22:23:57.37	31.21	9.97	-52.4	-54.8	14.0	0.00e+00	0	25	0	196083712	70	4899
2026-01-07 22:23:58.37	31.33	10.03	-52.3	-54.7	14.1	0.00e+00	0	25	0	198180864	70	4839
2026-01-07 22:23:59.37	31.45	10.10	-52.4	-54.7	14.1	0.00e+00	0	25	0	199229440	70	4857
2026-01-07 22:24:00.36	31.57	10.16	-52.3	-54.6	14.1	0.00e+00	0	25	0	201326592	70	4809
2026-01-07 22:24:01.36	31.69	10.22	-52.2	-54.5	14.2	0.00e+00	0	25	0	203423744	70	4757
2026-01-07 22:24:02.36	31.81	10.29	-52.3	-54.6	14.1	0.00e+00	0	25	0	205520896	70	4795
2026-01-07 22:24:03.35	31.93	10.35	-52.2	-54.5	14.2	0.00e+00	0	25	0	207618048	70	4724
2026-01-07 22:24:04.36	32.06	10.42	-52.2	-54.4	14.3	0.00e+00	0	25	0	208666624	70	4688
2026-01-07 22:24:05.36	32.18	10.48	-52.1	-54.4	14.3	0.00e+00	0	25	0	210763776	70	4674
2026-01-07 22:24:06.36	32.30	10.55	-52.0	-54.2	14.4	0.00e+00	0	25	0	212860928	70	4571
2026-01-07 22:24:07.36	32.43	10.61	-51.9	-54.1	14.5	0.00e+00	0	25	0	214958080	70	4509
2026-01-07 22:24:08.36	32.55	10.68	-52.0	-54.2	14.4	0.00e+00	0	25	0	217055232	70	4568
2026-01-07 22:24:09.36	32.68	10.74	-51.9	-54.0	14.5	0.00e+00	0	25	0	218103808	70	4475
2026-01-07 22:24:10.36	32.80	10.81	-51.9	-54.0	14.5	0.00e+00	0	25	0	220200960	70	4481
2026-01-07 22:24:11.36	32.93	10.87	-51.9	-54.1	14.4	0.00e+00	0	25	0	222298112	70	4525
2026-01-07 22:24:12.37	33.06	10.94	-51.9	-54.0	14.4	0.00e+00	0	25	0	224395264	70	4491
2026-01-07 22:24:13.37	33.18	11.00	-52.0	-54.2	14.4	0.00e+00	0	25	0	226492416	70	4548
2026-01-07 22:24:14.37	33.31	11.07	-52.0	-54.2	14.4	0.00e+00	0	25	0	227540992	70	4549
2026-01-07 22:24:15.36	33.44	11.13	-52.1	-54.4	14.3	0.00e+00	0	25	0	229638144	70	4664
2026-01-07 22:24:16.37	33.57	11.20	-51.9	-54.0	14.5	0.00e+00	0	25	0	231735296	70	4480
2026-01-07 22:24:17.36	33.70	11.27	-52.1	-54.3	14.3	0.00e+00	0	25	0	233832448	70	4624
2026-01-07 22:24:18.35	33.83	11.33	-52.0	-54.2	14.4	0.00e+00	0	25	0	234881024	70	4570
2026-01-07 22:24:19.35	33.96	11.40	-51.9	-54.1	14.5	0.00e+00	0	25	0	236978176	70	4502
2026-01-07 22:24:20.35	34.09	11.46	-51.9	-54.0	14.5	0.00e+00	0	25	0	239075328	70	4492
2026-01-07 22:24:21.34	34.22	11.53	-51.9	-54.0	14.5	0.00e+00	0	25	0	241172480	70	4477
2026-01-07 22:24:22.33	34.35	11.59	-51.8	-53.9	14.5	0.00e+00	0	25	0	243269632	70	4441
2026-01-07 22:24:23.32	34.48	11.66	-51.7	-53.8	14.6	0.00e+00	0	25	0	244318208	70	4353
2026-01-07 22:24:24.31	34.61	11.72	-51.7	-53.8	14.6	0.00e+00	0	25	0	246415360	70	4354
2026-01-07 22:24:25.31	34.75	11.79	-51.7	-53.7	14.5	0.00e+00	0	25	0	248512512	69	4597
2026-01-07 22:24:26.31	34.88	11.85	-51.6	-53.7	14.5	0.00e+00	0	25	0	250609664	69	4568
2026-01-07 22:24:27.31	35.02	11.92	-51.6	-53.6	14.5	0.00e+00	0	25	0	251658240	69	4542
2026-01-07 22:24:28.31	35.15	11.98	-51.6	-53.6	14.5	0.00e+00	0	25	0	253755392	69	4537
2026-01-07 22:24:29.30	35.29	12.05	-51.6	-53.7	14.5	0.00e+00	0	25	0	255852544	69	4555
2026-01-07 22:24:30.30	35.43	12.12	-51.5	-53.5	14.6	0.00e+00	0	25	0	257949696	69	4479
2026-01-07 22:24:31.29	35.56	12.18	-51.5	-53.5	14.6	0.00e+00	0	25	0	260046848	69	4492
2026-01-07 22:24:32.29	35.70	12.25	-51.6	-53.7	14.5	0.00e+00	0	25	0	261095424	69	4572
2026-01-07 22:24:33.29	35.84	12.31	-51.6	-53.7	14.5	0.00e+00	0	25	0	263192576	69	4559
2026-01-07 22:24:34.29	35.98	12.38	-51.6	-53.7	14.5	0.00e+00	0	25	0	265289728	69	4555
2026-01-07 22:24:35.29	36.12	12.45	-51.7	-53.9	14.4	0.00e+00	0	25	0	267386880	69	4656
2026-01-07 22:24:36.29	36.26	12.51	-51.8	-53.9	14.4	0.00e+00	0	25	0	269484032	69	4661
2026-01-07 22:24:37.29	36.40	12.58	-51.8	-53.9	14.4	0.00e+00	0	25	0	270532608	69	4683
2026-01-07 22:24:38.29	36.54	12.64	-51.8	-53.9	14.4	0.00e+00	0	25	0	272629760	69	4700
2026-01-07 22:24:39.29	36.68	12.71	-51.8	-53.9	14.4	0.00e+00	0	25	0	274726912	69	4702
2026-01-07 22:24:40.28	36.83	12.78	-51.8	-53.9	14.4	0.00e+00	0	25	0	276824064	69	4702
2026-01-07 22:24:41.28	36.97	12.84	-51.9	-54.0	14.4	0.00e+00	0	25	0	277872640	69	4735
2026-01-07 22:24:42.28	37.11	12.91	-51.9	-54.0	14.3	0.00e+00	0	25	0	279969792	69	4740
2026-01-07 22:24:43.28	37.26	12.97	-51.9	-54.0	14.3	0.00e+00	0	25	0	282066944	69	4734
2026-01-07 22:24:44.28	37.40	13.04	-51.9	-54.1	14.3	0.00e+00	0	25	0	284164096	69	4770
2026-01-07 22:24:45.27	37.55	13.11	-51.9	-54.1	14.3	0.00e+00	0	25	0	286261248	69	4773
2026-01-07 22:24:46.27	37.70	13.17	-52.0	-54.2	14.3	0.00e+00	0	25	0	287309824	69	4816
2026-01-07 22:24:47.27	37.84	13.24	-51.9	-54.0	14.3	0.00e+00	0	25	0	289406976	69	4729
2026-01-07 22:24:48.27	37.99	13.31	-52.1	-54.4	14.2	0.00e+00	0	25	0	291504128	69	4951
2026-01-07 22:24:49.27	38.14	13.37	-51.9	-54.1	14.3	0.00e+00	0	25	0	293601280	69	4799
2026-01-07 22:24:50.26	38.29	13.44	-52.0	-54.1	14.3	0.00e+00	0	25	0	294649856	69	4807
2026-01-07 22:24:51.25	38.44	13.50	-52.0	-54.2	14.3	0.00e+00	0	25	0	296747008	69	4867
2026-01-07 22:24:52.26	38.59	13.57	-51.8	-53.9	14.4	0.00e+00	0	25	0	298844160	69	4701
2026-01-07 22:24:53.25	38.74	13.64	-51.7	-53.8	14.5	0.00e+00	0	25	0	300941312	69	4627
2026-01-07 22:24:54.26	38.89	13.70	-51.6	-53.7	14.5	0.00e+00	0	25	0	303038464	69	4583
2026-01-07 22:24:55.25	39.04	13.77	-51.5	-53.6	14.6	0.00e+00	0	25	0	304087040	69	4496
2026-01-07 22:24:56.24	39.19	13.83	-51.5	-53.5	14.6	0.00e+00	0	25	0	306184192	69	4485
2026-01-07 22:24:57.23	39.35	13.90	-51.4	-53.5	14.6	0.00e+00	0	25	0	308281344	69	4447
2026-01-07 22:24:58.23	39.50	13.97	-51.4	-53.4	14.7	0.00e+00	0	25	0	310378496	69	4433
2026-01-07 22:24:59.22	39.65	14.03	-51.3	-53.4	14.7	0.00e+00	0	25	0	311427072	69	4393
2026-01-07 22:25:00.23	39.81	14.10	-51.4	-53.5	14.6	0.00e+00	0	25	0	313524224	69	4465
2026-01-07 22:25:01.23	39.97	14.17	-51.3	-53.2	14.8	0.00e+00	0	25	0	315621376	69	4338
2026-01-07 22:25:02.22	40.12	14.23	-51.4	-53.4	14.7	0.00e+00	0	25	0	317718528	69	4418
2026-01-07 22:25:03.22	40.28	14.30	-51.3	-53.3	14.7	0.00e+00	0	25	0	319815680	69	4377
2026-01-07 22:25:04.21	40.44	14.36	-51.3	-53.3	14.8	0.00e+00	0	25	0	320864256	69	4352
2026-01-07 22:25:05.21	40.60	14.43	-51.3	-53.3	14.7	0.00e+00	0	25	0	322961408	69	4374
2026-01-07 22:25:06.21	40.76	14.50	-51.3	-53.3	14.7	0.00e+00	0	25	0	325058560	69	4363
2026-01-07 22:25:07.20	40.92	14.56	-51.4	-53.4	14.7	0.00e+00	0	25	0	327155712	69	4437
2026-01-07 22:25:08.21	41.08	14.63	-51.3	-53.3	14.7	0.00e+00	0	25	0	329252864	69	4383
2026-01-07 22:25:09.21	41.24	14.69	-51.5	-53.6	14.6	0.00e+00	0	25	0	330301440	69	4529
2026-01-07 22:25:10.21	41.41	14.76	-51.4	-53.5	14.6	0.00e+00	0	25	0	332398592	69	4471
2026-01-07 22:25:11.21	41.57	14.83	-51.5	-53.6	14.6	0.00e+00	0	25	0	334495744	69	4506
2026-01-07 22:25:12.20	41.73	14.89	-51.5	-53.5	14.6	0.00e+00	0	25	0	336592896	69	4486
2026-01-07 22:25:13.19	41.90	14.96	-51.3	-53.4	14.7	0.00e+00	0	25	0	338690048	69	4410
2026-01-07 22:25:14.18	42.06	15.02	-51.4	-53.4	14.7	0.00e+00	0	25	0	339738624	69	4425
2026-01-07 22:25:15.17	42.22	15.09	-51.3	-53.3	14.8	0.00e+00	0	25	0	341835776	69	4361
2026-01-07 22:25:16.18	42.39	15.15	-51.4	-53.5	14.6	0.00e+00	0	25	0	343932928	69	4468
2026-01-07 22:25:17.17	42.56	15.22	-51.4	-53.5	14.6	0.00e+00	0	25	0	346030080	69	4470
2026-01-07 22:25:18.17	42.73	15.29	-51.5	-53.6	14.5	0.00e+00	0	25	0	347078656	69	4543
2026-01-07 22:25:19.16	42.90	15.35	-51.6	-53.8	14.5	0.00e+00	0	25	0	349175808	69	4604
2026-01-07 22:25:20.16	43.07	15.42	-51.5	-53.6	14.6	0.00e+00	0	25	0	351272960	69	4542
2026-01-07 22:25:21.16	43.24	15.48	-51.6	-53.9	14.4	0.00e+00	0	25	0	353370112	69	4657
2026-01-07 22:25:22.15	43.41	15.55	-51.6	-53.8	14.5	0.00e+00	0	25	0	355467264	69	4636
2026-01-07 22:25:23.15	43.58	15.61	-51.5	-53.6	14.6	0.00e+00	0	25	0	356515840	69	4541
2026-01-07 22:25:24.15	43.75	15.68	-51.3	-53.5	14.7	0.00e+00	0	25	0	358612992	69	4448
2026-01-07 22:25:25.15	43.92	15.74	-51.2	-53.3	14.7	0.00e+00	0	25	0	360710144	69	4373
2026-01-07 22:25:26.14	44.10	15.81	-51.1	-53.2	14.6	0.00e+00	0	25	0	362807296	68	4581
2026-01-07 22:25:27.14	44.27	15.87	-51.1	-53.1	14.7	0.00e+00	0	25	0	363855872	68	4543
2026-01-07 22:25:28.14	44.45	15.94	-51.2	-53.3	14.6	0.00e+00	0	25	0	365953024	68	4616
2026-01-07 22:25:29.14	44.62	16.00	-51.3	-53.4	14.5	0.00e+00	0	25	0	368050176	68	4697
2026-01-07 22:25:30.13	44.80	16.07	-51.3	-53.5	14.5	0.00e+00	0	25	0	370147328	68	4734
2026-01-07 22:25:31.13	44.98	16.13	-51.3	-53.5	14.5	0.00e+00	0	25	0	372244480	68	4706
2026-01-07 22:25:32.12	45.15	16.20	-51.4	-53.6	14.4	0.00e+00	0	25	0	373293056	68	4798
2026-01-07 22:25:33.12	45.33	16.26	-51.3	-53.5	14.5	0.00e+00	0	25	0	375390208	68	4745
2026-01-07 22:25:34.11	45.51	16.33	-51.3	-53.5	14.5	0.00e+00	0	25	0	377487360	68	4720
2026-01-07 22:25:35.11	45.69	16.39	-51.2	-53.3	14.5	0.00e+00	0	25	0	379584512	68	4651
2026-01-07 22:25:36.11	45.88	16.46	-51.1	-53.2	14.7	0.00e+00	0	25	0	380633088	68	4558
2026-01-07 22:25:37.10	46.06	16.52	-51.1	-53.2	14.6	0.00e+00	0	25	0	382730240	68	4560
2026-01-07 22:25:38.10	46.24	16.58	-51.1	-53.2	14.6	0.00e+00	0	25	0	384827392	68	4560
2026-01-07 22:25:39.10	46.42	16.65	-51.0	-53.0	14.7	0.00e+00	0	25	0	386924544	68	4475
2026-01-07 22:25:40.10	46.61	16.71	-50.8	-52.9	14.8	0.00e+00	0	25	0	389021696	68	4406
2026-01-07 22:25:41.10	46.79	16.78	-50.9	-53.0	14.7	0.00e+00	0	25	0	390070272	68	4463
2026-01-07 22:25:42.10	46.98	16.84	-50.8	-52.8	14.8	0.00e+00	0	25	0	392167424	68	4384
2026-01-07 22:25:43.10	47.17	16.90	-51.0	-53.1	14.7	0.00e+00	0	25	0	394264576	68	4510
2026-01-07 22:25:44.09	47.35	16.97	-51.0	-53.2	14.7	0.00e+00	0	25	0	396361728	68	4549
2026-01-07 22:25:45.09	47.54	17.03	-50.9	-53.0	14.7	0.00e+00	0	25	0	398458880	68	4480
2026-01-07 22:25:46.09	47.73	17.09	-51.0	-53.2	14.7	0.00e+00	0	25	0	399507456	68	4551
2026-01-07 22:25:47.09	47.92	17.16	-51.0	-53.1	14.7	0.00e+00	0	25	0	401604608	68	4526
2026-01-07 22:25:48.08	48.11	17.22	-51.0	-53.1	14.7	0.00e+00	0	25	0	403701760	68	4539
2026-01-07 22:25:49.09	48.31	17.28	-51.1	-53.3	14.6	0.00e+00	0	25	0	405798912	68	4600
2026-01-07 22:25:50.08	48.50	17.35	-51.1	-53.3	14.6	0.00e+00	0	25	0	407896064	68	4644
2026-01-07 22:25:51.08	48.69	17.41	-51.1	-53.4	14.6	0.00e+00	0	25	0	408944640	68	4667
2026-01-07 22:25:52.07	48.88	17.47	-51.2	-53.4	14.6	0.00e+00	0	25	0	411041792	68	4667
2026-01-07 22:25:53.07	49.08	17.53	-51.2	-53.5	14.5	0.00e+00	0	25	0	413138944	68	4736
2026-01-07 22:25:54.06	49.27	17.59	-51.1	-53.3	14.5	0.00e+00	0	25	0	415236096	68	4642
2026-01-07 22:25:55.06	49.47	17.66	-51.1	-53.3	14.6	0.00e+00	0	25	0	416284672	68	4610
2026-01-07 22:25:56.06	49.66	17.72	-51.0	-53.2	14.6	0.00e+00	0	25	0	418381824	68	4557
2026-01-07 22:25:57.06	49.86	17.78	-50.9	-53.0	14.7	0.00e+00	0	25	0	420478976	68	4454
2026-01-07 22:25:58.06	50.06	17.84	-50.9	-53.0	14.7	0.00e+00	0	25	0	422576128	68	4470
2026-01-07 22:25:59.06	50.26	17.90	-51.0	-53.2	14.6	0.00e+00	0	25	0	424673280	68	4560
2026-01-07 22:26:00.05	50.46	17.96	-51.2	-53.4	14.5	0.00e+00	0	25	0	425721856	68	4659
2026-01-07 22:26:01.05	50.66	18.03	-51.3	-53.6	14.4	0.00e+00	0	25	0	427819008	68	4788
2026-01-07 22:26:02.05	50.86	18.09	-51.4	-53.8	14.4	0.00e+00	0	25	0	429916160	68	4874
2026-01-07 22:26:03.05	51.06	18.15	-51.5	-53.8	14.3	0.00e+00	0	25	0	432013312	68	4923
2026-01-07 22:26:04.04	51.27	18.21	-51.4	-53.7	14.4	0.00e+00	0	25	0	433061888	68	4862
2026-01-07 22:26:05.04	51.47	18.27	-51.2	-53.4	14.5	0.00e+00	0	25	0	435159040	68	4693
2026-01-07 22:26:06.04	51.68	18.33	-51.3	-53.5	14.5	0.00e+00	0	25	0	437256192	68	4725
2026-01-07 22:26:07.04	51.88	18.39	-51.3	-53.5	14.5	0.00e+00	0	25	0	439353344	68	4750
2026-01-07 22:26:08.04	52.09	18.45	-51.3	-53.5	14.5	0.00e+00	0	25	0	441450496	68	4743
2026-01-07 22:26:09.04	52.30	18.51	-51.6	-53.9	14.3	0.00e+00	0	25	0	442499072	68	4954
2026-01-07 22:26:10.04	52.50	18.57	-51.8	-54.1	14.2	0.00e+00	0	25	0	444596224	68	5096
2026-01-07 22:26:11.03	52.71	18.62	-51.9	-54.3	14.2	0.00e+00	0	25	0	446693376	69	4903
2026-01-07 22:26:12.02	52.92	18.68	-52.0	-54.4	14.2	0.00e+00	0	25	0	448790528	69	4965
2026-01-07 22:26:13.02	53.13	18.74	-52.0	-54.4	14.2	0.00e+00	0	25	0	449839104	69	4945
2026-01-07 22:26:14.02	53.34	18.80	-51.9	-54.3	14.2	0.00e+00	0	25	0	451936256	69	4895
2026-01-07 22:26:15.01	53.55	18.86	-51.8	-54.0	14.3	0.00e+00	0	25	0	454033408	69	4758
2026-01-07 22:26:16.01	53.76	18.91	-51.7	-54.0	14.4	0.00e+00	0	25	0	456130560	69	4724
2026-01-07 22:26:17.01	53.98	18.97	-52.0	-54.3	14.2	0.00e+00	0	25	0	458227712	69	4884
2026-01-07 22:26:18.01	54.19	19.03	-52.1	-54.5	14.1	0.00e+00	0	25	0	459276288	69	5005
2026-01-07 22:26:19.00	54.41	19.09	-52.2	-54.6	14.1	0.00e+00	0	25	0	461373440	69	5055
2026-01-07 22:26:19.99	54.62	19.14	-52.5	-55.1	13.9	0.00e+00	0	25	0	463470592	70	5079
2026-01-07 22:26:20.99	54.84	19.20	-52.5	-55.0	14.0	0.00e+00	0	25	0	465567744	70	5041
2026-01-07 22:26:21.99	55.06	19.25	-52.5	-55.0	14.0	0.00e+00	0	25	0	467664896	70	4992
2026-01-07 22:26:22.98	55.27	19.31	-52.6	-55.1	13.9	0.00e+00	0	25	0	468713472	70	5086
2026-01-07 22:26:23.98	55.49	19.37	-52.8	-55.4	13.8	0.00e+00	0	25	0	470810624	70	5246
2026-01-07 22:26:24.98	55.71	19.42	-52.8	-55.4	13.8	0.00e+00	0	25	0	472907776	70	5225
2026-01-07 22:26:25.97	55.93	19.48	-53.0	-55.7	13.7	0.00e+00	0	25	0	475004928	71	5120
2026-01-07 22:26:26.97	56.15	19.53	-53.0	-55.7	13.8	0.00e+00	0	25	0	476053504	71	5115
2026-01-07 22:26:27.96	56.37	19.58	-52.9	-55.6	13.9	0.00e+00	0	25	0	478150656	71	5053
2026-01-07 22:26:28.96	56.60	19.64	-52.9	-55.5	13.9	0.00e+00	0	25	0	480247808	71	5004
2026-01-07 22:26:29.96	56.82	19.69	-52.8	-55.3	14.0	0.00e+00	0	25	0	482344960	71	4892
2026-01-07 22:26:30.96	57.04	19.75	-52.5	-55.0	14.2	0.00e+00	0	25	0	484442112	71	4709
2026-01-07 22:26:31.96	57.27	19.80	-52.6	-55.1	14.1	0.00e+00	0	25	0	485490688	71	4781
2026-01-07 22:26:32.96	57.50	19.85	-52.6	-55.1	14.1	0.00e+00	0	25	0	487587840	71	4790
2026-01-07 22:26:33.96	57.72	19.91	-52.5	-54.9	14.2	0.00e+00	0	25	0	489684992	71	4653
2026-01-07 22:26:34.95	57.95	19.96	-52.4	-54.8	14.3	0.00e+00	0	25	0	491782144	71	4614
2026-01-07 22:26:35.95	58.18	20.01	-52.4	-54.7	14.3	0.00e+00	0	25	0	492830720	71	4564
2026-01-07 22:26:36.94	58.40	20.06	-52.4	-54.7	14.3	0.00e+00	0	25	0	494927872	71	4568
2026-01-07 22:26:37.93	58.63	20.11	-52.3	-54.7	14.4	0.00e+00	0	25	0	497025024	71	4548
2026-01-07 22:26:38.93	58.86	20.16	-52.2	-54.5	14.3	0.00e+00	0	25	0	499122176	70	4747
2026-01-07 22:26:39.93	59.09	20.21	-52.4	-54.8	14.1	0.00e+00	0	25	0	501219328	70	4883
2026-01-07 22:26:40.92	59.32	20.26	-52.5	-54.9	14.0	0.00e+00	0	25	0	502267904	70	4971
2026-01-07 22:26:41.92	59.56	20.31	-52.6	-55.1	14.0	0.00e+00	0	25	0	504365056	70	5053
2026-01-07 22:26:42.92	59.79	20.36	-52.6	-55.1	14.0	0.00e+00	0	25	0	506462208	70	5052
2026-01-07 22:26:43.92	60.03	20.41	-52.4	-54.8	14.1	0.00e+00	0	25	0	508559360	70	4908
2026-01-07 22:26:44.93	60.26	20.46	-52.3	-54.6	14.2	0.00e+00	0	25	0	510656512	70	4781
2026-01-07 22:26:45.92	60.50	20.51	-52.0	-54.2	14.5	0.00e+00	0	25	0	511705088	70	4560
2026-01-07 22:26:46.93	60.74	20.56	-51.7	-53.7	14.7	0.00e+00	0	25	0	513802240	70	4327
2026-01-07 22:26:47.93	60.97	20.60	-51.8	-54.0	14.4	0.00e+00	0	25	0	515899392	69	4729
2026-01-07 22:26:48.92	61.21	20.65	-51.8	-53.9	14.5	0.00e+00	0	25	0	517996544	69	4695
2026-01-07 22:26:49.92	61.45	20.70	-51.9	-54.1	14.4	0.00e+00	0	25	0	519045120	69	4799
2026-01-07 22:26:50.92	61.69	20.74	-52.1	-54.4	14.2	0.00e+00	0	25	0	521142272	69	4943
2026-01-07 22:26:51.91	61.93	20.79	-52.2	-54.5	14.2	0.00e+00	0	25	0	523239424	69	4990
2026-01-07 22:26:52.91	62.17	20.84	-52.0	-54.2	14.3	0.00e+00	0	25	0	525336576	69	4851
2026-01-07 22:26:53.90	62.41	20.88	-51.9	-54.0	14.4	0.00e+00	0	25	0	527433728	69	4745
2026-01-07 22:26:54.89	62.65	20.92	-51.9	-54.0	14.4	0.00e+00	0	25	0	528482304	69	4711
2026-01-07 22:26:55.90	62.89	20.97	-52.1	-54.3	14.3	0.00e+00	0	25	0	530579456	69	4881
2026-01-07 22:26:56.90	63.14	21.01	-52.3	-54.6	14.1	0.00e+00	0	25	0	532676608	69	5046
2026-01-07 22:26:57.90	63.38	21.06	-52.5	-54.8	14.2	0.00e+00	0	25	0	534773760	70	4924
2026-01-07 22:26:58.90	63.63	21.10	-52.7	-55.0	14.0	0.00e+00	0	25	0	536870912	70	5041
2026-01-07 22:26:59.90	63.87	21.14	-52.4	-54.7	14.2	0.00e+00	0	25	0	537919488	70	4842
2026-01-07 22:27:00.90	64.12	21.18	-51.9	-54.0	14.5	0.00e+00	0	25	0	540016640	70	4462
2026-01-07 22:27:01.90	64.36	21.23	-51.8	-53.9	14.6	0.00e+00	0	25	0	542113792	70	4406
2026-01-07 22:27:02.90	64.61	21.27	-51.4	-53.3	14.7	0.00e+00	0	25	0	544210944	69	4370
2026-01-07 22:27:03.90	64.86	21.31	-51.2	-53.1	14.9	0.00e+00	0	25	0	545259520	69	4269
2026-01-07 22:27:04.91	65.11	21.35	-51.4	-53.3	14.8	0.00e+00	0	25	0	547356672	69	4372
2026-01-07 22:27:05.91	65.36	21.39	-51.5	-53.4	14.7	0.00e+00	0	25	0	549453824	69	4437
2026-01-07 22:27:06.90	65.61	21.43	-51.6	-53.6	14.6	0.00e+00	0	25	0	551550976	69	4517
2026-01-07 22:27:07.90	65.86	21.47	-51.6	-53.6	14.6	0.00e+00	0	25	0	553648128	69	4498
2026-01-07 22:27:08.90	66.11	21.50	-51.7	-53.8	14.5	0.00e+00	0	25	0	554696704	69	4608
2026-01-07 22:27:09.91	66.37	21.54	-51.7	-53.7	14.6	0.00e+00	0	25	0	556793856	69	4565
2026-01-07 22:27:10.90	66.62	21.58	-51.7	-53.7	14.5	0.00e+00	0	25	0	558891008	69	4572
2026-01-07 22:27:11.90	66.87	21.62	-51.7	-53.7	14.6	0.00e+00	0	25	0	560988160	69	4595
2026-01-07 22:27:12.90	67.13	21.65	-51.7	-53.7	14.6	0.00e+00	0	25	0	563085312	69	4561
2026-01-07 22:27:13.89	67.38	21.69	-51.6	-53.6	14.6	0.00e+00	0	25	0	564133888	69	4500
2026-01-07 22:27:14.89	67.63	21.72	-51.5	-53.4	14.7	0.00e+00	0	25	0	566231040	69	4438
2026-01-07 22:27:15.89	67.89	21.76	-51.3	-53.2	14.8	0.00e+00	0	25	0	568328192	69	4331
2026-01-07 22:27:16.89	68.14	21.79	-51.4	-53.3	14.8	0.00e+00	0	25	0	570425344	69	4355
2026-01-07 22:27:17.89	68.40	21.83	-51.3	-53.2	14.8	0.00e+00	0	25	0	572522496	69	4340
2026-01-07 22:27:18.89	68.66	21.86	-51.3	-53.2	14.8	0.00e+00	0	25	0	573571072	69	4327
2026-01-07 22:27:19.88	68.91	21.89	-51.5	-53.4	14.7	0.00e+00	0	25	0	575668224	69	4416
2026-01-07 22:27:20.88	69.17	21.92	-51.4	-53.3	14.7	0.00e+00	0	25	0	577765376	69	4383
2026-01-07 22:27:21.88	69.43	21.96	-51.4	-53.3	14.7	0.00e+00	0	25	0	579862528	69	4391
2026-01-07 22:27:22.86	69.69	21.99	-51.4	-53.3	14.8	0.00e+00	0	25	0	580911104	69	4374
2026-01-07 22:27:23.86	69.95	22.02	-51.5	-53.5	14.7	0.00e+00	0	25	0	583008256	69	4449
2026-01-07 22:27:24.85	70.20	22.05	-51.7	-53.7	14.6	0.00e+00	0	25	0	585105408	69	4587
2026-01-07 22:27:25.84	70.46	22.07	-52.0	-54.1	14.4	0.00e+00	0	25	0	587202560	69	4789
2026-01-07 22:27:26.84	70.72	22.10	-52.0	-54.0	14.4	0.00e+00	0	25	0	589299712	69	4754
2026-01-07 22:27:27.83	70.98	22.13	-51.9	-54.0	14.4	0.00e+00	0	25	0	590348288	69	4741
2026-01-07 22:27:28.83	71.24	22.16	-51.6	-53.6	14.6	0.00e+00	0	25	0	592445440	69	4506
2026-01-07 22:27:29.82	71.50	22.19	-51.6	-53.5	14.7	0.00e+00	0	25	0	594542592	69	4477
2026-01-07 22:27:30.81	71.77	22.21	-51.8	-53.8	14.5	0.00e+00	0	25	0	596639744	69	4650
2026-01-07 22:27:31.81	72.03	22.24	-51.9	-54.0	14.4	0.00e+00	0	25	0	597688320	69	4734
2026-01-07 22:27:32.80	72.29	22.26	-52.0	-54.2	14.3	0.00e+00	0	25	0	599785472	69	4840
2026-01-07 22:27:33.81	72.56	22.29	-52.2	-54.4	14.3	0.00e+00	0	25	0	601882624	69	4949
2026-01-07 22:27:34.80	72.82	22.31	-52.0	-54.2	14.3	0.00e+00	0	25	0	603979776	69	4843
2026-01-07 22:27:35.80	73.09	22.34	-51.8	-53.9	14.5	0.00e+00	0	25	0	606076928	69	4652
2026-01-07 22:27:36.80	73.35	22.36	-51.4	-53.4	14.8	0.00e+00	0	25	0	607125504	69	4395
2026-01-07 22:27:37.79	73.61	22.38	-51.1	-53.1	14.7	0.00e+00	0	25	0	609222656	68	4500
2026-01-07 22:27:38.80	73.88	22.40	-51.2	-53.1	14.7	0.00e+00	0	25	0	611319808	68	4541
2026-01-07 22:27:39.80	74.15	22.42	-51.6	-53.7	14.4	0.00e+00	0	25	0	613416960	68	4858
2026-01-07 22:27:40.80	74.42	22.44	-51.8	-54.0	14.2	0.00e+00	0	25	0	614465536	68	5030
2026-01-07 22:27:41.81	74.69	22.46	-52.0	-54.3	14.3	0.00e+00	0	25	0	616562688	69	4879
2026-01-07 22:27:42.80	74.95	22.48	-51.9	-54.1	14.4	0.00e+00	0	25	0	618659840	69	4765
2026-01-07 22:27:43.80	75.22	22.50	-51.6	-53.7	14.6	0.00e+00	0	25	0	620756992	69	4562
2026-01-07 22:27:44.80	75.49	22.52	-51.5	-53.5	14.7	0.00e+00	0	25	0	622854144	69	4450
2026-01-07 22:27:45.80	75.76	22.54	-51.3	-53.3	14.8	0.00e+00	0	25	0	623902720	69	4344
2026-01-07 22:27:46.79	76.03	22.55	-51.6	-53.6	14.6	0.00e+00	0	25	0	625999872	69	4509
2026-01-07 22:27:47.79	76.29	22.57	-51.7	-53.8	14.5	0.00e+00	0	25	0	628097024	69	4637
2026-01-07 22:27:48.79	76.56	22.59	-51.7	-53.8	14.5	0.00e+00	0	25	0	630194176	69	4639
2026-01-07 22:27:49.79	76.83	22.60	-51.8	-53.8	14.5	0.00e+00	0	25	0	632291328	69	4643
2026-01-07 22:27:50.79	77.10	22.62	-51.5	-53.4	14.7	0.00e+00	0	25	0	633339904	69	4438
2026-01-07 22:27:51.78	77.37	22.63	-51.2	-53.1	14.9	0.00e+00	0	25	0	635437056	69	4267
2026-01-07 22:27:52.78	77.64	22.64	-51.4	-53.3	14.8	0.00e+00	0	25	0	637534208	69	4388
2026-01-07 22:27:53.77	77.91	22.65	-51.4	-53.4	14.7	0.00e+00	0	25	0	639631360	69	4413
2026-01-07 22:27:54.78	78.19	22.67	-51.7	-53.7	14.6	0.00e+00	0	25	0	640679936	69	4575
2026-01-07 22:27:55.78	78.46	22.68	-51.6	-53.6	14.6	0.00e+00	0	25	0	642777088	69	4501
2026-01-07 22:27:56.77	78.73	22.69	-51.5	-53.4	14.7	0.00e+00	0	25	0	644874240	69	4422
2026-01-07 22:27:57.78	79.00	22.70	-51.4	-53.3	14.8	0.00e+00	0	25	0	646971392	69	4349
2026-01-07 22:27:58.76	79.27	22.71	-51.3	-53.2	14.8	0.00e+00	0	25	0	649068544	69	4325
2026-01-07 22:27:59.76	79.54	22.71	-51.6	-53.6	14.6	0.00e+00	0	25	0	650117120	69	4529
2026-01-07 22:28:00.76	79.81	22.72	-52.0	-54.1	14.4	0.00e+00	0	25	0	652214272	69	4794
2026-01-07 22:28:01.76	80.08	22.73	-52.1	-54.2	14.3	0.00e+00	0	25	0	654311424	69	4870
2026-01-07 22:28:02.76	80.36	22.74	-52.1	-54.3	14.3	0.00e+00	0	25	0	656408576	69	4888
2026-01-07 22:28:03.76	80.63	22.74	-52.2	-54.4	14.2	0.00e+00	0	25	0	657457152	69	4957
2026-01-07 22:28:04.75	80.90	22.75	-52.1	-54.2	14.3	0.00e+00	0	25	0	659554304	69	4831
2026-01-07 22:28:05.75	81.17	22.75	-52.0	-54.0	14.4	0.00e+00	0	25	0	661651456	69	4752
2026-01-07 22:28:06.74	81.44	22.76	-51.9	-54.0	14.4	0.00e+00	0	25	0	663748608	69	4707
2026-01-07 22:28:07.74	81.71	22.76	-51.9	-54.0	14.4	0.00e+00	0	25	0	665845760	69	4726
2026-01-07 22:28:08.73	81.98	22.76	-51.8	-53.8	14.5	0.00e+00	0	25	0	666894336	69	4624
2026-01-07 22:28:09.73	82.26	22.76	-51.9	-53.9	14.5	0.00e+00	0	25	0	668991488	69	4679
2026-01-07 22:28:10.73	82.53	22.77	-51.6	-53.6	14.6	0.00e+00	0	25	0	671088640	69	4518
2026-01-07 22:28:11.73	82.80	22.77	-51.7	-53.6	14.6	0.00e+00	0	25	0	673185792	69	4532
2026-01-07 22:28:12.73	83.08	22.77	-51.7	-53.7	14.6	0.00e+00	0	25	0	675282944	69	4569
2026-01-07 22:28:13.73	83.35	22.77	-51.7	-53.6	14.6	0.00e+00	0	25	0	676331520	69	4536
2026-01-07 22:28:14.72	83.62	22.76	-51.8	-53.8	14.5	0.00e+00	0	25	0	678428672	69	4638
2026-01-07 22:28:15.73	83.89	22.76	-51.7	-53.7	14.5	0.00e+00	0	25	0	680525824	69	4581
2026-01-07 22:28:16.73	84.17	22.76	-51.7	-53.7	14.6	0.00e+00	0	25	0	682622976	69	4562
2026-01-07 22:28:17.72	84.44	22.76	-51.6	-53.5	14.7	0.00e+00	0	25	0	683671552	69	4477
2026-01-07 22:28:18.73	84.71	22.75	-51.4	-53.3	14.7	0.00e+00	0	25	0	685768704	69	4362
2026-01-07 22:28:19.72	84.98	22.75	-51.4	-53.2	14.8	0.00e+00	0	25	0	687865856	69	4306
2026-01-07 22:28:20.72	85.26	22.74	-51.2	-53.0	14.8	0.00e+00	0	25	0	689963008	68	4467
2026-01-07 22:28:21.72	85.53	22.74	-51.1	-52.8	14.8	0.00e+00	0	25	0	692060160	68	4382
2026-01-07 22:28:22.72	85.80	22.73	-50.9	-52.7	14.9	0.00e+00	0	25	0	693108736	68	4298
2026-01-07 22:28:23.72	86.07	22.72	-50.9	-52.7	14.9	0.00e+00	0	25	0	695205888	68	4293
2026-01-07 22:28:24.71	86.34	22.72	-50.9	-52.7	14.9	0.00e+00	0	25	0	697303040	68	4293
2026-01-07 22:28:25.71	86.61	22.71	-51.0	-52.7	14.9	0.00e+00	0	25	0	699400192	68	4333
2026-01-07 22:28:26.71	86.89	22.70	-51.2	-53.0	14.8	0.00e+00	0	25	0	701497344	68	4459
2026-01-07 22:28:27.69	87.15	22.69	-51.1	-53.0	14.8	0.00e+00	0	25	0	702545920	68	4456
2026-01-07 22:28:28.68	87.42	22.68	-51.3	-53.2	14.7	0.00e+00	0	25	0	704643072	68	4549
2026-01-07 22:28:29.67	87.69	22.67	-51.4	-53.3	14.6	0.00e+00	0	25	0	706740224	68	4618
2026-01-07 22:28:30.67	87.96	22.65	-51.3	-53.1	14.7	0.00e+00	0	25	0	708837376	68	4530
2026-01-07 22:28:31.66	88.23	22.64	-51.2	-53.1	14.7	0.00e+00	0	25	0	709885952	68	4499
2026-01-07 22:28:32.65	88.50	22.63	-51.2	-53.0	14.7	0.00e+00	0	25	0	711983104	68	4480
2026-01-07 22:28:33.65	88.77	22.62	-51.3	-53.2	14.6	0.00e+00	0	25	0	714080256	68	4592
2026-01-07 22:28:34.64	89.04	22.60	-51.4	-53.3	14.6	0.00e+00	0	25	0	716177408	68	4646
2026-01-07 22:28:35.64	89.31	22.59	-51.5	-53.5	14.5	0.00e+00	0	25	0	718274560	68	4749
2026-01-07 22:28:36.64	89.58	22.57	-51.5	-53.5	14.5	0.00e+00	0	25	0	719323136	68	4718
2026-01-07 22:28:37.64	89.85	22.56	-51.6	-53.6	14.5	0.00e+00	0	25	0	721420288	68	4790
2026-01-07 22:28:38.63	90.11	22.54	-51.5	-53.5	14.5	0.00e+00	0	25	0	723517440	68	4743
2026-01-07 22:28:39.63	90.38	22.52	-51.3	-53.2	14.7	0.00e+00	0	25	0	725614592	68	4576
2026-01-07 22:28:40.63	90.65	22.50	-51.4	-53.4	14.6	0.00e+00	0	25	0	726663168	68	4692
2026-01-07 22:28:41.62	90.92	22.48	-51.4	-53.4	14.6	0.00e+00	0	25	0	728760320	68	4661
2026-01-07 22:28:42.61	91.18	22.47	-51.5	-53.5	14.5	0.00e+00	0	25	0	730857472	68	4757
2026-01-07 22:28:43.61	91.45	22.45	-51.8	-53.8	14.4	0.00e+00	0	25	0	732954624	68	4921
2026-01-07 22:28:44.61	91.72	22.43	-51.9	-54.0	14.3	0.00e+00	0	25	0	735051776	68	5024
2026-01-07 22:28:45.61	91.99	22.40	-51.8	-53.9	14.5	0.00e+00	0	25	0	736100352	69	4692
2026-01-07 22:28:46.61	92.25	22.38	-51.6	-53.6	14.6	0.00e+00	0	25	0	738197504	69	4529
2026-01-07 22:28:47.60	92.52	22.36	-51.6	-53.5	14.7	0.00e+00	0	25	0	740294656	69	4471
2026-01-07 22:28:48.60	92.78	22.34	-50.9	-52.7	14.9	0.00e+00	0	25	0	742391808	68	4331
2026-01-07 22:28:49.60	93.05	22.31	-50.9	-52.7	14.9	0.00e+00	0	25	0	743440384	68	4299
2026-01-07 22:28:50.60	93.31	22.29	-50.9	-52.7	14.9	0.00e+00	0	25	0	745537536	68	4316
2026-01-07 22:28:51.60	93.58	22.26	-50.8	-52.6	14.9	0.00e+00	0	25	0	747634688	68	4271
2026-01-07 22:28:52.60	93.84	22.24	-50.9	-52.7	14.9	0.00e+00	0	25	0	749731840	68	4294
2026-01-07 22:28:53.60	94.11	22.21	-50.5	-52.2	15.0	0.00e+00	0	25	0	751828992	67	4335
2026-01-07 22:28:54.59	94.37	22.19	-50.4	-52.1	15.0	0.00e+00	0	25	0	752877568	67	4283
2026-01-07 22:28:55.59	94.63	22.16	-50.4	-52.1	15.0	0.00e+00	0	25	0	754974720	67	4260
2026-01-07 22:28:56.59	94.89	22.13	-50.2	-51.9	15.1	0.00e+00	0	25	0	757071872	67	4182
2026-01-07 22:28:57.59	95.16	22.10	-50.2	-51.9	14.9	0.00e+00	0	25	0	759169024	66	4432
2026-01-07 22:28:58.58	95.42	22.08	-50.3	-52.0	14.9	0.00e+00	0	25	0	761266176	66	4452
2026-01-07 22:28:59.58	95.68	22.05	-50.3	-52.1	14.9	0.00e+00	0	25	0	762314752	66	4499
2026-01-07 22:29:00.57	95.94	22.02	-50.3	-52.1	14.9	0.00e+00	0	25	0	764411904	66	4507
2026-01-07 22:29:01.57	96.20	21.99	-50.4	-52.2	14.8	0.00e+00	0	25	0	766509056	66	4548
2026-01-07 22:29:02.57	96.46	21.96	-50.6	-52.4	14.7	0.00e+00	0	25	0	768606208	66	4671
2026-01-07 22:29:03.57	96.72	21.92	-50.5	-52.3	14.8	0.00e+00	0	25	0	769654784	66	4647
2026-01-07 22:29:04.57	96.97	21.89	-50.7	-52.5	14.7	0.00e+00	0	25	0	771751936	66	4729
2026-01-07 22:29:05.57	97.23	21.86	-50.5	-52.3	14.7	0.00e+00	0	25	0	773849088	66	4635
2026-01-07 22:29:06.57	97.49	21.83	-50.6	-52.4	14.7	0.00e+00	0	25	0	775946240	66	4669
2026-01-07 22:29:07.57	97.75	21.79	-50.6	-52.4	14.7	0.00e+00	0	25	0	778043392	66	4696
2026-01-07 22:29:08.57	98.00	21.76	-50.6	-52.4	14.7	0.00e+00	0	25	0	779091968	66	4690
2026-01-07 22:29:09.58	98.26	21.72	-50.7	-52.6	14.6	0.00e+00	0	25	0	781189120	66	4760
2026-01-07 22:29:10.58	98.52	21.69	-50.6	-52.4	14.7	0.00e+00	0	25	0	783286272	66	4697
2026-01-07 22:29:11.56	98.77	21.65	-50.5	-52.4	14.7	0.00e+00	0	25	0	785383424	66	4655
2026-01-07 22:29:12.56	99.02	21.62	-50.4	-52.1	14.8	0.00e+00	0	25	0	787480576	66	4532
2026-01-07 22:29:13.56	99.28	21.58	-50.2	-52.0	14.9	0.00e+00	0	25	0	788529152	66	4444
2026-01-07 22:29:14.55	99.53	21.54	-50.2	-51.9	14.9	0.00e+00	0	25	0	790626304	66	4413
2026-01-07 22:29:15.55	99.78	21.50	-50.2	-51.9	14.9	0.00e+00	0	25	0	792723456	66	4410
2026-01-07 22:29:16.56	100.04	21.46	-50.0	-51.7	15.0	0.00e+00	0	25	0	794820608	66	4328
2026-01-07 22:29:17.55	100.28	21.43	-49.9	-51.6	15.1	0.00e+00	0	25	0	795869184	66	4259
2026-01-07 22:29:18.55	100.54	21.39	-49.9	-51.5	15.1	0.00e+00	0	25	0	797966336	66	4234
2026-01-07 22:29:19.54	100.78	21.35	-49.8	-51.4	15.1	0.00e+00	0	25	0	800063488	66	4165
2026-01-07 22:29:20.54	101.03	21.31	-50.0	-51.7	15.0	0.00e+00	0	25	0	802160640	66	4302
2026-01-07 22:29:21.54	101.28	21.27	-50.1	-51.7	15.0	0.00e+00	0	25	0	804257792	66	4331
2026-01-07 22:29:22.54	101.53	21.22	-50.2	-51.9	14.9	0.00e+00	0	25	0	805306368	66	4408
2026-01-07 22:29:23.53	101.78	21.18	-50.2	-51.9	14.9	0.00e+00	0	25	0	807403520	66	4403
2026-01-07 22:29:24.52	102.02	21.14	-50.2	-52.0	14.9	0.00e+00	0	25	0	809500672	66	4450
2026-01-07 22:29:25.52	102.27	21.10	-50.3	-52.1	14.8	0.00e+00	0	25	0	811597824	66	4501
2026-01-07 22:29:26.52	102.51	21.06	-50.3	-52.1	14.8	0.00e+00	0	25	0	812646400	66	4495
2026-01-07 22:29:27.51	102.75	21.01	-50.4	-52.2	14.8	0.00e+00	0	25	0	814743552	66	4563
2026-01-07 22:29:28.51	103.00	20.97	-50.1	-51.9	14.9	0.00e+00	0	25	0	816840704	66	4398
2026-01-07 22:29:29.51	103.24	20.92	-50.2	-51.9	14.9	0.00e+00	0	25	0	818937856	66	4427
2026-01-07 22:29:30.50	103.48	20.88	-50.2	-51.9	14.9	0.00e+00	0	25	0	821035008	66	4411
2026-01-07 22:29:31.50	103.73	20.83	-50.3	-52.0	14.9	0.00e+00	0	25	0	822083584	66	4490
2026-01-07 22:29:32.50	103.97	20.79	-50.5	-52.4	14.7	0.00e+00	0	25	0	824180736	66	4661
2026-01-07 22:29:33.49	104.21	20.74	-50.6	-52.4	14.7	0.00e+00	0	25	0	826277888	66	4685
2026-01-07 22:29:34.49	104.45	20.70	-50.6	-52.4	14.7	0.00e+00	0	25	0	828375040	66	4677
2026-01-07 22:29:35.49	104.69	20.65	-50.8	-52.7	14.6	0.00e+00	0	25	0	830472192	66	4815
2026-01-07 22:29:36.48	104.92	20.60	-50.5	-52.4	14.7	0.00e+00	0	25	0	831520768	66	4677
2026-01-07 22:29:37.48	105.16	20.55	-50.6	-52.5	14.7	0.00e+00	0	25	0	833617920	66	4734
2026-01-07 22:29:38.48	105.40	20.51	-50.3	-52.2	14.8	0.00e+00	0	25	0	835715072	66	4546
2026-01-07 22:29:39.47	105.63	20.46	-50.3	-52.0	14.9	0.00e+00	0	25	0	837812224	66	4479
2026-01-07 22:29:40.48	105.87	20.41	-50.2	-52.0	14.9	0.00e+00	0	25	0	838860800	66	4450
2026-01-07 22:29:41.48	106.11	20.36	-50.1	-51.9	14.9	0.00e+00	0	25	0	840957952	66	4398
2026-01-07 22:29:42.47	106.34	20.31	-50.3	-52.1	14.9	0.00e+00	0	25	0	843055104	66	4512
2026-01-07 22:29:43.47	106.57	20.26	-50.5	-52.3	14.7	0.00e+00	0	25	0	845152256	66	4646
2026-01-07 22:29:44.47	106.80	20.21	-50.7	-52.6	14.6	0.00e+00	0	25	0	847249408	66	4809
2026-01-07 22:29:45.47	107.04	20.16	-51.0	-53.1	14.5	0.00e+00	0	25	0	848297984	67	4785
2026-01-07 22:29:46.47	107.27	20.11	-51.2	-53.4	14.4	0.00e+00	0	25	0	850395136	67	4949
2026-01-07 22:29:47.47	107.50	20.06	-51.7	-54.0	14.3	0.00e+00	0	25	0	852492288	68	5010
2026-01-07 22:29:48.47	107.73	20.00	-51.7	-54.0	14.2	0.00e+00	0	25	0	854589440	68	5000
2026-01-07 22:29:49.47	107.96	19.95	-51.8	-54.1	14.2	0.00e+00	0	25	0	855638016	68	5079
2026-01-07 22:29:50.47	108.19	19.90	-51.6	-53.9	14.3	0.00e+00	0	25	0	857735168	68	4970
2026-01-07 22:29:51.48	108.42	19.85	-51.7	-54.0	14.2	0.00e+00	0	25	0	859832320	68	5021
2026-01-07 22:29:52.48	108.64	19.79	-51.7	-54.0	14.3	0.00e+00	0	25	0	861929472	68	5016
2026-01-07 22:29:53.48	108.87	19.74	-51.6	-53.9	14.3	0.00e+00	0	25	0	864026624	68	4951
2026-01-07 22:29:54.47	109.09	19.69	-51.6	-53.9	14.3	0.00e+00	0	25	0	865075200	68	4963
2026-01-07 22:29:55.47	109.32	19.63	-51.7	-53.9	14.3	0.00e+00	0	25	0	867172352	68	4961
2026-01-07 22:29:56.47	109.54	19.58	-51.4	-53.5	14.5	0.00e+00	0	25	0	869269504	68	4756
2026-01-07 22:29:57.47	109.77	19.52	-51.2	-53.2	14.6	0.00e+00	0	25	0	871366656	68	4575
2026-01-07 22:29:58.48	109.99	19.47	-51.2	-53.3	14.6	0.00e+00	0	25	0	873463808	68	4607
2026-01-07 22:29:59.47	110.21	19.41	-51.3	-53.5	14.5	0.00e+00	0	25	0	874512384	68	4712
2026-01-07 22:30:00.47	110.43	19.36	-51.4	-53.6	14.5	0.00e+00	0	25	0	876609536	68	4799
2026-01-07 22:30:01.47	110.65	19.30	-51.5	-53.7	14.4	0.00e+00	0	25	0	878706688	68	4841
2026-01-07 22:30:02.47	110.87	19.24	-51.5	-53.7	14.4	0.00e+00	0	25	0	880803840	68	4850
2026-01-07 22:30:03.47	111.09	19.19	-51.5	-53.7	14.4	0.00e+00	0	25	0	882900992	68	4858
2026-01-07 22:30:04.47	111.31	19.13	-51.2	-53.3	14.6	0.00e+00	0	25	0	883949568	68	4647
2026-01-07 22:30:05.47	111.52	19.07	-51.2	-53.4	14.5	0.00e+00	0	25	0	886046720	68	4687
2026-01-07 22:30:06.46	111.74	19.02	-51.4	-53.6	14.4	0.00e+00	0	25	0	888143872	68	4795
2026-01-07 22:30:07.46	111.95	18.96	-51.5	-53.8	14.3	0.00e+00	0	25	0	890241024	68	4912
2026-01-07 22:30:08.45	112.16	18.90	-51.7	-54.2	14.1	0.00e+00	0	25	0	891289600	68	5120
2026-01-07 22:30:09.45	112.38	18.84	-52.1	-54.8	14.0	0.00e+00	0	25	0	893386752	69	5176
2026-01-07 22:30:10.45	112.59	18.79	-52.5	-55.2	13.9	0.00e+00	0	25	0	895483904	70	5147
2026-01-07 22:30:11.46	112.80	18.73	-52.4	-55.1	14.0	0.00e+00	0	25	0	897581056	70	5046
2026-01-07 22:30:12.45	113.01	18.67	-52.4	-55.0	14.0	0.00e+00	0	25	0	899678208	70	5036
2026-01-07 22:30:13.46	113.23	18.61	-52.1	-54.5	14.3	0.00e+00	0	25	0	900726784	70	4738
2026-01-07 22:30:14.45	113.43	18.55	-51.8	-54.1	14.4	0.00e+00	0	25	0	902823936	69	4799
2026-01-07 22:30:15.45	113.64	18.49	-51.7	-54.0	14.4	0.00e+00	0	25	0	904921088	69	4712
2026-01-07 22:30:16.44	113.85	18.43	-51.4	-53.5	14.6	0.00e+00	0	25	0	907018240	69	4485
2026-01-07 22:30:17.44	114.06	18.37	-51.6	-53.8	14.5	0.00e+00	0	25	0	909115392	69	4638
2026-01-07 22:30:18.43	114.26	18.31	-51.6	-53.8	14.5	0.00e+00	0	25	0	910163968	69	4648
2026-01-07 22:30:19.43	114.47	18.25	-51.7	-54.0	14.4	0.00e+00	0	25	0	912261120	69	4732
2026-01-07 22:30:20.43	114.67	18.19	-51.8	-54.2	14.3	0.00e+00	0	25	0	914358272	69	4838
2026-01-07 22:30:21.43	114.88	18.13	-51.8	-54.2	14.3	0.00e+00	0	25	0	916455424	69	4829
2026-01-07 22:30:22.43	115.08	18.07	-51.8	-54.1	14.3	0.00e+00	0	25	0	917504000	69	4803
2026-01-07 22:30:23.43	115.28	18.01	-51.5	-53.7	14.5	0.00e+00	0	25	0	919601152	69	4565
2026-01-07 22:30:24.43	115.48	17.95	-51.4	-53.6	14.5	0.00e+00	0	25	0	921698304	69	4534
2026-01-07 22:30:25.43	115.68	17.88	-51.5	-53.7	14.5	0.00e+00	0	25	0	923795456	69	4563
2026-01-07 22:30:26.42	115.88	17.82	-51.6	-53.8	14.4	0.00e+00	0	25	0	925892608	69	4640
2026-01-07 22:30:27.41	116.08	17.76	-51.7	-54.0	14.3	0.00e+00	0	25	0	926941184	69	4758
2026-01-07 22:30:28.40	116.28	17.70	-51.7	-54.0	14.4	0.00e+00	0	25	0	929038336	69	4727
2026-01-07 22:30:29.39	116.47	17.64	-51.7	-54.0	14.3	0.00e+00	0	25	0	931135488	69	4747
2026-01-07 22:30:30.39	116.67	17.58	-51.6	-53.9	14.4	0.00e+00	0	25	0	933232640	69	4687
2026-01-07 22:30:31.39	116.87	17.51	-51.6	-53.9	14.4	0.00e+00	0	25	0	934281216	69	4705
2026-01-07 22:30:32.38	117.06	17.45	-51.6	-53.9	14.4	0.00e+00	0	25	0	936378368	69	4693
2026-01-07 22:30:33.38	117.25	17.39	-51.4	-53.6	14.5	0.00e+00	0	25	0	938475520	69	4539
2026-01-07 22:30:34.37	117.45	17.33	-51.3	-53.5	14.6	0.00e+00	0	25	0	940572672	69	4462
2026-01-07 22:30:35.37	117.64	17.26	-51.5	-53.7	14.5	0.00e+00	0	25	0	942669824	69	4573
2026-01-07 22:30:36.37	117.83	17.20	-51.5	-53.7	14.5	0.00e+00	0	25	0	943718400	69	4547
2026-01-07 22:30:37.36	118.02	17.14	-51.7	-54.0	14.4	0.00e+00	0	25	0	945815552	69	4719
2026-01-07 22:30:38.35	118.21	17.07	-51.7	-54.0	14.4	0.00e+00	0	25	0	947912704	69	4741
2026-01-07 22:30:39.35	118.40	17.01	-51.6	-53.8	14.5	0.00e+00	0	25	0	950009856	69	4608
2026-01-07 22:30:40.35	118.59	16.95	-51.4	-53.5	14.6	0.00e+00	0	25	0	952107008	69	4462
2026-01-07 22:30:41.36	118.78	16.88	-51.2	-53.2	14.7	0.00e+00	0	25	0	953155584	69	4329
2026-01-07 22:30:42.35	118.97	16.82	-51.1	-53.1	14.6	0.00e+00	0	25	0	955252736	68	4505
2026-01-07 22:30:43.35	119.15	16.75	-50.9	-52.7	14.8	0.00e+00	0	25	0	957349888	68	4340
2026-01-07 22:30:44.35	119.34	16.69	-51.0	-52.9	14.8	0.00e+00	0	25	0	959447040	68	4416
2026-01-07 22:30:45.35	119.52	16.62	-51.1	-53.0	14.7	0.00e+00	0	25	0	960495616	68	4480
2026-01-07 22:30:46.35	119.71	16.56	-51.2	-53.2	14.6	0.00e+00	0	25	0	962592768	68	4598
2026-01-07 22:30:47.36	119.89	16.49	-51.5	-53.6	14.4	0.00e+00	0	25	0	964689920	68	4811
2026-01-07 22:30:48.35	120.08	16.43	-51.6	-53.7	14.4	0.00e+00	0	25	0	966787072	68	4855
2026-01-07 22:30:49.35	120.26	16.36	-51.8	-54.0	14.3	0.00e+00	0	25	0	968884224	68	4990
2026-01-07 22:30:50.35	120.44	16.30	-51.8	-54.0	14.2	0.00e+00	0	25	0	969932800	68	5019
2026-01-07 22:30:51.35	120.62	16.23	-51.6	-53.7	14.3	0.00e+00	0	25	0	972029952	68	4870
2026-01-07 22:30:52.35	120.80	16.17	-51.8	-54.1	14.2	0.00e+00	0	25	0	974127104	68	5052
2026-01-07 22:30:53.35	120.98	16.10	-51.8	-54.1	14.3	0.00e+00	0	25	0	976224256	69	4792
2026-01-07 22:30:54.35	121.16	16.04	-52.0	-54.3	14.2	0.00e+00	0	25	0	978321408	69	4913
2026-01-07 22:30:55.35	121.34	15.97	-52.2	-54.7	14.0	0.00e+00	0	25	0	979369984	69	5134
2026-01-07 22:30:56.35	121.51	15.91	-52.3	-54.8	13.9	0.00e+00	0	25	0	981467136	69	5188
2026-01-07 22:30:57.35	121.69	15.84	-52.3	-54.8	13.9	0.00e+00	0	25	0	983564288	69	5197
2026-01-07 22:30:58.35	121.87	15.78	-52.1	-54.6	14.0	0.00e+00	0	25	0	985661440	69	5071
2026-01-07 22:30:59.34	122.04	15.71	-51.9	-54.3	14.2	0.00e+00	0	25	0	986710016	69	4881
2026-01-07 22:31:00.34	122.21	15.64	-51.6	-53.8	14.4	0.00e+00	0	25	0	988807168	69	4643
2026-01-07 22:31:01.34	122.39	15.58	-51.3	-53.4	14.7	0.00e+00	0	25	0	990904320	69	4410
2026-01-07 22:31:02.34	122.56	15.51	-51.1	-53.1	14.7	0.00e+00	0	25	0	993001472	68	4508
2026-01-07 22:31:03.33	122.73	15.45	-51.1	-53.1	14.6	0.00e+00	0	25	0	995098624	68	4524
2026-01-07 22:31:04.33	122.90	15.38	-51.0	-53.1	14.7	0.00e+00	0	25	0	996147200	68	4495
2026-01-07 22:31:05.34	123.07	15.31	-51.1	-53.1	14.6	0.00e+00	0	25	0	998244352	68	4528
2026-01-07 22:31:06.34	123.24	15.25	-51.3	-53.5	14.5	0.00e+00	0	25	0	1000341504	68	4709
2026-01-07 22:31:07.34	123.41	15.18	-51.5	-53.7	14.4	0.00e+00	0	25	0	1002438656	68	4821
2026-01-07 22:31:08.34	123.58	15.12	-51.7	-54.0	14.2	0.00e+00	0	25	0	1004535808	68	4987
2026-01-07 22:31:09.33	123.74	15.05	-51.7	-53.9	14.2	0.00e+00	0	25	0	1005584384	68	4976
2026-01-07 22:31:10.33	123.91	14.98	-51.5	-53.7	14.3	0.00e+00	0	25	0	1007681536	68	4836
2026-01-07 22:31:11.34	124.08	14.92	-51.2	-53.2	14.6	0.00e+00	0	25	0	1009778688	68	4592
2026-01-07 22:31:12.34	124.24	14.85	-50.9	-52.8	14.8	0.00e+00	0	25	0	1011875840	68	4371
2026-01-07 22:31:13.33	124.41	14.78	-51.0	-52.9	14.7	0.00e+00	0	25	0	1013972992	68	4405
2026-01-07 22:31:14.33	124.57	14.72	-50.7	-52.6	14.9	0.00e+00	0	25	0	1015021568	68	4271
2026-01-07 22:31:15.33	124.73	14.65	-50.8	-52.7	14.8	0.00e+00	0	25	0	1017118720	68	4302
2026-01-07 22:31:16.32	124.89	14.58	-50.9	-52.9	14.7	0.00e+00	0	25	0	1019215872	68	4395
2026-01-07 22:31:17.32	125.06	14.52	-51.2	-53.2	14.6	0.00e+00	0	25	0	1021313024	68	4590
2026-01-07 22:31:18.33	125.22	14.45	-51.7	-53.8	14.2	0.00e+00	0	25	0	1022361600	68	4915
2026-01-07 22:31:19.33	125.38	14.38	-51.6	-53.7	14.3	0.00e+00	0	25	0	1024458752	68	4866
2026-01-07 22:31:20.34	125.54	14.32	-51.7	-53.9	14.2	0.00e+00	0	25	0	1026555904	68	4945
2026-01-07 22:31:21.33	125.70	14.25	-51.6	-53.8	14.3	0.00e+00	0	25	0	1028653056	68	4881
2026-01-07 22:31:22.33	125.86	14.18	-51.5	-53.7	14.3	0.00e+00	0	25	0	1030750208	68	4815
2026-01-07 22:31:23.32	126.01	14.12	-51.4	-53.5	14.4	0.00e+00	0	25	0	1031798784	68	4747
2026-01-07 22:31:24.31	126.17	14.05	-51.6	-53.7	14.3	0.00e+00	0	25	0	1033895936	68	4842
2026-01-07 22:31:25.31	126.32	13.98	-51.6	-53.8	14.3	0.00e+00	0	25	0	1035993088	68	4913
2026-01-07 22:31:26.30	126.48	13.92	-51.9	-54.1	14.1	0.00e+00	0	25	0	1038090240	68	5087
2026-01-07 22:31:27.30	126.63	13.85	-52.1	-54.4	14.1	0.00e+00	0	25	0	1039138816	69	4963
2026-01-07 22:31:28.29	126.79	13.79	-52.3	-54.8	13.9	0.00e+00	0	25	0	1041235968	69	5189
2026-01-07 22:31:29.29	126.94	13.72	-52.4	-54.9	13.9	0.00e+00	0	25	0	1043333120	69	5236
2026-01-07 22:31:30.28	127.09	13.65	-52.3	-54.8	13.9	0.00e+00	0	25	0	1045430272	69	5196
2026-01-07 22:31:31.28	127.24	13.59	-52.2	-54.6	14.0	0.00e+00	0	25	0	1047527424	69	5074
2026-01-07 22:31:32.27	127.39	13.52	-52.3	-54.7	13.9	0.00e+00	0	25	0	1048576000	69	5139
2026-01-07 22:31:33.27	127.54	13.45	-51.8	-54.1	14.2	0.00e+00	0	25	0	1050673152	69	4785
2026-01-07 22:31:34.27	127.69	13.39	-51.8	-54.0	14.3	0.00e+00	0	25	0	1052770304	69	4731
2026-01-07 22:31:35.26	127.84	13.32	-51.7	-53.9	14.4	0.00e+00	0	25	0	1054867456	69	4670
2026-01-07 22:31:36.24	127.99	13.25	-51.8	-54.0	14.3	0.00e+00	0	25	0	1055916032	69	4706
2026-01-07 22:31:37.24	128.14	13.19	-51.8	-54.0	14.3	0.00e+00	0	25	0	1058013184	69	4711
2026-01-07 22:31:38.24	128.28	13.12	-51.8	-54.0	14.3	0.00e+00	0	25	0	1060110336	69	4725
2026-01-07 22:31:39.24	128.43	13.05	-52.0	-54.3	14.1	0.00e+00	0	25	0	1062207488	69	4879
2026-01-07 22:31:40.23	128.58	12.99	-52.0	-54.3	14.1	0.00e+00	0	25	0	1064304640	69	4876
2026-01-07 22:31:41.22	128.72	12.92	-52.1	-54.5	14.0	0.00e+00	0	25	0	1065353216	69	5002
2026-01-07 22:31:42.22	128.87	12.85	-52.3	-54.8	13.9	0.00e+00	0	25	0	1067450368	69	5187
2026-01-07 22:31:43.21	129.01	12.79	-52.2	-54.6	14.0	0.00e+00	0	25	0	1069547520	69	5099
2026-01-07 22:31:44.20	129.15	12.72	-52.2	-54.6	14.0	0.00e+00	0	25	0	1071644672	69	5051
2026-01-07 22:31:45.20	129.29	12.66	-52.2	-54.3	14.2	0.00e+00	0	25	0	1072693248	69	4871
2026-01-07 22:31:46.21	129.44	12.59	-52.1	-54.2	14.2	0.00e+00	0	25	0	1074790400	69	4819
2026-01-07 22:31:47.21	129.58	12.52	-52.1	-54.1	14.2	0.00e+00	0	25	0	1076887552	69	4814
2026-01-07 22:31:48.21	129.72	12.46	-52.2	-54.3	14.2	0.00e+00	0	25	0	1078984704	69	4898
2026-01-07 22:31:49.21	129.86	12.39	-52.2	-54.3	14.2	0.00e+00	0	25	0	1081081856	69	4881
2026-01-07 22:31:50.21	130.00	12.32	-52.4	-54.5	14.1	0.00e+00	0	25	0	1082130432	69	5008
2026-01-07 22:31:51.20	130.14	12.26	-52.6	-54.7	14.1	0.00e+00	0	25	0	1084227584	70	4870
2026-01-07 22:31:52.20	130.28	12.19	-52.8	-55.0	13.9	0.00e+00	0	25	0	1086324736	70	5037
2026-01-07 22:31:53.20	130.42	12.12	-52.7	-54.9	14.0	0.00e+00	0	25	0	1088421888	70	4955
2026-01-07 22:31:54.19	130.55	12.06	-52.5	-54.7	14.1	0.00e+00	0	25	0	1090519040	70	4846
2026-01-07 22:31:55.19	130.69	11.99	-52.3	-54.4	14.3	0.00e+00	0	25	0	1091567616	70	4655
2026-01-07 22:31:56.19	130.83	11.92	-52.3	-54.4	14.3	0.00e+00	0	25	0	1093664768	70	4661
2026-01-07 22:31:57.19	130.96	11.86	-52.1	-54.2	14.3	0.00e+00	0	25	0	1095761920	70	4556
2026-01-07 22:31:58.19	131.10	11.79	-51.8	-53.7	14.6	0.00e+00	0	25	0	1097859072	70	4336
2026-01-07 22:31:59.19	131.23	11.73	-51.7	-53.6	14.7	0.00e+00	0	25	0	1098907648	70	4269
2026-01-07 22:32:00.19	131.37	11.66	-51.6	-53.5	14.6	0.00e+00	0	25	0	1101004800	69	4460
2026-01-07 22:32:01.19	131.50	11.59	-51.6	-53.5	14.6	0.00e+00	0	25	0	1103101952	69	4446
2026-01-07 22:32:02.18	131.63	11.53	-51.7	-53.6	14.5	0.00e+00	0	25	0	1105199104	69	4498
2026-01-07 22:32:03.17	131.77	11.46	-51.8	-53.7	14.5	0.00e+00	0	25	0	1107296256	69	4568
2026-01-07 22:32:04.17	131.90	11.40	-51.8	-53.8	14.4	0.00e+00	0	25	0	1108344832	69	4615
2026-01-07 22:32:05.17	132.03	11.33	-51.9	-53.9	14.3	0.00e+00	0	25	0	1110441984	69	4676
2026-01-07 22:32:06.16	132.16	11.27	-52.0	-54.0	14.3	0.00e+00	0	25	0	1112539136	69	4746
2026-01-07 22:32:07.16	132.29	11.20	-52.1	-54.1	14.2	0.00e+00	0	25	0	1114636288	69	4792
2026-01-07 22:32:08.16	132.42	11.13	-52.1	-54.2	14.2	0.00e+00	0	25	0	1115684864	69	4833
2026-01-07 22:32:09.15	132.55	11.07	-52.1	-54.2	14.2	0.00e+00	0	25	0	1117782016	69	4819
2026-01-07 22:32:10.15	132.67	11.00	-52.1	-54.2	14.2	0.00e+00	0	25	0	1119879168	69	4816
2026-01-07 22:32:11.15	132.80	10.94	-52.0	-54.1	14.2	0.00e+00	0	25	0	1121976320	69	4777
2026-01-07 22:32:12.15	132.93	10.87	-52.0	-54.0	14.3	0.00e+00	0	25	0	1124073472	69	4737
2026-01-07 22:32:13.15	133.06	10.81	-52.0	-54.0	14.3	0.00e+00	0	25	0	1125122048	69	4732
2026-01-07 22:32:14.14	133.18	10.74	-52.0	-54.0	14.3	0.00e+00	0	25	0	1127219200	69	4729
2026-01-07 22:32:15.14	133.31	10.68	-52.0	-54.0	14.3	0.00e+00	0	25	0	1129316352	69	4714
2026-01-07 22:32:16.13	133.43	10.61	-52.1	-54.2	14.2	0.00e+00	0	25	0	1131413504	69	4862
2026-01-07 22:32:17.13	133.56	10.55	-52.2	-54.4	14.1	0.00e+00	0	25	0	1133510656	69	4936
2026-01-07 22:32:18.13	133.68	10.48	-52.4	-54.6	14.0	0.00e+00	0	25	0	1134559232	69	5055
2026-01-07 22:32:19.14	133.81	10.41	-52.6	-54.8	14.0	0.00e+00	0	25	0	1136656384	70	4912
2026-01-07 22:32:20.14	133.93	10.35	-52.6	-54.8	14.0	0.00e+00	0	25	0	1138753536	70	4906
2026-01-07 22:32:21.14	134.05	10.28	-52.6	-54.9	14.0	0.00e+00	0	25	0	1140850688	70	4934
2026-01-07 22:32:22.13	134.17	10.22	-52.6	-54.9	14.0	0.00e+00	0	25	0	1142947840	70	4950
2026-01-07 22:32:23.13	134.29	10.15	-52.6	-54.8	14.0	0.00e+00	0	25	0	1143996416	70	4903
2026-01-07 22:32:24.12	134.41	10.09	-52.6	-54.8	14.0	0.00e+00	0	25	0	1146093568	70	4892
2026-01-07 22:32:25.11	134.53	10.03	-52.4	-54.6	14.1	0.00e+00	0	25	0	1148190720	70	4773
2026-01-07 22:32:26.11	134.65	9.96	-52.4	-54.5	14.1	0.00e+00	0	25	0	1150287872	70	4748
2026-01-07 22:32:27.11	134.77	9.90	-52.1	-54.2	14.3	0.00e+00	0	25	0	1151336448	70	4574
2026-01-07 22:32:28.10	134.89	9.83	-52.2	-54.3	14.2	0.00e+00	0	25	0	1153433600	70	4633
2026-01-07 22:32:29.09	135.01	9.77	-52.3	-54.5	14.2	0.00e+00	0	25	0	1155530752	70	4711
2026-01-07 22:32:30.09	135.13	9.70	-52.3	-54.5	14.2	0.00e+00	0	25	0	1157627904	70	4715
2026-01-07 22:32:31.08	135.24	9.64	-52.5	-54.7	14.0	0.00e+00	0	25	0	1159725056	70	4851
2026-01-07 22:32:32.08	135.36	9.57	-52.5	-54.6	14.1	0.00e+00	0	25	0	1160773632	70	4812
2026-01-07 22:32:33.08	135.48	9.51	-52.5	-54.7	14.0	0.00e+00	0	25	0	1162870784	70	4825
2026-01-07 22:32:34.08	135.59	9.45	-52.6	-54.9	14.0	0.00e+00	0	25	0	1164967936	70	4953
2026-01-07 22:32:35.07	135.71	9.38	-52.7	-55.0	13.8	0.00e+00	0	25	0	1167065088	70	5034
2026-01-07 22:32:36.07	135.82	9.32	-52.7	-55.0	13.9	0.00e+00	0	25	0	1168113664	70	4985
2026-01-07 22:32:37.07	135.94	9.25	-52.7	-55.0	13.9	0.00e+00	0	25	0	1170210816	70	4987
2026-01-07 22:32:38.07	136.05	9.19	-52.7	-55.0	13.9	0.00e+00	0	25	0	1172307968	70	5033
2026-01-07 22:32:39.07	136.16	9.13	-52.7	-55.0	13.9	0.00e+00	0	25	0	1174405120	70	5012
2026-01-07 22:32:40.07	136.28	9.06	-52.7	-55.1	13.8	0.00e+00	0	25	0	1176502272	70	5044
2026-01-07 22:32:41.06	136.39	9.00	-52.8	-55.1	13.8	0.00e+00	0	25	0	1177550848	70	5100
2026-01-07 22:32:42.06	136.50	8.94	-52.7	-55.1	13.8	0.00e+00	0	25	0	1179648000	70	5063
2026-01-07 22:32:43.06	136.61	8.87	-52.8	-55.2	13.9	0.00e+00	0	25	0	1181745152	71	4863
2026-01-07 22:32:44.06	136.72	8.81	-52.9	-55.3	13.8	0.00e+00	0	25	0	1183842304	71	4900
2026-01-07 22:32:45.06	136.83	8.74	-52.9	-55.3	13.8	0.00e+00	0	25	0	1184890880	71	4890
2026-01-07 22:32:46.05	136.94	8.68	-53.0	-55.5	13.7	0.00e+00	0	25	0	1186988032	71	5013
2026-01-07 22:32:47.05	137.05	8.62	-52.9	-55.4	13.8	0.00e+00	0	25	0	1189085184	71	4947
2026-01-07 22:32:48.05	137.16	8.55	-52.8	-55.2	13.9	0.00e+00	0	25	0	1191182336	71	4861
2026-01-07 22:32:49.06	137.27	8.49	-52.7	-55.0	13.9	0.00e+00	0	25	0	1193279488	71	4755
2026-01-07 22:32:50.05	137.38	8.43	-52.7	-55.1	13.9	0.00e+00	0	25	0	1194328064	71	4762
2026-01-07 22:32:51.05	137.49	8.36	-52.7	-55.1	13.9	0.00e+00	0	25	0	1196425216	71	4779
2026-01-07 22:32:52.04	137.59	8.30	-52.7	-55.0	14.0	0.00e+00	0	25	0	1198522368	71	4728
2026-01-07 22:32:53.04	137.70	8.24	-52.7	-55.0	14.0	0.00e+00	0	25	0	1200619520	71	4741
2026-01-07 22:32:54.04	137.81	8.18	-52.7	-55.0	14.0	0.00e+00	0	25	0	1202716672	71	4752
2026-01-07 22:32:55.04	137.91	8.11	-52.5	-54.8	14.0	0.00e+00	0	25	0	1203765248	71	4644
2026-01-07 22:32:56.03	138.02	8.05	-52.6	-55.0	14.0	0.00e+00	0	25	0	1205862400	71	4710
2026-01-07 22:32:57.04	138.13	7.99	-52.6	-55.0	14.0	0.00e+00	0	25	0	1207959552	71	4709
2026-01-07 22:32:58.03	138.23	7.93	-52.6	-55.0	14.0	0.00e+00	0	25	0	1210056704	71	4709
2026-01-07 22:32:59.03	138.33	7.86	-52.6	-54.9	14.0	0.00e+00	0	25	0	1212153856	71	4697
2026-01-07 22:33:00.03	138.44	7.80	-52.6	-54.9	14.0	0.00e+00	0	25	0	1213202432	71	4676
2026-01-07 22:33:01.03	138.54	7.74	-52.6	-54.9	14.0	0.00e+00	0	25	0	1215299584	71	4677
2026-01-07 22:33:02.02	138.64	7.68	-52.5	-54.8	14.1	0.00e+00	0	25	0	1217396736	71	4604
2026-01-07 22:33:03.03	138.75	7.61	-52.4	-54.7	14.1	0.00e+00	0	25	0	1219493888	71	4576
2026-01-07 22:33:04.02	138.85	7.55	-52.5	-54.8	14.0	0.00e+00	0	25	0	1220542464	71	4644
2026-01-07 22:33:05.02	138.95	7.49	-52.5	-54.7	14.1	0.00e+00	0	25	0	1222639616	71	4597
2026-01-07 22:33:06.02	139.05	7.43	-52.5	-54.9	14.0	0.00e+00	0	25	0	1224736768	71	4667
2026-01-07 22:33:07.01	139.15	7.37	-52.5	-54.9	14.0	0.00e+00	0	25	0	1226833920	71	4666
2026-01-07 22:33:08.00	139.25	7.31	-52.6	-54.9	14.0	0.00e+00	0	25	0	1228931072	71	4685
2026-01-07 22:33:09.00	139.35	7.24	-52.7	-55.0	13.9	0.00e+00	0	25	0	1229979648	71	4758
2026-01-07 22:33:10.00	139.45	7.18	-52.8	-55.3	13.7	0.00e+00	0	25	0	1232076800	71	4899
2026-01-07 22:33:11.00	139.55	7.12	-53.0	-55.5	13.6	0.00e+00	0	25	0	1234173952	71	5021
2026-01-07 22:33:12.01	139.65	7.06	-53.3	-56.0	13.3	0.00e+00	0	25	0	1236271104	71	5297
2026-01-07 22:33:13.00	139.75	7.00	-53.3	-56.1	13.3	0.00e+00	0	25	0	1237319680	71	5359
2026-01-07 22:33:14.00	139.85	6.94	-53.3	-56.1	13.3	0.00e+00	0	25	0	1239416832	71	5380
2026-01-07 22:33:15.00	139.95	6.87	-53.6	-56.5	13.1	0.00e+00	0	25	0	1241513984	72	5281
