passes_logs/2026/01/07/R3.2S_Murmansk/R3.2S_Murmansk__20260107_101837_SUOMI_NPP_rec.log

#Pass ID: 20260107_101837_SUOMI NPP
#Satellite: SUOMI NPP
#Configuration: NPP
#almurnet v.1.7.20251203
#Start time: 2026-01-07 10:18:38

#Version: 2.2.20231116
#Station: R3.2S_Murmansk
#Location: 33.079688 lon 68.888172 lat
#TLE: 1 37849U 11061A   26005.94084933  .00000134  00000+0  84554-4 0  9990
#TLE: 2 37849  98.7803 308.0679 0002567  79.1029 281.0436 14.19522657735426

#Time	Az	El	Level	Level2	SNR	BER	BlckErr	Temp	State	Recorded	gain1	gain2
2026-01-07 10:18:38.41	169.11	2.06	-57.8	-73.7	3.8	1.49e+00	0	23	0	0	82	21738
2026-01-07 10:18:39.42	169.13	2.12	-57.7	-73.7	3.8	1.49e+00	0	23	104	0	80	24227
2026-01-07 10:18:40.42	169.16	2.19	-57.7	-73.6	3.8	1.49e+00	0	23	104	0	80	24031
2026-01-07 10:18:41.43	169.18	2.25	-57.7	-73.6	3.8	1.49e+00	0	23	104	0	80	23998
2026-01-07 10:18:42.43	169.20	2.31	-57.7	-73.5	3.8	1.49e+00	0	23	104	0	80	23836
2026-01-07 10:18:43.44	169.23	2.38	-57.7	-73.5	3.8	1.49e+00	0	23	104	0	80	23793
2026-01-07 10:18:44.44	169.25	2.44	-57.7	-73.5	3.8	1.49e+00	0	23	104	0	80	23838
2026-01-07 10:18:45.45	169.27	2.51	-57.7	-73.5	3.8	1.49e+00	0	24	104	0	80	23844
2026-01-07 10:18:46.46	169.30	2.57	-57.7	-73.6	3.8	1.49e+00	0	23	104	0	80	23887
2026-01-07 10:18:47.47	169.32	2.64	-57.7	-73.6	3.8	1.49e+00	0	23	104	0	80	24126
2026-01-07 10:18:48.48	169.35	2.70	-57.7	-73.6	3.8	1.49e+00	0	24	104	0	80	24065
2026-01-07 10:18:49.49	169.37	2.77	-57.7	-73.7	3.8	1.49e+00	0	23	104	0	80	24242
2026-01-07 10:18:50.50	169.39	2.84	-57.7	-73.7	3.8	1.49e+00	0	24	104	0	80	24139
2026-01-07 10:18:51.51	169.42	2.90	-57.7	-73.6	3.8	1.49e+00	0	24	104	0	80	24050
2026-01-07 10:18:52.51	169.44	2.97	-57.7	-73.6	3.8	1.49e+00	0	24	104	0	80	23983
2026-01-07 10:18:53.52	169.47	3.03	-57.7	-73.5	3.8	1.49e+00	0	24	104	0	80	23786
2026-01-07 10:18:54.53	169.49	3.10	-57.7	-73.5	3.8	1.49e+00	0	24	104	0	80	23763
2026-01-07 10:18:55.54	169.51	3.17	-57.7	-73.5	3.9	1.49e+00	0	24	104	0	80	23756
2026-01-07 10:18:56.54	169.54	3.23	-57.7	-73.6	3.8	1.49e+00	0	24	104	0	80	23888
2026-01-07 10:18:57.54	169.56	3.30	-57.7	-73.6	3.8	1.49e+00	0	24	104	0	80	24090
2026-01-07 10:18:58.55	169.59	3.37	-57.7	-73.7	3.8	1.49e+00	0	24	104	0	80	24269
2026-01-07 10:18:59.55	169.61	3.43	-57.7	-73.7	3.8	1.49e+00	0	24	104	0	80	24392
2026-01-07 10:19:00.55	169.64	3.50	-57.7	-73.6	3.8	1.49e+00	0	24	104	0	80	23936
2026-01-07 10:19:01.56	169.66	3.57	-57.7	-73.2	3.8	1.49e+00	0	24	104	0	80	22791
2026-01-07 10:19:02.56	169.69	3.63	-57.7	-72.6	3.8	1.49e+00	0	24	104	0	80	21263
2026-01-07 10:19:03.57	169.71	3.70	-57.6	-71.6	3.8	1.49e+00	0	24	104	0	80	19144
2026-01-07 10:19:04.57	169.74	3.77	-57.6	-70.9	3.9	1.47e+00	0	24	104	0	80	17577
2026-01-07 10:19:05.57	169.76	3.84	-57.5	-69.8	4.3	1.39e+00	0	24	0	0	80	15413
2026-01-07 10:19:06.58	169.79	3.91	-57.5	-68.9	4.6	9.60e-01	0	24	0	1048576	80	14001
2026-01-07 10:19:07.59	169.81	3.97	-57.4	-67.7	5.2	7.79e-01	0	24	0	3145728	80	12106
2026-01-07 10:19:08.60	169.84	4.04	-57.3	-67.2	5.4	5.64e-01	0	24	0	4194304	80	11518
2026-01-07 10:19:09.61	169.87	4.11	-57.3	-66.8	5.7	3.75e-01	0	24	0	6291456	80	11007
2026-01-07 10:19:10.62	169.89	4.18	-57.2	-66.4	6.0	3.33e-01	0	24	0	8388608	80	10448
2026-01-07 10:19:11.63	169.92	4.25	-57.1	-65.8	6.3	2.34e-01	0	24	0	10485760	80	9814
2026-01-07 10:19:12.64	169.95	4.32	-57.1	-65.5	6.5	1.87e-01	0	24	0	12582912	80	9492
2026-01-07 10:19:13.64	169.97	4.39	-57.0	-65.0	7.0	1.33e-01	0	24	0	13631488	80	8900
2026-01-07 10:19:14.65	170.00	4.46	-56.9	-64.2	7.7	9.44e-02	0	24	0	15728640	80	8141
2026-01-07 10:19:15.66	170.02	4.53	-56.8	-63.7	8.1	5.60e-02	0	24	0	17825792	80	7713
2026-01-07 10:19:16.67	170.05	4.60	-56.6	-63.1	8.7	2.39e-02	0	24	0	19922944	79	7553
2026-01-07 10:19:17.68	170.08	4.67	-56.4	-62.4	9.3	1.27e-02	0	24	0	22020096	79	6976
2026-01-07 10:19:18.69	170.10	4.74	-56.4	-62.3	9.4	4.96e-03	0	24	0	24117248	79	6880
2026-01-07 10:19:19.70	170.13	4.81	-56.3	-62.0	9.7	4.89e-03	0	24	0	25165824	79	6683
2026-01-07 10:19:20.70	170.16	4.88	-56.1	-61.4	10.1	1.92e-03	0	24	0	27262976	78	6573
2026-01-07 10:19:21.71	170.19	4.95	-56.0	-61.2	10.3	1.83e-03	0	24	0	29360128	78	6450
2026-01-07 10:19:22.72	170.21	5.02	-56.0	-61.1	10.4	8.84e-04	0	24	0	31457280	78	6390
2026-01-07 10:19:23.73	170.24	5.09	-57.2	-66.1	6.3	9.93e-03	0	24	0	33554432	79	10684
2026-01-07 10:19:24.73	170.27	5.16	-56.9	-64.1	7.8	2.97e-01	0	24	0	34603008	79	8506
2026-01-07 10:19:25.74	170.30	5.24	-56.8	-64.0	7.9	1.45e-02	0	24	0	36700160	78	8941
2026-01-07 10:19:26.74	170.32	5.31	-57.7	-72.5	3.8	8.65e-01	0	24	104	38797312	80	21073
2026-01-07 10:19:27.75	170.35	5.38	-54.2	-57.3	12.7	1.09e+00	0	24	0	38797312	75	4919
2026-01-07 10:19:28.76	170.38	5.45	-53.6	-56.3	13.4	0.00e+00	0	24	0	40894464	73	4910
2026-01-07 10:19:29.77	170.41	5.52	-53.5	-56.2	13.5	0.00e+00	0	24	0	41943040	73	4865
2026-01-07 10:19:30.77	170.44	5.60	-53.5	-56.2	13.5	0.00e+00	0	24	0	44040192	73	4819
2026-01-07 10:19:31.78	170.46	5.67	-53.5	-56.2	13.5	0.00e+00	0	24	0	46137344	73	4829
2026-01-07 10:19:32.78	170.49	5.74	-53.5	-56.1	13.5	0.00e+00	0	24	0	48234496	73	4800
2026-01-07 10:19:33.80	170.52	5.82	-53.4	-56.1	13.6	0.00e+00	0	24	0	49283072	73	4774
2026-01-07 10:19:34.80	170.55	5.89	-53.4	-56.1	13.6	0.00e+00	0	24	0	51380224	73	4777
2026-01-07 10:19:35.81	170.58	5.96	-53.4	-56.0	13.7	0.00e+00	0	24	0	53477376	73	4738
2026-01-07 10:19:36.81	170.61	6.04	-53.4	-56.0	13.7	0.00e+00	0	24	0	55574528	73	4713
2026-01-07 10:19:37.82	170.64	6.11	-53.5	-56.2	13.5	0.00e+00	0	24	0	57671680	73	4852
2026-01-07 10:19:38.83	170.67	6.18	-53.5	-56.2	13.6	0.00e+00	0	24	0	59768832	73	4835
2026-01-07 10:19:39.84	170.70	6.26	-53.4	-56.1	13.6	0.00e+00	0	24	0	60817408	73	4762
2026-01-07 10:19:40.85	170.73	6.33	-53.3	-55.9	13.8	0.00e+00	0	24	0	62914560	73	4656
2026-01-07 10:19:41.85	170.75	6.41	-53.3	-55.8	13.8	0.00e+00	0	24	0	65011712	73	4631
2026-01-07 10:19:42.86	170.78	6.48	-53.1	-55.6	13.8	0.00e+00	0	24	0	67108864	72	4797
2026-01-07 10:19:43.87	170.81	6.56	-53.1	-55.6	13.8	0.00e+00	0	24	0	69206016	72	4808
2026-01-07 10:19:44.87	170.84	6.63	-53.3	-55.9	13.6	0.00e+00	0	24	0	70254592	72	4968
2026-01-07 10:19:45.88	170.87	6.71	-53.2	-55.7	13.7	0.00e+00	0	24	0	72351744	72	4829
2026-01-07 10:19:46.88	170.90	6.78	-53.3	-55.8	13.7	0.00e+00	0	24	0	74448896	72	4909
2026-01-07 10:19:47.89	170.94	6.86	-53.3	-55.9	13.6	0.00e+00	0	24	0	76546048	72	4938
2026-01-07 10:19:48.89	170.97	6.94	-53.4	-56.0	13.6	0.00e+00	0	24	0	77594624	72	5007
2026-01-07 10:19:49.90	171.00	7.01	-53.3	-55.8	13.7	0.00e+00	0	24	0	79691776	72	4923
2026-01-07 10:19:50.91	171.03	7.09	-53.2	-55.7	13.8	0.00e+00	0	24	0	81788928	72	4846
2026-01-07 10:19:51.92	171.06	7.17	-53.1	-55.5	13.9	0.00e+00	0	25	0	83886080	72	4716
2026-01-07 10:19:52.93	171.09	7.24	-53.0	-55.4	13.9	0.00e+00	0	24	0	85983232	72	4675
2026-01-07 10:19:53.93	171.12	7.32	-53.0	-55.3	14.0	0.00e+00	0	25	0	88080384	72	4644
2026-01-07 10:19:54.94	171.15	7.40	-53.0	-55.4	14.0	0.00e+00	0	24	0	89128960	72	4683
2026-01-07 10:19:55.95	171.18	7.48	-52.9	-55.2	14.1	0.00e+00	0	24	0	91226112	72	4584
2026-01-07 10:19:56.96	171.22	7.56	-53.1	-55.5	13.9	0.00e+00	0	25	0	93323264	72	4738
2026-01-07 10:19:57.96	171.25	7.63	-53.1	-55.5	13.9	0.00e+00	0	24	0	95420416	72	4706
2026-01-07 10:19:58.97	171.28	7.71	-52.8	-55.1	14.1	0.00e+00	0	24	0	97517568	72	4529
2026-01-07 10:19:59.98	171.31	7.79	-53.0	-55.4	14.0	0.00e+00	0	24	0	98566144	72	4685
2026-01-07 10:20:00.99	171.34	7.87	-53.1	-55.5	13.9	0.00e+00	0	24	0	100663296	72	4720
2026-01-07 10:20:01.99	171.38	7.95	-53.0	-55.4	14.0	0.00e+00	0	24	0	102760448	72	4683
2026-01-07 10:20:03.00	171.41	8.03	-53.1	-55.5	13.9	0.00e+00	0	24	0	104857600	72	4724
2026-01-07 10:20:04.01	171.44	8.11	-53.0	-55.3	14.0	0.00e+00	0	25	0	106954752	72	4617
2026-01-07 10:20:05.01	171.48	8.19	-53.0	-55.3	14.0	0.00e+00	0	24	0	108003328	72	4623
2026-01-07 10:20:06.02	171.51	8.27	-52.8	-55.0	14.2	0.00e+00	0	25	0	110100480	72	4490
2026-01-07 10:20:07.02	171.54	8.35	-52.7	-55.0	14.1	0.00e+00	0	24	0	112197632	71	4726
2026-01-07 10:20:08.03	171.58	8.43	-52.8	-55.0	14.1	0.00e+00	0	25	0	114294784	71	4730
2026-01-07 10:20:09.04	171.61	8.51	-52.8	-55.1	14.0	0.00e+00	0	25	0	116391936	71	4777
2026-01-07 10:20:10.05	171.64	8.59	-52.8	-55.0	14.1	0.00e+00	0	25	0	117440512	71	4756
2026-01-07 10:20:11.06	171.68	8.67	-52.8	-55.1	14.1	0.00e+00	0	25	0	119537664	71	4765
2026-01-07 10:20:12.07	171.71	8.76	-52.8	-55.1	14.1	0.00e+00	0	25	0	121634816	71	4768
2026-01-07 10:20:13.08	171.75	8.84	-52.8	-55.0	14.1	0.00e+00	0	25	0	123731968	71	4737
2026-01-07 10:20:14.09	171.78	8.92	-52.9	-55.1	14.0	0.00e+00	0	25	0	125829120	71	4809
2026-01-07 10:20:15.09	171.82	9.00	-52.6	-54.8	14.2	0.00e+00	0	24	0	126877696	71	4602
2026-01-07 10:20:16.10	171.85	9.09	-52.7	-54.9	14.1	0.00e+00	0	25	0	128974848	71	4684
2026-01-07 10:20:17.10	171.89	9.17	-52.8	-55.0	14.1	0.00e+00	0	25	0	131072000	71	4741
2026-01-07 10:20:18.11	171.92	9.25	-52.8	-55.0	14.1	0.00e+00	0	25	0	133169152	71	4757
2026-01-07 10:20:19.12	171.96	9.34	-52.6	-54.8	14.2	0.00e+00	0	25	0	135266304	71	4604
2026-01-07 10:20:20.13	171.99	9.42	-52.7	-54.9	14.2	0.00e+00	0	25	0	136314880	71	4667
2026-01-07 10:20:21.13	172.03	9.50	-52.6	-54.8	14.2	0.00e+00	0	24	0	138412032	71	4602
2026-01-07 10:20:22.13	172.06	9.59	-52.5	-54.6	14.3	0.00e+00	0	24	0	140509184	71	4496
2026-01-07 10:20:23.14	172.10	9.67	-52.4	-54.4	14.4	0.00e+00	0	25	0	142606336	71	4436
2026-01-07 10:20:24.15	172.14	9.76	-52.4	-54.5	14.4	0.00e+00	0	25	0	144703488	71	4458
2026-01-07 10:20:25.16	172.17	9.84	-52.3	-54.3	14.5	0.00e+00	0	25	0	145752064	71	4383
2026-01-07 10:20:26.17	172.21	9.93	-52.0	-54.0	14.5	0.00e+00	0	25	0	147849216	70	4452
2026-01-07 10:20:27.18	172.25	10.02	-52.2	-54.3	14.4	0.00e+00	0	25	0	149946368	70	4604
2026-01-07 10:20:28.17	172.28	10.10	-52.0	-54.0	14.5	0.00e+00	0	25	0	152043520	70	4456
2026-01-07 10:20:29.18	172.32	10.19	-52.1	-54.1	14.4	0.00e+00	0	25	0	154140672	70	4532
2026-01-07 10:20:30.19	172.36	10.27	-52.0	-53.9	14.5	0.00e+00	0	25	0	155189248	70	4426
2026-01-07 10:20:31.20	172.40	10.36	-52.1	-54.1	14.4	0.00e+00	0	25	0	157286400	70	4515
2026-01-07 10:20:32.20	172.43	10.45	-51.9	-53.8	14.6	0.00e+00	0	25	0	159383552	70	4389
2026-01-07 10:20:33.21	172.47	10.54	-52.0	-53.9	14.5	0.00e+00	0	25	0	161480704	70	4439
2026-01-07 10:20:34.22	172.51	10.63	-51.9	-53.8	14.6	0.00e+00	0	25	0	163577856	70	4387
2026-01-07 10:20:35.23	172.55	10.71	-52.0	-53.9	14.5	0.00e+00	0	25	0	164626432	70	4438
2026-01-07 10:20:36.24	172.59	10.80	-52.0	-53.9	14.6	0.00e+00	0	25	0	166723584	70	4422
2026-01-07 10:20:37.25	172.63	10.89	-52.0	-53.9	14.5	0.00e+00	0	25	0	168820736	70	4436
2026-01-07 10:20:38.26	172.67	10.98	-51.9	-53.8	14.6	0.00e+00	0	25	0	170917888	70	4365
2026-01-07 10:20:39.27	172.71	11.07	-51.8	-53.7	14.7	0.00e+00	0	25	0	173015040	70	4308
2026-01-07 10:20:40.28	172.75	11.16	-51.8	-53.7	14.7	0.00e+00	0	25	0	174063616	70	4331
2026-01-07 10:20:41.28	172.79	11.25	-51.8	-53.6	14.7	0.00e+00	0	25	0	176160768	70	4275
2026-01-07 10:20:42.28	172.83	11.34	-51.8	-53.6	14.7	0.00e+00	0	25	0	178257920	70	4282
2026-01-07 10:20:43.30	172.87	11.43	-51.7	-53.5	14.6	0.00e+00	0	25	0	180355072	69	4472
2026-01-07 10:20:44.30	172.91	11.52	-51.7	-53.6	14.6	0.00e+00	0	25	0	182452224	69	4527
2026-01-07 10:20:45.31	172.95	11.62	-51.6	-53.4	14.7	0.00e+00	0	25	0	183500800	69	4418
2026-01-07 10:20:46.31	172.99	11.71	-51.8	-53.6	14.6	0.00e+00	0	25	0	185597952	69	4537
2026-01-07 10:20:47.32	173.03	11.80	-51.7	-53.5	14.6	0.00e+00	0	25	0	187695104	69	4490
2026-01-07 10:20:48.32	173.07	11.89	-51.7	-53.5	14.6	0.00e+00	0	25	0	189792256	69	4480
2026-01-07 10:20:49.33	173.11	11.98	-51.7	-53.5	14.6	0.00e+00	0	25	0	191889408	69	4472
2026-01-07 10:20:50.34	173.15	12.08	-51.8	-53.6	14.6	0.00e+00	0	25	0	192937984	69	4524
2026-01-07 10:20:51.35	173.20	12.17	-51.7	-53.5	14.6	0.00e+00	0	25	0	195035136	69	4493
2026-01-07 10:20:52.36	173.24	12.27	-51.6	-53.4	14.7	0.00e+00	0	25	0	197132288	69	4440
2026-01-07 10:20:53.36	173.28	12.36	-51.5	-53.3	14.7	0.00e+00	0	25	0	199229440	69	4343
2026-01-07 10:20:54.37	173.33	12.45	-51.5	-53.3	14.7	0.00e+00	0	25	0	201326592	69	4370
2026-01-07 10:20:55.38	173.37	12.55	-51.6	-53.4	14.7	0.00e+00	0	25	0	202375168	69	4414
2026-01-07 10:20:56.39	173.41	12.64	-51.4	-53.1	14.8	0.00e+00	0	25	0	204472320	69	4271
2026-01-07 10:20:57.40	173.46	12.74	-51.5	-53.3	14.7	0.00e+00	0	25	0	206569472	69	4344
2026-01-07 10:20:58.40	173.50	12.84	-51.5	-53.2	14.8	0.00e+00	0	25	0	208666624	69	4334
2026-01-07 10:20:59.41	173.54	12.93	-51.4	-53.1	14.8	0.00e+00	0	25	0	210763776	69	4279
2026-01-07 10:21:00.42	173.59	13.03	-51.3	-53.0	14.9	0.00e+00	0	25	0	211812352	69	4239
2026-01-07 10:21:01.43	173.63	13.13	-51.3	-53.0	14.9	0.00e+00	0	25	0	213909504	69	4213
2026-01-07 10:21:02.43	173.68	13.22	-51.3	-53.0	14.9	0.00e+00	0	25	0	216006656	69	4207
2026-01-07 10:21:03.44	173.72	13.32	-51.3	-53.1	14.8	0.00e+00	0	25	0	218103808	69	4255
2026-01-07 10:21:04.45	173.77	13.42	-51.4	-53.1	14.8	0.00e+00	0	25	0	220200960	69	4253
2026-01-07 10:21:05.45	173.81	13.52	-51.3	-53.1	14.9	0.00e+00	0	25	0	221249536	69	4243
2026-01-07 10:21:06.46	173.86	13.62	-51.4	-53.1	14.8	0.00e+00	0	25	0	223346688	69	4264
2026-01-07 10:21:07.46	173.91	13.72	-51.3	-53.1	14.8	0.00e+00	0	25	0	225443840	69	4251
2026-01-07 10:21:08.47	173.95	13.82	-51.5	-53.3	14.8	0.00e+00	0	25	0	227540992	69	4349
2026-01-07 10:21:09.47	174.00	13.92	-51.5	-53.2	14.8	0.00e+00	0	25	0	229638144	69	4324
2026-01-07 10:21:10.49	174.05	14.02	-51.5	-53.3	14.8	0.00e+00	0	25	0	230686720	69	4343
2026-01-07 10:21:11.50	174.10	14.12	-51.6	-53.4	14.7	0.00e+00	0	25	0	232783872	69	4392
2026-01-07 10:21:12.50	174.14	14.22	-51.5	-53.2	14.8	0.00e+00	0	25	0	234881024	69	4318
2026-01-07 10:21:13.51	174.19	14.32	-51.6	-53.4	14.7	0.00e+00	0	25	0	236978176	69	4397
2026-01-07 10:21:14.52	174.24	14.42	-51.6	-53.4	14.7	0.00e+00	0	25	0	239075328	69	4392
2026-01-07 10:21:15.53	174.29	14.53	-51.6	-53.4	14.7	0.00e+00	0	25	0	240123904	69	4429
2026-01-07 10:21:16.54	174.34	14.63	-51.6	-53.4	14.7	0.00e+00	0	25	0	242221056	69	4427
2026-01-07 10:21:17.54	174.39	14.73	-51.6	-53.5	14.7	0.00e+00	0	25	0	244318208	69	4448
2026-01-07 10:21:18.55	174.44	14.84	-51.7	-53.5	14.6	0.00e+00	0	25	0	246415360	69	4481
2026-01-07 10:21:19.56	174.49	14.94	-51.7	-53.5	14.7	0.00e+00	0	25	0	248512512	69	4493
2026-01-07 10:21:20.57	174.54	15.05	-51.7	-53.6	14.6	0.00e+00	0	25	0	249561088	69	4504
2026-01-07 10:21:21.57	174.59	15.15	-51.7	-53.5	14.7	0.00e+00	0	25	0	251658240	69	4464
2026-01-07 10:21:22.58	174.64	15.26	-51.8	-53.6	14.6	0.00e+00	0	25	0	253755392	69	4521
2026-01-07 10:21:23.59	174.69	15.37	-51.7	-53.5	14.7	0.00e+00	0	25	0	255852544	69	4456
2026-01-07 10:21:24.59	174.74	15.47	-51.8	-53.6	14.6	0.00e+00	0	25	0	257949696	69	4536
2026-01-07 10:21:25.60	174.80	15.58	-52.1	-54.0	14.4	0.00e+00	0	25	0	258998272	69	4737
2026-01-07 10:21:26.61	174.85	15.69	-51.9	-53.8	14.5	0.00e+00	0	25	0	261095424	69	4617
2026-01-07 10:21:27.62	174.90	15.79	-51.9	-53.8	14.5	0.00e+00	0	25	0	263192576	69	4640
2026-01-07 10:21:28.63	174.95	15.90	-51.8	-53.6	14.6	0.00e+00	0	25	0	265289728	69	4529
2026-01-07 10:21:29.64	175.01	16.01	-51.8	-53.6	14.6	0.00e+00	0	25	0	267386880	69	4512
2026-01-07 10:21:30.65	175.06	16.12	-51.7	-53.5	14.6	0.00e+00	0	25	0	268435456	69	4477
2026-01-07 10:21:31.65	175.12	16.23	-51.9	-53.8	14.5	0.00e+00	0	25	0	270532608	69	4614
2026-01-07 10:21:32.65	175.17	16.34	-51.8	-53.6	14.6	0.00e+00	0	25	0	272629760	69	4532
2026-01-07 10:21:33.65	175.23	16.45	-51.9	-53.8	14.5	0.00e+00	0	25	0	274726912	69	4630
2026-01-07 10:21:34.65	175.28	16.56	-51.6	-53.8	14.5	0.00e+00	0	25	0	276824064	69	4608
2026-01-07 10:21:35.65	175.34	16.67	-51.7	-53.9	14.5	0.00e+00	0	25	0	277872640	69	4679
2026-01-07 10:21:36.66	175.39	16.78	-51.7	-53.9	14.5	0.00e+00	0	25	0	279969792	69	4679
2026-01-07 10:21:37.66	175.45	16.90	-51.9	-54.2	14.4	0.00e+00	0	25	0	282066944	69	4835
2026-01-07 10:21:38.67	175.50	17.01	-51.8	-54.1	14.4	0.00e+00	0	25	0	284164096	69	4775
2026-01-07 10:21:39.68	175.56	17.12	-52.0	-54.3	14.3	0.00e+00	0	25	0	286261248	69	4915
2026-01-07 10:21:40.68	175.62	17.24	-52.0	-54.3	14.3	0.00e+00	0	25	0	287309824	69	4891
2026-01-07 10:21:41.69	175.68	17.35	-51.9	-54.3	14.4	0.00e+00	0	25	0	289406976	69	4872
2026-01-07 10:21:42.70	175.74	17.47	-52.0	-54.3	14.3	0.00e+00	0	25	0	291504128	69	4905
2026-01-07 10:21:43.71	175.80	17.58	-52.0	-54.3	14.3	0.00e+00	0	25	0	293601280	69	4886
2026-01-07 10:21:44.72	175.86	17.70	-52.0	-54.3	14.3	0.00e+00	0	25	0	295698432	69	4899
2026-01-07 10:21:45.73	175.92	17.82	-51.9	-54.2	14.4	0.00e+00	0	25	0	296747008	69	4835
2026-01-07 10:21:46.73	175.98	17.93	-51.9	-54.2	14.4	0.00e+00	0	25	0	298844160	69	4816
2026-01-07 10:21:47.73	176.04	18.05	-51.9	-54.2	14.4	0.00e+00	0	25	0	300941312	69	4818
2026-01-07 10:21:48.74	176.10	18.17	-51.8	-54.1	14.4	0.00e+00	0	25	0	303038464	69	4760
2026-01-07 10:21:49.75	176.16	18.29	-51.9	-54.1	14.4	0.00e+00	0	25	0	305135616	69	4780
2026-01-07 10:21:50.76	176.22	18.41	-51.9	-54.1	14.4	0.00e+00	0	25	0	306184192	69	4778
2026-01-07 10:21:51.76	176.28	18.53	-51.8	-53.9	14.5	0.00e+00	0	25	0	308281344	69	4703
2026-01-07 10:21:52.77	176.35	18.65	-51.8	-54.0	14.5	0.00e+00	0	25	0	310378496	69	4751
2026-01-07 10:21:53.78	176.41	18.77	-51.9	-54.1	14.4	0.00e+00	0	25	0	312475648	69	4797
2026-01-07 10:21:54.79	176.47	18.89	-51.9	-54.0	14.5	0.00e+00	0	25	0	314572800	69	4746
2026-01-07 10:21:55.80	176.54	19.02	-52.0	-54.2	14.4	0.00e+00	0	25	0	315621376	69	4857
2026-01-07 10:21:56.80	176.60	19.14	-52.1	-54.3	14.3	0.00e+00	0	25	0	317718528	69	4925
2026-01-07 10:21:57.81	176.67	19.26	-52.0	-54.2	14.4	0.00e+00	0	25	0	319815680	69	4826
2026-01-07 10:21:58.82	176.73	19.39	-52.2	-54.5	14.2	0.00e+00	0	25	0	321912832	69	5014
2026-01-07 10:21:59.83	176.80	19.51	-52.0	-54.2	14.4	0.00e+00	0	25	0	324009984	69	4845
2026-01-07 10:22:00.84	176.87	19.64	-52.2	-54.4	14.3	0.00e+00	0	25	0	325058560	69	4953
2026-01-07 10:22:01.85	176.94	19.76	-52.0	-54.1	14.4	0.00e+00	0	25	0	327155712	69	4783
2026-01-07 10:22:02.86	177.00	19.89	-52.2	-54.5	14.2	0.00e+00	0	25	0	329252864	69	5010
2026-01-07 10:22:03.87	177.07	20.02	-52.0	-54.1	14.4	0.00e+00	0	25	0	331350016	69	4776
2026-01-07 10:22:04.87	177.14	20.14	-52.0	-54.2	14.4	0.00e+00	0	25	0	333447168	69	4816
2026-01-07 10:22:05.88	177.21	20.27	-51.8	-53.9	14.5	0.00e+00	0	25	0	334495744	69	4695
2026-01-07 10:22:06.88	177.28	20.40	-52.0	-54.0	14.4	0.00e+00	0	25	0	336592896	69	4755
2026-01-07 10:22:07.89	177.35	20.53	-51.8	-53.9	14.5	0.00e+00	0	25	0	338690048	69	4666
2026-01-07 10:22:08.89	177.42	20.66	-51.9	-54.0	14.5	0.00e+00	0	25	0	340787200	69	4744
2026-01-07 10:22:09.90	177.49	20.79	-52.0	-54.1	14.4	0.00e+00	0	25	0	342884352	69	4778
2026-01-07 10:22:10.91	177.57	20.92	-52.0	-54.2	14.4	0.00e+00	0	25	0	343932928	69	4856
2026-01-07 10:22:11.92	177.64	21.05	-52.0	-54.2	14.4	0.00e+00	0	25	0	346030080	69	4828
2026-01-07 10:22:12.92	177.71	21.19	-52.0	-54.2	14.4	0.00e+00	0	25	0	348127232	69	4863
2026-01-07 10:22:13.93	177.79	21.32	-52.1	-54.4	14.3	0.00e+00	0	25	0	350224384	69	4932
2026-01-07 10:22:14.93	177.86	21.45	-52.1	-54.4	14.3	0.00e+00	0	25	0	352321536	69	4934
2026-01-07 10:22:15.94	177.94	21.59	-52.2	-54.6	14.2	0.00e+00	0	25	0	353370112	69	5061
2026-01-07 10:22:16.95	178.01	21.72	-52.2	-54.6	14.2	0.00e+00	0	25	0	355467264	69	5047
2026-01-07 10:22:17.95	178.09	21.86	-52.0	-54.2	14.4	0.00e+00	0	25	0	357564416	69	4834
2026-01-07 10:22:18.96	178.17	22.00	-51.9	-54.2	14.4	0.00e+00	0	25	0	359661568	69	4838
2026-01-07 10:22:19.97	178.24	22.13	-52.0	-54.2	14.4	0.00e+00	0	25	0	361758720	69	4843
2026-01-07 10:22:20.98	178.32	22.27	-52.0	-54.2	14.4	0.00e+00	0	25	0	362807296	69	4846
2026-01-07 10:22:21.98	178.40	22.41	-51.7	-53.8	14.6	0.00e+00	0	25	0	364904448	69	4643
2026-01-07 10:22:22.98	178.48	22.55	-51.7	-53.8	14.6	0.00e+00	0	25	0	367001600	69	4637
2026-01-07 10:22:23.99	178.56	22.69	-51.4	-53.4	14.8	0.00e+00	0	25	0	369098752	69	4437
2026-01-07 10:22:25.00	178.64	22.83	-51.5	-53.6	14.7	0.00e+00	0	25	0	371195904	69	4497
2026-01-07 10:22:26.01	178.73	22.97	-51.3	-53.3	14.8	0.00e+00	0	25	0	372244480	69	4370
2026-01-07 10:22:27.01	178.81	23.11	-51.1	-53.0	14.8	0.00e+00	0	25	0	374341632	68	4473
2026-01-07 10:22:28.02	178.89	23.26	-51.1	-52.9	14.8	0.00e+00	0	25	0	376438784	68	4430
2026-01-07 10:22:29.03	178.98	23.40	-50.9	-52.8	14.9	0.00e+00	0	25	0	378535936	68	4351
2026-01-07 10:22:30.04	179.06	23.55	-50.9	-52.6	15.0	0.00e+00	0	25	0	380633088	68	4285
2026-01-07 10:22:31.05	179.15	23.69	-50.5	-52.2	15.0	0.00e+00	0	25	0	381681664	67	4305
2026-01-07 10:22:32.05	179.23	23.84	-50.2	-51.8	15.0	0.00e+00	0	25	0	383778816	66	4363
2026-01-07 10:22:33.06	179.32	23.99	-50.1	-51.7	15.0	0.00e+00	0	25	0	385875968	66	4327
2026-01-07 10:22:34.07	179.41	24.13	-50.0	-51.6	15.1	0.00e+00	0	25	0	387973120	66	4248
2026-01-07 10:22:35.07	179.50	24.28	-49.9	-51.5	15.2	0.00e+00	0	25	0	390070272	66	4205
2026-01-07 10:22:36.08	179.59	24.43	-49.7	-51.2	15.3	0.00e+00	0	25	0	391118848	66	4088
2026-01-07 10:22:37.09	179.68	24.58	-49.7	-51.3	15.1	0.00e+00	0	25	0	393216000	65	4351
2026-01-07 10:22:38.10	179.77	24.73	-49.8	-51.5	15.0	0.00e+00	0	25	0	395313152	65	4445
2026-01-07 10:22:39.11	179.86	24.88	-49.8	-51.4	15.0	0.00e+00	0	25	0	397410304	65	4404
2026-01-07 10:22:40.12	179.95	25.04	-50.0	-51.7	14.9	0.00e+00	0	25	0	399507456	65	4570
2026-01-07 10:22:41.13	180.05	25.19	-49.9	-51.6	15.0	0.00e+00	0	25	0	400556032	65	4504
2026-01-07 10:22:42.14	180.14	25.35	-49.9	-51.5	14.9	0.00e+00	0	25	0	402653184	65	4467
2026-01-07 10:22:43.15	180.24	25.50	-50.0	-51.7	14.9	0.00e+00	0	25	0	404750336	65	4565
2026-01-07 10:22:44.15	180.33	25.66	-49.8	-51.5	15.0	0.00e+00	0	25	0	406847488	65	4456
2026-01-07 10:22:45.16	180.43	25.81	-50.0	-51.7	14.9	0.00e+00	0	25	0	408944640	65	4567
2026-01-07 10:22:46.17	180.53	25.97	-50.1	-51.8	14.9	0.00e+00	0	25	0	411041792	65	4639
2026-01-07 10:22:47.17	180.63	26.13	-50.0	-51.7	14.9	0.00e+00	0	25	0	412090368	65	4587
2026-01-07 10:22:48.18	180.73	26.29	-49.9	-51.5	15.0	0.00e+00	0	25	0	414187520	65	4488
2026-01-07 10:22:49.19	180.83	26.45	-50.1	-51.9	14.8	0.00e+00	0	25	0	416284672	65	4685
2026-01-07 10:22:50.19	180.93	26.61	-50.2	-52.0	14.8	0.00e+00	0	25	0	418381824	65	4736
2026-01-07 10:22:51.20	181.03	26.77	-50.0	-51.8	14.9	0.00e+00	0	25	0	420478976	65	4630
2026-01-07 10:22:52.21	181.14	26.93	-50.3	-52.1	14.8	0.00e+00	0	25	0	421527552	65	4799
2026-01-07 10:22:53.21	181.24	27.09	-50.2	-52.0	14.8	0.00e+00	0	25	0	423624704	65	4736
2026-01-07 10:22:54.22	181.35	27.26	-50.2	-52.0	14.8	0.00e+00	0	25	0	425721856	65	4722
2026-01-07 10:22:55.23	181.46	27.42	-50.5	-52.4	14.8	0.00e+00	0	25	0	427819008	66	4660
2026-01-07 10:22:56.23	181.56	27.59	-50.3	-52.0	14.9	0.00e+00	0	25	0	428867584	66	4481
2026-01-07 10:22:57.24	181.67	27.76	-50.4	-52.2	14.9	0.00e+00	0	25	0	430964736	66	4578
2026-01-07 10:22:58.25	181.78	27.93	-50.6	-52.4	14.8	0.00e+00	0	25	0	433061888	66	4668
2026-01-07 10:22:59.25	181.90	28.09	-50.5	-52.2	14.9	0.00e+00	0	25	0	435159040	66	4589
2026-01-07 10:23:00.26	182.01	28.26	-50.5	-52.3	14.8	0.00e+00	0	25	0	437256192	66	4633
2026-01-07 10:23:01.27	182.12	28.43	-50.7	-52.5	14.7	0.00e+00	0	25	0	439353344	66	4719
2026-01-07 10:23:02.28	182.24	28.61	-50.6	-52.4	14.8	0.00e+00	0	25	0	440401920	66	4694
2026-01-07 10:23:03.29	182.35	28.78	-50.4	-52.2	14.9	0.00e+00	0	25	0	442499072	66	4579
2026-01-07 10:23:04.29	182.47	28.95	-50.7	-52.6	14.7	0.00e+00	0	25	0	444596224	66	4767
2026-01-07 10:23:05.30	182.59	29.13	-50.6	-52.4	14.8	0.00e+00	0	25	0	446693376	66	4672
2026-01-07 10:23:06.31	182.71	29.30	-50.6	-52.4	14.8	0.00e+00	0	25	0	448790528	66	4702
2026-01-07 10:23:07.31	182.83	29.48	-50.7	-52.6	14.7	0.00e+00	0	25	0	449839104	66	4811
2026-01-07 10:23:08.32	182.95	29.66	-50.7	-52.6	14.7	0.00e+00	0	25	0	451936256	66	4809
2026-01-07 10:23:09.32	183.08	29.83	-51.0	-53.0	14.7	0.00e+00	0	25	0	454033408	67	4758
2026-01-07 10:23:10.33	183.20	30.01	-51.2	-53.3	14.6	0.00e+00	0	25	0	456130560	67	4885
2026-01-07 10:23:11.33	183.33	30.19	-51.8	-54.0	14.5	0.00e+00	0	25	0	457179136	69	4726
2026-01-07 10:23:12.34	183.46	30.37	-52.0	-54.2	14.5	0.00e+00	0	25	0	459276288	69	4845
2026-01-07 10:23:13.35	183.59	30.56	-52.2	-54.5	14.3	0.00e+00	0	25	0	461373440	69	5040
2026-01-07 10:23:14.35	183.72	30.74	-52.6	-55.0	14.3	0.00e+00	0	25	0	463470592	70	4987
2026-01-07 10:23:15.36	183.85	30.92	-52.5	-54.8	14.3	0.00e+00	0	25	0	465567744	70	4905
2026-01-07 10:23:16.37	183.98	31.11	-52.6	-55.0	14.2	0.00e+00	0	25	0	467664896	70	5013
2026-01-07 10:23:17.38	184.12	31.30	-52.8	-55.3	14.0	0.00e+00	0	25	0	468713472	70	5196
2026-01-07 10:23:18.39	184.25	31.48	-53.0	-55.5	14.1	0.00e+00	0	25	0	470810624	71	5024
2026-01-07 10:23:19.40	184.39	31.67	-53.2	-55.9	13.9	0.00e+00	0	25	0	472907776	71	5222
2026-01-07 10:23:20.40	184.53	31.86	-53.4	-56.2	13.7	0.00e+00	0	25	0	475004928	71	5444
2026-01-07 10:23:21.41	184.67	32.05	-53.7	-56.8	13.5	0.00e+00	0	25	0	477102080	72	5497
2026-01-07 10:23:22.42	184.82	32.24	-53.8	-57.0	13.4	0.00e+00	0	25	0	478150656	72	5642
2026-01-07 10:23:23.42	184.96	32.44	-54.0	-57.6	13.1	0.00e+00	0	25	0	480247808	73	5669
2026-01-07 10:23:24.43	185.11	32.63	-53.8	-57.2	13.3	0.00e+00	0	25	0	482344960	73	5425
2026-01-07 10:23:25.44	185.26	32.82	-54.1	-57.8	13.0	0.00e+00	0	25	0	484442112	73	5838
2026-01-07 10:23:26.45	185.41	33.02	-53.9	-57.3	13.3	0.00e+00	0	25	0	485490688	73	5521
2026-01-07 10:23:27.45	185.56	33.22	-54.0	-57.4	13.2	0.00e+00	0	25	0	487587840	73	5550
2026-01-07 10:23:28.47	185.71	33.42	-53.9	-57.1	13.4	0.00e+00	0	25	0	489684992	73	5388
2026-01-07 10:23:29.48	185.87	33.62	-53.9	-56.9	13.6	0.00e+00	0	25	0	491782144	73	5235
2026-01-07 10:23:30.48	186.02	33.82	-53.3	-55.9	14.1	0.00e+00	0	25	0	493879296	73	4702
2026-01-07 10:23:31.49	186.18	34.02	-53.4	-56.0	14.0	0.00e+00	0	25	0	495976448	73	4743
2026-01-07 10:23:32.49	186.34	34.22	-53.3	-56.0	14.1	0.00e+00	0	25	0	497025024	73	4709
2026-01-07 10:23:33.50	186.50	34.42	-52.9	-55.4	14.2	0.00e+00	0	25	0	499122176	72	4658
2026-01-07 10:23:34.51	186.67	34.63	-52.7	-55.3	14.1	0.00e+00	0	25	0	501219328	71	4893
2026-01-07 10:23:35.51	186.84	34.83	-52.6	-55.2	14.3	0.00e+00	0	25	0	503316480	71	4824
2026-01-07 10:23:36.52	187.00	35.04	-52.3	-54.8	14.5	0.00e+00	0	25	0	505413632	71	4617
2026-01-07 10:23:37.53	187.18	35.25	-52.6	-55.2	14.3	0.00e+00	0	25	0	506462208	71	4861
2026-01-07 10:23:38.54	187.35	35.45	-52.5	-55.0	14.3	0.00e+00	0	25	0	508559360	71	4733
2026-01-07 10:23:39.55	187.53	35.67	-52.7	-55.3	14.2	0.00e+00	0	25	0	510656512	71	4877
2026-01-07 10:23:40.56	187.70	35.88	-52.8	-55.4	14.1	0.00e+00	0	25	0	512753664	71	4962
2026-01-07 10:23:41.57	187.88	36.09	-53.2	-56.0	13.8	0.00e+00	0	25	0	514850816	71	5340
2026-01-07 10:23:42.58	188.07	36.30	-53.2	-56.0	13.8	0.00e+00	0	25	0	515899392	71	5287
2026-01-07 10:23:43.59	188.25	36.52	-53.4	-56.3	13.8	0.00e+00	0	25	0	517996544	72	5198
2026-01-07 10:23:44.60	188.44	36.73	-53.2	-56.1	13.9	0.00e+00	0	25	0	520093696	72	5069
2026-01-07 10:23:45.60	188.63	36.95	-53.2	-56.1	13.9	0.00e+00	0	25	0	522190848	72	5043
2026-01-07 10:23:46.61	188.82	37.17	-53.0	-55.9	14.0	0.00e+00	0	25	0	524288000	72	4979
2026-01-07 10:23:47.61	189.01	37.38	-52.7	-55.5	14.2	0.00e+00	0	25	0	525336576	72	4739
2026-01-07 10:23:48.62	189.21	37.60	-53.0	-56.0	14.0	0.00e+00	0	25	0	527433728	72	5003
2026-01-07 10:23:49.62	189.41	37.82	-52.7	-55.5	14.1	0.00e+00	0	25	0	529530880	71	5031
2026-01-07 10:23:50.63	189.61	38.05	-53.0	-55.9	13.9	0.00e+00	0	25	0	531628032	71	5255
2026-01-07 10:23:51.64	189.81	38.27	-53.4	-56.4	13.6	0.00e+00	0	25	0	533725184	71	5588
2026-01-07 10:23:52.65	190.02	38.49	-53.7	-56.9	13.5	0.00e+00	0	25	0	534773760	72	5571
2026-01-07 10:23:53.65	190.23	38.72	-53.8	-57.0	13.4	0.00e+00	0	25	0	536870912	72	5626
2026-01-07 10:23:54.66	190.44	38.94	-53.6	-56.7	13.6	0.00e+00	0	25	0	538968064	72	5457
2026-01-07 10:23:55.67	190.66	39.17	-53.2	-56.2	13.9	0.00e+00	0	25	0	541065216	72	5157
2026-01-07 10:23:56.68	190.88	39.40	-53.3	-56.3	13.8	0.00e+00	0	25	0	543162368	72	5217
2026-01-07 10:23:57.68	191.10	39.63	-53.2	-56.3	13.8	0.00e+00	0	25	0	544210944	72	5209
2026-01-07 10:23:58.68	191.32	39.86	-53.2	-56.4	13.7	0.00e+00	0	25	0	546308096	72	5236
2026-01-07 10:23:59.69	191.55	40.09	-52.9	-55.9	14.0	0.00e+00	0	25	0	548405248	72	4940
2026-01-07 10:24:00.70	191.78	40.32	-53.0	-56.1	13.9	0.00e+00	0	25	0	550502400	72	5053
2026-01-07 10:24:01.71	192.02	40.55	-52.8	-55.7	14.1	0.00e+00	0	25	0	552599552	72	4817
2026-01-07 10:24:02.72	192.26	40.79	-52.9	-55.8	14.1	0.00e+00	0	25	0	553648128	72	4887
2026-01-07 10:24:03.73	192.50	41.03	-52.7	-55.6	14.1	0.00e+00	0	25	0	555745280	71	5099
2026-01-07 10:24:04.74	192.75	41.26	-52.6	-55.6	14.1	0.00e+00	0	25	0	557842432	71	5082
2026-01-07 10:24:05.74	192.99	41.50	-52.5	-55.5	14.1	0.00e+00	0	25	0	559939584	71	5014
2026-01-07 10:24:06.75	193.25	41.74	-51.9	-54.6	14.4	0.00e+00	0	25	0	562036736	70	4789
2026-01-07 10:24:07.76	193.50	41.98	-51.9	-54.6	14.4	0.00e+00	0	25	0	563085312	70	4802
2026-01-07 10:24:08.76	193.76	42.22	-52.0	-54.6	14.5	0.00e+00	0	25	0	565182464	70	4798
2026-01-07 10:24:09.76	194.02	42.45	-52.1	-54.7	14.4	0.00e+00	0	25	0	567279616	70	4830
2026-01-07 10:24:10.77	194.29	42.70	-52.5	-55.3	14.1	0.00e+00	0	25	0	569376768	70	5165
2026-01-07 10:24:11.78	194.56	42.94	-52.9	-55.9	13.8	0.00e+00	0	25	0	571473920	70	5577
2026-01-07 10:24:12.79	194.84	43.19	-53.1	-56.5	13.6	0.00e+00	0	25	0	572522496	71	5609
2026-01-07 10:24:13.80	195.12	43.43	-53.0	-56.3	13.6	0.00e+00	0	25	0	574619648	71	5519
2026-01-07 10:24:14.80	195.40	43.67	-52.6	-55.8	13.9	0.00e+00	0	25	0	576716800	71	5170
2026-01-07 10:24:15.81	195.69	43.92	-52.7	-55.6	14.0	0.00e+00	0	25	0	578813952	71	5096
2026-01-07 10:24:16.82	195.98	44.17	-52.7	-55.6	14.0	0.00e+00	0	25	0	580911104	71	5090
2026-01-07 10:24:17.83	196.28	44.42	-52.6	-55.5	14.1	0.00e+00	0	25	0	581959680	71	4997
2026-01-07 10:24:18.84	196.58	44.67	-52.5	-55.5	14.1	0.00e+00	0	25	0	584056832	71	5016
2026-01-07 10:24:19.85	196.89	44.92	-52.4	-55.5	14.1	0.00e+00	0	25	0	586153984	71	5003
2026-01-07 10:24:20.85	197.20	45.16	-52.8	-56.2	13.8	0.00e+00	0	25	0	588251136	71	5453
2026-01-07 10:24:21.86	197.52	45.41	-52.8	-56.0	13.9	0.00e+00	0	25	0	590348288	71	5309
2026-01-07 10:24:22.87	197.84	45.67	-52.6	-55.6	14.0	0.00e+00	0	25	0	591396864	71	5086
2026-01-07 10:24:23.87	198.16	45.92	-52.2	-55.0	14.4	0.00e+00	0	25	0	593494016	71	4721
2026-01-07 10:24:24.88	198.49	46.17	-52.2	-54.9	14.3	0.00e+00	0	25	0	595591168	70	4965
2026-01-07 10:24:25.89	198.83	46.42	-52.0	-54.5	14.5	0.00e+00	0	25	0	597688320	70	4748
2026-01-07 10:24:26.90	199.17	46.68	-51.7	-54.2	14.5	0.00e+00	0	25	0	599785472	69	4866
2026-01-07 10:24:27.91	199.52	46.93	-51.5	-53.9	14.6	0.00e+00	0	25	0	600834048	69	4703
2026-01-07 10:24:28.91	199.87	47.18	-51.7	-54.2	14.5	0.00e+00	0	25	0	602931200	69	4844
2026-01-07 10:24:29.92	200.23	47.44	-52.3	-55.3	14.0	0.00e+00	0	25	0	605028352	69	5494
2026-01-07 10:24:30.93	200.60	47.69	-52.2	-55.0	14.3	0.00e+00	0	25	0	607125504	70	5038
2026-01-07 10:24:31.94	200.97	47.95	-52.4	-55.4	14.1	0.00e+00	0	25	0	609222656	70	5228
2026-01-07 10:24:32.94	201.34	48.20	-52.7	-55.8	13.8	0.00e+00	0	25	0	610271232	70	5524
2026-01-07 10:24:33.95	201.73	48.46	-52.8	-55.9	13.7	0.00e+00	0	25	0	612368384	70	5587
2026-01-07 10:24:34.96	202.12	48.71	-52.1	-54.8	14.3	0.00e+00	0	25	0	614465536	70	4904
2026-01-07 10:24:35.96	202.51	48.97	-52.1	-54.6	14.4	0.00e+00	0	25	0	616562688	70	4794
2026-01-07 10:24:36.97	202.91	49.23	-51.5	-53.8	14.7	0.00e+00	0	25	0	618659840	69	4605
2026-01-07 10:24:37.98	203.32	49.48	-51.4	-53.6	14.6	0.00e+00	0	25	0	619708416	69	4500
2026-01-07 10:24:38.98	203.73	49.74	-51.1	-53.3	14.6	0.00e+00	0	25	0	621805568	68	4620
2026-01-07 10:24:39.99	204.16	49.99	-51.8	-54.2	14.3	0.00e+00	0	25	0	623902720	68	5130
2026-01-07 10:24:41.00	204.59	50.25	-52.4	-55.1	14.1	0.00e+00	0	25	0	625999872	70	5065
2026-01-07 10:24:42.00	205.02	50.50	-52.7	-55.6	14.0	0.00e+00	0	25	0	628097024	71	5055
2026-01-07 10:24:43.01	205.47	50.76	-52.5	-55.2	14.2	0.00e+00	0	25	0	629145600	71	4850
2026-01-07 10:24:44.02	205.92	51.01	-51.9	-54.2	14.5	0.00e+00	0	25	0	631242752	70	4597
2026-01-07 10:24:45.03	206.38	51.26	-51.4	-53.5	14.7	0.00e+00	0	25	0	633339904	69	4481
2026-01-07 10:24:46.04	206.85	51.52	-51.0	-53.1	14.8	0.00e+00	0	25	0	635437056	68	4501
2026-01-07 10:24:47.05	207.32	51.77	-51.4	-53.6	14.6	0.00e+00	0	25	0	637534208	68	4770
2026-01-07 10:24:48.05	207.80	52.02	-51.8	-54.3	14.3	0.00e+00	0	25	0	638582784	69	4894
2026-01-07 10:24:49.05	208.29	52.27	-51.7	-54.2	14.4	0.00e+00	0	25	0	640679936	69	4820
2026-01-07 10:24:50.06	208.79	52.52	-51.7	-53.9	14.6	0.00e+00	0	25	0	642777088	69	4689
2026-01-07 10:24:51.07	209.30	52.77	-51.1	-53.1	14.8	0.00e+00	0	25	0	644874240	68	4508
2026-01-07 10:24:52.08	209.82	53.02	-51.3	-53.4	14.6	0.00e+00	0	25	0	646971392	68	4686
2026-01-07 10:24:53.08	210.34	53.26	-51.7	-54.1	14.3	0.00e+00	0	25	0	648019968	68	5059
2026-01-07 10:24:54.09	210.87	53.51	-52.0	-54.7	14.1	0.00e+00	0	25	0	650117120	69	5152
2026-01-07 10:24:55.10	211.42	53.76	-52.1	-54.8	14.1	0.00e+00	0	25	0	652214272	69	5215
2026-01-07 10:24:56.11	211.97	54.00	-51.3	-53.6	14.7	0.00e+00	0	25	0	654311424	69	4529
2026-01-07 10:24:57.11	212.53	54.24	-51.0	-53.3	14.6	0.00e+00	0	25	0	656408576	68	4630
2026-01-07 10:24:58.11	213.09	54.48	-51.0	-53.2	14.7	0.00e+00	0	25	0	657457152	68	4591
2026-01-07 10:24:59.12	213.67	54.72	-51.3	-53.6	14.5	0.00e+00	0	25	0	659554304	68	4814
2026-01-07 10:25:00.13	214.27	54.95	-51.2	-53.4	14.6	0.00e+00	0	25	0	661651456	68	4705
2026-01-07 10:25:01.13	214.86	55.19	-51.1	-53.2	14.7	0.00e+00	0	25	0	663748608	68	4570
2026-01-07 10:25:02.14	215.47	55.42	-50.8	-52.9	14.9	0.00e+00	0	25	0	665845760	68	4427
2026-01-07 10:25:03.15	216.09	55.65	-51.2	-53.5	14.6	0.00e+00	0	25	0	666894336	68	4710
2026-01-07 10:25:04.16	216.72	55.88	-51.6	-54.1	14.4	0.00e+00	0	25	0	668991488	68	5043
2026-01-07 10:25:05.16	217.36	56.10	-51.6	-53.9	14.4	0.00e+00	0	25	0	671088640	68	4934
2026-01-07 10:25:06.18	218.02	56.33	-51.8	-54.0	14.4	0.00e+00	0	25	0	673185792	68	5041
2026-01-07 10:25:07.19	218.68	56.55	-52.5	-55.1	14.1	0.00e+00	0	25	0	675282944	70	5087
2026-01-07 10:25:08.19	219.34	56.76	-52.5	-55.0	14.2	0.00e+00	0	25	0	676331520	70	5009
2026-01-07 10:25:09.19	220.02	56.98	-51.7	-54.0	14.7	0.00e+00	0	25	0	678428672	70	4442
2026-01-07 10:25:10.20	220.71	57.19	-51.2	-53.1	14.9	0.00e+00	0	25	0	680525824	69	4287
2026-01-07 10:25:11.21	221.42	57.40	-51.3	-53.2	14.8	0.00e+00	0	25	0	682622976	68	4564
2026-01-07 10:25:12.22	222.13	57.60	-51.8	-53.8	14.5	0.00e+00	0	25	0	684720128	68	4921
2026-01-07 10:25:13.23	222.86	57.80	-52.6	-55.0	14.2	0.00e+00	0	25	0	685768704	70	5031
2026-01-07 10:25:14.24	223.59	58.00	-52.4	-54.7	14.4	0.00e+00	0	25	0	687865856	70	4863
2026-01-07 10:25:15.25	224.34	58.19	-52.2	-54.5	14.4	0.00e+00	0	25	0	689963008	70	4743
2026-01-07 10:25:16.26	225.10	58.38	-52.1	-54.5	14.4	0.00e+00	0	25	0	692060160	70	4722
2026-01-07 10:25:17.26	225.86	58.57	-51.9	-54.1	14.6	0.00e+00	0	25	0	694157312	70	4544
2026-01-07 10:25:18.27	226.64	58.75	-51.4	-53.3	14.9	0.00e+00	0	25	0	695205888	69	4369
2026-01-07 10:25:19.28	227.43	58.93	-51.0	-52.8	14.9	0.00e+00	0	25	0	697303040	68	4369
2026-01-07 10:25:20.29	228.23	59.10	-50.8	-52.6	15.0	0.00e+00	0	25	0	699400192	68	4276
2026-01-07 10:25:21.30	229.04	59.27	-50.6	-52.4	14.9	0.00e+00	0	25	0	701497344	67	4406
2026-01-07 10:25:22.31	229.86	59.43	-51.1	-53.0	14.7	0.00e+00	0	25	0	703594496	67	4747
2026-01-07 10:25:23.31	230.68	59.59	-51.0	-52.8	14.8	0.00e+00	0	25	0	705691648	67	4647
2026-01-07 10:25:24.31	231.51	59.74	-51.8	-53.8	14.5	0.00e+00	0	25	0	706740224	68	4912
2026-01-07 10:25:25.32	232.36	59.89	-51.7	-53.7	14.6	0.00e+00	0	25	0	708837376	68	4867
2026-01-07 10:25:26.32	233.22	60.04	-50.9	-52.7	15.0	0.00e+00	0	25	0	710934528	68	4316
2026-01-07 10:25:27.32	234.08	60.17	-50.0	-51.6	15.1	0.00e+00	0	25	0	713031680	66	4268
2026-01-07 10:25:28.32	234.95	60.30	-50.0	-51.5	15.2	0.00e+00	0	25	0	714080256	66	4237
2026-01-07 10:25:29.33	235.83	60.43	-50.2	-51.9	15.0	0.00e+00	0	25	0	716177408	66	4398
2026-01-07 10:25:30.33	236.72	60.55	-50.2	-51.9	15.0	0.00e+00	0	25	0	718274560	66	4400
2026-01-07 10:25:31.34	237.63	60.66	-50.7	-52.5	14.8	0.00e+00	0	25	0	720371712	66	4733
2026-01-07 10:25:32.34	238.53	60.77	-51.1	-53.0	14.7	0.00e+00	0	25	0	722468864	67	4736
2026-01-07 10:25:33.35	239.45	60.87	-51.8	-54.0	14.4	0.00e+00	0	25	0	723517440	68	4998
2026-01-07 10:25:34.36	240.37	60.97	-52.1	-54.3	14.5	0.00e+00	0	25	0	725614592	69	4876
2026-01-07 10:25:35.36	241.30	61.06	-51.9	-53.9	14.6	0.00e+00	0	25	0	727711744	69	4704
2026-01-07 10:25:36.37	242.24	61.14	-51.9	-54.0	14.5	0.00e+00	0	25	0	729808896	69	4750
2026-01-07 10:25:37.38	243.19	61.22	-51.8	-54.0	14.5	0.00e+00	0	25	0	731906048	69	4713
2026-01-07 10:25:38.38	244.13	61.29	-52.0	-54.2	14.4	0.00e+00	0	25	0	732954624	69	4836
2026-01-07 10:25:39.39	245.08	61.35	-51.9	-54.1	14.5	0.00e+00	0	25	0	735051776	69	4803
2026-01-07 10:25:40.40	246.04	61.41	-52.2	-54.5	14.4	0.00e+00	0	25	0	737148928	69	4992
2026-01-07 10:25:41.40	247.00	61.46	-52.1	-54.3	14.4	0.00e+00	0	25	0	739246080	69	4887
2026-01-07 10:25:42.41	247.97	61.50	-51.2	-53.1	15.0	0.00e+00	0	25	0	741343232	69	4274
2026-01-07 10:25:43.41	248.93	61.54	-51.0	-52.8	15.0	0.00e+00	0	25	0	742391808	68	4382
2026-01-07 10:25:44.42	249.91	61.57	-51.7	-53.8	14.5	0.00e+00	0	25	0	744488960	68	4888
2026-01-07 10:25:45.43	250.88	61.59	-52.2	-54.5	14.4	0.00e+00	0	25	0	746586112	69	4988
2026-01-07 10:25:46.44	251.86	61.60	-51.7	-53.6	14.7	0.00e+00	0	25	0	748683264	69	4514
2026-01-07 10:25:47.44	252.83	61.61	-50.7	-52.4	15.1	0.00e+00	0	25	0	750780416	68	4175
2026-01-07 10:25:48.45	253.81	61.61	-50.4	-52.1	15.1	0.00e+00	0	25	0	751828992	67	4243
2026-01-07 10:25:49.46	254.79	61.60	-50.2	-51.8	15.1	0.00e+00	0	25	0	753926144	66	4358
2026-01-07 10:25:50.47	255.76	61.59	-49.6	-51.1	15.2	0.00e+00	0	25	0	756023296	65	4247
2026-01-07 10:25:51.48	256.74	61.57	-49.7	-51.2	15.2	0.00e+00	0	25	0	758120448	65	4315
2026-01-07 10:25:52.48	257.70	61.54	-50.6	-52.3	14.8	0.00e+00	0	25	0	760217600	66	4623
2026-01-07 10:25:53.49	258.68	61.51	-51.0	-52.8	14.8	0.00e+00	0	25	0	761266176	67	4625
2026-01-07 10:25:54.50	259.65	61.46	-50.9	-52.7	14.8	0.00e+00	0	25	0	763363328	67	4592
2026-01-07 10:25:55.50	260.60	61.42	-50.6	-52.3	15.0	0.00e+00	0	25	0	765460480	67	4363
2026-01-07 10:25:56.51	261.56	61.36	-50.7	-52.4	15.0	0.00e+00	0	25	0	767557632	67	4401
2026-01-07 10:25:57.52	262.52	61.30	-51.0	-52.8	14.8	0.00e+00	0	25	0	769654784	67	4620
2026-01-07 10:25:58.53	263.47	61.23	-51.1	-53.0	14.7	0.00e+00	0	25	0	770703360	67	4741
2026-01-07 10:25:59.54	264.42	61.15	-51.3	-53.2	14.7	0.00e+00	0	25	0	772800512	68	4546
2026-01-07 10:26:00.55	265.36	61.07	-51.2	-53.1	14.8	0.00e+00	0	25	0	774897664	68	4524
2026-01-07 10:26:01.56	266.29	60.98	-51.0	-52.8	15.0	0.00e+00	0	25	0	776994816	68	4343
2026-01-07 10:26:02.56	267.21	60.88	-50.9	-52.7	15.0	0.00e+00	0	25	0	779091968	68	4292
2026-01-07 10:26:03.57	268.13	60.78	-52.0	-54.2	14.5	0.00e+00	0	25	0	780140544	69	4828
2026-01-07 10:26:04.58	269.04	60.67	-53.1	-55.7	14.1	0.00e+00	0	25	0	782237696	71	5128
2026-01-07 10:26:05.59	269.94	60.56	-53.3	-55.9	13.9	0.00e+00	0	25	0	784334848	71	5243
2026-01-07 10:26:06.60	270.84	60.44	-53.3	-56.0	13.9	0.00e+00	0	25	0	786432000	71	5280
2026-01-07 10:26:07.60	271.72	60.32	-54.4	-57.6	13.2	0.00e+00	0	25	0	788529152	74	5379
2026-01-07 10:26:08.61	272.60	60.18	-54.0	-57.0	13.6	0.00e+00	0	25	0	790626304	74	5038
2026-01-07 10:26:09.61	273.46	60.05	-53.2	-55.7	14.2	0.00e+00	0	25	0	791674880	73	4588
2026-01-07 10:26:10.62	274.32	59.90	-52.8	-55.2	14.4	0.00e+00	0	25	0	793772032	72	4568
2026-01-07 10:26:11.63	275.17	59.76	-53.2	-55.8	14.1	0.00e+00	0	25	0	795869184	72	4889
2026-01-07 10:26:12.64	276.01	59.60	-53.8	-56.7	13.6	0.00e+00	0	25	0	797966336	72	5427
2026-01-07 10:26:13.64	276.83	59.45	-54.3	-57.5	13.3	0.00e+00	0	25	0	799014912	73	5627
2026-01-07 10:26:14.65	277.65	59.28	-52.7	-55.1	14.3	0.00e+00	0	25	0	801112064	72	4519
2026-01-07 10:26:15.66	278.46	59.12	-52.0	-54.1	14.7	0.00e+00	0	25	0	803209216	70	4504
2026-01-07 10:26:16.67	279.26	58.94	-52.3	-54.5	14.4	0.00e+00	0	25	0	805306368	70	4730
2026-01-07 10:26:17.67	280.04	58.77	-52.8	-55.2	14.1	0.00e+00	0	25	0	807403520	70	5132
2026-01-07 10:26:18.69	280.83	58.58	-53.1	-55.7	14.0	0.00e+00	0	25	0	808452096	71	5118
2026-01-07 10:26:19.69	281.59	58.40	-53.3	-55.9	13.9	0.00e+00	0	25	0	810549248	71	5253
2026-01-07 10:26:20.70	282.35	58.21	-52.9	-55.3	14.2	0.00e+00	0	25	0	812646400	71	4909
2026-01-07 10:26:21.71	283.10	58.02	-52.1	-54.2	14.6	0.00e+00	0	25	0	814743552	70	4555
2026-01-07 10:26:22.72	283.83	57.82	-51.2	-53.0	14.9	0.00e+00	0	25	0	816840704	68	4456
2026-01-07 10:26:23.73	284.56	57.62	-51.4	-53.2	14.8	0.00e+00	0	25	0	818937856	68	4582
2026-01-07 10:26:24.73	285.26	57.42	-51.6	-53.6	14.6	0.00e+00	0	25	0	819986432	68	4765
2026-01-07 10:26:25.74	285.97	57.21	-50.4	-52.0	15.1	0.00e+00	0	25	0	822083584	67	4228
2026-01-07 10:26:26.75	286.66	57.00	-49.9	-51.4	15.2	0.00e+00	0	25	0	824180736	66	4170
2026-01-07 10:26:27.75	287.34	56.79	-50.6	-52.3	14.9	0.00e+00	0	25	0	826277888	66	4606
2026-01-07 10:26:28.76	288.01	56.57	-50.8	-52.6	14.8	0.00e+00	0	25	0	828375040	67	4538
2026-01-07 10:26:29.77	288.67	56.35	-50.7	-52.5	14.9	0.00e+00	0	25	0	829423616	67	4463
2026-01-07 10:26:30.78	289.32	56.13	-50.9	-52.8	14.8	0.00e+00	0	25	0	831520768	67	4605
2026-01-07 10:26:31.78	289.96	55.90	-52.1	-54.3	14.4	0.00e+00	0	25	0	833617920	69	4916
2026-01-07 10:26:32.78	290.58	55.68	-51.7	-53.6	14.7	0.00e+00	0	25	0	835715072	69	4538
2026-01-07 10:26:33.79	291.20	55.45	-49.9	-51.5	15.1	0.00e+00	0	25	0	836763648	66	4233
2026-01-07 10:26:34.80	291.81	55.22	-49.4	-50.9	15.3	0.00e+00	0	25	0	838860800	65	4160
2026-01-07 10:26:35.81	292.42	54.98	-49.3	-50.8	15.3	0.00e+00	0	25	0	840957952	65	4118
2026-01-07 10:26:36.82	293.01	54.75	-49.4	-50.9	15.2	0.00e+00	0	25	0	843055104	65	4156
2026-01-07 10:26:37.82	293.58	54.51	-48.9	-50.3	15.3	0.00e+00	0	25	0	845152256	64	4131
2026-01-07 10:26:38.83	294.15	54.27	-48.9	-50.4	15.3	0.00e+00	0	25	0	847249408	64	4171
2026-01-07 10:26:39.84	294.72	54.03	-49.5	-51.1	15.1	0.00e+00	0	25	0	848297984	64	4527
2026-01-07 10:26:40.84	295.26	53.79	-49.9	-51.6	14.9	0.00e+00	0	25	0	850395136	64	4778
2026-01-07 10:26:41.85	295.81	53.54	-49.6	-51.3	15.1	0.00e+00	0	25	0	852492288	65	4348
2026-01-07 10:26:42.86	296.34	53.30	-49.4	-51.0	15.3	0.00e+00	0	25	0	854589440	65	4212
2026-01-07 10:26:43.87	296.87	53.05	-48.9	-50.5	15.3	0.00e+00	0	25	0	856686592	64	4198
2026-01-07 10:26:44.88	297.39	52.80	-48.8	-50.4	15.3	0.00e+00	0	25	0	857735168	64	4167
2026-01-07 10:26:45.88	297.89	52.56	-48.9	-50.5	15.3	0.00e+00	0	25	0	859832320	64	4233
2026-01-07 10:26:46.89	298.39	52.31	-48.8	-50.4	15.3	0.00e+00	0	25	0	861929472	64	4165
2026-01-07 10:26:47.90	298.88	52.06	-49.0	-50.7	15.2	0.00e+00	0	25	0	864026624	64	4311
2026-01-07 10:26:48.91	299.37	51.80	-49.5	-51.3	15.0	0.00e+00	0	25	0	866123776	64	4604
2026-01-07 10:26:49.92	299.84	51.55	-49.3	-50.9	15.1	0.00e+00	0	25	0	867172352	64	4431
2026-01-07 10:26:50.93	300.31	51.30	-49.1	-50.7	15.2	0.00e+00	0	25	0	869269504	64	4312
2026-01-07 10:26:51.93	300.77	51.05	-49.7	-51.5	14.9	0.00e+00	0	25	0	871366656	64	4721
2026-01-07 10:26:52.94	301.22	50.79	-50.4	-52.4	14.7	0.00e+00	0	25	0	873463808	65	4951
2026-01-07 10:26:53.95	301.66	50.54	-50.8	-52.9	14.8	0.00e+00	0	25	0	875560960	67	4674
2026-01-07 10:26:54.95	302.10	50.29	-50.5	-52.3	15.0	0.00e+00	0	25	0	876609536	67	4378
2026-01-07 10:26:55.96	302.53	50.03	-50.7	-52.7	14.8	0.00e+00	0	25	0	878706688	67	4575
2026-01-07 10:26:56.97	302.95	49.78	-52.3	-54.9	14.0	0.00e+00	0	25	0	880803840	69	5272
2026-01-07 10:26:57.98	303.37	49.52	-53.2	-56.6	13.3	0.00e+00	0	25	0	882900992	71	5722
2026-01-07 10:26:58.99	303.78	49.27	-53.8	-57.6	13.0	0.00e+00	0	25	0	884998144	72	6048
2026-01-07 10:26:59.98	304.17	49.02	-54.2	-58.6	12.4	0.00e+00	0	25	0	886046720	73	6375
2026-01-07 10:27:00.99	304.57	48.76	-54.5	-59.1	12.1	7.00e-07	0	25	0	888143872	74	6393
2026-01-07 10:27:02.00	304.96	48.51	-55.0	-60.4	11.4	3.80e-06	0	25	0	890241024	75	6990
2026-01-07 10:27:03.01	305.34	48.25	-55.4	-61.0	11.0	9.61e-05	0	25	0	892338176	76	7106
2026-01-07 10:27:04.01	305.72	48.00	-55.5	-61.2	10.8	1.18e-04	0	25	0	894435328	76	7237
2026-01-07 10:27:05.02	306.09	47.74	-54.9	-59.5	12.0	1.29e-05	0	25	0	895483904	76	5942
2026-01-07 10:27:06.03	306.45	47.49	-54.0	-57.5	13.2	0.00e+00	0	25	0	897581056	74	5301
2026-01-07 10:27:07.04	306.81	47.23	-53.5	-56.7	13.6	0.00e+00	0	25	0	899678208	73	5151
2026-01-07 10:27:08.04	307.16	46.98	-53.4	-56.4	13.7	0.00e+00	0	25	0	901775360	73	4945
2026-01-07 10:27:09.05	307.51	46.73	-53.0	-55.7	14.1	0.00e+00	0	25	0	903872512	72	4834
2026-01-07 10:27:10.05	307.85	46.48	-52.9	-55.6	14.0	0.00e+00	0	25	0	904921088	72	4783
2026-01-07 10:27:11.06	308.19	46.23	-53.2	-56.1	13.9	0.00e+00	0	25	0	907018240	72	5067
2026-01-07 10:27:12.07	308.52	45.97	-52.8	-55.5	14.2	0.00e+00	0	25	0	909115392	72	4733
2026-01-07 10:27:13.07	308.84	45.73	-52.2	-54.5	14.6	0.00e+00	0	25	0	911212544	71	4465
2026-01-07 10:27:14.08	309.17	45.47	-51.4	-53.3	14.8	0.00e+00	0	25	0	913309696	69	4382
2026-01-07 10:27:15.09	309.48	45.22	-51.9	-54.2	14.4	0.00e+00	0	25	0	914358272	69	4825
2026-01-07 10:27:16.10	309.79	44.97	-53.2	-56.1	13.7	0.00e+00	0	25	0	916455424	71	5390
2026-01-07 10:27:17.11	310.10	44.73	-54.2	-58.1	12.8	0.00e+00	0	25	0	918552576	73	6041
2026-01-07 10:27:18.12	310.40	44.48	-53.9	-57.4	13.4	0.00e+00	0	25	0	920649728	74	5234
2026-01-07 10:27:19.13	310.70	44.23	-52.4	-54.9	14.4	0.00e+00	0	25	0	922746880	71	4667
2026-01-07 10:27:20.13	310.99	43.99	-51.4	-53.4	14.8	0.00e+00	0	25	0	923795456	69	4434
2026-01-07 10:27:21.14	311.28	43.74	-51.5	-53.5	14.8	0.00e+00	0	25	0	925892608	69	4445
2026-01-07 10:27:22.15	311.57	43.49	-51.7	-53.8	14.6	0.00e+00	0	25	0	927989760	69	4618
2026-01-07 10:27:23.16	311.85	43.25	-51.8	-54.0	14.5	0.00e+00	0	25	0	930086912	69	4730
2026-01-07 10:27:24.16	312.12	43.01	-51.9	-54.2	14.4	0.00e+00	0	25	0	932184064	69	4849
2026-01-07 10:27:25.17	312.39	42.77	-52.0	-54.4	14.3	0.00e+00	0	25	0	933232640	69	4927
2026-01-07 10:27:26.18	312.66	42.52	-51.9	-54.2	14.4	0.00e+00	0	25	0	935329792	69	4856
2026-01-07 10:27:27.18	312.92	42.29	-51.3	-53.3	14.8	0.00e+00	0	25	0	937426944	69	4388
2026-01-07 10:27:28.19	313.18	42.05	-50.7	-52.6	15.0	0.00e+00	0	25	0	939524096	68	4243
2026-01-07 10:27:29.20	313.44	41.81	-51.1	-53.0	14.8	0.00e+00	0	25	0	941621248	68	4483
2026-01-07 10:27:30.20	313.69	41.57	-52.0	-54.3	14.4	0.00e+00	0	25	0	942669824	69	4903
2026-01-07 10:27:31.21	313.94	41.33	-52.7	-55.3	14.1	0.00e+00	0	25	0	944766976	70	5173
2026-01-07 10:27:32.22	314.18	41.10	-52.9	-55.5	14.1	0.00e+00	0	25	0	946864128	71	5035
2026-01-07 10:27:33.23	314.43	40.86	-52.1	-54.3	14.6	0.00e+00	0	25	0	948961280	70	4620
2026-01-07 10:27:34.23	314.66	40.63	-51.4	-53.4	14.8	0.00e+00	0	25	0	951058432	69	4398
2026-01-07 10:27:35.24	314.90	40.40	-51.1	-53.0	14.9	0.00e+00	0	25	0	952107008	68	4446
2026-01-07 10:27:36.25	315.13	40.16	-51.5	-53.4	14.6	0.00e+00	0	25	0	954204160	68	4659
2026-01-07 10:27:37.26	315.36	39.93	-51.8	-53.8	14.5	0.00e+00	0	25	0	956301312	68	4905
2026-01-07 10:27:38.26	315.58	39.71	-52.5	-54.8	14.3	0.00e+00	0	25	0	958398464	70	4883
2026-01-07 10:27:39.27	315.81	39.48	-52.7	-55.0	14.3	0.00e+00	0	25	0	960495616	71	4745
2026-01-07 10:27:40.28	316.03	39.25	-51.7	-53.8	14.8	0.00e+00	0	25	0	961544192	70	4364
2026-01-07 10:27:41.28	316.24	39.02	-51.5	-53.4	14.8	0.00e+00	0	25	0	963641344	69	4410
2026-01-07 10:27:42.29	316.46	38.80	-51.3	-53.2	14.8	0.00e+00	0	25	0	965738496	69	4314
2026-01-07 10:27:43.30	316.67	38.57	-51.2	-53.0	14.8	0.00e+00	0	25	0	967835648	68	4449
2026-01-07 10:27:44.30	316.87	38.35	-51.1	-52.9	14.8	0.00e+00	0	25	0	969932800	68	4430
2026-01-07 10:27:45.31	317.08	38.13	-51.4	-53.2	14.7	0.00e+00	0	25	0	970981376	68	4583
2026-01-07 10:27:46.32	317.28	37.91	-52.2	-54.2	14.4	0.00e+00	0	25	0	973078528	69	4869
2026-01-07 10:27:47.33	317.48	37.69	-53.0	-55.4	14.0	0.00e+00	0	25	0	975175680	71	4957
2026-01-07 10:27:48.33	317.68	37.47	-54.3	-57.4	13.2	0.00e+00	0	25	0	977272832	73	5546
2026-01-07 10:27:49.34	317.87	37.25	-54.7	-58.2	12.8	0.00e+00	0	25	0	979369984	74	5756
2026-01-07 10:27:50.35	318.06	37.03	-54.5	-57.7	13.0	0.00e+00	0	25	0	980418560	74	5450
2026-01-07 10:27:51.36	318.25	36.82	-54.1	-56.9	13.7	0.00e+00	0	25	0	982515712	74	4967
2026-01-07 10:27:52.36	318.44	36.60	-52.8	-54.9	14.5	0.00e+00	0	25	0	984612864	72	4396
2026-01-07 10:27:53.37	318.62	36.39	-51.4	-53.1	14.9	0.00e+00	0	25	0	986710016	69	4289
2026-01-07 10:27:54.38	318.81	36.18	-50.8	-52.5	15.1	0.00e+00	0	25	0	988807168	68	4197
2026-01-07 10:27:55.39	318.99	35.96	-51.2	-52.9	14.8	0.00e+00	0	25	0	989855744	68	4397
2026-01-07 10:27:56.39	319.16	35.76	-51.6	-53.4	14.6	0.00e+00	0	25	0	991952896	68	4673
2026-01-07 10:27:57.40	319.34	35.55	-52.8	-55.0	14.2	0.00e+00	0	25	0	994050048	70	4997
2026-01-07 10:27:58.41	319.51	35.34	-53.6	-56.2	13.8	0.00e+00	0	25	0	996147200	72	5134
2026-01-07 10:27:59.42	319.68	35.13	-54.6	-57.8	13.2	0.00e+00	0	25	0	998244352	74	5472
2026-01-07 10:28:00.42	319.85	34.93	-54.8	-58.0	13.1	0.00e+00	0	25	0	999292928	75	5321
2026-01-07 10:28:01.43	320.02	34.72	-54.1	-56.9	13.7	0.00e+00	0	25	0	1001390080	74	4955
2026-01-07 10:28:02.44	320.18	34.52	-53.6	-56.1	14.0	0.00e+00	0	25	0	1003487232	73	4811
2026-01-07 10:28:03.45	320.35	34.31	-52.8	-55.0	14.4	0.00e+00	0	25	0	1005584384	72	4456
2026-01-07 10:28:04.46	320.51	34.11	-52.5	-54.5	14.5	0.00e+00	0	25	0	1007681536	71	4467
2026-01-07 10:28:05.46	320.67	33.91	-51.9	-53.8	14.7	0.00e+00	0	25	0	1008730112	70	4386
2026-01-07 10:28:06.47	320.83	33.71	-52.0	-53.9	14.5	0.00e+00	0	25	0	1010827264	69	4704
2026-01-07 10:28:07.48	320.98	33.51	-52.2	-54.3	14.3	0.00e+00	0	25	0	1012924416	69	4896
2026-01-07 10:28:08.48	321.13	33.32	-51.9	-53.9	14.5	0.00e+00	0	25	0	1015021568	69	4681
2026-01-07 10:28:09.49	321.29	33.12	-52.3	-54.5	14.2	0.00e+00	0	25	0	1017118720	69	5026
2026-01-07 10:28:10.49	321.43	32.93	-52.8	-55.1	14.1	0.00e+00	0	25	0	1018167296	70	5063
2026-01-07 10:28:11.50	321.58	32.73	-53.0	-55.5	14.1	0.00e+00	0	25	0	1020264448	71	4999
2026-01-07 10:28:12.50	321.73	32.54	-53.6	-56.3	13.8	0.00e+00	0	25	0	1022361600	72	5164
2026-01-07 10:28:13.51	321.87	32.35	-54.0	-56.9	13.5	0.00e+00	0	25	0	1024458752	73	5249
2026-01-07 10:28:14.52	322.02	32.16	-53.6	-56.3	13.9	0.00e+00	0	25	0	1026555904	73	4901
2026-01-07 10:28:15.53	322.16	31.97	-53.5	-56.0	14.0	0.00e+00	0	25	0	1027604480	73	4742
2026-01-07 10:28:16.53	322.30	31.78	-53.1	-55.6	14.2	0.00e+00	0	25	0	1029701632	72	4766
2026-01-07 10:28:17.54	322.44	31.59	-53.0	-55.4	14.2	0.00e+00	0	25	0	1031798784	72	4654
2026-01-07 10:28:18.55	322.57	31.40	-52.9	-55.3	14.3	0.00e+00	0	25	0	1033895936	72	4624
2026-01-07 10:28:19.55	322.71	31.22	-53.0	-55.5	14.2	0.00e+00	0	25	0	1035993088	72	4733
2026-01-07 10:28:20.56	322.84	31.03	-53.1	-55.6	14.1	0.00e+00	0	25	0	1037041664	72	4777
2026-01-07 10:28:21.57	322.98	30.85	-52.8	-55.1	14.4	0.00e+00	0	25	0	1039138816	72	4500
2026-01-07 10:28:22.57	323.11	30.67	-52.8	-55.1	14.3	0.00e+00	0	25	0	1041235968	72	4540
2026-01-07 10:28:23.58	323.24	30.48	-52.9	-55.2	14.3	0.00e+00	0	25	0	1043333120	72	4598
2026-01-07 10:28:24.59	323.36	30.30	-52.7	-54.9	14.3	0.00e+00	0	25	0	1045430272	71	4666
2026-01-07 10:28:25.59	323.49	30.12	-52.5	-54.5	14.5	0.00e+00	0	25	0	1046478848	71	4493
2026-01-07 10:28:26.60	323.62	29.95	-52.2	-54.2	14.7	0.00e+00	0	25	0	1048576000	71	4300
2026-01-07 10:28:27.60	323.74	29.77	-52.2	-54.2	14.5	0.00e+00	0	25	0	1050673152	70	4568
2026-01-07 10:28:28.61	323.86	29.59	-51.9	-53.8	14.7	0.00e+00	0	25	0	1052770304	70	4368
2026-01-07 10:28:29.62	323.98	29.42	-51.9	-53.8	14.8	0.00e+00	0	25	0	1054867456	70	4359
2026-01-07 10:28:30.62	324.10	29.24	-51.9	-53.8	14.7	0.00e+00	0	25	0	1055916032	70	4353
2026-01-07 10:28:31.63	324.22	29.07	-51.8	-53.7	14.8	0.00e+00	0	25	0	1058013184	70	4323
2026-01-07 10:28:32.64	324.34	28.89	-51.9	-53.9	14.7	0.00e+00	0	25	0	1060110336	70	4421
2026-01-07 10:28:33.65	324.46	28.72	-52.5	-54.6	14.3	0.00e+00	0	25	0	1062207488	70	4803
2026-01-07 10:28:34.65	324.57	28.55	-52.5	-54.7	14.3	0.00e+00	0	25	0	1064304640	70	4836
2026-01-07 10:28:35.65	324.69	28.38	-52.9	-55.2	14.1	0.00e+00	0	25	0	1065353216	70	5139
2026-01-07 10:28:36.66	324.80	28.21	-53.1	-55.6	14.0	0.00e+00	0	25	0	1067450368	71	5051
2026-01-07 10:28:37.67	324.91	28.04	-52.9	-55.3	14.1	0.00e+00	0	25	0	1069547520	71	4880
2026-01-07 10:28:38.67	325.02	27.88	-53.4	-55.9	13.8	0.00e+00	0	25	0	1071644672	71	5246
2026-01-07 10:28:39.68	325.13	27.71	-53.2	-55.7	14.1	0.00e+00	0	25	0	1073741824	72	4840
2026-01-07 10:28:40.68	325.24	27.55	-53.0	-55.4	14.2	0.00e+00	0	25	0	1074790400	72	4672
2026-01-07 10:28:41.69	325.35	27.38	-52.9	-55.1	14.4	0.00e+00	0	25	0	1076887552	72	4523
2026-01-07 10:28:42.70	325.46	27.22	-52.4	-54.5	14.6	0.00e+00	0	25	0	1078984704	71	4450
2026-01-07 10:28:43.70	325.56	27.05	-52.5	-54.5	14.5	0.00e+00	0	25	0	1081081856	71	4487
2026-01-07 10:28:44.71	325.66	26.89	-52.3	-54.3	14.6	0.00e+00	0	25	0	1083179008	71	4382
2026-01-07 10:28:45.72	325.77	26.73	-52.1	-54.1	14.6	0.00e+00	0	25	0	1084227584	70	4505
2026-01-07 10:28:46.73	325.87	26.57	-52.1	-54.1	14.6	0.00e+00	0	25	0	1086324736	70	4520
2026-01-07 10:28:47.74	325.97	26.41	-52.3	-54.4	14.4	0.00e+00	0	25	0	1088421888	70	4676
2026-01-07 10:28:48.75	326.07	26.25	-52.3	-54.4	14.4	0.00e+00	0	25	0	1090519040	70	4652
2026-01-07 10:28:49.75	326.17	26.09	-52.3	-54.4	14.4	0.00e+00	0	25	0	1092616192	70	4692
2026-01-07 10:28:50.76	326.27	25.94	-52.3	-54.3	14.4	0.00e+00	0	25	0	1093664768	70	4648
2026-01-07 10:28:51.77	326.37	25.78	-52.3	-54.3	14.5	0.00e+00	0	25	0	1095761920	70	4650
2026-01-07 10:28:52.78	326.47	25.62	-52.1	-54.2	14.5	0.00e+00	0	25	0	1097859072	70	4564
2026-01-07 10:28:53.78	326.56	25.47	-51.9	-53.8	14.7	0.00e+00	0	25	0	1099956224	70	4384
2026-01-07 10:28:54.79	326.66	25.32	-51.9	-53.8	14.7	0.00e+00	0	25	0	1102053376	70	4366
2026-01-07 10:28:55.80	326.75	25.16	-51.8	-53.8	14.7	0.00e+00	0	25	0	1103101952	70	4346
2026-01-07 10:28:56.81	326.84	25.01	-51.4	-53.2	14.9	0.00e+00	0	25	0	1105199104	69	4306
2026-01-07 10:28:57.81	326.94	24.86	-51.1	-52.8	14.9	0.00e+00	0	25	0	1107296256	68	4387
2026-01-07 10:28:58.82	327.03	24.71	-51.1	-52.8	14.9	0.00e+00	0	25	0	1109393408	68	4374
2026-01-07 10:28:59.83	327.12	24.56	-50.9	-52.7	15.0	0.00e+00	0	26	0	1111490560	68	4295
2026-01-07 10:29:00.84	327.21	24.41	-51.0	-52.7	14.9	0.00e+00	0	25	0	1112539136	68	4315
2026-01-07 10:29:01.85	327.30	24.26	-51.1	-52.9	14.8	0.00e+00	0	25	0	1114636288	68	4418
2026-01-07 10:29:02.85	327.39	24.12	-51.0	-52.7	14.9	0.00e+00	0	25	0	1116733440	68	4336
2026-01-07 10:29:03.86	327.47	23.97	-51.1	-52.9	14.8	0.00e+00	0	25	0	1118830592	68	4428
2026-01-07 10:29:04.87	327.56	23.82	-51.1	-52.9	14.8	0.00e+00	0	25	0	1120927744	68	4406
2026-01-07 10:29:05.88	327.65	23.68	-51.2	-52.9	14.7	0.00e+00	0	25	0	1121976320	68	4438
2026-01-07 10:29:06.89	327.73	23.53	-51.3	-53.1	14.7	0.00e+00	0	25	0	1124073472	68	4528
2026-01-07 10:29:07.89	327.82	23.39	-51.4	-53.2	14.7	0.00e+00	0	25	0	1126170624	68	4592
2026-01-07 10:29:08.90	327.90	23.25	-51.4	-53.2	14.7	0.00e+00	0	25	0	1128267776	68	4589
2026-01-07 10:29:09.90	327.98	23.11	-51.7	-53.7	14.5	0.00e+00	0	25	0	1130364928	68	4860
2026-01-07 10:29:10.91	328.07	22.96	-51.9	-53.9	14.4	0.00e+00	0	25	0	1131413504	68	4961
2026-01-07 10:29:11.92	328.15	22.82	-52.0	-54.1	14.5	0.00e+00	0	25	0	1133510656	69	4773
2026-01-07 10:29:12.93	328.23	22.68	-52.1	-54.2	14.4	0.00e+00	0	25	0	1135607808	69	4841
2026-01-07 10:29:13.93	328.31	22.54	-52.2	-54.3	14.3	0.00e+00	0	25	0	1137704960	69	4908
2026-01-07 10:29:14.93	328.39	22.41	-52.1	-54.3	14.3	0.00e+00	0	25	0	1139802112	69	4874
2026-01-07 10:29:15.94	328.47	22.27	-52.1	-54.2	14.3	0.00e+00	0	25	0	1140850688	69	4857
2026-01-07 10:29:16.95	328.55	22.13	-52.1	-54.2	14.4	0.00e+00	0	25	0	1142947840	69	4858
2026-01-07 10:29:17.96	328.62	21.99	-52.0	-54.2	14.4	0.00e+00	0	25	0	1145044992	69	4833
2026-01-07 10:29:18.97	328.70	21.86	-51.7	-53.8	14.6	0.00e+00	0	25	0	1147142144	69	4619
2026-01-07 10:29:19.98	328.78	21.72	-51.6	-53.6	14.7	0.00e+00	0	25	0	1149239296	69	4533
2026-01-07 10:29:20.99	328.85	21.59	-51.6	-53.6	14.7	0.00e+00	0	25	0	1150287872	69	4508
2026-01-07 10:29:21.99	328.93	21.46	-51.4	-53.4	14.8	0.00e+00	0	25	0	1152385024	69	4393
2026-01-07 10:29:23.00	329.00	21.32	-51.3	-53.2	14.9	0.00e+00	0	25	0	1154482176	69	4294
2026-01-07 10:29:24.00	329.08	21.19	-51.1	-52.9	14.9	0.00e+00	0	25	0	1156579328	68	4418
2026-01-07 10:29:25.01	329.15	21.06	-51.0	-52.7	14.9	0.00e+00	0	25	0	1158676480	68	4340
2026-01-07 10:29:26.01	329.22	20.93	-50.7	-52.4	15.1	0.00e+00	0	25	0	1159725056	68	4182
2026-01-07 10:29:27.02	329.29	20.80	-50.4	-52.1	15.0	0.00e+00	0	25	0	1161822208	67	4263
2026-01-07 10:29:28.03	329.37	20.67	-50.0	-51.7	15.1	0.00e+00	0	25	0	1163919360	66	4292
2026-01-07 10:29:29.04	329.44	20.54	-49.9	-51.5	15.1	0.00e+00	0	25	0	1166016512	66	4195
2026-01-07 10:29:30.04	329.51	20.41	-49.7	-51.2	15.2	0.00e+00	0	25	0	1168113664	66	4087
2026-01-07 10:29:31.05	329.58	20.28	-49.5	-51.0	15.2	0.00e+00	0	25	0	1170210816	65	4219
2026-01-07 10:29:32.06	329.65	20.15	-49.3	-50.8	15.3	0.00e+00	0	25	0	1171259392	65	4105
2026-01-07 10:29:33.07	329.72	20.03	-49.0	-50.5	15.2	0.00e+00	0	25	0	1173356544	64	4204
2026-01-07 10:29:34.07	329.78	19.90	-49.1	-50.6	15.2	0.00e+00	0	25	0	1175453696	64	4243
2026-01-07 10:29:35.08	329.85	19.78	-49.2	-50.7	15.1	0.00e+00	0	25	0	1177550848	64	4308
2026-01-07 10:29:36.09	329.92	19.65	-49.2	-50.7	15.1	0.00e+00	0	25	0	1178599424	64	4298
2026-01-07 10:29:37.10	329.99	19.53	-49.3	-50.8	15.1	0.00e+00	0	25	0	1180696576	64	4388
2026-01-07 10:29:38.10	330.05	19.40	-49.5	-51.0	15.0	0.00e+00	0	25	0	1182793728	64	4481
2026-01-07 10:29:39.11	330.12	19.28	-49.7	-51.3	14.9	0.00e+00	0	25	0	1184890880	64	4638
2026-01-07 10:29:40.12	330.18	19.16	-49.9	-51.6	14.8	0.00e+00	0	25	0	1186988032	64	4767
2026-01-07 10:29:41.13	330.25	19.03	-50.2	-51.9	14.8	0.00e+00	0	25	0	1188036608	65	4701
2026-01-07 10:29:42.14	330.31	18.91	-50.7	-52.5	14.7	0.00e+00	0	25	0	1190133760	66	4731
2026-01-07 10:29:43.15	330.38	18.79	-50.9	-52.7	14.6	0.00e+00	0	25	0	1192230912	66	4839
2026-01-07 10:29:44.15	330.44	18.67	-51.2	-53.2	14.5	0.00e+00	0	25	0	1194328064	67	4817
2026-01-07 10:29:45.16	330.50	18.55	-51.6	-53.6	14.4	0.00e+00	0	25	0	1196425216	68	4803
2026-01-07 10:29:46.17	330.57	18.43	-51.8	-53.8	14.4	0.00e+00	0	25	0	1198522368	68	4908
2026-01-07 10:29:47.18	330.63	18.31	-52.0	-54.1	14.4	0.00e+00	0	25	0	1199570944	69	4790
2026-01-07 10:29:48.19	330.69	18.19	-52.1	-54.2	14.3	0.00e+00	0	25	0	1201668096	69	4862
2026-01-07 10:29:49.20	330.75	18.08	-52.2	-54.3	14.3	0.00e+00	0	25	0	1203765248	69	4923
2026-01-07 10:29:50.20	330.81	17.96	-52.3	-54.6	14.2	0.00e+00	0	25	0	1205862400	69	5050
2026-01-07 10:29:51.21	330.87	17.84	-52.2	-54.3	14.3	0.00e+00	0	25	0	1207959552	69	4906
2026-01-07 10:29:52.22	330.93	17.73	-52.3	-54.5	14.2	0.00e+00	0	25	0	1209008128	69	5010
2026-01-07 10:29:53.23	330.99	17.61	-52.2	-54.4	14.2	0.00e+00	0	25	0	1211105280	69	4952
2026-01-07 10:29:54.23	331.05	17.50	-52.3	-54.5	14.2	0.00e+00	0	25	0	1213202432	69	4998
2026-01-07 10:29:55.23	331.11	17.38	-52.2	-54.3	14.3	0.00e+00	0	25	0	1215299584	69	4920
2026-01-07 10:29:56.24	331.17	17.27	-52.0	-54.1	14.4	0.00e+00	0	25	0	1216348160	69	4810
2026-01-07 10:29:57.25	331.23	17.16	-52.0	-54.1	14.4	0.00e+00	0	25	0	1218445312	69	4807
2026-01-07 10:29:58.26	331.28	17.04	-52.0	-54.1	14.4	0.00e+00	0	25	0	1220542464	69	4794
2026-01-07 10:29:59.26	331.34	16.93	-52.0	-54.1	14.4	0.00e+00	0	25	0	1222639616	69	4789
2026-01-07 10:30:00.27	331.40	16.82	-52.1	-54.2	14.4	0.00e+00	0	25	0	1224736768	69	4825
2026-01-07 10:30:01.28	331.45	16.71	-52.0	-54.1	14.4	0.00e+00	0	25	0	1226833920	69	4775
2026-01-07 10:30:02.29	331.51	16.60	-51.9	-54.0	14.5	0.00e+00	0	25	0	1227882496	69	4708
2026-01-07 10:30:03.30	331.57	16.48	-52.0	-54.0	14.4	0.00e+00	0	25	0	1229979648	69	4741
2026-01-07 10:30:04.31	331.62	16.37	-51.9	-53.9	14.5	0.00e+00	0	25	0	1232076800	69	4694
2026-01-07 10:30:05.31	331.67	16.27	-51.8	-53.9	14.5	0.00e+00	0	25	0	1234173952	69	4668
2026-01-07 10:30:06.32	331.73	16.16	-51.7	-53.8	14.5	0.00e+00	0	25	0	1236271104	69	4604
2026-01-07 10:30:07.33	331.78	16.05	-51.7	-53.7	14.6	0.00e+00	0	25	0	1237319680	69	4564
2026-01-07 10:30:08.34	331.84	15.94	-51.6	-53.6	14.6	0.00e+00	0	25	0	1239416832	69	4516
2026-01-07 10:30:09.35	331.89	15.83	-51.6	-53.5	14.6	0.00e+00	0	25	0	1241513984	69	4492
