passes_logs/2026/01/07/R3.2S_Murmansk/R3.2S_Murmansk__20260107_063010_NOAA_21_JPSS-2_rec.log

#Pass ID: 20260107_063010_NOAA 21 (JPSS-2)
#Satellite: NOAA 21 (JPSS-2)
#Configuration: NOAA-21
#almurnet v.1.7.20251203
#Start time: 2026-01-07 06:30:11

#Version: 2.2.20231116
#Station: R3.2S_Murmansk
#Location: 33.079688 lon 68.888172 lat
#TLE: 1 54234U 22150A   26005.56767909  .00000152  00000+0  92756-4 0  9990
#TLE: 2 54234  98.7490 306.5820 0001036 340.2747  19.8389 14.19532370163472

#Time	Az	El	Level	Level2	SNR	BER	BlckErr	Temp	State	Recorded	gain1	gain2
2026-01-07 06:30:11.67	85.07	2.09	-57.6	-71.4	3.8	1.49e+00	0	23	0	0	81	17537
2026-01-07 06:30:12.66	85.01	2.15	-57.6	-71.3	3.8	1.49e+00	0	23	104	0	80	18476
2026-01-07 06:30:13.65	84.95	2.21	-57.6	-71.3	3.8	1.49e+00	0	23	104	0	80	18477
2026-01-07 06:30:14.66	84.90	2.27	-57.6	-71.3	3.8	1.49e+00	0	23	104	0	80	18395
2026-01-07 06:30:15.66	84.84	2.33	-57.6	-71.3	3.8	1.49e+00	0	23	104	0	80	18398
2026-01-07 06:30:16.66	84.78	2.39	-57.6	-71.3	3.8	1.49e+00	0	23	104	0	80	18394
2026-01-07 06:30:17.67	84.72	2.45	-57.6	-71.3	3.8	1.49e+00	0	23	104	0	80	18340
2026-01-07 06:30:18.67	84.66	2.50	-57.6	-71.3	3.8	1.49e+00	0	23	104	0	80	18424
2026-01-07 06:30:19.67	84.60	2.56	-57.6	-71.3	3.8	1.49e+00	0	23	104	0	80	18427
2026-01-07 06:30:20.67	84.55	2.62	-57.6	-71.3	3.8	1.49e+00	0	23	104	0	80	18408
2026-01-07 06:30:21.67	84.49	2.68	-57.6	-71.3	3.8	1.49e+00	0	23	104	0	80	18441
2026-01-07 06:30:22.67	84.43	2.74	-57.6	-71.3	3.8	1.49e+00	0	23	104	0	80	18395
2026-01-07 06:30:23.67	84.37	2.80	-57.6	-71.3	3.8	1.49e+00	0	23	104	0	80	18476
2026-01-07 06:30:24.67	84.31	2.86	-57.6	-71.3	3.8	1.49e+00	0	24	104	0	80	18443
2026-01-07 06:30:25.67	84.25	2.92	-57.6	-71.3	3.8	1.49e+00	0	24	104	0	80	18512
2026-01-07 06:30:26.67	84.19	2.98	-57.6	-71.4	3.8	1.49e+00	0	24	104	0	80	18525
2026-01-07 06:30:27.66	84.13	3.04	-57.6	-71.3	3.8	1.49e+00	0	24	104	0	80	18513
2026-01-07 06:30:28.67	84.06	3.10	-57.6	-71.4	3.8	1.49e+00	0	24	104	0	80	18577
2026-01-07 06:30:29.67	84.00	3.16	-57.6	-71.3	3.8	1.49e+00	0	24	104	0	80	18504
2026-01-07 06:30:30.67	83.94	3.22	-57.6	-71.3	3.8	1.49e+00	0	24	104	0	80	18477
2026-01-07 06:30:31.66	83.88	3.28	-57.6	-71.3	3.8	1.49e+00	0	24	104	0	80	18361
2026-01-07 06:30:32.66	83.82	3.34	-57.6	-71.3	3.8	1.49e+00	0	24	104	0	80	18354
2026-01-07 06:30:33.67	83.75	3.40	-57.6	-71.3	3.8	1.49e+00	0	24	104	0	80	18369
2026-01-07 06:30:34.67	83.69	3.46	-57.6	-71.3	3.8	1.49e+00	0	24	104	0	80	18397
2026-01-07 06:30:35.67	83.63	3.52	-57.6	-71.3	3.8	1.49e+00	0	24	104	0	80	18496
2026-01-07 06:30:36.67	83.57	3.58	-57.6	-71.3	3.8	1.49e+00	0	24	104	0	80	18486
2026-01-07 06:30:37.66	83.50	3.64	-57.6	-71.3	3.8	1.49e+00	0	24	104	0	80	18463
2026-01-07 06:30:38.67	83.44	3.71	-57.6	-71.3	3.8	1.49e+00	0	24	104	0	80	18419
2026-01-07 06:30:39.66	83.37	3.77	-57.6	-71.2	3.8	1.49e+00	0	24	104	0	80	18227
2026-01-07 06:30:40.67	83.31	3.83	-57.6	-71.2	3.8	1.49e+00	0	24	104	0	80	18144
2026-01-07 06:30:41.66	83.25	3.89	-57.6	-71.2	3.8	1.49e+00	0	24	104	0	80	18106
2026-01-07 06:30:42.66	83.18	3.95	-57.6	-71.2	3.8	1.49e+00	0	24	104	0	80	18120
2026-01-07 06:30:43.66	83.11	4.01	-57.6	-71.2	3.8	1.49e+00	0	24	104	0	80	18162
2026-01-07 06:30:44.66	83.05	4.07	-57.6	-71.3	3.8	1.49e+00	0	24	104	0	80	18419
2026-01-07 06:30:45.65	82.98	4.13	-57.6	-71.4	3.8	1.49e+00	0	24	104	0	80	18519
2026-01-07 06:30:46.65	82.92	4.20	-57.6	-71.3	3.8	1.49e+00	0	24	104	0	80	18340
2026-01-07 06:30:47.65	82.85	4.26	-57.6	-71.0	3.8	1.49e+00	0	24	104	0	80	17843
2026-01-07 06:30:48.65	82.79	4.32	-57.5	-70.5	3.8	1.49e+00	0	24	104	0	80	16816
2026-01-07 06:30:49.65	82.72	4.38	-57.5	-69.9	3.8	1.49e+00	0	24	104	0	80	15687
2026-01-07 06:30:50.64	82.65	4.44	-57.4	-68.5	4.0	1.48e+00	0	24	104	0	80	13314
2026-01-07 06:30:51.65	82.58	4.51	-57.3	-68.0	3.9	1.45e+00	0	24	104	0	80	12567
2026-01-07 06:30:52.65	82.52	4.57	-57.2	-66.5	4.6	1.15e+00	0	24	104	0	80	10556
2026-01-07 06:30:53.65	82.45	4.63	-57.1	-65.6	5.0	6.85e-01	0	24	0	0	80	9516
2026-01-07 06:30:54.66	82.38	4.70	-56.9	-64.4	5.7	4.11e-01	0	24	0	3145728	80	8300
2026-01-07 06:30:55.66	82.31	4.76	-56.7	-63.7	6.2	2.75e-01	0	24	0	6291456	80	7643
2026-01-07 06:30:56.66	82.24	4.82	-56.6	-63.0	6.7	1.66e-01	0	24	0	9437184	79	7539
2026-01-07 06:30:57.67	82.17	4.89	-56.3	-62.2	7.4	8.73e-02	0	24	0	12582912	79	6861
2026-01-07 06:30:58.67	82.10	4.95	-56.2	-61.9	7.7	5.79e-02	0	24	0	15728640	79	6629
2026-01-07 06:30:59.67	82.03	5.01	-56.1	-61.4	8.1	4.57e-02	0	24	0	18874368	78	6640
2026-01-07 06:31:00.68	81.96	5.08	-56.2	-61.7	7.9	3.44e-02	0	24	0	22020096	78	6806
2026-01-07 06:31:01.67	81.89	5.14	-54.7	-58.1	11.0	7.31e-03	0	24	0	25165824	76	5061
2026-01-07 06:31:02.67	81.82	5.20	-56.9	-64.4	5.8	4.32e-02	0	24	0	28311552	78	9362
2026-01-07 06:31:03.67	81.75	5.27	-56.7	-62.9	7.2	8.46e-02	0	24	0	29360128	79	7377
2026-01-07 06:31:04.68	81.67	5.33	-52.9	-55.2	12.8	4.21e-02	0	24	0	32505856	72	4554
2026-01-07 06:31:05.67	81.60	5.39	-53.0	-55.4	12.7	7.00e-07	0	24	0	35651584	72	4657
2026-01-07 06:31:06.67	81.53	5.46	-52.9	-55.3	12.7	7.00e-07	0	25	0	38797312	72	4610
2026-01-07 06:31:07.68	81.46	5.52	-52.6	-54.8	13.0	0.00e+00	0	24	0	41943040	71	4620
2026-01-07 06:31:08.67	81.38	5.59	-51.9	-53.9	13.5	0.00e+00	0	24	0	45088768	70	4428
2026-01-07 06:31:09.67	81.31	5.65	-51.8	-53.8	13.6	0.00e+00	0	24	0	48234496	70	4354
2026-01-07 06:31:10.67	81.24	5.71	-51.5	-53.4	13.7	0.00e+00	0	24	0	51380224	69	4395
2026-01-07 06:31:11.68	81.16	5.78	-51.5	-53.4	13.7	0.00e+00	0	24	0	54525952	69	4415
2026-01-07 06:31:12.68	81.09	5.84	-51.2	-53.0	13.9	0.00e+00	0	24	0	57671680	69	4207
2026-01-07 06:31:13.69	81.01	5.91	-51.3	-53.1	13.9	0.00e+00	0	24	0	60817408	69	4282
2026-01-07 06:31:14.69	80.94	5.97	-51.3	-53.0	13.9	0.00e+00	0	25	0	63963136	69	4242
2026-01-07 06:31:15.69	80.86	6.04	-51.4	-53.3	13.8	0.00e+00	0	24	0	67108864	69	4345
2026-01-07 06:31:16.69	80.79	6.10	-51.3	-53.1	13.9	0.00e+00	0	24	0	70254592	69	4284
2026-01-07 06:31:17.68	80.71	6.17	-51.4	-53.2	13.8	0.00e+00	0	24	0	73400320	69	4330
2026-01-07 06:31:18.68	80.63	6.23	-51.4	-53.2	13.8	0.00e+00	0	24	0	76546048	69	4319
2026-01-07 06:31:19.68	80.56	6.30	-51.4	-53.2	13.9	0.00e+00	0	24	0	79691776	69	4296
2026-01-07 06:31:20.68	80.48	6.37	-51.3	-53.0	14.0	0.00e+00	0	24	0	82837504	69	4229
2026-01-07 06:31:21.68	80.40	6.43	-51.2	-53.0	14.0	0.00e+00	0	24	0	85983232	69	4204
2026-01-07 06:31:22.69	80.32	6.50	-51.1	-52.8	13.9	0.00e+00	0	25	0	89128960	68	4388
2026-01-07 06:31:23.69	80.25	6.56	-51.1	-52.8	13.9	0.00e+00	0	24	0	92274688	68	4390
2026-01-07 06:31:24.69	80.17	6.63	-51.1	-52.8	14.0	0.00e+00	0	25	0	95420416	68	4371
2026-01-07 06:31:25.69	80.09	6.70	-51.1	-52.8	13.9	0.00e+00	0	25	0	98566144	68	4390
2026-01-07 06:31:26.69	80.01	6.76	-51.2	-53.0	13.9	0.00e+00	0	24	0	101711872	68	4442
2026-01-07 06:31:27.70	79.93	6.83	-50.9	-52.6	14.1	0.00e+00	0	25	0	104857600	68	4261
2026-01-07 06:31:28.70	79.85	6.90	-50.9	-52.6	14.1	0.00e+00	0	24	0	108003328	68	4252
2026-01-07 06:31:29.70	79.77	6.96	-51.0	-52.7	14.1	0.00e+00	0	25	0	111149056	68	4295
2026-01-07 06:31:30.70	79.69	7.03	-50.8	-52.5	14.2	0.00e+00	0	25	0	114294784	68	4201
2026-01-07 06:31:31.70	79.61	7.10	-50.9	-52.5	14.1	0.00e+00	0	24	0	117440512	68	4233
2026-01-07 06:31:32.70	79.52	7.16	-50.8	-52.4	14.2	0.00e+00	0	24	0	120586240	68	4175
2026-01-07 06:31:33.70	79.44	7.23	-50.9	-52.5	14.2	0.00e+00	0	25	0	123731968	68	4218
2026-01-07 06:31:34.69	79.36	7.30	-50.9	-52.5	14.2	0.00e+00	0	25	0	126877696	68	4219
2026-01-07 06:31:35.69	79.28	7.36	-51.0	-52.7	14.1	0.00e+00	0	25	0	130023424	68	4303
2026-01-07 06:31:36.69	79.19	7.43	-50.9	-52.6	14.1	0.00e+00	0	25	0	133169152	68	4247
2026-01-07 06:31:37.69	79.11	7.50	-51.0	-52.7	14.1	0.00e+00	0	24	0	136314880	68	4295
2026-01-07 06:31:38.69	79.03	7.57	-50.8	-52.4	14.2	0.00e+00	0	24	0	139460608	68	4184
2026-01-07 06:31:39.69	78.94	7.63	-50.8	-52.5	14.2	0.00e+00	0	24	0	142606336	68	4211
2026-01-07 06:31:40.69	78.86	7.70	-50.9	-52.6	14.1	0.00e+00	0	25	0	144703488	68	4267
2026-01-07 06:31:41.68	78.77	7.77	-50.9	-52.5	14.2	0.00e+00	0	25	0	147849216	68	4226
2026-01-07 06:31:42.68	78.69	7.84	-50.9	-52.5	14.2	0.00e+00	0	25	0	150994944	68	4231
2026-01-07 06:31:43.68	78.60	7.91	-50.9	-52.5	14.2	0.00e+00	0	25	0	154140672	68	4214
2026-01-07 06:31:44.69	78.51	7.98	-50.7	-52.3	14.3	0.00e+00	0	24	0	157286400	68	4129
2026-01-07 06:31:45.67	78.43	8.04	-50.8	-52.4	14.3	0.00e+00	0	25	0	160432128	68	4152
2026-01-07 06:31:46.68	78.34	8.11	-50.4	-51.9	14.3	0.00e+00	0	25	0	163577856	67	4186
2026-01-07 06:31:47.68	78.25	8.18	-50.4	-52.0	14.3	0.00e+00	0	24	0	166723584	67	4210
2026-01-07 06:31:48.67	78.16	8.25	-50.5	-52.1	14.2	0.00e+00	0	24	0	169869312	67	4273
2026-01-07 06:31:49.67	78.08	8.32	-50.6	-52.2	14.2	0.00e+00	0	25	0	173015040	67	4316
2026-01-07 06:31:50.66	77.99	8.39	-50.6	-52.2	14.2	0.00e+00	0	25	0	176160768	67	4318
2026-01-07 06:31:51.66	77.90	8.46	-50.5	-52.1	14.2	0.00e+00	0	24	0	179306496	67	4271
2026-01-07 06:31:52.67	77.81	8.53	-50.3	-51.9	14.4	0.00e+00	0	25	0	182452224	67	4149
2026-01-07 06:31:53.66	77.72	8.59	-50.4	-51.9	14.3	0.00e+00	0	25	0	185597952	67	4178
2026-01-07 06:31:54.66	77.63	8.66	-50.4	-51.9	14.3	0.00e+00	0	25	0	188743680	67	4189
2026-01-07 06:31:55.66	77.54	8.73	-50.4	-51.9	14.3	0.00e+00	0	25	0	191889408	67	4184
2026-01-07 06:31:56.65	77.44	8.80	-50.3	-51.8	14.4	0.00e+00	0	24	0	195035136	67	4130
2026-01-07 06:31:57.65	77.35	8.87	-50.3	-51.8	14.4	0.00e+00	0	25	0	198180864	67	4127
2026-01-07 06:31:58.64	77.26	8.94	-50.3	-51.8	14.4	0.00e+00	0	25	0	201326592	67	4118
2026-01-07 06:31:59.64	77.17	9.01	-50.2	-51.7	14.4	0.00e+00	0	25	0	204472320	67	4097
2026-01-07 06:32:00.64	77.07	9.08	-50.1	-51.6	14.4	0.00e+00	0	25	0	207618048	66	4267
2026-01-07 06:32:01.64	76.98	9.15	-50.1	-51.6	14.3	0.00e+00	0	25	0	210763776	66	4284
2026-01-07 06:32:02.65	76.88	9.22	-50.2	-51.7	14.3	0.00e+00	0	25	0	213909504	66	4295
2026-01-07 06:32:03.65	76.79	9.30	-50.0	-51.5	14.4	0.00e+00	0	25	0	217055232	66	4235
2026-01-07 06:32:04.65	76.69	9.37	-50.0	-51.5	14.4	0.00e+00	0	25	0	220200960	66	4220
2026-01-07 06:32:05.65	76.60	9.44	-50.0	-51.5	14.4	0.00e+00	0	25	0	223346688	66	4226
2026-01-07 06:32:06.65	76.50	9.51	-50.0	-51.5	14.4	0.00e+00	0	25	0	226492416	66	4210
2026-01-07 06:32:07.65	76.40	9.58	-49.9	-51.4	14.5	0.00e+00	0	25	0	229638144	66	4148
2026-01-07 06:32:08.65	76.31	9.65	-49.9	-51.3	14.5	0.00e+00	0	25	0	232783872	66	4139
2026-01-07 06:32:09.65	76.21	9.72	-49.9	-51.4	14.5	0.00e+00	0	25	0	235929600	66	4159
2026-01-07 06:32:10.66	76.11	9.79	-49.8	-51.2	14.6	0.00e+00	0	25	0	239075328	66	4086
2026-01-07 06:32:11.65	76.01	9.87	-49.7	-51.2	14.5	0.00e+00	0	25	0	242221056	65	4299
2026-01-07 06:32:12.66	75.91	9.94	-49.7	-51.1	14.5	0.00e+00	0	25	0	245366784	65	4269
2026-01-07 06:32:13.65	75.81	10.01	-49.6	-51.1	14.5	0.00e+00	0	25	0	248512512	65	4246
2026-01-07 06:32:14.64	75.71	10.08	-49.6	-51.0	14.5	0.00e+00	0	25	0	251658240	65	4205
2026-01-07 06:32:15.64	75.61	10.15	-49.5	-50.9	14.5	0.00e+00	0	25	0	254803968	65	4187
2026-01-07 06:32:16.65	75.51	10.23	-49.4	-50.8	14.6	0.00e+00	0	25	0	257949696	65	4134
2026-01-07 06:32:17.65	75.41	10.30	-49.5	-50.8	14.6	0.00e+00	0	25	0	261095424	65	4135
2026-01-07 06:32:18.65	75.30	10.37	-49.4	-50.8	14.6	0.00e+00	0	25	0	264241152	65	4131
2026-01-07 06:32:19.65	75.20	10.44	-49.5	-50.9	14.6	0.00e+00	0	25	0	267386880	65	4158
2026-01-07 06:32:20.65	75.10	10.52	-49.5	-50.9	14.6	0.00e+00	0	25	0	270532608	65	4151
2026-01-07 06:32:21.66	74.99	10.59	-49.3	-50.7	14.7	0.00e+00	0	25	0	273678336	65	4077
2026-01-07 06:32:22.66	74.89	10.66	-49.4	-50.8	14.6	0.00e+00	0	25	0	276824064	65	4111
2026-01-07 06:32:23.67	74.78	10.74	-49.3	-50.7	14.7	0.00e+00	0	25	0	279969792	65	4064
2026-01-07 06:32:24.67	74.68	10.81	-49.3	-50.7	14.7	0.00e+00	0	25	0	283115520	65	4063
2026-01-07 06:32:25.66	74.57	10.88	-49.4	-50.7	14.7	0.00e+00	0	25	0	285212672	65	4087
2026-01-07 06:32:26.67	74.46	10.96	-49.3	-50.7	14.7	0.00e+00	0	25	0	289406976	65	4065
2026-01-07 06:32:27.67	74.36	11.03	-49.4	-50.8	14.7	0.00e+00	0	25	0	292552704	65	4108
2026-01-07 06:32:28.67	74.25	11.10	-49.3	-50.6	14.7	0.00e+00	0	25	0	295698432	65	4045
2026-01-07 06:32:29.66	74.14	11.18	-49.3	-50.7	14.7	0.00e+00	0	25	0	298844160	65	4056
2026-01-07 06:32:30.66	74.03	11.25	-49.2	-50.6	14.8	0.00e+00	0	25	0	301989888	65	4006
2026-01-07 06:32:31.66	73.92	11.33	-49.1	-50.5	14.7	0.00e+00	0	25	0	304087040	64	4197
2026-01-07 06:32:32.66	73.81	11.40	-49.1	-50.4	14.7	0.00e+00	0	25	0	307232768	64	4175
2026-01-07 06:32:33.67	73.70	11.48	-48.9	-50.3	14.8	0.00e+00	0	25	0	310378496	64	4115
2026-01-07 06:32:34.67	73.59	11.55	-49.1	-50.5	14.7	0.00e+00	0	25	0	313524224	64	4198
2026-01-07 06:32:35.66	73.48	11.62	-48.9	-50.3	14.8	0.00e+00	0	25	0	316669952	64	4113
2026-01-07 06:32:36.66	73.37	11.70	-48.9	-50.3	14.8	0.00e+00	0	25	0	319815680	64	4101
2026-01-07 06:32:37.67	73.25	11.77	-48.9	-50.3	14.8	0.00e+00	0	25	0	322961408	64	4104
2026-01-07 06:32:38.67	73.14	11.85	-48.8	-50.1	14.9	0.00e+00	0	25	0	326107136	64	4043
2026-01-07 06:32:39.67	73.02	11.92	-48.8	-50.2	14.8	0.00e+00	0	25	0	329252864	64	4070
2026-01-07 06:32:40.66	72.91	12.00	-48.9	-50.2	14.8	0.00e+00	0	25	0	332398592	64	4097
2026-01-07 06:32:41.66	72.79	12.07	-49.0	-50.3	14.8	0.00e+00	0	25	0	335544320	64	4144
2026-01-07 06:32:42.66	72.68	12.15	-49.0	-50.4	14.7	0.00e+00	0	25	0	338690048	64	4174
2026-01-07 06:32:43.67	72.56	12.23	-48.9	-50.3	14.8	0.00e+00	0	25	0	341835776	64	4118
2026-01-07 06:32:44.67	72.44	12.30	-49.0	-50.3	14.8	0.00e+00	0	25	0	344981504	64	4132
2026-01-07 06:32:45.67	72.32	12.38	-49.0	-50.3	14.8	0.00e+00	0	25	0	348127232	64	4140
2026-01-07 06:32:46.66	72.21	12.45	-48.8	-50.1	14.9	0.00e+00	0	25	0	351272960	64	4046
2026-01-07 06:32:47.66	72.09	12.53	-48.9	-50.2	14.8	0.00e+00	0	25	0	354418688	64	4080
2026-01-07 06:32:48.67	71.97	12.60	-48.9	-50.3	14.8	0.00e+00	0	25	0	357564416	64	4099
2026-01-07 06:32:49.67	71.85	12.68	-48.9	-50.2	14.8	0.00e+00	0	25	0	360710144	64	4096
2026-01-07 06:32:50.66	71.73	12.76	-48.9	-50.2	14.8	0.00e+00	0	25	0	363855872	64	4093
2026-01-07 06:32:51.66	71.61	12.83	-48.8	-50.1	14.9	0.00e+00	0	25	0	367001600	64	4045
2026-01-07 06:32:52.66	71.48	12.91	-48.8	-50.1	14.9	0.00e+00	0	25	0	370147328	64	4025
2026-01-07 06:32:53.67	71.36	12.99	-48.9	-50.2	14.8	0.00e+00	0	25	0	373293056	64	4088
2026-01-07 06:32:54.67	71.24	13.06	-48.8	-50.1	14.9	0.00e+00	0	25	0	376438784	64	4022
2026-01-07 06:32:55.67	71.11	13.14	-48.8	-50.2	14.8	0.00e+00	0	25	0	379584512	64	4060
2026-01-07 06:32:56.67	70.99	13.22	-48.9	-50.2	14.8	0.00e+00	0	25	0	382730240	64	4075
2026-01-07 06:32:57.68	70.86	13.30	-48.9	-50.2	14.8	0.00e+00	0	25	0	385875968	64	4097
2026-01-07 06:32:58.68	70.73	13.37	-48.9	-50.3	14.8	0.00e+00	0	25	0	389021696	64	4099
2026-01-07 06:32:59.68	70.61	13.45	-49.0	-50.3	14.8	0.00e+00	0	25	0	392167424	64	4137
2026-01-07 06:33:00.67	70.48	13.53	-48.9	-50.3	14.8	0.00e+00	0	25	0	395313152	64	4108
2026-01-07 06:33:01.67	70.35	13.60	-49.0	-50.3	14.8	0.00e+00	0	25	0	398458880	64	4126
2026-01-07 06:33:02.67	70.22	13.68	-48.9	-50.3	14.8	0.00e+00	0	25	0	401604608	64	4117
2026-01-07 06:33:03.68	70.09	13.76	-49.0	-50.3	14.8	0.00e+00	0	25	0	404750336	64	4125
2026-01-07 06:33:04.69	69.96	13.84	-49.0	-50.3	14.8	0.00e+00	0	25	0	407896064	64	4136
2026-01-07 06:33:05.69	69.83	13.92	-48.9	-50.3	14.8	0.00e+00	0	25	0	411041792	64	4112
2026-01-07 06:33:06.68	69.70	13.99	-49.0	-50.4	14.8	0.00e+00	0	25	0	414187520	64	4168
2026-01-07 06:33:07.69	69.56	14.07	-49.2	-50.6	14.6	0.00e+00	0	25	0	417333248	64	4280
2026-01-07 06:33:08.69	69.43	14.15	-49.0	-50.3	14.8	0.00e+00	0	25	0	420478976	64	4134
2026-01-07 06:33:09.69	69.30	14.23	-48.9	-50.2	14.8	0.00e+00	0	25	0	423624704	64	4078
2026-01-07 06:33:10.69	69.16	14.31	-48.9	-50.3	14.8	0.00e+00	0	25	0	426770432	64	4100
2026-01-07 06:33:11.69	69.03	14.39	-48.9	-50.2	14.8	0.00e+00	0	25	0	429916160	64	4083
2026-01-07 06:33:12.69	68.89	14.46	-48.9	-50.3	14.8	0.00e+00	0	25	0	433061888	64	4116
2026-01-07 06:33:13.70	68.75	14.54	-49.1	-50.4	14.7	0.00e+00	0	25	0	436207616	64	4174
2026-01-07 06:33:14.70	68.61	14.62	-48.9	-50.3	14.8	0.00e+00	0	25	0	439353344	64	4113
2026-01-07 06:33:15.70	68.47	14.70	-49.0	-50.4	14.8	0.00e+00	0	25	0	442499072	64	4157
2026-01-07 06:33:16.69	68.34	14.78	-49.0	-50.4	14.8	0.00e+00	0	25	0	445644800	64	4157
2026-01-07 06:33:17.70	68.20	14.86	-49.1	-50.4	14.8	0.00e+00	0	25	0	448790528	64	4181
2026-01-07 06:33:18.70	68.06	14.94	-49.1	-50.5	14.7	0.00e+00	0	25	0	451936256	64	4202
2026-01-07 06:33:19.70	67.91	15.02	-49.2	-50.5	14.7	0.00e+00	0	25	0	455081984	64	4232
2026-01-07 06:33:20.70	67.77	15.10	-49.0	-50.3	14.8	0.00e+00	0	25	0	458227712	64	4142
2026-01-07 06:33:21.71	67.63	15.18	-49.0	-50.3	14.8	0.00e+00	0	25	0	460324864	64	4117
2026-01-07 06:33:22.70	67.48	15.26	-49.0	-50.4	14.8	0.00e+00	0	25	0	463470592	64	4160
2026-01-07 06:33:23.70	67.34	15.33	-49.0	-50.3	14.8	0.00e+00	0	25	0	466616320	64	4138
2026-01-07 06:33:24.71	67.19	15.42	-48.9	-50.3	14.8	0.00e+00	0	25	0	469762048	64	4113
2026-01-07 06:33:25.71	67.05	15.49	-49.0	-50.4	14.8	0.00e+00	0	25	0	472907776	64	4165
2026-01-07 06:33:26.71	66.90	15.57	-49.0	-50.3	14.8	0.00e+00	0	25	0	476053504	64	4121
2026-01-07 06:33:27.71	66.75	15.65	-49.0	-50.4	14.8	0.00e+00	0	25	0	479199232	64	4164
2026-01-07 06:33:28.71	66.60	15.73	-49.2	-50.6	14.7	0.00e+00	0	25	0	482344960	64	4256
2026-01-07 06:33:29.70	66.46	15.81	-49.1	-50.5	14.7	0.00e+00	0	25	0	485490688	64	4212
2026-01-07 06:33:30.70	66.31	15.89	-49.2	-50.6	14.7	0.00e+00	0	25	0	488636416	64	4273
2026-01-07 06:33:31.69	66.16	15.97	-49.2	-50.6	14.7	0.00e+00	0	25	0	491782144	64	4275
2026-01-07 06:33:32.69	66.00	16.05	-49.3	-50.6	14.7	0.00e+00	0	25	0	494927872	64	4283
2026-01-07 06:33:33.69	65.85	16.13	-49.4	-50.8	14.6	0.00e+00	0	25	0	498073600	64	4352
2026-01-07 06:33:34.69	65.70	16.21	-49.3	-50.7	14.6	0.00e+00	0	25	0	501219328	64	4326
2026-01-07 06:33:35.69	65.54	16.29	-49.4	-50.8	14.6	0.00e+00	0	25	0	504365056	64	4391
2026-01-07 06:33:36.69	65.39	16.37	-49.3	-50.7	14.6	0.00e+00	0	25	0	507510784	64	4322
2026-01-07 06:33:37.68	65.24	16.45	-49.3	-50.6	14.6	0.00e+00	0	25	0	510656512	64	4284
2026-01-07 06:33:38.68	65.08	16.53	-49.3	-50.7	14.6	0.00e+00	0	25	0	513802240	64	4297
2026-01-07 06:33:39.67	64.92	16.61	-49.3	-50.7	14.6	0.00e+00	0	25	0	516947968	64	4332
2026-01-07 06:33:40.67	64.76	16.69	-49.3	-50.7	14.6	0.00e+00	0	25	0	520093696	64	4322
2026-01-07 06:33:41.67	64.60	16.77	-49.4	-50.8	14.6	0.00e+00	0	25	0	523239424	64	4349
2026-01-07 06:33:42.66	64.45	16.85	-49.4	-50.8	14.6	0.00e+00	0	25	0	526385152	64	4371
2026-01-07 06:33:43.66	64.28	16.93	-49.3	-50.7	14.6	0.00e+00	0	25	0	529530880	64	4326
2026-01-07 06:33:44.65	64.12	17.01	-49.3	-50.6	14.7	0.00e+00	0	25	0	532676608	64	4291
2026-01-07 06:33:45.65	63.96	17.09	-49.2	-50.6	14.7	0.00e+00	0	25	0	535822336	64	4260
2026-01-07 06:33:46.64	63.80	17.17	-49.3	-50.7	14.6	0.00e+00	0	25	0	538968064	64	4299
2026-01-07 06:33:47.64	63.63	17.25	-49.2	-50.5	14.7	0.00e+00	0	25	0	542113792	64	4235
2026-01-07 06:33:48.63	63.47	17.33	-49.2	-50.6	14.7	0.00e+00	0	25	0	545259520	64	4257
2026-01-07 06:33:49.63	63.30	17.41	-49.3	-50.6	14.6	0.00e+00	0	25	0	548405248	64	4288
2026-01-07 06:33:50.62	63.14	17.49	-49.3	-50.7	14.6	0.00e+00	0	25	0	551550976	64	4294
2026-01-07 06:33:51.62	62.97	17.57	-49.1	-50.4	14.7	0.00e+00	0	25	0	554696704	64	4191
2026-01-07 06:33:52.62	62.80	17.65	-49.1	-50.4	14.7	0.00e+00	0	25	0	557842432	64	4186
2026-01-07 06:33:53.61	62.63	17.73	-49.1	-50.5	14.7	0.00e+00	0	25	0	560988160	64	4202
2026-01-07 06:33:54.61	62.46	17.82	-49.0	-50.3	14.8	0.00e+00	0	25	0	564133888	64	4128
2026-01-07 06:33:55.61	62.29	17.90	-49.0	-50.3	14.8	0.00e+00	0	25	0	567279616	64	4107
2026-01-07 06:33:56.61	62.12	17.98	-48.9	-50.2	14.9	0.00e+00	0	25	0	570425344	64	4084
2026-01-07 06:33:57.60	61.95	18.06	-48.9	-50.2	14.8	0.00e+00	0	25	0	572522496	64	4094
2026-01-07 06:33:58.60	61.77	18.14	-49.0	-50.4	14.8	0.00e+00	0	25	0	575668224	64	4147
2026-01-07 06:33:59.60	61.60	18.22	-49.1	-50.4	14.8	0.00e+00	0	25	0	578813952	64	4172
2026-01-07 06:34:00.60	61.42	18.30	-49.0	-50.3	14.8	0.00e+00	0	25	0	581959680	64	4128
2026-01-07 06:34:01.60	61.24	18.38	-48.8	-50.1	14.9	0.00e+00	0	25	0	585105408	64	4049
2026-01-07 06:34:02.60	61.06	18.46	-48.9	-50.2	14.9	0.00e+00	0	25	0	588251136	64	4069
2026-01-07 06:34:03.60	60.88	18.54	-48.8	-50.2	14.9	0.00e+00	0	25	0	591396864	64	4055
2026-01-07 06:34:04.61	60.70	18.62	-48.7	-50.0	14.9	0.00e+00	0	25	0	594542592	64	3981
2026-01-07 06:34:05.60	60.52	18.70	-48.7	-50.0	15.0	0.00e+00	0	25	0	597688320	64	3986
2026-01-07 06:34:06.60	60.34	18.78	-48.7	-50.0	14.9	0.00e+00	0	25	0	600834048	64	4004
2026-01-07 06:34:07.60	60.16	18.86	-48.7	-50.0	15.0	0.00e+00	0	25	0	603979776	64	3985
2026-01-07 06:34:08.61	59.97	18.94	-48.6	-49.9	14.8	0.00e+00	0	25	0	607125504	63	4193
2026-01-07 06:34:09.60	59.79	19.02	-48.7	-49.9	14.8	0.00e+00	0	25	0	610271232	63	4192
2026-01-07 06:34:10.60	59.60	19.10	-48.6	-49.9	14.9	0.00e+00	0	25	0	613416960	63	4163
2026-01-07 06:34:11.60	59.41	19.18	-48.6	-49.9	14.9	0.00e+00	0	25	0	616562688	63	4147
2026-01-07 06:34:12.61	59.22	19.26	-48.5	-49.8	14.9	0.00e+00	0	25	0	619708416	63	4112
2026-01-07 06:34:13.61	59.03	19.34	-48.5	-49.7	14.9	0.00e+00	0	25	0	622854144	63	4092
2026-01-07 06:34:14.61	58.84	19.42	-48.4	-49.7	14.9	0.00e+00	0	25	0	625999872	63	4077
2026-01-07 06:34:15.61	58.65	19.50	-48.4	-49.6	15.0	0.00e+00	0	25	0	629145600	63	4039
2026-01-07 06:34:16.61	58.46	19.58	-48.3	-49.6	15.0	0.00e+00	0	25	0	632291328	63	4008
2026-01-07 06:34:17.61	58.27	19.66	-48.2	-49.4	15.1	0.00e+00	0	25	0	635437056	63	3950
2026-01-07 06:34:18.61	58.07	19.74	-48.3	-49.5	15.0	0.00e+00	0	25	0	638582784	63	3981
2026-01-07 06:34:19.61	57.88	19.82	-48.4	-49.6	15.0	0.00e+00	0	25	0	641728512	63	4033
2026-01-07 06:34:20.61	57.68	19.90	-48.4	-49.7	14.9	0.00e+00	0	25	0	644874240	63	4059
2026-01-07 06:34:21.61	57.48	19.98	-48.5	-49.8	14.9	0.00e+00	0	25	0	648019968	63	4110
2026-01-07 06:34:22.61	57.29	20.06	-48.6	-49.9	14.9	0.00e+00	0	25	0	651165696	63	4150
2026-01-07 06:34:23.60	57.09	20.14	-48.6	-49.8	14.9	0.00e+00	0	25	0	654311424	63	4140
2026-01-07 06:34:24.60	56.89	20.22	-48.6	-49.9	14.9	0.00e+00	0	25	0	657457152	63	4170
2026-01-07 06:34:25.59	56.69	20.29	-48.5	-49.8	14.9	0.00e+00	0	25	0	660602880	63	4118
2026-01-07 06:34:26.58	56.49	20.37	-48.5	-49.8	14.9	0.00e+00	0	25	0	663748608	63	4113
2026-01-07 06:34:27.58	56.28	20.45	-48.5	-49.8	14.9	0.00e+00	0	25	0	666894336	63	4101
2026-01-07 06:34:28.57	56.08	20.53	-48.5	-49.8	14.9	0.00e+00	0	25	0	670040064	63	4115
2026-01-07 06:34:29.58	55.87	20.61	-48.6	-49.9	14.9	0.00e+00	0	25	0	673185792	63	4177
2026-01-07 06:34:30.57	55.67	20.68	-48.5	-49.8	14.9	0.00e+00	0	25	0	676331520	63	4123
2026-01-07 06:34:31.57	55.46	20.76	-48.5	-49.8	14.9	0.00e+00	0	25	0	679477248	63	4119
2026-01-07 06:34:32.57	55.25	20.84	-48.5	-49.8	14.9	0.00e+00	0	25	0	682622976	63	4116
2026-01-07 06:34:33.57	55.04	20.92	-48.5	-49.8	14.9	0.00e+00	0	25	0	685768704	63	4120
2026-01-07 06:34:34.57	54.83	21.00	-48.5	-49.8	14.9	0.00e+00	0	25	0	688914432	63	4113
2026-01-07 06:34:35.57	54.62	21.07	-48.3	-49.5	15.1	0.00e+00	0	25	0	692060160	63	3979
2026-01-07 06:34:36.57	54.41	21.15	-48.3	-49.5	15.0	0.00e+00	0	25	0	695205888	63	3992
2026-01-07 06:34:37.57	54.19	21.23	-48.2	-49.4	14.9	0.00e+00	0	25	0	698351616	62	4182
2026-01-07 06:34:38.57	53.98	21.30	-48.0	-49.2	15.0	0.00e+00	0	25	0	701497344	62	4073
2026-01-07 06:34:39.56	53.76	21.38	-48.0	-49.2	15.0	0.00e+00	0	25	0	704643072	62	4098
2026-01-07 06:34:40.56	53.55	21.46	-48.0	-49.2	15.0	0.00e+00	0	25	0	706740224	62	4092
2026-01-07 06:34:41.56	53.33	21.53	-48.2	-49.4	14.9	0.00e+00	0	25	0	709885952	62	4183
2026-01-07 06:34:42.56	53.11	21.61	-48.1	-49.4	15.0	0.00e+00	0	25	0	714080256	62	4162
2026-01-07 06:34:43.56	52.89	21.68	-48.1	-49.3	15.0	0.00e+00	0	25	0	717225984	62	4129
2026-01-07 06:34:44.56	52.66	21.76	-48.1	-49.4	15.0	0.00e+00	0	25	0	719323136	62	4158
2026-01-07 06:34:45.55	52.44	21.83	-48.0	-49.3	15.0	0.00e+00	0	25	0	722468864	62	4102
2026-01-07 06:34:46.56	52.22	21.91	-48.1	-49.4	15.0	0.00e+00	0	25	0	725614592	62	4155
2026-01-07 06:34:47.56	51.99	21.98	-48.2	-49.4	14.9	0.00e+00	0	25	0	728760320	62	4179
2026-01-07 06:34:48.56	51.77	22.06	-48.2	-49.5	14.9	0.00e+00	0	25	0	731906048	62	4201
2026-01-07 06:34:49.56	51.54	22.13	-48.2	-49.5	14.9	0.00e+00	0	25	0	735051776	62	4202
2026-01-07 06:34:50.56	51.31	22.20	-48.3	-49.6	14.9	0.00e+00	0	25	0	738197504	62	4257
2026-01-07 06:34:51.56	51.08	22.28	-48.4	-49.6	14.9	0.00e+00	0	25	0	741343232	62	4277
2026-01-07 06:34:52.55	50.85	22.35	-48.4	-49.6	14.9	0.00e+00	0	25	0	744488960	62	4274
2026-01-07 06:34:53.56	50.62	22.42	-48.4	-49.6	14.9	0.00e+00	0	25	0	747634688	62	4276
2026-01-07 06:34:54.57	50.38	22.50	-48.4	-49.6	14.8	0.00e+00	0	25	0	750780416	62	4282
2026-01-07 06:34:55.56	50.15	22.57	-48.3	-49.5	14.9	0.00e+00	0	25	0	753926144	62	4216
2026-01-07 06:34:56.56	49.92	22.64	-48.3	-49.5	14.9	0.00e+00	0	25	0	757071872	62	4223
2026-01-07 06:34:57.56	49.68	22.71	-48.2	-49.5	14.9	0.00e+00	0	25	0	760217600	62	4199
2026-01-07 06:34:58.57	49.44	22.79	-48.3	-49.5	14.9	0.00e+00	0	25	0	763363328	62	4229
2026-01-07 06:34:59.57	49.20	22.86	-48.2	-49.5	14.9	0.00e+00	0	25	0	766509056	62	4196
2026-01-07 06:35:00.56	48.97	22.93	-48.3	-49.5	14.9	0.00e+00	0	25	0	769654784	62	4211
2026-01-07 06:35:01.57	48.72	23.00	-48.4	-49.6	14.9	0.00e+00	0	25	0	772800512	62	4291
2026-01-07 06:35:02.57	48.48	23.07	-48.4	-49.7	14.8	0.00e+00	0	25	0	775946240	62	4315
2026-01-07 06:35:03.57	48.24	23.14	-48.4	-49.7	14.8	0.00e+00	0	25	0	779091968	62	4319
2026-01-07 06:35:04.57	48.00	23.21	-48.5	-49.7	14.8	0.00e+00	0	25	0	782237696	62	4330
2026-01-07 06:35:05.57	47.75	23.28	-48.3	-49.5	14.9	0.00e+00	0	25	0	785383424	62	4219
2026-01-07 06:35:06.57	47.51	23.34	-48.5	-49.7	14.8	0.00e+00	0	25	0	788529152	62	4325
2026-01-07 06:35:07.57	47.26	23.41	-48.3	-49.6	14.9	0.00e+00	0	25	0	791674880	62	4259
2026-01-07 06:35:08.57	47.01	23.48	-48.5	-49.8	14.8	0.00e+00	0	25	0	794820608	62	4353
2026-01-07 06:35:09.57	46.76	23.55	-48.5	-49.7	14.8	0.00e+00	0	25	0	797966336	62	4323
2026-01-07 06:35:10.57	46.51	23.61	-48.5	-49.8	14.8	0.00e+00	0	25	0	801112064	62	4362
2026-01-07 06:35:11.57	46.26	23.68	-48.6	-49.9	14.8	0.00e+00	0	25	0	804257792	62	4404
2026-01-07 06:35:12.58	46.01	23.75	-48.6	-49.9	14.8	0.00e+00	0	25	0	807403520	62	4432
2026-01-07 06:35:13.58	45.75	23.81	-48.7	-50.0	14.7	0.00e+00	0	25	0	810549248	62	4484
2026-01-07 06:35:14.57	45.50	23.88	-48.6	-49.9	14.7	0.00e+00	0	25	0	813694976	62	4429
2026-01-07 06:35:15.57	45.25	23.94	-48.6	-49.9	14.8	0.00e+00	0	25	0	816840704	62	4425
2026-01-07 06:35:16.57	44.99	24.01	-48.5	-49.8	14.8	0.00e+00	0	25	0	819986432	62	4353
2026-01-07 06:35:17.57	44.73	24.07	-48.4	-49.7	14.8	0.00e+00	0	25	0	823132160	62	4295
2026-01-07 06:35:18.57	44.47	24.13	-48.4	-49.6	14.9	0.00e+00	0	25	0	826277888	62	4261
2026-01-07 06:35:19.57	44.21	24.20	-48.4	-49.7	14.8	0.00e+00	0	25	0	829423616	62	4316
2026-01-07 06:35:20.57	43.95	24.26	-48.5	-49.7	14.8	0.00e+00	0	25	0	832569344	62	4335
2026-01-07 06:35:21.57	43.69	24.32	-48.5	-49.7	14.8	0.00e+00	0	25	0	835715072	62	4337
2026-01-07 06:35:22.58	43.42	24.38	-48.4	-49.6	14.9	0.00e+00	0	25	0	838860800	62	4261
2026-01-07 06:35:23.58	43.16	24.44	-48.4	-49.7	14.8	0.00e+00	0	25	0	842006528	62	4312
2026-01-07 06:35:24.58	42.90	24.50	-48.3	-49.5	14.9	0.00e+00	0	25	0	845152256	62	4233
2026-01-07 06:35:25.58	42.63	24.56	-48.3	-49.5	14.9	0.00e+00	0	25	0	848297984	62	4238
2026-01-07 06:35:26.58	42.36	24.62	-48.3	-49.6	14.9	0.00e+00	0	25	0	851443712	62	4243
2026-01-07 06:35:27.58	42.09	24.68	-48.4	-49.7	14.8	0.00e+00	0	25	0	854589440	62	4310
2026-01-07 06:35:28.57	41.83	24.74	-48.6	-49.9	14.8	0.00e+00	0	25	0	857735168	62	4410
2026-01-07 06:35:29.58	41.56	24.80	-48.7	-50.0	14.7	0.00e+00	0	25	0	860880896	62	4471
2026-01-07 06:35:30.58	41.29	24.85	-48.9	-50.2	14.7	0.00e+00	0	25	0	864026624	62	4572
2026-01-07 06:35:31.57	41.02	24.91	-48.7	-50.0	14.7	0.00e+00	0	25	0	867172352	62	4489
2026-01-07 06:35:32.57	40.74	24.96	-48.7	-50.0	14.7	0.00e+00	0	25	0	870318080	62	4478
2026-01-07 06:35:33.58	40.47	25.02	-48.7	-49.9	14.8	0.00e+00	0	25	0	873463808	62	4432
2026-01-07 06:35:34.58	40.19	25.07	-48.6	-49.8	14.8	0.00e+00	0	25	0	876609536	62	4377
2026-01-07 06:35:35.58	39.92	25.13	-48.5	-49.8	14.8	0.00e+00	0	25	0	879755264	62	4373
2026-01-07 06:35:36.59	39.64	25.18	-48.5	-49.7	14.8	0.00e+00	0	25	0	882900992	62	4325
2026-01-07 06:35:37.59	39.36	25.24	-48.4	-49.6	14.9	0.00e+00	0	25	0	886046720	62	4281
2026-01-07 06:35:38.59	39.08	25.29	-48.3	-49.5	14.9	0.00e+00	0	25	0	888143872	62	4221
2026-01-07 06:35:39.59	38.80	25.34	-48.3	-49.5	14.9	0.00e+00	0	25	0	891289600	62	4227
2026-01-07 06:35:40.59	38.52	25.39	-48.2	-49.4	15.0	0.00e+00	0	25	0	894435328	62	4170
2026-01-07 06:35:41.59	38.24	25.44	-48.3	-49.5	14.9	0.00e+00	0	25	0	897581056	62	4222
2026-01-07 06:35:42.58	37.96	25.49	-48.2	-49.4	15.0	0.00e+00	0	25	0	900726784	62	4166
2026-01-07 06:35:43.59	37.67	25.54	-48.1	-49.4	15.0	0.00e+00	0	25	0	903872512	62	4149
2026-01-07 06:35:44.59	37.39	25.59	-48.2	-49.4	15.0	0.00e+00	0	25	0	907018240	62	4159
2026-01-07 06:35:45.59	37.11	25.63	-48.2	-49.5	14.9	0.00e+00	0	25	0	910163968	62	4201
2026-01-07 06:35:46.59	36.82	25.68	-48.1	-49.3	15.0	0.00e+00	0	25	0	913309696	62	4107
2026-01-07 06:35:47.58	36.54	25.72	-48.2	-49.4	15.0	0.00e+00	0	25	0	916455424	62	4177
2026-01-07 06:35:48.58	36.25	25.77	-48.2	-49.4	15.0	0.00e+00	0	25	0	919601152	62	4175
2026-01-07 06:35:49.58	35.96	25.81	-48.2	-49.4	14.9	0.00e+00	0	25	0	922746880	62	4169
2026-01-07 06:35:50.58	35.67	25.86	-48.1	-49.3	15.0	0.00e+00	0	25	0	925892608	62	4127
2026-01-07 06:35:51.58	35.38	25.90	-48.1	-49.3	15.0	0.00e+00	0	25	0	929038336	62	4125
2026-01-07 06:35:52.59	35.09	25.94	-48.2	-49.4	14.9	0.00e+00	0	25	0	932184064	62	4176
2026-01-07 06:35:53.59	34.80	25.99	-47.9	-49.1	15.1	0.00e+00	0	25	0	935329792	62	4040
2026-01-07 06:35:54.59	34.51	26.03	-47.9	-49.1	15.0	0.00e+00	0	25	0	938475520	62	4041
2026-01-07 06:35:55.59	34.21	26.07	-47.9	-49.1	15.1	0.00e+00	0	25	0	941621248	62	4017
2026-01-07 06:35:56.59	33.92	26.11	-48.0	-49.2	15.0	0.00e+00	0	25	0	944766976	62	4055
2026-01-07 06:35:57.59	33.62	26.14	-47.9	-49.0	15.1	0.00e+00	0	25	0	947912704	62	4001
2026-01-07 06:35:58.59	33.33	26.18	-47.9	-49.0	15.1	0.00e+00	0	25	0	951058432	62	3999
2026-01-07 06:35:59.60	33.03	26.22	-48.0	-49.2	15.0	0.00e+00	0	25	0	954204160	62	4052
2026-01-07 06:36:00.60	32.74	26.26	-48.0	-49.2	15.0	0.00e+00	0	25	0	957349888	62	4053
2026-01-07 06:36:01.59	32.44	26.29	-48.1	-49.3	15.0	0.00e+00	0	25	0	960495616	62	4132
2026-01-07 06:36:02.60	32.14	26.33	-48.1	-49.3	15.0	0.00e+00	0	25	0	963641344	62	4111
2026-01-07 06:36:03.61	31.84	26.36	-48.0	-49.2	15.0	0.00e+00	0	25	0	966787072	62	4086
2026-01-07 06:36:04.61	31.54	26.39	-48.1	-49.3	15.0	0.00e+00	0	25	0	969932800	62	4105
2026-01-07 06:36:05.61	31.24	26.42	-48.1	-49.3	15.0	0.00e+00	0	25	0	973078528	62	4136
2026-01-07 06:36:06.61	30.94	26.46	-48.2	-49.5	14.9	0.00e+00	0	25	0	976224256	62	4201
2026-01-07 06:36:07.62	30.64	26.49	-48.2	-49.4	14.9	0.00e+00	0	25	0	979369984	62	4193
2026-01-07 06:36:08.62	30.34	26.52	-48.2	-49.4	15.0	0.00e+00	0	25	0	982515712	62	4161
2026-01-07 06:36:09.63	30.03	26.55	-48.1	-49.3	15.0	0.00e+00	0	25	0	985661440	62	4111
2026-01-07 06:36:10.63	29.73	26.57	-48.1	-49.3	15.0	0.00e+00	0	25	0	988807168	62	4128
2026-01-07 06:36:11.63	29.43	26.60	-48.3	-49.5	14.9	0.00e+00	0	25	0	991952896	62	4206
2026-01-07 06:36:12.63	29.12	26.63	-48.3	-49.5	14.9	0.00e+00	0	25	0	995098624	62	4205
2026-01-07 06:36:13.63	28.82	26.65	-48.3	-49.6	14.9	0.00e+00	0	25	0	998244352	62	4253
2026-01-07 06:36:14.64	28.51	26.68	-48.3	-49.6	14.9	0.00e+00	0	25	0	1001390080	62	4246
2026-01-07 06:36:15.64	28.21	26.70	-48.4	-49.7	14.9	0.00e+00	0	25	0	1004535808	62	4297
2026-01-07 06:36:16.64	27.90	26.72	-48.3	-49.5	14.9	0.00e+00	0	25	0	1007681536	62	4236
2026-01-07 06:36:17.64	27.59	26.74	-48.2	-49.4	14.9	0.00e+00	0	25	0	1010827264	62	4168
2026-01-07 06:36:18.64	27.29	26.76	-48.3	-49.5	14.9	0.00e+00	0	25	0	1013972992	62	4202
2026-01-07 06:36:19.64	26.98	26.78	-48.3	-49.5	14.9	0.00e+00	0	25	0	1017118720	62	4225
2026-01-07 06:36:20.64	26.67	26.80	-48.3	-49.6	14.9	0.00e+00	0	25	0	1020264448	62	4252
2026-01-07 06:36:21.65	26.36	26.82	-48.5	-49.8	14.8	0.00e+00	0	25	0	1023410176	62	4345
2026-01-07 06:36:22.65	26.06	26.84	-48.7	-50.0	14.8	0.00e+00	0	25	0	1026555904	62	4442
2026-01-07 06:36:23.66	25.75	26.86	-48.7	-50.0	14.7	0.00e+00	0	25	0	1029701632	62	4458
2026-01-07 06:36:24.66	25.44	26.87	-48.8	-50.0	14.7	0.00e+00	0	25	0	1032847360	62	4487
2026-01-07 06:36:25.66	25.13	26.89	-48.8	-50.1	14.7	0.00e+00	0	25	0	1035993088	62	4532
2026-01-07 06:36:26.66	24.82	26.90	-48.8	-50.1	14.7	0.00e+00	0	25	0	1039138816	62	4519
2026-01-07 06:36:27.67	24.51	26.91	-48.7	-49.9	14.8	0.00e+00	0	25	0	1042284544	62	4424
2026-01-07 06:36:28.67	24.20	26.92	-48.6	-49.8	14.8	0.00e+00	0	25	0	1045430272	62	4376
2026-01-07 06:36:29.68	23.89	26.94	-48.4	-49.7	14.8	0.00e+00	0	25	0	1048576000	62	4304
2026-01-07 06:36:30.68	23.58	26.95	-48.3	-49.6	14.9	0.00e+00	0	25	0	1051721728	62	4251
2026-01-07 06:36:31.67	23.27	26.95	-48.4	-49.7	14.9	0.00e+00	0	25	0	1054867456	62	4307
2026-01-07 06:36:32.67	22.96	26.96	-48.4	-49.6	14.9	0.00e+00	0	25	0	1058013184	62	4279
2026-01-07 06:36:33.67	22.65	26.97	-48.4	-49.7	14.8	0.00e+00	0	25	0	1061158912	62	4300
2026-01-07 06:36:34.67	22.34	26.98	-48.5	-49.7	14.8	0.00e+00	0	25	0	1064304640	62	4338
2026-01-07 06:36:35.67	22.03	26.98	-48.5	-49.8	14.8	0.00e+00	0	25	0	1067450368	62	4344
2026-01-07 06:36:36.66	21.72	26.99	-48.4	-49.6	14.9	0.00e+00	0	25	0	1070596096	62	4266
2026-01-07 06:36:37.66	21.41	26.99	-48.4	-49.6	14.9	0.00e+00	0	25	0	1072693248	62	4274
2026-01-07 06:36:38.66	21.10	26.99	-48.5	-49.7	14.8	0.00e+00	0	25	0	1076887552	62	4326
2026-01-07 06:36:39.67	20.79	26.99	-48.5	-49.8	14.8	0.00e+00	0	25	0	1080033280	62	4342
2026-01-07 06:36:40.67	20.48	26.99	-48.6	-49.9	14.8	0.00e+00	0	25	0	1083179008	62	4400
2026-01-07 06:36:41.65	20.17	26.99	-48.7	-50.0	14.8	0.00e+00	0	25	0	1085276160	62	4449
2026-01-07 06:36:42.64	19.86	26.99	-48.7	-50.0	14.8	0.00e+00	0	25	0	1088421888	62	4460
2026-01-07 06:36:43.63	19.56	26.99	-48.7	-50.0	14.7	0.00e+00	0	25	0	1091567616	62	4480
2026-01-07 06:36:44.63	19.24	26.99	-48.7	-50.0	14.9	0.00e+00	0	25	0	1094713344	63	4194
2026-01-07 06:36:45.63	18.93	26.98	-48.5	-49.7	15.0	0.00e+00	0	25	0	1097859072	63	4080
2026-01-07 06:36:46.63	18.62	26.98	-48.4	-49.6	15.0	0.00e+00	0	25	0	1101004800	63	4048
2026-01-07 06:36:47.64	18.31	26.97	-48.4	-49.7	15.0	0.00e+00	0	25	0	1104150528	63	4058
2026-01-07 06:36:48.63	18.00	26.97	-48.1	-49.3	15.0	0.00e+00	0	25	0	1107296256	62	4136
2026-01-07 06:36:49.64	17.69	26.96	-48.3	-49.5	14.9	0.00e+00	0	25	0	1110441984	62	4211
2026-01-07 06:36:50.63	17.38	26.95	-48.1	-49.3	15.0	0.00e+00	0	25	0	1113587712	62	4137
2026-01-07 06:36:51.63	17.07	26.94	-48.1	-49.3	15.0	0.00e+00	0	25	0	1116733440	62	4103
2026-01-07 06:36:52.63	16.76	26.93	-48.2	-49.4	15.0	0.00e+00	0	25	0	1119879168	62	4165
2026-01-07 06:36:53.62	16.46	26.92	-48.1	-49.3	15.0	0.00e+00	0	25	0	1123024896	62	4132
2026-01-07 06:36:54.63	16.15	26.91	-48.2	-49.4	15.0	0.00e+00	0	25	0	1126170624	62	4160
2026-01-07 06:36:55.64	15.83	26.89	-48.2	-49.4	14.9	0.00e+00	0	25	0	1129316352	62	4190
2026-01-07 06:36:56.64	15.52	26.88	-48.2	-49.4	14.9	0.00e+00	0	25	0	1132462080	62	4176
2026-01-07 06:36:57.64	15.22	26.86	-48.2	-49.4	14.9	0.00e+00	0	25	0	1135607808	62	4190
2026-01-07 06:36:58.64	14.91	26.85	-48.3	-49.6	14.9	0.00e+00	0	25	0	1138753536	62	4244
2026-01-07 06:36:59.64	14.60	26.83	-48.4	-49.6	14.9	0.00e+00	0	25	0	1141899264	62	4289
2026-01-07 06:37:00.65	14.29	26.81	-48.5	-49.7	14.8	0.00e+00	0	25	0	1145044992	62	4336
2026-01-07 06:37:01.64	13.99	26.79	-48.5	-49.7	14.8	0.00e+00	0	25	0	1148190720	62	4337
2026-01-07 06:37:02.64	13.68	26.77	-48.4	-49.6	14.9	0.00e+00	0	25	0	1151336448	62	4289
2026-01-07 06:37:03.64	13.37	26.75	-48.4	-49.7	14.8	0.00e+00	0	25	0	1154482176	62	4297
2026-01-07 06:37:04.63	13.07	26.73	-48.4	-49.6	14.9	0.00e+00	0	25	0	1157627904	62	4274
2026-01-07 06:37:05.63	12.77	26.71	-48.4	-49.6	14.9	0.00e+00	0	25	0	1160773632	62	4281
2026-01-07 06:37:06.63	12.46	26.69	-48.4	-49.6	14.9	0.00e+00	0	25	0	1163919360	62	4276
2026-01-07 06:37:07.63	12.16	26.66	-48.4	-49.6	14.9	0.00e+00	0	25	0	1167065088	62	4286
2026-01-07 06:37:08.63	11.85	26.64	-48.3	-49.6	14.9	0.00e+00	0	25	0	1170210816	62	4249
2026-01-07 06:37:09.63	11.55	26.61	-48.3	-49.5	14.9	0.00e+00	0	25	0	1173356544	62	4211
2026-01-07 06:37:10.63	11.25	26.59	-48.3	-49.5	14.9	0.00e+00	0	25	0	1176502272	62	4219
2026-01-07 06:37:11.63	10.94	26.56	-48.3	-49.6	14.9	0.00e+00	0	25	0	1179648000	62	4250
2026-01-07 06:37:12.63	10.64	26.53	-48.2	-49.4	15.0	0.00e+00	0	25	0	1182793728	62	4170
2026-01-07 06:37:13.63	10.34	26.50	-48.3	-49.5	14.9	0.00e+00	0	25	0	1185939456	62	4212
2026-01-07 06:37:14.62	10.04	26.47	-48.4	-49.6	14.9	0.00e+00	0	25	0	1189085184	62	4270
2026-01-07 06:37:15.62	9.74	26.44	-48.4	-49.6	14.9	0.00e+00	0	25	0	1192230912	62	4288
2026-01-07 06:37:16.63	9.44	26.41	-48.3	-49.5	14.9	0.00e+00	0	25	0	1195376640	62	4233
2026-01-07 06:37:17.63	9.14	26.38	-48.2	-49.4	14.9	0.00e+00	0	25	0	1198522368	62	4189
2026-01-07 06:37:18.62	8.84	26.34	-48.2	-49.4	14.9	0.00e+00	0	25	0	1201668096	62	4178
2026-01-07 06:37:19.63	8.54	26.31	-48.2	-49.4	14.9	0.00e+00	0	25	0	1204813824	62	4173
2026-01-07 06:37:20.63	8.25	26.27	-48.2	-49.4	15.0	0.00e+00	0	25	0	1207959552	62	4176
2026-01-07 06:37:21.63	7.95	26.24	-48.1	-49.3	15.0	0.00e+00	0	25	0	1211105280	62	4140
2026-01-07 06:37:22.64	7.65	26.20	-48.0	-49.2	15.0	0.00e+00	0	25	0	1214251008	62	4074
2026-01-07 06:37:23.63	7.36	26.16	-48.0	-49.2	15.0	0.00e+00	0	25	0	1217396736	62	4078
2026-01-07 06:37:24.64	7.06	26.13	-48.1	-49.2	15.0	0.00e+00	0	25	0	1220542464	62	4096
2026-01-07 06:37:25.63	6.77	26.09	-48.1	-49.3	15.0	0.00e+00	0	25	0	1223688192	62	4101
2026-01-07 06:37:26.63	6.48	26.05	-48.1	-49.3	15.0	0.00e+00	0	25	0	1226833920	62	4114
2026-01-07 06:37:27.63	6.19	26.01	-48.2	-49.4	14.9	0.00e+00	0	25	0	1228931072	62	4191
2026-01-07 06:37:28.64	5.89	25.97	-48.2	-49.4	14.9	0.00e+00	0	25	0	1232076800	62	4176
2026-01-07 06:37:29.63	5.60	25.92	-48.1	-49.3	15.0	0.00e+00	0	25	0	1235222528	62	4116
2026-01-07 06:37:30.63	5.31	25.88	-48.2	-49.3	15.0	0.00e+00	0	25	0	1238368256	62	4143
2026-01-07 06:37:31.63	5.03	25.84	-48.1	-49.3	15.0	0.00e+00	0	25	0	1241513984	62	4102
2026-01-07 06:37:32.63	4.74	25.79	-48.2	-49.4	15.0	0.00e+00	0	25	0	1244659712	62	4151
2026-01-07 06:37:33.63	4.45	25.75	-48.1	-49.3	15.0	0.00e+00	0	25	0	1247805440	62	4113
2026-01-07 06:37:34.64	4.16	25.70	-48.1	-49.3	15.0	0.00e+00	0	25	0	1250951168	62	4135
2026-01-07 06:37:35.64	3.87	25.66	-48.3	-49.5	14.9	0.00e+00	0	25	0	1254096896	62	4194
2026-01-07 06:37:36.64	3.59	25.61	-48.2	-49.4	14.9	0.00e+00	0	25	0	1257242624	62	4160
2026-01-07 06:37:37.65	3.30	25.56	-48.2	-49.4	15.0	0.00e+00	0	25	0	1260388352	62	4173
2026-01-07 06:37:38.64	3.02	25.51	-48.2	-49.4	14.9	0.00e+00	0	25	0	1263534080	62	4193
2026-01-07 06:37:39.65	2.74	25.46	-48.2	-49.4	14.9	0.00e+00	0	25	0	1266679808	62	4172
2026-01-07 06:37:40.65	2.46	25.41	-48.2	-49.4	15.0	0.00e+00	0	25	0	1269825536	62	4171
2026-01-07 06:37:41.65	2.18	25.36	-48.2	-49.4	14.9	0.00e+00	0	25	0	1272971264	62	4179
2026-01-07 06:37:42.65	1.90	25.31	-48.2	-49.4	15.0	0.00e+00	0	25	0	1276116992	62	4156
2026-01-07 06:37:43.65	1.62	25.26	-48.3	-49.5	14.9	0.00e+00	0	25	0	1279262720	62	4214
2026-01-07 06:37:44.66	1.34	25.21	-48.5	-49.7	14.8	0.00e+00	0	25	0	1282408448	62	4305
2026-01-07 06:37:45.65	1.06	25.16	-48.4	-49.6	14.9	0.00e+00	0	25	0	1285554176	62	4255
2026-01-07 06:37:46.64	0.79	25.10	-48.4	-49.6	14.9	0.00e+00	0	25	0	1288699904	62	4264
2026-01-07 06:37:47.64	0.51	25.05	-48.4	-49.6	14.9	0.00e+00	0	25	0	1291845632	62	4286
2026-01-07 06:37:48.64	0.24	24.99	-48.4	-49.6	14.9	0.00e+00	0	25	0	1294991360	62	4272
2026-01-07 06:37:49.64	359.97	24.94	-48.4	-49.6	14.9	0.00e+00	0	25	0	1298137088	62	4255
2026-01-07 06:37:50.64	359.70	24.88	-48.4	-49.7	14.8	0.00e+00	0	25	0	1301282816	62	4298
2026-01-07 06:37:51.64	359.42	24.83	-48.5	-49.8	14.8	0.00e+00	0	25	0	1304428544	62	4343
2026-01-07 06:37:52.64	359.15	24.77	-48.5	-49.8	14.8	0.00e+00	0	25	0	1307574272	62	4362
2026-01-07 06:37:53.64	358.88	24.71	-48.7	-49.9	14.8	0.00e+00	0	25	0	1310720000	62	4423
2026-01-07 06:37:54.64	358.62	24.65	-48.6	-49.9	14.8	0.00e+00	0	25	0	1313865728	62	4411
2026-01-07 06:37:55.64	358.35	24.59	-48.7	-50.0	14.7	0.00e+00	0	25	0	1317011456	62	4445
2026-01-07 06:37:56.64	358.08	24.54	-48.3	-49.5	14.9	0.00e+00	0	25	0	1320157184	62	4238
2026-01-07 06:37:57.65	357.82	24.48	-48.2	-49.4	14.9	0.00e+00	0	25	0	1323302912	62	4174
2026-01-07 06:37:58.65	357.55	24.41	-48.2	-49.4	14.9	0.00e+00	0	25	0	1326448640	62	4193
2026-01-07 06:37:59.66	357.29	24.35	-48.2	-49.4	14.9	0.00e+00	0	25	0	1329594368	62	4167
2026-01-07 06:38:00.66	357.02	24.29	-48.2	-49.5	14.9	0.00e+00	0	25	0	1332740096	62	4198
2026-01-07 06:38:01.66	356.76	24.23	-48.6	-49.8	14.8	0.00e+00	0	25	0	1335885824	62	4376
2026-01-07 06:38:02.66	356.50	24.17	-48.7	-50.0	14.7	0.00e+00	0	25	0	1339031552	62	4450
2026-01-07 06:38:03.66	356.24	24.10	-48.8	-50.1	14.7	0.00e+00	0	25	0	1342177280	62	4512
2026-01-07 06:38:04.66	355.99	24.04	-48.8	-50.1	14.7	0.00e+00	0	25	0	1345323008	62	4512
2026-01-07 06:38:05.66	355.73	23.98	-48.8	-50.1	14.7	0.00e+00	0	25	0	1348468736	62	4507
2026-01-07 06:38:06.66	355.47	23.91	-48.6	-49.8	14.8	0.00e+00	0	25	0	1351614464	62	4357
2026-01-07 06:38:07.67	355.22	23.85	-48.4	-49.6	14.8	0.00e+00	0	25	0	1354760192	62	4267
2026-01-07 06:38:08.67	354.96	23.78	-47.9	-49.0	15.1	0.00e+00	0	25	0	1357905920	62	3996
2026-01-07 06:38:09.67	354.71	23.72	-47.7	-48.8	15.2	0.00e+00	0	25	0	1361051648	62	3891
2026-01-07 06:38:10.67	354.46	23.65	-47.5	-48.7	15.1	0.00e+00	0	25	0	1364197376	61	4052
2026-01-07 06:38:11.67	354.21	23.58	-47.7	-48.9	15.0	0.00e+00	0	25	0	1367343104	61	4172
2026-01-07 06:38:12.66	353.96	23.52	-48.0	-49.2	14.9	0.00e+00	0	25	0	1370488832	61	4301
2026-01-07 06:38:13.66	353.71	23.45	-48.2	-49.4	14.8	0.00e+00	0	25	0	1373634560	61	4415
2026-01-07 06:38:14.67	353.46	23.38	-48.3	-49.5	14.8	0.00e+00	0	25	0	1376780288	61	4490
2026-01-07 06:38:15.67	353.22	23.31	-48.4	-49.6	14.7	0.00e+00	0	25	0	1379926016	61	4542
2026-01-07 06:38:16.67	352.97	23.24	-48.4	-49.6	14.9	0.00e+00	0	25	0	1383071744	62	4265
2026-01-07 06:38:17.67	352.73	23.18	-48.3	-49.5	14.9	0.00e+00	0	25	0	1386217472	62	4236
2026-01-07 06:38:18.68	352.48	23.11	-48.3	-49.5	14.9	0.00e+00	0	25	0	1389363200	62	4217
2026-01-07 06:38:19.67	352.25	23.04	-48.2	-49.4	14.9	0.00e+00	0	25	0	1392508928	62	4184
2026-01-07 06:38:20.67	352.01	22.97	-48.2	-49.4	14.9	0.00e+00	0	25	0	1395654656	62	4165
2026-01-07 06:38:21.67	351.77	22.90	-48.2	-49.4	14.9	0.00e+00	0	25	0	1398800384	62	4179
2026-01-07 06:38:22.68	351.52	22.82	-48.2	-49.4	14.9	0.00e+00	0	25	0	1401946112	62	4178
2026-01-07 06:38:23.68	351.29	22.75	-48.2	-49.4	15.0	0.00e+00	0	25	0	1405091840	62	4155
2026-01-07 06:38:24.68	351.05	22.68	-48.2	-49.4	15.0	0.00e+00	0	25	0	1408237568	62	4161
2026-01-07 06:38:25.67	350.82	22.61	-48.1	-49.3	15.0	0.00e+00	0	25	0	1410334720	62	4136
2026-01-07 06:38:26.67	350.58	22.54	-48.1	-49.3	15.0	0.00e+00	0	25	0	1413480448	62	4131
2026-01-07 06:38:27.66	350.35	22.47	-48.1	-49.3	15.0	0.00e+00	0	25	0	1416626176	62	4099
2026-01-07 06:38:28.66	350.12	22.39	-48.1	-49.3	15.0	0.00e+00	0	25	0	1419771904	62	4105
2026-01-07 06:38:29.66	349.89	22.32	-48.2	-49.4	14.9	0.00e+00	0	25	0	1422917632	62	4161
2026-01-07 06:38:30.66	349.66	22.25	-48.2	-49.4	14.9	0.00e+00	0	25	0	1426063360	62	4186
2026-01-07 06:38:31.66	349.43	22.17	-48.4	-49.6	14.9	0.00e+00	0	25	0	1429209088	62	4283
2026-01-07 06:38:32.66	349.21	22.10	-48.6	-49.8	14.8	0.00e+00	0	25	0	1432354816	62	4390
2026-01-07 06:38:33.67	348.98	22.03	-48.8	-50.1	14.7	0.00e+00	0	25	0	1435500544	62	4495
2026-01-07 06:38:34.67	348.75	21.95	-48.8	-50.1	14.7	0.00e+00	0	25	0	1438646272	62	4494
2026-01-07 06:38:35.66	348.53	21.88	-48.7	-50.0	14.7	0.00e+00	0	25	0	1441792000	62	4455
2026-01-07 06:38:36.66	348.31	21.80	-48.7	-50.0	14.7	0.00e+00	0	25	0	1444937728	62	4462
2026-01-07 06:38:37.65	348.09	21.73	-48.5	-49.7	14.8	0.00e+00	0	25	0	1448083456	62	4325
2026-01-07 06:38:38.65	347.87	21.65	-48.3	-49.5	14.9	0.00e+00	0	25	0	1451229184	62	4223
2026-01-07 06:38:39.65	347.65	21.58	-48.3	-49.5	14.9	0.00e+00	0	25	0	1454374912	62	4242
2026-01-07 06:38:40.65	347.43	21.50	-48.3	-49.6	14.9	0.00e+00	0	25	0	1457520640	62	4243
2026-01-07 06:38:41.65	347.21	21.43	-48.2	-49.4	15.0	0.00e+00	0	25	0	1460666368	62	4148
2026-01-07 06:38:42.65	346.99	21.35	-48.1	-49.3	15.0	0.00e+00	0	25	0	1463812096	62	4133
2026-01-07 06:38:43.65	346.78	21.27	-48.2	-49.4	14.9	0.00e+00	0	25	0	1466957824	62	4183
2026-01-07 06:38:44.65	346.56	21.20	-48.4	-49.6	14.9	0.00e+00	0	25	0	1470103552	62	4263
2026-01-07 06:38:45.65	346.35	21.12	-48.4	-49.6	14.9	0.00e+00	0	25	0	1473249280	62	4287
2026-01-07 06:38:46.66	346.14	21.04	-48.4	-49.6	14.9	0.00e+00	0	25	0	1476395008	62	4282
2026-01-07 06:38:47.65	345.93	20.96	-48.3	-49.5	14.9	0.00e+00	0	25	0	1479540736	62	4236
2026-01-07 06:38:48.65	345.72	20.89	-48.3	-49.6	14.9	0.00e+00	0	25	0	1482686464	62	4243
2026-01-07 06:38:49.64	345.51	20.81	-48.4	-49.6	14.9	0.00e+00	0	25	0	1485832192	62	4276
2026-01-07 06:38:50.64	345.30	20.73	-48.5	-49.8	14.8	0.00e+00	0	25	0	1488977920	62	4360
2026-01-07 06:38:51.64	345.10	20.66	-48.6	-49.8	14.8	0.00e+00	0	25	0	1492123648	62	4389
2026-01-07 06:38:52.64	344.89	20.58	-48.6	-49.9	14.8	0.00e+00	0	25	0	1495269376	62	4419
2026-01-07 06:38:53.64	344.68	20.50	-48.8	-50.1	14.7	0.00e+00	0	25	0	1498415104	62	4509
2026-01-07 06:38:54.64	344.48	20.42	-48.7	-50.0	14.7	0.00e+00	0	25	0	1501560832	62	4476
2026-01-07 06:38:55.65	344.28	20.34	-48.7	-50.0	14.7	0.00e+00	0	25	0	1504706560	62	4446
2026-01-07 06:38:56.65	344.07	20.26	-48.7	-50.0	14.7	0.00e+00	0	25	0	1507852288	62	4482
2026-01-07 06:38:57.64	343.88	20.19	-48.5	-49.8	14.8	0.00e+00	0	25	0	1510998016	62	4367
2026-01-07 06:38:58.65	343.67	20.11	-48.4	-49.6	14.8	0.00e+00	0	25	0	1514143744	62	4279
2026-01-07 06:38:59.64	343.48	20.03	-48.4	-49.6	14.8	0.00e+00	0	25	0	1517289472	62	4282
2026-01-07 06:39:00.63	343.28	19.95	-48.4	-49.6	14.9	0.00e+00	0	25	0	1520435200	62	4258
2026-01-07 06:39:01.63	343.09	19.87	-48.4	-49.7	14.8	0.00e+00	0	25	0	1523580928	62	4309
2026-01-07 06:39:02.63	342.89	19.79	-48.4	-49.6	14.9	0.00e+00	0	25	0	1526726656	62	4276
2026-01-07 06:39:03.63	342.70	19.71	-48.5	-49.7	14.8	0.00e+00	0	25	0	1529872384	62	4316
2026-01-07 06:39:04.64	342.50	19.63	-48.6	-49.9	14.8	0.00e+00	0	25	0	1533018112	62	4393
2026-01-07 06:39:05.64	342.31	19.55	-48.6	-49.9	14.8	0.00e+00	0	25	0	1536163840	62	4417
2026-01-07 06:39:06.64	342.12	19.47	-48.7	-50.0	14.7	0.00e+00	0	25	0	1539309568	62	4481
2026-01-07 06:39:07.65	341.93	19.39	-48.8	-50.2	14.7	0.00e+00	0	25	0	1542455296	62	4546
2026-01-07 06:39:08.65	341.74	19.31	-48.9	-50.2	14.7	0.00e+00	0	25	0	1544552448	62	4590
2026-01-07 06:39:09.65	341.55	19.23	-48.9	-50.2	14.8	0.00e+00	0	25	0	1547698176	63	4321
2026-01-07 06:39:10.65	341.36	19.15	-48.9	-50.2	14.8	0.00e+00	0	25	0	1550843904	63	4315
2026-01-07 06:39:11.65	341.17	19.07	-48.9	-50.2	14.7	0.00e+00	0	25	0	1553989632	63	4340
2026-01-07 06:39:12.65	340.99	18.99	-48.8	-50.2	14.8	0.00e+00	0	25	0	1557135360	63	4294
2026-01-07 06:39:13.64	340.81	18.91	-48.8	-50.1	14.8	0.00e+00	0	25	0	1560281088	63	4289
2026-01-07 06:39:14.64	340.62	18.83	-48.9	-50.2	14.7	0.00e+00	0	25	0	1563426816	63	4316
2026-01-07 06:39:15.64	340.44	18.75	-48.9	-50.3	14.7	0.00e+00	0	25	0	1566572544	63	4343
2026-01-07 06:39:16.64	340.26	18.67	-48.9	-50.3	14.7	0.00e+00	0	25	0	1569718272	63	4351
2026-01-07 06:39:17.64	340.08	18.59	-48.9	-50.2	14.7	0.00e+00	0	25	0	1572864000	63	4336
2026-01-07 06:39:18.65	339.90	18.51	-48.9	-50.2	14.7	0.00e+00	0	25	0	1576009728	63	4333
2026-01-07 06:39:19.65	339.72	18.43	-49.0	-50.3	14.7	0.00e+00	0	25	0	1579155456	63	4374
2026-01-07 06:39:20.65	339.54	18.35	-48.9	-50.3	14.7	0.00e+00	0	25	0	1582301184	63	4345
2026-01-07 06:39:21.66	339.36	18.27	-48.8	-50.2	14.7	0.00e+00	0	25	0	1585446912	63	4293
2026-01-07 06:39:22.65	339.19	18.19	-48.8	-50.1	14.8	0.00e+00	0	25	0	1588592640	63	4263
2026-01-07 06:39:23.65	339.01	18.11	-48.8	-50.1	14.8	0.00e+00	0	25	0	1591738368	63	4287
2026-01-07 06:39:24.65	338.84	18.03	-48.8	-50.1	14.8	0.00e+00	0	25	0	1594884096	63	4289
2026-01-07 06:39:25.66	338.67	17.95	-48.7	-50.0	14.8	0.00e+00	0	25	0	1598029824	63	4219
2026-01-07 06:39:26.66	338.49	17.87	-48.7	-50.0	14.8	0.00e+00	0	25	0	1601175552	63	4232
2026-01-07 06:39:27.66	338.32	17.79	-48.7	-50.0	14.8	0.00e+00	0	25	0	1604321280	63	4217
2026-01-07 06:39:28.66	338.15	17.70	-48.7	-50.0	14.8	0.00e+00	0	25	0	1607467008	63	4213
2026-01-07 06:39:29.66	337.98	17.62	-48.9	-50.2	14.8	0.00e+00	0	25	0	1610612736	63	4302
2026-01-07 06:39:30.66	337.82	17.54	-48.7	-50.0	14.8	0.00e+00	0	25	0	1613758464	63	4234
2026-01-07 06:39:31.66	337.65	17.46	-48.6	-49.8	14.9	0.00e+00	0	25	0	1616904192	63	4129
2026-01-07 06:39:32.65	337.48	17.38	-48.5	-49.8	14.9	0.00e+00	0	25	0	1620049920	63	4107
2026-01-07 06:39:33.66	337.32	17.30	-48.5	-49.8	14.9	0.00e+00	0	25	0	1623195648	63	4121
2026-01-07 06:39:34.66	337.15	17.22	-48.6	-49.9	14.9	0.00e+00	0	25	0	1626341376	63	4167
2026-01-07 06:39:35.66	336.99	17.14	-48.7	-49.9	14.8	0.00e+00	0	25	0	1629487104	63	4193
2026-01-07 06:39:36.65	336.83	17.06	-48.7	-50.1	14.8	0.00e+00	0	25	0	1632632832	63	4243
2026-01-07 06:39:37.65	336.66	16.98	-48.8	-50.2	14.8	0.00e+00	0	25	0	1635778560	63	4300
2026-01-07 06:39:38.65	336.50	16.90	-48.9	-50.2	14.7	0.00e+00	0	25	0	1638924288	63	4328
2026-01-07 06:39:39.65	336.34	16.82	-48.9	-50.2	14.7	0.00e+00	0	25	0	1642070016	63	4322
2026-01-07 06:39:40.66	336.18	16.74	-48.9	-50.2	14.7	0.00e+00	0	25	0	1645215744	63	4325
2026-01-07 06:39:41.66	336.02	16.66	-48.8	-50.1	14.8	0.00e+00	0	25	0	1648361472	63	4260
2026-01-07 06:39:42.65	335.87	16.58	-48.9	-50.2	14.7	0.00e+00	0	25	0	1651507200	63	4318
2026-01-07 06:39:43.64	335.71	16.50	-48.9	-50.2	14.8	0.00e+00	0	25	0	1654652928	63	4295
2026-01-07 06:39:44.65	335.56	16.42	-48.8	-50.1	14.8	0.00e+00	0	25	0	1657798656	63	4265
2026-01-07 06:39:45.64	335.40	16.34	-48.8	-50.1	14.8	0.00e+00	0	25	0	1660944384	63	4245
2026-01-07 06:39:46.64	335.25	16.26	-48.6	-49.9	14.9	0.00e+00	0	25	0	1664090112	63	4174
2026-01-07 06:39:47.63	335.10	16.18	-48.6	-49.9	14.9	0.00e+00	0	25	0	1667235840	63	4181
2026-01-07 06:39:48.62	334.94	16.10	-48.7	-50.0	14.8	0.00e+00	0	25	0	1670381568	63	4222
2026-01-07 06:39:49.61	334.79	16.02	-48.8	-50.2	14.8	0.00e+00	0	25	0	1673527296	63	4304
2026-01-07 06:39:50.60	334.65	15.94	-49.0	-50.3	14.7	0.00e+00	0	25	0	1676673024	63	4389
2026-01-07 06:39:51.60	334.50	15.86	-49.2	-50.5	14.6	0.00e+00	0	25	0	1678770176	63	4491
2026-01-07 06:39:52.60	334.35	15.78	-49.2	-50.7	14.6	0.00e+00	0	25	0	1681915904	63	4546
2026-01-07 06:39:53.60	334.20	15.71	-49.3	-50.7	14.6	0.00e+00	0	25	0	1685061632	63	4580
2026-01-07 06:39:54.59	334.05	15.63	-49.3	-50.7	14.5	0.00e+00	0	25	0	1688207360	63	4577
2026-01-07 06:39:55.60	333.90	15.55	-49.3	-50.8	14.5	0.00e+00	0	25	0	1691353088	63	4600
2026-01-07 06:39:56.60	333.76	15.47	-49.0	-50.4	14.6	0.00e+00	0	25	0	1694498816	63	4413
2026-01-07 06:39:57.59	333.61	15.39	-49.0	-50.4	14.7	0.00e+00	0	25	0	1697644544	63	4395
2026-01-07 06:39:58.59	333.47	15.31	-48.9	-50.3	14.7	0.00e+00	0	25	0	1700790272	63	4349
2026-01-07 06:39:59.59	333.32	15.23	-49.0	-50.3	14.7	0.00e+00	0	25	0	1703936000	63	4364
2026-01-07 06:40:00.59	333.18	15.15	-48.9	-50.3	14.7	0.00e+00	0	25	0	1707081728	63	4341
2026-01-07 06:40:01.59	333.04	15.07	-48.9	-50.2	14.7	0.00e+00	0	25	0	1710227456	63	4305
2026-01-07 06:40:02.60	332.90	14.99	-49.0	-50.3	14.7	0.00e+00	0	25	0	1713373184	63	4371
2026-01-07 06:40:03.60	332.76	14.91	-49.0	-50.3	14.7	0.00e+00	0	25	0	1716518912	63	4370
2026-01-07 06:40:04.60	332.62	14.83	-49.1	-50.4	14.6	0.00e+00	0	25	0	1719664640	63	4430
2026-01-07 06:40:05.60	332.48	14.75	-49.2	-50.6	14.6	0.00e+00	0	25	0	1722810368	63	4520
2026-01-07 06:40:06.59	332.34	14.68	-49.3	-50.7	14.5	0.00e+00	0	25	0	1725956096	63	4576
2026-01-07 06:40:07.59	332.20	14.60	-49.4	-50.9	14.6	0.00e+00	0	25	0	1729101824	64	4392
2026-01-07 06:40:08.60	332.06	14.52	-49.4	-50.8	14.6	0.00e+00	0	25	0	1732247552	64	4380
2026-01-07 06:40:09.60	331.93	14.44	-49.5	-50.9	14.6	0.00e+00	0	25	0	1735393280	64	4426
2026-01-07 06:40:10.60	331.79	14.36	-49.5	-50.9	14.5	0.00e+00	0	25	0	1738539008	64	4437
2026-01-07 06:40:11.59	331.66	14.28	-49.5	-50.9	14.5	0.00e+00	0	25	0	1741684736	64	4421
2026-01-07 06:40:12.59	331.52	14.21	-49.5	-50.9	14.5	0.00e+00	0	25	0	1744830464	64	4406
2026-01-07 06:40:13.58	331.39	14.13	-49.5	-50.9	14.5	0.00e+00	0	25	0	1747976192	64	4437
2026-01-07 06:40:14.59	331.26	14.05	-49.4	-50.8	14.6	0.00e+00	0	25	0	1751121920	64	4353
2026-01-07 06:40:15.58	331.13	13.97	-49.1	-50.5	14.7	0.00e+00	0	25	0	1754267648	64	4211
2026-01-07 06:40:16.58	331.00	13.90	-49.0	-50.4	14.8	0.00e+00	0	25	0	1757413376	64	4152
2026-01-07 06:40:17.58	330.87	13.82	-49.1	-50.5	14.7	0.00e+00	0	25	0	1760559104	64	4198
2026-01-07 06:40:18.58	330.74	13.74	-49.1	-50.4	14.7	0.00e+00	0	25	0	1763704832	64	4192
2026-01-07 06:40:19.58	330.61	13.66	-49.1	-50.5	14.7	0.00e+00	0	25	0	1766850560	64	4203
2026-01-07 06:40:20.58	330.48	13.59	-49.1	-50.5	14.7	0.00e+00	0	25	0	1769996288	64	4230
2026-01-07 06:40:21.58	330.35	13.51	-49.3	-50.6	14.6	0.00e+00	0	25	0	1773142016	64	4288
2026-01-07 06:40:22.59	330.22	13.43	-49.3	-50.8	14.6	0.00e+00	0	25	0	1776287744	64	4344
2026-01-07 06:40:23.58	330.10	13.35	-49.5	-50.9	14.5	0.00e+00	0	25	0	1779433472	64	4428
2026-01-07 06:40:24.59	329.97	13.28	-49.5	-51.0	14.5	0.00e+00	0	25	0	1782579200	64	4450
2026-01-07 06:40:25.58	329.85	13.20	-49.5	-51.0	14.5	0.00e+00	0	25	0	1785724928	64	4482
2026-01-07 06:40:26.58	329.72	13.12	-49.6	-51.0	14.5	0.00e+00	0	25	0	1788870656	64	4481
2026-01-07 06:40:27.59	329.60	13.05	-49.6	-51.0	14.4	0.00e+00	0	25	0	1792016384	64	4480
2026-01-07 06:40:28.58	329.48	12.97	-49.6	-51.0	14.5	0.00e+00	0	25	0	1795162112	64	4457
2026-01-07 06:40:29.59	329.35	12.89	-49.4	-50.7	14.6	0.00e+00	0	25	0	1798307840	64	4336
2026-01-07 06:40:30.60	329.23	12.82	-49.4	-50.8	14.5	0.00e+00	0	25	0	1801453568	64	4341
2026-01-07 06:40:31.60	329.11	12.74	-49.2	-50.6	14.6	0.00e+00	0	25	0	1804599296	64	4247
2026-01-07 06:40:32.60	328.99	12.66	-49.2	-50.5	14.6	0.00e+00	0	25	0	1807745024	64	4241
2026-01-07 06:40:33.60	328.87	12.59	-49.0	-50.2	14.8	0.00e+00	0	25	0	1810890752	64	4084
2026-01-07 06:40:34.61	328.75	12.51	-48.8	-50.1	14.8	0.00e+00	0	25	0	1814036480	64	4026
2026-01-07 06:40:35.61	328.63	12.43	-48.8	-50.1	14.9	0.00e+00	0	25	0	1817182208	64	4024
2026-01-07 06:40:36.60	328.51	12.36	-48.8	-50.1	14.9	0.00e+00	0	25	0	1820327936	64	4024
2026-01-07 06:40:37.60	328.40	12.28	-48.9	-50.1	14.8	0.00e+00	0	25	0	1823473664	64	4046
2026-01-07 06:40:38.60	328.28	12.21	-49.0	-50.3	14.8	0.00e+00	0	25	0	1826619392	64	4100
2026-01-07 06:40:39.60	328.16	12.13	-49.0	-50.3	14.8	0.00e+00	0	25	0	1829765120	64	4117
2026-01-07 06:40:40.60	328.05	12.06	-49.2	-50.5	14.7	0.00e+00	0	25	0	1832910848	64	4207
2026-01-07 06:40:41.60	327.93	11.98	-49.3	-50.7	14.6	0.00e+00	0	25	0	1835008000	64	4308
2026-01-07 06:40:42.60	327.82	11.91	-49.6	-50.9	14.5	0.00e+00	0	25	0	1838153728	64	4437
2026-01-07 06:40:43.60	327.71	11.83	-49.8	-51.2	14.4	0.00e+00	0	25	0	1841299456	64	4583
2026-01-07 06:40:44.60	327.59	11.76	-49.9	-51.3	14.3	0.00e+00	0	25	0	1844445184	64	4635
2026-01-07 06:40:45.61	327.48	11.68	-50.0	-51.4	14.4	0.00e+00	0	25	0	1848639488	65	4432
2026-01-07 06:40:46.62	327.37	11.61	-50.0	-51.5	14.4	0.00e+00	0	25	0	1851785216	65	4453
2026-01-07 06:40:47.62	327.26	11.53	-50.0	-51.5	14.3	0.00e+00	0	25	0	1854930944	65	4453
2026-01-07 06:40:48.62	327.14	11.46	-49.9	-51.4	14.4	0.00e+00	0	25	0	1858076672	65	4410
2026-01-07 06:40:49.62	327.03	11.38	-49.8	-51.2	14.5	0.00e+00	0	25	0	1860173824	65	4324
2026-01-07 06:40:50.62	326.92	11.31	-49.7	-51.1	14.5	0.00e+00	0	25	0	1863319552	65	4273
2026-01-07 06:40:51.61	326.82	11.24	-49.7	-51.1	14.5	0.00e+00	0	25	0	1866465280	65	4282
2026-01-07 06:40:52.61	326.71	11.16	-49.6	-50.9	14.6	0.00e+00	0	25	0	1869611008	65	4179
2026-01-07 06:40:53.61	326.60	11.09	-49.4	-50.7	14.7	0.00e+00	0	25	0	1872756736	65	4082
2026-01-07 06:40:54.61	326.49	11.02	-49.4	-50.7	14.7	0.00e+00	0	25	0	1875902464	65	4093
2026-01-07 06:40:55.61	326.39	10.94	-49.3	-50.6	14.7	0.00e+00	0	25	0	1879048192	65	4048
2026-01-07 06:40:56.62	326.28	10.87	-49.2	-50.5	14.8	0.00e+00	0	25	0	1882193920	65	3992
2026-01-07 06:40:57.62	326.17	10.80	-49.3	-50.6	14.7	0.00e+00	0	25	0	1885339648	65	4028
2026-01-07 06:40:58.61	326.07	10.72	-49.3	-50.6	14.7	0.00e+00	0	25	0	1888485376	65	4025
2026-01-07 06:40:59.62	325.96	10.65	-49.3	-50.7	14.7	0.00e+00	0	25	0	1891631104	65	4060
2026-01-07 06:41:00.62	325.86	10.58	-49.5	-50.9	14.6	0.00e+00	0	25	0	1894776832	65	4160
2026-01-07 06:41:01.62	325.76	10.50	-49.6	-51.0	14.6	0.00e+00	0	25	0	1897922560	65	4212
2026-01-07 06:41:02.61	325.66	10.43	-49.8	-51.2	14.5	0.00e+00	0	25	0	1901068288	65	4309
2026-01-07 06:41:03.61	325.55	10.36	-50.0	-51.4	14.4	0.00e+00	0	25	0	1904214016	65	4420
2026-01-07 06:41:04.62	325.45	10.29	-50.0	-51.4	14.4	0.00e+00	0	25	0	1907359744	65	4424
2026-01-07 06:41:05.61	325.35	10.21	-50.1	-51.5	14.3	0.00e+00	0	25	0	1910505472	65	4485
2026-01-07 06:41:06.61	325.25	10.14	-50.2	-51.7	14.3	0.00e+00	0	25	0	1913651200	65	4548
2026-01-07 06:41:07.62	325.15	10.07	-50.2	-51.8	14.2	0.00e+00	0	25	0	1916796928	65	4602
2026-01-07 06:41:08.62	325.05	10.00	-50.2	-51.7	14.2	0.00e+00	0	25	0	1919942656	65	4574
2026-01-07 06:41:09.63	324.95	9.93	-50.3	-51.8	14.2	0.00e+00	0	25	0	1923088384	65	4602
2026-01-07 06:41:10.64	324.85	9.85	-50.3	-51.9	14.1	0.00e+00	0	25	0	1926234112	65	4668
2026-01-07 06:41:11.65	324.75	9.78	-50.3	-51.9	14.1	0.00e+00	0	25	0	1929379840	65	4678
2026-01-07 06:41:12.66	324.65	9.71	-50.3	-51.9	14.1	0.00e+00	0	25	0	1932525568	65	4663
2026-01-07 06:41:13.66	324.55	9.64	-50.4	-51.9	14.1	0.00e+00	0	25	0	1935671296	65	4704
2026-01-07 06:41:14.66	324.45	9.57	-50.3	-51.8	14.2	0.00e+00	0	25	0	1938817024	66	4384
2026-01-07 06:41:15.67	324.36	9.49	-50.2	-51.7	14.3	0.00e+00	0	25	0	1941962752	66	4329
2026-01-07 06:41:16.67	324.26	9.42	-50.2	-51.7	14.3	0.00e+00	0	25	0	1945108480	66	4299
2026-01-07 06:41:17.68	324.17	9.35	-50.1	-51.6	14.4	0.00e+00	0	25	0	1948254208	66	4259
2026-01-07 06:41:18.68	324.07	9.28	-50.1	-51.6	14.4	0.00e+00	0	25	0	1951399936	66	4248
2026-01-07 06:41:19.67	323.98	9.21	-50.1	-51.6	14.4	0.00e+00	0	25	0	1954545664	66	4273
2026-01-07 06:41:20.67	323.88	9.14	-50.1	-51.6	14.4	0.00e+00	0	25	0	1957691392	66	4254
2026-01-07 06:41:21.67	323.79	9.07	-50.3	-51.8	14.3	0.00e+00	0	25	0	1960837120	66	4379
2026-01-07 06:41:22.67	323.70	9.00	-50.3	-51.8	14.3	0.00e+00	0	25	0	1963982848	66	4361
2026-01-07 06:41:23.67	323.60	8.93	-50.3	-51.9	14.2	0.00e+00	0	25	0	1967128576	66	4404
2026-01-07 06:41:24.68	323.51	8.86	-50.4	-51.9	14.2	0.00e+00	0	25	0	1970274304	66	4406
2026-01-07 06:41:25.69	323.42	8.79	-50.5	-52.0	14.1	0.00e+00	0	25	0	1973420032	66	4489
2026-01-07 06:41:26.69	323.33	8.72	-50.4	-52.0	14.2	0.00e+00	0	25	0	1976565760	66	4457
2026-01-07 06:41:27.70	323.24	8.65	-50.6	-52.1	14.1	0.00e+00	0	25	0	1979711488	66	4534
2026-01-07 06:41:28.70	323.15	8.58	-50.7	-52.3	14.0	0.00e+00	0	25	0	1982857216	66	4633
2026-01-07 06:41:29.69	323.06	8.51	-50.6	-52.2	14.1	0.00e+00	0	25	0	1986002944	66	4575
2026-01-07 06:41:30.69	322.97	8.44	-50.8	-52.5	13.9	0.00e+00	0	25	0	1989148672	66	4710
2026-01-07 06:41:31.68	322.88	8.37	-50.8	-52.4	13.9	0.00e+00	0	25	0	1992294400	66	4687
2026-01-07 06:41:32.68	322.79	8.30	-50.8	-52.5	13.9	0.00e+00	0	25	0	1995440128	66	4720
2026-01-07 06:41:33.67	322.70	8.24	-51.0	-52.7	13.9	0.00e+00	0	25	0	1998585856	67	4549
2026-01-07 06:41:34.67	322.62	8.17	-50.9	-52.5	14.0	0.00e+00	0	25	0	2001731584	67	4469
2026-01-07 06:41:35.68	322.53	8.10	-51.0	-52.7	13.9	0.00e+00	0	25	0	2004877312	67	4565
2026-01-07 06:41:36.68	322.44	8.03	-50.9	-52.6	13.9	0.00e+00	0	25	0	2008023040	67	4512
2026-01-07 06:41:37.68	322.35	7.96	-51.0	-52.7	13.9	0.00e+00	0	25	0	2011168768	67	4575
2026-01-07 06:41:38.68	322.27	7.89	-51.0	-52.7	13.9	0.00e+00	0	25	0	2014314496	67	4583
2026-01-07 06:41:39.67	322.18	7.83	-50.9	-52.6	13.9	0.00e+00	0	25	0	2017460224	67	4503
2026-01-07 06:41:40.68	322.10	7.76	-50.9	-52.5	13.9	0.00e+00	0	25	0	2020605952	67	4492
2026-01-07 06:41:41.68	322.01	7.69	-50.9	-52.5	14.0	0.00e+00	0	25	0	2023751680	67	4466
