passes_logs/2026/01/07/R3.2S_Murmansk/R3.2S_Murmansk__20260107_215204_NOAA_21_JPSS-2_rec.log

#Pass ID: 20260107_215204_NOAA 21 (JPSS-2)
#Satellite: NOAA 21 (JPSS-2)
#Configuration: NOAA-21
#almurnet v.1.7.20251203
#Start time: 2026-01-07 21:52:04

#Version: 2.2.20231116
#Station: R3.2S_Murmansk
#Location: 33.079688 lon 68.888172 lat
#TLE: 1 54234U 22150A   26005.56767909  .00000152  00000+0  92756-4 0  9990
#TLE: 2 54234  98.7490 306.5820 0001036 340.2747  19.8389 14.19532370163472

#Time	Az	El	Level	Level2	SNR	BER	BlckErr	Temp	State	Recorded	gain1	gain2
2026-01-07 21:52:04.40	18.37	2.01	-57.6	-71.3	3.8	1.49e+00	0	23	0	0	81	17410
2026-01-07 21:52:05.40	18.45	2.06	-57.6	-71.3	3.8	1.49e+00	0	23	104	0	80	18382
2026-01-07 21:52:06.39	18.53	2.11	-57.6	-71.3	3.8	1.49e+00	0	23	104	0	80	18392
2026-01-07 21:52:07.39	18.62	2.16	-57.6	-71.3	3.8	1.49e+00	0	23	104	0	80	18431
2026-01-07 21:52:08.38	18.70	2.21	-57.6	-71.4	3.8	1.49e+00	0	23	104	0	80	18534
2026-01-07 21:52:09.38	18.78	2.26	-57.6	-71.4	3.8	1.49e+00	0	23	104	0	80	18544
2026-01-07 21:52:10.38	18.87	2.31	-57.6	-71.4	3.8	1.49e+00	0	23	104	0	80	18539
2026-01-07 21:52:11.38	18.95	2.36	-57.6	-71.3	3.8	1.49e+00	0	23	104	0	80	18425
2026-01-07 21:52:12.38	19.04	2.41	-57.6	-71.3	3.8	1.49e+00	0	23	104	0	80	18403
2026-01-07 21:52:13.38	19.12	2.47	-57.6	-71.3	3.8	1.49e+00	0	23	104	0	80	18394
2026-01-07 21:52:14.38	19.21	2.52	-57.6	-71.2	3.8	1.49e+00	0	23	104	0	80	18296
2026-01-07 21:52:15.38	19.29	2.57	-57.6	-71.3	3.8	1.49e+00	0	23	104	0	80	18328
2026-01-07 21:52:16.38	19.38	2.62	-57.6	-71.2	3.8	1.49e+00	0	23	104	0	80	18203
2026-01-07 21:52:17.38	19.46	2.67	-57.6	-71.2	3.8	1.49e+00	0	23	104	0	80	18221
2026-01-07 21:52:18.39	19.55	2.72	-57.6	-71.2	3.8	1.49e+00	0	23	104	0	80	18296
2026-01-07 21:52:19.39	19.64	2.77	-57.6	-71.3	3.8	1.49e+00	0	23	104	0	80	18410
2026-01-07 21:52:20.39	19.72	2.83	-57.6	-71.4	3.8	1.49e+00	0	23	104	0	80	18519
2026-01-07 21:52:21.40	19.81	2.88	-57.6	-71.4	3.8	1.49e+00	0	23	104	0	80	18549
2026-01-07 21:52:22.40	19.90	2.93	-57.6	-71.4	3.8	1.49e+00	0	23	104	0	80	18568
2026-01-07 21:52:23.39	19.98	2.98	-57.6	-71.3	3.8	1.49e+00	0	23	104	0	80	18437
2026-01-07 21:52:24.40	20.07	3.03	-57.6	-71.3	3.8	1.49e+00	0	23	104	0	80	18342
2026-01-07 21:52:25.40	20.16	3.08	-57.6	-71.2	3.8	1.49e+00	0	23	104	0	80	18301
2026-01-07 21:52:26.40	20.25	3.14	-57.6	-71.3	3.8	1.49e+00	0	23	104	0	80	18423
2026-01-07 21:52:27.40	20.34	3.19	-57.6	-71.3	3.8	1.49e+00	0	23	104	0	80	18515
2026-01-07 21:52:28.40	20.43	3.24	-57.6	-71.4	3.8	1.49e+00	0	23	104	0	80	18606
2026-01-07 21:52:29.39	20.52	3.29	-57.6	-71.4	3.8	1.49e+00	0	23	104	0	80	18527
2026-01-07 21:52:30.40	20.61	3.34	-57.6	-71.2	3.8	1.49e+00	0	23	104	0	80	18175
2026-01-07 21:52:31.39	20.70	3.39	-57.6	-70.9	3.8	1.49e+00	0	23	104	0	80	17485
2026-01-07 21:52:32.38	20.78	3.45	-57.5	-70.7	3.8	1.49e+00	0	24	104	0	80	17180
2026-01-07 21:52:33.38	20.88	3.50	-57.5	-70.3	3.8	1.49e+00	0	24	104	0	80	16502
2026-01-07 21:52:34.38	20.97	3.55	-57.5	-70.2	3.8	1.49e+00	0	24	104	0	80	16183
2026-01-07 21:52:35.38	21.06	3.60	-57.5	-70.3	3.8	1.49e+00	0	24	104	0	80	16381
2026-01-07 21:52:36.38	21.15	3.65	-57.6	-70.3	3.8	1.49e+00	0	24	104	0	80	16503
2026-01-07 21:52:37.38	21.24	3.71	-57.5	-70.4	3.8	1.49e+00	0	24	104	0	80	16690
2026-01-07 21:52:38.37	21.33	3.76	-57.5	-70.0	3.8	1.49e+00	0	24	104	0	80	15802
2026-01-07 21:52:39.37	21.42	3.81	-57.5	-69.5	3.9	1.49e+00	0	23	104	0	80	14992
2026-01-07 21:52:40.37	21.52	3.86	-57.4	-68.4	3.9	1.48e+00	0	24	104	0	80	13131
2026-01-07 21:52:41.37	21.61	3.91	-57.3	-67.3	4.3	1.46e+00	0	24	104	0	80	11668
2026-01-07 21:52:42.37	21.70	3.97	-57.2	-66.6	4.2	9.17e-01	0	24	104	0	80	10695
2026-01-07 21:52:43.37	21.80	4.02	-57.1	-65.9	4.9	7.77e-01	0	24	0	1048576	80	9935
2026-01-07 21:52:44.37	21.89	4.07	-57.1	-65.7	4.2	1.46e+00	0	24	104	2097152	80	9661
2026-01-07 21:52:45.37	21.98	4.12	-57.1	-65.5	5.1	6.94e-01	0	24	0	4194304	80	9478
2026-01-07 21:52:46.37	22.08	4.18	-56.9	-64.3	5.9	4.22e-01	0	24	0	7340032	80	8184
2026-01-07 21:52:47.37	22.17	4.23	-56.4	-62.5	7.2	1.35e-01	0	24	0	10485760	79	7103
2026-01-07 21:52:48.37	22.27	4.28	-55.9	-60.9	8.6	2.17e-02	0	24	0	13631488	78	6244
2026-01-07 21:52:49.37	22.36	4.33	-54.9	-58.6	10.5	1.63e-03	0	24	0	16777216	76	5350
2026-01-07 21:52:50.37	22.46	4.39	-53.9	-56.9	11.7	6.10e-05	0	24	0	19922944	74	4974
2026-01-07 21:52:51.38	22.56	4.44	-53.0	-55.4	12.6	2.20e-06	0	24	0	23068672	72	4699
2026-01-07 21:52:52.38	22.65	4.49	-52.3	-54.4	13.2	0.00e+00	0	24	0	26214400	71	4412
2026-01-07 21:52:53.38	22.75	4.55	-51.9	-53.9	13.4	0.00e+00	0	24	0	29360128	70	4402
2026-01-07 21:52:54.38	22.85	4.60	-51.5	-53.5	13.6	0.00e+00	0	24	0	32505856	69	4451
2026-01-07 21:52:55.38	22.95	4.65	-51.7	-53.8	13.4	0.00e+00	0	24	0	35651584	69	4599
2026-01-07 21:52:56.38	23.04	4.70	-52.1	-54.3	13.0	0.00e+00	0	24	0	37748736	69	4896
2026-01-07 21:52:57.38	23.14	4.76	-52.6	-54.9	12.7	0.00e+00	0	24	0	40894464	70	4976
2026-01-07 21:52:58.38	23.24	4.81	-53.2	-55.9	12.2	2.20e-06	0	24	0	44040192	71	5237
2026-01-07 21:52:59.38	23.34	4.86	-54.1	-57.3	11.2	4.11e-05	0	24	0	47185920	73	5521
2026-01-07 21:53:00.38	23.44	4.92	-54.9	-58.8	10.2	1.17e-03	0	24	0	50331648	75	5826
2026-01-07 21:53:01.38	23.54	4.97	-55.8	-60.8	8.6	1.45e-02	0	24	0	53477376	76	6891
2026-01-07 21:53:02.38	23.64	5.02	-55.6	-60.1	9.1	4.31e-02	0	24	0	56623104	77	6024
2026-01-07 21:53:03.38	23.74	5.08	-52.6	-54.9	12.9	0.00e+00	0	24	0	59768832	71	4701
2026-01-07 21:53:04.37	23.84	5.13	-54.9	-58.8	10.2	3.00e-06	0	24	0	62914560	74	6201
2026-01-07 21:53:05.38	23.94	5.18	-56.7	-63.8	4.4	1.46e+00	0	24	104	65011712	79	8183
2026-01-07 21:53:06.38	24.04	5.24	-54.4	-57.6	11.0	1.56e-02	0	24	0	67108864	75	5092
2026-01-07 21:53:07.38	24.14	5.29	-54.5	-57.7	11.2	1.13e-03	0	24	0	70254592	75	5119
2026-01-07 21:53:08.37	24.24	5.34	-53.2	-55.7	12.4	0.00e+00	0	24	0	73400320	72	4860
2026-01-07 21:53:09.36	24.34	5.39	-52.8	-55.1	12.9	0.00e+00	0	24	0	76546048	72	4516
2026-01-07 21:53:10.37	24.45	5.45	-52.5	-54.8	13.0	0.00e+00	0	24	0	79691776	71	4600
2026-01-07 21:53:11.37	24.55	5.50	-52.0	-54.0	13.4	0.00e+00	0	24	0	82837504	70	4450
2026-01-07 21:53:12.37	24.65	5.56	-51.6	-53.5	13.6	0.00e+00	0	24	0	85983232	69	4481
2026-01-07 21:53:13.37	24.76	5.61	-51.3	-53.1	13.9	0.00e+00	0	24	0	89128960	69	4261
2026-01-07 21:53:14.38	24.86	5.66	-51.3	-53.1	13.9	0.00e+00	0	24	0	92274688	69	4286
2026-01-07 21:53:15.37	24.97	5.72	-51.5	-53.3	13.7	0.00e+00	0	24	0	95420416	69	4387
2026-01-07 21:53:16.38	25.07	5.77	-51.3	-53.0	13.9	0.00e+00	0	24	0	98566144	69	4239
2026-01-07 21:53:17.37	25.18	5.82	-51.2	-53.0	13.9	0.00e+00	0	24	0	100663296	69	4228
2026-01-07 21:53:18.37	25.28	5.88	-51.3	-53.1	13.8	0.00e+00	0	24	0	103809024	68	4512
2026-01-07 21:53:19.37	25.39	5.93	-51.4	-53.2	13.7	0.00e+00	0	24	0	106954752	68	4558
2026-01-07 21:53:20.37	25.49	5.98	-51.2	-53.0	13.8	0.00e+00	0	24	0	110100480	68	4460
2026-01-07 21:53:21.37	25.60	6.04	-51.3	-53.1	13.8	0.00e+00	0	24	0	113246208	68	4520
2026-01-07 21:53:22.37	25.71	6.09	-51.3	-53.1	13.8	0.00e+00	0	24	0	116391936	68	4514
2026-01-07 21:53:23.36	25.81	6.15	-51.1	-52.9	13.9	0.00e+00	0	24	0	119537664	68	4409
2026-01-07 21:53:24.36	25.92	6.20	-51.2	-52.9	13.9	0.00e+00	0	24	0	122683392	68	4434
2026-01-07 21:53:25.36	26.03	6.25	-51.2	-53.0	13.8	0.00e+00	0	24	0	125829120	68	4467
2026-01-07 21:53:26.35	26.14	6.31	-51.4	-53.2	13.7	0.00e+00	0	24	0	128974848	68	4588
2026-01-07 21:53:27.35	26.25	6.36	-51.3	-53.1	13.8	0.00e+00	0	24	0	132120576	68	4539
2026-01-07 21:53:28.35	26.36	6.42	-51.3	-53.1	13.8	0.00e+00	0	24	0	135266304	68	4510
2026-01-07 21:53:29.34	26.46	6.47	-51.0	-52.7	14.0	0.00e+00	0	24	0	138412032	68	4338
2026-01-07 21:53:30.34	26.57	6.52	-51.0	-52.7	14.0	0.00e+00	0	24	0	141557760	68	4306
2026-01-07 21:53:31.34	26.69	6.58	-50.9	-52.6	14.1	0.00e+00	0	24	0	144703488	68	4284
2026-01-07 21:53:32.34	26.80	6.63	-51.0	-52.7	14.0	0.00e+00	0	24	0	147849216	68	4304
2026-01-07 21:53:33.33	26.91	6.68	-50.9	-52.6	14.1	0.00e+00	0	24	0	150994944	68	4254
2026-01-07 21:53:34.33	27.02	6.74	-50.9	-52.6	14.1	0.00e+00	0	24	0	154140672	68	4249
2026-01-07 21:53:35.32	27.13	6.79	-50.8	-52.4	14.2	0.00e+00	0	24	0	157286400	68	4191
2026-01-07 21:53:36.32	27.24	6.85	-51.0	-52.8	14.0	0.00e+00	0	24	0	160432128	68	4341
2026-01-07 21:53:37.32	27.35	6.90	-50.9	-52.5	14.1	0.00e+00	0	24	0	163577856	68	4235
2026-01-07 21:53:38.32	27.47	6.96	-50.9	-52.6	14.1	0.00e+00	0	24	0	166723584	68	4265
2026-01-07 21:53:39.31	27.58	7.01	-50.9	-52.6	14.1	0.00e+00	0	24	0	169869312	68	4265
2026-01-07 21:53:40.30	27.69	7.06	-51.1	-52.8	14.0	0.00e+00	0	24	0	173015040	68	4369
2026-01-07 21:53:41.30	27.81	7.12	-51.0	-52.6	14.1	0.00e+00	0	24	0	176160768	68	4290
2026-01-07 21:53:42.30	27.92	7.17	-50.8	-52.4	14.2	0.00e+00	0	24	0	179306496	68	4191
2026-01-07 21:53:43.29	28.04	7.23	-51.0	-52.6	14.1	0.00e+00	0	24	0	182452224	68	4290
2026-01-07 21:53:44.29	28.15	7.28	-51.0	-52.7	14.0	0.00e+00	0	24	0	185597952	68	4319
2026-01-07 21:53:45.29	28.27	7.33	-51.1	-52.8	14.0	0.00e+00	0	24	0	188743680	68	4386
2026-01-07 21:53:46.29	28.38	7.39	-51.0	-52.7	14.0	0.00e+00	0	24	0	191889408	68	4333
2026-01-07 21:53:47.29	28.50	7.44	-50.9	-52.6	14.1	0.00e+00	0	24	0	195035136	68	4269
2026-01-07 21:53:48.28	28.62	7.50	-51.0	-52.6	14.1	0.00e+00	0	24	0	198180864	68	4290
2026-01-07 21:53:49.28	28.74	7.55	-50.9	-52.6	14.1	0.00e+00	0	24	0	201326592	68	4263
2026-01-07 21:53:50.29	28.85	7.61	-50.9	-52.5	14.1	0.00e+00	0	24	0	204472320	68	4230
2026-01-07 21:53:51.29	28.97	7.66	-50.8	-52.4	14.2	0.00e+00	0	25	0	207618048	68	4165
2026-01-07 21:53:52.29	29.09	7.72	-50.7	-52.4	14.2	0.00e+00	0	24	0	210763776	68	4146
2026-01-07 21:53:53.29	29.21	7.77	-50.7	-52.3	14.3	0.00e+00	0	24	0	212860928	68	4128
2026-01-07 21:53:54.29	29.33	7.82	-50.5	-52.1	14.2	0.00e+00	0	24	0	216006656	67	4248
2026-01-07 21:53:55.29	29.45	7.88	-50.4	-52.0	14.3	0.00e+00	0	24	0	219152384	67	4201
2026-01-07 21:53:56.30	29.57	7.93	-50.3	-51.8	14.4	0.00e+00	0	24	0	222298112	67	4136
2026-01-07 21:53:57.30	29.70	7.99	-50.2	-51.8	14.4	0.00e+00	0	24	0	225443840	67	4113
2026-01-07 21:53:58.30	29.82	8.04	-50.4	-51.9	14.3	0.00e+00	0	24	0	228589568	67	4178
2026-01-07 21:53:59.29	29.94	8.10	-50.4	-51.9	14.3	0.00e+00	0	24	0	231735296	67	4178
2026-01-07 21:54:00.30	30.06	8.15	-50.5	-52.1	14.2	0.00e+00	0	25	0	234881024	67	4248
2026-01-07 21:54:01.30	30.18	8.21	-50.3	-51.8	14.4	0.00e+00	0	24	0	238026752	67	4129
2026-01-07 21:54:02.29	30.31	8.26	-50.3	-51.8	14.4	0.00e+00	0	24	0	241172480	67	4128
2026-01-07 21:54:03.29	30.43	8.32	-50.4	-52.0	14.3	0.00e+00	0	24	0	244318208	67	4210
2026-01-07 21:54:04.30	30.56	8.37	-50.3	-51.9	14.3	0.00e+00	0	24	0	247463936	67	4169
2026-01-07 21:54:05.30	30.68	8.43	-50.4	-52.0	14.3	0.00e+00	0	25	0	250609664	67	4205
2026-01-07 21:54:06.30	30.81	8.48	-50.3	-51.9	14.4	0.00e+00	0	24	0	253755392	67	4160
2026-01-07 21:54:07.29	30.93	8.53	-50.2	-51.8	14.4	0.00e+00	0	24	0	256901120	67	4113
2026-01-07 21:54:08.30	31.06	8.59	-50.1	-51.6	14.4	0.00e+00	0	25	0	260046848	66	4290
2026-01-07 21:54:09.30	31.18	8.64	-50.1	-51.7	14.3	0.00e+00	0	24	0	263192576	66	4309
2026-01-07 21:54:10.30	31.31	8.70	-50.0	-51.5	14.4	0.00e+00	0	24	0	266338304	66	4194
2026-01-07 21:54:11.30	31.44	8.75	-50.0	-51.5	14.4	0.00e+00	0	24	0	269484032	66	4209
2026-01-07 21:54:12.30	31.57	8.81	-50.1	-51.6	14.4	0.00e+00	0	24	0	272629760	66	4246
2026-01-07 21:54:13.30	31.69	8.86	-49.9	-51.4	14.5	0.00e+00	0	24	0	275775488	66	4162
2026-01-07 21:54:14.30	31.82	8.92	-49.8	-51.2	14.6	0.00e+00	0	24	0	278921216	66	4087
2026-01-07 21:54:15.30	31.95	8.97	-49.8	-51.3	14.5	0.00e+00	0	24	0	282066944	66	4123
2026-01-07 21:54:16.29	32.08	9.03	-49.8	-51.2	14.6	0.00e+00	0	24	0	285212672	66	4090
2026-01-07 21:54:17.29	32.21	9.08	-49.8	-51.2	14.6	0.00e+00	0	24	0	288358400	66	4089
2026-01-07 21:54:18.30	32.34	9.14	-49.8	-51.3	14.5	0.00e+00	0	25	0	291504128	66	4111
2026-01-07 21:54:19.30	32.47	9.19	-49.8	-51.3	14.5	0.00e+00	0	25	0	294649856	66	4121
2026-01-07 21:54:20.30	32.61	9.25	-49.9	-51.4	14.5	0.00e+00	0	24	0	297795584	66	4172
2026-01-07 21:54:21.30	32.74	9.30	-50.0	-51.5	14.4	0.00e+00	0	24	0	300941312	66	4219
2026-01-07 21:54:22.30	32.87	9.36	-50.0	-51.5	14.4	0.00e+00	0	25	0	304087040	66	4210
2026-01-07 21:54:23.30	33.00	9.41	-50.0	-51.5	14.4	0.00e+00	0	24	0	307232768	66	4222
2026-01-07 21:54:24.29	33.14	9.46	-50.1	-51.5	14.4	0.00e+00	0	24	0	310378496	66	4242
2026-01-07 21:54:25.30	33.27	9.52	-50.1	-51.6	14.3	0.00e+00	0	24	0	313524224	66	4279
2026-01-07 21:54:26.28	33.40	9.57	-50.1	-51.6	14.4	0.00e+00	0	24	0	316669952	66	4243
2026-01-07 21:54:27.28	33.54	9.63	-49.9	-51.3	14.5	0.00e+00	0	25	0	319815680	66	4127
2026-01-07 21:54:28.27	33.67	9.68	-49.9	-51.3	14.5	0.00e+00	0	24	0	322961408	66	4144
2026-01-07 21:54:29.27	33.81	9.74	-49.9	-51.4	14.5	0.00e+00	0	24	0	326107136	66	4157
2026-01-07 21:54:30.26	33.94	9.79	-49.9	-51.4	14.5	0.00e+00	0	25	0	329252864	66	4172
2026-01-07 21:54:31.26	34.08	9.84	-49.8	-51.3	14.5	0.00e+00	0	25	0	332398592	66	4111
2026-01-07 21:54:32.26	34.22	9.90	-49.7	-51.2	14.6	0.00e+00	0	25	0	335544320	66	4057
2026-01-07 21:54:33.25	34.35	9.95	-49.7	-51.1	14.5	0.00e+00	0	25	0	338690048	65	4286
2026-01-07 21:54:34.25	34.49	10.01	-49.7	-51.2	14.5	0.00e+00	0	24	0	341835776	65	4292
2026-01-07 21:54:35.25	34.63	10.06	-49.8	-51.2	14.4	0.00e+00	0	25	0	344981504	65	4323
2026-01-07 21:54:36.24	34.77	10.11	-49.6	-51.1	14.5	0.00e+00	0	25	0	347078656	65	4258
2026-01-07 21:54:37.23	34.91	10.17	-49.6	-51.1	14.5	0.00e+00	0	25	0	350224384	65	4254
2026-01-07 21:54:38.22	35.05	10.22	-49.6	-51.1	14.5	0.00e+00	0	25	0	353370112	65	4267
2026-01-07 21:54:39.22	35.19	10.28	-49.7	-51.2	14.5	0.00e+00	0	24	0	356515840	65	4305
2026-01-07 21:54:40.22	35.33	10.33	-49.7	-51.1	14.5	0.00e+00	0	25	0	359661568	65	4288
2026-01-07 21:54:41.22	35.47	10.39	-49.7	-51.2	14.5	0.00e+00	0	25	0	362807296	65	4309
2026-01-07 21:54:42.21	35.61	10.44	-49.7	-51.2	14.4	0.00e+00	0	25	0	365953024	65	4306
2026-01-07 21:54:43.20	35.75	10.49	-49.6	-51.0	14.5	0.00e+00	0	24	0	369098752	65	4234
2026-01-07 21:54:44.19	35.90	10.55	-49.5	-51.0	14.5	0.00e+00	0	25	0	372244480	65	4202
2026-01-07 21:54:45.19	36.04	10.60	-49.5	-50.9	14.6	0.00e+00	0	24	0	375390208	65	4150
2026-01-07 21:54:46.20	36.19	10.65	-49.2	-50.6	14.7	0.00e+00	0	25	0	378535936	65	4025
2026-01-07 21:54:47.20	36.33	10.71	-49.2	-50.6	14.6	0.00e+00	0	25	0	381681664	64	4252
2026-01-07 21:54:48.19	36.47	10.76	-49.2	-50.5	14.6	0.00e+00	0	25	0	384827392	64	4224
2026-01-07 21:54:49.19	36.62	10.82	-49.2	-50.6	14.6	0.00e+00	0	24	0	387973120	64	4272
2026-01-07 21:54:50.19	36.77	10.87	-49.2	-50.6	14.6	0.00e+00	0	25	0	391118848	64	4246
2026-01-07 21:54:51.19	36.91	10.92	-49.3	-50.7	14.5	0.00e+00	0	25	0	394264576	64	4322
2026-01-07 21:54:52.19	37.06	10.98	-49.4	-50.8	14.5	0.00e+00	0	24	0	397410304	64	4348
2026-01-07 21:54:53.20	37.21	11.03	-49.4	-50.8	14.5	0.00e+00	0	24	0	400556032	64	4360
2026-01-07 21:54:54.19	37.36	11.08	-49.4	-50.9	14.5	0.00e+00	0	25	0	403701760	64	4395
2026-01-07 21:54:55.19	37.51	11.14	-49.5	-50.9	14.5	0.00e+00	0	25	0	406847488	64	4409
2026-01-07 21:54:56.19	37.66	11.19	-49.5	-50.9	14.5	0.00e+00	0	24	0	409993216	64	4430
2026-01-07 21:54:57.20	37.81	11.25	-49.4	-50.8	14.5	0.00e+00	0	25	0	413138944	64	4372
2026-01-07 21:54:58.20	37.96	11.30	-49.4	-50.8	14.5	0.00e+00	0	25	0	416284672	64	4366
2026-01-07 21:54:59.19	38.11	11.35	-49.4	-50.8	14.5	0.00e+00	0	25	0	419430400	64	4356
2026-01-07 21:55:00.19	38.26	11.41	-49.3	-50.7	14.6	0.00e+00	0	25	0	422576128	64	4321
2026-01-07 21:55:01.18	38.41	11.46	-49.3	-50.7	14.6	0.00e+00	0	24	0	425721856	64	4311
2026-01-07 21:55:02.19	38.57	11.51	-49.3	-50.7	14.5	0.00e+00	0	25	0	428867584	64	4304
2026-01-07 21:55:03.19	38.72	11.57	-49.1	-50.5	14.6	0.00e+00	0	25	0	432013312	64	4218
2026-01-07 21:55:04.19	38.87	11.62	-49.1	-50.5	14.7	0.00e+00	0	24	0	435159040	64	4211
2026-01-07 21:55:05.20	39.03	11.67	-49.1	-50.4	14.7	0.00e+00	0	25	0	438304768	64	4183
2026-01-07 21:55:06.20	39.18	11.73	-49.0	-50.4	14.7	0.00e+00	0	24	0	441450496	64	4155
2026-01-07 21:55:07.20	39.34	11.78	-49.0	-50.3	14.7	0.00e+00	0	25	0	444596224	64	4140
2026-01-07 21:55:08.20	39.50	11.83	-49.1	-50.4	14.7	0.00e+00	0	25	0	447741952	64	4187
2026-01-07 21:55:09.20	39.65	11.88	-49.1	-50.4	14.7	0.00e+00	0	25	0	450887680	64	4190
2026-01-07 21:55:10.20	39.81	11.94	-49.2	-50.5	14.6	0.00e+00	0	24	0	454033408	64	4226
2026-01-07 21:55:11.20	39.97	11.99	-49.2	-50.5	14.6	0.00e+00	0	25	0	457179136	64	4225
2026-01-07 21:55:12.19	40.12	12.04	-49.1	-50.5	14.7	0.00e+00	0	24	0	460324864	64	4203
2026-01-07 21:55:13.19	40.28	12.09	-49.2	-50.5	14.6	0.00e+00	0	25	0	463470592	64	4228
2026-01-07 21:55:14.20	40.44	12.15	-49.1	-50.5	14.7	0.00e+00	0	25	0	466616320	64	4203
2026-01-07 21:55:15.20	40.60	12.20	-49.0	-50.3	14.7	0.00e+00	0	25	0	469762048	64	4116
2026-01-07 21:55:16.20	40.76	12.25	-49.0	-50.4	14.7	0.00e+00	0	25	0	472907776	64	4164
2026-01-07 21:55:17.20	40.93	12.30	-49.0	-50.3	14.7	0.00e+00	0	25	0	476053504	64	4140
2026-01-07 21:55:18.20	41.09	12.35	-49.0	-50.3	14.7	0.00e+00	0	25	0	479199232	64	4134
2026-01-07 21:55:19.19	41.25	12.41	-49.1	-50.4	14.7	0.00e+00	0	25	0	481296384	64	4170
2026-01-07 21:55:20.19	41.41	12.46	-48.9	-50.2	14.8	0.00e+00	0	25	0	484442112	64	4095
2026-01-07 21:55:21.18	41.57	12.51	-48.9	-50.3	14.8	0.00e+00	0	24	0	487587840	64	4099
2026-01-07 21:55:22.18	41.74	12.56	-49.1	-50.4	14.7	0.00e+00	0	25	0	490733568	64	4165
2026-01-07 21:55:23.18	41.90	12.61	-49.2	-50.5	14.6	0.00e+00	0	25	0	493879296	64	4242
2026-01-07 21:55:24.18	42.06	12.66	-49.1	-50.4	14.7	0.00e+00	0	25	0	497025024	64	4172
2026-01-07 21:55:25.19	42.23	12.72	-49.2	-50.5	14.6	0.00e+00	0	25	0	500170752	64	4220
2026-01-07 21:55:26.19	42.40	12.77	-49.1	-50.5	14.6	0.00e+00	0	25	0	503316480	64	4220
2026-01-07 21:55:27.19	42.56	12.82	-49.1	-50.4	14.7	0.00e+00	0	25	0	506462208	64	4187
2026-01-07 21:55:28.19	42.73	12.87	-49.0	-50.4	14.7	0.00e+00	0	25	0	509607936	64	4162
2026-01-07 21:55:29.19	42.90	12.92	-49.0	-50.3	14.7	0.00e+00	0	25	0	512753664	64	4129
2026-01-07 21:55:30.19	43.07	12.97	-49.0	-50.3	14.7	0.00e+00	0	25	0	515899392	64	4132
2026-01-07 21:55:31.18	43.23	13.02	-49.1	-50.4	14.7	0.00e+00	0	25	0	519045120	64	4165
2026-01-07 21:55:32.18	43.40	13.07	-49.0	-50.4	14.7	0.00e+00	0	25	0	522190848	64	4152
2026-01-07 21:55:33.18	43.57	13.12	-49.0	-50.3	14.7	0.00e+00	0	24	0	525336576	64	4121
2026-01-07 21:55:34.18	43.74	13.17	-49.1	-50.4	14.7	0.00e+00	0	25	0	528482304	64	4173
2026-01-07 21:55:35.18	43.92	13.22	-49.1	-50.5	14.7	0.00e+00	0	25	0	531628032	64	4208
2026-01-07 21:55:36.17	44.09	13.27	-49.3	-50.6	14.6	0.00e+00	0	25	0	534773760	64	4282
2026-01-07 21:55:37.17	44.26	13.32	-49.2	-50.6	14.6	0.00e+00	0	25	0	537919488	64	4260
2026-01-07 21:55:38.16	44.43	13.37	-49.3	-50.7	14.6	0.00e+00	0	25	0	541065216	64	4329
2026-01-07 21:55:39.16	44.60	13.42	-49.4	-50.8	14.5	0.00e+00	0	25	0	544210944	64	4362
2026-01-07 21:55:40.15	44.77	13.47	-49.4	-50.7	14.5	0.00e+00	0	25	0	547356672	64	4340
2026-01-07 21:55:41.15	44.95	13.52	-49.3	-50.7	14.6	0.00e+00	0	25	0	550502400	64	4305
2026-01-07 21:55:42.15	45.12	13.57	-49.3	-50.7	14.6	0.00e+00	0	25	0	553648128	64	4322
2026-01-07 21:55:43.15	45.30	13.62	-49.4	-50.8	14.5	0.00e+00	0	25	0	556793856	64	4352
2026-01-07 21:55:44.15	45.47	13.67	-49.3	-50.7	14.6	0.00e+00	0	25	0	559939584	64	4302
2026-01-07 21:55:45.15	45.65	13.71	-49.4	-50.7	14.6	0.00e+00	0	25	0	563085312	64	4335
2026-01-07 21:55:46.15	45.83	13.76	-49.3	-50.7	14.6	0.00e+00	0	25	0	566231040	64	4312
2026-01-07 21:55:47.15	46.01	13.81	-49.3	-50.7	14.6	0.00e+00	0	25	0	569376768	64	4294
2026-01-07 21:55:48.15	46.19	13.86	-49.3	-50.7	14.6	0.00e+00	0	25	0	572522496	64	4304
2026-01-07 21:55:49.15	46.36	13.91	-49.3	-50.7	14.6	0.00e+00	0	25	0	575668224	64	4310
2026-01-07 21:55:50.15	46.54	13.96	-49.2	-50.6	14.6	0.00e+00	0	25	0	578813952	64	4255
2026-01-07 21:55:51.14	46.72	14.00	-49.1	-50.5	14.7	0.00e+00	0	25	0	581959680	64	4199
2026-01-07 21:55:52.14	46.90	14.05	-49.1	-50.5	14.7	0.00e+00	0	25	0	585105408	64	4208
2026-01-07 21:55:53.13	47.08	14.10	-49.0	-50.3	14.8	0.00e+00	0	25	0	588251136	64	4136
2026-01-07 21:55:54.14	47.27	14.15	-49.1	-50.4	14.7	0.00e+00	0	25	0	591396864	64	4161
2026-01-07 21:55:55.15	47.45	14.19	-49.0	-50.3	14.7	0.00e+00	0	25	0	594542592	64	4136
2026-01-07 21:55:56.15	47.63	14.24	-49.1	-50.5	14.7	0.00e+00	0	25	0	597688320	64	4195
2026-01-07 21:55:57.14	47.81	14.29	-49.1	-50.5	14.7	0.00e+00	0	25	0	600834048	64	4215
2026-01-07 21:55:58.14	48.00	14.33	-49.2	-50.6	14.6	0.00e+00	0	25	0	603979776	64	4269
2026-01-07 21:55:59.14	48.18	14.38	-49.2	-50.6	14.6	0.00e+00	0	25	0	607125504	64	4282
2026-01-07 21:56:00.14	48.37	14.43	-49.3	-50.7	14.6	0.00e+00	0	25	0	610271232	64	4298
2026-01-07 21:56:01.14	48.55	14.47	-49.3	-50.7	14.6	0.00e+00	0	25	0	613416960	64	4322
2026-01-07 21:56:02.14	48.74	14.52	-49.2	-50.6	14.6	0.00e+00	0	25	0	615514112	64	4267
2026-01-07 21:56:03.14	48.93	14.56	-49.3	-50.6	14.6	0.00e+00	0	25	0	618659840	64	4281
2026-01-07 21:56:04.14	49.11	14.61	-49.3	-50.6	14.6	0.00e+00	0	25	0	621805568	64	4268
2026-01-07 21:56:05.13	49.30	14.65	-49.1	-50.4	14.7	0.00e+00	0	25	0	624951296	64	4161
2026-01-07 21:56:06.13	49.49	14.70	-48.9	-50.2	14.8	0.00e+00	0	25	0	628097024	64	4093
2026-01-07 21:56:07.13	49.68	14.74	-49.0	-50.3	14.8	0.00e+00	0	25	0	631242752	64	4124
2026-01-07 21:56:08.13	49.87	14.79	-49.0	-50.3	14.8	0.00e+00	0	25	0	634388480	64	4111
2026-01-07 21:56:09.13	50.06	14.83	-48.9	-50.2	14.8	0.00e+00	0	25	0	637534208	64	4095
2026-01-07 21:56:10.12	50.25	14.88	-49.1	-50.4	14.7	0.00e+00	0	25	0	640679936	64	4160
2026-01-07 21:56:11.12	50.44	14.92	-49.0	-50.4	14.7	0.00e+00	0	25	0	643825664	64	4157
2026-01-07 21:56:12.12	50.63	14.97	-49.1	-50.4	14.7	0.00e+00	0	25	0	646971392	64	4180
2026-01-07 21:56:13.12	50.82	15.01	-49.2	-50.5	14.7	0.00e+00	0	25	0	650117120	64	4227
2026-01-07 21:56:14.12	51.01	15.05	-49.2	-50.5	14.6	0.00e+00	0	25	0	653262848	64	4229
2026-01-07 21:56:15.12	51.21	15.10	-49.2	-50.6	14.6	0.00e+00	0	25	0	656408576	64	4258
2026-01-07 21:56:16.11	51.40	15.14	-49.2	-50.6	14.6	0.00e+00	0	25	0	659554304	64	4269
2026-01-07 21:56:17.12	51.60	15.18	-49.2	-50.6	14.6	0.00e+00	0	25	0	662700032	64	4254
2026-01-07 21:56:18.12	51.79	15.22	-49.0	-50.3	14.7	0.00e+00	0	25	0	665845760	64	4145
2026-01-07 21:56:19.12	51.99	15.27	-48.9	-50.2	14.8	0.00e+00	0	25	0	668991488	64	4098
2026-01-07 21:56:20.12	52.18	15.31	-48.9	-50.2	14.8	0.00e+00	0	25	0	672137216	64	4075
2026-01-07 21:56:21.12	52.38	15.35	-48.9	-50.2	14.8	0.00e+00	0	25	0	675282944	64	4094
2026-01-07 21:56:22.11	52.58	15.39	-48.8	-50.1	14.9	0.00e+00	0	25	0	678428672	64	4010
2026-01-07 21:56:23.12	52.77	15.43	-48.8	-50.1	14.9	0.00e+00	0	25	0	681574400	64	4026
2026-01-07 21:56:24.12	52.97	15.47	-48.8	-50.1	14.9	0.00e+00	0	25	0	684720128	64	4016
2026-01-07 21:56:25.11	53.17	15.51	-48.9	-50.2	14.8	0.00e+00	0	25	0	687865856	64	4059
2026-01-07 21:56:26.11	53.37	15.56	-48.9	-50.3	14.8	0.00e+00	0	25	0	691011584	64	4109
2026-01-07 21:56:27.11	53.57	15.60	-49.0	-50.3	14.8	0.00e+00	0	25	0	694157312	64	4129
2026-01-07 21:56:28.10	53.77	15.64	-49.1	-50.4	14.7	0.00e+00	0	25	0	697303040	64	4181
2026-01-07 21:56:29.10	53.97	15.68	-48.9	-50.2	14.8	0.00e+00	0	25	0	700448768	64	4072
2026-01-07 21:56:30.10	54.17	15.71	-48.8	-50.1	14.9	0.00e+00	0	25	0	703594496	64	4039
2026-01-07 21:56:31.10	54.37	15.75	-48.8	-50.2	14.8	0.00e+00	0	25	0	706740224	64	4054
2026-01-07 21:56:32.10	54.57	15.79	-48.7	-49.9	14.8	0.00e+00	0	25	0	709885952	63	4190
2026-01-07 21:56:33.09	54.78	15.83	-48.6	-49.9	14.8	0.00e+00	0	25	0	713031680	63	4179
2026-01-07 21:56:34.10	54.98	15.87	-48.6	-49.9	14.8	0.00e+00	0	25	0	716177408	63	4166
2026-01-07 21:56:35.09	55.18	15.91	-48.6	-49.8	14.8	0.00e+00	0	25	0	719323136	63	4132
2026-01-07 21:56:36.08	55.39	15.95	-48.6	-49.9	14.8	0.00e+00	0	25	0	722468864	63	4146
2026-01-07 21:56:37.08	55.59	15.98	-48.7	-50.0	14.8	0.00e+00	0	25	0	725614592	63	4211
2026-01-07 21:56:38.08	55.80	16.02	-48.6	-49.9	14.8	0.00e+00	0	25	0	728760320	63	4159
2026-01-07 21:56:39.08	56.00	16.06	-48.7	-50.0	14.8	0.00e+00	0	25	0	731906048	63	4207
2026-01-07 21:56:40.08	56.21	16.09	-48.7	-50.0	14.7	0.00e+00	0	25	0	735051776	63	4217
2026-01-07 21:56:41.07	56.41	16.13	-48.8	-50.0	14.7	0.00e+00	0	25	0	738197504	63	4238
2026-01-07 21:56:42.07	56.62	16.17	-48.7	-50.0	14.7	0.00e+00	0	25	0	741343232	63	4227
2026-01-07 21:56:43.07	56.83	16.20	-48.8	-50.1	14.7	0.00e+00	0	25	0	744488960	63	4273
2026-01-07 21:56:44.06	57.04	16.24	-48.7	-50.0	14.8	0.00e+00	0	25	0	747634688	63	4197
2026-01-07 21:56:45.06	57.24	16.27	-48.8	-50.1	14.7	0.00e+00	0	25	0	749731840	63	4252
2026-01-07 21:56:46.05	57.45	16.31	-48.7	-50.0	14.8	0.00e+00	0	25	0	752877568	63	4221
2026-01-07 21:56:47.05	57.66	16.34	-48.6	-49.8	14.8	0.00e+00	0	25	0	756023296	63	4142
2026-01-07 21:56:48.05	57.87	16.38	-48.5	-49.8	14.8	0.00e+00	0	25	0	759169024	63	4120
2026-01-07 21:56:49.05	58.08	16.41	-48.5	-49.8	14.8	0.00e+00	0	25	0	762314752	63	4122
2026-01-07 21:56:50.05	58.29	16.44	-48.5	-49.7	14.9	0.00e+00	0	25	0	765460480	63	4092
2026-01-07 21:56:51.03	58.50	16.48	-48.4	-49.6	14.9	0.00e+00	0	25	0	768606208	63	4037
2026-01-07 21:56:52.03	58.71	16.51	-48.5	-49.7	14.9	0.00e+00	0	25	0	771751936	63	4093
2026-01-07 21:56:53.02	58.92	16.54	-48.5	-49.8	14.9	0.00e+00	0	25	0	774897664	63	4105
2026-01-07 21:56:54.02	59.14	16.57	-48.5	-49.7	14.9	0.00e+00	0	25	0	778043392	63	4073
2026-01-07 21:56:55.02	59.35	16.61	-48.6	-49.9	14.8	0.00e+00	0	25	0	781189120	63	4168
2026-01-07 21:56:56.01	59.56	16.64	-48.5	-49.8	14.9	0.00e+00	0	25	0	784334848	63	4102
2026-01-07 21:56:57.02	59.78	16.67	-48.5	-49.8	14.8	0.00e+00	0	25	0	787480576	63	4116
2026-01-07 21:56:58.02	59.99	16.70	-48.5	-49.8	14.9	0.00e+00	0	25	0	790626304	63	4118
2026-01-07 21:56:59.01	60.21	16.73	-48.5	-49.7	14.9	0.00e+00	0	25	0	793772032	63	4094
2026-01-07 21:57:00.01	60.42	16.76	-48.5	-49.8	14.9	0.00e+00	0	25	0	796917760	63	4106
2026-01-07 21:57:01.01	60.64	16.79	-48.5	-49.7	14.9	0.00e+00	0	25	0	800063488	63	4085
2026-01-07 21:57:02.00	60.85	16.82	-48.4	-49.7	14.9	0.00e+00	0	25	0	803209216	63	4054
2026-01-07 21:57:03.00	61.07	16.85	-48.4	-49.6	14.9	0.00e+00	0	25	0	806354944	63	4034
2026-01-07 21:57:03.99	61.29	16.88	-48.4	-49.6	14.9	0.00e+00	0	25	0	809500672	63	4051
2026-01-07 21:57:04.99	61.50	16.91	-48.4	-49.6	14.9	0.00e+00	0	25	0	812646400	63	4026
2026-01-07 21:57:05.99	61.72	16.93	-48.4	-49.7	14.9	0.00e+00	0	25	0	815792128	63	4058
2026-01-07 21:57:06.98	61.94	16.96	-48.4	-49.6	14.9	0.00e+00	0	25	0	818937856	63	4037
2026-01-07 21:57:07.98	62.16	16.99	-48.4	-49.6	14.9	0.00e+00	0	25	0	822083584	63	4051
2026-01-07 21:57:08.98	62.38	17.02	-48.4	-49.6	14.9	0.00e+00	0	25	0	825229312	63	4030
2026-01-07 21:57:09.97	62.59	17.04	-48.4	-49.6	14.9	0.00e+00	0	25	0	828375040	63	4030
2026-01-07 21:57:10.97	62.81	17.07	-48.4	-49.7	14.9	0.00e+00	0	25	0	831520768	63	4075
2026-01-07 21:57:11.97	63.04	17.10	-48.4	-49.6	14.9	0.00e+00	0	25	0	834666496	63	4031
2026-01-07 21:57:12.95	63.25	17.12	-48.4	-49.7	14.9	0.00e+00	0	25	0	837812224	63	4063
2026-01-07 21:57:13.94	63.47	17.15	-48.4	-49.7	14.9	0.00e+00	0	25	0	839909376	63	4052
2026-01-07 21:57:14.94	63.69	17.17	-48.4	-49.6	14.9	0.00e+00	0	25	0	843055104	63	4043
2026-01-07 21:57:15.93	63.91	17.20	-48.4	-49.7	14.9	0.00e+00	0	24	0	846200832	63	4067
2026-01-07 21:57:16.93	64.13	17.22	-48.4	-49.6	14.9	0.00e+00	0	25	0	849346560	63	4040
2026-01-07 21:57:17.93	64.36	17.24	-48.4	-49.7	14.9	0.00e+00	0	25	0	852492288	63	4067
2026-01-07 21:57:18.93	64.58	17.27	-48.4	-49.7	14.9	0.00e+00	0	25	0	855638016	63	4065
2026-01-07 21:57:19.93	64.80	17.29	-48.3	-49.5	15.0	0.00e+00	0	25	0	858783744	63	3984
2026-01-07 21:57:20.93	65.03	17.31	-48.2	-49.5	15.0	0.00e+00	0	25	0	861929472	63	3959
2026-01-07 21:57:21.93	65.25	17.33	-48.3	-49.6	15.0	0.00e+00	0	25	0	865075200	63	4017
2026-01-07 21:57:22.93	65.48	17.36	-48.4	-49.6	14.9	0.00e+00	0	25	0	868220928	63	4047
2026-01-07 21:57:23.92	65.70	17.38	-48.5	-49.7	14.9	0.00e+00	0	25	0	871366656	63	4096
2026-01-07 21:57:24.92	65.92	17.40	-48.6	-49.8	14.8	0.00e+00	0	25	0	874512384	63	4142
2026-01-07 21:57:25.92	66.15	17.42	-48.7	-50.0	14.8	0.00e+00	0	25	0	877658112	63	4196
2026-01-07 21:57:26.92	66.37	17.44	-48.7	-50.0	14.8	0.00e+00	0	25	0	880803840	63	4216
2026-01-07 21:57:27.92	66.60	17.46	-48.7	-50.0	14.8	0.00e+00	0	25	0	883949568	63	4216
2026-01-07 21:57:28.92	66.83	17.48	-48.7	-50.0	14.8	0.00e+00	0	25	0	887095296	63	4199
2026-01-07 21:57:29.91	67.05	17.50	-48.8	-50.1	14.7	0.00e+00	0	25	0	890241024	63	4279
2026-01-07 21:57:30.91	67.28	17.52	-48.6	-49.9	14.8	0.00e+00	0	25	0	893386752	63	4173
2026-01-07 21:57:31.91	67.50	17.53	-48.5	-49.8	14.9	0.00e+00	0	25	0	896532480	63	4102
2026-01-07 21:57:32.91	67.73	17.55	-48.5	-49.8	14.9	0.00e+00	0	25	0	899678208	63	4117
2026-01-07 21:57:33.90	67.96	17.57	-48.7	-50.0	14.8	0.00e+00	0	25	0	902823936	63	4216
2026-01-07 21:57:34.89	68.18	17.58	-48.7	-49.9	14.8	0.00e+00	0	25	0	905969664	63	4192
2026-01-07 21:57:35.89	68.41	17.60	-48.6	-49.9	14.8	0.00e+00	0	25	0	909115392	63	4171
2026-01-07 21:57:36.88	68.64	17.62	-48.7	-50.0	14.8	0.00e+00	0	25	0	912261120	63	4200
2026-01-07 21:57:37.88	68.86	17.63	-48.6	-49.9	14.8	0.00e+00	0	25	0	915406848	63	4146
2026-01-07 21:57:38.88	69.09	17.65	-48.4	-49.6	14.9	0.00e+00	0	25	0	918552576	63	4044
2026-01-07 21:57:39.88	69.32	17.66	-48.4	-49.6	14.9	0.00e+00	0	25	0	921698304	63	4019
2026-01-07 21:57:40.87	69.55	17.68	-48.4	-49.7	14.9	0.00e+00	0	25	0	924844032	63	4069
2026-01-07 21:57:41.86	69.78	17.69	-48.5	-49.7	14.9	0.00e+00	0	25	0	927989760	63	4092
2026-01-07 21:57:42.86	70.01	17.70	-48.6	-49.8	14.8	0.00e+00	0	25	0	931135488	63	4145
2026-01-07 21:57:43.85	70.23	17.72	-48.6	-49.8	14.9	0.00e+00	0	25	0	934281216	63	4126
2026-01-07 21:57:44.85	70.46	17.73	-48.6	-49.9	14.8	0.00e+00	0	25	0	937426944	63	4150
2026-01-07 21:57:45.85	70.69	17.74	-48.5	-49.8	14.9	0.00e+00	0	25	0	940572672	63	4102
2026-01-07 21:57:46.85	70.92	17.75	-48.6	-49.9	14.8	0.00e+00	0	25	0	943718400	63	4160
2026-01-07 21:57:47.84	71.15	17.76	-48.5	-49.7	14.9	0.00e+00	0	25	0	945815552	63	4083
2026-01-07 21:57:48.84	71.38	17.77	-48.6	-49.9	14.8	0.00e+00	0	25	0	948961280	63	4172
2026-01-07 21:57:49.83	71.61	17.79	-48.5	-49.8	14.9	0.00e+00	0	25	0	952107008	63	4127
2026-01-07 21:57:50.83	71.84	17.79	-48.5	-49.8	14.9	0.00e+00	0	25	0	955252736	63	4099
2026-01-07 21:57:51.82	72.07	17.80	-48.6	-49.9	14.8	0.00e+00	0	25	0	958398464	63	4171
2026-01-07 21:57:52.83	72.30	17.81	-48.6	-49.9	14.8	0.00e+00	0	25	0	961544192	63	4167
2026-01-07 21:57:53.83	72.54	17.82	-48.6	-49.8	14.8	0.00e+00	0	25	0	964689920	63	4136
2026-01-07 21:57:54.83	72.77	17.83	-48.6	-49.8	14.9	0.00e+00	0	25	0	967835648	63	4124
2026-01-07 21:57:55.82	73.00	17.84	-48.5	-49.7	14.9	0.00e+00	0	25	0	970981376	63	4098
2026-01-07 21:57:56.81	73.23	17.85	-48.4	-49.7	14.9	0.00e+00	0	25	0	974127104	63	4067
2026-01-07 21:57:57.80	73.46	17.85	-48.5	-49.8	14.9	0.00e+00	0	25	0	977272832	63	4110
2026-01-07 21:57:58.80	73.69	17.86	-48.5	-49.8	14.9	0.00e+00	0	25	0	980418560	63	4119
2026-01-07 21:57:59.79	73.92	17.86	-48.5	-49.7	14.9	0.00e+00	0	25	0	983564288	63	4081
2026-01-07 21:58:00.79	74.15	17.87	-48.6	-49.8	14.9	0.00e+00	0	25	0	986710016	63	4127
2026-01-07 21:58:01.80	74.38	17.87	-48.5	-49.8	14.9	0.00e+00	0	25	0	989855744	63	4103
2026-01-07 21:58:02.80	74.62	17.88	-48.6	-49.9	14.8	0.00e+00	0	25	0	993001472	63	4156
2026-01-07 21:58:03.80	74.85	17.88	-48.5	-49.7	14.9	0.00e+00	0	25	0	996147200	63	4072
2026-01-07 21:58:04.81	75.08	17.89	-48.4	-49.7	14.9	0.00e+00	0	25	0	999292928	63	4059
2026-01-07 21:58:05.81	75.32	17.89	-48.5	-49.7	14.9	0.00e+00	0	25	0	1002438656	63	4072
2026-01-07 21:58:06.81	75.55	17.89	-48.3	-49.6	14.9	0.00e+00	0	25	0	1005584384	63	4017
2026-01-07 21:58:07.81	75.78	17.90	-48.4	-49.6	14.9	0.00e+00	0	25	0	1008730112	63	4029
2026-01-07 21:58:08.80	76.01	17.90	-48.3	-49.5	15.0	0.00e+00	0	25	0	1011875840	63	4001
2026-01-07 21:58:09.80	76.24	17.90	-48.4	-49.6	15.0	0.00e+00	0	25	0	1015021568	63	4028
2026-01-07 21:58:10.80	76.48	17.90	-48.4	-49.6	14.9	0.00e+00	0	25	0	1018167296	63	4051
2026-01-07 21:58:11.80	76.71	17.90	-48.4	-49.6	14.9	0.00e+00	0	25	0	1021313024	63	4032
2026-01-07 21:58:12.79	76.94	17.90	-48.4	-49.7	14.9	0.00e+00	0	25	0	1024458752	63	4061
2026-01-07 21:58:13.79	77.17	17.90	-48.5	-49.8	14.8	0.00e+00	0	25	0	1027604480	63	4128
2026-01-07 21:58:14.79	77.41	17.90	-48.5	-49.8	14.8	0.00e+00	0	25	0	1030750208	63	4107
2026-01-07 21:58:15.79	77.64	17.90	-48.5	-49.8	14.9	0.00e+00	0	25	0	1033895936	63	4112
2026-01-07 21:58:16.79	77.87	17.90	-48.5	-49.8	14.9	0.00e+00	0	25	0	1037041664	63	4121
2026-01-07 21:58:17.79	78.10	17.89	-48.5	-49.7	14.9	0.00e+00	0	25	0	1040187392	63	4082
2026-01-07 21:58:18.78	78.33	17.89	-48.5	-49.8	14.9	0.00e+00	0	25	0	1043333120	63	4100
2026-01-07 21:58:19.79	78.57	17.89	-48.5	-49.8	14.9	0.00e+00	0	25	0	1046478848	63	4102
2026-01-07 21:58:20.79	78.80	17.88	-48.6	-49.9	14.8	0.00e+00	0	25	0	1049624576	63	4172
2026-01-07 21:58:21.78	79.03	17.88	-48.6	-49.9	14.8	0.00e+00	0	25	0	1052770304	63	4170
2026-01-07 21:58:22.79	79.27	17.88	-48.7	-50.0	14.8	0.00e+00	0	25	0	1055916032	63	4221
2026-01-07 21:58:23.79	79.50	17.87	-48.7	-50.0	14.7	0.00e+00	0	25	0	1059061760	63	4242
2026-01-07 21:58:24.78	79.73	17.87	-48.7	-50.0	14.8	0.00e+00	0	25	0	1062207488	63	4210
2026-01-07 21:58:25.78	79.96	17.86	-48.6	-49.9	14.8	0.00e+00	0	25	0	1065353216	63	4150
2026-01-07 21:58:26.78	80.19	17.85	-48.6	-49.9	14.8	0.00e+00	0	25	0	1068498944	63	4161
2026-01-07 21:58:27.78	80.42	17.85	-48.5	-49.8	14.9	0.00e+00	0	25	0	1071644672	63	4114
2026-01-07 21:58:28.77	80.65	17.84	-48.6	-49.9	14.8	0.00e+00	0	25	0	1074790400	63	4157
2026-01-07 21:58:29.78	80.89	17.83	-48.6	-49.9	14.8	0.00e+00	0	25	0	1077936128	63	4163
2026-01-07 21:58:30.78	81.12	17.82	-48.7	-50.0	14.8	0.00e+00	0	25	0	1080033280	63	4217
2026-01-07 21:58:31.77	81.35	17.81	-48.6	-49.9	14.8	0.00e+00	0	25	0	1083179008	63	4177
2026-01-07 21:58:32.77	81.58	17.81	-48.5	-49.8	14.9	0.00e+00	0	25	0	1086324736	63	4111
2026-01-07 21:58:33.77	81.81	17.80	-48.4	-49.6	14.9	0.00e+00	0	25	0	1089470464	63	4046
2026-01-07 21:58:34.76	82.04	17.79	-48.4	-49.6	15.0	0.00e+00	0	25	0	1092616192	63	4030
2026-01-07 21:58:35.76	82.27	17.78	-48.4	-49.6	14.9	0.00e+00	0	25	0	1095761920	63	4035
2026-01-07 21:58:36.76	82.50	17.77	-48.5	-49.8	14.8	0.00e+00	0	25	0	1098907648	63	4115
2026-01-07 21:58:37.75	82.73	17.75	-48.7	-50.0	14.8	0.00e+00	0	25	0	1102053376	63	4207
2026-01-07 21:58:38.75	82.96	17.74	-48.7	-50.0	14.8	0.00e+00	0	25	0	1105199104	63	4231
2026-01-07 21:58:39.74	83.19	17.73	-48.7	-50.1	14.8	0.00e+00	0	25	0	1108344832	63	4243
2026-01-07 21:58:40.74	83.42	17.72	-48.8	-50.1	14.8	0.00e+00	0	25	0	1111490560	63	4261
2026-01-07 21:58:41.73	83.65	17.71	-48.7	-50.0	14.8	0.00e+00	0	25	0	1114636288	63	4217
2026-01-07 21:58:42.73	83.88	17.69	-48.6	-49.9	14.8	0.00e+00	0	25	0	1117782016	63	4157
2026-01-07 21:58:43.73	84.11	17.68	-48.5	-49.8	14.9	0.00e+00	0	25	0	1120927744	63	4127
2026-01-07 21:58:44.73	84.34	17.66	-48.5	-49.8	14.9	0.00e+00	0	25	0	1124073472	63	4121
2026-01-07 21:58:45.74	84.57	17.65	-48.5	-49.7	14.9	0.00e+00	0	25	0	1127219200	63	4081
2026-01-07 21:58:46.73	84.79	17.63	-48.5	-49.8	14.9	0.00e+00	0	25	0	1130364928	63	4100
2026-01-07 21:58:47.72	85.02	17.62	-48.3	-49.6	14.9	0.00e+00	0	25	0	1133510656	63	4016
2026-01-07 21:58:48.72	85.25	17.60	-48.4	-49.6	14.9	0.00e+00	0	25	0	1136656384	63	4045
2026-01-07 21:58:49.72	85.48	17.59	-48.4	-49.6	15.0	0.00e+00	0	25	0	1139802112	63	4046
2026-01-07 21:58:50.72	85.71	17.57	-48.3	-49.6	14.9	0.00e+00	0	25	0	1142947840	63	4023
2026-01-07 21:58:51.71	85.93	17.55	-48.3	-49.5	14.9	0.00e+00	0	25	0	1146093568	63	3999
2026-01-07 21:58:52.71	86.16	17.53	-48.4	-49.6	14.9	0.00e+00	0	25	0	1149239296	63	4025
2026-01-07 21:58:53.71	86.39	17.52	-48.4	-49.6	14.9	0.00e+00	0	25	0	1152385024	63	4043
2026-01-07 21:58:54.72	86.62	17.50	-48.4	-49.6	14.9	0.00e+00	0	25	0	1155530752	63	4046
2026-01-07 21:58:55.72	86.84	17.48	-48.5	-49.7	14.9	0.00e+00	0	25	0	1158676480	63	4085
2026-01-07 21:58:56.71	87.07	17.46	-48.5	-49.8	14.8	0.00e+00	0	25	0	1161822208	63	4122
2026-01-07 21:58:57.71	87.29	17.44	-48.5	-49.8	14.9	0.00e+00	0	25	0	1164967936	63	4115
2026-01-07 21:58:58.71	87.52	17.42	-48.3	-49.6	14.9	0.00e+00	0	25	0	1168113664	63	4025
2026-01-07 21:58:59.71	87.75	17.40	-48.4	-49.6	14.9	0.00e+00	0	25	0	1171259392	63	4035
2026-01-07 21:59:00.71	87.97	17.38	-48.4	-49.6	14.9	0.00e+00	0	25	0	1174405120	63	4036
2026-01-07 21:59:01.71	88.20	17.36	-48.3	-49.5	15.0	0.00e+00	0	25	0	1177550848	63	3989
2026-01-07 21:59:02.71	88.42	17.34	-48.5	-49.7	14.9	0.00e+00	0	25	0	1180696576	63	4076
2026-01-07 21:59:03.71	88.64	17.31	-48.5	-49.8	14.9	0.00e+00	0	25	0	1183842304	63	4106
2026-01-07 21:59:04.71	88.87	17.29	-48.5	-49.8	14.9	0.00e+00	0	25	0	1186988032	63	4116
2026-01-07 21:59:05.71	89.09	17.27	-48.4	-49.7	14.9	0.00e+00	0	25	0	1190133760	63	4060
2026-01-07 21:59:06.70	89.31	17.24	-48.4	-49.7	14.9	0.00e+00	0	25	0	1193279488	63	4059
2026-01-07 21:59:07.70	89.54	17.22	-48.4	-49.7	14.9	0.00e+00	0	25	0	1195376640	63	4052
2026-01-07 21:59:08.70	89.76	17.20	-48.6	-49.9	14.8	0.00e+00	0	25	0	1199570944	63	4161
2026-01-07 21:59:09.70	89.98	17.17	-48.6	-49.9	14.8	0.00e+00	0	25	0	1201668096	63	4183
2026-01-07 21:59:10.69	90.20	17.15	-48.6	-49.8	14.8	0.00e+00	0	25	0	1204813824	63	4134
2026-01-07 21:59:11.69	90.42	17.12	-48.6	-49.9	14.8	0.00e+00	0	25	0	1207959552	63	4177
2026-01-07 21:59:12.68	90.64	17.10	-48.5	-49.8	14.9	0.00e+00	0	25	0	1211105280	63	4113
2026-01-07 21:59:13.68	90.86	17.07	-48.5	-49.7	14.9	0.00e+00	0	25	0	1214251008	63	4095
2026-01-07 21:59:14.68	91.08	17.04	-48.4	-49.7	14.9	0.00e+00	0	25	0	1217396736	63	4062
2026-01-07 21:59:15.68	91.31	17.02	-48.4	-49.6	14.9	0.00e+00	0	25	0	1220542464	63	4033
2026-01-07 21:59:16.69	91.53	16.99	-48.3	-49.6	14.9	0.00e+00	0	25	0	1223688192	63	4017
2026-01-07 21:59:17.69	91.75	16.96	-48.5	-49.8	14.9	0.00e+00	0	25	0	1226833920	63	4108
2026-01-07 21:59:18.68	91.96	16.93	-48.4	-49.7	14.9	0.00e+00	0	25	0	1229979648	63	4057
2026-01-07 21:59:19.69	92.18	16.91	-48.4	-49.7	14.9	0.00e+00	0	25	0	1233125376	63	4066
2026-01-07 21:59:20.68	92.40	16.88	-48.3	-49.6	15.0	0.00e+00	0	25	0	1236271104	63	4006
2026-01-07 21:59:21.69	92.62	16.85	-48.2	-49.4	15.0	0.00e+00	0	25	0	1239416832	63	3939
2026-01-07 21:59:22.68	92.84	16.82	-48.2	-49.4	15.0	0.00e+00	0	25	0	1242562560	63	3953
2026-01-07 21:59:23.68	93.05	16.79	-48.3	-49.5	15.0	0.00e+00	0	25	0	1245708288	63	3965
2026-01-07 21:59:24.68	93.27	16.76	-48.3	-49.5	15.0	0.00e+00	0	25	0	1248854016	63	3969
2026-01-07 21:59:25.69	93.49	16.73	-48.3	-49.6	15.0	0.00e+00	0	25	0	1251999744	63	4010
2026-01-07 21:59:26.68	93.70	16.70	-48.4	-49.7	14.9	0.00e+00	0	25	0	1255145472	63	4062
2026-01-07 21:59:27.69	93.92	16.67	-48.3	-49.6	15.0	0.00e+00	0	25	0	1258291200	63	4012
2026-01-07 21:59:28.69	94.13	16.64	-48.5	-49.7	14.9	0.00e+00	0	25	0	1261436928	63	4082
2026-01-07 21:59:29.69	94.35	16.60	-48.5	-49.7	14.9	0.00e+00	0	25	0	1264582656	63	4077
2026-01-07 21:59:30.69	94.56	16.57	-48.5	-49.8	14.9	0.00e+00	0	25	0	1267728384	63	4099
2026-01-07 21:59:31.69	94.78	16.54	-48.4	-49.6	14.9	0.00e+00	0	25	0	1270874112	63	4042
2026-01-07 21:59:32.69	94.99	16.51	-48.4	-49.6	14.9	0.00e+00	0	25	0	1274019840	63	4051
2026-01-07 21:59:33.68	95.20	16.47	-48.4	-49.6	14.9	0.00e+00	0	25	0	1277165568	63	4026
2026-01-07 21:59:34.68	95.41	16.44	-48.5	-49.7	14.9	0.00e+00	0	25	0	1280311296	63	4076
2026-01-07 21:59:35.68	95.62	16.41	-48.4	-49.6	14.9	0.00e+00	0	25	0	1283457024	63	4051
2026-01-07 21:59:36.68	95.84	16.37	-48.6	-49.8	14.9	0.00e+00	0	25	0	1286602752	63	4124
2026-01-07 21:59:37.68	96.05	16.34	-48.4	-49.6	14.9	0.00e+00	0	25	0	1289748480	63	4023
2026-01-07 21:59:38.67	96.26	16.30	-48.4	-49.6	14.9	0.00e+00	0	25	0	1292894208	63	4042
2026-01-07 21:59:39.66	96.46	16.27	-48.6	-49.9	14.8	0.00e+00	0	25	0	1296039936	63	4153
2026-01-07 21:59:40.66	96.67	16.23	-48.6	-49.9	14.8	0.00e+00	0	25	0	1299185664	63	4172
2026-01-07 21:59:41.66	96.88	16.20	-48.6	-49.9	14.8	0.00e+00	0	25	0	1302331392	63	4149
2026-01-07 21:59:42.64	97.09	16.16	-48.5	-49.8	14.9	0.00e+00	0	25	0	1305477120	63	4100
2026-01-07 21:59:43.63	97.29	16.13	-48.4	-49.7	14.9	0.00e+00	0	25	0	1308622848	63	4069
2026-01-07 21:59:44.63	97.50	16.09	-48.6	-49.8	14.9	0.00e+00	0	25	0	1311768576	63	4129
2026-01-07 21:59:45.63	97.71	16.05	-48.5	-49.7	14.9	0.00e+00	0	25	0	1314914304	63	4093
2026-01-07 21:59:46.62	97.91	16.02	-48.5	-49.8	14.9	0.00e+00	0	25	0	1318060032	63	4105
2026-01-07 21:59:47.62	98.12	15.98	-48.4	-49.7	14.9	0.00e+00	0	25	0	1321205760	63	4059
2026-01-07 21:59:48.62	98.32	15.94	-48.4	-49.7	14.9	0.00e+00	0	25	0	1324351488	63	4053
2026-01-07 21:59:49.62	98.53	15.90	-48.4	-49.6	14.9	0.00e+00	0	25	0	1326448640	63	4038
2026-01-07 21:59:50.62	98.73	15.86	-48.4	-49.7	14.9	0.00e+00	0	25	0	1329594368	63	4052
2026-01-07 21:59:51.62	98.94	15.83	-48.5	-49.8	14.9	0.00e+00	0	25	0	1332740096	63	4113
2026-01-07 21:59:52.62	99.14	15.79	-48.6	-49.8	14.8	0.00e+00	0	25	0	1335885824	63	4142
2026-01-07 21:59:53.62	99.34	15.75	-48.7	-50.0	14.8	0.00e+00	0	25	0	1339031552	63	4205
2026-01-07 21:59:54.62	99.55	15.71	-48.8	-50.1	14.7	0.00e+00	0	25	0	1342177280	63	4289
2026-01-07 21:59:55.63	99.75	15.67	-48.9	-50.2	14.7	0.00e+00	0	25	0	1345323008	63	4333
2026-01-07 21:59:56.63	99.95	15.63	-48.9	-50.3	14.6	0.00e+00	0	25	0	1348468736	63	4342
2026-01-07 21:59:57.63	100.15	15.59	-48.9	-50.2	14.7	0.00e+00	0	25	0	1351614464	63	4325
2026-01-07 21:59:58.63	100.35	15.55	-48.9	-50.2	14.7	0.00e+00	0	25	0	1354760192	63	4298
2026-01-07 21:59:59.63	100.55	15.51	-48.9	-50.2	14.7	0.00e+00	0	25	0	1357905920	63	4332
2026-01-07 22:00:00.63	100.75	15.47	-49.0	-50.3	14.6	0.00e+00	0	25	0	1361051648	63	4350
2026-01-07 22:00:01.63	100.95	15.42	-48.8	-50.1	14.7	0.00e+00	0	25	0	1364197376	63	4264
2026-01-07 22:00:02.63	101.15	15.38	-48.8	-50.0	14.7	0.00e+00	0	25	0	1367343104	63	4239
2026-01-07 22:00:03.63	101.35	15.34	-48.8	-50.1	14.7	0.00e+00	0	25	0	1370488832	63	4251
2026-01-07 22:00:04.63	101.55	15.30	-48.8	-50.1	14.7	0.00e+00	0	25	0	1373634560	63	4272
2026-01-07 22:00:05.63	101.74	15.26	-49.0	-50.3	14.6	0.00e+00	0	25	0	1376780288	63	4356
2026-01-07 22:00:06.64	101.94	15.21	-49.1	-50.4	14.6	0.00e+00	0	25	0	1379926016	63	4431
2026-01-07 22:00:07.64	102.14	15.17	-49.2	-50.5	14.5	0.00e+00	0	25	0	1383071744	63	4484
2026-01-07 22:00:08.64	102.33	15.13	-49.3	-50.6	14.5	0.00e+00	0	25	0	1386217472	63	4538
2026-01-07 22:00:09.64	102.53	15.08	-49.3	-50.7	14.5	0.00e+00	0	25	0	1389363200	63	4548
2026-01-07 22:00:10.63	102.72	15.04	-49.2	-50.6	14.5	0.00e+00	0	25	0	1392508928	63	4517
2026-01-07 22:00:11.63	102.91	15.00	-49.3	-50.6	14.5	0.00e+00	0	25	0	1395654656	63	4538
2026-01-07 22:00:12.62	103.10	14.95	-49.2	-50.6	14.5	0.00e+00	0	25	0	1398800384	63	4495
2026-01-07 22:00:13.62	103.29	14.91	-49.1	-50.5	14.5	0.00e+00	0	25	0	1401946112	63	4446
2026-01-07 22:00:14.62	103.49	14.87	-49.1	-50.5	14.6	0.00e+00	0	25	0	1405091840	63	4451
2026-01-07 22:00:15.61	103.68	14.82	-49.0	-50.3	14.6	0.00e+00	0	25	0	1408237568	63	4362
2026-01-07 22:00:16.60	103.86	14.78	-48.9	-50.2	14.7	0.00e+00	0	25	0	1411383296	63	4325
2026-01-07 22:00:17.61	104.06	14.73	-48.9	-50.2	14.6	0.00e+00	0	25	0	1414529024	63	4327
2026-01-07 22:00:18.62	104.25	14.69	-48.9	-50.2	14.6	0.00e+00	0	25	0	1417674752	63	4333
2026-01-07 22:00:19.62	104.44	14.64	-49.0	-50.3	14.7	0.00e+00	0	25	0	1420820480	63	4354
2026-01-07 22:00:20.62	104.63	14.60	-49.1	-50.5	14.6	0.00e+00	0	25	0	1423966208	63	4446
2026-01-07 22:00:21.62	104.81	14.55	-49.2	-50.5	14.5	0.00e+00	0	25	0	1427111936	63	4485
2026-01-07 22:00:22.62	105.00	14.50	-49.3	-50.7	14.5	0.00e+00	0	25	0	1430257664	63	4550
2026-01-07 22:00:23.62	105.19	14.46	-49.2	-50.5	14.5	0.00e+00	0	25	0	1433403392	63	4478
2026-01-07 22:00:24.62	105.37	14.41	-49.1	-50.5	14.6	0.00e+00	0	25	0	1436549120	63	4468
2026-01-07 22:00:25.62	105.56	14.36	-49.2	-50.5	14.5	0.00e+00	0	25	0	1439694848	63	4485
2026-01-07 22:00:26.63	105.75	14.32	-49.2	-50.6	14.5	0.00e+00	0	25	0	1442840576	63	4520
2026-01-07 22:00:27.63	105.93	14.27	-49.3	-50.6	14.5	0.00e+00	0	25	0	1445986304	63	4538
2026-01-07 22:00:28.62	106.11	14.22	-49.2	-50.6	14.5	0.00e+00	0	25	0	1449132032	63	4505
2026-01-07 22:00:29.63	106.30	14.18	-49.1	-50.4	14.6	0.00e+00	0	25	0	1452277760	63	4435
2026-01-07 22:00:30.63	106.48	14.13	-49.1	-50.4	14.6	0.00e+00	0	25	0	1455423488	63	4411
2026-01-07 22:00:31.63	106.66	14.08	-49.1	-50.4	14.6	0.00e+00	0	25	0	1458569216	63	4424
2026-01-07 22:00:32.63	106.85	14.03	-49.0	-50.3	14.6	0.00e+00	0	25	0	1461714944	63	4357
2026-01-07 22:00:33.63	107.03	13.98	-49.0	-50.3	14.6	0.00e+00	0	25	0	1464860672	63	4360
2026-01-07 22:00:34.63	107.21	13.94	-49.0	-50.4	14.6	0.00e+00	0	25	0	1468006400	63	4404
2026-01-07 22:00:35.62	107.39	13.89	-49.1	-50.4	14.6	0.00e+00	0	25	0	1471152128	63	4433
2026-01-07 22:00:36.63	107.57	13.84	-49.1	-50.4	14.6	0.00e+00	0	25	0	1474297856	63	4424
2026-01-07 22:00:37.62	107.74	13.79	-49.1	-50.5	14.6	0.00e+00	0	25	0	1477443584	63	4448
2026-01-07 22:00:38.62	107.92	13.74	-49.2	-50.6	14.5	0.00e+00	0	25	0	1480589312	63	4511
2026-01-07 22:00:39.61	108.10	13.69	-49.3	-50.7	14.5	0.00e+00	0	25	0	1482686464	63	4551
2026-01-07 22:00:40.60	108.27	13.65	-49.3	-50.7	14.5	0.00e+00	0	25	0	1485832192	63	4563
2026-01-07 22:00:41.59	108.45	13.60	-49.4	-50.8	14.5	0.00e+00	0	25	0	1488977920	64	4370
2026-01-07 22:00:42.59	108.63	13.55	-49.3	-50.7	14.6	0.00e+00	0	25	0	1492123648	64	4314
2026-01-07 22:00:43.59	108.80	13.50	-49.3	-50.7	14.6	0.00e+00	0	25	0	1495269376	64	4294
2026-01-07 22:00:44.58	108.97	13.45	-49.2	-50.5	14.7	0.00e+00	0	25	0	1498415104	64	4217
2026-01-07 22:00:45.58	109.15	13.40	-49.2	-50.5	14.6	0.00e+00	0	25	0	1501560832	64	4212
2026-01-07 22:00:46.58	109.32	13.35	-49.1	-50.4	14.7	0.00e+00	0	25	0	1504706560	64	4170
2026-01-07 22:00:47.58	109.50	13.30	-49.1	-50.4	14.7	0.00e+00	0	25	0	1507852288	64	4187
2026-01-07 22:00:48.58	109.67	13.25	-49.1	-50.5	14.7	0.00e+00	0	25	0	1510998016	64	4216
2026-01-07 22:00:49.58	109.84	13.20	-49.2	-50.5	14.7	0.00e+00	0	25	0	1514143744	64	4221
2026-01-07 22:00:50.58	110.01	13.15	-49.2	-50.6	14.6	0.00e+00	0	25	0	1517289472	64	4247
2026-01-07 22:00:51.57	110.18	13.10	-49.1	-50.4	14.7	0.00e+00	0	25	0	1520435200	64	4184
2026-01-07 22:00:52.57	110.35	13.05	-49.1	-50.4	14.7	0.00e+00	0	25	0	1523580928	64	4161
2026-01-07 22:00:53.56	110.52	13.00	-49.1	-50.5	14.7	0.00e+00	0	25	0	1526726656	64	4208
2026-01-07 22:00:54.56	110.69	12.95	-49.1	-50.4	14.7	0.00e+00	0	25	0	1529872384	64	4173
2026-01-07 22:00:55.56	110.86	12.89	-49.1	-50.5	14.7	0.00e+00	0	25	0	1533018112	64	4205
2026-01-07 22:00:56.56	111.03	12.84	-49.2	-50.5	14.6	0.00e+00	0	25	0	1536163840	64	4229
2026-01-07 22:00:57.55	111.19	12.79	-49.3	-50.6	14.6	0.00e+00	0	25	0	1539309568	64	4276
2026-01-07 22:00:58.54	111.36	12.74	-49.3	-50.7	14.6	0.00e+00	0	25	0	1542455296	64	4323
2026-01-07 22:00:59.54	111.52	12.69	-49.3	-50.7	14.5	0.00e+00	0	25	0	1545601024	64	4320
2026-01-07 22:01:00.55	111.69	12.64	-49.3	-50.7	14.5	0.00e+00	0	25	0	1548746752	64	4316
2026-01-07 22:01:01.54	111.86	12.59	-49.2	-50.6	14.6	0.00e+00	0	25	0	1551892480	64	4261
2026-01-07 22:01:02.55	112.02	12.53	-49.2	-50.6	14.6	0.00e+00	0	25	0	1555038208	64	4253
2026-01-07 22:01:03.56	112.19	12.48	-49.2	-50.5	14.6	0.00e+00	0	25	0	1558183936	64	4238
2026-01-07 22:01:04.55	112.35	12.43	-49.1	-50.5	14.7	0.00e+00	0	25	0	1561329664	64	4200
2026-01-07 22:01:05.55	112.51	12.38	-49.2	-50.5	14.6	0.00e+00	0	25	0	1564475392	64	4229
2026-01-07 22:01:06.55	112.68	12.33	-49.2	-50.6	14.6	0.00e+00	0	25	0	1567621120	64	4245
2026-01-07 22:01:07.55	112.84	12.27	-49.1	-50.4	14.7	0.00e+00	0	25	0	1570766848	64	4173
2026-01-07 22:01:08.54	113.00	12.22	-49.1	-50.5	14.6	0.00e+00	0	25	0	1573912576	64	4200
2026-01-07 22:01:09.54	113.16	12.17	-49.1	-50.4	14.7	0.00e+00	0	25	0	1577058304	64	4177
2026-01-07 22:01:10.54	113.32	12.12	-49.1	-50.4	14.7	0.00e+00	0	25	0	1580204032	64	4185
2026-01-07 22:01:11.54	113.48	12.06	-49.1	-50.4	14.7	0.00e+00	0	25	0	1583349760	64	4173
2026-01-07 22:01:12.55	113.64	12.01	-49.1	-50.5	14.6	0.00e+00	0	25	0	1586495488	64	4199
2026-01-07 22:01:13.54	113.80	11.96	-49.1	-50.5	14.6	0.00e+00	0	25	0	1589641216	64	4194
2026-01-07 22:01:14.53	113.95	11.90	-49.2	-50.5	14.6	0.00e+00	0	25	0	1592786944	64	4234
2026-01-07 22:01:15.53	114.11	11.85	-49.2	-50.6	14.6	0.00e+00	0	25	0	1594884096	64	4263
2026-01-07 22:01:16.53	114.27	11.80	-49.2	-50.6	14.6	0.00e+00	0	25	0	1598029824	64	4257
2026-01-07 22:01:17.52	114.42	11.75	-49.3	-50.6	14.5	0.00e+00	0	25	0	1601175552	64	4291
2026-01-07 22:01:18.52	114.58	11.69	-49.3	-50.7	14.5	0.00e+00	0	25	0	1604321280	64	4327
2026-01-07 22:01:19.51	114.73	11.64	-49.3	-50.7	14.5	0.00e+00	0	25	0	1607467008	64	4307
2026-01-07 22:01:20.51	114.89	11.59	-49.3	-50.7	14.5	0.00e+00	0	25	0	1610612736	64	4338
2026-01-07 22:01:21.51	115.04	11.53	-49.2	-50.6	14.6	0.00e+00	0	25	0	1613758464	64	4278
2026-01-07 22:01:22.51	115.20	11.48	-49.2	-50.6	14.6	0.00e+00	0	25	0	1616904192	64	4252
2026-01-07 22:01:23.50	115.35	11.43	-49.1	-50.5	14.6	0.00e+00	0	25	0	1620049920	64	4217
2026-01-07 22:01:24.51	115.50	11.37	-49.2	-50.6	14.6	0.00e+00	0	25	0	1623195648	64	4265
2026-01-07 22:01:25.50	115.65	11.32	-49.2	-50.6	14.6	0.00e+00	0	25	0	1626341376	64	4244
2026-01-07 22:01:26.49	115.80	11.27	-49.3	-50.7	14.5	0.00e+00	0	25	0	1629487104	64	4309
2026-01-07 22:01:27.48	115.95	11.21	-49.2	-50.6	14.6	0.00e+00	0	25	0	1632632832	64	4249
2026-01-07 22:01:28.48	116.10	11.16	-49.1	-50.5	14.6	0.00e+00	0	25	0	1635778560	64	4199
2026-01-07 22:01:29.49	116.25	11.10	-49.1	-50.5	14.6	0.00e+00	0	25	0	1638924288	64	4198
2026-01-07 22:01:30.48	116.40	11.05	-49.1	-50.5	14.6	0.00e+00	0	25	0	1642070016	64	4214
2026-01-07 22:01:31.49	116.55	11.00	-49.2	-50.5	14.6	0.00e+00	0	25	0	1645215744	64	4228
2026-01-07 22:01:32.48	116.70	10.94	-49.3	-50.6	14.5	0.00e+00	0	25	0	1648361472	64	4286
2026-01-07 22:01:33.48	116.85	10.89	-49.2	-50.6	14.6	0.00e+00	0	25	0	1651507200	64	4253
2026-01-07 22:01:34.48	117.00	10.83	-49.3	-50.6	14.5	0.00e+00	0	25	0	1654652928	64	4285
2026-01-07 22:01:35.47	117.14	10.78	-49.3	-50.7	14.5	0.00e+00	0	25	0	1657798656	64	4295
2026-01-07 22:01:36.47	117.29	10.73	-49.3	-50.6	14.5	0.00e+00	0	25	0	1660944384	64	4288
2026-01-07 22:01:37.47	117.43	10.67	-49.2	-50.6	14.5	0.00e+00	0	25	0	1664090112	64	4279
2026-01-07 22:01:38.47	117.58	10.62	-49.3	-50.7	14.5	0.00e+00	0	25	0	1667235840	64	4316
2026-01-07 22:01:39.46	117.72	10.56	-49.4	-50.8	14.5	0.00e+00	0	25	0	1670381568	64	4346
2026-01-07 22:01:40.46	117.87	10.51	-49.4	-50.8	14.5	0.00e+00	0	25	0	1673527296	64	4343
2026-01-07 22:01:41.45	118.01	10.45	-49.4	-50.9	14.4	0.00e+00	0	25	0	1676673024	64	4399
2026-01-07 22:01:42.46	118.15	10.40	-49.5	-51.0	14.4	0.00e+00	0	25	0	1679818752	64	4447
2026-01-07 22:01:43.45	118.30	10.35	-49.5	-50.9	14.4	0.00e+00	0	25	0	1682964480	64	4440
2026-01-07 22:01:44.45	118.44	10.29	-49.5	-50.9	14.4	0.00e+00	0	25	0	1686110208	64	4427
2026-01-07 22:01:45.45	118.58	10.24	-49.6	-51.0	14.3	0.00e+00	0	25	0	1689255936	64	4487
2026-01-07 22:01:46.44	118.72	10.18	-49.8	-51.2	14.2	0.00e+00	0	25	0	1692401664	64	4592
2026-01-07 22:01:47.43	118.86	10.13	-49.7	-51.1	14.3	0.00e+00	0	25	0	1695547392	64	4531
2026-01-07 22:01:48.42	119.00	10.07	-49.7	-51.1	14.3	0.00e+00	0	25	0	1698693120	64	4537
2026-01-07 22:01:49.41	119.14	10.02	-49.7	-51.2	14.2	0.00e+00	0	25	0	1701838848	64	4553
2026-01-07 22:01:50.40	119.27	9.96	-49.7	-51.2	14.3	0.00e+00	0	25	0	1703936000	64	4547
2026-01-07 22:01:51.40	119.41	9.91	-49.7	-51.2	14.2	0.00e+00	0	25	0	1707081728	64	4588
2026-01-07 22:01:52.40	119.55	9.86	-49.8	-51.3	14.2	0.00e+00	0	25	0	1710227456	64	4622
2026-01-07 22:01:53.40	119.69	9.80	-49.9	-51.4	14.1	0.00e+00	0	25	0	1713373184	64	4696
2026-01-07 22:01:54.40	119.83	9.75	-49.9	-51.4	14.2	0.00e+00	0	25	0	1716518912	65	4417
2026-01-07 22:01:55.40	119.96	9.69	-49.9	-51.5	14.2	0.00e+00	0	25	0	1719664640	65	4462
2026-01-07 22:01:56.40	120.10	9.64	-49.9	-51.5	14.2	0.00e+00	0	25	0	1722810368	65	4448
2026-01-07 22:01:57.41	120.24	9.58	-50.0	-51.5	14.2	0.00e+00	0	25	0	1725956096	65	4481
2026-01-07 22:01:58.41	120.37	9.53	-50.1	-51.7	14.1	0.00e+00	0	25	0	1729101824	65	4549
2026-01-07 22:01:59.41	120.51	9.47	-50.0	-51.6	14.2	0.00e+00	0	25	0	1732247552	65	4513
2026-01-07 22:02:00.41	120.64	9.42	-50.1	-51.6	14.1	0.00e+00	0	25	0	1735393280	65	4536
2026-01-07 22:02:01.40	120.77	9.36	-50.0	-51.5	14.2	0.00e+00	0	25	0	1738539008	65	4489
2026-01-07 22:02:02.40	120.91	9.31	-50.0	-51.5	14.2	0.00e+00	0	25	0	1741684736	65	4490
2026-01-07 22:02:03.40	121.04	9.25	-50.0	-51.5	14.2	0.00e+00	0	25	0	1744830464	65	4486
2026-01-07 22:02:04.41	121.17	9.19	-49.9	-51.5	14.2	0.00e+00	0	25	0	1747976192	65	4449
2026-01-07 22:02:05.41	121.30	9.14	-49.8	-51.3	14.3	0.00e+00	0	25	0	1751121920	65	4388
2026-01-07 22:02:06.41	121.44	9.08	-49.9	-51.4	14.2	0.00e+00	0	25	0	1754267648	65	4396
2026-01-07 22:02:07.41	121.57	9.03	-49.8	-51.3	14.3	0.00e+00	0	25	0	1757413376	65	4391
2026-01-07 22:02:08.41	121.70	8.97	-49.8	-51.3	14.3	0.00e+00	0	25	0	1760559104	65	4383
2026-01-07 22:02:09.41	121.83	8.92	-49.9	-51.4	14.2	0.00e+00	0	25	0	1763704832	65	4404
2026-01-07 22:02:10.40	121.96	8.86	-49.8	-51.3	14.3	0.00e+00	0	25	0	1766850560	65	4370
2026-01-07 22:02:11.40	122.08	8.81	-49.9	-51.4	14.2	0.00e+00	0	25	0	1769996288	65	4409
2026-01-07 22:02:12.40	122.21	8.75	-49.9	-51.4	14.2	0.00e+00	0	25	0	1773142016	65	4424
2026-01-07 22:02:13.41	122.34	8.70	-49.9	-51.4	14.2	0.00e+00	0	25	0	1776287744	65	4404
2026-01-07 22:02:14.40	122.47	8.64	-50.0	-51.5	14.2	0.00e+00	0	25	0	1779433472	65	4470
2026-01-07 22:02:15.40	122.60	8.59	-50.0	-51.6	14.1	0.00e+00	0	25	0	1782579200	65	4497
2026-01-07 22:02:16.40	122.72	8.53	-50.1	-51.7	14.1	0.00e+00	0	25	0	1785724928	65	4579
2026-01-07 22:02:17.40	122.85	8.48	-50.1	-51.6	14.1	0.00e+00	0	25	0	1788870656	65	4544
2026-01-07 22:02:18.40	122.98	8.42	-50.1	-51.7	14.1	0.00e+00	0	25	0	1792016384	65	4572
2026-01-07 22:02:19.40	123.10	8.37	-50.2	-51.8	14.0	0.00e+00	0	25	0	1795162112	65	4605
2026-01-07 22:02:20.40	123.23	8.31	-50.1	-51.8	14.0	0.00e+00	0	25	0	1798307840	65	4600
2026-01-07 22:02:21.39	123.35	8.26	-50.2	-51.8	14.0	0.00e+00	0	25	0	1801453568	65	4618
2026-01-07 22:02:22.39	123.47	8.20	-50.2	-51.8	14.0	0.00e+00	0	25	0	1804599296	65	4608
2026-01-07 22:02:23.39	123.60	8.15	-50.1	-51.7	14.1	0.00e+00	0	25	0	1807745024	65	4573
2026-01-07 22:02:24.38	123.72	8.09	-50.2	-51.8	14.0	0.00e+00	0	25	0	1810890752	65	4607
2026-01-07 22:02:25.39	123.84	8.04	-50.1	-51.7	14.0	0.00e+00	0	25	0	1814036480	65	4585
2026-01-07 22:02:26.39	123.96	7.98	-50.2	-51.8	14.0	0.00e+00	0	25	0	1817182208	65	4613
2026-01-07 22:02:27.39	124.09	7.93	-50.1	-51.7	14.0	0.00e+00	0	25	0	1820327936	65	4579
2026-01-07 22:02:28.39	124.21	7.87	-50.1	-51.7	14.0	0.00e+00	0	25	0	1823473664	65	4580
2026-01-07 22:02:29.38	124.33	7.82	-50.2	-51.8	14.0	0.00e+00	0	25	0	1826619392	65	4605
2026-01-07 22:02:30.38	124.45	7.76	-50.1	-51.7	14.0	0.00e+00	0	25	0	1829765120	65	4566
2026-01-07 22:02:31.38	124.57	7.71	-50.2	-51.8	13.9	0.00e+00	0	25	0	1832910848	65	4636
2026-01-07 22:02:32.38	124.69	7.65	-50.3	-51.9	13.9	0.00e+00	0	25	0	1836056576	65	4669
2026-01-07 22:02:33.39	124.81	7.60	-50.2	-51.8	14.0	0.00e+00	0	25	0	1838153728	65	4632
2026-01-07 22:02:34.39	124.93	7.54	-50.3	-51.9	13.9	0.00e+00	0	25	0	1841299456	65	4672
2026-01-07 22:02:35.39	125.04	7.49	-50.3	-51.9	13.9	0.00e+00	0	25	0	1844445184	65	4686
2026-01-07 22:02:36.39	125.16	7.43	-50.3	-52.0	13.9	0.00e+00	0	25	0	1847590912	65	4717
2026-01-07 22:02:37.39	125.28	7.38	-50.4	-52.1	13.8	0.00e+00	0	25	0	1850736640	65	4761
2026-01-07 22:02:38.39	125.40	7.32	-50.4	-52.1	13.8	0.00e+00	0	25	0	1853882368	65	4788
2026-01-07 22:02:39.39	125.51	7.27	-50.3	-51.9	13.9	0.00e+00	0	25	0	1857028096	65	4682
2026-01-07 22:02:40.39	125.63	7.21	-50.3	-52.0	13.9	0.00e+00	0	25	0	1860173824	65	4709
2026-01-07 22:02:41.39	125.75	7.16	-50.3	-52.0	13.8	0.00e+00	0	25	0	1863319552	65	4743
2026-01-07 22:02:42.38	125.86	7.11	-50.3	-51.9	13.9	0.00e+00	0	25	0	1866465280	65	4683
2026-01-07 22:02:43.37	125.97	7.05	-50.3	-51.9	13.9	0.00e+00	0	25	0	1869611008	65	4696
2026-01-07 22:02:44.37	126.09	7.00	-50.3	-52.0	13.9	0.00e+00	0	25	0	1872756736	65	4710
2026-01-07 22:02:45.36	126.20	6.94	-50.4	-52.1	13.8	0.00e+00	0	25	0	1875902464	65	4766
2026-01-07 22:02:46.36	126.32	6.89	-50.4	-52.1	13.8	0.00e+00	0	25	0	1879048192	65	4790
2026-01-07 22:02:47.36	126.43	6.83	-50.5	-52.2	13.9	0.00e+00	0	25	0	1882193920	66	4560
2026-01-07 22:02:48.35	126.54	6.78	-50.5	-52.2	13.8	0.00e+00	0	25	0	1885339648	66	4588
2026-01-07 22:02:49.34	126.65	6.72	-50.6	-52.3	13.8	0.00e+00	0	25	0	1888485376	66	4617
2026-01-07 22:02:50.33	126.76	6.67	-50.6	-52.4	13.7	0.00e+00	0	25	0	1891631104	66	4657
2026-01-07 22:02:51.33	126.87	6.62	-50.5	-52.3	13.8	0.00e+00	0	25	0	1894776832	66	4611
2026-01-07 22:02:52.32	126.98	6.56	-50.6	-52.3	13.8	0.00e+00	0	25	0	1897922560	66	4639
2026-01-07 22:02:53.32	127.10	6.51	-50.7	-52.5	13.7	0.00e+00	0	25	0	1901068288	66	4735
2026-01-07 22:02:54.31	127.21	6.45	-50.7	-52.5	13.7	0.00e+00	0	25	0	1904214016	66	4744
2026-01-07 22:02:55.31	127.32	6.40	-50.7	-52.5	13.6	0.00e+00	0	25	0	1907359744	66	4748
2026-01-07 22:02:56.32	127.43	6.34	-50.8	-52.6	13.6	0.00e+00	0	25	0	1910505472	66	4782
2026-01-07 22:02:57.31	127.53	6.29	-50.8	-52.6	13.6	0.00e+00	0	25	0	1913651200	66	4806
2026-01-07 22:02:58.31	127.64	6.24	-50.8	-52.6	13.6	0.00e+00	0	25	0	1916796928	66	4771
2026-01-07 22:02:59.31	127.75	6.18	-50.8	-52.6	13.6	0.00e+00	0	25	0	1919942656	66	4777
2026-01-07 22:03:00.30	127.86	6.13	-50.7	-52.5	13.7	0.00e+00	0	25	0	1923088384	66	4726
2026-01-07 22:03:01.31	127.97	6.07	-50.7	-52.5	13.6	0.00e+00	0	25	0	1926234112	66	4749
2026-01-07 22:03:02.30	128.07	6.02	-50.7	-52.5	13.6	0.00e+00	0	25	0	1929379840	66	4751
2026-01-07 22:03:03.30	128.18	5.96	-50.8	-52.6	13.6	0.00e+00	0	25	0	1932525568	66	4776
2026-01-07 22:03:04.30	128.29	5.91	-50.6	-52.4	13.7	0.00e+00	0	25	0	1935671296	66	4692
2026-01-07 22:03:05.30	128.39	5.86	-50.7	-52.5	13.6	0.00e+00	0	25	0	1938817024	66	4750
2026-01-07 22:03:06.29	128.50	5.80	-50.7	-52.5	13.6	0.00e+00	0	25	0	1941962752	66	4721
2026-01-07 22:03:07.29	128.60	5.75	-50.6	-52.4	13.7	0.00e+00	0	25	0	1945108480	66	4665
2026-01-07 22:03:08.29	128.71	5.69	-50.6	-52.3	13.7	0.00e+00	0	25	0	1948254208	66	4647
2026-01-07 22:03:09.29	128.81	5.64	-50.7	-52.5	13.6	0.00e+00	0	25	0	1950351360	66	4706
2026-01-07 22:03:10.29	128.92	5.59	-50.7	-52.5	13.6	0.00e+00	0	25	0	1953497088	66	4720
2026-01-07 22:03:11.28	129.02	5.53	-50.7	-52.5	13.6	0.00e+00	0	25	0	1956642816	66	4723
2026-01-07 22:03:12.28	129.13	5.48	-50.8	-52.7	13.5	0.00e+00	0	25	0	1959788544	66	4835
2026-01-07 22:03:13.27	129.23	5.43	-50.8	-52.6	13.5	0.00e+00	0	25	0	1962934272	66	4814
2026-01-07 22:03:14.28	129.33	5.37	-50.9	-52.7	13.5	0.00e+00	0	25	0	1966080000	66	4863
2026-01-07 22:03:15.28	129.43	5.32	-50.8	-52.7	13.6	0.00e+00	0	25	0	1969225728	67	4567
2026-01-07 22:03:16.27	129.54	5.26	-50.8	-52.6	13.6	0.00e+00	0	25	0	1972371456	67	4527
2026-01-07 22:03:17.27	129.64	5.21	-50.9	-52.7	13.6	0.00e+00	0	25	0	1975517184	67	4590
2026-01-07 22:03:18.27	129.74	5.16	-51.0	-52.9	13.5	0.00e+00	0	25	0	1978662912	67	4667
2026-01-07 22:03:19.27	129.84	5.10	-51.0	-52.9	13.5	0.00e+00	0	25	0	1981808640	67	4658
2026-01-07 22:03:20.28	129.94	5.05	-51.1	-53.0	13.4	0.00e+00	0	25	0	1984954368	67	4727
2026-01-07 22:03:21.28	130.04	4.99	-51.0	-53.0	13.4	0.00e+00	0	25	0	1988100096	67	4720
2026-01-07 22:03:22.28	130.14	4.94	-57.6	-71.1	3.8	1.07e+00	0	25	104	1990197248	80	17922
2026-01-07 22:03:23.27	130.24	4.89	-58.1	-71.8	3.8	1.49e+00	0	25	104	1990197248	81	18466
2026-01-07 22:03:24.26	130.34	4.83	-58.4	-72.2	3.8	1.49e+00	0	25	104	1990197248	81	19280
2026-01-07 22:03:25.26	130.44	4.78	-58.6	-72.4	3.8	1.49e+00	0	25	104	1990197248	82	18712
2026-01-07 22:03:26.26	130.54	4.73	-58.8	-72.6	3.8	1.49e+00	0	25	104	1990197248	82	19140
2026-01-07 22:03:27.26	130.64	4.67	-58.9	-72.8	3.8	1.49e+00	0	25	104	1990197248	83	18392
2026-01-07 22:03:28.27	130.74	4.62	-59.1	-72.9	3.8	1.49e+00	0	25	104	1990197248	83	18675
2026-01-07 22:03:29.27	130.83	4.57	-59.2	-73.1	3.8	1.49e+00	0	25	104	1990197248	83	18953
2026-01-07 22:03:30.27	130.93	4.51	-59.3	-73.1	3.8	1.49e+00	0	25	104	1990197248	83	19167
2026-01-07 22:03:31.26	131.03	4.46	-59.4	-73.3	3.8	1.49e+00	0	25	104	1990197248	83	19443
2026-01-07 22:03:32.27	131.12	4.41	-59.6	-73.5	3.8	1.49e+00	0	25	104	1990197248	84	18865
2026-01-07 22:03:33.27	131.22	4.35	-59.7	-73.6	3.8	1.49e+00	0	25	104	1990197248	84	19007
