passes_logs/2026/01/07/R3.2S_Murmansk/R3.2S_Murmansk__20260107_022208_NOAA_20_JPSS-1_rec.log

#Pass ID: 20260107_022208_NOAA 20 (JPSS-1)
#Satellite: NOAA 20 (JPSS-1)
#Configuration: NOAA 20
#almurnet v.1.7.20251203
#Start time: 2026-01-07 02:22:08

#Version: 2.2.20231116
#Station: R3.2S_Murmansk
#Location: 33.079688 lon 68.888172 lat
#TLE: 1 43013U 17073A   26006.30790171  .00000126  00000+0  80695-4 0  9991
#TLE: 2 43013  98.7629 307.3394 0001808  51.8724 308.2615 14.19533762421505

#Time	Az	El	Level	Level2	SNR	BER	BlckErr	Temp	State	Recorded	gain1	gain2
2026-01-07 02:22:08.83	33.05	1.99	-58.0	-74.0	3.8	1.49e+00	0	27	0	0	82	22344
2026-01-07 02:22:09.83	33.01	2.05	-57.9	-73.9	3.8	1.49e+00	0	27	104	0	81	23577
2026-01-07 02:22:10.81	32.98	2.12	-57.9	-74.0	3.8	1.49e+00	0	27	104	0	81	23611
2026-01-07 02:22:11.79	32.94	2.18	-58.0	-73.9	3.8	1.49e+00	0	27	104	0	81	23570
2026-01-07 02:22:12.79	32.91	2.24	-57.9	-73.9	3.8	1.49e+00	0	27	104	0	81	23575
2026-01-07 02:22:13.78	32.87	2.30	-57.9	-73.9	3.8	1.49e+00	0	27	104	0	81	23448
2026-01-07 02:22:14.77	32.84	2.36	-57.9	-73.9	3.8	1.49e+00	0	27	104	0	81	23516
2026-01-07 02:22:15.76	32.80	2.42	-57.9	-73.9	3.8	1.49e+00	0	27	104	0	81	23462
2026-01-07 02:22:16.75	32.76	2.48	-57.9	-73.8	3.8	1.49e+00	0	27	104	0	81	23248
2026-01-07 02:22:17.74	32.73	2.55	-57.9	-73.8	3.8	1.49e+00	0	27	104	0	81	23276
2026-01-07 02:22:18.74	32.69	2.61	-57.9	-73.9	3.8	1.49e+00	0	27	104	0	81	23461
2026-01-07 02:22:19.75	32.65	2.67	-57.9	-73.8	3.8	1.49e+00	0	27	104	0	81	23235
2026-01-07 02:22:20.74	32.61	2.74	-57.9	-73.8	3.8	1.49e+00	0	27	104	0	81	23151
2026-01-07 02:22:21.74	32.58	2.80	-57.9	-73.9	3.8	1.49e+00	0	27	104	0	81	23422
2026-01-07 02:22:22.73	32.54	2.86	-57.9	-73.9	3.8	1.49e+00	0	27	104	0	81	23354
2026-01-07 02:22:23.71	32.50	2.92	-57.9	-73.8	3.8	1.49e+00	0	27	104	0	81	23112
2026-01-07 02:22:24.71	32.46	2.99	-57.9	-73.8	3.8	1.49e+00	0	27	104	0	81	23224
2026-01-07 02:22:25.71	32.42	3.05	-57.9	-73.9	3.8	1.49e+00	0	27	104	0	81	23495
2026-01-07 02:22:26.70	32.39	3.11	-57.9	-73.9	3.8	1.49e+00	0	27	104	0	81	23546
2026-01-07 02:22:27.70	32.35	3.18	-57.9	-74.0	3.8	1.49e+00	0	27	104	0	81	23634
2026-01-07 02:22:28.69	32.31	3.24	-57.9	-74.0	3.8	1.49e+00	0	27	104	0	81	23594
2026-01-07 02:22:29.69	32.27	3.31	-57.9	-73.9	3.8	1.49e+00	0	27	104	0	81	23567
2026-01-07 02:22:30.68	32.23	3.37	-57.9	-73.9	3.8	1.49e+00	0	27	104	0	81	23547
2026-01-07 02:22:31.67	32.19	3.43	-57.9	-73.9	3.8	1.49e+00	0	27	104	0	81	23507
2026-01-07 02:22:32.66	32.15	3.50	-57.9	-73.9	3.8	1.49e+00	0	27	104	0	81	23560
2026-01-07 02:22:33.66	32.11	3.56	-57.9	-73.9	3.8	1.49e+00	0	27	104	0	81	23465
2026-01-07 02:22:34.65	32.07	3.63	-57.9	-73.9	3.8	1.49e+00	0	27	104	0	81	23337
2026-01-07 02:22:35.65	32.03	3.69	-57.9	-73.8	3.8	1.49e+00	0	27	104	0	81	23141
2026-01-07 02:22:36.63	31.99	3.76	-57.9	-73.6	3.8	1.49e+00	0	27	104	0	81	22595
2026-01-07 02:22:37.62	31.95	3.82	-57.9	-73.4	3.8	1.49e+00	0	27	104	0	81	22189
2026-01-07 02:22:38.61	31.91	3.88	-57.9	-73.2	3.8	1.49e+00	0	27	104	0	81	21610
2026-01-07 02:22:39.59	31.87	3.95	-57.9	-72.9	3.8	1.49e+00	0	27	104	0	81	20956
2026-01-07 02:22:40.58	31.83	4.01	-57.9	-72.8	3.8	1.49e+00	0	27	104	0	81	20614
2026-01-07 02:22:41.56	31.79	4.08	-57.9	-72.5	3.8	1.49e+00	0	27	104	0	81	20060
2026-01-07 02:22:42.55	31.75	4.14	-57.9	-72.5	3.8	1.49e+00	0	27	104	0	81	20031
2026-01-07 02:22:43.54	31.71	4.21	-57.9	-72.3	3.8	1.49e+00	0	27	104	0	81	19410
2026-01-07 02:22:44.53	31.67	4.28	-57.8	-72.0	3.8	1.49e+00	0	27	104	0	81	18898
2026-01-07 02:22:45.51	31.62	4.34	-57.8	-71.7	3.9	1.48e+00	0	27	104	0	81	18202
2026-01-07 02:22:46.51	31.58	4.41	-57.8	-71.4	3.9	1.48e+00	0	27	104	0	81	17512
2026-01-07 02:22:47.50	31.54	4.47	-57.8	-70.5	4.2	1.48e+00	0	27	104	0	81	15889
2026-01-07 02:22:48.49	31.50	4.54	-57.7	-69.6	4.4	1.36e+00	74	27	0	0	81	14293
2026-01-07 02:22:49.48	31.45	4.61	-57.7	-69.3	4.5	1.16e+00	0	27	0	2097152	81	13789
2026-01-07 02:22:50.47	31.41	4.67	-57.6	-68.3	5.0	7.58e-01	0	27	0	3145728	81	12349
2026-01-07 02:22:51.46	31.37	4.74	-57.6	-67.8	5.2	5.23e-01	0	27	0	5242880	81	11654
2026-01-07 02:22:52.45	31.33	4.81	-57.4	-66.7	5.9	4.21e-01	0	27	0	7340032	81	10203
2026-01-07 02:22:53.44	31.28	4.87	-57.4	-66.2	6.2	2.79e-01	0	27	0	9437184	81	9634
2026-01-07 02:22:54.44	31.24	4.94	-57.3	-66.0	6.4	1.90e-01	0	27	0	11534336	81	9402
2026-01-07 02:22:55.43	31.19	5.01	-57.3	-65.7	6.6	1.61e-01	0	27	0	12582912	81	9126
2026-01-07 02:22:56.42	31.15	5.08	-57.5	-66.5	6.1	1.49e-01	0	27	0	14680064	81	9975
2026-01-07 02:22:57.41	31.10	5.14	-57.7	-67.3	5.6	9.01e-01	0	27	0	16777216	81	10941
2026-01-07 02:22:58.39	31.06	5.21	-57.0	-63.8	8.4	1.33e-03	0	27	0	18874368	79	8267
2026-01-07 02:22:59.39	31.02	5.28	-57.6	-67.1	5.6	1.32e+00	0	27	0	19922944	80	11399
2026-01-07 02:23:00.38	30.97	5.35	-56.5	-61.5	10.1	2.80e-01	0	27	0	22020096	79	6330
2026-01-07 02:23:01.38	30.92	5.42	-56.6	-62.2	9.5	8.28e-04	0	27	0	23068672	78	7245
2026-01-07 02:23:02.36	30.88	5.48	-56.0	-60.6	10.9	1.44e-04	0	27	0	25165824	78	6038
2026-01-07 02:23:03.34	30.83	5.55	-55.5	-59.4	11.8	1.37e-05	0	27	0	27262976	77	5543
2026-01-07 02:23:04.33	30.79	5.62	-55.1	-58.6	12.3	7.00e-07	0	27	0	29360128	76	5366
2026-01-07 02:23:05.31	30.74	5.69	-55.1	-58.6	12.4	7.00e-07	0	27	0	30408704	76	5351
2026-01-07 02:23:06.30	30.70	5.76	-55.0	-58.4	12.5	7.00e-07	0	27	0	32505856	76	5229
2026-01-07 02:23:07.28	30.65	5.83	-54.5	-57.6	12.9	0.00e+00	0	27	0	34603008	75	5050
2026-01-07 02:23:08.27	30.60	5.89	-54.8	-58.0	12.6	0.00e+00	0	27	0	36700160	75	5314
2026-01-07 02:23:09.26	30.55	5.96	-54.5	-57.5	13.0	0.00e+00	0	27	0	37748736	75	5030
2026-01-07 02:23:10.25	30.51	6.03	-54.5	-57.4	13.0	0.00e+00	0	27	0	39845888	75	4983
2026-01-07 02:23:11.24	30.46	6.10	-54.5	-57.4	13.0	0.00e+00	0	27	0	41943040	75	4960
2026-01-07 02:23:12.24	30.41	6.17	-54.1	-56.8	13.3	0.00e+00	0	27	0	44040192	74	4898
2026-01-07 02:23:13.22	30.36	6.24	-54.1	-56.8	13.3	0.00e+00	0	27	0	46137344	74	4896
2026-01-07 02:23:14.20	30.31	6.31	-54.3	-57.1	13.1	0.00e+00	0	27	0	47185920	74	5066
2026-01-07 02:23:15.19	30.27	6.38	-54.2	-57.0	13.2	0.00e+00	0	27	0	49283072	74	5030
2026-01-07 02:23:16.17	30.22	6.45	-54.1	-56.8	13.3	0.00e+00	0	27	0	51380224	74	4909
2026-01-07 02:23:17.16	30.17	6.52	-54.1	-56.8	13.3	0.00e+00	0	27	0	53477376	74	4918
2026-01-07 02:23:18.14	30.12	6.59	-54.1	-56.7	13.4	0.00e+00	0	27	0	54525952	74	4858
2026-01-07 02:23:19.13	30.07	6.67	-54.1	-56.8	13.4	0.00e+00	0	27	0	56623104	74	4905
2026-01-07 02:23:20.12	30.02	6.74	-54.1	-56.8	13.4	0.00e+00	0	27	0	58720256	74	4903
2026-01-07 02:23:21.11	29.97	6.81	-54.2	-56.9	13.3	0.00e+00	0	27	0	60817408	74	4930
2026-01-07 02:23:22.09	29.92	6.88	-54.3	-57.0	13.3	0.00e+00	0	27	0	61865984	74	5013
2026-01-07 02:23:23.08	29.87	6.95	-54.2	-57.0	13.3	0.00e+00	0	27	0	63963136	74	4984
2026-01-07 02:23:24.07	29.82	7.02	-54.1	-56.8	13.4	0.00e+00	0	27	0	66060288	74	4892
2026-01-07 02:23:25.06	29.77	7.10	-54.0	-56.6	13.5	0.00e+00	0	27	0	68157440	74	4789
2026-01-07 02:23:26.04	29.71	7.17	-54.2	-56.9	13.4	0.00e+00	0	28	0	69206016	74	4931
2026-01-07 02:23:27.03	29.66	7.24	-54.0	-56.6	13.5	0.00e+00	0	27	0	71303168	74	4797
2026-01-07 02:23:28.01	29.61	7.31	-53.9	-56.5	13.6	0.00e+00	0	27	0	73400320	74	4710
2026-01-07 02:23:28.99	29.56	7.38	-54.0	-56.6	13.5	0.00e+00	0	27	0	75497472	74	4788
2026-01-07 02:23:29.98	29.51	7.46	-54.1	-56.7	13.4	0.00e+00	0	27	0	77594624	74	4866
2026-01-07 02:23:30.97	29.45	7.53	-54.0	-56.6	13.5	0.00e+00	0	27	0	78643200	74	4805
2026-01-07 02:23:31.95	29.40	7.60	-53.9	-56.4	13.6	0.00e+00	0	27	0	80740352	74	4697
2026-01-07 02:23:32.95	29.35	7.68	-53.9	-56.4	13.6	0.00e+00	0	27	0	82837504	74	4693
2026-01-07 02:23:33.94	29.29	7.75	-53.9	-56.4	13.6	0.00e+00	0	27	0	84934656	74	4702
2026-01-07 02:23:34.92	29.24	7.83	-53.9	-56.4	13.7	0.00e+00	0	27	0	85983232	74	4658
2026-01-07 02:23:35.91	29.18	7.90	-53.8	-56.3	13.7	0.00e+00	0	27	0	88080384	74	4637
2026-01-07 02:23:36.90	29.13	7.97	-53.9	-56.4	13.7	0.00e+00	0	27	0	90177536	74	4663
2026-01-07 02:23:37.90	29.07	8.05	-53.8	-56.3	13.7	0.00e+00	0	27	0	92274688	74	4600
2026-01-07 02:23:38.88	29.02	8.12	-53.9	-56.3	13.7	0.00e+00	0	27	0	93323264	74	4648
2026-01-07 02:23:39.87	28.96	8.20	-53.7	-56.1	13.8	0.00e+00	0	27	0	95420416	74	4542
2026-01-07 02:23:40.86	28.91	8.27	-53.7	-56.1	13.8	0.00e+00	0	27	0	97517568	74	4538
2026-01-07 02:23:41.84	28.85	8.35	-53.9	-56.3	13.7	0.00e+00	0	27	0	99614720	74	4629
2026-01-07 02:23:42.83	28.79	8.42	-53.9	-56.3	13.7	0.00e+00	0	27	0	100663296	74	4617
2026-01-07 02:23:43.81	28.74	8.50	-53.5	-55.9	13.9	0.00e+00	0	27	0	102760448	73	4662
2026-01-07 02:23:44.80	28.68	8.58	-53.6	-55.9	13.8	0.00e+00	0	27	0	104857600	73	4703
2026-01-07 02:23:45.78	28.62	8.65	-53.5	-55.8	13.9	0.00e+00	0	27	0	106954752	73	4623
2026-01-07 02:23:46.77	28.57	8.73	-53.6	-55.9	13.8	0.00e+00	0	27	0	109051904	73	4664
2026-01-07 02:23:47.75	28.51	8.80	-53.5	-55.7	13.9	0.00e+00	0	27	0	110100480	73	4589
2026-01-07 02:23:48.74	28.45	8.88	-53.6	-55.9	13.9	0.00e+00	0	27	0	112197632	73	4667
2026-01-07 02:23:49.73	28.39	8.96	-53.6	-55.9	13.9	0.00e+00	0	27	0	114294784	73	4666
2026-01-07 02:23:50.73	28.33	9.04	-53.4	-55.6	14.0	0.00e+00	0	27	0	116391936	73	4542
2026-01-07 02:23:51.72	28.27	9.11	-53.4	-55.7	14.0	0.00e+00	0	27	0	117440512	73	4552
2026-01-07 02:23:52.72	28.21	9.19	-53.4	-55.6	14.0	0.00e+00	0	27	0	119537664	73	4533
2026-01-07 02:23:53.72	28.15	9.27	-53.4	-55.6	14.0	0.00e+00	0	27	0	121634816	73	4521
2026-01-07 02:23:54.70	28.09	9.35	-53.4	-55.7	14.0	0.00e+00	0	27	0	123731968	73	4563
2026-01-07 02:23:55.68	28.03	9.42	-53.2	-55.4	14.1	0.00e+00	0	27	0	125829120	73	4427
2026-01-07 02:23:56.68	27.97	9.50	-53.4	-55.6	14.0	0.00e+00	0	27	0	126877696	73	4529
2026-01-07 02:23:57.66	27.91	9.58	-53.4	-55.6	14.0	0.00e+00	0	27	0	128974848	73	4523
2026-01-07 02:23:58.66	27.84	9.66	-53.3	-55.5	14.1	0.00e+00	0	27	0	131072000	73	4467
2026-01-07 02:23:59.66	27.78	9.74	-53.4	-55.6	14.0	0.00e+00	0	27	0	133169152	73	4508
2026-01-07 02:24:00.65	27.72	9.82	-53.3	-55.4	14.1	0.00e+00	0	27	0	134217728	73	4439
2026-01-07 02:24:01.64	27.66	9.90	-53.4	-55.6	14.0	0.00e+00	0	27	0	136314880	73	4524
2026-01-07 02:24:02.64	27.59	9.98	-53.3	-55.5	14.1	0.00e+00	0	27	0	138412032	73	4473
2026-01-07 02:24:03.64	27.53	10.06	-53.3	-55.5	14.0	0.00e+00	0	27	0	140509184	73	4487
2026-01-07 02:24:04.64	27.46	10.14	-53.3	-55.4	14.1	0.00e+00	0	27	0	142606336	73	4439
2026-01-07 02:24:05.65	27.40	10.23	-53.3	-55.5	14.1	0.00e+00	0	27	0	143654912	73	4454
2026-01-07 02:24:06.64	27.33	10.31	-53.3	-55.5	14.1	0.00e+00	0	27	0	145752064	73	4456
2026-01-07 02:24:07.64	27.26	10.39	-53.3	-55.5	14.1	0.00e+00	0	27	0	147849216	73	4462
2026-01-07 02:24:08.64	27.20	10.47	-53.4	-55.6	14.0	0.00e+00	0	27	0	149946368	73	4543
2026-01-07 02:24:09.64	27.13	10.55	-53.4	-55.5	14.1	0.00e+00	0	27	0	150994944	73	4492
2026-01-07 02:24:10.64	27.06	10.63	-53.4	-55.7	14.0	0.00e+00	0	27	0	153092096	73	4559
2026-01-07 02:24:11.64	27.00	10.72	-53.3	-55.5	14.1	0.00e+00	0	27	0	155189248	73	4450
2026-01-07 02:24:12.64	26.93	10.80	-53.2	-55.3	14.2	0.00e+00	0	27	0	157286400	73	4390
2026-01-07 02:24:13.64	26.86	10.88	-53.2	-55.4	14.0	0.00e+00	0	27	0	159383552	72	4674
2026-01-07 02:24:14.63	26.79	10.97	-53.1	-55.3	14.1	0.00e+00	0	27	0	160432128	72	4601
2026-01-07 02:24:15.63	26.72	11.05	-53.2	-55.3	14.1	0.00e+00	0	27	0	162529280	72	4631
2026-01-07 02:24:16.62	26.65	11.13	-53.3	-55.4	14.0	0.00e+00	0	27	0	164626432	72	4678
2026-01-07 02:24:17.62	26.58	11.22	-53.2	-55.3	14.1	0.00e+00	0	27	0	166723584	72	4605
2026-01-07 02:24:18.63	26.51	11.30	-53.2	-55.4	14.1	0.00e+00	0	27	0	167772160	72	4653
2026-01-07 02:24:19.63	26.44	11.39	-53.2	-55.3	14.1	0.00e+00	0	27	0	169869312	72	4620
2026-01-07 02:24:20.63	26.37	11.47	-53.1	-55.2	14.2	0.00e+00	0	27	0	171966464	72	4569
2026-01-07 02:24:21.64	26.30	11.56	-53.1	-55.2	14.1	0.00e+00	0	27	0	174063616	72	4576
2026-01-07 02:24:22.64	26.23	11.64	-53.1	-55.2	14.1	0.00e+00	0	27	0	176160768	72	4594
2026-01-07 02:24:23.64	26.15	11.73	-53.2	-55.3	14.1	0.00e+00	0	27	0	177209344	72	4620
2026-01-07 02:24:24.64	26.08	11.81	-53.2	-55.3	14.1	0.00e+00	0	27	0	179306496	72	4618
2026-01-07 02:24:25.64	26.01	11.90	-53.1	-55.2	14.2	0.00e+00	0	27	0	181403648	72	4580
2026-01-07 02:24:26.63	25.93	11.99	-53.1	-55.2	14.2	0.00e+00	0	27	0	183500800	72	4555
2026-01-07 02:24:27.63	25.86	12.07	-53.0	-55.0	14.3	0.00e+00	0	27	0	185597952	72	4463
2026-01-07 02:24:28.63	25.78	12.16	-53.0	-55.0	14.2	0.00e+00	0	27	0	186646528	72	4478
2026-01-07 02:24:29.63	25.71	12.25	-53.0	-55.1	14.2	0.00e+00	0	27	0	188743680	72	4509
2026-01-07 02:24:30.63	25.63	12.33	-53.0	-55.0	14.3	0.00e+00	0	27	0	190840832	72	4472
2026-01-07 02:24:31.63	25.56	12.42	-53.1	-55.1	14.2	0.00e+00	0	27	0	192937984	72	4528
2026-01-07 02:24:32.63	25.48	12.51	-53.0	-55.0	14.3	0.00e+00	0	27	0	193986560	72	4489
2026-01-07 02:24:33.62	25.40	12.60	-53.0	-55.0	14.2	0.00e+00	0	27	0	196083712	72	4476
2026-01-07 02:24:34.62	25.32	12.69	-52.9	-54.9	14.4	0.00e+00	0	27	0	198180864	72	4393
2026-01-07 02:24:35.62	25.25	12.77	-52.9	-54.8	14.3	0.00e+00	0	27	0	200278016	72	4384
2026-01-07 02:24:36.62	25.17	12.86	-52.9	-54.9	14.3	0.00e+00	0	27	0	202375168	72	4439
2026-01-07 02:24:37.62	25.09	12.95	-52.9	-54.8	14.4	0.00e+00	0	27	0	203423744	72	4391
2026-01-07 02:24:38.62	25.01	13.04	-52.9	-54.9	14.3	0.00e+00	0	27	0	205520896	72	4427
2026-01-07 02:24:39.61	24.93	13.13	-52.9	-54.8	14.3	0.00e+00	0	27	0	207618048	72	4383
2026-01-07 02:24:40.61	24.85	13.22	-52.9	-54.8	14.4	0.00e+00	0	27	0	209715200	72	4390
2026-01-07 02:24:41.61	24.77	13.31	-52.9	-54.8	14.3	0.00e+00	0	27	0	211812352	72	4377
2026-01-07 02:24:42.60	24.69	13.40	-52.9	-54.8	14.4	0.00e+00	0	27	0	212860928	72	4385
2026-01-07 02:24:43.60	24.60	13.49	-52.8	-54.8	14.4	0.00e+00	0	27	0	214958080	72	4374
2026-01-07 02:24:44.61	24.52	13.58	-52.8	-54.8	14.4	0.00e+00	0	27	0	217055232	72	4364
2026-01-07 02:24:45.61	24.44	13.68	-52.8	-54.8	14.4	0.00e+00	0	27	0	219152384	72	4369
2026-01-07 02:24:46.61	24.35	13.77	-52.8	-54.8	14.4	0.00e+00	0	27	0	221249536	72	4350
2026-01-07 02:24:47.62	24.27	13.86	-52.8	-54.7	14.4	0.00e+00	0	27	0	222298112	72	4336
2026-01-07 02:24:48.61	24.18	13.95	-52.8	-54.8	14.4	0.00e+00	0	27	0	224395264	72	4357
2026-01-07 02:24:49.61	24.10	14.05	-52.8	-54.8	14.4	0.00e+00	0	27	0	226492416	72	4354
2026-01-07 02:24:50.61	24.01	14.14	-52.8	-54.8	14.4	0.00e+00	0	27	0	228589568	72	4363
2026-01-07 02:24:51.61	23.92	14.23	-52.8	-54.8	14.4	0.00e+00	0	27	0	229638144	72	4373
2026-01-07 02:24:52.62	23.84	14.33	-52.9	-54.8	14.3	0.00e+00	0	27	0	231735296	72	4391
2026-01-07 02:24:53.61	23.75	14.42	-52.8	-54.8	14.4	0.00e+00	0	27	0	233832448	72	4342
2026-01-07 02:24:54.62	23.66	14.51	-52.8	-54.8	14.4	0.00e+00	0	27	0	235929600	72	4370
2026-01-07 02:24:55.61	23.57	14.61	-52.8	-54.8	14.4	0.00e+00	0	27	0	238026752	72	4366
2026-01-07 02:24:56.61	23.48	14.70	-52.9	-54.9	14.3	0.00e+00	0	27	0	239075328	72	4409
2026-01-07 02:24:57.61	23.39	14.80	-52.9	-54.8	14.4	0.00e+00	0	27	0	241172480	72	4381
2026-01-07 02:24:58.61	23.30	14.89	-52.9	-54.9	14.3	0.00e+00	0	27	0	243269632	72	4420
2026-01-07 02:24:59.61	23.21	14.99	-52.8	-54.8	14.4	0.00e+00	0	27	0	245366784	72	4367
2026-01-07 02:25:00.61	23.12	15.08	-52.9	-54.9	14.4	0.00e+00	0	27	0	247463936	72	4411
2026-01-07 02:25:01.61	23.02	15.18	-52.9	-54.9	14.3	0.00e+00	0	27	0	248512512	72	4419
2026-01-07 02:25:02.62	22.93	15.28	-52.8	-54.8	14.4	0.00e+00	0	27	0	250609664	72	4344
2026-01-07 02:25:03.62	22.84	15.37	-52.8	-54.8	14.4	0.00e+00	0	27	0	252706816	72	4363
2026-01-07 02:25:04.61	22.74	15.47	-52.9	-54.8	14.4	0.00e+00	0	27	0	254803968	72	4388
2026-01-07 02:25:05.61	22.65	15.57	-52.9	-54.9	14.3	0.00e+00	0	27	0	256901120	72	4419
2026-01-07 02:25:06.61	22.55	15.66	-52.9	-54.9	14.3	0.00e+00	0	27	0	257949696	72	4420
2026-01-07 02:25:07.61	22.46	15.76	-53.0	-55.0	14.3	0.00e+00	0	27	0	260046848	72	4448
2026-01-07 02:25:08.61	22.36	15.86	-53.0	-55.0	14.3	0.00e+00	0	27	0	262144000	72	4455
2026-01-07 02:25:09.62	22.26	15.96	-53.0	-55.0	14.3	0.00e+00	0	27	0	264241152	72	4469
2026-01-07 02:25:10.63	22.16	16.06	-53.0	-55.0	14.3	0.00e+00	0	27	0	265289728	72	4488
2026-01-07 02:25:11.63	22.06	16.16	-53.0	-55.0	14.3	0.00e+00	0	27	0	267386880	72	4465
2026-01-07 02:25:12.63	21.96	16.26	-53.0	-55.0	14.3	0.00e+00	0	27	0	269484032	72	4454
2026-01-07 02:25:13.64	21.86	16.36	-53.0	-55.0	14.3	0.00e+00	0	27	0	271581184	72	4459
2026-01-07 02:25:14.64	21.76	16.46	-53.0	-55.0	14.3	0.00e+00	0	27	0	273678336	72	4450
2026-01-07 02:25:15.65	21.65	16.56	-53.1	-55.0	14.3	0.00e+00	0	27	0	274726912	72	4487
2026-01-07 02:25:16.64	21.55	16.66	-53.0	-55.0	14.3	0.00e+00	0	27	0	276824064	72	4490
2026-01-07 02:25:17.65	21.45	16.76	-53.0	-55.0	14.3	0.00e+00	0	27	0	278921216	72	4460
2026-01-07 02:25:18.65	21.34	16.87	-53.0	-55.0	14.3	0.00e+00	0	27	0	281018368	72	4476
2026-01-07 02:25:19.64	21.24	16.97	-53.0	-55.0	14.3	0.00e+00	0	27	0	283115520	72	4442
2026-01-07 02:25:20.65	21.13	17.07	-53.1	-55.0	14.3	0.00e+00	0	27	0	284164096	72	4492
2026-01-07 02:25:21.66	21.03	17.17	-53.0	-55.0	14.3	0.00e+00	0	27	0	286261248	72	4459
2026-01-07 02:25:22.66	20.92	17.28	-53.0	-55.0	14.3	0.00e+00	0	27	0	288358400	72	4453
2026-01-07 02:25:23.66	20.81	17.38	-52.9	-54.8	14.4	0.00e+00	0	27	0	290455552	72	4384
2026-01-07 02:25:24.66	20.70	17.48	-52.9	-54.8	14.4	0.00e+00	0	27	0	292552704	72	4358
2026-01-07 02:25:25.66	20.59	17.59	-52.9	-54.8	14.4	0.00e+00	0	27	0	293601280	72	4356
2026-01-07 02:25:26.65	20.48	17.69	-52.8	-54.7	14.5	0.00e+00	0	27	0	295698432	72	4298
2026-01-07 02:25:27.64	20.37	17.79	-52.9	-54.8	14.4	0.00e+00	0	27	0	297795584	72	4349
2026-01-07 02:25:28.65	20.26	17.90	-52.8	-54.7	14.5	0.00e+00	0	27	0	299892736	72	4308
2026-01-07 02:25:29.65	20.15	18.00	-52.8	-54.7	14.5	0.00e+00	0	27	0	301989888	72	4328
2026-01-07 02:25:30.66	20.03	18.11	-52.9	-54.8	14.4	0.00e+00	0	27	0	303038464	72	4379
2026-01-07 02:25:31.65	19.92	18.21	-52.9	-54.8	14.4	0.00e+00	0	27	0	305135616	72	4357
2026-01-07 02:25:32.66	19.81	18.32	-52.9	-54.8	14.4	0.00e+00	0	27	0	307232768	72	4383
2026-01-07 02:25:33.65	19.69	18.43	-52.9	-54.8	14.4	0.00e+00	0	27	0	309329920	72	4362
2026-01-07 02:25:34.65	19.57	18.53	-52.9	-54.8	14.4	0.00e+00	0	27	0	310378496	72	4381
2026-01-07 02:25:35.65	19.46	18.64	-53.0	-55.0	14.3	0.00e+00	0	27	0	312475648	72	4455
2026-01-07 02:25:36.65	19.34	18.75	-52.8	-54.7	14.5	0.00e+00	0	27	0	314572800	72	4330
2026-01-07 02:25:37.65	19.22	18.85	-52.8	-54.7	14.4	0.00e+00	0	27	0	316669952	72	4333
2026-01-07 02:25:38.64	19.10	18.96	-52.8	-54.7	14.5	0.00e+00	0	27	0	318767104	72	4293
2026-01-07 02:25:39.64	18.98	19.07	-52.6	-54.5	14.4	0.00e+00	0	27	0	319815680	71	4463
2026-01-07 02:25:40.63	18.86	19.18	-52.7	-54.5	14.4	0.00e+00	0	27	0	321912832	71	4477
2026-01-07 02:25:41.63	18.74	19.29	-52.7	-54.5	14.4	0.00e+00	0	27	0	324009984	71	4486
2026-01-07 02:25:42.63	18.61	19.40	-52.7	-54.6	14.4	0.00e+00	0	27	0	326107136	71	4497
2026-01-07 02:25:43.63	18.49	19.51	-52.7	-54.6	14.4	0.00e+00	0	27	0	328204288	71	4509
2026-01-07 02:25:44.63	18.36	19.62	-52.7	-54.5	14.4	0.00e+00	0	27	0	329252864	71	4491
2026-01-07 02:25:45.63	18.24	19.73	-52.8	-54.7	14.3	0.00e+00	0	27	0	331350016	71	4592
2026-01-07 02:25:46.63	18.11	19.84	-52.9	-54.8	14.3	0.00e+00	0	27	0	333447168	71	4612
2026-01-07 02:25:47.62	17.98	19.95	-52.9	-54.8	14.3	0.00e+00	0	27	0	335544320	71	4640
2026-01-07 02:25:48.61	17.85	20.06	-52.9	-54.9	14.3	0.00e+00	0	27	0	336592896	71	4680
2026-01-07 02:25:49.61	17.72	20.17	-53.1	-55.0	14.2	0.00e+00	0	27	0	338690048	71	4753
2026-01-07 02:25:50.61	17.59	20.28	-52.9	-54.9	14.3	0.00e+00	0	27	0	340787200	71	4670
2026-01-07 02:25:51.61	17.46	20.39	-53.0	-55.0	14.3	0.00e+00	0	27	0	342884352	71	4717
2026-01-07 02:25:52.62	17.32	20.51	-52.9	-54.8	14.3	0.00e+00	0	27	0	344981504	71	4651
2026-01-07 02:25:53.61	17.19	20.62	-53.0	-55.0	14.2	0.00e+00	0	27	0	346030080	71	4728
2026-01-07 02:25:54.61	17.06	20.73	-53.0	-54.9	14.3	0.00e+00	0	27	0	348127232	71	4689
2026-01-07 02:25:55.61	16.92	20.85	-53.1	-55.0	14.2	0.00e+00	0	27	0	350224384	71	4747
2026-01-07 02:25:56.61	16.78	20.96	-53.1	-55.1	14.2	0.00e+00	0	27	0	352321536	71	4774
2026-01-07 02:25:57.60	16.65	21.07	-53.1	-55.1	14.2	0.00e+00	0	27	0	353370112	71	4773
2026-01-07 02:25:58.60	16.51	21.19	-53.1	-55.0	14.2	0.00e+00	0	27	0	355467264	71	4754
2026-01-07 02:25:59.60	16.37	21.30	-53.1	-55.1	14.2	0.00e+00	0	27	0	357564416	71	4804
2026-01-07 02:26:00.60	16.23	21.42	-53.0	-54.9	14.3	0.00e+00	0	27	0	359661568	71	4674
2026-01-07 02:26:01.60	16.08	21.54	-53.1	-55.1	14.2	0.00e+00	0	27	0	361758720	71	4763
2026-01-07 02:26:02.59	15.94	21.65	-53.0	-55.0	14.2	0.00e+00	0	27	0	362807296	71	4733
2026-01-07 02:26:03.59	15.80	21.77	-53.1	-55.0	14.2	0.00e+00	0	27	0	364904448	71	4756
2026-01-07 02:26:04.58	15.65	21.88	-53.1	-55.1	14.2	0.00e+00	0	27	0	367001600	71	4773
2026-01-07 02:26:05.59	15.50	22.00	-53.1	-55.0	14.2	0.00e+00	0	27	0	369098752	71	4759
2026-01-07 02:26:06.58	15.36	22.12	-53.0	-54.9	14.2	0.00e+00	0	27	0	370147328	71	4697
2026-01-07 02:26:07.58	15.21	22.24	-53.0	-55.0	14.3	0.00e+00	0	27	0	372244480	71	4727
2026-01-07 02:26:08.59	15.05	22.35	-53.0	-54.9	14.3	0.00e+00	0	27	0	374341632	71	4689
2026-01-07 02:26:09.59	14.90	22.47	-53.0	-54.9	14.3	0.00e+00	0	27	0	376438784	71	4700
2026-01-07 02:26:10.58	14.75	22.59	-53.1	-55.0	14.2	0.00e+00	0	27	0	378535936	71	4739
2026-01-07 02:26:11.58	14.60	22.71	-53.1	-55.1	14.2	0.00e+00	0	27	0	379584512	71	4773
2026-01-07 02:26:12.57	14.44	22.83	-53.1	-55.1	14.2	0.00e+00	0	27	0	381681664	71	4782
2026-01-07 02:26:13.57	14.29	22.95	-53.2	-55.2	14.2	0.00e+00	0	27	0	383778816	71	4836
2026-01-07 02:26:14.57	14.13	23.07	-53.2	-55.2	14.2	0.00e+00	0	27	0	385875968	71	4839
2026-01-07 02:26:15.57	13.97	23.19	-53.2	-55.2	14.1	0.00e+00	0	27	0	387973120	71	4865
2026-01-07 02:26:16.57	13.81	23.31	-53.2	-55.2	14.1	0.00e+00	0	27	0	389021696	71	4865
2026-01-07 02:26:17.56	13.65	23.43	-53.3	-55.4	14.1	0.00e+00	0	27	0	391118848	71	4948
2026-01-07 02:26:18.57	13.49	23.55	-53.4	-55.4	14.1	0.00e+00	0	27	0	393216000	71	4965
2026-01-07 02:26:19.56	13.32	23.67	-53.3	-55.4	14.1	0.00e+00	0	27	0	395313152	71	4949
2026-01-07 02:26:20.56	13.16	23.79	-53.3	-55.4	14.1	0.00e+00	0	27	0	397410304	71	4935
2026-01-07 02:26:21.57	12.99	23.92	-53.2	-55.2	14.2	0.00e+00	0	27	0	398458880	71	4849
2026-01-07 02:26:22.57	12.82	24.04	-53.3	-55.3	14.1	0.00e+00	0	27	0	400556032	71	4891
2026-01-07 02:26:23.56	12.65	24.16	-53.4	-55.4	14.1	0.00e+00	0	27	0	402653184	71	4954
2026-01-07 02:26:24.57	12.48	24.29	-53.4	-55.4	14.1	0.00e+00	0	27	0	404750336	71	4967
2026-01-07 02:26:25.57	12.31	24.41	-53.4	-55.4	14.1	0.00e+00	0	27	0	405798912	71	4946
2026-01-07 02:26:26.57	12.14	24.53	-53.4	-55.4	14.2	0.00e+00	0	27	0	407896064	72	4689
2026-01-07 02:26:27.58	11.96	24.66	-53.4	-55.4	14.2	0.00e+00	0	27	0	409993216	72	4663
2026-01-07 02:26:28.59	11.78	24.79	-53.3	-55.3	14.2	0.00e+00	0	27	0	412090368	72	4619
2026-01-07 02:26:29.59	11.60	24.91	-53.2	-55.2	14.3	0.00e+00	0	27	0	414187520	72	4547
2026-01-07 02:26:30.60	11.42	25.04	-53.1	-55.0	14.4	0.00e+00	0	27	0	415236096	72	4475
2026-01-07 02:26:31.59	11.24	25.16	-53.1	-55.1	14.3	0.00e+00	0	27	0	417333248	72	4512
2026-01-07 02:26:32.59	11.06	25.29	-53.1	-55.0	14.4	0.00e+00	0	27	0	419430400	72	4487
2026-01-07 02:26:33.59	10.88	25.41	-53.2	-55.2	14.3	0.00e+00	0	27	0	421527552	72	4575
2026-01-07 02:26:34.59	10.69	25.54	-53.1	-55.1	14.3	0.00e+00	0	27	0	423624704	72	4513
2026-01-07 02:26:35.59	10.51	25.66	-53.1	-55.1	14.3	0.00e+00	0	27	0	424673280	72	4513
2026-01-07 02:26:36.58	10.32	25.79	-53.3	-55.3	14.3	0.00e+00	0	27	0	426770432	72	4602
2026-01-07 02:26:37.59	10.13	25.92	-53.3	-55.2	14.3	0.00e+00	0	27	0	428867584	72	4584
2026-01-07 02:26:38.58	9.94	26.04	-53.4	-55.4	14.2	0.00e+00	0	27	0	430964736	72	4685
2026-01-07 02:26:39.58	9.75	26.17	-53.5	-55.5	14.1	0.00e+00	0	27	0	433061888	72	4742
2026-01-07 02:26:40.57	9.56	26.30	-53.5	-55.5	14.1	0.00e+00	0	27	0	434110464	72	4743
2026-01-07 02:26:41.56	9.36	26.42	-53.7	-55.9	14.0	0.00e+00	0	27	0	436207616	72	4943
2026-01-07 02:26:42.57	9.16	26.55	-53.6	-55.7	14.0	0.00e+00	0	27	0	438304768	72	4857
2026-01-07 02:26:43.57	8.96	26.68	-53.7	-55.8	14.0	0.00e+00	0	28	0	440401920	72	4922
2026-01-07 02:26:44.57	8.76	26.81	-53.8	-55.9	13.9	0.00e+00	0	27	0	441450496	72	4979
2026-01-07 02:26:45.56	8.56	26.94	-53.9	-56.0	13.9	0.00e+00	0	27	0	443547648	72	5039
2026-01-07 02:26:46.56	8.36	27.07	-54.0	-56.2	13.9	0.00e+00	0	27	0	445644800	73	4864
2026-01-07 02:26:47.55	8.15	27.19	-54.0	-56.3	13.9	0.00e+00	0	27	0	447741952	73	4875
2026-01-07 02:26:48.55	7.95	27.32	-54.1	-56.3	13.9	0.00e+00	0	27	0	449839104	73	4889
2026-01-07 02:26:49.54	7.74	27.45	-54.3	-56.7	13.7	0.00e+00	0	27	0	450887680	73	5109
2026-01-07 02:26:50.54	7.53	27.58	-54.5	-56.9	13.7	0.00e+00	0	27	0	452984832	74	4949
2026-01-07 02:26:51.54	7.32	27.71	-54.7	-57.1	13.6	0.00e+00	0	27	0	455081984	74	5091
2026-01-07 02:26:52.53	7.10	27.84	-54.8	-57.4	13.4	0.00e+00	0	27	0	457179136	74	5228
2026-01-07 02:26:53.52	6.89	27.97	-55.0	-57.6	13.4	0.00e+00	0	27	0	458227712	75	5072
2026-01-07 02:26:54.52	6.67	28.10	-55.1	-57.7	13.3	0.00e+00	0	27	0	460324864	75	5151
2026-01-07 02:26:55.53	6.45	28.23	-55.3	-58.1	13.2	0.00e+00	0	27	0	462422016	75	5343
2026-01-07 02:26:56.53	6.23	28.36	-55.5	-58.3	13.1	0.00e+00	0	27	0	464519168	76	5189
2026-01-07 02:26:57.53	6.01	28.49	-55.6	-58.5	13.0	0.00e+00	0	27	0	466616320	76	5307
2026-01-07 02:26:58.53	5.78	28.62	-55.7	-58.7	12.9	0.00e+00	0	27	0	467664896	76	5433
2026-01-07 02:26:59.52	5.56	28.75	-55.8	-58.8	12.8	0.00e+00	0	27	0	469762048	76	5528
2026-01-07 02:27:00.53	5.32	28.89	-55.7	-58.7	12.9	0.00e+00	0	27	0	471859200	76	5443
2026-01-07 02:27:01.53	5.09	29.02	-55.8	-58.8	12.8	0.00e+00	0	27	0	473956352	76	5489
2026-01-07 02:27:02.53	4.86	29.15	-55.8	-58.8	12.8	0.00e+00	0	27	0	476053504	76	5509
2026-01-07 02:27:03.53	4.63	29.28	-55.8	-58.8	12.8	0.00e+00	0	27	0	477102080	76	5525
2026-01-07 02:27:04.54	4.39	29.41	-55.8	-58.9	12.8	0.00e+00	0	27	0	479199232	76	5546
2026-01-07 02:27:05.54	4.15	29.54	-55.7	-58.7	12.9	0.00e+00	0	27	0	481296384	76	5423
2026-01-07 02:27:06.54	3.91	29.67	-55.7	-58.6	13.0	0.00e+00	0	27	0	483393536	76	5372
2026-01-07 02:27:07.54	3.66	29.81	-55.6	-58.4	13.1	0.00e+00	0	27	0	485490688	76	5275
2026-01-07 02:27:08.54	3.42	29.94	-55.6	-58.4	13.1	0.00e+00	0	27	0	486539264	76	5255
2026-01-07 02:27:09.54	3.17	30.07	-55.6	-58.5	13.0	0.00e+00	0	27	0	488636416	76	5325
2026-01-07 02:27:10.54	2.92	30.20	-55.7	-58.6	13.0	0.00e+00	0	27	0	490733568	76	5366
2026-01-07 02:27:11.53	2.68	30.33	-55.8	-58.7	12.9	0.00e+00	0	27	0	492830720	76	5464
2026-01-07 02:27:12.54	2.42	30.46	-55.7	-58.6	13.0	0.00e+00	0	27	0	494927872	76	5387
2026-01-07 02:27:13.53	2.17	30.59	-55.6	-58.4	13.0	0.00e+00	0	27	0	495976448	76	5278
2026-01-07 02:27:14.54	1.91	30.73	-55.5	-58.4	13.1	0.00e+00	0	27	0	498073600	76	5221
2026-01-07 02:27:15.52	1.65	30.86	-55.5	-58.3	13.1	0.00e+00	0	27	0	500170752	76	5208
2026-01-07 02:27:16.53	1.39	30.99	-55.7	-58.6	13.0	0.00e+00	0	27	0	502267904	76	5348
2026-01-07 02:27:17.53	1.13	31.12	-55.7	-58.7	12.9	0.00e+00	0	27	0	503316480	76	5409
2026-01-07 02:27:18.53	0.86	31.25	-55.9	-59.0	12.8	0.00e+00	0	27	0	505413632	77	5299
2026-01-07 02:27:19.53	0.59	31.38	-56.1	-59.3	12.6	0.00e+00	0	27	0	507510784	77	5520
2026-01-07 02:27:20.53	0.32	31.51	-56.3	-59.6	12.4	0.00e+00	0	27	0	509607936	77	5717
2026-01-07 02:27:21.54	0.05	31.64	-56.2	-59.6	12.5	0.00e+00	0	27	0	511705088	77	5663
2026-01-07 02:27:22.54	359.77	31.78	-56.3	-59.6	12.4	0.00e+00	0	27	0	512753664	77	5711
2026-01-07 02:27:23.54	359.50	31.91	-56.1	-59.4	12.6	0.00e+00	0	27	0	514850816	77	5566
2026-01-07 02:27:24.55	359.22	32.04	-56.0	-59.2	12.7	0.00e+00	0	27	0	516947968	77	5413
2026-01-07 02:27:25.55	358.93	32.17	-55.9	-59.0	12.8	0.00e+00	0	27	0	519045120	77	5297
2026-01-07 02:27:26.56	358.65	32.30	-55.6	-58.4	13.2	0.00e+00	0	27	0	521142272	77	4970
2026-01-07 02:27:27.56	358.36	32.43	-55.3	-58.0	13.5	0.00e+00	0	27	0	522190848	77	4742
2026-01-07 02:27:28.56	358.07	32.56	-55.1	-57.7	13.5	0.00e+00	0	27	0	524288000	76	4842
2026-01-07 02:27:29.56	357.78	32.69	-54.9	-57.4	13.7	0.00e+00	0	27	0	526385152	76	4669
2026-01-07 02:27:30.56	357.49	32.81	-54.8	-57.2	13.8	0.00e+00	0	27	0	528482304	76	4574
2026-01-07 02:27:31.55	357.20	32.94	-54.8	-57.3	13.8	0.00e+00	0	27	0	529530880	76	4599
2026-01-07 02:27:32.56	356.90	33.07	-54.8	-57.2	13.8	0.00e+00	0	27	0	531628032	76	4575
2026-01-07 02:27:33.55	356.60	33.20	-54.8	-57.2	13.8	0.00e+00	0	27	0	533725184	76	4591
2026-01-07 02:27:34.55	356.30	33.32	-54.8	-57.1	13.8	0.00e+00	0	27	0	535822336	76	4545
2026-01-07 02:27:35.55	355.99	33.45	-54.7	-57.1	13.9	0.00e+00	0	27	0	537919488	76	4525
2026-01-07 02:27:36.55	355.69	33.58	-54.7	-57.1	13.9	0.00e+00	0	27	0	538968064	76	4527
2026-01-07 02:27:37.55	355.38	33.70	-54.9	-57.3	13.8	0.00e+00	0	27	0	541065216	76	4635
2026-01-07 02:27:38.55	355.07	33.83	-55.1	-57.6	13.6	0.00e+00	0	27	0	543162368	76	4789
2026-01-07 02:27:39.55	354.75	33.95	-55.1	-57.7	13.5	0.00e+00	0	27	0	545259520	76	4858
2026-01-07 02:27:40.55	354.43	34.08	-55.2	-57.8	13.5	0.00e+00	0	27	0	547356672	76	4905
2026-01-07 02:27:41.55	354.11	34.20	-55.1	-57.7	13.5	0.00e+00	0	27	0	548405248	76	4869
2026-01-07 02:27:42.53	353.80	34.32	-55.1	-57.6	13.6	0.00e+00	0	27	0	550502400	76	4798
2026-01-07 02:27:43.53	353.48	34.45	-55.1	-57.6	13.6	0.00e+00	0	27	0	552599552	76	4788
2026-01-07 02:27:44.53	353.15	34.57	-55.1	-57.7	13.6	0.00e+00	0	27	0	554696704	76	4822
2026-01-07 02:27:45.53	352.82	34.69	-55.3	-57.9	13.4	0.00e+00	0	27	0	555745280	76	4983
2026-01-07 02:27:46.53	352.49	34.81	-55.4	-58.1	13.3	0.00e+00	0	27	0	557842432	76	5081
2026-01-07 02:27:47.53	352.15	34.93	-55.5	-58.3	13.2	0.00e+00	0	27	0	559939584	76	5164
2026-01-07 02:27:48.53	351.82	35.05	-55.5	-58.2	13.3	0.00e+00	0	27	0	562036736	76	5134
2026-01-07 02:27:49.53	351.48	35.17	-55.6	-58.3	13.2	0.00e+00	0	27	0	564133888	76	5211
2026-01-07 02:27:50.52	351.14	35.29	-55.4	-58.1	13.3	0.00e+00	0	27	0	565182464	76	5067
2026-01-07 02:27:51.51	350.80	35.41	-55.5	-58.3	13.2	0.00e+00	0	27	0	567279616	76	5177
2026-01-07 02:27:52.51	350.45	35.52	-55.9	-58.8	12.9	0.00e+00	0	27	0	569376768	76	5476
2026-01-07 02:27:53.51	350.10	35.64	-56.0	-59.0	12.9	0.00e+00	0	27	0	571473920	77	5339
2026-01-07 02:27:54.51	349.75	35.76	-56.2	-59.3	12.7	0.00e+00	0	27	0	573571072	77	5511
2026-01-07 02:27:55.50	349.40	35.87	-56.2	-59.4	12.6	7.00e-07	0	27	0	574619648	77	5580
2026-01-07 02:27:56.50	349.05	35.98	-56.3	-59.6	12.5	0.00e+00	0	27	0	576716800	77	5682
2026-01-07 02:27:57.50	348.69	36.10	-56.2	-59.4	12.7	0.00e+00	0	27	0	578813952	77	5538
2026-01-07 02:27:58.50	348.32	36.21	-56.1	-59.2	12.8	0.00e+00	0	27	0	580911104	77	5430
2026-01-07 02:27:59.50	347.96	36.32	-55.8	-58.6	13.1	0.00e+00	0	27	0	581959680	77	5097
2026-01-07 02:28:00.49	347.60	36.43	-55.6	-58.3	13.3	0.00e+00	0	27	0	584056832	77	4878
2026-01-07 02:28:01.49	347.23	36.54	-55.6	-58.3	13.4	0.00e+00	0	27	0	586153984	77	4878
2026-01-07 02:28:02.49	346.86	36.65	-55.5	-58.1	13.4	0.00e+00	0	27	0	588251136	77	4801
2026-01-07 02:28:03.49	346.48	36.75	-55.3	-57.9	13.6	0.00e+00	0	27	0	590348288	77	4680
2026-01-07 02:28:04.50	346.10	36.86	-55.1	-57.6	13.6	0.00e+00	0	27	0	591396864	76	4797
2026-01-07 02:28:05.50	345.72	36.97	-55.0	-57.4	13.8	0.00e+00	0	27	0	593494016	76	4676
2026-01-07 02:28:06.50	345.34	37.07	-54.9	-57.3	13.8	0.00e+00	0	27	0	595591168	76	4613
2026-01-07 02:28:07.50	344.96	37.17	-55.0	-57.4	13.7	0.00e+00	0	27	0	597688320	76	4702
2026-01-07 02:28:08.50	344.57	37.28	-55.0	-57.5	13.7	0.00e+00	0	27	0	599785472	76	4739
2026-01-07 02:28:09.51	344.18	37.38	-55.0	-57.5	13.7	0.00e+00	0	27	0	600834048	76	4750
2026-01-07 02:28:10.51	343.79	37.48	-55.0	-57.4	13.7	0.00e+00	0	27	0	602931200	76	4678
2026-01-07 02:28:11.51	343.39	37.57	-54.9	-57.3	13.8	0.00e+00	0	27	0	605028352	76	4627
2026-01-07 02:28:12.50	343.00	37.67	-54.4	-56.7	14.0	0.00e+00	0	27	0	607125504	75	4571
2026-01-07 02:28:13.50	342.60	37.77	-54.1	-56.2	14.1	0.00e+00	0	27	0	609222656	74	4548
2026-01-07 02:28:14.49	342.21	37.86	-54.2	-56.3	14.1	0.00e+00	0	27	0	610271232	74	4634
2026-01-07 02:28:15.50	341.80	37.95	-54.0	-56.1	14.2	0.00e+00	0	27	0	612368384	74	4499
2026-01-07 02:28:16.49	341.40	38.04	-53.9	-55.9	14.3	0.00e+00	0	27	0	614465536	74	4428
2026-01-07 02:28:17.49	340.99	38.13	-53.7	-55.7	14.4	0.00e+00	0	27	0	616562688	74	4318
2026-01-07 02:28:18.49	340.58	38.22	-53.8	-55.8	14.3	0.00e+00	0	27	0	617611264	74	4349
2026-01-07 02:28:19.49	340.17	38.31	-53.7	-55.7	14.4	0.00e+00	0	27	0	619708416	74	4318
2026-01-07 02:28:20.50	339.75	38.39	-53.7	-55.7	14.4	0.00e+00	0	27	0	621805568	74	4314
2026-01-07 02:28:21.50	339.33	38.48	-53.7	-55.7	14.2	0.00e+00	0	27	0	623902720	73	4580
2026-01-07 02:28:22.51	338.91	38.56	-53.7	-55.7	14.3	0.00e+00	0	27	0	625999872	73	4565
2026-01-07 02:28:23.50	338.49	38.64	-53.6	-55.6	14.3	0.00e+00	0	27	0	627048448	73	4502
2026-01-07 02:28:24.50	338.07	38.72	-53.4	-55.3	14.4	0.00e+00	0	27	0	629145600	73	4384
2026-01-07 02:28:25.51	337.64	38.80	-53.4	-55.3	14.5	0.00e+00	0	27	0	631242752	73	4355
2026-01-07 02:28:26.51	337.22	38.88	-53.1	-55.0	14.6	0.00e+00	0	27	0	633339904	72	4454
2026-01-07 02:28:27.50	336.79	38.95	-53.1	-55.0	14.5	0.00e+00	0	27	0	635437056	72	4448
2026-01-07 02:28:28.50	336.36	39.02	-53.1	-54.9	14.5	0.00e+00	0	27	0	636485632	72	4431
2026-01-07 02:28:29.50	335.93	39.09	-53.0	-54.8	14.6	0.00e+00	0	27	0	638582784	72	4373
2026-01-07 02:28:30.50	335.49	39.16	-52.8	-54.6	14.6	0.00e+00	0	27	0	640679936	72	4258
2026-01-07 02:28:31.50	335.06	39.23	-52.8	-54.6	14.7	0.00e+00	0	27	0	642777088	72	4273
2026-01-07 02:28:32.51	334.61	39.30	-52.9	-54.7	14.6	0.00e+00	0	27	0	643825664	72	4292
2026-01-07 02:28:33.50	334.18	39.36	-52.7	-54.4	14.7	0.00e+00	0	27	0	645922816	72	4190
2026-01-07 02:28:34.50	333.74	39.42	-52.7	-54.4	14.6	0.00e+00	0	27	0	648019968	71	4412
2026-01-07 02:28:35.51	333.29	39.49	-52.6	-54.3	14.6	0.00e+00	0	27	0	650117120	71	4367
2026-01-07 02:28:36.51	332.84	39.54	-52.4	-54.1	14.7	0.00e+00	0	27	0	652214272	71	4265
2026-01-07 02:28:37.50	332.40	39.60	-52.3	-54.0	14.8	0.00e+00	0	27	0	653262848	71	4205
2026-01-07 02:28:38.50	331.95	39.65	-52.4	-54.1	14.7	0.00e+00	0	27	0	655360000	71	4266
2026-01-07 02:28:39.50	331.50	39.71	-52.4	-54.1	14.7	0.00e+00	0	27	0	657457152	71	4267
2026-01-07 02:28:40.50	331.05	39.76	-52.4	-54.1	14.8	0.00e+00	0	27	0	659554304	71	4262
2026-01-07 02:28:41.50	330.60	39.81	-52.4	-54.1	14.8	0.00e+00	0	27	0	661651456	71	4275
2026-01-07 02:28:42.50	330.14	39.85	-52.4	-54.1	14.7	0.00e+00	0	27	0	662700032	71	4267
2026-01-07 02:28:43.49	329.69	39.90	-52.5	-54.2	14.7	0.00e+00	0	27	0	664797184	71	4301
2026-01-07 02:28:44.49	329.24	39.94	-52.5	-54.1	14.7	0.00e+00	0	27	0	666894336	71	4280
2026-01-07 02:28:45.48	328.78	39.98	-52.4	-54.0	14.8	0.00e+00	0	27	0	668991488	71	4237
2026-01-07 02:28:46.48	328.32	40.02	-52.4	-54.1	14.8	0.00e+00	0	27	0	671088640	71	4246
2026-01-07 02:28:47.48	327.86	40.06	-52.5	-54.2	14.7	0.00e+00	0	27	0	672137216	71	4307
2026-01-07 02:28:48.48	327.40	40.09	-52.4	-54.1	14.7	0.00e+00	0	27	0	674234368	71	4278
2026-01-07 02:28:49.48	326.94	40.13	-52.3	-54.0	14.8	0.00e+00	0	27	0	676331520	71	4218
2026-01-07 02:28:50.48	326.48	40.16	-52.4	-54.0	14.7	0.00e+00	0	27	0	678428672	71	4241
2026-01-07 02:28:51.49	326.01	40.19	-52.2	-53.8	14.8	0.00e+00	0	27	0	679477248	70	4350
2026-01-07 02:28:52.48	325.55	40.21	-52.3	-54.0	14.7	0.00e+00	0	27	0	681574400	70	4462
2026-01-07 02:28:53.48	325.08	40.24	-52.3	-54.0	14.7	0.00e+00	0	27	0	683671552	70	4448
2026-01-07 02:28:54.48	324.62	40.26	-52.2	-53.8	14.7	0.00e+00	0	27	0	685768704	70	4379
2026-01-07 02:28:55.49	324.15	40.28	-52.4	-54.1	14.6	0.00e+00	0	27	0	687865856	70	4504
2026-01-07 02:28:56.49	323.68	40.30	-52.5	-54.2	14.6	0.00e+00	0	27	0	688914432	70	4554
2026-01-07 02:28:57.49	323.21	40.31	-52.6	-54.3	14.5	0.00e+00	0	27	0	691011584	70	4630
2026-01-07 02:28:58.49	322.74	40.33	-52.6	-54.3	14.5	0.00e+00	0	27	0	693108736	70	4623
2026-01-07 02:28:59.49	322.27	40.34	-52.5	-54.2	14.6	0.00e+00	0	27	0	695205888	70	4553
2026-01-07 02:29:00.50	321.80	40.35	-52.7	-54.4	14.5	0.00e+00	0	27	0	697303040	70	4687
2026-01-07 02:29:01.50	321.33	40.35	-52.9	-54.7	14.4	0.00e+00	0	27	0	698351616	70	4847
2026-01-07 02:29:02.50	320.86	40.36	-53.1	-54.9	14.4	0.00e+00	0	27	0	700448768	71	4678
2026-01-07 02:29:03.51	320.39	40.36	-53.2	-55.1	14.3	0.00e+00	0	27	0	702545920	71	4784
2026-01-07 02:29:04.52	319.91	40.36	-53.4	-55.3	14.3	0.00e+00	0	27	0	704643072	72	4627
2026-01-07 02:29:05.51	319.45	40.36	-53.5	-55.5	14.3	0.00e+00	0	27	0	705691648	72	4720
2026-01-07 02:29:06.51	318.98	40.36	-53.7	-55.6	14.2	0.00e+00	0	27	0	707788800	72	4801
2026-01-07 02:29:07.51	318.51	40.35	-53.8	-55.8	14.1	0.00e+00	0	27	0	709885952	72	4894
2026-01-07 02:29:08.51	318.04	40.34	-53.9	-55.9	14.2	0.00e+00	0	27	0	711983104	73	4680
2026-01-07 02:29:09.51	317.57	40.33	-53.9	-56.0	14.2	0.00e+00	0	27	0	714080256	73	4721
2026-01-07 02:29:10.51	317.11	40.32	-54.0	-56.0	14.1	0.00e+00	0	27	0	715128832	73	4744
2026-01-07 02:29:11.51	316.64	40.30	-54.0	-56.0	14.1	0.00e+00	0	27	0	717225984	73	4750
2026-01-07 02:29:12.51	316.17	40.29	-54.2	-56.3	14.0	0.00e+00	0	27	0	719323136	73	4896
2026-01-07 02:29:13.51	315.70	40.27	-54.5	-56.8	13.9	0.00e+00	0	27	0	721420288	74	4889
2026-01-07 02:29:14.51	315.24	40.25	-54.9	-57.3	13.7	0.00e+00	0	27	0	723517440	75	4905
2026-01-07 02:29:15.51	314.77	40.22	-55.1	-57.6	13.6	0.00e+00	0	27	0	724566016	75	5077
2026-01-07 02:29:16.50	314.31	40.20	-54.9	-57.3	13.7	0.00e+00	0	27	0	726663168	75	4873
2026-01-07 02:29:17.50	313.85	40.17	-54.7	-57.0	13.9	0.00e+00	0	27	0	728760320	75	4751
2026-01-07 02:29:18.50	313.38	40.14	-54.9	-57.3	13.7	0.00e+00	0	27	0	730857472	75	4907
2026-01-07 02:29:19.50	312.92	40.11	-55.0	-57.5	13.6	0.00e+00	0	27	0	732954624	75	4991
2026-01-07 02:29:20.51	312.45	40.07	-55.4	-58.0	13.3	0.00e+00	0	27	0	734003200	75	5339
2026-01-07 02:29:21.51	311.99	40.04	-55.6	-58.2	13.3	0.00e+00	0	27	0	736100352	76	5159
2026-01-07 02:29:22.51	311.53	40.00	-55.6	-58.3	13.3	0.00e+00	0	27	0	738197504	76	5204
2026-01-07 02:29:23.52	311.07	39.96	-55.7	-58.5	13.2	0.00e+00	0	27	0	740294656	76	5312
2026-01-07 02:29:24.52	310.61	39.92	-55.7	-58.5	13.2	0.00e+00	0	27	0	741343232	76	5286
2026-01-07 02:29:25.51	310.16	39.87	-55.8	-58.6	13.1	0.00e+00	0	27	0	743440384	76	5381
2026-01-07 02:29:26.52	309.70	39.83	-56.2	-59.2	12.9	0.00e+00	0	28	0	745537536	77	5463
2026-01-07 02:29:27.52	309.25	39.78	-56.3	-59.4	12.7	0.00e+00	0	27	0	747634688	77	5589
2026-01-07 02:29:28.51	308.80	39.73	-56.4	-59.6	12.7	0.00e+00	0	27	0	749731840	78	5353
2026-01-07 02:29:29.52	308.35	39.67	-56.2	-59.2	13.0	0.00e+00	0	27	0	750780416	78	5133
2026-01-07 02:29:30.52	307.90	39.62	-56.1	-59.0	13.1	0.00e+00	0	27	0	752877568	78	5002
2026-01-07 02:29:31.52	307.45	39.56	-55.9	-58.6	13.3	0.00e+00	0	27	0	754974720	78	4808
2026-01-07 02:29:32.52	307.00	39.51	-55.8	-58.5	13.4	0.00e+00	0	27	0	757071872	78	4744
2026-01-07 02:29:33.51	306.56	39.45	-55.6	-58.3	13.4	0.00e+00	0	27	0	759169024	77	4889
2026-01-07 02:29:34.51	306.12	39.39	-55.5	-58.2	13.5	0.00e+00	0	27	0	760217600	77	4815
2026-01-07 02:29:35.51	305.68	39.32	-55.5	-58.2	13.5	0.00e+00	0	27	0	762314752	77	4816
2026-01-07 02:29:36.51	305.24	39.26	-55.4	-58.0	13.6	0.00e+00	0	27	0	764411904	77	4729
2026-01-07 02:29:37.50	304.81	39.19	-55.2	-57.7	13.7	0.00e+00	0	27	0	766509056	77	4560
2026-01-07 02:29:38.49	304.37	39.12	-55.1	-57.5	13.7	0.00e+00	0	27	0	767557632	76	4748
2026-01-07 02:29:39.49	303.94	39.05	-54.8	-57.1	14.0	0.00e+00	0	27	0	769654784	76	4517
2026-01-07 02:29:40.49	303.51	38.98	-54.3	-56.5	14.2	0.00e+00	0	27	0	771751936	75	4444
2026-01-07 02:29:41.49	303.08	38.91	-53.9	-55.9	14.3	0.00e+00	0	28	0	773849088	74	4396
2026-01-07 02:29:42.49	302.65	38.83	-53.5	-55.4	14.4	0.00e+00	0	28	0	775946240	73	4426
2026-01-07 02:29:43.48	302.23	38.75	-53.2	-55.0	14.6	0.00e+00	0	27	0	776994816	73	4234
2026-01-07 02:29:44.48	301.80	38.67	-53.1	-54.9	14.5	0.00e+00	0	27	0	779091968	72	4428
2026-01-07 02:29:45.48	301.38	38.59	-53.0	-54.8	14.6	0.00e+00	0	27	0	781189120	72	4365
2026-01-07 02:29:46.48	300.96	38.51	-53.1	-54.8	14.5	0.00e+00	0	27	0	783286272	72	4390
2026-01-07 02:29:47.47	300.55	38.43	-53.1	-54.9	14.5	0.00e+00	0	27	0	784334848	72	4426
2026-01-07 02:29:48.46	300.14	38.34	-53.1	-54.9	14.5	0.00e+00	0	27	0	786432000	72	4433
2026-01-07 02:29:49.46	299.72	38.26	-53.0	-54.7	14.6	0.00e+00	0	28	0	788529152	72	4329
2026-01-07 02:29:50.45	299.32	38.17	-52.4	-54.0	14.8	0.00e+00	0	27	0	790626304	71	4222
2026-01-07 02:29:51.46	298.90	38.08	-52.0	-53.6	14.8	0.00e+00	0	27	0	792723456	70	4254
2026-01-07 02:29:52.45	298.50	37.99	-52.0	-53.5	14.9	0.00e+00	0	27	0	793772032	70	4225
2026-01-07 02:29:53.45	298.10	37.90	-51.9	-53.5	14.9	0.00e+00	0	27	0	795869184	70	4212
2026-01-07 02:29:54.44	297.70	37.81	-51.9	-53.5	14.9	0.00e+00	0	27	0	797966336	70	4226
2026-01-07 02:29:55.45	297.29	37.71	-52.2	-53.8	14.7	0.00e+00	0	27	0	800063488	70	4371
2026-01-07 02:29:56.45	296.90	37.61	-52.2	-53.9	14.7	0.00e+00	0	27	0	802160640	70	4404
2026-01-07 02:29:57.45	296.50	37.52	-52.3	-54.0	14.7	0.00e+00	0	27	0	803209216	70	4466
2026-01-07 02:29:58.45	296.11	37.42	-52.3	-54.0	14.7	0.00e+00	0	27	0	805306368	70	4461
2026-01-07 02:29:59.45	295.72	37.32	-52.4	-54.1	14.6	0.00e+00	0	27	0	807403520	70	4507
2026-01-07 02:30:00.44	295.33	37.22	-52.2	-53.8	14.7	0.00e+00	0	27	0	809500672	70	4362
2026-01-07 02:30:01.44	294.95	37.11	-51.9	-53.5	14.9	0.00e+00	0	27	0	811597824	70	4194
2026-01-07 02:30:02.44	294.57	37.01	-51.8	-53.4	14.9	0.00e+00	0	27	0	812646400	70	4151
2026-01-07 02:30:03.44	294.19	36.91	-52.1	-53.7	14.8	0.00e+00	0	27	0	814743552	70	4309
2026-01-07 02:30:04.44	293.81	36.80	-52.3	-54.0	14.7	0.00e+00	0	27	0	816840704	70	4460
2026-01-07 02:30:05.43	293.44	36.69	-52.6	-54.3	14.5	0.00e+00	0	27	0	818937856	70	4609
2026-01-07 02:30:06.44	293.06	36.59	-52.7	-54.4	14.5	0.00e+00	0	27	0	819986432	70	4703
2026-01-07 02:30:07.44	292.69	36.48	-52.8	-54.6	14.4	0.00e+00	0	27	0	822083584	70	4792
2026-01-07 02:30:08.44	292.32	36.37	-52.8	-54.6	14.5	0.00e+00	0	27	0	824180736	71	4529
2026-01-07 02:30:09.44	291.95	36.26	-52.5	-54.2	14.7	0.00e+00	0	27	0	826277888	71	4328
2026-01-07 02:30:10.43	291.59	36.14	-52.5	-54.2	14.7	0.00e+00	0	27	0	828375040	71	4306
2026-01-07 02:30:11.43	291.23	36.03	-52.7	-54.4	14.6	0.00e+00	0	27	0	829423616	71	4421
2026-01-07 02:30:12.43	290.87	35.92	-52.8	-54.6	14.5	0.00e+00	0	27	0	831520768	71	4519
2026-01-07 02:30:13.43	290.52	35.80	-53.0	-54.9	14.4	0.00e+00	0	27	0	833617920	71	4665
2026-01-07 02:30:14.43	290.17	35.69	-53.1	-55.0	14.4	0.00e+00	0	27	0	835715072	71	4719
2026-01-07 02:30:15.44	289.81	35.57	-53.3	-55.2	14.3	0.00e+00	0	27	0	837812224	71	4835
2026-01-07 02:30:16.44	289.46	35.45	-53.3	-55.2	14.3	0.00e+00	0	27	0	838860800	71	4831
2026-01-07 02:30:17.44	289.12	35.34	-53.2	-55.1	14.3	0.00e+00	0	27	0	840957952	71	4766
2026-01-07 02:30:18.44	288.77	35.22	-53.0	-54.8	14.4	0.00e+00	0	27	0	843055104	71	4633
2026-01-07 02:30:19.44	288.43	35.10	-53.0	-54.8	14.5	0.00e+00	0	27	0	845152256	71	4606
2026-01-07 02:30:20.44	288.10	34.98	-53.0	-54.8	14.4	0.00e+00	0	27	0	847249408	71	4614
2026-01-07 02:30:21.44	287.76	34.86	-53.1	-54.9	14.4	0.00e+00	0	27	0	848297984	71	4667
2026-01-07 02:30:22.44	287.43	34.74	-53.1	-55.0	14.3	0.00e+00	0	27	0	850395136	71	4730
2026-01-07 02:30:23.44	287.10	34.61	-53.1	-55.0	14.3	0.00e+00	0	27	0	852492288	71	4720
2026-01-07 02:30:24.44	286.77	34.49	-53.1	-55.0	14.3	0.00e+00	0	27	0	854589440	71	4727
2026-01-07 02:30:25.44	286.44	34.37	-53.1	-55.0	14.3	0.00e+00	0	27	0	855638016	71	4721
2026-01-07 02:30:26.44	286.12	34.25	-53.1	-55.0	14.3	0.00e+00	0	27	0	857735168	71	4721
2026-01-07 02:30:27.44	285.80	34.12	-53.3	-55.2	14.3	0.00e+00	0	27	0	859832320	71	4816
2026-01-07 02:30:28.44	285.48	34.00	-53.3	-55.2	14.2	0.00e+00	0	27	0	861929472	71	4845
2026-01-07 02:30:29.44	285.16	33.87	-53.6	-55.6	14.2	0.00e+00	0	27	0	864026624	72	4783
2026-01-07 02:30:30.44	284.85	33.75	-53.8	-55.8	14.1	0.00e+00	0	27	0	865075200	72	4902
2026-01-07 02:30:31.44	284.54	33.62	-53.8	-55.9	14.0	0.00e+00	0	27	0	867172352	72	4967
2026-01-07 02:30:32.44	284.23	33.49	-53.9	-56.0	14.0	0.00e+00	0	27	0	869269504	72	4997
2026-01-07 02:30:33.44	283.92	33.37	-53.9	-56.0	14.1	0.00e+00	0	27	0	871366656	73	4712
2026-01-07 02:30:34.43	283.62	33.24	-54.0	-56.1	14.1	0.00e+00	0	27	0	873463808	73	4775
2026-01-07 02:30:35.43	283.32	33.11	-54.2	-56.4	13.9	0.00e+00	0	27	0	874512384	73	4961
2026-01-07 02:30:36.42	283.03	32.98	-54.3	-56.6	13.8	0.00e+00	0	27	0	876609536	73	5076
2026-01-07 02:30:37.42	282.73	32.86	-54.5	-56.8	13.8	0.00e+00	0	27	0	878706688	74	4886
2026-01-07 02:30:38.42	282.44	32.73	-54.6	-57.0	13.7	0.00e+00	0	27	0	880803840	74	4985
2026-01-07 02:30:39.42	282.14	32.60	-54.6	-57.0	13.7	0.00e+00	0	27	0	881852416	74	5022
2026-01-07 02:30:40.41	281.86	32.47	-54.7	-57.0	13.7	0.00e+00	0	27	0	883949568	74	5036
2026-01-07 02:30:41.40	281.57	32.34	-54.7	-57.1	13.7	0.00e+00	0	27	0	886046720	74	5060
2026-01-07 02:30:42.40	281.29	32.21	-54.8	-57.3	13.6	0.00e+00	0	27	0	888143872	74	5182
2026-01-07 02:30:43.40	281.00	32.08	-55.1	-57.6	13.5	0.00e+00	0	27	0	890241024	75	5099
2026-01-07 02:30:44.40	280.72	31.95	-55.1	-57.7	13.4	0.00e+00	0	27	0	891289600	75	5130
2026-01-07 02:30:45.40	280.45	31.82	-55.1	-57.8	13.4	0.00e+00	0	27	0	893386752	75	5175
2026-01-07 02:30:46.40	280.17	31.69	-55.0	-57.6	13.4	0.00e+00	0	27	0	895483904	75	5083
2026-01-07 02:30:47.39	279.90	31.56	-54.9	-57.4	13.6	0.00e+00	0	27	0	897581056	75	4966
2026-01-07 02:30:48.39	279.63	31.43	-54.9	-57.3	13.6	0.00e+00	0	27	0	898629632	75	4909
2026-01-07 02:30:49.39	279.36	31.30	-54.8	-57.2	13.7	0.00e+00	0	27	0	900726784	75	4820
2026-01-07 02:30:50.39	279.09	31.17	-54.9	-57.3	13.6	0.00e+00	0	27	0	902823936	75	4923
2026-01-07 02:30:51.39	278.83	31.04	-54.9	-57.5	13.5	0.00e+00	0	27	0	904921088	75	4993
2026-01-07 02:30:52.39	278.56	30.90	-55.0	-57.5	13.5	0.00e+00	0	27	0	907018240	75	5039
2026-01-07 02:30:53.38	278.30	30.77	-55.0	-57.6	13.5	0.00e+00	0	27	0	908066816	75	5058
2026-01-07 02:30:54.36	278.05	30.64	-54.7	-57.2	13.7	0.00e+00	0	27	0	910163968	75	4818
2026-01-07 02:30:55.36	277.79	30.51	-54.4	-56.7	13.9	0.00e+00	0	27	0	912261120	75	4573
2026-01-07 02:30:56.37	277.54	30.38	-54.4	-56.7	14.0	0.00e+00	0	27	0	914358272	75	4574
2026-01-07 02:30:57.36	277.29	30.25	-54.3	-56.6	14.0	0.00e+00	0	27	0	915406848	75	4517
2026-01-07 02:30:58.36	277.04	30.12	-54.4	-56.6	14.0	0.00e+00	0	27	0	917504000	75	4535
2026-01-07 02:30:59.36	276.79	29.99	-54.4	-56.7	14.0	0.00e+00	0	27	0	919601152	75	4564
2026-01-07 02:31:00.36	276.54	29.85	-54.3	-56.6	14.0	0.00e+00	0	27	0	921698304	75	4512
2026-01-07 02:31:01.35	276.30	29.72	-54.3	-56.5	14.1	0.00e+00	0	27	0	923795456	75	4485
2026-01-07 02:31:02.35	276.06	29.59	-54.2	-56.4	14.1	0.00e+00	0	27	0	924844032	75	4398
2026-01-07 02:31:03.34	275.82	29.46	-54.2	-56.4	14.0	0.00e+00	0	27	0	926941184	74	4687
2026-01-07 02:31:04.34	275.58	29.33	-54.2	-56.4	14.0	0.00e+00	0	27	0	929038336	74	4669
2026-01-07 02:31:05.34	275.35	29.20	-53.8	-55.9	14.3	0.00e+00	0	27	0	931135488	74	4393
2026-01-07 02:31:06.34	275.11	29.07	-53.6	-55.7	14.2	0.00e+00	0	27	0	933232640	73	4554
2026-01-07 02:31:07.33	274.88	28.94	-53.6	-55.7	14.2	0.00e+00	0	27	0	934281216	73	4551
2026-01-07 02:31:08.32	274.65	28.81	-53.6	-55.7	14.2	0.00e+00	0	27	0	936378368	73	4560
2026-01-07 02:31:09.33	274.42	28.67	-53.7	-55.7	14.2	0.00e+00	0	27	0	938475520	73	4598
2026-01-07 02:31:10.33	274.20	28.54	-53.7	-55.7	14.2	0.00e+00	0	27	0	940572672	73	4597
2026-01-07 02:31:11.33	273.97	28.41	-53.7	-55.8	14.2	0.00e+00	0	27	0	941621248	73	4623
2026-01-07 02:31:12.33	273.75	28.28	-53.6	-55.5	14.3	0.00e+00	0	27	0	943718400	73	4492
2026-01-07 02:31:13.33	273.53	28.15	-53.5	-55.5	14.3	0.00e+00	0	27	0	945815552	73	4488
2026-01-07 02:31:14.34	273.31	28.02	-53.5	-55.5	14.3	0.00e+00	0	27	0	947912704	73	4485
2026-01-07 02:31:15.33	273.09	27.89	-53.5	-55.5	14.3	0.00e+00	0	27	0	950009856	73	4492
2026-01-07 02:31:16.34	272.87	27.76	-53.4	-55.3	14.4	0.00e+00	0	27	0	951058432	73	4382
2026-01-07 02:31:17.34	272.66	27.63	-53.3	-55.2	14.5	0.00e+00	0	27	0	953155584	73	4297
2026-01-07 02:31:18.34	272.45	27.50	-53.4	-55.3	14.4	0.00e+00	0	27	0	955252736	73	4385
2026-01-07 02:31:19.35	272.23	27.36	-53.4	-55.4	14.3	0.00e+00	0	27	0	957349888	73	4427
2026-01-07 02:31:20.35	272.03	27.23	-53.5	-55.4	14.3	0.00e+00	0	27	0	959447040	73	4432
2026-01-07 02:31:21.35	271.82	27.11	-53.5	-55.5	14.3	0.00e+00	0	27	0	960495616	73	4491
2026-01-07 02:31:22.35	271.61	26.98	-53.6	-55.6	14.3	0.00e+00	0	27	0	962592768	73	4520
2026-01-07 02:31:23.35	271.41	26.85	-53.5	-55.5	14.3	0.00e+00	0	27	0	964689920	73	4443
2026-01-07 02:31:24.34	271.21	26.72	-53.4	-55.3	14.4	0.00e+00	0	27	0	966787072	73	4375
2026-01-07 02:31:25.35	271.01	26.59	-53.4	-55.3	14.4	0.00e+00	0	27	0	968884224	73	4377
2026-01-07 02:31:26.34	270.81	26.46	-53.3	-55.2	14.5	0.00e+00	0	27	0	969932800	73	4297
2026-01-07 02:31:27.34	270.61	26.33	-53.1	-55.0	14.4	0.00e+00	0	27	0	972029952	72	4453
2026-01-07 02:31:28.35	270.42	26.20	-53.1	-54.9	14.4	0.00e+00	0	27	0	974127104	72	4441
2026-01-07 02:31:29.34	270.22	26.08	-53.2	-55.1	14.4	0.00e+00	0	27	0	976224256	72	4522
2026-01-07 02:31:30.34	270.03	25.95	-53.2	-55.1	14.4	0.00e+00	0	27	0	977272832	72	4527
2026-01-07 02:31:31.34	269.84	25.82	-53.0	-54.9	14.5	0.00e+00	0	27	0	979369984	72	4413
2026-01-07 02:31:32.33	269.65	25.70	-53.2	-55.1	14.4	0.00e+00	0	27	0	981467136	72	4531
2026-01-07 02:31:33.33	269.47	25.57	-53.1	-55.0	14.4	0.00e+00	0	27	0	983564288	72	4460
2026-01-07 02:31:34.33	269.28	25.44	-53.0	-54.9	14.5	0.00e+00	0	27	0	985661440	72	4415
2026-01-07 02:31:35.33	269.10	25.32	-52.9	-54.8	14.5	0.00e+00	0	27	0	986710016	72	4360
2026-01-07 02:31:36.33	268.91	25.19	-53.0	-54.9	14.4	0.00e+00	0	27	0	988807168	72	4418
2026-01-07 02:31:37.33	268.73	25.07	-52.9	-54.8	14.5	0.00e+00	0	27	0	990904320	72	4346
2026-01-07 02:31:38.33	268.55	24.94	-53.1	-54.9	14.4	0.00e+00	0	27	0	993001472	72	4438
2026-01-07 02:31:39.33	268.37	24.82	-53.1	-55.0	14.4	0.00e+00	0	27	0	994050048	72	4450
2026-01-07 02:31:40.33	268.19	24.69	-53.3	-55.3	14.3	0.00e+00	0	27	0	996147200	72	4599
2026-01-07 02:31:41.33	268.02	24.57	-53.4	-55.4	14.2	0.00e+00	0	27	0	998244352	72	4654
2026-01-07 02:31:42.33	267.84	24.44	-53.5	-55.5	14.2	0.00e+00	0	27	0	1000341504	72	4715
2026-01-07 02:31:43.32	267.67	24.32	-53.5	-55.6	14.1	0.00e+00	0	27	0	1002438656	72	4764
2026-01-07 02:31:44.32	267.50	24.20	-53.5	-55.6	14.1	0.00e+00	0	27	0	1003487232	72	4765
2026-01-07 02:31:45.32	267.33	24.07	-53.5	-55.5	14.2	0.00e+00	0	27	0	1005584384	72	4738
2026-01-07 02:31:46.32	267.16	23.95	-53.4	-55.3	14.3	0.00e+00	0	27	0	1007681536	72	4632
2026-01-07 02:31:47.32	266.99	23.83	-53.2	-55.1	14.4	0.00e+00	0	27	0	1009778688	72	4505
2026-01-07 02:31:48.32	266.83	23.70	-53.2	-55.2	14.3	0.00e+00	0	27	0	1011875840	72	4550
2026-01-07 02:31:49.31	266.66	23.58	-53.1	-55.0	14.4	0.00e+00	0	27	0	1012924416	72	4493
2026-01-07 02:31:50.30	266.50	23.46	-53.3	-55.2	14.3	0.00e+00	0	27	0	1015021568	72	4595
2026-01-07 02:31:51.30	266.34	23.34	-53.4	-55.4	14.2	0.00e+00	0	27	0	1017118720	72	4666
2026-01-07 02:31:52.30	266.18	23.22	-53.6	-55.6	14.1	0.00e+00	0	27	0	1019215872	72	4813
2026-01-07 02:31:53.30	266.02	23.10	-53.7	-55.9	14.0	0.00e+00	0	27	0	1021313024	72	4937
2026-01-07 02:31:54.29	265.86	22.98	-53.9	-56.0	13.9	0.00e+00	0	27	0	1022361600	72	5036
2026-01-07 02:31:55.30	265.70	22.86	-53.9	-56.1	14.0	0.00e+00	0	27	0	1024458752	73	4765
2026-01-07 02:31:56.29	265.55	22.74	-54.0	-56.2	14.0	0.00e+00	0	27	0	1026555904	73	4817
2026-01-07 02:31:57.29	265.39	22.62	-54.0	-56.1	14.0	0.00e+00	0	27	0	1028653056	73	4808
2026-01-07 02:31:58.29	265.24	22.50	-53.9	-56.1	14.0	0.00e+00	0	27	0	1029701632	73	4801
2026-01-07 02:31:59.28	265.09	22.38	-53.9	-56.0	14.0	0.00e+00	0	27	0	1031798784	73	4725
2026-01-07 02:32:00.28	264.93	22.26	-53.8	-56.0	14.0	0.00e+00	0	28	0	1033895936	73	4719
2026-01-07 02:32:01.27	264.79	22.15	-53.8	-55.9	14.1	0.00e+00	0	27	0	1035993088	73	4689
2026-01-07 02:32:02.28	264.63	22.03	-53.9	-56.0	14.0	0.00e+00	0	27	0	1038090240	73	4740
2026-01-07 02:32:03.28	264.49	21.91	-53.9	-56.1	14.0	0.00e+00	0	27	0	1039138816	73	4795
2026-01-07 02:32:04.27	264.34	21.79	-54.0	-56.2	13.9	0.00e+00	0	27	0	1041235968	73	4838
2026-01-07 02:32:05.26	264.20	21.68	-54.0	-56.3	13.9	0.00e+00	0	27	0	1043333120	73	4883
2026-01-07 02:32:06.27	264.05	21.56	-54.1	-56.3	13.9	0.00e+00	0	27	0	1045430272	73	4911
2026-01-07 02:32:07.27	263.91	21.44	-54.1	-56.3	13.9	0.00e+00	0	27	0	1046478848	73	4909
2026-01-07 02:32:08.28	263.76	21.33	-54.1	-56.3	13.9	0.00e+00	0	27	0	1048576000	73	4889
2026-01-07 02:32:09.28	263.62	21.21	-54.0	-56.2	13.9	0.00e+00	0	27	0	1050673152	73	4828
2026-01-07 02:32:10.28	263.48	21.10	-53.8	-56.0	14.0	0.00e+00	0	27	0	1052770304	73	4722
2026-01-07 02:32:11.29	263.34	20.98	-53.7	-55.8	14.1	0.00e+00	0	27	0	1054867456	73	4650
2026-01-07 02:32:12.29	263.20	20.87	-53.8	-55.9	14.1	0.00e+00	0	27	0	1056964608	73	4662
2026-01-07 02:32:13.29	263.07	20.75	-53.8	-55.9	14.1	0.00e+00	0	27	0	1058013184	73	4680
2026-01-07 02:32:14.29	262.93	20.64	-53.9	-56.1	14.0	0.00e+00	0	27	0	1060110336	73	4789
2026-01-07 02:32:15.28	262.80	20.53	-53.9	-56.1	14.0	0.00e+00	0	27	0	1062207488	73	4768
2026-01-07 02:32:16.28	262.66	20.41	-54.0	-56.3	13.9	0.00e+00	0	27	0	1064304640	73	4883
2026-01-07 02:32:17.28	262.53	20.30	-54.0	-56.3	13.9	0.00e+00	0	27	0	1065353216	73	4908
2026-01-07 02:32:18.27	262.40	20.19	-54.1	-56.4	13.8	0.00e+00	0	27	0	1067450368	73	4982
2026-01-07 02:32:19.28	262.26	20.08	-54.1	-56.3	13.9	0.00e+00	0	27	0	1069547520	73	4908
2026-01-07 02:32:20.28	262.13	19.96	-54.0	-56.3	13.9	0.00e+00	0	27	0	1071644672	73	4879
2026-01-07 02:32:21.28	262.01	19.85	-54.0	-56.2	13.9	0.00e+00	0	27	0	1073741824	73	4835
2026-01-07 02:32:22.28	261.88	19.74	-53.9	-56.0	14.0	0.00e+00	0	27	0	1074790400	73	4755
2026-01-07 02:32:23.28	261.75	19.63	-53.8	-55.9	14.1	0.00e+00	0	27	0	1076887552	73	4690
2026-01-07 02:32:24.27	261.62	19.52	-53.7	-55.9	14.1	0.00e+00	0	27	0	1078984704	73	4668
2026-01-07 02:32:25.27	261.50	19.41	-53.7	-55.8	14.1	0.00e+00	0	27	0	1081081856	73	4637
2026-01-07 02:32:26.27	261.37	19.30	-53.7	-55.8	14.1	0.00e+00	0	27	0	1082130432	73	4651
2026-01-07 02:32:27.27	261.25	19.19	-53.7	-55.8	14.1	0.00e+00	0	27	0	1084227584	73	4606
2026-01-07 02:32:28.27	261.13	19.08	-53.8	-55.9	14.1	0.00e+00	0	27	0	1086324736	73	4674
2026-01-07 02:32:29.27	261.01	18.97	-53.8	-55.9	14.0	0.00e+00	0	27	0	1088421888	73	4687
2026-01-07 02:32:30.26	260.89	18.87	-53.8	-56.0	14.0	0.00e+00	0	27	0	1090519040	73	4719
2026-01-07 02:32:31.26	260.77	18.76	-53.7	-55.8	14.1	0.00e+00	0	27	0	1091567616	73	4651
2026-01-07 02:32:32.27	260.65	18.65	-53.6	-55.8	14.1	0.00e+00	0	27	0	1093664768	73	4604
2026-01-07 02:32:33.27	260.53	18.54	-53.6	-55.7	14.1	0.00e+00	0	27	0	1095761920	73	4572
2026-01-07 02:32:34.27	260.41	18.43	-53.6	-55.7	14.1	0.00e+00	0	27	0	1097859072	73	4583
2026-01-07 02:32:35.27	260.29	18.33	-53.6	-55.7	14.2	0.00e+00	0	27	0	1099956224	73	4553
2026-01-07 02:32:36.28	260.18	18.22	-53.7	-55.8	14.1	0.00e+00	0	27	0	1101004800	73	4624
2026-01-07 02:32:37.28	260.06	18.11	-53.7	-55.9	14.1	0.00e+00	0	27	0	1103101952	73	4666
2026-01-07 02:32:38.28	259.95	18.01	-53.6	-55.7	14.1	0.00e+00	0	27	0	1105199104	73	4598
2026-01-07 02:32:39.28	259.83	17.90	-53.7	-55.8	14.1	0.00e+00	0	27	0	1107296256	73	4619
2026-01-07 02:32:40.27	259.72	17.80	-53.7	-55.8	14.1	0.00e+00	0	27	0	1108344832	73	4617
2026-01-07 02:32:41.27	259.61	17.69	-53.8	-55.9	14.0	0.00e+00	0	27	0	1110441984	73	4696
2026-01-07 02:32:42.27	259.50	17.59	-53.7	-55.9	14.0	0.00e+00	0	27	0	1112539136	73	4669
2026-01-07 02:32:43.27	259.39	17.49	-53.7	-55.9	14.0	0.00e+00	0	27	0	1114636288	73	4678
2026-01-07 02:32:44.28	259.28	17.38	-53.8	-56.0	14.0	0.00e+00	0	27	0	1116733440	73	4727
2026-01-07 02:32:45.28	259.17	17.28	-53.7	-55.9	14.1	0.00e+00	0	27	0	1117782016	73	4652
2026-01-07 02:32:46.27	259.06	17.18	-53.8	-55.9	14.0	0.00e+00	0	27	0	1119879168	73	4688
2026-01-07 02:32:47.27	258.96	17.07	-53.8	-55.9	14.0	0.00e+00	0	27	0	1121976320	73	4695
2026-01-07 02:32:48.26	258.85	16.97	-53.7	-55.9	14.0	0.00e+00	0	27	0	1124073472	73	4670
2026-01-07 02:32:49.26	258.75	16.87	-53.6	-55.8	14.1	0.00e+00	0	27	0	1126170624	73	4603
2026-01-07 02:32:50.26	258.64	16.77	-53.6	-55.8	14.1	0.00e+00	0	27	0	1127219200	73	4613
2026-01-07 02:32:51.25	258.54	16.67	-53.6	-55.7	14.1	0.00e+00	0	27	0	1129316352	73	4598
2026-01-07 02:32:52.25	258.43	16.57	-53.5	-55.6	14.2	0.00e+00	0	27	0	1131413504	73	4537
2026-01-07 02:32:53.24	258.33	16.47	-53.6	-55.7	14.1	0.00e+00	0	27	0	1133510656	73	4563
2026-01-07 02:32:54.24	258.23	16.37	-53.4	-55.5	14.2	0.00e+00	0	27	0	1135607808	73	4480
2026-01-07 02:32:55.24	258.13	16.27	-53.4	-55.5	14.2	0.00e+00	0	27	0	1136656384	73	4454
2026-01-07 02:32:56.24	258.03	16.17	-53.4	-55.5	14.3	0.00e+00	0	27	0	1138753536	73	4449
2026-01-07 02:32:57.24	257.93	16.07	-53.4	-55.5	14.2	0.00e+00	0	27	0	1140850688	73	4478
2026-01-07 02:32:58.23	257.83	15.97	-53.3	-55.3	14.3	0.00e+00	0	27	0	1142947840	73	4353
2026-01-07 02:32:59.23	257.73	15.87	-53.3	-55.3	14.3	0.00e+00	0	27	0	1143996416	73	4381
2026-01-07 02:33:00.22	257.63	15.77	-53.3	-55.3	14.3	0.00e+00	0	27	0	1146093568	73	4349
2026-01-07 02:33:01.22	257.54	15.67	-53.2	-55.2	14.4	0.00e+00	0	27	0	1148190720	73	4293
2026-01-07 02:33:02.22	257.44	15.58	-53.3	-55.3	14.3	0.00e+00	0	27	0	1150287872	73	4371
2026-01-07 02:33:03.23	257.34	15.48	-53.2	-55.2	14.4	0.00e+00	0	27	0	1152385024	73	4340
2026-01-07 02:33:04.23	257.25	15.38	-53.3	-55.4	14.3	0.00e+00	0	27	0	1153433600	73	4411
2026-01-07 02:33:05.23	257.15	15.28	-53.4	-55.5	14.2	0.00e+00	0	27	0	1155530752	73	4450
2026-01-07 02:33:06.22	257.06	15.19	-53.5	-55.6	14.2	0.00e+00	0	27	0	1157627904	73	4502
2026-01-07 02:33:07.22	256.97	15.09	-53.5	-55.6	14.1	0.00e+00	0	27	0	1159725056	73	4537
2026-01-07 02:33:08.23	256.87	14.99	-53.6	-55.8	14.1	0.00e+00	0	27	0	1160773632	73	4611
2026-01-07 02:33:09.22	256.78	14.90	-53.7	-55.8	14.0	0.00e+00	0	27	0	1162870784	73	4643
2026-01-07 02:33:10.22	256.69	14.80	-53.8	-56.0	14.0	0.00e+00	0	27	0	1164967936	73	4718
2026-01-07 02:33:11.22	256.60	14.71	-53.8	-56.0	14.0	0.00e+00	0	27	0	1167065088	73	4729
2026-01-07 02:33:12.22	256.51	14.61	-53.8	-56.0	13.9	0.00e+00	0	27	0	1169162240	73	4721
2026-01-07 02:33:13.22	256.42	14.52	-53.8	-56.1	13.9	0.00e+00	0	27	0	1170210816	73	4787
2026-01-07 02:33:14.22	256.33	14.42	-53.8	-56.1	13.9	0.00e+00	0	27	0	1172307968	73	4791
2026-01-07 02:33:15.22	256.24	14.33	-53.9	-56.1	13.9	0.00e+00	0	27	0	1174405120	73	4800
2026-01-07 02:33:16.22	256.15	14.24	-53.9	-56.2	13.9	0.00e+00	0	27	0	1176502272	73	4828
2026-01-07 02:33:17.22	256.07	14.14	-53.9	-56.1	13.9	0.00e+00	0	27	0	1178599424	73	4799
2026-01-07 02:33:18.21	255.98	14.05	-53.8	-56.1	13.9	0.00e+00	0	27	0	1179648000	73	4761
2026-01-07 02:33:19.21	255.89	13.96	-53.8	-56.0	13.9	0.00e+00	0	27	0	1181745152	73	4749
2026-01-07 02:33:20.21	255.81	13.86	-53.9	-56.2	13.8	0.00e+00	0	27	0	1183842304	73	4859
2026-01-07 02:33:21.20	255.72	13.77	-53.8	-56.1	13.9	0.00e+00	0	27	0	1185939456	73	4760
2026-01-07 02:33:22.21	255.64	13.68	-53.7	-55.9	14.0	0.00e+00	0	27	0	1186988032	73	4691
2026-01-07 02:33:23.21	255.55	13.59	-53.8	-56.1	13.9	0.00e+00	0	27	0	1189085184	73	4784
2026-01-07 02:33:24.22	255.47	13.49	-53.7	-56.0	13.9	0.00e+00	0	27	0	1191182336	73	4731
2026-01-07 02:33:25.22	255.39	13.40	-53.7	-56.0	13.9	0.00e+00	0	27	0	1193279488	73	4718
2026-01-07 02:33:26.22	255.30	13.31	-53.9	-56.2	13.9	0.00e+00	0	27	0	1195376640	73	4816
2026-01-07 02:33:27.21	255.22	13.22	-53.9	-56.2	13.8	0.00e+00	0	27	0	1196425216	73	4868
2026-01-07 02:33:28.22	255.14	13.13	-54.0	-56.3	13.8	0.00e+00	0	27	0	1198522368	73	4891
2026-01-07 02:33:29.21	255.06	13.04	-54.0	-56.4	13.7	0.00e+00	0	27	0	1200619520	73	4975
2026-01-07 02:33:30.21	254.98	12.95	-54.1	-56.5	13.7	0.00e+00	0	27	0	1202716672	73	4999
2026-01-07 02:33:31.21	254.90	12.86	-54.2	-56.6	13.6	0.00e+00	0	27	0	1204813824	73	5067
2026-01-07 02:33:32.21	254.82	12.77	-54.3	-56.7	13.5	0.00e+00	0	27	0	1205862400	73	5156
2026-01-07 02:33:33.22	254.74	12.68	-54.3	-56.8	13.5	0.00e+00	0	27	0	1207959552	73	5202
2026-01-07 02:33:34.22	254.66	12.59	-54.3	-56.8	13.5	0.00e+00	0	27	0	1210056704	73	5211
2026-01-07 02:33:35.22	254.58	12.51	-54.3	-56.8	13.5	0.00e+00	0	27	0	1212153856	73	5211
2026-01-07 02:33:36.22	254.50	12.42	-54.4	-56.9	13.5	0.00e+00	0	27	0	1214251008	74	4957
2026-01-07 02:33:37.22	254.43	12.33	-54.4	-56.9	13.6	0.00e+00	0	27	0	1215299584	74	4965
2026-01-07 02:33:38.22	254.35	12.24	-54.4	-57.0	13.5	0.00e+00	0	27	0	1217396736	74	5001
