passes_logs/2026/01/07/R3.2S_Murmansk/R3.2S_Murmansk__20260107_080903_NOAA_21_JPSS-2_rec.log

#Pass ID: 20260107_080903_NOAA 21 (JPSS-2)
#Satellite: NOAA 21 (JPSS-2)
#Configuration: NOAA-21
#almurnet v.1.7.20251203
#Start time: 2026-01-07 08:09:04

#Version: 2.2.20231116
#Station: R3.2S_Murmansk
#Location: 33.079688 lon 68.888172 lat
#TLE: 1 54234U 22150A   26005.56767909  .00000152  00000+0  92756-4 0  9990
#TLE: 2 54234  98.7490 306.5820 0001036 340.2747  19.8389 14.19532370163472

#Time	Az	El	Level	Level2	SNR	BER	BlckErr	Temp	State	Recorded	gain1	gain2
2026-01-07 08:09:04.41	119.76	2.03	-57.6	-71.3	3.8	1.49e+00	0	23	0	0	81	17432
2026-01-07 08:09:05.41	119.73	2.10	-57.6	-71.3	3.8	1.49e+00	0	23	104	0	80	18498
2026-01-07 08:09:06.41	119.70	2.16	-57.6	-71.3	3.8	1.49e+00	0	23	104	0	80	18481
2026-01-07 08:09:07.41	119.67	2.22	-57.6	-71.3	3.8	1.49e+00	0	23	104	0	80	18480
2026-01-07 08:09:08.41	119.64	2.29	-57.6	-71.3	3.8	1.49e+00	0	23	104	0	80	18446
2026-01-07 08:09:09.40	119.61	2.35	-57.5	-71.3	3.8	1.49e+00	0	23	104	0	80	18451
2026-01-07 08:09:10.40	119.58	2.41	-57.6	-71.3	3.8	1.49e+00	0	23	104	0	80	18455
2026-01-07 08:09:11.40	119.54	2.48	-57.6	-71.3	3.8	1.49e+00	0	23	104	0	80	18473
2026-01-07 08:09:12.39	119.51	2.54	-57.6	-71.3	3.8	1.49e+00	0	23	104	0	80	18497
2026-01-07 08:09:13.38	119.48	2.60	-57.6	-71.3	3.8	1.49e+00	0	23	104	0	80	18469
2026-01-07 08:09:14.37	119.45	2.67	-57.6	-71.3	3.8	1.49e+00	0	23	104	0	80	18414
2026-01-07 08:09:15.37	119.42	2.73	-57.6	-71.3	3.8	1.49e+00	0	23	104	0	80	18404
2026-01-07 08:09:16.37	119.39	2.79	-57.6	-71.3	3.8	1.49e+00	0	23	104	0	80	18394
2026-01-07 08:09:17.38	119.35	2.86	-57.6	-71.3	3.8	1.49e+00	0	24	104	0	80	18377
2026-01-07 08:09:18.37	119.32	2.92	-57.6	-71.3	3.8	1.49e+00	0	23	104	0	80	18361
2026-01-07 08:09:19.36	119.29	2.99	-57.6	-71.3	3.8	1.49e+00	0	23	104	0	80	18322
2026-01-07 08:09:20.36	119.26	3.05	-57.6	-71.2	3.8	1.49e+00	0	24	104	0	80	18273
2026-01-07 08:09:21.35	119.23	3.12	-57.6	-71.2	3.8	1.49e+00	0	24	104	0	80	18291
2026-01-07 08:09:22.34	119.19	3.18	-57.6	-71.2	3.8	1.49e+00	0	24	104	0	80	18295
2026-01-07 08:09:23.34	119.16	3.24	-57.6	-71.3	3.8	1.49e+00	0	24	104	0	80	18306
2026-01-07 08:09:24.33	119.13	3.31	-57.6	-71.2	3.8	1.49e+00	0	24	104	0	80	18282
2026-01-07 08:09:25.33	119.09	3.37	-57.6	-71.2	3.8	1.49e+00	0	24	104	0	80	18183
2026-01-07 08:09:26.31	119.06	3.44	-57.6	-71.1	3.8	1.49e+00	0	24	104	0	80	18046
2026-01-07 08:09:27.32	119.03	3.51	-57.6	-71.1	3.8	1.49e+00	0	24	104	0	80	17960
2026-01-07 08:09:28.32	118.99	3.57	-57.6	-71.1	3.8	1.49e+00	0	24	104	0	80	18015
2026-01-07 08:09:29.32	118.96	3.64	-57.5	-71.0	3.8	1.49e+00	0	24	104	0	80	17858
2026-01-07 08:09:30.31	118.92	3.70	-57.5	-70.8	3.8	1.49e+00	0	24	104	0	80	17373
2026-01-07 08:09:31.31	118.89	3.77	-57.5	-70.4	3.8	1.49e+00	0	24	104	0	80	16628
2026-01-07 08:09:32.30	118.85	3.84	-57.5	-69.7	3.8	1.49e+00	0	24	104	0	80	15283
2026-01-07 08:09:33.30	118.82	3.90	-57.4	-68.3	4.1	1.48e+00	0	24	104	0	80	13064
2026-01-07 08:09:34.29	118.79	3.97	-57.3	-67.6	4.3	1.47e+00	0	24	104	0	80	11958
2026-01-07 08:09:35.28	118.75	4.03	-57.1	-66.2	4.8	1.11e+00	2	24	104	0	80	10190
2026-01-07 08:09:36.28	118.72	4.10	-57.0	-65.4	5.1	6.15e-01	0	24	0	2097152	80	9316
2026-01-07 08:09:37.27	118.68	4.17	-56.8	-64.2	5.8	3.52e-01	0	24	0	5242880	80	8136
2026-01-07 08:09:38.27	118.64	4.24	-56.7	-63.5	6.4	2.29e-01	0	24	0	8388608	80	7471
2026-01-07 08:09:39.27	118.61	4.30	-56.4	-62.3	7.3	1.23e-01	0	24	0	11534336	79	6900
2026-01-07 08:09:40.25	118.57	4.37	-55.9	-61.0	8.4	3.48e-02	0	24	0	14680064	78	6335
2026-01-07 08:09:41.25	118.54	4.44	-55.7	-60.4	9.0	1.27e-02	0	24	0	17825792	78	5857
2026-01-07 08:09:42.25	118.50	4.51	-55.2	-59.2	10.0	4.01e-03	0	24	0	20971520	77	5434
2026-01-07 08:09:43.24	118.46	4.57	-54.7	-58.2	10.8	5.81e-04	0	24	0	24117248	76	5150
2026-01-07 08:09:44.23	118.43	4.64	-54.1	-57.1	11.4	7.93e-05	0	24	0	27262976	74	5091
2026-01-07 08:09:45.23	118.39	4.71	-53.4	-56.1	12.2	4.50e-06	0	24	0	30408704	73	4794
2026-01-07 08:09:46.22	118.35	4.78	-52.8	-55.1	12.8	0.00e+00	0	24	0	33554432	72	4533
2026-01-07 08:09:47.21	118.32	4.84	-52.4	-54.6	13.1	0.00e+00	0	24	0	35651584	71	4524
2026-01-07 08:09:48.20	118.28	4.91	-52.2	-54.3	13.1	0.00e+00	0	24	0	38797312	70	4619
2026-01-07 08:09:49.19	118.24	4.98	-51.9	-54.0	13.4	0.00e+00	0	24	0	41943040	70	4452
2026-01-07 08:09:50.18	118.21	5.05	-51.9	-54.0	13.4	0.00e+00	0	24	0	45088768	70	4458
2026-01-07 08:09:51.18	118.17	5.12	-52.8	-55.2	12.6	0.00e+00	0	24	0	48234496	70	5154
2026-01-07 08:09:52.17	118.13	5.19	-55.0	-58.7	10.5	2.86e-03	0	24	0	51380224	76	5404
2026-01-07 08:09:53.16	118.09	5.26	-52.1	-54.2	13.0	0.00e+00	0	24	0	54525952	69	4867
2026-01-07 08:09:54.16	118.05	5.33	-54.2	-57.2	11.5	1.13e-04	0	24	0	57671680	74	5108
2026-01-07 08:09:55.16	118.01	5.40	-53.7	-56.6	11.8	4.42e-05	0	24	0	60817408	73	5073
2026-01-07 08:09:56.17	117.97	5.47	-51.4	-53.3	13.7	0.00e+00	0	24	0	63963136	69	4360
2026-01-07 08:09:57.17	117.93	5.54	-51.3	-53.1	13.8	0.00e+00	0	24	0	67108864	69	4274
2026-01-07 08:09:58.17	117.90	5.61	-51.4	-53.3	13.8	0.00e+00	0	24	0	70254592	69	4344
2026-01-07 08:09:59.17	117.86	5.68	-51.3	-53.1	13.8	0.00e+00	0	24	0	73400320	69	4280
2026-01-07 08:10:00.17	117.82	5.75	-51.3	-53.1	13.8	0.00e+00	0	24	0	76546048	69	4268
2026-01-07 08:10:01.16	117.78	5.82	-51.3	-53.1	13.8	0.00e+00	0	24	0	79691776	69	4269
2026-01-07 08:10:02.16	117.74	5.89	-51.3	-53.1	13.9	0.00e+00	0	24	0	82837504	69	4273
2026-01-07 08:10:03.15	117.70	5.97	-51.1	-52.9	13.8	0.00e+00	0	24	0	85983232	68	4403
2026-01-07 08:10:04.14	117.66	6.04	-51.1	-52.9	13.9	0.00e+00	0	25	0	89128960	68	4398
2026-01-07 08:10:05.14	117.61	6.11	-51.2	-52.9	13.8	0.00e+00	0	24	0	92274688	68	4427
2026-01-07 08:10:06.14	117.57	6.18	-51.1	-52.8	13.9	0.00e+00	0	24	0	95420416	68	4388
2026-01-07 08:10:07.14	117.53	6.25	-51.0	-52.8	14.0	0.00e+00	0	25	0	98566144	68	4349
2026-01-07 08:10:08.14	117.49	6.33	-51.1	-52.8	13.9	7.00e-07	0	24	0	101711872	68	4375
2026-01-07 08:10:09.14	117.45	6.40	-51.1	-52.8	13.9	0.00e+00	0	25	0	104857600	68	4363
2026-01-07 08:10:10.13	117.41	6.47	-51.0	-52.8	14.0	0.00e+00	0	24	0	108003328	68	4349
2026-01-07 08:10:11.12	117.36	6.54	-51.1	-52.8	13.9	0.00e+00	0	24	0	111149056	68	4388
2026-01-07 08:10:12.13	117.32	6.62	-51.1	-52.8	13.9	0.00e+00	0	24	0	114294784	68	4370
2026-01-07 08:10:13.13	117.28	6.69	-51.0	-52.6	14.0	0.00e+00	0	24	0	117440512	68	4290
2026-01-07 08:10:14.13	117.24	6.76	-50.9	-52.6	14.1	0.00e+00	0	24	0	120586240	68	4250
2026-01-07 08:10:15.13	117.19	6.84	-50.9	-52.5	14.1	0.00e+00	0	24	0	123731968	68	4224
2026-01-07 08:10:16.13	117.15	6.91	-50.9	-52.5	14.1	0.00e+00	0	25	0	126877696	68	4233
2026-01-07 08:10:17.13	117.11	6.99	-50.8	-52.4	14.2	0.00e+00	0	24	0	130023424	68	4179
2026-01-07 08:10:18.12	117.06	7.06	-50.9	-52.5	14.1	0.00e+00	0	25	0	133169152	68	4218
2026-01-07 08:10:19.11	117.02	7.13	-50.8	-52.5	14.2	0.00e+00	0	25	0	136314880	68	4206
2026-01-07 08:10:20.12	116.97	7.21	-50.8	-52.4	14.2	0.00e+00	0	25	0	139460608	68	4162
2026-01-07 08:10:21.11	116.93	7.28	-50.8	-52.5	14.2	0.00e+00	0	24	0	141557760	68	4203
2026-01-07 08:10:22.11	116.88	7.36	-50.8	-52.4	14.2	0.00e+00	0	25	0	144703488	68	4176
2026-01-07 08:10:23.11	116.84	7.43	-50.9	-52.5	14.2	0.00e+00	0	24	0	147849216	68	4219
2026-01-07 08:10:24.10	116.79	7.51	-50.7	-52.3	14.3	0.00e+00	0	24	0	150994944	68	4118
2026-01-07 08:10:25.10	116.75	7.58	-50.6	-52.2	14.1	0.00e+00	0	25	0	154140672	67	4320
2026-01-07 08:10:26.10	116.70	7.66	-50.6	-52.2	14.1	0.00e+00	0	25	0	157286400	67	4326
2026-01-07 08:10:27.10	116.66	7.74	-50.6	-52.3	14.1	0.00e+00	0	25	0	160432128	67	4351
2026-01-07 08:10:28.09	116.61	7.81	-50.5	-52.1	14.2	0.00e+00	0	25	0	163577856	67	4277
2026-01-07 08:10:29.09	116.56	7.89	-50.5	-52.1	14.2	0.00e+00	0	25	0	166723584	67	4256
2026-01-07 08:10:30.09	116.52	7.97	-50.4	-52.0	14.3	0.00e+00	0	25	0	169869312	67	4219
2026-01-07 08:10:31.09	116.47	8.04	-50.4	-52.0	14.3	0.00e+00	0	25	0	173015040	67	4195
2026-01-07 08:10:32.09	116.42	8.12	-50.4	-51.9	14.3	0.00e+00	0	24	0	176160768	67	4179
2026-01-07 08:10:33.08	116.37	8.20	-50.3	-51.9	14.4	0.00e+00	0	25	0	179306496	67	4158
2026-01-07 08:10:34.08	116.33	8.28	-50.4	-51.9	14.4	0.00e+00	0	25	0	182452224	67	4176
2026-01-07 08:10:35.08	116.28	8.35	-50.4	-51.9	14.3	0.00e+00	0	25	0	185597952	67	4184
2026-01-07 08:10:36.07	116.23	8.43	-50.3	-51.9	14.4	0.00e+00	0	25	0	188743680	67	4150
2026-01-07 08:10:37.08	116.18	8.51	-50.3	-51.8	14.4	0.00e+00	0	25	0	191889408	67	4142
2026-01-07 08:10:38.07	116.13	8.59	-50.2	-51.7	14.5	0.00e+00	0	25	0	195035136	67	4085
2026-01-07 08:10:39.07	116.08	8.67	-50.2	-51.7	14.5	0.00e+00	0	25	0	198180864	67	4082
2026-01-07 08:10:40.06	116.03	8.75	-50.1	-51.6	14.4	0.00e+00	0	25	0	201326592	66	4272
2026-01-07 08:10:41.06	115.98	8.82	-50.0	-51.5	14.4	0.00e+00	0	25	0	204472320	66	4215
2026-01-07 08:10:42.06	115.93	8.90	-50.0	-51.5	14.4	0.00e+00	0	25	0	207618048	66	4224
2026-01-07 08:10:43.05	115.88	8.98	-50.1	-51.6	14.4	0.00e+00	0	25	0	210763776	66	4246
2026-01-07 08:10:44.03	115.83	9.06	-50.0	-51.4	14.5	0.00e+00	0	25	0	213909504	66	4177
2026-01-07 08:10:45.02	115.78	9.14	-50.0	-51.5	14.4	0.00e+00	0	25	0	217055232	66	4229
2026-01-07 08:10:46.01	115.73	9.22	-50.0	-51.4	14.5	0.00e+00	0	25	0	220200960	66	4183
2026-01-07 08:10:47.01	115.68	9.30	-49.9	-51.4	14.5	0.00e+00	0	25	0	223346688	66	4167
2026-01-07 08:10:48.01	115.63	9.38	-50.0	-51.5	14.5	0.00e+00	0	25	0	226492416	66	4196
2026-01-07 08:10:49.00	115.58	9.46	-49.9	-51.4	14.5	0.00e+00	0	25	0	229638144	66	4162
2026-01-07 08:10:50.00	115.52	9.54	-49.9	-51.3	14.5	0.00e+00	0	25	0	232783872	66	4142
2026-01-07 08:10:51.00	115.47	9.63	-50.0	-51.5	14.5	0.00e+00	0	25	0	234881024	66	4200
2026-01-07 08:10:51.99	115.42	9.71	-49.9	-51.3	14.5	0.00e+00	0	25	0	238026752	66	4139
2026-01-07 08:10:52.99	115.36	9.79	-49.8	-51.2	14.6	0.00e+00	0	25	0	241172480	66	4092
2026-01-07 08:10:53.98	115.31	9.87	-49.7	-51.1	14.6	0.00e+00	0	25	0	244318208	66	4045
2026-01-07 08:10:54.97	115.26	9.95	-49.8	-51.2	14.6	0.00e+00	0	25	0	247463936	66	4093
2026-01-07 08:10:55.97	115.20	10.04	-49.8	-51.3	14.6	0.00e+00	0	25	0	250609664	66	4106
2026-01-07 08:10:56.96	115.15	10.12	-49.7	-51.1	14.7	0.00e+00	0	25	0	253755392	66	4036
2026-01-07 08:10:57.96	115.09	10.20	-49.6	-51.0	14.6	0.00e+00	0	25	0	256901120	65	4229
2026-01-07 08:10:58.95	115.04	10.28	-49.8	-51.2	14.5	0.00e+00	0	25	0	260046848	65	4333
2026-01-07 08:10:59.94	114.98	10.37	-49.8	-51.3	14.5	0.00e+00	0	25	0	263192576	65	4344
2026-01-07 08:11:00.93	114.93	10.45	-49.9	-51.3	14.4	0.00e+00	0	25	0	266338304	65	4368
2026-01-07 08:11:01.93	114.87	10.53	-49.7	-51.1	14.5	0.00e+00	0	25	0	269484032	65	4255
2026-01-07 08:11:02.93	114.81	10.62	-49.7	-51.2	14.5	0.00e+00	0	25	0	272629760	65	4298
2026-01-07 08:11:03.93	114.75	10.70	-49.7	-51.1	14.5	0.00e+00	0	25	0	275775488	65	4279
2026-01-07 08:11:04.93	114.70	10.79	-49.7	-51.1	14.5	0.00e+00	0	25	0	278921216	65	4283
2026-01-07 08:11:05.92	114.64	10.87	-49.7	-51.2	14.5	0.00e+00	0	25	0	282066944	65	4292
2026-01-07 08:11:06.93	114.58	10.96	-49.8	-51.2	14.5	0.00e+00	0	25	0	285212672	65	4297
2026-01-07 08:11:07.93	114.52	11.05	-49.8	-51.2	14.5	0.00e+00	0	25	0	288358400	65	4308
2026-01-07 08:11:08.93	114.46	11.13	-49.7	-51.1	14.5	0.00e+00	0	25	0	291504128	65	4255
2026-01-07 08:11:09.93	114.40	11.22	-49.6	-51.0	14.5	0.00e+00	0	25	0	294649856	65	4234
2026-01-07 08:11:10.92	114.34	11.31	-49.7	-51.2	14.5	0.00e+00	0	25	0	297795584	65	4300
2026-01-07 08:11:11.92	114.28	11.39	-49.6	-51.0	14.6	0.00e+00	0	25	0	300941312	65	4195
2026-01-07 08:11:12.91	114.22	11.48	-49.7	-51.1	14.6	0.00e+00	0	25	0	304087040	65	4249
2026-01-07 08:11:13.91	114.16	11.57	-49.6	-51.0	14.6	0.00e+00	0	25	0	307232768	65	4212
2026-01-07 08:11:14.90	114.10	11.65	-49.6	-51.0	14.6	0.00e+00	0	25	0	310378496	65	4235
2026-01-07 08:11:15.90	114.04	11.74	-49.7	-51.1	14.6	0.00e+00	0	25	0	313524224	65	4245
2026-01-07 08:11:16.90	113.98	11.83	-49.5	-50.9	14.6	0.00e+00	0	25	0	316669952	65	4172
2026-01-07 08:11:17.89	113.92	11.92	-49.5	-50.9	14.6	0.00e+00	0	25	0	319815680	65	4156
2026-01-07 08:11:18.89	113.85	12.01	-49.4	-50.8	14.7	0.00e+00	0	25	0	322961408	65	4122
2026-01-07 08:11:19.89	113.79	12.10	-49.6	-50.9	14.6	0.00e+00	0	25	0	326107136	65	4187
2026-01-07 08:11:20.89	113.73	12.19	-49.4	-50.8	14.7	0.00e+00	0	25	0	329252864	65	4109
2026-01-07 08:11:21.89	113.66	12.28	-49.3	-50.6	14.8	0.00e+00	0	25	0	332398592	65	4037
2026-01-07 08:11:22.89	113.60	12.37	-49.3	-50.6	14.7	0.00e+00	0	25	0	335544320	65	4050
2026-01-07 08:11:23.88	113.53	12.46	-49.3	-50.7	14.8	0.00e+00	0	25	0	338690048	65	4056
2026-01-07 08:11:24.89	113.47	12.55	-49.3	-50.6	14.8	0.00e+00	0	25	0	341835776	65	4029
2026-01-07 08:11:25.88	113.40	12.64	-49.3	-50.6	14.8	0.00e+00	0	25	0	343932928	65	4042
2026-01-07 08:11:26.88	113.34	12.73	-49.1	-50.4	14.7	0.00e+00	0	25	0	347078656	64	4192
2026-01-07 08:11:27.87	113.27	12.82	-49.3	-50.6	14.6	0.00e+00	0	25	0	350224384	64	4272
2026-01-07 08:11:28.88	113.20	12.91	-49.2	-50.5	14.7	0.00e+00	0	25	0	353370112	64	4228
2026-01-07 08:11:29.87	113.14	13.01	-49.1	-50.4	14.7	0.00e+00	0	25	0	356515840	64	4179
2026-01-07 08:11:30.87	113.07	13.10	-49.1	-50.4	14.7	0.00e+00	0	25	0	359661568	64	4176
2026-01-07 08:11:31.86	113.00	13.19	-49.0	-50.3	14.8	0.00e+00	0	25	0	362807296	64	4112
2026-01-07 08:11:32.86	112.93	13.28	-49.0	-50.3	14.8	0.00e+00	0	25	0	365953024	64	4136
2026-01-07 08:11:33.86	112.86	13.38	-49.1	-50.3	14.8	0.00e+00	0	25	0	369098752	64	4145
2026-01-07 08:11:34.85	112.79	13.47	-49.1	-50.4	14.7	0.00e+00	0	25	0	372244480	64	4159
2026-01-07 08:11:35.84	112.72	13.56	-49.2	-50.5	14.7	0.00e+00	0	25	0	375390208	64	4228
2026-01-07 08:11:36.84	112.65	13.66	-49.1	-50.4	14.7	0.00e+00	0	25	0	378535936	64	4180
2026-01-07 08:11:37.83	112.58	13.75	-49.2	-50.5	14.7	0.00e+00	0	25	0	381681664	64	4216
2026-01-07 08:11:38.81	112.51	13.85	-49.1	-50.4	14.8	0.00e+00	0	25	0	384827392	64	4155
2026-01-07 08:11:39.81	112.44	13.94	-49.1	-50.4	14.7	0.00e+00	0	25	0	387973120	64	4171
2026-01-07 08:11:40.80	112.37	14.04	-49.3	-50.6	14.6	0.00e+00	0	25	0	391118848	64	4274
2026-01-07 08:11:41.80	112.30	14.13	-49.2	-50.5	14.7	0.00e+00	0	25	0	394264576	64	4202
2026-01-07 08:11:42.80	112.22	14.23	-49.3	-50.6	14.7	0.00e+00	0	25	0	397410304	64	4255
2026-01-07 08:11:43.80	112.15	14.32	-49.2	-50.5	14.7	0.00e+00	0	25	0	400556032	64	4224
2026-01-07 08:11:44.79	112.07	14.42	-49.2	-50.5	14.7	0.00e+00	0	25	0	403701760	64	4209
2026-01-07 08:11:45.79	112.00	14.52	-49.3	-50.7	14.6	0.00e+00	0	25	0	406847488	64	4296
2026-01-07 08:11:46.78	111.92	14.62	-49.2	-50.5	14.7	0.00e+00	0	25	0	409993216	64	4228
2026-01-07 08:11:47.78	111.85	14.71	-49.3	-50.6	14.7	0.00e+00	0	25	0	413138944	64	4258
2026-01-07 08:11:48.78	111.77	14.81	-49.1	-50.4	14.7	0.00e+00	0	25	0	416284672	64	4193
2026-01-07 08:11:49.76	111.70	14.91	-49.2	-50.5	14.7	0.00e+00	0	25	0	419430400	64	4225
2026-01-07 08:11:50.76	111.62	15.01	-49.3	-50.6	14.7	0.00e+00	0	25	0	422576128	64	4269
2026-01-07 08:11:51.75	111.54	15.11	-49.2	-50.5	14.7	0.00e+00	0	25	0	425721856	64	4206
2026-01-07 08:11:52.75	111.46	15.21	-49.2	-50.6	14.7	0.00e+00	0	25	0	428867584	64	4243
2026-01-07 08:11:53.74	111.38	15.31	-49.3	-50.6	14.7	0.00e+00	0	25	0	432013312	64	4251
2026-01-07 08:11:54.74	111.30	15.41	-49.0	-50.3	14.8	0.00e+00	0	25	0	434110464	64	4115
2026-01-07 08:11:55.74	111.22	15.51	-49.0	-50.3	14.8	0.00e+00	0	25	0	437256192	64	4100
2026-01-07 08:11:56.74	111.14	15.61	-49.1	-50.4	14.8	0.00e+00	0	25	0	440401920	64	4148
2026-01-07 08:11:57.73	111.06	15.71	-49.1	-50.3	14.8	0.00e+00	0	25	0	443547648	64	4141
2026-01-07 08:11:58.73	110.98	15.81	-49.1	-50.3	14.8	0.00e+00	0	25	0	446693376	64	4141
2026-01-07 08:11:59.72	110.90	15.91	-49.1	-50.4	14.8	0.00e+00	0	25	0	449839104	64	4157
2026-01-07 08:12:00.72	110.81	16.02	-49.1	-50.4	14.7	0.00e+00	0	25	0	452984832	64	4181
2026-01-07 08:12:01.72	110.73	16.12	-49.2	-50.5	14.7	0.00e+00	0	25	0	456130560	64	4203
2026-01-07 08:12:02.72	110.65	16.22	-49.1	-50.4	14.8	0.00e+00	0	25	0	459276288	64	4158
2026-01-07 08:12:03.72	110.56	16.33	-49.3	-50.6	14.7	0.00e+00	0	25	0	462422016	64	4248
2026-01-07 08:12:04.71	110.48	16.43	-49.2	-50.5	14.7	0.00e+00	0	25	0	465567744	64	4237
2026-01-07 08:12:05.70	110.39	16.53	-49.3	-50.6	14.7	0.00e+00	0	25	0	468713472	64	4260
2026-01-07 08:12:06.70	110.30	16.64	-49.3	-50.6	14.7	0.00e+00	0	25	0	471859200	64	4289
2026-01-07 08:12:07.70	110.22	16.74	-49.4	-50.7	14.6	0.00e+00	0	25	0	475004928	64	4315
2026-01-07 08:12:08.69	110.13	16.85	-49.4	-50.7	14.6	0.00e+00	0	25	0	478150656	64	4334
2026-01-07 08:12:09.68	110.04	16.95	-49.4	-50.8	14.6	0.00e+00	0	25	0	481296384	64	4348
2026-01-07 08:12:10.68	109.95	17.06	-49.5	-50.8	14.6	0.00e+00	0	25	0	484442112	64	4366
2026-01-07 08:12:11.69	109.86	17.17	-49.6	-50.9	14.5	0.00e+00	0	25	0	487587840	64	4419
2026-01-07 08:12:12.69	109.77	17.28	-49.6	-50.9	14.5	0.00e+00	0	25	0	490733568	64	4440
2026-01-07 08:12:13.68	109.68	17.38	-49.5	-50.9	14.6	0.00e+00	0	25	0	493879296	64	4414
2026-01-07 08:12:14.68	109.59	17.49	-49.5	-50.8	14.6	0.00e+00	0	25	0	497025024	64	4385
2026-01-07 08:12:15.67	109.50	17.60	-49.5	-50.9	14.6	0.00e+00	0	25	0	500170752	64	4398
2026-01-07 08:12:16.67	109.40	17.71	-49.6	-50.9	14.5	0.00e+00	0	25	0	503316480	64	4431
2026-01-07 08:12:17.66	109.31	17.81	-49.5	-50.9	14.6	0.00e+00	0	25	0	506462208	64	4399
2026-01-07 08:12:18.65	109.21	17.92	-49.4	-50.8	14.6	0.00e+00	0	25	0	509607936	64	4351
2026-01-07 08:12:19.65	109.12	18.03	-49.5	-50.8	14.6	0.00e+00	0	25	0	512753664	64	4371
2026-01-07 08:12:20.64	109.02	18.14	-49.4	-50.8	14.6	0.00e+00	0	25	0	515899392	64	4353
2026-01-07 08:12:21.64	108.93	18.25	-49.6	-50.9	14.5	0.00e+00	0	25	0	519045120	64	4419
2026-01-07 08:12:22.63	108.83	18.36	-49.6	-51.0	14.5	0.00e+00	0	25	0	522190848	64	4452
2026-01-07 08:12:23.63	108.73	18.48	-49.5	-50.8	14.6	0.00e+00	0	25	0	525336576	64	4373
2026-01-07 08:12:24.63	108.63	18.59	-49.5	-50.8	14.6	0.00e+00	0	25	0	528482304	64	4378
2026-01-07 08:12:25.63	108.53	18.70	-49.4	-50.7	14.6	0.00e+00	0	25	0	531628032	64	4339
2026-01-07 08:12:26.63	108.43	18.81	-49.4	-50.8	14.6	0.00e+00	0	25	0	534773760	64	4353
2026-01-07 08:12:27.62	108.33	18.93	-49.4	-50.8	14.6	0.00e+00	0	25	0	537919488	64	4344
2026-01-07 08:12:28.62	108.23	19.04	-49.5	-50.9	14.6	0.00e+00	0	25	0	541065216	64	4406
2026-01-07 08:12:29.61	108.13	19.15	-49.4	-50.7	14.6	0.00e+00	0	25	0	543162368	64	4335
2026-01-07 08:12:30.61	108.02	19.27	-49.5	-50.9	14.5	0.00e+00	0	25	0	546308096	64	4407
2026-01-07 08:12:31.60	107.92	19.38	-49.3	-50.7	14.6	0.00e+00	0	25	0	549453824	64	4302
2026-01-07 08:12:32.60	107.81	19.50	-49.3	-50.7	14.6	0.00e+00	0	25	0	552599552	64	4302
2026-01-07 08:12:33.60	107.71	19.61	-49.3	-50.7	14.7	0.00e+00	0	25	0	555745280	64	4293
2026-01-07 08:12:34.59	107.60	19.73	-49.3	-50.6	14.7	0.00e+00	0	25	0	558891008	64	4250
2026-01-07 08:12:35.60	107.49	19.85	-49.2	-50.5	14.7	0.00e+00	0	25	0	562036736	64	4222
2026-01-07 08:12:36.59	107.38	19.96	-49.1	-50.4	14.8	0.00e+00	0	25	0	565182464	64	4174
2026-01-07 08:12:37.60	107.27	20.08	-49.0	-50.3	14.8	0.00e+00	0	25	0	568328192	64	4104
2026-01-07 08:12:38.60	107.16	20.20	-49.1	-50.3	14.8	0.00e+00	0	25	0	571473920	64	4145
2026-01-07 08:12:39.60	107.05	20.32	-48.9	-50.1	14.9	0.00e+00	0	25	0	574619648	64	4028
2026-01-07 08:12:40.59	106.94	20.44	-48.7	-49.9	15.0	0.00e+00	0	25	0	577765376	64	3937
2026-01-07 08:12:41.58	106.83	20.55	-48.7	-50.0	14.8	0.00e+00	0	25	0	580911104	63	4198
2026-01-07 08:12:42.58	106.71	20.67	-48.8	-50.1	14.8	0.00e+00	0	25	0	584056832	63	4245
2026-01-07 08:12:43.58	106.60	20.80	-48.4	-49.6	15.0	0.00e+00	0	25	0	587202560	63	4023
2026-01-07 08:12:44.57	106.48	20.91	-48.3	-49.5	15.0	0.00e+00	0	25	0	590348288	63	3968
2026-01-07 08:12:45.56	106.37	21.03	-48.2	-49.4	15.0	0.00e+00	0	25	0	593494016	63	3953
2026-01-07 08:12:46.55	106.25	21.16	-48.1	-49.3	14.9	0.00e+00	0	25	0	596639744	62	4124
2026-01-07 08:12:47.54	106.13	21.28	-48.2	-49.4	14.9	0.00e+00	0	25	0	599785472	62	4160
2026-01-07 08:12:48.54	106.01	21.40	-48.3	-49.5	14.9	0.00e+00	0	25	0	602931200	62	4198
2026-01-07 08:12:49.53	105.89	21.52	-48.0	-49.2	15.0	0.00e+00	0	25	0	606076928	62	4075
2026-01-07 08:12:50.53	105.77	21.64	-48.1	-49.3	15.0	0.00e+00	0	25	0	609222656	62	4103
2026-01-07 08:12:51.53	105.65	21.77	-48.0	-49.2	15.0	0.00e+00	0	25	0	612368384	62	4061
2026-01-07 08:12:52.53	105.53	21.89	-48.0	-49.2	15.0	0.00e+00	0	25	0	615514112	62	4058
2026-01-07 08:12:53.52	105.40	22.02	-48.0	-49.2	15.0	0.00e+00	0	25	0	618659840	62	4059
2026-01-07 08:12:54.52	105.28	22.14	-48.0	-49.2	15.0	0.00e+00	0	25	0	621805568	62	4086
2026-01-07 08:12:55.52	105.15	22.27	-48.0	-49.2	15.0	0.00e+00	0	25	0	624951296	62	4056
2026-01-07 08:12:56.51	105.02	22.39	-48.0	-49.1	15.0	0.00e+00	0	25	0	628097024	62	4045
2026-01-07 08:12:57.51	104.90	22.52	-48.0	-49.2	15.0	0.00e+00	0	25	0	630194176	62	4080
2026-01-07 08:12:58.49	104.77	22.64	-47.8	-49.0	15.1	0.00e+00	0	25	0	633339904	62	3984
2026-01-07 08:12:59.49	104.64	22.77	-47.9	-49.1	15.0	0.00e+00	0	25	0	636485632	62	4031
2026-01-07 08:13:00.49	104.50	22.90	-47.9	-49.1	15.1	0.00e+00	0	25	0	639631360	62	4008
2026-01-07 08:13:01.49	104.37	23.03	-47.9	-49.0	15.1	0.00e+00	0	25	0	642777088	62	4001
2026-01-07 08:13:02.48	104.24	23.16	-47.9	-49.1	15.1	0.00e+00	0	25	0	645922816	62	4017
2026-01-07 08:13:03.47	104.10	23.29	-47.8	-49.0	15.1	0.00e+00	0	25	0	649068544	62	3979
2026-01-07 08:13:04.47	103.97	23.42	-47.8	-49.0	15.1	0.00e+00	0	25	0	652214272	62	3988
2026-01-07 08:13:05.46	103.83	23.55	-47.8	-49.0	15.1	0.00e+00	0	25	0	655360000	62	3969
2026-01-07 08:13:06.45	103.69	23.67	-47.8	-48.9	15.1	0.00e+00	0	25	0	658505728	62	3940
2026-01-07 08:13:07.45	103.55	23.81	-47.8	-48.9	15.1	0.00e+00	0	25	0	661651456	62	3954
2026-01-07 08:13:08.44	103.41	23.94	-47.7	-48.9	15.1	0.00e+00	0	25	0	664797184	62	3925
2026-01-07 08:13:09.44	103.27	24.07	-47.8	-48.9	15.1	0.00e+00	0	25	0	667942912	62	3953
2026-01-07 08:13:10.43	103.13	24.20	-47.7	-48.9	15.1	0.00e+00	0	25	0	671088640	62	3928
2026-01-07 08:13:11.43	102.98	24.33	-47.8	-49.0	15.1	0.00e+00	0	25	0	674234368	62	3968
2026-01-07 08:13:12.42	102.84	24.47	-47.9	-49.0	15.1	0.00e+00	0	25	0	677380096	62	3984
2026-01-07 08:13:13.41	102.69	24.60	-47.9	-49.1	15.0	0.00e+00	0	25	0	680525824	62	4020
2026-01-07 08:13:14.41	102.54	24.73	-47.9	-49.1	15.0	0.00e+00	0	25	0	683671552	62	4027
2026-01-07 08:13:15.40	102.40	24.87	-48.1	-49.3	15.0	0.00e+00	0	25	0	686817280	62	4113
2026-01-07 08:13:16.40	102.24	25.00	-48.2	-49.4	15.0	0.00e+00	0	25	0	689963008	62	4153
2026-01-07 08:13:17.39	102.09	25.14	-48.1	-49.4	14.9	0.00e+00	0	25	0	693108736	62	4146
2026-01-07 08:13:18.39	101.94	25.28	-48.3	-49.5	14.9	0.00e+00	0	25	0	696254464	62	4207
2026-01-07 08:13:19.38	101.78	25.41	-48.2	-49.4	14.9	0.00e+00	0	25	0	699400192	62	4167
2026-01-07 08:13:20.37	101.63	25.55	-48.3	-49.5	14.9	0.00e+00	0	25	0	702545920	62	4214
2026-01-07 08:13:21.37	101.47	25.69	-48.1	-49.3	15.0	0.00e+00	0	25	0	705691648	62	4132
2026-01-07 08:13:22.36	101.31	25.82	-48.2	-49.4	14.9	0.00e+00	0	25	0	708837376	62	4148
2026-01-07 08:13:23.35	101.15	25.96	-48.2	-49.3	14.9	0.00e+00	0	25	0	711983104	62	4140
2026-01-07 08:13:24.35	100.99	26.10	-48.2	-49.4	14.9	0.00e+00	0	25	0	715128832	62	4183
2026-01-07 08:13:25.34	100.83	26.24	-48.2	-49.4	14.9	0.00e+00	0	25	0	717225984	62	4175
2026-01-07 08:13:26.33	100.66	26.38	-48.2	-49.4	14.9	0.00e+00	0	25	0	720371712	62	4170
2026-01-07 08:13:27.33	100.50	26.52	-48.4	-49.6	14.9	0.00e+00	0	25	0	723517440	62	4245
2026-01-07 08:13:28.32	100.33	26.66	-48.3	-49.5	14.9	0.00e+00	0	25	0	726663168	62	4223
2026-01-07 08:13:29.32	100.16	26.80	-48.5	-49.7	14.8	0.00e+00	0	25	0	729808896	62	4304
2026-01-07 08:13:30.31	99.99	26.94	-48.4	-49.6	14.8	0.00e+00	0	25	0	732954624	62	4269
2026-01-07 08:13:31.32	99.82	27.09	-48.5	-49.8	14.8	0.00e+00	0	25	0	736100352	62	4345
2026-01-07 08:13:32.31	99.64	27.23	-48.6	-49.8	14.8	0.00e+00	0	25	0	739246080	62	4368
2026-01-07 08:13:33.31	99.47	27.37	-48.7	-50.0	14.7	0.00e+00	0	25	0	742391808	62	4458
2026-01-07 08:13:34.31	99.29	27.52	-48.6	-49.9	14.8	0.00e+00	0	25	0	745537536	62	4403
2026-01-07 08:13:35.31	99.11	27.66	-48.7	-49.9	14.8	0.00e+00	0	25	0	748683264	62	4416
2026-01-07 08:13:36.30	98.93	27.80	-48.7	-49.9	14.8	0.00e+00	0	25	0	751828992	62	4422
2026-01-07 08:13:37.29	98.75	27.95	-48.7	-49.9	14.7	0.00e+00	0	25	0	754974720	62	4418
2026-01-07 08:13:38.29	98.57	28.09	-48.8	-50.0	14.7	0.00e+00	0	25	0	758120448	62	4486
2026-01-07 08:13:39.29	98.38	28.24	-48.7	-49.9	14.8	0.00e+00	0	25	0	761266176	62	4422
2026-01-07 08:13:40.28	98.19	28.38	-48.8	-50.0	14.7	0.00e+00	0	25	0	764411904	62	4460
2026-01-07 08:13:41.28	98.00	28.53	-48.8	-50.1	14.7	0.00e+00	0	25	0	767557632	62	4514
2026-01-07 08:13:42.28	97.81	28.68	-49.0	-50.3	14.7	0.00e+00	0	25	0	770703360	63	4360
2026-01-07 08:13:43.28	97.62	28.83	-49.2	-50.4	14.6	0.00e+00	0	25	0	773849088	63	4440
2026-01-07 08:13:44.28	97.43	28.98	-49.3	-50.6	14.6	0.00e+00	0	25	0	776994816	63	4509
2026-01-07 08:13:45.28	97.23	29.12	-49.4	-50.8	14.6	0.00e+00	0	25	0	780140544	64	4343
2026-01-07 08:13:46.29	97.03	29.28	-49.4	-50.8	14.6	0.00e+00	0	25	0	783286272	64	4358
2026-01-07 08:13:47.28	96.83	29.42	-49.5	-50.8	14.6	0.00e+00	0	25	0	786432000	64	4378
2026-01-07 08:13:48.27	96.63	29.57	-49.5	-50.8	14.6	0.00e+00	0	25	0	789577728	64	4387
2026-01-07 08:13:49.27	96.42	29.72	-49.6	-51.0	14.5	0.00e+00	0	25	0	792723456	64	4452
2026-01-07 08:13:50.27	96.22	29.87	-49.2	-50.5	14.7	0.00e+00	0	25	0	795869184	64	4221
2026-01-07 08:13:51.26	96.01	30.02	-49.1	-50.4	14.8	0.00e+00	0	25	0	799014912	64	4176
2026-01-07 08:13:52.26	95.80	30.17	-49.2	-50.4	14.8	0.00e+00	0	25	0	802160640	64	4192
2026-01-07 08:13:53.25	95.59	30.32	-49.1	-50.4	14.8	0.00e+00	0	25	0	805306368	64	4175
2026-01-07 08:13:54.25	95.38	30.48	-49.2	-50.5	14.7	0.00e+00	0	25	0	808452096	64	4233
2026-01-07 08:13:55.25	95.16	30.63	-49.1	-50.4	14.8	0.00e+00	0	25	0	811597824	64	4156
2026-01-07 08:13:56.25	94.94	30.78	-49.0	-50.3	14.8	0.00e+00	0	25	0	814743552	64	4104
2026-01-07 08:13:57.24	94.73	30.93	-49.1	-50.4	14.8	0.00e+00	0	25	0	817889280	64	4150
2026-01-07 08:13:58.24	94.50	31.09	-49.0	-50.2	14.9	0.00e+00	0	25	0	821035008	64	4084
2026-01-07 08:13:59.23	94.28	31.24	-49.0	-50.2	14.9	0.00e+00	0	25	0	824180736	64	4091
2026-01-07 08:14:00.22	94.06	31.39	-49.0	-50.3	14.8	0.00e+00	0	25	0	827326464	64	4100
2026-01-07 08:14:01.22	93.83	31.54	-48.8	-50.1	14.9	0.00e+00	0	25	0	829423616	64	4014
2026-01-07 08:14:02.21	93.60	31.70	-48.8	-50.1	14.9	0.00e+00	0	25	0	832569344	64	4014
2026-01-07 08:14:03.21	93.36	31.85	-48.8	-50.0	15.0	0.00e+00	0	25	0	835715072	64	3976
2026-01-07 08:14:04.21	93.13	32.01	-48.7	-49.9	15.0	0.00e+00	0	25	0	838860800	64	3958
2026-01-07 08:14:05.21	92.89	32.16	-48.7	-49.9	15.0	0.00e+00	0	25	0	842006528	64	3941
2026-01-07 08:14:06.20	92.65	32.32	-48.8	-50.0	14.8	0.00e+00	0	25	0	845152256	63	4206
2026-01-07 08:14:07.20	92.41	32.47	-48.7	-49.9	14.9	0.00e+00	0	25	0	848297984	63	4190
2026-01-07 08:14:08.20	92.17	32.63	-48.7	-49.9	14.9	0.00e+00	0	25	0	851443712	63	4174
2026-01-07 08:14:09.19	91.92	32.78	-48.7	-49.9	14.9	0.00e+00	0	25	0	854589440	63	4190
2026-01-07 08:14:10.20	91.67	32.94	-48.8	-50.0	14.8	0.00e+00	0	25	0	857735168	63	4235
2026-01-07 08:14:11.20	91.42	33.10	-48.9	-50.1	14.8	0.00e+00	0	25	0	860880896	63	4276
2026-01-07 08:14:12.20	91.16	33.26	-48.8	-50.1	14.8	0.00e+00	0	25	0	864026624	63	4245
2026-01-07 08:14:13.21	90.90	33.41	-48.8	-50.0	14.8	0.00e+00	0	25	0	867172352	63	4240
2026-01-07 08:14:14.21	90.64	33.57	-48.9	-50.1	14.8	0.00e+00	0	25	0	870318080	63	4280
2026-01-07 08:14:15.20	90.38	33.73	-48.8	-50.0	14.8	0.00e+00	0	25	0	873463808	63	4229
2026-01-07 08:14:16.21	90.12	33.89	-48.9	-50.1	14.8	0.00e+00	0	25	0	876609536	63	4264
2026-01-07 08:14:17.20	89.85	34.04	-49.1	-50.4	14.7	0.00e+00	0	25	0	879755264	63	4404
2026-01-07 08:14:18.20	89.58	34.20	-49.2	-50.5	14.6	0.00e+00	0	25	0	882900992	63	4469
2026-01-07 08:14:19.19	89.31	34.36	-49.5	-50.8	14.6	0.00e+00	0	25	0	886046720	64	4347
2026-01-07 08:14:20.18	89.04	34.51	-49.8	-51.1	14.5	0.00e+00	0	25	0	889192448	64	4515
2026-01-07 08:14:21.17	88.76	34.67	-49.8	-51.2	14.5	0.00e+00	0	25	0	892338176	64	4570
2026-01-07 08:14:22.17	88.48	34.82	-50.0	-51.4	14.5	0.00e+00	0	25	0	895483904	65	4399
2026-01-07 08:14:23.17	88.20	34.98	-50.1	-51.5	14.5	0.00e+00	0	25	0	898629632	65	4442
2026-01-07 08:14:24.16	87.92	35.14	-50.0	-51.4	14.5	0.00e+00	0	25	0	901775360	65	4424
2026-01-07 08:14:25.16	87.63	35.30	-50.0	-51.4	14.5	0.00e+00	0	25	0	904921088	65	4404
2026-01-07 08:14:26.15	87.34	35.45	-50.0	-51.4	14.5	0.00e+00	0	25	0	908066816	65	4408
2026-01-07 08:14:27.15	87.04	35.61	-50.0	-51.4	14.5	0.00e+00	0	25	0	911212544	65	4415
2026-01-07 08:14:28.14	86.75	35.77	-50.0	-51.4	14.5	0.00e+00	0	25	0	914358272	65	4404
2026-01-07 08:14:29.14	86.45	35.92	-50.0	-51.3	14.5	0.00e+00	0	25	0	917504000	65	4373
2026-01-07 08:14:30.14	86.15	36.08	-49.9	-51.3	14.5	0.00e+00	0	25	0	920649728	65	4344
2026-01-07 08:14:31.13	85.84	36.23	-49.9	-51.2	14.6	0.00e+00	0	25	0	923795456	65	4326
2026-01-07 08:14:32.13	85.53	36.39	-49.9	-51.2	14.6	0.00e+00	0	25	0	926941184	65	4326
2026-01-07 08:14:33.13	85.22	36.55	-50.0	-51.3	14.5	0.00e+00	0	25	0	930086912	65	4373
2026-01-07 08:14:34.14	84.90	36.71	-50.0	-51.4	14.5	0.00e+00	0	25	0	933232640	65	4415
2026-01-07 08:14:35.14	84.59	36.86	-50.2	-51.6	14.4	0.00e+00	0	25	0	936378368	65	4507
2026-01-07 08:14:36.14	84.27	37.02	-50.3	-51.7	14.4	0.00e+00	0	25	0	938475520	65	4551
2026-01-07 08:14:37.13	83.94	37.17	-50.4	-51.8	14.3	0.00e+00	0	25	0	941621248	65	4634
2026-01-07 08:14:38.12	83.62	37.32	-50.4	-51.9	14.4	0.00e+00	0	25	0	944766976	66	4398
2026-01-07 08:14:39.12	83.29	37.48	-50.5	-51.9	14.4	0.00e+00	0	25	0	947912704	66	4428
2026-01-07 08:14:40.12	82.96	37.63	-50.5	-51.9	14.4	0.00e+00	0	25	0	951058432	66	4426
2026-01-07 08:14:41.12	82.62	37.79	-50.5	-52.0	14.4	0.00e+00	0	25	0	954204160	66	4447
2026-01-07 08:14:42.12	82.28	37.94	-50.6	-52.0	14.3	0.00e+00	0	25	0	957349888	66	4484
2026-01-07 08:14:43.12	81.94	38.09	-50.7	-52.1	14.3	0.00e+00	0	25	0	960495616	66	4533
2026-01-07 08:14:44.10	81.60	38.24	-50.7	-52.2	14.3	0.00e+00	0	25	0	963641344	66	4578
2026-01-07 08:14:45.09	81.25	38.39	-50.9	-52.4	14.2	0.00e+00	0	25	0	966787072	66	4662
2026-01-07 08:14:46.09	80.90	38.55	-51.0	-52.5	14.2	0.00e+00	0	25	0	969932800	67	4456
2026-01-07 08:14:47.09	80.54	38.70	-51.1	-52.6	14.2	0.00e+00	0	25	0	973078528	67	4525
2026-01-07 08:14:48.09	80.18	38.85	-51.1	-52.6	14.2	0.00e+00	0	25	0	976224256	67	4513
2026-01-07 08:14:49.09	79.82	39.00	-51.0	-52.5	14.3	0.00e+00	0	25	0	979369984	67	4459
2026-01-07 08:14:50.08	79.45	39.14	-50.6	-52.0	14.5	0.00e+00	0	25	0	982515712	67	4222
2026-01-07 08:14:51.09	79.08	39.29	-50.5	-52.0	14.5	0.00e+00	0	25	0	985661440	67	4202
2026-01-07 08:14:52.09	78.71	39.44	-50.5	-51.9	14.5	0.00e+00	0	25	0	988807168	67	4173
2026-01-07 08:14:53.08	78.33	39.59	-50.5	-51.9	14.5	0.00e+00	0	25	0	991952896	67	4193
2026-01-07 08:14:54.07	77.96	39.73	-50.5	-52.0	14.5	0.00e+00	0	25	0	995098624	67	4197
2026-01-07 08:14:55.06	77.58	39.87	-50.5	-51.9	14.5	0.00e+00	0	25	0	998244352	67	4173
2026-01-07 08:14:56.06	77.19	40.02	-50.7	-52.1	14.4	0.00e+00	0	25	0	1001390080	67	4266
2026-01-07 08:14:57.05	76.81	40.16	-50.6	-52.0	14.5	0.00e+00	0	25	0	1004535808	67	4227
2026-01-07 08:14:58.05	76.41	40.30	-50.9	-52.4	14.3	0.00e+00	0	25	0	1007681536	67	4401
2026-01-07 08:14:59.04	76.02	40.44	-51.0	-52.5	14.2	0.00e+00	0	25	0	1010827264	67	4470
2026-01-07 08:15:00.03	75.62	40.58	-51.3	-52.8	14.1	0.00e+00	0	25	0	1013972992	67	4626
2026-01-07 08:15:01.03	75.22	40.72	-51.4	-53.0	14.0	0.00e+00	0	25	0	1017118720	67	4752
2026-01-07 08:15:02.02	74.82	40.86	-51.6	-53.1	14.1	0.00e+00	0	25	0	1020264448	68	4538
2026-01-07 08:15:03.02	74.40	40.99	-51.8	-53.4	13.9	0.00e+00	0	25	0	1023410176	68	4675
2026-01-07 08:15:04.02	73.99	41.13	-51.6	-53.2	14.0	0.00e+00	0	25	0	1026555904	68	4595
2026-01-07 08:15:05.01	73.58	41.26	-51.5	-53.1	14.1	0.00e+00	0	25	0	1028653056	68	4524
2026-01-07 08:15:06.01	73.15	41.40	-51.6	-53.2	14.1	0.00e+00	0	25	0	1031798784	68	4561
2026-01-07 08:15:07.00	72.73	41.53	-51.7	-53.3	14.0	0.00e+00	0	25	0	1034944512	68	4602
2026-01-07 08:15:08.00	72.31	41.66	-51.6	-53.1	14.0	0.00e+00	0	25	0	1038090240	68	4541
2026-01-07 08:15:08.98	71.88	41.78	-51.6	-53.2	14.1	0.00e+00	0	25	0	1041235968	68	4556
2026-01-07 08:15:09.98	71.45	41.91	-51.7	-53.3	14.0	0.00e+00	0	25	0	1044381696	68	4645
2026-01-07 08:15:10.97	71.01	42.04	-51.8	-53.4	14.0	0.00e+00	0	25	0	1047527424	68	4690
2026-01-07 08:15:11.96	70.58	42.16	-51.6	-53.2	14.1	0.00e+00	0	25	0	1050673152	68	4579
2026-01-07 08:15:12.96	70.13	42.28	-51.5	-53.1	14.1	0.00e+00	0	25	0	1053818880	68	4507
2026-01-07 08:15:13.96	69.68	42.41	-51.0	-52.5	14.4	0.00e+00	0	25	0	1056964608	68	4215
2026-01-07 08:15:14.96	69.23	42.53	-50.9	-52.3	14.5	0.00e+00	0	25	0	1060110336	68	4115
2026-01-07 08:15:15.95	68.78	42.64	-50.9	-52.3	14.5	0.00e+00	0	25	0	1063256064	68	4142
2026-01-07 08:15:16.95	68.32	42.76	-51.0	-52.5	14.4	0.00e+00	0	25	0	1066401792	68	4214
2026-01-07 08:15:17.96	67.85	42.88	-51.0	-52.4	14.5	0.00e+00	0	25	0	1069547520	68	4174
2026-01-07 08:15:18.95	67.39	42.99	-50.9	-52.3	14.5	0.00e+00	0	25	0	1072693248	68	4143
2026-01-07 08:15:19.95	66.92	43.10	-51.0	-52.4	14.5	0.00e+00	0	25	0	1075838976	68	4182
2026-01-07 08:15:20.95	66.45	43.21	-51.1	-52.5	14.4	0.00e+00	0	25	0	1078984704	68	4231
2026-01-07 08:15:21.94	65.98	43.32	-51.3	-52.8	14.3	0.00e+00	0	25	0	1082130432	68	4353
2026-01-07 08:15:22.94	65.50	43.42	-51.4	-52.9	14.2	0.00e+00	0	25	0	1085276160	68	4405
2026-01-07 08:15:23.93	65.02	43.53	-51.4	-52.9	14.2	0.00e+00	0	25	0	1088421888	68	4413
2026-01-07 08:15:24.93	64.54	43.63	-51.3	-52.8	14.2	0.00e+00	0	25	0	1091567616	68	4389
2026-01-07 08:15:25.93	64.05	43.73	-51.6	-53.2	14.1	0.00e+00	0	25	0	1094713344	68	4562
2026-01-07 08:15:26.93	63.56	43.83	-51.8	-53.5	13.9	0.00e+00	0	25	0	1097859072	68	4726
2026-01-07 08:15:27.93	63.06	43.92	-51.6	-53.2	14.1	0.00e+00	0	25	0	1101004800	68	4597
2026-01-07 08:15:28.92	62.57	44.02	-51.6	-53.2	14.1	0.00e+00	0	25	0	1104150528	68	4551
2026-01-07 08:15:29.92	62.07	44.11	-51.8	-53.4	14.0	0.00e+00	0	25	0	1107296256	68	4662
2026-01-07 08:15:30.92	61.57	44.20	-51.9	-53.6	13.9	0.00e+00	0	25	0	1110441984	68	4760
2026-01-07 08:15:31.92	61.07	44.28	-51.9	-53.5	14.0	0.00e+00	0	25	0	1113587712	69	4492
2026-01-07 08:15:32.92	60.56	44.37	-51.8	-53.4	14.1	0.00e+00	0	25	0	1116733440	69	4417
2026-01-07 08:15:33.92	60.05	44.45	-51.7	-53.3	14.2	0.00e+00	0	25	0	1119879168	69	4361
2026-01-07 08:15:34.92	59.53	44.53	-51.4	-53.0	14.3	0.00e+00	0	25	0	1123024896	69	4200
2026-01-07 08:15:35.92	59.02	44.61	-51.4	-52.9	14.4	0.00e+00	0	25	0	1126170624	69	4152
2026-01-07 08:15:36.91	58.50	44.68	-51.5	-53.0	14.3	0.00e+00	0	25	0	1129316352	69	4218
2026-01-07 08:15:37.90	57.99	44.75	-51.5	-53.1	14.3	0.00e+00	0	25	0	1132462080	69	4264
2026-01-07 08:15:38.89	57.47	44.82	-51.5	-53.1	14.3	0.00e+00	0	25	0	1135607808	69	4262
2026-01-07 08:15:39.89	56.94	44.89	-51.3	-52.8	14.4	0.00e+00	0	25	0	1137704960	69	4140
2026-01-07 08:15:40.88	56.42	44.95	-51.6	-53.1	14.3	0.00e+00	0	25	0	1140850688	69	4287
2026-01-07 08:15:41.87	55.90	45.02	-51.6	-53.2	14.2	0.00e+00	0	25	0	1143996416	69	4317
2026-01-07 08:15:42.87	55.37	45.07	-51.4	-52.9	14.3	0.00e+00	0	25	0	1147142144	69	4185
2026-01-07 08:15:43.87	54.83	45.13	-51.7	-53.2	14.2	0.00e+00	0	25	0	1150287872	69	4334
2026-01-07 08:15:44.86	54.30	45.19	-51.9	-53.5	14.1	0.00e+00	0	25	0	1153433600	69	4465
2026-01-07 08:15:45.86	53.77	45.24	-51.8	-53.4	14.1	0.00e+00	0	25	0	1156579328	69	4430
2026-01-07 08:15:46.86	53.23	45.29	-52.0	-53.6	14.0	0.00e+00	0	26	0	1159725056	69	4524
2026-01-07 08:15:47.85	52.69	45.33	-52.0	-53.6	14.0	0.00e+00	0	25	0	1162870784	69	4521
2026-01-07 08:15:48.84	52.15	45.37	-51.7	-53.3	14.1	0.00e+00	0	25	0	1166016512	69	4365
2026-01-07 08:15:49.84	51.61	45.41	-51.5	-53.0	14.3	0.00e+00	0	25	0	1169162240	69	4228
2026-01-07 08:15:50.84	51.07	45.45	-50.9	-52.4	14.5	0.00e+00	0	25	0	1172307968	68	4164
2026-01-07 08:15:51.83	50.53	45.49	-50.5	-51.9	14.5	0.00e+00	0	25	0	1175453696	67	4186
2026-01-07 08:15:52.83	49.98	45.52	-50.6	-52.1	14.5	0.00e+00	0	25	0	1178599424	67	4269
2026-01-07 08:15:53.83	49.43	45.55	-50.4	-51.9	14.6	0.00e+00	0	25	0	1181745152	67	4164
2026-01-07 08:15:54.83	48.88	45.57	-50.2	-52.0	14.7	0.00e+00	0	26	0	1184890880	67	4231
2026-01-07 08:15:55.82	48.34	45.60	-50.7	-52.6	14.4	0.00e+00	0	25	0	1188036608	67	4497
2026-01-07 08:15:56.82	47.79	45.62	-51.0	-52.6	14.2	0.00e+00	0	25	0	1191182336	67	4544
2026-01-07 08:15:57.82	47.23	45.63	-51.0	-52.5	14.2	0.00e+00	0	25	0	1194328064	67	4476
2026-01-07 08:15:58.81	46.69	45.65	-51.1	-52.6	14.3	0.00e+00	0	26	0	1197473792	67	4502
2026-01-07 08:15:59.81	46.13	45.66	-51.0	-52.5	14.3	0.00e+00	0	26	0	1200619520	67	4452
2026-01-07 08:16:00.81	45.58	45.67	-51.3	-52.8	14.1	0.00e+00	0	25	0	1203765248	67	4634
2026-01-07 08:16:01.81	45.03	45.67	-51.8	-53.4	14.0	0.00e+00	0	25	0	1206910976	68	4676
2026-01-07 08:16:02.80	44.48	45.68	-51.8	-53.4	14.0	0.00e+00	0	25	0	1210056704	68	4688
2026-01-07 08:16:03.79	43.93	45.68	-51.8	-53.4	14.0	0.00e+00	0	25	0	1213202432	68	4680
2026-01-07 08:16:04.79	43.38	45.67	-51.4	-52.9	14.2	0.00e+00	0	25	0	1216348160	68	4427
2026-01-07 08:16:05.78	42.83	45.67	-51.4	-52.9	14.2	0.00e+00	0	25	0	1219493888	68	4420
2026-01-07 08:16:06.77	42.29	45.66	-51.4	-52.9	14.2	0.00e+00	0	26	0	1222639616	68	4441
2026-01-07 08:16:07.77	41.73	45.65	-51.3	-52.8	14.3	0.00e+00	0	25	0	1225785344	68	4378
2026-01-07 08:16:08.76	41.19	45.63	-51.2	-52.6	14.3	0.00e+00	0	25	0	1227882496	68	4282
2026-01-07 08:16:09.76	40.64	45.61	-51.2	-52.7	14.3	0.00e+00	0	25	0	1231028224	68	4297
2026-01-07 08:16:10.75	40.09	45.59	-50.9	-52.3	14.5	0.00e+00	0	25	0	1234173952	68	4120
2026-01-07 08:16:11.75	39.54	45.57	-50.8	-52.2	14.5	0.00e+00	0	25	0	1237319680	68	4092
2026-01-07 08:16:12.75	38.99	45.54	-51.0	-52.4	14.4	0.00e+00	0	25	0	1240465408	68	4193
2026-01-07 08:16:13.75	38.44	45.51	-50.8	-52.2	14.6	0.00e+00	0	25	0	1243611136	68	4073
2026-01-07 08:16:14.75	37.90	45.48	-50.8	-52.1	14.6	0.00e+00	0	25	0	1246756864	68	4048
2026-01-07 08:16:15.75	37.35	45.45	-51.0	-52.4	14.5	0.00e+00	0	25	0	1249902592	68	4154
2026-01-07 08:16:16.75	36.81	45.41	-51.1	-52.6	14.4	0.00e+00	0	25	0	1253048320	68	4254
2026-01-07 08:16:17.75	36.26	45.37	-51.5	-53.0	14.1	0.00e+00	0	25	0	1256194048	68	4493
2026-01-07 08:16:18.74	35.73	45.32	-51.6	-53.2	14.1	0.00e+00	0	25	0	1259339776	68	4551
2026-01-07 08:16:19.74	35.19	45.28	-51.5	-53.1	14.2	0.00e+00	0	26	0	1262485504	68	4513
2026-01-07 08:16:20.74	34.65	45.23	-51.3	-52.8	14.3	0.00e+00	0	25	0	1265631232	68	4368
2026-01-07 08:16:21.74	34.11	45.18	-51.3	-52.7	14.3	0.00e+00	0	25	0	1268776960	68	4333
2026-01-07 08:16:22.73	33.58	45.12	-51.2	-52.7	14.3	0.00e+00	0	25	0	1271922688	68	4322
2026-01-07 08:16:23.73	33.05	45.07	-51.8	-53.4	14.0	0.00e+00	0	25	0	1275068416	68	4675
2026-01-07 08:16:24.72	32.52	45.01	-51.8	-53.4	14.1	0.00e+00	0	25	0	1278214144	69	4427
2026-01-07 08:16:25.33	32.20	44.97	-51.6	-53.1	14.2	0.00e+00	0	25	0	1281359872	69	4289
2026-01-07 08:16:26.89	31.38	44.87	-51.5	-53.0	14.3	0.00e+00	0	25	0	1286602752	69	4240
2026-01-07 08:16:27.51	31.05	44.83	-51.5	-53.1	14.3	0.00e+00	0	25	0	1288699904	69	4257
2026-01-07 08:16:29.07	30.24	44.72	-51.7	-53.3	14.2	0.00e+00	0	25	0	1292894208	69	4341
2026-01-07 08:16:29.71	29.91	44.67	-51.5	-53.0	14.3	0.00e+00	0	25	0	1294991360	69	4241
2026-01-07 08:16:31.15	29.16	44.56	-51.3	-52.8	14.5	0.00e+00	0	25	0	1299185664	69	4099
2026-01-07 08:16:31.85	28.80	44.50	-51.3	-52.7	14.5	0.00e+00	0	25	0	1301282816	69	4090
2026-01-07 08:16:33.16	28.13	44.40	-51.1	-52.6	14.4	0.00e+00	0	25	0	1305477120	68	4259
2026-01-07 08:16:33.87	27.77	44.34	-51.1	-52.6	14.4	0.00e+00	0	25	0	1307574272	68	4262
2026-01-07 08:16:35.18	27.11	44.23	-51.6	-53.1	14.1	0.00e+00	0	25	0	1311768576	68	4526
2026-01-07 08:16:35.90	26.75	44.16	-51.6	-53.2	14.1	0.00e+00	0	25	0	1314914304	68	4547
2026-01-07 08:16:37.18	26.11	44.05	-51.8	-53.4	13.9	0.00e+00	0	25	0	1318060032	68	4680
2026-01-07 08:16:37.90	25.75	43.98	-51.7	-53.2	14.0	0.00e+00	0	25	0	1321205760	68	4590
2026-01-07 08:16:39.18	25.11	43.86	-51.3	-52.7	14.3	0.00e+00	0	25	0	1324351488	68	4337
2026-01-07 08:16:39.92	24.75	43.79	-51.1	-52.5	14.4	0.00e+00	0	25	0	1327497216	68	4212
2026-01-07 08:16:41.20	24.12	43.66	-50.9	-52.3	14.6	0.00e+00	0	26	0	1330642944	68	4122
2026-01-07 08:16:41.92	23.77	43.59	-51.2	-52.7	14.4	0.00e+00	0	25	0	1332740096	68	4298
2026-01-07 08:16:43.21	23.15	43.46	-52.4	-54.1	13.7	0.00e+00	0	25	0	1336934400	69	4811
2026-01-07 08:16:43.94	22.80	43.38	-53.2	-55.2	13.3	0.00e+00	0	25	0	1340080128	71	4828
2026-01-07 08:16:45.21	22.20	43.24	-53.4	-55.5	13.2	0.00e+00	0	25	0	1343225856	72	4738
2026-01-07 08:16:45.93	21.86	43.17	-52.9	-54.8	13.7	0.00e+00	0	25	0	1346371584	72	4345
2026-01-07 08:16:47.20	21.26	43.03	-51.8	-53.4	14.3	0.00e+00	0	25	0	1349517312	70	4146
2026-01-07 08:16:47.92	20.92	42.94	-51.5	-53.0	14.3	0.00e+00	0	25	0	1351614464	69	4209
2026-01-07 08:16:49.21	20.33	42.80	-51.7	-53.3	14.2	0.00e+00	0	25	0	1355808768	69	4363
2026-01-07 08:16:49.94	19.99	42.71	-52.3	-54.0	13.8	0.00e+00	0	25	0	1357905920	69	4751
2026-01-07 08:16:51.22	19.41	42.56	-52.9	-54.7	13.7	0.00e+00	0	25	0	1362100224	71	4583
2026-01-07 08:16:51.96	19.07	42.47	-52.5	-54.3	13.9	0.00e+00	0	25	0	1364197376	71	4354
2026-01-07 08:16:53.25	18.49	42.32	-51.9	-53.5	14.2	0.00e+00	0	25	0	1368391680	70	4206
2026-01-07 08:16:53.96	18.18	42.23	-51.5	-53.0	14.3	0.00e+00	0	25	0	1370488832	69	4225
2026-01-07 08:16:55.23	17.61	42.07	-51.3	-52.8	14.4	0.00e+00	0	25	0	1374683136	69	4131
2026-01-07 08:16:55.98	17.28	41.98	-51.3	-52.8	14.4	0.00e+00	0	25	0	1376780288	69	4106
2026-01-07 08:16:57.25	16.73	41.82	-52.0	-53.7	13.9	0.00e+00	0	25	0	1380974592	69	4596
2026-01-07 08:16:57.99	16.41	41.72	-52.4	-54.1	13.7	0.00e+00	0	25	0	1383071744	69	4808
2026-01-07 08:16:59.27	15.86	41.55	-51.8	-53.4	14.0	0.00e+00	0	25	0	1387266048	69	4438
2026-01-07 08:16:59.99	15.56	41.46	-51.4	-52.9	14.3	0.00e+00	0	25	0	1389363200	69	4176
2026-01-07 08:17:01.27	15.02	41.29	-50.8	-52.2	14.6	0.00e+00	0	25	0	1393557504	68	4080
2026-01-07 08:17:01.98	14.72	41.20	-50.3	-51.6	14.7	0.00e+00	0	25	0	1395654656	67	4043
2026-01-07 08:17:03.28	14.18	41.02	-50.3	-51.7	14.6	0.00e+00	0	25	0	1399848960	67	4068
2026-01-07 08:17:03.99	13.89	40.92	-50.8	-52.3	14.3	0.00e+00	0	25	0	1401946112	67	4371
2026-01-07 08:17:05.27	13.37	40.75	-52.6	-54.5	13.5	0.00e+00	0	25	0	1406140416	70	4724
2026-01-07 08:17:05.98	13.08	40.65	-53.5	-55.6	13.2	0.00e+00	0	25	0	1408237568	72	4795
2026-01-07 08:17:07.27	12.56	40.47	-53.2	-55.3	13.3	0.00e+00	0	25	0	1412431872	72	4613
2026-01-07 08:17:07.97	12.28	40.37	-52.5	-54.3	13.7	0.00e+00	0	25	0	1414529024	71	4369
2026-01-07 08:17:09.31	11.76	40.18	-51.8	-53.3	14.3	0.00e+00	0	25	0	1418723328	70	4132
2026-01-07 08:17:10.02	11.48	40.08	-51.6	-53.1	14.3	0.00e+00	0	25	0	1420820480	69	4258
2026-01-07 08:17:11.33	10.97	39.89	-51.2	-52.6	14.3	0.00e+00	0	25	0	1425014784	68	4288
2026-01-07 08:17:12.04	10.70	39.79	-51.3	-52.8	14.2	0.00e+00	0	26	0	1427111936	68	4369
2026-01-07 08:17:13.33	10.21	39.60	-52.1	-53.7	13.9	0.00e+00	0	25	0	1431306240	69	4589
2026-01-07 08:17:14.07	9.93	39.49	-52.2	-53.9	13.8	0.00e+00	0	25	0	1433403392	69	4669
2026-01-07 08:17:15.35	9.45	39.30	-51.6	-53.2	14.2	0.00e+00	0	25	0	1437597696	69	4321
2026-01-07 08:17:16.12	9.17	39.19	-50.8	-52.2	14.5	0.00e+00	0	25	0	1440743424	68	4081
2026-01-07 08:17:17.41	8.70	39.00	-49.7	-51.0	14.8	0.00e+00	0	25	0	1443889152	66	3973
2026-01-07 08:17:18.14	8.43	38.89	-49.6	-50.8	14.8	0.00e+00	0	25	0	1445986304	65	4137
2026-01-07 08:17:19.42	7.97	38.70	-49.7	-51.0	14.7	0.00e+00	0	25	0	1450180608	65	4203
2026-01-07 08:17:20.15	7.71	38.59	-50.0	-51.3	14.5	0.00e+00	0	25	0	1452277760	65	4360
2026-01-07 08:17:21.43	7.26	38.40	-50.8	-52.2	14.2	0.00e+00	0	25	0	1456472064	66	4568
2026-01-07 08:17:22.16	7.01	38.29	-51.1	-52.6	14.2	0.00e+00	0	25	0	1458569216	67	4519
2026-01-07 08:17:23.45	6.56	38.09	-51.0	-52.4	14.2	0.00e+00	0	26	0	1462763520	67	4438
2026-01-07 08:17:24.17	6.31	37.98	-50.6	-52.1	14.4	0.00e+00	0	25	0	1464860672	67	4258
2026-01-07 08:17:25.45	5.88	37.78	-50.4	-51.8	14.6	0.00e+00	0	25	0	1469054976	67	4101
2026-01-07 08:17:26.17	5.64	37.67	-50.0	-51.3	14.7	0.00e+00	0	25	0	1471152128	66	4104
2026-01-07 08:17:27.46	5.21	37.47	-49.8	-51.1	14.8	0.00e+00	0	25	0	1475346432	66	4011
2026-01-07 08:17:28.17	4.97	37.36	-49.5	-50.8	14.8	0.00e+00	0	25	0	1477443584	65	4102
2026-01-07 08:17:29.45	4.56	37.17	-50.0	-51.3	14.5	0.00e+00	0	25	0	1481637888	65	4373
2026-01-07 08:17:30.16	4.33	37.06	-50.3	-51.7	14.4	0.00e+00	0	25	0	1483735040	65	4565
2026-01-07 08:17:31.45	3.91	36.86	-50.7	-52.2	14.3	0.00e+00	0	25	0	1487929344	66	4560
2026-01-07 08:17:32.19	3.68	36.74	-51.0	-52.5	14.3	0.00e+00	0	25	0	1490026496	67	4453
2026-01-07 08:17:33.47	3.27	36.54	-50.8	-52.3	14.3	0.00e+00	0	25	0	1494220800	67	4347
2026-01-07 08:17:34.20	3.05	36.43	-50.5	-51.9	14.5	0.00e+00	0	25	0	1496317952	67	4192
2026-01-07 08:17:35.47	2.66	36.23	-50.3	-51.6	14.7	0.00e+00	0	25	0	1500512256	67	4036
2026-01-07 08:17:36.20	2.43	36.12	-50.4	-51.7	14.6	0.00e+00	0	25	0	1502609408	67	4081
2026-01-07 08:17:37.49	2.04	35.91	-49.9	-51.2	14.7	0.00e+00	0	25	0	1506803712	66	4090
2026-01-07 08:17:38.20	1.83	35.80	-49.8	-51.0	14.8	0.00e+00	0	25	0	1508900864	66	4002
2026-01-07 08:17:39.48	1.45	35.60	-50.3	-51.7	14.5	0.00e+00	0	25	0	1513095168	66	4320
2026-01-07 08:17:40.19	1.24	35.49	-50.4	-51.8	14.5	0.00e+00	0	25	0	1515192320	66	4375
2026-01-07 08:17:41.50	0.86	35.28	-50.3	-51.6	14.5	0.00e+00	0	25	0	1519386624	66	4291
2026-01-07 08:17:42.21	0.66	35.17	-50.1	-51.5	14.6	0.00e+00	0	25	0	1521483776	66	4206
2026-01-07 08:17:43.49	0.29	34.97	-49.9	-51.2	14.8	0.00e+00	0	25	0	1525678080	66	4082
2026-01-07 08:17:44.20	0.09	34.86	-49.6	-50.9	14.9	0.00e+00	0	25	0	1527775232	65	4158
2026-01-07 08:17:45.50	359.73	34.66	-49.4	-50.7	14.9	0.00e+00	0	25	0	1531969536	65	4065
2026-01-07 08:17:46.21	359.53	34.54	-49.7	-51.0	14.7	0.00e+00	0	25	0	1534066688	65	4195
2026-01-07 08:17:47.50	359.18	34.34	-49.8	-51.1	14.6	0.00e+00	0	25	0	1538260992	65	4282
2026-01-07 08:17:48.22	358.98	34.23	-49.7	-51.0	14.7	0.00e+00	0	26	0	1540358144	65	4241
2026-01-07 08:17:49.50	358.64	34.03	-49.7	-51.0	14.7	0.00e+00	0	25	0	1544552448	65	4220
2026-01-07 08:17:50.23	358.44	33.91	-49.7	-51.0	14.7	0.00e+00	0	25	0	1546649600	65	4207
2026-01-07 08:17:51.50	358.11	33.71	-49.8	-51.1	14.6	0.00e+00	0	25	0	1550843904	65	4278
2026-01-07 08:17:52.23	357.92	33.60	-49.9	-51.2	14.6	0.00e+00	0	25	0	1552941056	65	4306
2026-01-07 08:17:53.52	357.58	33.40	-49.3	-50.6	14.9	0.00e+00	0	25	0	1557135360	65	4023
2026-01-07 08:17:54.23	357.40	33.29	-49.0	-50.3	14.9	0.00e+00	0	25	0	1559232512	64	4100
2026-01-07 08:17:55.53	357.07	33.08	-48.9	-50.1	14.9	0.00e+00	0	25	0	1563426816	64	4046
2026-01-07 08:17:56.24	356.89	32.97	-48.9	-50.1	15.0	0.00e+00	0	25	0	1565523968	64	4029
2026-01-07 08:17:57.53	356.57	32.77	-48.9	-50.1	15.0	0.00e+00	0	25	0	1569718272	64	4011
2026-01-07 08:17:58.24	356.40	32.66	-49.0	-50.2	14.9	0.00e+00	0	25	0	1571815424	64	4078
2026-01-07 08:17:59.55	356.08	32.46	-49.4	-50.7	14.7	0.00e+00	0	25	0	1576009728	64	4297
2026-01-07 08:18:00.26	355.91	32.35	-49.5	-50.8	14.6	0.00e+00	0	25	0	1578106880	64	4368
2026-01-07 08:18:01.55	355.60	32.15	-49.7	-51.0	14.6	0.00e+00	0	25	0	1582301184	64	4486
2026-01-07 08:18:02.27	355.43	32.03	-49.5	-50.8	14.6	0.00e+00	0	25	0	1584398336	64	4359
2026-01-07 08:18:03.55	355.13	31.84	-49.4	-50.7	14.7	0.00e+00	0	25	0	1588592640	64	4310
2026-01-07 08:18:04.28	354.96	31.72	-49.5	-50.8	14.7	0.00e+00	0	25	0	1590689792	64	4355
2026-01-07 08:18:05.55	354.66	31.53	-49.1	-50.3	14.8	0.00e+00	0	25	0	1594884096	64	4143
2026-01-07 08:18:06.28	354.50	31.42	-48.9	-50.2	14.9	0.00e+00	0	25	0	1596981248	64	4054
2026-01-07 08:18:07.55	354.21	31.22	-49.0	-50.2	14.9	0.00e+00	0	25	0	1601175552	64	4081
2026-01-07 08:18:08.26	354.05	31.11	-49.0	-50.2	14.9	0.00e+00	0	25	0	1603272704	64	4072
2026-01-07 08:18:09.55	353.77	30.92	-49.0	-50.2	14.9	0.00e+00	0	25	0	1607467008	64	4083
2026-01-07 08:18:10.28	353.61	30.80	-49.0	-50.3	14.9	0.00e+00	0	25	0	1609564160	64	4116
2026-01-07 08:18:11.56	353.33	30.61	-48.9	-50.1	14.9	0.00e+00	0	25	0	1613758464	64	4041
2026-01-07 08:18:12.28	353.17	30.50	-49.0	-50.2	14.9	0.00e+00	0	25	0	1615855616	64	4073
2026-01-07 08:18:13.58	352.90	30.30	-49.0	-50.2	14.9	0.00e+00	0	25	0	1620049920	64	4069
2026-01-07 08:18:14.30	352.75	30.19	-48.9	-50.1	14.9	0.00e+00	0	25	0	1622147072	64	4036
2026-01-07 08:18:15.58	352.48	30.00	-48.8	-50.1	14.9	0.00e+00	0	25	0	1626341376	64	4014
2026-01-07 08:18:16.34	352.32	29.89	-48.9	-50.2	14.9	0.00e+00	0	26	0	1628438528	64	4055
2026-01-07 08:18:17.62	352.06	29.69	-48.9	-50.2	14.9	0.00e+00	0	25	0	1632632832	64	4070
2026-01-07 08:18:18.35	351.91	29.58	-48.8	-50.1	14.9	0.00e+00	0	25	0	1634729984	64	4021
2026-01-07 08:18:19.63	351.65	29.39	-48.8	-50.1	15.0	0.00e+00	0	25	0	1638924288	64	4015
2026-01-07 08:18:20.34	351.51	29.29	-48.8	-50.0	15.0	0.00e+00	0	25	0	1641021440	64	3973
2026-01-07 08:18:21.62	351.26	29.10	-48.8	-50.0	15.0	0.00e+00	0	25	0	1645215744	64	3980
2026-01-07 08:18:22.35	351.11	28.99	-48.8	-50.0	15.0	0.00e+00	0	25	0	1647312896	64	3996
2026-01-07 08:18:23.63	350.87	28.80	-48.7	-49.9	14.9	0.00e+00	0	25	0	1651507200	63	4172
2026-01-07 08:18:24.34	350.73	28.70	-48.6	-49.9	14.9	0.00e+00	0	25	0	1653604352	63	4150
2026-01-07 08:18:25.62	350.49	28.51	-48.6	-49.8	14.9	0.00e+00	0	25	0	1656750080	63	4145
2026-01-07 08:18:26.34	350.35	28.40	-48.5	-49.7	15.0	0.00e+00	0	25	0	1659895808	63	4082
2026-01-07 08:18:27.61	350.11	28.22	-48.5	-49.7	14.9	0.00e+00	0	25	0	1663041536	63	4080
2026-01-07 08:18:28.36	349.98	28.11	-48.5	-49.7	15.0	0.00e+00	0	25	0	1666187264	63	4076
2026-01-07 08:18:29.64	349.74	27.92	-48.5	-49.7	15.0	0.00e+00	0	25	0	1670381568	63	4052
2026-01-07 08:18:30.38	349.61	27.81	-48.5	-49.7	15.0	0.00e+00	0	25	0	1672478720	63	4055
2026-01-07 08:18:31.66	349.38	27.63	-48.6	-49.8	14.9	0.00e+00	0	25	0	1676673024	63	4108
2026-01-07 08:18:32.39	349.25	27.52	-48.6	-49.8	14.9	0.00e+00	0	25	0	1678770176	63	4135
2026-01-07 08:18:33.68	349.02	27.34	-48.7	-50.0	14.8	0.00e+00	0	25	0	1682964480	63	4199
2026-01-07 08:18:34.40	348.89	27.24	-48.8	-50.1	14.8	0.00e+00	0	25	0	1685061632	63	4264
2026-01-07 08:18:35.67	348.67	27.06	-48.9	-50.1	14.8	0.00e+00	0	25	0	1689255936	63	4271
2026-01-07 08:18:36.41	348.54	26.95	-48.8	-50.1	14.8	0.00e+00	0	25	0	1691353088	63	4260
2026-01-07 08:18:37.69	348.33	26.77	-48.8	-50.1	14.8	0.00e+00	0	25	0	1695547392	63	4246
2026-01-07 08:18:38.44	348.20	26.66	-48.7	-50.0	14.9	0.00e+00	0	25	0	1697644544	63	4207
2026-01-07 08:18:39.71	347.99	26.48	-48.6	-49.9	14.9	0.00e+00	0	25	0	1700790272	63	4161
2026-01-07 08:18:40.44	347.87	26.38	-48.6	-49.8	14.9	0.00e+00	0	25	0	1703936000	63	4130
2026-01-07 08:18:41.71	347.66	26.20	-48.5	-49.7	14.9	0.00e+00	0	25	0	1707081728	63	4073
2026-01-07 08:18:42.46	347.54	26.10	-48.5	-49.8	14.9	0.00e+00	0	25	0	1710227456	63	4099
2026-01-07 08:18:43.74	347.33	25.92	-48.4	-49.6	15.0	0.00e+00	0	25	0	1714421760	63	4035
2026-01-07 08:18:44.45	347.22	25.82	-48.5	-49.7	15.0	0.00e+00	0	25	0	1716518912	63	4054
2026-01-07 08:18:45.76	347.01	25.64	-48.4	-49.6	15.0	0.00e+00	0	25	0	1720713216	63	4037
2026-01-07 08:18:46.47	346.90	25.55	-48.5	-49.7	14.9	0.00e+00	0	25	0	1722810368	63	4059
2026-01-07 08:18:47.76	346.70	25.37	-48.6	-49.8	14.9	0.00e+00	0	25	0	1727004672	63	4116
2026-01-07 08:18:48.48	346.59	25.27	-48.7	-49.9	14.9	0.00e+00	0	25	0	1729101824	63	4159
2026-01-07 08:18:49.76	346.39	25.10	-48.4	-49.6	15.0	0.00e+00	0	25	0	1732247552	63	4017
2026-01-07 08:18:50.48	346.28	25.00	-48.3	-49.5	15.0	0.00e+00	0	25	0	1735393280	63	3975
2026-01-07 08:18:51.76	346.09	24.83	-48.2	-49.4	15.1	0.00e+00	0	25	0	1738539008	63	3946
2026-01-07 08:18:52.47	345.98	24.73	-48.2	-49.4	15.1	0.00e+00	0	25	0	1741684736	63	3935
2026-01-07 08:18:53.76	345.79	24.56	-48.4	-49.5	15.0	0.00e+00	0	25	0	1744830464	63	4001
2026-01-07 08:18:54.49	345.69	24.46	-48.2	-49.4	15.1	0.00e+00	0	25	0	1747976192	63	3941
2026-01-07 08:18:55.76	345.50	24.29	-48.3	-49.4	15.1	0.00e+00	0	25	0	1751121920	63	3958
2026-01-07 08:18:56.51	345.39	24.19	-48.2	-49.4	15.1	0.00e+00	0	25	0	1754267648	63	3920
2026-01-07 08:18:57.79	345.21	24.02	-48.1	-49.3	15.0	0.00e+00	0	25	0	1757413376	62	4127
2026-01-07 08:18:58.53	345.11	23.92	-48.2	-49.4	14.9	0.00e+00	0	25	0	1760559104	62	4150
2026-01-07 08:18:59.81	344.93	23.76	-48.3	-49.6	14.9	0.00e+00	0	25	0	1763704832	62	4243
2026-01-07 08:19:00.53	344.83	23.66	-48.5	-49.7	14.8	0.00e+00	0	25	0	1766850560	62	4308
2026-01-07 08:19:01.82	344.65	23.49	-48.6	-49.9	14.8	0.00e+00	0	25	0	1771044864	62	4399
2026-01-07 08:19:02.55	344.55	23.40	-48.7	-49.9	14.8	0.00e+00	0	25	0	1773142016	62	4437
2026-01-07 08:19:03.82	344.38	23.24	-48.8	-50.0	14.7	0.00e+00	0	25	0	1776287744	62	4472
2026-01-07 08:19:04.55	344.28	23.14	-48.8	-50.1	14.7	0.00e+00	0	25	0	1779433472	62	4500
2026-01-07 08:19:05.84	344.11	22.98	-48.9	-50.1	14.7	0.00e+00	0	25	0	1782579200	62	4540
2026-01-07 08:19:06.56	344.01	22.88	-48.9	-50.1	14.7	0.00e+00	0	25	0	1785724928	62	4526
2026-01-07 08:19:07.85	343.85	22.72	-48.8	-50.0	14.7	0.00e+00	0	25	0	1788870656	62	4484
2026-01-07 08:19:08.58	343.75	22.63	-48.7	-50.0	14.7	0.00e+00	0	25	0	1792016384	62	4455
2026-01-07 08:19:09.84	343.59	22.47	-48.7	-49.9	14.7	0.00e+00	0	25	0	1795162112	62	4427
2026-01-07 08:19:10.57	343.50	22.37	-48.7	-49.9	14.7	0.00e+00	0	25	0	1798307840	62	4436
2026-01-07 08:19:11.86	343.33	22.21	-48.7	-49.9	14.7	0.00e+00	0	25	0	1801453568	62	4441
2026-01-07 08:19:12.57	343.24	22.12	-48.6	-49.8	14.8	0.00e+00	0	25	0	1803550720	62	4356
2026-01-07 08:19:13.85	343.08	21.96	-48.6	-49.8	14.8	0.00e+00	0	25	0	1807745024	62	4385
2026-01-07 08:19:14.59	342.99	21.87	-48.5	-49.7	14.8	0.00e+00	0	25	0	1810890752	62	4310
2026-01-07 08:19:15.87	342.84	21.71	-48.5	-49.7	14.8	0.00e+00	0	25	0	1814036480	62	4300
2026-01-07 08:19:16.61	342.75	21.62	-48.3	-49.5	14.9	0.00e+00	0	25	0	1816133632	62	4225
2026-01-07 08:19:17.89	342.59	21.47	-48.2	-49.3	14.9	0.00e+00	0	25	0	1820327936	62	4145
2026-01-07 08:19:18.62	342.50	21.38	-48.2	-49.3	14.9	0.00e+00	0	25	0	1823473664	62	4141
2026-01-07 08:19:19.90	342.35	21.22	-48.1	-49.3	15.0	0.00e+00	0	25	0	1826619392	62	4115
2026-01-07 08:19:20.63	342.27	21.13	-48.1	-49.3	15.0	0.00e+00	0	25	0	1829765120	62	4119
2026-01-07 08:19:21.92	342.12	20.97	-48.2	-49.3	14.9	0.00e+00	0	25	0	1832910848	62	4135
2026-01-07 08:19:22.63	342.03	20.89	-48.1	-49.2	15.0	0.00e+00	0	25	0	1836056576	62	4098
2026-01-07 08:19:23.95	341.88	20.73	-48.2	-49.4	14.9	0.00e+00	0	26	0	1839202304	62	4151
2026-01-07 08:19:24.66	341.80	20.65	-48.2	-49.4	14.9	0.00e+00	0	25	0	1841299456	62	4186
2026-01-07 08:19:25.95	341.66	20.49	-48.4	-49.6	14.9	0.00e+00	0	25	0	1845493760	62	4256
2026-01-07 08:19:26.67	341.58	20.41	-48.4	-49.6	14.8	0.00e+00	0	25	0	1848639488	62	4282
2026-01-07 08:19:27.96	341.43	20.25	-48.5	-49.8	14.8	0.00e+00	0	26	0	1851785216	62	4350
2026-01-07 08:19:28.70	341.35	20.17	-48.6	-49.9	14.8	0.00e+00	0	25	0	1854930944	62	4400
2026-01-07 08:19:29.98	341.21	20.02	-48.7	-49.9	14.8	0.00e+00	0	25	0	1858076672	62	4413
2026-01-07 08:19:30.72	341.13	19.93	-48.7	-50.0	14.7	0.00e+00	0	25	0	1861222400	62	4442
2026-01-07 08:19:32.00	340.99	19.78	-48.6	-49.9	14.7	0.00e+00	0	25	0	1864368128	62	4410
2026-01-07 08:19:32.72	340.92	19.70	-48.7	-50.0	14.7	0.00e+00	0	25	0	1866465280	62	4446
2026-01-07 08:19:34.00	340.78	19.55	-48.6	-49.8	14.7	0.00e+00	0	25	0	1870659584	62	4365
2026-01-07 08:19:34.71	340.71	19.47	-48.6	-49.8	14.8	0.00e+00	0	25	0	1872756736	62	4377
2026-01-07 08:19:36.00	340.57	19.32	-48.5	-49.8	14.8	0.00e+00	0	25	0	1876951040	62	4346
2026-01-07 08:19:36.73	340.50	19.24	-48.4	-49.6	14.8	0.00e+00	0	25	0	1880096768	62	4288
2026-01-07 08:19:38.00	340.37	19.09	-48.6	-49.8	14.7	0.00e+00	0	25	0	1883242496	62	4360
2026-01-07 08:19:38.75	340.29	19.01	-48.5	-49.7	14.8	0.00e+00	0	25	0	1885339648	62	4333
2026-01-07 08:19:40.03	340.16	18.86	-48.5	-49.7	14.8	0.00e+00	0	25	0	1889533952	62	4314
2026-01-07 08:19:40.79	340.08	18.78	-48.5	-49.8	14.8	0.00e+00	0	25	0	1892679680	62	4358
2026-01-07 08:19:42.06	339.96	18.63	-48.6	-49.8	14.7	0.00e+00	0	26	0	1895825408	62	4391
2026-01-07 08:19:42.79	339.89	18.55	-48.6	-49.8	14.8	0.00e+00	0	25	0	1898971136	62	4383
2026-01-07 08:19:44.08	339.76	18.41	-48.7	-49.9	14.7	0.00e+00	0	25	0	1902116864	62	4425
2026-01-07 08:19:44.79	339.69	18.33	-48.8	-50.1	14.7	0.00e+00	0	25	0	1905262592	62	4506
2026-01-07 08:19:46.08	339.57	18.19	-48.9	-50.1	14.7	0.00e+00	0	25	0	1908408320	62	4531
2026-01-07 08:19:46.79	339.50	18.11	-48.8	-50.1	14.7	0.00e+00	0	25	0	1910505472	62	4533
2026-01-07 08:19:48.08	339.38	17.97	-49.1	-50.3	14.7	0.00e+00	0	25	0	1914699776	63	4388
2026-01-07 08:19:48.80	339.31	17.89	-49.0	-50.3	14.7	0.00e+00	0	25	0	1916796928	63	4369
2026-01-07 08:19:50.08	339.19	17.75	-49.0	-50.3	14.7	0.00e+00	0	25	0	1920991232	63	4366
2026-01-07 08:19:50.82	339.12	17.67	-49.1	-50.4	14.6	0.00e+00	0	25	0	1924136960	63	4408
2026-01-07 08:19:52.10	339.00	17.53	-49.2	-50.5	14.6	0.00e+00	0	26	0	1927282688	63	4492
2026-01-07 08:19:52.82	338.94	17.45	-49.4	-50.7	14.5	0.00e+00	0	25	0	1929379840	63	4579
2026-01-07 08:19:54.10	338.82	17.31	-49.4	-50.7	14.5	0.00e+00	0	25	0	1933574144	63	4588
2026-01-07 08:19:54.81	338.76	17.24	-49.4	-50.8	14.6	0.00e+00	0	25	0	1935671296	64	4360
2026-01-07 08:19:56.10	338.64	17.10	-49.4	-50.7	14.6	0.00e+00	0	25	0	1939865600	64	4328
2026-01-07 08:19:56.81	338.58	17.02	-49.4	-50.7	14.6	0.00e+00	0	25	0	1941962752	64	4315
2026-01-07 08:19:58.12	338.46	16.89	-49.4	-50.7	14.6	0.00e+00	0	25	0	1946157056	64	4322
2026-01-07 08:19:58.84	338.40	16.81	-49.4	-50.8	14.6	0.00e+00	0	25	0	1948254208	64	4341
2026-01-07 08:20:00.12	338.29	16.68	-49.5	-50.8	14.6	0.00e+00	0	25	0	1952448512	64	4381
2026-01-07 08:20:00.87	338.22	16.60	-49.5	-50.9	14.5	0.00e+00	0	26	0	1955594240	64	4409
2026-01-07 08:20:02.15	338.11	16.46	-49.7	-51.1	14.5	0.00e+00	0	25	0	1958739968	64	4507
2026-01-07 08:20:02.91	338.05	16.38	-49.6	-50.9	14.5	0.00e+00	0	25	0	1960837120	64	4439
2026-01-07 08:20:04.19	337.94	16.25	-49.5	-50.8	14.6	0.00e+00	0	25	0	1965031424	64	4391
2026-01-07 08:20:04.91	337.88	16.18	-49.4	-50.8	14.6	0.00e+00	0	25	0	1967128576	64	4348
2026-01-07 08:20:06.19	337.77	16.05	-49.5	-50.8	14.6	0.00e+00	0	25	0	1971322880	64	4367
2026-01-07 08:20:06.92	337.71	15.97	-49.5	-50.8	14.6	0.00e+00	0	25	0	1973420032	64	4370
2026-01-07 08:20:08.20	337.61	15.84	-49.4	-50.8	14.6	0.00e+00	0	25	0	1977614336	64	4355
2026-01-07 08:20:08.94	337.55	15.77	-49.5	-50.8	14.6	0.00e+00	0	25	0	1979711488	64	4390
2026-01-07 08:20:10.22	337.44	15.64	-49.2	-50.5	14.7	0.00e+00	0	25	0	1983905792	64	4220
2026-01-07 08:20:10.95	337.39	15.56	-49.2	-50.5	14.7	0.00e+00	0	25	0	1986002944	64	4206
2026-01-07 08:20:12.23	337.28	15.43	-49.2	-50.5	14.7	0.00e+00	0	25	0	1990197248	64	4201
2026-01-07 08:20:12.98	337.22	15.36	-49.1	-50.4	14.7	0.00e+00	0	25	0	1993342976	64	4159
2026-01-07 08:20:14.25	337.12	15.23	-49.1	-50.4	14.7	0.00e+00	0	25	0	1996488704	64	4181
2026-01-07 08:20:14.98	337.07	15.16	-49.2	-50.5	14.7	0.00e+00	0	25	0	1999634432	64	4202
2026-01-07 08:20:16.26	336.97	15.03	-49.2	-50.5	14.7	0.00e+00	0	25	0	2002780160	64	4212
2026-01-07 08:20:16.99	336.91	14.96	-49.1	-50.4	14.7	0.00e+00	0	25	0	2004877312	64	4170
2026-01-07 08:20:18.27	336.81	14.83	-49.1	-50.4	14.7	0.00e+00	0	25	0	2009071616	64	4153
2026-01-07 08:20:18.99	336.76	14.76	-49.2	-50.5	14.7	0.00e+00	0	25	0	2011168768	64	4194
2026-01-07 08:20:20.29	336.66	14.64	-49.1	-50.4	14.7	0.00e+00	0	25	0	2015363072	64	4188
2026-01-07 08:20:21.00	336.61	14.57	-49.2	-50.5	14.7	0.00e+00	0	25	0	2017460224	64	4199
2026-01-07 08:20:22.30	336.51	14.44	-49.2	-50.6	14.7	0.00e+00	0	25	0	2021654528	64	4249
2026-01-07 08:20:23.01	336.46	14.37	-49.3	-50.6	14.7	0.00e+00	0	25	0	2023751680	64	4256
2026-01-07 08:20:24.30	336.36	14.25	-49.3	-50.6	14.6	0.00e+00	0	25	0	2027945984	64	4291
2026-01-07 08:20:25.02	336.31	14.18	-49.3	-50.7	14.6	0.00e+00	0	25	0	2030043136	64	4294
2026-01-07 08:20:26.30	336.22	14.06	-49.5	-50.8	14.5	0.00e+00	0	25	0	2034237440	64	4378
2026-01-07 08:20:27.03	336.17	13.99	-49.5	-50.9	14.5	0.00e+00	0	25	0	2036334592	64	4394
2026-01-07 08:20:28.31	336.08	13.86	-49.6	-51.0	14.5	0.00e+00	0	25	0	2040528896	64	4444
2026-01-07 08:20:29.06	336.02	13.79	-49.6	-51.0	14.4	0.00e+00	0	25	0	2042626048	64	4488
2026-01-07 08:20:30.34	335.93	13.67	-49.7	-51.1	14.4	0.00e+00	0	25	0	2046820352	64	4530
