passes_logs/2026/01/07/R3.2S_Murmansk/R3.2S_Murmansk__20260107_034534_AQUA_rec.log

#Pass ID: 20260107_034534_AQUA
#Satellite: AQUA
#Configuration: AQUA
#almurnet v.1.7.20251203
#Start time: 2026-01-07 03:45:36

#Version: 2.2.20231116
#Station: R3.2S_Murmansk
#Location: 33.079688 lon 68.888172 lat
#TLE: 1 27424U 02022A   26004.96787593  .00001598  00000+0  32997-3 0  9996
#TLE: 2 27424  98.4069 331.2279 0002002  90.2377   0.6092 14.61798176259425

#Time	Az	El	Level	Level2	SNR	BER	BlckErr	Temp	State	Recorded	gain1	gain2
2026-01-07 03:45:36.47	28.92	2.13	-56.8	-76.2	3.8	7.47e-01	0	23	0	0	82	33375
2026-01-07 03:45:37.48	28.88	2.19	-56.7	-76.1	3.8	7.43e-01	0	23	104	0	81	35063
2026-01-07 03:45:38.47	28.84	2.25	-56.7	-76.1	3.8	7.47e-01	0	23	104	0	81	35096
2026-01-07 03:45:39.47	28.80	2.32	-56.7	-76.1	3.8	7.48e-01	0	23	104	0	81	35144
2026-01-07 03:45:40.46	28.76	2.38	-56.7	-76.1	3.8	7.47e-01	0	23	104	0	81	35062
2026-01-07 03:45:41.46	28.72	2.45	-56.7	-76.1	3.8	7.48e-01	0	23	104	0	81	35123
2026-01-07 03:45:42.46	28.68	2.51	-56.8	-76.1	3.8	7.47e-01	0	23	104	0	81	35084
2026-01-07 03:45:43.47	28.64	2.58	-56.7	-76.1	3.8	7.46e-01	0	23	104	0	81	35029
2026-01-07 03:45:44.47	28.60	2.64	-56.7	-76.1	3.8	7.44e-01	0	23	104	0	81	34959
2026-01-07 03:45:45.47	28.55	2.71	-56.7	-76.1	3.8	7.49e-01	0	23	104	0	81	35045
2026-01-07 03:45:46.48	28.51	2.78	-56.7	-76.1	3.8	7.47e-01	0	23	104	0	81	34966
2026-01-07 03:45:47.47	28.47	2.84	-56.7	-76.0	3.8	7.47e-01	0	24	104	0	81	34833
2026-01-07 03:45:48.48	28.43	2.91	-56.7	-76.0	3.8	7.45e-01	0	23	104	0	81	34823
2026-01-07 03:45:49.47	28.39	2.97	-56.8	-76.1	3.8	7.47e-01	0	23	104	0	81	34883
2026-01-07 03:45:50.47	28.35	3.04	-56.8	-76.1	3.8	7.45e-01	0	23	104	0	81	35027
2026-01-07 03:45:51.47	28.30	3.11	-56.8	-76.1	3.8	7.46e-01	0	24	104	0	81	35199
2026-01-07 03:45:52.48	28.26	3.17	-56.8	-76.1	3.8	7.48e-01	0	24	104	0	81	35281
2026-01-07 03:45:53.48	28.22	3.24	-56.8	-76.1	3.8	7.46e-01	0	24	104	0	81	35212
2026-01-07 03:45:54.48	28.17	3.31	-56.8	-76.1	3.8	7.45e-01	0	24	104	0	81	35009
2026-01-07 03:45:55.48	28.13	3.37	-56.8	-76.1	3.8	7.44e-01	0	24	104	0	81	34914
2026-01-07 03:45:56.48	28.09	3.44	-56.8	-76.0	3.8	7.46e-01	0	24	104	0	81	34859
2026-01-07 03:45:57.48	28.04	3.51	-56.8	-76.1	3.8	7.45e-01	0	24	104	0	81	35058
2026-01-07 03:45:58.48	28.00	3.58	-56.8	-76.1	3.8	7.45e-01	0	24	104	0	81	34972
2026-01-07 03:45:59.48	27.95	3.65	-56.7	-76.0	3.8	7.42e-01	0	24	104	0	81	34561
2026-01-07 03:46:00.48	27.91	3.71	-56.7	-75.9	3.8	7.49e-01	0	24	104	0	81	34100
2026-01-07 03:46:01.48	27.86	3.78	-56.7	-75.7	3.8	7.45e-01	0	24	104	0	81	33366
2026-01-07 03:46:02.48	27.82	3.85	-56.7	-75.6	3.8	7.47e-01	0	24	104	0	81	32940
2026-01-07 03:46:03.48	27.77	3.92	-56.7	-75.5	3.8	7.46e-01	0	24	104	0	81	32786
2026-01-07 03:46:04.48	27.73	3.99	-56.7	-75.5	3.8	7.47e-01	0	24	104	0	81	32850
2026-01-07 03:46:05.47	27.68	4.05	-56.7	-75.3	3.8	7.43e-01	0	24	104	0	81	32101
2026-01-07 03:46:06.47	27.64	4.12	-56.6	-75.2	3.8	7.44e-01	0	24	104	0	81	31565
2026-01-07 03:46:07.47	27.59	4.19	-56.6	-75.0	3.8	7.47e-01	0	24	104	0	81	30878
2026-01-07 03:46:08.47	27.54	4.26	-56.5	-74.6	3.9	7.46e-01	0	24	104	0	81	29444
2026-01-07 03:46:09.47	27.50	4.33	-56.5	-74.0	3.8	7.43e-01	0	24	104	0	81	27664
2026-01-07 03:46:10.48	27.45	4.40	-56.2	-73.0	3.8	7.45e-01	0	24	104	0	81	24462
2026-01-07 03:46:11.48	27.40	4.47	-56.0	-71.9	3.8	7.47e-01	0	24	104	0	81	21745
2026-01-07 03:46:12.47	27.35	4.54	-55.7	-71.2	3.8	7.45e-01	0	24	104	0	80	21033
2026-01-07 03:46:13.47	27.31	4.61	-55.4	-70.3	3.8	7.47e-01	0	24	104	0	80	19014
2026-01-07 03:46:14.47	27.26	4.68	-55.1	-69.3	3.8	7.46e-01	0	24	104	0	79	18059
2026-01-07 03:46:15.46	27.21	4.75	-54.9	-69.1	3.8	7.45e-01	0	24	104	0	79	17599
2026-01-07 03:46:16.47	27.16	4.82	-54.7	-68.7	3.9	7.47e-01	0	24	104	0	78	17717
2026-01-07 03:46:17.47	27.11	4.89	-54.9	-68.9	3.8	7.45e-01	0	24	104	0	78	18154
2026-01-07 03:46:18.48	27.06	4.97	-54.8	-68.8	3.9	7.45e-01	0	24	104	0	78	17925
2026-01-07 03:46:19.47	27.01	5.04	-54.0	-67.1	3.8	7.47e-01	0	24	104	0	77	15741
2026-01-07 03:46:20.48	26.96	5.11	-54.8	-68.4	3.8	7.45e-01	0	24	104	0	77	18223
2026-01-07 03:46:21.47	26.91	5.18	-54.9	-68.7	3.8	7.48e-01	0	24	104	0	79	16825
2026-01-07 03:46:22.47	26.86	5.25	-55.2	-69.8	3.9	7.44e-01	0	24	104	0	79	19154
2026-01-07 03:46:23.47	26.81	5.32	-53.9	-66.9	3.8	7.45e-01	0	24	104	0	75	17193
2026-01-07 03:46:24.47	26.76	5.40	-55.3	-69.4	3.9	7.46e-01	0	24	104	0	79	18274
2026-01-07 03:46:25.47	26.71	5.47	-51.7	-63.7	3.8	7.45e-01	0	24	104	0	72	14114
2026-01-07 03:46:26.48	26.66	5.54	-51.7	-63.6	3.8	7.46e-01	0	24	104	0	72	13964
2026-01-07 03:46:27.47	26.60	5.62	-51.8	-63.8	3.8	7.50e-01	0	24	104	0	72	14273
2026-01-07 03:46:28.47	26.55	5.69	-53.4	-66.0	3.9	7.46e-01	0	24	104	0	76	14707
2026-01-07 03:46:29.47	26.50	5.76	-54.0	-66.9	3.8	7.49e-01	0	24	104	0	75	17193
2026-01-07 03:46:30.47	26.45	5.84	-55.3	-69.5	3.9	7.44e-01	0	24	104	0	80	17378
2026-01-07 03:46:31.48	26.39	5.91	-52.0	-64.0	3.8	7.42e-01	0	24	104	0	73	13835
2026-01-07 03:46:32.47	26.34	5.98	-53.4	-66.0	3.8	7.45e-01	0	24	104	0	76	14580
2026-01-07 03:46:33.47	26.29	6.06	-51.8	-63.7	3.8	7.43e-01	0	24	104	0	72	14177
2026-01-07 03:46:34.46	26.23	6.13	-51.8	-63.8	3.8	7.48e-01	0	24	104	0	72	14306
2026-01-07 03:46:35.46	26.18	6.21	-51.8	-63.8	3.8	7.45e-01	0	24	104	0	72	14338
2026-01-07 03:46:36.45	26.12	6.28	-51.8	-63.8	3.8	7.45e-01	0	24	104	0	72	14289
2026-01-07 03:46:37.44	26.07	6.35	-53.8	-66.6	3.8	7.45e-01	0	24	104	0	75	16626
2026-01-07 03:46:38.44	26.01	6.43	-55.5	-69.8	3.9	7.45e-01	0	24	104	0	80	17993
2026-01-07 03:46:39.44	25.96	6.51	-51.9	-63.8	3.8	7.43e-01	0	24	104	0	73	13549
2026-01-07 03:46:40.44	25.90	6.58	-53.2	-65.4	3.8	7.41e-01	0	24	104	0	75	14442
2026-01-07 03:46:41.43	25.84	6.66	-51.4	-63.2	3.8	7.49e-01	0	24	104	0	72	13314
2026-01-07 03:46:42.43	25.79	6.73	-51.3	-63.0	3.8	7.48e-01	0	24	104	0	71	13885
2026-01-07 03:46:43.43	25.73	6.81	-51.6	-63.5	3.8	7.48e-01	0	24	104	0	71	14651
2026-01-07 03:46:44.43	25.67	6.89	-52.9	-65.2	3.9	7.43e-01	0	24	104	0	75	14150
2026-01-07 03:46:45.43	25.61	6.96	-53.5	-66.0	3.8	7.44e-01	0	24	104	0	74	16407
2026-01-07 03:46:46.43	25.56	7.04	-55.4	-69.4	3.8	7.43e-01	0	25	104	0	80	17258
2026-01-07 03:46:47.43	25.50	7.12	-51.6	-63.5	3.8	7.47e-01	0	24	104	0	72	13768
2026-01-07 03:46:48.44	25.44	7.20	-53.7	-66.3	3.9	7.47e-01	0	24	104	0	76	15122
2026-01-07 03:46:49.44	25.38	7.27	-51.6	-63.4	3.8	7.43e-01	0	24	104	0	72	13681
2026-01-07 03:46:50.44	25.32	7.35	-51.3	-63.0	3.8	7.47e-01	0	24	104	0	71	13826
2026-01-07 03:46:51.44	25.26	7.43	-51.0	-62.7	3.9	7.47e-01	0	25	104	0	71	13327
2026-01-07 03:46:52.43	25.20	7.51	-51.4	-63.2	3.8	7.44e-01	0	25	104	0	71	14095
2026-01-07 03:46:53.44	25.14	7.59	-53.3	-65.8	3.8	7.44e-01	0	24	104	0	74	15964
2026-01-07 03:46:54.44	25.08	7.67	-54.8	-68.6	3.8	7.44e-01	0	24	104	0	79	16675
2026-01-07 03:46:55.43	25.02	7.74	-51.4	-63.1	3.8	7.46e-01	0	24	104	0	72	13260
2026-01-07 03:46:56.43	24.95	7.82	-52.8	-64.8	3.8	7.45e-01	0	24	104	0	74	14285
2026-01-07 03:46:57.43	24.89	7.90	-50.9	-62.5	3.8	7.43e-01	0	24	104	0	71	13105
2026-01-07 03:46:58.43	24.83	7.98	-50.6	-62.2	3.8	7.45e-01	0	24	104	0	70	13293
2026-01-07 03:46:59.44	24.76	8.06	-50.8	-62.4	3.8	7.47e-01	0	25	104	0	70	13622
2026-01-07 03:47:00.43	24.70	8.14	-51.5	-63.2	3.9	7.48e-01	0	25	104	0	72	13397
2026-01-07 03:47:01.43	24.64	8.22	-53.3	-65.8	3.8	7.46e-01	0	25	104	0	74	16022
2026-01-07 03:47:02.43	24.57	8.31	-55.3	-68.7	3.9	7.43e-01	0	25	104	0	79	16695
2026-01-07 03:47:03.43	24.51	8.39	-51.4	-63.2	3.9	7.47e-01	0	25	104	0	72	13314
2026-01-07 03:47:04.43	24.44	8.47	-53.1	-65.4	3.9	7.46e-01	0	25	104	0	75	14385
2026-01-07 03:47:05.43	24.38	8.55	-51.1	-62.7	3.9	7.44e-01	0	25	104	0	71	13394
2026-01-07 03:47:06.43	24.31	8.63	-50.7	-62.3	3.8	7.47e-01	0	25	104	0	70	13489
2026-01-07 03:47:07.42	24.24	8.71	-50.5	-62.0	3.8	7.44e-01	0	25	104	0	70	13039
2026-01-07 03:47:08.42	24.18	8.80	-50.4	-62.0	3.8	7.46e-01	0	25	104	0	70	13031
2026-01-07 03:47:09.42	24.11	8.88	-53.1	-65.2	3.8	7.47e-01	0	24	104	0	73	15906
2026-01-07 03:47:10.42	24.04	8.96	-55.3	-68.6	3.8	7.44e-01	0	25	104	0	79	16529
2026-01-07 03:47:11.42	23.97	9.05	-51.0	-62.7	3.9	7.44e-01	0	25	104	0	71	13349
2026-01-07 03:47:12.43	23.90	9.13	-51.8	-63.9	3.8	7.43e-01	0	25	104	0	73	13692
2026-01-07 03:47:13.43	23.83	9.21	-50.6	-62.2	3.8	7.44e-01	0	24	104	0	70	13311
2026-01-07 03:47:14.44	23.76	9.30	-50.5	-62.0	3.8	7.42e-01	0	25	104	0	70	13091
2026-01-07 03:47:15.43	23.69	9.38	-51.3	-62.9	3.8	7.48e-01	0	25	104	0	70	14528
2026-01-07 03:47:16.42	23.62	9.47	-52.7	-64.8	3.8	7.47e-01	0	24	104	0	74	14242
2026-01-07 03:47:17.42	23.55	9.55	-52.4	-64.3	3.9	7.47e-01	0	25	104	0	72	15213
2026-01-07 03:47:18.42	23.48	9.64	-55.4	-69.1	3.9	7.42e-01	0	24	104	0	80	16594
2026-01-07 03:47:19.41	23.41	9.72	-51.5	-63.3	3.9	7.47e-01	0	25	104	0	72	13426
2026-01-07 03:47:20.42	23.34	9.81	-52.4	-64.4	3.9	7.43e-01	0	25	104	0	74	13707
2026-01-07 03:47:21.42	23.26	9.89	-50.5	-62.0	3.8	7.42e-01	0	25	104	0	70	13089
2026-01-07 03:47:22.42	23.19	9.98	-50.3	-61.8	3.8	7.45e-01	0	25	104	0	69	13453
2026-01-07 03:47:23.41	23.12	10.07	-50.3	-61.8	3.8	7.48e-01	0	25	104	0	69	13513
2026-01-07 03:47:24.41	23.04	10.15	-52.0	-63.9	3.9	7.42e-01	0	25	104	0	73	13654
2026-01-07 03:47:25.41	22.97	10.24	-52.3	-64.3	3.8	7.47e-01	0	25	104	0	72	15224
2026-01-07 03:47:26.41	22.89	10.33	-55.5	-69.1	3.9	7.44e-01	0	25	104	0	80	16510
2026-01-07 03:47:27.42	22.82	10.42	-51.5	-63.3	3.9	7.44e-01	0	25	104	0	72	13442
2026-01-07 03:47:28.42	22.74	10.50	-51.9	-63.8	3.9	7.45e-01	0	25	104	0	73	13466
2026-01-07 03:47:29.42	22.66	10.59	-50.6	-62.1	3.8	7.49e-01	0	25	104	0	70	13116
2026-01-07 03:47:30.41	22.59	10.68	-50.2	-61.7	3.9	7.45e-01	0	25	104	0	69	13306
2026-01-07 03:47:31.42	22.51	10.77	-50.6	-62.2	3.8	7.44e-01	0	25	104	0	69	14100
2026-01-07 03:47:32.42	22.43	10.86	-52.0	-63.9	3.9	7.45e-01	0	24	104	0	73	13623
2026-01-07 03:47:33.42	22.35	10.95	-53.2	-65.1	3.9	7.47e-01	0	25	104	0	73	15649
2026-01-07 03:47:34.42	22.27	11.04	-55.4	-69.0	3.9	7.45e-01	0	25	104	0	80	16328
2026-01-07 03:47:35.42	22.19	11.13	-51.2	-62.7	3.9	7.45e-01	0	25	104	0	71	13367
2026-01-07 03:47:36.41	22.11	11.22	-52.6	-64.7	3.9	7.44e-01	0	25	104	0	74	14071
2026-01-07 03:47:37.41	22.03	11.31	-50.7	-62.2	3.8	7.44e-01	0	25	104	0	70	13315
2026-01-07 03:47:38.42	21.94	11.40	-50.3	-61.7	3.9	7.47e-01	0	25	104	0	69	13406
2026-01-07 03:47:39.42	21.86	11.49	-50.4	-61.9	3.9	7.43e-01	0	25	104	0	69	13694
2026-01-07 03:47:40.42	21.78	11.59	-51.5	-63.3	3.8	7.44e-01	0	25	104	0	72	13466
2026-01-07 03:47:41.42	21.69	11.68	-52.7	-64.6	3.8	7.44e-01	0	25	104	0	72	15667
2026-01-07 03:47:42.43	21.61	11.77	-55.0	-68.2	3.9	7.47e-01	0	25	104	0	79	15763
2026-01-07 03:47:43.42	21.52	11.86	-50.9	-62.5	3.9	7.46e-01	0	25	104	0	71	13006
2026-01-07 03:47:44.42	21.44	11.96	-52.0	-63.9	3.9	7.47e-01	0	25	104	0	73	13627
2026-01-07 03:47:45.42	21.35	12.05	-50.2	-61.6	3.9	7.44e-01	0	25	104	0	69	13256
2026-01-07 03:47:46.43	21.27	12.15	-50.0	-61.4	3.9	7.44e-01	0	25	104	0	69	12951
2026-01-07 03:47:47.43	21.18	12.24	-50.2	-61.6	3.8	7.44e-01	0	25	104	0	69	13186
2026-01-07 03:47:48.43	21.09	12.34	-51.0	-62.6	3.8	7.46e-01	0	25	104	0	71	13245
2026-01-07 03:47:49.43	21.00	12.43	-52.5	-64.4	3.8	7.47e-01	0	25	104	0	72	15325
2026-01-07 03:47:50.43	20.91	12.53	-54.8	-67.3	3.9	7.45e-01	0	25	104	0	78	15222
2026-01-07 03:47:51.41	20.82	12.62	-51.1	-62.7	3.9	7.45e-01	0	25	104	0	71	13359
2026-01-07 03:47:52.42	20.73	12.72	-51.7	-63.5	3.9	7.47e-01	0	25	104	0	72	13762
2026-01-07 03:47:53.41	20.64	12.81	-50.1	-61.5	3.9	7.44e-01	0	25	104	0	69	13089
2026-01-07 03:47:54.41	20.55	12.91	-50.2	-61.6	3.9	7.45e-01	0	25	104	0	69	13180
2026-01-07 03:47:55.41	20.46	13.01	-49.5	-60.9	3.9	7.48e-01	0	25	104	0	68	12915
2026-01-07 03:47:56.41	20.36	13.10	-50.0	-61.5	3.9	7.49e-01	0	25	104	0	68	13760
2026-01-07 03:47:57.40	20.27	13.20	-51.6	-63.2	3.9	7.44e-01	0	25	104	0	70	14952
2026-01-07 03:47:58.41	20.17	13.30	-55.1	-68.3	3.9	7.47e-01	0	25	104	0	79	15968
2026-01-07 03:47:59.41	20.08	13.40	-51.1	-62.6	3.9	7.47e-01	0	25	104	0	71	13220
2026-01-07 03:48:00.41	19.98	13.50	-52.0	-63.9	3.9	7.44e-01	0	25	104	0	73	13580
2026-01-07 03:48:01.42	19.89	13.60	-50.0	-61.3	3.9	7.45e-01	0	25	104	0	69	12750
2026-01-07 03:48:02.42	19.79	13.70	-49.9	-61.3	3.8	7.45e-01	0	25	104	0	68	13484
2026-01-07 03:48:03.42	19.69	13.80	-49.6	-60.9	3.9	7.48e-01	0	25	104	0	68	12848
2026-01-07 03:48:04.42	19.59	13.90	-49.6	-60.9	3.9	7.44e-01	0	25	104	0	68	12933
2026-01-07 03:48:05.42	19.49	14.00	-51.6	-63.2	3.9	7.44e-01	0	25	104	0	70	14917
2026-01-07 03:48:06.41	19.39	14.10	-55.2	-68.3	3.8	7.47e-01	0	25	104	0	79	15966
2026-01-07 03:48:07.42	19.29	14.20	-51.1	-62.7	3.9	7.43e-01	0	25	104	0	71	13296
2026-01-07 03:48:08.42	19.19	14.30	-52.0	-63.9	3.9	7.43e-01	0	25	104	0	73	13587
2026-01-07 03:48:09.42	19.08	14.40	-50.0	-61.4	3.8	7.47e-01	0	25	104	0	69	12844
2026-01-07 03:48:10.42	18.98	14.51	-50.0	-61.5	3.8	7.48e-01	0	25	104	0	69	12967
2026-01-07 03:48:11.41	18.88	14.61	-49.6	-60.9	3.9	7.46e-01	0	25	104	0	68	12858
2026-01-07 03:48:12.41	18.77	14.71	-50.1	-61.6	3.9	7.44e-01	0	25	104	0	68	13922
2026-01-07 03:48:13.41	18.66	14.82	-51.5	-63.1	3.9	7.44e-01	0	25	104	0	70	14805
2026-01-07 03:48:14.41	18.56	14.92	-55.1	-68.2	3.9	7.48e-01	0	25	104	0	79	15830
2026-01-07 03:48:15.42	18.45	15.02	-51.0	-62.5	3.9	7.46e-01	0	25	104	0	71	13087
2026-01-07 03:48:16.42	18.34	15.13	-51.8	-63.4	3.9	7.46e-01	0	25	104	0	72	13701
2026-01-07 03:48:17.41	18.23	15.23	-49.7	-61.1	3.9	7.42e-01	0	25	104	0	68	13160
2026-01-07 03:48:18.41	18.12	15.34	-49.6	-60.9	3.8	7.46e-01	0	25	104	0	68	12897
2026-01-07 03:48:19.40	18.01	15.45	-49.6	-60.9	3.9	7.45e-01	0	25	104	0	68	12861
2026-01-07 03:48:20.41	17.90	15.55	-50.8	-62.3	3.9	7.50e-01	0	25	104	0	70	13515
2026-01-07 03:48:21.41	17.79	15.66	-51.3	-63.1	3.8	7.48e-01	0	25	104	0	70	14743
2026-01-07 03:48:22.41	17.67	15.77	-55.0	-67.9	3.9	7.43e-01	0	25	104	0	79	15388
2026-01-07 03:48:23.41	17.56	15.88	-50.3	-62.0	3.9	7.47e-01	0	25	104	0	70	12972
2026-01-07 03:48:24.41	17.44	15.98	-51.1	-62.7	3.9	7.44e-01	0	25	104	0	71	13309
2026-01-07 03:48:25.41	17.33	16.09	-49.7	-61.0	3.8	7.46e-01	0	25	104	0	68	13069
2026-01-07 03:48:26.41	17.21	16.20	-49.6	-61.0	3.8	7.48e-01	0	25	104	0	68	13020
2026-01-07 03:48:27.41	17.09	16.31	-49.6	-60.9	3.9	7.46e-01	0	25	104	0	68	12953
2026-01-07 03:48:28.40	16.97	16.42	-51.3	-63.0	3.9	7.47e-01	0	25	104	0	72	13064
2026-01-07 03:48:29.41	16.85	16.53	-51.4	-63.1	3.8	7.47e-01	0	25	104	0	70	14715
2026-01-07 03:48:30.40	16.73	16.64	-55.0	-68.0	3.9	7.44e-01	0	25	104	0	79	15484
2026-01-07 03:48:31.40	16.61	16.75	-50.8	-62.4	3.9	7.42e-01	0	25	104	0	71	12867
2026-01-07 03:48:32.40	16.48	16.86	-51.0	-62.6	3.9	7.44e-01	0	25	104	0	71	13178
2026-01-07 03:48:33.40	16.36	16.98	-49.7	-61.0	3.8	7.46e-01	0	25	104	0	68	13078
2026-01-07 03:48:34.40	16.23	17.09	-49.6	-61.0	3.9	7.45e-01	0	25	104	0	68	12984
2026-01-07 03:48:35.39	16.11	17.20	-49.7	-61.1	3.8	7.48e-01	0	25	104	0	68	13173
2026-01-07 03:48:36.39	15.98	17.31	-51.0	-62.6	3.8	7.47e-01	0	25	104	0	71	13207
2026-01-07 03:48:37.38	15.85	17.43	-51.3	-63.1	3.8	7.47e-01	0	25	104	0	70	14779
2026-01-07 03:48:38.38	15.73	17.54	-55.0	-67.9	3.9	7.44e-01	0	25	104	0	79	15264
2026-01-07 03:48:39.38	15.60	17.65	-50.8	-62.0	3.8	7.45e-01	0	25	104	0	70	13014
2026-01-07 03:48:40.38	15.46	17.77	-51.4	-63.1	3.9	7.43e-01	0	25	104	0	72	13137
2026-01-07 03:48:41.38	15.33	17.88	-49.6	-61.0	3.9	7.48e-01	0	25	104	0	68	13032
2026-01-07 03:48:42.38	15.20	18.00	-49.3	-60.6	3.9	7.46e-01	0	25	104	0	67	13183
2026-01-07 03:48:43.37	15.06	18.12	-49.3	-60.6	3.9	7.48e-01	0	25	104	0	67	13225
2026-01-07 03:48:44.38	14.93	18.23	-50.8	-62.2	3.9	7.44e-01	0	25	104	0	70	13411
2026-01-07 03:48:45.37	14.79	18.35	-51.2	-62.6	3.8	7.48e-01	0	25	104	0	69	14846
2026-01-07 03:48:46.37	14.65	18.47	-54.9	-67.8	3.9	7.44e-01	0	25	104	0	79	15110
2026-01-07 03:48:47.38	14.51	18.59	-50.9	-62.4	3.9	7.48e-01	0	25	104	0	71	12951
2026-01-07 03:48:48.37	14.37	18.70	-51.4	-63.1	3.9	7.43e-01	0	25	104	0	72	13118
2026-01-07 03:48:49.38	14.23	18.83	-49.6	-60.9	3.9	7.46e-01	0	25	104	0	68	12944
2026-01-07 03:48:50.38	14.09	18.94	-49.4	-60.7	3.9	7.45e-01	0	25	104	0	68	12615
2026-01-07 03:48:51.38	13.94	19.06	-49.3	-60.6	3.9	7.47e-01	0	25	104	0	67	13238
2026-01-07 03:48:52.38	13.80	19.19	-49.9	-61.3	3.9	7.45e-01	0	25	104	0	68	13533
2026-01-07 03:48:53.38	13.65	19.31	-51.4	-63.0	3.8	7.49e-01	0	25	104	0	70	14675
2026-01-07 03:48:54.39	13.50	19.43	-55.0	-67.9	3.9	7.43e-01	0	25	104	0	79	15336
2026-01-07 03:48:55.39	13.35	19.55	-51.2	-62.6	3.9	7.44e-01	0	25	104	0	71	13124
2026-01-07 03:48:56.38	13.20	19.67	-51.5	-63.2	3.9	7.47e-01	0	25	104	0	72	13386
2026-01-07 03:48:57.37	13.05	19.79	-49.8	-61.2	3.9	7.45e-01	0	25	104	0	68	13361
2026-01-07 03:48:58.38	12.90	19.92	-49.6	-60.9	3.8	7.42e-01	0	25	104	0	68	12945
2026-01-07 03:48:59.37	12.74	20.04	-49.6	-61.0	3.9	7.48e-01	0	25	104	0	68	12981
2026-01-07 03:49:00.37	12.59	20.16	-51.1	-62.7	3.9	7.44e-01	0	25	104	0	71	13340
2026-01-07 03:49:01.37	12.43	20.29	-51.5	-63.1	3.9	7.45e-01	0	25	104	0	70	14791
2026-01-07 03:49:02.37	12.27	20.41	-55.4	-68.6	3.9	7.45e-01	0	25	104	0	80	15641
2026-01-07 03:49:03.37	12.11	20.54	-51.0	-62.6	3.9	7.47e-01	0	25	104	0	71	13234
2026-01-07 03:49:04.37	11.95	20.67	-51.9	-63.6	3.9	7.43e-01	0	25	104	0	72	14009
2026-01-07 03:49:05.37	11.79	20.79	-50.1	-61.5	3.8	7.43e-01	0	25	104	0	69	13108
2026-01-07 03:49:06.37	11.62	20.92	-50.0	-61.4	3.8	7.45e-01	0	25	104	0	69	12947
2026-01-07 03:49:07.38	11.45	21.05	-49.7	-61.0	3.9	7.47e-01	0	25	104	0	68	13104
2026-01-07 03:49:08.39	11.28	21.18	-50.4	-61.9	3.8	7.49e-01	0	25	104	0	69	13668
2026-01-07 03:49:09.39	11.12	21.30	-51.4	-63.0	3.8	7.43e-01	0	25	104	0	70	14669
2026-01-07 03:49:10.39	10.95	21.43	-55.1	-68.0	3.9	7.49e-01	0	25	104	0	79	15404
2026-01-07 03:49:11.39	10.77	21.56	-51.1	-62.6	3.9	7.46e-01	0	25	104	0	71	13177
2026-01-07 03:49:12.39	10.60	21.69	-51.7	-63.3	3.9	7.47e-01	0	25	104	0	72	13553
2026-01-07 03:49:13.38	10.43	21.82	-49.9	-61.3	3.8	7.46e-01	0	25	104	0	69	12681
2026-01-07 03:49:14.39	10.25	21.95	-49.8	-61.1	3.9	7.46e-01	0	25	104	0	68	13211
2026-01-07 03:49:15.38	10.07	22.08	-50.0	-61.4	3.9	7.48e-01	0	25	104	0	68	13574
2026-01-07 03:49:16.38	9.89	22.21	-51.6	-63.3	3.9	7.45e-01	0	25	104	0	72	13458
2026-01-07 03:49:17.38	9.71	22.34	-51.4	-63.0	3.8	7.44e-01	0	25	104	0	70	14703
2026-01-07 03:49:18.37	9.53	22.48	-55.2	-68.1	3.9	7.49e-01	0	25	104	0	79	15606
2026-01-07 03:49:19.36	9.35	22.61	-52.0	-63.8	3.9	7.46e-01	0	25	104	0	73	13471
2026-01-07 03:49:20.36	9.16	22.74	-52.5	-64.5	3.9	7.49e-01	0	25	104	0	73	14575
2026-01-07 03:49:21.36	8.97	22.87	-50.5	-62.0	3.9	7.43e-01	0	25	104	0	70	13027
2026-01-07 03:49:22.36	8.78	23.01	-50.2	-61.6	3.9	7.43e-01	0	25	104	0	69	13176
2026-01-07 03:49:23.36	8.59	23.14	-50.1	-61.6	3.8	7.46e-01	0	25	104	0	69	13123
2026-01-07 03:49:24.37	8.40	23.28	-51.4	-63.0	3.9	7.48e-01	0	25	104	0	71	13811
2026-01-07 03:49:25.37	8.20	23.41	-51.1	-62.5	3.8	7.47e-01	0	25	104	0	69	14617
2026-01-07 03:49:26.37	8.00	23.55	-55.3	-68.1	3.9	7.44e-01	0	25	104	0	79	15604
2026-01-07 03:49:27.37	7.81	23.69	-51.9	-63.7	3.9	7.46e-01	0	25	104	0	73	13382
2026-01-07 03:49:28.36	7.61	23.82	-52.5	-64.4	3.9	7.48e-01	0	25	104	0	73	14411
2026-01-07 03:49:29.37	7.40	23.96	-50.6	-62.0	3.9	7.42e-01	0	25	104	0	70	13059
2026-01-07 03:49:30.36	7.20	24.09	-50.2	-61.5	3.8	7.43e-01	0	25	104	0	69	13048
2026-01-07 03:49:31.36	6.99	24.23	-50.1	-61.4	3.9	7.46e-01	0	25	104	0	69	12854
2026-01-07 03:49:32.36	6.79	24.37	-51.1	-62.6	3.9	7.45e-01	0	25	104	0	71	13168
2026-01-07 03:49:33.36	6.58	24.51	-50.7	-62.4	3.9	7.47e-01	0	25	104	0	69	14464
2026-01-07 03:49:34.37	6.36	24.65	-55.5	-68.6	3.9	7.43e-01	0	25	104	0	80	15638
2026-01-07 03:49:35.37	6.15	24.79	-51.2	-62.6	3.9	7.43e-01	0	25	104	0	71	13172
2026-01-07 03:49:36.37	5.93	24.93	-51.8	-63.3	3.9	7.46e-01	0	25	104	0	72	13448
2026-01-07 03:49:37.37	5.71	25.07	-50.1	-61.5	3.9	7.47e-01	0	25	104	0	69	13014
2026-01-07 03:49:38.36	5.50	25.21	-49.8	-61.1	3.9	7.46e-01	0	25	104	0	68	13213
2026-01-07 03:49:39.36	5.27	25.35	-49.8	-61.2	3.9	7.45e-01	0	25	104	0	68	13287
2026-01-07 03:49:40.35	5.05	25.49	-51.5	-63.2	3.9	7.43e-01	0	25	104	0	72	13270
2026-01-07 03:49:41.35	4.82	25.63	-50.8	-62.2	3.9	7.47e-01	0	25	104	0	69	14054
2026-01-07 03:49:42.35	4.60	25.77	-55.5	-68.7	3.9	7.45e-01	0	25	104	0	80	15781
2026-01-07 03:49:43.34	4.37	25.91	-51.3	-63.0	3.9	7.49e-01	0	25	104	0	72	13092
2026-01-07 03:49:44.35	4.13	26.05	-52.0	-63.8	3.9	7.46e-01	0	25	104	0	73	13480
2026-01-07 03:49:45.35	3.90	26.20	-49.7	-61.1	3.8	7.45e-01	0	25	104	0	68	13131
2026-01-07 03:49:46.36	3.66	26.34	-49.5	-60.7	3.9	7.48e-01	0	25	104	0	68	12619
2026-01-07 03:49:47.36	3.42	26.48	-49.7	-61.0	3.9	7.44e-01	0	25	104	0	68	13008
2026-01-07 03:49:48.35	3.18	26.63	-51.5	-63.1	3.8	7.46e-01	0	25	104	0	72	13145
2026-01-07 03:49:49.34	2.94	26.77	-50.6	-62.0	3.8	7.45e-01	0	25	104	0	68	14664
2026-01-07 03:49:50.34	2.69	26.91	-55.4	-68.4	3.8	7.45e-01	0	25	104	0	80	15272
2026-01-07 03:49:51.34	2.44	27.06	-51.5	-63.2	3.9	7.42e-01	0	25	104	0	72	13289
2026-01-07 03:49:52.34	2.19	27.20	-51.7	-63.4	3.9	7.46e-01	0	25	104	0	72	13680
2026-01-07 03:49:53.34	1.94	27.35	-49.7	-60.9	3.8	7.46e-01	0	25	104	0	68	12947
2026-01-07 03:49:54.34	1.68	27.49	-49.5	-60.8	3.9	7.47e-01	0	25	104	0	68	12763
2026-01-07 03:49:55.34	1.42	27.64	-49.5	-60.8	3.9	7.45e-01	0	25	104	0	68	12731
2026-01-07 03:49:56.34	1.16	27.78	-51.4	-63.0	3.8	7.46e-01	0	25	104	0	72	13007
2026-01-07 03:49:57.34	0.90	27.93	-50.4	-61.7	3.8	7.44e-01	0	25	104	0	68	14085
2026-01-07 03:49:58.34	0.63	28.07	-55.3	-68.2	3.8	7.45e-01	0	25	104	0	80	15023
2026-01-07 03:49:59.34	0.36	28.22	-51.4	-63.1	3.9	7.45e-01	0	25	104	0	72	13130
2026-01-07 03:50:00.34	0.09	28.36	-51.6	-63.2	3.8	7.45e-01	0	25	104	0	72	13410
2026-01-07 03:50:01.35	359.81	28.51	-49.4	-60.7	3.9	7.47e-01	0	25	104	0	68	12553
2026-01-07 03:50:02.35	359.54	28.66	-49.2	-60.4	3.9	7.46e-01	0	25	104	0	67	12931
2026-01-07 03:50:03.35	359.26	28.80	-49.0	-60.2	3.8	7.45e-01	0	25	104	0	67	12601
2026-01-07 03:50:04.36	358.97	28.95	-51.0	-62.5	3.8	7.46e-01	0	25	104	0	71	13001
2026-01-07 03:50:05.36	358.69	29.10	-50.1	-61.4	3.8	7.47e-01	0	25	104	0	67	14432
2026-01-07 03:50:06.36	358.40	29.25	-55.2	-67.9	3.8	7.44e-01	0	25	104	0	79	15355
2026-01-07 03:50:07.37	358.11	29.39	-50.6	-62.0	3.9	7.42e-01	0	25	104	0	70	13028
2026-01-07 03:50:08.38	357.81	29.54	-51.0	-62.6	3.9	7.45e-01	0	25	104	0	71	13129
2026-01-07 03:50:09.38	357.52	29.69	-49.1	-60.3	3.9	7.48e-01	0	25	104	0	67	12710
2026-01-07 03:50:10.37	357.22	29.83	-49.0	-60.2	3.8	7.46e-01	0	25	104	0	67	12602
2026-01-07 03:50:11.36	356.92	29.98	-49.2	-60.4	3.9	7.46e-01	0	25	104	0	67	12931
2026-01-07 03:50:12.37	356.62	30.12	-51.4	-62.9	3.8	7.42e-01	0	25	104	0	72	12927
2026-01-07 03:50:13.37	356.31	30.27	-50.0	-61.3	3.8	7.46e-01	0	25	104	0	67	14224
2026-01-07 03:50:14.37	356.00	30.42	-55.1	-67.7	3.9	7.41e-01	0	25	104	0	79	14979
2026-01-07 03:50:15.38	355.68	30.56	-50.4	-61.8	3.8	7.45e-01	0	25	104	0	70	12777
2026-01-07 03:50:16.38	355.37	30.71	-50.8	-62.3	3.8	7.44e-01	0	25	104	0	71	12757
2026-01-07 03:50:17.37	355.05	30.85	-49.1	-60.3	3.8	7.44e-01	0	25	104	0	67	12695
2026-01-07 03:50:18.37	354.73	31.00	-49.0	-60.3	3.8	7.48e-01	0	25	104	0	67	12679
2026-01-07 03:50:19.37	354.40	31.14	-49.2	-60.5	3.9	7.48e-01	0	25	104	0	67	12964
2026-01-07 03:50:20.37	354.08	31.29	-50.2	-61.6	3.8	7.47e-01	0	25	104	0	69	13195
2026-01-07 03:50:21.37	353.75	31.43	-50.6	-62.0	3.8	7.42e-01	0	25	104	0	68	14598
2026-01-07 03:50:22.37	353.41	31.58	-54.6	-67.0	3.9	7.48e-01	0	25	104	0	78	14663
2026-01-07 03:50:23.37	353.07	31.72	-50.8	-62.3	3.9	7.45e-01	0	25	104	0	71	12771
2026-01-07 03:50:24.37	352.73	31.87	-50.9	-62.4	3.8	7.44e-01	0	25	104	0	71	12850
2026-01-07 03:50:25.38	352.39	32.01	-49.0	-60.2	3.8	7.45e-01	0	25	104	0	67	12531
2026-01-07 03:50:26.37	352.04	32.15	-49.2	-60.5	3.9	7.45e-01	0	25	104	0	67	13058
2026-01-07 03:50:27.37	351.69	32.29	-49.6	-60.9	3.9	7.49e-01	0	25	104	0	67	13615
2026-01-07 03:50:28.36	351.35	32.43	-51.7	-63.4	3.8	7.46e-01	0	25	104	0	72	13612
2026-01-07 03:50:29.36	350.99	32.58	-50.1	-61.3	3.8	7.44e-01	0	25	104	0	67	14368
2026-01-07 03:50:30.37	350.63	32.72	-54.3	-66.8	3.8	7.48e-01	0	25	104	0	78	14317
2026-01-07 03:50:31.37	350.26	32.86	-50.9	-62.3	3.9	7.46e-01	0	25	104	0	71	12783
2026-01-07 03:50:32.36	349.90	33.00	-51.5	-63.1	3.9	7.45e-01	0	25	104	0	72	13186
2026-01-07 03:50:33.36	349.53	33.14	-49.5	-60.8	3.8	7.46e-01	0	25	104	0	68	12715
2026-01-07 03:50:34.36	349.16	33.27	-49.5	-60.8	3.9	7.45e-01	0	25	104	0	68	12706
2026-01-07 03:50:35.37	348.78	33.41	-49.4	-60.6	3.8	7.48e-01	0	25	104	0	68	12458
2026-01-07 03:50:36.37	348.40	33.55	-50.3	-61.6	3.9	7.44e-01	0	25	104	0	69	13181
2026-01-07 03:50:37.36	348.02	33.69	-50.4	-61.7	3.8	7.46e-01	0	25	104	0	68	14069
2026-01-07 03:50:38.36	347.64	33.82	-55.5	-68.3	3.9	7.46e-01	0	25	104	0	80	15108
2026-01-07 03:50:39.36	347.25	33.96	-51.4	-63.0	3.9	7.44e-01	0	25	104	0	72	12998
2026-01-07 03:50:40.36	346.86	34.09	-51.9	-63.5	3.9	7.45e-01	0	25	104	0	73	13069
2026-01-07 03:50:41.36	346.46	34.22	-49.7	-60.9	3.8	7.45e-01	0	25	104	0	68	12848
2026-01-07 03:50:42.36	346.06	34.35	-49.9	-61.2	3.8	7.47e-01	0	25	104	0	68	13309
2026-01-07 03:50:43.36	345.66	34.49	-49.9	-61.3	3.8	7.44e-01	0	25	104	0	68	13431
2026-01-07 03:50:44.36	345.25	34.62	-52.0	-63.6	3.8	7.45e-01	0	25	104	0	73	13175
2026-01-07 03:50:45.35	344.85	34.74	-50.7	-62.1	3.8	7.47e-01	0	25	104	0	69	13927
2026-01-07 03:50:46.35	344.44	34.87	-55.6	-68.5	3.9	7.52e-01	0	25	104	0	80	15516
2026-01-07 03:50:47.35	344.02	35.00	-51.4	-63.0	3.8	7.47e-01	0	25	104	0	72	13050
2026-01-07 03:50:48.35	343.60	35.12	-52.2	-63.7	3.9	7.45e-01	0	25	104	0	73	13385
2026-01-07 03:50:49.34	343.18	35.25	-50.2	-61.6	3.8	7.45e-01	0	25	104	0	69	13112
2026-01-07 03:50:50.34	342.76	35.37	-50.3	-61.6	3.9	7.46e-01	0	25	104	0	69	13230
2026-01-07 03:50:51.35	342.32	35.49	-50.3	-61.6	3.9	7.46e-01	0	25	104	0	69	13146
2026-01-07 03:50:52.35	341.89	35.61	-52.0	-63.5	3.8	7.45e-01	0	25	104	0	73	13101
2026-01-07 03:50:53.34	341.46	35.73	-50.7	-62.0	3.8	7.48e-01	0	25	104	0	69	13750
2026-01-07 03:50:54.35	341.02	35.85	-55.3	-68.3	3.8	7.46e-01	0	25	104	0	80	15209
2026-01-07 03:50:55.34	340.58	35.97	-51.3	-63.0	3.9	7.47e-01	0	25	104	0	72	13109
2026-01-07 03:50:56.35	340.13	36.08	-52.7	-64.4	3.9	7.47e-01	0	25	104	0	74	13682
2026-01-07 03:50:57.35	339.68	36.19	-50.4	-61.8	3.8	7.45e-01	0	25	104	0	70	12751
2026-01-07 03:50:58.35	339.23	36.31	-50.3	-61.6	3.8	7.46e-01	0	25	104	0	69	13179
2026-01-07 03:50:59.35	338.78	36.42	-50.4	-61.8	3.9	7.41e-01	0	25	104	0	69	13458
2026-01-07 03:51:00.34	338.32	36.52	-51.5	-63.0	3.9	7.46e-01	0	25	104	0	72	13089
2026-01-07 03:51:01.35	337.86	36.63	-51.1	-62.5	3.8	7.44e-01	0	25	104	0	70	13874
2026-01-07 03:51:02.34	337.40	36.74	-56.1	-69.3	3.9	7.47e-01	0	25	104	0	81	16049
2026-01-07 03:51:03.35	336.92	36.84	-51.9	-63.5	3.9	7.45e-01	0	25	104	0	73	13095
2026-01-07 03:51:04.35	336.45	36.94	-52.9	-64.8	3.9	7.44e-01	0	25	104	0	75	13444
2026-01-07 03:51:05.35	335.98	37.04	-50.8	-62.2	3.8	7.47e-01	0	25	104	0	70	13270
2026-01-07 03:51:06.35	335.50	37.14	-50.8	-62.2	3.8	7.46e-01	0	25	104	0	70	13353
2026-01-07 03:51:07.35	335.02	37.24	-50.7	-62.1	3.9	7.46e-01	0	25	104	0	70	13128
2026-01-07 03:51:08.34	334.55	37.33	-52.2	-63.8	3.9	7.46e-01	0	25	104	0	73	13423
2026-01-07 03:51:09.34	334.06	37.42	-51.4	-62.9	3.8	7.44e-01	0	25	104	0	70	14387
2026-01-07 03:51:10.35	333.57	37.51	-56.2	-69.4	3.9	7.46e-01	0	25	104	0	81	16229
2026-01-07 03:51:11.35	333.08	37.60	-51.8	-63.4	3.8	7.42e-01	0	25	104	0	73	12903
2026-01-07 03:51:12.35	332.59	37.68	-53.1	-65.0	3.9	7.43e-01	0	25	104	0	75	13775
2026-01-07 03:51:13.36	332.08	37.77	-50.8	-62.1	3.8	7.44e-01	0	25	104	0	70	13235
2026-01-07 03:51:14.36	331.59	37.85	-50.9	-62.3	3.8	7.46e-01	0	25	104	0	70	13525
2026-01-07 03:51:15.36	331.08	37.93	-51.0	-62.3	3.8	7.44e-01	0	25	104	0	70	13495
2026-01-07 03:51:16.36	330.58	38.01	-53.6	-65.6	3.9	7.43e-01	0	25	104	0	76	13948
2026-01-07 03:51:17.36	330.08	38.08	-51.3	-62.6	3.8	7.47e-01	0	25	104	0	70	13997
2026-01-07 03:51:18.35	329.57	38.15	-56.3	-69.3	3.9	7.42e-01	0	25	104	0	81	16025
2026-01-07 03:51:19.35	329.06	38.22	-51.9	-63.6	3.9	7.45e-01	0	25	104	0	73	13227
2026-01-07 03:51:20.34	328.55	38.29	-53.4	-65.3	3.9	7.45e-01	0	25	104	0	76	13423
2026-01-07 03:51:21.34	328.04	38.35	-50.9	-62.3	3.8	7.47e-01	0	25	104	0	70	13460
2026-01-07 03:51:22.35	327.52	38.42	-50.9	-62.3	3.8	7.46e-01	0	25	104	0	70	13536
2026-01-07 03:51:23.34	327.00	38.48	-50.9	-62.4	3.8	7.49e-01	0	25	104	0	70	13595
2026-01-07 03:51:24.35	326.48	38.53	-52.1	-63.7	3.8	7.44e-01	0	25	104	0	73	13292
2026-01-07 03:51:25.35	325.95	38.59	-51.4	-62.8	3.8	7.47e-01	0	25	104	0	70	14337
2026-01-07 03:51:26.35	325.43	38.64	-56.3	-69.4	3.9	7.47e-01	0	25	104	0	81	16279
2026-01-07 03:51:27.35	324.90	38.69	-51.8	-63.5	3.9	7.46e-01	0	25	104	0	73	13030
2026-01-07 03:51:28.34	324.38	38.74	-53.6	-65.5	3.9	7.46e-01	0	25	104	0	76	13774
2026-01-07 03:51:29.34	323.85	38.78	-50.9	-62.3	3.8	7.43e-01	0	25	104	0	71	12669
2026-01-07 03:51:30.35	323.31	38.82	-50.9	-62.3	3.8	7.47e-01	0	25	104	0	71	12758
2026-01-07 03:51:31.34	322.79	38.86	-50.8	-62.2	3.8	7.47e-01	0	25	104	0	70	13262
2026-01-07 03:51:32.35	322.25	38.90	-52.6	-64.4	3.8	7.44e-01	0	25	104	0	74	13671
2026-01-07 03:51:33.34	321.72	38.93	-51.3	-62.7	3.8	7.48e-01	0	25	104	0	70	14171
2026-01-07 03:51:34.34	321.18	38.96	-56.2	-69.3	3.9	7.46e-01	0	25	104	0	81	16079
2026-01-07 03:51:35.34	320.65	38.99	-51.5	-63.2	3.8	7.46e-01	0	25	104	0	72	13277
2026-01-07 03:51:36.34	320.11	39.02	-53.9	-66.1	3.9	7.44e-01	0	25	104	0	77	13964
2026-01-07 03:51:37.34	319.57	39.04	-51.0	-62.3	3.8	7.43e-01	0	25	104	0	71	12783
2026-01-07 03:51:38.34	319.03	39.06	-50.6	-61.8	3.8	7.44e-01	0	25	104	0	70	12732
2026-01-07 03:51:39.34	318.49	39.07	-51.0	-62.4	3.8	7.46e-01	0	25	104	0	70	13676
2026-01-07 03:51:40.34	317.95	39.09	-52.8	-64.3	3.9	7.43e-01	0	25	104	0	74	13467
2026-01-07 03:51:41.33	317.42	39.10	-51.4	-62.8	3.8	7.47e-01	0	25	104	0	70	14292
2026-01-07 03:51:42.33	316.87	39.11	-56.3	-69.2	3.9	7.45e-01	0	25	104	0	81	15796
2026-01-07 03:51:43.32	316.34	39.11	-51.9	-63.6	3.8	7.43e-01	0	25	104	0	73	13125
2026-01-07 03:51:44.32	315.80	39.11	-54.6	-66.9	3.8	7.43e-01	0	25	104	0	78	14479
2026-01-07 03:51:45.32	315.26	39.11	-51.2	-62.8	3.8	7.47e-01	0	25	104	0	71	13442
2026-01-07 03:51:46.32	314.71	39.11	-51.0	-62.3	3.8	7.48e-01	0	25	104	0	71	12762
2026-01-07 03:51:47.33	314.17	39.10	-50.8	-52.5	15.4	6.02e-01	0	25	0	0	70	4355
2026-01-07 03:51:48.33	313.63	39.10	-50.7	-52.4	15.6	6.04e-01	0	25	0	2097152	70	4309
2026-01-07 03:51:49.32	313.09	39.08	-50.2	-51.9	15.5	6.01e-01	0	25	0	3670016	69	4297
2026-01-07 03:51:50.31	312.56	39.07	-50.3	-52.0	15.5	6.02e-01	0	25	0	5767168	69	4364
2026-01-07 03:51:51.32	312.01	39.05	-50.6	-52.3	15.5	6.03e-01	0	25	0	7340032	69	4509
2026-01-07 03:51:52.32	311.47	39.03	-50.6	-52.4	15.4	6.03e-01	0	25	0	9437184	69	4556
2026-01-07 03:51:53.33	310.93	39.01	-50.5	-52.2	15.5	6.01e-01	0	25	0	11534336	69	4465
2026-01-07 03:51:54.33	310.39	38.98	-50.5	-52.2	15.5	6.03e-01	0	25	0	13107200	69	4448
2026-01-07 03:51:55.33	309.85	38.95	-50.7	-52.4	15.4	6.03e-01	0	25	0	15204352	69	4571
2026-01-07 03:51:56.33	309.32	38.92	-51.1	-52.9	15.4	6.03e-01	0	25	0	16777216	70	4576
2026-01-07 03:51:57.33	308.78	38.89	-50.9	-52.7	15.5	6.01e-01	0	25	0	18874368	70	4445
2026-01-07 03:51:58.34	308.24	38.85	-50.6	-52.3	15.6	6.02e-01	0	25	0	20971520	70	4283
2026-01-07 03:51:59.33	307.72	38.81	-50.5	-52.2	15.7	6.03e-01	0	25	0	22544384	70	4195
2026-01-07 03:52:00.32	307.19	38.77	-50.7	-52.4	15.6	6.02e-01	0	25	0	24641536	70	4316
2026-01-07 03:52:01.32	306.66	38.72	-51.0	-52.8	15.5	6.02e-01	0	25	0	26214400	70	4521
2026-01-07 03:52:02.32	306.14	38.68	-50.7	-52.4	15.6	6.03e-01	0	25	0	28311552	70	4333
2026-01-07 03:52:03.32	305.61	38.62	-50.5	-52.2	15.5	6.02e-01	0	25	0	29884416	69	4469
2026-01-07 03:52:04.32	305.08	38.57	-50.4	-52.1	15.5	6.03e-01	0	25	0	31981568	69	4420
2026-01-07 03:52:05.32	304.56	38.52	-50.3	-52.0	15.6	6.02e-01	0	25	0	34078720	69	4367
2026-01-07 03:52:06.32	304.04	38.46	-50.3	-52.0	15.6	6.03e-01	0	25	0	35651584	69	4376
2026-01-07 03:52:07.32	303.52	38.40	-50.8	-52.5	15.4	6.05e-01	0	25	0	37748736	69	4645
2026-01-07 03:52:08.32	303.01	38.33	-50.9	-52.8	15.3	6.03e-01	0	25	0	39321600	69	4764
2026-01-07 03:52:09.32	302.49	38.27	-51.2	-53.1	15.2	6.03e-01	0	25	0	41418752	70	4680
2026-01-07 03:52:10.32	301.98	38.20	-51.3	-53.2	15.2	6.04e-01	0	25	0	42991616	70	4736
2026-01-07 03:52:11.32	301.47	38.13	-51.0	-52.7	15.3	6.02e-01	0	25	0	45088768	69	4758
2026-01-07 03:52:12.31	300.97	38.06	-50.7	-52.5	15.4	6.02e-01	0	25	0	46661632	69	4615
2026-01-07 03:52:13.31	300.46	37.98	-51.0	-52.9	15.3	6.04e-01	0	25	0	48758784	69	4832
2026-01-07 03:52:14.31	299.96	37.90	-51.7	-53.7	15.2	6.04e-01	0	25	0	50855936	71	4736
2026-01-07 03:52:15.32	299.45	37.82	-52.1	-54.3	15.1	6.04e-01	0	25	0	52428800	71	5078
2026-01-07 03:52:16.32	298.95	37.74	-51.3	-53.2	15.4	6.04e-01	0	25	0	54525952	70	4751
2026-01-07 03:52:17.31	298.46	37.66	-51.1	-52.9	15.4	6.03e-01	0	25	0	56098816	70	4577
2026-01-07 03:52:18.32	297.96	37.57	-51.2	-53.1	15.4	6.01e-01	0	25	0	58195968	71	4404
2026-01-07 03:52:19.32	297.47	37.48	-51.8	-53.9	15.2	6.03e-01	0	25	0	60293120	72	4553
2026-01-07 03:52:20.32	296.99	37.39	-52.4	-54.7	15.0	6.01e-01	0	25	0	61865984	72	5005
2026-01-07 03:52:21.31	296.51	37.30	-51.4	-53.3	15.3	6.05e-01	0	25	0	63963136	70	4777
2026-01-07 03:52:22.31	296.02	37.21	-50.1	-51.7	15.7	6.01e-01	0	25	0	65536000	69	4227
2026-01-07 03:52:23.31	295.54	37.11	-50.7	-52.4	15.5	6.03e-01	0	25	0	67633152	70	4310
2026-01-07 03:52:24.32	295.06	37.01	-51.7	-53.7	15.3	6.03e-01	0	25	0	69206016	72	4474
2026-01-07 03:52:25.32	294.59	36.91	-51.4	-53.4	15.3	6.03e-01	0	25	0	71303168	70	4829
2026-01-07 03:52:26.32	294.12	36.81	-50.7	-52.4	15.4	6.04e-01	0	25	0	72876032	69	4597
2026-01-07 03:52:27.31	293.66	36.70	-50.3	-51.9	15.6	6.03e-01	0	25	0	74973184	69	4332
2026-01-07 03:52:28.30	293.20	36.60	-51.2	-53.1	15.4	6.02e-01	0	25	0	77070336	70	4660
2026-01-07 03:52:29.29	292.74	36.49	-51.4	-53.2	15.3	6.02e-01	0	25	0	78643200	70	4750
2026-01-07 03:52:30.28	292.29	36.38	-50.9	-52.6	15.5	6.03e-01	0	25	0	80740352	70	4439
2026-01-07 03:52:31.28	291.83	36.27	-51.5	-53.5	15.2	6.02e-01	0	25	0	82313216	70	4873
2026-01-07 03:52:32.27	291.39	36.16	-51.6	-53.5	15.2	6.02e-01	0	25	0	84410368	70	4906
2026-01-07 03:52:33.27	290.94	36.05	-50.2	-51.8	15.6	6.03e-01	0	25	0	86507520	69	4287
2026-01-07 03:52:34.27	290.49	35.93	-50.5	-52.2	15.6	6.04e-01	0	25	0	88080384	70	4202
2026-01-07 03:52:35.28	290.05	35.81	-51.4	-53.4	15.3	6.04e-01	0	25	0	90177536	70	4828
2026-01-07 03:52:36.28	289.61	35.70	-50.4	-52.1	15.5	6.02e-01	0	25	0	91750400	69	4417
2026-01-07 03:52:37.28	289.17	35.58	-50.0	-51.6	15.7	6.00e-01	0	25	0	93847552	69	4163
2026-01-07 03:52:38.28	288.74	35.45	-50.8	-52.5	15.3	6.03e-01	0	25	0	95420416	69	4649
2026-01-07 03:52:39.28	288.31	35.33	-50.7	-52.5	15.4	6.04e-01	0	25	0	97517568	69	4619
2026-01-07 03:52:40.27	287.89	35.21	-50.1	-51.7	15.6	6.02e-01	0	25	0	99614720	69	4233
2026-01-07 03:52:41.27	287.47	35.09	-50.9	-52.8	15.3	6.02e-01	0	25	0	101187584	69	4771
2026-01-07 03:52:42.26	287.05	34.96	-50.7	-52.4	15.4	6.04e-01	0	25	0	103284736	69	4593
2026-01-07 03:52:43.26	286.64	34.83	-50.0	-51.6	15.7	6.01e-01	0	25	0	104857600	69	4155
2026-01-07 03:52:44.27	286.22	34.70	-51.0	-52.8	15.3	6.02e-01	0	25	0	106954752	69	4812
2026-01-07 03:52:45.26	285.82	34.57	-50.8	-52.6	15.4	6.01e-01	0	25	0	108527616	69	4654
2026-01-07 03:52:46.25	285.42	34.45	-50.3	-51.9	15.5	6.03e-01	0	25	0	110624768	69	4323
2026-01-07 03:52:47.25	285.01	34.31	-50.5	-52.3	15.4	6.02e-01	0	25	0	112197632	69	4519
2026-01-07 03:52:48.26	284.61	34.18	-50.4	-52.1	15.5	6.03e-01	0	25	0	114294784	69	4403
2026-01-07 03:52:49.25	284.22	34.05	-50.3	-52.0	15.5	6.02e-01	0	25	0	116391936	69	4353
2026-01-07 03:52:50.25	283.83	33.91	-51.6	-53.7	15.2	6.02e-01	0	25	0	117964800	70	4996
2026-01-07 03:52:51.26	283.43	33.78	-50.8	-52.5	15.6	6.05e-01	0	25	0	120061952	70	4347
2026-01-07 03:52:52.26	283.05	33.64	-51.1	-52.9	15.5	6.03e-01	0	25	0	121634816	71	4337
2026-01-07 03:52:53.27	282.66	33.50	-50.6	-52.3	15.4	6.04e-01	0	25	0	123731968	69	4518
2026-01-07 03:52:54.26	282.29	33.37	-50.9	-52.7	15.4	6.03e-01	0	25	0	125304832	70	4481
2026-01-07 03:52:55.26	281.91	33.23	-51.6	-53.6	15.2	6.03e-01	0	25	0	127401984	70	4954
2026-01-07 03:52:56.26	281.54	33.09	-50.5	-52.2	15.6	6.04e-01	0	25	0	129499136	70	4225
2026-01-07 03:52:57.26	281.17	32.95	-51.5	-53.5	15.2	6.01e-01	0	25	0	131072000	70	4889
2026-01-07 03:52:58.25	280.81	32.81	-49.9	-51.5	15.7	6.05e-01	0	25	0	133169152	69	4127
2026-01-07 03:52:59.25	280.45	32.67	-51.5	-53.6	15.2	6.02e-01	0	25	0	134742016	70	4946
2026-01-07 03:53:00.25	280.09	32.53	-49.4	-50.9	15.7	6.03e-01	0	25	0	136839168	68	4075
2026-01-07 03:53:01.25	279.73	32.39	-51.0	-53.0	15.3	6.02e-01	0	25	0	138412032	69	4887
2026-01-07 03:53:02.25	279.38	32.25	-49.5	-51.0	15.7	6.02e-01	0	25	0	140509184	68	4133
2026-01-07 03:53:03.25	279.03	32.10	-50.7	-52.6	15.4	6.04e-01	0	25	0	142606336	69	4665
2026-01-07 03:53:04.25	278.68	31.96	-49.5	-51.1	15.7	6.02e-01	0	25	0	144179200	68	4158
2026-01-07 03:53:05.25	278.34	31.82	-50.6	-52.4	15.3	6.02e-01	0	25	0	146276352	68	4845
2026-01-07 03:53:06.25	278.00	31.67	-50.0	-51.6	15.6	6.03e-01	0	25	0	147849216	69	4158
2026-01-07 03:53:07.25	277.66	31.53	-50.5	-52.3	15.3	6.03e-01	0	25	0	149946368	68	4783
2026-01-07 03:53:08.26	277.32	31.38	-50.0	-51.7	15.6	6.04e-01	0	25	0	151519232	69	4198
2026-01-07 03:53:09.25	277.00	31.24	-49.6	-51.2	15.7	6.03e-01	0	25	0	153616384	68	4210
2026-01-07 03:53:10.25	276.67	31.09	-50.6	-52.4	15.4	6.02e-01	0	25	0	155713536	69	4580
2026-01-07 03:53:11.24	276.35	30.95	-49.7	-51.2	15.7	6.03e-01	0	25	0	157286400	68	4229
2026-01-07 03:53:12.25	276.02	30.80	-50.3	-52.0	15.4	6.03e-01	0	25	0	159383552	68	4628
2026-01-07 03:53:13.25	275.70	30.65	-49.8	-51.4	15.6	6.02e-01	0	25	0	160956416	68	4337
2026-01-07 03:53:14.24	275.39	30.51	-49.8	-51.4	15.6	6.04e-01	0	25	0	163053568	68	4337
2026-01-07 03:53:15.24	275.08	30.36	-50.3	-52.0	15.4	6.02e-01	0	25	0	165150720	68	4648
2026-01-07 03:53:16.24	274.77	30.22	-50.0	-51.7	15.5	6.03e-01	0	25	0	166723584	68	4462
2026-01-07 03:53:17.24	274.46	30.07	-50.3	-52.0	15.4	6.01e-01	0	25	0	168820736	68	4624
2026-01-07 03:53:18.24	274.16	29.92	-50.6	-52.5	15.4	6.02e-01	0	25	0	170393600	69	4600
2026-01-07 03:53:19.23	273.86	29.78	-49.8	-51.4	15.6	6.01e-01	0	25	0	172490752	68	4309
2026-01-07 03:53:20.23	273.56	29.63	-50.0	-51.7	15.5	6.02e-01	0	25	0	174063616	68	4469
2026-01-07 03:53:21.22	273.27	29.49	-50.2	-51.9	15.4	6.02e-01	0	25	0	176160768	68	4571
2026-01-07 03:53:22.23	272.97	29.34	-50.1	-51.8	15.5	6.05e-01	0	25	0	178257920	68	4510
2026-01-07 03:53:23.23	272.68	29.19	-50.3	-52.0	15.4	6.03e-01	0	25	0	179830784	68	4639
2026-01-07 03:53:24.24	272.39	29.04	-50.1	-51.9	15.4	6.03e-01	0	25	0	181927936	68	4547
2026-01-07 03:53:25.24	272.11	28.90	-49.8	-51.4	15.6	6.03e-01	0	25	0	183500800	68	4326
2026-01-07 03:53:26.24	271.82	28.75	-50.0	-51.7	15.5	6.04e-01	0	25	0	185597952	68	4445
2026-01-07 03:53:27.25	271.54	28.60	-50.1	-51.8	15.5	6.02e-01	0	25	0	187170816	68	4518
2026-01-07 03:53:28.25	271.27	28.45	-50.1	-51.8	15.5	6.03e-01	0	25	0	189267968	68	4495
2026-01-07 03:53:29.25	270.99	28.31	-50.2	-51.9	15.4	6.01e-01	0	25	0	191365120	68	4569
2026-01-07 03:53:30.24	270.72	28.16	-50.2	-51.9	15.5	6.03e-01	0	25	0	192937984	68	4574
2026-01-07 03:53:31.25	270.45	28.02	-50.1	-51.8	15.5	6.03e-01	0	25	0	195035136	68	4504
2026-01-07 03:53:32.25	270.19	27.87	-50.0	-51.7	15.5	6.04e-01	0	25	0	196608000	68	4477
2026-01-07 03:53:33.24	269.92	27.72	-50.1	-51.8	15.5	6.02e-01	0	25	0	198705152	68	4498
2026-01-07 03:53:34.25	269.66	27.58	-50.3	-52.1	15.4	6.03e-01	0	25	0	200278016	68	4681
2026-01-07 03:53:35.25	269.40	27.43	-50.2	-52.0	15.4	6.03e-01	0	25	0	202375168	68	4620
2026-01-07 03:53:36.25	269.15	27.29	-49.8	-51.5	15.5	6.03e-01	0	25	0	204472320	68	4357
2026-01-07 03:53:37.25	268.89	27.14	-49.9	-51.5	15.6	6.01e-01	0	25	0	206045184	68	4370
2026-01-07 03:53:38.25	268.64	27.00	-50.2	-51.9	15.4	6.04e-01	0	25	0	208142336	68	4568
2026-01-07 03:53:39.26	268.39	26.85	-50.4	-52.2	15.3	6.01e-01	0	25	0	209715200	68	4753
2026-01-07 03:53:40.26	268.14	26.71	-50.1	-51.8	15.5	6.03e-01	0	25	0	211812352	68	4498
2026-01-07 03:53:41.26	267.90	26.56	-50.0	-51.6	15.5	6.04e-01	0	25	0	213909504	68	4425
2026-01-07 03:53:42.26	267.66	26.42	-49.8	-51.5	15.6	6.04e-01	0	25	0	215482368	68	4350
2026-01-07 03:53:43.26	267.42	26.28	-50.1	-51.8	15.5	6.04e-01	0	25	0	217579520	68	4533
2026-01-07 03:53:44.26	267.18	26.13	-50.4	-52.2	15.4	6.03e-01	0	25	0	219152384	68	4726
2026-01-07 03:53:45.24	266.95	25.99	-50.4	-52.2	15.3	6.01e-01	0	25	0	221249536	68	4752
2026-01-07 03:53:46.24	266.71	25.85	-50.5	-52.2	15.3	6.04e-01	0	25	0	222822400	68	4737
2026-01-07 03:53:47.24	266.48	25.71	-50.3	-52.0	15.4	6.02e-01	0	25	0	224919552	68	4635
2026-01-07 03:53:48.24	266.26	25.56	-50.1	-51.8	15.5	6.01e-01	0	25	0	227016704	68	4512
2026-01-07 03:53:49.24	266.03	25.42	-50.1	-51.8	15.5	6.02e-01	0	25	0	228589568	68	4537
2026-01-07 03:53:50.24	265.80	25.28	-50.0	-51.7	15.5	6.04e-01	0	25	0	230686720	68	4472
2026-01-07 03:53:51.24	265.58	25.14	-50.0	-51.7	15.5	6.03e-01	0	25	0	232259584	68	4462
2026-01-07 03:53:52.24	265.36	25.00	-50.1	-51.8	15.5	6.04e-01	0	25	0	234356736	68	4543
2026-01-07 03:53:53.25	265.14	24.86	-50.3	-52.1	15.4	6.03e-01	0	25	0	235929600	68	4658
2026-01-07 03:53:54.25	264.93	24.72	-50.4	-52.1	15.4	6.03e-01	0	25	0	238026752	68	4688
2026-01-07 03:53:55.25	264.71	24.58	-50.3	-52.1	15.4	6.03e-01	0	25	0	240123904	68	4682
2026-01-07 03:53:56.25	264.50	24.44	-50.1	-51.8	15.5	6.03e-01	0	25	0	241696768	68	4537
2026-01-07 03:53:57.25	264.29	24.30	-50.1	-51.9	15.5	6.03e-01	0	25	0	243793920	68	4555
2026-01-07 03:53:58.26	264.08	24.16	-50.1	-51.8	15.5	6.04e-01	0	25	0	245366784	68	4519
2026-01-07 03:53:59.26	263.87	24.02	-50.1	-51.8	15.5	6.03e-01	0	25	0	247463936	68	4499
2026-01-07 03:54:00.26	263.67	23.89	-50.1	-51.9	15.4	6.03e-01	0	25	0	249036800	68	4547
2026-01-07 03:54:01.26	263.47	23.75	-50.2	-52.0	15.4	6.04e-01	0	25	0	251133952	68	4607
2026-01-07 03:54:02.27	263.26	23.61	-50.2	-52.0	15.4	6.04e-01	0	25	0	253231104	68	4599
2026-01-07 03:54:03.27	263.06	23.47	-50.1	-51.8	15.4	6.03e-01	0	25	0	254803968	68	4543
2026-01-07 03:54:04.27	262.87	23.34	-50.1	-51.8	15.5	6.04e-01	0	25	0	256901120	68	4501
2026-01-07 03:54:05.28	262.67	23.20	-50.1	-51.9	15.4	6.01e-01	0	25	0	258998272	68	4553
2026-01-07 03:54:06.29	262.47	23.06	-50.2	-52.0	15.4	6.03e-01	0	25	0	260571136	68	4605
2026-01-07 03:54:07.29	262.28	22.93	-50.3	-52.0	15.4	6.03e-01	0	25	0	262668288	68	4631
2026-01-07 03:54:08.29	262.09	22.80	-50.3	-52.1	15.4	6.03e-01	0	25	0	264241152	68	4672
2026-01-07 03:54:09.30	261.90	22.66	-50.4	-52.2	15.4	6.04e-01	0	25	0	266338304	68	4710
2026-01-07 03:54:10.30	261.72	22.53	-50.2	-52.0	15.4	6.03e-01	0	25	0	267911168	68	4612
2026-01-07 03:54:11.30	261.53	22.39	-50.2	-51.9	15.4	6.03e-01	0	25	0	270008320	68	4592
2026-01-07 03:54:12.31	261.35	22.26	-50.2	-51.9	15.4	6.03e-01	0	25	0	272105472	68	4562
2026-01-07 03:54:13.30	261.17	22.13	-50.2	-51.9	15.4	6.03e-01	0	25	0	273678336	68	4562
2026-01-07 03:54:14.30	260.99	22.00	-50.0	-51.7	15.5	6.02e-01	0	25	0	275775488	68	4450
2026-01-07 03:54:15.30	260.81	21.87	-49.9	-51.6	15.5	6.03e-01	0	25	0	277348352	68	4410
2026-01-07 03:54:16.30	260.63	21.74	-50.1	-51.8	15.5	6.02e-01	0	25	0	279445504	68	4504
2026-01-07 03:54:17.31	260.46	21.60	-50.1	-51.9	15.4	6.03e-01	0	25	0	281018368	68	4550
2026-01-07 03:54:18.31	260.28	21.48	-50.1	-51.8	15.5	6.03e-01	0	25	0	283115520	68	4527
2026-01-07 03:54:19.31	260.11	21.35	-50.1	-51.8	15.4	6.03e-01	0	25	0	285212672	68	4541
2026-01-07 03:54:20.31	259.94	21.22	-50.1	-51.8	15.4	6.02e-01	0	25	0	286785536	68	4540
2026-01-07 03:54:21.31	259.77	21.09	-50.0	-51.7	15.5	5.99e-01	0	25	0	288882688	68	4462
2026-01-07 03:54:22.32	259.60	20.96	-50.0	-51.7	15.5	6.02e-01	0	25	0	290455552	68	4493
2026-01-07 03:54:23.32	259.44	20.83	-50.0	-51.7	15.5	6.04e-01	0	25	0	292552704	68	4464
2026-01-07 03:54:24.32	259.27	20.70	-50.0	-51.7	15.5	6.04e-01	0	25	0	294125568	68	4493
2026-01-07 03:54:25.32	259.11	20.58	-50.0	-51.7	15.5	6.02e-01	0	25	0	296222720	68	4471
2026-01-07 03:54:26.32	258.95	20.45	-50.0	-51.7	15.5	6.03e-01	0	25	0	298319872	68	4469
2026-01-07 03:54:27.33	258.79	20.33	-50.1	-51.8	15.5	6.04e-01	0	25	0	299892736	68	4503
2026-01-07 03:54:28.31	258.63	20.20	-49.8	-51.5	15.6	6.02e-01	0	25	0	301989888	68	4354
2026-01-07 03:54:29.31	258.47	20.08	-49.9	-51.6	15.5	6.03e-01	0	25	0	303562752	68	4394
2026-01-07 03:54:30.31	258.32	19.95	-50.0	-51.7	15.5	6.01e-01	0	25	0	305659904	68	4459
2026-01-07 03:54:31.31	258.16	19.83	-50.0	-51.8	15.5	6.02e-01	0	25	0	307757056	68	4503
2026-01-07 03:54:32.31	258.01	19.71	-50.1	-51.8	15.4	6.01e-01	0	25	0	309329920	68	4515
2026-01-07 03:54:33.31	257.86	19.58	-49.9	-51.6	15.5	6.03e-01	0	25	0	311427072	68	4415
2026-01-07 03:54:34.32	257.70	19.46	-49.9	-51.6	15.5	6.01e-01	0	25	0	312999936	68	4402
2026-01-07 03:54:35.32	257.56	19.34	-50.0	-51.7	15.5	6.05e-01	0	25	0	315097088	68	4467
2026-01-07 03:54:36.32	257.41	19.22	-50.0	-51.8	15.5	5.99e-01	0	25	0	317194240	68	4505
2026-01-07 03:54:37.31	257.26	19.10	-50.0	-51.8	15.5	6.03e-01	0	25	0	318767104	68	4509
2026-01-07 03:54:38.31	257.12	18.98	-50.1	-51.9	15.4	6.03e-01	0	25	0	320864256	68	4568
2026-01-07 03:54:39.31	256.97	18.86	-49.9	-51.6	15.5	6.03e-01	0	25	0	322437120	68	4434
2026-01-07 03:54:40.31	256.83	18.74	-49.8	-51.5	15.5	6.03e-01	0	25	0	324534272	68	4363
2026-01-07 03:54:41.31	256.69	18.62	-49.8	-51.5	15.6	6.05e-01	0	25	0	326107136	68	4376
2026-01-07 03:54:42.30	256.55	18.50	-49.7	-51.4	15.6	6.04e-01	0	25	0	328204288	68	4317
2026-01-07 03:54:43.30	256.41	18.38	-49.8	-51.5	15.6	6.05e-01	0	25	0	329777152	68	4344
2026-01-07 03:54:44.31	256.27	18.26	-50.0	-51.7	15.5	6.03e-01	0	25	0	331874304	68	4453
2026-01-07 03:54:45.30	256.13	18.14	-49.9	-51.6	15.5	6.04e-01	0	25	0	333971456	68	4430
2026-01-07 03:54:46.30	256.00	18.03	-49.9	-51.6	15.5	6.02e-01	0	25	0	335544320	68	4437
2026-01-07 03:54:47.29	255.86	17.91	-49.9	-51.6	15.5	6.03e-01	0	25	0	337641472	68	4395
2026-01-07 03:54:48.30	255.73	17.80	-49.9	-51.6	15.5	6.03e-01	0	25	0	339214336	68	4397
2026-01-07 03:54:49.30	255.59	17.68	-49.8	-51.5	15.6	6.02e-01	0	25	0	341311488	68	4350
2026-01-07 03:54:50.29	255.46	17.57	-49.9	-51.6	15.5	6.03e-01	0	25	0	342884352	68	4414
2026-01-07 03:54:51.29	255.33	17.45	-50.0	-51.7	15.5	6.03e-01	0	25	0	344981504	68	4452
2026-01-07 03:54:52.28	255.20	17.34	-50.0	-51.7	15.5	6.02e-01	0	25	0	347078656	68	4487
2026-01-07 03:54:53.27	255.08	17.22	-50.0	-51.7	15.5	6.02e-01	0	25	0	348651520	68	4491
2026-01-07 03:54:54.27	254.95	17.11	-50.0	-51.7	15.5	6.04e-01	0	25	0	350748672	68	4460
2026-01-07 03:54:55.26	254.82	17.00	-50.0	-51.7	15.5	6.02e-01	0	25	0	352321536	68	4450
2026-01-07 03:54:56.27	254.70	16.89	-49.8	-51.5	15.5	6.04e-01	0	25	0	354418688	68	4381
2026-01-07 03:54:57.27	254.57	16.77	-49.7	-51.4	15.6	6.04e-01	0	25	0	355991552	68	4314
2026-01-07 03:54:58.26	254.45	16.66	-49.7	-51.4	15.6	6.04e-01	0	25	0	358088704	68	4302
2026-01-07 03:54:59.26	254.33	16.55	-49.8	-51.4	15.6	6.04e-01	0	25	0	359661568	68	4334
2026-01-07 03:55:00.26	254.21	16.44	-49.8	-51.5	15.5	6.01e-01	0	25	0	361758720	68	4390
2026-01-07 03:55:01.26	254.09	16.33	-50.0	-51.7	15.5	6.03e-01	0	25	0	363855872	68	4486
2026-01-07 03:55:02.26	253.97	16.22	-50.1	-51.8	15.5	6.03e-01	0	25	0	365428736	68	4530
2026-01-07 03:55:03.27	253.85	16.11	-50.1	-51.8	15.5	6.02e-01	0	25	0	367525888	68	4543
2026-01-07 03:55:04.27	253.73	16.00	-50.0	-51.8	15.5	6.01e-01	0	25	0	369623040	68	4494
2026-01-07 03:55:05.26	253.61	15.89	-50.0	-51.7	15.5	6.04e-01	0	25	0	371195904	68	4463
2026-01-07 03:55:06.26	253.50	15.78	-49.9	-51.6	15.5	6.03e-01	0	25	0	372768768	68	4418
2026-01-07 03:55:07.26	253.38	15.68	-49.8	-51.4	15.6	6.03e-01	0	25	0	374865920	68	4331
2026-01-07 03:55:08.27	253.27	15.57	-49.7	-51.4	15.6	6.04e-01	0	25	0	376963072	68	4302
2026-01-07 03:55:09.27	253.16	15.46	-49.7	-51.4	15.6	6.03e-01	0	25	0	378535936	68	4313
2026-01-07 03:55:10.26	253.04	15.35	-49.9	-51.6	15.5	6.02e-01	0	25	0	380633088	68	4403
2026-01-07 03:55:11.26	252.93	15.25	-50.0	-51.7	15.5	6.04e-01	0	25	0	382205952	68	4475
2026-01-07 03:55:12.26	252.82	15.14	-50.0	-51.7	15.5	6.04e-01	0	25	0	384303104	68	4470
2026-01-07 03:55:13.27	252.71	15.04	-50.0	-51.8	15.5	6.02e-01	0	25	0	386400256	68	4525
2026-01-07 03:55:14.27	252.60	14.93	-50.1	-51.9	15.4	6.02e-01	0	25	0	387973120	68	4557
2026-01-07 03:55:15.27	252.49	14.83	-50.0	-51.7	15.5	6.02e-01	0	25	0	390070272	68	4485
2026-01-07 03:55:16.27	252.39	14.72	-50.0	-51.7	15.5	6.03e-01	0	25	0	391643136	68	4459
2026-01-07 03:55:17.27	252.28	14.62	-50.0	-51.7	15.5	6.03e-01	0	25	0	393740288	68	4461
2026-01-07 03:55:18.28	252.17	14.51	-49.9	-51.6	15.5	6.00e-01	0	25	0	395837440	68	4415
2026-01-07 03:55:19.28	252.07	14.41	-49.8	-51.5	15.5	6.05e-01	0	25	0	397410304	68	4377
2026-01-07 03:55:20.28	251.97	14.31	-49.8	-51.5	15.6	6.04e-01	0	25	0	399507456	68	4351
2026-01-07 03:55:21.28	251.86	14.21	-50.0	-51.7	15.5	6.02e-01	0	25	0	401080320	68	4470
2026-01-07 03:55:22.28	251.76	14.10	-49.9	-51.6	15.5	6.03e-01	0	25	0	403177472	68	4402
2026-01-07 03:55:23.28	251.66	14.00	-50.0	-51.8	15.5	6.01e-01	0	25	0	404750336	68	4513
2026-01-07 03:55:24.28	251.56	13.90	-50.0	-51.7	15.5	6.03e-01	0	25	0	406847488	68	4472
2026-01-07 03:55:25.28	251.46	13.80	-50.1	-51.8	15.4	6.04e-01	0	25	0	408944640	68	4524
2026-01-07 03:55:26.28	251.36	13.70	-50.1	-51.9	15.4	6.04e-01	0	25	0	410517504	68	4556
2026-01-07 03:55:27.29	251.26	13.60	-50.1	-51.9	15.4	6.02e-01	0	25	0	412614656	68	4590
2026-01-07 03:55:28.29	251.16	13.50	-50.1	-51.9	15.4	6.03e-01	0	25	0	414187520	68	4557
2026-01-07 03:55:29.30	251.06	13.40	-50.2	-52.0	15.4	6.02e-01	0	25	0	416284672	68	4602
2026-01-07 03:55:30.30	250.97	13.30	-50.1	-51.9	15.4	6.04e-01	0	25	0	417857536	68	4548
2026-01-07 03:55:31.30	250.87	13.20	-50.1	-51.9	15.4	6.05e-01	0	25	0	419954688	68	4587
2026-01-07 03:55:32.30	250.78	13.10	-50.1	-51.9	15.4	6.02e-01	0	25	0	422051840	68	4591
2026-01-07 03:55:33.29	250.68	13.01	-50.1	-51.9	15.4	6.03e-01	0	25	0	423624704	68	4574
2026-01-07 03:55:34.29	250.59	12.91	-50.2	-52.0	15.4	6.01e-01	0	25	0	425721856	68	4609
2026-01-07 03:55:35.29	250.50	12.81	-50.0	-51.8	15.4	6.02e-01	0	25	0	427294720	68	4523
2026-01-07 03:55:36.29	250.40	12.71	-50.1	-51.9	15.4	6.02e-01	0	25	0	429391872	68	4577
2026-01-07 03:55:37.29	250.31	12.62	-50.1	-51.9	15.4	6.02e-01	0	25	0	431489024	68	4565
2026-01-07 03:55:38.30	250.22	12.52	-50.1	-51.9	15.4	6.05e-01	0	25	0	433061888	68	4587
2026-01-07 03:55:39.30	250.13	12.42	-50.3	-52.1	15.4	6.03e-01	0	25	0	435159040	68	4665
2026-01-07 03:55:40.29	250.04	12.33	-50.3	-52.2	15.3	6.03e-01	0	25	0	436731904	68	4710
2026-01-07 03:55:41.29	249.95	12.24	-50.2	-52.0	15.4	6.02e-01	0	25	0	438829056	68	4618
2026-01-07 03:55:42.29	249.86	12.14	-50.2	-52.0	15.4	6.04e-01	0	25	0	440401920	68	4647
2026-01-07 03:55:43.29	249.78	12.05	-50.3	-52.1	15.4	6.02e-01	0	25	0	442499072	68	4684
2026-01-07 03:55:44.30	249.69	11.95	-50.4	-52.2	15.3	6.03e-01	0	25	0	444596224	68	4753
2026-01-07 03:55:45.30	249.60	11.86	-50.3	-52.1	15.4	6.03e-01	0	25	0	446169088	68	4668
2026-01-07 03:55:46.29	249.52	11.77	-50.3	-52.1	15.4	6.02e-01	0	25	0	448266240	68	4689
2026-01-07 03:55:47.30	249.43	11.67	-50.2	-52.0	15.4	6.04e-01	0	25	0	449839104	68	4627
2026-01-07 03:55:48.30	249.35	11.58	-50.2	-52.0	15.4	6.03e-01	0	25	0	451936256	68	4643
2026-01-07 03:55:49.31	249.26	11.49	-50.1	-51.9	15.4	6.03e-01	0	25	0	453509120	68	4582
2026-01-07 03:55:50.31	249.18	11.39	-50.1	-51.9	15.4	6.03e-01	0	25	0	455606272	68	4578
2026-01-07 03:55:51.30	249.10	11.30	-50.2	-52.0	15.4	6.05e-01	0	25	0	457703424	68	4640
2026-01-07 03:55:52.30	249.01	11.21	-50.2	-52.0	15.4	6.02e-01	0	25	0	459276288	68	4607
2026-01-07 03:55:53.30	248.93	11.12	-50.2	-52.0	15.4	6.03e-01	0	25	0	461373440	68	4618
2026-01-07 03:55:54.30	248.85	11.03	-50.3	-52.1	15.3	6.03e-01	0	25	0	462946304	68	4678
2026-01-07 03:55:55.31	248.77	10.94	-50.4	-52.3	15.3	6.05e-01	0	25	0	465043456	68	4776
2026-01-07 03:55:56.31	248.69	10.85	-50.4	-52.3	15.3	6.02e-01	0	25	0	466616320	68	4781
2026-01-07 03:55:57.31	248.61	10.76	-50.5	-52.4	15.3	6.03e-01	0	25	0	468713472	68	4839
2026-01-07 03:55:58.31	248.53	10.67	-50.5	-52.4	15.3	6.03e-01	0	25	0	470810624	68	4857
2026-01-07 03:55:59.32	248.45	10.58	-50.5	-52.4	15.3	6.03e-01	0	25	0	472383488	68	4819
2026-01-07 03:56:00.33	248.37	10.49	-50.6	-52.5	15.2	6.02e-01	0	25	0	474480640	68	4901
2026-01-07 03:56:01.33	248.30	10.40	-50.6	-52.5	15.4	6.03e-01	0	25	0	476577792	69	4633
2026-01-07 03:56:02.32	248.22	10.31	-50.5	-52.4	15.4	6.04e-01	0	25	0	478150656	69	4555
2026-01-07 03:56:03.32	248.14	10.23	-50.5	-52.4	15.4	6.02e-01	0	25	0	480247808	69	4547
2026-01-07 03:56:04.33	248.07	10.14	-50.5	-52.4	15.4	6.03e-01	0	25	0	481820672	69	4547
2026-01-07 03:56:05.33	247.99	10.05	-50.5	-52.3	15.4	6.04e-01	0	25	0	483917824	69	4533
2026-01-07 03:56:06.34	247.92	9.96	-50.4	-52.3	15.4	6.04e-01	0	25	0	485490688	69	4505
2026-01-07 03:56:07.33	247.84	9.88	-50.6	-52.4	15.4	6.04e-01	0	25	0	487587840	69	4594
2026-01-07 03:56:08.34	247.77	9.79	-50.3	-52.2	15.5	6.05e-01	0	25	0	489684992	69	4447
2026-01-07 03:56:09.34	247.69	9.70	-50.3	-52.2	15.5	6.01e-01	0	25	0	491257856	69	4461
2026-01-07 03:56:10.34	247.62	9.62	-50.4	-52.2	15.5	6.03e-01	0	25	0	493355008	69	4478
2026-01-07 03:56:11.35	247.55	9.53	-50.3	-52.1	15.5	6.01e-01	0	25	0	494927872	69	4440
2026-01-07 03:56:12.36	247.48	9.44	-50.4	-52.2	15.4	6.03e-01	0	25	0	497025024	69	4487
2026-01-07 03:56:13.35	247.41	9.36	-50.4	-52.3	15.4	6.02e-01	0	25	0	498597888	69	4527
2026-01-07 03:56:14.36	247.33	9.27	-50.5	-52.4	15.4	6.02e-01	0	25	0	500695040	69	4549
2026-01-07 03:56:15.37	247.26	9.19	-50.6	-52.5	15.3	6.00e-01	0	25	0	502792192	69	4624
2026-01-07 03:56:16.37	247.19	9.10	-50.6	-52.5	15.3	6.02e-01	0	25	0	504365056	69	4604
2026-01-07 03:56:17.36	247.12	9.02	-50.6	-52.6	15.3	6.02e-01	0	25	0	506462208	69	4659
2026-01-07 03:56:18.37	247.05	8.94	-50.5	-52.4	15.4	6.03e-01	0	25	0	508035072	69	4568
2026-01-07 03:56:19.37	246.98	8.85	-50.6	-52.5	15.3	6.03e-01	0	25	0	510132224	69	4641
2026-01-07 03:56:20.38	246.92	8.77	-50.6	-52.5	15.3	6.05e-01	0	25	0	512229376	69	4644
2026-01-07 03:56:21.38	246.85	8.69	-50.6	-52.5	15.4	6.02e-01	0	25	0	513802240	69	4611
2026-01-07 03:56:22.38	246.78	8.60	-50.7	-52.6	15.3	6.02e-01	0	25	0	515899392	69	4681
2026-01-07 03:56:23.39	246.71	8.52	-50.5	-52.5	15.4	6.04e-01	0	25	0	517472256	69	4600
2026-01-07 03:56:24.39	246.65	8.44	-50.6	-52.5	15.3	6.04e-01	0	25	0	519569408	69	4623
2026-01-07 03:56:25.39	246.58	8.36	-50.6	-52.6	15.3	6.03e-01	0	25	0	521666560	69	4661
2026-01-07 03:56:26.39	246.52	8.28	-50.7	-52.6	15.3	6.03e-01	0	25	0	523239424	69	4687
2026-01-07 03:56:27.39	246.45	8.19	-50.7	-52.6	15.3	6.03e-01	0	25	0	525336576	69	4687
2026-01-07 03:56:28.38	246.39	8.11	-50.7	-52.7	15.3	6.03e-01	0	25	0	526909440	69	4709
2026-01-07 03:56:29.39	246.32	8.03	-50.7	-52.7	15.3	6.03e-01	0	25	0	529006592	69	4731
2026-01-07 03:56:30.39	246.26	7.95	-50.8	-52.8	15.2	6.02e-01	0	25	0	530579456	69	4796
2026-01-07 03:56:31.38	246.19	7.87	-50.8	-52.8	15.2	6.03e-01	0	25	0	532676608	69	4798
2026-01-07 03:56:32.38	246.13	7.79	-50.9	-53.0	15.2	6.03e-01	0	25	0	534773760	69	4884
2026-01-07 03:56:33.38	246.07	7.71	-50.9	-52.9	15.2	6.00e-01	0	25	0	536346624	69	4836
2026-01-07 03:56:34.38	246.01	7.63	-51.0	-53.0	15.2	6.04e-01	0	25	0	538443776	69	4910
2026-01-07 03:56:35.38	245.94	7.55	-51.0	-53.0	15.2	6.03e-01	0	25	0	540016640	69	4919
2026-01-07 03:56:36.38	245.88	7.48	-51.0	-53.1	15.2	6.04e-01	0	25	0	542113792	69	4955
2026-01-07 03:56:37.38	245.82	7.40	-51.0	-53.1	15.2	6.03e-01	0	25	0	543686656	69	4968
2026-01-07 03:56:38.39	245.76	7.32	-51.0	-53.1	15.1	6.05e-01	0	25	0	545783808	69	4969
2026-01-07 03:56:39.39	245.70	7.24	-51.1	-53.2	15.1	6.04e-01	0	25	0	547880960	69	4987
2026-01-07 03:56:40.39	245.64	7.16	-51.1	-53.2	15.1	6.02e-01	0	25	0	549453824	69	4989
2026-01-07 03:56:41.39	245.58	7.08	-50.9	-53.0	15.2	6.03e-01	0	25	0	551550976	69	4874
2026-01-07 03:56:42.39	245.52	7.01	-51.0	-53.1	15.1	6.02e-01	0	25	0	553123840	69	4965
2026-01-07 03:56:43.39	245.46	6.93	-51.0	-53.1	15.2	6.02e-01	0	25	0	555220992	69	4960
2026-01-07 03:56:44.39	245.40	6.85	-51.3	-53.4	15.2	6.02e-01	0	25	0	556793856	70	4842
2026-01-07 03:56:45.39	245.34	6.77	-51.4	-53.5	15.1	6.02e-01	0	25	0	558891008	70	4924
2026-01-07 03:56:46.39	245.29	6.70	-51.4	-53.6	15.1	6.03e-01	0	25	0	560988160	70	4950
2026-01-07 03:56:47.40	245.23	6.62	-51.6	-53.8	15.1	6.01e-01	0	25	0	562561024	71	4792
2026-01-07 03:56:48.39	245.17	6.55	-51.4	-53.6	15.3	6.03e-01	0	25	0	564658176	71	4654
2026-01-07 03:56:49.39	245.11	6.47	-51.4	-53.6	15.2	6.02e-01	0	25	0	566231040	71	4698
2026-01-07 03:56:50.40	245.06	6.39	-51.5	-53.7	15.2	6.04e-01	0	25	0	568328192	71	4715
2026-01-07 03:56:51.39	245.00	6.32	-51.5	-53.7	15.2	6.02e-01	0	25	0	570425344	71	4708
2026-01-07 03:56:52.39	244.94	6.24	-51.3	-53.4	15.3	6.02e-01	0	25	0	571998208	71	4597
2026-01-07 03:56:53.39	244.89	6.17	-51.2	-53.4	15.3	6.01e-01	0	25	0	574095360	71	4554
2026-01-07 03:56:54.39	244.83	6.09	-51.2	-53.4	15.3	6.04e-01	0	25	0	575668224	71	4547
2026-01-07 03:56:55.39	244.78	6.02	-51.3	-53.5	15.3	6.01e-01	0	25	0	577765376	71	4607
2026-01-07 03:56:56.39	244.72	5.94	-51.3	-53.4	15.3	6.02e-01	0	25	0	579338240	71	4586
2026-01-07 03:56:57.40	244.67	5.87	-51.3	-53.5	15.3	6.02e-01	0	25	0	581435392	71	4616
2026-01-07 03:56:58.39	244.62	5.80	-51.4	-53.6	15.2	6.03e-01	0	25	0	583532544	71	4683
2026-01-07 03:56:59.39	244.56	5.72	-51.4	-53.6	15.2	6.04e-01	0	25	0	585105408	71	4697
2026-01-07 03:57:00.40	244.51	5.65	-51.5	-53.7	15.2	6.03e-01	0	25	0	587202560	71	4756
2026-01-07 03:57:01.39	244.46	5.57	-51.5	-53.7	15.2	6.03e-01	0	25	0	588775424	71	4727
2026-01-07 03:57:02.39	244.40	5.50	-51.5	-53.8	15.2	6.03e-01	0	25	0	590872576	71	4791
2026-01-07 03:57:03.39	244.35	5.43	-51.6	-53.8	15.1	6.03e-01	0	25	0	592445440	71	4813
2026-01-07 03:57:04.40	244.30	5.35	-51.4	-53.7	15.2	6.03e-01	0	25	0	594542592	71	4715
2026-01-07 03:57:05.40	244.25	5.28	-51.6	-53.9	15.1	6.03e-01	0	25	0	596639744	71	4822
2026-01-07 03:57:06.40	244.19	5.21	-51.4	-53.6	15.2	6.04e-01	0	25	0	598212608	71	4681
2026-01-07 03:57:07.41	244.14	5.14	-51.5	-53.8	15.2	6.04e-01	0	25	0	600309760	71	4762
2026-01-07 03:57:08.40	244.09	5.07	-51.5	-53.7	15.2	6.05e-01	0	25	0	601882624	71	4759
2026-01-07 03:57:09.40	244.04	4.99	-52.7	-55.1	14.9	6.02e-01	0	25	0	603979776	72	5223
2026-01-07 03:57:10.40	243.99	4.92	-58.0	-77.0	3.8	7.48e-01	0	25	104	605028352	83	34659
2026-01-07 03:57:11.40	243.94	4.85	-58.6	-77.9	3.8	7.49e-01	0	25	104	605028352	84	36289
2026-01-07 03:57:12.40	243.89	4.78	-58.8	-78.1	3.8	7.46e-01	0	25	104	605028352	85	35235
2026-01-07 03:57:13.39	243.84	4.71	-58.9	-78.3	3.8	7.42e-01	0	25	104	605028352	85	35719
2026-01-07 03:57:14.39	243.79	4.64	-59.0	-78.4	3.8	7.47e-01	0	25	104	605028352	85	36257
2026-01-07 03:57:15.40	243.74	4.57	-59.1	-78.5	3.8	7.44e-01	0	25	104	605028352	85	36577
2026-01-07 03:57:16.40	243.69	4.50	-59.3	-78.6	3.8	7.46e-01	0	25	104	605028352	86	35146
2026-01-07 03:57:17.40	243.65	4.43	-59.3	-78.7	3.8	7.45e-01	0	25	104	605028352	86	35559
2026-01-07 03:57:18.40	243.60	4.36	-59.4	-78.8	3.8	7.47e-01	0	25	104	605028352	86	35900
2026-01-07 03:57:19.40	243.55	4.29	-59.5	-78.8	3.8	7.48e-01	0	25	104	605028352	86	36011
2026-01-07 03:57:20.40	243.50	4.22	-59.5	-78.9	3.8	7.47e-01	0	25	104	605028352	86	36158
2026-01-07 03:57:21.40	243.46	4.15	-59.5	-78.9	3.8	7.48e-01	0	25	104	605028352	86	36291
2026-01-07 03:57:22.40	243.41	4.08	-59.6	-78.9	3.8	7.48e-01	0	25	104	605028352	86	36463
2026-01-07 03:57:23.40	243.36	4.01	-59.6	-78.9	3.8	7.47e-01	0	25	104	605028352	86	36502
2026-01-07 03:57:24.40	243.31	3.94	-59.6	-79.0	3.8	7.47e-01	0	25	104	605028352	86	36588
2026-01-07 03:57:25.41	243.27	3.87	-59.6	-78.9	3.8	7.48e-01	0	25	104	605028352	86	36483
2026-01-07 03:57:26.40	243.22	3.80	-59.6	-79.0	3.8	7.43e-01	0	26	104	605028352	86	36558
2026-01-07 03:57:27.41	243.18	3.73	-59.6	-79.0	3.8	7.46e-01	0	25	104	605028352	86	36620
2026-01-07 03:57:28.40	243.13	3.66	-59.6	-79.0	3.8	7.46e-01	0	25	104	605028352	86	36702
2026-01-07 03:57:29.40	243.09	3.60	-59.6	-79.0	3.8	7.44e-01	0	25	104	605028352	87	34702
2026-01-07 03:57:30.40	243.04	3.53	-59.7	-79.0	3.8	7.50e-01	0	25	104	605028352	87	34824
2026-01-07 03:57:31.41	243.00	3.46	-59.7	-79.1	3.8	7.46e-01	0	25	104	605028352	87	35059
