passes_logs/2026/01/07/R3.2S_Murmansk/R3.2S_Murmansk__20260107_065921_SUOMI_NPP_rec.log

#Pass ID: 20260107_065921_SUOMI NPP
#Satellite: SUOMI NPP
#Configuration: NPP
#almurnet v.1.7.20251203
#Start time: 2026-01-07 06:59:21

#Version: 2.2.20231116
#Station: R3.2S_Murmansk
#Location: 33.079688 lon 68.888172 lat
#TLE: 1 37849U 11061A   26005.94084933  .00000134  00000+0  84554-4 0  9990
#TLE: 2 37849  98.7803 308.0679 0002567  79.1029 281.0436 14.19522657735426

#Time	Az	El	Level	Level2	SNR	BER	BlckErr	Temp	State	Recorded	gain1	gain2
2026-01-07 06:59:21.88	93.29	2.02	-57.6	-73.6	3.8	1.49e+00	0	23	0	0	81	22775
2026-01-07 06:59:22.88	93.24	2.08	-57.6	-73.6	3.8	1.49e+00	0	23	104	0	80	23960
2026-01-07 06:59:23.88	93.19	2.14	-57.6	-73.6	3.8	1.49e+00	0	23	104	0	80	23871
2026-01-07 06:59:24.87	93.14	2.20	-57.6	-73.6	3.8	1.49e+00	0	23	104	0	80	23989
2026-01-07 06:59:25.88	93.08	2.26	-57.6	-73.6	3.8	1.49e+00	0	23	104	0	80	23887
2026-01-07 06:59:26.87	93.03	2.32	-57.6	-73.6	3.8	1.49e+00	0	23	104	0	80	23927
2026-01-07 06:59:27.88	92.98	2.38	-57.6	-73.6	3.8	1.49e+00	0	23	104	0	80	23949
2026-01-07 06:59:28.87	92.93	2.44	-57.6	-73.6	3.8	1.49e+00	0	23	104	0	80	23964
2026-01-07 06:59:29.87	92.87	2.50	-57.6	-73.6	3.8	1.49e+00	0	23	104	0	80	23904
2026-01-07 06:59:30.86	92.82	2.56	-57.6	-73.6	3.8	1.49e+00	0	23	104	0	80	23985
2026-01-07 06:59:31.87	92.76	2.62	-57.6	-73.6	3.8	1.49e+00	0	23	104	0	80	23932
2026-01-07 06:59:32.87	92.71	2.68	-57.6	-73.6	3.8	1.49e+00	0	23	104	0	80	24027
2026-01-07 06:59:33.86	92.66	2.74	-57.6	-73.6	3.8	1.49e+00	0	23	104	0	80	23999
2026-01-07 06:59:34.86	92.60	2.80	-57.6	-73.6	3.8	1.49e+00	0	23	104	0	80	24009
2026-01-07 06:59:35.85	92.55	2.86	-57.6	-73.6	3.8	1.49e+00	0	23	104	0	80	24074
2026-01-07 06:59:36.85	92.49	2.92	-57.6	-73.6	3.8	1.49e+00	0	24	104	0	80	24067
2026-01-07 06:59:37.84	92.44	2.98	-57.6	-73.6	3.8	1.49e+00	0	23	104	0	80	24079
2026-01-07 06:59:38.84	92.38	3.05	-57.6	-73.6	3.8	1.49e+00	0	23	104	0	80	24029
2026-01-07 06:59:39.84	92.33	3.11	-57.6	-73.6	3.8	1.49e+00	0	24	104	0	80	24026
2026-01-07 06:59:40.84	92.27	3.17	-57.6	-73.6	3.8	1.49e+00	0	24	104	0	80	23960
2026-01-07 06:59:41.84	92.21	3.23	-57.6	-73.6	3.8	1.49e+00	0	24	104	0	80	23865
2026-01-07 06:59:42.84	92.16	3.29	-57.6	-73.6	3.8	1.49e+00	0	23	104	0	80	24029
2026-01-07 06:59:43.84	92.10	3.35	-57.6	-73.6	3.8	1.49e+00	0	24	104	0	80	23965
2026-01-07 06:59:44.84	92.04	3.41	-57.6	-73.6	3.8	1.49e+00	0	24	104	0	80	24067
2026-01-07 06:59:45.83	91.99	3.48	-57.6	-73.6	3.8	1.49e+00	0	24	104	0	80	23984
2026-01-07 06:59:46.83	91.93	3.54	-57.6	-73.6	3.8	1.49e+00	0	24	104	0	80	23982
2026-01-07 06:59:47.83	91.87	3.60	-57.6	-73.6	3.8	1.49e+00	0	24	104	0	80	23905
2026-01-07 06:59:48.83	91.81	3.66	-57.6	-73.5	3.8	1.49e+00	0	24	104	0	80	23762
2026-01-07 06:59:49.83	91.75	3.72	-57.6	-73.5	3.8	1.49e+00	0	24	104	0	80	23656
2026-01-07 06:59:50.83	91.70	3.79	-57.6	-73.5	3.8	1.49e+00	0	24	104	0	80	23589
2026-01-07 06:59:51.82	91.64	3.85	-57.6	-73.5	3.8	1.49e+00	0	24	104	0	80	23696
2026-01-07 06:59:52.82	91.58	3.91	-57.6	-73.6	3.8	1.49e+00	0	24	104	0	80	23898
2026-01-07 06:59:53.82	91.52	3.97	-57.6	-73.6	3.8	1.49e+00	0	24	104	0	80	23931
2026-01-07 06:59:54.82	91.46	4.04	-57.6	-73.6	3.8	1.49e+00	0	24	104	0	80	24089
2026-01-07 06:59:55.81	91.40	4.10	-57.6	-73.6	3.8	1.49e+00	0	24	104	0	80	23872
2026-01-07 06:59:56.81	91.34	4.16	-57.6	-73.3	3.8	1.49e+00	0	24	104	0	80	23307
2026-01-07 06:59:57.81	91.28	4.23	-57.6	-72.9	3.8	1.49e+00	0	24	104	0	80	22048
2026-01-07 06:59:58.81	91.22	4.29	-57.6	-72.3	3.8	1.49e+00	0	24	104	0	80	20685
2026-01-07 06:59:59.81	91.16	4.35	-57.6	-71.7	3.8	1.49e+00	0	24	104	0	80	19174
2026-01-07 07:00:00.80	91.10	4.42	-57.5	-70.8	4.0	1.49e+00	0	24	104	0	80	17350
2026-01-07 07:00:01.80	91.03	4.48	-57.5	-70.0	4.2	1.39e+00	0	24	0	0	80	15769
2026-01-07 07:00:02.80	90.97	4.54	-57.4	-69.4	4.4	1.32e+00	84	24	0	0	80	14771
2026-01-07 07:00:03.79	90.91	4.61	-57.4	-68.3	4.8	9.35e-01	0	24	0	2097152	80	13032
2026-01-07 07:00:04.80	90.85	4.67	-57.3	-67.8	5.0	7.03e-01	0	24	0	4194304	80	12361
2026-01-07 07:00:05.79	90.79	4.73	-57.2	-67.3	5.3	5.09e-01	0	24	0	6291456	80	11595
2026-01-07 07:00:06.80	90.72	4.80	-57.1	-66.3	6.0	3.78e-01	0	24	0	8388608	80	10305
2026-01-07 07:00:07.79	90.66	4.86	-57.1	-66.4	5.9	2.67e-01	0	24	0	9437184	80	10477
2026-01-07 07:00:08.79	90.60	4.93	-57.1	-65.9	6.2	2.37e-01	0	24	0	11534336	80	9890
2026-01-07 07:00:09.79	90.53	4.99	-57.0	-65.5	6.5	1.83e-01	0	24	0	13631488	80	9428
2026-01-07 07:00:10.78	90.47	5.06	-57.1	-65.6	6.5	1.92e-01	0	24	0	15728640	80	9569
2026-01-07 07:00:11.78	90.40	5.12	-56.0	-60.9	10.6	1.19e-01	0	24	0	16777216	78	6229
2026-01-07 07:00:12.77	90.34	5.19	-57.5	-69.1	4.6	2.21e-01	0	24	0	18874368	80	14301
2026-01-07 07:00:13.77	90.27	5.25	-57.5	-66.7	6.0	6.98e-01	0	24	0	18874368	80	10877
2026-01-07 07:00:14.78	90.21	5.32	-55.4	-59.4	11.7	2.88e-01	0	24	0	20971520	77	5590
2026-01-07 07:00:15.78	90.14	5.38	-55.6	-59.9	11.3	9.07e-05	0	24	0	23068672	77	5920
2026-01-07 07:00:16.78	90.08	5.45	-55.2	-59.2	11.9	2.21e-05	0	24	0	24117248	77	5415
2026-01-07 07:00:17.78	90.01	5.51	-54.9	-58.5	12.3	3.80e-06	0	24	0	26214400	76	5302
2026-01-07 07:00:18.78	89.94	5.58	-55.0	-58.7	12.2	0.00e+00	0	24	0	28311552	76	5403
2026-01-07 07:00:19.78	89.88	5.65	-54.9	-58.5	12.4	7.00e-07	0	24	0	30408704	76	5288
2026-01-07 07:00:20.77	89.81	5.71	-54.9	-58.6	12.3	1.50e-06	0	24	0	31457280	76	5353
2026-01-07 07:00:21.78	89.74	5.78	-54.9	-58.5	12.4	7.00e-07	0	24	0	33554432	76	5282
2026-01-07 07:00:22.78	89.67	5.84	-55.1	-58.9	12.0	3.00e-06	0	24	0	35651584	76	5552
2026-01-07 07:00:23.77	89.61	5.91	-55.0	-58.7	12.1	7.00e-07	0	24	0	37748736	76	5432
2026-01-07 07:00:24.77	89.54	5.98	-54.7	-58.1	12.6	0.00e+00	0	24	0	39845888	76	5079
2026-01-07 07:00:25.77	89.47	6.04	-54.5	-57.7	12.8	0.00e+00	0	24	0	40894464	75	5123
2026-01-07 07:00:26.76	89.40	6.11	-54.7	-58.2	12.4	7.00e-07	0	24	0	42991616	75	5419
2026-01-07 07:00:27.76	89.33	6.18	-54.7	-58.1	12.5	0.00e+00	0	24	0	45088768	75	5367
2026-01-07 07:00:28.75	89.26	6.24	-54.8	-58.4	12.3	7.00e-07	0	24	0	47185920	75	5544
2026-01-07 07:00:29.75	89.19	6.31	-54.8	-58.3	12.4	7.00e-07	0	24	0	49283072	75	5486
2026-01-07 07:00:30.74	89.12	6.38	-54.7	-58.1	12.5	7.00e-07	0	24	0	50331648	75	5371
2026-01-07 07:00:31.73	89.05	6.44	-54.9	-58.5	12.2	1.50e-06	0	24	0	52428800	75	5629
2026-01-07 07:00:32.72	88.98	6.51	-54.6	-58.0	12.6	0.00e+00	0	24	0	54525952	75	5284
2026-01-07 07:00:33.72	88.91	6.58	-54.7	-58.0	12.6	0.00e+00	0	24	0	56623104	75	5337
2026-01-07 07:00:34.72	88.84	6.65	-54.6	-57.9	12.7	1.50e-06	0	24	0	57671680	75	5254
2026-01-07 07:00:35.72	88.76	6.71	-54.5	-57.7	12.9	0.00e+00	0	25	0	59768832	75	5127
2026-01-07 07:00:36.72	88.69	6.78	-54.5	-57.8	12.8	0.00e+00	0	24	0	61865984	75	5197
2026-01-07 07:00:37.72	88.62	6.85	-54.4	-57.6	12.9	0.00e+00	0	24	0	63963136	75	5067
2026-01-07 07:00:38.71	88.54	6.92	-54.5	-57.8	12.8	0.00e+00	0	24	0	66060288	75	5166
2026-01-07 07:00:39.71	88.47	6.99	-54.7	-58.0	12.6	7.00e-07	0	24	0	67108864	75	5337
2026-01-07 07:00:40.71	88.40	7.06	-54.6	-57.9	12.7	0.00e+00	0	25	0	69206016	75	5266
2026-01-07 07:00:41.71	88.32	7.12	-54.3	-57.9	12.7	0.00e+00	0	25	0	71303168	75	5232
2026-01-07 07:00:42.70	88.25	7.19	-54.5	-58.3	12.4	0.00e+00	0	24	0	73400320	75	5521
2026-01-07 07:00:43.70	88.17	7.26	-54.5	-58.2	12.5	7.00e-07	0	24	0	74448896	75	5436
2026-01-07 07:00:44.70	88.10	7.33	-54.4	-58.1	12.6	0.00e+00	0	24	0	76546048	75	5343
2026-01-07 07:00:45.70	88.02	7.40	-54.3	-58.0	12.7	0.00e+00	0	25	0	78643200	75	5280
2026-01-07 07:00:46.70	87.94	7.47	-54.1	-57.6	12.9	0.00e+00	0	24	0	80740352	74	5355
2026-01-07 07:00:47.70	87.87	7.54	-54.3	-58.0	12.6	0.00e+00	0	24	0	82837504	74	5599
2026-01-07 07:00:48.69	87.79	7.61	-54.0	-57.3	13.0	0.00e+00	0	25	0	83886080	74	5191
2026-01-07 07:00:49.69	87.71	7.68	-53.7	-56.8	13.3	0.00e+00	0	25	0	85983232	74	4914
2026-01-07 07:00:50.69	87.64	7.75	-53.8	-57.0	13.2	0.00e+00	0	24	0	88080384	74	5032
2026-01-07 07:00:51.70	87.56	7.82	-53.9	-57.0	13.2	7.00e-07	0	24	0	90177536	74	5023
2026-01-07 07:00:52.70	87.48	7.89	-53.7	-56.8	13.2	0.00e+00	0	25	0	92274688	73	5197
2026-01-07 07:00:53.70	87.40	7.96	-53.6	-56.6	13.4	0.00e+00	0	25	0	93323264	73	5072
2026-01-07 07:00:54.70	87.32	8.03	-53.4	-56.4	13.5	0.00e+00	0	25	0	95420416	73	4932
2026-01-07 07:00:55.70	87.24	8.10	-53.6	-56.6	13.4	0.00e+00	0	24	0	97517568	73	5089
2026-01-07 07:00:56.69	87.16	8.17	-53.6	-56.6	13.4	0.00e+00	0	25	0	99614720	73	5063
2026-01-07 07:00:57.69	87.08	8.24	-53.5	-56.5	13.4	0.00e+00	0	25	0	101711872	73	5025
2026-01-07 07:00:58.69	87.00	8.31	-53.4	-56.4	13.5	0.00e+00	0	25	0	102760448	73	4951
2026-01-07 07:00:59.69	86.92	8.39	-53.4	-56.3	13.5	0.00e+00	0	25	0	104857600	73	4918
2026-01-07 07:01:00.69	86.84	8.46	-53.3	-56.2	13.6	0.00e+00	0	24	0	106954752	73	4838
2026-01-07 07:01:01.69	86.75	8.53	-53.0	-55.8	13.7	0.00e+00	0	25	0	109051904	72	4874
2026-01-07 07:01:02.68	86.67	8.60	-53.0	-55.7	13.8	0.00e+00	0	25	0	110100480	72	4860
2026-01-07 07:01:03.68	86.59	8.67	-53.1	-55.9	13.7	0.00e+00	0	24	0	112197632	72	4963
2026-01-07 07:01:04.68	86.50	8.74	-53.1	-55.9	13.7	0.00e+00	0	25	0	114294784	72	4947
2026-01-07 07:01:05.67	86.42	8.82	-53.0	-55.8	13.8	0.00e+00	0	25	0	116391936	72	4895
2026-01-07 07:01:06.67	86.34	8.89	-53.2	-56.0	13.7	0.00e+00	0	25	0	118489088	72	5013
2026-01-07 07:01:07.66	86.25	8.96	-53.1	-55.9	13.7	0.00e+00	0	25	0	119537664	72	4970
2026-01-07 07:01:08.66	86.17	9.03	-53.1	-55.8	13.8	0.00e+00	0	25	0	121634816	72	4911
2026-01-07 07:01:09.66	86.08	9.11	-53.1	-55.9	13.7	0.00e+00	0	25	0	123731968	72	4977
2026-01-07 07:01:10.65	86.00	9.18	-53.2	-56.1	13.6	0.00e+00	0	25	0	125829120	72	5044
2026-01-07 07:01:11.65	85.91	9.25	-53.3	-56.2	13.5	0.00e+00	0	25	0	126877696	72	5104
2026-01-07 07:01:12.65	85.82	9.32	-53.2	-56.1	13.6	0.00e+00	0	25	0	128974848	72	5077
2026-01-07 07:01:13.65	85.73	9.40	-53.1	-55.8	13.8	0.00e+00	0	25	0	131072000	72	4922
2026-01-07 07:01:14.65	85.65	9.47	-53.2	-56.1	13.6	0.00e+00	0	25	0	133169152	72	5050
2026-01-07 07:01:15.65	85.56	9.55	-53.3	-56.1	13.6	0.00e+00	0	25	0	135266304	72	5087
2026-01-07 07:01:16.65	85.47	9.62	-53.3	-56.2	13.6	0.00e+00	0	25	0	136314880	72	5109
2026-01-07 07:01:17.64	85.38	9.69	-53.3	-56.3	13.5	0.00e+00	0	25	0	138412032	72	5162
2026-01-07 07:01:18.64	85.29	9.77	-53.3	-56.2	13.6	0.00e+00	0	25	0	140509184	72	5111
2026-01-07 07:01:19.63	85.20	9.84	-53.3	-56.2	13.6	0.00e+00	0	25	0	142606336	72	5127
2026-01-07 07:01:20.63	85.11	9.92	-53.2	-56.1	13.6	0.00e+00	0	25	0	144703488	72	5045
2026-01-07 07:01:21.62	85.02	9.99	-53.2	-56.0	13.7	0.00e+00	0	25	0	145752064	72	5023
2026-01-07 07:01:22.62	84.93	10.06	-53.2	-56.0	13.7	0.00e+00	0	25	0	147849216	72	5012
2026-01-07 07:01:23.61	84.84	10.14	-53.2	-55.9	13.7	0.00e+00	0	25	0	149946368	72	4944
2026-01-07 07:01:24.62	84.74	10.21	-53.2	-56.0	13.7	0.00e+00	0	25	0	152043520	72	4990
2026-01-07 07:01:25.61	84.65	10.29	-53.1	-55.8	13.8	0.00e+00	0	25	0	153092096	72	4921
2026-01-07 07:01:26.62	84.56	10.36	-53.1	-55.8	13.8	0.00e+00	0	25	0	155189248	72	4918
2026-01-07 07:01:27.61	84.46	10.44	-53.3	-56.1	13.7	0.00e+00	0	25	0	157286400	72	5042
2026-01-07 07:01:28.61	84.37	10.52	-53.2	-55.9	13.7	0.00e+00	0	25	0	159383552	72	4954
2026-01-07 07:01:29.61	84.27	10.59	-53.1	-55.8	13.8	0.00e+00	0	25	0	161480704	72	4910
2026-01-07 07:01:30.61	84.18	10.67	-53.1	-55.8	13.8	0.00e+00	0	25	0	162529280	72	4887
2026-01-07 07:01:31.61	84.08	10.74	-53.2	-55.9	13.7	0.00e+00	0	25	0	164626432	72	4947
2026-01-07 07:01:32.60	83.98	10.82	-53.0	-55.5	14.0	0.00e+00	0	25	0	166723584	72	4735
2026-01-07 07:01:33.60	83.89	10.90	-52.9	-55.5	14.0	0.00e+00	0	25	0	168820736	72	4720
2026-01-07 07:01:34.61	83.79	10.97	-52.9	-55.4	14.0	0.00e+00	0	25	0	170917888	72	4694
2026-01-07 07:01:35.61	83.69	11.05	-52.9	-55.5	14.0	0.00e+00	0	25	0	171966464	72	4715
2026-01-07 07:01:36.61	83.59	11.13	-52.9	-55.4	14.0	0.00e+00	0	25	0	174063616	72	4688
2026-01-07 07:01:37.61	83.49	11.20	-53.0	-55.6	13.9	0.00e+00	0	24	0	176160768	72	4796
2026-01-07 07:01:38.61	83.39	11.28	-53.0	-55.7	13.9	0.00e+00	0	25	0	178257920	72	4855
2026-01-07 07:01:39.61	83.29	11.36	-53.1	-55.8	13.8	0.00e+00	0	25	0	179306496	72	4909
2026-01-07 07:01:40.61	83.19	11.44	-53.1	-55.8	13.8	0.00e+00	0	25	0	181403648	72	4874
2026-01-07 07:01:41.60	83.09	11.51	-53.1	-55.9	13.8	0.00e+00	0	25	0	183500800	72	4935
2026-01-07 07:01:42.60	82.99	11.59	-52.9	-55.5	14.0	0.00e+00	0	25	0	185597952	72	4741
2026-01-07 07:01:43.60	82.88	11.67	-52.8	-55.3	14.1	0.00e+00	0	25	0	187695104	72	4651
2026-01-07 07:01:44.60	82.78	11.75	-52.9	-55.5	14.0	0.00e+00	0	25	0	188743680	72	4711
2026-01-07 07:01:45.60	82.68	11.83	-52.9	-55.5	14.0	0.00e+00	0	25	0	190840832	72	4713
2026-01-07 07:01:46.60	82.57	11.90	-53.0	-55.6	13.9	0.00e+00	0	25	0	192937984	72	4808
2026-01-07 07:01:47.60	82.47	11.98	-52.9	-55.5	14.0	0.00e+00	0	25	0	195035136	72	4745
2026-01-07 07:01:48.60	82.36	12.06	-53.0	-55.7	13.9	0.00e+00	0	25	0	197132288	72	4849
2026-01-07 07:01:49.60	82.25	12.14	-53.2	-56.1	13.7	0.00e+00	0	25	0	198180864	72	5066
2026-01-07 07:01:50.59	82.15	12.22	-53.2	-56.0	13.7	0.00e+00	0	25	0	200278016	72	5039
2026-01-07 07:01:51.60	82.04	12.30	-53.1	-55.8	13.8	0.00e+00	0	25	0	202375168	72	4907
2026-01-07 07:01:52.60	81.93	12.38	-53.1	-56.0	13.7	0.00e+00	0	25	0	204472320	72	4994
2026-01-07 07:01:53.59	81.82	12.46	-53.0	-55.8	13.9	0.00e+00	0	25	0	205520896	72	4874
2026-01-07 07:01:54.59	81.71	12.54	-52.9	-55.6	14.0	0.00e+00	0	25	0	207618048	72	4786
2026-01-07 07:01:55.60	81.60	12.62	-52.9	-55.5	14.0	0.00e+00	0	25	0	209715200	72	4752
2026-01-07 07:01:56.60	81.49	12.70	-52.9	-55.6	14.0	0.00e+00	0	25	0	211812352	72	4770
2026-01-07 07:01:57.60	81.38	12.78	-53.0	-55.7	13.9	0.00e+00	0	25	0	213909504	72	4869
2026-01-07 07:01:58.61	81.27	12.86	-53.1	-55.8	13.8	0.00e+00	0	25	0	214958080	72	4924
2026-01-07 07:01:59.61	81.16	12.94	-53.2	-56.0	13.7	0.00e+00	0	25	0	217055232	72	5002
2026-01-07 07:02:00.61	81.04	13.02	-53.2	-56.1	13.7	0.00e+00	0	25	0	219152384	72	5061
2026-01-07 07:02:01.62	80.93	13.10	-53.1	-55.9	13.8	0.00e+00	0	25	0	221249536	72	4983
2026-01-07 07:02:02.62	80.82	13.18	-53.0	-55.7	13.9	0.00e+00	0	25	0	223346688	72	4828
2026-01-07 07:02:03.63	80.70	13.27	-53.0	-55.7	13.9	0.00e+00	0	25	0	224395264	72	4862
2026-01-07 07:02:04.62	80.58	13.35	-52.9	-55.5	14.0	0.00e+00	0	25	0	226492416	72	4749
2026-01-07 07:02:05.62	80.47	13.43	-52.9	-55.5	13.9	0.00e+00	0	25	0	228589568	71	5033
2026-01-07 07:02:06.63	80.35	13.51	-52.7	-55.3	14.1	0.00e+00	0	25	0	230686720	71	4872
2026-01-07 07:02:07.63	80.23	13.59	-52.5	-54.9	14.2	0.00e+00	0	25	0	232783872	71	4663
2026-01-07 07:02:08.63	80.11	13.67	-52.6	-55.0	14.2	0.00e+00	0	25	0	233832448	71	4727
2026-01-07 07:02:09.63	80.00	13.76	-52.7	-55.2	14.1	0.00e+00	0	25	0	235929600	71	4836
2026-01-07 07:02:10.64	79.88	13.84	-52.8	-55.3	14.1	0.00e+00	0	25	0	238026752	71	4883
2026-01-07 07:02:11.65	79.75	13.92	-52.6	-55.0	14.1	0.00e+00	0	25	0	240123904	71	4758
2026-01-07 07:02:12.65	79.63	14.01	-52.5	-54.9	14.2	0.00e+00	0	25	0	242221056	71	4676
2026-01-07 07:02:13.65	79.51	14.09	-52.5	-54.9	14.2	0.00e+00	0	25	0	243269632	71	4668
2026-01-07 07:02:14.64	79.39	14.17	-52.5	-54.9	14.2	0.00e+00	0	25	0	245366784	71	4670
2026-01-07 07:02:15.65	79.27	14.25	-52.2	-54.5	14.4	0.00e+00	0	25	0	247463936	71	4456
2026-01-07 07:02:16.64	79.14	14.34	-52.5	-54.8	14.3	0.00e+00	0	25	0	249561088	71	4640
2026-01-07 07:02:17.64	79.02	14.42	-52.6	-55.1	14.2	0.00e+00	0	25	0	250609664	71	4777
2026-01-07 07:02:18.65	78.89	14.50	-52.6	-55.1	14.2	0.00e+00	0	25	0	252706816	71	4774
2026-01-07 07:02:19.65	78.77	14.59	-52.9	-55.4	13.9	0.00e+00	0	25	0	254803968	71	4978
2026-01-07 07:02:20.65	78.64	14.67	-53.0	-55.7	13.8	0.00e+00	0	25	0	256901120	71	5124
2026-01-07 07:02:21.64	78.51	14.75	-53.0	-55.6	13.8	0.00e+00	0	25	0	258998272	71	5087
2026-01-07 07:02:22.64	78.39	14.84	-52.9	-55.5	13.9	0.00e+00	0	25	0	260046848	71	5029
2026-01-07 07:02:23.64	78.26	14.92	-52.6	-55.0	14.2	0.00e+00	0	25	0	262144000	71	4721
2026-01-07 07:02:24.63	78.13	15.01	-52.9	-55.5	14.0	0.00e+00	0	25	0	264241152	71	4985
2026-01-07 07:02:25.64	78.00	15.09	-52.9	-55.5	13.9	0.00e+00	0	25	0	266338304	71	5020
2026-01-07 07:02:26.64	77.87	15.18	-53.0	-55.6	13.9	0.00e+00	0	25	0	268435456	71	5073
2026-01-07 07:02:27.64	77.73	15.26	-53.0	-55.7	13.8	0.00e+00	0	25	0	269484032	71	5152
2026-01-07 07:02:28.64	77.60	15.35	-53.1	-55.8	13.8	0.00e+00	0	25	0	271581184	71	5169
2026-01-07 07:02:29.64	77.47	15.43	-53.0	-55.6	13.9	0.00e+00	0	25	0	273678336	71	5086
2026-01-07 07:02:30.64	77.33	15.52	-53.0	-55.6	13.8	0.00e+00	0	25	0	275775488	71	5097
2026-01-07 07:02:31.64	77.20	15.60	-52.8	-55.3	14.0	0.00e+00	0	25	0	277872640	71	4883
2026-01-07 07:02:32.64	77.06	15.69	-53.0	-55.6	13.8	0.00e+00	0	25	0	278921216	71	5096
2026-01-07 07:02:33.64	76.93	15.77	-52.8	-55.4	14.0	0.00e+00	0	25	0	281018368	71	4948
2026-01-07 07:02:34.64	76.79	15.86	-52.7	-55.2	14.0	0.00e+00	0	25	0	283115520	71	4865
2026-01-07 07:02:35.65	76.65	15.94	-52.8	-55.4	14.0	0.00e+00	0	25	0	285212672	71	4936
2026-01-07 07:02:36.65	76.51	16.03	-52.8	-55.3	14.0	0.00e+00	0	25	0	286261248	71	4909
2026-01-07 07:02:37.66	76.37	16.12	-52.5	-54.9	14.2	0.00e+00	0	25	0	288358400	71	4705
2026-01-07 07:02:38.66	76.23	16.20	-52.7	-55.2	14.1	0.00e+00	0	25	0	290455552	71	4847
2026-01-07 07:02:39.66	76.09	16.29	-52.4	-54.7	14.3	0.00e+00	0	25	0	292552704	71	4589
2026-01-07 07:02:40.66	75.95	16.38	-52.3	-54.7	14.4	0.00e+00	0	25	0	294649856	71	4558
2026-01-07 07:02:41.66	75.80	16.46	-52.4	-54.8	14.3	0.00e+00	0	25	0	295698432	71	4639
2026-01-07 07:02:42.66	75.66	16.55	-52.3	-54.6	14.2	0.00e+00	0	25	0	297795584	70	4814
2026-01-07 07:02:43.65	75.52	16.64	-52.3	-54.6	14.3	0.00e+00	0	25	0	299892736	70	4814
2026-01-07 07:02:44.66	75.37	16.72	-52.2	-54.5	14.3	0.00e+00	0	25	0	301989888	70	4738
2026-01-07 07:02:45.66	75.22	16.81	-51.9	-54.2	14.5	0.00e+00	0	25	0	304087040	70	4550
2026-01-07 07:02:46.66	75.08	16.90	-52.0	-54.2	14.5	0.00e+00	0	25	0	305135616	70	4569
2026-01-07 07:02:47.66	74.93	16.99	-51.7	-53.8	14.7	0.00e+00	0	25	0	307232768	70	4379
2026-01-07 07:02:48.65	74.78	17.07	-51.8	-54.0	14.6	0.00e+00	0	25	0	309329920	70	4455
2026-01-07 07:02:49.65	74.63	17.16	-52.0	-54.1	14.5	0.00e+00	0	25	0	311427072	70	4539
2026-01-07 07:02:50.65	74.48	17.25	-52.0	-54.1	14.5	0.00e+00	0	25	0	312475648	70	4538
2026-01-07 07:02:51.65	74.33	17.34	-52.0	-54.1	14.5	0.00e+00	0	25	0	314572800	70	4540
2026-01-07 07:02:52.65	74.17	17.42	-51.9	-54.1	14.5	0.00e+00	0	25	0	316669952	70	4518
2026-01-07 07:02:53.65	74.02	17.51	-52.0	-54.2	14.5	0.00e+00	0	25	0	318767104	70	4564
2026-01-07 07:02:54.65	73.87	17.60	-52.1	-54.2	14.5	0.00e+00	0	25	0	320864256	70	4585
2026-01-07 07:02:55.65	73.71	17.69	-51.9	-54.0	14.6	0.00e+00	0	25	0	321912832	70	4451
2026-01-07 07:02:56.66	73.55	17.78	-52.0	-54.1	14.5	0.00e+00	0	25	0	324009984	70	4539
2026-01-07 07:02:57.66	73.40	17.86	-52.1	-54.3	14.4	0.00e+00	0	25	0	326107136	70	4639
2026-01-07 07:02:58.67	73.24	17.95	-52.2	-54.4	14.3	0.00e+00	0	25	0	328204288	70	4705
2026-01-07 07:02:59.68	73.08	18.04	-52.1	-54.4	14.4	0.00e+00	0	25	0	330301440	70	4653
2026-01-07 07:03:00.67	72.92	18.13	-52.2	-54.5	14.3	0.00e+00	0	25	0	331350016	70	4739
2026-01-07 07:03:01.66	72.76	18.22	-52.2	-54.4	14.4	0.00e+00	0	25	0	333447168	70	4688
2026-01-07 07:03:02.66	72.60	18.31	-52.2	-54.5	14.3	0.00e+00	0	25	0	335544320	70	4719
2026-01-07 07:03:03.65	72.43	18.40	-52.0	-54.2	14.5	0.00e+00	0	25	0	337641472	70	4574
2026-01-07 07:03:04.65	72.27	18.48	-52.1	-54.3	14.4	0.00e+00	0	25	0	339738624	70	4644
2026-01-07 07:03:05.65	72.11	18.57	-52.2	-54.5	14.4	0.00e+00	0	25	0	340787200	70	4721
2026-01-07 07:03:06.65	71.94	18.66	-52.2	-54.6	14.3	0.00e+00	0	25	0	342884352	70	4801
2026-01-07 07:03:07.65	71.77	18.75	-52.0	-54.3	14.4	0.00e+00	0	25	0	344981504	70	4628
2026-01-07 07:03:08.66	71.60	18.84	-51.9	-54.1	14.5	0.00e+00	0	25	0	347078656	70	4529
2026-01-07 07:03:09.66	71.43	18.93	-51.8	-54.1	14.6	0.00e+00	0	25	0	348127232	70	4502
2026-01-07 07:03:10.66	71.26	19.02	-51.8	-54.0	14.6	0.00e+00	0	25	0	350224384	70	4460
2026-01-07 07:03:11.67	71.09	19.11	-51.6	-53.7	14.7	0.00e+00	0	25	0	352321536	69	4572
2026-01-07 07:03:12.67	70.92	19.20	-51.6	-53.7	14.6	0.00e+00	0	25	0	354418688	69	4570
2026-01-07 07:03:13.67	70.75	19.29	-51.6	-53.7	14.6	0.00e+00	0	25	0	356515840	69	4579
2026-01-07 07:03:14.67	70.57	19.38	-51.8	-53.9	14.5	0.00e+00	0	25	0	357564416	69	4687
2026-01-07 07:03:15.67	70.40	19.47	-51.7	-53.9	14.5	0.00e+00	0	25	0	359661568	69	4656
2026-01-07 07:03:16.67	70.22	19.56	-51.8	-54.0	14.4	0.00e+00	0	25	0	361758720	69	4726
2026-01-07 07:03:17.67	70.05	19.65	-51.9	-54.2	14.4	0.00e+00	0	25	0	363855872	69	4831
2026-01-07 07:03:18.67	69.87	19.74	-52.0	-54.3	14.3	0.00e+00	0	25	0	365953024	69	4914
2026-01-07 07:03:19.67	69.69	19.83	-52.2	-54.5	14.2	0.00e+00	0	25	0	367001600	69	5023
2026-01-07 07:03:20.67	69.51	19.92	-52.3	-54.7	14.1	0.00e+00	0	25	0	369098752	69	5107
2026-01-07 07:03:21.66	69.33	20.01	-52.4	-54.8	14.2	0.00e+00	0	25	0	371195904	70	4909
2026-01-07 07:03:22.67	69.14	20.10	-52.7	-55.2	14.0	0.00e+00	0	25	0	373293056	70	5148
2026-01-07 07:03:23.67	68.96	20.19	-52.8	-55.3	14.0	0.00e+00	0	25	0	375390208	70	5167
2026-01-07 07:03:24.66	68.78	20.28	-52.7	-55.1	14.0	0.00e+00	0	25	0	376438784	70	5074
2026-01-07 07:03:25.66	68.59	20.37	-52.6	-55.0	14.1	0.00e+00	0	25	0	378535936	70	5022
2026-01-07 07:03:26.65	68.41	20.45	-52.6	-55.0	14.1	0.00e+00	0	25	0	380633088	70	4992
2026-01-07 07:03:27.64	68.22	20.54	-52.3	-54.5	14.3	0.00e+00	0	25	0	382730240	70	4740
2026-01-07 07:03:28.64	68.03	20.63	-52.2	-54.5	14.4	0.00e+00	0	25	0	383778816	70	4728
2026-01-07 07:03:29.63	67.84	20.72	-52.3	-54.6	14.3	0.00e+00	0	25	0	385875968	70	4810
2026-01-07 07:03:30.63	67.65	20.81	-52.3	-54.7	14.3	0.00e+00	0	25	0	387973120	70	4817
2026-01-07 07:03:31.63	67.46	20.90	-52.3	-54.6	14.3	0.00e+00	0	25	0	390070272	70	4801
2026-01-07 07:03:32.63	67.27	20.99	-52.4	-54.7	14.2	0.00e+00	0	25	0	392167424	70	4853
2026-01-07 07:03:33.62	67.07	21.08	-52.4	-54.7	14.3	0.00e+00	0	25	0	393216000	70	4830
2026-01-07 07:03:34.62	66.88	21.17	-52.5	-55.0	14.1	0.00e+00	0	25	0	395313152	70	4989
2026-01-07 07:03:35.62	66.68	21.26	-52.6	-55.1	14.1	0.00e+00	0	25	0	397410304	70	5050
2026-01-07 07:03:36.62	66.48	21.35	-52.8	-55.3	14.1	0.00e+00	0	25	0	399507456	71	4893
2026-01-07 07:03:37.61	66.29	21.44	-52.8	-55.3	14.1	0.00e+00	0	25	0	400556032	71	4880
2026-01-07 07:03:38.62	66.08	21.53	-52.7	-55.1	14.1	0.00e+00	0	25	0	402653184	71	4799
2026-01-07 07:03:39.62	65.88	21.62	-52.5	-54.9	14.3	0.00e+00	0	25	0	404750336	71	4665
2026-01-07 07:03:40.62	65.68	21.71	-52.4	-54.6	14.5	0.00e+00	0	25	0	406847488	71	4542
2026-01-07 07:03:41.62	65.48	21.80	-52.3	-54.5	14.5	0.00e+00	0	25	0	408944640	71	4454
2026-01-07 07:03:42.62	65.27	21.88	-52.2	-54.4	14.6	0.00e+00	0	25	0	409993216	71	4403
2026-01-07 07:03:43.62	65.06	21.97	-52.3	-54.6	14.4	0.00e+00	0	25	0	412090368	70	4767
2026-01-07 07:03:44.62	64.86	22.06	-52.3	-54.5	14.4	0.00e+00	0	25	0	414187520	70	4712
2026-01-07 07:03:45.62	64.65	22.15	-52.2	-54.4	14.4	0.00e+00	0	25	0	416284672	70	4653
2026-01-07 07:03:46.62	64.44	22.24	-52.3	-54.6	14.3	0.00e+00	0	25	0	418381824	70	4763
2026-01-07 07:03:47.62	64.23	22.33	-52.4	-54.6	14.3	0.00e+00	0	25	0	419430400	70	4810
2026-01-07 07:03:48.62	64.01	22.42	-52.4	-54.6	14.3	0.00e+00	0	25	0	421527552	70	4810
2026-01-07 07:03:49.62	63.80	22.51	-52.5	-54.8	14.2	0.00e+00	0	25	0	423624704	70	4881
2026-01-07 07:03:50.62	63.59	22.59	-52.5	-54.8	14.2	0.00e+00	0	25	0	425721856	70	4892
2026-01-07 07:03:51.62	63.37	22.68	-52.5	-54.8	14.2	0.00e+00	0	25	0	426770432	70	4903
2026-01-07 07:03:52.62	63.15	22.77	-52.2	-54.3	14.5	0.00e+00	0	25	0	428867584	70	4616
2026-01-07 07:03:53.61	62.94	22.86	-52.0	-54.1	14.5	0.00e+00	0	25	0	430964736	70	4532
2026-01-07 07:03:54.61	62.72	22.95	-51.7	-53.7	14.7	0.00e+00	0	25	0	433061888	70	4297
2026-01-07 07:03:55.60	62.50	23.03	-51.7	-53.7	14.8	0.00e+00	0	25	0	435159040	70	4305
2026-01-07 07:03:56.60	62.28	23.12	-51.6	-53.5	14.7	0.00e+00	0	25	0	436207616	69	4487
2026-01-07 07:03:57.60	62.05	23.21	-51.3	-53.2	14.9	0.00e+00	0	25	0	438304768	69	4322
2026-01-07 07:03:58.59	61.83	23.29	-51.1	-52.9	14.8	0.00e+00	0	25	0	440401920	68	4422
2026-01-07 07:03:59.59	61.60	23.38	-50.4	-52.1	15.0	0.00e+00	0	25	0	442499072	67	4275
2026-01-07 07:04:00.59	61.38	23.47	-50.4	-52.1	15.0	0.00e+00	0	25	0	444596224	67	4265
2026-01-07 07:04:01.60	61.15	23.55	-50.5	-52.3	14.9	0.00e+00	0	25	0	445644800	67	4363
2026-01-07 07:04:02.61	60.91	23.64	-50.7	-52.5	14.8	0.00e+00	0	25	0	447741952	67	4451
2026-01-07 07:04:03.62	60.68	23.73	-50.9	-52.8	14.7	0.00e+00	0	25	0	449839104	67	4627
2026-01-07 07:04:04.62	60.45	23.81	-51.1	-53.0	14.6	0.00e+00	0	25	0	451936256	67	4744
2026-01-07 07:04:05.62	60.21	23.90	-51.2	-53.2	14.5	0.00e+00	0	25	0	454033408	67	4858
2026-01-07 07:04:06.62	59.98	23.98	-51.1	-53.0	14.6	0.00e+00	0	25	0	455081984	67	4744
2026-01-07 07:04:07.62	59.74	24.07	-51.1	-53.0	14.6	0.00e+00	0	25	0	457179136	67	4759
2026-01-07 07:04:08.61	59.51	24.15	-51.1	-53.0	14.6	0.00e+00	0	25	0	459276288	67	4744
2026-01-07 07:04:09.62	59.27	24.24	-51.1	-53.1	14.5	0.00e+00	0	25	0	461373440	67	4778
2026-01-07 07:04:10.62	59.03	24.32	-51.3	-53.3	14.4	0.00e+00	0	25	0	462422016	67	4903
2026-01-07 07:04:11.62	58.78	24.41	-51.2	-53.2	14.5	0.00e+00	0	25	0	464519168	67	4821
2026-01-07 07:04:12.63	58.54	24.49	-51.2	-53.2	14.5	0.00e+00	0	25	0	466616320	67	4823
2026-01-07 07:04:13.63	58.29	24.57	-50.9	-52.8	14.7	0.00e+00	0	25	0	468713472	67	4644
2026-01-07 07:04:14.63	58.05	24.66	-50.8	-52.7	14.7	0.00e+00	0	25	0	470810624	67	4581
2026-01-07 07:04:15.63	57.80	24.74	-50.7	-52.5	14.8	0.00e+00	0	25	0	471859200	67	4492
2026-01-07 07:04:16.62	57.56	24.82	-51.0	-52.9	14.6	0.00e+00	0	25	0	473956352	67	4672
2026-01-07 07:04:17.62	57.31	24.90	-51.3	-53.2	14.5	0.00e+00	0	25	0	476053504	67	4864
2026-01-07 07:04:18.60	57.06	24.98	-51.2	-53.1	14.5	0.00e+00	0	25	0	478150656	67	4805
2026-01-07 07:04:19.60	56.81	25.07	-51.2	-53.1	14.5	0.00e+00	0	25	0	480247808	67	4806
2026-01-07 07:04:20.59	56.56	25.15	-51.2	-53.1	14.5	0.00e+00	0	25	0	481296384	67	4804
2026-01-07 07:04:21.59	56.30	25.23	-51.2	-53.2	14.5	0.00e+00	0	25	0	483393536	67	4861
2026-01-07 07:04:22.59	56.05	25.31	-51.2	-53.1	14.5	0.00e+00	0	25	0	485490688	67	4810
2026-01-07 07:04:23.59	55.79	25.39	-51.4	-53.4	14.4	0.00e+00	0	25	0	487587840	67	4972
2026-01-07 07:04:24.59	55.53	25.47	-51.3	-53.3	14.5	0.00e+00	0	25	0	488636416	67	4889
2026-01-07 07:04:25.59	55.27	25.55	-51.0	-53.0	14.6	0.00e+00	0	25	0	490733568	67	4711
2026-01-07 07:04:26.59	55.01	25.62	-51.0	-52.9	14.7	0.00e+00	0	25	0	492830720	67	4668
2026-01-07 07:04:27.59	54.75	25.70	-50.9	-52.7	14.7	0.00e+00	0	25	0	494927872	67	4595
2026-01-07 07:04:28.58	54.49	25.78	-50.8	-52.6	14.8	0.00e+00	0	25	0	497025024	67	4523
2026-01-07 07:04:29.59	54.22	25.86	-50.7	-52.5	14.8	0.00e+00	0	25	0	498073600	67	4465
2026-01-07 07:04:30.59	53.95	25.94	-50.8	-52.6	14.8	0.00e+00	0	25	0	500170752	67	4502
2026-01-07 07:04:31.58	53.69	26.01	-50.7	-52.5	14.8	0.00e+00	0	25	0	502267904	67	4448
2026-01-07 07:04:32.57	53.42	26.09	-51.2	-53.1	14.6	0.00e+00	0	25	0	504365056	67	4761
2026-01-07 07:04:33.58	53.15	26.16	-51.7	-53.7	14.5	0.00e+00	0	25	0	506462208	68	4831
2026-01-07 07:04:34.58	52.88	26.24	-51.8	-53.8	14.4	0.00e+00	0	25	0	507510784	68	4905
2026-01-07 07:04:35.58	52.61	26.31	-51.7	-53.7	14.6	0.00e+00	0	25	0	509607936	69	4546
2026-01-07 07:04:36.58	52.33	26.39	-51.7	-53.6	14.6	0.00e+00	0	25	0	511705088	69	4539
2026-01-07 07:04:37.58	52.06	26.46	-51.6	-53.5	14.7	0.00e+00	0	25	0	513802240	69	4470
2026-01-07 07:04:38.58	51.78	26.53	-51.5	-53.4	14.7	0.00e+00	0	25	0	515899392	69	4411
2026-01-07 07:04:39.58	51.50	26.60	-51.6	-53.6	14.6	0.00e+00	0	25	0	516947968	69	4511
2026-01-07 07:04:40.58	51.22	26.68	-51.7	-53.6	14.5	0.00e+00	0	25	0	519045120	69	4524
2026-01-07 07:04:41.58	50.94	26.75	-51.7	-53.6	14.5	0.00e+00	0	25	0	521142272	69	4526
2026-01-07 07:04:42.58	50.66	26.82	-51.9	-53.9	14.4	0.00e+00	0	25	0	523239424	69	4666
2026-01-07 07:04:43.58	50.38	26.89	-52.0	-54.1	14.2	0.00e+00	0	25	0	524288000	69	4805
2026-01-07 07:04:44.58	50.09	26.96	-52.2	-54.4	14.1	0.00e+00	0	25	0	526385152	69	4953
2026-01-07 07:04:45.58	49.81	27.03	-52.2	-54.4	14.2	0.00e+00	0	25	0	528482304	69	4951
2026-01-07 07:04:46.59	49.52	27.10	-52.2	-54.5	14.2	0.00e+00	0	25	0	530579456	69	4988
2026-01-07 07:04:47.59	49.23	27.16	-51.8	-53.9	14.4	0.00e+00	0	25	0	532676608	69	4702
2026-01-07 07:04:48.59	48.94	27.23	-51.9	-54.1	14.4	0.00e+00	0	25	0	533725184	69	4763
2026-01-07 07:04:49.59	48.65	27.30	-51.9	-54.0	14.4	0.00e+00	0	25	0	535822336	69	4729
2026-01-07 07:04:50.60	48.36	27.36	-51.9	-54.0	14.3	0.00e+00	0	25	0	537919488	69	4745
2026-01-07 07:04:51.60	48.06	27.43	-51.9	-54.0	14.5	0.00e+00	0	25	0	540016640	69	4717
2026-01-07 07:04:52.60	47.77	27.49	-51.6	-53.6	14.6	0.00e+00	0	25	0	542113792	69	4520
2026-01-07 07:04:53.60	47.47	27.56	-51.6	-53.7	14.5	0.00e+00	0	25	0	543162368	69	4550
2026-01-07 07:04:54.61	47.18	27.62	-51.9	-54.0	14.4	0.00e+00	0	25	0	545259520	69	4725
2026-01-07 07:04:55.61	46.88	27.68	-52.1	-54.3	14.3	0.00e+00	0	25	0	547356672	69	4879
2026-01-07 07:04:56.61	46.58	27.74	-52.1	-54.3	14.0	0.00e+00	0	25	0	549453824	69	4925
2026-01-07 07:04:57.61	46.28	27.80	-51.8	-53.9	13.8	0.00e+00	0	25	0	550502400	69	4655
2026-01-07 07:04:58.61	45.98	27.86	-51.6	-53.6	13.6	0.00e+00	0	25	0	552599552	69	4528
2026-01-07 07:04:59.61	45.68	27.92	-51.6	-53.7	12.7	0.00e+00	0	25	0	554696704	69	4556
2026-01-07 07:05:00.61	45.37	27.98	-51.9	-54.1	12.8	0.00e+00	0	25	0	556793856	69	4793
2026-01-07 07:05:01.61	45.07	28.04	-52.2	-54.4	14.1	0.00e+00	0	25	0	558891008	69	4931
2026-01-07 07:05:02.61	44.76	28.10	-52.0	-54.1	14.3	0.00e+00	0	25	0	559939584	69	4779
2026-01-07 07:05:03.62	44.45	28.15	-51.7	-53.7	14.5	0.00e+00	0	25	0	562036736	69	4561
2026-01-07 07:05:04.61	44.15	28.21	-51.5	-53.4	14.6	0.00e+00	0	25	0	564133888	69	4429
2026-01-07 07:05:05.60	43.84	28.26	-51.5	-53.4	14.7	0.00e+00	0	25	0	566231040	69	4433
2026-01-07 07:05:06.60	43.53	28.32	-51.6	-53.6	14.6	0.00e+00	0	25	0	568328192	69	4515
2026-01-07 07:05:07.59	43.23	28.37	-51.8	-53.9	14.4	0.00e+00	0	25	0	569376768	69	4703
2026-01-07 07:05:08.58	42.92	28.42	-51.9	-54.0	14.4	0.00e+00	0	25	0	571473920	69	4733
2026-01-07 07:05:09.58	42.60	28.47	-51.9	-54.0	14.4	0.00e+00	0	25	0	573571072	69	4743
2026-01-07 07:05:10.58	42.29	28.52	-51.8	-53.9	14.5	0.00e+00	0	25	0	575668224	69	4687
2026-01-07 07:05:11.58	41.98	28.57	-51.5	-53.5	14.7	0.00e+00	0	25	0	577765376	69	4442
2026-01-07 07:05:12.58	41.66	28.62	-51.6	-53.6	14.6	0.00e+00	0	25	0	578813952	69	4526
2026-01-07 07:05:13.58	41.34	28.67	-51.3	-53.1	14.9	0.00e+00	0	25	0	580911104	69	4266
2026-01-07 07:05:14.58	41.03	28.71	-51.1	-52.9	14.8	0.00e+00	0	25	0	583008256	68	4404
2026-01-07 07:05:15.57	40.71	28.76	-51.3	-53.2	14.7	0.00e+00	0	25	0	585105408	68	4580
2026-01-07 07:05:16.56	40.39	28.80	-51.6	-53.6	14.5	0.00e+00	0	25	0	586153984	68	4762
2026-01-07 07:05:17.56	40.07	28.85	-51.6	-53.5	14.5	0.00e+00	0	25	0	588251136	68	4756
2026-01-07 07:05:18.56	39.75	28.89	-51.6	-53.5	14.5	0.00e+00	0	25	0	590348288	68	4748
2026-01-07 07:05:19.56	39.43	28.93	-51.9	-53.9	14.5	0.00e+00	0	25	0	592445440	68	4949
2026-01-07 07:05:20.56	39.11	28.97	-52.2	-54.4	14.3	0.00e+00	0	25	0	594542592	69	4948
2026-01-07 07:05:21.56	38.78	29.01	-52.8	-55.2	14.0	0.00e+00	0	25	0	595591168	70	5130
2026-01-07 07:05:22.56	38.46	29.05	-53.2	-55.9	13.7	0.00e+00	0	25	0	597688320	71	5272
2026-01-07 07:05:23.56	38.14	29.09	-53.3	-56.0	13.8	0.00e+00	0	25	0	599785472	72	4992
2026-01-07 07:05:24.55	37.81	29.13	-53.2	-55.8	13.9	0.00e+00	0	25	0	601882624	72	4925
2026-01-07 07:05:25.55	37.49	29.16	-53.3	-55.9	13.9	0.00e+00	0	25	0	602931200	72	4946
2026-01-07 07:05:26.55	37.16	29.20	-53.3	-55.9	13.9	0.00e+00	0	25	0	605028352	72	4953
2026-01-07 07:05:27.55	36.83	29.23	-53.2	-55.9	13.9	0.00e+00	0	25	0	607125504	72	4954
2026-01-07 07:05:28.55	36.50	29.27	-53.6	-56.4	13.6	0.00e+00	0	25	0	609222656	72	5278
2026-01-07 07:05:29.55	36.17	29.30	-53.5	-56.4	13.6	0.00e+00	0	25	0	611319808	72	5235
2026-01-07 07:05:30.54	35.84	29.33	-53.3	-56.0	13.8	0.00e+00	0	25	0	612368384	72	5022
2026-01-07 07:05:31.54	35.51	29.36	-53.1	-55.7	13.9	0.00e+00	0	25	0	614465536	72	4859
2026-01-07 07:05:32.54	35.18	29.39	-53.0	-55.5	14.1	0.00e+00	0	25	0	616562688	72	4712
2026-01-07 07:05:33.54	34.85	29.42	-52.9	-55.3	14.1	0.00e+00	0	25	0	618659840	72	4646
2026-01-07 07:05:34.53	34.52	29.44	-52.4	-54.7	14.3	0.00e+00	0	25	0	620756992	71	4587
2026-01-07 07:05:35.52	34.19	29.47	-52.4	-54.6	14.4	0.00e+00	0	25	0	621805568	71	4545
2026-01-07 07:05:36.52	33.86	29.50	-52.5	-54.9	14.3	0.00e+00	0	25	0	623902720	71	4656
2026-01-07 07:05:37.53	33.52	29.52	-52.8	-55.4	14.0	0.00e+00	0	25	0	625999872	71	4954
2026-01-07 07:05:38.53	33.19	29.54	-53.3	-56.1	13.6	0.00e+00	0	25	0	628097024	71	5364
2026-01-07 07:05:39.53	32.85	29.56	-53.5	-56.4	13.5	0.00e+00	0	25	0	630194176	72	5270
2026-01-07 07:05:40.54	32.51	29.58	-53.2	-56.1	13.7	0.00e+00	0	25	0	631242752	72	5048
2026-01-07 07:05:41.53	32.18	29.60	-52.6	-55.1	14.2	0.00e+00	0	25	0	633339904	71	4772
2026-01-07 07:05:42.53	31.84	29.62	-52.6	-55.2	14.1	0.00e+00	0	25	0	635437056	71	4828
2026-01-07 07:05:43.53	31.51	29.64	-52.8	-55.4	13.9	0.00e+00	0	25	0	637534208	71	4983
2026-01-07 07:05:44.53	31.17	29.66	-53.0	-55.9	13.7	0.00e+00	0	25	0	638582784	71	5230
2026-01-07 07:05:45.53	30.83	29.67	-53.4	-56.5	13.4	0.00e+00	0	25	0	640679936	71	5609
2026-01-07 07:05:46.53	30.49	29.68	-53.6	-56.8	13.3	0.00e+00	0	25	0	642777088	72	5500
2026-01-07 07:05:47.52	30.16	29.70	-53.4	-56.4	13.6	0.00e+00	0	25	0	644874240	72	5244
2026-01-07 07:05:48.53	29.82	29.71	-53.1	-55.8	13.9	0.00e+00	0	25	0	646971392	72	4900
2026-01-07 07:05:49.52	29.48	29.72	-52.7	-55.2	14.3	0.00e+00	0	25	0	648019968	72	4586
2026-01-07 07:05:50.53	29.14	29.73	-52.3	-54.6	14.4	0.00e+00	0	25	0	650117120	71	4521
2026-01-07 07:05:51.52	28.80	29.74	-51.9	-54.0	14.5	0.00e+00	0	25	0	652214272	70	4492
2026-01-07 07:05:52.52	28.47	29.75	-51.8	-53.9	14.6	0.00e+00	0	25	0	654311424	70	4418
2026-01-07 07:05:53.52	28.13	29.75	-52.0	-54.1	14.6	0.00e+00	0	25	0	655360000	70	4518
2026-01-07 07:05:54.52	27.79	29.76	-52.2	-54.3	14.4	0.00e+00	0	25	0	657457152	70	4650
2026-01-07 07:05:55.52	27.45	29.76	-52.4	-54.8	14.2	0.00e+00	0	25	0	659554304	70	4886
2026-01-07 07:05:56.52	27.11	29.76	-52.8	-55.3	13.9	0.00e+00	0	25	0	661651456	70	5206
2026-01-07 07:05:57.52	26.77	29.77	-53.1	-55.6	13.9	0.00e+00	0	25	0	663748608	71	5089
2026-01-07 07:05:58.52	26.43	29.77	-53.1	-55.7	13.9	0.00e+00	0	25	0	664797184	71	5125
2026-01-07 07:05:59.52	26.09	29.77	-53.2	-55.8	13.8	0.00e+00	0	25	0	666894336	71	5203
2026-01-07 07:06:00.52	25.75	29.76	-53.1	-55.6	14.0	0.00e+00	0	25	0	668991488	71	5045
2026-01-07 07:06:01.52	25.41	29.76	-53.1	-55.6	13.9	0.00e+00	0	25	0	671088640	71	5061
2026-01-07 07:06:02.52	25.07	29.76	-53.1	-55.5	14.0	0.00e+00	0	25	0	673185792	71	5003
2026-01-07 07:06:03.52	24.73	29.75	-52.6	-54.9	14.3	0.00e+00	0	25	0	674234368	71	4652
2026-01-07 07:06:04.52	24.39	29.75	-52.4	-54.5	14.5	0.00e+00	0	25	0	676331520	71	4465
2026-01-07 07:06:05.51	24.06	29.74	-52.2	-54.3	14.5	0.00e+00	0	25	0	678428672	70	4606
2026-01-07 07:06:06.51	23.72	29.73	-52.3	-54.5	14.4	0.00e+00	0	25	0	680525824	70	4717
2026-01-07 07:06:07.51	23.38	29.72	-52.4	-54.6	14.3	0.00e+00	0	25	0	681574400	70	4809
2026-01-07 07:06:08.51	23.04	29.71	-52.7	-55.0	14.1	0.00e+00	0	25	0	683671552	70	5026
2026-01-07 07:06:09.52	22.70	29.70	-52.9	-55.3	14.1	0.00e+00	0	25	0	685768704	71	4893
2026-01-07 07:06:10.52	22.36	29.68	-52.7	-54.9	14.3	0.00e+00	0	25	0	687865856	71	4692
2026-01-07 07:06:11.52	22.02	29.67	-52.4	-54.5	14.5	0.00e+00	0	25	0	689963008	71	4481
2026-01-07 07:06:12.53	21.68	29.66	-52.1	-54.2	14.5	0.00e+00	0	25	0	692060160	70	4548
2026-01-07 07:06:13.53	21.35	29.64	-52.0	-53.9	14.6	0.00e+00	0	25	0	693108736	70	4440
2026-01-07 07:06:14.53	21.01	29.62	-52.2	-54.3	14.5	0.00e+00	0	25	0	695205888	70	4635
2026-01-07 07:06:15.53	20.67	29.60	-52.7	-55.0	14.1	0.00e+00	0	25	0	697303040	70	5016
2026-01-07 07:06:16.53	20.34	29.58	-53.3	-55.9	13.8	0.00e+00	0	25	0	699400192	71	5255
2026-01-07 07:06:17.53	20.00	29.56	-53.5	-56.1	13.8	0.00e+00	0	25	0	700448768	72	5071
2026-01-07 07:06:18.54	19.66	29.54	-53.1	-55.5	14.2	0.00e+00	0	25	0	702545920	72	4732
2026-01-07 07:06:19.53	19.33	29.52	-52.9	-55.2	14.2	0.00e+00	0	25	0	704643072	72	4589
2026-01-07 07:06:20.52	19.00	29.49	-52.4	-54.6	14.4	0.00e+00	0	25	0	706740224	71	4524
2026-01-07 07:06:21.52	18.67	29.47	-52.3	-54.5	14.5	0.00e+00	0	25	0	708837376	71	4447
2026-01-07 07:06:22.51	18.34	29.44	-52.3	-54.5	14.5	0.00e+00	0	25	0	709885952	71	4469
2026-01-07 07:06:23.51	18.01	29.42	-52.6	-54.8	14.3	0.00e+00	0	25	0	711983104	71	4650
2026-01-07 07:06:24.49	17.68	29.39	-52.7	-55.0	14.3	0.00e+00	0	25	0	714080256	71	4739
2026-01-07 07:06:25.49	17.35	29.36	-52.6	-55.0	14.2	0.00e+00	0	25	0	716177408	71	4727
2026-01-07 07:06:26.48	17.02	29.33	-52.3	-54.5	14.5	0.00e+00	0	25	0	717225984	71	4473
2026-01-07 07:06:27.48	16.69	29.30	-52.3	-54.5	14.5	0.00e+00	0	25	0	719323136	71	4460
2026-01-07 07:06:28.48	16.36	29.27	-52.1	-54.2	14.6	0.00e+00	0	25	0	721420288	70	4584
2026-01-07 07:06:29.48	16.03	29.23	-52.2	-54.3	14.4	0.00e+00	0	25	0	723517440	70	4650
2026-01-07 07:06:30.46	15.71	29.20	-52.6	-54.9	14.2	0.00e+00	0	25	0	725614592	70	4940
2026-01-07 07:06:31.45	15.39	29.16	-52.4	-54.7	14.2	0.00e+00	0	25	0	726663168	70	4844
2026-01-07 07:06:32.45	15.06	29.13	-52.4	-54.7	14.3	0.00e+00	0	25	0	728760320	70	4837
2026-01-07 07:06:33.45	14.74	29.09	-52.3	-54.5	14.4	0.00e+00	0	25	0	730857472	70	4717
2026-01-07 07:06:34.45	14.41	29.05	-52.2	-54.4	14.4	0.00e+00	0	25	0	732954624	70	4652
2026-01-07 07:06:35.45	14.09	29.01	-52.2	-54.4	14.4	0.00e+00	0	25	0	734003200	70	4662
2026-01-07 07:06:36.45	13.76	28.97	-52.6	-54.9	14.2	0.00e+00	0	25	0	736100352	70	4940
2026-01-07 07:06:37.45	13.44	28.93	-52.6	-54.9	14.1	0.00e+00	0	25	0	738197504	70	4957
2026-01-07 07:06:38.45	13.12	28.89	-52.9	-55.2	14.2	0.00e+00	0	25	0	740294656	71	4851
2026-01-07 07:06:39.44	12.80	28.85	-52.7	-54.9	14.3	0.00e+00	0	25	0	742391808	71	4681
2026-01-07 07:06:40.45	12.48	28.80	-52.1	-54.1	14.6	0.00e+00	0	25	0	743440384	70	4496
2026-01-07 07:06:41.45	12.16	28.76	-51.8	-53.7	14.7	0.00e+00	0	25	0	745537536	70	4316
2026-01-07 07:06:42.45	11.84	28.71	-51.8	-53.7	14.6	0.00e+00	0	25	0	747634688	69	4546
2026-01-07 07:06:43.45	11.52	28.67	-52.0	-54.0	14.5	0.00e+00	0	25	0	749731840	69	4746
2026-01-07 07:06:44.45	11.21	28.62	-52.3	-54.4	14.3	0.00e+00	0	25	0	751828992	69	4950
2026-01-07 07:06:45.46	10.89	28.57	-52.5	-54.6	14.3	0.00e+00	0	25	0	752877568	70	4769
2026-01-07 07:06:46.46	10.57	28.52	-52.3	-54.3	14.5	0.00e+00	0	25	0	754974720	70	4642
2026-01-07 07:06:47.46	10.26	28.47	-52.2	-54.2	14.5	0.00e+00	0	25	0	757071872	70	4580
2026-01-07 07:06:48.45	9.95	28.42	-52.1	-54.1	14.5	0.00e+00	0	25	0	759169024	70	4545
2026-01-07 07:06:49.45	9.64	28.37	-52.2	-54.2	14.5	0.00e+00	0	25	0	760217600	70	4572
2026-01-07 07:06:50.45	9.33	28.31	-52.4	-54.5	14.4	0.00e+00	0	25	0	762314752	70	4752
2026-01-07 07:06:51.45	9.02	28.26	-52.4	-54.6	14.4	0.00e+00	0	25	0	764411904	70	4772
2026-01-07 07:06:52.46	8.71	28.21	-52.4	-54.5	14.3	0.00e+00	0	25	0	766509056	70	4756
2026-01-07 07:06:53.45	8.41	28.15	-52.6	-54.8	14.2	0.00e+00	0	25	0	768606208	70	4874
2026-01-07 07:06:54.45	8.10	28.09	-52.5	-54.7	14.3	0.00e+00	0	25	0	769654784	70	4829
2026-01-07 07:06:55.46	7.79	28.04	-52.5	-54.6	14.3	0.00e+00	0	25	0	771751936	70	4787
2026-01-07 07:06:56.46	7.49	27.98	-52.6	-54.7	14.2	0.00e+00	0	25	0	773849088	70	4848
2026-01-07 07:06:57.46	7.18	27.92	-53.0	-55.4	14.1	0.00e+00	0	25	0	775946240	71	4946
2026-01-07 07:06:58.45	6.89	27.86	-53.5	-56.1	13.8	0.00e+00	0	25	0	778043392	72	5096
2026-01-07 07:06:59.45	6.58	27.80	-53.8	-56.7	13.5	0.00e+00	0	25	0	779091968	72	5410
2026-01-07 07:07:00.45	6.29	27.74	-54.1	-57.1	13.3	0.00e+00	0	25	0	781189120	73	5395
2026-01-07 07:07:01.44	5.99	27.68	-54.3	-57.3	13.2	0.00e+00	0	25	0	783286272	73	5521
2026-01-07 07:07:02.43	5.70	27.62	-54.1	-57.1	13.3	0.00e+00	0	25	0	785383424	73	5402
2026-01-07 07:07:03.43	5.40	27.56	-54.3	-57.5	13.1	0.00e+00	0	25	0	787480576	73	5622
2026-01-07 07:07:04.43	5.11	27.49	-54.5	-57.8	13.0	0.00e+00	0	25	0	788529152	74	5524
2026-01-07 07:07:05.43	4.81	27.43	-54.5	-57.8	13.0	0.00e+00	0	25	0	790626304	74	5486
2026-01-07 07:07:06.42	4.52	27.36	-54.3	-57.5	13.2	0.00e+00	0	25	0	792723456	74	5308
2026-01-07 07:07:07.42	4.23	27.30	-54.3	-57.6	13.2	0.00e+00	0	25	0	794820608	74	5366
2026-01-07 07:07:08.42	3.94	27.23	-54.3	-57.5	13.2	0.00e+00	0	25	0	795869184	74	5293
2026-01-07 07:07:09.42	3.65	27.17	-53.9	-57.0	13.5	0.00e+00	0	25	0	797966336	74	5000
2026-01-07 07:07:10.42	3.36	27.10	-53.3	-56.0	13.9	0.00e+00	0	25	0	800063488	73	4729
2026-01-07 07:07:11.41	3.08	27.03	-52.8	-55.3	14.1	0.00e+00	0	25	0	802160640	71	4895
2026-01-07 07:07:12.41	2.80	26.96	-52.2	-54.4	14.5	0.00e+00	0	25	0	804257792	71	4439
2026-01-07 07:07:13.41	2.51	26.89	-52.2	-54.4	14.4	0.00e+00	0	25	0	805306368	70	4704
2026-01-07 07:07:14.41	2.23	26.82	-51.7	-53.7	14.7	0.00e+00	0	25	0	807403520	70	4340
2026-01-07 07:07:15.41	1.95	26.75	-51.2	-53.1	14.9	0.00e+00	0	25	0	809500672	69	4280
2026-01-07 07:07:16.41	1.67	26.68	-51.0	-52.8	14.8	0.00e+00	0	25	0	811597824	68	4386
2026-01-07 07:07:17.41	1.39	26.61	-51.3	-53.2	14.7	0.00e+00	0	25	0	812646400	68	4593
2026-01-07 07:07:18.41	1.11	26.54	-51.4	-53.4	14.6	0.00e+00	0	25	0	814743552	68	4688
2026-01-07 07:07:19.41	0.84	26.46	-51.8	-53.9	14.4	0.00e+00	0	25	0	816840704	68	4949
2026-01-07 07:07:20.41	0.56	26.39	-51.8	-53.9	14.5	0.00e+00	0	25	0	818937856	69	4686
2026-01-07 07:07:21.41	0.29	26.32	-51.7	-53.8	14.6	0.00e+00	0	25	0	821035008	69	4600
2026-01-07 07:07:22.40	0.02	26.24	-51.9	-54.0	14.4	0.00e+00	0	25	0	822083584	69	4746
2026-01-07 07:07:23.41	359.74	26.17	-52.0	-54.2	14.4	0.00e+00	0	25	0	824180736	69	4818
2026-01-07 07:07:24.41	359.47	26.09	-52.2	-54.5	14.2	0.00e+00	0	25	0	826277888	69	5018
2026-01-07 07:07:25.41	359.20	26.02	-52.5	-55.0	14.1	0.00e+00	0	25	0	828375040	70	4996
2026-01-07 07:07:26.41	358.94	25.94	-52.6	-55.1	14.1	0.00e+00	0	25	0	830472192	70	5054
2026-01-07 07:07:27.42	358.67	25.86	-52.5	-54.9	14.1	0.00e+00	0	25	0	831520768	70	4954
2026-01-07 07:07:28.42	358.40	25.79	-52.6	-55.1	14.1	0.00e+00	0	25	0	833617920	70	5044
2026-01-07 07:07:29.42	358.14	25.71	-52.7	-55.2	14.0	0.00e+00	0	25	0	835715072	70	5133
2026-01-07 07:07:30.42	357.88	25.63	-53.1	-55.8	13.9	0.00e+00	0	25	0	837812224	71	5165
2026-01-07 07:07:31.42	357.62	25.55	-53.4	-56.3	13.6	0.00e+00	0	25	0	839909376	71	5507
2026-01-07 07:07:32.41	357.36	25.47	-53.5	-56.5	13.6	0.00e+00	0	25	0	840957952	72	5299
2026-01-07 07:07:33.41	357.10	25.39	-53.7	-56.7	13.4	0.00e+00	0	25	0	843055104	72	5434
2026-01-07 07:07:34.41	356.85	25.31	-53.5	-56.2	13.8	0.00e+00	0	25	0	845152256	72	5154
2026-01-07 07:07:35.40	356.59	25.23	-53.3	-55.9	13.9	0.00e+00	0	25	0	847249408	72	4982
2026-01-07 07:07:36.40	356.34	25.15	-53.0	-55.4	14.2	0.00e+00	0	25	0	848297984	72	4683
2026-01-07 07:07:37.41	356.08	25.07	-52.7	-55.0	14.4	0.00e+00	0	25	0	850395136	72	4451
2026-01-07 07:07:38.41	355.83	24.99	-52.2	-54.3	14.5	0.00e+00	0	25	0	852492288	70	4609
2026-01-07 07:07:39.42	355.58	24.91	-52.1	-54.2	14.5	0.00e+00	0	25	0	854589440	70	4548
2026-01-07 07:07:40.41	355.33	24.83	-51.9	-53.9	14.6	0.00e+00	0	25	0	856686592	70	4422
2026-01-07 07:07:41.41	355.09	24.74	-51.9	-54.0	14.5	0.00e+00	0	25	0	857735168	69	4706
2026-01-07 07:07:42.41	354.84	24.66	-51.5	-53.5	14.7	0.00e+00	0	25	0	859832320	69	4447
2026-01-07 07:07:43.42	354.59	24.58	-51.2	-53.1	14.9	0.00e+00	0	25	0	861929472	69	4258
2026-01-07 07:07:44.42	354.35	24.50	-51.1	-52.9	14.8	0.00e+00	0	25	0	864026624	68	4436
2026-01-07 07:07:45.41	354.11	24.41	-51.0	-52.8	14.8	0.00e+00	0	25	0	866123776	68	4377
2026-01-07 07:07:46.41	353.87	24.33	-51.0	-52.8	14.7	0.00e+00	0	25	0	867172352	68	4351
2026-01-07 07:07:47.41	353.63	24.24	-51.1	-52.9	14.8	0.00e+00	0	25	0	869269504	68	4422
2026-01-07 07:07:48.41	353.39	24.16	-51.1	-53.0	14.7	0.00e+00	0	25	0	871366656	68	4452
2026-01-07 07:07:49.41	353.15	24.08	-50.9	-52.6	14.9	0.00e+00	0	25	0	873463808	68	4285
2026-01-07 07:07:50.41	352.92	23.99	-51.0	-52.9	14.8	0.00e+00	0	25	0	874512384	68	4392
2026-01-07 07:07:51.41	352.68	23.91	-50.8	-52.6	15.0	0.00e+00	0	25	0	876609536	68	4243
2026-01-07 07:07:52.42	352.45	23.82	-50.4	-52.2	15.0	0.00e+00	0	25	0	878706688	67	4292
2026-01-07 07:07:53.42	352.21	23.73	-50.3	-52.0	15.0	0.00e+00	0	25	0	880803840	67	4202
2026-01-07 07:07:54.42	351.98	23.65	-50.1	-51.8	15.0	0.00e+00	0	25	0	882900992	66	4356
2026-01-07 07:07:55.42	351.75	23.56	-50.4	-52.1	14.8	0.00e+00	0	25	0	883949568	66	4504
2026-01-07 07:07:56.42	351.53	23.48	-50.3	-52.0	14.9	0.00e+00	0	25	0	886046720	66	4475
2026-01-07 07:07:57.42	351.30	23.39	-50.4	-52.1	14.8	0.00e+00	0	25	0	888143872	66	4541
2026-01-07 07:07:58.42	351.07	23.30	-50.7	-52.5	14.7	0.00e+00	0	25	0	890241024	66	4708
2026-01-07 07:07:59.42	350.85	23.22	-51.0	-52.9	14.6	0.00e+00	0	25	0	892338176	67	4681
2026-01-07 07:08:00.43	350.62	23.13	-51.0	-52.9	14.6	0.00e+00	0	25	0	893386752	67	4691
2026-01-07 07:08:01.43	350.40	23.04	-51.1	-53.0	14.6	0.00e+00	0	25	0	895483904	67	4736
2026-01-07 07:08:02.43	350.18	22.95	-51.1	-53.0	14.6	0.00e+00	0	25	0	897581056	67	4710
2026-01-07 07:08:03.43	349.96	22.86	-51.2	-53.1	14.6	0.00e+00	0	25	0	899678208	67	4770
2026-01-07 07:08:04.43	349.74	22.78	-51.1	-53.0	14.6	0.00e+00	0	25	0	901775360	67	4753
2026-01-07 07:08:05.43	349.53	22.69	-51.1	-53.0	14.6	0.00e+00	0	25	0	902823936	67	4737
2026-01-07 07:08:06.43	349.31	22.60	-50.8	-52.6	14.7	0.00e+00	0	25	0	904921088	67	4535
2026-01-07 07:08:07.43	349.10	22.51	-50.9	-52.7	14.7	0.00e+00	0	25	0	907018240	67	4563
2026-01-07 07:08:08.42	348.89	22.43	-50.9	-52.7	14.7	0.00e+00	0	25	0	909115392	67	4597
2026-01-07 07:08:09.42	348.67	22.34	-50.7	-52.5	14.8	0.00e+00	0	25	0	910163968	67	4488
2026-01-07 07:08:10.43	348.46	22.25	-50.5	-52.3	14.9	0.00e+00	0	25	0	912261120	67	4358
2026-01-07 07:08:11.43	348.25	22.16	-50.2	-51.9	15.1	0.00e+00	0	25	0	914358272	67	4171
2026-01-07 07:08:12.44	348.04	22.07	-50.1	-51.7	15.0	0.00e+00	0	25	0	916455424	66	4309
2026-01-07 07:08:13.43	347.84	21.98	-49.6	-51.2	15.1	0.00e+00	0	25	0	918552576	65	4297
2026-01-07 07:08:14.43	347.63	21.89	-49.6	-51.2	15.1	0.00e+00	0	25	0	919601152	65	4295
2026-01-07 07:08:15.43	347.43	21.80	-49.6	-51.2	15.1	0.00e+00	0	25	0	921698304	65	4293
2026-01-07 07:08:16.44	347.22	21.71	-49.7	-51.3	15.0	0.00e+00	0	25	0	923795456	65	4364
2026-01-07 07:08:17.44	347.02	21.63	-50.0	-51.6	14.9	0.00e+00	0	25	0	925892608	65	4513
2026-01-07 07:08:18.43	346.82	21.54	-50.2	-51.9	14.8	0.00e+00	0	25	0	927989760	65	4688
2026-01-07 07:08:19.43	346.62	21.45	-50.3	-52.0	14.8	0.00e+00	0	25	0	929038336	65	4721
2026-01-07 07:08:20.44	346.42	21.36	-50.2	-51.8	14.8	0.00e+00	0	25	0	931135488	65	4633
2026-01-07 07:08:21.44	346.22	21.27	-50.1	-51.7	14.9	0.00e+00	0	25	0	933232640	65	4575
2026-01-07 07:08:22.44	346.02	21.18	-50.1	-51.7	14.9	0.00e+00	0	25	0	935329792	65	4576
2026-01-07 07:08:23.44	345.83	21.09	-50.1	-51.7	14.8	0.00e+00	0	25	0	937426944	65	4590
2026-01-07 07:08:24.45	345.63	21.00	-50.2	-51.8	14.8	0.00e+00	0	25	0	938475520	65	4627
2026-01-07 07:08:25.45	345.44	20.91	-50.1	-51.7	14.8	0.00e+00	0	25	0	940572672	65	4598
2026-01-07 07:08:26.46	345.25	20.82	-50.2	-51.9	14.8	0.00e+00	0	25	0	942669824	65	4666
2026-01-07 07:08:27.46	345.06	20.73	-50.3	-52.0	14.7	0.00e+00	0	25	0	944766976	65	4739
2026-01-07 07:08:28.46	344.87	20.64	-50.3	-52.0	14.8	0.00e+00	0	25	0	946864128	65	4713
2026-01-07 07:08:29.46	344.68	20.55	-50.5	-52.2	14.8	0.00e+00	0	25	0	947912704	66	4556
2026-01-07 07:08:30.46	344.49	20.46	-50.5	-52.2	14.8	0.00e+00	0	25	0	950009856	66	4566
2026-01-07 07:08:31.46	344.30	20.37	-50.5	-52.2	14.8	0.00e+00	0	25	0	952107008	66	4564
2026-01-07 07:08:32.46	344.12	20.28	-50.7	-52.4	14.7	0.00e+00	0	25	0	954204160	66	4675
2026-01-07 07:08:33.46	343.94	20.19	-50.7	-52.5	14.7	0.00e+00	0	25	0	955252736	66	4715
2026-01-07 07:08:34.47	343.75	20.10	-50.8	-52.5	14.7	0.00e+00	0	25	0	957349888	66	4753
2026-01-07 07:08:35.47	343.57	20.01	-50.6	-52.3	14.8	0.00e+00	0	25	0	959447040	66	4617
2026-01-07 07:08:36.47	343.39	19.92	-50.5	-52.2	14.8	0.00e+00	0	25	0	961544192	66	4553
2026-01-07 07:08:37.46	343.21	19.83	-50.0	-51.6	15.0	0.00e+00	0	25	0	963641344	66	4254
2026-01-07 07:08:38.45	343.03	19.74	-50.1	-51.6	15.0	0.00e+00	0	25	0	964689920	66	4277
2026-01-07 07:08:39.46	342.85	19.65	-50.4	-52.0	14.9	0.00e+00	0	25	0	966787072	66	4456
2026-01-07 07:08:40.46	342.68	19.56	-50.2	-51.8	14.9	0.00e+00	0	25	0	968884224	66	4368
2026-01-07 07:08:41.46	342.50	19.48	-50.5	-52.1	14.8	0.00e+00	0	25	0	970981376	66	4527
2026-01-07 07:08:42.46	342.33	19.39	-50.6	-52.3	14.7	0.00e+00	0	25	0	973078528	66	4631
2026-01-07 07:08:43.46	342.15	19.30	-51.1	-52.9	14.6	0.00e+00	0	25	0	974127104	67	4699
2026-01-07 07:08:44.46	341.98	19.21	-51.4	-53.3	14.5	0.00e+00	0	25	0	976224256	67	4897
2026-01-07 07:08:45.46	341.81	19.12	-51.8	-53.8	14.4	0.00e+00	0	25	0	978321408	68	4897
2026-01-07 07:08:46.46	341.64	19.03	-51.7	-53.7	14.4	0.00e+00	0	25	0	980418560	68	4826
2026-01-07 07:08:47.47	341.47	18.94	-51.6	-53.5	14.5	0.00e+00	0	25	0	981467136	68	4728
2026-01-07 07:08:48.47	341.30	18.85	-51.5	-53.4	14.6	0.00e+00	0	25	0	983564288	68	4696
2026-01-07 07:08:49.47	341.13	18.76	-51.4	-53.2	14.6	0.00e+00	0	25	0	985661440	68	4581
2026-01-07 07:08:50.47	340.97	18.67	-51.1	-52.9	14.8	0.00e+00	0	25	0	987758592	68	4405
2026-01-07 07:08:51.47	340.80	18.58	-51.0	-52.7	14.8	0.00e+00	0	25	0	989855744	68	4328
2026-01-07 07:08:52.48	340.64	18.49	-51.0	-52.7	14.8	0.00e+00	0	25	0	991952896	68	4337
2026-01-07 07:08:53.47	340.47	18.41	-50.8	-52.4	15.0	0.00e+00	0	25	0	993001472	68	4190
2026-01-07 07:08:54.48	340.31	18.32	-50.8	-52.5	14.8	0.00e+00	0	25	0	995098624	67	4449
2026-01-07 07:08:55.49	340.15	18.23	-50.9	-52.6	14.7	0.00e+00	0	25	0	997195776	67	4537
2026-01-07 07:08:56.48	339.99	18.14	-50.9	-52.7	14.7	0.00e+00	0	25	0	999292928	67	4555
2026-01-07 07:08:57.49	339.83	18.05	-51.0	-52.8	14.7	0.00e+00	0	25	0	1000341504	67	4636
2026-01-07 07:08:58.48	339.67	17.96	-51.7	-53.6	14.5	0.00e+00	0	25	0	1002438656	68	4790
2026-01-07 07:08:59.48	339.51	17.87	-51.7	-53.7	14.4	0.00e+00	0	25	0	1004535808	68	4841
2026-01-07 07:09:00.48	339.36	17.79	-51.9	-53.9	14.4	0.00e+00	0	25	0	1006632960	69	4692
2026-01-07 07:09:01.49	339.20	17.70	-52.4	-54.5	14.2	0.00e+00	0	25	0	1008730112	69	5013
2026-01-07 07:09:02.49	339.04	17.61	-52.3	-54.4	14.2	0.00e+00	0	25	0	1009778688	69	4972
2026-01-07 07:09:03.49	338.89	17.52	-52.3	-54.4	14.2	0.00e+00	0	25	0	1011875840	69	4940
2026-01-07 07:09:04.49	338.74	17.43	-52.2	-54.3	14.3	0.00e+00	0	25	0	1013972992	69	4880
2026-01-07 07:09:05.49	338.58	17.35	-52.1	-54.2	14.3	0.00e+00	0	25	0	1016070144	69	4836
2026-01-07 07:09:06.50	338.43	17.26	-51.9	-53.8	14.5	0.00e+00	0	25	0	1018167296	69	4635
2026-01-07 07:09:07.49	338.28	17.17	-51.8	-53.8	14.5	0.00e+00	0	25	0	1019215872	69	4631
2026-01-07 07:09:08.50	338.13	17.08	-51.8	-53.8	14.5	0.00e+00	0	25	0	1021313024	69	4611
2026-01-07 07:09:09.50	337.98	16.99	-51.8	-53.7	14.6	0.00e+00	0	25	0	1023410176	69	4568
2026-01-07 07:09:10.50	337.84	16.91	-51.9	-53.8	14.5	0.00e+00	0	25	0	1025507328	69	4647
2026-01-07 07:09:11.50	337.69	16.82	-51.9	-54.0	14.4	0.00e+00	0	25	0	1026555904	69	4712
2026-01-07 07:09:12.51	337.54	16.73	-52.2	-54.3	14.3	0.00e+00	0	25	0	1028653056	69	4875
2026-01-07 07:09:13.51	337.40	16.65	-52.3	-54.5	14.2	0.00e+00	0	25	0	1030750208	69	4990
2026-01-07 07:09:14.50	337.25	16.56	-52.6	-54.9	14.1	0.00e+00	0	25	0	1032847360	70	4973
2026-01-07 07:09:15.51	337.11	16.47	-52.5	-54.7	14.2	0.00e+00	0	25	0	1034944512	70	4834
2026-01-07 07:09:16.51	336.97	16.39	-52.5	-54.7	14.2	0.00e+00	0	25	0	1035993088	70	4846
2026-01-07 07:09:17.52	336.82	16.30	-52.3	-54.5	14.3	0.00e+00	0	25	0	1038090240	70	4707
2026-01-07 07:09:18.53	336.68	16.21	-52.2	-54.3	14.4	0.00e+00	0	25	0	1040187392	70	4646
2026-01-07 07:09:19.52	336.54	16.13	-52.0	-54.0	14.5	0.00e+00	0	25	0	1042284544	70	4459
2026-01-07 07:09:20.52	336.40	16.04	-51.8	-53.7	14.7	0.00e+00	0	25	0	1044381696	70	4321
2026-01-07 07:09:21.52	336.26	15.96	-51.7	-53.6	14.6	0.00e+00	0	25	0	1045430272	69	4524
2026-01-07 07:09:22.51	336.13	15.87	-51.3	-53.2	14.8	0.00e+00	0	25	0	1047527424	69	4293
2026-01-07 07:09:23.50	335.99	15.79	-51.2	-53.1	14.9	0.00e+00	0	25	0	1049624576	69	4252
2026-01-07 07:09:24.50	335.86	15.70	-51.2	-53.0	14.7	0.00e+00	0	25	0	1051721728	68	4489
2026-01-07 07:09:25.50	335.72	15.61	-51.2	-53.1	14.7	0.00e+00	0	25	0	1053818880	68	4496
2026-01-07 07:09:26.50	335.59	15.53	-51.1	-52.9	14.8	0.00e+00	0	25	0	1054867456	68	4415
2026-01-07 07:09:27.50	335.45	15.44	-51.2	-53.0	14.7	0.00e+00	0	25	0	1056964608	68	4493
2026-01-07 07:09:28.49	335.32	15.36	-51.4	-53.2	14.6	0.00e+00	0	25	0	1059061760	68	4597
2026-01-07 07:09:29.49	335.19	15.28	-51.3	-53.1	14.6	0.00e+00	0	25	0	1061158912	68	4538
2026-01-07 07:09:30.49	335.06	15.19	-51.6	-53.5	14.5	0.00e+00	0	25	0	1062207488	68	4749
2026-01-07 07:09:31.49	334.93	15.11	-51.8	-53.7	14.4	0.00e+00	0	25	0	1064304640	68	4862
2026-01-07 07:09:32.49	334.80	15.02	-51.9	-53.9	14.3	0.00e+00	0	25	0	1066401792	68	4943
2026-01-07 07:09:33.49	334.67	14.94	-51.8	-53.7	14.5	0.00e+00	0	25	0	1068498944	69	4581
2026-01-07 07:09:34.48	334.54	14.86	-52.1	-54.2	14.3	0.00e+00	0	25	0	1070596096	69	4833
2026-01-07 07:09:35.47	334.42	14.77	-52.0	-54.1	14.4	0.00e+00	0	25	0	1071644672	69	4778
2026-01-07 07:09:36.47	334.29	14.69	-51.9	-54.0	14.4	0.00e+00	0	25	0	1073741824	69	4707
2026-01-07 07:09:37.47	334.16	14.61	-52.0	-54.1	14.4	0.00e+00	0	25	0	1075838976	69	4767
2026-01-07 07:09:38.47	334.04	14.52	-52.0	-54.0	14.4	0.00e+00	0	25	0	1077936128	69	4717
2026-01-07 07:09:39.47	333.91	14.44	-51.9	-53.9	14.4	0.00e+00	0	25	0	1078984704	69	4693
2026-01-07 07:09:40.47	333.79	14.36	-52.0	-54.0	14.4	0.00e+00	0	25	0	1081081856	69	4722
2026-01-07 07:09:41.47	333.67	14.27	-52.2	-54.3	14.3	0.00e+00	0	25	0	1083179008	69	4880
2026-01-07 07:09:42.47	333.54	14.19	-52.3	-54.4	14.2	0.00e+00	0	25	0	1085276160	69	4964
2026-01-07 07:09:43.47	333.42	14.11	-52.7	-54.9	14.1	0.00e+00	0	25	0	1087373312	70	4977
2026-01-07 07:09:44.48	333.30	14.02	-53.0	-55.4	13.9	0.00e+00	0	25	0	1088421888	71	4969
2026-01-07 07:09:45.48	333.18	13.94	-53.2	-55.6	13.8	0.00e+00	0	25	0	1090519040	71	5100
2026-01-07 07:09:46.48	333.06	13.86	-53.6	-56.4	13.5	0.00e+00	0	25	0	1092616192	72	5248
2026-01-07 07:09:47.48	332.94	13.78	-53.7	-56.5	13.5	0.00e+00	0	25	0	1094713344	72	5283
2026-01-07 07:09:48.48	332.82	13.69	-53.6	-56.4	13.5	0.00e+00	0	25	0	1096810496	72	5239
2026-01-07 07:09:49.48	332.70	13.61	-53.6	-56.3	13.6	0.00e+00	0	25	0	1097859072	72	5174
2026-01-07 07:09:50.48	332.59	13.53	-53.3	-55.9	13.8	0.00e+00	0	25	0	1099956224	72	4963
2026-01-07 07:09:51.48	332.47	13.45	-53.1	-55.5	14.0	0.00e+00	0	25	0	1102053376	72	4735
2026-01-07 07:09:52.48	332.35	13.37	-52.7	-55.0	14.3	0.00e+00	0	25	0	1104150528	72	4450
2026-01-07 07:09:53.48	332.24	13.29	-52.4	-54.6	14.4	0.00e+00	0	25	0	1106247680	71	4502
2026-01-07 07:09:54.48	332.12	13.21	-52.2	-54.3	14.4	0.00e+00	0	25	0	1107296256	70	4620
2026-01-07 07:09:55.48	332.01	13.13	-51.8	-53.9	14.6	0.00e+00	0	25	0	1109393408	70	4394
2026-01-07 07:09:56.49	331.90	13.04	-51.8	-53.8	14.6	0.00e+00	0	25	0	1111490560	70	4385
2026-01-07 07:09:57.49	331.78	12.96	-51.8	-53.7	14.5	0.00e+00	0	25	0	1113587712	69	4596
2026-01-07 07:09:58.50	331.67	12.88	-51.6	-53.6	14.5	0.00e+00	0	25	0	1115684864	69	4525
2026-01-07 07:09:59.50	331.56	12.80	-51.7	-53.7	14.5	0.00e+00	0	25	0	1116733440	69	4560
2026-01-07 07:10:00.49	331.45	12.72	-52.1	-54.2	14.3	0.00e+00	0	25	0	1118830592	69	4838
2026-01-07 07:10:01.49	331.34	12.64	-52.2	-54.4	14.2	0.00e+00	0	25	0	1120927744	69	4968
2026-01-07 07:10:02.49	331.23	12.56	-52.5	-54.8	14.1	0.00e+00	0	25	0	1123024896	70	4882
2026-01-07 07:10:03.49	331.12	12.48	-52.7	-55.1	13.9	0.00e+00	0	25	0	1124073472	70	5072
2026-01-07 07:10:04.48	331.01	12.40	-53.2	-55.8	13.7	0.00e+00	0	25	0	1126170624	71	5165
2026-01-07 07:10:05.48	330.91	12.32	-53.4	-56.0	13.7	0.00e+00	0	25	0	1128267776	72	5038
2026-01-07 07:10:06.49	330.80	12.24	-53.5	-56.3	13.6	0.00e+00	0	25	0	1130364928	72	5162
2026-01-07 07:10:07.49	330.69	12.17	-53.6	-56.5	13.4	0.00e+00	0	25	0	1132462080	72	5298
2026-01-07 07:10:08.49	330.59	12.09	-53.6	-56.4	13.5	0.00e+00	0	25	0	1133510656	72	5239
2026-01-07 07:10:09.48	330.48	12.01	-53.6	-56.4	13.5	0.00e+00	0	25	0	1135607808	72	5233
2026-01-07 07:10:10.48	330.38	11.93	-53.6	-56.5	13.4	0.00e+00	0	25	0	1137704960	72	5285
2026-01-07 07:10:11.48	330.27	11.85	-53.7	-56.5	13.5	0.00e+00	0	25	0	1139802112	72	5284
2026-01-07 07:10:12.49	330.17	11.77	-53.6	-56.3	13.5	0.00e+00	0	25	0	1141899264	72	5192
2026-01-07 07:10:13.49	330.07	11.69	-53.5	-56.2	13.6	0.00e+00	0	25	0	1142947840	72	5147
2026-01-07 07:10:14.48	329.96	11.62	-53.5	-56.2	13.6	0.00e+00	0	25	0	1145044992	72	5119
2026-01-07 07:10:15.48	329.86	11.54	-53.5	-56.1	13.7	0.00e+00	0	25	0	1147142144	72	5097
2026-01-07 07:10:16.48	329.76	11.46	-53.4	-56.0	13.7	0.00e+00	0	25	0	1149239296	72	5041
2026-01-07 07:10:17.48	329.66	11.38	-53.4	-56.0	13.7	0.00e+00	0	25	0	1151336448	72	5034
2026-01-07 07:10:18.48	329.56	11.31	-53.4	-56.0	13.7	0.00e+00	0	25	0	1152385024	72	5035
2026-01-07 07:10:19.48	329.46	11.23	-53.3	-55.9	13.8	0.00e+00	0	25	0	1154482176	72	4937
2026-01-07 07:10:20.48	329.36	11.15	-53.4	-56.0	13.7	0.00e+00	0	25	0	1156579328	72	5029
2026-01-07 07:10:21.48	329.26	11.08	-53.5	-56.1	13.6	0.00e+00	0	25	0	1158676480	72	5084
2026-01-07 07:10:22.48	329.17	11.00	-53.5	-56.2	13.5	0.00e+00	0	25	0	1159725056	72	5129
2026-01-07 07:10:23.49	329.07	10.92	-53.5	-56.1	13.5	0.00e+00	0	25	0	1161822208	72	5100
2026-01-07 07:10:24.49	328.97	10.85	-53.6	-56.4	13.5	0.00e+00	0	25	0	1163919360	72	5228
2026-01-07 07:10:25.49	328.87	10.77	-53.6	-56.3	13.4	0.00e+00	0	25	0	1166016512	72	5218
2026-01-07 07:10:26.48	328.78	10.69	-53.7	-56.5	13.4	0.00e+00	0	25	0	1168113664	72	5307
2026-01-07 07:10:27.48	328.68	10.62	-53.8	-56.7	13.2	0.00e+00	0	25	0	1169162240	72	5432
2026-01-07 07:10:28.48	328.59	10.54	-53.8	-56.7	13.2	0.00e+00	0	25	0	1171259392	72	5461
2026-01-07 07:10:29.47	328.49	10.47	-53.8	-56.7	13.2	0.00e+00	0	25	0	1173356544	72	5436
2026-01-07 07:10:30.46	328.40	10.39	-53.8	-56.7	13.2	0.00e+00	0	25	0	1175453696	72	5462
2026-01-07 07:10:31.46	328.31	10.32	-53.7	-56.6	13.3	0.00e+00	0	25	0	1176502272	72	5361
2026-01-07 07:10:32.46	328.22	10.24	-53.5	-56.2	13.5	0.00e+00	0	25	0	1178599424	72	5117
2026-01-07 07:10:33.46	328.12	10.17	-53.3	-56.0	13.6	0.00e+00	0	25	0	1180696576	72	5008
2026-01-07 07:10:34.46	328.03	10.09	-53.2	-55.8	13.8	0.00e+00	0	25	0	1182793728	72	4896
2026-01-07 07:10:35.46	327.94	10.02	-53.1	-55.5	13.9	0.00e+00	0	25	0	1184890880	72	4756
2026-01-07 07:10:36.46	327.85	9.94	-52.9	-55.2	14.1	0.00e+00	0	25	0	1185939456	72	4590
2026-01-07 07:10:37.46	327.76	9.87	-52.7	-55.1	14.2	0.00e+00	0	25	0	1188036608	72	4496
2026-01-07 07:10:38.45	327.67	9.80	-52.5	-54.8	14.2	0.00e+00	0	25	0	1190133760	71	4600
2026-01-07 07:10:39.45	327.58	9.72	-52.4	-54.6	14.3	0.00e+00	0	25	0	1192230912	71	4541
2026-01-07 07:10:40.45	327.49	9.65	-52.3	-54.5	14.3	0.00e+00	0	25	0	1194328064	71	4471
2026-01-07 07:10:41.44	327.40	9.57	-52.2	-54.3	14.4	0.00e+00	0	25	0	1195376640	71	4387
2026-01-07 07:10:42.44	327.32	9.50	-52.1	-54.2	14.3	0.00e+00	0	25	0	1197473792	70	4591
2026-01-07 07:10:43.43	327.23	9.43	-52.2	-54.3	14.3	0.00e+00	0	25	0	1199570944	70	4606
2026-01-07 07:10:44.44	327.14	9.35	-52.2	-54.3	14.3	0.00e+00	0	25	0	1201668096	70	4638
2026-01-07 07:10:45.43	327.05	9.28	-52.4	-54.6	14.1	0.00e+00	0	25	0	1202716672	70	4784
2026-01-07 07:10:46.44	326.97	9.21	-52.4	-54.6	14.1	0.00e+00	0	25	0	1204813824	70	4811
2026-01-07 07:10:47.43	326.88	9.14	-52.6	-54.9	14.0	0.00e+00	0	25	0	1206910976	70	4959
2026-01-07 07:10:48.44	326.80	9.06	-52.7	-55.1	13.9	0.00e+00	0	25	0	1209008128	70	5060
2026-01-07 07:10:49.44	326.71	8.99	-52.9	-55.4	13.7	0.00e+00	0	25	0	1211105280	70	5222
2026-01-07 07:10:50.44	326.63	8.92	-53.1	-55.6	13.7	0.00e+00	0	25	0	1212153856	71	5084
2026-01-07 07:10:51.44	326.54	8.85	-53.2	-55.8	13.6	0.00e+00	0	25	0	1214251008	71	5203
2026-01-07 07:10:52.44	326.46	8.77	-53.4	-56.1	13.6	0.00e+00	0	25	0	1216348160	72	5063
2026-01-07 07:10:53.44	326.38	8.70	-53.5	-56.3	13.5	0.00e+00	0	25	0	1218445312	72	5177
2026-01-07 07:10:54.45	326.29	8.63	-53.8	-56.8	13.2	0.00e+00	0	25	0	1220542464	72	5470
