passes_logs/2026/01/07/R3.2S_Murmansk/R3.2S_Murmansk__20260107_085900_NOAA_20_JPSS-1_rec.log

#Pass ID: 20260107_085900_NOAA 20 (JPSS-1)
#Satellite: NOAA 20 (JPSS-1)
#Configuration: NOAA 20
#almurnet v.1.7.20251203
#Start time: 2026-01-07 08:59:01

#Version: 2.2.20231116
#Station: R3.2S_Murmansk
#Location: 33.079688 lon 68.888172 lat
#TLE: 1 43013U 17073A   26006.30790171  .00000126  00000+0  80695-4 0  9991
#TLE: 2 43013  98.7629 307.3394 0001808  51.8724 308.2615 14.19533762421505

#Time	Az	El	Level	Level2	SNR	BER	BlckErr	Temp	State	Recorded	gain1	gain2
2026-01-07 08:59:01.85	138.86	2.11	-57.5	-73.5	3.8	1.49e+00	0	23	0	0	81	22415
2026-01-07 08:59:02.83	138.85	2.17	-57.5	-73.5	3.8	1.49e+00	0	23	104	0	80	23790
2026-01-07 08:59:03.82	138.83	2.24	-57.5	-73.5	3.8	1.49e+00	0	23	104	0	80	23734
2026-01-07 08:59:04.83	138.82	2.30	-57.5	-73.5	3.8	1.49e+00	0	23	104	0	80	23789
2026-01-07 08:59:05.81	138.81	2.37	-57.5	-73.5	3.8	1.49e+00	0	23	104	0	80	23763
2026-01-07 08:59:06.80	138.80	2.43	-57.5	-73.5	3.8	1.49e+00	0	23	104	0	80	23709
2026-01-07 08:59:07.80	138.79	2.50	-57.5	-73.5	3.8	1.49e+00	0	23	104	0	80	23716
2026-01-07 08:59:08.79	138.78	2.56	-57.5	-73.5	3.8	1.49e+00	0	23	104	0	80	23671
2026-01-07 08:59:09.78	138.77	2.63	-57.5	-73.5	3.8	1.49e+00	0	23	104	0	80	23707
2026-01-07 08:59:10.78	138.75	2.69	-57.5	-73.5	3.8	1.49e+00	0	23	104	0	80	23648
2026-01-07 08:59:11.78	138.74	2.76	-57.5	-73.5	3.8	1.49e+00	0	23	104	0	80	23668
2026-01-07 08:59:12.78	138.73	2.82	-57.5	-73.5	3.8	1.49e+00	0	23	104	0	80	23682
2026-01-07 08:59:13.78	138.72	2.89	-57.5	-73.5	3.8	1.49e+00	0	23	104	0	80	23686
2026-01-07 08:59:14.77	138.71	2.95	-57.5	-73.5	3.8	1.49e+00	0	23	104	0	80	23819
2026-01-07 08:59:15.75	138.69	3.02	-57.5	-73.5	3.8	1.49e+00	0	23	104	0	80	23648
2026-01-07 08:59:16.75	138.68	3.09	-57.5	-73.5	3.8	1.49e+00	0	23	104	0	80	23671
2026-01-07 08:59:17.74	138.67	3.15	-57.5	-73.4	3.8	1.49e+00	0	24	104	0	80	23477
2026-01-07 08:59:18.74	138.66	3.22	-57.5	-73.3	3.8	1.49e+00	0	24	104	0	80	23105
2026-01-07 08:59:19.73	138.65	3.28	-57.5	-73.1	3.8	1.49e+00	0	24	104	0	80	22571
2026-01-07 08:59:20.72	138.63	3.35	-57.5	-72.7	3.8	1.49e+00	0	24	104	0	80	21559
2026-01-07 08:59:21.72	138.62	3.42	-57.5	-72.2	3.8	1.49e+00	0	24	104	0	80	20502
2026-01-07 08:59:22.72	138.61	3.49	-57.4	-71.5	3.8	1.49e+00	0	24	104	0	80	18748
2026-01-07 08:59:23.71	138.60	3.55	-57.4	-70.9	4.0	1.49e+00	0	24	104	0	80	17523
2026-01-07 08:59:24.71	138.58	3.62	-57.4	-70.2	4.2	1.42e+00	0	24	0	0	80	16142
2026-01-07 08:59:25.70	138.57	3.69	-57.3	-69.4	4.3	1.35e+00	59	24	0	0	80	14757
2026-01-07 08:59:26.71	138.56	3.76	-57.3	-68.5	4.7	9.95e-01	0	24	0	1048576	80	13330
2026-01-07 08:59:27.71	138.54	3.82	-57.2	-67.8	5.0	7.24e-01	0	24	0	3145728	80	12321
2026-01-07 08:59:28.71	138.53	3.89	-57.1	-66.9	5.5	4.95e-01	0	24	0	5242880	80	11051
2026-01-07 08:59:29.70	138.52	3.96	-57.0	-66.4	5.8	3.13e-01	0	24	0	7340032	80	10475
2026-01-07 08:59:30.70	138.51	4.03	-57.0	-65.6	6.3	2.37e-01	0	24	0	9437184	80	9598
2026-01-07 08:59:31.69	138.49	4.10	-56.8	-64.5	7.3	1.53e-01	0	24	0	10485760	80	8377
2026-01-07 08:59:32.69	138.48	4.17	-56.6	-63.6	8.1	5.46e-02	0	24	0	12582912	79	8014
2026-01-07 08:59:33.68	138.47	4.23	-56.4	-62.9	8.7	2.45e-02	0	24	0	14680064	79	7421
2026-01-07 08:59:34.68	138.45	4.30	-56.1	-61.8	9.6	7.95e-03	0	24	0	16777216	78	6892
2026-01-07 08:59:35.67	138.44	4.37	-55.8	-61.0	10.3	1.53e-03	0	24	0	17825792	78	6319
2026-01-07 08:59:36.67	138.43	4.44	-55.5	-60.1	11.0	4.57e-04	0	24	0	19922944	77	5996
2026-01-07 08:59:37.67	138.41	4.51	-55.3	-59.8	11.3	2.22e-04	0	24	0	22020096	77	5826
2026-01-07 08:59:38.68	138.40	4.58	-55.0	-59.0	11.8	5.64e-05	0	24	0	24117248	76	5623
2026-01-07 08:59:39.67	138.38	4.65	-54.9	-58.8	11.9	7.60e-06	0	24	0	26214400	76	5524
2026-01-07 08:59:40.67	138.37	4.72	-54.5	-58.1	12.3	1.06e-05	0	24	0	27262976	75	5364
2026-01-07 08:59:41.66	138.36	4.79	-54.5	-58.2	12.3	4.50e-06	0	24	0	29360128	75	5431
2026-01-07 08:59:42.66	138.34	4.86	-54.6	-58.4	12.1	3.80e-06	0	24	0	31457280	75	5558
2026-01-07 08:59:43.65	138.33	4.94	-54.6	-58.4	12.1	6.80e-06	0	24	0	33554432	75	5584
2026-01-07 08:59:44.66	138.31	5.01	-54.8	-58.7	11.9	4.50e-06	0	24	0	34603008	75	5772
2026-01-07 08:59:45.66	138.30	5.08	-55.7	-60.4	11.0	9.90e-06	0	24	0	36700160	76	6616
2026-01-07 08:59:46.66	138.28	5.15	-56.4	-62.6	9.2	1.37e-03	0	24	0	38797312	77	8033
2026-01-07 08:59:47.66	138.27	5.22	-54.0	-57.2	12.9	1.06e-01	0	24	0	40894464	74	5106
2026-01-07 08:59:48.66	138.26	5.29	-53.7	-56.7	13.2	7.00e-07	0	24	0	42991616	73	5132
2026-01-07 08:59:49.65	138.24	5.37	-55.3	-60.1	11.1	7.00e-07	0	24	0	44040192	75	6725
2026-01-07 08:59:50.65	138.23	5.44	-53.8	-56.8	13.1	7.11e-02	0	24	0	46137344	74	4902
2026-01-07 08:59:51.64	138.21	5.51	-53.1	-55.8	13.6	0.00e+00	0	24	0	48234496	72	4877
2026-01-07 08:59:52.64	138.20	5.58	-53.1	-55.7	13.7	0.00e+00	0	24	0	50331648	72	4861
2026-01-07 08:59:53.64	138.18	5.66	-53.2	-55.8	13.6	0.00e+00	0	24	0	51380224	72	4914
2026-01-07 08:59:54.65	138.17	5.73	-53.3	-56.0	13.5	0.00e+00	0	24	0	53477376	72	5001
2026-01-07 08:59:55.65	138.15	5.80	-53.2	-55.8	13.6	0.00e+00	0	24	0	55574528	72	4898
2026-01-07 08:59:56.64	138.14	5.88	-53.1	-55.7	13.7	0.00e+00	0	24	0	57671680	72	4831
2026-01-07 08:59:57.63	138.12	5.95	-53.1	-55.7	13.7	0.00e+00	0	24	0	59768832	72	4816
2026-01-07 08:59:58.62	138.10	6.02	-53.1	-55.7	13.7	0.00e+00	0	24	0	60817408	72	4832
2026-01-07 08:59:59.62	138.09	6.10	-53.2	-55.8	13.7	0.00e+00	0	24	0	62914560	72	4886
2026-01-07 09:00:00.60	138.07	6.17	-53.1	-55.6	13.8	0.00e+00	0	24	0	65011712	72	4798
2026-01-07 09:00:01.59	138.06	6.24	-53.0	-55.5	13.9	0.00e+00	0	24	0	67108864	72	4735
2026-01-07 09:00:02.58	138.04	6.32	-53.0	-55.5	13.8	0.00e+00	0	24	0	68157440	72	4756
2026-01-07 09:00:03.57	138.03	6.39	-53.1	-55.6	13.8	0.00e+00	0	24	0	70254592	72	4773
2026-01-07 09:00:04.58	138.01	6.47	-53.1	-55.7	13.8	0.00e+00	0	24	0	72351744	72	4823
2026-01-07 09:00:05.57	137.99	6.54	-53.1	-55.7	13.7	0.00e+00	0	24	0	74448896	72	4828
2026-01-07 09:00:06.56	137.98	6.62	-53.0	-55.5	13.9	0.00e+00	0	24	0	76546048	72	4755
2026-01-07 09:00:07.56	137.96	6.69	-53.1	-55.6	13.8	0.00e+00	0	24	0	77594624	72	4766
2026-01-07 09:00:08.56	137.94	6.77	-53.1	-55.6	13.9	0.00e+00	0	24	0	79691776	72	4767
2026-01-07 09:00:09.56	137.93	6.85	-53.1	-55.5	13.9	0.00e+00	0	24	0	81788928	72	4750
2026-01-07 09:00:10.56	137.91	6.92	-52.9	-55.3	14.0	0.00e+00	0	24	0	83886080	72	4625
2026-01-07 09:00:11.56	137.89	7.00	-52.9	-55.3	14.1	0.00e+00	0	24	0	85983232	72	4600
2026-01-07 09:00:12.55	137.88	7.08	-52.9	-55.2	14.1	0.00e+00	0	24	0	87031808	72	4594
2026-01-07 09:00:13.54	137.86	7.15	-52.7	-55.0	14.2	0.00e+00	0	24	0	89128960	72	4463
2026-01-07 09:00:14.54	137.84	7.23	-52.7	-55.0	14.1	0.00e+00	0	24	0	91226112	71	4746
2026-01-07 09:00:15.53	137.83	7.31	-52.8	-55.1	14.0	0.00e+00	0	24	0	93323264	71	4790
2026-01-07 09:00:16.52	137.81	7.38	-52.8	-55.1	14.1	0.00e+00	0	24	0	94371840	71	4773
2026-01-07 09:00:17.51	137.79	7.46	-52.6	-54.9	14.2	0.00e+00	0	24	0	96468992	71	4673
2026-01-07 09:00:18.51	137.77	7.54	-52.6	-54.8	14.2	0.00e+00	0	24	0	98566144	71	4620
2026-01-07 09:00:19.50	137.76	7.62	-52.6	-54.9	14.1	0.00e+00	0	24	0	100663296	71	4696
2026-01-07 09:00:20.49	137.74	7.70	-52.6	-54.8	14.2	0.00e+00	0	24	0	102760448	71	4644
2026-01-07 09:00:21.49	137.72	7.77	-52.5	-54.8	14.3	0.00e+00	0	24	0	103809024	71	4604
2026-01-07 09:00:22.50	137.70	7.86	-52.5	-54.7	14.3	0.00e+00	0	24	0	105906176	71	4594
2026-01-07 09:00:23.50	137.68	7.93	-52.5	-54.7	14.3	0.00e+00	0	24	0	108003328	71	4557
2026-01-07 09:00:24.50	137.67	8.01	-52.4	-54.6	14.4	0.00e+00	0	24	0	110100480	71	4503
2026-01-07 09:00:25.50	137.65	8.09	-52.4	-54.6	14.4	0.00e+00	0	24	0	112197632	71	4507
2026-01-07 09:00:26.50	137.63	8.18	-52.5	-54.6	14.3	0.00e+00	0	24	0	113246208	71	4545
2026-01-07 09:00:27.49	137.61	8.26	-52.4	-54.5	14.4	0.00e+00	0	24	0	115343360	71	4460
2026-01-07 09:00:28.49	137.59	8.34	-52.5	-54.6	14.4	0.00e+00	0	24	0	117440512	71	4534
2026-01-07 09:00:29.47	137.57	8.42	-52.5	-54.6	14.4	0.00e+00	0	24	0	119537664	71	4521
2026-01-07 09:00:30.47	137.55	8.50	-52.4	-54.6	14.4	0.00e+00	0	24	0	120586240	71	4498
2026-01-07 09:00:31.47	137.54	8.58	-52.4	-54.5	14.4	0.00e+00	0	24	0	122683392	71	4442
2026-01-07 09:00:32.46	137.52	8.66	-52.3	-54.4	14.5	0.00e+00	0	24	0	124780544	71	4431
2026-01-07 09:00:33.45	137.50	8.74	-52.3	-54.3	14.5	0.00e+00	0	25	0	126877696	71	4382
2026-01-07 09:00:34.45	137.48	8.82	-52.2	-54.3	14.4	0.00e+00	0	24	0	128974848	70	4612
2026-01-07 09:00:35.45	137.46	8.91	-52.2	-54.2	14.4	0.00e+00	0	24	0	130023424	70	4572
2026-01-07 09:00:36.45	137.44	8.99	-52.2	-54.3	14.4	0.00e+00	0	24	0	132120576	70	4636
2026-01-07 09:00:37.45	137.42	9.07	-52.1	-54.1	14.5	0.00e+00	0	24	0	134217728	70	4526
2026-01-07 09:00:38.44	137.40	9.16	-52.1	-54.2	14.5	0.00e+00	0	24	0	136314880	70	4548
2026-01-07 09:00:39.44	137.38	9.24	-52.1	-54.1	14.5	0.00e+00	0	24	0	137363456	70	4503
2026-01-07 09:00:40.43	137.36	9.32	-52.2	-54.2	14.5	0.00e+00	0	24	0	139460608	70	4570
2026-01-07 09:00:41.43	137.34	9.41	-52.0	-54.0	14.5	0.00e+00	0	24	0	141557760	70	4489
2026-01-07 09:00:42.43	137.32	9.49	-52.1	-54.2	14.5	0.00e+00	0	24	0	143654912	70	4554
2026-01-07 09:00:43.42	137.30	9.58	-52.2	-54.2	14.4	0.00e+00	0	25	0	145752064	70	4569
2026-01-07 09:00:44.41	137.28	9.66	-52.0	-54.0	14.6	0.00e+00	0	24	0	146800640	70	4467
2026-01-07 09:00:45.41	137.26	9.75	-52.0	-54.0	14.5	0.00e+00	0	24	0	148897792	70	4486
2026-01-07 09:00:46.40	137.23	9.83	-52.0	-54.0	14.6	0.00e+00	0	25	0	150994944	70	4450
2026-01-07 09:00:47.40	137.21	9.92	-51.9	-53.9	14.6	0.00e+00	0	25	0	153092096	70	4411
2026-01-07 09:00:48.39	137.19	10.00	-51.9	-53.9	14.6	0.00e+00	0	24	0	154140672	70	4415
2026-01-07 09:00:49.38	137.17	10.09	-51.9	-53.9	14.6	0.00e+00	0	25	0	156237824	70	4393
2026-01-07 09:00:50.39	137.15	10.18	-51.8	-53.8	14.7	0.00e+00	0	24	0	158334976	70	4347
2026-01-07 09:00:51.38	137.13	10.26	-51.9	-53.8	14.7	0.00e+00	0	24	0	160432128	70	4370
2026-01-07 09:00:52.37	137.10	10.35	-51.9	-53.8	14.7	0.00e+00	0	25	0	162529280	70	4389
2026-01-07 09:00:53.37	137.08	10.44	-51.9	-53.8	14.7	0.00e+00	0	25	0	163577856	70	4376
2026-01-07 09:00:54.37	137.06	10.53	-51.9	-53.8	14.7	0.00e+00	0	25	0	165675008	70	4377
2026-01-07 09:00:55.36	137.04	10.61	-51.8	-53.6	14.8	0.00e+00	0	25	0	167772160	70	4287
2026-01-07 09:00:56.36	137.02	10.70	-51.8	-53.7	14.8	0.00e+00	0	25	0	169869312	70	4314
2026-01-07 09:00:57.35	136.99	10.79	-51.8	-53.7	14.7	0.00e+00	0	24	0	170917888	70	4317
2026-01-07 09:00:58.35	136.97	10.88	-51.8	-53.7	14.7	0.00e+00	0	25	0	173015040	70	4308
2026-01-07 09:00:59.35	136.95	10.97	-51.8	-53.7	14.7	0.00e+00	0	25	0	175112192	70	4315
2026-01-07 09:01:00.34	136.92	11.06	-51.7	-53.6	14.8	0.00e+00	0	25	0	177209344	70	4256
2026-01-07 09:01:01.34	136.90	11.15	-51.7	-53.5	14.8	0.00e+00	0	25	0	179306496	70	4241
2026-01-07 09:01:02.34	136.88	11.24	-51.7	-53.6	14.6	0.00e+00	0	25	0	180355072	69	4513
2026-01-07 09:01:03.33	136.85	11.33	-51.6	-53.4	14.8	0.00e+00	0	25	0	182452224	69	4415
2026-01-07 09:01:04.32	136.83	11.42	-51.6	-53.5	14.7	0.00e+00	0	25	0	184549376	69	4447
2026-01-07 09:01:05.32	136.81	11.51	-51.6	-53.4	14.7	0.00e+00	0	24	0	186646528	69	4436
2026-01-07 09:01:06.32	136.78	11.60	-51.6	-53.4	14.7	0.00e+00	0	24	0	187695104	69	4419
2026-01-07 09:01:07.32	136.76	11.70	-51.7	-53.5	14.7	0.00e+00	0	24	0	189792256	69	4474
2026-01-07 09:01:08.30	136.73	11.79	-51.6	-53.4	14.7	0.00e+00	0	25	0	191889408	69	4424
2026-01-07 09:01:09.30	136.71	11.88	-51.5	-53.3	14.8	0.00e+00	0	25	0	193986560	69	4356
2026-01-07 09:01:10.29	136.68	11.97	-51.4	-53.2	14.8	0.00e+00	0	25	0	196083712	69	4322
2026-01-07 09:01:11.28	136.66	12.07	-51.4	-53.2	14.8	0.00e+00	0	25	0	197132288	69	4337
2026-01-07 09:01:12.28	136.63	12.16	-51.4	-53.1	14.9	0.00e+00	0	25	0	199229440	69	4283
2026-01-07 09:01:13.27	136.61	12.25	-51.4	-53.2	14.9	0.00e+00	0	25	0	201326592	69	4306
2026-01-07 09:01:14.27	136.58	12.35	-51.5	-53.3	14.8	0.00e+00	0	25	0	203423744	69	4356
2026-01-07 09:01:15.26	136.56	12.44	-51.5	-53.2	14.8	0.00e+00	0	25	0	204472320	69	4336
2026-01-07 09:01:16.26	136.53	12.54	-51.5	-53.2	14.8	0.00e+00	0	25	0	206569472	69	4330
2026-01-07 09:01:17.26	136.50	12.64	-51.4	-53.1	14.9	0.00e+00	0	25	0	208666624	69	4280
2026-01-07 09:01:18.26	136.48	12.73	-51.4	-53.2	14.9	0.00e+00	0	25	0	210763776	69	4302
2026-01-07 09:01:19.26	136.45	12.83	-51.4	-53.2	14.9	0.00e+00	0	25	0	212860928	69	4296
2026-01-07 09:01:20.25	136.42	12.92	-51.3	-53.1	15.0	0.00e+00	0	25	0	213909504	69	4249
2026-01-07 09:01:21.25	136.40	13.02	-51.4	-53.1	14.9	0.00e+00	0	24	0	216006656	69	4288
2026-01-07 09:01:22.25	136.37	13.12	-51.3	-53.1	14.9	0.00e+00	0	25	0	218103808	69	4256
2026-01-07 09:01:23.24	136.34	13.22	-51.3	-53.1	14.9	0.00e+00	0	25	0	220200960	69	4263
2026-01-07 09:01:24.24	136.31	13.32	-51.3	-53.0	15.0	0.00e+00	0	25	0	221249536	69	4233
2026-01-07 09:01:25.24	136.29	13.42	-51.2	-52.9	15.0	0.00e+00	0	25	0	223346688	69	4156
2026-01-07 09:01:26.25	136.26	13.52	-51.1	-52.8	14.9	0.00e+00	0	25	0	225443840	68	4370
2026-01-07 09:01:27.25	136.23	13.62	-51.2	-52.9	14.9	0.00e+00	0	25	0	227540992	68	4407
2026-01-07 09:01:28.25	136.20	13.72	-51.2	-52.9	14.9	0.00e+00	0	25	0	229638144	68	4409
2026-01-07 09:01:29.25	136.17	13.82	-51.1	-52.7	14.9	0.00e+00	0	25	0	231735296	68	4334
2026-01-07 09:01:30.25	136.14	13.92	-51.1	-52.7	14.9	0.00e+00	0	25	0	232783872	68	4333
2026-01-07 09:01:31.25	136.11	14.02	-51.0	-52.7	15.0	0.00e+00	0	25	0	234881024	68	4326
2026-01-07 09:01:32.23	136.09	14.12	-51.0	-52.7	15.0	0.00e+00	0	25	0	236978176	68	4317
2026-01-07 09:01:33.24	136.06	14.22	-51.0	-52.6	15.0	0.00e+00	0	25	0	239075328	68	4291
2026-01-07 09:01:34.23	136.03	14.32	-51.0	-52.7	15.0	0.00e+00	0	25	0	240123904	68	4296
2026-01-07 09:01:35.22	136.00	14.43	-50.9	-52.6	15.0	0.00e+00	0	25	0	242221056	68	4261
2026-01-07 09:01:36.21	135.97	14.53	-51.0	-52.6	15.0	0.00e+00	0	25	0	244318208	68	4281
2026-01-07 09:01:37.21	135.94	14.63	-50.9	-52.6	15.0	0.00e+00	0	25	0	246415360	68	4249
2026-01-07 09:01:38.20	135.91	14.74	-51.0	-52.7	15.0	0.00e+00	0	25	0	248512512	68	4321
2026-01-07 09:01:39.20	135.87	14.84	-50.9	-52.6	15.0	0.00e+00	0	25	0	249561088	68	4253
2026-01-07 09:01:40.20	135.84	14.95	-50.8	-52.5	15.1	0.00e+00	0	25	0	251658240	68	4199
2026-01-07 09:01:41.19	135.81	15.05	-50.9	-52.6	15.0	0.00e+00	0	25	0	253755392	68	4245
2026-01-07 09:01:42.19	135.78	15.16	-50.9	-52.5	15.0	0.00e+00	0	25	0	255852544	68	4239
2026-01-07 09:01:43.19	135.75	15.26	-50.9	-52.5	15.1	0.00e+00	0	25	0	256901120	68	4228
2026-01-07 09:01:44.18	135.72	15.37	-50.8	-52.4	15.1	0.00e+00	0	25	0	258998272	68	4173
2026-01-07 09:01:45.18	135.68	15.48	-50.9	-52.6	15.0	0.00e+00	0	25	0	261095424	68	4255
2026-01-07 09:01:46.17	135.65	15.58	-50.9	-52.5	15.1	0.00e+00	0	25	0	263192576	68	4225
2026-01-07 09:01:47.17	135.62	15.69	-50.8	-52.4	15.1	0.00e+00	0	25	0	265289728	68	4180
2026-01-07 09:01:48.16	135.58	15.80	-50.8	-52.4	15.1	0.00e+00	0	25	0	266338304	68	4172
2026-01-07 09:01:49.17	135.55	15.91	-50.9	-52.5	15.1	0.00e+00	0	25	0	268435456	68	4208
2026-01-07 09:01:50.15	135.52	16.02	-50.9	-52.5	15.1	0.00e+00	0	25	0	270532608	68	4204
2026-01-07 09:01:51.15	135.48	16.13	-50.8	-52.4	15.1	0.00e+00	0	25	0	272629760	68	4172
2026-01-07 09:01:52.15	135.45	16.24	-50.8	-52.3	15.1	0.00e+00	0	25	0	273678336	68	4145
2026-01-07 09:01:53.14	135.41	16.35	-50.8	-52.5	15.1	0.00e+00	0	25	0	275775488	68	4195
2026-01-07 09:01:54.13	135.38	16.46	-50.8	-52.4	15.1	0.00e+00	0	25	0	277872640	68	4170
2026-01-07 09:01:55.13	135.35	16.58	-50.8	-52.4	15.1	0.00e+00	0	25	0	279969792	68	4183
2026-01-07 09:01:56.13	135.31	16.69	-50.8	-52.4	15.1	0.00e+00	0	25	0	282066944	68	4175
2026-01-07 09:01:57.13	135.27	16.80	-50.7	-52.3	15.2	0.00e+00	0	25	0	283115520	68	4137
2026-01-07 09:01:58.13	135.24	16.92	-50.8	-52.3	15.2	0.00e+00	0	25	0	285212672	68	4143
2026-01-07 09:01:59.13	135.20	17.03	-50.8	-52.3	15.1	0.00e+00	0	25	0	287309824	68	4143
2026-01-07 09:02:00.12	135.16	17.14	-50.8	-52.3	15.1	0.00e+00	0	25	0	289406976	68	4142
2026-01-07 09:02:01.12	135.13	17.26	-50.7	-52.3	15.2	0.00e+00	0	25	0	290455552	68	4136
2026-01-07 09:02:02.12	135.09	17.38	-50.8	-52.4	15.1	0.00e+00	0	25	0	292552704	68	4152
2026-01-07 09:02:03.11	135.05	17.49	-50.8	-52.4	15.1	0.00e+00	0	25	0	294649856	68	4154
2026-01-07 09:02:04.10	135.02	17.61	-50.8	-52.4	15.1	0.00e+00	0	25	0	296747008	68	4154
2026-01-07 09:02:05.10	134.98	17.72	-50.7	-52.3	15.2	0.00e+00	0	25	0	298844160	68	4115
2026-01-07 09:02:06.10	134.94	17.84	-50.8	-52.4	15.1	0.00e+00	0	25	0	299892736	68	4185
2026-01-07 09:02:07.10	134.90	17.96	-50.7	-52.3	15.2	0.00e+00	0	25	0	301989888	68	4129
2026-01-07 09:02:08.09	134.86	18.08	-50.8	-52.3	15.2	0.00e+00	0	25	0	304087040	68	4145
2026-01-07 09:02:09.10	134.82	18.20	-50.7	-52.3	15.2	0.00e+00	0	25	0	306184192	68	4116
2026-01-07 09:02:10.10	134.78	18.32	-50.8	-52.4	15.1	0.00e+00	0	25	0	308281344	68	4147
2026-01-07 09:02:11.10	134.74	18.44	-50.8	-52.4	15.1	0.00e+00	0	25	0	309329920	68	4174
2026-01-07 09:02:12.10	134.70	18.56	-50.8	-52.4	15.1	0.00e+00	0	25	0	311427072	68	4172
2026-01-07 09:02:13.09	134.66	18.69	-50.7	-52.3	15.2	0.00e+00	0	25	0	313524224	68	4116
2026-01-07 09:02:14.08	134.62	18.81	-50.5	-52.1	15.1	0.00e+00	0	25	0	315621376	67	4257
2026-01-07 09:02:15.08	134.58	18.93	-50.6	-52.1	15.1	0.00e+00	0	25	0	316669952	67	4287
2026-01-07 09:02:16.07	134.54	19.05	-50.5	-52.0	15.1	0.00e+00	0	25	0	318767104	67	4239
2026-01-07 09:02:17.06	134.49	19.18	-50.6	-52.1	15.0	0.00e+00	0	25	0	320864256	67	4283
2026-01-07 09:02:18.05	134.45	19.30	-50.5	-52.1	15.1	0.00e+00	0	25	0	322961408	67	4264
2026-01-07 09:02:19.05	134.41	19.43	-50.5	-52.1	15.1	0.00e+00	0	25	0	324009984	67	4245
2026-01-07 09:02:20.04	134.36	19.55	-50.4	-52.0	15.1	0.00e+00	0	24	0	326107136	67	4211
2026-01-07 09:02:21.04	134.32	19.68	-50.5	-52.1	15.1	0.00e+00	0	25	0	328204288	67	4278
2026-01-07 09:02:22.04	134.28	19.81	-50.5	-52.1	15.1	0.00e+00	0	25	0	330301440	67	4264
2026-01-07 09:02:23.03	134.23	19.93	-50.5	-52.1	15.1	0.00e+00	0	25	0	332398592	67	4270
2026-01-07 09:02:24.02	134.19	20.06	-50.6	-52.1	15.1	0.00e+00	0	25	0	333447168	67	4280
2026-01-07 09:02:25.01	134.14	20.19	-50.5	-52.0	15.1	0.00e+00	0	25	0	335544320	67	4214
2026-01-07 09:02:26.02	134.10	20.32	-50.5	-52.0	15.1	0.00e+00	0	25	0	337641472	67	4236
2026-01-07 09:02:27.01	134.05	20.45	-50.4	-51.9	15.1	0.00e+00	0	25	0	339738624	67	4190
2026-01-07 09:02:28.01	134.00	20.58	-50.5	-52.0	15.1	0.00e+00	0	25	0	341835776	67	4238
2026-01-07 09:02:28.99	133.96	20.71	-50.6	-52.2	15.1	0.00e+00	0	25	0	342884352	67	4296
2026-01-07 09:02:29.99	133.91	20.85	-50.5	-52.1	15.1	0.00e+00	0	25	0	344981504	67	4257
2026-01-07 09:02:30.99	133.86	20.98	-50.4	-51.9	15.2	0.00e+00	0	25	0	347078656	67	4180
2026-01-07 09:02:31.98	133.81	21.11	-50.5	-52.0	15.1	0.00e+00	0	25	0	349175808	67	4224
2026-01-07 09:02:32.98	133.76	21.25	-50.5	-52.1	15.1	0.00e+00	0	25	0	350224384	67	4246
2026-01-07 09:02:33.98	133.71	21.38	-50.4	-51.9	15.1	0.00e+00	0	25	0	352321536	67	4190
2026-01-07 09:02:34.98	133.66	21.52	-50.4	-51.9	15.2	0.00e+00	0	25	0	354418688	67	4171
2026-01-07 09:02:35.97	133.61	21.65	-50.4	-52.0	15.1	0.00e+00	0	25	0	356515840	67	4205
2026-01-07 09:02:36.97	133.56	21.79	-50.5	-52.1	15.1	0.00e+00	0	25	0	358612992	67	4250
2026-01-07 09:02:37.96	133.51	21.93	-50.5	-52.0	15.1	0.00e+00	0	25	0	359661568	67	4242
2026-01-07 09:02:38.96	133.46	22.07	-50.4	-52.0	15.1	0.00e+00	0	25	0	361758720	67	4199
2026-01-07 09:02:39.96	133.41	22.21	-50.5	-52.1	15.1	0.00e+00	0	25	0	363855872	67	4257
2026-01-07 09:02:40.96	133.36	22.35	-50.4	-52.0	15.2	0.00e+00	0	25	0	365953024	67	4203
2026-01-07 09:02:41.95	133.30	22.49	-50.5	-52.1	15.1	0.00e+00	0	25	0	368050176	67	4252
2026-01-07 09:02:42.94	133.25	22.63	-50.6	-52.1	15.1	0.00e+00	0	25	0	369098752	67	4277
2026-01-07 09:02:43.93	133.20	22.77	-50.6	-52.2	15.1	0.00e+00	0	25	0	371195904	67	4301
2026-01-07 09:02:44.92	133.14	22.92	-50.5	-52.1	15.1	0.00e+00	0	25	0	373293056	67	4255
2026-01-07 09:02:45.92	133.09	23.06	-50.6	-52.2	15.1	0.00e+00	0	25	0	375390208	67	4306
2026-01-07 09:02:46.92	133.03	23.21	-50.6	-52.2	15.1	0.00e+00	0	25	0	376438784	67	4292
2026-01-07 09:02:47.92	132.97	23.35	-50.6	-52.2	15.0	0.00e+00	0	25	0	378535936	67	4296
2026-01-07 09:02:48.91	132.92	23.50	-50.6	-52.2	15.1	0.00e+00	0	25	0	380633088	67	4296
2026-01-07 09:02:49.90	132.86	23.64	-50.7	-52.3	15.0	0.00e+00	0	25	0	382730240	67	4348
2026-01-07 09:02:50.89	132.80	23.79	-50.7	-52.3	15.0	0.00e+00	0	25	0	383778816	67	4362
2026-01-07 09:02:51.89	132.74	23.94	-50.7	-52.3	15.0	0.00e+00	0	25	0	385875968	67	4348
2026-01-07 09:02:52.88	132.68	24.09	-50.8	-52.4	15.0	0.00e+00	0	25	0	387973120	67	4408
2026-01-07 09:02:53.88	132.62	24.24	-50.8	-52.4	14.9	0.00e+00	0	25	0	390070272	67	4427
2026-01-07 09:02:54.87	132.56	24.39	-50.9	-52.5	14.9	0.00e+00	0	25	0	392167424	67	4487
2026-01-07 09:02:55.87	132.50	24.54	-50.9	-52.5	14.9	0.00e+00	0	25	0	393216000	67	4487
2026-01-07 09:02:56.86	132.44	24.69	-51.1	-52.7	14.8	0.00e+00	0	25	0	395313152	67	4570
2026-01-07 09:02:57.85	132.38	24.85	-51.0	-52.7	14.8	0.00e+00	0	25	0	397410304	67	4561
2026-01-07 09:02:58.85	132.32	25.00	-51.1	-52.8	14.8	0.00e+00	0	25	0	399507456	67	4601
2026-01-07 09:02:59.85	132.25	25.16	-51.1	-52.7	14.8	0.00e+00	0	25	0	400556032	67	4585
2026-01-07 09:03:00.84	132.19	25.31	-51.2	-52.8	14.8	0.00e+00	0	25	0	402653184	67	4644
2026-01-07 09:03:01.84	132.12	25.47	-51.3	-53.0	14.7	0.00e+00	0	25	0	404750336	67	4708
2026-01-07 09:03:02.83	132.06	25.63	-51.3	-53.0	14.7	0.00e+00	0	25	0	406847488	67	4724
2026-01-07 09:03:03.82	131.99	25.79	-51.6	-53.3	14.7	0.00e+00	0	25	0	408944640	68	4627
2026-01-07 09:03:04.81	131.93	25.95	-51.6	-53.3	14.7	0.00e+00	0	25	0	409993216	68	4629
2026-01-07 09:03:05.81	131.86	26.11	-51.7	-53.4	14.7	0.00e+00	0	25	0	412090368	68	4671
2026-01-07 09:03:06.80	131.79	26.27	-51.7	-53.4	14.7	0.00e+00	0	25	0	414187520	68	4694
2026-01-07 09:03:07.80	131.72	26.43	-51.8	-53.6	14.6	0.00e+00	0	25	0	416284672	68	4763
2026-01-07 09:03:08.80	131.65	26.60	-51.9	-53.7	14.7	0.00e+00	0	25	0	418381824	69	4565
2026-01-07 09:03:09.79	131.58	26.76	-51.9	-53.7	14.7	0.00e+00	0	25	0	419430400	69	4569
2026-01-07 09:03:10.79	131.51	26.93	-52.1	-53.9	14.6	0.00e+00	0	25	0	421527552	69	4656
2026-01-07 09:03:11.79	131.44	27.09	-52.2	-54.1	14.5	0.00e+00	0	25	0	423624704	69	4781
2026-01-07 09:03:12.79	131.36	27.26	-52.5	-54.4	14.5	0.00e+00	0	25	0	425721856	70	4654
2026-01-07 09:03:13.78	131.29	27.43	-52.6	-54.5	14.4	0.00e+00	0	25	0	426770432	70	4730
2026-01-07 09:03:14.77	131.22	27.60	-52.8	-54.8	14.3	0.00e+00	0	25	0	428867584	70	4904
2026-01-07 09:03:15.76	131.14	27.77	-52.9	-55.0	14.2	0.00e+00	0	25	0	430964736	70	4992
2026-01-07 09:03:16.76	131.06	27.94	-53.1	-55.2	14.3	0.00e+00	0	25	0	433061888	71	4821
2026-01-07 09:03:17.76	130.99	28.11	-53.2	-55.4	14.1	0.00e+00	0	25	0	435159040	71	4962
2026-01-07 09:03:18.75	130.91	28.28	-53.4	-55.6	14.0	0.00e+00	0	25	0	436207616	71	5069
2026-01-07 09:03:19.74	130.83	28.46	-53.5	-55.7	14.1	0.00e+00	0	25	0	438304768	72	4841
2026-01-07 09:03:20.74	130.75	28.63	-53.6	-55.8	14.1	0.00e+00	0	25	0	440401920	72	4892
2026-01-07 09:03:21.74	130.67	28.81	-53.6	-55.8	14.0	0.00e+00	0	25	0	442499072	72	4915
2026-01-07 09:03:22.72	130.59	28.99	-53.6	-55.9	14.0	0.00e+00	0	25	0	443547648	72	4955
2026-01-07 09:03:23.72	130.51	29.17	-53.7	-56.0	14.0	0.00e+00	0	25	0	445644800	72	5004
2026-01-07 09:03:24.72	130.42	29.35	-53.6	-55.9	14.0	0.00e+00	0	25	0	447741952	72	4929
2026-01-07 09:03:25.71	130.34	29.53	-53.6	-55.9	14.0	0.00e+00	0	25	0	449839104	72	4961
2026-01-07 09:03:26.71	130.25	29.71	-53.7	-56.1	13.9	0.00e+00	0	25	0	451936256	72	5045
2026-01-07 09:03:27.71	130.17	29.89	-53.7	-56.1	13.9	0.00e+00	0	25	0	452984832	72	5046
2026-01-07 09:03:28.71	130.08	30.08	-53.7	-56.0	13.9	0.00e+00	0	25	0	455081984	72	5008
2026-01-07 09:03:29.71	129.99	30.26	-53.8	-56.2	13.8	0.00e+00	0	25	0	457179136	72	5122
2026-01-07 09:03:30.70	129.90	30.45	-53.9	-56.3	13.9	0.00e+00	0	25	0	459276288	73	4912
2026-01-07 09:03:31.69	129.81	30.63	-53.9	-56.3	13.9	0.00e+00	0	25	0	460324864	73	4914
2026-01-07 09:03:32.69	129.72	30.82	-54.1	-56.5	13.8	0.00e+00	0	25	0	462422016	73	5006
2026-01-07 09:03:33.69	129.62	31.01	-54.1	-56.6	13.7	0.00e+00	0	25	0	464519168	73	5074
2026-01-07 09:03:34.68	129.53	31.20	-54.2	-56.7	13.6	0.00e+00	0	25	0	466616320	73	5151
2026-01-07 09:03:35.68	129.44	31.40	-54.3	-56.9	13.6	0.00e+00	0	25	0	468713472	73	5253
2026-01-07 09:03:36.68	129.34	31.59	-54.5	-57.1	13.6	0.00e+00	0	25	0	469762048	74	5097
2026-01-07 09:03:37.68	129.24	31.79	-54.6	-57.3	13.5	0.00e+00	0	25	0	471859200	74	5180
2026-01-07 09:03:38.66	129.14	31.98	-54.6	-57.3	13.5	0.00e+00	0	25	0	473956352	74	5166
2026-01-07 09:03:39.66	129.04	32.18	-54.8	-57.6	13.3	0.00e+00	0	25	0	476053504	74	5374
2026-01-07 09:03:40.66	128.94	32.37	-54.8	-57.6	13.3	0.00e+00	0	25	0	477102080	74	5364
2026-01-07 09:03:41.65	128.84	32.57	-54.8	-57.6	13.3	0.00e+00	0	25	0	479199232	74	5374
2026-01-07 09:03:42.64	128.74	32.77	-54.8	-57.6	13.3	0.00e+00	0	25	0	481296384	74	5363
2026-01-07 09:03:43.64	128.63	32.97	-54.8	-57.6	13.3	0.00e+00	0	25	0	483393536	74	5381
2026-01-07 09:03:44.63	128.52	33.18	-55.0	-57.8	13.2	0.00e+00	0	25	0	485490688	75	5200
2026-01-07 09:03:45.63	128.42	33.38	-54.9	-57.7	13.4	0.00e+00	0	25	0	486539264	75	5106
2026-01-07 09:03:46.62	128.31	33.58	-54.9	-57.8	13.3	0.00e+00	0	25	0	488636416	75	5166
2026-01-07 09:03:47.61	128.20	33.79	-54.9	-57.8	13.3	0.00e+00	0	25	0	490733568	75	5172
2026-01-07 09:03:48.61	128.08	34.00	-55.0	-57.8	13.3	0.00e+00	0	25	0	492830720	75	5197
2026-01-07 09:03:49.61	127.97	34.21	-55.0	-57.9	13.2	0.00e+00	0	25	0	493879296	75	5261
2026-01-07 09:03:50.60	127.86	34.42	-55.0	-57.9	13.2	0.00e+00	0	25	0	495976448	75	5239
2026-01-07 09:03:51.60	127.74	34.63	-54.9	-57.7	13.3	0.00e+00	0	25	0	498073600	75	5123
2026-01-07 09:03:52.60	127.62	34.84	-54.9	-57.8	13.3	0.00e+00	0	25	0	500170752	75	5184
2026-01-07 09:03:53.58	127.50	35.06	-54.8	-57.5	13.4	0.00e+00	0	25	0	502267904	75	5039
2026-01-07 09:03:54.58	127.38	35.27	-54.9	-57.6	13.4	0.00e+00	0	25	0	503316480	75	5098
2026-01-07 09:03:55.58	127.26	35.49	-55.0	-57.9	13.2	0.00e+00	0	25	0	505413632	75	5231
2026-01-07 09:03:56.58	127.13	35.71	-54.9	-57.7	13.3	0.00e+00	0	25	0	507510784	75	5159
2026-01-07 09:03:57.58	127.00	35.93	-55.1	-58.0	13.1	0.00e+00	0	25	0	509607936	75	5292
2026-01-07 09:03:58.57	126.88	36.15	-55.2	-58.2	13.0	0.00e+00	0	25	0	511705088	75	5435
2026-01-07 09:03:59.57	126.74	36.37	-55.2	-58.2	13.1	0.00e+00	0	25	0	512753664	75	5404
2026-01-07 09:04:00.57	126.61	36.60	-55.3	-58.4	12.9	0.00e+00	0	25	0	514850816	75	5544
2026-01-07 09:04:01.56	126.48	36.82	-55.4	-58.6	12.8	0.00e+00	0	25	0	516947968	75	5680
2026-01-07 09:04:02.54	126.34	37.04	-55.4	-58.5	12.8	0.00e+00	0	25	0	519045120	75	5636
2026-01-07 09:04:03.54	126.21	37.27	-55.3	-58.4	12.9	0.00e+00	0	25	0	520093696	75	5575
2026-01-07 09:04:04.54	126.07	37.50	-55.4	-58.5	13.0	0.00e+00	0	25	0	522190848	76	5315
2026-01-07 09:04:05.54	125.92	37.73	-55.3	-58.2	13.1	0.00e+00	0	25	0	524288000	76	5155
2026-01-07 09:04:06.53	125.78	37.96	-55.1	-58.0	13.3	0.00e+00	0	25	0	526385152	76	5018
2026-01-07 09:04:07.53	125.63	38.20	-55.1	-58.0	13.3	0.00e+00	0	25	0	528482304	76	4994
2026-01-07 09:04:08.53	125.49	38.43	-55.0	-57.7	13.5	0.00e+00	0	25	0	529530880	76	4830
2026-01-07 09:04:09.53	125.33	38.67	-55.0	-57.7	13.5	0.00e+00	0	25	0	531628032	76	4864
2026-01-07 09:04:10.53	125.18	38.91	-55.1	-57.9	13.4	0.00e+00	0	25	0	533725184	76	4955
2026-01-07 09:04:11.53	125.03	39.15	-54.9	-57.6	13.5	0.00e+00	0	25	0	535822336	76	4807
2026-01-07 09:04:12.52	124.87	39.39	-54.8	-57.4	13.7	0.00e+00	0	25	0	536870912	76	4695
2026-01-07 09:04:13.51	124.71	39.63	-54.5	-57.0	13.8	0.00e+00	0	25	0	538968064	75	4755
2026-01-07 09:04:14.50	124.55	39.87	-54.4	-56.9	13.9	0.00e+00	0	25	0	541065216	75	4671
2026-01-07 09:04:15.50	124.38	40.11	-54.2	-56.6	14.0	0.00e+00	0	25	0	543162368	75	4518
2026-01-07 09:04:16.50	124.22	40.36	-54.1	-56.5	14.0	0.00e+00	0	25	0	545259520	74	4722
2026-01-07 09:04:17.49	124.05	40.61	-54.1	-56.4	14.0	0.00e+00	0	25	0	546308096	74	4681
2026-01-07 09:04:18.48	123.88	40.86	-54.0	-56.3	14.1	0.00e+00	0	25	0	548405248	74	4620
2026-01-07 09:04:19.48	123.70	41.11	-53.9	-56.1	14.2	0.00e+00	0	25	0	550502400	74	4543
2026-01-07 09:04:20.47	123.52	41.36	-53.5	-55.7	14.3	0.00e+00	0	25	0	552599552	73	4566
2026-01-07 09:04:21.47	123.34	41.61	-53.6	-55.8	14.2	0.00e+00	0	25	0	553648128	73	4632
2026-01-07 09:04:22.46	123.16	41.86	-53.5	-55.7	14.3	0.00e+00	0	25	0	555745280	73	4556
2026-01-07 09:04:23.45	122.97	42.12	-53.3	-55.3	14.5	0.00e+00	0	25	0	557842432	73	4370
2026-01-07 09:04:24.45	122.78	42.38	-53.3	-55.3	14.5	0.00e+00	0	25	0	559939584	73	4353
2026-01-07 09:04:25.44	122.59	42.63	-53.4	-55.4	14.4	0.00e+00	0	25	0	562036736	73	4430
2026-01-07 09:04:26.43	122.40	42.89	-53.5	-55.6	14.3	0.00e+00	0	25	0	563085312	73	4538
2026-01-07 09:04:27.43	122.20	43.15	-53.6	-55.7	14.2	0.00e+00	0	25	0	565182464	73	4591
2026-01-07 09:04:28.42	122.00	43.42	-53.5	-55.6	14.3	0.00e+00	0	25	0	567279616	73	4518
2026-01-07 09:04:29.41	121.79	43.68	-53.1	-55.1	14.5	0.00e+00	0	25	0	569376768	72	4521
2026-01-07 09:04:30.40	121.58	43.94	-53.0	-54.9	14.6	0.00e+00	0	25	0	570425344	72	4410
2026-01-07 09:04:31.40	121.37	44.21	-52.7	-54.6	14.8	0.00e+00	0	25	0	572522496	72	4252
2026-01-07 09:04:32.39	121.15	44.48	-52.7	-54.6	14.6	0.00e+00	0	25	0	574619648	71	4504
2026-01-07 09:04:33.39	120.93	44.75	-52.5	-54.3	14.7	0.00e+00	0	25	0	576716800	71	4360
2026-01-07 09:04:34.38	120.71	45.02	-52.3	-54.1	14.8	0.00e+00	0	25	0	578813952	71	4280
2026-01-07 09:04:35.38	120.48	45.29	-52.1	-53.9	14.9	0.00e+00	0	25	0	579862528	70	4398
2026-01-07 09:04:36.38	120.25	45.57	-52.2	-53.9	14.8	0.00e+00	0	25	0	581959680	70	4428
2026-01-07 09:04:37.37	120.01	45.84	-52.5	-54.3	14.6	0.00e+00	0	25	0	584056832	70	4646
2026-01-07 09:04:38.37	119.77	46.12	-52.6	-54.5	14.5	0.00e+00	0	25	0	586153984	70	4707
2026-01-07 09:04:39.35	119.53	46.39	-52.5	-54.4	14.5	0.00e+00	0	25	0	587202560	70	4684
2026-01-07 09:04:40.35	119.28	46.67	-52.5	-54.4	14.6	0.00e+00	0	25	0	589299712	70	4652
2026-01-07 09:04:41.35	119.03	46.95	-52.4	-54.2	14.7	0.00e+00	0	25	0	591396864	70	4572
2026-01-07 09:04:42.34	118.77	47.23	-52.4	-54.3	14.6	0.00e+00	0	25	0	593494016	70	4601
2026-01-07 09:04:43.33	118.51	47.51	-52.6	-54.5	14.5	0.00e+00	0	25	0	595591168	70	4714
2026-01-07 09:04:44.33	118.24	47.80	-52.8	-54.7	14.4	0.00e+00	0	25	0	596639744	70	4857
2026-01-07 09:04:45.32	117.97	48.08	-52.7	-54.6	14.4	0.00e+00	0	25	0	598736896	70	4805
2026-01-07 09:04:46.33	117.69	48.37	-52.8	-54.8	14.4	0.00e+00	0	25	0	600834048	70	4872
2026-01-07 09:04:47.32	117.40	48.66	-53.0	-55.0	14.4	0.00e+00	0	25	0	602931200	71	4711
2026-01-07 09:04:48.32	117.11	48.95	-52.8	-54.8	14.5	0.00e+00	0	25	0	603979776	71	4606
2026-01-07 09:04:49.32	116.82	49.24	-52.7	-54.5	14.6	0.00e+00	0	25	0	606076928	71	4485
2026-01-07 09:04:50.32	116.52	49.53	-52.4	-54.3	14.8	0.00e+00	0	25	0	608174080	71	4353
2026-01-07 09:04:51.32	116.21	49.83	-52.1	-53.8	14.9	0.00e+00	0	25	0	610271232	70	4359
2026-01-07 09:04:52.31	115.90	50.12	-51.7	-53.3	15.1	0.00e+00	0	25	0	612368384	70	4121
2026-01-07 09:04:53.31	115.58	50.41	-51.5	-53.1	15.0	0.00e+00	0	25	0	613416960	69	4291
2026-01-07 09:04:54.31	115.26	50.71	-51.4	-53.0	15.1	0.00e+00	0	25	0	615514112	69	4219
2026-01-07 09:04:55.30	114.93	51.00	-51.4	-53.0	15.1	0.00e+00	0	25	0	617611264	69	4210
2026-01-07 09:04:56.29	114.59	51.29	-51.5	-53.1	15.0	0.00e+00	0	25	0	619708416	69	4250
2026-01-07 09:04:57.28	114.25	51.59	-51.2	-52.8	15.2	0.00e+00	0	25	0	620756992	69	4129
2026-01-07 09:04:58.28	113.90	51.89	-51.1	-52.7	15.0	0.00e+00	0	25	0	622854144	68	4312
2026-01-07 09:04:59.27	113.54	52.19	-50.8	-52.3	15.2	0.00e+00	0	25	0	624951296	68	4137
2026-01-07 09:05:00.27	113.17	52.49	-50.8	-52.3	15.2	0.00e+00	0	25	0	627048448	68	4106
2026-01-07 09:05:01.27	112.80	52.79	-50.8	-52.3	15.2	0.00e+00	0	25	0	629145600	68	4136
2026-01-07 09:05:02.27	112.42	53.09	-51.0	-52.5	15.1	0.00e+00	0	25	0	630194176	68	4201
2026-01-07 09:05:03.27	112.02	53.39	-51.2	-52.7	15.0	0.00e+00	0	25	0	632291328	68	4329
2026-01-07 09:05:04.26	111.63	53.69	-51.4	-53.0	14.9	0.00e+00	0	25	0	634388480	68	4483
2026-01-07 09:05:05.25	111.23	53.99	-51.5	-53.2	14.8	0.00e+00	0	25	0	636485632	68	4555
2026-01-07 09:05:06.24	110.81	54.29	-51.6	-53.3	14.8	0.00e+00	0	25	0	637534208	68	4614
2026-01-07 09:05:07.24	110.39	54.59	-52.1	-53.8	14.7	0.00e+00	0	25	0	639631360	69	4640
2026-01-07 09:05:08.23	109.96	54.89	-52.5	-54.3	14.6	0.00e+00	0	25	0	641728512	70	4649
2026-01-07 09:05:09.24	109.51	55.20	-52.8	-54.7	14.4	0.00e+00	0	25	0	643825664	70	4835
2026-01-07 09:05:10.23	109.06	55.50	-53.3	-55.4	14.2	0.00e+00	0	25	0	645922816	71	4934
2026-01-07 09:05:11.23	108.60	55.80	-53.8	-56.1	14.0	0.00e+00	0	25	0	646971392	72	5068
2026-01-07 09:05:12.23	108.13	56.11	-54.3	-56.7	13.9	0.00e+00	0	25	0	649068544	74	4843
2026-01-07 09:05:13.23	107.64	56.41	-54.7	-57.3	13.6	0.00e+00	0	25	0	651165696	74	5165
2026-01-07 09:05:14.23	107.15	56.71	-54.6	-57.1	13.7	0.00e+00	0	25	0	653262848	74	5084
2026-01-07 09:05:15.22	106.65	57.01	-54.8	-57.4	13.5	0.00e+00	0	25	0	655360000	74	5249
2026-01-07 09:05:16.22	106.13	57.31	-54.5	-57.0	13.8	0.00e+00	0	25	0	656408576	74	5012
2026-01-07 09:05:17.22	105.60	57.61	-54.4	-56.9	13.8	0.00e+00	0	25	0	658505728	74	4936
2026-01-07 09:05:18.22	105.06	57.91	-54.5	-56.9	13.8	0.00e+00	0	25	0	660602880	74	4969
2026-01-07 09:05:19.22	104.51	58.21	-54.3	-56.7	13.9	0.00e+00	0	25	0	662700032	74	4851
2026-01-07 09:05:20.21	103.95	58.50	-53.9	-56.2	14.2	0.00e+00	0	25	0	664797184	74	4549
2026-01-07 09:05:21.21	103.38	58.80	-53.4	-55.4	14.5	0.00e+00	0	25	0	665845760	73	4428
2026-01-07 09:05:22.19	102.80	59.09	-53.3	-55.2	14.6	0.00e+00	0	25	0	667942912	73	4333
2026-01-07 09:05:23.19	102.19	59.38	-53.4	-55.5	14.5	0.00e+00	0	25	0	670040064	73	4452
2026-01-07 09:05:24.19	101.58	59.67	-53.1	-55.0	14.5	0.00e+00	0	25	0	672137216	72	4476
2026-01-07 09:05:25.18	100.95	59.96	-52.6	-54.4	14.8	0.00e+00	0	25	0	673185792	71	4406
2026-01-07 09:05:26.17	100.31	60.25	-52.0	-53.7	14.9	0.00e+00	0	25	0	675282944	70	4313
2026-01-07 09:05:27.17	99.65	60.53	-51.4	-53.0	15.1	0.00e+00	0	25	0	677380096	69	4221
2026-01-07 09:05:28.17	98.98	60.82	-50.9	-52.4	15.2	0.00e+00	0	25	0	679477248	68	4183
2026-01-07 09:05:29.17	98.28	61.10	-50.8	-52.3	15.2	0.00e+00	0	25	0	681574400	68	4111
2026-01-07 09:05:30.17	97.58	61.38	-50.2	-51.6	15.3	0.00e+00	0	25	0	682622976	67	4043
2026-01-07 09:05:31.16	96.86	61.65	-50.1	-51.5	15.2	0.00e+00	0	25	0	684720128	66	4233
2026-01-07 09:05:32.16	96.12	61.93	-50.1	-51.5	15.2	0.00e+00	0	25	0	686817280	66	4199
2026-01-07 09:05:33.15	95.38	62.19	-50.1	-51.5	15.2	0.00e+00	0	25	0	688914432	66	4212
2026-01-07 09:05:34.14	94.61	62.46	-50.3	-51.7	15.2	0.00e+00	0	25	0	689963008	66	4310
2026-01-07 09:05:35.13	93.83	62.72	-50.5	-52.0	15.0	0.00e+00	0	25	0	692060160	66	4469
2026-01-07 09:05:36.13	93.02	62.98	-50.5	-51.9	15.0	0.00e+00	0	25	0	694157312	66	4430
2026-01-07 09:05:37.12	92.21	63.23	-50.4	-51.9	15.1	0.00e+00	0	25	0	696254464	66	4392
2026-01-07 09:05:38.11	91.37	63.48	-50.6	-52.1	15.0	0.00e+00	0	25	0	698351616	66	4510
2026-01-07 09:05:39.10	90.52	63.73	-50.7	-52.2	15.0	0.00e+00	0	25	0	699400192	66	4553
2026-01-07 09:05:40.10	89.65	63.97	-50.1	-51.5	15.2	0.00e+00	0	25	0	701497344	66	4220
2026-01-07 09:05:41.09	88.76	64.21	-50.3	-51.7	15.1	0.00e+00	0	25	0	703594496	66	4313
2026-01-07 09:05:42.10	87.83	64.44	-50.6	-52.1	15.0	0.00e+00	0	25	0	705691648	66	4509
2026-01-07 09:05:43.09	86.91	64.67	-51.0	-52.5	15.0	0.00e+00	0	25	0	706740224	67	4453
2026-01-07 09:05:44.09	85.96	64.89	-51.0	-52.5	15.0	0.00e+00	0	25	0	708837376	67	4480
2026-01-07 09:05:45.08	85.00	65.11	-51.1	-52.6	14.9	0.00e+00	0	25	0	710934528	67	4545
2026-01-07 09:05:46.08	84.01	65.32	-51.6	-53.2	14.8	0.00e+00	0	25	0	713031680	68	4596
2026-01-07 09:05:47.07	83.01	65.52	-52.0	-53.7	14.8	0.00e+00	0	25	0	715128832	69	4547
2026-01-07 09:05:48.06	81.99	65.72	-52.7	-54.6	14.5	0.00e+00	0	25	0	716177408	70	4790
2026-01-07 09:05:49.06	80.95	65.91	-53.4	-55.5	14.2	0.00e+00	0	25	0	718274560	71	5031
2026-01-07 09:05:50.05	79.89	66.09	-53.6	-55.7	14.2	0.00e+00	0	25	0	720371712	72	4833
2026-01-07 09:05:51.04	78.82	66.27	-53.1	-55.1	14.5	0.00e+00	0	25	0	722468864	72	4524
2026-01-07 09:05:52.05	77.71	66.44	-53.2	-55.1	14.5	0.00e+00	0	25	0	723517440	72	4535
2026-01-07 09:05:53.05	76.60	66.60	-53.4	-55.4	14.4	0.00e+00	0	25	0	725614592	72	4699
2026-01-07 09:05:54.05	75.47	66.76	-53.7	-55.9	14.1	0.00e+00	0	25	0	727711744	72	4960
2026-01-07 09:05:55.04	74.33	66.90	-53.9	-56.1	14.2	0.00e+00	0	25	0	729808896	73	4770
2026-01-07 09:05:56.04	73.17	67.04	-54.0	-56.2	14.1	0.00e+00	0	25	0	731906048	73	4863
2026-01-07 09:05:57.04	71.99	67.17	-54.2	-56.6	13.9	0.00e+00	0	25	0	732954624	73	5085
2026-01-07 09:05:58.04	70.79	67.29	-54.5	-57.0	13.8	0.00e+00	0	25	0	735051776	74	5033
2026-01-07 09:05:59.04	69.59	67.40	-54.5	-57.0	13.8	0.00e+00	0	25	0	737148928	74	4997
2026-01-07 09:06:00.03	68.38	67.50	-54.2	-56.5	14.1	0.00e+00	0	25	0	739246080	74	4738
2026-01-07 09:06:01.02	67.16	67.59	-53.8	-55.9	14.4	0.00e+00	0	25	0	740294656	74	4415
2026-01-07 09:06:02.02	65.92	67.68	-53.5	-55.5	14.5	0.00e+00	0	25	0	742391808	73	4479
2026-01-07 09:06:03.02	64.67	67.75	-53.6	-55.6	14.4	0.00e+00	0	25	0	744488960	73	4528
2026-01-07 09:06:04.02	63.41	67.81	-53.4	-55.4	14.5	0.00e+00	0	25	0	746586112	73	4401
2026-01-07 09:06:05.02	62.15	67.87	-53.6	-55.7	14.4	0.00e+00	0	25	0	748683264	73	4566
2026-01-07 09:06:06.02	60.87	67.91	-53.8	-55.9	14.3	0.00e+00	0	25	0	749731840	73	4687
2026-01-07 09:06:07.02	59.60	67.95	-53.6	-55.6	14.4	0.00e+00	0	25	0	751828992	73	4525
2026-01-07 09:06:08.02	58.32	67.97	-53.6	-55.6	14.4	0.00e+00	0	25	0	753926144	73	4528
2026-01-07 09:06:09.02	57.03	67.98	-53.9	-56.1	14.2	0.00e+00	0	25	0	756023296	73	4769
2026-01-07 09:06:10.02	55.75	67.99	-54.2	-56.5	13.9	0.00e+00	0	25	0	758120448	73	5022
2026-01-07 09:06:11.02	54.46	67.98	-54.3	-56.6	13.9	0.00e+00	0	25	0	759169024	73	5095
2026-01-07 09:06:12.01	53.19	67.96	-54.3	-56.7	14.0	0.00e+00	0	25	0	761266176	74	4837
2026-01-07 09:06:13.01	51.91	67.94	-54.2	-56.6	14.0	0.00e+00	0	25	0	763363328	74	4773
2026-01-07 09:06:14.01	50.64	67.90	-53.7	-55.8	14.5	0.00e+00	0	25	0	765460480	74	4368
2026-01-07 09:06:15.00	49.38	67.85	-53.3	-55.3	14.6	0.00e+00	0	25	0	766509056	73	4349
2026-01-07 09:06:15.99	48.13	67.79	-53.3	-55.3	14.6	0.00e+00	0	25	0	768606208	73	4351
2026-01-07 09:06:16.98	46.89	67.73	-53.6	-55.7	14.4	0.00e+00	0	25	0	770703360	73	4556
2026-01-07 09:06:17.98	45.64	67.65	-53.9	-56.0	14.2	0.00e+00	0	25	0	772800512	73	4759
2026-01-07 09:06:18.99	44.39	67.56	-53.7	-55.8	14.3	0.00e+00	0	25	0	774897664	73	4625
2026-01-07 09:06:19.99	43.16	67.47	-53.5	-55.6	14.4	0.00e+00	0	25	0	775946240	73	4509
2026-01-07 09:06:20.99	41.95	67.36	-53.0	-54.9	14.6	0.00e+00	0	25	0	778043392	72	4411
2026-01-07 09:06:21.98	40.76	67.25	-53.3	-55.3	14.4	0.00e+00	0	25	0	780140544	72	4613
2026-01-07 09:06:22.98	39.57	67.13	-53.3	-55.2	14.5	0.00e+00	0	25	0	782237696	72	4583
2026-01-07 09:06:23.98	38.40	67.00	-53.3	-55.2	14.5	0.00e+00	0	25	0	784334848	72	4594
2026-01-07 09:06:24.97	37.25	66.86	-53.1	-55.0	14.6	0.00e+00	0	25	0	785383424	72	4447
2026-01-07 09:06:25.96	36.12	66.71	-53.1	-54.9	14.6	0.00e+00	0	25	0	787480576	72	4432
2026-01-07 09:06:26.95	35.00	66.55	-53.2	-55.1	14.5	0.00e+00	0	25	0	789577728	72	4532
2026-01-07 09:06:27.94	33.90	66.39	-53.1	-55.1	14.6	0.00e+00	0	25	0	791674880	72	4498
2026-01-07 09:06:28.94	32.81	66.22	-52.5	-54.2	14.8	0.00e+00	0	25	0	792723456	71	4327
2026-01-07 09:06:29.93	31.75	66.04	-52.4	-54.2	14.9	0.00e+00	0	25	0	794820608	71	4292
2026-01-07 09:06:30.92	30.70	65.86	-52.1	-53.8	14.9	0.00e+00	0	25	0	796917760	70	4363
2026-01-07 09:06:31.92	29.66	65.66	-51.6	-53.1	15.1	0.00e+00	0	25	0	799014912	69	4289
2026-01-07 09:06:32.93	28.63	65.46	-51.7	-53.3	14.9	0.00e+00	0	25	0	801112064	69	4391
2026-01-07 09:06:33.91	27.65	65.26	-51.6	-53.2	15.0	0.00e+00	0	25	0	802160640	69	4325
2026-01-07 09:06:34.91	26.67	65.05	-51.3	-52.9	15.2	0.00e+00	0	25	0	804257792	69	4146
2026-01-07 09:06:35.90	25.71	64.83	-51.1	-52.6	15.1	0.00e+00	0	25	0	806354944	68	4287
2026-01-07 09:06:36.89	24.77	64.61	-50.8	-52.2	15.3	0.00e+00	0	25	0	808452096	68	4073
2026-01-07 09:06:37.88	23.86	64.38	-50.5	-51.9	15.2	0.00e+00	0	25	0	809500672	67	4181
2026-01-07 09:06:38.88	22.95	64.15	-50.8	-52.2	15.1	0.00e+00	0	25	0	811597824	67	4332
2026-01-07 09:06:39.88	22.06	63.91	-51.1	-52.6	14.9	0.00e+00	0	25	0	813694976	67	4540
2026-01-07 09:06:40.88	21.18	63.67	-51.0	-52.5	15.0	0.00e+00	0	25	0	815792128	67	4490
2026-01-07 09:06:41.87	20.34	63.42	-51.1	-52.7	14.9	0.00e+00	0	25	0	817889280	67	4554
2026-01-07 09:06:42.86	19.51	63.17	-51.3	-52.8	14.9	0.00e+00	0	25	0	818937856	67	4631
2026-01-07 09:06:43.85	18.70	62.91	-51.8	-53.4	14.8	0.00e+00	0	25	0	821035008	68	4666
2026-01-07 09:06:44.86	17.89	62.65	-52.1	-53.8	14.7	0.00e+00	0	25	0	823132160	69	4605
2026-01-07 09:06:45.86	17.11	62.39	-52.6	-54.4	14.6	0.00e+00	0	25	0	825229312	70	4664
2026-01-07 09:06:46.86	16.34	62.12	-52.8	-54.6	14.5	0.00e+00	0	25	0	826277888	70	4778
2026-01-07 09:06:47.86	15.59	61.85	-52.7	-54.6	14.5	0.00e+00	0	25	0	828375040	70	4761
2026-01-07 09:06:48.85	14.87	61.58	-52.9	-54.7	14.6	0.00e+00	0	25	0	830472192	71	4569
2026-01-07 09:06:49.85	14.15	61.30	-53.1	-55.1	14.4	0.00e+00	0	25	0	832569344	71	4774
2026-01-07 09:06:50.84	13.46	61.02	-53.3	-55.4	14.2	0.00e+00	0	25	0	834666496	71	4937
2026-01-07 09:06:51.83	12.78	60.74	-53.7	-55.8	14.2	0.00e+00	0	25	0	835715072	72	4894
2026-01-07 09:06:52.82	12.11	60.46	-53.8	-56.0	14.1	0.00e+00	0	25	0	837812224	72	5012
2026-01-07 09:06:53.81	11.47	60.18	-54.2	-56.4	14.0	0.00e+00	0	25	0	839909376	73	4975
2026-01-07 09:06:54.80	10.83	59.89	-54.1	-56.4	14.0	0.00e+00	0	25	0	842006528	73	4929
2026-01-07 09:06:55.79	10.21	59.61	-54.3	-56.7	13.8	0.00e+00	0	25	0	843055104	73	5126
2026-01-07 09:06:56.78	9.60	59.32	-54.5	-57.0	13.8	0.00e+00	0	25	0	845152256	74	5005
2026-01-07 09:06:57.77	9.01	59.03	-54.7	-57.3	13.6	0.00e+00	0	25	0	847249408	74	5187
2026-01-07 09:06:58.77	8.42	58.73	-54.5	-57.0	13.8	0.00e+00	0	25	0	849346560	74	4991
2026-01-07 09:06:59.77	7.85	58.44	-54.5	-57.0	13.8	0.00e+00	0	25	0	851443712	74	4993
2026-01-07 09:07:00.77	7.29	58.14	-54.1	-56.4	14.1	0.00e+00	0	25	0	852492288	74	4661
2026-01-07 09:07:01.77	6.74	57.84	-54.0	-56.2	14.2	0.00e+00	0	25	0	854589440	74	4572
2026-01-07 09:07:02.77	6.21	57.54	-54.1	-56.4	14.1	0.00e+00	0	25	0	856686592	74	4680
2026-01-07 09:07:03.76	5.69	57.24	-54.1	-56.4	14.1	0.00e+00	0	25	0	858783744	74	4670
2026-01-07 09:07:04.75	5.18	56.95	-54.0	-56.2	14.2	0.00e+00	0	25	0	859832320	74	4562
2026-01-07 09:07:05.74	4.68	56.65	-53.7	-55.8	14.5	0.00e+00	0	25	0	861929472	74	4352
2026-01-07 09:07:06.73	4.20	56.35	-53.3	-55.2	14.6	0.00e+00	0	25	0	864026624	73	4337
2026-01-07 09:07:07.73	3.72	56.05	-52.9	-54.7	14.8	0.00e+00	0	25	0	866123776	72	4333
2026-01-07 09:07:08.72	3.25	55.75	-52.6	-54.4	14.8	0.00e+00	0	25	0	868220928	71	4396
2026-01-07 09:07:09.71	2.79	55.45	-52.5	-54.3	14.8	0.00e+00	0	25	0	869269504	71	4377
2026-01-07 09:07:10.71	2.34	55.15	-52.2	-53.9	15.0	0.00e+00	0	25	0	871366656	71	4148
2026-01-07 09:07:11.70	1.91	54.85	-51.9	-53.5	15.0	0.00e+00	0	25	0	873463808	70	4241
2026-01-07 09:07:12.69	1.48	54.55	-52.1	-53.7	14.9	0.00e+00	0	25	0	875560960	70	4335
2026-01-07 09:07:13.70	1.05	54.24	-52.1	-53.7	14.9	0.00e+00	0	25	0	876609536	70	4339
2026-01-07 09:07:14.69	0.65	53.94	-52.0	-53.6	15.0	0.00e+00	0	25	0	878706688	70	4286
2026-01-07 09:07:15.69	0.24	53.64	-51.9	-53.6	15.0	0.00e+00	0	25	0	880803840	70	4256
2026-01-07 09:07:16.69	359.84	53.34	-51.7	-53.3	15.1	0.00e+00	0	25	0	882900992	70	4138
2026-01-07 09:07:17.68	359.46	53.04	-51.7	-53.3	14.9	0.00e+00	0	25	0	884998144	69	4387
2026-01-07 09:07:18.68	359.08	52.74	-51.8	-53.4	14.9	0.00e+00	0	25	0	886046720	69	4431
2026-01-07 09:07:19.66	358.71	52.45	-51.8	-53.4	14.9	0.00e+00	0	25	0	888143872	69	4432
2026-01-07 09:07:20.66	358.35	52.15	-51.7	-53.3	14.9	0.00e+00	0	25	0	890241024	69	4391
2026-01-07 09:07:21.66	357.99	51.85	-51.9	-53.5	14.9	0.00e+00	0	25	0	892338176	69	4471
2026-01-07 09:07:22.66	357.64	51.55	-51.9	-53.6	14.8	0.00e+00	0	25	0	893386752	69	4517
2026-01-07 09:07:23.65	357.30	51.26	-52.1	-53.8	14.7	0.00e+00	0	25	0	895483904	69	4623
2026-01-07 09:07:24.65	356.96	50.96	-52.2	-54.0	14.7	0.00e+00	0	25	0	897581056	69	4716
2026-01-07 09:07:25.65	356.63	50.66	-52.4	-54.1	14.6	0.00e+00	0	25	0	899678208	69	4801
2026-01-07 09:07:26.65	356.31	50.37	-52.5	-54.3	14.7	0.00e+00	0	25	0	901775360	70	4633
2026-01-07 09:07:27.65	355.99	50.08	-52.7	-54.6	14.5	0.00e+00	0	25	0	902823936	70	4780
2026-01-07 09:07:28.65	355.68	49.78	-53.0	-54.9	14.5	0.00e+00	0	25	0	904921088	71	4681
2026-01-07 09:07:29.64	355.38	49.49	-53.1	-55.0	14.4	0.00e+00	0	25	0	907018240	71	4733
2026-01-07 09:07:30.64	355.08	49.20	-53.2	-55.2	14.3	0.00e+00	0	25	0	909115392	71	4844
2026-01-07 09:07:31.63	354.79	48.92	-53.3	-55.3	14.3	0.00e+00	0	25	0	910163968	71	4915
2026-01-07 09:07:32.63	354.50	48.63	-53.3	-55.3	14.3	0.00e+00	0	25	0	912261120	71	4899
2026-01-07 09:07:33.63	354.22	48.34	-53.1	-55.0	14.4	0.00e+00	0	25	0	914358272	71	4755
2026-01-07 09:07:34.63	353.94	48.05	-53.1	-55.0	14.4	0.00e+00	0	25	0	916455424	71	4756
2026-01-07 09:07:35.62	353.67	47.77	-53.0	-54.9	14.5	0.00e+00	0	25	0	918552576	71	4670
2026-01-07 09:07:36.62	353.40	47.49	-53.0	-54.9	14.5	0.00e+00	0	25	0	919601152	71	4668
2026-01-07 09:07:37.61	353.14	47.21	-53.1	-55.0	14.4	0.00e+00	0	25	0	921698304	71	4755
2026-01-07 09:07:38.60	352.89	46.93	-53.4	-55.5	14.3	0.00e+00	0	25	0	923795456	72	4728
2026-01-07 09:07:39.60	352.64	46.65	-53.7	-55.9	14.1	0.00e+00	0	25	0	925892608	72	4939
2026-01-07 09:07:40.61	352.38	46.37	-54.0	-56.2	14.1	0.00e+00	0	25	0	927989760	73	4858
2026-01-07 09:07:41.61	352.14	46.09	-54.1	-56.4	14.0	0.00e+00	0	25	0	929038336	73	4960
2026-01-07 09:07:42.60	351.90	45.81	-53.9	-56.2	14.1	0.00e+00	0	25	0	931135488	73	4834
2026-01-07 09:07:43.60	351.67	45.54	-53.8	-56.0	14.2	0.00e+00	0	25	0	933232640	73	4706
2026-01-07 09:07:44.59	351.44	45.27	-53.7	-55.8	14.3	0.00e+00	0	25	0	935329792	73	4648
2026-01-07 09:07:45.59	351.21	45.00	-53.5	-55.6	14.4	0.00e+00	0	25	0	936378368	73	4498
2026-01-07 09:07:46.59	350.99	44.72	-53.4	-55.4	14.5	0.00e+00	0	25	0	938475520	73	4433
2026-01-07 09:07:47.59	350.77	44.45	-53.4	-55.4	14.5	0.00e+00	0	25	0	940572672	73	4405
2026-01-07 09:07:48.59	350.55	44.19	-53.6	-55.6	14.4	0.00e+00	0	25	0	942669824	73	4539
2026-01-07 09:07:49.58	350.34	43.92	-53.9	-56.1	14.2	0.00e+00	0	25	0	944766976	73	4760
2026-01-07 09:07:50.58	350.13	43.66	-54.2	-56.6	13.9	0.00e+00	0	25	0	945815552	73	5056
2026-01-07 09:07:51.58	349.93	43.39	-54.5	-57.0	13.8	0.00e+00	0	25	0	947912704	74	5031
2026-01-07 09:07:52.58	349.72	43.13	-54.6	-57.2	13.6	0.00e+00	0	25	0	950009856	74	5104
2026-01-07 09:07:53.58	349.53	42.87	-54.5	-57.0	13.7	0.00e+00	0	25	0	952107008	74	5007
2026-01-07 09:07:54.57	349.33	42.61	-54.5	-57.0	13.7	0.00e+00	0	25	0	954204160	74	5024
2026-01-07 09:07:55.57	349.14	42.35	-54.7	-57.3	13.6	0.00e+00	0	25	0	955252736	74	5187
2026-01-07 09:07:56.57	348.95	42.09	-54.9	-57.5	13.4	0.00e+00	0	25	0	957349888	74	5320
2026-01-07 09:07:57.56	348.77	41.84	-55.0	-57.7	13.5	0.00e+00	0	25	0	959447040	75	5154
2026-01-07 09:07:58.56	348.58	41.59	-55.0	-57.8	13.4	0.00e+00	0	25	0	961544192	75	5175
2026-01-07 09:07:59.55	348.40	41.34	-55.0	-57.8	13.4	0.00e+00	0	25	0	962592768	75	5183
2026-01-07 09:08:00.55	348.23	41.08	-54.8	-57.3	13.7	0.00e+00	0	25	0	964689920	75	4910
2026-01-07 09:08:01.54	348.05	40.84	-54.9	-57.6	13.5	0.00e+00	0	25	0	966787072	75	5043
2026-01-07 09:08:02.53	347.88	40.59	-54.9	-57.6	13.5	0.00e+00	0	25	0	968884224	75	5094
2026-01-07 09:08:03.53	347.71	40.34	-55.0	-57.7	13.5	0.00e+00	0	25	0	970981376	75	5117
2026-01-07 09:08:04.53	347.55	40.10	-54.7	-57.3	13.7	0.00e+00	0	25	0	972029952	75	4886
2026-01-07 09:08:05.53	347.38	39.85	-54.6	-57.2	13.7	0.00e+00	0	25	0	974127104	75	4815
2026-01-07 09:08:06.52	347.22	39.61	-54.5	-56.9	13.9	0.00e+00	0	25	0	976224256	75	4701
2026-01-07 09:08:07.52	347.06	39.37	-54.6	-57.2	13.7	0.00e+00	0	25	0	978321408	75	4841
2026-01-07 09:08:08.51	346.91	39.13	-54.6	-57.2	13.8	0.00e+00	0	25	0	979369984	75	4825
2026-01-07 09:08:09.51	346.76	38.89	-54.6	-57.1	13.8	0.00e+00	0	25	0	981467136	75	4807
2026-01-07 09:08:10.51	346.60	38.66	-54.4	-56.8	14.0	0.00e+00	0	25	0	983564288	75	4636
2026-01-07 09:08:11.51	346.45	38.42	-54.1	-56.5	14.0	0.00e+00	0	25	0	985661440	74	4707
2026-01-07 09:08:12.50	346.31	38.19	-53.9	-56.1	14.3	0.00e+00	0	25	0	987758592	74	4545
2026-01-07 09:08:13.50	346.16	37.96	-54.0	-56.3	14.1	0.00e+00	0	25	0	988807168	74	4630
2026-01-07 09:08:14.49	346.02	37.73	-54.2	-56.5	14.0	0.00e+00	0	25	0	990904320	74	4725
2026-01-07 09:08:15.49	345.88	37.50	-54.3	-56.7	13.8	0.00e+00	0	25	0	993001472	74	4865
2026-01-07 09:08:16.48	345.74	37.27	-54.3	-56.7	13.9	0.00e+00	0	25	0	995098624	74	4830
2026-01-07 09:08:17.48	345.60	37.04	-54.2	-56.6	14.0	0.00e+00	0	25	0	996147200	74	4777
2026-01-07 09:08:18.47	345.47	36.82	-53.9	-56.1	14.3	0.00e+00	0	25	0	998244352	74	4512
2026-01-07 09:08:19.48	345.33	36.59	-53.6	-55.7	14.3	0.00e+00	0	25	0	1000341504	73	4589
2026-01-07 09:08:20.47	345.20	36.37	-53.6	-55.7	14.3	0.00e+00	0	25	0	1002438656	73	4586
2026-01-07 09:08:21.46	345.07	36.15	-53.6	-55.8	14.3	0.00e+00	0	25	0	1004535808	73	4616
2026-01-07 09:08:22.46	344.95	35.93	-53.8	-56.0	14.1	0.00e+00	0	25	0	1005584384	73	4737
2026-01-07 09:08:23.45	344.82	35.71	-53.7	-55.9	14.2	0.00e+00	0	25	0	1007681536	73	4689
2026-01-07 09:08:24.44	344.70	35.50	-53.7	-55.8	14.2	0.00e+00	0	25	0	1009778688	73	4650
2026-01-07 09:08:25.43	344.58	35.28	-53.5	-55.6	14.3	0.00e+00	0	25	0	1011875840	73	4545
2026-01-07 09:08:26.42	344.46	35.07	-53.6	-55.7	14.3	0.00e+00	0	25	0	1012924416	73	4567
2026-01-07 09:08:27.42	344.34	34.85	-53.6	-55.8	14.3	0.00e+00	0	25	0	1015021568	73	4599
2026-01-07 09:08:28.42	344.22	34.64	-53.8	-56.1	14.1	0.00e+00	0	25	0	1017118720	73	4761
2026-01-07 09:08:29.42	344.10	34.43	-54.0	-56.3	14.0	0.00e+00	0	25	0	1019215872	73	4911
2026-01-07 09:08:30.42	343.99	34.22	-54.1	-56.4	13.9	0.00e+00	0	25	0	1021313024	73	4949
2026-01-07 09:08:31.42	343.87	34.01	-54.2	-56.5	13.8	0.00e+00	0	25	0	1022361600	73	5041
2026-01-07 09:08:32.41	343.76	33.80	-54.1	-56.4	13.9	0.00e+00	0	25	0	1024458752	73	4963
2026-01-07 09:08:33.41	343.65	33.60	-54.2	-56.5	13.8	0.00e+00	0	25	0	1026555904	73	5038
2026-01-07 09:08:34.41	343.54	33.39	-54.2	-56.5	13.8	0.00e+00	0	25	0	1028653056	73	5032
2026-01-07 09:08:35.40	343.44	33.19	-54.5	-57.0	13.7	0.00e+00	0	25	0	1030750208	74	5023
2026-01-07 09:08:36.39	343.33	32.99	-54.7	-57.3	13.5	0.00e+00	0	25	0	1031798784	74	5197
2026-01-07 09:08:37.39	343.23	32.79	-54.9	-57.6	13.4	0.00e+00	0	25	0	1033895936	74	5349
2026-01-07 09:08:38.39	343.12	32.59	-54.9	-57.7	13.4	0.00e+00	0	25	0	1035993088	75	5131
2026-01-07 09:08:39.39	343.02	32.39	-55.1	-58.0	13.2	0.00e+00	0	25	0	1038090240	75	5324
2026-01-07 09:08:40.38	342.92	32.19	-55.3	-58.3	13.0	0.00e+00	0	25	0	1039138816	75	5475
2026-01-07 09:08:41.38	342.82	32.00	-55.5	-58.6	13.0	0.00e+00	0	25	0	1041235968	76	5364
2026-01-07 09:08:42.37	342.72	31.80	-55.6	-58.8	12.9	0.00e+00	0	25	0	1043333120	76	5471
2026-01-07 09:08:43.36	342.63	31.61	-55.8	-59.1	12.6	0.00e+00	0	25	0	1045430272	76	5713
2026-01-07 09:08:44.35	342.53	31.42	-55.7	-59.0	12.7	0.00e+00	0	25	0	1047527424	76	5624
2026-01-07 09:08:45.35	342.44	31.23	-55.7	-59.0	12.7	0.00e+00	0	25	0	1048576000	76	5607
2026-01-07 09:08:46.35	342.34	31.04	-55.7	-58.9	12.8	0.00e+00	0	25	0	1050673152	76	5546
2026-01-07 09:08:47.34	342.25	30.85	-55.6	-58.7	12.9	0.00e+00	0	25	0	1052770304	76	5453
2026-01-07 09:08:48.34	342.16	30.66	-55.5	-58.6	13.0	0.00e+00	0	25	0	1054867456	76	5349
2026-01-07 09:08:49.33	342.07	30.48	-55.5	-58.6	12.9	0.00e+00	0	25	0	1055916032	76	5364
2026-01-07 09:08:50.32	341.98	30.29	-55.5	-58.5	12.9	0.00e+00	0	25	0	1058013184	76	5298
2026-01-07 09:08:51.31	341.90	30.11	-55.4	-58.5	13.0	0.00e+00	0	25	0	1060110336	76	5282
2026-01-07 09:08:52.30	341.81	29.93	-55.4	-58.4	13.1	0.00e+00	0	25	0	1062207488	76	5240
2026-01-07 09:08:53.29	341.72	29.74	-55.4	-58.3	13.1	7.00e-07	0	25	0	1063256064	76	5207
2026-01-07 09:08:54.28	341.64	29.56	-55.2	-58.0	13.3	0.00e+00	0	25	0	1065353216	76	5032
2026-01-07 09:08:55.28	341.55	29.38	-55.2	-58.0	13.3	0.00e+00	0	25	0	1067450368	76	5027
2026-01-07 09:08:56.27	341.47	29.21	-55.2	-58.0	13.3	0.00e+00	0	25	0	1069547520	76	5014
2026-01-07 09:08:57.27	341.39	29.03	-55.1	-57.9	13.3	0.00e+00	0	25	0	1071644672	76	4983
2026-01-07 09:08:58.27	341.31	28.85	-55.0	-57.8	13.4	0.00e+00	0	25	0	1072693248	76	4900
2026-01-07 09:08:59.27	341.23	28.67	-55.0	-57.7	13.5	0.00e+00	0	25	0	1074790400	76	4840
2026-01-07 09:09:00.26	341.15	28.50	-54.9	-57.7	13.6	0.00e+00	0	25	0	1076887552	76	4824
2026-01-07 09:09:01.26	341.07	28.33	-55.0	-57.7	13.5	0.00e+00	0	25	0	1078984704	76	4838
2026-01-07 09:09:02.26	340.99	28.15	-54.8	-57.5	13.6	0.00e+00	0	25	0	1081081856	76	4737
2026-01-07 09:09:03.26	340.92	27.98	-54.7	-57.3	13.8	0.00e+00	0	25	0	1082130432	76	4637
2026-01-07 09:09:04.26	340.84	27.81	-54.7	-57.3	13.7	0.00e+00	0	25	0	1084227584	76	4637
2026-01-07 09:09:05.25	340.77	27.64	-54.5	-57.0	13.8	0.00e+00	0	25	0	1086324736	75	4754
2026-01-07 09:09:06.25	340.69	27.47	-54.6	-57.2	13.7	0.00e+00	0	25	0	1088421888	75	4830
2026-01-07 09:09:07.24	340.62	27.30	-54.5	-57.0	13.8	0.00e+00	0	25	0	1089470464	75	4729
2026-01-07 09:09:08.24	340.55	27.14	-54.4	-56.9	13.8	0.00e+00	0	25	0	1091567616	75	4686
2026-01-07 09:09:09.24	340.47	26.97	-54.4	-56.9	13.8	0.00e+00	0	25	0	1093664768	75	4681
2026-01-07 09:09:10.23	340.40	26.81	-54.2	-56.6	14.0	0.00e+00	0	25	0	1095761920	75	4515
2026-01-07 09:09:11.22	340.33	26.64	-54.1	-56.5	13.9	0.00e+00	0	25	0	1097859072	74	4729
2026-01-07 09:09:12.21	340.27	26.48	-54.0	-56.3	14.0	0.00e+00	0	25	0	1098907648	74	4640
2026-01-07 09:09:13.21	340.20	26.32	-54.0	-56.4	14.0	0.00e+00	0	25	0	1101004800	74	4661
2026-01-07 09:09:14.21	340.13	26.16	-53.8	-56.1	14.2	0.00e+00	0	25	0	1103101952	74	4501
2026-01-07 09:09:15.22	340.06	25.99	-53.7	-55.9	14.3	0.00e+00	0	25	0	1105199104	74	4425
2026-01-07 09:09:16.22	339.99	25.83	-53.6	-55.7	14.2	0.00e+00	0	25	0	1107296256	73	4592
2026-01-07 09:09:17.21	339.93	25.68	-53.5	-55.7	14.2	0.00e+00	0	25	0	1108344832	73	4582
2026-01-07 09:09:18.20	339.86	25.52	-53.6	-55.7	14.2	0.00e+00	0	25	0	1110441984	73	4597
2026-01-07 09:09:19.20	339.80	25.36	-53.6	-55.8	14.2	0.00e+00	0	25	0	1112539136	73	4648
2026-01-07 09:09:20.19	339.74	25.21	-53.6	-55.9	14.2	0.00e+00	0	25	0	1114636288	73	4663
2026-01-07 09:09:21.18	339.67	25.05	-53.7	-55.9	14.1	0.00e+00	0	25	0	1115684864	73	4704
2026-01-07 09:09:22.17	339.61	24.90	-53.7	-55.9	14.1	0.00e+00	0	25	0	1117782016	73	4684
2026-01-07 09:09:23.17	339.55	24.75	-53.7	-56.0	14.1	0.00e+00	0	25	0	1119879168	73	4706
2026-01-07 09:09:24.16	339.49	24.60	-53.6	-55.9	14.1	0.00e+00	0	25	0	1121976320	73	4670
2026-01-07 09:09:25.16	339.43	24.44	-53.7	-55.9	14.1	0.00e+00	0	25	0	1124073472	73	4697
2026-01-07 09:09:26.16	339.37	24.29	-53.5	-55.6	14.3	0.00e+00	0	25	0	1125122048	73	4535
2026-01-07 09:09:27.15	339.31	24.14	-53.3	-55.4	14.4	0.00e+00	0	25	0	1127219200	73	4435
2026-01-07 09:09:28.15	339.25	23.99	-53.1	-55.2	14.4	0.00e+00	0	25	0	1129316352	72	4554
2026-01-07 09:09:29.15	339.19	23.85	-52.9	-54.9	14.5	0.00e+00	0	25	0	1131413504	72	4430
2026-01-07 09:09:30.15	339.13	23.70	-52.9	-54.9	14.5	0.00e+00	0	25	0	1132462080	72	4409
2026-01-07 09:09:31.15	339.08	23.55	-52.8	-54.8	14.6	0.00e+00	0	25	0	1134559232	72	4359
2026-01-07 09:09:32.13	339.02	23.41	-52.6	-54.5	14.6	0.00e+00	0	25	0	1136656384	71	4458
2026-01-07 09:09:33.13	338.97	23.26	-52.5	-54.4	14.6	0.00e+00	0	25	0	1138753536	71	4428
2026-01-07 09:09:34.12	338.91	23.12	-52.4	-54.3	14.7	0.00e+00	0	25	0	1140850688	71	4351
2026-01-07 09:09:35.11	338.86	22.98	-52.5	-54.3	14.7	0.00e+00	0	25	0	1141899264	71	4384
2026-01-07 09:09:36.11	338.80	22.83	-52.4	-54.2	14.7	0.00e+00	0	25	0	1143996416	71	4330
2026-01-07 09:09:37.10	338.75	22.69	-52.3	-54.1	14.8	0.00e+00	0	25	0	1146093568	71	4266
2026-01-07 09:09:38.11	338.70	22.55	-52.2	-54.0	14.8	0.00e+00	0	25	0	1148190720	71	4232
2026-01-07 09:09:39.11	338.64	22.41	-52.4	-54.2	14.7	0.00e+00	0	25	0	1149239296	71	4316
2026-01-07 09:09:40.12	338.59	22.27	-52.4	-54.2	14.7	0.00e+00	0	25	0	1151336448	71	4316
2026-01-07 09:09:41.12	338.54	22.13	-52.4	-54.3	14.7	0.00e+00	0	25	0	1153433600	71	4363
2026-01-07 09:09:42.11	338.49	21.99	-52.5	-54.3	14.7	0.00e+00	0	25	0	1155530752	71	4384
2026-01-07 09:09:43.11	338.44	21.85	-52.3	-54.2	14.7	0.00e+00	0	25	0	1157627904	71	4300
2026-01-07 09:09:44.10	338.39	21.71	-52.3	-54.1	14.8	0.00e+00	0	25	0	1158676480	71	4271
2026-01-07 09:09:45.09	338.34	21.58	-52.3	-54.1	14.8	0.00e+00	0	25	0	1160773632	71	4249
2026-01-07 09:09:46.08	338.29	21.44	-52.3	-54.2	14.8	0.00e+00	0	25	0	1162870784	71	4302
2026-01-07 09:09:47.07	338.24	21.31	-52.4	-54.2	14.7	0.00e+00	0	25	0	1164967936	71	4331
2026-01-07 09:09:48.07	338.19	21.18	-52.4	-54.2	14.7	0.00e+00	0	25	0	1166016512	71	4333
2026-01-07 09:09:49.06	338.14	21.04	-52.5	-54.4	14.6	0.00e+00	0	25	0	1168113664	71	4405
2026-01-07 09:09:50.04	338.10	20.91	-52.5	-54.4	14.6	0.00e+00	0	25	0	1170210816	71	4401
2026-01-07 09:09:51.04	338.05	20.78	-52.6	-54.5	14.5	0.00e+00	0	25	0	1172307968	71	4474
2026-01-07 09:09:52.03	338.00	20.65	-52.6	-54.5	14.5	0.00e+00	0	25	0	1174405120	71	4455
2026-01-07 09:09:53.02	337.96	20.52	-52.6	-54.5	14.5	0.00e+00	0	25	0	1175453696	71	4463
2026-01-07 09:09:54.02	337.91	20.39	-52.7	-54.7	14.5	0.00e+00	0	25	0	1177550848	71	4554
2026-01-07 09:09:55.01	337.87	20.26	-52.8	-54.8	14.4	0.00e+00	0	25	0	1179648000	71	4611
2026-01-07 09:09:56.00	337.82	20.13	-52.8	-54.8	14.4	0.00e+00	0	25	0	1181745152	71	4647
2026-01-07 09:09:56.99	337.78	20.01	-52.8	-54.8	14.4	0.00e+00	0	25	0	1182793728	71	4630
2026-01-07 09:09:57.97	337.74	19.88	-52.8	-54.8	14.4	0.00e+00	0	25	0	1184890880	71	4624
2026-01-07 09:09:58.96	337.69	19.76	-52.8	-54.8	14.4	0.00e+00	0	25	0	1186988032	71	4625
2026-01-07 09:09:59.95	337.65	19.63	-52.8	-54.8	14.4	0.00e+00	0	25	0	1189085184	71	4608
2026-01-07 09:10:00.95	337.61	19.50	-52.8	-54.8	14.4	0.00e+00	0	25	0	1191182336	71	4627
2026-01-07 09:10:01.94	337.56	19.38	-52.7	-54.7	14.4	0.00e+00	0	25	0	1192230912	71	4589
2026-01-07 09:10:02.94	337.52	19.25	-52.8	-54.8	14.4	0.00e+00	0	25	0	1194328064	71	4638
2026-01-07 09:10:03.93	337.48	19.13	-52.8	-54.8	14.4	0.00e+00	0	25	0	1196425216	71	4637
2026-01-07 09:10:04.93	337.44	19.01	-52.8	-54.8	14.4	0.00e+00	0	25	0	1198522368	71	4650
2026-01-07 09:10:05.93	337.40	18.89	-52.8	-54.9	14.4	0.00e+00	0	25	0	1199570944	71	4653
2026-01-07 09:10:06.93	337.36	18.76	-52.8	-54.8	14.4	0.00e+00	0	25	0	1201668096	71	4644
2026-01-07 09:10:07.93	337.32	18.64	-52.8	-54.9	14.4	0.00e+00	0	25	0	1203765248	71	4655
2026-01-07 09:10:08.92	337.28	18.52	-52.8	-54.8	14.4	0.00e+00	0	25	0	1205862400	71	4650
2026-01-07 09:10:09.92	337.24	18.40	-52.8	-54.9	14.4	0.00e+00	0	25	0	1207959552	71	4671
2026-01-07 09:10:10.91	337.20	18.28	-52.9	-55.0	14.3	0.00e+00	0	25	0	1209008128	71	4717
2026-01-07 09:10:11.90	337.16	18.16	-52.9	-54.9	14.3	0.00e+00	0	25	0	1211105280	71	4691
2026-01-07 09:10:12.90	337.12	18.04	-52.8	-54.8	14.4	0.00e+00	0	25	0	1213202432	71	4651
2026-01-07 09:10:13.90	337.08	17.93	-53.0	-55.1	14.2	0.00e+00	0	25	0	1215299584	71	4765
2026-01-07 09:10:14.90	337.04	17.81	-53.0	-55.1	14.2	0.00e+00	0	25	0	1216348160	71	4781
2026-01-07 09:10:15.90	337.01	17.69	-53.0	-55.2	14.2	0.00e+00	0	25	0	1218445312	71	4817
2026-01-07 09:10:16.90	336.97	17.57	-53.1	-55.3	14.1	0.00e+00	0	25	0	1220542464	71	4889
2026-01-07 09:10:17.89	336.93	17.46	-53.0	-55.2	14.2	0.00e+00	0	25	0	1222639616	71	4824
2026-01-07 09:10:18.89	336.90	17.34	-53.0	-55.1	14.2	0.00e+00	0	25	0	1224736768	71	4797
2026-01-07 09:10:19.89	336.86	17.23	-53.1	-55.2	14.2	0.00e+00	0	25	0	1225785344	71	4850
2026-01-07 09:10:20.89	336.82	17.11	-53.1	-55.3	14.1	0.00e+00	0	25	0	1227882496	71	4896
2026-01-07 09:10:21.89	336.79	17.00	-53.2	-55.3	14.1	0.00e+00	0	25	0	1229979648	71	4913
2026-01-07 09:10:22.88	336.75	16.89	-53.1	-55.3	14.1	0.00e+00	0	25	0	1232076800	71	4898
2026-01-07 09:10:23.88	336.72	16.77	-53.2	-55.4	14.1	0.00e+00	0	25	0	1233125376	71	4943
2026-01-07 09:10:24.88	336.68	16.66	-53.1	-55.3	14.1	0.00e+00	0	25	0	1235222528	71	4872
2026-01-07 09:10:25.87	336.65	16.55	-53.2	-55.3	14.1	0.00e+00	0	25	0	1237319680	71	4925
