passes_logs/2026/01/07/R3.2S_Murmansk/R3.2S_Murmansk__20260107_172348_TY-39_rec.log

#Pass ID: 20260107_172348_TY-39
#Satellite: TY-39
#Configuration: TY-39
#almurnet v.1.7.20251203
#Start time: 2026-01-07 17:23:48

#Version: 2.2.20231116
#Station: R3.2S_Murmansk
#Location: 33.079688 lon 68.888172 lat
#TLE: 1 51832U 22019J   26005.60812338  .00003126  00000-0  14986-3 0  9990
#TLE: 2 51832  97.3660  72.5273 0010440  80.2600 279.9813 15.19590096213104

#Time	Az	El	Level	Level2	SNR	BER	BlckErr	Temp	State	Recorded	gain1	gain2
2026-01-07 17:23:48.33	134.15	1.98	-56.9	-60.0	3.7	0.00e+00	0	27	0	0	80	20865
2026-01-07 17:23:49.34	134.11	2.05	-57.0	-60.2	3.6	0.00e+00	0	27	104	0	81	19993
2026-01-07 17:23:50.35	134.08	2.12	-57.0	-60.1	3.7	0.00e+00	0	27	104	0	81	19906
2026-01-07 17:23:51.36	134.04	2.19	-57.0	-60.2	3.6	0.00e+00	0	27	104	0	81	19973
2026-01-07 17:23:52.37	134.01	2.26	-57.0	-60.2	3.6	0.00e+00	0	27	104	0	81	20059
2026-01-07 17:23:53.38	133.97	2.33	-57.0	-60.2	3.7	0.00e+00	0	28	104	0	81	19981
2026-01-07 17:23:54.39	133.94	2.40	-57.0	-60.1	3.7	0.00e+00	0	28	104	0	81	19919
2026-01-07 17:23:55.40	133.90	2.47	-56.9	-60.1	3.7	0.00e+00	0	28	104	0	81	19862
2026-01-07 17:23:56.41	133.87	2.55	-57.0	-60.1	3.7	0.00e+00	0	28	104	0	81	19913
2026-01-07 17:23:57.42	133.83	2.62	-57.0	-60.2	3.7	0.00e+00	0	28	104	0	81	20062
2026-01-07 17:23:58.43	133.79	2.69	-57.0	-60.2	3.7	0.00e+00	0	28	104	0	81	19988
2026-01-07 17:23:59.44	133.76	2.76	-57.0	-60.2	3.7	0.00e+00	0	28	104	0	81	20024
2026-01-07 17:24:00.45	133.72	2.83	-57.0	-60.2	3.7	0.00e+00	0	28	104	0	81	20109
2026-01-07 17:24:01.46	133.68	2.91	-57.0	-60.2	3.7	0.00e+00	0	28	104	0	81	20100
2026-01-07 17:24:02.46	133.65	2.98	-57.0	-60.2	3.7	0.00e+00	0	28	104	0	81	20159
2026-01-07 17:24:03.47	133.61	3.05	-57.0	-60.2	3.7	0.00e+00	0	28	104	0	81	20085
2026-01-07 17:24:04.48	133.57	3.12	-57.0	-60.2	3.7	0.00e+00	0	28	104	0	81	20016
2026-01-07 17:24:05.49	133.53	3.20	-57.0	-60.2	3.6	0.00e+00	0	28	104	0	81	20155
2026-01-07 17:24:06.49	133.49	3.27	-57.0	-60.2	3.6	0.00e+00	0	28	104	0	81	20131
2026-01-07 17:24:07.51	133.45	3.34	-57.0	-60.2	3.6	0.00e+00	0	28	104	0	81	20072
2026-01-07 17:24:08.52	133.41	3.42	-57.0	-60.2	3.7	0.00e+00	0	28	104	0	81	19952
2026-01-07 17:24:09.52	133.37	3.49	-57.0	-60.2	3.7	0.00e+00	0	28	104	0	81	20036
2026-01-07 17:24:10.53	133.34	3.57	-57.0	-60.2	3.6	0.00e+00	0	28	104	0	81	20144
2026-01-07 17:24:11.54	133.30	3.64	-57.0	-60.2	3.7	0.00e+00	0	28	104	0	81	19947
2026-01-07 17:24:12.55	133.25	3.72	-57.0	-60.3	3.6	0.00e+00	0	28	104	0	81	20180
2026-01-07 17:24:13.55	133.21	3.79	-57.0	-60.2	3.7	0.00e+00	0	28	104	0	81	20136
2026-01-07 17:24:14.56	133.17	3.87	-57.0	-60.3	3.6	0.00e+00	0	28	104	0	81	20195
2026-01-07 17:24:15.57	133.13	3.94	-57.0	-60.2	3.7	0.00e+00	0	29	104	0	81	19991
2026-01-07 17:24:16.57	133.09	4.02	-57.0	-60.2	3.7	0.00e+00	0	28	104	0	81	20116
2026-01-07 17:24:17.58	133.05	4.09	-57.0	-60.2	3.7	0.00e+00	0	28	104	0	81	20098
2026-01-07 17:24:18.59	133.01	4.17	-57.0	-60.2	3.7	0.00e+00	0	29	104	0	81	20102
2026-01-07 17:24:19.60	132.97	4.25	-57.0	-60.2	3.7	0.00e+00	0	29	104	0	81	20090
2026-01-07 17:24:20.61	132.92	4.33	-57.0	-60.2	3.7	0.00e+00	0	29	104	0	81	20112
2026-01-07 17:24:21.62	132.88	4.40	-57.0	-60.2	3.7	0.00e+00	0	29	104	0	81	20123
2026-01-07 17:24:22.62	132.84	4.48	-57.0	-60.2	3.7	0.00e+00	0	29	104	0	81	20105
2026-01-07 17:24:23.63	132.79	4.56	-57.0	-60.3	3.6	0.00e+00	0	29	104	0	81	20189
2026-01-07 17:24:24.64	132.75	4.64	-57.0	-60.3	3.6	0.00e+00	0	29	104	0	81	20207
2026-01-07 17:24:25.64	132.71	4.71	-57.0	-60.3	3.6	0.00e+00	0	29	104	0	81	20167
2026-01-07 17:24:26.65	132.66	4.79	-57.0	-60.3	3.6	0.00e+00	0	29	104	0	81	20221
2026-01-07 17:24:27.66	132.62	4.87	-57.0	-60.2	3.7	0.00e+00	0	29	104	0	81	20141
2026-01-07 17:24:28.66	132.57	4.95	-57.0	-60.2	3.6	0.00e+00	0	29	104	0	81	20139
2026-01-07 17:24:29.67	132.53	5.03	-57.0	-60.3	3.6	0.00e+00	0	29	104	0	81	20260
2026-01-07 17:24:30.68	132.48	5.11	-57.1	-60.3	3.7	0.00e+00	0	29	104	0	81	20260
2026-01-07 17:24:31.68	132.43	5.19	-57.2	-60.4	3.7	0.00e+00	0	29	104	0	81	20604
2026-01-07 17:24:32.69	132.39	5.27	-57.1	-60.3	3.6	0.00e+00	0	29	104	0	81	20291
2026-01-07 17:24:33.70	132.34	5.35	-57.2	-60.4	3.7	0.00e+00	0	29	104	0	81	20564
2026-01-07 17:24:34.71	132.29	5.44	-57.1	-60.4	3.6	0.00e+00	0	29	104	0	81	20400
2026-01-07 17:24:35.71	132.25	5.52	-57.2	-60.4	3.7	0.00e+00	0	29	104	0	81	20621
2026-01-07 17:24:36.70	132.20	5.60	-57.1	-60.3	3.7	0.00e+00	0	29	104	0	81	20314
2026-01-07 17:24:37.71	132.15	5.68	-57.2	-60.4	3.7	0.00e+00	0	29	104	0	81	20514
2026-01-07 17:24:38.71	132.10	5.76	-57.1	-60.4	3.7	0.00e+00	0	29	104	0	81	20442
2026-01-07 17:24:39.70	132.05	5.84	-57.3	-60.5	3.6	0.00e+00	0	29	104	0	81	20795
2026-01-07 17:24:40.70	132.00	5.93	-57.2	-60.4	3.6	0.00e+00	0	29	104	0	81	20457
2026-01-07 17:24:41.71	131.95	6.01	-57.3	-60.5	3.6	0.00e+00	0	29	104	0	81	20823
2026-01-07 17:24:42.70	131.91	6.09	-57.2	-60.4	3.7	0.00e+00	0	29	104	0	81	20625
2026-01-07 17:24:43.69	131.86	6.17	-57.3	-60.5	3.7	0.00e+00	0	29	104	0	81	20830
2026-01-07 17:24:44.69	131.81	6.26	-57.2	-60.4	3.7	0.00e+00	0	29	104	0	81	20598
2026-01-07 17:24:45.68	131.75	6.34	-57.3	-60.5	3.6	0.00e+00	0	29	104	0	81	20852
2026-01-07 17:24:46.69	131.70	6.43	-57.2	-60.4	3.7	0.00e+00	0	29	104	0	81	20584
2026-01-07 17:24:47.69	131.65	6.51	-44.7	-45.1	5.3	0.00e+00	0	29	104	0	55	15730
2026-01-07 17:24:48.69	131.60	6.60	-50.3	-51.0	7.1	9.10e-03	0	30	0	50331648	66	16522
2026-01-07 17:24:49.69	131.55	6.68	-49.9	-50.5	7.7	0.00e+00	0	30	0	67108864	66	15515
2026-01-07 17:24:50.70	131.49	6.77	-43.9	-44.2	11.4	4.69e-02	0	30	0	142606336	55	14251
2026-01-07 17:24:51.71	131.44	6.86	-44.1	-44.4	11.3	2.77e-05	0	30	0	218103808	55	14576
2026-01-07 17:24:52.71	131.39	6.94	-43.9	-44.2	11.4	1.38e-05	0	30	0	293601280	55	14263
2026-01-07 17:24:53.72	131.33	7.03	-43.8	-44.1	11.3	0.00e+00	0	30	0	369098752	54	14934
2026-01-07 17:24:54.72	131.28	7.12	-43.6	-43.9	11.5	0.00e+00	0	30	0	444596224	54	14521
2026-01-07 17:24:55.72	131.22	7.21	-43.6	-43.9	11.5	0.00e+00	0	30	0	520093696	54	14592
2026-01-07 17:24:56.72	131.17	7.30	-43.5	-43.9	11.5	6.90e-06	0	30	0	587202560	54	14446
2026-01-07 17:24:57.73	131.11	7.39	-43.5	-43.8	11.5	6.90e-06	0	30	0	671088640	54	14435
2026-01-07 17:24:58.73	131.05	7.48	-43.6	-43.9	11.5	6.90e-06	0	30	0	746586112	54	14533
2026-01-07 17:24:59.73	131.00	7.56	-43.4	-43.8	11.6	0.00e+00	0	30	0	822083584	54	14284
2026-01-07 17:25:00.73	130.94	7.65	-43.5	-43.8	11.6	0.00e+00	0	30	0	897581056	54	14303
2026-01-07 17:25:01.74	130.88	7.75	-43.3	-43.6	11.5	0.00e+00	0	30	0	973078528	53	14932
2026-01-07 17:25:02.75	130.82	7.84	-43.3	-43.7	11.6	0.00e+00	0	30	0	1048576000	53	14968
2026-01-07 17:25:03.76	130.76	7.93	-43.2	-43.5	11.6	0.00e+00	0	31	0	1115684864	53	14710
2026-01-07 17:25:04.76	130.70	8.02	-43.3	-43.6	11.6	0.00e+00	0	31	0	1191182336	53	14801
2026-01-07 17:25:05.76	130.64	8.11	-43.2	-43.5	11.7	6.90e-06	0	31	0	1266679808	53	14637
2026-01-07 17:25:06.76	130.58	8.21	-43.3	-43.7	11.5	0.00e+00	0	31	0	1342177280	53	14952
2026-01-07 17:25:07.76	130.52	8.30	-43.2	-43.5	11.7	0.00e+00	0	31	0	1417674752	53	14673
2026-01-07 17:25:08.76	130.46	8.39	-43.2	-43.5	11.7	0.00e+00	0	31	0	1493172224	53	14693
2026-01-07 17:25:09.77	130.40	8.49	-43.1	-43.4	11.7	0.00e+00	0	31	0	1568669696	53	14605
2026-01-07 17:25:10.77	130.33	8.58	-43.1	-43.4	11.7	0.00e+00	0	31	0	1644167168	53	14568
2026-01-07 17:25:11.78	130.27	8.68	-43.1	-43.4	11.8	0.00e+00	0	31	0	1719664640	53	14478
2026-01-07 17:25:12.78	130.21	8.77	-43.0	-43.3	11.8	0.00e+00	0	31	0	1795162112	53	14354
2026-01-07 17:25:13.79	130.14	8.87	-43.0	-43.3	11.8	0.00e+00	0	31	0	1870659584	53	14308
2026-01-07 17:25:14.80	130.08	8.97	-42.9	-43.2	11.9	0.00e+00	0	31	0	1946157056	53	14138
2026-01-07 17:25:15.80	130.01	9.06	-42.8	-43.1	11.8	0.00e+00	0	31	0	2021654528	52	14928
2026-01-07 17:25:16.81	129.95	9.16	-42.8	-43.1	11.8	0.00e+00	0	31	0	2097152000	52	14919
2026-01-07 17:25:17.81	129.88	9.26	-42.8	-43.1	11.8	0.00e+00	0	31	0	2172649472	52	14884
2026-01-07 17:25:18.82	129.81	9.36	-42.8	-43.1	11.8	0.00e+00	0	31	0	2248146944	52	14905
2026-01-07 17:25:19.82	129.75	9.45	-42.9	-43.2	11.8	0.00e+00	0	31	0	2323644416	52	14989
2026-01-07 17:25:20.82	129.68	9.55	-43.0	-43.3	11.7	0.00e+00	0	31	0	2399141888	52	15196
2026-01-07 17:25:21.82	129.61	9.65	-42.8	-43.1	11.8	0.00e+00	0	31	0	2474639360	52	14861
2026-01-07 17:25:22.81	129.54	9.75	-42.7	-43.0	11.9	0.00e+00	0	31	0	2550136832	52	14727
2026-01-07 17:25:23.82	129.47	9.85	-42.6	-42.9	11.9	0.00e+00	0	31	0	2625634304	52	14550
2026-01-07 17:25:24.82	129.40	9.95	-42.7	-43.0	11.9	0.00e+00	0	31	0	2701131776	52	14627
2026-01-07 17:25:25.82	129.33	10.05	-42.5	-42.9	12.0	0.00e+00	0	31	0	2776629248	52	14456
2026-01-07 17:25:26.82	129.26	10.16	-42.7	-43.0	11.9	0.00e+00	0	31	0	2852126720	52	14629
2026-01-07 17:25:27.82	129.18	10.26	-42.6	-42.9	11.9	0.00e+00	0	31	0	2927624192	52	14600
2026-01-07 17:25:28.83	129.11	10.36	-42.4	-42.7	12.1	0.00e+00	0	31	0	2994733056	52	14243
2026-01-07 17:25:29.82	129.04	10.47	-42.5	-42.8	12.0	0.00e+00	0	31	0	3070230528	52	14286
2026-01-07 17:25:30.83	128.96	10.57	-42.5	-42.8	12.0	0.00e+00	0	31	0	3154116608	52	14282
2026-01-07 17:25:31.83	128.89	10.68	-42.5	-42.8	12.0	0.00e+00	0	31	0	3229614080	52	14301
2026-01-07 17:25:32.83	128.81	10.78	-42.3	-42.6	12.0	0.00e+00	0	31	0	3305111552	51	14905
2026-01-07 17:25:33.83	128.74	10.89	-42.5	-42.8	11.9	0.00e+00	0	31	0	3380609024	51	15141
2026-01-07 17:25:34.83	128.66	10.99	-42.3	-42.6	12.0	0.00e+00	0	31	0	3456106496	51	14883
2026-01-07 17:25:35.84	128.58	11.10	-42.3	-42.6	12.0	0.00e+00	0	31	0	3523215360	51	14918
2026-01-07 17:25:36.85	128.50	11.21	-42.4	-42.7	12.0	0.00e+00	0	31	0	3598712832	51	14965
2026-01-07 17:25:37.86	128.42	11.32	-42.4	-42.7	12.0	0.00e+00	0	31	0	3674210304	51	15065
2026-01-07 17:25:38.86	128.34	11.43	-42.3	-42.6	12.0	0.00e+00	0	31	0	3749707776	51	14831
2026-01-07 17:25:39.86	128.26	11.54	-42.2	-42.5	12.1	0.00e+00	0	31	0	3825205248	51	14617
2026-01-07 17:25:40.87	128.18	11.65	-42.2	-42.5	12.1	0.00e+00	0	31	0	3900702720	51	14687
2026-01-07 17:25:41.88	128.09	11.76	-42.2	-42.5	12.1	0.00e+00	0	31	0	3984588800	51	14689
2026-01-07 17:25:42.88	128.01	11.87	-42.1	-42.4	12.2	0.00e+00	0	31	0	4060086272	51	14445
2026-01-07 17:25:43.89	127.93	11.98	-42.1	-42.4	12.1	0.00e+00	0	31	0	4127195136	51	14499
2026-01-07 17:25:44.89	127.84	12.09	-42.0	-42.3	12.2	0.00e+00	0	31	0	4202692608	51	14395
2026-01-07 17:25:45.89	127.76	12.21	-42.0	-42.3	12.2	0.00e+00	0	31	0	4278190080	51	14406
2026-01-07 17:25:46.89	127.67	12.32	-42.0	-42.3	12.2	0.00e+00	0	31	0	4353687552	51	14419
2026-01-07 17:25:47.89	127.58	12.43	-42.1	-42.4	12.1	0.00e+00	0	31	0	4429185024	51	14565
2026-01-07 17:25:48.90	127.49	12.55	-42.0	-42.3	12.2	0.00e+00	0	31	0	4504682496	51	14355
2026-01-07 17:25:49.90	127.40	12.67	-41.8	-42.1	12.2	0.00e+00	0	31	0	4580179968	50	14854
2026-01-07 17:25:50.91	127.31	12.78	-41.8	-42.1	12.2	0.00e+00	0	31	0	4655677440	50	14907
2026-01-07 17:25:51.91	127.22	12.90	-41.8	-42.1	12.2	0.00e+00	0	31	0	4731174912	50	14854
2026-01-07 17:25:52.91	127.13	13.02	-41.7	-42.0	12.2	0.00e+00	0	31	0	4806672384	50	14730
2026-01-07 17:25:53.92	127.04	13.14	-41.7	-42.0	12.2	0.00e+00	0	31	0	4882169856	50	14720
2026-01-07 17:25:54.92	126.94	13.26	-41.7	-42.0	12.3	0.00e+00	0	31	0	4957667328	50	14667
2026-01-07 17:25:55.92	126.85	13.37	-41.7	-42.0	12.2	0.00e+00	0	31	0	5033164800	50	14743
2026-01-07 17:25:56.93	126.75	13.50	-41.7	-42.0	12.2	0.00e+00	0	32	0	5108662272	50	14647
2026-01-07 17:25:57.94	126.66	13.62	-41.7	-42.0	12.3	0.00e+00	0	31	0	5184159744	50	14640
2026-01-07 17:25:58.94	126.56	13.74	-41.5	-41.8	12.3	0.00e+00	0	31	0	5259657216	50	14356
2026-01-07 17:25:59.95	126.46	13.86	-41.6	-41.8	12.3	0.00e+00	0	31	0	5335154688	50	14440
2026-01-07 17:26:00.95	126.36	13.99	-41.5	-41.7	12.4	0.00e+00	0	32	0	5410652160	50	14265
2026-01-07 17:26:01.95	126.26	14.11	-41.5	-41.8	12.3	0.00e+00	0	31	0	5486149632	50	14367
2026-01-07 17:26:02.96	126.16	14.24	-41.5	-41.8	12.3	0.00e+00	0	32	0	5561647104	50	14394
2026-01-07 17:26:03.96	126.06	14.36	-41.5	-41.8	12.3	0.00e+00	0	31	0	5637144576	50	14411
2026-01-07 17:26:04.97	125.95	14.49	-41.5	-41.7	12.4	0.00e+00	0	31	0	5712642048	50	14269
2026-01-07 17:26:05.97	125.85	14.62	-41.3	-41.5	12.3	0.00e+00	0	32	0	5788139520	49	14774
2026-01-07 17:26:06.97	125.74	14.74	-41.3	-41.5	12.3	0.00e+00	0	31	0	5863636992	49	14755
2026-01-07 17:26:07.97	125.63	14.87	-41.3	-41.6	12.3	0.00e+00	0	31	0	5930745856	49	14819
2026-01-07 17:26:08.98	125.53	15.00	-41.2	-41.5	12.4	0.00e+00	0	31	0	6014631936	49	14668
2026-01-07 17:26:09.98	125.42	15.13	-41.2	-41.5	12.4	0.00e+00	0	32	0	6090129408	49	14643
2026-01-07 17:26:10.99	125.30	15.27	-41.1	-41.4	12.4	0.00e+00	0	32	0	6165626880	49	14501
2026-01-07 17:26:11.99	125.19	15.40	-41.1	-41.4	12.4	0.00e+00	0	31	0	6241124352	49	14478
2026-01-07 17:26:12.99	125.08	15.53	-41.0	-41.3	12.5	0.00e+00	0	31	0	6316621824	49	14384
2026-01-07 17:26:14.00	124.97	15.67	-41.1	-41.3	12.4	0.00e+00	0	31	0	6392119296	49	14422
2026-01-07 17:26:15.01	124.85	15.80	-41.1	-41.4	12.4	0.00e+00	0	32	0	6467616768	49	14556
2026-01-07 17:26:16.01	124.73	15.94	-41.0	-41.3	12.5	0.00e+00	0	32	0	6534725632	49	14348
2026-01-07 17:26:17.02	124.61	16.07	-41.0	-41.3	12.5	0.00e+00	0	32	0	6610223104	49	14409
2026-01-07 17:26:18.03	124.49	16.21	-40.9	-41.2	12.5	0.00e+00	0	32	0	6694109184	49	14185
2026-01-07 17:26:19.03	124.37	16.35	-40.8	-41.0	12.5	0.00e+00	0	32	0	6769606656	48	14768
2026-01-07 17:26:20.03	124.25	16.49	-40.8	-41.0	12.5	0.00e+00	0	32	0	6845104128	48	14745
2026-01-07 17:26:21.04	124.13	16.63	-40.8	-41.1	12.5	0.00e+00	0	32	0	6920601600	48	14797
2026-01-07 17:26:22.05	124.00	16.77	-40.7	-41.0	12.5	0.00e+00	0	32	0	6996099072	48	14699
2026-01-07 17:26:23.06	123.87	16.91	-40.6	-40.9	12.5	0.00e+00	0	32	0	7063207936	48	14499
2026-01-07 17:26:24.06	123.75	17.06	-40.7	-40.9	12.5	0.00e+00	0	32	0	7138705408	48	14596
2026-01-07 17:26:25.06	123.62	17.20	-40.6	-40.9	12.6	0.00e+00	0	32	0	7214202880	48	14454
2026-01-07 17:26:26.07	123.49	17.35	-40.5	-40.8	12.6	0.00e+00	0	32	0	7289700352	48	14360
2026-01-07 17:26:27.06	123.36	17.49	-40.6	-40.8	12.6	0.00e+00	0	32	0	7365197824	48	14415
2026-01-07 17:26:28.07	123.22	17.64	-40.4	-40.7	12.6	0.00e+00	0	32	0	7440695296	48	14169
2026-01-07 17:26:29.07	123.09	17.78	-40.5	-40.8	12.6	0.00e+00	0	31	0	7516192768	48	14298
2026-01-07 17:26:30.07	122.95	17.93	-39.6	-39.9	12.5	0.00e+00	0	32	0	7591690240	46	14458
2026-01-07 17:26:31.08	122.81	18.08	-39.6	-39.9	12.5	0.00e+00	0	32	0	7667187712	46	14527
2026-01-07 17:26:32.08	122.67	18.23	-39.6	-39.9	12.5	0.00e+00	0	32	0	7742685184	46	14493
2026-01-07 17:26:33.08	122.53	18.39	-39.5	-39.8	12.5	0.00e+00	0	32	0	7818182656	46	14338
2026-01-07 17:26:34.09	122.39	18.54	-39.5	-39.8	12.5	0.00e+00	0	32	0	7893680128	46	14365
2026-01-07 17:26:35.09	122.24	18.69	-39.5	-39.8	12.5	0.00e+00	0	32	0	7969177600	46	14388
2026-01-07 17:26:36.09	122.10	18.85	-39.4	-39.7	12.6	0.00e+00	0	32	0	8044675072	46	14165
2026-01-07 17:26:37.10	121.95	19.00	-39.3	-39.6	12.5	0.00e+00	0	32	0	8120172544	45	14845
2026-01-07 17:26:38.11	121.80	19.16	-39.4	-39.7	12.4	0.00e+00	0	32	0	8195670016	45	15019
2026-01-07 17:26:39.11	121.64	19.32	-39.4	-39.7	12.4	0.00e+00	0	32	0	8271167488	45	15004
2026-01-07 17:26:40.12	121.49	19.48	-39.3	-39.6	12.5	0.00e+00	0	32	0	8346664960	45	14901
2026-01-07 17:26:41.12	121.33	19.64	-39.2	-39.4	12.5	0.00e+00	0	32	0	8422162432	45	14604
2026-01-07 17:26:42.13	121.17	19.80	-39.1	-39.4	12.6	0.00e+00	0	32	0	8497659904	45	14482
2026-01-07 17:26:43.13	121.01	19.96	-39.2	-39.5	12.5	0.00e+00	0	32	0	8573157376	45	14634
2026-01-07 17:26:44.15	120.85	20.13	-39.0	-39.3	12.6	0.00e+00	0	32	0	8648654848	45	14358
2026-01-07 17:26:45.15	120.69	20.29	-39.0	-39.3	12.6	0.00e+00	0	32	0	8724152320	45	14379
2026-01-07 17:26:46.15	120.52	20.46	-39.0	-39.3	12.6	0.00e+00	0	32	0	8799649792	45	14363
2026-01-07 17:26:47.16	120.35	20.63	-39.0	-39.3	12.6	0.00e+00	0	32	0	8875147264	45	14365
2026-01-07 17:26:48.17	120.18	20.80	-38.9	-39.2	12.7	0.00e+00	0	32	0	8950644736	45	14185
2026-01-07 17:26:49.17	120.01	20.97	-38.9	-39.2	12.7	0.00e+00	0	32	0	9026142208	45	14150
2026-01-07 17:26:50.18	119.83	21.14	-38.9	-39.1	12.7	0.00e+00	0	32	0	9101639680	45	14108
2026-01-07 17:26:51.19	119.66	21.31	-38.7	-39.0	12.6	0.00e+00	0	32	0	9177137152	44	14694
2026-01-07 17:26:52.20	119.48	21.48	-38.7	-39.0	12.6	0.00e+00	0	32	0	9252634624	44	14731
2026-01-07 17:26:53.21	119.29	21.66	-38.8	-39.1	12.6	0.00e+00	0	32	0	9328132096	44	14810
2026-01-07 17:26:54.21	119.11	21.83	-38.8	-39.0	12.6	0.00e+00	0	32	0	9403629568	44	14711
2026-01-07 17:26:55.21	118.92	22.01	-38.6	-38.9	12.6	0.00e+00	0	32	0	9479127040	44	14557
2026-01-07 17:26:56.21	118.74	22.19	-38.7	-39.0	12.6	0.00e+00	0	32	0	9554624512	44	14680
2026-01-07 17:26:57.21	118.55	22.37	-38.7	-38.9	12.7	0.00e+00	0	32	0	9630121984	44	14553
2026-01-07 17:26:58.21	118.35	22.55	-38.5	-38.8	12.7	0.00e+00	0	32	0	9705619456	44	14279
2026-01-07 17:26:59.22	118.15	22.73	-38.5	-38.8	12.7	0.00e+00	0	32	0	9781116928	44	14327
2026-01-07 17:27:00.23	117.95	22.91	-38.4	-38.7	12.7	0.00e+00	0	32	0	9856614400	44	14186
2026-01-07 17:27:01.23	117.75	23.10	-38.4	-38.7	12.7	0.00e+00	0	32	0	9932111872	44	14141
2026-01-07 17:27:02.24	117.55	23.28	-38.3	-38.5	12.7	0.00e+00	0	32	0	10007609344	43	14738
2026-01-07 17:27:03.24	117.34	23.47	-38.3	-38.5	12.7	0.00e+00	0	32	0	10083106816	43	14726
2026-01-07 17:27:04.25	117.13	23.66	-38.2	-38.5	12.7	0.00e+00	0	32	0	10158604288	43	14622
2026-01-07 17:27:05.24	116.92	23.85	-38.1	-38.4	12.7	0.00e+00	0	32	0	10234101760	43	14503
2026-01-07 17:27:06.25	116.70	24.04	-38.2	-38.4	12.7	0.00e+00	0	32	0	10309599232	43	14557
2026-01-07 17:27:07.26	116.48	24.23	-38.0	-38.3	12.8	0.00e+00	0	32	0	10385096704	43	14358
2026-01-07 17:27:08.26	116.26	24.42	-38.1	-38.3	12.8	0.00e+00	0	32	0	10460594176	43	14381
2026-01-07 17:27:09.27	116.03	24.62	-38.2	-38.4	12.7	0.00e+00	0	32	0	10536091648	43	14556
2026-01-07 17:27:10.27	115.81	24.81	-37.9	-38.2	12.8	0.00e+00	0	32	0	10603200512	43	14204
2026-01-07 17:27:11.28	115.57	25.01	-37.8	-38.1	12.7	0.00e+00	0	32	0	10687086592	42	14849
2026-01-07 17:27:12.28	115.34	25.21	-37.9	-38.1	12.7	0.00e+00	0	32	0	10762584064	42	14914
2026-01-07 17:27:13.28	115.10	25.41	-37.8	-38.0	12.8	0.00e+00	0	32	0	10838081536	42	14774
2026-01-07 17:27:14.29	114.86	25.61	-37.7	-38.0	12.8	0.00e+00	0	32	0	10913579008	42	14676
2026-01-07 17:27:15.30	114.61	25.82	-37.7	-37.9	12.8	0.00e+00	0	32	0	10989076480	42	14577
2026-01-07 17:27:16.30	114.37	26.02	-37.7	-37.9	12.8	0.00e+00	0	32	0	11064573952	42	14571
2026-01-07 17:27:17.31	114.11	26.23	-37.6	-37.9	12.8	0.00e+00	0	32	0	11140071424	42	14524
2026-01-07 17:27:18.31	113.86	26.43	-37.7	-38.0	12.8	0.00e+00	0	32	0	11207180288	42	14620
2026-01-07 17:27:19.32	113.60	26.64	-37.6	-37.8	12.8	0.00e+00	0	32	0	11282677760	42	14417
2026-01-07 17:27:20.33	113.33	26.85	-37.6	-37.8	12.8	0.00e+00	0	32	0	11366563840	42	14400
2026-01-07 17:27:21.34	113.06	27.06	-37.6	-37.9	12.9	0.00e+00	0	32	0	11442061312	42	14444
2026-01-07 17:27:22.34	112.79	27.28	-37.4	-37.7	12.9	0.00e+00	0	32	0	11517558784	42	14192
2026-01-07 17:27:23.35	112.52	27.49	-37.4	-37.7	12.9	0.00e+00	0	32	0	11593056256	42	14169
2026-01-07 17:27:24.35	112.24	27.70	-37.5	-37.7	12.9	0.00e+00	0	32	0	11668553728	42	14203
2026-01-07 17:27:25.36	111.95	27.92	-37.3	-37.5	12.8	0.00e+00	0	32	0	11735662592	41	14762
2026-01-07 17:27:26.36	111.66	28.14	-37.3	-37.5	12.8	0.00e+00	0	32	0	11811160064	41	14715
2026-01-07 17:27:27.36	111.37	28.36	-37.3	-37.6	12.8	0.00e+00	0	32	0	11886657536	41	14813
2026-01-07 17:27:28.37	111.08	28.58	-37.2	-37.5	12.8	0.00e+00	0	32	0	11962155008	41	14666
2026-01-07 17:27:29.38	110.77	28.80	-37.3	-37.6	12.8	0.00e+00	0	32	0	12046041088	41	14871
2026-01-07 17:27:30.38	110.47	29.02	-37.3	-37.5	12.8	0.00e+00	0	32	0	12121538560	41	14713
2026-01-07 17:27:31.38	110.16	29.24	-37.1	-37.4	12.9	0.00e+00	0	32	0	12197036032	41	14484
2026-01-07 17:27:32.39	109.84	29.47	-37.1	-37.3	12.9	0.00e+00	0	32	0	12272533504	41	14380
2026-01-07 17:27:33.39	109.52	29.69	-37.1	-37.3	12.9	0.00e+00	0	32	0	12339642368	41	14407
2026-01-07 17:27:34.39	109.20	29.92	-36.9	-37.1	13.0	0.00e+00	0	32	0	12415139840	41	14053
2026-01-07 17:27:35.40	108.87	30.15	-36.7	-37.0	12.9	0.00e+00	0	32	0	12490637312	40	14696
2026-01-07 17:27:36.41	108.53	30.38	-36.8	-37.0	12.9	0.00e+00	0	32	0	12566134784	40	14717
2026-01-07 17:27:37.41	108.19	30.61	-36.8	-37.1	12.9	0.00e+00	0	32	0	12641632256	40	14814
2026-01-07 17:27:38.41	107.85	30.84	-36.6	-36.8	12.9	0.00e+00	0	32	0	12717129728	40	14428
2026-01-07 17:27:39.42	107.49	31.08	-36.6	-36.8	12.9	0.00e+00	0	32	0	12792627200	40	14394
2026-01-07 17:27:40.42	107.14	31.31	-36.5	-36.8	13.0	0.00e+00	0	32	0	12868124672	40	14330
2026-01-07 17:27:41.43	106.77	31.55	-36.5	-36.7	13.0	0.00e+00	0	32	0	12943622144	40	14274
2026-01-07 17:27:42.44	106.40	31.78	-36.6	-36.8	12.9	0.00e+00	0	32	0	13019119616	40	14386
2026-01-07 17:27:43.44	106.03	32.02	-36.6	-36.8	13.0	0.00e+00	0	32	0	13094617088	40	14391
2026-01-07 17:27:44.45	105.65	32.26	-36.4	-36.7	13.0	0.00e+00	0	32	0	13170114560	40	14156
2026-01-07 17:27:45.45	105.26	32.50	-36.3	-36.6	12.9	0.00e+00	0	32	0	13245612032	39	14855
2026-01-07 17:27:46.44	104.87	32.73	-36.4	-36.6	12.9	0.00e+00	0	32	0	13321109504	39	14900
2026-01-07 17:27:47.45	104.47	32.97	-36.3	-36.5	12.9	0.00e+00	0	32	0	13396606976	39	14772
2026-01-07 17:27:48.45	104.07	33.21	-36.3	-36.5	12.9	0.00e+00	0	32	0	13472104448	39	14739
2026-01-07 17:27:49.46	103.66	33.46	-36.3	-36.5	13.0	0.00e+00	0	32	0	13547601920	39	14751
2026-01-07 17:27:50.46	103.24	33.70	-36.2	-36.5	13.0	0.00e+00	0	32	0	13623099392	39	14613
2026-01-07 17:27:51.47	102.81	33.94	-36.2	-36.4	13.0	0.00e+00	0	32	0	13698596864	39	14602
2026-01-07 17:27:52.47	102.38	34.18	-36.2	-36.5	12.9	0.00e+00	0	32	0	13774094336	39	14645
2026-01-07 17:27:53.48	101.94	34.43	-36.0	-36.3	13.0	0.00e+00	0	32	0	13849591808	39	14334
2026-01-07 17:27:54.48	101.50	34.67	-36.1	-36.4	13.0	0.00e+00	0	32	0	13925089280	39	14443
2026-01-07 17:27:55.49	101.04	34.92	-36.0	-36.3	13.1	0.00e+00	0	32	0	14000586752	39	14314
2026-01-07 17:27:56.49	100.58	35.16	-35.9	-36.1	13.1	0.00e+00	0	32	0	14076084224	39	14076
2026-01-07 17:27:57.50	100.11	35.41	-35.8	-36.1	13.0	0.00e+00	0	32	0	14151581696	38	14835
2026-01-07 17:27:58.51	99.63	35.66	-35.9	-36.2	12.9	0.00e+00	0	32	0	14227079168	38	15013
2026-01-07 17:27:59.52	99.15	35.90	-35.7	-36.0	13.0	0.00e+00	0	32	0	14302576640	38	14704
2026-01-07 17:28:00.52	98.66	36.15	-35.7	-36.0	13.0	0.00e+00	0	32	0	14378074112	38	14657
2026-01-07 17:28:01.52	98.16	36.39	-35.7	-36.0	13.0	0.00e+00	0	32	0	14453571584	38	14666
2026-01-07 17:28:02.53	97.65	36.64	-35.6	-35.9	13.0	0.00e+00	0	32	0	14529069056	38	14461
2026-01-07 17:28:03.54	97.14	36.88	-35.7	-35.9	13.0	0.00e+00	0	32	0	14604566528	38	14553
2026-01-07 17:28:04.55	96.61	37.13	-35.5	-35.8	13.1	0.00e+00	0	32	0	14680064000	38	14322
2026-01-07 17:28:05.55	96.08	37.37	-35.6	-35.9	13.0	0.00e+00	0	32	0	14755561472	38	14447
2026-01-07 17:28:06.56	95.54	37.61	-35.6	-35.9	13.0	0.00e+00	0	32	0	14831058944	38	14444
2026-01-07 17:28:07.56	94.99	37.85	-35.5	-35.7	13.1	0.00e+00	0	32	0	14906556416	38	14194
2026-01-07 17:28:08.57	94.43	38.09	-35.5	-35.7	13.1	0.00e+00	0	32	0	14982053888	38	14233
2026-01-07 17:28:09.57	93.87	38.33	-35.5	-35.7	13.1	0.00e+00	0	32	0	15057551360	38	14236
2026-01-07 17:28:10.56	93.30	38.57	-35.3	-35.5	13.0	0.00e+00	0	32	0	15133048832	37	14704
2026-01-07 17:28:11.57	92.71	38.81	-35.3	-35.5	13.0	0.00e+00	0	32	0	15208546304	37	14752
2026-01-07 17:28:12.57	92.12	39.04	-35.2	-35.5	13.1	0.00e+00	0	32	0	15275655168	37	14624
2026-01-07 17:28:13.57	91.52	39.27	-35.2	-35.5	13.0	0.00e+00	0	32	0	15351152640	37	14616
2026-01-07 17:28:14.58	90.91	39.51	-35.2	-35.5	13.1	0.00e+00	0	32	0	15435038720	37	14617
2026-01-07 17:28:15.59	90.29	39.74	-35.1	-35.4	13.1	0.00e+00	0	32	0	15510536192	37	14471
2026-01-07 17:28:16.59	89.66	39.97	-35.2	-35.5	13.0	0.00e+00	0	32	0	15586033664	37	14647
2026-01-07 17:28:17.60	89.02	40.19	-35.2	-35.4	13.1	0.00e+00	0	32	0	15661531136	37	14539
2026-01-07 17:28:18.61	88.37	40.42	-35.1	-35.3	13.1	0.00e+00	0	32	0	15737028608	37	14416
2026-01-07 17:28:19.61	87.71	40.64	-35.0	-35.2	13.1	0.00e+00	0	32	0	15812526080	37	14266
2026-01-07 17:28:20.61	87.05	40.86	-35.0	-35.2	13.1	0.00e+00	0	32	0	15879634944	37	14235
2026-01-07 17:28:21.63	86.36	41.08	-35.0	-35.2	13.1	0.00e+00	0	32	0	15955132416	37	14227
2026-01-07 17:28:22.63	85.68	41.29	-34.9	-35.2	13.1	0.00e+00	0	32	0	16039018496	37	14150
2026-01-07 17:28:23.64	84.98	41.50	-35.0	-35.2	13.1	0.00e+00	0	32	0	16114515968	37	14266
2026-01-07 17:28:24.64	84.28	41.71	-35.0	-35.2	13.1	0.00e+00	0	32	0	16190013440	37	14271
2026-01-07 17:28:25.64	83.56	41.91	-34.8	-35.1	13.0	0.00e+00	0	32	0	16265510912	36	14806
2026-01-07 17:28:26.64	82.84	42.11	-34.9	-35.2	13.0	0.00e+00	0	32	0	16341008384	36	14986
2026-01-07 17:28:27.65	82.11	42.30	-34.9	-35.1	13.1	0.00e+00	0	32	0	16416505856	36	14874
2026-01-07 17:28:28.65	81.37	42.50	-34.8	-35.1	13.1	0.00e+00	0	32	0	16483614720	36	14817
2026-01-07 17:28:29.65	80.62	42.68	-34.9	-35.1	13.0	0.00e+00	0	32	0	16559112192	36	14939
2026-01-07 17:28:30.65	79.86	42.86	-34.7	-35.0	13.1	0.00e+00	0	32	0	16634609664	36	14674
2026-01-07 17:28:31.66	79.09	43.04	-34.8	-35.0	13.1	0.00e+00	0	32	0	16710107136	36	14725
2026-01-07 17:28:32.66	78.31	43.22	-34.7	-34.9	13.1	0.00e+00	0	32	0	16785604608	36	14599
2026-01-07 17:28:33.66	77.53	43.39	-34.6	-34.9	13.1	0.00e+00	0	32	0	16861102080	36	14494
2026-01-07 17:28:34.66	76.74	43.55	-34.6	-34.9	13.1	0.00e+00	0	32	0	16936599552	36	14523
2026-01-07 17:28:35.66	75.94	43.71	-34.7	-34.9	13.1	0.00e+00	0	32	0	17012097024	36	14580
2026-01-07 17:28:36.67	75.12	43.86	-34.7	-34.9	13.1	0.00e+00	0	32	0	17087594496	36	14599
2026-01-07 17:28:37.68	74.30	44.01	-34.6	-34.9	13.1	0.00e+00	0	32	0	17163091968	36	14456
2026-01-07 17:28:38.68	73.47	44.15	-34.6	-34.8	13.1	0.00e+00	0	32	0	17238589440	36	14403
2026-01-07 17:28:39.69	72.64	44.29	-34.6	-34.8	13.1	0.00e+00	0	32	0	17314086912	36	14358
2026-01-07 17:28:40.69	71.80	44.42	-34.6	-34.8	13.1	0.00e+00	0	32	0	17389584384	36	14381
2026-01-07 17:28:41.69	70.95	44.54	-34.6	-34.8	13.1	0.00e+00	0	32	0	17465081856	36	14372
2026-01-07 17:28:42.69	70.10	44.66	-34.5	-34.7	13.2	0.00e+00	0	32	0	17540579328	36	14265
2026-01-07 17:28:43.70	69.23	44.77	-34.5	-34.7	13.2	0.00e+00	0	32	0	17616076800	36	14215
2026-01-07 17:28:44.70	68.37	44.87	-34.5	-34.7	13.2	0.00e+00	0	32	0	17691574272	36	14266
2026-01-07 17:28:45.71	67.49	44.97	-34.5	-34.7	13.1	0.00e+00	0	32	0	17767071744	36	14266
2026-01-07 17:28:46.71	66.61	45.06	-34.5	-34.7	13.2	0.00e+00	0	32	0	17842569216	36	14199
2026-01-07 17:28:47.72	65.72	45.14	-34.5	-34.8	13.1	0.00e+00	0	32	0	17918066688	36	14287
2026-01-07 17:28:48.73	64.83	45.22	-34.4	-34.7	13.2	0.00e+00	0	32	0	17993564160	36	14153
2026-01-07 17:28:49.74	63.93	45.28	-34.5	-34.7	13.1	0.00e+00	0	32	0	18069061632	36	14272
2026-01-07 17:28:50.74	63.04	45.34	-34.4	-34.7	13.2	0.00e+00	0	32	0	18144559104	36	14178
2026-01-07 17:28:51.75	62.13	45.40	-34.4	-34.7	13.2	0.00e+00	0	32	0	18220056576	36	14162
2026-01-07 17:28:52.75	61.24	45.44	-34.4	-34.7	13.1	0.00e+00	0	32	0	18295554048	36	14178
2026-01-07 17:28:53.76	60.33	45.48	-34.4	-34.7	13.1	0.00e+00	0	32	0	18371051520	36	14215
2026-01-07 17:28:54.76	59.42	45.51	-34.5	-34.7	13.1	0.00e+00	0	33	0	18446548992	36	14248
2026-01-07 17:28:55.77	58.51	45.54	-34.6	-34.9	13.1	0.00e+00	0	32	0	18522046464	36	14499
2026-01-07 17:28:56.77	57.60	45.55	-34.4	-34.7	13.1	0.00e+00	0	32	0	18597543936	36	14166
2026-01-07 17:28:57.78	56.69	45.56	-34.5	-34.7	13.1	0.00e+00	0	32	0	18673041408	36	14256
2026-01-07 17:28:58.78	55.78	45.56	-34.4	-34.7	13.1	0.00e+00	0	32	0	18748538880	36	14152
2026-01-07 17:28:59.79	54.86	45.55	-34.5	-34.7	13.1	0.00e+00	0	32	0	18824036352	36	14246
2026-01-07 17:29:00.79	53.96	45.53	-34.6	-34.9	13.1	0.00e+00	0	32	0	18899533824	36	14447
2026-01-07 17:29:01.80	53.04	45.51	-34.5	-34.7	13.2	0.00e+00	0	32	0	18975031296	36	14245
2026-01-07 17:29:02.81	52.13	45.48	-34.5	-34.7	13.1	0.00e+00	0	32	0	19050528768	36	14252
2026-01-07 17:29:03.82	51.22	45.44	-34.5	-34.7	13.2	0.00e+00	0	32	0	19126026240	36	14217
2026-01-07 17:29:04.83	50.31	45.39	-34.4	-34.7	13.2	0.00e+00	0	32	0	19201523712	36	14138
2026-01-07 17:29:05.83	49.42	45.34	-34.4	-34.7	13.2	0.00e+00	0	32	0	19277021184	36	14178
2026-01-07 17:29:06.84	48.52	45.27	-34.5	-34.7	13.2	0.00e+00	0	32	0	19352518656	36	14274
2026-01-07 17:29:07.85	47.62	45.20	-34.4	-34.7	13.2	0.00e+00	0	33	0	19428016128	36	14169
2026-01-07 17:29:08.86	46.73	45.13	-34.5	-34.7	13.2	0.00e+00	0	32	0	19503513600	36	14270
2026-01-07 17:29:09.86	45.85	45.04	-34.5	-34.7	13.1	0.00e+00	0	32	0	19579011072	36	14194
2026-01-07 17:29:10.86	44.98	44.95	-34.5	-34.7	13.1	0.00e+00	0	32	0	19654508544	36	14243
2026-01-07 17:29:11.87	44.10	44.86	-34.5	-34.8	13.1	0.00e+00	0	32	0	19730006016	36	14325
2026-01-07 17:29:12.88	43.23	44.75	-34.6	-34.9	13.1	0.00e+00	0	32	0	19805503488	36	14496
2026-01-07 17:29:13.89	42.36	44.64	-34.7	-35.0	13.1	0.00e+00	0	32	0	19881000960	36	14649
2026-01-07 17:29:14.89	41.51	44.52	-34.6	-34.8	13.1	0.00e+00	0	32	0	19956498432	36	14420
2026-01-07 17:29:15.89	40.67	44.40	-34.7	-34.9	13.1	0.00e+00	0	32	0	20031995904	36	14592
2026-01-07 17:29:16.90	39.82	44.27	-34.6	-34.8	13.1	0.00e+00	0	32	0	20107493376	36	14414
2026-01-07 17:29:17.90	39.00	44.13	-34.7	-35.0	13.1	0.00e+00	0	32	0	20182990848	36	14679
2026-01-07 17:29:18.91	38.17	43.99	-34.6	-34.9	13.1	0.00e+00	0	32	0	20258488320	36	14521
2026-01-07 17:29:19.92	37.34	43.84	-34.7	-35.0	13.1	0.00e+00	0	32	0	20333985792	36	14634
2026-01-07 17:29:20.92	36.54	43.69	-34.7	-35.0	13.1	0.00e+00	0	32	0	20409483264	36	14644
2026-01-07 17:29:21.92	35.74	43.53	-34.7	-35.0	13.1	0.00e+00	0	32	0	20484980736	36	14641
2026-01-07 17:29:22.92	34.95	43.36	-34.8	-35.1	13.1	0.00e+00	0	32	0	20552089600	36	14845
2026-01-07 17:29:23.92	34.17	43.19	-34.8	-35.1	13.0	0.00e+00	0	32	0	20627587072	36	14886
2026-01-07 17:29:24.92	33.40	43.02	-34.8	-35.0	13.1	0.00e+00	0	32	0	20703084544	36	14772
2026-01-07 17:29:25.92	32.63	42.84	-34.9	-35.1	13.0	0.00e+00	0	32	0	20778582016	36	14899
2026-01-07 17:29:26.92	31.88	42.66	-34.9	-35.1	13.0	0.00e+00	0	32	0	20854079488	36	14925
2026-01-07 17:29:27.91	31.14	42.48	-34.9	-35.1	13.0	0.00e+00	0	32	0	20929576960	36	14917
2026-01-07 17:29:28.90	30.41	42.29	-35.0	-35.3	13.0	0.00e+00	0	32	0	21005074432	36	15204
2026-01-07 17:29:29.91	29.68	42.09	-34.9	-35.2	13.0	0.00e+00	0	32	0	21080571904	36	15016
2026-01-07 17:29:30.91	28.96	41.89	-35.0	-35.3	13.0	0.00e+00	0	32	0	21156069376	36	15190
2026-01-07 17:29:31.92	28.24	41.69	-35.0	-35.2	13.0	0.00e+00	0	33	0	21231566848	36	15062
2026-01-07 17:29:32.91	27.55	41.48	-35.1	-35.3	13.0	0.00e+00	0	32	0	21307064320	36	15274
2026-01-07 17:29:33.91	26.86	41.27	-35.2	-35.4	13.0	0.00e+00	0	32	0	21382561792	36	15424
2026-01-07 17:29:34.91	26.18	41.06	-35.1	-35.4	13.0	0.00e+00	0	32	0	21458059264	36	15334
2026-01-07 17:29:35.91	25.51	40.85	-35.1	-35.4	13.0	0.00e+00	0	32	0	21533556736	36	15337
2026-01-07 17:29:36.92	24.84	40.63	-35.2	-35.5	13.0	0.00e+00	0	32	0	21609054208	36	15499
2026-01-07 17:29:37.93	24.18	40.40	-35.1	-35.4	13.0	0.00e+00	0	32	0	21684551680	36	15394
2026-01-07 17:29:38.94	23.53	40.18	-35.2	-35.5	12.9	0.00e+00	0	32	0	21760049152	36	15592
2026-01-07 17:29:39.94	22.90	39.95	-35.3	-35.6	12.9	0.00e+00	0	32	0	21835546624	36	15654
2026-01-07 17:29:40.93	22.28	39.73	-35.3	-35.6	12.9	0.00e+00	0	32	0	21911044096	36	15716
2026-01-07 17:29:41.93	21.67	39.50	-35.4	-35.6	12.9	0.00e+00	0	32	0	21986541568	36	15818
2026-01-07 17:29:42.94	21.05	39.27	-35.3	-35.6	12.9	0.00e+00	0	32	0	22062039040	36	15768
2026-01-07 17:29:43.94	20.46	39.04	-35.5	-35.7	12.9	0.00e+00	0	32	0	22137536512	36	15998
2026-01-07 17:29:44.95	19.86	38.80	-35.4	-35.7	12.9	0.00e+00	0	32	0	22213033984	36	15935
2026-01-07 17:29:45.95	19.28	38.56	-35.5	-35.8	12.9	0.00e+00	0	32	0	22288531456	36	16125
2026-01-07 17:29:46.96	18.71	38.32	-35.5	-35.8	13.0	0.00e+00	0	32	0	22355640320	37	15160
2026-01-07 17:29:47.96	18.15	38.09	-35.5	-35.8	13.0	0.00e+00	0	32	0	22431137792	37	15234
2026-01-07 17:29:48.97	17.59	37.85	-35.6	-35.9	13.0	0.00e+00	0	32	0	22506635264	37	15336
2026-01-07 17:29:49.97	17.04	37.61	-35.8	-36.1	12.9	0.00e+00	0	32	0	22582132736	37	15685
2026-01-07 17:29:50.97	16.51	37.37	-35.7	-36.0	12.9	0.00e+00	0	32	0	22657630208	37	15586
2026-01-07 17:29:51.98	15.98	37.12	-35.7	-35.9	12.9	0.00e+00	0	32	0	22733127680	37	15432
2026-01-07 17:29:52.98	15.46	36.88	-35.7	-36.0	12.9	0.00e+00	0	32	0	22817013760	37	15576
2026-01-07 17:29:53.99	14.94	36.64	-35.8	-36.0	12.9	0.00e+00	0	32	0	22892511232	37	15597
2026-01-07 17:29:55.00	14.43	36.39	-35.8	-36.0	12.9	0.00e+00	0	32	0	22959620096	37	15637
2026-01-07 17:29:56.00	13.94	36.15	-35.8	-36.1	12.9	0.00e+00	0	32	0	23035117568	37	15794
2026-01-07 17:29:57.01	13.45	35.90	-35.9	-36.2	12.9	0.00e+00	0	32	0	23110615040	37	15868
2026-01-07 17:29:58.02	12.96	35.66	-35.9	-36.2	12.9	0.00e+00	0	32	0	23186112512	37	15966
2026-01-07 17:29:59.03	12.49	35.41	-35.9	-36.2	12.9	0.00e+00	0	32	0	23269998592	37	15963
2026-01-07 17:30:00.04	12.02	35.17	-36.0	-36.3	12.9	0.00e+00	0	32	0	23345496064	37	16065
2026-01-07 17:30:01.05	11.56	34.92	-36.1	-36.4	12.9	0.00e+00	0	33	0	23420993536	38	15383
2026-01-07 17:30:02.05	11.11	34.68	-36.1	-36.3	12.9	0.00e+00	0	32	0	23488102400	38	15293
2026-01-07 17:30:03.06	10.66	34.43	-36.2	-36.5	12.9	0.00e+00	0	32	0	23563599872	38	15524
2026-01-07 17:30:04.07	10.22	34.19	-36.2	-36.5	12.9	0.00e+00	0	32	0	23639097344	38	15600
2026-01-07 17:30:05.07	9.79	33.95	-36.3	-36.5	12.9	0.00e+00	0	32	0	23714594816	38	15646
2026-01-07 17:30:06.08	9.37	33.70	-36.3	-36.6	12.9	0.00e+00	0	32	0	23798480896	38	15749
2026-01-07 17:30:07.08	8.95	33.46	-36.3	-36.6	12.9	0.00e+00	0	32	0	23873978368	38	15728
2026-01-07 17:30:08.08	8.54	33.22	-36.4	-36.6	12.9	0.00e+00	0	32	0	23949475840	38	15768
2026-01-07 17:30:09.08	8.14	32.99	-36.4	-36.7	12.9	0.00e+00	0	33	0	24024973312	38	15843
2026-01-07 17:30:10.09	7.74	32.74	-36.5	-36.8	12.8	0.00e+00	0	32	0	24092082176	38	16019
2026-01-07 17:30:11.10	7.35	32.50	-36.5	-36.8	12.9	0.00e+00	0	32	0	24167579648	38	16094
2026-01-07 17:30:12.11	6.96	32.27	-36.6	-36.9	12.8	0.00e+00	0	33	0	24243077120	38	16311
2026-01-07 17:30:13.12	6.58	32.03	-36.6	-36.8	12.8	0.00e+00	0	32	0	24318574592	38	16191
2026-01-07 17:30:14.13	6.21	31.79	-36.6	-36.9	12.9	0.00e+00	0	32	0	24394072064	39	15411
2026-01-07 17:30:15.13	5.84	31.56	-36.7	-36.9	12.9	0.00e+00	0	32	0	24477958144	39	15442
2026-01-07 17:30:16.13	5.48	31.32	-36.7	-37.0	12.8	0.00e+00	0	32	0	24553455616	39	15550
2026-01-07 17:30:17.13	5.13	31.09	-36.8	-37.1	12.8	0.00e+00	0	33	0	24620564480	39	15745
2026-01-07 17:30:18.13	4.78	30.86	-36.8	-37.1	12.8	0.00e+00	0	32	0	24696061952	39	15723
2026-01-07 17:30:19.14	4.43	30.63	-36.9	-37.1	12.8	0.00e+00	0	32	0	24771559424	39	15773
2026-01-07 17:30:20.15	4.09	30.40	-36.9	-37.1	12.8	0.00e+00	0	32	0	24847056896	39	15829
2026-01-07 17:30:21.15	3.76	30.17	-37.0	-37.2	12.8	0.00e+00	0	33	0	24922554368	39	16005
2026-01-07 17:30:22.15	3.43	29.94	-36.9	-37.2	12.8	0.00e+00	0	33	0	24998051840	39	15942
2026-01-07 17:30:23.15	3.11	29.72	-37.0	-37.3	12.8	0.00e+00	0	33	0	25073549312	39	16085
2026-01-07 17:30:24.16	2.79	29.49	-37.1	-37.4	12.8	0.00e+00	0	32	0	25149046784	39	16214
2026-01-07 17:30:25.17	2.47	29.27	-37.1	-37.4	12.8	0.00e+00	0	33	0	25224544256	39	16261
2026-01-07 17:30:26.17	2.17	29.04	-37.2	-37.5	12.8	0.00e+00	0	33	0	25300041728	40	15504
2026-01-07 17:30:27.17	1.86	28.82	-37.1	-37.4	12.8	0.00e+00	0	33	0	25375539200	40	15351
2026-01-07 17:30:28.17	1.56	28.60	-37.2	-37.4	12.8	0.00e+00	0	33	0	25451036672	40	15453
2026-01-07 17:30:29.18	1.27	28.38	-37.2	-37.5	12.8	0.00e+00	0	33	0	25526534144	40	15578
2026-01-07 17:30:30.18	0.98	28.17	-37.2	-37.5	12.8	0.00e+00	0	33	0	25602031616	40	15553
2026-01-07 17:30:31.18	0.69	27.95	-37.3	-37.6	12.8	0.00e+00	0	32	0	25677529088	40	15738
2026-01-07 17:30:32.18	0.41	27.74	-37.4	-37.6	12.7	0.00e+00	0	33	0	25753026560	40	15828
2026-01-07 17:30:33.19	0.13	27.52	-37.4	-37.6	12.7	0.00e+00	0	33	0	25828524032	40	15828
2026-01-07 17:30:34.19	359.86	27.31	-37.5	-37.8	12.7	0.00e+00	0	33	0	25904021504	40	16069
2026-01-07 17:30:35.20	359.59	27.10	-37.5	-37.8	12.7	0.00e+00	0	32	0	25979518976	40	16083
2026-01-07 17:30:36.21	359.32	26.89	-37.5	-37.8	12.7	0.00e+00	0	33	0	26055016448	40	16161
2026-01-07 17:30:37.22	359.05	26.68	-37.7	-37.9	12.7	0.00e+00	0	33	0	26130513920	41	15446
2026-01-07 17:30:38.22	358.80	26.47	-37.6	-37.9	12.7	0.00e+00	0	33	0	26206011392	41	15395
2026-01-07 17:30:39.22	358.54	26.27	-37.7	-37.9	12.7	0.00e+00	0	33	0	26281508864	41	15439
2026-01-07 17:30:40.22	358.29	26.06	-37.7	-38.0	12.7	0.00e+00	0	33	0	26357006336	41	15488
2026-01-07 17:30:41.23	358.04	25.86	-37.8	-38.1	12.7	0.00e+00	0	33	0	26432503808	41	15744
2026-01-07 17:30:42.23	357.80	25.66	-37.8	-38.1	12.7	0.00e+00	0	33	0	26508001280	41	15703
2026-01-07 17:30:43.23	357.56	25.46	-37.9	-38.2	12.7	0.00e+00	0	33	0	26583498752	41	15900
2026-01-07 17:30:44.24	357.32	25.26	-37.9	-38.2	12.7	0.00e+00	0	33	0	26658996224	41	15955
2026-01-07 17:30:45.25	357.09	25.06	-37.9	-38.2	12.7	0.00e+00	0	33	0	26734493696	41	15921
2026-01-07 17:30:46.26	356.86	24.86	-38.1	-38.4	12.6	0.00e+00	0	33	0	26809991168	41	16212
2026-01-07 17:30:47.26	356.63	24.67	-38.1	-38.4	12.6	0.00e+00	0	33	0	26885488640	41	16217
2026-01-07 17:30:48.26	356.41	24.47	-38.0	-38.3	12.6	0.00e+00	0	33	0	26960986112	41	16142
2026-01-07 17:30:49.26	356.19	24.28	-38.2	-38.5	12.7	0.00e+00	0	33	0	27028094976	42	15489
2026-01-07 17:30:50.27	355.97	24.09	-38.2	-38.4	12.7	0.00e+00	0	33	0	27103592448	42	15460
2026-01-07 17:30:51.28	355.75	23.90	-38.3	-38.5	12.7	0.00e+00	0	33	0	27179089920	42	15614
2026-01-07 17:30:52.28	355.54	23.71	-38.2	-38.5	12.6	0.00e+00	0	33	0	27262976000	42	15595
2026-01-07 17:30:53.28	355.33	23.52	-38.3	-38.6	12.6	0.00e+00	0	33	0	27338473472	42	15758
2026-01-07 17:30:54.28	355.12	23.34	-38.3	-38.6	12.6	0.00e+00	0	33	0	27413970944	42	15791
2026-01-07 17:30:55.28	354.92	23.15	-38.4	-38.7	12.6	0.00e+00	0	33	0	27489468416	42	15909
2026-01-07 17:30:56.29	354.72	22.97	-38.5	-38.8	12.6	0.00e+00	0	33	0	27564965888	42	16070
2026-01-07 17:30:57.29	354.52	22.79	-38.5	-38.8	12.6	0.00e+00	0	33	0	27632074752	42	16142
2026-01-07 17:30:58.30	354.32	22.60	-38.5	-38.8	12.6	0.00e+00	0	33	0	27707572224	42	16091
2026-01-07 17:30:59.30	354.13	22.43	-38.5	-38.8	12.6	0.00e+00	0	33	0	27783069696	42	16169
2026-01-07 17:31:00.31	353.94	22.25	-38.6	-38.9	12.5	0.00e+00	0	33	0	27858567168	42	16257
2026-01-07 17:31:01.32	353.75	22.07	-38.7	-39.0	12.6	0.00e+00	0	33	0	27934064640	43	15534
2026-01-07 17:31:02.31	353.57	21.89	-38.7	-39.0	12.6	0.00e+00	0	33	0	28009562112	43	15489
2026-01-07 17:31:03.32	353.38	21.72	-38.8	-39.1	12.5	0.00e+00	0	33	0	28085059584	43	15702
2026-01-07 17:31:04.32	353.20	21.55	-38.9	-39.1	12.5	0.00e+00	0	33	0	28160557056	43	15812
2026-01-07 17:31:05.33	353.02	21.37	-38.9	-39.1	12.5	0.00e+00	0	33	0	28236054528	43	15809
2026-01-07 17:31:06.33	352.85	21.20	-38.9	-39.2	12.5	0.00e+00	0	33	0	28311552000	43	15834
2026-01-07 17:31:07.33	352.68	21.03	-38.9	-39.2	12.5	0.00e+00	0	33	0	28387049472	43	15873
2026-01-07 17:31:08.34	352.50	20.86	-39.0	-39.2	12.5	0.00e+00	0	33	0	28462546944	43	16003
2026-01-07 17:31:09.35	352.33	20.69	-39.0	-39.3	12.5	0.00e+00	0	33	0	28538044416	43	16053
2026-01-07 17:31:10.35	352.17	20.53	-39.1	-39.3	12.5	0.00e+00	0	33	0	28613541888	43	16198
2026-01-07 17:31:11.36	352.00	20.36	-39.1	-39.3	12.5	0.00e+00	0	33	0	28689039360	43	16184
2026-01-07 17:31:12.36	351.84	20.20	-39.1	-39.4	12.5	0.00e+00	0	33	0	28764536832	43	16271
2026-01-07 17:31:13.37	351.67	20.03	-39.2	-39.5	12.5	0.00e+00	0	33	0	28840034304	44	15476
2026-01-07 17:31:14.38	351.51	19.87	-39.2	-39.5	12.5	0.00e+00	0	33	0	28915531776	44	15539
2026-01-07 17:31:15.38	351.36	19.71	-39.3	-39.6	12.5	0.00e+00	0	33	0	28991029248	44	15681
2026-01-07 17:31:16.39	351.20	19.55	-39.3	-39.6	12.4	0.00e+00	0	33	0	29066526720	44	15730
2026-01-07 17:31:17.40	351.05	19.39	-39.4	-39.6	12.4	0.00e+00	0	33	0	29142024192	44	15809
2026-01-07 17:31:18.40	350.90	19.23	-39.4	-39.7	12.4	0.00e+00	0	33	0	29217521664	44	15915
2026-01-07 17:31:19.40	350.75	19.08	-39.5	-39.8	12.4	0.00e+00	0	33	0	29293019136	44	16094
2026-01-07 17:31:20.40	350.60	18.92	-39.5	-39.8	12.4	0.00e+00	0	33	0	29368516608	44	16142
2026-01-07 17:31:21.40	350.45	18.77	-39.6	-39.9	12.4	0.00e+00	0	33	0	29444014080	44	16212
2026-01-07 17:31:22.41	350.31	18.61	-39.6	-39.8	12.4	0.00e+00	0	33	0	29519511552	44	16195
2026-01-07 17:31:23.42	350.16	18.46	-39.6	-39.9	12.4	0.00e+00	0	33	0	29595009024	44	16233
2026-01-07 17:31:24.42	350.02	18.31	-39.6	-39.9	12.3	0.00e+00	0	33	0	29670506496	44	16297
2026-01-07 17:31:25.42	349.88	18.16	-39.7	-40.0	12.4	0.00e+00	0	33	0	29746003968	45	15594
2026-01-07 17:31:26.43	349.75	18.01	-39.7	-40.0	12.4	0.00e+00	0	33	0	29821501440	45	15588
2026-01-07 17:31:27.44	349.61	17.86	-39.7	-40.0	12.4	0.00e+00	0	33	0	29896998912	45	15522
2026-01-07 17:31:28.44	349.47	17.71	-39.8	-40.1	12.3	0.00e+00	0	33	0	29972496384	45	15747
2026-01-07 17:31:29.44	349.34	17.57	-39.9	-40.2	12.3	0.00e+00	0	33	0	30047993856	45	15842
2026-01-07 17:31:30.45	349.21	17.42	-39.8	-40.1	12.3	0.00e+00	0	33	0	30123491328	45	15704
2026-01-07 17:31:31.45	349.08	17.28	-39.9	-40.2	12.3	0.00e+00	0	33	0	30198988800	45	15927
2026-01-07 17:31:32.46	348.95	17.13	-40.0	-40.3	12.3	0.00e+00	0	33	0	30274486272	45	16044
2026-01-07 17:31:33.45	348.82	16.99	-39.9	-40.2	12.3	0.00e+00	0	33	0	30349983744	45	15925
2026-01-07 17:31:34.46	348.70	16.85	-40.0	-40.3	12.3	0.00e+00	0	33	0	30425481216	45	16136
2026-01-07 17:31:35.47	348.57	16.71	-40.0	-40.3	12.3	0.00e+00	0	33	0	30500978688	45	16134
2026-01-07 17:31:36.47	348.45	16.57	-40.1	-40.4	12.2	0.00e+00	0	33	0	30568087552	45	16213
2026-01-07 17:31:37.48	348.33	16.43	-40.1	-40.4	12.3	0.00e+00	0	33	0	30651973632	46	15427
2026-01-07 17:31:38.48	348.21	16.29	-40.2	-40.5	12.3	0.00e+00	0	33	0	30727471104	46	15555
2026-01-07 17:31:39.49	348.09	16.16	-40.3	-40.6	12.2	0.00e+00	0	33	0	30802968576	46	15675
2026-01-07 17:31:40.50	347.97	16.02	-40.2	-40.5	12.2	0.00e+00	0	33	0	30878466048	46	15633
2026-01-07 17:31:41.50	347.86	15.88	-40.4	-40.7	12.2	0.00e+00	0	33	0	30953963520	46	15884
2026-01-07 17:31:42.51	347.74	15.75	-40.3	-40.6	12.2	0.00e+00	0	33	0	31029460992	46	15752
2026-01-07 17:31:43.52	347.63	15.61	-40.4	-40.7	12.2	0.00e+00	0	33	0	31096569856	46	15890
2026-01-07 17:31:44.52	347.51	15.48	-40.5	-40.8	12.1	0.00e+00	0	33	0	31172067328	46	16053
2026-01-07 17:31:45.52	347.40	15.35	-40.4	-40.7	12.2	0.00e+00	0	33	0	31247564800	46	15964
2026-01-07 17:31:46.53	347.29	15.22	-40.5	-40.8	12.1	0.00e+00	0	33	0	31331450880	46	16057
2026-01-07 17:31:47.54	347.18	15.09	-40.6	-40.9	12.1	0.00e+00	0	33	0	31406948352	46	16275
2026-01-07 17:31:48.54	347.07	14.96	-40.6	-40.9	12.2	0.00e+00	0	33	0	31482445824	47	15424
2026-01-07 17:31:49.55	346.97	14.83	-40.7	-41.0	12.2	0.00e+00	0	33	0	31557943296	47	15484
2026-01-07 17:31:50.55	346.86	14.70	-40.7	-41.0	12.1	0.00e+00	0	33	0	31633440768	47	15520
2026-01-07 17:31:51.56	346.76	14.57	-40.7	-41.0	12.1	0.00e+00	0	33	0	31700549632	47	15609
2026-01-07 17:31:52.57	346.65	14.45	-40.7	-41.0	12.1	0.00e+00	0	33	0	31776047104	47	15590
2026-01-07 17:31:53.58	346.55	14.32	-40.8	-41.1	12.1	0.00e+00	0	33	0	31851544576	47	15746
2026-01-07 17:31:54.58	346.45	14.20	-40.8	-41.1	12.1	1.38e-05	0	33	0	31935430656	47	15819
2026-01-07 17:31:55.58	346.35	14.07	-40.9	-41.2	12.0	0.00e+00	0	33	0	32010928128	47	15845
2026-01-07 17:31:56.59	346.25	13.95	-40.8	-41.1	12.1	0.00e+00	0	33	0	32086425600	47	15780
2026-01-07 17:31:57.60	346.15	13.83	-40.9	-41.2	12.0	0.00e+00	0	33	0	32161923072	47	15972
2026-01-07 17:31:58.60	346.05	13.70	-41.0	-41.3	12.0	0.00e+00	0	33	0	32229031936	47	16115
2026-01-07 17:31:59.60	345.96	13.58	-40.9	-41.3	12.0	0.00e+00	0	33	0	32304529408	47	16019
2026-01-07 17:32:00.60	345.86	13.46	-41.1	-41.4	11.9	0.00e+00	0	33	0	32380026880	47	16237
2026-01-07 17:32:01.61	345.77	13.34	-41.1	-41.4	11.9	0.00e+00	0	33	0	32455524352	47	16259
2026-01-07 17:32:02.62	345.68	13.22	-41.0	-41.3	11.9	0.00e+00	0	33	0	32531021824	47	16146
2026-01-07 17:32:03.62	345.58	13.11	-41.9	-42.2	12.1	0.00e+00	0	33	0	32606519296	49	15889
2026-01-07 17:32:04.63	345.49	12.99	-41.9	-42.2	12.1	0.00e+00	0	33	0	32690405376	49	15926
2026-01-07 17:32:05.63	345.40	12.87	-42.0	-42.3	12.0	0.00e+00	0	33	0	32765902848	49	16165
2026-01-07 17:32:06.63	345.31	12.76	-42.1	-42.4	12.0	0.00e+00	0	33	0	32833011712	49	16243
2026-01-07 17:32:07.64	345.22	12.64	-42.0	-42.3	12.0	0.00e+00	0	33	0	32908509184	49	16166
2026-01-07 17:32:08.65	345.13	12.52	-42.1	-42.4	12.0	0.00e+00	0	33	0	32984006656	49	16307
2026-01-07 17:32:09.65	345.05	12.41	-42.2	-42.4	12.1	0.00e+00	0	33	0	33059504128	50	15472
2026-01-07 17:32:10.66	344.96	12.30	-42.2	-42.5	12.0	0.00e+00	0	33	0	33135001600	50	15618
2026-01-07 17:32:11.67	344.88	12.18	-42.3	-42.6	12.0	0.00e+00	0	33	0	33210499072	50	15664
2026-01-07 17:32:12.67	344.79	12.07	-42.3	-42.6	12.0	0.00e+00	0	33	0	33285996544	50	15713
2026-01-07 17:32:13.68	344.71	11.96	-42.3	-42.6	12.0	0.00e+00	0	33	0	33361494016	50	15705
2026-01-07 17:32:14.68	344.62	11.85	-42.3	-42.6	12.0	0.00e+00	0	33	0	33436991488	50	15816
2026-01-07 17:32:15.69	344.54	11.74	-42.3	-42.6	12.0	0.00e+00	0	33	0	33512488960	50	15807
2026-01-07 17:32:16.70	344.46	11.63	-42.4	-42.7	12.0	0.00e+00	0	33	0	33587986432	50	15955
2026-01-07 17:32:17.70	344.38	11.52	-42.4	-42.7	12.0	0.00e+00	0	33	0	33663483904	50	16010
2026-01-07 17:32:18.71	344.30	11.41	-42.4	-42.7	12.0	0.00e+00	0	33	0	33738981376	50	15902
2026-01-07 17:32:19.72	344.22	11.30	-42.5	-42.9	11.9	0.00e+00	0	33	0	33814478848	50	16228
2026-01-07 17:32:20.72	344.14	11.19	-42.6	-42.9	11.9	0.00e+00	0	33	0	33889976320	50	16322
2026-01-07 17:32:21.73	344.06	11.08	-42.7	-43.0	11.9	0.00e+00	0	33	0	33965473792	51	15527
2026-01-07 17:32:22.74	343.99	10.98	-42.6	-42.9	12.0	0.00e+00	0	33	0	34040971264	51	15391
2026-01-07 17:32:23.74	343.91	10.87	-42.6	-42.9	11.9	0.00e+00	0	33	0	34116468736	51	15473
2026-01-07 17:32:24.75	343.84	10.77	-42.6	-42.9	11.9	0.00e+00	0	33	0	34191966208	51	15472
2026-01-07 17:32:25.76	343.76	10.66	-42.6	-42.9	12.0	0.00e+00	0	33	0	34267463680	51	15361
2026-01-07 17:32:26.77	343.69	10.56	-42.7	-43.0	11.9	0.00e+00	0	33	0	34342961152	51	15599
2026-01-07 17:32:27.78	343.61	10.45	-42.8	-43.1	11.8	0.00e+00	0	33	0	34426847232	51	15770
2026-01-07 17:32:28.77	343.54	10.35	-42.8	-43.1	11.9	0.00e+00	0	33	0	34493956096	51	15790
2026-01-07 17:32:29.77	343.47	10.25	-42.8	-43.1	11.9	0.00e+00	0	33	0	34569453568	51	15680
2026-01-07 17:32:30.78	343.40	10.15	-42.8	-43.2	11.8	0.00e+00	0	33	0	34644951040	51	15843
2026-01-07 17:32:31.79	343.33	10.04	-43.0	-43.3	11.8	0.00e+00	0	33	0	34720448512	51	16074
2026-01-07 17:32:32.79	343.26	9.94	-42.9	-43.2	11.8	0.00e+00	0	33	0	34795945984	51	16002
2026-01-07 17:32:33.80	343.19	9.84	-43.0	-43.3	11.8	0.00e+00	0	33	0	34871443456	51	16065
2026-01-07 17:32:34.81	343.12	9.74	-43.0	-43.3	11.8	0.00e+00	0	33	0	34946940928	51	16057
2026-01-07 17:32:35.81	343.05	9.64	-43.0	-43.3	11.8	0.00e+00	0	33	0	35022438400	51	16138
2026-01-07 17:32:36.81	342.98	9.54	-43.1	-43.5	11.8	0.00e+00	0	33	0	35097935872	52	15487
2026-01-07 17:32:37.81	342.91	9.45	-43.0	-43.3	11.8	0.00e+00	0	33	0	35173433344	52	15255
2026-01-07 17:32:38.82	342.85	9.35	-43.1	-43.4	11.8	0.00e+00	0	33	0	35248930816	52	15357
2026-01-07 17:32:39.82	342.78	9.25	-43.1	-43.5	11.8	6.90e-06	0	33	0	35324428288	52	15477
2026-01-07 17:32:40.83	342.72	9.15	-43.1	-43.4	11.8	0.00e+00	0	33	0	35399925760	52	15357
2026-01-07 17:32:41.83	342.65	9.06	-43.1	-43.5	11.7	0.00e+00	0	33	0	35475423232	52	15490
2026-01-07 17:32:42.84	342.59	8.96	-43.3	-43.6	11.6	0.00e+00	0	33	0	35550920704	52	15804
2026-01-07 17:32:43.85	342.52	8.86	-43.2	-43.5	11.7	0.00e+00	0	33	0	35626418176	52	15613
2026-01-07 17:32:44.86	342.46	8.77	-43.4	-43.7	11.6	6.90e-06	0	33	0	35701915648	52	15961
2026-01-07 17:32:45.86	342.40	8.67	-43.3	-43.6	11.6	0.00e+00	0	33	0	35777413120	52	15751
2026-01-07 17:32:46.87	342.34	8.58	-43.3	-43.7	11.6	0.00e+00	0	33	0	35852910592	52	15873
2026-01-07 17:32:47.87	342.27	8.48	-43.3	-43.6	11.6	0.00e+00	0	33	0	35928408064	52	15773
2026-01-07 17:32:48.88	342.21	8.39	-43.4	-43.8	11.6	0.00e+00	0	33	0	36003905536	52	16027
2026-01-07 17:32:49.88	342.15	8.30	-43.3	-43.7	11.6	0.00e+00	0	33	0	36079403008	52	15894
2026-01-07 17:32:50.88	342.09	8.21	-43.6	-43.9	11.6	0.00e+00	0	33	0	36154900480	53	15380
2026-01-07 17:32:51.89	342.03	8.11	-43.4	-43.7	11.7	0.00e+00	0	33	0	36230397952	53	15108
2026-01-07 17:32:52.89	341.97	8.02	-43.5	-43.8	11.6	0.00e+00	0	33	0	36305895424	53	15239
2026-01-07 17:32:53.90	341.92	7.93	-43.6	-43.9	11.6	0.00e+00	0	33	0	36381392896	53	15329
2026-01-07 17:32:54.90	341.86	7.84	-43.6	-43.9	11.6	6.90e-06	0	33	0	36456890368	53	15422
2026-01-07 17:32:55.91	341.80	7.75	-57.9	-61.2	3.7	0.00e+00	0	33	104	36482056192	81	22372
2026-01-07 17:32:56.91	341.74	7.66	-57.9	-61.2	3.7	0.00e+00	0	32	104	36482056192	81	22424
2026-01-07 17:32:57.92	341.69	7.57	-58.0	-61.2	3.7	0.00e+00	0	33	104	36482056192	81	22451
2026-01-07 17:32:58.93	341.63	7.48	-57.9	-61.2	3.7	0.00e+00	0	32	104	36482056192	81	22408
2026-01-07 17:32:59.93	341.57	7.39	-57.8	-61.1	3.7	0.00e+00	0	32	104	36482056192	81	22116
2026-01-07 17:33:00.94	341.52	7.30	-57.9	-61.1	3.7	0.00e+00	0	32	104	36482056192	81	22301
2026-01-07 17:33:01.95	341.46	7.21	-57.8	-61.1	3.7	0.00e+00	0	32	104	36482056192	81	22192
2026-01-07 17:33:02.96	341.41	7.12	-57.8	-61.0	3.7	0.00e+00	0	32	104	36482056192	81	22087
2026-01-07 17:33:03.96	341.36	7.04	-57.9	-61.1	3.7	0.00e+00	0	32	104	36482056192	81	22322
2026-01-07 17:33:04.97	341.30	6.95	-57.9	-61.1	3.7	0.00e+00	0	33	104	36482056192	81	22189
2026-01-07 17:33:05.97	341.25	6.86	-57.8	-61.0	3.7	0.00e+00	0	32	104	36482056192	81	21938
2026-01-07 17:33:06.98	341.20	6.78	-57.7	-61.0	3.7	0.00e+00	0	32	104	36482056192	81	21923
2026-01-07 17:33:07.99	341.14	6.69	-57.9	-61.1	3.7	0.00e+00	0	32	104	36482056192	81	22134
2026-01-07 17:33:08.99	341.09	6.61	-57.8	-61.1	3.6	0.00e+00	0	32	104	36482056192	81	22140
2026-01-07 17:33:10.00	341.04	6.52	-57.7	-61.0	3.7	0.00e+00	0	32	104	36482056192	81	21917
2026-01-07 17:33:11.01	340.99	6.44	-57.6	-60.9	3.7	0.00e+00	0	32	104	36482056192	81	21770
2026-01-07 17:33:12.01	340.94	6.35	-57.8	-61.0	3.7	0.00e+00	0	32	104	36482056192	81	22084
2026-01-07 17:33:13.01	340.89	6.27	-57.7	-61.0	3.7	0.00e+00	0	32	104	36482056192	81	21882
2026-01-07 17:33:14.01	340.84	6.18	-57.6	-60.9	3.7	0.00e+00	0	32	104	36482056192	81	21627
2026-01-07 17:33:15.02	340.79	6.10	-57.6	-60.8	3.7	0.00e+00	0	32	104	36482056192	81	21455
2026-01-07 17:33:16.02	340.74	6.02	-57.7	-61.0	3.6	0.00e+00	0	32	104	36482056192	81	21922
2026-01-07 17:33:17.03	340.69	5.93	-57.7	-61.0	3.7	0.00e+00	0	32	104	36482056192	81	21865
2026-01-07 17:33:18.03	340.64	5.85	-57.6	-60.8	3.7	0.00e+00	0	32	104	36482056192	81	21524
2026-01-07 17:33:19.04	340.60	5.77	-57.5	-60.7	3.7	0.00e+00	0	32	104	36482056192	81	21324
2026-01-07 17:33:20.04	340.55	5.69	-57.7	-60.9	3.7	0.00e+00	0	32	104	36482056192	81	21698
2026-01-07 17:33:21.04	340.50	5.61	-57.6	-60.9	3.7	0.00e+00	0	32	104	36482056192	81	21748
2026-01-07 17:33:22.05	340.45	5.53	-57.5	-60.8	3.7	0.00e+00	0	32	104	36482056192	81	21393
2026-01-07 17:33:23.05	340.41	5.44	-57.5	-60.7	3.7	0.00e+00	0	32	104	36482056192	81	21220
2026-01-07 17:33:24.05	340.36	5.36	-57.6	-60.8	3.6	0.00e+00	0	32	104	36482056192	81	21585
2026-01-07 17:33:25.06	340.32	5.28	-57.6	-60.8	3.6	0.00e+00	0	32	104	36482056192	81	21432
2026-01-07 17:33:26.07	340.27	5.20	-57.4	-60.7	3.7	0.00e+00	0	32	104	36482056192	81	21197
2026-01-07 17:33:27.06	340.23	5.13	-57.4	-60.6	3.7	0.00e+00	0	32	104	36482056192	81	20924
2026-01-07 17:33:28.07	340.18	5.05	-57.6	-60.8	3.7	0.00e+00	0	32	104	36482056192	81	21405
2026-01-07 17:33:29.08	340.14	4.97	-57.9	-61.1	3.7	0.00e+00	0	32	104	36482056192	81	22307
2026-01-07 17:33:30.09	340.09	4.89	-58.4	-61.7	3.7	0.00e+00	0	32	104	36482056192	82	22418
2026-01-07 17:33:31.10	340.05	4.81	-58.7	-62.0	3.6	0.00e+00	0	32	104	36482056192	83	22007
2026-01-07 17:33:32.10	340.01	4.73	-58.9	-62.2	3.7	0.00e+00	0	32	104	36482056192	83	22432
2026-01-07 17:33:33.11	339.96	4.65	-59.3	-62.6	3.6	0.00e+00	0	32	104	36482056192	84	22170
2026-01-07 17:33:34.12	339.92	4.57	-59.5	-62.7	3.7	0.00e+00	0	32	104	36482056192	84	22388
2026-01-07 17:33:35.13	339.88	4.50	-59.6	-62.8	3.6	0.00e+00	0	32	104	36482056192	84	22845
2026-01-07 17:33:36.14	339.83	4.42	-59.7	-63.0	3.7	0.00e+00	0	32	104	36482056192	85	21866
2026-01-07 17:33:37.14	339.79	4.34	-59.8	-63.1	3.7	0.00e+00	0	32	104	36482056192	85	22126
2026-01-07 17:33:38.15	339.75	4.27	-59.9	-63.1	3.7	0.00e+00	0	32	104	36482056192	85	22304
2026-01-07 17:33:39.16	339.71	4.19	-59.9	-63.1	3.7	0.00e+00	0	32	104	36482056192	85	22363
2026-01-07 17:33:40.17	339.67	4.11	-59.9	-63.2	3.6	0.00e+00	0	32	104	36482056192	85	22406
2026-01-07 17:33:41.18	339.63	4.04	-60.0	-63.2	3.7	0.00e+00	0	32	104	36482056192	85	22545
2026-01-07 17:33:42.19	339.59	3.96	-60.0	-63.2	3.7	0.00e+00	0	32	104	36482056192	85	22617
2026-01-07 17:33:43.19	339.55	3.89	-60.0	-63.3	3.7	0.00e+00	0	32	104	36482056192	85	22736
2026-01-07 17:33:44.20	339.51	3.81	-60.1	-63.3	3.6	0.00e+00	0	32	104	36482056192	85	22756
2026-01-07 17:33:45.20	339.47	3.74	-60.1	-63.3	3.6	0.00e+00	0	32	104	36482056192	85	22815
2026-01-07 17:33:46.21	339.43	3.66	-60.1	-63.4	3.6	0.00e+00	0	32	104	36482056192	85	22894
2026-01-07 17:33:47.22	339.39	3.59	-60.1	-63.4	3.7	0.00e+00	0	32	104	36482056192	85	22928
2026-01-07 17:33:48.23	339.35	3.51	-60.1	-63.4	3.7	0.00e+00	0	32	104	36482056192	85	22940
2026-01-07 17:33:49.24	339.31	3.44	-60.2	-63.4	3.6	0.00e+00	0	31	104	36482056192	86	21764
2026-01-07 17:33:50.25	339.27	3.37	-60.2	-63.4	3.6	0.00e+00	0	32	104	36482056192	86	21778
2026-01-07 17:33:51.26	339.24	3.29	-60.1	-63.3	3.7	0.00e+00	0	32	104	36482056192	86	21470
2026-01-07 17:33:52.27	339.20	3.22	-60.1	-63.4	3.7	0.00e+00	0	32	104	36482056192	86	21650
2026-01-07 17:33:53.28	339.16	3.15	-60.1	-63.3	3.6	0.00e+00	0	32	104	36482056192	86	21521
2026-01-07 17:33:54.29	339.12	3.07	-60.1	-63.3	3.6	0.00e+00	0	31	104	36482056192	86	21517
2026-01-07 17:33:55.29	339.09	3.00	-60.0	-63.3	3.7	0.00e+00	0	32	104	36482056192	86	21498
2026-01-07 17:33:56.30	339.05	2.93	-60.0	-63.3	3.7	0.00e+00	0	32	104	36482056192	86	21449
2026-01-07 17:33:57.31	339.01	2.86	-60.0	-63.3	3.7	0.00e+00	0	31	104	36482056192	86	21380
2026-01-07 17:33:58.32	338.98	2.79	-60.0	-63.3	3.7	0.00e+00	0	32	104	36482056192	86	21393
2026-01-07 17:33:59.32	338.94	2.72	-60.0	-63.2	3.7	0.00e+00	0	32	104	36482056192	86	21349
2026-01-07 17:34:00.33	338.91	2.65	-60.0	-63.3	3.7	0.00e+00	0	32	104	36482056192	86	21370
2026-01-07 17:34:01.33	338.87	2.58	-60.0	-63.3	3.6	0.00e+00	0	31	104	36482056192	86	21379
2026-01-07 17:34:02.34	338.84	2.50	-60.0	-63.2	3.7	0.00e+00	0	32	104	36482056192	86	21305
2026-01-07 17:34:03.35	338.80	2.43	-60.0	-63.2	3.7	0.00e+00	0	32	104	36482056192	86	21307
2026-01-07 17:34:04.36	338.77	2.36	-60.0	-63.2	3.7	0.00e+00	0	32	104	36482056192	86	21298
2026-01-07 17:34:05.37	338.73	2.29	-60.0	-63.2	3.7	0.00e+00	0	31	104	36482056192	86	21206
2026-01-07 17:34:06.38	338.70	2.22	-60.0	-63.2	3.7	0.00e+00	0	32	104	36482056192	86	21216
2026-01-07 17:34:07.39	338.66	2.15	-59.9	-63.2	3.7	0.00e+00	0	31	104	36482056192	86	21207
2026-01-07 17:34:08.40	338.63	2.08	-59.9	-63.2	3.6	0.00e+00	0	32	104	36482056192	86	21249
2026-01-07 17:34:09.41	338.60	2.01	-59.9	-63.2	3.7	0.00e+00	0	31	104	36482056192	86	21160
2026-01-07 17:34:10.42	338.56	1.95	-59.9	-63.2	3.7	0.00e+00	0	31	104	36482056192	86	21138

#Closed at: 2026-01-07 17:34:10
#Recorded file [36482 MB]: D:/lorett/data/31004_260107_202348.dat