passes_logs/2026/01/07/R3.2S_Murmansk/R3.2S_Murmansk__20260107_125947_FENGYUN_3D_rec.log

#Pass ID: 20260107_125947_FENGYUN 3D
#Satellite: FENGYUN 3D
#Configuration: FENGYUN 3D
#almurnet v.1.7.20251203
#Start time: 2026-01-07 12:59:48

#Version: 2.2.20231116
#Station: R3.2S_Murmansk
#Location: 33.079688 lon 68.888172 lat
#TLE: 1 43010U 17072A   26006.26440730  .00000376  00000+0  19957-3 0  9994
#TLE: 2 43010  98.9925 337.9455 0002045 123.9195 236.2175 14.19693586422016

#Time	Az	El	Level	Level2	SNR	BER	BlckErr	Temp	State	Recorded	gain1	gain2
2026-01-07 12:59:48.43	187.36	2.04	-57.8	-70.7	3.8	8.45e-01	0	23	0	0	81	16251
2026-01-07 12:59:49.43	187.40	2.10	-57.7	-70.7	3.8	8.45e-01	0	23	104	0	80	17158
2026-01-07 12:59:50.44	187.45	2.16	-57.7	-70.7	3.8	8.45e-01	0	23	104	0	80	17207
2026-01-07 12:59:51.44	187.49	2.22	-57.7	-70.7	3.8	8.45e-01	0	23	104	0	80	17161
2026-01-07 12:59:52.45	187.54	2.28	-57.7	-70.6	3.8	8.45e-01	0	23	104	0	80	17029
2026-01-07 12:59:53.46	187.58	2.34	-57.7	-70.7	3.8	8.46e-01	0	23	104	0	80	17139
2026-01-07 12:59:54.47	187.63	2.41	-57.7	-70.7	3.8	8.45e-01	0	23	104	0	80	17177
2026-01-07 12:59:55.47	187.68	2.47	-57.7	-70.6	3.8	8.46e-01	0	23	104	0	80	17038
2026-01-07 12:59:56.48	187.72	2.53	-57.7	-70.6	3.8	8.45e-01	0	23	104	0	80	16959
2026-01-07 12:59:57.49	187.77	2.59	-57.7	-70.6	3.8	8.45e-01	0	23	104	0	80	17064
2026-01-07 12:59:58.50	187.81	2.66	-57.7	-70.5	3.8	8.46e-01	0	23	104	0	80	16765
2026-01-07 12:59:59.50	187.86	2.72	-57.7	-70.5	3.8	8.46e-01	0	23	104	0	80	16778
2026-01-07 13:00:00.51	187.91	2.78	-57.7	-70.4	3.8	8.44e-01	0	24	104	0	80	16662
2026-01-07 13:00:01.52	187.95	2.84	-57.7	-70.5	3.8	8.46e-01	0	24	104	0	80	16719
2026-01-07 13:00:02.53	188.00	2.91	-57.7	-70.5	3.8	8.46e-01	0	24	104	0	80	16813
2026-01-07 13:00:03.54	188.05	2.97	-57.7	-70.5	3.8	8.47e-01	0	24	104	0	80	16856
2026-01-07 13:00:04.54	188.10	3.03	-57.7	-70.5	3.8	8.45e-01	0	24	104	0	80	16839
2026-01-07 13:00:05.55	188.14	3.10	-57.7	-70.4	3.8	8.46e-01	0	24	104	0	80	16650
2026-01-07 13:00:06.55	188.19	3.16	-57.7	-70.4	3.8	8.45e-01	0	24	104	0	80	16671
2026-01-07 13:00:07.56	188.24	3.22	-57.7	-70.3	3.8	8.46e-01	0	24	104	0	80	16498
2026-01-07 13:00:08.57	188.29	3.29	-57.7	-70.2	3.8	8.45e-01	0	24	104	0	80	16164
2026-01-07 13:00:09.58	188.34	3.35	-57.7	-70.1	3.8	8.45e-01	0	24	104	0	80	16059
2026-01-07 13:00:10.59	188.38	3.42	-57.7	-70.0	3.8	8.46e-01	0	24	104	0	80	15794
2026-01-07 13:00:11.60	188.43	3.48	-57.7	-70.1	3.8	8.45e-01	0	24	104	0	80	16087
2026-01-07 13:00:12.61	188.48	3.55	-57.7	-70.3	3.8	8.45e-01	0	24	104	0	80	16380
2026-01-07 13:00:13.61	188.53	3.61	-57.7	-70.5	3.8	8.46e-01	0	24	104	0	80	16763
2026-01-07 13:00:14.62	188.58	3.67	-57.8	-70.8	3.8	8.46e-01	0	24	104	0	80	17306
2026-01-07 13:00:15.63	188.63	3.74	-57.8	-70.7	3.8	8.45e-01	0	24	104	0	80	17220
2026-01-07 13:00:16.64	188.68	3.80	-57.7	-70.4	3.8	8.45e-01	0	24	104	0	80	16660
2026-01-07 13:00:17.65	188.73	3.87	-57.7	-69.8	3.8	8.45e-01	0	24	104	0	80	15558
2026-01-07 13:00:18.65	188.78	3.93	-57.6	-68.9	3.8	8.44e-01	0	24	104	0	80	13985
2026-01-07 13:00:19.66	188.83	4.00	-57.5	-67.6	4.1	8.41e-01	0	24	0	0	80	11992
2026-01-07 13:00:20.67	188.88	4.07	-57.4	-66.8	4.3	8.30e-01	0	24	0	0	80	10920
2026-01-07 13:00:21.68	188.93	4.13	-57.2	-65.6	4.7	8.05e-01	0	24	0	0	80	9589
2026-01-07 13:00:22.69	188.98	4.20	-57.1	-65.2	4.9	7.78e-01	0	24	0	0	80	9174
2026-01-07 13:00:23.69	189.03	4.26	-57.1	-65.1	5.0	7.55e-01	0	24	0	0	80	8999
2026-01-07 13:00:24.71	189.09	4.33	-57.1	-65.1	5.0	7.45e-01	0	24	0	0	80	8991
2026-01-07 13:00:25.71	189.14	4.39	-57.2	-65.3	4.9	7.58e-01	0	24	0	0	80	9253
2026-01-07 13:00:26.71	189.19	4.46	-57.2	-65.3	4.9	7.76e-01	0	24	0	0	80	9265
2026-01-07 13:00:27.72	189.24	4.53	-57.1	-65.0	5.0	7.61e-01	0	24	0	0	80	8918
2026-01-07 13:00:28.73	189.29	4.59	-57.1	-64.9	5.1	7.53e-01	0	24	0	0	80	8782
2026-01-07 13:00:29.74	189.35	4.66	-57.0	-64.4	5.4	7.05e-01	0	24	0	0	80	8334
2026-01-07 13:00:30.75	189.40	4.73	-56.8	-63.4	6.0	3.40e-01	0	24	0	4194304	80	7453
2026-01-07 13:00:31.76	189.45	4.80	-56.6	-62.8	6.5	2.13e-01	0	24	0	9437184	79	7303
2026-01-07 13:00:32.77	189.51	4.86	-56.4	-62.2	6.9	1.49e-01	0	24	0	15728640	79	6866
2026-01-07 13:00:33.77	189.56	4.93	-56.1	-61.3	7.7	7.21e-02	0	24	0	20971520	78	6495
2026-01-07 13:00:34.78	189.61	5.00	-56.1	-61.3	7.7	6.39e-02	0	24	0	27262976	78	6522
2026-01-07 13:00:35.79	189.67	5.07	-56.4	-62.2	6.9	1.01e-01	0	24	0	32505856	78	7255
2026-01-07 13:00:36.80	189.72	5.13	-57.1	-64.5	5.3	2.20e-01	0	24	0	37748736	79	8950
2026-01-07 13:00:37.80	189.77	5.20	-56.6	-62.8	6.5	7.73e-02	0	24	0	41943040	78	7784
2026-01-07 13:00:38.81	189.83	5.27	-57.5	-68.4	3.8	8.35e-01	0	24	104	44040192	80	13173
2026-01-07 13:00:39.82	189.88	5.34	-50.9	-52.8	6.6	8.05e-01	0	24	104	44040192	68	4349
2026-01-07 13:00:40.82	189.94	5.41	-49.8	-51.5	14.2	0.00e+00	0	24	0	48234496	66	4206
2026-01-07 13:00:41.83	189.99	5.47	-49.9	-51.6	14.1	0.00e+00	0	24	0	53477376	66	4276
2026-01-07 13:00:42.84	190.05	5.54	-49.4	-51.0	14.3	0.00e+00	0	24	0	58720256	65	4242
2026-01-07 13:00:43.85	190.11	5.61	-49.4	-51.0	14.4	0.00e+00	0	24	0	65011712	65	4201
2026-01-07 13:00:44.86	190.16	5.68	-49.3	-50.9	14.4	0.00e+00	0	24	0	70254592	65	4168
2026-01-07 13:00:45.87	190.22	5.75	-49.0	-50.5	14.5	0.00e+00	0	24	0	76546048	64	4239
2026-01-07 13:00:46.88	190.28	5.82	-49.1	-50.7	14.4	0.00e+00	0	24	0	81788928	64	4296
2026-01-07 13:00:47.89	190.33	5.89	-49.0	-50.6	14.4	0.00e+00	0	24	0	88080384	64	4246
2026-01-07 13:00:48.89	190.39	5.96	-49.0	-50.6	14.4	0.00e+00	0	24	0	93323264	64	4248
2026-01-07 13:00:49.90	190.45	6.03	-48.9	-50.4	14.5	0.00e+00	0	24	0	98566144	64	4173
2026-01-07 13:00:50.90	190.50	6.10	-49.0	-50.6	14.4	0.00e+00	0	24	0	104857600	64	4265
2026-01-07 13:00:51.91	190.56	6.17	-48.9	-50.4	14.5	0.00e+00	0	24	0	110100480	64	4159
2026-01-07 13:00:52.92	190.62	6.24	-48.9	-50.5	14.5	0.00e+00	0	25	0	116391936	64	4195
2026-01-07 13:00:53.93	190.68	6.31	-48.9	-50.4	14.6	0.00e+00	0	24	0	121634816	64	4152
2026-01-07 13:00:54.94	190.74	6.38	-49.0	-50.6	14.5	0.00e+00	0	24	0	126877696	64	4269
2026-01-07 13:00:55.95	190.80	6.45	-48.9	-50.4	14.6	0.00e+00	0	24	0	133169152	64	4160
2026-01-07 13:00:56.96	190.86	6.52	-48.8	-50.4	14.6	0.00e+00	0	24	0	138412032	64	4146
2026-01-07 13:00:57.97	190.91	6.60	-48.9	-50.4	14.5	0.00e+00	0	25	0	144703488	64	4169
2026-01-07 13:00:58.98	190.97	6.67	-48.8	-50.3	14.6	0.00e+00	0	25	0	149946368	64	4130
2026-01-07 13:00:59.98	191.03	6.74	-48.8	-50.3	14.6	0.00e+00	0	25	0	155189248	64	4123
2026-01-07 13:01:00.99	191.09	6.81	-48.8	-50.2	14.7	0.00e+00	0	25	0	161480704	64	4096
2026-01-07 13:01:01.99	191.15	6.88	-48.7	-50.1	14.6	0.00e+00	0	25	0	166723584	63	4288
2026-01-07 13:01:03.00	191.22	6.95	-48.7	-50.1	14.6	0.00e+00	0	24	0	173015040	63	4286
2026-01-07 13:01:04.01	191.28	7.03	-48.6	-50.1	14.6	0.00e+00	0	25	0	178257920	63	4268
2026-01-07 13:01:05.02	191.34	7.10	-48.6	-50.0	14.6	0.00e+00	0	25	0	183500800	63	4238
2026-01-07 13:01:06.02	191.40	7.17	-48.7	-50.2	14.6	0.00e+00	0	25	0	189792256	63	4315
2026-01-07 13:01:07.03	191.46	7.24	-48.6	-50.0	14.6	0.00e+00	0	25	0	195035136	63	4241
2026-01-07 13:01:08.04	191.52	7.32	-48.6	-50.1	14.6	0.00e+00	0	25	0	201326592	63	4272
2026-01-07 13:01:09.04	191.59	7.39	-48.6	-50.0	14.7	0.00e+00	0	24	0	206569472	63	4226
2026-01-07 13:01:10.05	191.65	7.46	-48.3	-49.8	14.8	0.00e+00	0	25	0	211812352	63	4102
2026-01-07 13:01:11.06	191.71	7.54	-48.5	-50.0	14.7	0.00e+00	0	25	0	218103808	63	4198
2026-01-07 13:01:12.07	191.78	7.61	-48.2	-49.6	14.7	0.00e+00	0	25	0	223346688	62	4247
2026-01-07 13:01:13.08	191.84	7.69	-48.2	-49.7	14.7	0.00e+00	0	25	0	229638144	62	4306
2026-01-07 13:01:14.09	191.90	7.76	-48.1	-49.5	14.8	0.00e+00	0	25	0	234881024	62	4211
2026-01-07 13:01:15.10	191.97	7.83	-48.2	-49.6	14.7	0.00e+00	0	25	0	240123904	62	4252
2026-01-07 13:01:16.10	192.03	7.91	-48.2	-49.6	14.7	0.00e+00	0	24	0	246415360	62	4265
2026-01-07 13:01:17.11	192.10	7.98	-48.1	-49.6	14.7	0.00e+00	0	25	0	251658240	62	4252
2026-01-07 13:01:18.11	192.16	8.06	-48.0	-49.4	14.8	0.00e+00	0	25	0	257949696	62	4182
2026-01-07 13:01:19.12	192.23	8.13	-48.1	-49.5	14.8	0.00e+00	0	25	0	263192576	62	4234
2026-01-07 13:01:20.13	192.29	8.21	-48.0	-49.4	14.8	0.00e+00	0	25	0	269484032	62	4184
2026-01-07 13:01:21.14	192.36	8.28	-48.0	-49.4	14.8	0.00e+00	0	25	0	274726912	62	4182
2026-01-07 13:01:22.15	192.43	8.36	-48.1	-49.5	14.8	0.00e+00	0	25	0	279969792	62	4210
2026-01-07 13:01:23.16	192.49	8.44	-48.0	-49.4	14.8	0.00e+00	0	25	0	286261248	62	4168
2026-01-07 13:01:24.17	192.56	8.51	-47.9	-49.3	14.9	0.00e+00	0	25	0	291504128	62	4130
2026-01-07 13:01:25.18	192.63	8.59	-48.0	-49.4	14.8	0.00e+00	0	25	0	297795584	62	4185
2026-01-07 13:01:26.19	192.70	8.67	-47.8	-49.2	14.9	0.00e+00	0	25	0	303038464	62	4078
2026-01-07 13:01:27.20	192.77	8.74	-47.9	-49.3	14.9	0.00e+00	0	25	0	308281344	62	4111
2026-01-07 13:01:28.21	192.84	8.82	-48.0	-49.4	14.8	0.00e+00	0	25	0	314572800	62	4152
2026-01-07 13:01:29.22	192.90	8.90	-47.8	-49.2	14.9	0.00e+00	0	25	0	319815680	62	4052
2026-01-07 13:01:30.23	192.97	8.98	-47.9	-49.3	14.9	0.00e+00	0	25	0	326107136	62	4118
2026-01-07 13:01:31.23	193.04	9.05	-47.8	-49.1	15.0	0.00e+00	0	25	0	331350016	62	4030
2026-01-07 13:01:32.23	193.11	9.13	-47.8	-49.1	15.0	0.00e+00	0	25	0	336592896	62	4051
2026-01-07 13:01:33.24	193.18	9.21	-47.9	-49.3	14.9	0.00e+00	0	25	0	342884352	62	4114
2026-01-07 13:01:34.25	193.25	9.29	-48.0	-49.3	14.9	0.00e+00	0	25	0	348127232	62	4133
2026-01-07 13:01:35.25	193.32	9.36	-47.9	-49.2	14.9	0.00e+00	0	25	0	354418688	62	4092
2026-01-07 13:01:36.26	193.40	9.44	-47.8	-49.2	15.0	0.00e+00	0	25	0	359661568	62	4055
2026-01-07 13:01:37.27	193.47	9.52	-48.0	-49.4	14.8	0.00e+00	0	25	0	365953024	62	4176
2026-01-07 13:01:38.28	193.54	9.60	-47.9	-49.3	14.9	0.00e+00	0	25	0	371195904	62	4120
2026-01-07 13:01:39.28	193.61	9.68	-48.0	-49.3	14.9	0.00e+00	0	25	0	376438784	62	4143
2026-01-07 13:01:40.29	193.68	9.76	-47.9	-49.2	14.9	0.00e+00	0	25	0	382730240	62	4098
2026-01-07 13:01:41.30	193.76	9.84	-47.9	-49.3	14.9	0.00e+00	0	25	0	387973120	62	4109
2026-01-07 13:01:42.31	193.83	9.92	-48.0	-49.4	14.8	0.00e+00	0	25	0	393216000	62	4158
2026-01-07 13:01:43.32	193.91	10.00	-47.8	-49.2	14.9	0.00e+00	0	25	0	399507456	62	4079
2026-01-07 13:01:44.33	193.98	10.08	-47.8	-49.2	15.0	0.00e+00	0	25	0	404750336	62	4071
2026-01-07 13:01:45.34	194.06	10.16	-47.8	-49.2	15.0	0.00e+00	0	25	0	411041792	62	4053
2026-01-07 13:01:46.35	194.13	10.24	-47.9	-49.3	14.9	0.00e+00	0	25	0	416284672	62	4115
2026-01-07 13:01:47.35	194.21	10.32	-47.8	-49.2	15.0	0.00e+00	0	25	0	421527552	62	4059
2026-01-07 13:01:48.35	194.28	10.40	-47.8	-49.2	15.0	0.00e+00	0	25	0	427819008	62	4056
2026-01-07 13:01:49.36	194.36	10.48	-47.6	-48.9	14.9	0.00e+00	0	25	0	433061888	61	4183
2026-01-07 13:01:50.36	194.43	10.56	-47.7	-49.1	14.9	0.00e+00	0	25	0	439353344	61	4244
2026-01-07 13:01:51.37	194.51	10.65	-47.7	-49.1	14.8	0.00e+00	0	25	0	444596224	61	4261
2026-01-07 13:01:52.38	194.59	10.73	-47.7	-49.1	14.8	0.00e+00	0	25	0	450887680	61	4269
2026-01-07 13:01:53.39	194.67	10.81	-47.7	-49.1	14.9	0.00e+00	0	25	0	456130560	61	4245
2026-01-07 13:01:54.39	194.75	10.89	-47.6	-49.0	14.9	0.00e+00	0	25	0	461373440	61	4212
2026-01-07 13:01:55.40	194.82	10.98	-47.7	-49.1	14.9	0.00e+00	0	25	0	467664896	61	4243
2026-01-07 13:01:56.41	194.90	11.06	-47.6	-48.9	14.9	0.00e+00	0	25	0	472907776	61	4185
2026-01-07 13:01:57.42	194.98	11.14	-47.6	-49.0	14.9	0.00e+00	0	25	0	479199232	61	4218
2026-01-07 13:01:58.43	195.06	11.23	-47.6	-48.9	14.9	0.00e+00	0	25	0	484442112	61	4193
2026-01-07 13:01:59.44	195.14	11.31	-47.6	-48.9	14.9	0.00e+00	0	25	0	489684992	61	4182
2026-01-07 13:02:00.45	195.23	11.39	-47.6	-49.0	14.9	0.00e+00	0	25	0	495976448	61	4203
2026-01-07 13:02:01.46	195.31	11.48	-47.5	-48.9	15.0	0.00e+00	0	25	0	501219328	61	4154
2026-01-07 13:02:02.47	195.39	11.56	-47.6	-48.9	14.9	0.00e+00	0	25	0	506462208	61	4181
2026-01-07 13:02:03.47	195.47	11.65	-47.5	-48.9	15.0	0.00e+00	0	25	0	512753664	61	4146
2026-01-07 13:02:04.48	195.55	11.73	-47.5	-48.8	15.0	0.00e+00	0	25	0	517996544	61	4141
2026-01-07 13:02:05.49	195.64	11.82	-47.6	-49.0	14.9	0.00e+00	0	25	0	524288000	61	4203
2026-01-07 13:02:06.50	195.72	11.90	-47.5	-48.8	15.0	0.00e+00	0	25	0	529530880	61	4143
2026-01-07 13:02:07.50	195.81	11.99	-47.4	-48.7	15.0	0.00e+00	0	25	0	535822336	61	4086
2026-01-07 13:02:08.51	195.89	12.08	-47.4	-48.7	15.0	0.00e+00	0	25	0	541065216	61	4091
2026-01-07 13:02:09.52	195.98	12.16	-47.5	-48.9	15.0	0.00e+00	0	25	0	547356672	61	4159
2026-01-07 13:02:10.53	196.06	12.25	-47.4	-48.8	15.0	0.00e+00	0	25	0	552599552	61	4111
2026-01-07 13:02:11.54	196.15	12.34	-47.4	-48.7	15.0	0.00e+00	0	25	0	557842432	61	4096
2026-01-07 13:02:12.55	196.23	12.42	-47.4	-48.8	15.0	0.00e+00	0	25	0	564133888	61	4104
2026-01-07 13:02:13.56	196.32	12.51	-47.4	-48.7	15.0	0.00e+00	0	25	0	569376768	61	4094
2026-01-07 13:02:14.57	196.41	12.60	-47.2	-48.5	15.1	0.00e+00	0	25	0	574619648	61	3985
2026-01-07 13:02:15.57	196.50	12.68	-47.1	-48.4	15.0	0.00e+00	0	25	0	580911104	60	4193
2026-01-07 13:02:16.58	196.58	12.77	-47.2	-48.5	15.0	0.00e+00	0	25	0	586153984	60	4210
2026-01-07 13:02:17.59	196.67	12.86	-47.3	-48.6	15.0	0.00e+00	0	25	0	592445440	60	4254
2026-01-07 13:02:18.60	196.76	12.95	-47.2	-48.5	15.0	0.00e+00	0	25	0	597688320	60	4203
2026-01-07 13:02:19.61	196.85	13.04	-47.1	-48.4	15.1	0.00e+00	0	25	0	602931200	60	4147
2026-01-07 13:02:20.61	196.94	13.13	-47.1	-48.4	15.0	0.00e+00	0	25	0	609222656	60	4154
2026-01-07 13:02:21.62	197.04	13.22	-47.0	-48.3	15.1	0.00e+00	0	25	0	614465536	60	4102
2026-01-07 13:02:22.63	197.13	13.31	-47.0	-48.3	15.1	0.00e+00	0	25	0	620756992	60	4133
2026-01-07 13:02:23.64	197.22	13.40	-47.1	-48.4	15.1	0.00e+00	0	25	0	625999872	60	4148
2026-01-07 13:02:24.65	197.31	13.49	-47.0	-48.3	15.1	0.00e+00	0	25	0	632291328	60	4113
2026-01-07 13:02:25.66	197.41	13.58	-46.9	-48.2	15.1	0.00e+00	0	25	0	637534208	60	4074
2026-01-07 13:02:26.67	197.50	13.67	-46.9	-48.2	15.1	0.00e+00	0	25	0	642777088	60	4074
2026-01-07 13:02:27.67	197.59	13.76	-46.9	-48.2	15.1	0.00e+00	0	25	0	649068544	60	4058
2026-01-07 13:02:28.68	197.69	13.85	-46.9	-48.2	15.1	0.00e+00	0	25	0	654311424	60	4090
2026-01-07 13:02:29.69	197.78	13.94	-46.9	-48.1	15.2	0.00e+00	0	25	0	660602880	60	4048
2026-01-07 13:02:30.70	197.88	14.03	-47.0	-48.3	15.1	0.00e+00	0	25	0	665845760	60	4110
2026-01-07 13:02:31.71	197.98	14.13	-46.9	-48.2	15.1	0.00e+00	0	25	0	671088640	60	4061
2026-01-07 13:02:32.72	198.07	14.22	-46.9	-48.2	15.1	0.00e+00	0	25	0	677380096	60	4059
2026-01-07 13:02:33.73	198.17	14.31	-46.7	-48.0	15.2	0.00e+00	0	25	0	682622976	60	3997
2026-01-07 13:02:34.74	198.27	14.40	-46.8	-48.1	15.2	0.00e+00	0	25	0	688914432	60	4012
2026-01-07 13:02:35.74	198.37	14.50	-46.7	-48.0	15.2	0.00e+00	0	25	0	694157312	60	3976
2026-01-07 13:02:36.75	198.47	14.59	-46.7	-48.0	15.2	0.00e+00	0	25	0	699400192	60	3972
2026-01-07 13:02:37.75	198.57	14.68	-46.8	-48.1	15.2	0.00e+00	0	25	0	705691648	60	4012
2026-01-07 13:02:38.76	198.67	14.78	-47.0	-48.3	15.0	0.00e+00	0	25	0	710934528	59	4356
2026-01-07 13:02:39.77	198.77	14.87	-47.0	-48.3	15.0	0.00e+00	0	25	0	717225984	59	4388
2026-01-07 13:02:40.78	198.87	14.97	-46.9	-48.2	15.0	0.00e+00	0	25	0	722468864	59	4333
2026-01-07 13:02:41.79	198.98	15.06	-46.8	-48.1	15.1	0.00e+00	0	25	0	728760320	59	4264
2026-01-07 13:02:42.80	199.08	15.16	-46.9	-48.2	15.0	0.00e+00	0	25	0	734003200	59	4321
2026-01-07 13:02:43.81	199.18	15.25	-46.9	-48.2	15.0	0.00e+00	0	25	0	739246080	59	4325
2026-01-07 13:02:44.82	199.29	15.35	-47.0	-48.3	15.0	0.00e+00	0	25	0	745537536	59	4376
2026-01-07 13:02:45.82	199.39	15.44	-47.0	-48.4	15.0	0.00e+00	0	25	0	750780416	59	4408
2026-01-07 13:02:46.83	199.50	15.54	-46.9	-48.2	15.0	0.00e+00	0	25	0	757071872	59	4331
2026-01-07 13:02:47.84	199.61	15.64	-46.9	-48.2	15.0	0.00e+00	0	25	0	762314752	59	4336
2026-01-07 13:02:48.84	199.71	15.73	-46.9	-48.3	15.0	0.00e+00	0	25	0	767557632	59	4354
2026-01-07 13:02:49.85	199.82	15.83	-47.0	-48.4	15.0	0.00e+00	0	25	0	773849088	59	4407
2026-01-07 13:02:50.85	199.93	15.93	-46.7	-48.0	15.1	0.00e+00	0	25	0	779091968	59	4241
2026-01-07 13:02:51.86	200.04	16.02	-46.7	-48.0	15.1	0.00e+00	0	25	0	784334848	59	4213
2026-01-07 13:02:52.87	200.15	16.12	-46.7	-48.0	15.1	0.00e+00	0	25	0	790626304	59	4241
2026-01-07 13:02:53.88	200.26	16.22	-46.6	-47.9	15.1	0.00e+00	0	25	0	795869184	59	4185
2026-01-07 13:02:54.88	200.37	16.32	-46.6	-47.9	15.1	0.00e+00	0	25	0	802160640	59	4173
2026-01-07 13:02:55.89	200.48	16.42	-46.7	-47.9	15.2	0.00e+00	0	25	0	807403520	59	4176
2026-01-07 13:02:56.90	200.59	16.52	-46.6	-47.7	15.2	0.00e+00	0	25	0	813694976	59	4082
2026-01-07 13:02:57.91	200.71	16.62	-48.7	-50.1	14.7	0.00e+00	0	25	0	818937856	61	4793
2026-01-07 13:02:58.91	200.82	16.72	-56.0	-59.8	9.5	3.26e-03	0	25	0	824180736	77	5830
2026-01-07 13:02:59.92	200.93	16.82	-55.9	-59.6	9.9	1.26e-03	0	25	0	830472192	77	5693
2026-01-07 13:03:00.93	201.05	16.92	-55.5	-58.8	10.6	1.30e-03	0	25	0	835715072	77	5201
2026-01-07 13:03:01.94	201.17	17.02	-55.5	-58.8	10.6	9.31e-04	0	25	0	842006528	77	5196
2026-01-07 13:03:02.95	201.28	17.12	-55.6	-59.0	10.4	8.75e-04	0	25	0	847249408	77	5287
2026-01-07 13:03:03.96	201.40	17.22	-54.7	-57.4	11.7	3.43e-05	0	25	0	852492288	76	4664
2026-01-07 13:03:04.97	201.52	17.32	-53.0	-55.1	13.0	0.00e+00	0	25	0	858783744	72	4511
2026-01-07 13:03:05.98	201.64	17.43	-51.5	-53.2	13.9	0.00e+00	0	25	0	864026624	69	4322
2026-01-07 13:03:06.99	201.76	17.53	-50.2	-51.7	14.5	0.00e+00	0	25	0	870318080	67	4059
2026-01-07 13:03:08.00	201.88	17.63	-49.3	-50.6	14.8	0.00e+00	0	25	0	875560960	65	4037
2026-01-07 13:03:09.00	202.00	17.73	-48.5	-49.8	14.9	0.00e+00	0	25	0	880803840	63	4109
2026-01-07 13:03:10.01	202.12	17.84	-48.3	-49.5	14.9	0.00e+00	0	25	0	887095296	62	4235
2026-01-07 13:03:11.02	202.25	17.94	-47.5	-48.6	15.1	0.00e+00	0	25	0	892338176	61	4047
2026-01-07 13:03:12.03	202.37	18.05	-46.8	-47.9	15.3	0.00e+00	0	25	0	898629632	60	3938
2026-01-07 13:03:13.04	202.50	18.15	-46.9	-48.0	15.1	0.00e+00	0	25	0	903872512	59	4229
2026-01-07 13:03:14.05	202.62	18.25	-46.9	-48.0	15.1	0.00e+00	0	25	0	910163968	59	4242
2026-01-07 13:03:15.06	202.75	18.36	-46.6	-47.8	15.2	0.00e+00	0	25	0	915406848	59	4111
2026-01-07 13:03:16.06	202.88	18.46	-46.4	-47.5	15.3	0.00e+00	0	25	0	920649728	59	3999
2026-01-07 13:03:17.07	203.01	18.57	-46.4	-47.5	15.4	0.00e+00	0	25	0	926941184	59	3983
2026-01-07 13:03:18.08	203.13	18.68	-46.4	-47.5	15.3	0.00e+00	0	25	0	932184064	59	3978
2026-01-07 13:03:19.08	203.26	18.78	-46.4	-47.5	15.3	0.00e+00	0	25	0	938475520	59	3998
2026-01-07 13:03:20.09	203.40	18.89	-46.3	-47.4	15.4	0.00e+00	0	25	0	943718400	59	3940
2026-01-07 13:03:21.10	203.53	18.99	-46.3	-47.4	15.4	0.00e+00	0	25	0	948961280	59	3946
2026-01-07 13:03:22.11	203.66	19.10	-46.2	-47.3	15.4	0.00e+00	0	25	0	955252736	59	3903
2026-01-07 13:03:23.11	203.79	19.21	-46.0	-47.1	15.3	0.00e+00	0	25	0	960495616	58	4048
2026-01-07 13:03:24.12	203.93	19.32	-46.0	-47.1	15.3	0.00e+00	0	25	0	966787072	58	4050
2026-01-07 13:03:25.13	204.06	19.42	-46.0	-47.1	15.3	0.00e+00	0	25	0	972029952	58	4032
2026-01-07 13:03:26.14	204.20	19.53	-45.9	-47.0	15.4	0.00e+00	0	25	0	977272832	58	3993
2026-01-07 13:03:27.15	204.34	19.64	-45.7	-46.8	15.5	0.00e+00	0	25	0	983564288	58	3902
2026-01-07 13:03:28.15	204.47	19.75	-45.6	-46.7	15.3	0.00e+00	0	25	0	988807168	57	4058
2026-01-07 13:03:29.16	204.61	19.86	-45.6	-46.7	15.3	0.00e+00	0	25	0	995098624	57	4080
2026-01-07 13:03:30.17	204.75	19.97	-45.5	-46.6	15.4	0.00e+00	0	25	0	1000341504	57	4027
2026-01-07 13:03:31.18	204.90	20.08	-45.4	-46.5	15.4	0.00e+00	0	25	0	1006632960	57	3982
2026-01-07 13:03:32.19	205.04	20.19	-45.5	-46.6	15.4	0.00e+00	0	25	0	1011875840	57	4010
2026-01-07 13:03:33.20	205.18	20.30	-45.4	-46.4	15.4	0.00e+00	0	25	0	1017118720	57	3957
2026-01-07 13:03:34.20	205.32	20.41	-45.4	-46.5	15.4	0.00e+00	0	25	0	1023410176	57	3961
2026-01-07 13:03:35.21	205.47	20.52	-45.5	-46.6	15.4	0.00e+00	0	25	0	1028653056	57	4009
2026-01-07 13:03:36.22	205.62	20.63	-45.6	-46.7	15.4	0.00e+00	0	25	0	1034944512	57	4066
2026-01-07 13:03:37.23	205.76	20.75	-45.7	-46.8	15.3	0.00e+00	0	25	0	1040187392	57	4107
2026-01-07 13:03:38.23	205.91	20.86	-45.8	-46.9	15.3	0.00e+00	0	25	0	1045430272	57	4158
2026-01-07 13:03:39.24	206.06	20.97	-45.8	-46.9	15.3	0.00e+00	0	25	0	1051721728	57	4176
2026-01-07 13:03:40.25	206.21	21.08	-45.8	-46.9	15.3	0.00e+00	0	25	0	1056964608	57	4187
2026-01-07 13:03:41.26	206.36	21.20	-45.8	-47.0	15.3	0.00e+00	0	25	0	1063256064	57	4194
2026-01-07 13:03:42.27	206.52	21.31	-45.8	-46.9	15.3	0.00e+00	0	25	0	1068498944	57	4186
2026-01-07 13:03:43.28	206.67	21.42	-45.8	-46.9	15.3	0.00e+00	0	25	0	1074790400	57	4182
2026-01-07 13:03:44.29	206.82	21.54	-45.8	-46.9	15.3	0.00e+00	0	25	0	1080033280	57	4151
2026-01-07 13:03:45.30	206.98	21.65	-45.8	-47.0	15.3	0.00e+00	0	25	0	1085276160	57	4194
2026-01-07 13:03:46.31	207.14	21.77	-45.7	-46.8	15.3	0.00e+00	0	25	0	1091567616	57	4110
2026-01-07 13:03:47.31	207.29	21.88	-45.6	-46.7	15.4	0.00e+00	0	25	0	1096810496	57	4061
2026-01-07 13:03:48.32	207.45	22.00	-45.5	-46.6	15.4	0.00e+00	0	25	0	1103101952	57	4030
2026-01-07 13:03:49.33	207.61	22.11	-45.6	-46.6	15.4	0.00e+00	0	25	0	1108344832	57	4043
2026-01-07 13:03:50.34	207.78	22.23	-45.5	-46.6	15.4	0.00e+00	0	25	0	1113587712	57	4018
2026-01-07 13:03:51.35	207.94	22.34	-45.4	-46.5	15.4	0.00e+00	0	25	0	1119879168	57	3977
2026-01-07 13:03:52.35	208.10	22.46	-45.3	-46.4	15.4	0.00e+00	0	25	0	1125122048	57	3936
2026-01-07 13:03:53.36	208.27	22.58	-45.3	-46.4	15.4	0.00e+00	0	25	0	1130364928	57	3940
2026-01-07 13:03:54.37	208.43	22.69	-45.3	-46.4	15.5	0.00e+00	0	25	0	1136656384	57	3922
2026-01-07 13:03:55.38	208.60	22.81	-45.3	-46.3	15.5	0.00e+00	0	25	0	1141899264	57	3899
2026-01-07 13:03:56.39	208.77	22.93	-45.2	-46.3	15.5	0.00e+00	0	25	0	1148190720	57	3897
2026-01-07 13:03:57.39	208.94	23.05	-45.1	-46.2	15.4	0.00e+00	0	25	0	1153433600	56	4053
2026-01-07 13:03:58.40	209.11	23.16	-45.2	-46.2	15.4	0.00e+00	0	25	0	1159725056	56	4096
2026-01-07 13:03:59.40	209.28	23.28	-45.1	-46.1	15.4	0.00e+00	0	25	0	1164967936	56	4046
2026-01-07 13:04:00.41	209.45	23.40	-45.1	-46.1	15.4	0.00e+00	0	25	0	1170210816	56	4047
2026-01-07 13:04:01.42	209.63	23.52	-45.1	-46.1	15.4	0.00e+00	0	25	0	1176502272	56	4038
2026-01-07 13:04:02.43	209.81	23.64	-45.0	-46.1	15.4	0.00e+00	0	25	0	1181745152	56	4010
2026-01-07 13:04:03.44	209.98	23.76	-45.2	-46.3	15.4	0.00e+00	0	25	0	1188036608	56	4102
2026-01-07 13:04:04.45	210.16	23.88	-45.3	-46.3	15.3	0.00e+00	0	25	0	1193279488	56	4134
2026-01-07 13:04:05.46	210.34	24.00	-45.3	-46.4	15.3	0.00e+00	0	25	0	1198522368	56	4164
2026-01-07 13:04:06.46	210.52	24.12	-45.3	-46.4	15.3	0.00e+00	0	25	0	1204813824	56	4166
2026-01-07 13:04:07.47	210.71	24.24	-45.3	-46.4	15.3	0.00e+00	0	25	0	1210056704	56	4157
2026-01-07 13:04:08.48	210.89	24.36	-45.1	-46.2	15.4	0.00e+00	0	25	0	1216348160	56	4054
2026-01-07 13:04:09.48	211.08	24.48	-45.1	-46.1	15.4	0.00e+00	0	25	0	1221591040	56	4037
2026-01-07 13:04:10.49	211.26	24.60	-45.1	-46.1	15.4	0.00e+00	0	25	0	1226833920	56	4045
2026-01-07 13:04:11.51	211.45	24.73	-45.2	-46.3	15.4	0.00e+00	0	25	0	1233125376	56	4105
2026-01-07 13:04:12.51	211.64	24.85	-45.2	-46.3	15.4	0.00e+00	0	25	0	1238368256	56	4100
2026-01-07 13:04:13.53	211.84	24.97	-45.2	-46.3	15.4	0.00e+00	0	25	0	1244659712	56	4112
2026-01-07 13:04:14.54	212.03	25.09	-45.2	-46.2	15.4	0.00e+00	0	25	0	1249902592	56	4087
2026-01-07 13:04:15.55	212.22	25.22	-45.1	-46.2	15.4	0.00e+00	0	25	0	1256194048	56	4064
2026-01-07 13:04:16.55	212.42	25.34	-45.1	-46.2	15.4	0.00e+00	0	25	0	1261436928	56	4063
2026-01-07 13:04:17.56	212.62	25.46	-45.1	-46.2	15.4	0.00e+00	0	25	0	1266679808	56	4053
2026-01-07 13:04:18.56	212.81	25.58	-45.0	-46.1	15.4	0.00e+00	0	25	0	1272971264	56	4015
2026-01-07 13:04:19.57	213.01	25.71	-45.1	-46.2	15.4	0.00e+00	0	25	0	1278214144	56	4072
2026-01-07 13:04:20.58	213.22	25.83	-45.0	-46.1	15.4	0.00e+00	0	25	0	1284505600	56	4030
2026-01-07 13:04:21.59	213.42	25.95	-45.1	-46.2	15.4	0.00e+00	0	25	0	1289748480	56	4054
2026-01-07 13:04:22.60	213.62	26.08	-45.2	-46.2	15.4	0.00e+00	0	25	0	1294991360	56	4093
2026-01-07 13:04:23.60	213.83	26.20	-45.0	-46.1	15.4	0.00e+00	0	25	0	1301282816	56	4005
2026-01-07 13:04:24.61	214.04	26.33	-44.8	-45.8	15.5	0.00e+00	0	25	0	1306525696	56	3900
2026-01-07 13:04:25.62	214.25	26.45	-44.7	-45.8	15.5	0.00e+00	0	25	0	1312817152	56	3871
2026-01-07 13:04:26.62	214.46	26.58	-44.7	-45.7	15.5	0.00e+00	0	25	0	1318060032	56	3858
2026-01-07 13:04:27.63	214.67	26.70	-44.5	-45.5	15.4	0.00e+00	0	25	0	1323302912	55	3986
2026-01-07 13:04:28.64	214.89	26.83	-44.5	-45.5	15.4	0.00e+00	0	25	0	1329594368	55	3999
2026-01-07 13:04:29.65	215.10	26.95	-44.5	-45.5	15.4	0.00e+00	0	25	0	1334837248	55	3996
2026-01-07 13:04:30.66	215.32	27.08	-44.6	-45.6	15.4	0.00e+00	0	25	0	1341128704	55	4036
2026-01-07 13:04:31.67	215.54	27.20	-44.6	-45.6	15.4	0.00e+00	0	25	0	1346371584	55	4029
2026-01-07 13:04:32.68	215.76	27.33	-44.6	-45.6	15.4	0.00e+00	0	25	0	1352663040	55	4040
2026-01-07 13:04:33.68	215.98	27.45	-44.6	-45.6	15.4	0.00e+00	0	25	0	1357905920	55	4040
2026-01-07 13:04:34.69	216.21	27.58	-44.6	-45.6	15.4	0.00e+00	0	25	0	1363148800	55	4023
2026-01-07 13:04:35.70	216.43	27.71	-44.6	-45.6	15.4	0.00e+00	0	25	0	1369440256	55	4047
2026-01-07 13:04:36.70	216.66	27.83	-44.4	-45.5	15.5	0.00e+00	0	25	0	1374683136	55	3963
2026-01-07 13:04:37.71	216.89	27.96	-44.5	-45.5	15.4	0.00e+00	0	25	0	1379926016	55	3989
2026-01-07 13:04:38.72	217.12	28.09	-44.5	-45.5	15.4	0.00e+00	0	25	0	1386217472	55	3984
2026-01-07 13:04:39.73	217.36	28.21	-44.5	-45.5	15.5	0.00e+00	0	25	0	1391460352	55	3973
2026-01-07 13:04:40.73	217.59	28.34	-44.4	-45.4	15.5	0.00e+00	0	25	0	1397751808	55	3933
2026-01-07 13:04:41.74	217.83	28.46	-44.4	-45.4	15.5	0.00e+00	0	25	0	1402994688	55	3956
2026-01-07 13:04:42.75	218.07	28.59	-44.4	-45.4	15.5	0.00e+00	0	25	0	1408237568	55	3934
2026-01-07 13:04:43.76	218.31	28.72	-44.4	-45.4	15.5	0.00e+00	0	25	0	1414529024	55	3948
2026-01-07 13:04:44.76	218.55	28.84	-44.3	-45.4	15.5	0.00e+00	0	25	0	1419771904	55	3926
2026-01-07 13:04:45.77	218.79	28.97	-44.4	-45.4	15.5	0.00e+00	0	25	0	1426063360	55	3932
2026-01-07 13:04:46.78	219.04	29.10	-44.4	-45.4	15.5	0.00e+00	0	25	0	1431306240	55	3953
2026-01-07 13:04:47.79	219.29	29.23	-44.4	-45.5	15.5	0.00e+00	0	25	0	1437597696	55	3959
2026-01-07 13:04:48.79	219.54	29.35	-44.3	-45.4	15.5	0.00e+00	0	25	0	1442840576	55	3923
2026-01-07 13:04:49.80	219.79	29.48	-44.3	-45.4	15.5	0.00e+00	0	25	0	1448083456	55	3921
2026-01-07 13:04:50.80	220.04	29.60	-44.4	-45.4	15.5	0.00e+00	0	25	0	1454374912	55	3937
2026-01-07 13:04:51.81	220.30	29.73	-44.4	-45.4	15.5	0.00e+00	0	25	0	1459617792	55	3951
2026-01-07 13:04:52.82	220.56	29.86	-44.3	-45.4	15.5	0.00e+00	0	25	0	1465909248	55	3918
2026-01-07 13:04:53.83	220.82	29.98	-44.3	-45.3	15.5	0.00e+00	0	25	0	1471152128	55	3892
2026-01-07 13:04:54.83	221.08	30.11	-44.3	-45.3	15.5	0.00e+00	0	25	0	1476395008	55	3907
2026-01-07 13:04:55.84	221.34	30.24	-44.3	-45.3	15.5	0.00e+00	0	25	0	1482686464	55	3909
2026-01-07 13:04:56.84	221.61	30.36	-44.3	-45.3	15.5	0.00e+00	0	25	0	1487929344	55	3880
2026-01-07 13:04:57.85	221.87	30.49	-44.3	-45.3	15.5	0.00e+00	0	25	0	1493172224	55	3891
2026-01-07 13:04:58.87	222.15	30.62	-44.3	-45.3	15.5	0.00e+00	0	25	0	1499463680	55	3899
2026-01-07 13:04:59.87	222.42	30.74	-44.3	-45.4	15.5	0.00e+00	0	25	0	1504706560	55	3917
2026-01-07 13:05:00.88	222.69	30.87	-44.5	-45.5	15.5	0.00e+00	0	25	0	1510998016	55	3993
2026-01-07 13:05:01.89	222.97	30.99	-44.4	-45.4	15.5	0.00e+00	0	25	0	1516240896	55	3958
2026-01-07 13:05:02.90	223.25	31.12	-44.3	-45.4	15.5	0.00e+00	0	25	0	1522532352	55	3924
2026-01-07 13:05:03.91	223.53	31.24	-44.4	-45.4	15.5	0.00e+00	0	25	0	1527775232	55	3949
2026-01-07 13:05:04.91	223.81	31.37	-44.3	-45.4	15.5	0.00e+00	0	25	0	1533018112	55	3916
2026-01-07 13:05:05.92	224.10	31.49	-44.1	-45.1	15.4	0.00e+00	0	25	0	1539309568	54	4022
2026-01-07 13:05:06.93	224.38	31.62	-44.2	-45.2	15.4	0.00e+00	0	25	0	1544552448	54	4068
2026-01-07 13:05:07.93	224.67	31.74	-44.1	-45.2	15.4	0.00e+00	0	25	0	1550843904	54	4055
2026-01-07 13:05:08.94	224.96	31.87	-44.3	-45.3	15.4	0.00e+00	0	25	0	1556086784	54	4113
2026-01-07 13:05:09.95	225.26	31.99	-44.3	-45.3	15.4	0.00e+00	0	25	0	1561329664	54	4128
2026-01-07 13:05:10.96	225.55	32.11	-44.3	-45.4	15.4	0.00e+00	0	25	0	1567621120	54	4151
2026-01-07 13:05:11.97	225.85	32.24	-44.3	-45.3	15.4	0.00e+00	0	25	0	1572864000	54	4134
2026-01-07 13:05:12.98	226.15	32.36	-44.1	-45.1	15.4	0.00e+00	0	25	0	1579155456	54	4019
2026-01-07 13:05:13.98	226.45	32.48	-44.1	-45.2	15.4	0.00e+00	0	25	0	1584398336	54	4054
2026-01-07 13:05:14.99	226.76	32.60	-44.0	-45.0	15.5	0.00e+00	0	25	0	1589641216	54	3976
2026-01-07 13:05:16.00	227.06	32.73	-44.1	-45.1	15.5	0.00e+00	0	25	0	1595932672	54	4026
2026-01-07 13:05:17.01	227.37	32.85	-44.2	-45.3	15.4	0.00e+00	0	25	0	1601175552	54	4113
2026-01-07 13:05:18.02	227.69	32.97	-44.3	-45.3	15.4	0.00e+00	0	25	0	1607467008	54	4135
2026-01-07 13:05:19.02	228.00	33.09	-44.4	-45.4	15.4	0.00e+00	0	25	0	1612709888	54	4193
2026-01-07 13:05:20.03	228.31	33.21	-44.5	-45.6	15.3	0.00e+00	0	25	0	1619001344	54	4258
2026-01-07 13:05:21.04	228.63	33.33	-44.6	-45.7	15.3	0.00e+00	0	25	0	1624244224	54	4306
2026-01-07 13:05:22.05	228.95	33.45	-44.5	-45.6	15.3	0.00e+00	0	25	0	1629487104	54	4249
2026-01-07 13:05:23.05	229.27	33.56	-44.5	-45.5	15.4	0.00e+00	0	25	0	1635778560	54	4239
2026-01-07 13:05:24.06	229.60	33.68	-44.4	-45.5	15.4	0.00e+00	0	25	0	1641021440	54	4210
2026-01-07 13:05:25.07	229.93	33.80	-44.3	-45.4	15.4	0.00e+00	0	25	0	1647312896	54	4167
2026-01-07 13:05:26.08	230.26	33.92	-44.3	-45.3	15.4	0.00e+00	0	25	0	1652555776	54	4141
2026-01-07 13:05:27.08	230.59	34.03	-44.2	-45.3	15.4	0.00e+00	0	25	0	1657798656	54	4101
2026-01-07 13:05:28.09	230.92	34.15	-44.2	-45.2	15.4	0.00e+00	0	25	0	1664090112	54	4089
2026-01-07 13:05:29.10	231.26	34.26	-44.3	-45.4	15.4	0.00e+00	0	25	0	1669332992	54	4160
2026-01-07 13:05:30.11	231.60	34.38	-44.5	-45.5	15.3	0.00e+00	0	25	0	1674575872	54	4219
2026-01-07 13:05:31.12	231.94	34.49	-44.3	-45.3	15.4	0.00e+00	0	25	0	1680867328	54	4119
2026-01-07 13:05:32.12	232.28	34.60	-44.2	-45.2	15.4	0.00e+00	0	25	0	1686110208	54	4086
2026-01-07 13:05:33.14	232.63	34.72	-44.1	-45.1	15.4	0.00e+00	0	25	0	1692401664	54	4024
2026-01-07 13:05:34.15	232.98	34.83	-44.1	-45.1	15.5	0.00e+00	0	25	0	1697644544	54	4021
2026-01-07 13:05:35.15	233.33	34.94	-44.2	-45.2	15.4	0.00e+00	0	25	0	1703936000	54	4074
2026-01-07 13:05:36.16	233.68	35.05	-44.2	-45.2	15.4	0.00e+00	0	25	0	1709178880	54	4067
2026-01-07 13:05:37.17	234.04	35.16	-44.2	-45.2	15.4	0.00e+00	0	25	0	1714421760	54	4084
2026-01-07 13:05:38.17	234.40	35.27	-44.2	-45.3	15.4	0.00e+00	0	25	0	1720713216	54	4120
2026-01-07 13:05:39.18	234.76	35.37	-44.3	-45.3	15.4	0.00e+00	0	25	0	1725956096	54	4118
2026-01-07 13:05:40.20	235.12	35.48	-44.1	-45.2	15.4	0.00e+00	0	25	0	1732247552	54	4060
2026-01-07 13:05:41.20	235.49	35.58	-44.1	-45.1	15.5	0.00e+00	0	25	0	1737490432	54	4018
2026-01-07 13:05:42.21	235.85	35.69	-44.1	-45.1	15.5	0.00e+00	0	25	0	1742733312	54	4028
2026-01-07 13:05:43.22	236.22	35.79	-44.1	-45.2	15.4	0.00e+00	0	25	0	1749024768	54	4061
2026-01-07 13:05:44.22	236.59	35.90	-44.1	-45.1	15.4	0.00e+00	0	25	0	1754267648	54	4049
2026-01-07 13:05:45.23	236.97	36.00	-44.1	-45.2	15.4	0.00e+00	0	25	0	1760559104	54	4058
2026-01-07 13:05:46.24	237.34	36.10	-44.2	-45.2	15.4	0.00e+00	0	25	0	1765801984	54	4080
2026-01-07 13:05:47.25	237.72	36.20	-44.0	-45.1	15.5	0.00e+00	0	25	0	1771044864	54	4013
2026-01-07 13:05:48.26	238.11	36.30	-44.0	-45.0	15.5	0.00e+00	0	25	0	1777336320	54	3987
2026-01-07 13:05:49.27	238.49	36.39	-43.8	-44.8	15.5	0.00e+00	0	25	0	1782579200	54	3905
2026-01-07 13:05:50.28	238.88	36.49	-44.0	-45.0	15.5	0.00e+00	0	25	0	1788870656	54	3976
2026-01-07 13:05:51.29	239.26	36.59	-44.0	-45.0	15.5	0.00e+00	0	25	0	1794113536	54	4000
2026-01-07 13:05:52.29	239.65	36.68	-44.0	-45.1	15.5	0.00e+00	0	25	0	1800404992	54	4006
2026-01-07 13:05:53.30	240.04	36.77	-44.1	-45.1	15.5	0.00e+00	0	25	0	1805647872	54	4035
2026-01-07 13:05:54.32	240.44	36.86	-44.1	-45.1	15.5	0.00e+00	0	25	0	1810890752	54	4046
2026-01-07 13:05:55.32	240.83	36.95	-44.0	-45.1	15.5	0.00e+00	0	25	0	1817182208	54	4015
2026-01-07 13:05:56.33	241.23	37.04	-44.1	-45.1	15.5	0.00e+00	0	25	0	1822425088	54	4029
2026-01-07 13:05:57.34	241.64	37.13	-44.0	-45.0	15.5	0.00e+00	0	25	0	1828716544	54	3985
2026-01-07 13:05:58.35	242.04	37.22	-44.0	-45.0	15.5	0.00e+00	0	25	0	1833959424	54	3978
2026-01-07 13:05:59.36	242.44	37.30	-43.8	-44.9	15.5	0.00e+00	0	25	0	1839202304	54	3915
2026-01-07 13:06:00.37	242.85	37.39	-43.9	-45.0	15.5	0.00e+00	0	25	0	1845493760	54	3962
2026-01-07 13:06:01.38	243.26	37.47	-44.0	-45.0	15.5	0.00e+00	0	25	0	1850736640	54	3974
2026-01-07 13:06:02.39	243.67	37.55	-43.8	-44.8	15.6	0.00e+00	0	25	0	1857028096	54	3887
2026-01-07 13:06:03.40	244.09	37.63	-43.8	-44.8	15.5	0.00e+00	0	25	0	1862270976	54	3913
2026-01-07 13:06:04.40	244.50	37.71	-44.0	-45.0	15.5	0.00e+00	0	25	0	1867513856	54	3968
2026-01-07 13:06:05.41	244.92	37.78	-44.0	-45.1	15.5	0.00e+00	0	25	0	1873805312	54	4008
2026-01-07 13:06:06.42	245.34	37.86	-44.2	-45.3	15.4	0.00e+00	0	25	0	1879048192	54	4101
2026-01-07 13:06:07.43	245.76	37.93	-44.0	-45.0	15.5	0.00e+00	0	25	0	1885339648	54	3969
2026-01-07 13:06:08.43	246.18	38.00	-43.9	-44.9	15.5	0.00e+00	0	25	0	1890582528	54	3930
2026-01-07 13:06:09.44	246.60	38.07	-44.0	-45.0	15.5	0.00e+00	0	25	0	1896873984	54	3961
2026-01-07 13:06:10.45	247.03	38.14	-43.8	-44.8	15.5	0.00e+00	0	25	0	1902116864	54	3878
2026-01-07 13:06:11.46	247.46	38.21	-43.9	-44.9	15.5	0.00e+00	0	25	0	1907359744	54	3934
2026-01-07 13:06:12.47	247.89	38.27	-43.9	-44.9	15.5	0.00e+00	0	25	0	1913651200	54	3943
2026-01-07 13:06:13.47	248.32	38.34	-43.9	-44.9	15.5	0.00e+00	0	25	0	1918894080	54	3930
2026-01-07 13:06:14.48	248.75	38.40	-43.9	-44.9	15.5	0.00e+00	0	25	0	1925185536	54	3953
2026-01-07 13:06:15.49	249.18	38.46	-43.9	-44.9	15.5	0.00e+00	0	25	0	1930428416	54	3943
2026-01-07 13:06:16.50	249.62	38.52	-44.0	-45.0	15.5	0.00e+00	0	25	0	1935671296	54	3996
2026-01-07 13:06:17.50	250.06	38.57	-44.1	-45.1	15.5	0.00e+00	0	25	0	1941962752	54	4028
2026-01-07 13:06:18.51	250.50	38.63	-44.0	-45.0	15.5	0.00e+00	0	25	0	1947205632	54	4001
2026-01-07 13:06:19.52	250.94	38.68	-43.9	-44.9	15.5	0.00e+00	0	25	0	1952448512	54	3928
2026-01-07 13:06:20.53	251.38	38.74	-43.9	-45.0	15.5	0.00e+00	0	25	0	1958739968	54	3959
2026-01-07 13:06:21.53	251.82	38.78	-43.9	-45.0	15.5	0.00e+00	0	25	0	1963982848	54	3963
2026-01-07 13:06:22.54	252.26	38.83	-44.0	-45.0	15.5	0.00e+00	0	25	0	1970274304	54	3994
2026-01-07 13:06:23.54	252.71	38.88	-44.1	-45.2	15.5	0.00e+00	0	25	0	1975517184	54	4053
2026-01-07 13:06:24.55	253.15	38.92	-44.1	-45.1	15.4	0.00e+00	0	25	0	1981808640	54	4037
2026-01-07 13:06:25.56	253.60	38.97	-43.9	-44.9	15.5	0.00e+00	0	25	0	1987051520	54	3937
2026-01-07 13:06:26.57	254.05	39.01	-43.9	-44.9	15.5	0.00e+00	0	25	0	1993342976	54	3939
2026-01-07 13:06:27.58	254.50	39.04	-43.9	-44.9	15.5	0.00e+00	0	25	0	1998585856	54	3935
2026-01-07 13:06:28.59	254.96	39.08	-43.8	-44.8	15.5	0.00e+00	0	25	0	2003828736	54	3910
2026-01-07 13:06:29.59	255.41	39.12	-43.8	-44.8	15.6	0.00e+00	0	25	0	2010120192	54	3879
2026-01-07 13:06:30.60	255.86	39.15	-43.7	-44.7	15.6	0.00e+00	0	25	0	2015363072	54	3847
2026-01-07 13:06:31.61	256.31	39.18	-43.8	-44.8	15.5	0.00e+00	0	25	0	2020605952	54	3897
2026-01-07 13:06:32.61	256.77	39.21	-43.9	-44.9	15.5	0.00e+00	0	25	0	2026897408	54	3919
2026-01-07 13:06:33.62	257.22	39.24	-44.1	-45.2	15.4	0.00e+00	0	25	0	2032140288	54	4063
2026-01-07 13:06:34.63	257.68	39.26	-44.3	-45.4	15.4	0.00e+00	0	25	0	2038431744	54	4161
2026-01-07 13:06:35.64	258.14	39.28	-44.4	-45.4	15.4	0.00e+00	0	25	0	2043674624	54	4179
2026-01-07 13:06:36.64	258.59	39.30	-44.2	-45.2	15.4	0.00e+00	0	25	0	2048917504	54	4068
2026-01-07 13:06:37.65	259.05	39.32	-43.9	-45.0	15.5	0.00e+00	0	25	0	2055208960	54	3962
2026-01-07 13:06:38.65	259.51	39.34	-43.9	-44.9	15.5	0.00e+00	0	25	0	2060451840	54	3956
2026-01-07 13:06:39.66	259.97	39.36	-44.0	-45.0	15.5	0.00e+00	0	25	0	2066743296	54	3973
2026-01-07 13:06:40.66	260.42	39.37	-44.0	-45.1	15.5	0.00e+00	0	25	0	2071986176	54	4016
2026-01-07 13:06:41.67	260.88	39.38	-44.1	-45.1	15.5	0.00e+00	0	25	0	2078277632	54	4030
2026-01-07 13:06:42.68	261.34	39.39	-44.1	-45.2	15.4	0.00e+00	0	25	0	2083520512	54	4057
2026-01-07 13:06:43.69	261.81	39.40	-44.1	-45.1	15.4	0.00e+00	0	25	0	2088763392	54	4051
2026-01-07 13:06:44.70	262.27	39.40	-44.0	-45.1	15.5	0.00e+00	0	25	0	2095054848	54	4006
2026-01-07 13:06:45.70	262.72	39.40	-44.0	-45.0	15.5	0.00e+00	0	25	0	2100297728	54	3976
2026-01-07 13:06:46.71	263.18	39.40	-44.0	-45.0	15.5	0.00e+00	0	25	0	2105540608	54	4003
2026-01-07 13:06:47.72	263.65	39.40	-44.2	-45.2	15.4	0.00e+00	0	25	0	2111832064	54	4078
2026-01-07 13:06:48.73	264.11	39.40	-44.1	-45.1	15.4	0.00e+00	0	25	0	2117074944	54	4047
2026-01-07 13:06:49.73	264.56	39.39	-44.1	-45.1	15.5	0.00e+00	0	25	0	2123366400	54	4028
2026-01-07 13:06:50.73	265.02	39.39	-44.1	-45.1	15.5	0.00e+00	0	25	0	2128609280	54	4040
2026-01-07 13:06:51.74	265.48	39.38	-43.9	-44.9	15.5	0.00e+00	0	25	0	2133852160	54	3957
2026-01-07 13:06:52.75	265.94	39.37	-43.9	-45.0	15.5	0.00e+00	0	25	0	2140143616	54	3959
2026-01-07 13:06:53.76	266.40	39.35	-44.0	-45.0	15.5	0.00e+00	0	25	0	2145386496	54	3968
2026-01-07 13:06:54.76	266.86	39.34	-44.0	-45.1	15.5	0.00e+00	0	25	0	2151677952	54	4013
2026-01-07 13:06:55.77	267.32	39.32	-44.1	-45.2	15.4	0.00e+00	0	25	0	2156920832	54	4059
2026-01-07 13:06:56.78	267.78	39.30	-44.1	-45.2	15.4	0.00e+00	0	25	0	2163212288	54	4059
2026-01-07 13:06:57.79	268.23	39.28	-44.1	-45.1	15.4	0.00e+00	0	25	0	2168455168	54	4017
2026-01-07 13:06:58.80	268.69	39.26	-44.3	-45.3	15.4	0.00e+00	0	25	0	2173698048	54	4118
2026-01-07 13:06:59.80	269.14	39.23	-44.3	-45.3	15.4	0.00e+00	0	25	0	2179989504	54	4120
2026-01-07 13:07:00.81	269.60	39.20	-44.2	-45.3	15.4	0.00e+00	0	25	0	2185232384	54	4121
2026-01-07 13:07:01.82	270.06	39.17	-44.2	-45.3	15.4	0.00e+00	0	25	0	2191523840	54	4100
2026-01-07 13:07:02.83	270.51	39.14	-44.1	-45.1	15.4	0.00e+00	0	25	0	2196766720	54	4023
2026-01-07 13:07:03.84	270.96	39.11	-44.1	-45.1	15.4	0.00e+00	0	25	0	2202009600	54	4022
2026-01-07 13:07:04.85	271.42	39.08	-44.1	-45.2	15.4	0.00e+00	0	25	0	2208301056	54	4059
2026-01-07 13:07:05.86	271.87	39.04	-44.2	-45.3	15.4	0.00e+00	0	25	0	2213543936	54	4111
2026-01-07 13:07:06.86	272.32	39.00	-44.2	-45.3	15.4	0.00e+00	0	25	0	2218786816	54	4122
2026-01-07 13:07:07.87	272.76	38.96	-44.3	-45.3	15.4	0.00e+00	0	25	0	2225078272	54	4127
2026-01-07 13:07:08.87	273.21	38.92	-44.2	-45.2	15.4	0.00e+00	0	25	0	2230321152	54	4083
2026-01-07 13:07:09.88	273.66	38.87	-44.2	-45.2	15.4	0.00e+00	0	25	0	2236612608	54	4092
2026-01-07 13:07:10.89	274.10	38.82	-44.3	-45.3	15.4	0.00e+00	0	25	0	2241855488	54	4127
2026-01-07 13:07:11.90	274.55	38.78	-44.2	-45.2	15.4	0.00e+00	0	25	0	2248146944	54	4073
2026-01-07 13:07:12.91	274.99	38.73	-44.1	-45.1	15.4	0.00e+00	0	25	0	2253389824	54	4047
2026-01-07 13:07:13.91	275.43	38.67	-44.1	-45.1	15.4	0.00e+00	0	25	0	2258632704	54	4031
2026-01-07 13:07:14.92	275.87	38.62	-44.1	-45.1	15.4	0.00e+00	0	25	0	2264924160	54	4017
2026-01-07 13:07:15.93	276.31	38.57	-44.1	-45.1	15.4	0.00e+00	0	25	0	2270167040	54	4044
2026-01-07 13:07:16.94	276.75	38.51	-44.1	-45.1	15.4	0.00e+00	0	25	0	2276458496	54	4044
2026-01-07 13:07:17.94	277.18	38.45	-44.1	-45.2	15.4	0.00e+00	0	25	0	2281701376	54	4061
2026-01-07 13:07:18.95	277.61	38.39	-44.1	-45.1	15.4	0.00e+00	0	26	0	2286944256	54	4035
2026-01-07 13:07:19.96	278.04	38.33	-44.1	-45.1	15.4	0.00e+00	0	25	0	2293235712	54	4033
2026-01-07 13:07:20.96	278.47	38.26	-44.1	-45.1	15.4	0.00e+00	0	25	0	2298478592	54	4023
2026-01-07 13:07:21.97	278.90	38.20	-44.1	-45.1	15.4	0.00e+00	0	25	0	2304770048	54	4040
2026-01-07 13:07:22.98	279.33	38.13	-44.1	-45.2	15.4	0.00e+00	0	25	0	2310012928	54	4053
2026-01-07 13:07:23.99	279.75	38.06	-44.1	-45.1	15.4	0.00e+00	0	25	0	2315255808	54	4051
2026-01-07 13:07:25.00	280.18	37.99	-44.3	-45.4	15.4	0.00e+00	0	25	0	2321547264	54	4158
2026-01-07 13:07:26.01	280.60	37.92	-44.3	-45.4	15.4	0.00e+00	0	25	0	2326790144	54	4156
2026-01-07 13:07:27.01	281.02	37.85	-44.3	-45.4	15.4	0.00e+00	0	25	0	2333081600	54	4157
2026-01-07 13:07:28.03	281.44	37.77	-44.3	-45.3	15.4	0.00e+00	0	25	0	2338324480	54	4125
2026-01-07 13:07:29.03	281.85	37.69	-44.3	-45.3	15.4	0.00e+00	0	25	0	2344615936	54	4110
2026-01-07 13:07:30.04	282.27	37.62	-44.2	-45.2	15.4	0.00e+00	0	25	0	2349858816	54	4069
2026-01-07 13:07:31.05	282.68	37.54	-44.2	-45.3	15.4	0.00e+00	0	25	0	2355101696	54	4106
2026-01-07 13:07:32.06	283.09	37.46	-44.3	-45.4	15.4	0.00e+00	0	25	0	2361393152	54	4157
2026-01-07 13:07:33.06	283.50	37.37	-44.3	-45.4	15.4	0.00e+00	0	25	0	2366636032	54	4166
2026-01-07 13:07:34.07	283.90	37.29	-44.2	-45.2	15.4	0.00e+00	0	25	0	2372927488	54	4079
2026-01-07 13:07:35.07	284.30	37.21	-44.2	-45.2	15.4	0.00e+00	0	25	0	2378170368	54	4081
2026-01-07 13:07:36.08	284.71	37.12	-44.1	-45.1	15.4	0.00e+00	0	25	0	2383413248	54	4019
2026-01-07 13:07:37.09	285.11	37.03	-44.1	-45.1	15.4	0.00e+00	0	25	0	2389704704	54	4042
2026-01-07 13:07:38.09	285.50	36.94	-44.1	-45.1	15.4	0.00e+00	0	25	0	2394947584	54	4028
2026-01-07 13:07:39.11	285.90	36.85	-44.1	-45.2	15.4	0.00e+00	0	25	0	2400190464	54	4068
2026-01-07 13:07:40.12	286.29	36.76	-44.3	-45.3	15.4	0.00e+00	0	25	0	2406481920	54	4121
2026-01-07 13:07:41.13	286.69	36.67	-44.3	-45.3	15.4	0.00e+00	0	25	0	2411724800	54	4134
2026-01-07 13:07:42.13	287.07	36.58	-44.3	-45.4	15.4	0.00e+00	0	25	0	2418016256	54	4168
2026-01-07 13:07:43.14	287.46	36.48	-44.4	-45.5	15.4	0.00e+00	0	25	0	2423259136	54	4199
2026-01-07 13:07:44.16	287.85	36.38	-44.5	-45.6	15.3	0.00e+00	0	25	0	2429550592	54	4267
2026-01-07 13:07:45.17	288.23	36.29	-44.5	-45.6	15.3	0.00e+00	0	25	0	2434793472	54	4243
2026-01-07 13:07:46.18	288.61	36.19	-44.4	-45.5	15.4	0.00e+00	0	25	0	2441084928	54	4207
2026-01-07 13:07:47.18	288.98	36.09	-44.3	-45.4	15.4	0.00e+00	0	25	0	2446327808	54	4159
2026-01-07 13:07:48.19	289.36	35.99	-44.4	-45.4	15.4	0.00e+00	0	25	0	2451570688	54	4174
2026-01-07 13:07:49.20	289.73	35.89	-44.4	-45.4	15.4	0.00e+00	0	25	0	2457862144	54	4192
2026-01-07 13:07:50.21	290.11	35.78	-44.4	-45.4	15.4	0.00e+00	0	25	0	2463105024	54	4193
2026-01-07 13:07:51.22	290.47	35.68	-44.4	-45.4	15.4	0.00e+00	0	25	0	2468347904	54	4191
2026-01-07 13:07:52.23	290.84	35.58	-44.3	-45.3	15.4	0.00e+00	0	25	0	2474639360	54	4143
2026-01-07 13:07:53.23	291.20	35.47	-44.3	-45.3	15.4	0.00e+00	0	25	0	2479882240	54	4125
2026-01-07 13:07:54.24	291.56	35.36	-44.4	-45.5	15.4	0.00e+00	0	25	0	2486173696	54	4213
2026-01-07 13:07:55.24	291.92	35.26	-44.5	-45.5	15.4	0.00e+00	0	25	0	2491416576	54	4238
2026-01-07 13:07:56.25	292.28	35.15	-44.5	-45.6	15.4	0.00e+00	0	25	0	2496659456	54	4251
2026-01-07 13:07:57.26	292.63	35.04	-44.4	-45.4	15.4	0.00e+00	0	25	0	2502950912	54	4181
2026-01-07 13:07:58.27	292.99	34.93	-44.3	-45.3	15.4	0.00e+00	0	25	0	2508193792	54	4135
2026-01-07 13:07:59.27	293.33	34.82	-44.3	-45.3	15.4	0.00e+00	0	25	0	2514485248	54	4127
2026-01-07 13:08:00.28	293.68	34.71	-44.3	-45.3	15.4	0.00e+00	0	25	0	2519728128	54	4139
2026-01-07 13:08:01.29	294.03	34.60	-44.4	-45.4	15.4	0.00e+00	0	25	0	2526019584	54	4166
2026-01-07 13:08:02.30	294.37	34.49	-44.6	-45.6	15.3	0.00e+00	0	25	0	2531262464	54	4275
2026-01-07 13:08:03.31	294.71	34.37	-44.6	-45.6	15.3	0.00e+00	0	25	0	2536505344	54	4275
2026-01-07 13:08:04.32	295.05	34.26	-44.5	-45.6	15.3	0.00e+00	0	25	0	2542796800	54	4261
2026-01-07 13:08:05.32	295.38	34.15	-44.5	-45.6	15.3	0.00e+00	0	25	0	2548039680	54	4246
2026-01-07 13:08:06.33	295.72	34.03	-44.6	-45.6	15.3	0.00e+00	0	25	0	2554331136	54	4278
2026-01-07 13:08:07.34	296.05	33.91	-44.4	-45.5	15.4	0.00e+00	0	25	0	2559574016	54	4209
2026-01-07 13:08:08.34	296.37	33.80	-44.5	-45.6	15.3	0.00e+00	0	25	0	2564816896	54	4260
2026-01-07 13:08:09.35	296.70	33.68	-44.6	-45.7	15.3	0.00e+00	0	25	0	2571108352	54	4300
2026-01-07 13:08:10.36	297.03	33.56	-44.6	-45.7	15.3	0.00e+00	0	25	0	2576351232	54	4303
2026-01-07 13:08:11.37	297.35	33.45	-44.7	-45.7	15.3	0.00e+00	0	25	0	2582642688	54	4320
2026-01-07 13:08:12.38	297.67	33.33	-44.6	-45.6	15.3	0.00e+00	0	25	0	2587885568	54	4267
2026-01-07 13:08:13.39	297.99	33.21	-44.5	-45.6	15.3	0.00e+00	0	25	0	2593128448	54	4258
2026-01-07 13:08:14.40	298.30	33.09	-44.5	-45.5	15.4	0.00e+00	0	25	0	2599419904	54	4214
2026-01-07 13:08:15.41	298.62	32.97	-44.5	-45.5	15.3	0.00e+00	0	25	0	2604662784	54	4228
2026-01-07 13:08:16.41	298.92	32.85	-44.6	-45.6	15.3	0.00e+00	0	25	0	2610954240	54	4284
2026-01-07 13:08:17.42	299.23	32.73	-44.7	-45.8	15.3	0.00e+00	0	25	0	2616197120	54	4353
2026-01-07 13:08:18.42	299.54	32.61	-44.8	-45.8	15.3	0.00e+00	0	25	0	2622488576	54	4386
2026-01-07 13:08:19.43	299.84	32.48	-44.8	-45.8	15.3	0.00e+00	0	25	0	2627731456	54	4385
2026-01-07 13:08:20.44	300.14	32.36	-44.9	-45.9	15.3	0.00e+00	0	25	0	2632974336	54	4431
2026-01-07 13:08:21.45	300.44	32.24	-44.8	-45.9	15.3	0.00e+00	0	25	0	2639265792	54	4397
2026-01-07 13:08:22.46	300.74	32.12	-44.8	-45.8	15.3	0.00e+00	0	25	0	2644508672	54	4386
2026-01-07 13:08:23.46	301.03	31.99	-44.7	-45.7	15.3	0.00e+00	0	25	0	2649751552	54	4339
2026-01-07 13:08:24.47	301.33	31.87	-44.6	-45.6	15.3	0.00e+00	0	25	0	2656043008	54	4275
2026-01-07 13:08:25.48	301.62	31.75	-44.6	-45.7	15.3	0.00e+00	0	25	0	2661285888	54	4299
2026-01-07 13:08:26.49	301.91	31.62	-44.7	-45.7	15.3	0.00e+00	0	25	0	2667577344	54	4337
2026-01-07 13:08:27.50	302.19	31.50	-44.7	-45.7	15.3	0.00e+00	0	25	0	2672820224	54	4324
2026-01-07 13:08:28.51	302.48	31.37	-44.7	-45.8	15.3	0.00e+00	0	26	0	2678063104	54	4348
2026-01-07 13:08:29.52	302.76	31.25	-44.9	-45.9	15.3	0.00e+00	0	25	0	2684354560	54	4434
2026-01-07 13:08:30.53	303.04	31.12	-44.9	-46.0	15.3	0.00e+00	0	25	0	2689597440	54	4451
2026-01-07 13:08:31.54	303.32	31.00	-44.9	-46.0	15.3	0.00e+00	0	25	0	2695888896	54	4444
2026-01-07 13:08:32.54	303.59	30.87	-44.9	-46.0	15.3	0.00e+00	0	25	0	2701131776	55	4232
2026-01-07 13:08:33.55	303.86	30.75	-45.0	-46.1	15.3	0.00e+00	0	25	0	2707423232	55	4248
2026-01-07 13:08:34.56	304.14	30.62	-45.1	-46.2	15.3	0.00e+00	0	25	0	2712666112	55	4300
2026-01-07 13:08:35.57	304.41	30.50	-45.2	-46.2	15.3	0.00e+00	0	25	0	2717908992	55	4332
2026-01-07 13:08:36.58	304.67	30.37	-44.9	-45.9	15.3	0.00e+00	0	25	0	2724200448	55	4187
2026-01-07 13:08:37.59	304.94	30.25	-44.8	-45.9	15.3	0.00e+00	0	25	0	2729443328	55	4168
2026-01-07 13:08:38.59	305.20	30.12	-44.7	-45.8	15.4	0.00e+00	0	25	0	2735734784	55	4115
2026-01-07 13:08:39.60	305.46	30.00	-44.8	-45.8	15.4	0.00e+00	0	26	0	2740977664	55	4131
2026-01-07 13:08:40.61	305.72	29.87	-44.9	-46.0	15.3	0.00e+00	0	25	0	2746220544	55	4205
2026-01-07 13:08:41.62	305.98	29.74	-45.0	-46.1	15.3	0.00e+00	0	25	0	2752512000	55	4271
2026-01-07 13:08:42.63	306.23	29.62	-45.1	-46.2	15.3	0.00e+00	0	26	0	2757754880	55	4294
2026-01-07 13:08:43.63	306.49	29.49	-45.0	-46.1	15.3	0.00e+00	0	25	0	2764046336	55	4280
2026-01-07 13:08:44.64	306.74	29.36	-45.1	-46.2	15.3	0.00e+00	0	25	0	2769289216	55	4299
2026-01-07 13:08:45.65	306.99	29.24	-45.0	-46.1	15.3	0.00e+00	0	25	0	2774532096	55	4246
2026-01-07 13:08:46.66	307.24	29.11	-45.0	-46.1	15.3	0.00e+00	0	25	0	2780823552	55	4267
2026-01-07 13:08:47.67	307.48	28.99	-45.0	-46.0	15.3	0.00e+00	0	25	0	2786066432	55	4231
2026-01-07 13:08:48.68	307.73	28.86	-45.1	-46.1	15.3	0.00e+00	0	25	0	2792357888	55	4286
2026-01-07 13:08:49.68	307.97	28.73	-45.2	-46.3	15.3	0.00e+00	0	25	0	2797600768	55	4347
2026-01-07 13:08:50.69	308.21	28.61	-45.4	-46.5	15.3	0.00e+00	0	25	0	2803892224	55	4444
2026-01-07 13:08:51.70	308.44	28.48	-45.4	-46.5	15.2	0.00e+00	0	25	0	2809135104	55	4465
2026-01-07 13:08:52.71	308.68	28.35	-45.6	-46.7	15.3	0.00e+00	0	25	0	2814377984	56	4305
2026-01-07 13:08:53.71	308.91	28.23	-45.3	-46.4	15.3	0.00e+00	0	25	0	2820669440	56	4166
2026-01-07 13:08:54.72	309.15	28.10	-45.1	-46.2	15.4	0.00e+00	0	25	0	2825912320	56	4082
2026-01-07 13:08:55.73	309.38	27.98	-45.1	-46.2	15.4	0.00e+00	0	25	0	2832203776	56	4076
2026-01-07 13:08:56.74	309.61	27.85	-45.0	-46.0	15.4	0.00e+00	0	25	0	2837446656	56	3998
2026-01-07 13:08:57.75	309.84	27.73	-44.9	-46.0	15.5	0.00e+00	0	25	0	2842689536	56	3961
2026-01-07 13:08:58.76	310.06	27.60	-45.0	-46.0	15.4	0.00e+00	0	25	0	2848980992	56	3987
2026-01-07 13:08:59.76	310.28	27.48	-45.1	-46.2	15.4	0.00e+00	0	25	0	2854223872	56	4065
2026-01-07 13:09:00.77	310.51	27.35	-45.1	-46.2	15.4	0.00e+00	0	25	0	2860515328	56	4078
2026-01-07 13:09:01.78	310.73	27.22	-45.2	-46.3	15.3	0.00e+00	0	25	0	2865758208	56	4130
2026-01-07 13:09:02.78	310.94	27.10	-45.2	-46.3	15.4	0.00e+00	0	25	0	2871001088	56	4135
2026-01-07 13:09:03.79	311.16	26.98	-45.1	-46.2	15.4	0.00e+00	0	25	0	2877292544	56	4083
2026-01-07 13:09:04.80	311.38	26.85	-45.3	-46.4	15.4	0.00e+00	0	25	0	2882535424	56	4146
2026-01-07 13:09:05.80	311.59	26.73	-45.1	-46.2	15.4	0.00e+00	0	25	0	2888826880	56	4061
2026-01-07 13:09:06.81	311.80	26.60	-44.9	-46.0	15.4	0.00e+00	0	25	0	2894069760	56	3988
2026-01-07 13:09:07.82	312.01	26.48	-45.0	-46.0	15.4	0.00e+00	0	25	0	2900361216	56	3993
2026-01-07 13:09:08.83	312.22	26.35	-44.9	-46.0	15.5	0.00e+00	0	25	0	2905604096	56	3966
2026-01-07 13:09:09.84	312.43	26.23	-44.9	-45.9	15.5	0.00e+00	0	25	0	2910846976	56	3958
2026-01-07 13:09:10.84	312.63	26.11	-44.9	-46.0	15.5	0.00e+00	0	25	0	2917138432	56	3962
2026-01-07 13:09:11.85	312.84	25.98	-45.1	-46.1	15.4	0.00e+00	0	25	0	2922381312	56	4044
2026-01-07 13:09:12.86	313.04	25.86	-45.1	-46.2	15.4	0.00e+00	0	25	0	2927624192	56	4073
2026-01-07 13:09:13.86	313.24	25.74	-45.2	-46.3	15.3	0.00e+00	0	25	0	2933915648	56	4133
2026-01-07 13:09:14.87	313.44	25.61	-45.2	-46.3	15.3	0.00e+00	0	25	0	2939158528	56	4120
2026-01-07 13:09:15.87	313.64	25.49	-45.2	-46.3	15.3	0.00e+00	0	25	0	2945449984	56	4122
2026-01-07 13:09:16.88	313.84	25.37	-45.1	-46.2	15.4	0.00e+00	0	26	0	2950692864	56	4052
2026-01-07 13:09:17.89	314.03	25.25	-45.0	-46.1	15.4	0.00e+00	0	25	0	2955935744	56	4016
2026-01-07 13:09:18.90	314.23	25.13	-45.1	-46.2	15.4	0.00e+00	0	25	0	2962227200	56	4061
2026-01-07 13:09:19.91	314.42	25.00	-45.1	-46.1	15.4	0.00e+00	0	25	0	2967470080	56	4050
2026-01-07 13:09:20.92	314.61	24.88	-45.2	-46.2	15.4	0.00e+00	0	25	0	2973761536	56	4098
2026-01-07 13:09:21.93	314.80	24.76	-45.3	-46.4	15.3	0.00e+00	0	26	0	2979004416	56	4162
2026-01-07 13:09:22.93	314.99	24.64	-45.4	-46.5	15.3	0.00e+00	0	25	0	2985295872	56	4198
2026-01-07 13:09:23.94	315.17	24.52	-45.4	-46.5	15.3	0.00e+00	0	25	0	2990538752	56	4209
2026-01-07 13:09:24.94	315.36	24.40	-45.5	-46.5	15.3	0.00e+00	0	25	0	2995781632	56	4236
2026-01-07 13:09:25.94	315.54	24.28	-45.4	-46.5	15.3	0.00e+00	0	26	0	3002073088	56	4225
2026-01-07 13:09:26.95	315.72	24.16	-45.4	-46.5	15.3	0.00e+00	0	25	0	3007315968	56	4235
2026-01-07 13:09:27.96	315.90	24.04	-45.3	-46.4	15.3	0.00e+00	0	25	0	3012558848	56	4179
2026-01-07 13:09:28.97	316.08	23.92	-45.3	-46.4	15.3	0.00e+00	0	25	0	3018850304	56	4180
2026-01-07 13:09:29.98	316.26	23.80	-45.2	-46.3	15.3	0.00e+00	0	25	0	3024093184	56	4109
2026-01-07 13:09:30.98	316.44	23.68	-45.3	-46.3	15.3	0.00e+00	0	25	0	3030384640	56	4144
2026-01-07 13:09:31.99	316.61	23.56	-45.4	-46.4	15.3	0.00e+00	0	25	0	3035627520	56	4188
2026-01-07 13:09:33.00	316.79	23.45	-45.3	-46.4	15.3	0.00e+00	0	26	0	3040870400	56	4177
2026-01-07 13:09:34.01	316.96	23.33	-45.3	-46.4	15.3	0.00e+00	0	25	0	3047161856	56	4181
2026-01-07 13:09:35.02	317.14	23.21	-45.5	-46.6	15.3	0.00e+00	0	26	0	3052404736	56	4258
2026-01-07 13:09:36.03	317.31	23.09	-45.6	-46.7	15.3	0.00e+00	0	25	0	3058696192	56	4294
2026-01-07 13:09:37.04	317.48	22.97	-45.7	-46.8	15.2	0.00e+00	0	25	0	3063939072	56	4352
2026-01-07 13:09:38.05	317.65	22.86	-45.7	-46.8	15.2	0.00e+00	0	25	0	3070230528	56	4379
2026-01-07 13:09:39.05	317.81	22.74	-45.7	-46.8	15.2	0.00e+00	0	25	0	3075473408	56	4359
2026-01-07 13:09:40.06	317.98	22.63	-45.7	-46.8	15.2	0.00e+00	0	25	0	3080716288	56	4379
2026-01-07 13:09:41.07	318.14	22.51	-45.8	-46.9	15.2	0.00e+00	0	25	0	3087007744	56	4399
2026-01-07 13:09:42.08	318.31	22.39	-45.6	-46.7	15.2	0.00e+00	0	25	0	3092250624	56	4331
2026-01-07 13:09:43.09	318.47	22.28	-45.6	-46.6	15.2	0.00e+00	0	25	0	3098542080	56	4287
2026-01-07 13:09:44.10	318.63	22.16	-45.5	-46.6	15.2	0.00e+00	0	25	0	3103784960	56	4277
2026-01-07 13:09:45.10	318.79	22.05	-45.5	-46.6	15.2	0.00e+00	0	25	0	3109027840	56	4264
2026-01-07 13:09:46.11	318.95	21.93	-45.5	-46.6	15.2	0.00e+00	0	25	0	3115319296	56	4266
2026-01-07 13:09:47.12	319.11	21.82	-45.6	-46.7	15.2	0.00e+00	0	25	0	3120562176	56	4309
2026-01-07 13:09:48.13	319.26	21.70	-45.7	-46.8	15.2	0.00e+00	0	25	0	3126853632	56	4344
2026-01-07 13:09:49.14	319.42	21.59	-45.8	-46.9	15.2	0.00e+00	0	25	0	3132096512	56	4403
2026-01-07 13:09:50.14	319.57	21.48	-45.9	-47.0	15.2	0.00e+00	0	25	0	3137339392	56	4464
2026-01-07 13:09:51.15	319.73	21.36	-46.0	-47.1	15.2	0.00e+00	0	25	0	3143630848	57	4259
2026-01-07 13:09:52.16	319.88	21.25	-46.1	-47.2	15.2	0.00e+00	0	25	0	3148873728	57	4313
2026-01-07 13:09:53.17	320.03	21.14	-46.1	-47.3	15.2	0.00e+00	0	25	0	3155165184	57	4343
2026-01-07 13:09:54.18	320.18	21.03	-46.2	-47.3	15.2	0.00e+00	0	26	0	3160408064	57	4387
2026-01-07 13:09:55.19	320.33	20.91	-46.1	-47.3	15.2	0.00e+00	0	25	0	3166699520	57	4346
2026-01-07 13:09:56.19	320.48	20.80	-46.2	-47.4	15.1	0.00e+00	0	25	0	3171942400	57	4402
2026-01-07 13:09:57.20	320.62	20.69	-46.1	-47.2	15.2	0.00e+00	0	25	0	3177185280	57	4333
2026-01-07 13:09:58.21	320.77	20.58	-46.2	-47.3	15.2	0.00e+00	0	25	0	3183476736	57	4355
2026-01-07 13:09:59.22	320.92	20.47	-46.1	-47.2	15.2	0.00e+00	0	25	0	3188719616	57	4334
2026-01-07 13:10:00.22	321.06	20.36	-46.1	-47.2	15.2	0.00e+00	0	25	0	3195011072	57	4336
2026-01-07 13:10:01.23	321.20	20.25	-46.2	-47.3	15.2	0.00e+00	0	25	0	3200253952	57	4354
2026-01-07 13:10:02.23	321.34	20.14	-46.3	-47.5	15.1	0.00e+00	0	25	0	3205496832	57	4445
2026-01-07 13:10:03.24	321.48	20.03	-46.3	-47.4	15.1	0.00e+00	0	25	0	3211788288	57	4429
2026-01-07 13:10:04.25	321.62	19.92	-46.3	-47.5	15.1	0.00e+00	0	25	0	3217031168	57	4467
2026-01-07 13:10:05.25	321.76	19.82	-46.5	-47.6	15.1	0.00e+00	0	26	0	3222274048	58	4282
2026-01-07 13:10:06.26	321.90	19.71	-46.5	-47.7	15.2	0.00e+00	0	25	0	3228565504	58	4299
2026-01-07 13:10:07.27	322.04	19.60	-46.6	-47.8	15.1	0.00e+00	0	25	0	3233808384	58	4353
2026-01-07 13:10:08.27	322.17	19.49	-46.6	-47.8	15.1	0.00e+00	0	25	0	3240099840	58	4364
2026-01-07 13:10:09.28	322.31	19.38	-46.6	-47.7	15.1	0.00e+00	0	25	0	3245342720	58	4330
2026-01-07 13:10:10.28	322.44	19.28	-46.6	-47.7	15.1	0.00e+00	0	25	0	3251634176	58	4338
2026-01-07 13:10:11.28	322.57	19.17	-46.6	-47.7	15.1	0.00e+00	0	25	0	3256877056	58	4327
2026-01-07 13:10:12.29	322.71	19.07	-46.6	-47.8	15.1	0.00e+00	0	25	0	3262119936	58	4343
2026-01-07 13:10:13.30	322.84	18.96	-46.7	-47.8	15.1	0.00e+00	0	25	0	3268411392	58	4388
2026-01-07 13:10:14.31	322.97	18.85	-46.6	-47.7	15.1	0.00e+00	0	25	0	3273654272	58	4328
2026-01-07 13:10:15.32	323.10	18.75	-46.5	-47.6	15.1	0.00e+00	0	25	0	3279945728	58	4288
2026-01-07 13:10:16.33	323.23	18.64	-46.5	-47.6	15.1	0.00e+00	0	25	0	3285188608	58	4290
2026-01-07 13:10:17.34	323.36	18.54	-46.5	-47.6	15.1	0.00e+00	0	25	0	3290431488	58	4289
2026-01-07 13:10:18.35	323.49	18.43	-46.5	-47.6	15.1	0.00e+00	0	25	0	3296722944	58	4289
2026-01-07 13:10:19.36	323.61	18.33	-46.6	-47.7	15.1	0.00e+00	0	25	0	3301965824	58	4317
2026-01-07 13:10:20.37	323.74	18.22	-46.6	-47.7	15.1	0.00e+00	0	25	0	3307208704	58	4339
2026-01-07 13:10:21.37	323.86	18.12	-46.6	-47.8	15.1	0.00e+00	0	26	0	3313500160	58	4349
2026-01-07 13:10:22.38	323.99	18.02	-46.7	-47.8	15.1	0.00e+00	0	25	0	3318743040	58	4386
2026-01-07 13:10:23.39	324.11	17.91	-46.8	-48.0	15.0	0.00e+00	0	25	0	3325034496	58	4457
2026-01-07 13:10:24.40	324.23	17.81	-46.8	-48.0	15.1	0.00e+00	0	25	0	3330277376	59	4214
2026-01-07 13:10:25.40	324.35	17.71	-46.7	-47.9	15.2	0.00e+00	0	25	0	3336568832	59	4156
2026-01-07 13:10:26.41	324.48	17.61	-46.8	-47.9	15.1	0.00e+00	0	25	0	3341811712	59	4183
2026-01-07 13:10:27.42	324.60	17.50	-46.8	-47.9	15.1	0.00e+00	0	25	0	3348103168	59	4184
2026-01-07 13:10:28.43	324.72	17.40	-46.7	-47.9	15.1	0.00e+00	0	25	0	3353346048	59	4158
2026-01-07 13:10:29.44	324.84	17.30	-46.8	-47.9	15.1	0.00e+00	0	25	0	3358588928	59	4178
2026-01-07 13:10:30.45	324.95	17.20	-46.7	-47.9	15.2	0.00e+00	0	25	0	3364880384	59	4146
2026-01-07 13:10:31.46	325.07	17.10	-46.8	-48.0	15.1	0.00e+00	0	25	0	3370123264	59	4196
2026-01-07 13:10:32.46	325.19	17.00	-46.8	-47.9	15.1	0.00e+00	0	25	0	3375366144	59	4189
2026-01-07 13:10:33.46	325.30	16.90	-46.9	-48.1	15.1	0.00e+00	0	25	0	3381657600	59	4245
2026-01-07 13:10:34.47	325.42	16.80	-46.9	-48.1	15.1	0.00e+00	0	25	0	3386900480	59	4278
2026-01-07 13:10:35.48	325.53	16.70	-46.9	-48.1	14.9	0.00e+00	0	25	0	3393191936	59	4243
2026-01-07 13:10:36.49	325.64	16.60	-46.9	-48.1	14.8	0.00e+00	0	26	0	3398434816	59	4271
2026-01-07 13:10:37.50	325.76	16.50	-46.9	-48.1	14.9	0.00e+00	0	25	0	3403677696	59	4284
2026-01-07 13:10:38.51	325.87	16.40	-47.0	-48.2	15.0	0.00e+00	0	25	0	3409969152	59	4304
2026-01-07 13:10:39.51	325.98	16.31	-47.1	-48.3	14.9	0.00e+00	0	25	0	3415212032	59	4356
2026-01-07 13:10:40.52	326.09	16.21	-47.1	-48.3	14.9	0.00e+00	0	26	0	3421503488	59	4374
2026-01-07 13:10:41.53	326.20	16.11	-47.1	-48.3	14.9	0.00e+00	0	25	0	3426746368	59	4376
2026-01-07 13:10:42.54	326.31	16.01	-47.1	-48.3	14.9	0.00e+00	0	25	0	3433037824	59	4370
2026-01-07 13:10:43.55	326.42	15.92	-47.1	-48.3	14.7	0.00e+00	0	25	0	3438280704	59	4383
2026-01-07 13:10:44.56	326.53	15.82	-47.1	-48.3	14.6	0.00e+00	0	25	0	3443523584	59	4369
2026-01-07 13:10:45.57	326.63	15.72	-47.1	-48.3	14.5	0.00e+00	0	25	0	3449815040	59	4380
2026-01-07 13:10:46.57	326.74	15.63	-47.0	-48.2	14.4	0.00e+00	0	25	0	3455057920	59	4332
2026-01-07 13:10:47.58	326.85	15.53	-47.1	-48.3	14.4	0.00e+00	0	25	0	3461349376	59	4370
2026-01-07 13:10:48.59	326.95	15.44	-47.1	-48.3	14.6	0.00e+00	0	25	0	3466592256	59	4367
2026-01-07 13:10:49.60	327.06	15.34	-47.1	-48.3	14.8	0.00e+00	0	25	0	3471835136	59	4384
2026-01-07 13:10:50.61	327.16	15.24	-47.1	-48.3	15.0	0.00e+00	0	25	0	3478126592	59	4379
2026-01-07 13:10:51.61	327.26	15.15	-47.1	-48.3	14.9	0.00e+00	0	25	0	3483369472	59	4349
2026-01-07 13:10:52.62	327.37	15.06	-47.2	-48.4	14.9	0.00e+00	0	25	0	3489660928	59	4394
2026-01-07 13:10:53.63	327.47	14.96	-47.2	-48.3	14.9	0.00e+00	0	25	0	3494903808	59	4390
2026-01-07 13:10:54.64	327.57	14.87	-47.3	-48.5	14.8	0.00e+00	0	25	0	3500146688	59	4447
2026-01-07 13:10:55.64	327.67	14.78	-47.3	-48.5	14.8	0.00e+00	0	25	0	3506438144	59	4455
2026-01-07 13:10:56.65	327.77	14.68	-47.4	-48.6	14.8	0.00e+00	0	25	0	3511681024	59	4510
2026-01-07 13:10:57.66	327.87	14.59	-47.2	-48.4	15.0	0.00e+00	0	25	0	3517972480	60	4160
2026-01-07 13:10:58.67	327.97	14.50	-47.1	-48.3	15.0	0.00e+00	0	25	0	3523215360	60	4126
2026-01-07 13:10:59.68	328.07	14.40	-47.1	-48.3	15.0	0.00e+00	0	25	0	3529506816	60	4118
2026-01-07 13:11:00.69	328.17	14.31	-47.2	-48.5	15.0	0.00e+00	0	25	0	3534749696	60	4197
2026-01-07 13:11:01.70	328.27	14.22	-47.2	-48.4	15.0	0.00e+00	0	26	0	3539992576	60	4175
2026-01-07 13:11:02.71	328.36	14.13	-47.3	-48.5	15.0	0.00e+00	0	25	0	3546284032	60	4218
2026-01-07 13:11:03.71	328.46	14.04	-47.3	-48.5	15.0	0.00e+00	0	25	0	3551526912	60	4227
2026-01-07 13:11:04.72	328.55	13.95	-47.4	-48.6	15.0	0.00e+00	0	25	0	3556769792	60	4276
2026-01-07 13:11:05.73	328.65	13.85	-47.5	-48.8	14.9	0.00e+00	0	25	0	3563061248	60	4342
2026-01-07 13:11:06.74	328.74	13.76	-47.4	-48.6	14.9	0.00e+00	0	26	0	3568304128	60	4290
2026-01-07 13:11:07.74	328.84	13.67	-47.5	-48.7	14.9	0.00e+00	0	25	0	3574595584	60	4317
2026-01-07 13:11:08.75	328.93	13.58	-47.5	-48.7	14.9	0.00e+00	0	25	0	3579838464	60	4312
2026-01-07 13:11:09.76	329.02	13.49	-47.5	-48.7	14.9	0.00e+00	0	26	0	3585081344	60	4311
2026-01-07 13:11:10.76	329.12	13.41	-47.5	-48.7	14.9	0.00e+00	0	26	0	3591372800	60	4340
2026-01-07 13:11:11.77	329.21	13.32	-47.5	-48.7	14.9	0.00e+00	0	25	0	3596615680	60	4337
2026-01-07 13:11:12.78	329.30	13.23	-47.5	-48.8	14.9	0.00e+00	0	26	0	3602907136	60	4346
2026-01-07 13:11:13.79	329.39	13.14	-47.5	-48.8	14.9	0.00e+00	0	25	0	3608150016	60	4341
2026-01-07 13:11:14.79	329.48	13.05	-47.5	-48.8	14.9	0.00e+00	0	26	0	3614441472	60	4347
2026-01-07 13:11:15.81	329.57	12.96	-47.6	-48.8	14.8	0.00e+00	0	25	0	3619684352	60	4386
