passes_logs/2026/01/07/R3.2S_Murmansk/R3.2S_Murmansk__20260107_004152_NOAA_20_JPSS-1_rec.log

#Pass ID: 20260107_004152_NOAA 20 (JPSS-1)
#Satellite: NOAA 20 (JPSS-1)
#Configuration: NOAA 20
#almurnet v.1.7.20251203
#Start time: 2026-01-07 00:41:54

#Version: 2.2.20231116
#Station: R3.2S_Murmansk
#Location: 33.079688 lon 68.888172 lat
#TLE: 1 43013U 17073A   26006.30790171  .00000126  00000+0  80695-4 0  9991
#TLE: 2 43013  98.7629 307.3394 0001808  51.8724 308.2615 14.19533762421505

#Time	Az	El	Level	Level2	SNR	BER	BlckErr	Temp	State	Recorded	gain1	gain2
2026-01-07 00:41:54.96	24.56	2.14	-58.1	-74.1	3.8	1.49e+00	0	25	0	0	82	22745
2026-01-07 00:41:55.95	24.57	2.20	-58.1	-74.1	3.8	1.49e+00	0	25	104	0	81	23987
2026-01-07 00:41:56.95	24.57	2.27	-58.1	-74.1	3.8	1.49e+00	0	25	104	0	81	23894
2026-01-07 00:41:57.95	24.57	2.33	-58.1	-74.1	3.8	1.49e+00	0	25	104	0	81	23996
2026-01-07 00:41:58.95	24.58	2.39	-58.1	-74.1	3.8	1.49e+00	0	25	104	0	81	24036
2026-01-07 00:41:59.95	24.58	2.46	-58.1	-74.1	3.8	1.49e+00	0	25	104	0	81	24010
2026-01-07 00:42:00.91	24.58	2.52	-58.1	-74.1	3.8	1.49e+00	0	25	104	0	81	23944
2026-01-07 00:42:01.90	24.59	2.59	-58.1	-74.1	3.8	1.49e+00	0	25	104	0	81	23942
2026-01-07 00:42:02.90	24.59	2.65	-58.1	-74.0	3.8	1.49e+00	0	25	104	0	81	23826
2026-01-07 00:42:03.90	24.59	2.72	-58.1	-74.0	3.8	1.49e+00	0	25	104	0	81	23751
2026-01-07 00:42:04.90	24.60	2.78	-58.1	-74.0	3.8	1.49e+00	0	25	104	0	81	23627
2026-01-07 00:42:05.90	24.60	2.85	-58.1	-73.7	3.8	1.49e+00	0	25	104	0	81	23019
2026-01-07 00:42:06.90	24.60	2.91	-58.1	-73.7	3.8	1.49e+00	0	25	104	0	81	22833
2026-01-07 00:42:07.90	24.61	2.98	-58.1	-73.4	3.8	1.49e+00	0	26	104	0	81	22169
2026-01-07 00:42:08.90	24.61	3.05	-58.1	-73.3	3.8	1.49e+00	0	26	104	0	81	21791
2026-01-07 00:42:09.90	24.61	3.11	-58.1	-73.1	3.8	1.49e+00	0	26	104	0	81	21362
2026-01-07 00:42:10.90	24.62	3.18	-58.1	-73.0	3.8	1.49e+00	0	26	104	0	81	21090
2026-01-07 00:42:11.89	24.62	3.24	-58.1	-72.9	3.8	1.49e+00	0	26	104	0	81	20791
2026-01-07 00:42:12.89	24.62	3.31	-58.1	-73.1	3.8	1.49e+00	0	26	104	0	81	21440
2026-01-07 00:42:13.88	24.63	3.38	-58.1	-73.2	3.8	1.49e+00	0	26	104	0	81	21618
2026-01-07 00:42:14.88	24.63	3.44	-58.1	-73.4	3.8	1.49e+00	0	26	104	0	81	22169
2026-01-07 00:42:15.88	24.63	3.51	-58.1	-73.5	3.8	1.49e+00	0	26	104	0	81	22405
2026-01-07 00:42:16.89	24.64	3.58	-58.1	-73.4	3.8	1.49e+00	0	26	104	0	81	22245
2026-01-07 00:42:17.89	24.64	3.65	-58.1	-73.0	3.8	1.49e+00	0	26	104	0	81	21132
2026-01-07 00:42:18.89	24.64	3.72	-58.0	-72.4	3.8	1.49e+00	0	26	104	0	81	19646
2026-01-07 00:42:19.88	24.65	3.78	-58.0	-71.2	4.1	1.48e+00	0	26	0	0	81	17108
2026-01-07 00:42:20.88	24.65	3.85	-57.9	-70.2	4.3	1.46e+00	0	26	0	0	81	15352
2026-01-07 00:42:21.88	24.65	3.92	-57.8	-68.6	4.9	8.79e-01	0	26	0	1048576	81	12782
2026-01-07 00:42:22.87	24.66	3.99	-57.7	-67.5	5.5	6.33e-01	0	26	0	3145728	81	11206
2026-01-07 00:42:23.86	24.66	4.05	-57.6	-66.5	6.2	3.33e-01	0	26	0	5242880	81	10027
2026-01-07 00:42:24.87	24.66	4.12	-57.5	-65.9	6.6	1.79e-01	0	26	0	6291456	81	9351
2026-01-07 00:42:25.87	24.67	4.19	-57.3	-65.0	7.3	1.35e-01	0	26	0	8388608	81	8432
2026-01-07 00:42:26.88	24.67	4.26	-57.2	-64.5	7.8	5.87e-02	0	26	0	10485760	81	7906
2026-01-07 00:42:27.88	24.67	4.33	-57.1	-63.9	8.2	3.52e-02	0	26	0	12582912	80	7885
2026-01-07 00:42:28.88	24.67	4.40	-57.0	-63.7	8.4	2.09e-02	0	26	0	14680064	80	7680
2026-01-07 00:42:29.87	24.68	4.47	-57.0	-63.5	8.6	1.65e-02	0	26	0	15728640	80	7480
2026-01-07 00:42:30.87	24.68	4.54	-56.8	-63.0	9.0	1.70e-02	0	26	0	17825792	80	7106
2026-01-07 00:42:31.86	24.68	4.61	-56.9	-63.0	9.0	1.14e-02	0	26	0	19922944	80	7093
2026-01-07 00:42:32.86	24.69	4.68	-56.8	-63.0	9.1	1.01e-02	0	26	0	22020096	80	7047
2026-01-07 00:42:33.85	24.69	4.75	-57.1	-63.8	8.3	1.57e-02	0	26	0	24117248	80	7790
2026-01-07 00:42:34.85	24.69	4.82	-57.1	-63.9	8.3	2.35e-02	0	26	0	25165824	80	7861
2026-01-07 00:42:35.85	24.70	4.89	-57.1	-63.9	8.3	2.85e-02	0	26	0	27262976	80	7840
2026-01-07 00:42:36.85	24.70	4.96	-57.2	-64.5	7.8	3.59e-02	0	26	0	29360128	80	8426
2026-01-07 00:42:37.86	24.70	5.03	-57.3	-65.1	7.2	6.69e-02	0	26	0	31457280	80	8995
2026-01-07 00:42:38.86	24.71	5.10	-56.4	-61.6	10.3	1.06e-02	0	26	0	33554432	79	6378
2026-01-07 00:42:39.86	24.71	5.18	-56.8	-62.9	9.1	2.36e-03	0	26	0	34603008	79	7442
2026-01-07 00:42:40.86	24.71	5.25	-57.9	-68.3	5.1	3.83e-02	0	26	0	36700160	80	13096
2026-01-07 00:42:41.85	24.72	5.32	-55.5	-59.2	12.0	4.84e-01	0	26	0	38797312	77	5419
2026-01-07 00:42:42.85	24.72	5.39	-57.8	-69.1	4.7	1.33e-01	0	26	0	40894464	80	14240
2026-01-07 00:42:43.85	24.72	5.46	-55.3	-58.8	12.3	3.38e-01	0	26	0	41943040	77	5178
2026-01-07 00:42:44.84	24.73	5.54	-55.2	-58.6	12.5	0.00e+00	0	26	0	44040192	77	5083
2026-01-07 00:42:45.85	24.73	5.61	-55.3	-58.8	12.4	0.00e+00	0	26	0	46137344	77	5210
2026-01-07 00:42:46.86	24.73	5.68	-55.4	-59.0	12.2	0.00e+00	0	26	0	48234496	77	5327
2026-01-07 00:42:47.86	24.73	5.76	-55.4	-59.0	12.2	7.00e-07	0	26	0	49283072	77	5313
2026-01-07 00:42:48.86	24.74	5.83	-55.5	-59.1	12.2	0.00e+00	0	26	0	51380224	77	5346
2026-01-07 00:42:49.87	24.74	5.90	-55.5	-59.1	12.2	7.00e-07	0	26	0	53477376	77	5377
2026-01-07 00:42:50.87	24.74	5.98	-55.3	-58.9	12.4	1.50e-06	0	26	0	55574528	77	5228
2026-01-07 00:42:51.87	24.75	6.05	-55.2	-58.6	12.6	7.00e-07	0	26	0	57671680	77	5060
2026-01-07 00:42:52.87	24.75	6.12	-55.4	-58.9	12.3	0.00e+00	0	26	0	58720256	77	5266
2026-01-07 00:42:53.86	24.75	6.20	-55.2	-58.5	12.5	0.00e+00	0	26	0	60817408	76	5306
2026-01-07 00:42:54.86	24.76	6.27	-55.2	-58.5	12.5	0.00e+00	0	27	0	62914560	76	5329
2026-01-07 00:42:55.86	24.76	6.35	-55.1	-58.4	12.6	0.00e+00	0	26	0	65011712	76	5220
2026-01-07 00:42:56.86	24.76	6.42	-55.1	-58.4	12.6	7.00e-07	0	26	0	67108864	76	5267
2026-01-07 00:42:57.87	24.76	6.50	-55.1	-58.3	12.7	0.00e+00	0	26	0	68157440	76	5199
2026-01-07 00:42:58.87	24.77	6.57	-54.9	-58.0	12.9	0.00e+00	0	26	0	70254592	76	5005
2026-01-07 00:42:59.86	24.77	6.65	-55.1	-58.3	12.7	0.00e+00	0	26	0	72351744	76	5194
2026-01-07 00:43:00.85	24.77	6.72	-55.1	-58.3	12.7	0.00e+00	0	26	0	74448896	76	5174
2026-01-07 00:43:01.85	24.78	6.80	-55.0	-58.1	12.9	0.00e+00	0	26	0	75497472	76	5057
2026-01-07 00:43:02.85	24.78	6.88	-55.0	-58.2	12.8	0.00e+00	0	26	0	77594624	76	5135
2026-01-07 00:43:03.84	24.78	6.95	-54.8	-57.8	13.0	0.00e+00	0	26	0	79691776	76	4888
2026-01-07 00:43:04.85	24.79	7.03	-55.0	-58.1	12.8	0.00e+00	0	27	0	81788928	76	5097
2026-01-07 00:43:05.86	24.79	7.11	-54.8	-57.8	13.0	0.00e+00	0	26	0	83886080	76	4909
2026-01-07 00:43:06.85	24.79	7.18	-54.9	-58.0	12.9	0.00e+00	0	27	0	84934656	76	4989
2026-01-07 00:43:07.85	24.79	7.26	-54.9	-57.9	13.0	0.00e+00	0	26	0	87031808	76	4976
2026-01-07 00:43:08.85	24.80	7.34	-54.9	-58.0	12.9	0.00e+00	0	26	0	89128960	76	5019
2026-01-07 00:43:09.85	24.80	7.42	-55.1	-58.3	12.7	0.00e+00	0	27	0	91226112	76	5176
2026-01-07 00:43:10.84	24.80	7.50	-54.9	-58.0	13.0	0.00e+00	0	26	0	92274688	76	4986
2026-01-07 00:43:11.83	24.81	7.57	-54.9	-57.9	13.0	0.00e+00	0	26	0	94371840	76	4964
2026-01-07 00:43:12.83	24.81	7.65	-54.9	-57.9	13.0	0.00e+00	0	26	0	96468992	76	4973
2026-01-07 00:43:13.83	24.81	7.73	-54.9	-57.9	13.0	0.00e+00	0	27	0	98566144	76	4945
2026-01-07 00:43:14.82	24.81	7.81	-54.7	-57.6	13.2	0.00e+00	0	27	0	100663296	76	4797
2026-01-07 00:43:15.82	24.82	7.89	-54.8	-57.7	13.1	0.00e+00	0	27	0	101711872	76	4854
2026-01-07 00:43:16.83	24.82	7.97	-54.6	-57.4	13.2	0.00e+00	0	27	0	103809024	75	4957
2026-01-07 00:43:17.82	24.82	8.05	-54.6	-57.4	13.2	0.00e+00	0	27	0	105906176	75	4980
2026-01-07 00:43:18.82	24.83	8.13	-54.6	-57.5	13.2	0.00e+00	0	26	0	108003328	75	5025
2026-01-07 00:43:19.82	24.83	8.21	-54.7	-57.5	13.1	0.00e+00	0	26	0	110100480	75	5040
2026-01-07 00:43:20.82	24.83	8.29	-54.7	-57.5	13.1	0.00e+00	0	27	0	111149056	75	5035
2026-01-07 00:43:21.82	24.83	8.37	-54.6	-57.4	13.2	0.00e+00	0	26	0	113246208	75	4978
2026-01-07 00:43:22.81	24.84	8.45	-54.5	-57.3	13.3	0.00e+00	0	27	0	115343360	75	4896
2026-01-07 00:43:23.81	24.84	8.53	-54.5	-57.3	13.3	0.00e+00	0	27	0	117440512	75	4902
2026-01-07 00:43:24.81	24.84	8.61	-54.5	-57.3	13.3	0.00e+00	0	27	0	118489088	75	4876
2026-01-07 00:43:25.81	24.85	8.70	-54.5	-57.3	13.3	0.00e+00	0	27	0	120586240	75	4903
2026-01-07 00:43:26.81	24.85	8.78	-54.5	-57.2	13.4	0.00e+00	0	27	0	122683392	75	4832
2026-01-07 00:43:27.81	24.85	8.86	-54.4	-57.2	13.4	0.00e+00	0	27	0	124780544	75	4819
2026-01-07 00:43:28.82	24.85	8.94	-54.5	-57.2	13.3	0.00e+00	0	27	0	126877696	75	4855
2026-01-07 00:43:29.81	24.86	9.03	-54.5	-57.2	13.4	0.00e+00	0	27	0	127926272	75	4863
2026-01-07 00:43:30.80	24.86	9.11	-54.4	-57.1	13.4	0.00e+00	0	27	0	130023424	75	4769
2026-01-07 00:43:31.80	24.86	9.19	-54.4	-57.1	13.5	0.00e+00	0	27	0	132120576	75	4762
2026-01-07 00:43:32.80	24.86	9.28	-54.4	-57.1	13.4	0.00e+00	0	27	0	134217728	75	4800
2026-01-07 00:43:33.80	24.87	9.36	-54.4	-57.0	13.5	0.00e+00	0	27	0	136314880	75	4755
2026-01-07 00:43:34.80	24.87	9.45	-54.4	-57.0	13.5	0.00e+00	0	27	0	137363456	75	4744
2026-01-07 00:43:35.79	24.87	9.53	-54.3	-57.0	13.5	0.00e+00	0	27	0	139460608	75	4724
2026-01-07 00:43:36.79	24.88	9.61	-54.3	-56.9	13.5	0.00e+00	0	27	0	141557760	75	4691
2026-01-07 00:43:37.78	24.88	9.70	-54.2	-56.8	13.6	0.00e+00	0	27	0	143654912	75	4626
2026-01-07 00:43:38.78	24.88	9.78	-54.3	-57.0	13.5	0.00e+00	0	27	0	144703488	75	4714
2026-01-07 00:43:39.78	24.88	9.87	-54.2	-56.8	13.7	0.00e+00	0	27	0	146800640	75	4599
2026-01-07 00:43:40.77	24.89	9.96	-54.3	-56.9	13.5	0.00e+00	0	27	0	148897792	75	4695
2026-01-07 00:43:41.77	24.89	10.04	-54.1	-56.6	13.6	0.00e+00	0	27	0	150994944	74	4789
2026-01-07 00:43:42.77	24.89	10.13	-54.2	-56.7	13.6	0.00e+00	0	27	0	153092096	74	4854
2026-01-07 00:43:43.77	24.89	10.22	-54.1	-56.7	13.6	0.00e+00	0	27	0	154140672	74	4820
2026-01-07 00:43:44.77	24.90	10.30	-54.1	-56.7	13.6	0.00e+00	0	27	0	156237824	74	4826
2026-01-07 00:43:45.77	24.90	10.39	-54.1	-56.6	13.6	0.00e+00	0	27	0	158334976	74	4779
2026-01-07 00:43:46.77	24.90	10.48	-54.1	-56.6	13.6	0.00e+00	0	27	0	160432128	74	4779
2026-01-07 00:43:47.78	24.90	10.57	-54.0	-56.5	13.7	0.00e+00	0	27	0	162529280	74	4730
2026-01-07 00:43:48.78	24.91	10.66	-54.0	-56.4	13.7	0.00e+00	0	27	0	163577856	74	4691
2026-01-07 00:43:49.77	24.91	10.75	-54.0	-56.5	13.7	0.00e+00	0	27	0	165675008	74	4721
2026-01-07 00:43:50.77	24.91	10.84	-54.0	-56.4	13.8	0.00e+00	0	27	0	167772160	74	4678
2026-01-07 00:43:51.77	24.91	10.92	-54.0	-56.4	13.8	0.00e+00	0	27	0	169869312	74	4685
2026-01-07 00:43:52.77	24.92	11.02	-54.0	-56.5	13.7	0.00e+00	0	27	0	170917888	74	4731
2026-01-07 00:43:53.77	24.92	11.11	-53.9	-56.3	13.8	0.00e+00	0	27	0	173015040	74	4621
2026-01-07 00:43:54.77	24.92	11.20	-53.9	-56.3	13.8	0.00e+00	0	27	0	175112192	74	4619
2026-01-07 00:43:55.77	24.92	11.29	-54.0	-56.4	13.8	0.00e+00	0	27	0	177209344	74	4699
2026-01-07 00:43:56.77	24.93	11.38	-54.0	-56.4	13.8	0.00e+00	0	27	0	179306496	74	4684
2026-01-07 00:43:57.77	24.93	11.47	-54.0	-56.4	13.8	0.00e+00	0	27	0	180355072	74	4664
2026-01-07 00:43:58.76	24.93	11.56	-54.0	-56.4	13.8	0.00e+00	0	27	0	182452224	74	4664
2026-01-07 00:43:59.75	24.93	11.65	-54.1	-56.5	13.7	0.00e+00	0	27	0	184549376	74	4756
2026-01-07 00:44:00.75	24.94	11.75	-53.9	-56.3	13.8	0.00e+00	0	27	0	186646528	74	4631
2026-01-07 00:44:01.74	24.94	11.84	-54.1	-56.5	13.7	0.00e+00	0	27	0	187695104	74	4721
2026-01-07 00:44:02.73	24.94	11.93	-54.0	-56.4	13.8	0.00e+00	0	27	0	189792256	74	4681
2026-01-07 00:44:03.73	24.94	12.02	-53.9	-56.3	13.8	0.00e+00	0	27	0	191889408	74	4624
2026-01-07 00:44:04.74	24.95	12.12	-54.1	-56.5	13.7	0.00e+00	0	27	0	193986560	74	4716
2026-01-07 00:44:05.74	24.95	12.21	-53.9	-56.2	13.9	0.00e+00	0	27	0	196083712	74	4583
2026-01-07 00:44:06.74	24.95	12.31	-53.9	-56.2	13.9	0.00e+00	0	27	0	197132288	74	4580
2026-01-07 00:44:07.74	24.95	12.40	-54.0	-56.3	13.8	0.00e+00	0	27	0	199229440	74	4629
2026-01-07 00:44:08.74	24.96	12.50	-53.9	-56.3	13.9	0.00e+00	0	27	0	201326592	74	4612
2026-01-07 00:44:09.73	24.96	12.59	-53.8	-56.1	13.9	0.00e+00	0	27	0	203423744	74	4530
2026-01-07 00:44:10.73	24.96	12.69	-53.8	-56.1	14.0	0.00e+00	0	27	0	205520896	74	4512
2026-01-07 00:44:11.72	24.96	12.79	-53.8	-56.1	14.0	0.00e+00	0	27	0	206569472	74	4524
2026-01-07 00:44:12.72	24.96	12.88	-53.8	-56.0	14.0	0.00e+00	0	27	0	208666624	74	4481
2026-01-07 00:44:13.72	24.97	12.98	-53.7	-55.9	14.1	0.00e+00	0	27	0	210763776	74	4427
2026-01-07 00:44:14.72	24.97	13.08	-53.7	-56.0	13.9	0.00e+00	0	27	0	212860928	73	4707
2026-01-07 00:44:15.71	24.97	13.18	-53.7	-55.9	14.0	0.00e+00	0	27	0	214958080	73	4680
2026-01-07 00:44:16.71	24.97	13.28	-53.6	-55.9	14.0	0.00e+00	0	27	0	216006656	73	4654
2026-01-07 00:44:17.71	24.98	13.38	-53.6	-55.8	14.0	0.00e+00	0	27	0	218103808	73	4620
2026-01-07 00:44:18.71	24.98	13.47	-53.6	-55.9	14.0	0.00e+00	0	27	0	220200960	73	4663
2026-01-07 00:44:19.71	24.98	13.57	-53.6	-55.9	14.0	0.00e+00	0	27	0	222298112	73	4655
2026-01-07 00:44:20.71	24.98	13.68	-53.6	-55.8	14.0	0.00e+00	0	27	0	223346688	73	4637
2026-01-07 00:44:21.70	24.98	13.77	-53.7	-55.9	13.9	0.00e+00	0	27	0	225443840	73	4699
2026-01-07 00:44:22.70	24.99	13.88	-53.6	-55.7	14.1	0.00e+00	0	27	0	227540992	73	4591
2026-01-07 00:44:23.70	24.99	13.98	-53.5	-55.7	14.1	0.00e+00	0	27	0	229638144	73	4582
2026-01-07 00:44:24.70	24.99	14.08	-53.5	-55.7	14.1	0.00e+00	0	27	0	231735296	73	4570
2026-01-07 00:44:25.70	24.99	14.18	-53.5	-55.6	14.1	0.00e+00	0	27	0	232783872	73	4544
2026-01-07 00:44:26.69	24.99	14.28	-53.4	-55.6	14.2	0.00e+00	0	27	0	234881024	73	4496
2026-01-07 00:44:27.69	25.00	14.39	-53.5	-55.7	14.1	0.00e+00	0	27	0	236978176	73	4560
2026-01-07 00:44:28.70	25.00	14.49	-53.5	-55.7	14.1	0.00e+00	0	27	0	239075328	73	4558
2026-01-07 00:44:29.69	25.00	14.60	-53.4	-55.5	14.2	0.00e+00	0	27	0	240123904	73	4452
2026-01-07 00:44:30.69	25.00	14.70	-53.4	-55.5	14.2	0.00e+00	0	27	0	242221056	73	4456
2026-01-07 00:44:31.69	25.00	14.81	-53.4	-55.5	14.2	0.00e+00	0	27	0	244318208	73	4468
2026-01-07 00:44:32.69	25.01	14.91	-53.3	-55.4	14.2	0.00e+00	0	27	0	246415360	73	4434
2026-01-07 00:44:33.69	25.01	15.02	-53.3	-55.3	14.3	0.00e+00	0	27	0	248512512	73	4362
2026-01-07 00:44:34.68	25.01	15.12	-53.2	-55.3	14.3	0.00e+00	0	27	0	249561088	73	4358
2026-01-07 00:44:35.67	25.01	15.23	-53.2	-55.2	14.3	0.00e+00	0	27	0	251658240	73	4332
2026-01-07 00:44:36.68	25.01	15.34	-53.2	-55.3	14.2	0.00e+00	0	27	0	253755392	72	4616
2026-01-07 00:44:37.67	25.02	15.44	-53.2	-55.2	14.2	0.00e+00	0	27	0	255852544	72	4564
2026-01-07 00:44:38.66	25.02	15.55	-53.2	-55.3	14.2	0.00e+00	0	27	0	257949696	72	4600
2026-01-07 00:44:39.66	25.02	15.66	-53.3	-55.4	14.1	0.00e+00	0	27	0	258998272	72	4662
2026-01-07 00:44:40.65	25.02	15.77	-53.1	-55.1	14.3	0.00e+00	0	27	0	261095424	72	4535
2026-01-07 00:44:41.65	25.02	15.88	-53.1	-55.1	14.3	0.00e+00	0	27	0	263192576	72	4531
2026-01-07 00:44:42.64	25.03	15.99	-53.2	-55.2	14.2	0.00e+00	0	27	0	265289728	72	4570
2026-01-07 00:44:43.64	25.03	16.10	-53.2	-55.2	14.2	0.00e+00	0	27	0	266338304	72	4566
2026-01-07 00:44:44.63	25.03	16.21	-53.0	-54.9	14.3	0.00e+00	0	27	0	268435456	72	4427
2026-01-07 00:44:45.63	25.03	16.32	-53.0	-55.0	14.3	0.00e+00	0	27	0	270532608	72	4470
2026-01-07 00:44:46.63	25.03	16.43	-53.0	-54.9	14.3	0.00e+00	0	27	0	272629760	72	4425
2026-01-07 00:44:47.63	25.03	16.55	-53.0	-54.9	14.4	0.00e+00	0	27	0	274726912	72	4420
2026-01-07 00:44:48.64	25.04	16.66	-52.9	-54.8	14.4	0.00e+00	0	27	0	275775488	72	4360
2026-01-07 00:44:49.63	25.04	16.77	-52.9	-54.8	14.4	0.00e+00	0	27	0	277872640	72	4353
2026-01-07 00:44:50.63	25.04	16.89	-52.8	-54.7	14.5	0.00e+00	0	27	0	279969792	72	4337
2026-01-07 00:44:51.63	25.04	17.00	-52.8	-54.7	14.4	0.00e+00	0	27	0	282066944	72	4339
2026-01-07 00:44:52.63	25.04	17.12	-52.9	-54.8	14.4	0.00e+00	0	27	0	283115520	72	4350
2026-01-07 00:44:53.63	25.04	17.24	-52.9	-54.8	14.4	0.00e+00	0	27	0	285212672	72	4357
2026-01-07 00:44:54.63	25.05	17.35	-52.8	-54.6	14.5	0.00e+00	0	27	0	287309824	72	4282
2026-01-07 00:44:55.63	25.05	17.47	-52.7	-54.6	14.5	0.00e+00	0	27	0	289406976	72	4274
2026-01-07 00:44:56.62	25.05	17.59	-52.8	-54.6	14.5	0.00e+00	0	27	0	291504128	72	4286
2026-01-07 00:44:57.62	25.05	17.70	-52.7	-54.5	14.5	0.00e+00	0	27	0	292552704	72	4235
2026-01-07 00:44:58.61	25.05	17.82	-52.6	-54.5	14.5	0.00e+00	0	27	0	294649856	71	4455
2026-01-07 00:44:59.61	25.05	17.94	-52.7	-54.6	14.4	0.00e+00	0	27	0	296747008	71	4513
2026-01-07 00:45:00.61	25.05	18.06	-52.7	-54.6	14.4	0.00e+00	0	27	0	298844160	71	4502
2026-01-07 00:45:01.61	25.06	18.18	-52.6	-54.4	14.5	0.00e+00	0	27	0	300941312	71	4422
2026-01-07 00:45:02.61	25.06	18.30	-52.6	-54.4	14.5	0.00e+00	0	27	0	301989888	71	4426
2026-01-07 00:45:03.61	25.06	18.43	-52.5	-54.3	14.5	0.00e+00	0	27	0	304087040	71	4384
2026-01-07 00:45:04.61	25.06	18.55	-52.5	-54.3	14.5	0.00e+00	0	27	0	306184192	71	4379
2026-01-07 00:45:05.61	25.06	18.67	-52.5	-54.3	14.5	0.00e+00	0	27	0	308281344	71	4377
2026-01-07 00:45:06.61	25.06	18.80	-52.5	-54.3	14.5	0.00e+00	0	27	0	310378496	71	4369
2026-01-07 00:45:07.61	25.06	18.92	-52.5	-54.4	14.5	0.00e+00	0	27	0	311427072	71	4392
2026-01-07 00:45:08.60	25.07	19.04	-52.5	-54.3	14.5	0.00e+00	0	27	0	313524224	71	4378
2026-01-07 00:45:09.61	25.07	19.17	-52.4	-54.2	14.6	0.00e+00	0	27	0	315621376	71	4331
2026-01-07 00:45:10.61	25.07	19.30	-52.4	-54.2	14.6	0.00e+00	0	27	0	317718528	71	4317
2026-01-07 00:45:11.61	25.07	19.42	-52.5	-54.3	14.6	0.00e+00	0	27	0	318767104	71	4345
2026-01-07 00:45:12.61	25.07	19.55	-52.4	-54.1	14.6	0.00e+00	0	27	0	320864256	71	4287
2026-01-07 00:45:13.60	25.07	19.68	-52.4	-54.2	14.6	0.00e+00	0	27	0	322961408	71	4327
2026-01-07 00:45:14.59	25.07	19.81	-52.4	-54.2	14.6	0.00e+00	0	27	0	325058560	71	4315
2026-01-07 00:45:15.58	25.07	19.93	-52.4	-54.2	14.6	0.00e+00	0	27	0	327155712	71	4304
2026-01-07 00:45:16.57	25.07	20.06	-52.4	-54.2	14.6	0.00e+00	0	27	0	328204288	71	4309
2026-01-07 00:45:17.58	25.08	20.20	-52.5	-54.3	14.6	0.00e+00	0	27	0	330301440	71	4351
2026-01-07 00:45:18.58	25.08	20.33	-52.4	-54.2	14.6	0.00e+00	0	27	0	332398592	71	4295
2026-01-07 00:45:19.58	25.08	20.46	-52.4	-54.2	14.6	0.00e+00	0	27	0	334495744	71	4292
2026-01-07 00:45:20.58	25.08	20.59	-52.5	-54.3	14.6	0.00e+00	0	27	0	335544320	71	4356
2026-01-07 00:45:21.58	25.08	20.73	-52.4	-54.2	14.6	0.00e+00	0	27	0	337641472	71	4328
2026-01-07 00:45:22.58	25.08	20.86	-52.4	-54.1	14.6	0.00e+00	0	27	0	339738624	71	4290
2026-01-07 00:45:23.58	25.08	21.00	-52.3	-54.1	14.6	0.00e+00	0	27	0	341835776	71	4263
2026-01-07 00:45:24.58	25.08	21.13	-52.4	-54.2	14.6	0.00e+00	0	27	0	343932928	71	4314
2026-01-07 00:45:25.57	25.08	21.27	-52.3	-54.1	14.7	0.00e+00	0	27	0	344981504	71	4257
2026-01-07 00:45:26.57	25.08	21.41	-52.3	-54.1	14.6	0.00e+00	0	27	0	347078656	71	4266
2026-01-07 00:45:27.57	25.08	21.54	-52.3	-54.1	14.6	0.00e+00	0	27	0	349175808	71	4262
2026-01-07 00:45:28.57	25.08	21.68	-52.4	-54.2	14.6	0.00e+00	0	27	0	351272960	71	4308
2026-01-07 00:45:29.57	25.09	21.82	-52.4	-54.2	14.6	0.00e+00	0	27	0	353370112	71	4301
2026-01-07 00:45:30.58	25.09	21.96	-52.4	-54.1	14.6	0.00e+00	0	27	0	354418688	71	4278
2026-01-07 00:45:31.58	25.09	22.11	-52.5	-54.2	14.6	0.00e+00	0	27	0	356515840	71	4335
2026-01-07 00:45:32.57	25.09	22.25	-52.3	-54.1	14.7	0.00e+00	0	27	0	358612992	71	4257
2026-01-07 00:45:33.57	25.09	22.39	-52.3	-54.0	14.7	0.00e+00	0	27	0	360710144	71	4222
2026-01-07 00:45:34.57	25.09	22.53	-52.2	-54.0	14.6	0.00e+00	0	27	0	362807296	70	4449
2026-01-07 00:45:35.58	25.09	22.68	-52.2	-54.0	14.6	0.00e+00	0	27	0	363855872	70	4457
2026-01-07 00:45:36.57	25.09	22.82	-52.3	-54.0	14.6	0.00e+00	0	27	0	365953024	70	4472
2026-01-07 00:45:37.57	25.09	22.97	-52.4	-54.2	14.5	0.00e+00	0	27	0	368050176	70	4547
2026-01-07 00:45:38.57	25.09	23.12	-52.5	-54.3	14.5	0.00e+00	0	27	0	370147328	70	4605
2026-01-07 00:45:39.56	25.09	23.26	-52.4	-54.1	14.5	0.00e+00	0	27	0	371195904	70	4523
2026-01-07 00:45:40.56	25.09	23.41	-52.3	-54.0	14.6	0.00e+00	0	27	0	373293056	70	4474
2026-01-07 00:45:41.56	25.09	23.56	-52.3	-54.0	14.6	0.00e+00	0	27	0	375390208	70	4463
2026-01-07 00:45:42.56	25.09	23.71	-52.4	-54.1	14.5	0.00e+00	0	27	0	377487360	70	4537
2026-01-07 00:45:43.56	25.09	23.86	-52.3	-54.0	14.6	0.00e+00	0	27	0	379584512	70	4493
2026-01-07 00:45:44.57	25.09	24.02	-52.3	-54.0	14.5	0.00e+00	0	27	0	380633088	70	4477
2026-01-07 00:45:45.57	25.09	24.17	-52.4	-54.2	14.5	0.00e+00	0	27	0	382730240	70	4550
2026-01-07 00:45:46.57	25.09	24.32	-52.4	-54.2	14.5	0.00e+00	0	27	0	384827392	70	4550
2026-01-07 00:45:47.57	25.09	24.48	-52.3	-54.1	14.5	0.00e+00	0	27	0	386924544	70	4520
2026-01-07 00:45:48.57	25.09	24.63	-52.4	-54.2	14.5	0.00e+00	0	27	0	389021696	70	4554
2026-01-07 00:45:49.57	25.09	24.79	-52.4	-54.2	14.5	0.00e+00	0	27	0	390070272	70	4569
2026-01-07 00:45:50.58	25.09	24.95	-52.5	-54.3	14.4	0.00e+00	0	27	0	392167424	70	4630
2026-01-07 00:45:51.58	25.09	25.11	-52.5	-54.3	14.4	0.00e+00	0	27	0	394264576	70	4635
2026-01-07 00:45:52.58	25.09	25.27	-52.5	-54.3	14.4	0.00e+00	0	27	0	396361728	70	4642
2026-01-07 00:45:53.57	25.09	25.43	-52.7	-54.5	14.4	0.00e+00	0	27	0	397410304	70	4723
2026-01-07 00:45:54.57	25.09	25.59	-52.7	-54.6	14.4	0.00e+00	0	27	0	399507456	70	4770
2026-01-07 00:45:55.57	25.09	25.75	-52.8	-54.6	14.3	0.00e+00	0	27	0	401604608	70	4797
2026-01-07 00:45:56.57	25.09	25.91	-52.8	-54.6	14.3	0.00e+00	0	27	0	403701760	70	4798
2026-01-07 00:45:57.57	25.09	26.08	-52.9	-54.8	14.4	0.00e+00	0	27	0	405798912	71	4629
2026-01-07 00:45:58.56	25.09	26.24	-53.0	-54.9	14.3	0.00e+00	0	27	0	406847488	71	4692
2026-01-07 00:45:59.56	25.09	26.41	-53.1	-55.0	14.3	0.00e+00	0	27	0	408944640	71	4735
2026-01-07 00:46:00.56	25.09	26.58	-53.1	-55.1	14.2	0.00e+00	0	27	0	411041792	71	4769
2026-01-07 00:46:01.56	25.09	26.74	-53.2	-55.2	14.2	0.00e+00	0	27	0	413138944	71	4830
2026-01-07 00:46:02.56	25.09	26.91	-53.3	-55.3	14.1	0.00e+00	0	27	0	415236096	71	4886
2026-01-07 00:46:03.56	25.09	27.09	-53.5	-55.5	14.2	0.00e+00	0	27	0	416284672	72	4720
2026-01-07 00:46:04.55	25.08	27.26	-53.5	-55.6	14.1	0.00e+00	0	27	0	418381824	72	4776
2026-01-07 00:46:05.54	25.08	27.43	-53.7	-55.8	14.0	0.00e+00	0	27	0	420478976	72	4916
2026-01-07 00:46:06.54	25.08	27.60	-53.8	-56.0	13.9	0.00e+00	0	27	0	422576128	72	5015
2026-01-07 00:46:07.54	25.08	27.78	-53.9	-56.1	13.9	0.00e+00	0	27	0	423624704	72	5086
2026-01-07 00:46:08.53	25.08	27.95	-54.2	-56.5	13.8	0.00e+00	0	27	0	425721856	73	5012
2026-01-07 00:46:09.54	25.08	28.13	-54.3	-56.6	13.7	0.00e+00	0	27	0	427819008	73	5081
2026-01-07 00:46:10.54	25.08	28.31	-54.5	-56.8	13.7	0.00e+00	0	27	0	429916160	74	4920
2026-01-07 00:46:11.55	25.08	28.49	-54.7	-57.2	13.5	0.00e+00	0	27	0	432013312	74	5125
2026-01-07 00:46:12.53	25.08	28.67	-54.8	-57.4	13.4	0.00e+00	0	27	0	433061888	74	5251
2026-01-07 00:46:13.53	25.08	28.85	-55.0	-57.7	13.4	0.00e+00	0	27	0	435159040	75	5125
2026-01-07 00:46:14.53	25.07	29.03	-55.2	-57.9	13.2	0.00e+00	0	27	0	437256192	75	5233
2026-01-07 00:46:15.54	25.07	29.22	-55.2	-57.9	13.3	0.00e+00	0	27	0	439353344	75	5255
2026-01-07 00:46:16.53	25.07	29.40	-55.3	-58.1	13.1	0.00e+00	0	27	0	441450496	75	5393
2026-01-07 00:46:17.54	25.07	29.59	-55.3	-58.1	13.1	0.00e+00	0	27	0	442499072	75	5358
2026-01-07 00:46:18.53	25.07	29.78	-55.5	-58.3	13.2	0.00e+00	0	27	0	444596224	76	5199
2026-01-07 00:46:19.54	25.07	29.97	-55.6	-58.5	13.0	0.00e+00	0	27	0	446693376	76	5283
2026-01-07 00:46:20.54	25.06	30.16	-55.6	-58.4	13.1	0.00e+00	0	27	0	448790528	76	5266
2026-01-07 00:46:21.54	25.06	30.35	-55.6	-58.4	13.1	0.00e+00	0	27	0	450887680	76	5276
2026-01-07 00:46:22.53	25.06	30.54	-55.5	-58.3	13.1	0.00e+00	0	27	0	451936256	76	5216
2026-01-07 00:46:23.53	25.06	30.74	-55.5	-58.3	13.1	0.00e+00	0	27	0	454033408	76	5196
2026-01-07 00:46:24.54	25.06	30.93	-55.5	-58.3	13.2	0.00e+00	0	27	0	456130560	76	5186
2026-01-07 00:46:25.53	25.06	31.13	-55.4	-58.1	13.3	0.00e+00	0	27	0	458227712	76	5063
2026-01-07 00:46:26.53	25.05	31.33	-55.4	-58.2	13.2	0.00e+00	0	27	0	459276288	76	5105
2026-01-07 00:46:27.52	25.05	31.53	-55.4	-58.1	13.3	0.00e+00	0	27	0	461373440	76	5084
2026-01-07 00:46:28.53	25.05	31.73	-55.3	-57.9	13.3	0.00e+00	0	27	0	463470592	76	4976
2026-01-07 00:46:29.53	25.05	31.93	-55.2	-57.8	13.4	0.00e+00	0	27	0	465567744	76	4923
2026-01-07 00:46:30.53	25.04	32.14	-55.1	-57.7	13.5	0.00e+00	0	27	0	467664896	76	4844
2026-01-07 00:46:31.53	25.04	32.34	-55.1	-57.7	13.5	0.00e+00	0	27	0	468713472	76	4860
2026-01-07 00:46:32.53	25.04	32.55	-55.2	-57.9	13.4	0.00e+00	0	27	0	470810624	76	4945
2026-01-07 00:46:33.52	25.04	32.75	-55.0	-57.5	13.6	0.00e+00	0	27	0	472907776	76	4752
2026-01-07 00:46:34.52	25.03	32.96	-54.8	-57.2	13.8	0.00e+00	0	27	0	475004928	76	4562
2026-01-07 00:46:35.52	25.03	33.17	-54.5	-56.8	13.9	0.00e+00	0	27	0	476053504	75	4645
2026-01-07 00:46:36.52	25.03	33.39	-54.3	-56.6	14.0	0.00e+00	0	27	0	478150656	75	4525
2026-01-07 00:46:37.52	25.02	33.60	-54.0	-56.2	14.1	0.00e+00	0	27	0	480247808	74	4557
2026-01-07 00:46:38.52	25.02	33.82	-53.7	-55.8	14.3	0.00e+00	0	27	0	482344960	74	4355
2026-01-07 00:46:39.52	25.02	34.03	-53.5	-55.5	14.3	0.00e+00	0	27	0	484442112	73	4484
2026-01-07 00:46:40.52	25.01	34.25	-53.4	-55.3	14.4	0.00e+00	0	27	0	485490688	73	4375
2026-01-07 00:46:41.52	25.01	34.47	-53.4	-55.3	14.4	0.00e+00	0	27	0	487587840	73	4363
2026-01-07 00:46:42.52	25.01	34.70	-53.4	-55.4	14.4	0.00e+00	0	27	0	489684992	73	4407
2026-01-07 00:46:43.52	25.00	34.92	-52.8	-54.6	14.6	0.00e+00	0	27	0	491782144	72	4250
2026-01-07 00:46:44.50	25.00	35.14	-52.3	-54.0	14.7	0.00e+00	0	27	0	493879296	71	4218
2026-01-07 00:46:45.51	25.00	35.37	-52.1	-53.7	14.7	0.00e+00	0	27	0	494927872	70	4330
2026-01-07 00:46:46.51	24.99	35.60	-52.0	-53.6	14.8	0.00e+00	0	27	0	497025024	70	4264
2026-01-07 00:46:47.51	24.99	35.83	-52.1	-53.7	14.7	0.00e+00	0	27	0	499122176	70	4312
2026-01-07 00:46:48.51	24.98	36.06	-52.0	-53.6	14.8	0.00e+00	0	27	0	501219328	70	4262
2026-01-07 00:46:49.51	24.98	36.29	-51.9	-53.5	14.8	0.00e+00	0	27	0	503316480	70	4196
2026-01-07 00:46:50.51	24.97	36.53	-51.9	-53.5	14.8	0.00e+00	0	27	0	504365056	70	4223
2026-01-07 00:46:51.51	24.97	36.76	-51.9	-53.5	14.8	0.00e+00	0	27	0	506462208	70	4208
2026-01-07 00:46:52.50	24.96	37.00	-51.9	-53.6	14.8	0.00e+00	0	27	0	508559360	70	4243
2026-01-07 00:46:53.51	24.96	37.24	-51.9	-53.5	14.8	0.00e+00	0	27	0	510656512	70	4227
2026-01-07 00:46:54.51	24.95	37.48	-51.9	-53.5	14.8	0.00e+00	0	27	0	511705088	70	4226
2026-01-07 00:46:55.51	24.95	37.73	-51.8	-53.3	14.9	0.00e+00	0	27	0	513802240	70	4143
2026-01-07 00:46:56.51	24.94	37.97	-51.8	-53.4	14.9	0.00e+00	0	27	0	515899392	70	4177
2026-01-07 00:46:57.51	24.94	38.22	-52.0	-53.6	14.8	0.00e+00	0	27	0	517996544	70	4257
2026-01-07 00:46:58.52	24.93	38.47	-52.0	-53.6	14.8	0.00e+00	0	28	0	520093696	70	4287
2026-01-07 00:46:59.51	24.93	38.72	-51.8	-53.4	14.8	0.00e+00	0	27	0	521142272	70	4178
2026-01-07 00:47:00.51	24.92	38.97	-51.8	-53.4	14.9	0.00e+00	0	27	0	523239424	70	4174
2026-01-07 00:47:01.51	24.92	39.23	-51.9	-53.5	14.8	0.00e+00	0	27	0	525336576	70	4210
2026-01-07 00:47:02.50	24.91	39.48	-51.8	-53.4	14.8	0.00e+00	0	27	0	527433728	70	4190
2026-01-07 00:47:03.50	24.90	39.74	-51.8	-53.4	14.9	0.00e+00	0	27	0	529530880	70	4148
2026-01-07 00:47:04.50	24.90	40.00	-51.6	-53.1	14.8	0.00e+00	0	27	0	530579456	69	4289
2026-01-07 00:47:05.50	24.89	40.26	-51.5	-53.0	14.9	0.00e+00	0	27	0	532676608	69	4230
2026-01-07 00:47:06.50	24.88	40.53	-51.4	-52.9	14.9	0.00e+00	0	27	0	534773760	69	4169
2026-01-07 00:47:07.51	24.88	40.80	-51.3	-52.8	15.0	0.00e+00	0	27	0	536870912	69	4125
2026-01-07 00:47:08.50	24.87	41.06	-51.5	-53.0	14.9	0.00e+00	0	27	0	538968064	69	4205
2026-01-07 00:47:09.50	24.86	41.33	-51.6	-53.1	14.9	0.00e+00	0	27	0	540016640	69	4275
2026-01-07 00:47:10.50	24.85	41.61	-51.4	-52.9	14.9	0.00e+00	0	27	0	542113792	69	4154
2026-01-07 00:47:11.50	24.85	41.88	-51.5	-53.0	14.9	0.00e+00	0	27	0	544210944	69	4219
2026-01-07 00:47:12.49	24.84	42.15	-51.5	-53.0	14.9	0.00e+00	0	27	0	546308096	69	4225
2026-01-07 00:47:13.50	24.83	42.44	-51.4	-53.0	14.9	0.00e+00	0	27	0	547356672	69	4199
2026-01-07 00:47:14.50	24.82	42.72	-51.4	-52.9	14.9	0.00e+00	0	27	0	549453824	69	4190
2026-01-07 00:47:15.51	24.81	43.00	-51.6	-53.1	14.9	0.00e+00	0	27	0	551550976	69	4272
2026-01-07 00:47:16.51	24.80	43.29	-51.6	-53.1	14.9	0.00e+00	0	27	0	553648128	69	4273
2026-01-07 00:47:17.52	24.79	43.58	-51.9	-53.5	14.7	0.00e+00	0	27	0	555745280	69	4449
2026-01-07 00:47:18.52	24.78	43.87	-52.3	-53.9	14.5	0.00e+00	0	27	0	556793856	69	4702
2026-01-07 00:47:19.53	24.77	44.16	-52.8	-54.6	14.4	0.00e+00	0	27	0	558891008	70	4812
2026-01-07 00:47:20.52	24.76	44.45	-53.6	-55.6	14.2	0.00e+00	0	27	0	560988160	72	4784
2026-01-07 00:47:21.53	24.75	44.75	-54.1	-56.2	14.0	0.00e+00	0	28	0	563085312	73	4860
2026-01-07 00:47:22.53	24.74	45.05	-54.4	-56.6	13.8	0.00e+00	0	27	0	565182464	73	5098
2026-01-07 00:47:23.53	24.73	45.35	-54.5	-56.8	13.8	0.00e+00	0	27	0	566231040	74	4912
2026-01-07 00:47:24.53	24.72	45.65	-54.6	-56.9	13.7	0.00e+00	0	27	0	568328192	74	4979
2026-01-07 00:47:25.53	24.71	45.96	-54.5	-56.9	13.7	0.00e+00	0	27	0	570425344	74	4931
2026-01-07 00:47:26.54	24.70	46.27	-54.3	-56.5	14.0	0.00e+00	0	27	0	572522496	74	4747
2026-01-07 00:47:27.54	24.69	46.58	-54.3	-56.4	14.0	0.00e+00	0	27	0	573571072	74	4694
2026-01-07 00:47:28.54	24.68	46.89	-54.0	-56.0	14.2	0.00e+00	0	27	0	575668224	74	4491
2026-01-07 00:47:29.54	24.66	47.20	-53.9	-56.0	14.2	0.00e+00	0	28	0	577765376	74	4449
2026-01-07 00:47:30.54	24.65	47.52	-54.1	-56.2	14.1	0.00e+00	0	28	0	579862528	74	4591
2026-01-07 00:47:31.53	24.64	47.84	-54.2	-56.3	14.0	0.00e+00	0	27	0	581959680	74	4633
2026-01-07 00:47:32.54	24.62	48.16	-54.0	-56.1	14.2	0.00e+00	0	27	0	583008256	74	4506
2026-01-07 00:47:33.54	24.61	48.48	-54.2	-56.3	14.0	0.00e+00	0	27	0	585105408	74	4635
2026-01-07 00:47:34.54	24.60	48.81	-54.2	-56.4	14.0	0.00e+00	0	27	0	587202560	74	4667
2026-01-07 00:47:35.55	24.58	49.14	-54.3	-56.5	14.0	0.00e+00	0	27	0	589299712	74	4754
2026-01-07 00:47:36.55	24.57	49.47	-54.2	-56.4	14.1	0.00e+00	0	27	0	591396864	74	4658
2026-01-07 00:47:37.56	24.55	49.81	-54.1	-56.2	14.1	0.00e+00	0	27	0	592445440	74	4568
2026-01-07 00:47:38.56	24.53	50.15	-54.0	-56.1	14.1	0.00e+00	0	27	0	594542592	74	4527
2026-01-07 00:47:39.57	24.52	50.49	-53.8	-55.8	14.3	0.00e+00	0	27	0	596639744	74	4391
2026-01-07 00:47:40.57	24.50	50.83	-53.8	-55.9	14.3	0.00e+00	0	28	0	598736896	74	4402
2026-01-07 00:47:41.56	24.48	51.17	-53.1	-54.9	14.5	0.00e+00	0	27	0	600834048	72	4425
2026-01-07 00:47:42.56	24.46	51.52	-52.4	-54.1	14.7	0.00e+00	0	27	0	601882624	71	4251
2026-01-07 00:47:43.57	24.45	51.87	-52.1	-53.7	14.8	0.00e+00	0	27	0	603979776	70	4293
2026-01-07 00:47:44.57	24.43	52.22	-51.9	-53.5	14.9	0.00e+00	0	27	0	606076928	70	4194
2026-01-07 00:47:45.57	24.41	52.57	-51.6	-53.2	14.9	0.00e+00	0	27	0	608174080	69	4306
2026-01-07 00:47:46.57	24.39	52.93	-51.5	-53.0	14.9	0.00e+00	0	27	0	610271232	69	4218
2026-01-07 00:47:47.57	24.37	53.29	-51.2	-52.7	15.0	0.00e+00	0	27	0	611319808	69	4061
2026-01-07 00:47:48.58	24.35	53.65	-50.9	-52.3	15.0	0.00e+00	0	27	0	613416960	68	4119
2026-01-07 00:47:49.59	24.32	54.02	-50.3	-51.7	15.1	0.00e+00	0	27	0	615514112	67	4065
2026-01-07 00:47:50.59	24.30	54.39	-50.1	-51.4	15.1	0.00e+00	0	27	0	617611264	66	4172
2026-01-07 00:47:51.60	24.28	54.76	-50.4	-51.8	15.0	0.00e+00	0	27	0	619708416	66	4343
2026-01-07 00:47:52.60	24.25	55.13	-51.0	-52.4	14.8	0.00e+00	0	27	0	620756992	67	4423
2026-01-07 00:47:53.61	24.23	55.51	-52.0	-53.5	14.7	0.00e+00	0	27	0	622854144	69	4490
2026-01-07 00:47:54.61	24.20	55.89	-52.7	-54.4	14.5	0.00e+00	0	27	0	624951296	70	4684
2026-01-07 00:47:55.62	24.18	56.27	-53.1	-55.0	14.4	0.00e+00	0	27	0	627048448	71	4726
2026-01-07 00:47:56.61	24.15	56.65	-54.1	-56.2	14.0	0.00e+00	0	27	0	629145600	73	4842
2026-01-07 00:47:57.62	24.12	57.04	-54.6	-56.9	13.8	0.00e+00	0	27	0	630194176	74	4965
2026-01-07 00:47:58.62	24.09	57.43	-54.4	-56.6	13.9	0.00e+00	0	27	0	632291328	74	4779
2026-01-07 00:47:59.62	24.06	57.82	-54.0	-56.1	14.2	0.00e+00	0	28	0	634388480	74	4517
2026-01-07 00:48:00.62	24.03	58.21	-53.5	-55.4	14.4	0.00e+00	0	27	0	636485632	73	4437
2026-01-07 00:48:01.62	24.00	58.61	-53.3	-55.1	14.5	0.00e+00	0	27	0	637534208	73	4288
2026-01-07 00:48:02.62	23.97	59.01	-53.2	-55.1	14.4	0.00e+00	0	27	0	639631360	72	4513
2026-01-07 00:48:03.62	23.93	59.41	-53.1	-54.9	14.5	0.00e+00	0	27	0	641728512	72	4392
2026-01-07 00:48:04.63	23.90	59.82	-52.8	-54.5	14.7	0.00e+00	0	27	0	643825664	72	4234
2026-01-07 00:48:05.63	23.86	60.22	-52.5	-54.1	14.7	0.00e+00	0	27	0	645922816	71	4280
2026-01-07 00:48:06.63	23.82	60.63	-52.3	-53.9	14.8	0.00e+00	0	27	0	646971392	71	4179
2026-01-07 00:48:07.64	23.78	61.05	-52.0	-53.5	14.8	0.00e+00	0	27	0	649068544	70	4240
2026-01-07 00:48:08.65	23.74	61.47	-51.7	-53.3	14.9	0.00e+00	0	27	0	651165696	70	4107
2026-01-07 00:48:09.65	23.70	61.88	-51.5	-53.0	14.9	0.00e+00	0	27	0	653262848	69	4237
2026-01-07 00:48:10.65	23.65	62.30	-51.2	-52.6	15.1	0.00e+00	0	27	0	655360000	69	4029
2026-01-07 00:48:11.65	23.61	62.73	-50.8	-52.2	15.1	0.00e+00	0	27	0	656408576	68	4075
2026-01-07 00:48:12.65	23.56	63.15	-50.2	-51.5	15.2	0.00e+00	0	27	0	658505728	67	4002
2026-01-07 00:48:13.65	23.51	63.58	-50.2	-51.5	15.1	0.00e+00	0	27	0	660602880	66	4214
2026-01-07 00:48:14.66	23.46	64.01	-50.5	-51.9	14.9	0.00e+00	0	27	0	662700032	66	4436
2026-01-07 00:48:15.66	23.41	64.44	-51.1	-52.6	14.8	0.00e+00	0	27	0	664797184	67	4499
2026-01-07 00:48:16.67	23.35	64.88	-52.3	-53.9	14.6	0.00e+00	0	27	0	665845760	69	4677
2026-01-07 00:48:17.67	23.29	65.32	-53.0	-54.8	14.4	0.00e+00	0	27	0	667942912	71	4629
2026-01-07 00:48:18.67	23.23	65.76	-53.6	-55.5	14.2	0.00e+00	0	27	0	670040064	72	4759
2026-01-07 00:48:19.67	23.17	66.20	-54.0	-56.0	14.1	0.00e+00	0	27	0	672137216	73	4749
2026-01-07 00:48:20.67	23.10	66.65	-54.0	-56.1	14.1	0.00e+00	0	27	0	674234368	73	4763
2026-01-07 00:48:21.67	23.03	67.09	-53.9	-56.0	14.2	0.00e+00	0	28	0	675282944	73	4732
2026-01-07 00:48:22.67	22.96	67.54	-53.7	-55.6	14.3	0.00e+00	0	27	0	677380096	73	4542
2026-01-07 00:48:23.68	22.88	68.00	-53.7	-55.6	14.3	0.00e+00	0	27	0	679477248	73	4523
2026-01-07 00:48:24.69	22.80	68.46	-53.9	-55.9	14.2	0.00e+00	0	28	0	681574400	73	4677
2026-01-07 00:48:25.69	22.72	68.91	-54.4	-56.6	13.8	0.00e+00	0	27	0	682622976	74	4805
2026-01-07 00:48:26.69	22.63	69.37	-54.6	-56.9	13.8	0.00e+00	0	27	0	684720128	74	4946
2026-01-07 00:48:27.70	22.54	69.84	-54.7	-56.9	13.8	0.00e+00	0	27	0	686817280	74	4971
2026-01-07 00:48:28.69	22.45	70.30	-54.6	-56.9	13.8	0.00e+00	0	27	0	688914432	74	4946
2026-01-07 00:48:29.70	22.34	70.77	-54.6	-56.8	13.8	0.00e+00	0	27	0	691011584	74	4925
2026-01-07 00:48:30.70	22.23	71.23	-54.5	-56.8	13.9	0.00e+00	0	28	0	692060160	74	4882
2026-01-07 00:48:31.71	22.12	71.71	-54.7	-57.1	13.7	0.00e+00	0	28	0	694157312	74	5045
2026-01-07 00:48:32.71	22.00	72.18	-55.0	-57.4	13.7	0.00e+00	0	27	0	696254464	75	4931
2026-01-07 00:48:33.70	21.87	72.65	-55.1	-57.5	13.6	0.00e+00	0	27	0	698351616	75	5008
2026-01-07 00:48:34.71	21.74	73.13	-55.0	-57.4	13.7	0.00e+00	0	28	0	700448768	75	4945
2026-01-07 00:48:35.71	21.59	73.60	-54.8	-57.1	13.9	0.00e+00	0	27	0	701497344	75	4768
2026-01-07 00:48:36.72	21.44	74.09	-55.1	-57.5	13.6	0.00e+00	0	28	0	703594496	75	5020
2026-01-07 00:48:37.72	21.28	74.57	-55.7	-58.4	13.3	0.00e+00	0	28	0	705691648	76	5271
2026-01-07 00:48:38.71	21.10	75.05	-55.7	-58.5	13.2	0.00e+00	0	28	0	707788800	76	5280
2026-01-07 00:48:39.72	20.91	75.54	-55.9	-58.7	13.1	0.00e+00	0	28	0	709885952	76	5438
2026-01-07 00:48:40.71	20.72	76.02	-56.3	-59.4	12.8	0.00e+00	0	28	0	710934528	77	5540
2026-01-07 00:48:41.72	20.50	76.51	-56.1	-59.0	13.0	0.00e+00	0	27	0	713031680	77	5336
2026-01-07 00:48:42.72	20.26	77.00	-56.1	-58.9	13.1	0.00e+00	0	28	0	715128832	77	5264
2026-01-07 00:48:43.72	20.01	77.49	-56.3	-59.4	12.7	0.00e+00	0	28	0	717225984	77	5548
2026-01-07 00:48:44.73	19.74	77.98	-56.3	-59.3	13.0	0.00e+00	0	28	0	719323136	78	5202
2026-01-07 00:48:45.73	19.44	78.48	-55.8	-58.5	13.4	0.00e+00	0	27	0	720371712	78	4731
2026-01-07 00:48:46.74	19.11	78.98	-55.0	-57.3	13.8	0.00e+00	0	28	0	722468864	76	4620
2026-01-07 00:48:47.73	18.75	79.47	-53.9	-55.8	14.3	0.00e+00	0	27	0	724566016	74	4375
2026-01-07 00:48:48.74	18.36	79.97	-53.3	-55.2	14.5	0.00e+00	0	28	0	726663168	73	4308
2026-01-07 00:48:49.74	17.92	80.46	-53.8	-55.8	14.2	0.00e+00	0	27	0	728760320	73	4624
2026-01-07 00:48:50.74	17.44	80.96	-54.3	-56.4	14.0	0.00e+00	0	27	0	729808896	73	4939
2026-01-07 00:48:51.74	16.89	81.46	-55.3	-57.8	13.5	0.00e+00	0	28	0	731906048	75	5192
2026-01-07 00:48:52.74	16.28	81.95	-56.4	-59.5	12.8	0.00e+00	0	27	0	734003200	77	5611
2026-01-07 00:48:53.75	15.58	82.46	-55.9	-58.6	13.4	0.00e+00	0	27	0	736100352	78	4793
2026-01-07 00:48:54.75	14.79	82.95	-54.7	-57.0	14.0	0.00e+00	0	27	0	737148928	76	4446
2026-01-07 00:48:55.76	13.86	83.45	-53.9	-55.8	14.3	0.00e+00	0	28	0	739246080	74	4372
2026-01-07 00:48:56.76	12.79	83.95	-52.6	-54.2	14.7	0.00e+00	0	27	0	741343232	71	4311
2026-01-07 00:48:57.75	11.54	84.44	-51.8	-53.3	14.9	0.00e+00	0	28	0	743440384	70	4140
2026-01-07 00:48:58.76	10.02	84.94	-51.7	-53.2	14.9	0.00e+00	0	28	0	745537536	69	4303
2026-01-07 00:48:59.76	8.18	85.42	-51.6	-53.1	14.9	0.00e+00	0	27	0	746586112	69	4280
2026-01-07 00:49:00.77	5.88	85.91	-51.9	-53.4	14.8	0.00e+00	0	27	0	748683264	69	4420
2026-01-07 00:49:01.77	3.00	86.38	-52.4	-54.0	14.6	0.00e+00	0	27	0	750780416	69	4742
2026-01-07 00:49:02.77	359.25	86.85	-52.1	-53.7	14.7	0.00e+00	0	28	0	752877568	69	4554
2026-01-07 00:49:03.78	354.18	87.30	-51.9	-53.5	14.8	0.00e+00	0	28	0	754974720	69	4450
2026-01-07 00:49:04.78	347.25	87.71	-51.7	-53.2	14.9	0.00e+00	0	28	0	756023296	69	4299
2026-01-07 00:49:05.79	337.34	88.08	-51.1	-52.5	15.0	0.00e+00	0	28	0	758120448	68	4224
2026-01-07 00:49:06.79	323.48	88.37	-50.3	-51.6	15.2	0.00e+00	0	28	0	760217600	67	4029
2026-01-07 00:49:07.79	305.28	88.53	-49.9	-51.2	15.2	0.00e+00	0	28	0	762314752	66	4057
2026-01-07 00:49:08.79	285.23	88.52	-50.2	-51.5	15.1	0.00e+00	0	28	0	764411904	66	4238
2026-01-07 00:49:09.80	267.43	88.33	-50.9	-52.4	14.9	0.00e+00	0	27	0	765460480	67	4410
2026-01-07 00:49:10.80	254.26	88.03	-51.9	-53.5	14.6	0.00e+00	0	28	0	767557632	68	4709
2026-01-07 00:49:11.80	244.96	87.65	-53.1	-54.9	14.4	0.00e+00	0	28	0	769654784	71	4705
2026-01-07 00:49:12.80	238.36	87.23	-54.3	-56.5	14.0	0.00e+00	0	28	0	771751936	73	4996
2026-01-07 00:49:13.80	233.55	86.78	-54.2	-56.3	14.1	0.00e+00	0	28	0	773849088	74	4626
2026-01-07 00:49:14.80	229.94	86.32	-53.1	-54.9	14.6	0.00e+00	0	28	0	774897664	72	4410
2026-01-07 00:49:15.80	227.15	85.84	-52.6	-54.3	14.7	0.00e+00	0	28	0	776994816	71	4344
2026-01-07 00:49:16.80	224.94	85.36	-52.3	-53.9	14.8	0.00e+00	0	28	0	779091968	71	4161
2026-01-07 00:49:17.80	223.15	84.87	-51.7	-53.2	15.0	0.00e+00	0	28	0	781189120	70	4088
2026-01-07 00:49:18.80	221.67	84.38	-51.8	-53.3	14.9	0.00e+00	0	27	0	782237696	69	4348
2026-01-07 00:49:19.81	220.43	83.88	-52.3	-53.9	14.6	0.00e+00	0	28	0	784334848	69	4667
2026-01-07 00:49:20.81	219.38	83.39	-53.0	-54.7	14.5	0.00e+00	0	28	0	786432000	71	4582
2026-01-07 00:49:21.81	218.48	82.89	-53.8	-55.7	14.2	0.00e+00	0	28	0	788529152	72	4841
2026-01-07 00:49:22.81	217.70	82.39	-54.7	-56.9	13.9	0.00e+00	0	28	0	790626304	75	4664
2026-01-07 00:49:23.82	217.01	81.89	-54.6	-56.8	14.0	0.00e+00	0	28	0	791674880	75	4617
2026-01-07 00:49:24.82	216.41	81.39	-53.8	-55.7	14.4	0.00e+00	0	28	0	793772032	74	4300
2026-01-07 00:49:25.82	215.87	80.89	-52.9	-54.6	14.7	0.00e+00	0	28	0	795869184	72	4281
2026-01-07 00:49:26.82	215.39	80.40	-51.7	-53.2	15.0	0.00e+00	0	28	0	797966336	70	4078
2026-01-07 00:49:27.82	214.96	79.90	-51.5	-52.9	14.9	0.00e+00	0	28	0	800063488	69	4181
2026-01-07 00:49:28.82	214.57	79.40	-51.7	-53.2	14.9	0.00e+00	0	27	0	801112064	69	4298
2026-01-07 00:49:29.82	214.22	78.91	-51.7	-53.1	14.9	0.00e+00	0	28	0	803209216	69	4273
2026-01-07 00:49:30.82	213.90	78.41	-52.1	-53.6	14.7	0.00e+00	0	27	0	805306368	69	4539
2026-01-07 00:49:31.82	213.60	77.92	-53.4	-55.2	14.3	0.00e+00	0	28	0	807403520	71	4861
2026-01-07 00:49:32.82	213.33	77.43	-53.9	-55.8	14.2	0.00e+00	0	28	0	809500672	72	4921
2026-01-07 00:49:33.82	213.08	76.94	-53.6	-55.4	14.5	0.00e+00	0	28	0	810549248	73	4440
2026-01-07 00:49:34.83	212.85	76.45	-54.3	-56.4	14.0	0.00e+00	0	27	0	812646400	73	4965
2026-01-07 00:49:35.83	212.63	75.96	-54.6	-56.9	13.9	0.00e+00	0	28	0	814743552	74	4938
2026-01-07 00:49:36.83	212.43	75.47	-54.9	-57.2	13.8	0.00e+00	0	27	0	816840704	74	5101
2026-01-07 00:49:37.83	212.25	74.99	-55.3	-57.8	13.5	0.00e+00	0	28	0	817889280	75	5166
2026-01-07 00:49:38.83	212.08	74.51	-55.0	-57.5	13.6	0.00e+00	0	28	0	819986432	75	4989
2026-01-07 00:49:39.84	211.91	74.02	-54.3	-56.4	14.2	0.00e+00	0	28	0	822083584	75	4430
2026-01-07 00:49:40.84	211.76	73.54	-54.3	-56.4	14.2	0.00e+00	0	27	0	824180736	75	4430
2026-01-07 00:49:41.84	211.62	73.06	-53.9	-55.9	14.3	0.00e+00	0	27	0	826277888	74	4419
2026-01-07 00:49:42.84	211.48	72.59	-53.4	-55.3	14.5	0.00e+00	0	27	0	828375040	73	4354
2026-01-07 00:49:43.85	211.36	72.11	-53.3	-55.1	14.5	0.00e+00	0	27	0	829423616	72	4511
2026-01-07 00:49:44.85	211.24	71.64	-53.2	-55.0	14.5	0.00e+00	0	27	0	831520768	72	4465
2026-01-07 00:49:45.86	211.12	71.16	-53.4	-55.2	14.4	0.00e+00	0	28	0	833617920	72	4576
2026-01-07 00:49:46.86	211.02	70.69	-54.5	-56.7	13.9	0.00e+00	0	28	0	835715072	74	4827
2026-01-07 00:49:47.85	210.91	70.23	-55.2	-57.7	13.5	0.00e+00	0	28	0	836763648	75	5140
2026-01-07 00:49:48.86	210.82	69.77	-55.2	-57.7	13.6	0.00e+00	0	28	0	838860800	75	5133
2026-01-07 00:49:49.86	210.73	69.30	-55.7	-58.4	13.3	0.00e+00	0	28	0	840957952	76	5233
2026-01-07 00:49:50.85	210.64	68.85	-56.2	-59.2	12.9	0.00e+00	0	28	0	843055104	77	5447
2026-01-07 00:49:51.85	210.56	68.39	-56.2	-59.2	12.9	0.00e+00	0	28	0	845152256	77	5422
2026-01-07 00:49:52.85	210.48	67.94	-56.3	-59.4	12.8	0.00e+00	0	28	0	846200832	77	5572
2026-01-07 00:49:53.86	210.40	67.48	-55.8	-58.4	13.4	0.00e+00	0	28	0	848297984	77	4981
2026-01-07 00:49:54.87	210.33	67.03	-55.0	-57.3	13.8	0.00e+00	0	28	0	850395136	76	4639
2026-01-07 00:49:55.86	210.26	66.58	-54.3	-56.4	14.2	0.00e+00	0	27	0	852492288	75	4419
2026-01-07 00:49:56.87	210.19	66.13	-54.4	-56.5	14.1	0.00e+00	0	28	0	854589440	75	4474
2026-01-07 00:49:57.87	210.13	65.69	-54.1	-56.1	14.2	0.00e+00	0	28	0	855638016	74	4498
2026-01-07 00:49:58.87	210.07	65.25	-53.3	-55.1	14.6	0.00e+00	0	28	0	857735168	73	4274
2026-01-07 00:49:59.87	210.01	64.81	-52.9	-54.6	14.7	0.00e+00	0	28	0	859832320	72	4256
2026-01-07 00:50:00.86	209.96	64.38	-52.1	-53.6	14.8	0.00e+00	0	27	0	861929472	70	4278
2026-01-07 00:50:01.87	209.90	63.95	-50.9	-52.3	15.0	0.00e+00	0	28	0	862978048	68	4112
2026-01-07 00:50:02.88	209.85	63.51	-50.2	-51.5	15.2	0.00e+00	0	28	0	865075200	67	3996
2026-01-07 00:50:03.88	209.80	63.08	-50.1	-51.5	15.1	0.00e+00	0	28	0	867172352	66	4200
2026-01-07 00:50:04.88	209.76	62.66	-50.7	-52.1	14.9	0.00e+00	0	27	0	869269504	66	4502
2026-01-07 00:50:05.88	209.71	62.24	-50.6	-52.0	14.9	0.00e+00	0	27	0	871366656	66	4452
2026-01-07 00:50:06.88	209.67	61.82	-50.5	-51.8	14.9	0.00e+00	0	28	0	872415232	66	4374
2026-01-07 00:50:07.89	209.62	61.39	-51.0	-52.4	14.8	0.00e+00	0	27	0	874512384	67	4413
2026-01-07 00:50:08.89	209.58	60.98	-52.4	-54.0	14.6	0.00e+00	0	28	0	876609536	69	4724
2026-01-07 00:50:09.89	209.54	60.57	-53.2	-55.1	14.3	0.00e+00	0	27	0	878706688	71	4771
2026-01-07 00:50:10.89	209.51	60.16	-53.4	-55.3	14.4	0.00e+00	0	28	0	880803840	72	4636
2026-01-07 00:50:11.89	209.47	59.75	-53.5	-55.3	14.3	0.00e+00	0	28	0	881852416	72	4651
2026-01-07 00:50:12.89	209.43	59.35	-53.9	-55.9	14.2	0.00e+00	0	28	0	883949568	73	4684
2026-01-07 00:50:13.89	209.40	58.95	-54.2	-56.3	14.0	0.00e+00	0	28	0	886046720	73	4923
2026-01-07 00:50:14.89	209.37	58.55	-54.4	-56.6	14.0	0.00e+00	0	28	0	888143872	74	4789
2026-01-07 00:50:15.89	209.33	58.15	-55.3	-57.8	13.5	0.00e+00	0	28	0	890241024	75	5210
2026-01-07 00:50:16.89	209.30	57.76	-56.5	-59.8	12.6	0.00e+00	0	28	0	891289600	78	5489
2026-01-07 00:50:17.90	209.27	57.36	-56.4	-59.7	12.6	0.00e+00	0	28	0	893386752	78	5415
2026-01-07 00:50:18.90	209.24	56.97	-54.9	-57.2	13.9	0.00e+00	0	27	0	895483904	76	4596
2026-01-07 00:50:19.89	209.22	56.59	-53.8	-55.8	14.4	0.00e+00	0	28	0	897581056	74	4345
2026-01-07 00:50:20.89	209.19	56.21	-53.4	-55.3	14.5	0.00e+00	0	28	0	899678208	73	4358
2026-01-07 00:50:21.90	209.16	55.82	-53.2	-55.0	14.6	0.00e+00	0	28	0	900726784	73	4203
2026-01-07 00:50:22.90	209.14	55.44	-52.6	-54.3	14.7	0.00e+00	0	28	0	902823936	71	4370
2026-01-07 00:50:23.91	209.11	55.07	-52.5	-54.1	14.7	0.00e+00	0	28	0	904921088	71	4287
2026-01-07 00:50:24.91	209.09	54.69	-52.5	-54.2	14.7	0.00e+00	0	27	0	907018240	71	4303
2026-01-07 00:50:25.91	209.06	54.32	-52.7	-54.5	14.6	0.00e+00	0	27	0	908066816	71	4449
2026-01-07 00:50:26.91	209.04	53.96	-52.6	-54.3	14.6	0.00e+00	0	27	0	910163968	71	4376
2026-01-07 00:50:27.91	209.02	53.59	-52.2	-53.8	14.9	0.00e+00	0	27	0	912261120	71	4120
2026-01-07 00:50:28.92	209.00	53.23	-51.8	-53.3	14.9	0.00e+00	0	28	0	914358272	70	4136
2026-01-07 00:50:29.91	208.98	52.87	-51.8	-53.4	14.9	0.00e+00	0	27	0	916455424	70	4149
2026-01-07 00:50:30.91	208.96	52.51	-52.4	-54.1	14.6	0.00e+00	0	28	0	917504000	70	4520
2026-01-07 00:50:31.91	208.94	52.16	-53.3	-55.2	14.3	0.00e+00	0	28	0	919601152	71	4854
2026-01-07 00:50:32.92	208.92	51.80	-53.7	-55.7	14.2	0.00e+00	0	28	0	921698304	72	4839
2026-01-07 00:50:33.91	208.90	51.46	-53.8	-55.7	14.1	0.00e+00	0	28	0	923795456	72	4870
2026-01-07 00:50:34.91	208.88	51.11	-53.8	-55.8	14.1	0.00e+00	0	28	0	925892608	72	4898
2026-01-07 00:50:35.91	208.86	50.76	-53.8	-55.8	14.1	0.00e+00	0	28	0	926941184	72	4896
2026-01-07 00:50:36.91	208.85	50.42	-54.2	-56.3	14.0	0.00e+00	0	27	0	929038336	73	4891
2026-01-07 00:50:37.91	208.83	50.08	-54.4	-56.5	13.9	0.00e+00	0	27	0	931135488	73	5037
2026-01-07 00:50:38.91	208.81	49.75	-54.5	-56.7	13.9	0.00e+00	0	28	0	933232640	74	4826
2026-01-07 00:50:39.91	208.80	49.41	-55.0	-57.5	13.6	0.00e+00	0	28	0	935329792	75	4997
2026-01-07 00:50:40.91	208.78	49.08	-55.7	-58.4	13.2	0.00e+00	0	27	0	936378368	76	5259
2026-01-07 00:50:41.91	208.77	48.75	-57.0	-60.7	12.1	0.00e+00	0	28	0	938475520	79	5734
2026-01-07 00:50:42.91	208.75	48.42	-57.0	-60.7	12.0	4.50e-06	0	27	0	940572672	79	5780
2026-01-07 00:50:43.91	208.74	48.10	-56.2	-59.2	12.9	0.00e+00	0	28	0	942669824	79	4870
2026-01-07 00:50:44.92	208.73	47.77	-54.9	-57.3	13.8	0.00e+00	0	27	0	943718400	76	4609
2026-01-07 00:50:45.92	208.71	47.46	-54.3	-56.4	14.2	0.00e+00	0	28	0	945815552	75	4417
2026-01-07 00:50:46.93	208.70	47.13	-54.2	-56.3	14.2	0.00e+00	0	28	0	947912704	75	4349
2026-01-07 00:50:47.93	208.69	46.82	-54.1	-56.2	14.1	0.00e+00	0	28	0	950009856	74	4575
2026-01-07 00:50:48.92	208.67	46.51	-54.7	-57.0	13.8	0.00e+00	0	28	0	952107008	74	5003
2026-01-07 00:50:49.92	208.66	46.20	-55.0	-57.5	13.6	0.00e+00	0	28	0	953155584	75	5005
2026-01-07 00:50:50.92	208.65	45.89	-55.7	-58.5	13.2	0.00e+00	0	27	0	955252736	76	5321
2026-01-07 00:50:51.91	208.64	45.59	-56.1	-59.2	12.9	0.00e+00	0	28	0	957349888	77	5434
2026-01-07 00:50:52.92	208.63	45.28	-56.1	-59.2	12.9	0.00e+00	0	27	0	959447040	77	5423
2026-01-07 00:50:53.92	208.62	44.98	-55.6	-58.4	13.3	0.00e+00	0	28	0	961544192	77	4957
2026-01-07 00:50:54.92	208.61	44.68	-55.0	-57.5	13.7	0.00e+00	0	28	0	962592768	76	4717
2026-01-07 00:50:55.92	208.60	44.39	-54.2	-56.3	14.2	0.00e+00	0	28	0	964689920	75	4371
2026-01-07 00:50:56.92	208.59	44.09	-53.5	-55.4	14.4	0.00e+00	0	28	0	966787072	73	4421
2026-01-07 00:50:57.92	208.58	43.80	-53.1	-54.9	14.5	0.00e+00	0	28	0	968884224	72	4438
2026-01-07 00:50:58.92	208.57	43.51	-53.2	-55.0	14.5	0.00e+00	0	28	0	969932800	72	4462
2026-01-07 00:50:59.92	208.56	43.22	-53.7	-55.6	14.2	0.00e+00	0	28	0	972029952	72	4783
2026-01-07 00:51:00.93	208.55	42.93	-54.2	-56.4	13.9	0.00e+00	0	28	0	974127104	73	4949
2026-01-07 00:51:01.92	208.54	42.65	-54.7	-57.0	13.7	0.00e+00	0	28	0	976224256	74	5006
2026-01-07 00:51:02.92	208.53	42.37	-55.3	-58.0	13.3	0.00e+00	0	27	0	978321408	75	5307
2026-01-07 00:51:03.93	208.52	42.09	-55.8	-58.8	13.0	0.00e+00	0	28	0	979369984	76	5469
2026-01-07 00:51:04.92	208.51	41.82	-56.0	-59.0	12.9	0.00e+00	0	28	0	981467136	77	5339
2026-01-07 00:51:05.90	208.51	41.55	-55.9	-58.8	13.0	0.00e+00	0	28	0	983564288	77	5202
2026-01-07 00:51:06.91	208.50	41.27	-55.6	-58.3	13.3	0.00e+00	0	28	0	985661440	77	4902
2026-01-07 00:51:07.91	208.49	41.00	-55.3	-57.8	13.6	0.00e+00	0	28	0	987758592	77	4634
2026-01-07 00:51:08.91	208.48	40.73	-54.8	-57.2	13.9	0.00e+00	0	28	0	988807168	76	4556
2026-01-07 00:51:09.92	208.48	40.46	-54.4	-56.6	14.1	0.00e+00	0	28	0	990904320	75	4515
2026-01-07 00:51:10.92	208.47	40.20	-54.1	-56.2	14.1	0.00e+00	0	27	0	993001472	74	4592
2026-01-07 00:51:11.92	208.46	39.93	-54.0	-56.1	14.2	0.00e+00	0	28	0	995098624	74	4509
2026-01-07 00:51:12.92	208.45	39.67	-54.4	-56.6	13.9	0.00e+00	0	28	0	997195776	74	4790
2026-01-07 00:51:13.92	208.45	39.41	-54.9	-57.4	13.7	0.00e+00	0	27	0	998244352	75	4940
2026-01-07 00:51:14.92	208.44	39.16	-55.5	-58.2	13.3	0.00e+00	0	27	0	1000341504	76	5157
2026-01-07 00:51:15.92	208.44	38.90	-56.0	-59.1	12.9	0.00e+00	0	28	0	1002438656	77	5360
2026-01-07 00:51:16.92	208.43	38.65	-56.4	-59.7	12.5	0.00e+00	0	28	0	1004535808	77	5740
2026-01-07 00:51:17.92	208.42	38.40	-56.3	-59.5	12.6	0.00e+00	0	28	0	1005584384	77	5602
2026-01-07 00:51:18.92	208.42	38.15	-56.3	-59.5	12.6	0.00e+00	0	27	0	1007681536	77	5612
2026-01-07 00:51:19.92	208.41	37.90	-56.1	-59.2	12.8	0.00e+00	0	28	0	1009778688	77	5443
2026-01-07 00:51:20.91	208.41	37.65	-55.8	-58.6	13.1	0.00e+00	0	27	0	1011875840	77	5061
2026-01-07 00:51:21.92	208.40	37.41	-55.3	-57.9	13.5	0.00e+00	0	27	0	1013972992	77	4700
2026-01-07 00:51:22.91	208.40	37.17	-55.2	-57.7	13.5	0.00e+00	0	27	0	1015021568	76	4864
2026-01-07 00:51:23.91	208.39	36.93	-54.8	-57.1	13.8	0.00e+00	0	28	0	1017118720	76	4543
2026-01-07 00:51:24.90	208.39	36.69	-54.4	-56.5	14.0	0.00e+00	0	28	0	1019215872	75	4492
2026-01-07 00:51:25.89	208.38	36.45	-54.3	-56.5	14.1	0.00e+00	0	27	0	1021313024	75	4472
2026-01-07 00:51:26.90	208.38	36.22	-54.4	-56.6	14.0	0.00e+00	0	27	0	1023410176	75	4539
2026-01-07 00:51:27.90	208.37	35.98	-54.6	-56.9	13.8	0.00e+00	0	27	0	1024458752	75	4699
2026-01-07 00:51:28.90	208.37	35.75	-54.8	-57.2	13.7	0.00e+00	0	28	0	1026555904	75	4838
2026-01-07 00:51:29.89	208.36	35.52	-55.0	-57.5	13.6	0.00e+00	0	27	0	1028653056	75	4998
2026-01-07 00:51:30.89	208.36	35.29	-55.1	-57.7	13.4	0.00e+00	0	27	0	1030750208	75	5128
2026-01-07 00:51:31.89	208.35	35.07	-55.6	-58.3	13.2	0.00e+00	0	27	0	1031798784	76	5208
2026-01-07 00:51:32.89	208.35	34.84	-55.7	-58.6	13.1	0.00e+00	0	27	0	1033895936	76	5377
2026-01-07 00:51:33.89	208.35	34.62	-55.9	-58.9	13.0	0.00e+00	0	28	0	1035993088	77	5241
2026-01-07 00:51:34.89	208.34	34.39	-56.1	-59.3	12.7	0.00e+00	0	27	0	1038090240	77	5478
2026-01-07 00:51:35.89	208.34	34.17	-56.2	-59.3	12.7	0.00e+00	0	28	0	1040187392	77	5528
2026-01-07 00:51:36.90	208.33	33.95	-56.2	-59.5	12.6	0.00e+00	0	28	0	1041235968	77	5600
2026-01-07 00:51:37.90	208.33	33.74	-56.1	-59.2	12.8	0.00e+00	0	28	0	1043333120	77	5427
2026-01-07 00:51:38.90	208.33	33.52	-56.0	-59.1	12.8	0.00e+00	0	27	0	1045430272	77	5375
2026-01-07 00:51:39.89	208.32	33.31	-55.9	-58.9	12.9	0.00e+00	0	28	0	1047527424	77	5269
2026-01-07 00:51:40.90	208.32	33.09	-55.8	-58.8	12.9	0.00e+00	0	28	0	1049624576	77	5172
2026-01-07 00:51:41.90	208.32	32.88	-55.8	-58.7	13.0	0.00e+00	0	28	0	1050673152	77	5130
2026-01-07 00:51:42.90	208.31	32.67	-55.6	-58.4	13.2	0.00e+00	0	28	0	1052770304	77	4947
2026-01-07 00:51:43.90	208.31	32.46	-55.5	-58.2	13.4	0.00e+00	0	28	0	1054867456	77	4836
2026-01-07 00:51:44.90	208.31	32.25	-55.1	-57.6	13.6	0.00e+00	0	28	0	1056964608	76	4790
2026-01-07 00:51:45.90	208.31	32.05	-55.0	-57.4	13.7	0.00e+00	0	27	0	1059061760	76	4685
2026-01-07 00:51:46.90	208.30	31.84	-54.9	-57.2	13.8	0.00e+00	0	28	0	1060110336	76	4586
2026-01-07 00:51:47.90	208.30	31.64	-54.8	-57.2	13.8	0.00e+00	0	28	0	1062207488	76	4549
2026-01-07 00:51:48.90	208.30	31.44	-54.7	-57.1	13.9	0.00e+00	0	28	0	1064304640	76	4504
2026-01-07 00:51:49.89	208.29	31.24	-54.9	-57.2	13.8	0.00e+00	0	28	0	1066401792	76	4589
2026-01-07 00:51:50.89	208.29	31.04	-55.1	-57.6	13.6	0.00e+00	0	27	0	1067450368	76	4779
2026-01-07 00:51:51.89	208.29	30.84	-55.2	-57.8	13.5	0.00e+00	0	28	0	1069547520	76	4872
2026-01-07 00:51:52.89	208.29	30.65	-55.3	-58.0	13.4	0.00e+00	0	27	0	1071644672	76	5008
2026-01-07 00:51:53.88	208.29	30.45	-55.4	-58.1	13.3	0.00e+00	0	28	0	1073741824	76	5050
2026-01-07 00:51:54.89	208.28	30.26	-55.6	-58.4	13.1	0.00e+00	0	28	0	1075838976	76	5235
2026-01-07 00:51:55.88	208.28	30.07	-55.7	-58.6	13.0	0.00e+00	0	28	0	1076887552	76	5348
2026-01-07 00:51:56.88	208.28	29.88	-55.6	-58.5	13.1	0.00e+00	0	28	0	1078984704	76	5283
2026-01-07 00:51:57.88	208.28	29.69	-55.6	-58.4	13.1	0.00e+00	0	28	0	1081081856	76	5253
2026-01-07 00:51:58.87	208.27	29.50	-55.5	-58.3	13.2	0.00e+00	0	28	0	1083179008	76	5207
2026-01-07 00:51:59.88	208.27	29.31	-55.5	-58.2	13.2	0.00e+00	0	28	0	1084227584	76	5147
2026-01-07 00:52:00.88	208.27	29.13	-55.4	-58.1	13.3	0.00e+00	0	28	0	1086324736	76	5054
2026-01-07 00:52:01.87	208.27	28.94	-55.4	-58.2	13.3	0.00e+00	0	28	0	1088421888	76	5101
2026-01-07 00:52:02.87	208.27	28.76	-55.2	-57.7	13.5	0.00e+00	0	28	0	1090519040	76	4865
2026-01-07 00:52:03.87	208.27	28.58	-54.9	-57.3	13.7	0.00e+00	0	28	0	1092616192	76	4626
2026-01-07 00:52:04.88	208.26	28.39	-54.7	-57.1	13.8	0.00e+00	0	28	0	1093664768	76	4527
2026-01-07 00:52:05.88	208.26	28.21	-54.4	-56.7	13.9	0.00e+00	0	28	0	1095761920	75	4566
2026-01-07 00:52:06.88	208.26	28.03	-54.3	-56.6	14.0	0.00e+00	0	28	0	1097859072	75	4515
2026-01-07 00:52:07.89	208.26	27.86	-54.0	-56.2	14.1	0.00e+00	0	28	0	1099956224	74	4547
2026-01-07 00:52:08.88	208.26	27.68	-53.8	-55.9	14.2	0.00e+00	0	28	0	1102053376	74	4418
2026-01-07 00:52:09.89	208.26	27.50	-53.7	-55.7	14.3	0.00e+00	0	28	0	1103101952	74	4309
2026-01-07 00:52:10.89	208.26	27.33	-53.5	-55.5	14.3	0.00e+00	0	28	0	1105199104	73	4475
2026-01-07 00:52:11.88	208.26	27.16	-53.2	-55.1	14.5	0.00e+00	0	28	0	1107296256	73	4261
2026-01-07 00:52:12.89	208.25	26.98	-52.9	-54.8	14.5	0.00e+00	0	28	0	1109393408	72	4345
2026-01-07 00:52:13.89	208.25	26.81	-53.0	-54.8	14.5	0.00e+00	0	28	0	1111490560	72	4379
2026-01-07 00:52:14.88	208.25	26.64	-52.9	-54.8	14.5	0.00e+00	0	28	0	1112539136	72	4354
2026-01-07 00:52:15.88	208.25	26.48	-52.9	-54.7	14.5	0.00e+00	0	28	0	1114636288	72	4339
2026-01-07 00:52:16.88	208.25	26.31	-53.0	-54.8	14.5	0.00e+00	0	28	0	1116733440	72	4365
2026-01-07 00:52:17.88	208.25	26.14	-53.0	-54.8	14.5	0.00e+00	0	28	0	1118830592	72	4355
2026-01-07 00:52:18.88	208.25	25.97	-53.1	-55.0	14.4	0.00e+00	0	28	0	1119879168	72	4477
2026-01-07 00:52:19.88	208.25	25.81	-53.1	-55.0	14.4	0.00e+00	0	28	0	1121976320	72	4487
2026-01-07 00:52:20.87	208.25	25.65	-53.1	-55.0	14.4	0.00e+00	0	27	0	1124073472	72	4470
2026-01-07 00:52:21.88	208.25	25.48	-53.0	-54.9	14.5	0.00e+00	0	28	0	1126170624	72	4392
2026-01-07 00:52:22.88	208.25	25.32	-53.1	-54.9	14.4	0.00e+00	0	28	0	1128267776	72	4435
2026-01-07 00:52:23.88	208.25	25.16	-53.1	-55.0	14.4	0.00e+00	0	28	0	1129316352	72	4442
2026-01-07 00:52:24.88	208.24	25.00	-53.0	-54.9	14.4	0.00e+00	0	28	0	1131413504	72	4401
2026-01-07 00:52:25.87	208.24	24.84	-53.1	-54.9	14.4	0.00e+00	0	28	0	1133510656	72	4430
2026-01-07 00:52:26.87	208.24	24.69	-53.0	-54.9	14.4	0.00e+00	0	28	0	1135607808	72	4422
2026-01-07 00:52:27.87	208.24	24.53	-53.0	-54.9	14.4	0.00e+00	0	28	0	1137704960	72	4418
2026-01-07 00:52:28.87	208.24	24.37	-53.1	-55.0	14.4	0.00e+00	0	28	0	1138753536	72	4446
2026-01-07 00:52:29.88	208.24	24.22	-53.1	-55.0	14.4	0.00e+00	0	28	0	1140850688	72	4444
2026-01-07 00:52:30.88	208.24	24.06	-53.0	-54.9	14.4	0.00e+00	0	28	0	1142947840	72	4427
2026-01-07 00:52:31.88	208.24	23.91	-53.0	-54.9	14.4	0.00e+00	0	28	0	1145044992	72	4393
2026-01-07 00:52:32.88	208.24	23.76	-52.9	-54.7	14.5	0.00e+00	0	28	0	1146093568	72	4331
2026-01-07 00:52:33.88	208.24	23.60	-52.9	-54.7	14.5	0.00e+00	0	28	0	1148190720	72	4314
2026-01-07 00:52:34.87	208.24	23.46	-52.8	-54.6	14.5	0.00e+00	0	28	0	1150287872	72	4289
2026-01-07 00:52:35.87	208.24	23.31	-52.7	-54.5	14.6	0.00e+00	0	28	0	1152385024	72	4213
2026-01-07 00:52:36.86	208.24	23.16	-52.6	-54.4	14.5	0.00e+00	0	28	0	1154482176	71	4431
2026-01-07 00:52:37.86	208.24	23.01	-52.5	-54.3	14.6	0.00e+00	0	28	0	1155530752	71	4343
2026-01-07 00:52:38.86	208.24	22.86	-52.5	-54.2	14.5	0.00e+00	0	28	0	1157627904	71	4318
2026-01-07 00:52:39.86	208.24	22.72	-52.5	-54.2	14.6	0.00e+00	0	28	0	1159725056	71	4324
2026-01-07 00:52:40.86	208.24	22.57	-52.6	-54.3	14.5	0.00e+00	0	28	0	1161822208	71	4381
2026-01-07 00:52:41.85	208.24	22.43	-52.4	-54.1	14.7	0.00e+00	0	28	0	1163919360	71	4259
2026-01-07 00:52:42.85	208.24	22.28	-52.5	-54.2	14.6	0.00e+00	0	28	0	1164967936	71	4311
2026-01-07 00:52:43.85	208.24	22.14	-52.4	-54.1	14.7	0.00e+00	0	28	0	1167065088	71	4264
2026-01-07 00:52:44.85	208.24	22.00	-52.4	-54.1	14.6	0.00e+00	0	28	0	1169162240	71	4283
2026-01-07 00:52:45.85	208.24	21.86	-52.4	-54.2	14.6	0.00e+00	0	28	0	1171259392	71	4304
2026-01-07 00:52:46.85	208.24	21.72	-52.5	-54.3	14.6	0.00e+00	0	28	0	1173356544	71	4366
2026-01-07 00:52:47.85	208.24	21.58	-52.6	-54.4	14.5	0.00e+00	0	28	0	1174405120	71	4395
2026-01-07 00:52:48.86	208.24	21.44	-52.7	-54.5	14.5	0.00e+00	0	28	0	1176502272	71	4487
2026-01-07 00:52:49.86	208.24	21.30	-52.7	-54.5	14.5	0.00e+00	0	28	0	1178599424	71	4453
2026-01-07 00:52:50.86	208.24	21.16	-52.8	-54.7	14.4	0.00e+00	0	28	0	1180696576	71	4566
2026-01-07 00:52:51.85	208.24	21.02	-53.0	-54.9	14.3	0.00e+00	0	28	0	1181745152	71	4659
2026-01-07 00:52:52.85	208.24	20.89	-53.0	-54.9	14.3	0.00e+00	0	28	0	1183842304	71	4673
2026-01-07 00:52:53.86	208.24	20.75	-53.2	-55.1	14.2	0.00e+00	0	28	0	1185939456	71	4795
2026-01-07 00:52:54.87	208.24	20.61	-53.3	-55.3	14.1	0.00e+00	0	28	0	1188036608	71	4886
2026-01-07 00:52:55.87	208.25	20.48	-53.3	-55.3	14.1	0.00e+00	0	28	0	1190133760	71	4919
2026-01-07 00:52:56.88	208.25	20.35	-53.4	-55.4	14.1	0.00e+00	0	28	0	1191182336	71	4974
2026-01-07 00:52:57.88	208.25	20.21	-53.5	-55.6	14.1	0.00e+00	0	28	0	1193279488	72	4765
2026-01-07 00:52:58.88	208.25	20.08	-53.5	-55.6	14.1	0.00e+00	0	28	0	1195376640	72	4767
2026-01-07 00:52:59.88	208.25	19.95	-53.5	-55.6	14.1	0.00e+00	0	28	0	1197473792	72	4799
2026-01-07 00:53:00.88	208.25	19.82	-53.5	-55.6	14.1	0.00e+00	0	28	0	1199570944	72	4795
2026-01-07 00:53:01.88	208.25	19.69	-53.5	-55.6	14.1	0.00e+00	0	28	0	1200619520	72	4770
2026-01-07 00:53:02.88	208.25	19.56	-53.5	-55.6	14.1	0.00e+00	0	28	0	1202716672	72	4794
2026-01-07 00:53:03.87	208.25	19.43	-53.5	-55.6	14.1	0.00e+00	0	28	0	1204813824	72	4790
2026-01-07 00:53:04.88	208.25	19.30	-53.5	-55.5	14.1	0.00e+00	0	28	0	1206910976	72	4737
2026-01-07 00:53:05.88	208.25	19.18	-53.5	-55.6	14.1	0.00e+00	0	28	0	1207959552	72	4790
2026-01-07 00:53:06.88	208.25	19.05	-53.3	-55.3	14.2	0.00e+00	0	28	0	1210056704	72	4602
2026-01-07 00:53:07.88	208.25	18.92	-53.4	-55.4	14.2	0.00e+00	0	28	0	1212153856	72	4675
2026-01-07 00:53:08.88	208.25	18.80	-53.4	-55.4	14.2	0.00e+00	0	28	0	1214251008	72	4661
2026-01-07 00:53:09.89	208.25	18.67	-53.3	-55.3	14.2	0.00e+00	0	28	0	1216348160	72	4618
2026-01-07 00:53:10.89	208.26	18.55	-53.3	-55.3	14.2	0.00e+00	0	28	0	1217396736	72	4641
2026-01-07 00:53:11.89	208.26	18.43	-53.4	-55.5	14.1	0.00e+00	0	28	0	1219493888	72	4722
2026-01-07 00:53:12.88	208.26	18.30	-53.4	-55.4	14.1	0.00e+00	0	28	0	1221591040	72	4689
2026-01-07 00:53:13.89	208.26	18.18	-53.4	-55.5	14.1	0.00e+00	0	28	0	1223688192	72	4715
2026-01-07 00:53:14.89	208.26	18.06	-53.2	-55.2	14.2	0.00e+00	0	28	0	1225785344	72	4594
2026-01-07 00:53:15.89	208.26	17.94	-53.3	-55.3	14.2	0.00e+00	0	28	0	1226833920	72	4636
2026-01-07 00:53:16.89	208.26	17.82	-53.4	-55.4	14.1	0.00e+00	0	28	0	1228931072	72	4688
2026-01-07 00:53:17.89	208.26	17.70	-53.4	-55.4	14.2	0.00e+00	0	28	0	1231028224	72	4680
2026-01-07 00:53:18.88	208.26	17.58	-53.4	-55.5	14.1	0.00e+00	0	28	0	1233125376	72	4719
2026-01-07 00:53:19.88	208.26	17.46	-53.5	-55.6	14.1	0.00e+00	0	28	0	1235222528	72	4777
2026-01-07 00:53:20.88	208.27	17.34	-53.5	-55.5	14.1	0.00e+00	0	28	0	1236271104	72	4747
2026-01-07 00:53:21.88	208.27	17.23	-53.5	-55.6	14.0	0.00e+00	0	28	0	1238368256	72	4800
2026-01-07 00:53:22.88	208.27	17.11	-53.6	-55.7	14.0	0.00e+00	0	28	0	1240465408	72	4832
2026-01-07 00:53:23.87	208.27	17.00	-53.7	-55.8	14.0	0.00e+00	0	28	0	1242562560	72	4889
2026-01-07 00:53:24.87	208.27	16.88	-53.6	-55.8	14.0	0.00e+00	0	28	0	1243611136	72	4872
