passes_logs/2026/01/07/R3.2S_Murmansk/R3.2S_Murmansk__20260107_052035_SUOMI_NPP_rec.log

#Pass ID: 20260107_052035_SUOMI NPP
#Satellite: SUOMI NPP
#Configuration: NPP
#almurnet v.1.7.20251203
#Start time: 2026-01-07 05:20:37

#Version: 2.2.20231116
#Station: R3.2S_Murmansk
#Location: 33.079688 lon 68.888172 lat
#TLE: 1 37849U 11061A   26005.94084933  .00000134  00000+0  84554-4 0  9990
#TLE: 2 37849  98.7803 308.0679 0002567  79.1029 281.0436 14.19522657735426

#Time	Az	El	Level	Level2	SNR	BER	BlckErr	Temp	State	Recorded	gain1	gain2
2026-01-07 05:20:37.88	63.67	2.13	-57.5	-73.5	3.8	1.49e+00	0	23	104	0	80	23846
2026-01-07 05:20:39.10	63.59	2.20	-57.5	-73.5	3.8	1.49e+00	0	23	104	0	80	23800
2026-01-07 05:20:39.96	63.53	2.25	-57.5	-73.5	3.8	1.49e+00	0	23	104	0	80	23742
2026-01-07 05:20:41.11	63.46	2.31	-57.5	-73.5	3.8	1.49e+00	0	23	104	0	80	23754
2026-01-07 05:20:41.96	63.40	2.36	-57.5	-73.5	3.8	1.49e+00	0	23	104	0	80	23717
2026-01-07 05:20:43.11	63.33	2.43	-57.5	-73.5	3.8	1.49e+00	0	23	104	0	80	23716
2026-01-07 05:20:43.96	63.27	2.48	-57.5	-73.5	3.8	1.49e+00	0	23	104	0	80	23786
2026-01-07 05:20:45.10	63.20	2.54	-57.5	-73.5	3.8	1.49e+00	0	23	104	0	80	23682
2026-01-07 05:20:45.96	63.14	2.59	-57.5	-73.5	3.8	1.49e+00	0	23	104	0	80	23763
2026-01-07 05:20:47.10	63.06	2.66	-57.5	-73.5	3.8	1.49e+00	0	23	104	0	80	23774
2026-01-07 05:20:47.96	63.01	2.71	-57.5	-73.5	3.8	1.49e+00	0	23	104	0	80	23736
2026-01-07 05:20:49.10	62.93	2.77	-57.5	-73.5	3.8	1.49e+00	0	23	104	0	80	23685
2026-01-07 05:20:49.95	62.87	2.82	-57.5	-73.5	3.8	1.49e+00	0	23	104	0	80	23749
2026-01-07 05:20:51.10	62.79	2.89	-57.5	-73.5	3.8	1.49e+00	0	24	104	0	80	23728
2026-01-07 05:20:51.95	62.74	2.94	-57.5	-73.5	3.8	1.49e+00	0	24	104	0	80	23795
2026-01-07 05:20:53.09	62.66	3.00	-57.5	-73.5	3.8	1.49e+00	0	24	104	0	80	23803
2026-01-07 05:20:53.95	62.60	3.05	-57.6	-73.6	3.8	1.49e+00	0	24	104	0	80	23862
2026-01-07 05:20:55.10	62.52	3.12	-57.5	-73.5	3.8	1.49e+00	0	24	104	0	80	23765
2026-01-07 05:20:55.96	62.46	3.17	-57.5	-73.5	3.9	1.49e+00	0	24	104	0	80	23767
2026-01-07 05:20:57.10	62.38	3.24	-57.5	-73.5	3.8	1.49e+00	0	24	104	0	80	23745
2026-01-07 05:20:57.95	62.32	3.29	-57.5	-73.5	3.8	1.49e+00	0	24	104	0	80	23737
2026-01-07 05:20:59.09	62.24	3.35	-57.5	-73.5	3.8	1.49e+00	0	24	104	0	80	23645
2026-01-07 05:20:59.95	62.18	3.40	-57.5	-73.5	3.8	1.49e+00	0	24	104	0	80	23698
2026-01-07 05:21:01.09	62.10	3.47	-57.5	-73.5	3.8	1.49e+00	0	24	104	0	80	23774
2026-01-07 05:21:01.95	62.04	3.52	-57.5	-73.5	3.8	1.49e+00	0	24	104	0	80	23727
2026-01-07 05:21:03.09	61.96	3.59	-57.5	-73.6	3.8	1.49e+00	0	24	104	0	80	23860
2026-01-07 05:21:03.95	61.90	3.64	-57.5	-73.6	3.8	1.49e+00	0	24	104	0	80	23871
2026-01-07 05:21:05.09	61.82	3.70	-57.5	-73.5	3.8	1.49e+00	0	24	104	0	80	23782
2026-01-07 05:21:05.94	61.76	3.76	-57.5	-73.5	3.8	1.49e+00	0	24	104	0	80	23660
2026-01-07 05:21:07.08	61.67	3.82	-57.5	-73.4	3.8	1.49e+00	0	24	104	0	80	23575
2026-01-07 05:21:07.94	61.61	3.87	-57.5	-73.5	3.8	1.49e+00	0	24	104	0	80	23666
2026-01-07 05:21:09.09	61.53	3.94	-57.5	-73.5	3.8	1.49e+00	0	24	104	0	80	23720
2026-01-07 05:21:09.95	61.46	3.99	-57.6	-73.5	3.8	1.49e+00	0	24	104	0	80	23810
2026-01-07 05:21:11.09	61.38	4.06	-57.6	-73.5	3.8	1.49e+00	0	24	104	0	80	23798
2026-01-07 05:21:11.95	61.32	4.11	-57.6	-73.4	3.8	1.49e+00	0	24	104	0	80	23562
2026-01-07 05:21:13.10	61.23	4.18	-57.5	-73.1	3.8	1.49e+00	0	24	104	0	80	22711
2026-01-07 05:21:13.95	61.17	4.23	-57.5	-72.7	3.8	1.49e+00	0	24	104	0	80	21570
2026-01-07 05:21:15.10	61.08	4.30	-57.5	-72.1	3.8	1.49e+00	0	24	104	0	80	20181
2026-01-07 05:21:15.96	61.02	4.35	-57.5	-71.6	3.8	1.49e+00	0	24	104	0	80	18986
2026-01-07 05:21:17.11	60.93	4.42	-57.4	-70.9	3.9	1.48e+00	0	24	104	0	80	17631
2026-01-07 05:21:17.96	60.86	4.47	-57.4	-70.3	4.1	1.47e+00	0	24	104	0	80	16332
2026-01-07 05:21:19.11	60.78	4.54	-57.3	-69.1	4.4	1.38e+00	20	24	0	0	80	14303
2026-01-07 05:21:19.96	60.71	4.59	-57.3	-68.6	4.7	1.03e+00	0	24	0	2097152	80	13474
2026-01-07 05:21:21.11	60.62	4.66	-57.2	-67.3	5.3	6.56e-01	0	24	0	4194304	80	11641
2026-01-07 05:21:21.96	60.56	4.71	-57.1	-66.5	5.8	4.26e-01	0	24	0	5242880	80	10595
2026-01-07 05:21:23.11	60.47	4.78	-57.0	-65.5	6.4	2.45e-01	0	24	0	7340032	80	9471
2026-01-07 05:21:23.97	60.40	4.83	-56.9	-65.0	6.9	1.20e-01	0	24	0	9437184	80	8874
2026-01-07 05:21:25.12	60.31	4.90	-56.7	-64.3	7.5	8.56e-02	0	24	0	11534336	80	8184
2026-01-07 05:21:25.97	60.25	4.96	-56.8	-64.3	7.5	8.05e-02	0	24	0	12582912	80	8190
2026-01-07 05:21:27.10	60.16	5.02	-56.7	-64.0	7.8	5.59e-02	0	24	0	14680064	80	7960
2026-01-07 05:21:27.96	60.09	5.08	-56.7	-64.0	7.8	3.60e-02	0	24	0	16777216	79	8376
2026-01-07 05:21:29.10	60.00	5.15	-54.9	-58.6	12.2	2.62e-03	0	24	0	18874368	76	5364
2026-01-07 05:21:29.96	59.93	5.20	-57.3	-69.9	4.2	3.22e-02	0	24	0	19922944	79	16609
2026-01-07 05:21:31.11	59.84	5.27	-56.8	-63.7	8.1	3.14e-02	0	25	0	22020096	79	8115
2026-01-07 05:21:31.97	59.77	5.32	-55.1	-59.3	11.6	1.06e-05	0	24	0	24117248	75	6162
2026-01-07 05:21:33.10	59.68	5.39	-54.3	-57.5	12.8	0.00e+00	0	24	0	26214400	75	5019
2026-01-07 05:21:33.96	59.61	5.44	-54.5	-57.9	12.5	0.00e+00	0	24	0	27262976	75	5261
2026-01-07 05:21:35.10	59.51	5.51	-54.4	-57.8	12.6	0.00e+00	0	25	0	29360128	75	5186
2026-01-07 05:21:35.95	59.44	5.57	-54.5	-57.9	12.5	0.00e+00	0	24	0	31457280	75	5250
2026-01-07 05:21:37.10	59.35	5.64	-54.3	-57.6	12.7	7.00e-07	0	24	0	33554432	75	5091
2026-01-07 05:21:37.96	59.28	5.69	-54.3	-57.6	12.8	0.00e+00	0	24	0	34603008	75	5044
2026-01-07 05:21:39.10	59.18	5.76	-54.2	-57.3	13.0	0.00e+00	0	24	0	36700160	75	4923
2026-01-07 05:21:39.95	59.11	5.81	-54.2	-57.4	12.8	0.00e+00	0	24	0	38797312	74	5265
2026-01-07 05:21:41.09	59.02	5.88	-54.2	-57.4	12.9	0.00e+00	0	24	0	40894464	74	5221
2026-01-07 05:21:41.96	58.94	5.94	-54.3	-57.5	12.7	0.00e+00	0	24	0	41943040	74	5325
2026-01-07 05:21:43.10	58.85	6.01	-53.9	-56.8	13.2	0.00e+00	0	24	0	44040192	74	4923
2026-01-07 05:21:43.96	58.77	6.06	-54.0	-57.0	13.1	0.00e+00	0	24	0	46137344	74	4988
2026-01-07 05:21:45.11	58.67	6.14	-54.0	-56.9	13.2	0.00e+00	0	24	0	48234496	74	4958
2026-01-07 05:21:45.97	58.60	6.19	-54.0	-57.0	13.1	0.00e+00	0	24	0	50331648	74	5015
2026-01-07 05:21:47.10	58.50	6.26	-54.1	-57.2	13.0	0.00e+00	0	24	0	52428800	74	5123
2026-01-07 05:21:47.95	58.43	6.31	-54.2	-57.3	12.9	0.00e+00	0	24	0	53477376	74	5213
2026-01-07 05:21:49.09	58.33	6.38	-54.4	-57.6	12.7	0.00e+00	0	25	0	55574528	74	5370
2026-01-07 05:21:49.95	58.26	6.44	-54.4	-57.6	12.7	0.00e+00	0	25	0	57671680	74	5375
2026-01-07 05:21:51.09	58.16	6.51	-54.3	-57.4	12.8	0.00e+00	0	25	0	59768832	74	5274
2026-01-07 05:21:51.95	58.08	6.56	-54.4	-57.6	12.7	0.00e+00	0	25	0	60817408	74	5376
2026-01-07 05:21:53.09	57.98	6.64	-54.3	-57.6	12.7	0.00e+00	0	25	0	62914560	74	5351
2026-01-07 05:21:53.95	57.90	6.69	-54.4	-57.7	12.7	0.00e+00	0	25	0	65011712	74	5409
2026-01-07 05:21:55.09	57.80	6.76	-54.3	-57.6	12.8	0.00e+00	0	25	0	67108864	74	5344
2026-01-07 05:21:55.94	57.72	6.82	-54.4	-57.7	12.7	0.00e+00	0	25	0	68157440	74	5421
2026-01-07 05:21:57.08	57.62	6.89	-54.4	-57.7	12.7	0.00e+00	0	25	0	70254592	74	5431
2026-01-07 05:21:57.92	57.55	6.94	-54.4	-57.7	12.7	0.00e+00	0	25	0	72351744	74	5429
2026-01-07 05:21:59.07	57.44	7.02	-54.6	-58.0	12.6	0.00e+00	0	25	0	74448896	74	5604
2026-01-07 05:21:59.93	57.36	7.07	-54.6	-58.0	12.5	7.00e-07	0	25	0	76546048	74	5617
2026-01-07 05:22:01.07	57.26	7.14	-54.4	-57.6	12.8	0.00e+00	0	24	0	78643200	74	5400
2026-01-07 05:22:01.93	57.18	7.20	-54.4	-57.6	12.8	0.00e+00	0	25	0	79691776	74	5380
2026-01-07 05:22:03.08	57.07	7.27	-54.3	-57.5	12.9	0.00e+00	0	25	0	81788928	74	5293
2026-01-07 05:22:03.93	56.99	7.33	-54.2	-57.2	13.1	0.00e+00	0	25	0	83886080	74	5107
2026-01-07 05:22:05.07	56.89	7.40	-54.1	-57.1	13.1	0.00e+00	0	25	0	85983232	74	5069
2026-01-07 05:22:05.92	56.81	7.45	-54.2	-57.2	13.1	0.00e+00	0	25	0	87031808	74	5122
2026-01-07 05:22:07.07	56.70	7.53	-54.1	-57.0	13.2	0.00e+00	0	25	0	89128960	74	5001
2026-01-07 05:22:07.93	56.62	7.58	-54.1	-57.0	13.2	0.00e+00	0	25	0	91226112	74	5004
2026-01-07 05:22:09.07	56.51	7.66	-54.1	-57.1	13.2	0.00e+00	0	25	0	93323264	74	5042
2026-01-07 05:22:09.93	56.43	7.71	-54.2	-57.2	13.1	7.00e-07	0	25	0	94371840	74	5102
2026-01-07 05:22:11.08	56.32	7.79	-54.1	-57.1	13.1	0.00e+00	0	25	0	96468992	74	5052
2026-01-07 05:22:11.94	56.23	7.84	-53.8	-56.6	13.5	0.00e+00	0	25	0	98566144	74	4760
2026-01-07 05:22:13.09	56.12	7.92	-53.8	-56.6	13.5	0.00e+00	0	25	0	100663296	74	4762
2026-01-07 05:22:13.95	56.04	7.97	-53.8	-56.5	13.5	0.00e+00	0	25	0	102760448	74	4720
2026-01-07 05:22:15.09	55.93	8.05	-53.5	-56.1	13.7	0.00e+00	0	25	0	104857600	73	4792
2026-01-07 05:22:15.95	55.84	8.10	-53.6	-56.2	13.6	0.00e+00	0	25	0	105906176	73	4840
2026-01-07 05:22:17.10	55.73	8.18	-53.6	-56.3	13.6	0.00e+00	0	25	0	108003328	73	4879
2026-01-07 05:22:17.96	55.64	8.23	-53.6	-56.3	13.6	0.00e+00	0	25	0	110100480	73	4877
2026-01-07 05:22:19.10	55.53	8.31	-53.8	-56.5	13.4	0.00e+00	0	25	0	112197632	73	5004
2026-01-07 05:22:19.95	55.45	8.36	-53.7	-56.3	13.6	0.00e+00	0	25	0	113246208	73	4899
2026-01-07 05:22:21.09	55.33	8.44	-53.6	-56.3	13.6	0.00e+00	0	25	0	115343360	73	4872
2026-01-07 05:22:21.95	55.24	8.50	-53.6	-56.2	13.6	0.00e+00	0	25	0	117440512	73	4840
2026-01-07 05:22:23.09	55.13	8.57	-53.5	-56.0	13.7	0.00e+00	0	25	0	119537664	73	4753
2026-01-07 05:22:23.95	55.04	8.63	-53.6	-56.2	13.6	0.00e+00	0	25	0	121634816	73	4826
2026-01-07 05:22:25.09	54.92	8.70	-53.6	-56.2	13.6	0.00e+00	0	25	0	123731968	73	4839
2026-01-07 05:22:25.95	54.84	8.76	-53.7	-56.3	13.5	0.00e+00	0	25	0	124780544	73	4910
2026-01-07 05:22:27.08	54.72	8.83	-53.8	-56.5	13.4	0.00e+00	0	25	0	126877696	73	5025
2026-01-07 05:22:27.94	54.63	8.89	-53.7	-56.3	13.6	0.00e+00	0	25	0	128974848	73	4915
2026-01-07 05:22:29.09	54.51	8.97	-53.8	-56.5	13.4	0.00e+00	0	25	0	131072000	73	4987
2026-01-07 05:22:29.94	54.42	9.02	-53.7	-56.3	13.6	0.00e+00	0	25	0	132120576	73	4878
2026-01-07 05:22:31.09	54.30	9.10	-53.6	-56.2	13.6	0.00e+00	0	25	0	134217728	73	4855
2026-01-07 05:22:31.94	54.21	9.16	-53.7	-56.3	13.6	0.00e+00	0	25	0	136314880	73	4873
2026-01-07 05:22:33.08	54.09	9.23	-53.6	-56.2	13.7	0.00e+00	0	25	0	138412032	73	4816
2026-01-07 05:22:33.94	54.00	9.29	-53.6	-56.2	13.6	0.00e+00	0	25	0	139460608	73	4841
2026-01-07 05:22:35.08	53.87	9.37	-53.9	-56.6	13.4	0.00e+00	0	25	0	141557760	73	5062
2026-01-07 05:22:35.94	53.78	9.42	-53.7	-56.3	13.6	0.00e+00	0	25	0	143654912	73	4897
2026-01-07 05:22:37.08	53.66	9.50	-53.8	-56.4	13.5	0.00e+00	0	25	0	145752064	73	4979
2026-01-07 05:22:37.94	53.56	9.56	-53.7	-56.3	13.6	0.00e+00	0	25	0	147849216	73	4884
2026-01-07 05:22:39.07	53.44	9.63	-53.7	-56.3	13.6	0.00e+00	0	25	0	149946368	73	4884
2026-01-07 05:22:39.93	53.35	9.69	-53.8	-56.4	13.5	0.00e+00	0	25	0	150994944	73	4970
2026-01-07 05:22:41.07	53.22	9.77	-54.0	-56.7	13.3	0.00e+00	0	25	0	153092096	73	5147
2026-01-07 05:22:41.92	53.13	9.82	-54.0	-56.8	13.3	0.00e+00	0	25	0	155189248	73	5187
2026-01-07 05:22:43.07	53.00	9.90	-54.0	-56.7	13.3	0.00e+00	0	25	0	157286400	73	5145
2026-01-07 05:22:43.92	52.90	9.96	-53.8	-56.5	13.5	0.00e+00	0	25	0	158334976	73	5019
2026-01-07 05:22:45.06	52.77	10.04	-53.9	-56.7	13.4	0.00e+00	0	25	0	160432128	73	5101
2026-01-07 05:22:45.93	52.68	10.09	-53.8	-56.5	13.5	0.00e+00	0	25	0	162529280	73	5021
2026-01-07 05:22:47.06	52.55	10.17	-53.6	-56.1	13.7	0.00e+00	0	25	0	164626432	73	4803
2026-01-07 05:22:47.92	52.45	10.23	-53.7	-56.2	13.6	0.00e+00	0	25	0	165675008	73	4869
2026-01-07 05:22:49.06	52.32	10.31	-53.7	-56.3	13.6	0.00e+00	0	25	0	167772160	73	4925
2026-01-07 05:22:49.91	52.22	10.36	-53.8	-56.4	13.6	0.00e+00	0	25	0	169869312	73	4940
2026-01-07 05:22:51.05	52.09	10.44	-53.8	-56.4	13.5	0.00e+00	0	25	0	171966464	73	4971
2026-01-07 05:22:51.89	51.99	10.50	-53.8	-56.4	13.6	0.00e+00	0	25	0	173015040	73	4927
2026-01-07 05:22:53.03	51.86	10.58	-53.8	-56.5	13.5	0.00e+00	0	25	0	175112192	73	4996
2026-01-07 05:22:53.89	51.76	10.64	-53.6	-56.1	13.7	0.00e+00	0	25	0	177209344	73	4788
2026-01-07 05:22:55.03	51.62	10.71	-53.5	-56.0	13.8	0.00e+00	0	25	0	179306496	73	4721
2026-01-07 05:22:55.89	51.52	10.77	-53.6	-56.1	13.7	0.00e+00	0	25	0	181403648	73	4776
2026-01-07 05:22:57.04	51.38	10.85	-53.6	-56.1	13.7	0.00e+00	0	25	0	183500800	73	4800
2026-01-07 05:22:57.90	51.28	10.91	-53.5	-55.9	13.8	0.00e+00	0	25	0	184549376	73	4674
2026-01-07 05:22:59.05	51.14	10.99	-53.6	-56.1	13.7	0.00e+00	0	25	0	186646528	73	4768
2026-01-07 05:22:59.90	51.04	11.05	-53.5	-55.9	13.8	0.00e+00	0	25	0	188743680	73	4692
2026-01-07 05:23:01.04	50.90	11.12	-53.5	-55.9	13.7	0.00e+00	0	25	0	190840832	73	4696
2026-01-07 05:23:01.90	50.79	11.18	-53.4	-55.9	13.8	0.00e+00	0	25	0	191889408	73	4656
2026-01-07 05:23:03.05	50.65	11.26	-53.3	-55.7	13.9	0.00e+00	0	25	0	193986560	73	4551
2026-01-07 05:23:03.91	50.55	11.32	-53.4	-55.7	13.9	0.00e+00	0	25	0	196083712	73	4582
2026-01-07 05:23:05.05	50.41	11.40	-53.2	-55.5	13.9	0.00e+00	0	25	0	198180864	72	4730
2026-01-07 05:23:05.91	50.30	11.46	-53.2	-55.5	14.0	0.00e+00	0	25	0	200278016	72	4732
2026-01-07 05:23:07.04	50.16	11.54	-53.1	-55.4	14.0	0.00e+00	0	25	0	202375168	72	4657
2026-01-07 05:23:07.90	50.05	11.60	-53.1	-55.3	14.0	0.00e+00	0	25	0	203423744	72	4635
2026-01-07 05:23:09.05	49.91	11.68	-53.2	-55.6	13.9	0.00e+00	0	25	0	205520896	72	4780
2026-01-07 05:23:09.91	49.80	11.74	-53.1	-55.4	14.0	0.00e+00	0	25	0	207618048	72	4682
2026-01-07 05:23:11.06	49.65	11.82	-53.2	-55.4	14.0	0.00e+00	0	25	0	209715200	72	4705
2026-01-07 05:23:11.92	49.54	11.88	-53.2	-55.5	14.0	0.00e+00	0	25	0	210763776	72	4725
2026-01-07 05:23:13.05	49.39	11.95	-53.0	-55.2	14.1	0.00e+00	0	25	0	212860928	72	4596
2026-01-07 05:23:13.91	49.28	12.01	-58.5	-74.5	3.8	5.95e-01	0	25	104	213909504	82	23639
2026-01-07 05:23:15.06	49.13	12.09	-58.5	-74.3	3.8	1.49e+00	0	25	104	213909504	82	23288
2026-01-07 05:23:15.91	49.02	12.15	-58.5	-74.4	3.8	1.49e+00	0	25	104	213909504	82	23386
2026-01-07 05:23:17.06	48.87	12.23	-58.5	-74.4	3.8	1.49e+00	0	25	104	213909504	82	23489
2026-01-07 05:23:17.91	48.76	12.29	-58.5	-74.3	3.8	1.49e+00	0	25	104	213909504	82	23146
2026-01-07 05:23:19.06	48.61	12.37	-58.5	-74.5	3.8	1.49e+00	0	25	104	213909504	82	23654
2026-01-07 05:23:19.92	48.49	12.43	-58.4	-74.3	3.8	1.49e+00	0	25	104	213909504	82	23058
2026-01-07 05:23:21.05	48.34	12.51	-58.5	-74.4	3.8	1.49e+00	0	25	104	213909504	82	23407
2026-01-07 05:23:21.91	48.23	12.57	-58.4	-74.2	3.8	1.49e+00	0	25	104	213909504	82	22839
2026-01-07 05:23:23.05	48.07	12.65	-58.5	-74.4	3.8	1.49e+00	0	25	104	213909504	82	23432
2026-01-07 05:23:23.91	47.96	12.71	-58.4	-74.0	3.8	1.49e+00	0	25	104	213909504	82	22424
2026-01-07 05:23:25.05	47.80	12.79	-58.5	-74.3	3.8	1.49e+00	0	25	104	213909504	82	23225
2026-01-07 05:23:25.91	47.68	12.85	-58.4	-73.9	3.8	1.49e+00	0	25	104	213909504	82	22035
2026-01-07 05:23:27.05	47.52	12.93	-58.0	-71.0	3.8	1.49e+00	0	25	104	213909504	82	15938
2026-01-07 05:23:27.90	47.41	12.99	-58.4	-73.7	3.8	1.49e+00	0	25	104	213909504	82	21555
2026-01-07 05:23:29.04	47.25	13.07	-56.8	-66.8	3.8	1.49e+00	0	25	104	213909504	80	10957
2026-01-07 05:23:29.90	47.13	13.13	-55.9	-64.9	3.7	1.49e+00	0	25	104	213909504	78	9918
2026-01-07 05:23:31.04	46.97	13.21	-56.3	-65.7	3.7	1.49e+00	0	25	104	213909504	78	10889
2026-01-07 05:23:31.90	46.85	13.27	-58.4	-73.7	3.8	1.49e+00	0	25	104	213909504	82	21528
2026-01-07 05:23:33.04	46.69	13.35	-57.2	-67.9	3.8	1.49e+00	0	25	104	213909504	81	11778
2026-01-07 05:23:33.91	46.56	13.41	-55.0	-63.5	3.8	1.49e+00	0	25	104	213909504	76	9478
2026-01-07 05:23:35.05	46.40	13.49	-55.6	-65.5	3.7	1.49e+00	0	25	104	213909504	76	11868
2026-01-07 05:23:35.91	46.27	13.55	-58.5	-74.4	3.8	1.49e+00	0	25	104	213909504	82	23430
2026-01-07 05:23:37.06	46.11	13.63	-57.4	-73.2	3.8	1.49e+00	0	25	104	213909504	81	21569
2026-01-07 05:23:37.91	45.99	13.69	-53.1	-55.9	13.4	6.18e-01	0	25	0	213909504	72	4980
2026-01-07 05:23:39.05	45.82	13.77	-53.0	-55.8	13.4	0.00e+00	0	25	0	216006656	72	4921
2026-01-07 05:23:39.91	45.69	13.83	-53.1	-55.9	13.6	0.00e+00	0	25	0	218103808	72	4964
2026-01-07 05:23:41.06	45.52	13.91	-52.8	-55.6	13.8	0.00e+00	0	25	0	220200960	72	4767
2026-01-07 05:23:41.91	45.40	13.97	-52.9	-55.7	13.9	0.00e+00	0	25	0	221249536	72	4823
2026-01-07 05:23:43.05	45.23	14.05	-52.9	-55.6	13.9	0.00e+00	0	25	0	223346688	72	4813
2026-01-07 05:23:43.91	45.10	14.11	-52.8	-55.5	13.9	0.00e+00	0	25	0	225443840	72	4727
2026-01-07 05:23:45.05	44.93	14.19	-52.9	-55.6	13.8	0.00e+00	0	25	0	227540992	72	4787
2026-01-07 05:23:45.92	44.80	14.25	-52.9	-55.6	13.9	0.00e+00	0	25	0	228589568	72	4801
2026-01-07 05:23:47.06	44.62	14.33	-52.7	-55.3	14.0	0.00e+00	0	25	0	230686720	71	4892
2026-01-07 05:23:47.92	44.49	14.39	-52.7	-55.3	14.0	0.00e+00	0	25	0	232783872	71	4895
2026-01-07 05:23:49.07	44.32	14.48	-52.7	-55.4	14.0	0.00e+00	0	25	0	234881024	71	4939
2026-01-07 05:23:49.92	44.19	14.54	-52.6	-55.2	14.0	0.00e+00	0	25	0	235929600	71	4847
2026-01-07 05:23:51.05	44.01	14.61	-52.7	-55.2	14.0	0.00e+00	0	25	0	238026752	71	4870
2026-01-07 05:23:51.91	43.88	14.68	-52.6	-55.2	14.1	0.00e+00	0	25	0	240123904	71	4824
2026-01-07 05:23:53.05	43.70	14.76	-52.5	-55.1	14.1	0.00e+00	0	25	0	242221056	71	4760
2026-01-07 05:23:53.90	43.57	14.82	-52.7	-55.3	14.0	0.00e+00	0	25	0	244318208	71	4888
2026-01-07 05:23:55.05	43.38	14.90	-52.6	-55.2	14.0	0.00e+00	0	25	0	246415360	71	4848
2026-01-07 05:23:55.90	43.25	14.96	-52.7	-55.4	14.0	0.00e+00	0	25	0	247463936	71	4970
2026-01-07 05:23:57.04	43.07	15.04	-52.9	-55.7	13.8	0.00e+00	0	25	0	249561088	71	5114
2026-01-07 05:23:57.90	42.93	15.10	-53.1	-56.0	13.6	0.00e+00	0	25	0	251658240	71	5307
2026-01-07 05:23:59.04	42.75	15.18	-53.1	-56.0	13.6	0.00e+00	0	25	0	253755392	71	5309
2026-01-07 05:23:59.89	42.61	15.24	-53.1	-56.0	13.6	0.00e+00	0	25	0	254803968	71	5291
2026-01-07 05:24:01.03	42.43	15.32	-53.0	-55.8	13.7	0.00e+00	0	25	0	256901120	71	5189
2026-01-07 05:24:01.89	42.29	15.38	-52.9	-55.7	13.8	0.00e+00	0	25	0	258998272	71	5130
2026-01-07 05:24:03.03	42.10	15.46	-52.8	-55.5	13.9	0.00e+00	0	25	0	261095424	71	5013
2026-01-07 05:24:03.88	41.96	15.52	-52.8	-55.6	13.9	0.00e+00	0	25	0	262144000	71	5061
2026-01-07 05:24:05.01	41.77	15.59	-52.9	-55.7	13.8	0.00e+00	0	25	0	264241152	71	5116
2026-01-07 05:24:05.87	41.63	15.65	-52.9	-55.7	13.8	0.00e+00	0	25	0	266338304	71	5115
2026-01-07 05:24:07.00	41.44	15.73	-53.0	-55.8	13.8	0.00e+00	0	25	0	268435456	71	5164
2026-01-07 05:24:07.86	41.30	15.79	-52.8	-55.6	13.9	0.00e+00	0	25	0	269484032	71	5044
2026-01-07 05:24:09.00	41.10	15.87	-52.9	-55.6	13.9	0.00e+00	0	25	0	272629760	71	5068
2026-01-07 05:24:09.86	40.96	15.93	-52.8	-55.5	13.9	0.00e+00	0	25	0	273678336	71	5028
2026-01-07 05:24:11.00	40.76	16.01	-52.8	-55.6	13.9	0.00e+00	0	25	0	275775488	71	5057
2026-01-07 05:24:11.86	40.62	16.07	-52.9	-55.7	13.8	0.00e+00	0	25	0	277872640	71	5111
2026-01-07 05:24:13.01	40.42	16.15	-52.8	-55.6	13.9	0.00e+00	0	25	0	279969792	71	5084
2026-01-07 05:24:13.87	40.27	16.21	-52.8	-55.5	13.9	0.00e+00	0	25	0	281018368	71	5013
2026-01-07 05:24:15.01	40.07	16.29	-52.8	-55.5	13.9	0.00e+00	0	25	0	283115520	71	5027
2026-01-07 05:24:15.87	39.92	16.35	-52.7	-55.3	14.0	0.00e+00	0	25	0	285212672	71	4901
2026-01-07 05:24:17.01	39.72	16.43	-52.6	-55.2	14.1	0.00e+00	0	25	0	287309824	71	4844
2026-01-07 05:24:17.87	39.57	16.49	-52.5	-55.0	14.2	0.00e+00	0	25	0	288358400	71	4724
2026-01-07 05:24:19.02	39.37	16.57	-52.5	-55.1	14.1	0.00e+00	0	25	0	290455552	71	4799
2026-01-07 05:24:19.88	39.22	16.63	-52.7	-55.4	14.0	0.00e+00	0	25	0	292552704	71	4949
2026-01-07 05:24:21.02	39.01	16.71	-52.8	-55.4	14.0	0.00e+00	0	25	0	294649856	71	4977
2026-01-07 05:24:21.88	38.86	16.77	-52.8	-55.5	13.9	0.00e+00	0	25	0	296747008	71	5035
2026-01-07 05:24:23.03	38.65	16.84	-52.8	-55.5	14.0	0.00e+00	0	25	0	298844160	71	5007
2026-01-07 05:24:23.89	38.50	16.90	-52.9	-55.7	13.8	0.00e+00	0	25	0	299892736	71	5142
2026-01-07 05:24:25.03	38.29	16.98	-52.9	-55.7	13.8	0.00e+00	0	25	0	301989888	71	5127
2026-01-07 05:24:25.89	38.13	17.04	-52.9	-55.7	13.8	0.00e+00	0	25	0	304087040	71	5144
2026-01-07 05:24:27.03	37.93	17.12	-53.0	-55.9	13.7	0.00e+00	0	25	0	306184192	71	5221
2026-01-07 05:24:27.88	37.77	17.18	-52.9	-55.7	13.8	0.00e+00	0	25	0	307232768	71	5141
2026-01-07 05:24:29.02	37.56	17.25	-52.9	-55.7	13.8	0.00e+00	0	25	0	309329920	71	5127
2026-01-07 05:24:29.88	37.40	17.31	-52.8	-55.5	13.9	0.00e+00	0	25	0	311427072	71	4998
2026-01-07 05:24:31.02	37.19	17.39	-52.6	-55.1	14.2	0.00e+00	0	25	0	313524224	71	4780
2026-01-07 05:24:31.88	37.02	17.45	-52.5	-55.1	14.2	0.00e+00	0	25	0	314572800	71	4779
2026-01-07 05:24:33.02	36.81	17.53	-52.3	-54.7	14.3	0.00e+00	0	25	0	316669952	71	4595
2026-01-07 05:24:33.88	36.65	17.58	-52.2	-54.6	14.4	0.00e+00	0	25	0	318767104	71	4517
2026-01-07 05:24:35.02	36.43	17.66	-52.4	-54.8	14.3	0.00e+00	0	25	0	320864256	71	4645
2026-01-07 05:24:35.87	36.27	17.72	-52.4	-54.9	14.3	0.00e+00	0	25	0	322961408	71	4652
2026-01-07 05:24:37.02	36.05	17.79	-52.3	-54.9	14.3	0.00e+00	0	25	0	325058560	71	4669
2026-01-07 05:24:37.88	35.88	17.85	-52.3	-54.8	14.3	0.00e+00	0	25	0	326107136	71	4650
2026-01-07 05:24:39.03	35.66	17.93	-52.1	-54.6	14.3	0.00e+00	0	25	0	328204288	70	4790
2026-01-07 05:24:39.88	35.49	17.98	-52.1	-54.6	14.3	0.00e+00	0	25	0	330301440	70	4781
2026-01-07 05:24:41.03	35.27	18.06	-52.1	-54.7	14.2	0.00e+00	0	25	0	332398592	70	4839
2026-01-07 05:24:41.89	35.10	18.12	-52.0	-54.5	14.4	0.00e+00	0	25	0	333447168	70	4722
2026-01-07 05:24:43.03	34.88	18.19	-51.8	-54.3	14.5	0.00e+00	0	25	0	335544320	70	4609
2026-01-07 05:24:43.89	34.71	18.25	-51.7	-54.2	14.5	0.00e+00	0	25	0	337641472	70	4547
2026-01-07 05:24:45.03	34.48	18.32	-51.4	-53.7	14.6	0.00e+00	0	25	0	339738624	69	4548
2026-01-07 05:24:45.89	34.31	18.38	-51.3	-53.6	14.7	0.00e+00	0	25	0	341835776	69	4521
2026-01-07 05:24:47.03	34.08	18.46	-51.4	-53.7	14.7	0.00e+00	0	25	0	343932928	69	4555
2026-01-07 05:24:47.89	33.91	18.51	-51.3	-53.4	14.8	0.00e+00	0	25	0	344981504	69	4430
2026-01-07 05:24:49.03	33.67	18.59	-51.5	-53.7	14.6	0.00e+00	0	25	0	347078656	69	4588
2026-01-07 05:24:49.89	33.50	18.64	-51.4	-53.7	14.6	0.00e+00	0	25	0	349175808	69	4578
2026-01-07 05:24:51.03	33.27	18.71	-51.4	-53.6	14.6	0.00e+00	0	25	0	351272960	69	4542
2026-01-07 05:24:51.88	33.09	18.77	-51.5	-53.7	14.5	0.00e+00	0	25	0	352321536	69	4593
2026-01-07 05:24:53.03	32.86	18.84	-51.4	-53.7	14.6	0.00e+00	0	25	0	354418688	69	4547
2026-01-07 05:24:53.89	32.68	18.90	-51.3	-53.5	14.7	0.00e+00	0	25	0	356515840	69	4474
2026-01-07 05:24:55.03	32.44	18.97	-51.3	-53.5	14.7	0.00e+00	0	25	0	358612992	69	4468
2026-01-07 05:24:55.88	32.27	19.02	-51.3	-53.5	14.7	0.00e+00	0	25	0	359661568	69	4469
2026-01-07 05:24:57.02	32.03	19.10	-51.3	-53.4	14.7	0.00e+00	0	25	0	361758720	69	4419
2026-01-07 05:24:57.88	31.85	19.15	-51.3	-53.3	14.8	0.00e+00	0	25	0	363855872	69	4385
2026-01-07 05:24:59.02	31.61	19.22	-51.2	-53.3	14.6	0.00e+00	0	25	0	365953024	68	4635
2026-01-07 05:24:59.87	31.43	19.27	-51.0	-53.1	14.7	0.00e+00	0	25	0	367001600	68	4503
2026-01-07 05:25:01.02	31.18	19.35	-51.2	-53.2	14.7	0.00e+00	0	25	0	370147328	68	4594
2026-01-07 05:25:01.87	31.00	19.40	-51.1	-53.2	14.7	0.00e+00	0	25	0	371195904	68	4555
2026-01-07 05:25:03.01	30.75	19.47	-51.1	-53.2	14.7	0.00e+00	0	25	0	373293056	68	4575
2026-01-07 05:25:03.87	30.57	19.52	-51.1	-53.1	14.7	0.00e+00	0	25	0	375390208	68	4545
2026-01-07 05:25:05.00	30.32	19.59	-51.1	-53.2	14.7	0.00e+00	0	25	0	377487360	68	4562
2026-01-07 05:25:05.85	30.14	19.64	-51.2	-53.3	14.6	0.00e+00	0	25	0	378535936	68	4623
2026-01-07 05:25:06.99	29.89	19.71	-51.4	-53.6	14.5	0.00e+00	0	25	0	380633088	68	4795
2026-01-07 05:25:07.84	29.71	19.76	-51.4	-53.6	14.5	0.00e+00	0	25	0	382730240	68	4800
2026-01-07 05:25:08.98	29.46	19.83	-51.3	-53.5	14.6	0.00e+00	0	25	0	384827392	68	4708
2026-01-07 05:25:09.84	29.27	19.88	-51.0	-53.1	14.8	0.00e+00	0	25	0	385875968	68	4530
2026-01-07 05:25:10.98	29.01	19.95	-50.7	-52.7	14.9	0.00e+00	0	25	0	387973120	68	4328
2026-01-07 05:25:11.84	28.82	20.00	-50.8	-52.8	14.9	0.00e+00	0	25	0	390070272	68	4383
2026-01-07 05:25:12.99	28.57	20.07	-50.7	-52.7	14.9	0.00e+00	0	25	0	392167424	68	4322
2026-01-07 05:25:13.85	28.37	20.12	-50.8	-52.8	14.9	0.00e+00	0	25	0	394264576	68	4387
2026-01-07 05:25:14.99	28.12	20.18	-50.8	-52.8	14.9	0.00e+00	0	25	0	396361728	68	4348
2026-01-07 05:25:15.84	27.92	20.23	-50.9	-52.8	14.9	0.00e+00	0	25	0	397410304	68	4389
2026-01-07 05:25:16.99	27.66	20.30	-50.9	-52.9	14.9	0.00e+00	0	25	0	399507456	68	4403
2026-01-07 05:25:17.85	27.47	20.35	-50.9	-52.9	14.8	0.00e+00	0	25	0	401604608	68	4395
2026-01-07 05:25:18.99	27.21	20.41	-50.9	-52.9	14.9	0.00e+00	0	25	0	403701760	68	4407
2026-01-07 05:25:19.84	27.01	20.46	-50.8	-52.8	14.9	0.00e+00	0	25	0	404750336	68	4358
2026-01-07 05:25:20.98	26.75	20.52	-51.0	-53.0	14.8	0.00e+00	0	25	0	406847488	68	4474
2026-01-07 05:25:21.84	26.55	20.57	-51.0	-53.0	14.9	0.00e+00	0	25	0	408944640	68	4442
2026-01-07 05:25:22.98	26.29	20.63	-50.8	-52.8	14.9	0.00e+00	0	25	0	411041792	68	4349
2026-01-07 05:25:23.83	26.09	20.68	-50.8	-52.7	14.9	0.00e+00	0	25	0	412090368	68	4328
2026-01-07 05:25:24.98	25.82	20.74	-50.5	-52.3	14.9	0.00e+00	0	25	0	414187520	67	4375
2026-01-07 05:25:25.83	25.62	20.79	-50.5	-52.3	14.9	0.00e+00	0	25	0	416284672	67	4391
2026-01-07 05:25:26.98	25.35	20.85	-50.7	-52.7	14.8	0.00e+00	0	25	0	418381824	67	4553
2026-01-07 05:25:27.84	25.15	20.90	-50.7	-52.6	14.8	0.00e+00	0	25	0	420478976	67	4542
2026-01-07 05:25:28.98	24.88	20.96	-50.6	-52.4	14.9	0.00e+00	0	25	0	422576128	67	4413
2026-01-07 05:25:29.84	24.68	21.00	-50.3	-52.0	15.1	0.00e+00	0	25	0	423624704	67	4237
2026-01-07 05:25:30.98	24.40	21.06	-50.1	-51.9	15.0	0.00e+00	0	25	0	425721856	66	4404
2026-01-07 05:25:31.84	24.20	21.11	-50.2	-52.0	14.9	0.00e+00	0	25	0	427819008	66	4458
2026-01-07 05:25:32.99	23.92	21.17	-50.4	-52.2	14.8	0.00e+00	0	25	0	429916160	66	4561
2026-01-07 05:25:33.85	23.72	21.21	-50.5	-52.4	14.8	0.00e+00	0	25	0	430964736	66	4668
2026-01-07 05:25:34.99	23.44	21.27	-50.5	-52.3	14.8	0.00e+00	0	25	0	433061888	66	4613
2026-01-07 05:25:35.85	23.23	21.31	-50.3	-52.0	14.9	0.00e+00	0	25	0	435159040	66	4489
2026-01-07 05:25:37.00	22.95	21.37	-50.2	-51.9	14.9	0.00e+00	0	25	0	437256192	66	4424
2026-01-07 05:25:37.85	22.75	21.41	-50.4	-52.1	14.8	0.00e+00	0	25	0	438304768	66	4523
2026-01-07 05:25:39.00	22.46	21.46	-50.4	-52.1	14.8	0.00e+00	0	25	0	440401920	66	4545
2026-01-07 05:25:39.85	22.26	21.50	-50.5	-52.2	14.8	0.00e+00	0	25	0	442499072	66	4588
2026-01-07 05:25:40.99	21.97	21.56	-50.6	-52.4	14.7	0.00e+00	0	25	0	444596224	66	4698
2026-01-07 05:25:41.85	21.76	21.60	-50.4	-52.2	14.8	0.00e+00	0	25	0	446693376	66	4583
2026-01-07 05:25:43.00	21.48	21.65	-50.4	-52.2	14.8	0.00e+00	0	25	0	448790528	66	4575
2026-01-07 05:25:43.86	21.26	21.69	-50.5	-52.3	14.8	0.00e+00	0	25	0	449839104	66	4630
2026-01-07 05:25:45.01	20.98	21.74	-50.6	-52.4	14.8	0.00e+00	0	25	0	451936256	66	4658
2026-01-07 05:25:45.86	20.76	21.78	-50.8	-52.6	14.7	0.00e+00	0	25	0	454033408	66	4803
2026-01-07 05:25:47.00	20.48	21.83	-50.8	-52.7	14.8	0.00e+00	0	25	0	456130560	67	4548
2026-01-07 05:25:47.86	20.26	21.87	-50.7	-52.6	14.8	0.00e+00	0	25	0	457179136	67	4510
2026-01-07 05:25:49.00	19.98	21.92	-50.4	-52.1	15.0	0.00e+00	0	25	0	459276288	67	4285
2026-01-07 05:25:49.86	19.76	21.96	-50.4	-52.2	15.0	0.00e+00	0	25	0	461373440	67	4305
2026-01-07 05:25:51.00	19.47	22.01	-50.5	-52.3	14.9	0.00e+00	0	25	0	463470592	67	4388
2026-01-07 05:25:51.85	19.25	22.04	-50.6	-52.4	14.9	0.00e+00	0	25	0	464519168	67	4412
2026-01-07 05:25:53.00	18.96	22.09	-50.7	-52.5	14.8	0.00e+00	0	25	0	467664896	67	4480
2026-01-07 05:25:53.85	18.74	22.12	-50.7	-52.5	14.9	0.00e+00	0	25	0	468713472	67	4450
2026-01-07 05:25:55.00	18.45	22.17	-50.5	-52.2	15.0	0.00e+00	0	25	0	470810624	67	4315
2026-01-07 05:25:55.86	18.23	22.21	-50.5	-52.2	14.9	0.00e+00	0	25	0	472907776	67	4335
2026-01-07 05:25:57.00	17.93	22.25	-50.4	-52.1	15.0	0.00e+00	0	25	0	475004928	67	4246
2026-01-07 05:25:57.86	17.71	22.28	-50.4	-52.1	15.0	0.00e+00	0	25	0	476053504	67	4265
2026-01-07 05:25:59.00	17.42	22.33	-50.6	-52.3	14.9	0.00e+00	0	25	0	478150656	67	4379
2026-01-07 05:25:59.85	17.20	22.36	-50.8	-52.5	14.8	0.00e+00	0	25	0	480247808	67	4482
2026-01-07 05:26:00.99	16.90	22.40	-50.6	-52.3	14.9	0.00e+00	0	25	0	482344960	67	4375
2026-01-07 05:26:01.85	16.67	22.43	-50.7	-52.5	14.8	0.00e+00	0	25	0	483393536	67	4447
2026-01-07 05:26:02.99	16.38	22.47	-50.8	-52.5	14.8	0.00e+00	0	25	0	485490688	67	4464
2026-01-07 05:26:03.84	16.15	22.50	-51.1	-53.0	14.6	0.00e+00	0	25	0	487587840	67	4724
2026-01-07 05:26:04.99	15.85	22.54	-51.6	-53.6	14.5	0.00e+00	0	25	0	489684992	68	4774
2026-01-07 05:26:05.84	15.63	22.57	-52.1	-54.2	14.3	0.00e+00	0	25	0	490733568	69	4842
2026-01-07 05:26:06.97	15.33	22.61	-52.3	-54.6	14.2	0.00e+00	0	25	0	492830720	69	5045
2026-01-07 05:26:07.83	15.10	22.64	-52.5	-54.8	14.2	0.00e+00	0	25	0	494927872	70	4872
2026-01-07 05:26:08.98	14.80	22.67	-52.3	-54.6	14.3	0.00e+00	0	25	0	497025024	70	4773
2026-01-07 05:26:09.83	14.57	22.70	-52.4	-54.6	14.3	0.00e+00	0	25	0	499122176	70	4775
2026-01-07 05:26:10.97	14.27	22.74	-52.6	-55.0	14.1	0.00e+00	0	25	0	501219328	70	4987
2026-01-07 05:26:11.83	14.04	22.76	-52.4	-54.6	14.3	0.00e+00	0	25	0	502267904	70	4801
2026-01-07 05:26:12.97	13.74	22.80	-52.4	-54.7	14.3	0.00e+00	0	25	0	504365056	70	4828
2026-01-07 05:26:13.83	13.51	22.82	-52.2	-54.4	14.3	0.00e+00	0	25	0	506462208	70	4691
2026-01-07 05:26:14.97	13.20	22.85	-52.0	-54.1	14.5	0.00e+00	0	25	0	508559360	70	4516
2026-01-07 05:26:15.83	12.97	22.88	-51.6	-53.6	14.7	0.00e+00	0	25	0	509607936	69	4496
2026-01-07 05:26:16.97	12.66	22.91	-51.7	-53.7	14.6	0.00e+00	0	25	0	511705088	69	4585
2026-01-07 05:26:17.83	12.43	22.93	-51.9	-54.0	14.5	0.00e+00	0	25	0	513802240	69	4725
2026-01-07 05:26:18.97	12.12	22.96	-52.0	-54.2	14.4	0.00e+00	0	25	0	515899392	69	4816
2026-01-07 05:26:19.82	11.89	22.98	-52.1	-54.2	14.3	0.00e+00	0	25	0	516947968	69	4856
2026-01-07 05:26:20.98	11.58	23.01	-51.7	-53.8	14.5	0.00e+00	0	25	0	519045120	69	4609
2026-01-07 05:26:21.83	11.35	23.03	-51.6	-53.6	14.6	0.00e+00	0	25	0	521142272	69	4544
2026-01-07 05:26:22.97	11.04	23.06	-51.7	-53.7	14.6	0.00e+00	0	25	0	523239424	69	4584
2026-01-07 05:26:23.84	10.80	23.08	-51.9	-54.1	14.4	0.00e+00	0	25	0	525336576	69	4775
2026-01-07 05:26:24.98	10.49	23.10	-52.0	-54.2	14.3	0.00e+00	0	25	0	527433728	69	4854
2026-01-07 05:26:25.83	10.26	23.12	-52.1	-54.4	14.2	0.00e+00	0	25	0	528482304	69	4938
2026-01-07 05:26:26.97	9.95	23.14	-52.1	-54.3	14.3	0.00e+00	0	25	0	530579456	69	4890
2026-01-07 05:26:27.83	9.71	23.16	-51.9	-54.0	14.4	0.00e+00	0	25	0	532676608	69	4753
2026-01-07 05:26:28.97	9.40	23.18	-51.8	-53.9	14.4	0.00e+00	0	25	0	534773760	69	4703
2026-01-07 05:26:29.83	9.17	23.20	-52.1	-54.3	14.3	0.00e+00	0	25	0	535822336	69	4896
2026-01-07 05:26:30.97	8.85	23.22	-52.4	-54.7	14.1	0.00e+00	0	25	0	537919488	69	5141
2026-01-07 05:26:31.82	8.62	23.23	-52.4	-54.8	14.2	0.00e+00	0	25	0	540016640	70	4908
2026-01-07 05:26:32.96	8.31	23.25	-52.7	-55.3	13.9	0.00e+00	0	25	0	542113792	70	5166
2026-01-07 05:26:33.82	8.07	23.26	-52.7	-55.2	14.0	0.00e+00	0	25	0	543162368	70	5121
2026-01-07 05:26:34.96	7.76	23.28	-52.3	-54.7	14.2	0.00e+00	0	25	0	546308096	70	4849
2026-01-07 05:26:35.82	7.52	23.29	-52.3	-54.7	14.2	0.00e+00	0	25	0	547356672	70	4844
2026-01-07 05:26:36.96	7.20	23.31	-52.3	-54.6	14.3	0.00e+00	0	25	0	549453824	70	4800
2026-01-07 05:26:37.81	6.97	23.32	-52.4	-54.8	14.2	0.00e+00	0	25	0	551550976	70	4899
2026-01-07 05:26:38.95	6.65	23.33	-52.7	-55.2	14.0	0.00e+00	0	25	0	553648128	70	5121
2026-01-07 05:26:39.80	6.42	23.34	-53.1	-55.7	13.8	0.00e+00	0	25	0	554696704	71	5132
2026-01-07 05:26:40.94	6.10	23.35	-53.2	-55.9	13.7	0.00e+00	0	25	0	556793856	71	5244
2026-01-07 05:26:41.80	5.86	23.36	-53.3	-56.2	13.5	0.00e+00	0	25	0	558891008	71	5410
2026-01-07 05:26:42.95	5.55	23.37	-53.4	-56.4	13.5	0.00e+00	0	25	0	560988160	71	5541
2026-01-07 05:26:43.80	5.31	23.38	-53.4	-56.3	13.6	0.00e+00	0	25	0	562036736	72	5183
2026-01-07 05:26:44.94	4.99	23.39	-53.1	-55.8	14.0	0.00e+00	0	25	0	564133888	72	4872
2026-01-07 05:26:45.81	4.75	23.39	-53.1	-55.7	14.0	0.00e+00	0	25	0	566231040	72	4852
2026-01-07 05:26:46.94	4.44	23.40	-52.9	-55.5	14.1	0.00e+00	0	25	0	568328192	72	4719
2026-01-07 05:26:47.80	4.20	23.41	-52.9	-55.5	14.0	0.00e+00	0	25	0	569376768	72	4743
2026-01-07 05:26:48.94	3.88	23.41	-52.3	-54.7	14.3	0.00e+00	0	25	0	572522496	71	4556
2026-01-07 05:26:49.81	3.64	23.41	-52.0	-54.2	14.4	0.00e+00	0	25	0	573571072	70	4570
2026-01-07 05:26:50.95	3.32	23.42	-51.6	-53.8	14.5	0.00e+00	0	25	0	575668224	69	4630
2026-01-07 05:26:51.81	3.08	23.42	-51.5	-53.7	14.5	0.00e+00	0	25	0	577765376	69	4547
2026-01-07 05:26:52.95	2.77	23.42	-51.7	-54.0	14.4	0.00e+00	0	25	0	579862528	69	4712
2026-01-07 05:26:53.81	2.53	23.42	-51.9	-54.3	14.3	0.00e+00	0	25	0	580911104	69	4875
2026-01-07 05:26:54.95	2.21	23.42	-52.1	-54.6	14.2	0.00e+00	0	25	0	583008256	69	5055
2026-01-07 05:26:55.80	1.97	23.42	-52.1	-54.5	14.2	0.00e+00	0	25	0	585105408	69	5006
2026-01-07 05:26:56.93	1.66	23.42	-52.0	-54.4	14.2	0.00e+00	0	25	0	587202560	69	4965
2026-01-07 05:26:57.78	1.42	23.42	-51.9	-54.2	14.3	0.00e+00	0	25	0	588251136	69	4827
2026-01-07 05:26:58.92	1.11	23.42	-51.6	-53.7	14.5	0.00e+00	0	25	0	590348288	69	4598
2026-01-07 05:26:59.78	0.87	23.42	-51.6	-53.7	14.6	0.00e+00	0	25	0	592445440	69	4578
2026-01-07 05:27:00.91	0.55	23.41	-51.7	-53.8	14.5	0.00e+00	0	25	0	594542592	69	4650
2026-01-07 05:27:01.76	0.32	23.41	-51.7	-53.8	14.5	0.00e+00	0	25	0	595591168	69	4637
2026-01-07 05:27:02.90	360.00	23.40	-51.8	-53.9	14.5	0.00e+00	0	25	0	597688320	69	4696
2026-01-07 05:27:03.76	359.76	23.40	-51.7	-53.8	14.5	0.00e+00	0	25	0	599785472	69	4629
2026-01-07 05:27:04.89	359.45	23.39	-51.7	-53.9	14.5	0.00e+00	0	25	0	601882624	69	4671
2026-01-07 05:27:05.75	359.21	23.38	-51.6	-53.7	14.5	0.00e+00	0	25	0	603979776	69	4574
2026-01-07 05:27:06.90	358.89	23.37	-51.5	-53.5	14.6	0.00e+00	0	25	0	606076928	69	4492
2026-01-07 05:27:07.75	358.65	23.36	-51.5	-53.5	14.7	0.00e+00	0	25	0	607125504	69	4467
2026-01-07 05:27:08.90	358.33	23.35	-51.3	-53.2	14.6	0.00e+00	0	25	0	609222656	68	4575
2026-01-07 05:27:09.75	358.10	23.34	-51.2	-53.1	14.7	0.00e+00	0	25	0	611319808	68	4522
2026-01-07 05:27:10.89	357.78	23.33	-51.1	-53.0	14.7	0.00e+00	0	25	0	613416960	68	4463
2026-01-07 05:27:11.75	357.54	23.32	-51.2	-53.1	14.7	0.00e+00	0	25	0	614465536	68	4516
2026-01-07 05:27:12.89	357.23	23.31	-51.5	-53.6	14.5	0.00e+00	0	25	0	616562688	68	4765
2026-01-07 05:27:13.75	356.99	23.30	-51.8	-53.9	14.4	0.00e+00	0	25	0	618659840	68	4981
2026-01-07 05:27:14.89	356.68	23.28	-51.6	-53.6	14.5	0.00e+00	0	25	0	620756992	68	4767
2026-01-07 05:27:15.75	356.44	23.27	-51.4	-53.3	14.6	0.00e+00	0	25	0	621805568	68	4631
2026-01-07 05:27:16.89	356.13	23.25	-51.1	-52.9	14.8	0.00e+00	0	25	0	624951296	68	4405
2026-01-07 05:27:17.76	355.89	23.23	-50.8	-52.5	15.0	0.00e+00	0	25	0	625999872	68	4237
2026-01-07 05:27:18.89	355.58	23.22	-51.0	-52.7	14.9	0.00e+00	0	25	0	628097024	68	4310
2026-01-07 05:27:19.76	355.34	23.20	-51.1	-52.9	14.8	0.00e+00	0	25	0	630194176	68	4439
2026-01-07 05:27:20.90	355.03	23.18	-51.0	-52.8	14.8	0.00e+00	0	25	0	632291328	68	4383
2026-01-07 05:27:21.76	354.79	23.16	-50.8	-52.6	14.9	0.00e+00	0	25	0	633339904	68	4250
2026-01-07 05:27:22.91	354.48	23.14	-50.9	-52.7	14.9	0.00e+00	0	25	0	635437056	68	4297
2026-01-07 05:27:23.76	354.24	23.12	-50.9	-52.6	14.9	0.00e+00	0	25	0	637534208	68	4272
2026-01-07 05:27:24.91	353.93	23.10	-50.4	-52.1	15.0	0.00e+00	0	25	0	639631360	67	4267
2026-01-07 05:27:25.77	353.70	23.08	-50.7	-52.4	14.8	0.00e+00	0	25	0	640679936	67	4409
2026-01-07 05:27:26.90	353.39	23.06	-50.5	-52.2	15.0	0.00e+00	0	25	0	642777088	67	4306
2026-01-07 05:27:27.76	353.16	23.04	-50.4	-52.0	15.0	0.00e+00	0	25	0	644874240	67	4233
2026-01-07 05:27:28.90	352.85	23.01	-50.4	-52.1	15.0	0.00e+00	0	25	0	646971392	67	4249
2026-01-07 05:27:29.76	352.61	22.99	-50.5	-52.2	15.0	0.00e+00	0	25	0	649068544	67	4302
2026-01-07 05:27:30.91	352.30	22.96	-50.8	-52.5	14.8	0.00e+00	0	25	0	651165696	67	4493
2026-01-07 05:27:31.77	352.07	22.94	-50.9	-52.6	14.8	0.00e+00	0	25	0	652214272	67	4531
2026-01-07 05:27:32.91	351.76	22.91	-51.0	-52.8	14.7	0.00e+00	0	25	0	654311424	67	4609
2026-01-07 05:27:33.77	351.53	22.88	-50.9	-52.6	14.7	0.00e+00	0	25	0	656408576	67	4540
2026-01-07 05:27:34.91	351.23	22.85	-50.9	-52.7	14.7	0.00e+00	0	25	0	658505728	67	4568
2026-01-07 05:27:35.77	351.00	22.83	-50.8	-52.6	14.8	0.00e+00	0	25	0	659554304	67	4504
2026-01-07 05:27:36.92	350.69	22.79	-50.9	-52.7	14.7	0.00e+00	0	25	0	661651456	67	4584
2026-01-07 05:27:37.77	350.46	22.77	-50.9	-52.6	14.8	0.00e+00	0	25	0	663748608	67	4535
2026-01-07 05:27:38.91	350.16	22.73	-50.6	-52.3	14.9	0.00e+00	0	25	0	665845760	67	4348
2026-01-07 05:27:39.77	349.93	22.71	-50.4	-52.0	15.0	0.00e+00	0	25	0	666894336	67	4232
2026-01-07 05:27:40.91	349.63	22.67	-50.3	-51.9	15.0	0.00e+00	0	25	0	668991488	66	4436
2026-01-07 05:27:41.77	349.40	22.64	-50.4	-52.0	14.9	0.00e+00	0	25	0	671088640	66	4482
2026-01-07 05:27:42.92	349.09	22.61	-50.7	-52.5	14.7	0.00e+00	0	25	0	673185792	66	4717
2026-01-07 05:27:43.78	348.87	22.58	-51.2	-53.1	14.6	0.00e+00	0	25	0	675282944	67	4794
2026-01-07 05:27:44.93	348.57	22.54	-51.3	-53.2	14.5	0.00e+00	0	25	0	677380096	67	4830
2026-01-07 05:27:45.78	348.34	22.51	-51.3	-53.3	14.5	0.00e+00	0	25	0	678428672	67	4879
2026-01-07 05:27:46.92	348.04	22.47	-51.1	-52.9	14.6	0.00e+00	0	25	0	680525824	67	4677
2026-01-07 05:27:47.78	347.82	22.44	-51.1	-52.9	14.6	0.00e+00	0	25	0	682622976	67	4682
2026-01-07 05:27:48.92	347.52	22.40	-50.7	-52.4	14.9	0.00e+00	0	25	0	684720128	67	4437
2026-01-07 05:27:49.78	347.30	22.37	-50.8	-52.6	14.8	0.00e+00	0	25	0	685768704	67	4542
2026-01-07 05:27:50.92	347.00	22.32	-50.9	-52.8	14.7	0.00e+00	0	25	0	687865856	67	4601
2026-01-07 05:27:51.78	346.78	22.29	-50.9	-52.9	14.7	0.00e+00	0	25	0	689963008	67	4660
2026-01-07 05:27:52.93	346.48	22.25	-50.8	-53.0	14.7	0.00e+00	0	25	0	692060160	67	4722
2026-01-07 05:27:53.78	346.26	22.21	-50.8	-53.0	14.7	0.00e+00	0	25	0	694157312	67	4738
2026-01-07 05:27:54.92	345.97	22.17	-50.9	-53.5	14.6	0.00e+00	0	25	0	695205888	67	5011
2026-01-07 05:27:55.78	345.75	22.13	-50.9	-53.6	14.5	0.00e+00	0	25	0	697303040	67	5070
2026-01-07 05:27:56.93	345.46	22.08	-50.9	-53.9	14.4	0.00e+00	0	25	0	699400192	67	5247
2026-01-07 05:27:57.78	345.24	22.05	-51.0	-54.3	14.2	0.00e+00	0	25	0	701497344	67	5475
2026-01-07 05:27:58.92	344.95	22.00	-51.2	-54.7	14.1	0.00e+00	0	25	0	703594496	67	5772
2026-01-07 05:27:59.78	344.73	21.97	-51.2	-54.8	14.0	0.00e+00	0	25	0	704643072	67	5795
2026-01-07 05:28:00.92	344.44	21.92	-51.3	-54.9	13.9	0.00e+00	0	25	0	706740224	67	5885
2026-01-07 05:28:01.77	344.23	21.88	-51.4	-54.9	13.9	0.00e+00	0	25	0	708837376	67	5900
2026-01-07 05:28:02.91	343.94	21.83	-51.5	-54.8	14.0	0.00e+00	0	25	0	710934528	68	5508
2026-01-07 05:28:03.76	343.73	21.79	-51.5	-54.6	14.2	0.00e+00	0	25	0	711983104	68	5372
2026-01-07 05:28:04.90	343.44	21.74	-51.6	-54.5	14.2	0.00e+00	0	25	0	714080256	68	5303
2026-01-07 05:28:05.76	343.23	21.70	-51.6	-54.2	14.3	0.00e+00	0	25	0	716177408	68	5110
2026-01-07 05:28:06.90	342.95	21.65	-51.7	-54.0	14.3	0.00e+00	0	25	0	718274560	68	4994
2026-01-07 05:28:07.75	342.74	21.61	-51.8	-54.0	14.3	0.00e+00	0	25	0	719323136	68	5037
2026-01-07 05:28:08.89	342.46	21.56	-51.8	-54.0	14.3	0.00e+00	0	25	0	722468864	68	5013
2026-01-07 05:28:09.74	342.25	21.51	-52.0	-54.3	14.3	0.00e+00	0	25	0	723517440	69	4875
2026-01-07 05:28:10.89	341.96	21.46	-52.1	-54.3	14.3	0.00e+00	0	25	0	725614592	69	4897
2026-01-07 05:28:11.75	341.75	21.42	-52.0	-54.3	14.3	0.00e+00	0	25	0	727711744	69	4879
2026-01-07 05:28:12.89	341.48	21.36	-51.8	-54.0	14.4	0.00e+00	0	25	0	729808896	69	4716
2026-01-07 05:28:13.75	341.27	21.32	-51.6	-53.7	14.6	0.00e+00	0	25	0	730857472	69	4583
2026-01-07 05:28:14.90	340.99	21.26	-51.7	-53.9	14.5	0.00e+00	0	25	0	732954624	69	4660
2026-01-07 05:28:15.75	340.78	21.22	-51.7	-53.8	14.5	0.00e+00	0	25	0	735051776	69	4645
2026-01-07 05:28:16.89	340.51	21.16	-51.8	-53.9	14.5	0.00e+00	0	25	0	737148928	69	4666
2026-01-07 05:28:17.75	340.30	21.12	-51.6	-53.7	14.6	0.00e+00	0	25	0	738197504	69	4546
2026-01-07 05:28:18.89	340.03	21.06	-51.6	-53.6	14.6	0.00e+00	0	25	0	740294656	69	4544
2026-01-07 05:28:19.75	339.82	21.01	-51.6	-53.6	14.6	0.00e+00	0	25	0	742391808	69	4541
2026-01-07 05:28:20.90	339.55	20.95	-51.8	-53.9	14.5	0.00e+00	0	25	0	744488960	69	4701
2026-01-07 05:28:21.76	339.35	20.91	-51.9	-54.1	14.4	0.00e+00	0	25	0	745537536	69	4771
2026-01-07 05:28:22.90	339.08	20.85	-52.2	-54.4	14.2	0.00e+00	0	25	0	748683264	69	4977
2026-01-07 05:28:23.76	338.88	20.80	-52.1	-54.4	14.3	0.00e+00	0	25	0	749731840	69	4953
2026-01-07 05:28:24.90	338.61	20.74	-52.4	-54.8	14.1	0.00e+00	0	25	0	751828992	69	5160
2026-01-07 05:28:25.76	338.41	20.69	-52.4	-54.8	14.2	0.00e+00	0	25	0	753926144	70	4892
2026-01-07 05:28:26.91	338.14	20.63	-52.2	-54.5	14.3	0.00e+00	0	25	0	756023296	70	4735
2026-01-07 05:28:27.77	337.94	20.58	-52.2	-54.5	14.3	0.00e+00	0	25	0	757071872	70	4747
2026-01-07 05:28:28.91	337.68	20.52	-52.2	-54.5	14.3	0.00e+00	0	25	0	759169024	70	4749
2026-01-07 05:28:29.77	337.48	20.47	-52.2	-54.6	14.3	0.00e+00	0	25	0	761266176	70	4784
2026-01-07 05:28:30.92	337.22	20.41	-52.3	-54.7	14.2	0.00e+00	0	25	0	763363328	70	4836
2026-01-07 05:28:31.78	337.02	20.36	-52.7	-55.3	13.9	0.00e+00	0	25	0	764411904	70	5198
2026-01-07 05:28:32.91	336.76	20.29	-53.1	-55.9	13.7	0.00e+00	0	25	0	766509056	71	5269
2026-01-07 05:28:33.76	336.57	20.25	-53.5	-56.6	13.4	0.00e+00	0	25	0	768606208	72	5368
2026-01-07 05:28:34.90	336.31	20.18	-53.7	-57.0	13.2	0.00e+00	0	25	0	770703360	72	5655
2026-01-07 05:28:35.75	336.12	20.13	-54.0	-57.5	13.0	0.00e+00	0	25	0	772800512	73	5607
2026-01-07 05:28:36.89	335.87	20.06	-53.4	-56.4	13.6	0.00e+00	0	25	0	774897664	73	4936
2026-01-07 05:28:37.75	335.68	20.01	-53.3	-56.3	13.7	0.00e+00	0	25	0	775946240	73	4890
2026-01-07 05:28:38.89	335.42	19.95	-53.1	-55.9	13.8	0.00e+00	0	25	0	778043392	72	4956
2026-01-07 05:28:39.75	335.23	19.90	-53.0	-55.6	14.0	0.00e+00	0	25	0	780140544	72	4800
2026-01-07 05:28:40.90	334.98	19.83	-52.4	-54.9	14.3	0.00e+00	0	25	0	782237696	71	4660
2026-01-07 05:28:41.75	334.79	19.78	-52.1	-54.4	14.4	0.00e+00	0	25	0	783286272	70	4690
2026-01-07 05:28:42.89	334.54	19.71	-52.0	-54.2	14.5	0.00e+00	0	25	0	785383424	70	4575
2026-01-07 05:28:43.75	334.36	19.66	-52.1	-54.3	14.4	0.00e+00	0	25	0	787480576	70	4630
2026-01-07 05:28:44.89	334.11	19.59	-51.7	-53.8	14.6	0.00e+00	0	25	0	789577728	70	4360
2026-01-07 05:28:45.75	333.92	19.53	-51.5	-53.6	14.6	0.00e+00	0	25	0	790626304	69	4527
2026-01-07 05:28:46.89	333.68	19.46	-51.6	-53.8	14.5	0.00e+00	0	25	0	792723456	69	4602
2026-01-07 05:28:47.75	333.49	19.41	-51.2	-53.2	14.6	0.00e+00	0	25	0	794820608	68	4577
2026-01-07 05:28:48.89	333.25	19.34	-51.3	-53.3	14.6	0.00e+00	0	25	0	796917760	68	4616
2026-01-07 05:28:49.75	333.07	19.29	-51.1	-53.1	14.7	0.00e+00	0	25	0	799014912	68	4494
2026-01-07 05:28:50.90	332.82	19.22	-51.0	-52.9	14.8	0.00e+00	0	25	0	801112064	68	4430
2026-01-07 05:28:51.75	332.64	19.16	-50.8	-52.7	14.9	0.00e+00	0	25	0	802160640	68	4316
2026-01-07 05:28:52.90	332.40	19.09	-50.6	-52.5	14.8	0.00e+00	0	25	0	804257792	67	4462
2026-01-07 05:28:53.76	332.22	19.04	-50.4	-52.3	14.9	0.00e+00	0	25	0	806354944	67	4341
2026-01-07 05:28:54.91	331.98	18.96	-50.3	-52.1	15.0	0.00e+00	0	25	0	808452096	67	4258
2026-01-07 05:28:55.76	331.81	18.91	-50.4	-52.3	14.9	0.00e+00	0	25	0	809500672	67	4347
2026-01-07 05:28:56.91	331.57	18.84	-50.5	-52.3	14.9	0.00e+00	0	25	0	811597824	67	4380
2026-01-07 05:28:57.76	331.39	18.78	-50.7	-52.6	14.7	0.00e+00	0	26	0	813694976	67	4539
2026-01-07 05:28:58.90	331.16	18.71	-51.0	-53.1	14.5	0.00e+00	0	25	0	815792128	67	4768
2026-01-07 05:28:59.76	330.98	18.65	-51.4	-53.6	14.2	0.00e+00	0	25	0	816840704	67	5044
2026-01-07 05:29:00.90	330.75	18.58	-52.0	-54.3	14.3	0.00e+00	0	25	0	818937856	69	4882
2026-01-07 05:29:01.76	330.58	18.52	-52.4	-55.0	14.0	0.00e+00	0	25	0	821035008	70	4996
2026-01-07 05:29:02.90	330.35	18.45	-52.6	-55.3	13.9	0.00e+00	0	25	0	823132160	70	5201
2026-01-07 05:29:03.75	330.18	18.39	-52.7	-55.3	13.8	0.00e+00	0	25	0	825229312	70	5207
2026-01-07 05:29:04.88	329.95	18.32	-52.7	-55.4	13.8	0.00e+00	0	25	0	827326464	70	5274
2026-01-07 05:29:05.73	329.78	18.26	-52.7	-55.4	13.8	0.00e+00	0	25	0	828375040	70	5261
2026-01-07 05:29:06.87	329.56	18.19	-52.5	-55.2	13.9	0.00e+00	0	25	0	830472192	70	5103
2026-01-07 05:29:07.71	329.39	18.13	-52.4	-54.9	14.1	0.00e+00	0	25	0	832569344	70	4942
2026-01-07 05:29:08.85	329.17	18.06	-52.5	-55.0	14.0	0.00e+00	0	25	0	834666496	70	5001
2026-01-07 05:29:09.71	329.00	18.00	-52.0	-54.3	14.4	0.00e+00	0	25	0	835715072	70	4632
2026-01-07 05:29:10.84	328.78	17.93	-51.9	-54.2	14.4	0.00e+00	0	25	0	837812224	70	4554
2026-01-07 05:29:11.70	328.62	17.87	-51.9	-54.1	14.5	0.00e+00	0	25	0	839909376	70	4538
2026-01-07 05:29:12.85	328.39	17.79	-51.8	-54.0	14.5	0.00e+00	0	25	0	842006528	70	4468
2026-01-07 05:29:13.70	328.23	17.73	-51.5	-53.7	14.5	0.00e+00	0	25	0	843055104	69	4549
2026-01-07 05:29:14.85	328.01	17.66	-51.3	-53.3	14.7	0.00e+00	0	25	0	845152256	69	4365
2026-01-07 05:29:15.70	327.85	17.60	-51.2	-53.2	14.6	0.00e+00	0	25	0	847249408	68	4558
2026-01-07 05:29:16.86	327.63	17.52	-51.3	-53.3	14.6	0.00e+00	0	25	0	849346560	68	4634
2026-01-07 05:29:17.72	327.47	17.46	-51.4	-53.5	14.5	0.00e+00	0	25	0	851443712	68	4706
2026-01-07 05:29:18.86	327.25	17.39	-51.6	-53.7	14.4	0.00e+00	0	25	0	853540864	68	4844
2026-01-07 05:29:19.72	327.09	17.33	-51.8	-54.1	14.2	0.00e+00	0	25	0	854589440	68	5058
2026-01-07 05:29:20.85	326.88	17.25	-52.0	-54.3	14.3	0.00e+00	0	25	0	856686592	69	4922
2026-01-07 05:29:21.72	326.72	17.19	-51.9	-54.2	14.3	0.00e+00	0	25	0	858783744	69	4824
2026-01-07 05:29:22.86	326.51	17.11	-51.9	-54.2	14.3	0.00e+00	0	25	0	860880896	69	4825
2026-01-07 05:29:23.71	326.36	17.06	-51.8	-54.0	14.4	0.00e+00	0	25	0	861929472	69	4745
2026-01-07 05:29:24.85	326.15	16.98	-51.7	-53.9	14.5	0.00e+00	0	25	0	864026624	69	4668
2026-01-07 05:29:25.71	325.99	16.92	-51.7	-53.9	14.5	0.00e+00	0	25	0	866123776	69	4654
2026-01-07 05:29:26.86	325.78	16.84	-51.8	-54.0	14.4	0.00e+00	0	25	0	868220928	69	4738
2026-01-07 05:29:27.71	325.63	16.78	-51.8	-54.0	14.4	0.00e+00	0	25	0	869269504	69	4739
2026-01-07 05:29:28.85	325.43	16.70	-52.0	-54.2	14.3	0.00e+00	0	25	0	871366656	69	4855
2026-01-07 05:29:29.71	325.27	16.64	-52.0	-54.4	14.2	0.00e+00	0	25	0	873463808	69	4940
2026-01-07 05:29:30.86	325.07	16.57	-52.0	-54.3	14.3	0.00e+00	0	25	0	875560960	69	4879
2026-01-07 05:29:31.71	324.92	16.51	-52.0	-54.3	14.3	0.00e+00	0	25	0	877658112	69	4871
2026-01-07 05:29:32.84	324.72	16.43	-51.9	-54.1	14.3	0.00e+00	0	25	0	879755264	69	4801
2026-01-07 05:29:33.70	324.57	16.37	-51.7	-53.9	14.5	0.00e+00	0	25	0	880803840	69	4674
2026-01-07 05:29:34.84	324.37	16.29	-51.7	-53.8	14.5	0.00e+00	0	25	0	882900992	69	4645
2026-01-07 05:29:35.70	324.22	16.23	-51.7	-53.8	14.5	0.00e+00	0	25	0	884998144	69	4631
2026-01-07 05:29:36.84	324.03	16.15	-51.5	-53.5	14.6	0.00e+00	0	25	0	887095296	69	4483
2026-01-07 05:29:37.70	323.88	16.09	-51.4	-53.4	14.7	0.00e+00	0	25	0	888143872	69	4432
2026-01-07 05:29:38.84	323.68	16.01	-51.2	-53.2	14.8	0.00e+00	0	25	0	890241024	69	4304
2026-01-07 05:29:39.70	323.54	15.95	-51.2	-53.2	14.8	0.00e+00	0	25	0	892338176	69	4294
2026-01-07 05:29:40.84	323.34	15.87	-51.0	-52.9	14.8	0.00e+00	0	25	0	894435328	68	4410
2026-01-07 05:29:41.70	323.20	15.81	-51.1	-53.0	14.7	0.00e+00	0	25	0	895483904	68	4485
2026-01-07 05:29:42.84	323.01	15.73	-51.3	-53.2	14.6	0.00e+00	0	25	0	898629632	68	4596
2026-01-07 05:29:43.70	322.87	15.67	-51.4	-53.4	14.6	0.00e+00	0	25	0	899678208	68	4652
2026-01-07 05:29:44.84	322.68	15.59	-51.4	-53.3	14.6	0.00e+00	0	25	0	901775360	68	4644
2026-01-07 05:29:45.70	322.53	15.53	-51.2	-53.2	14.6	0.00e+00	0	25	0	903872512	68	4550
2026-01-07 05:29:46.85	322.34	15.45	-51.1	-52.9	14.7	0.00e+00	0	25	0	905969664	68	4439
2026-01-07 05:29:47.71	322.20	15.39	-50.8	-52.5	14.9	0.00e+00	0	25	0	907018240	68	4242
2026-01-07 05:29:48.84	322.02	15.31	-50.4	-52.1	15.0	0.00e+00	0	25	0	909115392	67	4273
2026-01-07 05:29:49.70	321.88	15.25	-50.2	-51.9	15.1	0.00e+00	0	25	0	911212544	67	4159
2026-01-07 05:29:50.85	321.69	15.17	-50.3	-52.0	15.0	0.00e+00	0	25	0	913309696	67	4201
2026-01-07 05:29:51.71	321.56	15.11	-50.3	-52.0	15.0	0.00e+00	0	25	0	914358272	67	4201
2026-01-07 05:29:52.85	321.37	15.03	-50.5	-52.2	14.9	0.00e+00	0	25	0	916455424	67	4306
2026-01-07 05:29:53.71	321.24	14.97	-50.6	-52.3	14.9	0.00e+00	0	25	0	918552576	67	4360
2026-01-07 05:29:54.84	321.06	14.89	-50.6	-52.3	14.8	0.00e+00	0	25	0	920649728	67	4384
2026-01-07 05:29:55.71	320.92	14.83	-50.8	-52.6	14.7	0.00e+00	0	25	0	921698304	67	4505
2026-01-07 05:29:56.85	320.74	14.75	-50.8	-52.6	14.7	0.00e+00	0	25	0	924844032	67	4506
2026-01-07 05:29:57.72	320.61	14.69	-50.9	-52.7	14.7	0.00e+00	0	25	0	925892608	67	4554
2026-01-07 05:29:58.85	320.43	14.61	-51.2	-53.1	14.5	0.00e+00	0	25	0	927989760	67	4764
2026-01-07 05:29:59.70	320.30	14.55	-51.1	-53.0	14.6	0.00e+00	0	25	0	930086912	67	4729
2026-01-07 05:30:00.84	320.12	14.47	-51.2	-53.1	14.5	0.00e+00	0	25	0	932184064	67	4781
2026-01-07 05:30:01.69	319.99	14.41	-51.1	-53.0	14.6	0.00e+00	0	25	0	933232640	67	4738
2026-01-07 05:30:02.84	319.82	14.33	-51.1	-53.0	14.6	0.00e+00	0	25	0	935329792	67	4706
2026-01-07 05:30:03.69	319.69	14.27	-50.9	-52.7	14.7	0.00e+00	0	25	0	937426944	67	4553
2026-01-07 05:30:04.82	319.52	14.19	-50.7	-52.4	14.8	0.00e+00	0	25	0	939524096	67	4419
2026-01-07 05:30:05.68	319.39	14.13	-50.6	-52.3	14.8	0.00e+00	0	25	0	940572672	67	4369
2026-01-07 05:30:06.82	319.22	14.05	-50.5	-52.2	14.9	0.00e+00	0	25	0	942669824	67	4305
2026-01-07 05:30:07.68	319.09	13.99	-50.6	-52.4	14.8	0.00e+00	0	25	0	944766976	67	4406
2026-01-07 05:30:08.82	318.92	13.91	-50.7	-52.4	14.8	0.00e+00	0	25	0	946864128	67	4440
2026-01-07 05:30:09.68	318.80	13.85	-51.0	-52.8	14.6	0.00e+00	0	25	0	947912704	67	4649
2026-01-07 05:30:10.82	318.63	13.77	-51.1	-53.0	14.6	0.00e+00	0	25	0	950009856	67	4708
2026-01-07 05:30:11.68	318.50	13.71	-51.3	-53.3	14.4	0.00e+00	0	25	0	952107008	67	4890
2026-01-07 05:30:12.83	318.34	13.63	-51.8	-53.8	14.3	0.00e+00	0	25	0	954204160	68	4911
2026-01-07 05:30:13.69	318.21	13.57	-51.8	-53.9	14.3	0.00e+00	0	25	0	956301312	68	4941
2026-01-07 05:30:14.83	318.05	13.49	-51.9	-54.0	14.2	0.00e+00	0	25	0	958398464	68	5019
2026-01-07 05:30:15.69	317.92	13.43	-51.8	-53.9	14.4	0.00e+00	0	25	0	959447040	69	4667
2026-01-07 05:30:16.83	317.76	13.35	-51.9	-53.9	14.4	0.00e+00	0	25	0	961544192	69	4695
2026-01-07 05:30:17.68	317.64	13.29	-51.9	-53.9	14.4	0.00e+00	0	25	0	963641344	69	4703
2026-01-07 05:30:18.83	317.48	13.21	-51.9	-54.0	14.3	0.00e+00	0	25	0	965738496	69	4753
2026-01-07 05:30:19.67	317.36	13.15	-51.8	-53.9	14.4	0.00e+00	0	25	0	966787072	69	4676
2026-01-07 05:30:20.82	317.20	13.07	-51.8	-53.8	14.5	0.00e+00	0	25	0	968884224	69	4617
2026-01-07 05:30:21.68	317.08	13.01	-51.7	-53.7	14.5	0.00e+00	0	25	0	970981376	69	4588
2026-01-07 05:30:22.82	316.92	12.93	-51.3	-53.2	14.8	0.00e+00	0	25	0	973078528	69	4294
2026-01-07 05:30:23.68	316.81	12.87	-51.3	-53.1	14.8	0.00e+00	0	25	0	974127104	69	4272
2026-01-07 05:30:24.82	316.65	12.79	-51.1	-52.9	14.8	0.00e+00	0	25	0	977272832	68	4401
2026-01-07 05:30:25.68	316.53	12.73	-51.1	-52.9	14.7	0.00e+00	0	25	0	978321408	68	4410
2026-01-07 05:30:26.82	316.38	12.65	-50.8	-52.6	14.9	0.00e+00	0	25	0	980418560	68	4264
2026-01-07 05:30:27.67	316.26	12.59	-51.1	-53.0	14.7	0.00e+00	0	25	0	982515712	68	4445
2026-01-07 05:30:28.82	316.11	12.51	-51.1	-52.8	14.7	0.00e+00	0	25	0	984612864	68	4391
2026-01-07 05:30:29.67	315.99	12.45	-51.2	-53.0	14.7	0.00e+00	0	25	0	985661440	68	4474
2026-01-07 05:30:30.82	315.84	12.37	-51.6	-53.5	14.5	0.00e+00	0	25	0	987758592	68	4749
2026-01-07 05:30:31.67	315.73	12.31	-51.8	-53.8	14.4	0.00e+00	0	25	0	989855744	68	4890
2026-01-07 05:30:32.81	315.58	12.23	-52.1	-54.3	14.2	0.00e+00	0	25	0	991952896	69	4883
2026-01-07 05:30:33.66	315.47	12.17	-52.3	-54.5	14.1	0.00e+00	0	25	0	993001472	69	5030
2026-01-07 05:30:34.80	315.32	12.09	-52.6	-54.9	14.0	0.00e+00	0	25	0	995098624	70	4976
2026-01-07 05:30:35.66	315.21	12.03	-52.4	-54.7	14.2	0.00e+00	0	25	0	997195776	70	4825
2026-01-07 05:30:36.81	315.06	11.95	-52.3	-54.5	14.3	0.00e+00	0	25	0	999292928	70	4743
2026-01-07 05:30:37.67	314.95	11.89	-52.2	-54.4	14.3	0.00e+00	0	25	0	1000341504	70	4663
2026-01-07 05:30:38.81	314.80	11.82	-52.1	-54.3	14.4	0.00e+00	0	25	0	1003487232	70	4599
2026-01-07 05:30:39.67	314.69	11.76	-52.1	-54.2	14.4	0.00e+00	0	25	0	1004535808	70	4560
2026-01-07 05:30:40.80	314.55	11.68	-52.1	-54.2	14.4	0.00e+00	0	25	0	1006632960	70	4564
2026-01-07 05:30:41.66	314.44	11.62	-51.8	-53.8	14.6	0.00e+00	0	25	0	1008730112	70	4389
2026-01-07 05:30:42.80	314.30	11.54	-51.6	-53.6	14.6	0.00e+00	0	25	0	1010827264	69	4512
2026-01-07 05:30:43.66	314.19	11.48	-51.8	-53.8	14.4	0.00e+00	0	25	0	1011875840	69	4646
2026-01-07 05:30:44.80	314.05	11.40	-51.7	-53.7	14.5	0.00e+00	0	25	0	1013972992	69	4563
2026-01-07 05:30:45.67	313.94	11.34	-51.7	-53.8	14.5	0.00e+00	0	25	0	1016070144	69	4599
2026-01-07 05:30:46.81	313.80	11.26	-51.8	-53.8	14.4	0.00e+00	0	25	0	1018167296	69	4633
2026-01-07 05:30:47.66	313.69	11.20	-51.7	-53.7	14.5	0.00e+00	0	25	0	1019215872	69	4574
2026-01-07 05:30:48.81	313.55	11.13	-51.8	-53.8	14.4	0.00e+00	0	25	0	1021313024	69	4646
2026-01-07 05:30:49.67	313.45	11.07	-51.8	-53.8	14.5	0.00e+00	0	25	0	1023410176	69	4618
2026-01-07 05:30:50.80	313.31	10.99	-52.0	-54.1	14.3	0.00e+00	0	25	0	1025507328	69	4784
2026-01-07 05:30:51.66	313.21	10.93	-51.9	-53.9	14.4	0.00e+00	0	25	0	1027604480	69	4689
2026-01-07 05:30:52.80	313.07	10.85	-51.8	-53.9	14.4	0.00e+00	0	25	0	1029701632	69	4669
2026-01-07 05:30:53.65	312.97	10.79	-52.0	-54.1	14.2	0.00e+00	0	25	0	1030750208	69	4793
2026-01-07 05:30:54.80	312.84	10.72	-52.0	-54.2	14.3	0.00e+00	0	25	0	1032847360	69	4826
2026-01-07 05:30:55.65	312.74	10.66	-52.2	-54.4	14.1	0.00e+00	0	25	0	1034944512	69	4955
2026-01-07 05:30:56.80	312.60	10.58	-52.3	-54.6	14.0	0.00e+00	0	25	0	1037041664	69	5076
2026-01-07 05:30:57.65	312.50	10.52	-52.4	-54.7	14.0	0.00e+00	0	25	0	1038090240	69	5102
2026-01-07 05:30:58.79	312.37	10.44	-52.4	-54.7	14.1	0.00e+00	0	25	0	1040187392	70	4841
2026-01-07 05:30:59.65	312.27	10.39	-52.5	-54.8	14.1	0.00e+00	0	25	0	1042284544	70	4900
2026-01-07 05:31:00.80	312.14	10.31	-52.5	-54.9	14.0	0.00e+00	0	25	0	1044381696	70	4957
2026-01-07 05:31:01.65	312.04	10.25	-52.5	-54.8	14.1	0.00e+00	0	25	0	1045430272	70	4914
2026-01-07 05:31:02.80	311.91	10.17	-52.5	-54.9	14.0	0.00e+00	0	25	0	1047527424	70	4933
2026-01-07 05:31:03.65	311.81	10.11	-52.5	-54.8	14.1	0.00e+00	0	25	0	1049624576	70	4910
2026-01-07 05:31:04.79	311.68	10.04	-52.6	-55.0	14.0	0.00e+00	0	25	0	1051721728	70	5015
2026-01-07 05:31:05.65	311.58	9.98	-52.7	-55.1	13.9	0.00e+00	0	25	0	1053818880	70	5075
2026-01-07 05:31:06.79	311.46	9.90	-52.8	-55.2	13.8	0.00e+00	0	25	0	1055916032	70	5156
2026-01-07 05:31:07.64	311.36	9.85	-52.6	-55.1	13.9	0.00e+00	0	25	0	1056964608	70	5058
2026-01-07 05:31:08.78	311.24	9.77	-52.9	-55.5	13.7	0.00e+00	0	25	0	1059061760	70	5281
2026-01-07 05:31:09.64	311.14	9.71	-53.1	-55.7	13.7	0.00e+00	0	25	0	1061158912	71	5150
2026-01-07 05:31:10.78	311.02	9.63	-53.2	-55.9	13.6	0.00e+00	0	25	0	1063256064	71	5223
2026-01-07 05:31:11.64	310.92	9.58	-53.3	-56.0	13.5	0.00e+00	0	25	0	1064304640	71	5338
2026-01-07 05:31:12.78	310.80	9.50	-53.3	-56.1	13.4	0.00e+00	0	25	0	1066401792	71	5365
2026-01-07 05:31:13.64	310.70	9.44	-53.1	-55.7	13.7	0.00e+00	0	25	0	1068498944	71	5136
2026-01-07 05:31:14.78	310.58	9.37	-53.1	-55.7	13.7	0.00e+00	0	25	0	1070596096	71	5145
2026-01-07 05:31:15.64	310.49	9.31	-53.0	-55.5	13.8	0.00e+00	0	25	0	1071644672	71	5007
2026-01-07 05:31:16.78	310.37	9.23	-52.7	-55.1	14.0	0.00e+00	0	25	0	1073741824	71	4808
2026-01-07 05:31:17.64	310.28	9.18	-52.6	-54.9	14.1	0.00e+00	0	25	0	1075838976	71	4666
2026-01-07 05:31:18.77	310.16	9.10	-52.4	-54.7	14.2	0.00e+00	0	25	0	1077936128	71	4574
2026-01-07 05:31:19.63	310.07	9.04	-52.4	-54.7	14.2	0.00e+00	0	25	0	1080033280	71	4552
2026-01-07 05:31:20.76	309.95	8.97	-52.3	-54.5	14.3	0.00e+00	0	25	0	1082130432	71	4476
2026-01-07 05:31:21.61	309.86	8.91	-52.2	-54.4	14.2	0.00e+00	0	25	0	1083179008	70	4665
2026-01-07 05:31:22.76	309.74	8.84	-52.2	-54.4	14.2	0.00e+00	0	25	0	1085276160	70	4695
2026-01-07 05:31:23.61	309.65	8.78	-52.2	-54.4	14.2	0.00e+00	0	25	0	1087373312	70	4702
2026-01-07 05:31:24.76	309.53	8.71	-52.4	-54.6	14.1	0.00e+00	0	25	0	1089470464	70	4790
2026-01-07 05:31:25.61	309.45	8.65	-52.4	-54.7	14.1	0.00e+00	0	25	0	1090519040	70	4833
2026-01-07 05:31:26.75	309.33	8.57	-52.5	-54.9	14.0	0.00e+00	0	25	0	1092616192	70	4934
2026-01-07 05:31:27.61	309.24	8.52	-52.6	-54.9	13.9	0.00e+00	0	25	0	1094713344	70	4981
2026-01-07 05:31:28.76	309.13	8.44	-52.7	-55.1	13.9	0.00e+00	0	25	0	1096810496	70	5092
2026-01-07 05:31:29.61	309.04	8.39	-52.8	-55.2	13.8	0.00e+00	0	25	0	1097859072	70	5132
2026-01-07 05:31:30.75	308.93	8.31	-53.0	-55.6	13.7	0.00e+00	0	25	0	1099956224	71	5044
2026-01-07 05:31:31.61	308.84	8.26	-52.7	-55.1	14.0	0.00e+00	0	25	0	1102053376	71	4789
2026-01-07 05:31:32.75	308.73	8.18	-52.8	-55.2	13.9	0.00e+00	0	25	0	1104150528	71	4833
2026-01-07 05:31:33.61	308.64	8.12	-52.7	-55.1	14.0	0.00e+00	0	25	0	1106247680	71	4776
2026-01-07 05:31:34.75	308.53	8.05	-52.6	-55.0	14.0	0.00e+00	0	25	0	1108344832	71	4731
2026-01-07 05:31:35.61	308.45	7.99	-52.7	-55.0	14.0	0.00e+00	0	25	0	1109393408	71	4743
2026-01-07 05:31:36.76	308.34	7.92	-52.5	-54.8	14.1	0.00e+00	0	25	0	1111490560	71	4621
2026-01-07 05:31:37.61	308.25	7.86	-52.6	-55.0	14.0	0.00e+00	0	25	0	1113587712	71	4719
2026-01-07 05:31:38.75	308.14	7.79	-52.6	-54.9	14.1	0.00e+00	0	25	0	1115684864	71	4684
2026-01-07 05:31:39.61	308.06	7.74	-52.5	-54.8	14.2	0.00e+00	0	25	0	1116733440	71	4606
2026-01-07 05:31:40.74	307.95	7.66	-52.6	-55.0	14.1	0.00e+00	0	25	0	1118830592	71	4706
2026-01-07 05:31:41.60	307.87	7.61	-52.5	-54.8	14.1	0.00e+00	0	25	0	1120927744	71	4646
2026-01-07 05:31:42.75	307.76	7.53	-52.6	-54.9	14.1	0.00e+00	0	25	0	1123024896	71	4703
2026-01-07 05:31:43.60	307.68	7.48	-52.7	-55.0	14.0	0.00e+00	0	25	0	1124073472	71	4759
2026-01-07 05:31:44.74	307.57	7.40	-52.7	-55.2	13.9	0.00e+00	0	25	0	1126170624	71	4833
2026-01-07 05:31:45.60	307.49	7.35	-52.9	-55.4	13.7	0.00e+00	0	25	0	1128267776	71	4980
2026-01-07 05:31:46.74	307.39	7.28	-52.9	-55.5	13.8	0.00e+00	0	25	0	1130364928	71	4993
2026-01-07 05:31:47.60	307.31	7.22	-53.1	-55.7	13.6	0.00e+00	0	25	0	1132462080	71	5127
2026-01-07 05:31:48.74	307.20	7.15	-53.1	-55.7	13.6	0.00e+00	0	25	0	1134559232	71	5148
2026-01-07 05:31:49.59	307.13	7.09	-53.2	-55.9	13.5	0.00e+00	0	25	0	1135607808	71	5224
2026-01-07 05:31:50.74	307.02	7.02	-53.4	-56.2	13.3	0.00e+00	0	25	0	1137704960	71	5411
2026-01-07 05:31:51.60	306.94	6.97	-53.2	-55.9	13.5	0.00e+00	0	25	0	1139802112	71	5243
2026-01-07 05:31:52.75	306.84	6.89	-53.4	-56.2	13.4	0.00e+00	0	25	0	1141899264	72	5129
2026-01-07 05:31:53.61	306.76	6.84	-53.5	-56.4	13.3	0.00e+00	0	25	0	1142947840	72	5275
2026-01-07 05:31:54.75	306.66	6.77	-53.6	-56.6	13.1	0.00e+00	0	25	0	1145044992	72	5384
2026-01-07 05:31:55.60	306.58	6.71	-53.7	-56.8	13.0	0.00e+00	0	25	0	1147142144	72	5481
2026-01-07 05:31:56.74	306.48	6.64	-53.7	-56.8	13.0	0.00e+00	0	25	0	1149239296	72	5517
2026-01-07 05:31:57.59	306.41	6.59	-53.9	-57.1	13.0	0.00e+00	0	25	0	1150287872	73	5388
2026-01-07 05:31:58.73	306.31	6.52	-54.1	-57.4	12.7	0.00e+00	0	25	0	1152385024	73	5579
2026-01-07 05:31:59.59	306.23	6.46	-54.1	-57.4	12.7	0.00e+00	0	25	0	1154482176	73	5560
2026-01-07 05:32:00.73	306.13	6.39	-54.3	-57.7	12.5	0.00e+00	0	25	0	1156579328	73	5761
2026-01-07 05:32:01.59	306.06	6.34	-54.3	-57.7	12.5	0.00e+00	0	25	0	1158676480	73	5755
2026-01-07 05:32:02.73	305.96	6.26	-54.2	-57.5	12.6	0.00e+00	0	25	0	1160773632	73	5650
2026-01-07 05:32:03.59	305.88	6.21	-54.2	-57.7	12.5	0.00e+00	0	25	0	1161822208	73	5735
2026-01-07 05:32:04.73	305.79	6.14	-54.3	-57.7	12.4	0.00e+00	0	25	0	1163919360	73	5781
2026-01-07 05:32:05.58	305.71	6.09	-54.3	-57.7	12.6	0.00e+00	0	25	0	1166016512	74	5462
2026-01-07 05:32:06.73	305.62	6.01	-54.2	-57.6	12.7	0.00e+00	0	25	0	1168113664	74	5377
2026-01-07 05:32:07.58	305.54	5.96	-54.2	-57.5	12.7	0.00e+00	0	25	0	1169162240	74	5326
2026-01-07 05:32:08.73	305.45	5.89	-54.2	-57.6	12.7	0.00e+00	0	25	0	1171259392	74	5382
2026-01-07 05:32:09.59	305.37	5.84	-54.3	-57.8	12.5	0.00e+00	0	26	0	1173356544	74	5508
