passes_logs/2026/01/07/R3.2S_Murmansk/R3.2S_Murmansk__20260107_054058_NOAA_20_JPSS-1_rec.log

#Pass ID: 20260107_054058_NOAA 20 (JPSS-1)
#Satellite: NOAA 20 (JPSS-1)
#Configuration: NOAA 20
#almurnet v.1.7.20251203
#Start time: 2026-01-07 05:40:58

#Version: 2.2.20231116
#Station: R3.2S_Murmansk
#Location: 33.079688 lon 68.888172 lat
#TLE: 1 43013U 17073A   26006.30790171  .00000126  00000+0  80695-4 0  9991
#TLE: 2 43013  98.7629 307.3394 0001808  51.8724 308.2615 14.19533762421505

#Time	Az	El	Level	Level2	SNR	BER	BlckErr	Temp	State	Recorded	gain1	gain2
2026-01-07 05:40:58.68	70.39	2.00	-57.5	-73.5	3.8	1.49e+00	0	23	0	0	81	22489
2026-01-07 05:40:59.67	70.33	2.06	-57.5	-73.5	3.8	1.49e+00	0	23	104	0	80	23828
2026-01-07 05:41:00.68	70.27	2.11	-57.5	-73.5	3.8	1.49e+00	0	23	104	0	80	23804
2026-01-07 05:41:01.68	70.20	2.17	-57.5	-73.5	3.8	1.49e+00	0	23	104	0	80	23782
2026-01-07 05:41:02.67	70.14	2.23	-57.5	-73.5	3.8	1.49e+00	0	23	104	0	80	23789
2026-01-07 05:41:03.67	70.08	2.28	-57.5	-73.5	3.8	1.49e+00	0	23	104	0	80	23744
2026-01-07 05:41:04.67	70.01	2.34	-57.5	-73.5	3.8	1.49e+00	0	23	104	0	80	23758
2026-01-07 05:41:05.68	69.95	2.40	-57.5	-73.5	3.8	1.49e+00	0	23	104	0	80	23773
2026-01-07 05:41:06.68	69.88	2.46	-57.5	-73.5	3.8	1.49e+00	0	23	104	0	80	23709
2026-01-07 05:41:07.69	69.82	2.52	-57.5	-73.5	3.8	1.49e+00	0	23	104	0	80	23695
2026-01-07 05:41:08.69	69.75	2.57	-57.5	-73.5	3.8	1.49e+00	0	23	104	0	80	23692
2026-01-07 05:41:09.69	69.69	2.63	-57.5	-73.5	3.8	1.49e+00	0	23	104	0	80	23691
2026-01-07 05:41:10.69	69.62	2.69	-57.5	-73.5	3.8	1.49e+00	0	23	104	0	80	23637
2026-01-07 05:41:11.69	69.56	2.75	-57.5	-73.5	3.8	1.49e+00	0	23	104	0	80	23689
2026-01-07 05:41:12.68	69.49	2.80	-57.5	-73.5	3.8	1.49e+00	0	23	104	0	80	23779
2026-01-07 05:41:13.69	69.42	2.86	-57.5	-73.5	3.8	1.49e+00	0	23	104	0	80	23708
2026-01-07 05:41:14.69	69.36	2.92	-57.5	-73.5	3.8	1.49e+00	0	23	104	0	80	23696
2026-01-07 05:41:15.69	69.29	2.98	-57.5	-73.5	3.8	1.49e+00	0	23	104	0	80	23712
2026-01-07 05:41:16.69	69.22	3.04	-57.5	-73.5	3.8	1.49e+00	0	24	104	0	80	23737
2026-01-07 05:41:17.68	69.15	3.09	-57.5	-73.5	3.8	1.49e+00	0	24	104	0	80	23784
2026-01-07 05:41:18.67	69.09	3.15	-57.5	-73.5	3.8	1.49e+00	0	23	104	0	80	23753
2026-01-07 05:41:19.67	69.02	3.21	-57.5	-73.5	3.8	1.49e+00	0	24	104	0	80	23793
2026-01-07 05:41:20.68	68.95	3.27	-57.5	-73.5	3.8	1.49e+00	0	23	104	0	80	23832
2026-01-07 05:41:21.68	68.88	3.33	-57.5	-73.5	3.8	1.49e+00	0	24	104	0	80	23820
2026-01-07 05:41:22.68	68.81	3.39	-57.5	-73.5	3.8	1.49e+00	0	24	104	0	80	23691
2026-01-07 05:41:23.68	68.74	3.45	-57.5	-73.5	3.8	1.49e+00	0	24	104	0	80	23707
2026-01-07 05:41:24.68	68.67	3.51	-57.5	-73.5	3.8	1.49e+00	0	24	104	0	80	23660
2026-01-07 05:41:25.68	68.60	3.57	-57.5	-73.5	3.8	1.49e+00	0	24	104	0	80	23702
2026-01-07 05:41:26.67	68.53	3.62	-57.5	-73.5	3.8	1.49e+00	0	24	104	0	80	23798
2026-01-07 05:41:27.67	68.46	3.68	-57.5	-73.5	3.8	1.49e+00	0	24	104	0	80	23798
2026-01-07 05:41:28.67	68.39	3.74	-57.5	-73.6	3.8	1.49e+00	0	24	104	0	80	23855
2026-01-07 05:41:29.67	68.32	3.80	-57.5	-73.5	3.8	1.49e+00	0	24	104	0	80	23727
2026-01-07 05:41:30.65	68.25	3.86	-57.5	-73.5	3.8	1.49e+00	0	24	104	0	80	23662
2026-01-07 05:41:31.64	68.18	3.92	-57.5	-73.5	3.8	1.49e+00	0	24	104	0	80	23666
2026-01-07 05:41:32.64	68.11	3.98	-57.5	-73.4	3.8	1.49e+00	0	24	104	0	80	23461
2026-01-07 05:41:33.64	68.04	4.04	-57.5	-73.4	3.8	1.49e+00	0	24	104	0	80	23484
2026-01-07 05:41:34.63	67.96	4.10	-57.5	-73.4	3.8	1.49e+00	0	24	104	0	80	23497
2026-01-07 05:41:35.62	67.89	4.16	-57.5	-73.5	3.8	1.49e+00	0	24	104	0	80	23673
2026-01-07 05:41:36.62	67.82	4.22	-57.5	-73.5	3.8	1.49e+00	0	24	104	0	80	23784
2026-01-07 05:41:37.62	67.74	4.28	-57.5	-73.5	3.8	1.49e+00	0	24	104	0	80	23655
2026-01-07 05:41:38.61	67.67	4.34	-57.5	-73.3	3.8	1.49e+00	0	24	104	0	80	23094
2026-01-07 05:41:39.61	67.60	4.40	-57.5	-72.9	3.8	1.49e+00	0	24	104	0	80	22078
2026-01-07 05:41:40.60	67.52	4.46	-57.5	-72.2	3.8	1.49e+00	0	24	104	0	80	20486
2026-01-07 05:41:41.59	67.45	4.52	-57.4	-71.6	3.8	1.49e+00	0	24	104	0	80	18981
2026-01-07 05:41:42.59	67.37	4.58	-57.4	-70.7	3.9	1.49e+00	0	24	104	0	80	17190
2026-01-07 05:41:43.58	67.30	4.64	-57.4	-70.1	4.2	1.43e+00	0	24	0	0	80	15987
2026-01-07 05:41:44.58	67.22	4.70	-57.3	-69.3	4.4	1.33e+00	85	24	0	0	80	14615
2026-01-07 05:41:45.58	67.15	4.76	-57.3	-68.4	4.7	9.82e-01	0	24	0	2097152	80	13186
2026-01-07 05:41:46.57	67.07	4.82	-57.2	-67.5	5.2	6.50e-01	0	24	0	4194304	80	11888
2026-01-07 05:41:47.56	67.00	4.88	-57.1	-66.8	5.6	5.06e-01	0	24	0	6291456	80	10985
2026-01-07 05:41:48.57	66.92	4.94	-57.0	-66.3	6.0	3.46e-01	0	24	0	7340032	80	10321
2026-01-07 05:41:49.57	66.84	5.00	-57.0	-65.9	6.1	2.65e-01	0	24	0	9437184	80	9939
2026-01-07 05:41:50.57	66.76	5.06	-56.6	-63.5	8.2	1.86e-01	0	24	0	11534336	79	7909
2026-01-07 05:41:51.57	66.68	5.13	-56.2	-61.9	9.8	1.12e-02	0	24	0	13631488	79	6592
2026-01-07 05:41:52.57	66.61	5.19	-57.1	-66.5	6.0	1.68e-03	0	24	0	15728640	79	11251
2026-01-07 05:41:53.57	66.53	5.25	-57.2	-66.9	5.6	1.23e+00	0	24	0	15728640	79	11734
2026-01-07 05:41:54.57	66.45	5.31	-55.9	-60.9	10.3	1.04e+00	0	24	0	16777216	78	6253
2026-01-07 05:41:55.56	66.37	5.37	-55.5	-59.9	11.3	1.75e-04	0	24	0	18874368	77	5878
2026-01-07 05:41:56.56	66.29	5.43	-55.5	-59.9	11.2	6.40e-05	0	24	0	20971520	77	5900
2026-01-07 05:41:57.55	66.21	5.49	-54.8	-58.5	12.3	1.29e-05	0	24	0	23068672	76	5321
2026-01-07 05:41:58.55	66.13	5.56	-55.0	-58.8	12.1	6.80e-06	0	24	0	24117248	76	5470
2026-01-07 05:41:59.55	66.05	5.62	-54.5	-58.0	12.5	2.20e-06	0	25	0	26214400	75	5317
2026-01-07 05:42:00.54	65.97	5.68	-54.4	-57.7	12.8	0.00e+00	0	24	0	28311552	75	5104
2026-01-07 05:42:01.53	65.89	5.74	-54.3	-57.6	12.9	0.00e+00	0	24	0	30408704	75	5057
2026-01-07 05:42:02.53	65.80	5.80	-54.4	-57.7	12.8	0.00e+00	0	24	0	31457280	75	5114
2026-01-07 05:42:03.52	65.72	5.87	-54.3	-57.5	12.9	0.00e+00	0	24	0	33554432	75	5006
2026-01-07 05:42:04.52	65.64	5.93	-54.4	-57.7	12.8	7.00e-07	0	24	0	35651584	75	5118
2026-01-07 05:42:05.53	65.56	5.99	-54.4	-57.8	12.7	0.00e+00	0	24	0	37748736	75	5170
2026-01-07 05:42:06.52	65.47	6.05	-54.4	-57.6	12.9	0.00e+00	0	24	0	39845888	75	5082
2026-01-07 05:42:07.52	65.39	6.12	-54.3	-57.6	12.9	0.00e+00	0	24	0	40894464	75	5079
2026-01-07 05:42:08.52	65.31	6.18	-54.3	-57.5	12.9	0.00e+00	0	24	0	42991616	75	5038
2026-01-07 05:42:09.51	65.22	6.24	-54.4	-57.6	12.8	7.00e-07	0	24	0	45088768	75	5100
2026-01-07 05:42:10.51	65.14	6.31	-54.3	-57.5	13.0	0.00e+00	0	24	0	47185920	75	5007
2026-01-07 05:42:11.51	65.05	6.37	-54.2	-57.3	13.1	7.00e-07	0	24	0	48234496	75	4907
2026-01-07 05:42:12.50	64.97	6.43	-54.1	-57.2	13.1	0.00e+00	0	24	0	50331648	74	5131
2026-01-07 05:42:13.50	64.88	6.49	-54.2	-57.3	13.0	0.00e+00	0	25	0	52428800	74	5188
2026-01-07 05:42:14.50	64.79	6.56	-54.3	-57.4	12.9	0.00e+00	0	25	0	54525952	74	5268
2026-01-07 05:42:15.51	64.71	6.62	-54.2	-57.3	13.0	0.00e+00	0	24	0	56623104	74	5185
2026-01-07 05:42:16.51	64.62	6.69	-54.3	-57.4	12.9	0.00e+00	0	24	0	57671680	74	5260
2026-01-07 05:42:17.50	64.53	6.75	-54.2	-57.2	13.0	0.00e+00	0	24	0	59768832	74	5158
2026-01-07 05:42:18.50	64.44	6.81	-54.1	-57.1	13.2	0.00e+00	0	24	0	61865984	74	5051
2026-01-07 05:42:19.50	64.36	6.88	-54.2	-57.3	13.0	0.00e+00	0	24	0	63963136	74	5203
2026-01-07 05:42:20.50	64.27	6.94	-54.3	-57.4	13.0	7.00e-07	0	24	0	66060288	74	5221
2026-01-07 05:42:21.49	64.18	7.00	-54.2	-57.3	13.0	1.50e-06	0	24	0	67108864	74	5180
2026-01-07 05:42:22.48	64.09	7.07	-54.2	-57.3	13.0	7.00e-07	0	25	0	69206016	74	5212
2026-01-07 05:42:23.48	64.00	7.13	-54.1	-57.1	13.1	1.50e-06	0	25	0	71303168	74	5094
2026-01-07 05:42:24.48	63.91	7.20	-54.2	-57.3	13.0	0.00e+00	0	24	0	73400320	74	5200
2026-01-07 05:42:25.48	63.82	7.26	-54.2	-57.2	13.1	1.50e-06	0	24	0	74448896	74	5157
2026-01-07 05:42:26.48	63.73	7.33	-54.3	-57.4	13.0	7.00e-07	0	25	0	76546048	74	5231
2026-01-07 05:42:27.47	63.63	7.39	-54.3	-57.4	13.0	0.00e+00	0	25	0	78643200	74	5220
2026-01-07 05:42:28.48	63.54	7.46	-54.3	-57.3	13.0	7.00e-07	0	25	0	80740352	74	5203
2026-01-07 05:42:29.48	63.45	7.52	-54.2	-57.2	13.1	0.00e+00	0	25	0	82837504	74	5101
2026-01-07 05:42:30.47	63.36	7.58	-54.3	-57.4	12.9	0.00e+00	0	25	0	83886080	74	5273
2026-01-07 05:42:31.46	63.26	7.65	-54.3	-57.3	13.0	0.00e+00	0	25	0	85983232	74	5212
2026-01-07 05:42:32.46	63.17	7.71	-54.4	-57.5	13.0	0.00e+00	0	25	0	88080384	74	5290
2026-01-07 05:42:33.45	63.08	7.78	-54.3	-57.4	13.0	0.00e+00	0	25	0	90177536	74	5255
2026-01-07 05:42:34.46	62.98	7.85	-54.2	-57.3	13.1	0.00e+00	0	24	0	92274688	74	5162
2026-01-07 05:42:35.46	62.89	7.91	-54.2	-57.1	13.2	0.00e+00	0	25	0	93323264	74	5087
2026-01-07 05:42:36.46	62.79	7.98	-54.2	-57.2	13.1	0.00e+00	0	25	0	95420416	74	5128
2026-01-07 05:42:37.47	62.69	8.04	-54.2	-57.2	13.1	0.00e+00	0	25	0	97517568	74	5149
2026-01-07 05:42:38.46	62.60	8.11	-54.1	-57.0	13.3	0.00e+00	0	24	0	99614720	74	5033
2026-01-07 05:42:39.45	62.50	8.17	-54.0	-56.9	13.4	0.00e+00	0	25	0	100663296	74	4955
2026-01-07 05:42:40.45	62.40	8.24	-54.1	-57.0	13.3	0.00e+00	0	25	0	102760448	74	5025
2026-01-07 05:42:41.45	62.31	8.30	-54.0	-56.8	13.4	0.00e+00	0	24	0	104857600	74	4907
2026-01-07 05:42:42.45	62.21	8.37	-53.9	-56.6	13.5	0.00e+00	0	24	0	106954752	74	4814
2026-01-07 05:42:43.45	62.11	8.44	-53.9	-56.6	13.5	0.00e+00	0	24	0	109051904	74	4798
2026-01-07 05:42:44.45	62.01	8.50	-54.0	-56.7	13.5	0.00e+00	0	25	0	110100480	74	4855
2026-01-07 05:42:45.46	61.91	8.57	-53.9	-56.7	13.5	0.00e+00	0	25	0	112197632	74	4828
2026-01-07 05:42:46.46	61.81	8.64	-53.8	-56.5	13.6	0.00e+00	0	24	0	114294784	74	4741
2026-01-07 05:42:47.47	61.71	8.70	-53.8	-56.5	13.7	0.00e+00	0	25	0	116391936	74	4709
2026-01-07 05:42:48.47	61.60	8.77	-53.9	-56.6	13.6	0.00e+00	0	25	0	118489088	74	4766
2026-01-07 05:42:49.46	61.50	8.84	-53.8	-56.5	13.6	0.00e+00	0	25	0	119537664	74	4741
2026-01-07 05:42:50.46	61.40	8.90	-53.9	-56.6	13.6	0.00e+00	0	25	0	121634816	74	4800
2026-01-07 05:42:51.45	61.30	8.97	-53.8	-56.4	13.7	0.00e+00	0	25	0	123731968	74	4683
2026-01-07 05:42:52.45	61.20	9.04	-53.8	-56.4	13.7	0.00e+00	0	25	0	125829120	74	4690
2026-01-07 05:42:53.45	61.09	9.10	-53.8	-56.5	13.6	0.00e+00	0	25	0	126877696	74	4733
2026-01-07 05:42:54.45	60.99	9.17	-53.8	-56.4	13.7	0.00e+00	0	25	0	128974848	74	4695
2026-01-07 05:42:55.45	60.88	9.24	-53.7	-56.3	13.7	0.00e+00	0	25	0	131072000	74	4651
2026-01-07 05:42:56.44	60.78	9.30	-53.8	-56.4	13.7	0.00e+00	0	25	0	133169152	74	4686
2026-01-07 05:42:57.43	60.68	9.37	-53.8	-56.4	13.7	0.00e+00	0	25	0	135266304	74	4687
2026-01-07 05:42:58.42	60.57	9.44	-53.8	-56.4	13.7	0.00e+00	0	25	0	136314880	74	4681
2026-01-07 05:42:59.42	60.46	9.51	-53.8	-56.5	13.7	0.00e+00	0	25	0	138412032	74	4706
2026-01-07 05:43:00.42	60.36	9.57	-53.7	-56.4	13.7	0.00e+00	0	25	0	140509184	74	4657
2026-01-07 05:43:01.42	60.25	9.64	-53.8	-56.4	13.7	0.00e+00	0	25	0	142606336	74	4662
2026-01-07 05:43:02.41	60.14	9.71	-53.9	-56.5	13.7	0.00e+00	0	25	0	143654912	74	4753
2026-01-07 05:43:03.41	60.03	9.78	-53.8	-56.4	13.7	0.00e+00	0	25	0	145752064	74	4688
2026-01-07 05:43:04.41	59.92	9.84	-53.9	-56.6	13.6	0.00e+00	0	25	0	147849216	74	4785
2026-01-07 05:43:05.41	59.81	9.91	-53.9	-56.5	13.6	0.00e+00	0	25	0	149946368	74	4759
2026-01-07 05:43:06.40	59.71	9.98	-53.9	-56.6	13.6	0.00e+00	0	25	0	152043520	74	4778
2026-01-07 05:43:07.39	59.60	10.05	-54.0	-56.7	13.6	0.00e+00	0	25	0	153092096	74	4834
2026-01-07 05:43:08.39	59.48	10.12	-53.9	-56.6	13.5	0.00e+00	0	25	0	155189248	74	4804
2026-01-07 05:43:09.37	59.37	10.18	-53.9	-56.6	13.6	0.00e+00	0	25	0	157286400	74	4803
2026-01-07 05:43:10.38	59.26	10.25	-53.9	-56.6	13.6	0.00e+00	0	25	0	159383552	74	4764
2026-01-07 05:43:11.37	59.15	10.32	-54.0	-56.8	13.5	0.00e+00	0	25	0	160432128	74	4889
2026-01-07 05:43:12.37	59.04	10.39	-54.0	-56.7	13.5	0.00e+00	0	25	0	162529280	74	4854
2026-01-07 05:43:13.37	58.92	10.46	-53.9	-56.6	13.6	0.00e+00	0	25	0	164626432	74	4787
2026-01-07 05:43:14.37	58.81	10.53	-53.9	-56.6	13.6	0.00e+00	0	25	0	166723584	74	4761
2026-01-07 05:43:15.37	58.69	10.59	-53.9	-56.6	13.6	0.00e+00	0	25	0	168820736	74	4808
2026-01-07 05:43:16.36	58.58	10.66	-53.9	-56.5	13.7	0.00e+00	0	25	0	169869312	74	4735
2026-01-07 05:43:17.36	58.46	10.73	-53.9	-56.5	13.7	0.00e+00	0	25	0	171966464	74	4741
2026-01-07 05:43:18.35	58.35	10.80	-53.8	-56.5	13.7	0.00e+00	0	25	0	174063616	74	4717
2026-01-07 05:43:19.34	58.23	10.87	-53.9	-56.5	13.7	0.00e+00	0	25	0	176160768	74	4720
2026-01-07 05:43:20.34	58.11	10.94	-54.0	-56.6	13.6	0.00e+00	0	25	0	178257920	74	4798
2026-01-07 05:43:21.33	57.99	11.01	-53.8	-56.4	13.7	0.00e+00	0	25	0	179306496	74	4704
2026-01-07 05:43:22.33	57.88	11.08	-53.6	-56.1	13.8	0.00e+00	0	25	0	181403648	73	4806
2026-01-07 05:43:23.32	57.76	11.14	-53.7	-56.2	13.7	0.00e+00	0	25	0	183500800	73	4848
2026-01-07 05:43:24.32	57.64	11.21	-53.6	-56.1	13.8	0.00e+00	0	25	0	185597952	73	4789
2026-01-07 05:43:25.33	57.51	11.28	-53.7	-56.3	13.7	0.00e+00	0	25	0	186646528	73	4874
2026-01-07 05:43:26.32	57.39	11.35	-53.7	-56.2	13.7	0.00e+00	0	25	0	188743680	73	4847
2026-01-07 05:43:27.31	57.27	11.42	-53.5	-56.0	13.9	0.00e+00	0	25	0	190840832	73	4725
2026-01-07 05:43:28.30	57.15	11.49	-53.5	-55.9	13.9	0.00e+00	0	25	0	192937984	73	4702
2026-01-07 05:43:29.29	57.03	11.56	-53.5	-55.9	13.9	0.00e+00	0	25	0	195035136	73	4694
2026-01-07 05:43:30.29	56.91	11.63	-53.4	-55.8	14.0	0.00e+00	0	25	0	196083712	73	4639
2026-01-07 05:43:31.29	56.78	11.70	-53.5	-56.0	13.9	0.00e+00	0	25	0	198180864	73	4718
2026-01-07 05:43:32.27	56.66	11.77	-53.4	-55.8	14.0	0.00e+00	0	25	0	200278016	73	4628
2026-01-07 05:43:33.27	56.53	11.84	-53.4	-55.7	14.0	0.00e+00	0	25	0	202375168	73	4588
2026-01-07 05:43:34.26	56.41	11.91	-53.3	-55.7	14.1	0.00e+00	0	25	0	203423744	73	4549
2026-01-07 05:43:35.25	56.28	11.98	-53.3	-55.7	14.1	0.00e+00	0	25	0	205520896	73	4549
2026-01-07 05:43:36.24	56.16	12.05	-53.3	-55.7	14.1	0.00e+00	0	25	0	207618048	73	4559
2026-01-07 05:43:37.24	56.03	12.12	-53.4	-55.8	14.0	0.00e+00	0	25	0	209715200	73	4620
2026-01-07 05:43:38.24	55.90	12.19	-53.3	-55.7	14.1	0.00e+00	0	25	0	211812352	73	4563
2026-01-07 05:43:39.24	55.77	12.26	-53.3	-55.7	14.1	0.00e+00	0	25	0	212860928	73	4547
2026-01-07 05:43:40.23	55.64	12.33	-53.4	-55.7	14.1	0.00e+00	0	25	0	214958080	73	4582
2026-01-07 05:43:41.24	55.51	12.40	-53.4	-55.7	14.1	0.00e+00	0	25	0	217055232	73	4573
2026-01-07 05:43:42.23	55.38	12.47	-53.3	-55.7	14.1	0.00e+00	0	25	0	219152384	73	4562
2026-01-07 05:43:43.23	55.25	12.54	-53.4	-55.8	14.0	0.00e+00	0	25	0	221249536	73	4643
2026-01-07 05:43:44.23	55.12	12.61	-53.5	-55.9	14.0	0.00e+00	0	25	0	222298112	73	4678
2026-01-07 05:43:45.22	54.98	12.68	-53.4	-55.8	14.0	0.00e+00	0	25	0	224395264	73	4619
2026-01-07 05:43:46.21	54.85	12.75	-53.3	-55.7	14.1	0.00e+00	0	25	0	226492416	73	4546
2026-01-07 05:43:47.21	54.72	12.82	-53.3	-55.6	14.1	0.00e+00	0	25	0	228589568	73	4534
2026-01-07 05:43:48.21	54.58	12.90	-53.3	-55.6	14.2	0.00e+00	0	25	0	229638144	73	4504
2026-01-07 05:43:49.20	54.45	12.97	-53.2	-55.5	14.2	0.00e+00	0	25	0	231735296	73	4456
2026-01-07 05:43:50.20	54.31	13.04	-53.1	-55.3	14.1	0.00e+00	0	25	0	233832448	72	4629
2026-01-07 05:43:51.19	54.18	13.11	-53.1	-55.3	14.2	0.00e+00	0	25	0	235929600	72	4638
2026-01-07 05:43:52.19	54.04	13.18	-53.0	-55.2	14.2	0.00e+00	0	25	0	238026752	72	4594
2026-01-07 05:43:53.19	53.90	13.25	-52.9	-55.1	14.3	0.00e+00	0	25	0	239075328	72	4528
2026-01-07 05:43:54.20	53.76	13.32	-52.9	-55.1	14.3	0.00e+00	0	25	0	241172480	72	4514
2026-01-07 05:43:55.19	53.62	13.39	-52.9	-55.0	14.3	0.00e+00	0	25	0	243269632	72	4487
2026-01-07 05:43:56.19	53.48	13.46	-52.8	-55.0	14.4	0.00e+00	0	25	0	245366784	72	4454
2026-01-07 05:43:57.18	53.34	13.53	-52.9	-55.1	14.3	0.00e+00	0	25	0	246415360	72	4502
2026-01-07 05:43:58.17	53.20	13.61	-52.8	-54.9	14.4	0.00e+00	0	25	0	248512512	72	4420
2026-01-07 05:43:59.17	53.06	13.68	-52.8	-55.0	14.4	0.00e+00	0	25	0	250609664	72	4451
2026-01-07 05:44:00.15	52.92	13.75	-52.8	-54.9	14.4	0.00e+00	0	25	0	252706816	72	4402
2026-01-07 05:44:01.11	52.78	13.82	-52.8	-54.9	14.4	0.00e+00	0	25	0	253755392	72	4404
2026-01-07 05:44:02.10	52.63	13.89	-52.7	-54.8	14.5	0.00e+00	0	25	0	255852544	72	4384
2026-01-07 05:44:03.09	52.49	13.96	-52.9	-55.0	14.4	0.00e+00	0	25	0	257949696	72	4459
2026-01-07 05:44:04.09	52.34	14.03	-52.8	-54.9	14.4	0.00e+00	0	25	0	260046848	72	4440
2026-01-07 05:44:05.09	52.20	14.10	-52.8	-54.9	14.4	0.00e+00	0	25	0	262144000	72	4401
2026-01-07 05:44:06.08	52.05	14.17	-52.9	-55.0	14.4	0.00e+00	0	25	0	263192576	72	4444
2026-01-07 05:44:07.08	51.90	14.24	-52.9	-55.0	14.3	0.00e+00	0	25	0	265289728	72	4463
2026-01-07 05:44:08.08	51.75	14.31	-53.0	-55.2	14.2	0.00e+00	0	25	0	267386880	72	4559
2026-01-07 05:44:09.07	51.61	14.39	-53.0	-55.2	14.2	0.00e+00	0	25	0	269484032	72	4571
2026-01-07 05:44:10.06	51.46	14.46	-53.1	-55.3	14.2	0.00e+00	0	25	0	270532608	72	4623
2026-01-07 05:44:11.06	51.31	14.53	-53.1	-55.3	14.2	0.00e+00	0	25	0	272629760	72	4627
2026-01-07 05:44:12.06	51.15	14.60	-53.0	-55.2	14.2	0.00e+00	0	25	0	274726912	72	4589
2026-01-07 05:44:13.06	51.00	14.67	-53.1	-55.3	14.2	0.00e+00	0	25	0	276824064	72	4645
2026-01-07 05:44:14.06	50.85	14.74	-53.0	-55.2	14.3	0.00e+00	0	25	0	278921216	72	4554
2026-01-07 05:44:15.05	50.70	14.81	-53.1	-55.2	14.2	0.00e+00	0	25	0	279969792	72	4588
2026-01-07 05:44:16.05	50.54	14.89	-53.1	-55.3	14.2	0.00e+00	0	25	0	282066944	72	4631
2026-01-07 05:44:17.05	50.38	14.96	-53.1	-55.3	14.2	0.00e+00	0	25	0	284164096	72	4621
2026-01-07 05:44:18.04	50.23	15.03	-53.2	-55.4	14.1	0.00e+00	0	25	0	286261248	72	4679
2026-01-07 05:44:19.04	50.07	15.10	-53.1	-55.4	14.2	0.00e+00	0	25	0	288358400	72	4657
2026-01-07 05:44:20.03	49.92	15.17	-53.2	-55.4	14.1	0.00e+00	0	25	0	289406976	72	4691
2026-01-07 05:44:21.02	49.76	15.24	-53.3	-55.5	14.1	0.00e+00	0	25	0	291504128	72	4756
2026-01-07 05:44:22.02	49.60	15.31	-53.3	-55.5	14.1	0.00e+00	0	25	0	293601280	72	4745
2026-01-07 05:44:23.01	49.44	15.39	-53.4	-55.7	13.9	0.00e+00	0	25	0	295698432	72	4868
2026-01-07 05:44:24.00	49.28	15.46	-53.4	-55.7	13.9	0.00e+00	0	25	0	296747008	72	4866
2026-01-07 05:44:25.00	49.12	15.53	-53.5	-55.8	13.9	0.00e+00	0	25	0	298844160	72	4919
2026-01-07 05:44:26.00	48.96	15.60	-53.5	-55.8	13.9	0.00e+00	0	25	0	300941312	72	4905
2026-01-07 05:44:27.00	48.79	15.67	-53.4	-55.7	14.0	0.00e+00	0	25	0	303038464	72	4846
2026-01-07 05:44:27.99	48.63	15.74	-53.5	-55.8	13.9	0.00e+00	0	25	0	305135616	72	4903
2026-01-07 05:44:28.99	48.47	15.81	-53.5	-55.9	13.9	0.00e+00	0	25	0	306184192	72	4932
2026-01-07 05:44:29.98	48.30	15.88	-53.3	-55.6	14.0	0.00e+00	0	25	0	308281344	72	4797
2026-01-07 05:44:30.98	48.13	15.96	-53.3	-55.6	14.1	0.00e+00	0	25	0	310378496	72	4775
2026-01-07 05:44:31.97	47.97	16.03	-53.3	-55.6	14.1	0.00e+00	0	25	0	312475648	72	4776
2026-01-07 05:44:32.97	47.80	16.10	-53.3	-55.5	14.1	0.00e+00	0	25	0	313524224	72	4735
2026-01-07 05:44:33.97	47.63	16.17	-53.3	-55.6	14.1	0.00e+00	0	25	0	315621376	72	4778
2026-01-07 05:44:34.97	47.46	16.24	-53.4	-55.7	14.0	0.00e+00	0	25	0	317718528	72	4833
2026-01-07 05:44:35.97	47.29	16.31	-53.3	-55.6	14.0	0.00e+00	0	25	0	319815680	72	4789
2026-01-07 05:44:36.97	47.12	16.38	-53.5	-55.8	13.9	0.00e+00	0	25	0	321912832	72	4888
2026-01-07 05:44:37.97	46.95	16.45	-53.5	-55.8	14.0	0.00e+00	0	25	0	322961408	72	4881
2026-01-07 05:44:38.96	46.78	16.52	-53.5	-55.9	13.9	0.00e+00	0	25	0	325058560	72	4961
2026-01-07 05:44:39.96	46.60	16.59	-53.5	-55.8	14.0	0.00e+00	0	25	0	327155712	72	4894
2026-01-07 05:44:40.95	46.43	16.66	-53.5	-55.9	13.9	0.00e+00	0	25	0	329252864	72	4948
2026-01-07 05:44:41.95	46.25	16.74	-53.6	-55.9	13.9	0.00e+00	0	25	0	330301440	72	4980
2026-01-07 05:44:42.94	46.08	16.81	-53.4	-55.7	14.0	0.00e+00	0	25	0	332398592	72	4838
2026-01-07 05:44:43.94	45.90	16.88	-53.5	-55.8	13.9	0.00e+00	0	25	0	334495744	72	4921
2026-01-07 05:44:44.93	45.72	16.95	-53.6	-55.9	13.9	0.00e+00	0	25	0	336592896	72	4964
2026-01-07 05:44:45.93	45.55	17.02	-53.5	-55.8	13.9	0.00e+00	0	25	0	338690048	72	4924
2026-01-07 05:44:46.92	45.37	17.09	-53.4	-55.7	14.0	0.00e+00	0	25	0	339738624	72	4850
2026-01-07 05:44:47.92	45.19	17.16	-53.4	-55.8	14.0	0.00e+00	0	25	0	341835776	72	4875
2026-01-07 05:44:48.92	45.01	17.23	-53.4	-55.7	14.0	0.00e+00	0	25	0	343932928	72	4845
2026-01-07 05:44:49.91	44.82	17.30	-53.4	-55.7	14.0	0.00e+00	0	25	0	346030080	72	4819
2026-01-07 05:44:50.90	44.64	17.37	-53.4	-55.7	14.0	0.00e+00	0	25	0	347078656	72	4831
2026-01-07 05:44:51.90	44.46	17.44	-53.4	-55.7	14.0	0.00e+00	0	25	0	349175808	72	4828
2026-01-07 05:44:52.90	44.27	17.51	-53.4	-55.7	14.0	0.00e+00	0	25	0	351272960	72	4819
2026-01-07 05:44:53.89	44.09	17.57	-53.3	-55.6	14.1	0.00e+00	0	25	0	353370112	72	4789
2026-01-07 05:44:54.89	43.90	17.64	-53.2	-55.4	14.2	0.00e+00	0	25	0	355467264	72	4700
2026-01-07 05:44:55.89	43.72	17.71	-53.2	-55.4	14.1	0.00e+00	0	25	0	356515840	72	4697
2026-01-07 05:44:56.88	43.53	17.78	-53.2	-55.5	14.2	0.00e+00	0	25	0	358612992	72	4708
2026-01-07 05:44:57.88	43.34	17.85	-53.2	-55.4	14.2	0.00e+00	0	25	0	360710144	72	4670
2026-01-07 05:44:58.87	43.15	17.92	-53.1	-55.2	14.3	0.00e+00	0	25	0	362807296	72	4587
2026-01-07 05:44:59.87	42.96	17.99	-53.0	-55.2	14.3	0.00e+00	0	25	0	364904448	72	4548
2026-01-07 05:45:00.86	42.77	18.06	-52.9	-54.9	14.4	0.00e+00	0	25	0	365953024	72	4432
2026-01-07 05:45:01.86	42.58	18.13	-52.8	-54.9	14.4	0.00e+00	0	25	0	368050176	72	4417
2026-01-07 05:45:02.86	42.38	18.19	-52.8	-54.8	14.5	0.00e+00	0	25	0	370147328	72	4358
2026-01-07 05:45:03.85	42.19	18.26	-52.6	-54.6	14.5	0.00e+00	0	25	0	372244480	71	4507
2026-01-07 05:45:04.84	42.00	18.33	-52.6	-54.5	14.5	0.00e+00	0	25	0	373293056	71	4473
2026-01-07 05:45:05.84	41.80	18.40	-52.5	-54.4	14.5	0.00e+00	0	25	0	375390208	71	4406
2026-01-07 05:45:06.84	41.60	18.46	-52.4	-54.3	14.6	0.00e+00	0	25	0	377487360	71	4367
2026-01-07 05:45:07.83	41.41	18.53	-52.4	-54.3	14.6	0.00e+00	0	25	0	379584512	71	4386
2026-01-07 05:45:08.83	41.21	18.60	-52.3	-54.2	14.7	0.00e+00	0	25	0	381681664	71	4327
2026-01-07 05:45:09.82	41.01	18.67	-52.2	-54.1	14.7	0.00e+00	0	25	0	382730240	71	4251
2026-01-07 05:45:10.82	40.81	18.73	-52.0	-53.9	14.7	0.00e+00	0	25	0	384827392	70	4399
2026-01-07 05:45:11.81	40.61	18.80	-52.0	-53.9	14.7	0.00e+00	0	25	0	386924544	70	4397
2026-01-07 05:45:12.80	40.41	18.87	-51.9	-53.7	14.8	0.00e+00	0	25	0	389021696	70	4317
2026-01-07 05:45:13.80	40.21	18.93	-51.7	-53.5	14.9	0.00e+00	0	25	0	390070272	70	4197
2026-01-07 05:45:14.80	40.00	19.00	-51.7	-53.4	14.8	0.00e+00	0	25	0	392167424	69	4433
2026-01-07 05:45:15.80	39.80	19.07	-51.7	-53.4	14.8	0.00e+00	0	25	0	394264576	69	4414
2026-01-07 05:45:16.79	39.59	19.13	-51.6	-53.3	14.8	0.00e+00	0	25	0	396361728	69	4377
2026-01-07 05:45:17.79	39.38	19.20	-51.6	-53.4	14.8	0.00e+00	0	25	0	398458880	69	4400
2026-01-07 05:45:18.78	39.18	19.26	-51.5	-53.2	14.9	0.00e+00	0	25	0	399507456	69	4318
2026-01-07 05:45:19.78	38.97	19.33	-51.5	-53.2	14.8	0.00e+00	0	25	0	401604608	69	4334
2026-01-07 05:45:20.77	38.76	19.39	-51.4	-53.1	14.9	0.00e+00	0	25	0	403701760	69	4277
2026-01-07 05:45:21.76	38.55	19.46	-51.5	-53.1	14.9	0.00e+00	0	25	0	405798912	69	4290
2026-01-07 05:45:22.76	38.34	19.52	-51.4	-53.1	14.9	0.00e+00	0	25	0	406847488	69	4248
2026-01-07 05:45:23.74	38.13	19.58	-51.4	-53.0	15.0	0.00e+00	0	25	0	408944640	69	4227
2026-01-07 05:45:24.74	37.92	19.65	-51.4	-53.0	15.0	0.00e+00	0	25	0	411041792	69	4238
2026-01-07 05:45:25.73	37.71	19.71	-51.3	-53.0	15.0	0.00e+00	0	25	0	413138944	69	4216
2026-01-07 05:45:26.72	37.49	19.77	-51.4	-53.1	14.9	0.00e+00	0	25	0	415236096	69	4260
2026-01-07 05:45:27.71	37.28	19.84	-51.3	-53.0	15.0	0.00e+00	0	25	0	416284672	69	4208
2026-01-07 05:45:28.71	37.06	19.90	-51.2	-52.8	15.0	0.00e+00	0	25	0	418381824	69	4143
2026-01-07 05:45:29.70	36.85	19.96	-51.3	-52.9	15.0	0.00e+00	0	25	0	420478976	69	4184
2026-01-07 05:45:30.70	36.63	20.02	-51.2	-52.8	15.1	0.00e+00	0	25	0	422576128	69	4120
2026-01-07 05:45:31.70	36.41	20.09	-51.1	-52.7	14.9	0.00e+00	0	25	0	423624704	68	4321
2026-01-07 05:45:32.69	36.19	20.15	-51.1	-52.7	14.9	0.00e+00	0	25	0	425721856	68	4310
2026-01-07 05:45:33.69	35.97	20.21	-51.1	-52.7	14.9	0.00e+00	0	25	0	427819008	68	4334
2026-01-07 05:45:34.68	35.75	20.27	-51.1	-52.7	14.9	0.00e+00	0	25	0	429916160	68	4324
2026-01-07 05:45:35.68	35.53	20.33	-51.1	-52.7	14.9	0.00e+00	0	25	0	432013312	68	4335
2026-01-07 05:45:36.67	35.30	20.39	-51.2	-52.8	14.9	0.00e+00	0	25	0	433061888	68	4372
2026-01-07 05:45:37.66	35.08	20.45	-51.2	-52.8	14.9	0.00e+00	0	25	0	435159040	68	4352
2026-01-07 05:45:38.66	34.86	20.51	-51.1	-52.7	14.9	0.00e+00	0	25	0	437256192	68	4324
2026-01-07 05:45:39.65	34.63	20.57	-51.0	-52.6	15.0	0.00e+00	0	25	0	439353344	68	4289
2026-01-07 05:45:40.65	34.40	20.63	-51.1	-52.7	15.0	0.00e+00	0	25	0	440401920	68	4307
2026-01-07 05:45:41.64	34.18	20.69	-51.2	-52.8	14.9	0.00e+00	0	25	0	442499072	68	4359
2026-01-07 05:45:42.64	33.95	20.75	-51.3	-52.9	14.8	0.00e+00	0	25	0	444596224	68	4438
2026-01-07 05:45:43.64	33.72	20.81	-51.4	-53.0	14.8	0.00e+00	0	25	0	446693376	68	4476
2026-01-07 05:45:44.65	33.48	20.86	-51.3	-52.9	14.9	0.00e+00	0	25	0	448790528	68	4427
2026-01-07 05:45:45.65	33.25	20.92	-51.2	-52.9	14.9	0.00e+00	0	25	0	449839104	68	4407
2026-01-07 05:45:46.64	33.02	20.98	-51.2	-52.8	14.9	0.00e+00	0	25	0	451936256	68	4376
2026-01-07 05:45:47.64	32.79	21.03	-51.2	-52.9	14.9	0.00e+00	0	25	0	454033408	68	4396
2026-01-07 05:45:48.64	32.55	21.09	-51.2	-52.9	14.9	0.00e+00	0	25	0	456130560	68	4407
2026-01-07 05:45:49.64	32.32	21.15	-51.4	-53.0	14.8	0.00e+00	0	25	0	458227712	68	4482
2026-01-07 05:45:50.64	32.08	21.20	-51.4	-53.1	14.8	0.00e+00	0	25	0	459276288	68	4497
2026-01-07 05:45:51.64	31.84	21.26	-51.3	-53.0	14.8	0.00e+00	0	25	0	461373440	68	4445
2026-01-07 05:45:52.65	31.60	21.31	-51.2	-52.9	14.9	0.00e+00	0	25	0	463470592	68	4406
2026-01-07 05:45:53.65	31.36	21.37	-51.3	-52.9	14.9	0.00e+00	0	25	0	465567744	68	4435
2026-01-07 05:45:54.65	31.12	21.42	-51.3	-52.9	14.9	0.00e+00	0	25	0	466616320	68	4433
2026-01-07 05:45:55.64	30.89	21.48	-51.3	-52.9	14.9	0.00e+00	0	25	0	468713472	68	4407
2026-01-07 05:45:56.64	30.64	21.53	-51.1	-52.7	15.0	0.00e+00	0	25	0	470810624	68	4313
2026-01-07 05:45:57.63	30.40	21.58	-51.2	-52.8	14.9	0.00e+00	0	25	0	472907776	68	4357
2026-01-07 05:45:58.63	30.16	21.63	-51.0	-52.6	15.0	0.00e+00	0	25	0	475004928	68	4270
2026-01-07 05:45:59.63	29.92	21.69	-51.1	-52.7	14.9	0.00e+00	0	25	0	476053504	68	4331
2026-01-07 05:46:00.62	29.67	21.74	-51.0	-52.6	15.0	0.00e+00	0	25	0	478150656	68	4246
2026-01-07 05:46:01.60	29.43	21.79	-50.9	-52.5	15.0	0.00e+00	0	25	0	480247808	68	4213
2026-01-07 05:46:02.59	29.19	21.84	-51.0	-52.5	15.0	0.00e+00	0	25	0	482344960	68	4230
2026-01-07 05:46:03.58	28.94	21.89	-51.0	-52.5	15.0	0.00e+00	0	25	0	483393536	68	4229
2026-01-07 05:46:04.58	28.70	21.94	-51.0	-52.6	15.0	0.00e+00	0	25	0	485490688	68	4256
2026-01-07 05:46:05.58	28.45	21.99	-51.0	-52.6	15.0	0.00e+00	0	25	0	487587840	68	4246
2026-01-07 05:46:06.58	28.20	22.03	-51.0	-52.6	15.0	0.00e+00	0	25	0	489684992	68	4263
2026-01-07 05:46:07.58	27.95	22.08	-51.1	-52.7	15.0	0.00e+00	0	25	0	491782144	68	4301
2026-01-07 05:46:08.57	27.70	22.13	-51.0	-52.6	15.0	0.00e+00	0	25	0	492830720	68	4268
2026-01-07 05:46:09.57	27.45	22.18	-51.0	-52.6	15.0	0.00e+00	0	25	0	494927872	68	4279
2026-01-07 05:46:10.57	27.19	22.22	-50.9	-52.4	15.1	0.00e+00	0	25	0	497025024	68	4189
2026-01-07 05:46:11.56	26.94	22.27	-50.5	-52.0	15.1	0.00e+00	0	25	0	499122176	67	4206
2026-01-07 05:46:12.55	26.69	22.31	-50.7	-52.2	15.0	0.00e+00	0	25	0	501219328	67	4317
2026-01-07 05:46:13.54	26.44	22.36	-50.6	-52.2	15.0	0.00e+00	0	25	0	502267904	67	4317
2026-01-07 05:46:14.54	26.18	22.40	-50.7	-52.2	15.0	0.00e+00	0	25	0	504365056	67	4331
2026-01-07 05:46:15.53	25.93	22.45	-50.6	-52.2	15.0	0.00e+00	0	25	0	506462208	67	4299
2026-01-07 05:46:16.53	25.67	22.49	-50.6	-52.1	15.1	0.00e+00	0	25	0	508559360	67	4272
2026-01-07 05:46:17.53	25.41	22.53	-50.6	-52.2	15.0	0.00e+00	0	25	0	509607936	67	4297
2026-01-07 05:46:18.52	25.16	22.58	-50.6	-52.2	15.0	0.00e+00	0	25	0	511705088	67	4293
2026-01-07 05:46:19.53	24.90	22.62	-50.8	-52.4	14.9	0.00e+00	0	25	0	513802240	67	4405
2026-01-07 05:46:20.53	24.64	22.66	-50.9	-52.5	14.9	0.00e+00	0	25	0	515899392	67	4455
2026-01-07 05:46:21.52	24.38	22.70	-51.0	-52.6	14.9	0.00e+00	0	25	0	517996544	67	4505
2026-01-07 05:46:22.52	24.12	22.74	-50.9	-52.5	14.9	0.00e+00	0	25	0	519045120	67	4493
2026-01-07 05:46:23.51	23.86	22.78	-50.8	-52.4	15.0	0.00e+00	0	25	0	521142272	67	4395
2026-01-07 05:46:24.52	23.59	22.82	-50.8	-52.3	15.0	0.00e+00	0	25	0	523239424	67	4374
2026-01-07 05:46:25.52	23.33	22.86	-50.7	-52.3	15.0	0.00e+00	0	25	0	525336576	67	4363
2026-01-07 05:46:26.51	23.07	22.89	-50.9	-52.4	14.9	0.00e+00	0	25	0	526385152	67	4434
2026-01-07 05:46:27.52	22.80	22.93	-50.9	-52.5	14.9	0.00e+00	0	25	0	528482304	67	4466
2026-01-07 05:46:28.52	22.53	22.97	-50.9	-52.5	14.9	0.00e+00	0	25	0	530579456	67	4472
2026-01-07 05:46:29.51	22.27	23.00	-50.9	-52.5	14.9	0.00e+00	0	25	0	532676608	67	4476
2026-01-07 05:46:30.51	22.00	23.04	-51.1	-52.7	14.8	0.00e+00	0	25	0	534773760	67	4564
2026-01-07 05:46:31.50	21.74	23.07	-51.3	-53.0	14.7	0.00e+00	0	25	0	535822336	67	4723
2026-01-07 05:46:32.50	21.47	23.11	-51.7	-53.5	14.6	0.00e+00	0	25	0	537919488	68	4715
2026-01-07 05:46:33.49	21.21	23.14	-51.9	-53.7	14.6	0.00e+00	0	25	0	540016640	69	4584
2026-01-07 05:46:34.48	20.94	23.17	-52.0	-53.8	14.6	0.00e+00	0	25	0	542113792	69	4606
2026-01-07 05:46:35.48	20.67	23.21	-51.9	-53.7	14.7	0.00e+00	0	25	0	543162368	69	4572
2026-01-07 05:46:36.48	20.40	23.24	-52.1	-53.9	14.6	0.00e+00	0	25	0	545259520	69	4684
2026-01-07 05:46:37.48	20.13	23.27	-52.1	-53.9	14.5	0.00e+00	0	25	0	547356672	69	4697
2026-01-07 05:46:38.49	19.86	23.30	-52.2	-54.0	14.5	0.00e+00	0	25	0	549453824	69	4736
2026-01-07 05:46:39.49	19.59	23.33	-52.3	-54.2	14.4	0.00e+00	0	25	0	551550976	69	4840
2026-01-07 05:46:40.50	19.31	23.36	-52.3	-54.2	14.5	0.00e+00	0	25	0	552599552	70	4568
2026-01-07 05:46:41.50	19.04	23.39	-52.3	-54.2	14.6	0.00e+00	0	25	0	554696704	70	4562
2026-01-07 05:46:42.49	18.77	23.41	-52.3	-54.2	14.6	0.00e+00	0	25	0	556793856	70	4585
2026-01-07 05:46:43.48	18.50	23.44	-52.4	-54.3	14.5	0.00e+00	0	25	0	558891008	70	4616
2026-01-07 05:46:44.48	18.22	23.47	-52.4	-54.3	14.6	0.00e+00	0	25	0	560988160	70	4601
2026-01-07 05:46:45.48	17.95	23.49	-52.5	-54.4	14.5	0.00e+00	0	25	0	562036736	70	4680
2026-01-07 05:46:46.47	17.68	23.52	-52.5	-54.4	14.5	0.00e+00	0	25	0	564133888	70	4665
2026-01-07 05:46:47.47	17.40	23.54	-52.6	-54.6	14.4	0.00e+00	0	25	0	566231040	70	4768
2026-01-07 05:46:48.47	17.12	23.56	-52.6	-54.5	14.4	0.00e+00	0	25	0	568328192	70	4728
2026-01-07 05:46:49.47	16.85	23.59	-52.6	-54.5	14.4	0.00e+00	0	25	0	569376768	70	4739
2026-01-07 05:46:50.46	16.57	23.61	-52.6	-54.6	14.4	0.00e+00	0	25	0	571473920	70	4768
2026-01-07 05:46:51.46	16.30	23.63	-52.7	-54.7	14.3	0.00e+00	0	25	0	573571072	70	4846
2026-01-07 05:46:52.45	16.02	23.65	-52.8	-54.8	14.3	0.00e+00	0	25	0	575668224	70	4910
2026-01-07 05:46:53.44	15.75	23.67	-52.9	-55.0	14.3	0.00e+00	0	25	0	577765376	71	4722
2026-01-07 05:46:54.43	15.47	23.69	-52.9	-54.9	14.4	0.00e+00	0	25	0	578813952	71	4688
2026-01-07 05:46:55.43	15.19	23.71	-52.9	-54.9	14.4	0.00e+00	0	25	0	580911104	71	4673
2026-01-07 05:46:56.42	14.92	23.73	-52.9	-54.9	14.3	0.00e+00	0	25	0	583008256	71	4700
2026-01-07 05:46:57.41	14.64	23.74	-52.9	-54.9	14.4	0.00e+00	0	25	0	585105408	71	4670
2026-01-07 05:46:58.40	14.37	23.76	-52.8	-54.8	14.4	0.00e+00	0	25	0	586153984	71	4635
2026-01-07 05:46:59.39	14.09	23.78	-52.9	-55.0	14.3	0.00e+00	0	25	0	588251136	71	4713
2026-01-07 05:47:00.39	13.81	23.79	-52.6	-54.6	14.5	0.00e+00	0	25	0	590348288	71	4503
2026-01-07 05:47:01.39	13.53	23.80	-52.7	-54.6	14.5	0.00e+00	0	25	0	592445440	71	4512
2026-01-07 05:47:02.39	13.25	23.82	-52.6	-54.5	14.5	0.00e+00	0	25	0	594542592	71	4491
2026-01-07 05:47:03.38	12.97	23.83	-52.5	-54.4	14.6	0.00e+00	0	25	0	595591168	71	4431
2026-01-07 05:47:04.38	12.69	23.84	-52.6	-54.6	14.5	0.00e+00	0	25	0	597688320	71	4502
2026-01-07 05:47:05.38	12.41	23.85	-52.8	-54.8	14.4	0.00e+00	0	25	0	599785472	71	4610
2026-01-07 05:47:06.37	12.13	23.86	-52.8	-54.8	14.4	0.00e+00	0	25	0	601882624	71	4647
2026-01-07 05:47:07.37	11.85	23.87	-52.8	-54.9	14.4	0.00e+00	0	25	0	602931200	71	4652
2026-01-07 05:47:08.36	11.57	23.88	-52.8	-54.7	14.5	0.00e+00	0	25	0	605028352	71	4585
2026-01-07 05:47:09.36	11.29	23.89	-52.6	-54.6	14.5	0.00e+00	0	25	0	607125504	71	4506
2026-01-07 05:47:10.36	11.01	23.90	-52.6	-54.5	14.6	0.00e+00	0	25	0	609222656	71	4468
2026-01-07 05:47:11.36	10.72	23.91	-52.6	-54.5	14.5	0.00e+00	0	25	0	611319808	71	4473
2026-01-07 05:47:12.35	10.44	23.91	-52.7	-54.6	14.5	0.00e+00	0	25	0	612368384	71	4537
2026-01-07 05:47:13.35	10.16	23.92	-52.6	-54.6	14.5	0.00e+00	0	25	0	614465536	71	4496
2026-01-07 05:47:14.35	9.88	23.92	-52.7	-54.7	14.5	0.00e+00	0	25	0	616562688	71	4550
2026-01-07 05:47:15.34	9.60	23.93	-52.4	-54.3	14.7	0.00e+00	0	25	0	618659840	71	4367
2026-01-07 05:47:16.34	9.32	23.93	-52.4	-54.3	14.7	0.00e+00	0	25	0	620756992	71	4346
2026-01-07 05:47:17.33	9.04	23.93	-52.4	-54.2	14.7	0.00e+00	0	25	0	621805568	71	4321
2026-01-07 05:47:18.33	8.76	23.93	-52.5	-54.4	14.6	0.00e+00	0	25	0	623902720	71	4402
2026-01-07 05:47:19.31	8.48	23.93	-52.6	-54.5	14.6	0.00e+00	0	25	0	625999872	71	4457
2026-01-07 05:47:20.30	8.20	23.93	-52.5	-54.3	14.6	0.00e+00	0	25	0	628097024	71	4390
2026-01-07 05:47:21.30	7.92	23.93	-52.4	-54.3	14.7	0.00e+00	0	25	0	629145600	71	4342
2026-01-07 05:47:22.29	7.64	23.93	-52.2	-54.0	14.8	0.00e+00	0	25	0	631242752	71	4214
2026-01-07 05:47:23.29	7.35	23.93	-52.0	-53.8	14.8	0.00e+00	0	25	0	633339904	70	4365
2026-01-07 05:47:24.29	7.07	23.93	-52.0	-53.7	14.8	0.00e+00	0	25	0	635437056	70	4329
2026-01-07 05:47:25.29	6.79	23.92	-51.9	-53.7	14.8	0.00e+00	0	25	0	637534208	70	4313
2026-01-07 05:47:26.28	6.51	23.92	-51.9	-53.7	14.8	0.00e+00	0	25	0	638582784	70	4301
2026-01-07 05:47:27.29	6.22	23.91	-51.9	-53.6	14.8	0.00e+00	0	25	0	640679936	70	4287
2026-01-07 05:47:28.28	5.94	23.91	-51.8	-53.5	14.9	0.00e+00	0	25	0	642777088	70	4208
2026-01-07 05:47:29.27	5.67	23.90	-51.8	-53.5	14.9	0.00e+00	0	25	0	644874240	70	4227
2026-01-07 05:47:30.28	5.38	23.89	-51.8	-53.5	14.9	0.00e+00	0	25	0	645922816	70	4226
2026-01-07 05:47:31.27	5.10	23.88	-51.7	-53.4	14.9	0.00e+00	0	25	0	648019968	70	4187
2026-01-07 05:47:32.26	4.82	23.88	-51.5	-53.2	14.9	0.00e+00	0	25	0	650117120	69	4313
2026-01-07 05:47:33.25	4.54	23.87	-51.3	-52.9	15.1	0.00e+00	0	25	0	652214272	69	4163
2026-01-07 05:47:34.25	4.26	23.86	-51.3	-52.9	15.0	0.00e+00	0	25	0	654311424	69	4170
2026-01-07 05:47:35.24	3.98	23.84	-51.3	-52.9	15.0	0.00e+00	0	25	0	655360000	69	4163
2026-01-07 05:47:36.24	3.70	23.83	-51.2	-52.8	15.1	0.00e+00	0	25	0	657457152	69	4138
2026-01-07 05:47:37.24	3.42	23.82	-51.0	-52.6	15.0	0.00e+00	0	25	0	659554304	68	4265
2026-01-07 05:47:38.23	3.15	23.81	-50.9	-52.5	15.1	0.00e+00	0	25	0	661651456	68	4221
2026-01-07 05:47:39.23	2.87	23.79	-51.0	-52.6	15.0	0.00e+00	0	25	0	663748608	68	4262
2026-01-07 05:47:40.22	2.59	23.78	-50.9	-52.4	15.1	0.00e+00	0	25	0	664797184	68	4173
2026-01-07 05:47:41.22	2.31	23.76	-50.9	-52.4	15.1	0.00e+00	0	25	0	666894336	68	4164
2026-01-07 05:47:42.22	2.03	23.75	-50.5	-52.0	15.1	0.00e+00	0	25	0	668991488	67	4227
2026-01-07 05:47:43.22	1.75	23.73	-50.4	-51.9	15.1	0.00e+00	0	25	0	671088640	67	4179
2026-01-07 05:47:44.21	1.47	23.71	-50.3	-51.8	15.2	0.00e+00	0	25	0	672137216	67	4128
2026-01-07 05:47:45.21	1.20	23.69	-50.3	-51.8	15.2	0.00e+00	0	25	0	674234368	67	4130
2026-01-07 05:47:46.21	0.92	23.67	-50.3	-51.8	15.2	0.00e+00	0	25	0	676331520	67	4121
2026-01-07 05:47:47.21	0.64	23.65	-50.4	-51.9	15.2	0.00e+00	0	25	0	678428672	67	4150
2026-01-07 05:47:48.21	0.36	23.63	-50.4	-51.9	15.1	0.00e+00	0	25	0	680525824	67	4193
2026-01-07 05:47:49.21	0.09	23.61	-50.3	-51.8	15.2	0.00e+00	0	25	0	681574400	67	4128
2026-01-07 05:47:50.20	359.81	23.59	-50.2	-51.6	15.1	0.00e+00	0	25	0	683671552	66	4277
2026-01-07 05:47:51.20	359.54	23.57	-50.1	-51.5	15.1	0.00e+00	0	25	0	685768704	66	4232
2026-01-07 05:47:52.19	359.26	23.54	-50.1	-51.6	15.1	0.00e+00	0	25	0	687865856	66	4266
2026-01-07 05:47:53.19	358.99	23.52	-50.1	-51.5	15.1	0.00e+00	0	25	0	688914432	66	4234
2026-01-07 05:47:54.19	358.71	23.50	-50.2	-51.7	15.1	0.00e+00	0	25	0	691011584	66	4326
2026-01-07 05:47:55.18	358.44	23.47	-50.3	-51.8	15.1	0.00e+00	0	25	0	693108736	66	4346
2026-01-07 05:47:56.17	358.17	23.44	-50.3	-51.8	15.0	0.00e+00	0	25	0	695205888	66	4385
2026-01-07 05:47:57.17	357.90	23.42	-50.4	-51.9	15.0	0.00e+00	0	25	0	697303040	66	4437
2026-01-07 05:47:58.17	357.62	23.39	-50.5	-52.0	15.0	0.00e+00	0	25	0	698351616	66	4470
2026-01-07 05:47:59.16	357.35	23.36	-50.5	-52.1	14.9	0.00e+00	0	25	0	700448768	66	4512
2026-01-07 05:48:00.15	357.08	23.33	-50.6	-52.1	14.9	0.00e+00	0	25	0	702545920	66	4545
2026-01-07 05:48:01.14	356.81	23.30	-50.5	-52.0	15.0	0.00e+00	0	25	0	704643072	66	4456
2026-01-07 05:48:02.14	356.54	23.27	-50.5	-52.0	15.0	0.00e+00	0	25	0	705691648	66	4473
2026-01-07 05:48:03.14	356.27	23.24	-50.5	-52.0	15.0	0.00e+00	0	25	0	707788800	66	4484
2026-01-07 05:48:04.14	356.00	23.21	-50.5	-52.0	14.9	0.00e+00	0	25	0	709885952	66	4493
2026-01-07 05:48:05.13	355.74	23.18	-50.7	-52.2	14.9	0.00e+00	0	25	0	711983104	66	4586
2026-01-07 05:48:06.13	355.47	23.15	-50.8	-52.4	14.8	0.00e+00	0	25	0	714080256	66	4662
2026-01-07 05:48:07.13	355.20	23.11	-50.8	-52.4	14.8	0.00e+00	0	25	0	715128832	66	4692
2026-01-07 05:48:08.12	354.93	23.08	-51.0	-52.5	14.9	0.00e+00	0	25	0	717225984	67	4492
2026-01-07 05:48:09.11	354.67	23.05	-51.0	-52.6	14.8	0.00e+00	0	25	0	719323136	67	4525
2026-01-07 05:48:10.10	354.41	23.01	-51.1	-52.7	14.8	0.00e+00	0	25	0	721420288	67	4591
2026-01-07 05:48:11.10	354.14	22.97	-51.2	-52.8	14.8	0.00e+00	0	25	0	722468864	67	4631
2026-01-07 05:48:12.09	353.88	22.94	-51.2	-52.9	14.7	0.00e+00	0	25	0	724566016	67	4673
2026-01-07 05:48:13.08	353.62	22.90	-51.3	-53.0	14.7	0.00e+00	0	25	0	726663168	67	4742
2026-01-07 05:48:14.08	353.35	22.86	-51.4	-53.1	14.7	0.00e+00	0	25	0	728760320	67	4761
2026-01-07 05:48:15.07	353.09	22.83	-51.6	-53.3	14.7	0.00e+00	0	25	0	730857472	68	4637
2026-01-07 05:48:16.07	352.83	22.79	-51.6	-53.3	14.7	0.00e+00	0	25	0	731906048	68	4604
2026-01-07 05:48:17.06	352.57	22.75	-51.5	-53.2	14.8	0.00e+00	0	25	0	734003200	68	4561
2026-01-07 05:48:18.05	352.31	22.71	-51.5	-53.2	14.8	0.00e+00	0	25	0	736100352	68	4575
2026-01-07 05:48:19.04	352.05	22.67	-51.6	-53.3	14.7	0.00e+00	0	25	0	738197504	68	4639
2026-01-07 05:48:20.04	351.79	22.63	-51.7	-53.4	14.7	0.00e+00	0	25	0	739246080	68	4688
2026-01-07 05:48:21.04	351.53	22.59	-51.9	-53.6	14.6	0.00e+00	0	25	0	741343232	68	4809
2026-01-07 05:48:22.03	351.28	22.54	-52.0	-53.8	14.7	0.00e+00	0	25	0	743440384	69	4603
2026-01-07 05:48:23.03	351.02	22.50	-52.1	-53.9	14.6	0.00e+00	0	25	0	745537536	69	4671
2026-01-07 05:48:24.02	350.76	22.46	-52.1	-54.0	14.5	0.00e+00	0	25	0	747634688	69	4717
2026-01-07 05:48:25.02	350.51	22.41	-52.1	-53.9	14.6	0.00e+00	0	25	0	748683264	69	4699
2026-01-07 05:48:26.01	350.25	22.37	-52.2	-54.0	14.5	0.00e+00	0	25	0	750780416	69	4712
2026-01-07 05:48:27.00	350.00	22.33	-52.0	-53.8	14.6	0.00e+00	0	25	0	752877568	69	4629
2026-01-07 05:48:28.00	349.75	22.28	-52.1	-53.9	14.6	0.00e+00	0	25	0	754974720	69	4658
2026-01-07 05:48:28.99	349.50	22.23	-52.2	-54.0	14.5	0.00e+00	0	25	0	756023296	69	4718
2026-01-07 05:48:30.00	349.24	22.19	-52.0	-53.8	14.6	0.00e+00	0	25	0	758120448	69	4626
2026-01-07 05:48:31.00	348.99	22.14	-52.1	-54.0	14.6	0.00e+00	0	25	0	760217600	69	4710
2026-01-07 05:48:32.00	348.74	22.09	-52.2	-54.0	14.5	0.00e+00	0	25	0	762314752	69	4740
2026-01-07 05:48:33.00	348.49	22.04	-52.3	-54.1	14.5	0.00e+00	0	25	0	764411904	69	4797
2026-01-07 05:48:33.98	348.24	22.00	-52.3	-54.2	14.4	0.00e+00	0	25	0	765460480	69	4855
2026-01-07 05:48:34.98	347.99	21.95	-52.4	-54.3	14.4	0.00e+00	0	25	0	767557632	69	4896
2026-01-07 05:48:35.97	347.75	21.90	-52.4	-54.3	14.4	0.00e+00	0	25	0	769654784	69	4894
2026-01-07 05:48:36.96	347.50	21.85	-52.5	-54.4	14.5	0.00e+00	0	25	0	771751936	70	4700
2026-01-07 05:48:37.96	347.26	21.80	-52.5	-54.4	14.5	0.00e+00	0	25	0	772800512	70	4703
2026-01-07 05:48:38.95	347.01	21.75	-52.7	-54.6	14.4	0.00e+00	0	25	0	774897664	70	4796
2026-01-07 05:48:39.94	346.77	21.70	-52.7	-54.7	14.3	0.00e+00	0	25	0	776994816	70	4850
2026-01-07 05:48:40.93	346.53	21.65	-52.6	-54.5	14.4	0.00e+00	0	25	0	779091968	70	4748
2026-01-07 05:48:41.93	346.29	21.59	-52.5	-54.4	14.4	0.00e+00	0	25	0	781189120	70	4699
2026-01-07 05:48:42.93	346.04	21.54	-52.5	-54.4	14.5	0.00e+00	0	25	0	782237696	70	4687
2026-01-07 05:48:43.94	345.80	21.49	-52.5	-54.4	14.5	0.00e+00	0	25	0	784334848	70	4660
2026-01-07 05:48:44.93	345.56	21.44	-52.6	-54.5	14.4	0.00e+00	0	25	0	786432000	70	4744
2026-01-07 05:48:45.93	345.32	21.38	-52.6	-54.6	14.4	0.00e+00	0	25	0	788529152	70	4769
2026-01-07 05:48:46.94	345.08	21.33	-52.7	-54.7	14.3	0.00e+00	0	25	0	790626304	70	4825
2026-01-07 05:48:47.94	344.84	21.27	-52.7	-54.7	14.3	0.00e+00	0	25	0	791674880	70	4819
2026-01-07 05:48:48.94	344.60	21.22	-52.6	-54.5	14.4	0.00e+00	0	25	0	793772032	70	4718
2026-01-07 05:48:49.92	344.37	21.16	-52.4	-54.2	14.6	0.00e+00	0	25	0	795869184	70	4591
2026-01-07 05:48:50.92	344.14	21.11	-52.4	-54.3	14.5	0.00e+00	0	25	0	797966336	70	4622
2026-01-07 05:48:51.91	343.91	21.05	-52.3	-54.2	14.6	0.00e+00	0	25	0	799014912	70	4562
2026-01-07 05:48:52.92	343.67	20.99	-52.4	-54.3	14.5	0.00e+00	0	25	0	801112064	70	4621
2026-01-07 05:48:53.91	343.44	20.94	-52.5	-54.4	14.5	0.00e+00	0	25	0	803209216	70	4662
2026-01-07 05:48:54.92	343.20	20.88	-52.5	-54.4	14.5	0.00e+00	0	25	0	805306368	70	4679
2026-01-07 05:48:55.92	342.97	20.82	-52.6	-54.5	14.4	0.00e+00	0	25	0	807403520	70	4743
2026-01-07 05:48:56.91	342.74	20.76	-52.6	-54.5	14.4	0.00e+00	0	25	0	808452096	70	4741
2026-01-07 05:48:57.91	342.52	20.70	-52.4	-54.3	14.5	0.00e+00	0	25	0	810549248	70	4645
2026-01-07 05:48:58.91	342.29	20.64	-52.4	-54.3	14.5	0.00e+00	0	25	0	812646400	70	4624
2026-01-07 05:48:59.90	342.06	20.59	-52.5	-54.3	14.5	0.00e+00	0	25	0	814743552	70	4646
2026-01-07 05:49:00.89	341.84	20.53	-52.2	-54.1	14.6	0.00e+00	0	25	0	816840704	70	4503
2026-01-07 05:49:01.89	341.61	20.47	-52.1	-53.9	14.7	0.00e+00	0	25	0	817889280	70	4428
2026-01-07 05:49:02.89	341.39	20.41	-52.1	-53.9	14.7	0.00e+00	0	25	0	819986432	70	4427
2026-01-07 05:49:03.88	341.16	20.35	-52.2	-54.0	14.7	0.00e+00	0	25	0	822083584	70	4471
2026-01-07 05:49:04.89	340.94	20.28	-52.1	-54.0	14.7	0.00e+00	0	25	0	824180736	70	4442
2026-01-07 05:49:05.88	340.72	20.22	-52.1	-53.9	14.7	0.00e+00	0	25	0	825229312	70	4410
2026-01-07 05:49:06.87	340.50	20.16	-52.1	-53.9	14.7	0.00e+00	0	25	0	827326464	70	4434
2026-01-07 05:49:07.86	340.28	20.10	-52.1	-53.9	14.7	0.00e+00	0	25	0	829423616	70	4411
2026-01-07 05:49:08.86	340.06	20.04	-52.0	-53.8	14.8	0.00e+00	0	25	0	831520768	70	4357
2026-01-07 05:49:09.85	339.84	19.98	-52.0	-53.7	14.8	0.00e+00	0	25	0	833617920	70	4326
2026-01-07 05:49:10.86	339.62	19.91	-51.9	-53.7	14.8	0.00e+00	0	25	0	834666496	70	4298
2026-01-07 05:49:11.86	339.41	19.85	-51.9	-53.7	14.8	0.00e+00	0	25	0	836763648	70	4307
2026-01-07 05:49:12.86	339.19	19.79	-52.0	-53.8	14.8	0.00e+00	0	25	0	838860800	70	4370
2026-01-07 05:49:13.85	338.98	19.73	-52.1	-53.9	14.7	0.00e+00	0	25	0	840957952	70	4398
2026-01-07 05:49:14.85	338.76	19.66	-52.0	-53.8	14.8	0.00e+00	0	25	0	842006528	70	4371
2026-01-07 05:49:15.85	338.55	19.60	-52.0	-53.8	14.7	0.00e+00	0	25	0	844103680	70	4377
2026-01-07 05:49:16.85	338.34	19.53	-52.0	-53.8	14.8	0.00e+00	0	25	0	846200832	70	4378
2026-01-07 05:49:17.85	338.13	19.47	-52.0	-53.7	14.8	0.00e+00	0	25	0	848297984	70	4340
2026-01-07 05:49:18.86	337.91	19.40	-52.0	-53.8	14.7	0.00e+00	0	25	0	850395136	70	4379
2026-01-07 05:49:19.85	337.71	19.34	-52.0	-53.8	14.8	0.00e+00	0	25	0	851443712	70	4373
2026-01-07 05:49:20.85	337.50	19.27	-51.9	-53.7	14.8	0.00e+00	0	25	0	853540864	70	4323
2026-01-07 05:49:21.84	337.29	19.21	-52.0	-53.8	14.8	0.00e+00	0	25	0	855638016	70	4353
2026-01-07 05:49:22.84	337.08	19.14	-52.2	-54.0	14.7	0.00e+00	0	25	0	857735168	70	4454
2026-01-07 05:49:23.84	336.88	19.08	-52.1	-53.9	14.7	0.00e+00	0	25	0	859832320	70	4413
2026-01-07 05:49:24.84	336.67	19.01	-52.1	-53.9	14.7	0.00e+00	0	25	0	860880896	70	4409
2026-01-07 05:49:25.83	336.47	18.95	-52.1	-53.9	14.7	0.00e+00	0	25	0	862978048	70	4435
2026-01-07 05:49:26.83	336.27	18.88	-52.2	-54.0	14.6	0.00e+00	0	25	0	865075200	70	4463
2026-01-07 05:49:27.82	336.07	18.81	-52.2	-54.0	14.6	0.00e+00	0	25	0	867172352	70	4479
2026-01-07 05:49:28.81	335.87	18.75	-52.1	-54.0	14.7	0.00e+00	0	25	0	868220928	70	4451
2026-01-07 05:49:29.80	335.67	18.68	-52.2	-54.1	14.6	0.00e+00	0	25	0	870318080	70	4513
2026-01-07 05:49:30.80	335.47	18.61	-52.2	-54.0	14.6	0.00e+00	0	25	0	872415232	70	4484
2026-01-07 05:49:31.79	335.27	18.55	-52.2	-54.1	14.6	0.00e+00	0	25	0	874512384	70	4497
2026-01-07 05:49:32.78	335.07	18.48	-52.3	-54.2	14.6	0.00e+00	0	25	0	876609536	70	4555
2026-01-07 05:49:33.77	334.88	18.41	-52.3	-54.2	14.5	0.00e+00	0	25	0	877658112	70	4573
2026-01-07 05:49:34.77	334.68	18.34	-52.3	-54.1	14.6	0.00e+00	0	25	0	879755264	70	4531
2026-01-07 05:49:35.76	334.49	18.28	-52.2	-54.0	14.7	0.00e+00	0	25	0	881852416	70	4485
2026-01-07 05:49:36.76	334.29	18.21	-52.1	-54.0	14.7	0.00e+00	0	25	0	883949568	70	4457
2026-01-07 05:49:37.76	334.10	18.14	-52.2	-54.0	14.6	0.00e+00	0	25	0	884998144	70	4465
2026-01-07 05:49:38.75	333.91	18.07	-52.2	-54.0	14.6	0.00e+00	0	25	0	887095296	70	4460
2026-01-07 05:49:39.74	333.72	18.00	-52.1	-53.8	14.7	0.00e+00	0	25	0	889192448	70	4389
2026-01-07 05:49:40.73	333.53	17.94	-52.0	-53.8	14.8	0.00e+00	0	25	0	891289600	70	4362
2026-01-07 05:49:41.73	333.34	17.87	-52.1	-53.9	14.7	0.00e+00	0	25	0	892338176	70	4423
2026-01-07 05:49:42.73	333.15	17.80	-52.1	-53.9	14.7	0.00e+00	0	25	0	894435328	70	4439
2026-01-07 05:49:43.73	332.96	17.73	-52.1	-53.9	14.7	0.00e+00	0	25	0	896532480	70	4441
2026-01-07 05:49:44.73	332.78	17.66	-52.1	-54.0	14.7	0.00e+00	0	25	0	898629632	70	4461
2026-01-07 05:49:45.73	332.59	17.59	-52.1	-54.0	14.6	0.00e+00	0	25	0	900726784	70	4454
2026-01-07 05:49:46.72	332.40	17.52	-52.1	-53.9	14.7	0.00e+00	0	25	0	901775360	70	4409
2026-01-07 05:49:47.72	332.22	17.45	-52.0	-53.7	14.8	0.00e+00	0	25	0	903872512	70	4340
2026-01-07 05:49:48.71	332.04	17.38	-52.0	-53.8	14.7	0.00e+00	0	25	0	905969664	70	4367
2026-01-07 05:49:49.70	331.86	17.31	-51.9	-53.6	14.8	0.00e+00	0	25	0	908066816	70	4290
2026-01-07 05:49:50.70	331.67	17.24	-51.8	-53.5	14.9	0.00e+00	0	25	0	910163968	70	4238
2026-01-07 05:49:51.70	331.49	17.17	-51.8	-53.5	14.9	0.00e+00	0	25	0	911212544	70	4209
2026-01-07 05:49:52.71	331.31	17.10	-51.9	-53.6	14.8	0.00e+00	0	25	0	913309696	70	4276
2026-01-07 05:49:53.71	331.13	17.03	-51.7	-53.5	14.9	0.00e+00	0	25	0	915406848	70	4195
2026-01-07 05:49:54.70	330.95	16.96	-51.5	-53.2	14.9	0.00e+00	0	25	0	917504000	69	4312
2026-01-07 05:49:55.70	330.77	16.89	-51.4	-53.1	14.9	0.00e+00	0	25	0	919601152	69	4252
2026-01-07 05:49:56.70	330.60	16.82	-51.4	-53.1	14.9	0.00e+00	0	25	0	920649728	69	4262
2026-01-07 05:49:57.71	330.42	16.75	-51.5	-53.2	14.9	0.00e+00	0	25	0	922746880	69	4303
2026-01-07 05:49:58.70	330.25	16.68	-51.5	-53.2	14.9	0.00e+00	0	25	0	924844032	69	4329
2026-01-07 05:49:59.69	330.07	16.61	-51.5	-53.2	14.9	0.00e+00	0	25	0	926941184	69	4335
2026-01-07 05:50:00.69	329.90	16.54	-51.5	-53.2	14.9	0.00e+00	0	25	0	927989760	69	4318
2026-01-07 05:50:01.68	329.73	16.47	-51.6	-53.3	14.8	0.00e+00	0	25	0	930086912	69	4367
2026-01-07 05:50:02.68	329.55	16.40	-51.6	-53.4	14.8	0.00e+00	0	25	0	932184064	69	4408
2026-01-07 05:50:03.67	329.39	16.33	-51.5	-53.2	14.9	0.00e+00	0	25	0	934281216	69	4298
2026-01-07 05:50:04.66	329.22	16.26	-51.4	-53.1	14.9	0.00e+00	0	25	0	936378368	69	4264
2026-01-07 05:50:05.64	329.05	16.19	-51.4	-53.1	14.9	0.00e+00	0	25	0	937426944	69	4261
2026-01-07 05:50:06.63	328.88	16.12	-51.3	-53.0	15.0	0.00e+00	0	25	0	939524096	69	4195
2026-01-07 05:50:07.63	328.71	16.05	-51.4	-53.1	14.9	0.00e+00	0	25	0	941621248	69	4246
2026-01-07 05:50:08.62	328.55	15.97	-51.3	-53.0	15.0	0.00e+00	0	25	0	943718400	69	4211
2026-01-07 05:50:09.62	328.38	15.90	-51.1	-52.7	14.9	0.00e+00	0	25	0	944766976	68	4334
2026-01-07 05:50:10.61	328.22	15.83	-51.2	-52.8	14.9	0.00e+00	0	25	0	946864128	68	4366
2026-01-07 05:50:11.60	328.05	15.76	-51.3	-52.9	14.8	0.00e+00	0	25	0	948961280	68	4432
2026-01-07 05:50:12.60	327.89	15.69	-51.2	-52.9	14.9	0.00e+00	0	25	0	951058432	68	4401
2026-01-07 05:50:13.59	327.73	15.62	-51.3	-52.9	14.8	0.00e+00	0	25	0	953155584	68	4439
2026-01-07 05:50:14.59	327.57	15.55	-51.3	-53.0	14.8	0.00e+00	0	25	0	954204160	68	4470
2026-01-07 05:50:15.60	327.40	15.48	-51.4	-53.0	14.8	0.00e+00	0	25	0	956301312	68	4492
2026-01-07 05:50:16.59	327.24	15.41	-51.3	-53.0	14.8	0.00e+00	0	25	0	958398464	68	4456
2026-01-07 05:50:17.59	327.08	15.33	-51.4	-53.0	14.8	0.00e+00	0	25	0	960495616	68	4487
2026-01-07 05:50:18.58	326.92	15.26	-51.4	-53.0	14.8	0.00e+00	0	25	0	961544192	68	4489
2026-01-07 05:50:19.57	326.77	15.19	-51.3	-53.0	14.8	0.00e+00	0	25	0	963641344	68	4455
2026-01-07 05:50:20.56	326.61	15.12	-51.3	-53.0	14.8	0.00e+00	0	25	0	965738496	68	4462
2026-01-07 05:50:21.55	326.46	15.05	-51.3	-53.0	14.8	0.00e+00	0	25	0	967835648	68	4465
2026-01-07 05:50:22.55	326.30	14.98	-51.3	-53.0	14.8	0.00e+00	0	25	0	969932800	68	4485
2026-01-07 05:50:23.54	326.14	14.91	-51.4	-53.0	14.8	0.00e+00	0	25	0	970981376	68	4493
2026-01-07 05:50:24.53	325.99	14.84	-51.4	-53.1	14.8	0.00e+00	0	25	0	973078528	68	4496
2026-01-07 05:50:25.53	325.84	14.76	-51.4	-53.1	14.7	0.00e+00	0	25	0	975175680	68	4538
2026-01-07 05:50:26.52	325.69	14.69	-51.5	-53.3	14.7	0.00e+00	0	25	0	977272832	68	4608
2026-01-07 05:50:27.51	325.53	14.62	-51.5	-53.2	14.7	0.00e+00	0	25	0	978321408	68	4585
2026-01-07 05:50:28.50	325.38	14.55	-51.5	-53.2	14.7	0.00e+00	0	25	0	980418560	68	4552
2026-01-07 05:50:29.50	325.23	14.48	-51.4	-53.1	14.7	0.00e+00	0	25	0	982515712	68	4524
2026-01-07 05:50:30.49	325.08	14.41	-51.5	-53.2	14.7	0.00e+00	0	25	0	984612864	68	4569
2026-01-07 05:50:31.48	324.94	14.34	-51.5	-53.3	14.7	0.00e+00	0	25	0	986710016	68	4607
2026-01-07 05:50:32.47	324.79	14.27	-51.6	-53.3	14.7	0.00e+00	0	25	0	987758592	68	4621
2026-01-07 05:50:33.47	324.64	14.20	-51.6	-53.4	14.6	0.00e+00	0	25	0	989855744	68	4663
2026-01-07 05:50:34.46	324.49	14.13	-51.7	-53.5	14.6	0.00e+00	0	25	0	991952896	68	4731
2026-01-07 05:50:35.46	324.35	14.05	-51.8	-53.6	14.5	0.00e+00	0	25	0	994050048	68	4778
2026-01-07 05:50:36.46	324.20	13.98	-51.9	-53.7	14.5	0.00e+00	0	25	0	995098624	68	4840
2026-01-07 05:50:37.45	324.06	13.91	-52.0	-53.8	14.5	0.00e+00	0	25	0	997195776	69	4628
2026-01-07 05:50:38.44	323.91	13.84	-52.1	-53.9	14.5	0.00e+00	0	25	0	999292928	69	4695
2026-01-07 05:50:39.44	323.77	13.77	-52.1	-54.0	14.5	0.00e+00	0	25	0	1001390080	69	4728
2026-01-07 05:50:40.43	323.63	13.70	-52.1	-54.0	14.5	0.00e+00	0	26	0	1002438656	69	4711
2026-01-07 05:50:41.43	323.49	13.63	-52.2	-54.1	14.4	0.00e+00	0	25	0	1004535808	69	4773
2026-01-07 05:50:42.42	323.35	13.56	-52.2	-54.1	14.4	0.00e+00	0	25	0	1006632960	69	4769
2026-01-07 05:50:43.41	323.21	13.49	-52.0	-53.8	14.5	0.00e+00	0	25	0	1008730112	69	4648
2026-01-07 05:50:44.40	323.07	13.42	-52.0	-53.9	14.5	0.00e+00	0	25	0	1010827264	69	4667
2026-01-07 05:50:45.40	322.93	13.34	-52.0	-53.8	14.5	0.00e+00	0	25	0	1011875840	69	4622
2026-01-07 05:50:46.39	322.79	13.27	-52.0	-53.9	14.5	0.00e+00	0	25	0	1013972992	69	4655
2026-01-07 05:50:47.39	322.65	13.20	-51.9	-53.7	14.6	0.00e+00	0	25	0	1016070144	69	4580
2026-01-07 05:50:48.40	322.51	13.13	-51.8	-53.6	14.6	0.00e+00	0	25	0	1018167296	69	4541
2026-01-07 05:50:49.39	322.38	13.06	-51.9	-53.7	14.6	0.00e+00	0	25	0	1020264448	69	4583
2026-01-07 05:50:50.39	322.24	12.99	-52.0	-53.9	14.5	0.00e+00	0	25	0	1021313024	69	4663
2026-01-07 05:50:51.38	322.10	12.92	-52.1	-53.9	14.5	0.00e+00	0	25	0	1023410176	69	4697
2026-01-07 05:50:52.37	321.97	12.85	-52.2	-54.1	14.4	0.00e+00	0	25	0	1025507328	69	4790
2026-01-07 05:50:53.37	321.84	12.78	-52.3	-54.2	14.4	0.00e+00	0	25	0	1027604480	69	4848
2026-01-07 05:50:54.36	321.70	12.71	-52.4	-54.3	14.3	0.00e+00	0	25	0	1028653056	69	4916
2026-01-07 05:50:55.35	321.57	12.64	-52.4	-54.4	14.3	0.00e+00	0	25	0	1030750208	69	4928
2026-01-07 05:50:56.35	321.44	12.57	-52.4	-54.4	14.3	0.00e+00	0	25	0	1032847360	69	4937
2026-01-07 05:50:57.35	321.31	12.50	-52.4	-54.4	14.3	0.00e+00	0	25	0	1034944512	69	4953
2026-01-07 05:50:58.34	321.18	12.43	-52.5	-54.5	14.3	0.00e+00	0	25	0	1037041664	70	4735
2026-01-07 05:50:59.34	321.05	12.36	-52.5	-54.5	14.3	0.00e+00	0	25	0	1038090240	70	4753
2026-01-07 05:51:00.33	320.92	12.29	-52.5	-54.5	14.3	0.00e+00	0	25	0	1040187392	70	4735
2026-01-07 05:51:01.32	320.79	12.22	-52.5	-54.5	14.3	0.00e+00	0	25	0	1042284544	70	4752
2026-01-07 05:51:02.31	320.66	12.15	-52.4	-54.4	14.4	0.00e+00	0	25	0	1044381696	70	4674
2026-01-07 05:51:03.31	320.54	12.08	-52.5	-54.5	14.4	0.00e+00	0	25	0	1045430272	70	4722
2026-01-07 05:51:04.30	320.41	12.01	-52.4	-54.4	14.4	0.00e+00	0	25	0	1047527424	70	4687
2026-01-07 05:51:05.30	320.28	11.94	-52.5	-54.4	14.4	0.00e+00	0	25	0	1049624576	70	4705
2026-01-07 05:51:06.28	320.16	11.87	-52.5	-54.4	14.4	0.00e+00	0	25	0	1051721728	70	4700
2026-01-07 05:51:07.28	320.03	11.80	-52.5	-54.5	14.3	0.00e+00	0	25	0	1052770304	70	4731
2026-01-07 05:51:08.27	319.91	11.73	-52.5	-54.5	14.3	0.00e+00	0	25	0	1054867456	70	4714
2026-01-07 05:51:09.27	319.79	11.66	-52.6	-54.6	14.3	0.00e+00	0	25	0	1056964608	70	4770
2026-01-07 05:51:10.26	319.66	11.59	-52.6	-54.6	14.2	0.00e+00	0	25	0	1059061760	70	4811
2026-01-07 05:51:11.25	319.54	11.52	-52.6	-54.6	14.3	0.00e+00	0	25	0	1061158912	70	4779
2026-01-07 05:51:12.26	319.42	11.45	-52.6	-54.6	14.3	0.00e+00	0	25	0	1062207488	70	4804
2026-01-07 05:51:13.25	319.30	11.38	-52.6	-54.6	14.3	0.00e+00	0	25	0	1064304640	70	4802
2026-01-07 05:51:14.24	319.18	11.31	-52.7	-54.7	14.2	0.00e+00	0	25	0	1066401792	70	4862
2026-01-07 05:51:15.23	319.06	11.24	-52.7	-54.8	14.2	0.00e+00	0	25	0	1068498944	70	4873
2026-01-07 05:51:16.23	318.94	11.17	-52.7	-54.9	14.2	0.00e+00	0	25	0	1069547520	70	4928
2026-01-07 05:51:17.22	318.82	11.10	-52.8	-54.9	14.1	0.00e+00	0	25	0	1071644672	70	4938
2026-01-07 05:51:18.21	318.70	11.04	-52.7	-54.8	14.1	0.00e+00	0	25	0	1073741824	70	4895
2026-01-07 05:51:19.21	318.58	10.97	-52.8	-55.0	14.1	0.00e+00	0	25	0	1075838976	70	4998
2026-01-07 05:51:20.20	318.47	10.90	-52.8	-55.0	14.1	0.00e+00	0	25	0	1077936128	70	5011
2026-01-07 05:51:21.18	318.35	10.83	-52.9	-55.1	14.0	0.00e+00	0	25	0	1078984704	70	5058
2026-01-07 05:51:22.17	318.23	10.76	-52.9	-55.1	14.1	0.00e+00	0	25	0	1081081856	71	4794
2026-01-07 05:51:23.17	318.12	10.69	-52.9	-55.1	14.2	0.00e+00	0	25	0	1083179008	71	4772
2026-01-07 05:51:24.17	318.00	10.62	-52.9	-55.1	14.2	0.00e+00	0	25	0	1085276160	71	4769
2026-01-07 05:51:25.17	317.89	10.55	-52.9	-55.0	14.2	0.00e+00	0	25	0	1086324736	71	4731
2026-01-07 05:51:26.16	317.77	10.49	-52.9	-55.1	14.2	0.00e+00	0	25	0	1088421888	71	4774
2026-01-07 05:51:27.15	317.66	10.42	-52.9	-55.0	14.2	0.00e+00	0	25	0	1090519040	71	4759
2026-01-07 05:51:28.16	317.55	10.35	-52.9	-55.0	14.2	0.00e+00	0	25	0	1092616192	71	4747
2026-01-07 05:51:29.15	317.43	10.28	-52.8	-55.0	14.2	0.00e+00	0	25	0	1094713344	71	4730
2026-01-07 05:51:30.15	317.32	10.21	-53.0	-55.2	14.1	0.00e+00	0	25	0	1095761920	71	4815
2026-01-07 05:51:31.14	317.21	10.14	-52.9	-55.0	14.2	0.00e+00	0	25	0	1097859072	71	4733
2026-01-07 05:51:32.13	317.10	10.08	-53.0	-55.2	14.1	0.00e+00	0	25	0	1099956224	71	4823
2026-01-07 05:51:33.13	316.99	10.01	-52.9	-55.1	14.1	0.00e+00	0	25	0	1102053376	71	4804
2026-01-07 05:51:34.12	316.88	9.94	-53.0	-55.2	14.1	0.00e+00	0	25	0	1103101952	71	4847
2026-01-07 05:51:35.11	316.77	9.87	-53.1	-55.3	14.0	0.00e+00	0	25	0	1105199104	71	4906
2026-01-07 05:51:36.11	316.66	9.81	-53.1	-55.3	14.0	0.00e+00	0	25	0	1107296256	71	4916
2026-01-07 05:51:37.10	316.56	9.74	-53.2	-55.4	13.9	0.00e+00	0	25	0	1109393408	71	4975
2026-01-07 05:51:38.10	316.45	9.67	-53.2	-55.6	13.9	0.00e+00	0	25	0	1111490560	71	5048
2026-01-07 05:51:39.09	316.34	9.60	-53.2	-55.6	13.8	0.00e+00	0	25	0	1112539136	71	5056
2026-01-07 05:51:40.09	316.23	9.54	-53.3	-55.7	13.8	0.00e+00	0	25	0	1114636288	71	5147
2026-01-07 05:51:41.09	316.13	9.47	-53.4	-55.8	13.8	0.00e+00	0	25	0	1116733440	71	5161
2026-01-07 05:51:42.09	316.02	9.40	-53.4	-55.8	13.8	0.00e+00	0	25	0	1118830592	72	4921
2026-01-07 05:51:43.09	315.92	9.33	-53.5	-55.9	13.8	0.00e+00	0	25	0	1120927744	72	4960
2026-01-07 05:51:44.09	315.81	9.27	-53.6	-56.1	13.7	0.00e+00	0	25	0	1121976320	72	5052
2026-01-07 05:51:45.08	315.71	9.20	-53.5	-56.0	13.7	0.00e+00	0	25	0	1124073472	72	4993
2026-01-07 05:51:46.07	315.60	9.13	-53.4	-55.8	13.8	0.00e+00	0	25	0	1126170624	72	4908
2026-01-07 05:51:47.06	315.50	9.07	-53.5	-56.0	13.7	0.00e+00	0	25	0	1128267776	72	5009
2026-01-07 05:51:48.06	315.40	9.00	-53.5	-56.0	13.7	0.00e+00	0	25	0	1129316352	72	4991
2026-01-07 05:51:49.06	315.30	8.93	-53.5	-56.0	13.7	0.00e+00	0	25	0	1131413504	72	5018
2026-01-07 05:51:50.06	315.19	8.87	-53.5	-56.0	13.7	0.00e+00	0	25	0	1133510656	72	5026
2026-01-07 05:51:51.05	315.09	8.80	-53.6	-56.1	13.7	0.00e+00	0	25	0	1135607808	72	5047
2026-01-07 05:51:52.04	314.99	8.74	-53.7	-56.3	13.5	0.00e+00	0	25	0	1137704960	72	5185
2026-01-07 05:51:53.04	314.89	8.67	-53.8	-56.3	13.5	0.00e+00	0	25	0	1138753536	72	5215
2026-01-07 05:51:54.03	314.79	8.60	-53.9	-56.5	13.4	0.00e+00	0	25	0	1140850688	72	5331
2026-01-07 05:51:55.03	314.69	8.54	-53.9	-56.5	13.5	0.00e+00	0	25	0	1142947840	73	5033
2026-01-07 05:51:56.02	314.59	8.47	-53.8	-56.5	13.5	0.00e+00	0	25	0	1145044992	73	4995
2026-01-07 05:51:57.02	314.50	8.41	-53.9	-56.5	13.5	0.00e+00	0	25	0	1146093568	73	5008
2026-01-07 05:51:58.02	314.40	8.34	-53.8	-56.5	13.5	0.00e+00	0	25	0	1148190720	73	5004
2026-01-07 05:51:59.01	314.30	8.27	-53.8	-56.5	13.5	0.00e+00	0	25	0	1150287872	73	4991
2026-01-07 05:52:00.00	314.20	8.21	-53.8	-56.4	13.5	0.00e+00	0	25	0	1152385024	73	4978
2026-01-07 05:52:00.99	314.11	8.14	-53.9	-56.5	13.5	0.00e+00	0	25	0	1154482176	73	5020
2026-01-07 05:52:01.99	314.01	8.08	-53.9	-56.5	13.5	0.00e+00	0	25	0	1155530752	73	5009
2026-01-07 05:52:02.98	313.92	8.01	-53.8	-56.4	13.6	0.00e+00	0	25	0	1157627904	73	4946
2026-01-07 05:52:03.96	313.82	7.95	-53.9	-56.5	13.5	0.00e+00	0	26	0	1159725056	73	5014
2026-01-07 05:52:04.96	313.73	7.88	-53.8	-56.4	13.6	0.00e+00	0	25	0	1161822208	73	4963
2026-01-07 05:52:05.95	313.63	7.82	-53.7	-56.3	13.6	0.00e+00	0	25	0	1162870784	73	4917
2026-01-07 05:52:06.95	313.54	7.75	-53.8	-56.4	13.6	0.00e+00	0	25	0	1164967936	73	4937
2026-01-07 05:52:07.94	313.45	7.69	-53.7	-56.3	13.6	0.00e+00	0	25	0	1167065088	73	4914
2026-01-07 05:52:08.94	313.35	7.62	-53.8	-56.4	13.5	0.00e+00	0	25	0	1169162240	73	4957
2026-01-07 05:52:09.94	313.26	7.56	-53.8	-56.4	13.6	0.00e+00	0	25	0	1171259392	73	4971
2026-01-07 05:52:10.94	313.17	7.49	-53.7	-56.3	13.6	0.00e+00	0	25	0	1172307968	73	4925
2026-01-07 05:52:11.93	313.08	7.43	-53.8	-56.4	13.5	0.00e+00	0	25	0	1174405120	73	4976
2026-01-07 05:52:12.93	312.98	7.37	-53.8	-56.4	13.5	0.00e+00	0	25	0	1176502272	73	4960
2026-01-07 05:52:13.93	312.89	7.30	-53.9	-56.6	13.4	0.00e+00	0	25	0	1178599424	73	5086
2026-01-07 05:52:14.92	312.80	7.24	-54.0	-56.7	13.4	0.00e+00	0	25	0	1179648000	73	5140
2026-01-07 05:52:15.92	312.71	7.17	-54.0	-56.8	13.3	0.00e+00	0	25	0	1181745152	73	5166
2026-01-07 05:52:16.92	312.62	7.11	-54.0	-56.8	13.3	0.00e+00	0	25	0	1183842304	73	5198
2026-01-07 05:52:17.92	312.53	7.04	-54.0	-56.9	13.2	0.00e+00	0	25	0	1185939456	73	5227
2026-01-07 05:52:18.92	312.44	6.98	-54.2	-57.1	13.1	0.00e+00	0	25	0	1188036608	73	5373
2026-01-07 05:52:19.92	312.35	6.92	-54.1	-57.0	13.2	0.00e+00	0	25	0	1189085184	73	5296
2026-01-07 05:52:20.91	312.27	6.85	-54.1	-57.0	13.1	0.00e+00	0	25	0	1191182336	73	5318
2026-01-07 05:52:21.91	312.18	6.79	-54.1	-56.9	13.2	0.00e+00	0	26	0	1193279488	73	5258
2026-01-07 05:52:22.91	312.09	6.72	-54.0	-56.9	13.2	0.00e+00	0	25	0	1195376640	73	5240
2026-01-07 05:52:23.91	312.00	6.66	-54.1	-56.9	13.2	0.00e+00	0	25	0	1197473792	73	5277
2026-01-07 05:52:24.91	311.92	6.60	-54.2	-57.2	13.0	0.00e+00	0	25	0	1198522368	73	5436
2026-01-07 05:52:25.90	311.83	6.53	-54.2	-57.2	13.0	0.00e+00	0	25	0	1200619520	73	5444
2026-01-07 05:52:26.89	311.74	6.47	-54.2	-57.1	13.0	0.00e+00	0	26	0	1202716672	73	5376
2026-01-07 05:52:27.89	311.66	6.41	-54.1	-57.0	13.1	0.00e+00	0	25	0	1204813824	73	5336
2026-01-07 05:52:28.88	311.57	6.35	-54.1	-57.0	13.0	0.00e+00	0	25	0	1205862400	73	5339
