passes_logs/2026/01/07/R3.2S_Murmansk/R3.2S_Murmansk__20260107_233237_NOAA_21_JPSS-2_rec.log

#Pass ID: 20260107_233237_NOAA 21 (JPSS-2)
#Satellite: NOAA 21 (JPSS-2)
#Configuration: NOAA-21
#almurnet v.1.7.20251203
#Start time: 2026-01-07 23:32:39

#Version: 2.2.20231116
#Station: R3.2S_Murmansk
#Location: 33.079688 lon 68.888172 lat
#TLE: 1 54234U 22150A   26005.56767909  .00000152  00000+0  92756-4 0  9990
#TLE: 2 54234  98.7490 306.5820 0001036 340.2747  19.8389 14.19532370163472

#Time	Az	El	Level	Level2	SNR	BER	BlckErr	Temp	State	Recorded	gain1	gain2
2026-01-07 23:32:39.10	21.00	2.12	-57.5	-70.9	3.8	1.49e+00	0	23	0	0	81	16632
2026-01-07 23:32:40.11	21.04	2.18	-57.4	-70.3	3.8	1.49e+00	0	23	104	0	80	16469
2026-01-07 23:32:41.11	21.07	2.25	-57.4	-70.1	3.8	1.49e+00	0	23	104	0	80	16033
2026-01-07 23:32:42.11	21.11	2.31	-57.4	-70.0	3.8	1.49e+00	0	23	104	0	80	15895
2026-01-07 23:32:43.11	21.15	2.37	-57.3	-70.0	3.8	1.49e+00	0	23	104	0	80	15886
2026-01-07 23:32:44.11	21.18	2.43	-57.2	-69.9	3.8	1.49e+00	0	23	104	0	80	15624
2026-01-07 23:32:45.11	21.22	2.49	-57.2	-70.1	3.8	1.49e+00	0	23	104	0	80	15945
2026-01-07 23:32:46.12	21.25	2.56	-57.1	-70.2	3.8	1.49e+00	0	23	104	0	80	16153
2026-01-07 23:32:47.11	21.29	2.62	-57.0	-69.9	3.9	1.49e+00	0	23	104	0	80	15645
2026-01-07 23:32:48.11	21.33	2.68	-56.9	-70.2	3.8	1.49e+00	0	23	104	0	80	16213
2026-01-07 23:32:49.11	21.36	2.75	-56.8	-69.8	3.8	1.49e+00	0	23	104	0	80	15441
2026-01-07 23:32:50.11	21.40	2.81	-56.7	-69.8	3.8	1.49e+00	0	23	104	0	80	15517
2026-01-07 23:32:51.10	21.44	2.87	-56.7	-69.5	3.8	1.49e+00	0	23	104	0	80	14941
2026-01-07 23:32:52.10	21.48	2.94	-56.6	-68.0	4.2	1.48e+00	0	23	104	0	79	13324
2026-01-07 23:32:53.11	21.51	3.00	-56.7	-67.8	3.9	1.46e+00	0	23	104	0	79	13051
2026-01-07 23:32:54.10	21.55	3.06	-56.7	-66.9	4.5	1.33e+00	6	23	104	0	79	11791
2026-01-07 23:32:55.11	21.59	3.13	-56.7	-66.4	4.2	1.11e+00	0	23	104	0	79	11109
2026-01-07 23:32:56.11	21.63	3.19	-56.7	-66.8	4.1	8.54e-01	2	23	104	0	79	11623
2026-01-07 23:32:57.11	21.66	3.26	-56.7	-65.4	5.2	7.09e-01	0	23	0	1048576	79	9904
2026-01-07 23:32:58.11	21.70	3.32	-56.7	-65.2	5.2	5.88e-01	0	23	0	4194304	79	9712
2026-01-07 23:32:59.11	21.74	3.38	-56.8	-65.6	5.1	5.85e-01	0	23	0	7340032	79	10145
2026-01-07 23:33:00.10	21.78	3.45	-56.8	-65.3	5.2	5.51e-01	0	23	0	10485760	79	9759
2026-01-07 23:33:01.10	21.82	3.51	-56.8	-65.2	5.3	4.96e-01	0	23	0	13631488	79	9685
2026-01-07 23:33:02.10	21.85	3.58	-56.9	-65.1	5.3	5.34e-01	0	23	0	16777216	79	9528
2026-01-07 23:33:03.10	21.89	3.64	-56.7	-64.3	5.8	3.79e-01	0	24	0	19922944	79	8691
2026-01-07 23:33:04.10	21.93	3.71	-56.5	-62.9	6.9	1.91e-01	0	23	0	23068672	79	7439
2026-01-07 23:33:05.09	21.97	3.77	-56.3	-62.2	7.5	9.67e-02	0	23	0	26214400	79	6819
2026-01-07 23:33:06.09	22.01	3.84	-56.0	-61.2	8.4	5.52e-02	0	24	0	28311552	78	6421
2026-01-07 23:33:07.09	22.05	3.90	-55.5	-60.0	9.3	8.22e-03	0	24	0	31457280	77	5980
2026-01-07 23:33:08.09	22.09	3.97	-55.2	-59.2	10.0	2.02e-03	0	24	0	34603008	77	5460
2026-01-07 23:33:09.09	22.13	4.04	-54.7	-58.2	10.8	3.91e-04	0	24	0	37748736	76	5146
2026-01-07 23:33:10.09	22.17	4.10	-54.2	-57.3	11.5	1.09e-04	0	23	0	40894464	75	4918
2026-01-07 23:33:11.09	22.21	4.17	-53.9	-56.9	11.7	3.35e-05	0	24	0	44040192	74	4943
2026-01-07 23:33:12.08	22.25	4.23	-53.5	-56.2	12.2	4.50e-06	0	24	0	47185920	73	4833
2026-01-07 23:33:13.07	22.29	4.30	-53.4	-56.0	12.3	0.00e+00	0	23	0	50331648	73	4744
2026-01-07 23:33:14.07	22.33	4.37	-53.3	-55.9	12.3	1.50e-06	0	24	0	53477376	72	4940
2026-01-07 23:33:15.05	22.37	4.43	-53.3	-55.9	12.3	7.00e-07	0	23	0	56623104	72	4942
2026-01-07 23:33:16.05	22.41	4.50	-53.4	-56.1	12.1	1.50e-06	0	24	0	59768832	72	5065
2026-01-07 23:33:17.05	22.45	4.57	-53.7	-56.6	11.7	7.60e-06	0	24	0	62914560	72	5381
2026-01-07 23:33:18.05	22.49	4.63	-53.9	-57.0	11.4	2.05e-05	0	24	0	66060288	72	5598
2026-01-07 23:33:19.05	22.53	4.70	-54.2	-57.5	11.1	1.05e-04	0	24	0	69206016	73	5651
2026-01-07 23:33:20.04	22.57	4.77	-54.6	-58.3	10.6	3.39e-04	0	24	0	72351744	74	5804
2026-01-07 23:33:21.03	22.62	4.83	-55.0	-58.9	10.1	1.31e-03	0	24	0	75497472	75	5889
2026-01-07 23:33:22.04	22.66	4.90	-55.3	-59.8	9.3	3.54e-03	0	24	0	78643200	75	6524
2026-01-07 23:33:23.04	22.70	4.97	-55.8	-60.7	8.6	1.39e-02	0	24	0	81788928	76	6854
2026-01-07 23:33:24.04	22.74	5.04	-56.0	-61.2	8.2	2.92e-02	0	24	0	84934656	77	6855
2026-01-07 23:33:25.04	22.78	5.11	-52.1	-54.1	13.4	0.00e+00	0	24	0	88080384	70	4526
2026-01-07 23:33:26.04	22.83	5.18	-56.1	-61.9	7.6	1.17e-02	0	24	0	91226112	77	7401
2026-01-07 23:33:27.04	22.87	5.25	-57.4	-67.7	4.0	4.95e-01	0	24	104	93323264	79	12949
2026-01-07 23:33:28.03	22.91	5.31	-52.8	-55.1	12.9	7.00e-07	0	24	0	94371840	72	4524
2026-01-07 23:33:29.03	22.95	5.38	-57.1	-66.3	4.7	5.47e-01	0	24	0	97517568	79	11015
2026-01-07 23:33:30.04	23.00	5.45	-52.8	-55.0	12.9	1.87e-03	0	24	0	98566144	72	4491
2026-01-07 23:33:31.04	23.04	5.52	-51.9	-53.9	13.5	0.00e+00	0	24	0	101711872	70	4418
2026-01-07 23:33:32.04	23.09	5.59	-51.9	-53.9	13.5	0.00e+00	0	24	0	104857600	70	4440
2026-01-07 23:33:33.03	23.13	5.66	-51.9	-53.9	13.5	0.00e+00	0	24	0	108003328	70	4432
2026-01-07 23:33:34.03	23.17	5.73	-51.9	-53.8	13.6	0.00e+00	0	24	0	111149056	70	4374
2026-01-07 23:33:35.03	23.22	5.80	-51.4	-53.3	13.8	0.00e+00	0	24	0	114294784	69	4344
2026-01-07 23:33:36.03	23.26	5.87	-51.3	-53.2	13.9	0.00e+00	0	24	0	117440512	69	4296
2026-01-07 23:33:37.03	23.31	5.94	-51.4	-53.2	13.8	0.00e+00	0	24	0	120586240	69	4304
2026-01-07 23:33:38.02	23.35	6.01	-51.1	-52.9	13.9	0.00e+00	0	24	0	123731968	68	4421
2026-01-07 23:33:39.02	23.39	6.08	-51.0	-52.8	14.0	0.00e+00	0	24	0	126877696	68	4363
2026-01-07 23:33:40.01	23.44	6.15	-51.3	-53.1	13.8	0.00e+00	0	24	0	130023424	68	4536
2026-01-07 23:33:41.01	23.48	6.22	-51.4	-53.2	13.7	0.00e+00	0	24	0	133169152	68	4585
2026-01-07 23:33:42.02	23.53	6.30	-51.1	-52.9	13.9	0.00e+00	0	24	0	136314880	68	4420
2026-01-07 23:33:43.01	23.58	6.37	-51.3	-53.1	13.8	0.00e+00	0	24	0	139460608	68	4512
2026-01-07 23:33:44.02	23.62	6.44	-51.1	-52.9	13.9	0.00e+00	0	24	0	142606336	68	4426
2026-01-07 23:33:45.01	23.67	6.51	-51.1	-52.9	13.9	0.00e+00	0	24	0	145752064	68	4398
2026-01-07 23:33:46.01	23.71	6.58	-51.1	-52.8	14.0	0.00e+00	0	24	0	147849216	68	4361
2026-01-07 23:33:47.01	23.76	6.66	-51.0	-52.8	14.0	0.00e+00	0	24	0	150994944	68	4344
2026-01-07 23:33:48.01	23.81	6.73	-51.1	-52.8	14.0	0.00e+00	0	24	0	154140672	68	4375
2026-01-07 23:33:49.00	23.85	6.80	-51.0	-52.7	14.0	0.00e+00	0	24	0	157286400	68	4314
2026-01-07 23:33:50.01	23.90	6.87	-51.0	-52.7	14.1	0.00e+00	0	24	0	160432128	68	4322
2026-01-07 23:33:51.01	23.95	6.95	-51.0	-52.7	14.1	0.00e+00	0	24	0	163577856	68	4311
2026-01-07 23:33:52.01	24.00	7.02	-50.9	-52.6	14.1	0.00e+00	0	24	0	166723584	68	4291
2026-01-07 23:33:53.00	24.04	7.09	-50.8	-52.5	14.2	0.00e+00	0	24	0	169869312	68	4201
2026-01-07 23:33:54.00	24.09	7.17	-50.9	-52.6	14.1	0.00e+00	0	24	0	173015040	68	4264
2026-01-07 23:33:55.00	24.14	7.24	-50.8	-52.4	14.2	0.00e+00	0	24	0	176160768	68	4181
2026-01-07 23:33:56.00	24.19	7.31	-50.8	-52.5	14.2	0.00e+00	0	24	0	179306496	68	4220
2026-01-07 23:33:57.00	24.24	7.39	-50.8	-52.4	14.2	0.00e+00	0	24	0	182452224	68	4192
2026-01-07 23:33:58.00	24.29	7.46	-50.8	-52.4	14.2	0.00e+00	0	24	0	185597952	68	4188
2026-01-07 23:33:59.00	24.34	7.54	-50.7	-52.4	14.3	0.00e+00	0	24	0	188743680	68	4157
2026-01-07 23:33:59.99	24.38	7.61	-50.5	-52.1	14.2	0.00e+00	0	24	0	191889408	67	4279
2026-01-07 23:34:01.00	24.43	7.69	-50.5	-52.1	14.2	0.00e+00	0	24	0	195035136	67	4266
2026-01-07 23:34:01.98	24.48	7.76	-50.3	-51.9	14.3	0.00e+00	0	24	0	198180864	67	4179
2026-01-07 23:34:02.98	24.53	7.84	-50.4	-51.9	14.3	0.00e+00	0	24	0	201326592	67	4186
2026-01-07 23:34:03.97	24.58	7.91	-50.4	-52.0	14.3	0.00e+00	0	24	0	204472320	67	4240
2026-01-07 23:34:04.97	24.63	7.99	-50.4	-52.0	14.3	0.00e+00	0	24	0	207618048	67	4201
2026-01-07 23:34:05.96	24.68	8.06	-50.3	-51.8	14.4	0.00e+00	0	24	0	210763776	67	4145
2026-01-07 23:34:06.96	24.74	8.14	-50.3	-51.9	14.3	0.00e+00	0	24	0	213909504	67	4177
2026-01-07 23:34:07.96	24.79	8.22	-50.3	-51.9	14.4	0.00e+00	0	24	0	217055232	67	4149
2026-01-07 23:34:08.96	24.84	8.29	-50.1	-51.6	14.4	0.00e+00	0	24	0	220200960	66	4279
2026-01-07 23:34:09.95	24.89	8.37	-50.2	-51.8	14.3	0.00e+00	0	24	0	223346688	66	4344
2026-01-07 23:34:10.94	24.94	8.45	-50.1	-51.7	14.4	0.00e+00	0	24	0	226492416	66	4298
2026-01-07 23:34:11.93	24.99	8.52	-50.2	-51.8	14.3	0.00e+00	0	24	0	229638144	66	4345
2026-01-07 23:34:12.93	25.04	8.60	-50.1	-51.7	14.4	0.00e+00	0	24	0	232783872	66	4301
2026-01-07 23:34:13.92	25.10	8.68	-50.1	-51.6	14.4	0.00e+00	0	24	0	235929600	66	4283
2026-01-07 23:34:14.92	25.15	8.75	-50.0	-51.5	14.4	0.00e+00	0	24	0	239075328	66	4241
2026-01-07 23:34:15.91	25.20	8.83	-50.0	-51.5	14.5	0.00e+00	0	24	0	242221056	66	4198
2026-01-07 23:34:16.91	25.26	8.91	-50.0	-51.5	14.4	0.00e+00	0	24	0	245366784	66	4205
2026-01-07 23:34:17.91	25.31	8.99	-50.1	-51.6	14.4	0.00e+00	0	24	0	248512512	66	4277
2026-01-07 23:34:18.90	25.36	9.07	-49.9	-51.4	14.5	0.00e+00	0	24	0	251658240	66	4170
2026-01-07 23:34:19.91	25.42	9.15	-49.9	-51.3	14.5	0.00e+00	0	24	0	254803968	66	4144
2026-01-07 23:34:20.90	25.47	9.23	-49.8	-51.3	14.6	0.00e+00	0	24	0	257949696	66	4102
2026-01-07 23:34:21.90	25.53	9.31	-49.9	-51.3	14.5	0.00e+00	0	24	0	260046848	66	4145
2026-01-07 23:34:22.90	25.58	9.39	-49.9	-51.4	14.5	0.00e+00	0	24	0	263192576	66	4152
2026-01-07 23:34:23.90	25.64	9.47	-49.7	-51.1	14.7	0.00e+00	0	24	0	266338304	66	4033
2026-01-07 23:34:24.90	25.69	9.55	-49.6	-51.0	14.6	0.00e+00	0	24	0	269484032	65	4220
2026-01-07 23:34:25.90	25.75	9.63	-49.5	-51.0	14.6	0.00e+00	0	24	0	272629760	65	4204
2026-01-07 23:34:26.89	25.80	9.71	-49.5	-50.9	14.6	0.00e+00	0	24	0	275775488	65	4171
2026-01-07 23:34:27.89	25.86	9.79	-49.5	-50.9	14.6	0.00e+00	0	24	0	278921216	65	4180
2026-01-07 23:34:28.89	25.92	9.87	-49.5	-50.9	14.6	0.00e+00	0	24	0	282066944	65	4193
2026-01-07 23:34:29.90	25.98	9.95	-49.5	-50.9	14.6	0.00e+00	0	24	0	285212672	65	4178
2026-01-07 23:34:30.89	26.03	10.03	-49.5	-50.9	14.6	0.00e+00	0	24	0	288358400	65	4177
2026-01-07 23:34:31.89	26.09	10.12	-49.5	-51.0	14.6	0.00e+00	0	24	0	291504128	65	4195
2026-01-07 23:34:32.89	26.15	10.20	-49.5	-50.9	14.6	0.00e+00	0	24	0	294649856	65	4177
2026-01-07 23:34:33.89	26.21	10.28	-49.5	-50.9	14.6	0.00e+00	0	24	0	297795584	65	4183
2026-01-07 23:34:34.89	26.27	10.36	-49.5	-50.9	14.6	0.00e+00	0	24	0	300941312	65	4180
2026-01-07 23:34:35.89	26.32	10.45	-49.6	-51.0	14.6	0.00e+00	0	24	0	304087040	65	4212
2026-01-07 23:34:36.89	26.38	10.53	-49.5	-50.9	14.6	0.00e+00	0	24	0	307232768	65	4192
2026-01-07 23:34:37.88	26.44	10.61	-49.6	-51.0	14.6	0.00e+00	0	24	0	310378496	65	4223
2026-01-07 23:34:38.88	26.50	10.70	-49.6	-51.0	14.6	0.00e+00	0	24	0	313524224	65	4230
2026-01-07 23:34:39.88	26.56	10.78	-49.5	-50.9	14.6	0.00e+00	0	25	0	316669952	65	4179
2026-01-07 23:34:40.88	26.62	10.86	-49.5	-50.9	14.6	0.00e+00	0	24	0	319815680	65	4186
2026-01-07 23:34:41.86	26.68	10.95	-49.4	-50.8	14.7	0.00e+00	0	24	0	322961408	65	4100
2026-01-07 23:34:42.86	26.74	11.03	-49.3	-50.7	14.8	0.00e+00	0	24	0	326107136	65	4061
2026-01-07 23:34:43.86	26.80	11.12	-49.4	-50.8	14.7	0.00e+00	0	25	0	329252864	65	4143
2026-01-07 23:34:44.86	26.87	11.20	-49.3	-50.7	14.7	0.00e+00	0	25	0	332398592	65	4092
2026-01-07 23:34:45.86	26.93	11.29	-49.3	-50.6	14.8	0.00e+00	0	24	0	335544320	65	4037
2026-01-07 23:34:46.86	26.99	11.37	-49.3	-50.7	14.7	0.00e+00	0	24	0	338690048	65	4069
2026-01-07 23:34:47.86	27.05	11.46	-49.2	-50.6	14.8	0.00e+00	0	24	0	341835776	65	4031
2026-01-07 23:34:48.86	27.12	11.55	-49.2	-50.6	14.8	0.00e+00	0	24	0	344981504	65	4008
2026-01-07 23:34:49.86	27.18	11.63	-49.3	-50.6	14.8	0.00e+00	0	24	0	348127232	65	4047
2026-01-07 23:34:50.86	27.24	11.72	-49.2	-50.5	14.8	0.00e+00	0	24	0	351272960	65	3983
2026-01-07 23:34:51.87	27.31	11.81	-49.2	-50.6	14.7	0.00e+00	0	24	0	354418688	64	4249
2026-01-07 23:34:52.87	27.37	11.90	-49.1	-50.5	14.7	0.00e+00	0	25	0	357564416	64	4213
2026-01-07 23:34:53.87	27.44	11.99	-49.2	-50.6	14.7	0.00e+00	0	24	0	360710144	64	4249
2026-01-07 23:34:54.87	27.50	12.07	-49.2	-50.5	14.7	0.00e+00	0	25	0	363855872	64	4239
2026-01-07 23:34:55.87	27.57	12.16	-49.1	-50.5	14.7	0.00e+00	0	25	0	367001600	64	4195
2026-01-07 23:34:56.87	27.64	12.25	-49.1	-50.4	14.7	0.00e+00	0	25	0	370147328	64	4181
2026-01-07 23:34:57.87	27.70	12.34	-49.0	-50.4	14.7	0.00e+00	0	24	0	373293056	64	4161
2026-01-07 23:34:58.87	27.77	12.43	-49.0	-50.3	14.8	0.00e+00	0	24	0	376438784	64	4128
2026-01-07 23:34:59.87	27.84	12.52	-49.0	-50.3	14.8	0.00e+00	0	24	0	379584512	64	4123
2026-01-07 23:35:00.86	27.90	12.61	-49.0	-50.4	14.7	0.00e+00	0	25	0	382730240	64	4146
2026-01-07 23:35:01.86	27.97	12.70	-48.9	-50.2	14.8	0.00e+00	0	25	0	385875968	64	4084
2026-01-07 23:35:02.85	28.04	12.79	-48.9	-50.2	14.8	0.00e+00	0	24	0	387973120	64	4068
2026-01-07 23:35:03.85	28.11	12.88	-49.0	-50.3	14.8	0.00e+00	0	24	0	391118848	64	4123
2026-01-07 23:35:04.84	28.17	12.97	-49.0	-50.3	14.8	0.00e+00	0	25	0	394264576	64	4109
2026-01-07 23:35:05.83	28.24	13.06	-48.8	-50.1	14.9	0.00e+00	0	25	0	397410304	64	4042
2026-01-07 23:35:06.83	28.31	13.15	-48.8	-50.1	14.9	0.00e+00	0	24	0	400556032	64	4023
2026-01-07 23:35:07.84	28.38	13.25	-48.9	-50.2	14.9	0.00e+00	0	25	0	403701760	64	4055
2026-01-07 23:35:08.83	28.45	13.34	-48.8	-50.0	14.9	0.00e+00	0	24	0	406847488	64	3997
2026-01-07 23:35:09.83	28.53	13.43	-48.9	-50.2	14.9	0.00e+00	0	25	0	409993216	64	4068
2026-01-07 23:35:10.83	28.60	13.52	-48.9	-50.2	14.9	0.00e+00	0	25	0	413138944	64	4065
2026-01-07 23:35:11.82	28.67	13.62	-48.9	-50.2	14.8	0.00e+00	0	25	0	416284672	64	4079
2026-01-07 23:35:12.82	28.74	13.71	-48.9	-50.2	14.8	0.00e+00	0	24	0	419430400	64	4098
2026-01-07 23:35:13.81	28.81	13.80	-48.9	-50.2	14.9	0.00e+00	0	25	0	422576128	64	4068
2026-01-07 23:35:14.81	28.89	13.90	-48.9	-50.2	14.9	0.00e+00	0	24	0	425721856	64	4057
2026-01-07 23:35:15.80	28.96	13.99	-48.8	-50.1	14.9	0.00e+00	0	25	0	428867584	64	4045
2026-01-07 23:35:16.80	29.03	14.09	-48.9	-50.2	14.9	0.00e+00	0	25	0	432013312	64	4072
2026-01-07 23:35:17.80	29.11	14.18	-48.9	-50.2	14.9	0.00e+00	0	24	0	435159040	64	4064
2026-01-07 23:35:18.80	29.18	14.28	-49.0	-50.3	14.8	0.00e+00	0	25	0	438304768	64	4117
2026-01-07 23:35:19.80	29.26	14.37	-49.0	-50.4	14.8	0.00e+00	0	25	0	441450496	64	4156
2026-01-07 23:35:20.80	29.33	14.47	-48.9	-50.2	14.9	0.00e+00	0	25	0	444596224	64	4075
2026-01-07 23:35:21.80	29.41	14.57	-48.9	-50.2	14.8	0.00e+00	0	25	0	447741952	64	4078
2026-01-07 23:35:22.80	29.49	14.66	-48.8	-50.1	14.9	0.00e+00	0	25	0	450887680	64	4027
2026-01-07 23:35:23.79	29.56	14.76	-48.8	-50.1	14.9	0.00e+00	0	25	0	454033408	64	4041
2026-01-07 23:35:24.79	29.64	14.86	-48.9	-50.2	14.9	0.00e+00	0	25	0	457179136	64	4052
2026-01-07 23:35:25.80	29.72	14.96	-48.9	-50.2	14.9	0.00e+00	0	25	0	460324864	64	4076
2026-01-07 23:35:26.79	29.80	15.05	-48.9	-50.3	14.8	0.00e+00	0	25	0	463470592	64	4099
2026-01-07 23:35:27.79	29.88	15.15	-49.0	-50.3	14.8	0.00e+00	0	25	0	466616320	64	4108
2026-01-07 23:35:28.79	29.96	15.25	-49.0	-50.3	14.8	0.00e+00	0	25	0	469762048	64	4145
2026-01-07 23:35:29.79	30.04	15.35	-49.1	-50.5	14.7	0.00e+00	0	25	0	472907776	64	4203
2026-01-07 23:35:30.79	30.12	15.45	-49.0	-50.3	14.8	0.00e+00	0	25	0	476053504	64	4116
2026-01-07 23:35:31.79	30.20	15.55	-49.0	-50.3	14.8	0.00e+00	0	25	0	479199232	64	4100
2026-01-07 23:35:32.79	30.28	15.65	-48.9	-50.2	14.9	0.00e+00	0	25	0	482344960	64	4058
2026-01-07 23:35:33.79	30.36	15.75	-48.9	-50.2	14.8	0.00e+00	0	25	0	485490688	64	4090
2026-01-07 23:35:34.79	30.44	15.86	-49.1	-50.4	14.8	0.00e+00	0	25	0	488636416	64	4163
2026-01-07 23:35:35.78	30.53	15.96	-48.9	-50.2	14.8	0.00e+00	0	25	0	491782144	64	4098
2026-01-07 23:35:36.78	30.61	16.06	-48.9	-50.2	14.9	0.00e+00	0	25	0	494927872	64	4094
2026-01-07 23:35:37.77	30.69	16.16	-49.1	-50.4	14.8	0.00e+00	0	25	0	498073600	64	4165
2026-01-07 23:35:38.78	30.78	16.26	-49.0	-50.3	14.8	0.00e+00	0	25	0	501219328	64	4135
2026-01-07 23:35:39.78	30.87	16.37	-49.2	-50.5	14.7	0.00e+00	0	25	0	504365056	64	4220
2026-01-07 23:35:40.79	30.95	16.47	-49.2	-50.5	14.7	0.00e+00	0	25	0	506462208	64	4239
2026-01-07 23:35:41.78	31.04	16.57	-49.2	-50.5	14.7	0.00e+00	0	25	0	509607936	64	4222
2026-01-07 23:35:42.78	31.13	16.68	-49.2	-50.5	14.7	0.00e+00	0	25	0	512753664	64	4214
2026-01-07 23:35:43.78	31.21	16.78	-49.3	-50.6	14.7	0.00e+00	0	25	0	515899392	64	4271
2026-01-07 23:35:44.78	31.30	16.89	-49.2	-50.5	14.7	0.00e+00	0	25	0	519045120	64	4228
2026-01-07 23:35:45.78	31.39	16.99	-49.2	-50.5	14.7	0.00e+00	0	25	0	522190848	64	4217
2026-01-07 23:35:46.78	31.48	17.10	-49.2	-50.5	14.7	0.00e+00	0	25	0	525336576	64	4229
2026-01-07 23:35:47.78	31.57	17.21	-49.1	-50.5	14.8	0.00e+00	0	25	0	528482304	64	4210
2026-01-07 23:35:48.78	31.66	17.31	-49.2	-50.6	14.7	0.00e+00	0	25	0	531628032	64	4246
2026-01-07 23:35:49.78	31.75	17.42	-49.2	-50.5	14.7	0.00e+00	0	24	0	534773760	64	4220
2026-01-07 23:35:50.77	31.84	17.53	-49.2	-50.6	14.7	0.00e+00	0	25	0	537919488	64	4246
2026-01-07 23:35:51.77	31.94	17.64	-49.1	-50.5	14.8	0.00e+00	0	25	0	541065216	64	4203
2026-01-07 23:35:52.77	32.03	17.74	-49.0	-50.2	14.9	0.00e+00	0	25	0	544210944	64	4096
2026-01-07 23:35:53.77	32.12	17.85	-49.0	-50.3	14.8	0.00e+00	0	25	0	547356672	64	4109
2026-01-07 23:35:54.77	32.22	17.96	-49.0	-50.3	14.8	0.00e+00	0	25	0	550502400	64	4126
2026-01-07 23:35:55.77	32.31	18.07	-49.0	-50.4	14.8	0.00e+00	0	25	0	553648128	64	4146
2026-01-07 23:35:56.77	32.41	18.18	-49.1	-50.4	14.8	0.00e+00	0	25	0	556793856	64	4174
2026-01-07 23:35:57.77	32.50	18.29	-49.0	-50.3	14.8	0.00e+00	0	25	0	559939584	64	4142
2026-01-07 23:35:58.77	32.60	18.40	-49.0	-50.3	14.9	0.00e+00	0	25	0	563085312	64	4100
2026-01-07 23:35:59.78	32.70	18.52	-49.0	-50.3	14.8	0.00e+00	0	25	0	566231040	64	4108
2026-01-07 23:36:00.77	32.80	18.63	-49.1	-50.4	14.8	0.00e+00	0	25	0	569376768	64	4155
2026-01-07 23:36:01.77	32.90	18.74	-49.0	-50.3	14.8	0.00e+00	0	25	0	572522496	64	4131
2026-01-07 23:36:02.77	33.00	18.85	-49.0	-50.3	14.8	0.00e+00	0	25	0	575668224	64	4138
2026-01-07 23:36:03.77	33.10	18.96	-49.0	-50.3	14.8	0.00e+00	0	25	0	578813952	64	4127
2026-01-07 23:36:04.77	33.20	19.08	-49.0	-50.3	14.8	0.00e+00	0	25	0	581959680	64	4117
2026-01-07 23:36:05.76	33.30	19.19	-48.8	-50.1	14.9	0.00e+00	0	25	0	585105408	64	4039
2026-01-07 23:36:06.75	33.40	19.30	-48.9	-50.2	14.9	0.00e+00	0	25	0	588251136	64	4069
2026-01-07 23:36:07.75	33.50	19.42	-48.7	-50.0	15.0	0.00e+00	0	25	0	591396864	64	3977
2026-01-07 23:36:08.76	33.61	19.53	-48.7	-49.9	15.0	0.00e+00	0	25	0	594542592	64	3945
2026-01-07 23:36:09.76	33.71	19.65	-48.6	-49.8	14.9	0.00e+00	0	25	0	597688320	63	4141
2026-01-07 23:36:10.76	33.82	19.77	-48.5	-49.7	14.9	0.00e+00	0	25	0	600834048	63	4084
2026-01-07 23:36:11.75	33.93	19.88	-48.3	-49.6	15.0	0.00e+00	0	25	0	603979776	63	4014
2026-01-07 23:36:12.74	34.03	20.00	-48.4	-49.6	15.0	0.00e+00	0	25	0	607125504	63	4020
2026-01-07 23:36:13.74	34.14	20.12	-48.4	-49.6	15.0	0.00e+00	0	25	0	610271232	63	4036
2026-01-07 23:36:14.73	34.25	20.23	-48.3	-49.5	15.0	0.00e+00	0	25	0	613416960	63	3985
2026-01-07 23:36:15.73	34.36	20.35	-48.3	-49.5	15.0	0.00e+00	0	25	0	616562688	63	4004
2026-01-07 23:36:16.72	34.47	20.47	-48.3	-49.5	15.0	0.00e+00	0	25	0	619708416	63	3981
2026-01-07 23:36:17.72	34.58	20.59	-48.3	-49.5	15.0	0.00e+00	0	25	0	622854144	63	3994
2026-01-07 23:36:18.72	34.69	20.71	-48.3	-49.5	15.0	0.00e+00	0	25	0	625999872	63	4000
2026-01-07 23:36:19.71	34.80	20.83	-48.3	-49.5	15.0	0.00e+00	0	25	0	629145600	63	3992
2026-01-07 23:36:20.71	34.92	20.95	-48.3	-49.6	15.0	0.00e+00	0	25	0	632291328	63	4005
2026-01-07 23:36:21.71	35.03	21.07	-48.3	-49.5	15.1	0.00e+00	0	25	0	635437056	63	3977
2026-01-07 23:36:22.70	35.14	21.19	-48.3	-49.5	15.0	0.00e+00	0	25	0	637534208	63	3988
2026-01-07 23:36:23.70	35.26	21.31	-48.4	-49.7	15.0	0.00e+00	0	25	0	640679936	63	4055
2026-01-07 23:36:24.70	35.38	21.43	-48.2	-49.5	15.0	0.00e+00	0	25	0	643825664	63	3965
2026-01-07 23:36:25.70	35.50	21.56	-48.1	-49.3	15.0	0.00e+00	0	25	0	646971392	62	4119
2026-01-07 23:36:26.70	35.62	21.68	-48.0	-49.2	15.0	0.00e+00	0	25	0	650117120	62	4071
2026-01-07 23:36:27.70	35.74	21.81	-48.0	-49.2	15.0	0.00e+00	0	25	0	653262848	62	4096
2026-01-07 23:36:28.71	35.86	21.93	-47.9	-49.1	15.0	0.00e+00	0	25	0	656408576	62	4019
2026-01-07 23:36:29.71	35.98	22.06	-47.9	-49.1	15.1	0.00e+00	0	25	0	659554304	62	4026
2026-01-07 23:36:30.70	36.10	22.18	-48.0	-49.1	15.0	0.00e+00	0	25	0	662700032	62	4050
2026-01-07 23:36:31.70	36.22	22.31	-47.9	-49.0	15.1	0.00e+00	0	25	0	665845760	62	3998
2026-01-07 23:36:32.71	36.35	22.43	-47.9	-49.1	15.0	0.00e+00	0	25	0	668991488	62	4040
2026-01-07 23:36:33.71	36.48	22.56	-48.0	-49.2	15.0	0.00e+00	0	25	0	672137216	62	4080
2026-01-07 23:36:34.70	36.60	22.69	-48.0	-49.1	15.0	0.00e+00	0	25	0	675282944	62	4051
2026-01-07 23:36:35.69	36.73	22.81	-47.9	-49.1	15.1	0.00e+00	0	25	0	678428672	62	4034
2026-01-07 23:36:36.70	36.86	22.94	-48.0	-49.2	15.0	0.00e+00	0	25	0	681574400	62	4054
2026-01-07 23:36:37.70	36.99	23.07	-48.0	-49.2	15.0	0.00e+00	0	25	0	684720128	62	4096
2026-01-07 23:36:38.70	37.12	23.20	-47.9	-49.0	15.1	0.00e+00	0	25	0	687865856	62	3999
2026-01-07 23:36:39.70	37.25	23.33	-47.7	-48.9	15.1	0.00e+00	0	25	0	691011584	62	3936
2026-01-07 23:36:40.69	37.38	23.46	-47.8	-48.9	15.1	0.00e+00	0	25	0	694157312	62	3943
2026-01-07 23:36:41.69	37.52	23.59	-47.5	-48.7	15.1	0.00e+00	0	25	0	697303040	61	4069
2026-01-07 23:36:42.68	37.65	23.72	-47.5	-48.6	15.1	0.00e+00	0	25	0	700448768	61	4045
2026-01-07 23:36:43.68	37.79	23.86	-47.6	-48.7	15.1	0.00e+00	0	25	0	703594496	61	4095
2026-01-07 23:36:44.68	37.92	23.99	-47.5	-48.7	15.1	0.00e+00	0	25	0	706740224	61	4077
2026-01-07 23:36:45.68	38.06	24.12	-47.7	-48.9	15.0	0.00e+00	0	25	0	709885952	61	4154
2026-01-07 23:36:46.68	38.20	24.26	-47.7	-48.9	15.0	0.00e+00	0	25	0	713031680	61	4182
2026-01-07 23:36:47.68	38.34	24.39	-47.7	-48.9	15.0	0.00e+00	0	25	0	716177408	61	4186
2026-01-07 23:36:48.67	38.48	24.52	-47.8	-49.0	15.0	0.00e+00	0	25	0	719323136	61	4234
2026-01-07 23:36:49.68	38.63	24.66	-47.8	-49.0	15.0	0.00e+00	0	25	0	722468864	61	4212
2026-01-07 23:36:50.68	38.77	24.80	-47.9	-49.1	14.9	0.00e+00	0	25	0	725614592	61	4248
2026-01-07 23:36:51.67	38.91	24.93	-47.8	-49.0	15.0	0.00e+00	0	25	0	728760320	61	4207
2026-01-07 23:36:52.67	39.06	25.07	-47.8	-49.0	15.0	0.00e+00	0	25	0	731906048	61	4232
2026-01-07 23:36:53.67	39.21	25.21	-47.9	-49.1	14.9	0.00e+00	0	25	0	735051776	61	4250
2026-01-07 23:36:54.67	39.36	25.34	-47.8	-48.9	15.0	0.00e+00	0	25	0	738197504	61	4180
2026-01-07 23:36:55.67	39.51	25.48	-47.8	-48.9	15.0	0.00e+00	0	25	0	741343232	61	4181
2026-01-07 23:36:56.67	39.66	25.62	-47.9	-49.1	15.0	0.00e+00	0	25	0	744488960	61	4251
2026-01-07 23:36:57.67	39.81	25.76	-48.1	-49.3	14.9	0.00e+00	0	25	0	747634688	61	4348
2026-01-07 23:36:58.66	39.97	25.90	-48.1	-49.3	14.9	0.00e+00	0	25	0	750780416	61	4369
2026-01-07 23:36:59.66	40.12	26.04	-48.2	-49.4	14.8	0.00e+00	0	25	0	753926144	61	4431
2026-01-07 23:37:00.66	40.28	26.18	-48.3	-49.5	14.8	0.00e+00	0	25	0	757071872	61	4464
2026-01-07 23:37:01.66	40.44	26.32	-48.3	-49.5	14.8	0.00e+00	0	25	0	760217600	61	4489
2026-01-07 23:37:02.65	40.59	26.46	-48.2	-49.4	14.8	0.00e+00	0	25	0	763363328	61	4435
2026-01-07 23:37:03.65	40.76	26.60	-48.3	-49.5	14.8	0.00e+00	0	25	0	765460480	61	4449
2026-01-07 23:37:04.65	40.92	26.75	-48.2	-49.4	14.8	0.00e+00	0	25	0	769654784	61	4432
2026-01-07 23:37:05.66	41.08	26.89	-48.3	-49.6	14.8	0.00e+00	0	25	0	772800512	61	4502
2026-01-07 23:37:06.66	41.25	27.04	-48.3	-49.5	14.8	0.00e+00	0	25	0	774897664	61	4491
2026-01-07 23:37:07.66	41.42	27.18	-48.2	-49.4	14.8	0.00e+00	0	25	0	778043392	61	4436
2026-01-07 23:37:08.66	41.58	27.33	-48.5	-49.7	14.8	0.00e+00	0	25	0	781189120	62	4313
2026-01-07 23:37:09.65	41.75	27.47	-48.5	-49.7	14.8	0.00e+00	0	25	0	784334848	62	4326
2026-01-07 23:37:10.65	41.92	27.62	-48.6	-49.8	14.8	0.00e+00	0	25	0	787480576	62	4386
2026-01-07 23:37:11.65	42.10	27.76	-48.7	-49.9	14.8	0.00e+00	0	25	0	790626304	62	4429
2026-01-07 23:37:12.64	42.27	27.91	-48.8	-50.0	14.7	0.00e+00	0	25	0	793772032	62	4479
2026-01-07 23:37:13.64	42.44	28.06	-48.7	-49.9	14.7	0.00e+00	0	25	0	796917760	62	4432
2026-01-07 23:37:14.64	42.62	28.21	-48.8	-50.0	14.7	0.00e+00	0	25	0	800063488	62	4478
2026-01-07 23:37:15.63	42.80	28.35	-48.7	-50.0	14.7	0.00e+00	0	25	0	803209216	62	4448
2026-01-07 23:37:16.63	42.98	28.50	-48.7	-50.0	14.7	0.00e+00	0	25	0	806354944	62	4453
2026-01-07 23:37:17.63	43.16	28.65	-48.8	-50.0	14.7	0.00e+00	0	25	0	809500672	62	4481
2026-01-07 23:37:18.63	43.35	28.80	-48.6	-49.9	14.8	0.00e+00	0	25	0	812646400	62	4405
2026-01-07 23:37:19.63	43.53	28.95	-48.6	-49.9	14.8	0.00e+00	0	25	0	815792128	62	4411
2026-01-07 23:37:20.63	43.72	29.10	-48.7	-50.0	14.8	0.00e+00	0	25	0	818937856	62	4445
2026-01-07 23:37:21.63	43.91	29.26	-48.7	-49.9	14.8	0.00e+00	0	25	0	822083584	62	4439
2026-01-07 23:37:22.63	44.10	29.41	-48.8	-50.1	14.7	0.00e+00	0	25	0	825229312	62	4505
2026-01-07 23:37:23.62	44.29	29.56	-48.7	-50.0	14.7	0.00e+00	0	25	0	828375040	62	4469
2026-01-07 23:37:24.62	44.48	29.71	-48.7	-49.9	14.8	0.00e+00	0	25	0	831520768	62	4425
2026-01-07 23:37:25.62	44.68	29.87	-48.6	-49.9	14.8	0.00e+00	0	25	0	834666496	62	4405
2026-01-07 23:37:26.62	44.88	30.02	-48.5	-49.8	14.8	0.00e+00	0	25	0	837812224	62	4347
2026-01-07 23:37:27.62	45.08	30.18	-48.3	-49.5	14.9	0.00e+00	0	25	0	840957952	62	4240
2026-01-07 23:37:28.62	45.28	30.33	-48.1	-49.3	15.0	0.00e+00	0	25	0	844103680	62	4138
2026-01-07 23:37:29.62	45.48	30.49	-48.2	-49.4	15.0	0.00e+00	0	25	0	847249408	62	4154
2026-01-07 23:37:30.62	45.69	30.64	-48.3	-49.5	14.9	0.00e+00	0	25	0	850395136	62	4223
2026-01-07 23:37:31.62	45.90	30.80	-48.4	-49.7	14.9	0.00e+00	0	25	0	853540864	62	4297
2026-01-07 23:37:32.62	46.11	30.96	-48.4	-49.6	14.9	0.00e+00	0	25	0	856686592	62	4268
2026-01-07 23:37:33.61	46.32	31.11	-48.4	-49.7	14.9	0.00e+00	0	25	0	859832320	62	4300
2026-01-07 23:37:34.60	46.53	31.27	-48.5	-49.8	14.8	0.00e+00	0	25	0	862978048	62	4353
2026-01-07 23:37:35.60	46.74	31.43	-48.3	-49.5	14.9	0.00e+00	0	25	0	866123776	62	4236
2026-01-07 23:37:36.60	46.96	31.58	-48.3	-49.5	14.9	0.00e+00	0	25	0	869269504	62	4207
2026-01-07 23:37:37.59	47.18	31.74	-48.3	-49.5	14.9	0.00e+00	0	25	0	872415232	62	4224
2026-01-07 23:37:38.60	47.40	31.90	-48.2	-49.4	15.0	0.00e+00	0	25	0	875560960	62	4189
2026-01-07 23:37:39.59	47.63	32.06	-48.3	-49.5	14.9	0.00e+00	0	25	0	878706688	62	4208
2026-01-07 23:37:40.60	47.85	32.22	-48.3	-49.5	14.9	0.00e+00	0	25	0	881852416	62	4206
2026-01-07 23:37:41.60	48.08	32.38	-48.5	-49.7	14.9	0.00e+00	0	25	0	884998144	62	4296
2026-01-07 23:37:42.60	48.31	32.55	-48.7	-50.0	14.8	0.00e+00	0	25	0	887095296	62	4443
2026-01-07 23:37:43.60	48.55	32.71	-48.9	-50.1	14.7	0.00e+00	0	25	0	890241024	62	4526
2026-01-07 23:37:44.59	48.78	32.87	-49.0	-50.3	14.7	0.00e+00	0	25	0	893386752	63	4383
2026-01-07 23:37:45.59	49.02	33.03	-49.0	-50.3	14.7	0.00e+00	0	25	0	896532480	63	4365
2026-01-07 23:37:46.59	49.26	33.19	-49.0	-50.3	14.7	0.00e+00	0	25	0	899678208	63	4350
2026-01-07 23:37:47.59	49.50	33.35	-49.0	-50.2	14.8	0.00e+00	0	25	0	902823936	63	4338
2026-01-07 23:37:48.59	49.74	33.52	-49.1	-50.4	14.7	0.00e+00	0	25	0	905969664	63	4413
2026-01-07 23:37:49.60	49.99	33.68	-49.1	-50.4	14.7	0.00e+00	0	25	0	909115392	63	4394
2026-01-07 23:37:50.59	50.24	33.84	-49.2	-50.5	14.7	0.00e+00	0	25	0	912261120	63	4467
2026-01-07 23:37:51.59	50.49	34.01	-49.3	-50.7	14.6	0.00e+00	0	25	0	915406848	63	4551
2026-01-07 23:37:52.59	50.75	34.17	-49.4	-50.7	14.6	0.00e+00	0	25	0	918552576	63	4576
2026-01-07 23:37:53.59	51.00	34.34	-49.4	-50.8	14.7	0.00e+00	0	25	0	921698304	64	4351
2026-01-07 23:37:54.59	51.26	34.50	-49.4	-50.7	14.7	0.00e+00	0	25	0	924844032	64	4315
2026-01-07 23:37:55.59	51.52	34.67	-49.3	-50.6	14.7	0.00e+00	0	25	0	927989760	64	4248
2026-01-07 23:37:56.59	51.79	34.83	-49.3	-50.6	14.8	0.00e+00	0	25	0	931135488	64	4247
2026-01-07 23:37:57.59	52.06	35.00	-49.3	-50.6	14.7	0.00e+00	0	25	0	934281216	64	4285
2026-01-07 23:37:58.58	52.32	35.16	-49.5	-50.8	14.6	0.00e+00	0	25	0	937426944	64	4362
2026-01-07 23:37:59.58	52.60	35.33	-49.6	-51.0	14.6	0.00e+00	0	25	0	940572672	64	4458
2026-01-07 23:38:00.58	52.87	35.49	-49.7	-51.1	14.5	0.00e+00	0	25	0	943718400	64	4498
2026-01-07 23:38:01.58	53.15	35.66	-49.7	-51.1	14.5	0.00e+00	0	25	0	946864128	64	4517
2026-01-07 23:38:02.58	53.43	35.83	-49.8	-51.2	14.5	0.00e+00	0	25	0	950009856	64	4582
2026-01-07 23:38:03.57	53.71	35.99	-49.9	-51.3	14.6	0.00e+00	0	25	0	953155584	65	4370
2026-01-07 23:38:04.57	54.00	36.16	-49.9	-51.3	14.6	0.00e+00	0	25	0	956301312	65	4373
2026-01-07 23:38:05.57	54.29	36.32	-50.0	-51.4	14.5	0.00e+00	0	25	0	959447040	65	4426
2026-01-07 23:38:06.56	54.58	36.49	-50.1	-51.5	14.5	0.00e+00	0	25	0	962592768	65	4454
2026-01-07 23:38:07.56	54.87	36.65	-50.1	-51.5	14.5	0.00e+00	0	25	0	965738496	65	4471
2026-01-07 23:38:08.55	55.17	36.82	-50.2	-51.6	14.4	0.00e+00	0	25	0	968884224	65	4522
2026-01-07 23:38:09.55	55.47	36.99	-50.2	-51.6	14.4	0.00e+00	0	25	0	972029952	65	4530
2026-01-07 23:38:10.55	55.77	37.15	-50.3	-51.7	14.4	0.00e+00	0	25	0	975175680	65	4552
2026-01-07 23:38:11.54	56.08	37.32	-50.2	-51.6	14.4	0.00e+00	0	25	0	978321408	65	4533
2026-01-07 23:38:12.53	56.39	37.48	-50.3	-51.7	14.4	0.00e+00	0	25	0	981467136	65	4578
2026-01-07 23:38:13.53	56.70	37.65	-50.3	-51.7	14.4	0.00e+00	0	25	0	984612864	65	4580
2026-01-07 23:38:14.52	57.01	37.81	-50.3	-51.7	14.4	0.00e+00	0	25	0	987758592	65	4594
2026-01-07 23:38:15.52	57.33	37.98	-50.5	-51.9	14.4	0.00e+00	0	25	0	990904320	66	4431
2026-01-07 23:38:16.52	57.66	38.15	-50.4	-51.9	14.4	0.00e+00	0	25	0	994050048	66	4406
2026-01-07 23:38:17.51	57.98	38.31	-50.5	-52.0	14.4	0.00e+00	0	25	0	997195776	66	4451
2026-01-07 23:38:18.51	58.31	38.47	-50.5	-51.9	14.4	0.00e+00	0	25	0	1000341504	66	4440
2026-01-07 23:38:19.50	58.64	38.64	-50.4	-51.9	14.4	0.00e+00	0	25	0	1003487232	66	4429
2026-01-07 23:38:20.50	58.98	38.80	-50.4	-51.9	14.4	0.00e+00	0	25	0	1006632960	66	4421
2026-01-07 23:38:21.50	59.32	38.97	-50.4	-51.9	14.4	0.00e+00	0	25	0	1008730112	66	4415
2026-01-07 23:38:22.49	59.66	39.13	-50.4	-51.8	14.4	0.00e+00	0	25	0	1011875840	66	4391
2026-01-07 23:38:23.50	60.01	39.30	-50.4	-51.8	14.5	0.00e+00	0	25	0	1015021568	66	4355
2026-01-07 23:38:24.50	60.36	39.46	-50.4	-51.8	14.5	0.00e+00	0	25	0	1018167296	66	4377
2026-01-07 23:38:25.50	60.71	39.62	-50.5	-51.9	14.4	0.00e+00	0	25	0	1021313024	66	4438
2026-01-07 23:38:26.50	61.07	39.79	-50.5	-52.0	14.4	0.00e+00	0	25	0	1024458752	66	4452
2026-01-07 23:38:27.50	61.43	39.95	-50.5	-51.9	14.4	0.00e+00	0	25	0	1027604480	66	4433
2026-01-07 23:38:28.50	61.79	40.11	-50.4	-51.8	14.4	0.00e+00	0	25	0	1030750208	66	4388
2026-01-07 23:38:29.50	62.16	40.27	-50.3	-51.8	14.5	0.00e+00	0	25	0	1033895936	66	4349
2026-01-07 23:38:30.50	62.53	40.43	-50.4	-51.8	14.5	0.00e+00	0	25	0	1037041664	66	4363
2026-01-07 23:38:31.50	62.91	40.59	-50.4	-51.8	14.5	0.00e+00	0	25	0	1040187392	66	4362
2026-01-07 23:38:32.50	63.28	40.75	-50.5	-51.9	14.4	0.00e+00	0	25	0	1043333120	66	4420
2026-01-07 23:38:33.50	63.67	40.91	-50.6	-52.1	14.3	0.00e+00	0	24	0	1046478848	66	4513
2026-01-07 23:38:34.51	64.06	41.07	-50.9	-52.4	14.3	0.00e+00	0	25	0	1049624576	67	4438
2026-01-07 23:38:35.51	64.45	41.23	-51.0	-52.6	14.2	0.00e+00	0	25	0	1052770304	67	4513
2026-01-07 23:38:36.51	64.84	41.38	-51.2	-52.8	14.1	0.00e+00	0	25	0	1055916032	67	4644
2026-01-07 23:38:37.50	65.23	41.54	-51.1	-52.7	14.2	0.00e+00	0	25	0	1059061760	67	4561
2026-01-07 23:38:38.49	65.63	41.69	-51.1	-52.7	14.2	0.00e+00	0	25	0	1062207488	67	4568
2026-01-07 23:38:39.49	66.04	41.85	-51.0	-52.6	14.2	0.00e+00	0	25	0	1065353216	67	4523
2026-01-07 23:38:40.49	66.45	42.00	-51.1	-52.7	14.2	0.00e+00	0	25	0	1068498944	67	4555
2026-01-07 23:38:41.49	66.86	42.15	-51.0	-52.5	14.3	0.00e+00	0	25	0	1071644672	67	4472
2026-01-07 23:38:42.49	67.28	42.30	-50.9	-52.4	14.3	0.00e+00	0	25	0	1074790400	67	4424
2026-01-07 23:38:43.49	67.70	42.45	-50.9	-52.5	14.3	0.00e+00	0	25	0	1077936128	67	4453
2026-01-07 23:38:44.48	68.12	42.60	-50.9	-52.5	14.3	0.00e+00	0	25	0	1081081856	67	4453
2026-01-07 23:38:45.47	68.54	42.75	-51.0	-52.6	14.2	0.00e+00	0	25	0	1084227584	67	4510
2026-01-07 23:38:46.46	68.97	42.89	-50.8	-52.3	14.4	0.00e+00	0	25	0	1087373312	67	4359
2026-01-07 23:38:47.46	69.40	43.04	-50.7	-52.1	14.4	0.00e+00	0	25	0	1090519040	67	4278
2026-01-07 23:38:48.45	69.84	43.18	-50.6	-52.1	14.4	0.00e+00	0	25	0	1093664768	67	4273
2026-01-07 23:38:49.46	70.29	43.32	-50.6	-52.0	14.5	0.00e+00	0	25	0	1096810496	67	4221
2026-01-07 23:38:50.45	70.73	43.46	-50.6	-52.0	14.5	0.00e+00	0	25	0	1099956224	67	4212
2026-01-07 23:38:51.45	71.18	43.60	-50.5	-51.9	14.5	0.00e+00	0	25	0	1103101952	67	4166
2026-01-07 23:38:52.45	71.64	43.74	-50.6	-52.1	14.5	0.00e+00	0	25	0	1106247680	67	4259
2026-01-07 23:38:53.45	72.10	43.88	-50.7	-52.1	14.5	0.00e+00	0	25	0	1109393408	67	4279
2026-01-07 23:38:54.45	72.56	44.02	-51.0	-52.5	14.2	0.00e+00	0	25	0	1112539136	67	4484
2026-01-07 23:38:55.45	73.03	44.15	-51.1	-52.7	14.2	0.00e+00	0	25	0	1115684864	67	4550
2026-01-07 23:38:56.44	73.49	44.28	-51.1	-52.7	14.2	0.00e+00	0	25	0	1118830592	67	4563
2026-01-07 23:38:57.44	73.97	44.41	-50.9	-52.4	14.3	0.00e+00	0	25	0	1121976320	67	4417
2026-01-07 23:38:58.45	74.45	44.54	-50.7	-52.2	14.4	0.00e+00	0	25	0	1125122048	67	4325
2026-01-07 23:38:59.45	74.94	44.67	-50.4	-51.8	14.6	0.00e+00	0	25	0	1128267776	67	4136
2026-01-07 23:39:00.45	75.42	44.80	-50.4	-51.8	14.6	0.00e+00	0	25	0	1131413504	67	4108
2026-01-07 23:39:01.45	75.91	44.92	-50.8	-52.3	14.3	0.00e+00	0	25	0	1133510656	67	4379
2026-01-07 23:39:02.45	76.41	45.04	-51.0	-52.5	14.2	0.00e+00	0	25	0	1137704960	67	4471
2026-01-07 23:39:03.45	76.90	45.16	-51.0	-52.5	14.2	0.00e+00	0	25	0	1139802112	67	4483
2026-01-07 23:39:04.45	77.41	45.28	-51.0	-52.6	14.2	0.00e+00	0	25	0	1142947840	67	4504
2026-01-07 23:39:05.45	77.91	45.40	-51.2	-52.7	14.2	0.00e+00	0	25	0	1146093568	67	4592
2026-01-07 23:39:06.45	78.42	45.51	-51.1	-52.7	14.2	0.00e+00	0	25	0	1149239296	67	4558
2026-01-07 23:39:07.44	78.93	45.62	-51.1	-52.7	14.2	0.00e+00	0	25	0	1152385024	67	4547
2026-01-07 23:39:08.44	79.44	45.73	-51.0	-52.5	14.3	0.00e+00	0	25	0	1155530752	67	4449
2026-01-07 23:39:09.45	79.97	45.84	-50.8	-52.2	14.4	0.00e+00	0	25	0	1158676480	67	4335
2026-01-07 23:39:10.45	80.49	45.94	-51.0	-52.4	14.3	0.00e+00	0	25	0	1161822208	67	4433
2026-01-07 23:39:11.45	81.02	46.04	-51.0	-52.5	14.3	0.00e+00	0	25	0	1164967936	67	4457
2026-01-07 23:39:12.44	81.54	46.14	-51.1	-52.6	14.2	0.00e+00	0	25	0	1168113664	67	4532
2026-01-07 23:39:13.44	82.08	46.24	-51.0	-52.5	14.2	0.00e+00	0	25	0	1171259392	67	4475
2026-01-07 23:39:14.43	82.61	46.34	-50.9	-52.4	14.3	0.00e+00	0	25	0	1174405120	67	4396
2026-01-07 23:39:15.43	83.15	46.43	-50.8	-52.2	14.4	0.00e+00	0	25	0	1177550848	67	4334
2026-01-07 23:39:16.42	83.68	46.52	-50.8	-52.3	14.4	0.00e+00	0	25	0	1180696576	67	4343
2026-01-07 23:39:17.41	84.22	46.61	-51.0	-52.5	14.3	0.00e+00	0	25	0	1183842304	67	4481
2026-01-07 23:39:18.41	84.77	46.69	-51.1	-52.6	14.2	0.00e+00	0	25	0	1186988032	67	4510
2026-01-07 23:39:19.41	85.32	46.77	-51.1	-52.6	14.2	0.00e+00	0	25	0	1190133760	67	4539
2026-01-07 23:39:20.42	85.88	46.85	-51.1	-52.6	14.2	0.00e+00	0	25	0	1193279488	67	4518
2026-01-07 23:39:21.42	86.44	46.93	-51.0	-52.5	14.2	0.00e+00	0	25	0	1196425216	67	4473
2026-01-07 23:39:22.42	87.00	47.01	-51.0	-52.5	14.2	0.00e+00	0	25	0	1199570944	67	4444
2026-01-07 23:39:23.42	87.56	47.08	-50.8	-52.3	14.3	0.00e+00	0	25	0	1202716672	67	4374
2026-01-07 23:39:24.42	88.13	47.15	-50.8	-52.3	14.4	0.00e+00	0	25	0	1205862400	67	4357
2026-01-07 23:39:25.42	88.70	47.21	-50.7	-52.2	14.4	0.00e+00	0	25	0	1209008128	67	4306
2026-01-07 23:39:26.41	89.26	47.27	-50.8	-52.3	14.4	0.00e+00	0	25	0	1212153856	67	4349
2026-01-07 23:39:27.42	89.84	47.33	-50.7	-52.1	14.4	0.00e+00	0	25	0	1215299584	67	4275
2026-01-07 23:39:28.41	90.41	47.39	-50.6	-52.0	14.5	0.00e+00	0	25	0	1218445312	67	4237
2026-01-07 23:39:29.41	90.98	47.44	-50.4	-51.8	14.6	0.00e+00	0	25	0	1221591040	67	4144
2026-01-07 23:39:30.42	91.57	47.50	-50.3	-51.6	14.7	0.00e+00	0	25	0	1224736768	67	4036
2026-01-07 23:39:31.42	92.15	47.54	-50.3	-51.7	14.5	0.00e+00	0	25	0	1227882496	66	4294
2026-01-07 23:39:32.42	92.73	47.59	-50.6	-52.0	14.4	0.00e+00	0	25	0	1231028224	66	4462
2026-01-07 23:39:33.41	93.31	47.63	-51.0	-52.5	14.3	0.00e+00	0	25	0	1234173952	67	4473
2026-01-07 23:39:34.41	93.89	47.67	-51.0	-52.5	14.2	0.00e+00	0	25	0	1237319680	67	4475
2026-01-07 23:39:35.40	94.47	47.70	-50.9	-52.5	14.3	0.00e+00	0	25	0	1240465408	67	4448
2026-01-07 23:39:36.40	95.06	47.74	-50.7	-52.1	14.5	0.00e+00	0	25	0	1243611136	67	4283
2026-01-07 23:39:37.40	95.65	47.77	-50.6	-52.0	14.5	0.00e+00	0	25	0	1246756864	67	4223
2026-01-07 23:39:38.39	96.23	47.79	-50.4	-51.8	14.6	0.00e+00	0	25	0	1249902592	67	4136
2026-01-07 23:39:39.39	96.82	47.81	-50.2	-51.6	14.6	0.00e+00	0	25	0	1253048320	66	4252
2026-01-07 23:39:40.39	97.42	47.83	-50.4	-51.8	14.5	0.00e+00	0	25	0	1256194048	66	4345
2026-01-07 23:39:41.40	98.01	47.85	-50.5	-51.9	14.4	0.00e+00	0	25	0	1259339776	66	4423
2026-01-07 23:39:42.39	98.60	47.86	-50.5	-51.9	14.4	0.00e+00	0	25	0	1262485504	66	4419
2026-01-07 23:39:43.39	99.19	47.87	-50.4	-51.8	14.5	0.00e+00	0	25	0	1264582656	66	4359
2026-01-07 23:39:44.39	99.79	47.88	-50.5	-51.9	14.4	0.00e+00	0	25	0	1267728384	66	4440
2026-01-07 23:39:45.39	100.38	47.88	-50.7	-52.2	14.3	0.00e+00	0	25	0	1270874112	66	4574
2026-01-07 23:39:46.39	100.98	47.88	-50.8	-52.2	14.3	0.00e+00	0	25	0	1274019840	66	4583
2026-01-07 23:39:47.39	101.57	47.88	-50.9	-52.4	14.3	0.00e+00	0	25	0	1277165568	67	4411
2026-01-07 23:39:48.39	102.16	47.87	-50.8	-52.3	14.3	0.00e+00	0	25	0	1280311296	67	4347
2026-01-07 23:39:49.38	102.75	47.86	-51.0	-52.5	14.3	0.00e+00	0	25	0	1283457024	67	4457
2026-01-07 23:39:50.38	103.34	47.85	-51.1	-52.6	14.2	0.00e+00	0	25	0	1286602752	67	4531
2026-01-07 23:39:51.37	103.93	47.83	-51.0	-52.5	14.2	0.00e+00	0	25	0	1289748480	67	4482
2026-01-07 23:39:52.37	104.52	47.82	-51.0	-52.5	14.3	0.00e+00	0	25	0	1292894208	67	4451
2026-01-07 23:39:53.36	105.11	47.79	-51.0	-52.5	14.3	0.00e+00	0	25	0	1296039936	67	4455
2026-01-07 23:39:54.37	105.70	47.77	-50.9	-52.4	14.3	0.00e+00	0	25	0	1299185664	67	4398
2026-01-07 23:39:55.36	106.29	47.74	-50.9	-52.4	14.3	0.00e+00	0	25	0	1302331392	67	4426
2026-01-07 23:39:56.36	106.87	47.71	-51.1	-52.6	14.2	0.00e+00	0	25	0	1305477120	67	4536
2026-01-07 23:39:57.36	107.46	47.67	-51.1	-52.6	14.2	0.00e+00	0	25	0	1308622848	67	4521
2026-01-07 23:39:58.36	108.05	47.63	-51.2	-52.8	14.2	0.00e+00	0	25	0	1311768576	67	4609
2026-01-07 23:39:59.35	108.62	47.59	-51.0	-52.5	14.2	0.00e+00	0	25	0	1314914304	67	4486
2026-01-07 23:40:00.36	109.21	47.55	-50.8	-52.3	14.4	0.00e+00	0	25	0	1318060032	67	4362
2026-01-07 23:40:01.35	109.79	47.50	-50.9	-52.4	14.3	0.00e+00	0	25	0	1321205760	67	4404
2026-01-07 23:40:02.35	110.37	47.45	-51.1	-52.6	14.2	0.00e+00	0	25	0	1324351488	67	4507
2026-01-07 23:40:03.35	110.94	47.39	-51.2	-52.7	14.1	0.00e+00	0	25	0	1327497216	67	4586
2026-01-07 23:40:04.36	111.52	47.34	-51.2	-52.8	14.1	0.00e+00	0	25	0	1330642944	67	4614
2026-01-07 23:40:05.36	112.10	47.28	-51.6	-53.3	14.0	0.00e+00	0	25	0	1333788672	68	4618
2026-01-07 23:40:06.36	112.67	47.21	-51.6	-53.3	14.1	0.00e+00	0	25	0	1336934400	68	4618
2026-01-07 23:40:07.36	113.24	47.15	-51.4	-53.0	14.2	0.00e+00	0	25	0	1340080128	68	4489
2026-01-07 23:40:08.35	113.80	47.08	-51.0	-52.5	14.4	0.00e+00	0	25	0	1343225856	68	4225
2026-01-07 23:40:09.34	114.35	47.01	-51.0	-52.5	14.5	0.00e+00	0	25	0	1346371584	68	4199
2026-01-07 23:40:10.34	114.91	46.93	-51.2	-52.7	14.3	0.00e+00	0	25	0	1349517312	68	4317
2026-01-07 23:40:11.33	115.47	46.86	-51.5	-53.1	14.1	0.00e+00	0	25	0	1352663040	68	4507
2026-01-07 23:40:12.32	116.02	46.78	-51.5	-53.1	14.1	0.00e+00	0	25	0	1355808768	68	4528
2026-01-07 23:40:13.31	116.56	46.70	-51.9	-53.6	14.0	0.00e+00	0	25	0	1358954496	69	4520
2026-01-07 23:40:14.31	117.11	46.61	-51.6	-53.3	14.1	0.00e+00	0	25	0	1362100224	69	4358
2026-01-07 23:40:15.31	117.66	46.52	-51.1	-52.5	14.4	0.00e+00	0	25	0	1365245952	68	4240
2026-01-07 23:40:16.31	118.20	46.43	-50.9	-52.3	14.5	0.00e+00	0	25	0	1368391680	68	4133
2026-01-07 23:40:17.30	118.74	46.34	-50.9	-52.3	14.6	0.00e+00	0	25	0	1371537408	68	4119
2026-01-07 23:40:18.30	119.28	46.25	-50.9	-52.4	14.5	0.00e+00	0	25	0	1374683136	68	4164
2026-01-07 23:40:19.30	119.81	46.15	-51.2	-52.7	14.3	0.00e+00	0	25	0	1376780288	68	4324
2026-01-07 23:40:20.29	120.33	46.05	-51.3	-52.9	14.2	0.00e+00	0	25	0	1379926016	68	4399
2026-01-07 23:40:21.28	120.86	45.95	-51.6	-53.2	14.1	0.00e+00	0	25	0	1383071744	68	4554
2026-01-07 23:40:22.28	121.38	45.84	-51.2	-52.7	14.3	0.00e+00	0	25	0	1386217472	68	4312
2026-01-07 23:40:23.27	121.90	45.74	-51.0	-52.5	14.5	0.00e+00	0	25	0	1389363200	68	4194
2026-01-07 23:40:24.27	122.41	45.63	-50.1	-51.5	14.7	0.00e+00	0	25	0	1392508928	66	4196
2026-01-07 23:40:25.27	122.93	45.51	-49.8	-51.1	14.8	0.00e+00	0	25	0	1395654656	66	4023
2026-01-07 23:40:26.27	123.44	45.40	-49.9	-51.3	14.7	0.00e+00	0	25	0	1398800384	66	4106
2026-01-07 23:40:27.28	123.95	45.28	-50.1	-51.4	14.6	0.00e+00	0	25	0	1401946112	66	4189
2026-01-07 23:40:28.28	124.45	45.17	-50.3	-51.7	14.5	0.00e+00	0	25	0	1405091840	66	4300
2026-01-07 23:40:29.28	124.95	45.05	-50.2	-51.6	14.5	0.00e+00	0	25	0	1408237568	66	4280
2026-01-07 23:40:30.28	125.44	44.92	-50.0	-51.3	14.7	0.00e+00	0	25	0	1411383296	66	4135
2026-01-07 23:40:31.28	125.94	44.80	-49.9	-51.2	14.7	0.00e+00	0	25	0	1414529024	66	4093
2026-01-07 23:40:32.27	126.42	44.68	-50.2	-51.5	14.6	0.00e+00	0	25	0	1417674752	66	4225
2026-01-07 23:40:33.27	126.90	44.55	-50.4	-51.8	14.5	0.00e+00	0	25	0	1420820480	66	4365
2026-01-07 23:40:34.27	127.38	44.42	-50.4	-51.8	14.4	0.00e+00	0	25	0	1423966208	66	4391
2026-01-07 23:40:35.27	127.86	44.29	-50.3	-51.7	14.5	0.00e+00	0	25	0	1427111936	66	4328
2026-01-07 23:40:36.27	128.33	44.15	-50.5	-51.9	14.4	0.00e+00	0	25	0	1430257664	66	4427
2026-01-07 23:40:37.27	128.80	44.02	-50.6	-52.0	14.3	0.00e+00	0	25	0	1433403392	66	4488
2026-01-07 23:40:38.28	129.27	43.88	-50.6	-52.0	14.3	0.00e+00	0	25	0	1436549120	66	4486
2026-01-07 23:40:39.28	129.73	43.75	-50.7	-52.1	14.3	0.00e+00	0	25	0	1439694848	66	4516
2026-01-07 23:40:40.28	130.19	43.61	-50.8	-52.3	14.2	0.00e+00	0	25	0	1442840576	66	4612
2026-01-07 23:40:41.27	130.63	43.47	-50.9	-52.4	14.3	0.00e+00	0	25	0	1445986304	67	4431
2026-01-07 23:40:42.27	131.08	43.33	-51.1	-52.6	14.1	0.00e+00	0	25	0	1449132032	67	4540
2026-01-07 23:40:43.27	131.53	43.18	-51.6	-53.2	14.0	0.00e+00	0	25	0	1452277760	68	4594
2026-01-07 23:40:44.26	131.96	43.04	-51.7	-53.3	14.0	0.00e+00	0	25	0	1455423488	68	4632
2026-01-07 23:40:45.26	132.40	42.89	-51.6	-53.2	14.0	0.00e+00	0	25	0	1458569216	68	4580
2026-01-07 23:40:46.26	132.83	42.75	-51.6	-53.2	14.0	0.00e+00	0	25	0	1461714944	68	4573
2026-01-07 23:40:47.26	133.26	42.60	-51.6	-53.2	14.1	0.00e+00	0	25	0	1464860672	68	4572
2026-01-07 23:40:48.26	133.69	42.45	-51.5	-53.1	14.1	0.00e+00	0	25	0	1468006400	68	4508
2026-01-07 23:40:49.26	134.11	42.30	-51.4	-53.0	14.2	0.00e+00	0	25	0	1471152128	68	4455
2026-01-07 23:40:50.26	134.53	42.15	-51.3	-52.8	14.2	0.00e+00	0	25	0	1474297856	68	4364
2026-01-07 23:40:51.26	134.94	41.99	-51.2	-52.7	14.3	0.00e+00	0	25	0	1477443584	68	4332
2026-01-07 23:40:52.26	135.35	41.84	-51.2	-52.8	14.3	0.00e+00	0	25	0	1480589312	68	4345
2026-01-07 23:40:53.26	135.76	41.69	-51.2	-52.8	14.2	0.00e+00	0	25	0	1483735040	68	4359
2026-01-07 23:40:54.26	136.16	41.53	-50.9	-52.4	14.5	0.00e+00	0	25	0	1486880768	68	4159
2026-01-07 23:40:55.25	136.55	41.37	-50.8	-52.2	14.5	0.00e+00	0	25	0	1490026496	68	4092
2026-01-07 23:40:56.25	136.95	41.22	-50.8	-52.2	14.5	0.00e+00	0	25	0	1493172224	68	4097
2026-01-07 23:40:57.25	137.34	41.06	-50.4	-51.8	14.6	0.00e+00	0	25	0	1496317952	67	4131
2026-01-07 23:40:58.25	137.73	40.90	-50.1	-51.5	14.6	0.00e+00	0	25	0	1499463680	66	4225
2026-01-07 23:40:59.26	138.11	40.74	-50.4	-51.8	14.5	0.00e+00	0	25	0	1502609408	66	4350
2026-01-07 23:41:00.26	138.49	40.58	-50.5	-51.9	14.4	0.00e+00	0	25	0	1505755136	66	4405
2026-01-07 23:41:01.26	138.87	40.42	-50.4	-51.8	14.4	0.00e+00	0	25	0	1508900864	66	4350
2026-01-07 23:41:02.27	139.25	40.26	-50.6	-52.0	14.3	0.00e+00	0	25	0	1512046592	66	4482
2026-01-07 23:41:03.26	139.61	40.10	-50.6	-52.1	14.3	0.00e+00	0	25	0	1515192320	66	4505
2026-01-07 23:41:04.26	139.98	39.93	-50.5	-52.0	14.4	0.00e+00	0	25	0	1518338048	66	4449
2026-01-07 23:41:05.26	140.34	39.77	-50.5	-51.9	14.4	0.00e+00	0	25	0	1521483776	66	4406
2026-01-07 23:41:06.26	140.70	39.61	-50.4	-51.8	14.4	0.00e+00	0	25	0	1524629504	66	4366
2026-01-07 23:41:07.26	141.05	39.44	-50.5	-52.0	14.4	0.00e+00	0	25	0	1527775232	66	4454
2026-01-07 23:41:08.26	141.40	39.28	-50.7	-52.1	14.3	0.00e+00	0	25	0	1530920960	66	4526
2026-01-07 23:41:09.25	141.74	39.12	-51.0	-52.6	14.2	0.00e+00	0	25	0	1533018112	67	4507
2026-01-07 23:41:10.25	142.09	38.95	-51.2	-52.8	14.1	0.00e+00	0	25	0	1536163840	67	4614
2026-01-07 23:41:11.25	142.43	38.79	-51.2	-52.8	14.1	0.00e+00	0	25	0	1539309568	67	4630
2026-01-07 23:41:12.24	142.76	38.62	-50.8	-52.3	14.4	0.00e+00	0	25	0	1542455296	67	4342
2026-01-07 23:41:13.24	143.10	38.46	-50.4	-51.8	14.6	0.00e+00	0	25	0	1545601024	67	4123
2026-01-07 23:41:14.24	143.43	38.29	-49.9	-51.2	14.7	0.00e+00	0	25	0	1548746752	66	4085
2026-01-07 23:41:15.25	143.76	38.12	-49.5	-50.7	14.8	0.00e+00	0	25	0	1551892480	65	4086
2026-01-07 23:41:16.25	144.08	37.95	-49.6	-50.9	14.7	0.00e+00	0	25	0	1555038208	65	4156
2026-01-07 23:41:17.24	144.40	37.79	-49.6	-51.0	14.7	0.00e+00	0	25	0	1558183936	65	4196
2026-01-07 23:41:18.24	144.72	37.62	-49.7	-51.0	14.7	0.00e+00	0	25	0	1561329664	65	4216
2026-01-07 23:41:19.24	145.03	37.46	-49.6	-50.9	14.7	0.00e+00	0	25	0	1564475392	65	4167
2026-01-07 23:41:20.24	145.34	37.29	-49.6	-51.0	14.7	0.00e+00	0	25	0	1567621120	65	4196
2026-01-07 23:41:21.24	145.65	37.12	-49.6	-50.9	14.7	0.00e+00	0	25	0	1570766848	65	4192
2026-01-07 23:41:22.24	145.96	36.95	-49.5	-50.9	14.7	0.00e+00	0	25	0	1573912576	65	4152
2026-01-07 23:41:23.23	146.25	36.79	-49.5	-50.8	14.8	0.00e+00	0	25	0	1577058304	65	4138
2026-01-07 23:41:24.24	146.56	36.62	-49.4	-50.7	14.8	0.00e+00	0	25	0	1580204032	65	4098
2026-01-07 23:41:25.23	146.85	36.45	-49.5	-50.8	14.8	0.00e+00	0	25	0	1583349760	65	4110
2026-01-07 23:41:26.23	147.14	36.29	-49.5	-50.8	14.8	0.00e+00	0	25	0	1586495488	65	4110
2026-01-07 23:41:27.23	147.43	36.12	-49.4	-50.7	14.8	0.00e+00	0	25	0	1589641216	65	4054
2026-01-07 23:41:28.22	147.72	35.95	-49.3	-50.6	14.9	0.00e+00	0	25	0	1592786944	65	4014
2026-01-07 23:41:29.22	148.00	35.79	-49.5	-50.8	14.8	0.00e+00	0	25	0	1595932672	65	4106
2026-01-07 23:41:30.22	148.28	35.62	-49.5	-50.8	14.8	0.00e+00	0	25	0	1599078400	65	4138
2026-01-07 23:41:31.22	148.56	35.45	-49.6	-50.9	14.7	0.00e+00	0	25	0	1602224128	65	4186
2026-01-07 23:41:32.22	148.84	35.29	-49.9	-51.3	14.6	0.00e+00	0	25	0	1605369856	65	4360
2026-01-07 23:41:33.21	149.11	35.12	-50.0	-51.5	14.5	0.00e+00	0	25	0	1608515584	65	4446
2026-01-07 23:41:34.20	149.38	34.96	-50.1	-51.5	14.5	0.00e+00	0	25	0	1611661312	65	4474
2026-01-07 23:41:35.20	149.64	34.79	-50.1	-51.5	14.4	0.00e+00	0	25	0	1614807040	65	4480
2026-01-07 23:41:36.20	149.91	34.62	-50.0	-51.3	14.5	0.00e+00	0	25	0	1617952768	65	4388
2026-01-07 23:41:37.20	150.17	34.46	-49.8	-51.2	14.6	0.00e+00	0	25	0	1621098496	65	4301
2026-01-07 23:41:38.20	150.43	34.29	-49.6	-50.9	14.7	0.00e+00	0	25	0	1624244224	65	4182
2026-01-07 23:41:39.20	150.69	34.13	-49.6	-51.0	14.7	0.00e+00	0	25	0	1627389952	65	4216
2026-01-07 23:41:40.20	150.94	33.96	-49.7	-51.1	14.6	0.00e+00	0	25	0	1630535680	65	4245
2026-01-07 23:41:41.20	151.19	33.80	-49.8	-51.1	14.6	0.00e+00	0	25	0	1633681408	65	4283
2026-01-07 23:41:42.19	151.44	33.64	-49.8	-51.2	14.6	0.00e+00	0	25	0	1636827136	65	4300
2026-01-07 23:41:43.19	151.69	33.47	-49.8	-51.2	14.6	0.00e+00	0	25	0	1639972864	65	4306
2026-01-07 23:41:44.19	151.93	33.31	-49.7	-51.1	14.6	0.00e+00	0	25	0	1643118592	65	4265
2026-01-07 23:41:45.19	152.18	33.14	-49.7	-51.0	14.7	0.00e+00	0	25	0	1645215744	65	4241
2026-01-07 23:41:46.19	152.42	32.98	-49.5	-50.8	14.8	0.00e+00	0	25	0	1648361472	65	4121
2026-01-07 23:41:47.19	152.65	32.82	-49.4	-50.8	14.8	0.00e+00	0	25	0	1651507200	65	4099
2026-01-07 23:41:48.19	152.89	32.66	-49.3	-50.6	14.8	0.00e+00	0	25	0	1654652928	65	4045
2026-01-07 23:41:49.19	153.12	32.49	-49.3	-50.6	14.8	0.00e+00	0	25	0	1657798656	65	4040
2026-01-07 23:41:50.17	153.35	32.33	-49.3	-50.6	14.8	0.00e+00	0	25	0	1660944384	65	4035
2026-01-07 23:41:51.17	153.58	32.17	-49.3	-50.6	14.8	0.00e+00	0	25	0	1664090112	65	4009
2026-01-07 23:41:52.17	153.81	32.01	-49.0	-50.3	14.8	0.00e+00	0	25	0	1667235840	64	4118
2026-01-07 23:41:53.17	154.03	31.85	-49.1	-50.4	14.8	0.00e+00	0	25	0	1670381568	64	4156
2026-01-07 23:41:54.17	154.25	31.69	-48.8	-50.1	14.9	0.00e+00	0	25	0	1673527296	64	4020
2026-01-07 23:41:55.17	154.47	31.53	-48.8	-50.0	15.0	0.00e+00	0	25	0	1676673024	64	3981
2026-01-07 23:41:56.17	154.69	31.37	-48.9	-50.2	14.9	0.00e+00	0	25	0	1679818752	64	4061
2026-01-07 23:41:57.17	154.91	31.21	-48.9	-50.2	14.9	0.00e+00	0	25	0	1682964480	64	4062
2026-01-07 23:41:58.17	155.12	31.06	-48.9	-50.2	14.9	0.00e+00	0	25	0	1686110208	64	4059
2026-01-07 23:41:59.16	155.33	30.90	-49.0	-50.3	14.8	0.00e+00	0	25	0	1689255936	64	4135
2026-01-07 23:42:00.16	155.54	30.74	-49.0	-50.3	14.8	0.00e+00	0	25	0	1692401664	64	4122
2026-01-07 23:42:01.16	155.75	30.58	-49.1	-50.4	14.8	0.00e+00	0	25	0	1695547392	64	4177
2026-01-07 23:42:02.16	155.95	30.43	-48.8	-50.0	15.0	0.00e+00	0	25	0	1698693120	64	3970
2026-01-07 23:42:03.16	156.16	30.27	-48.8	-50.1	14.9	0.00e+00	0	25	0	1701838848	64	4010
2026-01-07 23:42:04.16	156.36	30.11	-48.5	-49.6	15.0	0.00e+00	0	25	0	1704984576	63	4047
2026-01-07 23:42:05.16	156.56	29.96	-48.4	-49.6	15.0	0.00e+00	0	25	0	1708130304	63	4032
2026-01-07 23:42:06.16	156.76	29.80	-48.3	-49.5	15.0	0.00e+00	0	25	0	1711276032	63	3969
2026-01-07 23:42:07.17	156.96	29.65	-48.2	-49.4	14.9	0.00e+00	0	25	0	1714421760	62	4156
2026-01-07 23:42:08.17	157.15	29.49	-48.2	-49.4	14.9	0.00e+00	0	25	0	1717567488	62	4177
2026-01-07 23:42:09.17	157.34	29.34	-48.3	-49.4	14.9	0.00e+00	0	25	0	1720713216	62	4193
2026-01-07 23:42:10.16	157.53	29.19	-48.3	-49.5	14.9	0.00e+00	0	25	0	1723858944	62	4229
2026-01-07 23:42:11.16	157.72	29.04	-48.3	-49.6	14.9	0.00e+00	0	25	0	1727004672	62	4246
2026-01-07 23:42:12.15	157.91	28.89	-48.4	-49.6	14.8	0.00e+00	0	25	0	1730150400	62	4290
2026-01-07 23:42:13.15	158.09	28.74	-48.4	-49.6	14.8	0.00e+00	0	25	0	1733296128	62	4256
2026-01-07 23:42:14.15	158.28	28.58	-48.2	-49.4	14.9	0.00e+00	0	25	0	1736441856	62	4186
2026-01-07 23:42:15.14	158.46	28.44	-48.2	-49.4	14.9	0.00e+00	0	25	0	1739587584	62	4176
2026-01-07 23:42:16.14	158.64	28.29	-48.1	-49.3	15.0	0.00e+00	0	25	0	1742733312	62	4131
2026-01-07 23:42:17.13	158.82	28.14	-48.2	-49.4	15.0	0.00e+00	0	25	0	1745879040	62	4146
2026-01-07 23:42:18.13	158.99	27.99	-48.3	-49.5	14.9	0.00e+00	0	25	0	1749024768	62	4218
2026-01-07 23:42:19.12	159.17	27.84	-48.4	-49.6	14.8	0.00e+00	0	25	0	1752170496	62	4291
2026-01-07 23:42:20.12	159.34	27.69	-48.5	-49.7	14.8	0.00e+00	0	25	0	1755316224	62	4321
2026-01-07 23:42:21.12	159.51	27.55	-48.6	-49.8	14.8	0.00e+00	0	25	0	1758461952	62	4382
2026-01-07 23:42:22.11	159.68	27.40	-48.6	-49.8	14.8	0.00e+00	0	25	0	1761607680	62	4387
2026-01-07 23:42:23.10	159.85	27.26	-48.5	-49.7	14.8	0.00e+00	0	25	0	1763704832	62	4335
2026-01-07 23:42:24.09	160.02	27.11	-48.4	-49.6	14.9	0.00e+00	0	25	0	1766850560	62	4250
2026-01-07 23:42:25.08	160.18	26.97	-48.2	-49.4	14.9	0.00e+00	0	25	0	1769996288	62	4174
2026-01-07 23:42:26.07	160.35	26.82	-48.2	-49.4	14.9	0.00e+00	0	25	0	1773142016	62	4175
2026-01-07 23:42:27.07	160.51	26.68	-48.1	-49.3	15.0	0.00e+00	0	25	0	1776287744	62	4103
2026-01-07 23:42:28.06	160.67	26.54	-48.1	-49.3	15.0	0.00e+00	0	25	0	1779433472	62	4100
2026-01-07 23:42:29.06	160.83	26.39	-47.9	-49.0	15.1	0.00e+00	0	25	0	1782579200	62	4002
2026-01-07 23:42:30.06	160.99	26.25	-47.8	-49.0	15.1	0.00e+00	0	25	0	1785724928	62	3988
2026-01-07 23:42:31.06	161.15	26.11	-47.9	-49.1	15.1	0.00e+00	0	25	0	1788870656	62	4015
2026-01-07 23:42:32.06	161.31	25.97	-47.9	-49.1	15.1	0.00e+00	0	25	0	1792016384	62	4029
2026-01-07 23:42:33.06	161.47	25.83	-47.9	-49.1	15.0	0.00e+00	0	25	0	1795162112	62	4030
2026-01-07 23:42:34.06	161.62	25.69	-47.9	-49.0	15.1	0.00e+00	0	25	0	1798307840	62	4001
2026-01-07 23:42:35.06	161.77	25.55	-47.9	-49.0	15.1	0.00e+00	0	25	0	1801453568	62	3988
2026-01-07 23:42:36.06	161.92	25.41	-47.9	-49.1	15.1	0.00e+00	0	25	0	1804599296	62	4014
2026-01-07 23:42:37.05	162.07	25.27	-48.0	-49.2	15.0	0.00e+00	0	25	0	1807745024	62	4062
2026-01-07 23:42:38.05	162.22	25.13	-47.9	-49.1	15.0	0.00e+00	0	25	0	1810890752	62	4028
2026-01-07 23:42:39.05	162.37	24.99	-47.8	-49.0	15.1	0.00e+00	0	25	0	1814036480	62	3972
2026-01-07 23:42:40.05	162.52	24.86	-47.6	-48.8	15.0	0.00e+00	0	25	0	1817182208	61	4113
2026-01-07 23:42:41.04	162.66	24.72	-47.6	-48.8	15.0	0.00e+00	0	25	0	1820327936	61	4107
2026-01-07 23:42:42.04	162.80	24.58	-47.6	-48.8	15.0	0.00e+00	0	25	0	1823473664	61	4117
2026-01-07 23:42:43.04	162.95	24.45	-47.7	-48.9	15.0	0.00e+00	0	25	0	1826619392	61	4155
2026-01-07 23:42:44.04	163.09	24.31	-47.8	-49.0	15.0	0.00e+00	0	25	0	1829765120	61	4204
2026-01-07 23:42:45.03	163.23	24.18	-47.8	-49.0	15.0	0.00e+00	0	25	0	1832910848	61	4206
2026-01-07 23:42:46.03	163.37	24.04	-47.9	-49.1	14.9	0.00e+00	0	25	0	1836056576	61	4275
2026-01-07 23:42:47.02	163.51	23.91	-48.0	-49.2	14.9	0.00e+00	0	25	0	1839202304	61	4308
2026-01-07 23:42:48.02	163.64	23.78	-48.1	-49.3	14.9	0.00e+00	0	25	0	1842348032	61	4346
2026-01-07 23:42:49.02	163.78	23.65	-48.1	-49.3	14.9	0.00e+00	0	25	0	1845493760	61	4390
2026-01-07 23:42:50.01	163.91	23.51	-48.2	-49.4	14.8	0.00e+00	0	25	0	1848639488	61	4396
2026-01-07 23:42:51.01	164.05	23.38	-48.2	-49.4	14.8	0.00e+00	0	25	0	1851785216	61	4417
2026-01-07 23:42:52.02	164.18	23.25	-48.3	-49.5	14.8	0.00e+00	0	25	0	1854930944	61	4457
2026-01-07 23:42:53.02	164.31	23.12	-48.4	-49.7	14.7	0.00e+00	0	25	0	1858076672	61	4552
2026-01-07 23:42:54.02	164.44	22.99	-48.5	-49.8	14.8	0.00e+00	0	25	0	1861222400	62	4354
2026-01-07 23:42:55.02	164.57	22.86	-48.7	-50.0	14.7	0.00e+00	0	25	0	1864368128	62	4459
2026-01-07 23:42:56.02	164.70	22.73	-48.7	-50.0	14.7	0.00e+00	0	25	0	1867513856	62	4486
2026-01-07 23:42:57.02	164.83	22.60	-48.8	-50.1	14.6	0.00e+00	0	25	0	1870659584	62	4542
2026-01-07 23:42:58.02	164.96	22.47	-49.0	-50.3	14.7	0.00e+00	0	25	0	1873805312	63	4372
2026-01-07 23:42:59.02	165.08	22.35	-49.0	-50.4	14.6	0.00e+00	0	25	0	1876951040	63	4399
2026-01-07 23:43:00.03	165.21	22.22	-49.1	-50.4	14.6	0.00e+00	0	25	0	1880096768	63	4416
2026-01-07 23:43:01.03	165.33	22.09	-49.1	-50.4	14.7	0.00e+00	0	25	0	1883242496	63	4415
2026-01-07 23:43:02.03	165.45	21.96	-48.9	-50.2	14.7	0.00e+00	0	25	0	1886388224	63	4332
2026-01-07 23:43:03.02	165.57	21.84	-48.9	-50.1	14.7	0.00e+00	0	25	0	1888485376	63	4288
2026-01-07 23:43:04.02	165.69	21.72	-48.8	-50.1	14.8	0.00e+00	0	25	0	1891631104	63	4283
2026-01-07 23:43:05.03	165.82	21.59	-48.6	-49.8	14.9	0.00e+00	0	25	0	1894776832	63	4144
2026-01-07 23:43:06.02	165.93	21.47	-48.6	-49.8	14.9	0.00e+00	0	25	0	1897922560	63	4126
2026-01-07 23:43:07.02	166.05	21.34	-48.6	-49.8	14.9	0.00e+00	0	25	0	1901068288	63	4125
2026-01-07 23:43:08.02	166.17	21.22	-48.6	-49.9	14.9	0.00e+00	0	25	0	1904214016	63	4146
2026-01-07 23:43:09.02	166.28	21.10	-48.4	-49.6	14.9	0.00e+00	0	25	0	1907359744	63	4045
2026-01-07 23:43:10.00	166.40	20.98	-48.3	-49.5	15.0	0.00e+00	0	25	0	1910505472	63	3989
2026-01-07 23:43:11.00	166.51	20.86	-48.3	-49.5	15.0	0.00e+00	0	25	0	1913651200	63	4001
2026-01-07 23:43:11.99	166.62	20.74	-48.3	-49.6	15.0	0.00e+00	0	25	0	1916796928	63	4010
2026-01-07 23:43:12.99	166.74	20.61	-48.4	-49.6	15.0	0.00e+00	0	25	0	1919942656	63	4026
2026-01-07 23:43:13.99	166.85	20.49	-48.2	-49.4	15.0	0.00e+00	0	25	0	1923088384	63	3952
2026-01-07 23:43:14.99	166.96	20.37	-48.3	-49.5	15.0	0.00e+00	0	25	0	1926234112	63	3968
2026-01-07 23:43:15.98	167.07	20.26	-48.2	-49.4	14.9	0.00e+00	0	25	0	1929379840	62	4151
2026-01-07 23:43:16.98	167.18	20.14	-48.2	-49.5	14.9	0.00e+00	0	25	0	1932525568	62	4195
2026-01-07 23:43:17.98	167.29	20.02	-48.2	-49.4	14.9	0.00e+00	0	25	0	1935671296	62	4180
2026-01-07 23:43:18.97	167.39	19.90	-48.2	-49.4	14.9	0.00e+00	0	25	0	1938817024	62	4178
2026-01-07 23:43:19.98	167.50	19.78	-48.2	-49.4	14.9	0.00e+00	0	25	0	1941962752	62	4193
2026-01-07 23:43:20.97	167.61	19.67	-48.3	-49.6	14.8	0.00e+00	0	25	0	1945108480	62	4248
2026-01-07 23:43:21.96	167.71	19.55	-48.3	-49.6	14.9	0.00e+00	0	25	0	1948254208	62	4258
2026-01-07 23:43:22.96	167.82	19.44	-48.4	-49.6	14.8	0.00e+00	0	25	0	1951399936	62	4280
2026-01-07 23:43:23.95	167.92	19.32	-48.4	-49.7	14.8	0.00e+00	0	25	0	1954545664	62	4299
2026-01-07 23:43:24.95	168.02	19.21	-48.5	-49.7	14.8	0.00e+00	0	25	0	1957691392	62	4333
2026-01-07 23:43:25.93	168.12	19.09	-48.5	-49.8	14.8	0.00e+00	0	25	0	1960837120	62	4365
2026-01-07 23:43:26.93	168.23	18.98	-48.7	-50.0	14.7	0.00e+00	0	25	0	1963982848	62	4452
2026-01-07 23:43:27.92	168.33	18.87	-48.7	-50.0	14.7	0.00e+00	0	25	0	1967128576	62	4447
2026-01-07 23:43:28.92	168.43	18.75	-48.7	-50.0	14.7	0.00e+00	0	25	0	1970274304	62	4453
2026-01-07 23:43:29.91	168.52	18.64	-48.8	-50.1	14.7	0.00e+00	0	25	0	1973420032	62	4519
2026-01-07 23:43:30.91	168.62	18.53	-48.8	-50.1	14.7	0.00e+00	0	25	0	1976565760	62	4519
2026-01-07 23:43:31.91	168.72	18.41	-48.8	-50.1	14.6	0.00e+00	0	25	0	1979711488	62	4519
2026-01-07 23:43:32.90	168.82	18.30	-48.7	-49.9	14.7	0.00e+00	0	25	0	1982857216	62	4437
2026-01-07 23:43:33.90	168.92	18.19	-48.5	-49.8	14.7	0.00e+00	0	25	0	1984954368	62	4365
2026-01-07 23:43:34.90	169.01	18.08	-48.5	-49.8	14.7	0.00e+00	0	25	0	1988100096	62	4359
2026-01-07 23:43:35.90	169.11	17.97	-48.5	-49.8	14.7	0.00e+00	0	25	0	1991245824	62	4368
2026-01-07 23:43:36.89	169.20	17.86	-48.5	-49.7	14.8	0.00e+00	0	25	0	1994391552	62	4329
2026-01-07 23:43:37.89	169.29	17.75	-48.5	-49.7	14.8	0.00e+00	0	25	0	1997537280	62	4328
2026-01-07 23:43:38.89	169.39	17.64	-48.5	-49.8	14.7	0.00e+00	0	25	0	2000683008	62	4366
2026-01-07 23:43:39.89	169.48	17.53	-48.5	-49.8	14.8	0.00e+00	0	25	0	2003828736	62	4346
2026-01-07 23:43:40.89	169.57	17.43	-48.5	-49.7	14.7	0.00e+00	0	25	0	2006974464	62	4333
2026-01-07 23:43:41.89	169.67	17.32	-48.4	-49.6	14.8	0.00e+00	0	25	0	2010120192	62	4271
2026-01-07 23:43:42.88	169.76	17.21	-48.4	-49.6	14.8	0.00e+00	0	25	0	2013265920	62	4279
2026-01-07 23:43:43.88	169.85	17.10	-48.4	-49.6	14.8	0.00e+00	0	25	0	2016411648	62	4262
2026-01-07 23:43:44.88	169.94	17.00	-48.4	-49.6	14.8	0.00e+00	0	25	0	2019557376	62	4285
2026-01-07 23:43:45.88	170.03	16.89	-48.4	-49.6	14.8	0.00e+00	0	25	0	2022703104	62	4284
2026-01-07 23:43:46.88	170.11	16.78	-48.4	-49.6	14.8	0.00e+00	0	25	0	2025848832	62	4282
2026-01-07 23:43:47.88	170.20	16.68	-48.2	-49.5	14.9	0.00e+00	0	25	0	2028994560	62	4208
2026-01-07 23:43:48.88	170.29	16.57	-48.3	-49.6	14.8	0.00e+00	0	25	0	2032140288	62	4251
2026-01-07 23:43:49.88	170.38	16.47	-48.2	-49.4	14.9	0.00e+00	0	25	0	2035286016	62	4150
2026-01-07 23:43:50.88	170.46	16.36	-48.2	-49.5	14.9	0.00e+00	0	25	0	2038431744	62	4194
2026-01-07 23:43:51.87	170.55	16.26	-48.4	-49.6	14.8	0.00e+00	0	25	0	2041577472	62	4265
2026-01-07 23:43:52.88	170.63	16.16	-48.4	-49.6	14.8	0.00e+00	0	25	0	2044723200	62	4263
2026-01-07 23:43:53.87	170.72	16.05	-48.4	-49.6	14.8	0.00e+00	0	25	0	2047868928	62	4290
2026-01-07 23:43:54.88	170.80	15.95	-48.4	-49.6	14.8	0.00e+00	0	25	0	2051014656	62	4267
2026-01-07 23:43:55.87	170.88	15.85	-48.5	-49.7	14.8	0.00e+00	0	25	0	2054160384	62	4323
2026-01-07 23:43:56.86	170.97	15.75	-48.5	-49.8	14.7	0.00e+00	0	25	0	2057306112	62	4347
2026-01-07 23:43:57.87	171.05	15.64	-48.6	-49.9	14.7	0.00e+00	0	25	0	2060451840	62	4401
2026-01-07 23:43:58.87	171.13	15.54	-48.7	-50.0	14.7	0.00e+00	0	25	0	2063597568	62	4450
2026-01-07 23:43:59.87	171.21	15.44	-48.8	-50.1	14.6	0.00e+00	0	25	0	2066743296	62	4498
2026-01-07 23:44:00.87	171.29	15.34	-48.8	-50.1	14.6	0.00e+00	0	25	0	2069889024	62	4528
2026-01-07 23:44:01.87	171.37	15.24	-48.8	-50.1	14.6	0.00e+00	0	25	0	2073034752	62	4542
2026-01-07 23:44:02.87	171.45	15.14	-48.8	-50.1	14.6	0.00e+00	0	25	0	2076180480	62	4543
2026-01-07 23:44:03.87	171.53	15.04	-48.9	-50.2	14.6	0.00e+00	0	25	0	2079326208	62	4593
2026-01-07 23:44:04.87	171.61	14.94	-49.0	-50.3	14.6	0.00e+00	0	25	0	2082471936	63	4356
